0.37724912,-1.5728246,0.38546553,-0.41081265,-0.78842831,-0.45783591,0
2.1311965,-1.2728553,2.5273366,0.48324725,-0.61412549,0.62395668,0
-1.6808102,2.4069035,-2.0547206,-0.48324725,0.61412549,-0.62395668,0
-0.011003181,0.15411061,-1.2164272,0.32526994,-0.53574139,-0.77921796,0
-0.1974605,1.1515758,0.45960084,0.071671247,0.73805779,0.67092013,0
2.064441,-2.3740237,1.4587425,0.48324725,-0.61412549,0.62395668,0
-0.064533278,-0.38054579,1.1550941,-0.69200188,0.16863278,0.70192331,0
-1.3074156,2.7793612,-1.3975251,0.1194244,0.75227779,0.64793193,0
2.2209065,-1.4592456,1.245476,0.84812546,0.15161401,-0.50763822,0
1.1345474,-2.4352856,2.1098657,0.48324725,-0.61412549,0.62395668,0
0.68730694,-0.30407399,-0.68592668,0.54890013,-0.34269333,-0.76241058,0
2.199652,-2.4584646,1.4733512,0.48324725,-0.61412549,0.62395668,0
0.19965304,-1.5194612,1.5023907,-0.86970639,-0.41848925,0.26168209,0
0.048018783,-0.72474623,1.6593181,-0.58078682,0.30841649,0.75336969,0
1.0807127,-0.52754641,-0.500727,0.68385571,-0.18021232,-0.70701122,0
1.167356,-1.4394717,2.6603274,-0.45275062,0.43469542,0.77849638,0
-0.88481277,2.3185828,-1.1702158,0.29024711,0.7847752,0.54761702,0
-1.7901707,2.2383561,-1.7152984,-0.48324725,0.61412549,-0.62395668,0
-1.0770595,1.9269353,-2.6640809,-0.48324725,0.61412549,-0.62395668,0
-1.8096899,1.7759902,-2.738615,-0.48324725,0.61412549,-0.62395668,0
0.78356731,0.59894818,0.024075195,0.69522625,0.702353,0.15284185,0
0.20084308,-1.6643772,2.1016479,-0.86721849,-0.23808143,0.43732059,0
-2.1229742,1.8377917,-2.1003096,-0.48324725,0.61412549,-0.62395668,0
0.27510875,-1.3439144,0.21631993,-0.19675341,-0.77065009,-0.60612422,0
-1.6033661,0.98420203,-2.1165395,-0.45563394,-0.78499335,-0.41974157,0
0.63013041,-1.9779706,2.0189977,-0.87467265,-0.30799431,0.37428239,0
1.2585216,-2.6510892,2.2253003,0.48324725,-0.61412549,0.62395668,0
-0.75925672,0.68506145,0.60157889,-0.44782573,0.43900681,0.77892554,0
-1.4208763,1.6151142,-2.7790487,-0.48324725,0.61412549,-0.62395668,0
0.95465529,-3.0457759,1.7475665,0.48324725,-0.61412549,0.62395668,0
0.19775578,-0.51743257,1.5895363,-0.48984343,0.40103608,0.7740953,0
1.4763891,-2.9110675,1.8727047,0.48324725,-0.61412549,0.62395668,0
2.2242405,-1.8160621,2.2877843,0.48324725,-0.61412549,0.62395668,0
-0.30112678,0.11903407,0.89464086,-0.4968949,0.39438969,0.77301502,0
0.20159715,-2.1344004,1.9325905,-0.85586965,-0.48140442,0.1890419,0
2.0758209,-1.5011955,2.6505344,0.48324725,-0.61412549,0.62395668,0
-1.1836462,0.99533242,-0.16704601,-0.71667451,0.13185185,0.68483043,0
1.9148387,-2.5423794,1.3778751,0.48324725,-0.61412549,0.62395668,0
1.6626643,-1.7794195,2.7942717,0.48324725,-0.61412549,0.62395668,0
-1.2354844,1.959191,-2.587872,-0.48324725,0.61412549,-0.62395668,0
-0.98644954,0.79885924,0.048452899,-0.63083369,0.24992868,0.73456419,0
-0.61605662,2.3923459,-2.6880467,0.87364066,0.2920464,-0.38917977,0
1.4478145,-2.0593538,2.6701097,0.48324725,-0.61412549,0.62395668,0
-1.6228528,1.7756699,-2.3726358,-0.48324725,0.61412549,-0.62395668,0
1.683238,-1.4641299,3.0829144,0.48324725,-0.61412549,0.62395668,0
-1.3650016,2.2645593,-2.4426446,-0.48324725,0.61412549,-0.62395668,0
-0.75437081,-0.75521046,-0.35231432,-0.59973472,-0.75142497,-0.2750977,0
1.5405931,-2.3295207,2.4193122,0.48324725,-0.61412549,0.62395668,0
0.67064399,-2.1786616,0.81702864,-0.31701061,-0.78708059,-0.52915812,0
0.39821476,-2.2635763,2.0085282,-0.87111598,-0.40839577,0.2727083,0
1.8207035,-0.79282475,2.0239584,0.44973192,0.78561062,0.42492017,0
-0.79523838,2.7232876,-2.307852,-0.48324725,0.61412549,-0.62395668,0
-1.2693267,0.18240869,-1.1760764,-0.59540355,-0.75304091,-0.28004259,0
-2.060935,1.7169271,-2.5763993,-0.48324725,0.61412549,-0.62395668,0
1.7030214,-1.4369364,2.7901666,0.48324725,-0.61412549,0.62395668,0
-0.35611251,-0.42462909,-0.99596548,0.03462708,-0.6987341,-0.71454287,0
-1.2208083,2.1128032,-2.3887553,-0.48324725,0.61412549,-0.62395668,0
2.4140623,-1.8901742,2.1449025,0.48324725,-0.61412549,0.62395668,0
-1.5120628,2.7187445,-1.9262047,-0.48324725,0.61412549,-0.62395668,0
-2.493387,1.382286,-2.1500406,-0.70423335,-0.69608849,-0.13970014,0
-0.47647554,-0.85358667,0.15779644,-0.70505881,-0.69549674,-0.13847837,0
1.2632706,-2.4928861,2.0088103,0.48324725,-0.61412549,0.62395668,0
-0.49245295,1.0945767,-2.4129488,0.57898092,-0.31041548,-0.7539385,0
2.2657859,-1.8991413,2.0315752,0.48324725,-0.61412549,0.62395668,0
-0.21796948,-0.60699064,-1.0095512,-0.084788054,-0.74217856,-0.66481721,0
2.037766,-1.5267786,2.2850201,0.48324725,-0.61412549,0.62395668,0
-2.0807891,1.8507235,-2.0891368,-0.48324725,0.61412549,-0.62395668,0
1.863642,-2.6602335,1.6631631,0.48324725,-0.61412549,0.62395668,0
-1.141788,2.9212847,-2.1027012,-0.48324725,0.61412549,-0.62395668,0
1.9798684,-1.6945441,2.3955376,0.48324725,-0.61412549,0.62395668,0
2.1265175,-2.5018985,1.4518833,0.58236444,-0.3066642,-0.75286686,0
-0.86548233,0.5956893,-2.125622,-0.071332514,-0.73794919,-0.6710757,0
1.7589763,-1.498565,0.42681277,0.64834559,-0.22789302,-0.7264384,0
-1.193307,2.5531678,-2.3624203,-0.48324725,0.61412549,-0.62395668,0
-1.9613856,1.9084998,-2.2438414,-0.48324725,0.61412549,-0.62395668,0
1.7060294,-2.4610996,2.0582144,0.48324725,-0.61412549,0.62395668,0
0.95058417,-1.7655578,0.26707596,0.15187612,-0.64308745,-0.75058115,0
0.94913286,-0.27614191,-0.17950702,0.80618739,0.034254625,-0.5906679,0
-0.80285484,2.5911949,-2.2595558,-0.48324725,0.61412549,-0.62395668,0
1.3038,-2.5833592,2.3773444,0.48324725,-0.61412549,0.62395668,0
-1.9180353,1.6152434,-2.6116331,-0.48324725,0.61412549,-0.62395668,0
-0.82639992,0.73324782,-2.1349611,0.21874286,-0.60539865,-0.76527381,0
2.2357204,-1.7301,2.3583355,0.48324725,-0.61412549,0.62395668,0
0.84362096,-2.1496611,2.6198781,-0.78597045,0.0096156523,0.61818922,0
-1.8321916,2.3530324,-1.9143921,-0.48324725,0.61412549,-0.62395668,0
-1.4382921,0.29663759,-1.7696128,-0.38281634,-0.78917927,-0.48025796,0
-0.95849949,3.0871534,-2.1465652,-0.48324725,0.61412549,-0.62395668,0
0.39191312,-0.98082459,1.8318696,-0.71929759,0.12777574,0.68285006,0
-1.0949199,-0.3639465,0.39858031,-0.87507546,-0.31705686,0.36567461,0
0.49877706,0.45360076,0.62779891,0.35511854,0.78893542,0.50146949,0
1.2535374,-0.50769997,2.044333,0.065118849,0.73593867,0.67390931,0
0.85061324,-2.343533,2.4022498,0.48324725,-0.61412549,0.62395668,0
-1.5447454,2.0139365,-2.7336698,-0.48324725,0.61412549,-0.62395668,0
-0.92312467,2.8065605,-1.9256952,0.76297855,0.64493448,0.043854639,0
2.3068793,-2.1405487,1.9157985,0.48324725,-0.61412549,0.62395668,0
-1.8848152,1.1856959,-1.008056,-0.86360794,-0.21739367,0.45488602,0
1.7671099,-1.6840433,2.3109951,0.48324725,-0.61412549,0.62395668,0
-1.7311087,2.8106391,-1.7597783,-0.48324725,0.61412549,-0.62395668,0
-1.4404093,2.9466074,-1.6258993,-0.48324725,0.61412549,-0.62395668,0
1.5776753,-2.0205889,2.155015,0.48324725,-0.61412549,0.62395668,0
1.9015522,-1.7640753,2.2797894,0.48324725,-0.61412549,0.62395668,0
0.042512327,1.2916521,-0.26853588,0.67987984,0.71226358,0.17448191,0
1.5895953,-2.1981978,2.1816123,0.48324725,-0.61412549,0.62395668,0
0.48550788,0.51688683,0.61630964,0.5047462,0.77776283,0.37458804,0
-1.4605777,0.73811507,-2.1775711,-0.28612322,-0.78434879,-0.5503912,0
-2.0298049,1.6789355,-2.3795185,-0.48324725,0.61412549,-0.62395668,0
-2.0426941,1.6490234,-2.6075387,-0.48324725,0.61412549,-0.62395668,0
-1.689597,1.0338036,-2.2528858,-0.50410503,-0.77788246,-0.37520248,0
-1.2859523,1.4199888,-2.649251,0.20023571,-0.61627775,-0.76164782,0
1.7490062,-2.4847388,1.5493598,0.48324725,-0.61412549,0.62395668,0
-2.2158446,1.9636391,-1.728961,-0.48324725,0.61412549,-0.62395668,0
1.1754507,-2.1196356,2.5406787,0.48324725,-0.61412549,0.62395668,0
-0.7625488,-0.61095351,-0.67238235,-0.53438509,-0.77144223,-0.34541205,0
-0.0027490109,-0.48175827,1.3850055,-0.65420711,0.22031163,0.72351623,0
-2.1111598,1.9953541,-1.9880718,-0.48324725,0.61412549,-0.62395668,0
2.3290257,-2.0218024,1.9311943,0.48324725,-0.61412549,0.62395668,0
-1.3818414,2.430881,-2.2351344,-0.48324725,0.61412549,-0.62395668,0
1.4569658,-2.5539238,2.1838386,0.48324725,-0.61412549,0.62395668,0
-0.48503697,0.095282912,-1.4842521,0.17467667,-0.63073552,-0.75608253,0
2.5276172,-1.5002476,1.871911,0.82524967,0.55747753,-0.090452574,0
-0.81503844,2.4903038,-2.7954566,-0.48324725,0.61412549,-0.62395668,0
-0.91617548,-0.13801286,0.33059552,-0.87085295,-0.26398239,0.41464254,0
0.11193794,-1.6612337,1.1878252,-0.82733822,-0.5534302,0.09605372,0
-0.18660146,0.21067074,0.98086095,-0.38785261,0.48877022,0.78145635,0
-1.1056241,1.2337152,0.16059154,-0.33574384,0.52820981,0.77991688,0
-1.829289,1.7662058,-2.2011454,-0.48324725,0.61412549,-0.62395668,0
-0.94208205,1.9011227,-0.29986888,-0.18077356,0.62734574,0.75746822,0
-0.38879284,1.2592006,0.15884265,0.048862725,0.73050773,0.68115401,0
0.62400508,-1.7287743,0.15041554,-0.07538262,-0.73924017,-0.66920948,0
0.26692212,-0.14925358,1.6496987,-0.31377178,0.54386276,0.77830613,0
1.6875079,-2.1137257,0.79878569,0.54137927,-0.35047752,-0.7642473,0
-1.3065808,1.9054487,-2.7362728,-0.48324725,0.61412549,-0.62395668,0
0.77269864,0.7153818,0.55414236,0.47044066,0.78321433,0.4065229,0
2.2547548,-1.653057,2.0929804,0.48324725,-0.61412549,0.62395668,0
1.4665916,-1.7608578,2.5504966,0.48324725,-0.61412549,0.62395668,0
0.1429714,-1.6392367,1.73518,-0.8749243,-0.36424515,0.31911278,0
-2.3586347,1.6105354,-2.0543938,-0.48324725,0.61412549,-0.62395668,0
-1.7754846,2.5393748,-1.8089859,-0.48324725,0.61412549,-0.62395668,0
-0.93952715,2.8637142,-1.8022528,-0.48324725,0.61412549,-0.62395668,0
1.8958439,-2.4192762,1.4515735,0.48324725,-0.61412549,0.62395668,0
-1.2543542,2.8944533,-2.0720391,-0.48324725,0.61412549,-0.62395668,0
-2.3656313,1.5899345,-2.4777772,-0.48324725,0.61412549,-0.62395668,0
-0.64367497,-0.41092405,0.79470187,-0.7810176,0.019620724,0.6242007,0
-2.5643027,2.0253873,-1.678036,-0.48324725,0.61412549,-0.62395668,0
2.1515005,-2.7793722,1.5251436,0.48324725,-0.61412549,0.62395668,0
1.906438,-2.4075265,1.6304047,0.48324725,-0.61412549,0.62395668,0
2.1638689,-1.8139616,2.2193816,0.48324725,-0.61412549,0.62395668,0
2.223803,-2.4006491,1.423743,0.48324725,-0.61412549,0.62395668,0
1.8919854,-1.4342507,2.7055118,0.48324725,-0.61412549,0.62395668,0
0.73526275,-1.4736159,2.3437183,-0.67882997,0.18722889,0.71002483,0
-1.6567088,2.4249113,-1.8149028,-0.48324725,0.61412549,-0.62395668,0
0.44014096,-1.7332007,2.1340814,-0.875301,-0.3243463,0.35867471,0
0.51780272,0.39185834,0.83654404,0.40237293,0.7887634,0.46470225,0
-2.4767983,2.1435511,-1.3454264,-0.79433733,-0.0079040974,0.60742551,0
-1.5776604,2.1086974,-2.5752878,-0.48324725,0.61412549,-0.62395668,0
-0.30743241,0.69823647,0.53840315,-0.20691881,0.61238939,0.76299667,0
-0.90360045,0.32786694,0.27509487,-0.80992961,-0.043010861,0.58494794,0
1.9879265,-1.4074749,1.1438775,0.85978818,0.19855748,-0.47046703,0
1.6689208,-1.4561604,2.7881746,0.48324725,-0.61412549,0.62395668,0
2.0169809,-1.8698483,2.223516,0.48324725,-0.61412549,0.62395668,0
1.3848597,-2.7798166,1.6881378,0.48324725,-0.61412549,0.62395668,0
-0.50806767,1.4959381,-2.0135703,0.78573406,-0.010099135,-0.61848199,0
-0.77774775,-0.16919869,-1.0914195,-0.18473682,-0.76818109,-0.61300087,0
-0.13074499,1.6284007,-0.78520381,0.70645237,0.69449079,0.136409,0
-1.3608052,2.861177,-1.5973874,-0.48324725,0.61412549,-0.62395668,0
0.58712864,-2.5367017,1.5464265,-0.73124409,-0.6750313,-0.098055229,0
1.3805175,-2.3518746,2.4447351,0.48324725,-0.61412549,0.62395668,0
1.8018845,-1.7038263,2.5838485,0.48324725,-0.61412549,0.62395668,0
-0.63093495,2.2823954,-1.7760689,0.71181041,0.69054079,0.12837158,0
-1.1793828,0.62486261,-2.2782834,0.039315984,-0.6967572,-0.71622872,0
1.3397642,-0.49072403,1.7160375,0.51179075,0.7764014,0.36779216,0
-0.46056083,0.67102456,0.76969564,-0.24829878,0.58729476,0.77034569,0
-0.63946831,1.6590774,-2.3083267,0.81708813,0.060441971,-0.57333571,0
-1.1739762,2.6381397,-2.3553979,-0.48324725,0.61412549,-0.62395668,0
-1.955174,2.1062062,-1.8142049,-0.48324725,0.61412549,-0.62395668,0
0.36358318,0.90774107,-1.4860932,0.8213895,0.071400747,-0.56588095,0
0.43123901,-1.4955777,-0.051658452,-0.20760581,-0.77275509,-0.59979105,0
1.7423059,-2.1946578,1.9162081,0.48324725,-0.61412549,0.62395668,0
1.4626514,-2.4572484,2.3177299,0.48324725,-0.61412549,0.62395668,0
1.0921071,-2.2423847,2.364953,0.48324725,-0.61412549,0.62395668,0
2.24458,-1.6014091,2.3299587,0.48324725,-0.61412549,0.62395668,0
-1.0737873,1.9102737,-2.7667429,-0.48324725,0.61412549,-0.62395668,0
-1.5911274,1.6715533,-2.4833441,-0.48324725,0.61412549,-0.62395668,0
1.9582157,-1.1128269,2.6241853,0.27552286,0.78316677,0.55743772,0
0.52290612,0.59737653,-0.91421247,0.86915845,0.25101614,-0.42609209,0
1.1652323,-2.5380154,2.2547245,0.48324725,-0.61412549,0.62395668,0
1.5468905,-2.650888,1.7863359,0.48324725,-0.61412549,0.62395668,0
-2.1054542,2.3835344,-1.7163645,-0.48324725,0.61412549,-0.62395668,0
1.9043845,-2.2267966,1.7396289,0.48324725,-0.61412549,0.62395668,0
-1.6476029,2.6704941,-1.9097831,-0.48324725,0.61412549,-0.62395668,0
-1.5358622,2.894114,-1.7071002,-0.48324725,0.61412549,-0.62395668,0
2.0092275,-1.8325099,1.9391651,0.48324725,-0.61412549,0.62395668,0
1.5315555,-0.062166691,0.63626796,0.84522712,0.51301575,-0.14968616,0
-1.6333907,2.485949,-1.9505646,-0.48324725,0.61412549,-0.62395668,0
1.9032135,-2.4849644,1.4952165,0.48324725,-0.61412549,0.62395668,0
1.3618792,-1.5812294,0.18990174,0.3809582,-0.49418253,-0.78144383,0
-0.17644453,1.757827,-2.2388332,0.84854513,0.15311646,-0.50648451,0
1.3624902,-1.3080829,2.990061,-0.26138896,0.57898384,0.77230394,0
2.2809503,-2.4818981,1.5651119,0.48324725,-0.61412549,0.62395668,0
-2.3438046,1.4608487,-2.3755288,-0.48324725,0.61412549,-0.62395668,0
-2.65747,1.7142287,-1.9119351,-0.87510514,-0.35979754,0.32363039,0
1.5055993,-2.4479718,1.8520305,0.48324725,-0.61412549,0.62395668,0
0.54995,-0.47022271,1.7881589,-0.25833663,0.5809381,0.77186346,0
2.2078605,-2.1962101,1.7799828,0.48324725,-0.61412549,0.62395668,0
1.4910065,-2.2497063,2.2118652,0.48324725,-0.61412549,0.62395668,0
2.1176682,-1.4262552,2.2482309,0.48324725,-0.61412549,0.62395668,0
-0.12700284,-0.72548306,-0.90049696,-0.08215344,-0.74136382,-0.6660558,0
1.9026827,-1.7427021,2.3905928,0.48324725,-0.61412549,0.62395668,0
2.2711403,-2.2456546,1.4385406,0.48324725,-0.61412549,0.62395668,0
-1.6634101,2.2424946,-2.1481147,-0.48324725,0.61412549,-0.62395668,0
2.104696,-2.4018991,1.3260964,0.48324725,-0.61412549,0.62395668,0
0.61547065,-2.1524873,2.6096015,-0.8666997,-0.23487581,0.44007388,0
-2.458781,1.3947811,-2.4359477,-0.48324725,0.61412549,-0.62395668,0
0.77796245,-2.3560958,2.7251995,0.48324725,-0.61412549,0.62395668,0
-0.88296896,2.4570522,-2.3495834,-0.48324725,0.61412549,-0.62395668,0
-1.6827546,2.2057853,-2.3266029,-0.48324725,0.61412549,-0.62395668,0
-0.97866172,-0.26622626,-0.18278961,-0.76621485,-0.64146388,-0.037932307,0
0.41750324,-1.9893687,0.78785163,-0.29059112,-0.78480995,-0.54738486,0
-1.0414337,2.4534197,-2.4738822,-0.48324725,0.61412549,-0.62395668,0
-2.3636565,2.2014637,-1.6192648,-0.48324725,0.61412549,-0.62395668,0
-0.47167554,-0.1174482,-1.2797129,0.14514789,-0.64663541,-0.74886215,0
-0.060509235,0.3513208,-1.4804717,0.58793551,-0.30043203,-0.75104761,0
0.7119292,-1.5063643,-0.057898313,0.22408399,-0.60219407,-0.76625621,0
-1.3839377,0.26203555,-0.55262339,-0.86751872,-0.43181852,0.24686854,0
-2.2752514,1.3036557,-2.4944193,-0.56903136,-0.76195395,-0.30924019,0
-1.7027436,1.7235179,-2.3237064,-0.48324725,0.61412549,-0.62395668,0
1.8175634,-2.1501637,1.8885407,0.48324725,-0.61412549,0.62395668,0
0.69145542,-2.3237476,2.4872863,0.48324725,-0.61412549,0.62395668,0
1.5442289,-2.197768,2.4686918,0.48324725,-0.61412549,0.62395668,0
-1.9784493,1.5642567,-2.6484447,-0.48324725,0.61412549,-0.62395668,0
0.61517745,-2.1185696,2.4644535,-0.82510185,-0.081191264,0.55911988,0
2.420012,-1.8825107,1.9304287,0.48324725,-0.61412549,0.62395668,0
-0.07226555,-1.3593937,0.6262002,-0.66330934,-0.7219823,-0.19688119,0
-1.819563,1.8918957,-2.5400543,-0.48324725,0.61412549,-0.62395668,0
1.842231,-1.2818885,2.9385905,0.48324725,-0.61412549,0.62395668,0
1.4483709,-2.2432837,2.0592098,0.48324725,-0.61412549,0.62395668,0
-2.5421102,1.4210428,-2.0091965,-0.48324725,0.61412549,-0.62395668,0
0.42143631,0.25530478,-1.0911404,0.61429954,-0.26994669,-0.74146128,0
-1.2488447,0.33686012,-0.712228,-0.85625994,-0.48007229,0.19065529,0
-1.337033,1.9408814,-2.4214358,-0.48324725,0.61412549,-0.62395668,0
2.0495229,-2.4030733,1.3745949,0.48324725,-0.61412549,0.62395668,0
-1.3270698,2.9921477,-1.7390077,-0.48324725,0.61412549,-0.62395668,0
2.1069674,-2.0920949,1.8934641,0.48324725,-0.61412549,0.62395668,0
-0.098855764,0.12187591,0.95356625,-0.36072624,0.50971854,0.78106558,0
1.551055,-2.410666,1.9997557,0.48324725,-0.61412549,0.62395668,0
1.317101,-3.135421,1.7195468,0.48324725,-0.61412549,0.62395668,0
0.17700233,0.92239285,0.12721115,0.35288218,0.78887433,0.50314146,0
-0.21184134,0.27585295,0.87508035,-0.29263449,0.55840003,0.77624375,0
0.46704286,-1.238309,1.9654599,-0.69888884,0.15863444,0.69741625,0
0.71344388,-0.85823184,2.2432518,-0.26757094,0.57499546,0.77316618,0
0.17149374,-1.5316181,1.7923,-0.87264478,-0.28053352,0.39973995,0
0.79474938,0.4369435,-0.29027373,0.84809929,0.50523925,-0.15956458,0
1.300288,-2.3209462,2.526926,0.48324725,-0.61412549,0.62395668,0
2.0863559,-2.433455,1.3671722,0.48324725,-0.61412549,0.62395668,0
1.758752,-1.2508769,0.75764334,0.78544235,-0.010694824,-0.61884236,0
0.16476715,-0.67674887,-0.85359293,0.1855199,-0.62468147,-0.75852185,0
-1.2874991,1.8170062,-2.5246067,-0.48324725,0.61412549,-0.62395668,0
-0.73138911,2.3373637,-2.4248481,-0.48324725,0.61412549,-0.62395668,0
-0.24969202,0.022356234,0.89249599,-0.51049137,0.38133913,0.77070034,0
1.2453768,-2.4109225,2.4477446,0.48324725,-0.61412549,0.62395668,0
-1.4182556,2.1831346,-2.3984771,-0.48324725,0.61412549,-0.62395668,0
-2.3394847,1.7170533,-1.8424096,-0.48324725,0.61412549,-0.62395668,0
1.5430484,-1.7833496,2.7519202,0.48324725,-0.61412549,0.62395668,0
0.3999787,0.39575893,-0.9854728,0.75211036,-0.073575743,-0.65491724,0
0.039473355,0.50314939,0.81117666,-0.063985363,0.68601835,0.72476518,0
1.2244666,-0.98961759,-0.062873334,0.70742077,-0.14596659,-0.69155592,0
1.3902869,-2.5977921,1.8398875,0.48324725,-0.61412549,0.62395668,0
2.1459095,-1.5182195,2.1543143,0.48324725,-0.61412549,0.62395668,0
2.5193739,-1.484351,1.9095546,0.48324725,-0.61412549,0.62395668,0
0.59060907,0.0093838274,1.4362159,0.18582404,0.76841038,0.61238456,0
-0.56734377,1.8166009,-0.68598795,0.45776701,0.78475755,0.41785741,0
-1.9005955,2.5949788,-1.4818889,-0.48324725,0.61412549,-0.62395668,0
0.91184986,-2.42851,1.3539315,-0.54377449,-0.7691043,-0.33583894,0
-1.4969382,0.21786475,-1.0439,-0.79865068,-0.60119677,0.026821524,0
2.3516059,-1.6086758,2.0412142,0.48324725,-0.61412549,0.62395668,0
1.1572778,-1.318315,2.4419653,-0.15011865,0.64401847,0.75013632,0
-0.37696218,1.8320153,-1.5831046,0.85539782,0.48299488,-0.18711102,0
2.6369359,-1.4400159,2.3746686,0.48324725,-0.61412549,0.62395668,0
0.88284981,-2.5666428,1.3515316,-0.55216694,-0.76687062,-0.32714066,0
-1.2612025,1.7856266,-0.61060077,-0.25386247,0.58378458,0.77119994,0
0.11990305,1.4853523,-1.4056212,0.87277961,0.39391068,-0.28825358,0
-1.609357,2.760772,-1.7127512,-0.48324725,0.61412549,-0.62395668,0
2.0829897,-2.2969537,1.4733618,0.48324725,-0.61412549,0.62395668,0
0.79866529,-2.5059676,2.5195527,-0.87532318,-0.32526648,0.35778621,0
1.7755116,-1.6413443,2.59601,0.48324725,-0.61412549,0.62395668,0
-2.4097314,1.4728222,-2.533123,-0.48324725,0.61412549,-0.62395668,0
0.81436414,-2.3159513,2.1838152,-0.87104571,-0.40893728,0.27212083,0
-0.80643493,2.3225181,-2.5407262,-0.48324725,0.61412549,-0.62395668,0
-1.9201672,2.4739799,-1.4378251,-0.48324725,0.61412549,-0.62395668,0
-1.4875062,2.6199813,-1.6045824,-0.48324725,0.61412549,-0.62395668,0
-0.99165547,2.0308065,-2.9605165,-0.48324725,0.61412549,-0.62395668,0
1.8605849,-2.2935019,1.9552977,0.48324725,-0.61412549,0.62395668,0
2.1817014,-1.3680851,2.3780015,0.48324725,-0.61412549,0.62395668,0
0.85219496,-1.2120495,-0.29456267,0.21871662,-0.60541439,-0.7652688,0
1.8910755,-2.1646934,2.1914539,0.48324725,-0.61412549,0.62395668,0
0.77441764,-0.2894783,1.9463569,-0.042819217,0.6952669,0.717475,0
1.69602,-1.3093389,2.8167264,0.48324725,-0.61412549,0.62395668,0
-2.1857176,1.4761864,-2.5011127,-0.48324725,0.61412549,-0.62395668,0
-1.7082008,2.5966856,-1.3476887,-0.25306529,0.58428955,0.77107948,0
1.734702,-1.2668087,0.68780887,0.72619921,-0.11688404,-0.67747527,0
1.6961507,-1.7735649,2.5293012,0.48324725,-0.61412549,0.62395668,0
-0.017715011,-1.4099379,1.4102389,-0.86993438,-0.41695383,0.26336992,0
-0.21332407,1.8213468,-1.6886168,0.87429392,0.30137581,-0.38050327,0
0.060859382,-1.4102426,0.084085822,-0.28021109,-0.7837047,-0.55433619,0
0.24553466,1.1125731,0.20077956,0.53505588,0.77128065,0.34473357,0
2.5668173,-1.853423,1.879622,0.48324725,-0.61412549,0.62395668,0
-1.6469364,2.633512,-1.9208766,-0.48324725,0.61412549,-0.62395668,0
1.3362544,-1.9162281,2.8405683,0.48324725,-0.61412549,0.62395668,0
-0.31385502,-0.52961814,-1.0154878,-0.028343678,-0.72330016,-0.68995178,0
0.75632507,0.37897879,0.35970974,0.60190535,0.75059819,0.27260274,0
-0.23938054,-0.24224512,-0.93281424,-0.05125016,-0.7313208,-0.68010533,0
1.6517386,-0.49677342,1.7101653,0.43532765,0.78690302,0.43734813,0
0.01499214,1.0214536,-1.3014386,0.86134207,0.20592575,-0.46441838,0
-1.1994252,2.3196318,-2.2433288,-0.48324725,0.61412549,-0.62395668,0
1.0159873,-2.732728,2.3252892,0.48324725,-0.61412549,0.62395668,0
2.4839625,-2.0977955,1.9071225,0.48324725,-0.61412549,0.62395668,0
-1.8609062,2.4850101,-1.6883076,-0.48324725,0.61412549,-0.62395668,0
-2.0560501,1.0658169,-2.7185621,-0.39665747,-0.78893656,-0.46929932,0
-1.7740719,1.8109758,-2.3811045,-0.48324725,0.61412549,-0.62395668,0
-2.0128725,1.1941181,-2.1384339,-0.51261544,-0.77623641,-0.3669911,0
1.0299196,-2.3812244,0.97187734,-0.059846312,-0.73420435,-0.67628574,0
-2.2214885,1.499915,-2.2767909,-0.48324725,0.61412549,-0.62395668,0
1.5658469,-2.1074362,2.3240902,0.48324725,-0.61412549,0.62395668,0
-0.85491848,2.5505171,-2.284379,0.85225046,0.49308729,-0.17473999,0
0.39373752,-2.105124,1.2897763,-0.71583259,-0.68748701,-0.12225071,0
-1.4255035,2.3049655,-1.9279598,-0.48324725,0.61412549,-0.62395668,0
2.0878446,-1.6146702,2.120703,0.48324725,-0.61412549,0.62395668,0
-1.4558855,2.2164986,-2.5011177,-0.48324725,0.61412549,-0.62395668,0
0.59679985,-2.513592,2.1325881,-0.86131752,-0.46118969,0.21315747,0
-1.113464,2.679388,-1.8551363,-0.48324725,0.61412549,-0.62395668,0
1.9725149,-2.1714735,2.0067537,0.48324725,-0.61412549,0.62395668,0
-1.9999839,1.6655947,-2.4691927,-0.48324725,0.61412549,-0.62395668,0
1.863971,-1.9803822,0.77205855,0.47983742,-0.41032809,-0.77549136,0
0.33733112,-1.4972836,-0.011298507,-0.1083802,-0.74918133,-0.65343773,0
1.3295804,-0.19147995,0.22191074,0.87389219,0.38132423,-0.30150339,0
1.5390532,-1.7717774,2.7019584,0.48324725,-0.61412549,0.62395668,0
-0.62038553,1.9042702,-2.3057358,0.8220858,0.073212601,-0.56463695,0
-0.57098699,2.2031393,-2.6248829,0.83397305,0.10605625,-0.54151732,0
1.1157389,-2.113971,2.8611469,0.48324725,-0.61412549,0.62395668,0
2.1462653,-0.90534651,2.0798268,0.70694655,0.69413209,0.13567327,0
-1.7616858,1.6737113,-2.9027522,-0.48324725,0.61412549,-0.62395668,0
1.0263257,-1.8087802,0.36479551,0.27150691,-0.5724346,-0.77369416,0
-2.1744604,1.9665164,-2.2449863,-0.48324725,0.61412549,-0.62395668,0
0.9903034,-0.90909588,0.017485723,0.63529217,-0.2444028,-0.7325784,0
-1.5912359,1.5649456,-2.6241972,-0.48324725,0.61412549,-0.62395668,0
2.2675924,-1.4371332,2.6077116,0.48324725,-0.61412549,0.62395668,0
1.3432298,-2.671382,2.0165188,0.48324725,-0.61412549,0.62395668,0
-2.241961,2.0966606,-1.6427443,-0.48324725,0.61412549,-0.62395668,0
-1.9595376,2.2568202,-1.0535192,-0.43348706,0.45135835,0.77997732,0
-0.76204556,0.28850192,0.38967621,-0.77379733,0.033767484,0.63253248,0
1.1336217,-2.8188441,2.0186162,0.48324725,-0.61412549,0.62395668,0
2.4630997,-1.8437405,2.1974976,0.48324725,-0.61412549,0.62395668,0
-1.789042,1.6967436,-2.8303578,-0.48324725,0.61412549,-0.62395668,0
1.5222329,-2.1833692,2.1345792,0.48324725,-0.61412549,0.62395668,0
1.2402823,-2.0455844,2.4720666,0.48324725,-0.61412549,0.62395668,0
0.54007953,-2.2273366,1.4284163,-0.66340005,-0.7219317,-0.1967611,0
-1.0031831,1.4280703,-0.34875539,-0.1932039,0.62032044,0.76018071,0
-1.8366013,1.8999619,-2.0181897,-0.48324725,0.61412549,-0.62395668,0
-1.2977341,2.2567332,-2.2107031,-0.48324725,0.61412549,-0.62395668,0
-1.8572571,1.8575145,-2.4970758,-0.48324725,0.61412549,-0.62395668,0
-1.7511585,1.9378445,-2.2921736,-0.48324725,0.61412549,-0.62395668,0
-0.62500918,1.8276947,-2.63271,0.723225,-0.12160807,-0.67982137,0
-1.9772789,1.1574546,-2.2116802,-0.63040966,-0.73863477,-0.23875162,0
-1.4512018,0.7306115,-0.14948437,-0.73758245,0.098356135,0.66805553,0
-0.92987198,0.3565461,-2.1353686,0.075993195,-0.68058497,-0.72871745,0
1.657015,-2.3795018,2.1478648,0.48324725,-0.61412549,0.62395668,0
0.15015942,-1.9299154,0.62568057,-0.5679605,-0.76228362,-0.31039405,0
-1.5178537,1.2406347,-0.20686536,-0.63246006,0.24791948,0.73384619,0
-0.70616531,2.0535846,-2.8420582,0.77991056,-0.021822475,-0.62551045,0
0.50079483,0.63466406,-0.82009894,0.87506157,0.36095327,-0.32245904,0
1.0644748,-2.0441918,2.5939806,0.48324725,-0.61412549,0.62395668,0
-0.32215399,1.6712013,-0.44086882,0.36998427,0.78918529,0.4902021,0
-1.6792612,2.7465823,-1.4173515,-0.48324725,0.61412549,-0.62395668,0
-2.179141,2.2670736,-1.9467063,-0.48324725,0.61412549,-0.62395668,0
-1.3713462,1.4523218,-0.46400338,-0.58878207,0.29947877,0.75076497,0
1.9524823,-2.1742663,1.7166829,0.48324725,-0.61412549,0.62395668,0
1.9294804,-1.9469737,2.3519764,0.48324725,-0.61412549,0.62395668,0
-0.78482199,2.7307706,-2.0204716,-0.48324725,0.61412549,-0.62395668,0
2.0350151,-1.7561169,2.4710953,0.48324725,-0.61412549,0.62395668,0
-2.1589077,2.3639584,-1.3576527,-0.48324725,0.61412549,-0.62395668,0
-0.27469566,-0.64551646,-0.46082073,-0.37668249,-0.78920811,-0.48503691,0
-1.5576534,0.56738192,-1.086586,-0.72620416,-0.67924196,-0.10610299,0
-2.2521939,1.7189944,-2.2514374,-0.48324725,0.61412549,-0.62395668,0
2.1977022,-1.9495494,2.0878654,0.48324725,-0.61412549,0.62395668,0
2.1112316,-1.3656561,1.8087158,0.84482712,0.514063,-0.14834554,0
-1.8803327,1.3777479,-1.1151332,-0.85519689,-0.178591,0.486563,0
1.6757059,-2.6105313,1.8740336,0.48324725,-0.61412549,0.62395668,0
0.35529697,0.3142091,0.92978084,0.20159802,0.77160442,0.60331148,0
-1.1667439,0.89612299,-0.10998717,-0.54080057,0.35107201,0.76438421,0
0.6060375,-0.36304671,1.8335824,-0.12418206,0.65741038,0.74322963,0
0.93743861,-1.9938847,2.8597648,0.48324725,-0.61412549,0.62395668,0
-0.39010486,2.1113558,-2.3519268,0.87523365,0.32184717,-0.36108226,0
-2.5897501,2.1898775,-1.4064602,-0.48324725,0.61412549,-0.62395668,0
-1.4888332,0.97450066,-2.5191045,-0.18672445,-0.76859945,-0.61187327,0
1.5317264,-0.26596546,0.9764486,0.7429443,0.6646961,0.078821227,0
-1.0513904,1.7246056,-0.51708126,-0.19777076,0.61770052,0.76113904,0
-0.8860085,-0.16121845,-0.39527732,-0.66986936,-0.71825004,-0.18812709,0
0.31367794,-1.5484285,1.8745562,-0.82514071,-0.081295505,0.55904734,0
0.48317614,-1.3952596,-0.010245532,0.099429309,-0.6695894,-0.73604608,0
0.73747462,0.21074715,-1.0519627,0.7319991,-0.10753504,-0.67276555,0
-1.3072677,2.2118247,-2.1350775,-0.48324725,0.61412549,-0.62395668,0
0.38538736,-2.2920499,1.8179759,-0.80577415,-0.59068245,0.042687364,0
1.4978622,-1.9966235,0.66911483,0.16889539,-0.63391566,-0.75473511,0
-1.2547174,1.8802366,-2.527854,-0.48324725,0.61412549,-0.62395668,0
2.0742173,-1.3278891,2.4723339,0.48324725,-0.61412549,0.62395668,0
0.96952003,0.69710594,0.046833515,0.73110437,0.67514986,0.098280177,0
-1.520979,2.6004019,-1.6412699,-0.48324725,0.61412549,-0.62395668,0
1.9852753,-1.4796848,2.7478328,0.48324725,-0.61412549,0.62395668,0
-1.0029234,2.7825279,-2.2166014,-0.48324725,0.61412549,-0.62395668,0
-1.7416502,1.5741998,-2.541291,-0.48324725,0.61412549,-0.62395668,0
-1.0676686,2.6961071,-2.020761,0.59358764,0.7537052,0.28210288,0
0.79465592,-0.35620946,1.7292166,-0.14985847,0.64415604,0.75007021,0
-1.4651194,2.6296844,-1.625913,-0.48324725,0.61412549,-0.62395668,0
-2.0669498,1.9194267,-2.1339977,-0.48324725,0.61412549,-0.62395668,0
1.0857012,-1.7684714,2.7259281,0.48324725,-0.61412549,0.62395668,0
-1.4682765,2.3585722,-2.0680962,-0.48324725,0.61412549,-0.62395668,0
-1.7336498,2.8057151,-1.6627775,-0.48324725,0.61412549,-0.62395668,0
-1.3102095,2.7515397,-1.8259009,-0.48324725,0.61412549,-0.62395668,0
0.78253871,0.20855929,0.67366493,0.59759653,0.75222832,0.27754438,0
1.4466946,-2.0328741,2.3287234,0.48324725,-0.61412549,0.62395668,0
-1.8277029,1.6707441,-2.5711143,-0.48324725,0.61412549,-0.62395668,0
0.88466245,-1.7430423,0.41582042,0.20295228,-0.61470264,-0.76220143,0
-0.49256667,1.8865373,-2.4420974,0.82222354,0.073572323,-0.56438953,0
0.81209713,-2.7890677,2.1445785,-0.70274317,-0.6971491,-0.14189823,0
-2.0687561,1.5425833,-2.5754771,-0.48324725,0.61412549,-0.62395668,0
-2.2609715,1.1198803,-1.7417498,-0.80553472,-0.59104812,0.042141892,0
1.5886247,-1.7793071,2.5732703,0.48324725,-0.61412549,0.62395668,0
1.0775563,-2.433135,2.5745697,0.48324725,-0.61412549,0.62395668,0
-0.48964503,0.13168824,-1.6446618,0.18452467,-0.62524194,-0.75830275,0
1.0310476,-2.2802901,2.6210949,0.48324725,-0.61412549,0.62395668,0
-1.7325187,0.85857087,-1.2015177,-0.82619059,-0.55566812,0.092962146,0
1.5915953,-1.6150374,2.5374007,0.48324725,-0.61412549,0.62395668,0
1.1575201,-1.0150235,2.6261835,-0.16216284,0.63757783,0.75312519,0
-2.1479452,1.534542,-2.2838786,-0.48324725,0.61412549,-0.62395668,0
0.24303547,-0.052816778,1.553884,-0.25031811,0.58602452,0.77065945,0
-0.94459701,0.24510479,-1.5358354,-0.29395348,-0.78514242,-0.5451079,0
-0.80338836,0.79329073,0.12840629,-0.62405938,0.25821912,0.7374773,0
-1.1667314,1.8273935,-3.058459,-0.48324725,0.61412549,-0.62395668,0
-1.5451338,1.664543,-3.0241311,-0.48324725,0.61412549,-0.62395668,0
-1.2016327,1.8920257,-2.5806811,-0.48324725,0.61412549,-0.62395668,0
-0.6339497,0.42749816,-1.5482223,0.090276003,-0.67394561,-0.73324448,0
2.5977089,-2.0083199,1.6658125,0.48324725,-0.61412549,0.62395668,0
-0.70025343,2.504087,-2.5923595,0.87446952,0.30429217,-0.37776884,0
-1.4300561,1.9382002,-2.8948572,-0.48324725,0.61412549,-0.62395668,0
-1.2233783,1.8007046,-2.8324056,-0.48324725,0.61412549,-0.62395668,0
1.7867559,-2.0507245,2.2469473,0.48324725,-0.61412549,0.62395668,0
-0.64275748,2.32303,-2.1884766,0.87507641,0.36056706,-0.32285073,0
-2.3681345,2.0909364,-1.7949834,-0.48324725,0.61412549,-0.62395668,0
0.066085406,-1.5669692,0.55719912,-0.55780542,-0.76529145,-0.32121944,0
1.2239697,-2.6586914,1.744472,0.48324725,-0.61412549,0.62395668,0
0.65846485,0.77029538,-0.48798501,0.87349921,0.38617688,-0.29642284,0
1.7443042,-0.87535667,0.93056536,0.86801767,0.24321273,-0.43288904,0
-1.1701912,1.2706783,0.058765322,-0.59682399,0.2903409,0.74799955,0
-2.5027039,1.9411583,-1.9950171,-0.48324725,0.61412549,-0.62395668,0
-2.0286036,1.6082641,-2.4528277,-0.48324725,0.61412549,-0.62395668,0
-1.8208599,2.1056576,-2.3509905,-0.48324725,0.61412549,-0.62395668,0
1.9819751,-1.6635677,2.5160794,0.48324725,-0.61412549,0.62395668,0
-1.6035235,2.532495,-1.8882737,-0.48324725,0.61412549,-0.62395668,0
2.0018089,-1.283138,2.4869246,0.48324725,-0.61412549,0.62395668,0
-0.050644338,-1.0125631,0.097634465,-0.4173317,-0.78810358,-0.4524675,0
0.86119956,-1.567953,2.514267,-0.64779532,0.22859922,0.72670734,0
-1.4624455,2.6705332,-1.4969608,0.16814336,0.76453567,0.62226439,0
0.069375724,0.1258086,-1.1852175,0.57895249,-0.31044695,-0.75394744,0
1.3187847,-2.6972742,2.0848439,0.48324725,-0.61412549,0.62395668,0
0.004555136,1.2477967,-0.41640496,0.59011984,0.75495243,0.2860162,0
-2.04248,1.5322018,-2.4353359,-0.48324725,0.61412549,-0.62395668,0
0.01908955,-1.7218771,0.75747263,-0.55636448,-0.76570112,-0.32273871,0
-0.50074804,-0.27876592,-1.1732717,-0.2103554,-0.77326953,-0.5981679,0
-2.2269928,1.292161,-2.7394359,-0.48324725,0.61412549,-0.62395668,0
0.77414858,-0.7668314,2.2594101,-0.30666775,0.54880482,0.77766836,0
-1.2132823,-0.15659344,-0.81745565,-0.70152372,-0.69800973,-0.14368972,0
-0.13714901,1.8228195,-1.0574367,0.63562119,0.73621196,0.23233072,0
-0.87446952,-0.69657791,-0.10019168,-0.76139706,-0.64660019,-0.04671897,0
-0.66211951,2.0604608,-0.92418605,0.25700447,0.78080976,0.56946015,0
-1.4998405,2.4549613,-1.9274628,-0.48324725,0.61412549,-0.62395668,0
-2.439285,2.1222095,-1.9211477,-0.48324725,0.61412549,-0.62395668,0
1.8206933,-2.3732359,1.7471175,0.48324725,-0.61412549,0.62395668,0
-1.4921391,1.0839638,-0.24769305,-0.77441436,0.032577857,0.63183951,0
-1.4344285,2.6371026,-1.1864078,0.22668529,0.77616572,0.5883711,0
-1.1763817,-0.089415416,-0.039672017,-0.86229855,-0.21065202,0.4605073,0
0.14859647,1.4827521,-0.54885173,0.58125395,0.75801593,0.29589796,0
1.5657566,-2.5922246,1.9495931,0.48324725,-0.61412549,0.62395668,0
-1.9187485,1.0224756,-1.869395,-0.58353543,-0.75724453,-0.2933718,0
1.0137914,-2.5319495,2.3756125,0.48324725,-0.61412549,0.62395668,0
0.42279759,0.42042863,1.0962497,0.25591189,0.78065914,0.57015812,0
-2.3181911,1.5453131,-2.0192342,-0.48324725,0.61412549,-0.62395668,0
1.4125094,-1.2872536,2.8544853,-0.0073572099,0.7098254,0.70433927,0
-0.4164322,1.6546229,-2.0247772,0.87453556,0.30545223,-0.37667823,0
1.7585242,-0.71046156,1.576787,0.59552097,0.7529977,0.27990919,0
0.77271962,-0.14797378,-0.51192999,0.63934875,-0.23932584,-0.73072314,0
-1.9529465,2.5626044,-1.5787156,-0.48324725,0.61412549,-0.62395668,0
-1.28836,1.1715695,-0.018053025,-0.65188068,0.22333349,0.72468865,0
0.98246801,-2.7044067,1.9275744,0.48324725,-0.61412549,0.62395668,0
-1.6066145,0.24698132,-1.3859081,-0.57729399,-0.75932741,-0.30025572,0
-2.2226884,2.5381966,-1.6787391,-0.48324725,0.61412549,-0.62395668,0
-1.6313996,2.3111937,-2.0200567,-0.48324725,0.61412549,-0.62395668,0
-2.5151694,2.2016995,-1.5707076,-0.48324725,0.61412549,-0.62395668,0
-2.4614868,1.7768129,-1.956876,-0.48324725,0.61412549,-0.62395668,0
0.08488813,-1.7717912,1.3645155,-0.81930828,-0.56841546,0.075085439,0
0.33573592,0.17842114,1.1850477,-0.067959026,0.68423539,0.72608775,0
-0.37402883,1.0921386,-2.2610695,0.70161408,-0.15462284,-0.69557852,0
-0.98194814,2.5465868,-2.6039765,-0.48324725,0.61412549,-0.62395668,0
-1.2634482,1.4029866,-0.42963731,-0.35813072,0.51167488,0.78098089,0
1.6567409,-1.9375533,0.96823776,0.47032189,-0.41901696,-0.77667367,0
-1.8944259,0.73366129,-1.4801475,-0.77089393,-0.63629305,-0.029219046,0
1.0819238,-1.0987885,2.3667018,-0.1049045,0.6669457,0.73768443,0
-1.7300774,0.92459303,-1.3469474,-0.83911401,-0.52818835,0.13001803,0
1.9157934,-1.6502892,2.3208487,0.48324725,-0.61412549,0.62395668,0
-1.7287096,1.673193,-2.3903339,-0.48324725,0.61412549,-0.62395668,0
0.95230788,-2.9772081,2.2402177,0.48324725,-0.61412549,0.62395668,0
2.3399611,-2.2985413,1.8400582,0.48324725,-0.61412549,0.62395668,0
-1.0967858,3.0660763,-1.9901503,-0.48324725,0.61412549,-0.62395668,0
-1.6191097,0.52239728,-1.0629802,-0.81429982,-0.57704681,0.062711075,0
1.9992254,-1.7189964,2.5894575,0.48324725,-0.61412549,0.62395668,0
-1.5481342,2.7669697,-1.6192647,0.17230585,0.76547569,0.61996579,0
0.14499798,1.0187066,-0.010491908,0.50170732,0.77832395,0.37749389,0
0.4243767,1.0294278,-0.96314764,0.86094636,0.20401452,-0.46599299,0
1.9674208,-2.5071392,1.497246,0.48324725,-0.61412549,0.62395668,0
-0.86572158,2.1095614,-2.9192939,0.77372223,-0.033912152,-0.6326167,0
-2.1923151,1.9927367,-2.1320429,-0.48324725,0.61412549,-0.62395668,0
-1.7268066,2.7383413,-1.6013019,-0.48324725,0.61412549,-0.62395668,0
-1.9851491,2.5131173,-1.3306398,-0.48324725,0.61412549,-0.62395668,0
-2.2143602,1.9810495,-1.8001317,-0.48324725,0.61412549,-0.62395668,0
2.2092662,-1.6023332,2.3395615,0.48324725,-0.61412549,0.62395668,0
-0.90953761,2.0227063,-1.0699844,0.27822366,0.78347957,0.55565393,0
0.54957139,1.1296309,-0.44183177,0.81755555,0.57149333,-0.070698611,0
0.69916809,0.37145415,-0.063138172,0.84985292,0.50024891,-0.1658344,0
-1.6328348,0.78627533,-1.4117399,-0.71717763,-0.68644834,-0.12018664,0
0.47234112,-1.807826,2.0399609,-0.83006972,-0.094837502,0.54953623,0
1.4980162,-3.0849524,1.6892967,0.48324725,-0.61412549,0.62395668,0
-0.43697557,1.9888217,-1.2820355,0.62291276,0.74198782,0.24785814,0
1.9557414,-1.333009,2.4711759,0.48324725,-0.61412549,0.62395668,0
-1.9362504,2.3885703,-1.8143935,-0.48324725,0.61412549,-0.62395668,0
-0.65198988,-0.45990121,0.71353865,-0.86243361,-0.21133229,0.45994237,0
0.87397861,0.42871845,0.28179479,0.68166757,0.71115595,0.17200705,0
-1.6259439,2.3384881,-0.90327996,-0.11397094,0.66250533,0.74033588,0
1.9136192,-1.5792125,2.4144018,0.48324725,-0.61412549,0.62395668,0
2.021656,-2.2318592,2.1461892,0.48324725,-0.61412549,0.62395668,0
-2.2549725,1.3996133,-1.5311922,-0.83707178,-0.53290254,0.12379652,0
1.5741526,-2.5092268,1.6688957,0.48324725,-0.61412549,0.62395668,0
-1.244349,2.5187125,-1.9518223,-0.48324725,0.61412549,-0.62395668,0
0.95540702,-2.5793281,2.2177861,0.48324725,-0.61412549,0.62395668,0
-0.84042585,2.7446098,-2.0385966,-0.48324725,0.61412549,-0.62395668,0
-0.88677251,2.8096807,-1.4545004,0.5792523,0.75868309,0.29810491,0
1.3181298,-0.58146709,1.867535,0.17859516,0.76686364,0.6164608,0
-1.3620293,2.9107933,-1.9091117,-0.48324725,0.61412549,-0.62395668,0
1.7642392,-2.3417835,2.2572725,0.48324725,-0.61412549,0.62395668,0
-1.1181413,2.2460454,-2.2411826,-0.48324725,0.61412549,-0.62395668,0
-1.2834417,2.3569329,-2.2694323,-0.48324725,0.61412549,-0.62395668,0
-1.2229054,2.3678336,-2.2938936,-0.48324725,0.61412549,-0.62395668,0
-0.84739125,1.018882,-2.4385555,0.39702368,-0.48147529,-0.78137934,0
0.91691446,-0.99465513,2.3339672,-0.38026354,0.49472445,0.78143924,0
0.59236717,-2.0293579,2.0887856,-0.8692835,-0.42125434,0.25863308,0
0.99008965,-0.60565567,2.0923796,-0.081601441,0.67800093,0.73051751,0
-0.25378016,-0.21171513,-1.3793693,0.023518354,-0.70333582,-0.71046853,0
-1.0725609,1.6673596,-2.7514162,0.62475276,-0.25737631,-0.73718476,0
1.0218365,-2.6187019,2.1254218,0.48324725,-0.61412549,0.62395668,0
-2.320508,1.2172931,-1.9595559,-0.77816427,-0.62787431,-0.015302166,0
-1.520745,2.5590343,-2.103435,-0.48324725,0.61412549,-0.62395668,0
-1.9517314,2.192554,-1.9053838,-0.48324725,0.61412549,-0.62395668,0
1.7093397,-2.4537773,1.8294418,0.48324725,-0.61412549,0.62395668,0
1.5997632,-2.8016386,1.7238336,0.48324725,-0.61412549,0.62395668,0
1.8285986,-2.5149262,1.5212091,0.48324725,-0.61412549,0.62395668,0
2.3343606,-1.8033446,1.7122798,0.48324725,-0.61412549,0.62395668,0
0.8952105,-1.1513461,-0.19906926,0.43378913,-0.45110118,-0.77995813,0
-0.83465517,1.4169457,0.021936417,-0.21222007,0.60927278,0.76403487,0
0.9358204,-2.3164473,2.7316837,0.48324725,-0.61412549,0.62395668,0
1.0748346,-2.5182483,1.1277792,-0.30942139,-0.7865091,-0.5344733,0
1.6049037,-2.140785,2.116152,0.48324725,-0.61412549,0.62395668,0
-1.7300277,1.979358,-2.306726,-0.48324725,0.61412549,-0.62395668,0
0.86411583,0.48617271,-0.56579846,0.86087257,0.20366114,-0.46628365,0
0.058525652,0.73382634,0.53837049,0.084649771,0.74213588,0.66488242,0
-1.7548603,2.4962204,-1.5627286,-0.48324725,0.61412549,-0.62395668,0
-1.3574406,1.5707836,-2.7424698,-0.48324725,0.61412549,-0.62395668,0
0.87554717,0.60777092,-0.3431446,0.87544531,0.34565854,-0.33781007,0
-1.3866655,2.0094872,-0.90040624,-0.22254954,0.60311782,0.76597691,0
-1.3477498,2.6536369,-1.9044576,-0.48324725,0.61412549,-0.62395668,0
-0.42712194,-0.4794417,-0.92380321,-0.25596869,-0.78066701,-0.57012182,0
2.4931004,-1.880656,1.728534,0.82450777,0.07960251,-0.56022346,0
1.3164804,-2.0726018,2.6736164,0.48324725,-0.61412549,0.62395668,0
2.165571,-2.5153098,1.5216265,0.48324725,-0.61412549,0.62395668,0
-1.9166437,2.5962915,-1.2506726,-0.48324725,0.61412549,-0.62395668,0
1.5140393,-1.6402478,2.828388,0.48324725,-0.61412549,0.62395668,0
0.39702508,-0.40068087,1.6683842,-0.41865444,0.46382856,0.78076339,0
0.52377534,-0.13279727,-1.0988028,0.53732479,-0.35462886,-0.7651931,0
1.4910746,-2.6835091,1.6824503,0.48324725,-0.61412549,0.62395668,0
1.1718186,-2.3835897,2.2986162,0.48324725,-0.61412549,0.62395668,0
1.8322492,-1.6056213,2.4527292,0.48324725,-0.61412549,0.62395668,0
-0.15378702,1.3281298,0.25863045,0.25612989,0.7806893,0.57001889,0
2.1349137,-2.6308322,1.5103986,0.48324725,-0.61412549,0.62395668,0
-2.200686,1.0318148,-1.8468766,-0.65605211,-0.72594362,-0.20640065,0
-0.87063599,1.6158638,-2.5375884,0.57056677,-0.31963524,-0.75649643,0
0.56236619,-1.8085098,2.3581493,-0.775015,0.031416118,0.63116133,0
-2.3135519,2.2039356,-1.7269714,-0.48324725,0.61412549,-0.62395668,0
0.99629611,0.47263753,0.64393234,0.63122141,0.73826241,0.23775651,0
-2.3391256,1.3585186,-2.5022793,-0.48324725,0.61412549,-0.62395668,0
1.4924252,-1.955897,2.5184586,0.48324725,-0.61412549,0.62395668,0
2.1053903,-1.2319205,2.5858717,0.40771133,0.78856254,0.46037006,0
-2.3072073,1.5384598,-1.5164279,-0.84331602,-0.13511045,0.52015692,0
0.2804392,0.083105594,-1.0790185,0.62365884,-0.25870526,-0.73764569,0
-1.9079405,2.0773773,-1.8586391,-0.48324725,0.61412549,-0.62395668,0
2.006485,-2.0806255,2.2934294,0.48324725,-0.61412549,0.62395668,0
-2.0256743,2.2123299,-1.5898213,-0.48324725,0.61412549,-0.62395668,0
-1.9819287,1.7897089,-0.75616384,-0.7237671,0.12075047,0.67939717,0
-1.7229171,2.0736899,-1.9515407,-0.48324725,0.61412549,-0.62395668,0
1.6357468,-1.9195406,2.1407745,0.48324725,-0.61412549,0.62395668,0
-1.2706521,1.0418364,-2.451005,-0.010764837,-0.71681339,-0.69718188,0
1.5357847,-2.1106787,2.1433215,0.48324725,-0.61412549,0.62395668,0
-0.89752626,1.4796216,0.025321931,-0.095135167,0.67164296,0.73474145,0
-1.2752527,2.8607984,-1.5457919,-0.48324725,0.61412549,-0.62395668,0
-0.81500268,2.5761886,-1.6875091,0.52657795,0.7732603,0.35324809,0
-2.0243375,2.3974471,-1.9260342,-0.48324725,0.61412549,-0.62395668,0
-1.3637874,1.5121492,-2.8775439,-0.48324725,0.61412549,-0.62395668,0
-2.2627704,1.966189,-1.7126448,-0.48324725,0.61412549,-0.62395668,0
2.4568176,-1.2429533,1.776111,0.80550647,0.5910911,-0.042077839,0
-1.7516527,1.3092421,-2.964303,-0.062053919,-0.73493361,-0.6752938,0
0.076577678,-1.5822132,1.6580393,-0.85195631,-0.16575837,0.49668369,0
2.1369739,-2.4817843,1.3751427,0.48324725,-0.61412549,0.62395668,0
-0.54196286,2.2213318,-2.3789182,0.87332577,0.28813607,-0.3927846,0
-1.2685542,2.7331975,-2.1987112,-0.48324725,0.61412549,-0.62395668,0
-2.4274714,2.1901479,-1.7040536,-0.48324725,0.61412549,-0.62395668,0
-1.2423067,0.30166847,-1.7863787,-0.39669764,-0.78893554,-0.46926707,0
1.6400028,-1.9866135,2.6851585,0.48324725,-0.61412549,0.62395668,0
-1.3078153,1.561182,-2.8437107,-0.48324725,0.61412549,-0.62395668,0
2.060976,-1.5865256,2.5107851,0.48324725,-0.61412549,0.62395668,0
1.9193423,-2.1543567,2.0312815,0.48324725,-0.61412549,0.62395668,0
1.3449199,-2.1434369,2.3159118,0.48324725,-0.61412549,0.62395668,0
-1.4073919,1.7518123,-2.5904613,-0.48324725,0.61412549,-0.62395668,0
-0.20856519,-0.7639488,-0.35311309,-0.4429343,-0.78625792,-0.43082193,0
1.0673141,-2.6732526,2.119684,-0.815929,-0.57429373,0.066682667,0
-1.4286282,1.5664648,-2.8702009,-0.48324725,0.61412549,-0.62395668,0
1.9745694,-1.4796445,2.3727884,0.48324725,-0.61412549,0.62395668,0
-1.0385938,2.7185411,-1.6816928,0.40634406,0.78861761,0.46148315,0
-0.53976136,1.1506789,-2.218797,0.51127321,-0.38057908,-0.77055776,0
-2.474797,2.1374774,-1.4874309,-0.48324725,0.61412549,-0.62395668,0
-2.0338645,2.7490804,-1.5071517,-0.48324725,0.61412549,-0.62395668,0
-1.1395419,0.50727284,0.046573982,-0.68215871,0.18259221,0.70803928,0
-1.904315,1.4576159,-0.71974492,-0.81161886,-0.047040366,0.58229023,0
-1.460559,0.047074705,-0.33204615,-0.87366933,-0.38414362,0.29855579,0
-0.10148054,-0.56625342,-0.68380135,-0.17121893,-0.76523185,-0.62056756,0
0.074229568,-1.5314637,0.027806193,-0.37333015,-0.78920376,-0.487629,0
2.1537018,-1.8930455,1.93533,0.48324725,-0.61412549,0.62395668,0
2.2315528,-2.4372008,1.7446021,0.48324725,-0.61412549,0.62395668,0
1.9875636,-2.0774007,2.008419,0.48324725,-0.61412549,0.62395668,0
1.3222494,-2.7323279,1.3111782,-0.33020401,-0.7879163,-0.51976252,0
-0.41832194,-0.39635327,-1.2753167,-0.093472689,-0.74481767,-0.66068864,0
1.8970917,-2.5404329,1.5986781,0.48324725,-0.61412549,0.62395668,0
2.1332579,-2.3297825,1.8175514,0.48324725,-0.61412549,0.62395668,0
-1.6087126,2.227623,-2.0215321,-0.48324725,0.61412549,-0.62395668,0
-2.1316144,2.243166,-0.94893217,-0.44689077,0.43982136,0.77900308,0
1.2337489,-2.0761905,2.9067371,0.48324725,-0.61412549,0.62395668,0
-1.201138,2.5417216,-2.2744744,-0.48324725,0.61412549,-0.62395668,0
-0.27951217,1.1692348,0.44954622,0.1087912,0.74929863,0.65323502,0
0.38998669,0.77526462,-1.1352663,0.84457028,0.13929652,-0.51700824,0
1.1016681,-0.144463,-0.31747127,0.79194027,0.0028005838,-0.61059213,0
1.461947,-1.8913134,2.9295313,0.48324725,-0.61412549,0.62395668,0
-2.4917252,2.0826344,-1.6736459,-0.48324725,0.61412549,-0.62395668,0
1.3738641,-2.2158852,2.2956893,0.48324725,-0.61412549,0.62395668,0
1.1277088,-2.1334167,2.8364849,0.48324725,-0.61412549,0.62395668,0
2.2311368,-2.1624002,1.7784553,0.48324725,-0.61412549,0.62395668,0
-1.6512303,1.3577783,-2.9054449,-0.48324725,0.61412549,-0.62395668,0
-1.3209695,2.3489027,-2.0948095,-0.48324725,0.61412549,-0.62395668,0
1.9985253,-1.3286507,2.229387,0.60922146,0.7477265,0.26411015,0
1.1978444,-2.1683025,2.6207476,0.48324725,-0.61412549,0.62395668,0
2.1303623,-2.6021852,1.198149,0.30690664,-0.54863966,-0.77769077,0
1.8349158,-2.6601114,1.4597213,0.48324725,-0.61412549,0.62395668,0
1.5683901,-2.4050035,2.1058376,0.48324725,-0.61412549,0.62395668,0
2.1852269,-1.7192373,2.2750013,0.48324725,-0.61412549,0.62395668,0
-0.040301993,1.7021385,-0.57728934,0.62720203,0.74008816,0.24266645,0
-2.0187786,1.5701946,-2.2155218,-0.48324725,0.61412549,-0.62395668,0
-0.012684524,1.3401866,-0.043253511,0.45057511,0.78552562,0.4241834,0
0.041162789,0.88690639,-1.4749414,0.81288874,0.050102413,-0.58025998,0
0.30872491,0.92755097,0.30046099,0.35263085,0.78886712,0.50332904,0
1.5613303,-2.2521386,1.915433,0.48324725,-0.61412549,0.62395668,0
2.366472,-1.6135362,1.8778789,0.48324725,-0.61412549,0.62395668,0
-2.2212424,2.3020494,-1.4948744,-0.48324725,0.61412549,-0.62395668,0
0.37673622,-0.16039205,-1.0717208,0.5727548,-0.31725249,-0.75584579,0
-1.7632482,1.8919278,-2.3304653,-0.48324725,0.61412549,-0.62395668,0
-2.2334275,2.1765695,-1.6026691,-0.48324725,0.61412549,-0.62395668,0
1.8040894,-1.5523769,2.416182,0.48324725,-0.61412549,0.62395668,0
-0.53049922,1.4033281,-2.5549049,0.66374236,-0.20774452,-0.71853203,0
1.4305425,-0.72011817,2.2761869,0.23870459,0.77812171,0.58098757,0
-1.3636814,2.0141907,-0.57709044,-0.24015112,0.59237629,0.76903689,0
-1.5330868,0.22578764,-0.2422428,-0.87345415,-0.38669956,0.29587358,0
-1.7376477,2.0949221,-1.9011748,-0.48324725,0.61412549,-0.62395668,0
-2.34741,1.6756599,-2.244982,-0.48324725,0.61412549,-0.62395668,0
-0.88807553,0.63348377,0.19208491,-0.59513676,0.29227066,0.74859214,0
-1.8000073,2.2364428,-1.7281098,-0.48324725,0.61412549,-0.62395668,0
1.2419951,-0.66448587,0.1223342,0.7938996,0.0069667771,-0.60800898,0
1.8405712,-1.8675505,1.0401411,0.70128006,-0.15511614,-0.69580549,0
-1.6234375,1.943724,-2.2932229,-0.48324725,0.61412549,-0.62395668,0
2.4129562,-2.1825991,1.7322588,0.48324725,-0.61412549,0.62395668,0
-0.87924403,-0.51142782,0.46556649,-0.87547523,-0.33580792,0.34752858,0
1.8516154,-0.93074644,0.80651653,0.87512308,0.31838366,-0.36440557,0
1.1921979,-2.106596,2.5147493,0.48324725,-0.61412549,0.62395668,0
0.65867591,-1.2620661,0.0511702,0.33954409,-0.52544522,-0.78013909,0
-1.8190207,1.8729194,-2.2814994,-0.48324725,0.61412549,-0.62395668,0
1.8562038,-2.052053,2.3295522,0.48324725,-0.61412549,0.62395668,0
-0.28209937,-1.4500155,0.87339437,-0.85660815,-0.47887084,0.19210744,0
-1.67019,1.890527,-0.69347727,-0.48705873,0.40363824,0.77449977,0
-1.6490006,0.75365162,-0.85590255,-0.86366725,-0.45110863,0.22489947,0
