1.0547179,1.2986609,1.0440723,-0.22694987,0.88779104,0.40040088,0
1.6648841,0.16695774,-0.73298436,0.43338811,0.11441675,-0.89391476,0
-1.0574567,1.0902383,-0.71566606,-0.039512873,0.99917513,0.0093674455,0
-1.1115439,0.94303739,-1.3001056,0.28109008,0.72703588,-0.62642407,0
-2.6101828,1.1016426,-0.6667223,-0.89779794,-0.031385541,-0.43928787,0
-2.5002456,0.78177023,-0.31744313,-0.89779794,-0.031385541,-0.43928787,0
2.1663461,-1.1256504,1.184841,0.89779794,0.031385541,0.43928787,0
2.0804734,0.32482553,1.780004,0.89779794,0.031385541,0.43928787,0
2.2666883,-0.62173915,0.0088220835,0.40083736,-0.47145614,-0.78553063,0
1.999836,-0.083313465,1.6073608,0.89779794,0.031385541,0.43928787,0
1.8944162,0.29184771,1.5351036,0.89779794,0.031385541,0.43928787,0
-2.2720504,-0.50221562,-1.1419256,-0.89779794,-0.031385541,-0.43928787,0
-2.4334021,-0.83540559,-0.53475815,-0.89779794,-0.031385541,-0.43928787,0
0.26358467,-0.97961485,0.83626688,-0.16605884,-0.89971054,0.40366495,0
-2.0831518,-0.23077273,-1.4512458,-0.89779794,-0.031385541,-0.43928787,0
2.0350122,-0.078450203,-0.39560479,0.44039676,-0.07098496,-0.89499259,0
1.0172186,0.17675424,1.7222879,-0.43807721,0.16611883,0.88345504,0
-1.9759195,0.6403991,0.21325707,-0.41877222,0.36962909,0.82946014,0
-2.1741552,-0.97086763,-1.468863,-0.89779794,-0.031385541,-0.43928787,0
2.1920586,1.2498384,0.91267544,0.89779794,0.031385541,0.43928787,0
-0.90561914,0.85946029,0.82528555,-0.37624699,0.57309395,0.72801203,0
2.5719593,0.40671587,0.31233943,0.89779794,0.031385541,0.43928787,0
1.2711716,-0.88585293,-0.20215392,0.32210386,-0.72703427,-0.60635823,0
-1.6310575,-0.49527419,-2.0702567,0.43657833,-0.19467458,-0.87835145,0
-2.6172874,0.038167238,-0.64867449,-0.89779794,-0.031385541,-0.43928787,0
-0.67141938,-0.76251495,-1.5526464,0.38915873,-0.52352589,-0.75794202,0
-2.4199121,0.13787675,-0.61005139,-0.89779794,-0.031385541,-0.43928787,0
0.69158369,-1.2425225,0.71465141,-0.12285137,-0.94001669,0.31823927,0
2.5620053,0.092083454,0.20324194,0.89779794,0.031385541,0.43928787,0
1.7947004,0.11373711,1.6580027,0.89779794,0.031385541,0.43928787,0
-1.9706218,-0.78772426,-1.267525,-0.89779794,-0.031385541,-0.43928787,0
2.5297363,0.65748668,0.66972601,0.89779794,0.031385541,0.43928787,0
-2.0805218,-0.67603743,0.19210887,-0.32696727,-0.62073082,0.71259081,0
-1.7398961,-0.27943933,-1.9551187,-0.89779794,-0.031385541,-0.43928787,0
-2.3263862,-1.1206628,-0.07300657,-0.27033567,-0.74815691,0.60595375,0
-0.90237749,-0.99858367,-1.118953,0.2491473,-0.85869652,-0.44784591,0
2.2572682,-0.58927059,1.1820847,0.89779794,0.031385541,0.43928787,0
-1.9065492,0.74519801,-0.069254279,-0.34967291,0.65720326,0.66769195,0
-1.8483021,0.45879555,-2.1677942,-0.89779794,-0.031385541,-0.43928787,0
0.76294011,-0.91903806,1.5875823,-0.32795331,-0.61810416,0.71441847,0
1.2375674,-1.0094957,0.32676092,0.10777164,-0.98278809,-0.15004246,0
2.589756,0.23344946,0.67713761,0.89779794,0.031385541,0.43928787,0
-2.1782019,0.54412937,-1.5676711,-0.89779794,-0.031385541,-0.43928787,0
-0.23224038,1.0752273,-0.87688476,0.2673195,0.75385946,-0.60019684,0
1.8052998,1.2186389,1.5065477,0.89779794,0.031385541,0.43928787,0
0.80857313,0.22077996,-0.85514081,0.4362554,0.073268533,-0.89683509,0
-2.0633478,-1.286455,-1.5246907,-0.89779794,-0.031385541,-0.43928787,0
1.1745957,-1.1847429,1.4690919,-0.20612645,-0.8515172,0.48211023,0
1.9477608,-0.60152125,1.896034,0.89779794,0.031385541,0.43928787,0
-2.4436193,0.91464686,-0.46775377,-0.89779794,-0.031385541,-0.43928787,0
-0.2434566,0.49332088,1.3150729,-0.40704912,0.43993917,0.80047768,0
-1.1396482,1.1896441,-0.36523968,-0.026338935,0.99949849,-0.017580137,0
-2.0018032,0.86295795,-0.20922256,-0.25166827,0.85511637,0.45325392,0
2.5435021,-0.33550692,0.68047881,0.89779794,0.031385541,0.43928787,0
0.16785276,1.3378713,0.54283023,-0.13974094,0.96621555,0.21656413,0
2.2561011,0.63765001,0.83802664,0.89779794,0.031385541,0.43928787,0
0.43485123,-0.36041614,-1.1941569,0.43052018,-0.27271613,-0.86039424,0
2.0466871,-0.40248036,1.3195482,0.89779794,0.031385541,0.43928787,0
-1.2087636,1.1525216,-1.5141034,0.24596995,0.79165792,-0.55926406,0
-0.37744904,0.78664565,0.81593543,-0.37530673,0.57644123,0.72585148,0
0.055065513,-0.8307687,-0.94431239,0.33127379,-0.70538819,-0.62664592,0
-2.1550169,0.18392444,-1.5976274,-0.89779794,-0.031385541,-0.43928787,0
2.7326598,-0.50522232,0.03517127,0.89779794,0.031385541,0.43928787,0
-2.1195803,0.25397515,-1.0659089,-0.89779794,-0.031385541,-0.43928787,0
-1.8705943,-1.2172724,-1.4222395,-0.89779794,-0.031385541,-0.43928787,0
-2.5399537,0.94811964,-0.18855798,-0.89779794,-0.031385541,-0.43928787,0
1.7144637,1.2583605,1.4153576,-0.22558379,0.88944519,0.39749104,0
-2.2581089,-0.97741079,-0.39852464,-0.26269209,-0.76242781,0.59135169,0
-2.2343199,0.63986993,-0.74268037,-0.89779794,-0.031385541,-0.43928787,0
0.65594101,-0.1881876,-1.240527,0.44027826,-0.039790064,-0.89697927,0
0.21058145,-0.12024656,1.5934622,-0.43883723,-0.020407319,0.8983348,0
-1.1129956,-0.48300856,0.97278988,-0.41924086,-0.24460547,0.8743028,0
0.81539965,-0.81218839,1.4783561,-0.26363033,-0.76070786,0.59314632,0
2.4740105,0.37613702,0.99945092,0.89779794,0.031385541,0.43928787,0
2.4908473,-0.094181538,0.34044796,0.89779794,0.031385541,0.43928787,0
-1.8878162,-0.79492772,-1.9607011,-0.89779794,-0.031385541,-0.43928787,0
-2.2027144,0.20686913,-1.2616637,-0.89779794,-0.031385541,-0.43928787,0
0.48759127,0.22703409,1.5858914,-0.43292823,0.24594286,0.86722851,0
0.21630633,1.2100486,0.41800809,-0.10373843,0.9844619,0.14167981,0
1.7833412,-0.28799915,1.6781466,0.89779794,0.031385541,0.43928787,0
0.02085489,0.25723836,-1.2160163,0.39954528,0.36154869,-0.84240496,0
1.9669056,0.95885074,1.6450551,0.89779794,0.031385541,0.43928787,0
2.145076,0.39321351,1.4286458,0.89779794,0.031385541,0.43928787,0
1.438063,-0.7497077,-0.4945507,0.37224865,-0.58711267,-0.71883899,0
-0.89495409,0.048359394,0.72881961,-0.44021189,0.093692571,0.89299226,0
1.5115962,1.1803098,-0.081692278,0.25753593,0.77172452,-0.58147782,0
-1.9516897,-0.408934,-1.369294,-0.89779794,-0.031385541,-0.43928787,0
2.2980838,0.43409824,0.89362317,0.89779794,0.031385541,0.43928787,0
-2.2159202,0.049718618,-1.4285362,-0.89779794,-0.031385541,-0.43928787,0
-1.1728708,1.3924412,-0.31099677,-0.14868951,0.96049112,0.23526168,0
0.66907394,0.28569254,-1.0856099,0.43515009,0.090447187,-0.89580333,0
2.2287683,-0.29013133,1.0812219,0.89779794,0.031385541,0.43928787,0
1.3265034,0.85803753,-0.39518601,0.30478019,0.67574501,-0.67117631,0
2.1845703,-0.92047858,1.1781719,0.89779794,0.031385541,0.43928787,0
-2.7874227,0.50614858,-0.47201574,-0.89779794,-0.031385541,-0.43928787,0
-2.5444894,-1.1100576,-0.4959709,-0.89779794,-0.031385541,-0.43928787,0
1.4414241,-1.0423409,-0.043758392,0.25724864,-0.84697962,-0.46524027,0
2.2846081,0.58927059,0.79898995,0.89779794,0.031385541,0.43928787,0
1.7104241,-0.63153398,-0.49902356,0.39580703,-0.49489203,-0.77357525,0
-0.49933553,-1.3411562,-0.1029084,0.014991522,-0.99905729,0.040740181,0
0.21007937,-0.28558654,1.5201817,-0.43317175,-0.11713818,0.8936671,0
2.0190446,0.028989553,1.9192855,0.89779794,0.031385541,0.43928787,0
0.27245295,-1.1695398,0.38637578,-0.042068124,-0.98678493,0.15647933,0
-0.24742877,-0.59993356,-1.393641,0.42360908,-0.3343989,-0.84186268,0
-0.074773192,-1.209973,-0.27453116,0.1190443,-0.9776212,-0.17345038,0
0.45343792,1.3912919,-0.33181614,0.13685745,0.92819202,-0.34601945,0
-2.1926003,0.32594752,-0.9912008,-0.89779794,-0.031385541,-0.43928787,0
-2.2825236,-0.26364017,-0.62157828,-0.89779794,-0.031385541,-0.43928787,0
-1.8496106,0.97074449,-0.5685339,-0.11070156,0.98151475,0.1561216,0
2.4106295,-1.0376806,1.2439767,0.89779794,0.031385541,0.43928787,0
-2.5794475,0.81755733,-0.15302676,-0.31666595,0.7392174,0.59437388,0
2.2496057,-0.91886997,1.1327266,0.89779794,0.031385541,0.43928787,0
0.23021507,-0.99785942,-0.35395727,0.20206946,-0.91562438,-0.34756291,0
0.41393995,-1.2827644,-0.49054623,0.173926,-0.94164699,-0.28818518,0
2.0201213,0.97426796,1.4746938,0.89779794,0.031385541,0.43928787,0
2.4120753,0.53741503,1.1571211,0.89779794,0.031385541,0.43928787,0
-2.1683738,-0.58819604,-1.2682111,-0.89779794,-0.031385541,-0.43928787,0
0.2238012,0.34159243,1.432169,-0.4154014,0.39167151,0.8209964,0
2.1554341,-0.38308072,-0.36342245,0.42908704,-0.28703958,-0.85644186,0
1.11975,-0.33321953,-0.60658377,0.43402189,-0.23229504,-0.87043887,0
2.3742344,-0.30066276,0.69739366,0.89779794,0.031385541,0.43928787,0
2.3525884,0.76040506,1.0009344,0.89779794,0.031385541,0.43928787,0
-2.3662255,0.79695511,-1.2075778,-0.89779794,-0.031385541,-0.43928787,0
-2.5129352,1.0549021,-1.0669709,-0.89779794,-0.031385541,-0.43928787,0
-1.826194,0.10708952,-1.5583367,-0.89779794,-0.031385541,-0.43928787,0
0.27459997,0.55290151,-1.1657164,0.40248442,0.34645635,-0.84733367,0
1.816505,0.53386688,1.8966105,0.89779794,0.031385541,0.43928787,0
-0.43120229,1.077443,0.2603631,-0.12013996,0.97708029,0.17572816,0
-2.865695,-0.51180887,0.022363067,-0.89779794,-0.031385541,-0.43928787,0
-1.9366108,1.1455157,-1.4968042,-0.89779794,-0.031385541,-0.43928787,0
-1.7123697,-0.87824094,0.47514725,-0.3495847,-0.55587792,0.75418186,0
-0.383771,-0.38583186,1.0300703,-0.38616148,-0.42348257,0.81947666,0
-1.188696,-0.77291232,-1.5431302,0.34319544,-0.6749562,-0.65318519,0
0.98361367,-0.64266503,1.8776836,-0.3973774,-0.37229398,0.83874214,0
-1.5747831,1.0605856,0.085599601,-0.23707306,0.87504947,0.42200074,0
-0.25348738,0.080728441,-1.3736069,0.41434306,0.27785814,-0.86666882,0
-2.2000222,1.04403,-0.38377762,-0.28799963,0.79646361,0.53169715,0
2.3043299,1.1616013,0.33272088,0.25854385,0.7699275,-0.58340949,0
2.0776269,0.89554834,1.203544,0.89779794,0.031385541,0.43928787,0
1.7396038,1.1604409,0.96593755,-0.13727129,0.96770978,0.21140988,0
2.3222592,-0.26906204,1.1539707,0.89779794,0.031385541,0.43928787,0
2.4341755,0.39023805,1.1285739,0.89779794,0.031385541,0.43928787,0
2.4278495,-0.68130994,1.1029971,0.89779794,0.031385541,0.43928787,0
0.12971324,0.38114765,-1.4422009,0.41237524,0.2902692,-0.86353374,0
1.0626611,-0.99593437,1.120109,-0.1538167,-0.91229725,0.37954444,0
-1.8610059,-0.051473856,-1.8945715,-0.89779794,-0.031385541,-0.43928787,0
1.6025784,1.1483951,1.0289037,-0.14395702,0.9635793,0.22536889,0
2.5314708,-1.0151823,0.59766448,0.89779794,0.031385541,0.43928787,0
2.1246765,-0.73226166,1.7053092,0.89779794,0.031385541,0.43928787,0
2.0842803,-0.41877651,1.883275,0.89779794,0.031385541,0.43928787,0
2.3868411,-0.30211329,0.74315476,0.89779794,0.031385541,0.43928787,0
-2.582417,-0.4493773,0.19929922,-0.40276265,-0.34499454,0.84779775,0
-2.1179609,-0.98124301,-0.9786126,-0.89779794,-0.031385541,-0.43928787,0
2.3639326,0.3221128,0.59970343,0.89779794,0.031385541,0.43928787,0
2.0656044,-0.21374154,1.2018155,0.89779794,0.031385541,0.43928787,0
2.3305919,-1.1583693,1.4106053,0.89779794,0.031385541,0.43928787,0
-2.2945156,-0.67308438,0.053252935,-0.36168259,-0.51658058,0.77609932,0
-1.7702008,0.69764256,-1.6935983,-0.89779794,-0.031385541,-0.43928787,0
0.33844066,0.32961181,-1.192989,0.41815281,0.25231862,-0.87263024,0
-0.59183198,1.0645391,0.014266282,-0.14529121,0.96272272,0.22815681,0
-2.2036059,0.64906359,-1.6144025,-0.89779794,-0.031385541,-0.43928787,0
2.1764908,0.33952689,1.5177743,0.89779794,0.031385541,0.43928787,0
0.61079824,0.92438453,0.95478767,-0.23529655,0.87734807,0.41820562,0
-0.52182335,0.79896414,1.0481954,-0.3878476,0.52889752,0.75487852,0
1.667799,0.51967537,2.0834651,0.89779794,0.031385541,0.43928787,0
2.4273386,1.3073739,0.93023622,0.89779794,0.031385541,0.43928787,0
1.6376364,-0.2599858,-0.50524312,0.42529029,-0.3208811,-0.84626436,0
-1.5012772,0.85210574,0.35951191,-0.34890819,0.65934795,0.66597551,0
-0.86015058,0.94893712,-1.4498796,0.29596922,0.69563931,-0.65459013,0
-2.0872569,0.7995398,-1.470489,-0.89779794,-0.031385541,-0.43928787,0
-2.0833452,0.46744061,-1.4046931,-0.89779794,-0.031385541,-0.43928787,0
-2.0486448,0.37231183,-1.8905456,-0.89779794,-0.031385541,-0.43928787,0
-2.2190182,0.31071711,-0.92763931,-0.89779794,-0.031385541,-0.43928787,0
2.4395046,-0.19394803,0.79108649,0.89779794,0.031385541,0.43928787,0
1.8357209,-0.026312351,1.5334446,0.89779794,0.031385541,0.43928787,0
-2.1120539,-0.14386868,-1.0639527,-0.89779794,-0.031385541,-0.43928787,0
2.2148657,0.61617422,1.0418507,0.89779794,0.031385541,0.43928787,0
-1.8167154,-0.41083515,-1.5500181,-0.89779794,-0.031385541,-0.43928787,0
1.6767914,1.274127,1.7026306,-0.27796495,0.8140676,0.50993073,0
-2.2989964,-1.2107028,-1.0268979,-0.89779794,-0.031385541,-0.43928787,0
2.7031856,0.029742479,0.13688672,0.89779794,0.031385541,0.43928787,0
-0.33780116,0.5190652,0.94219655,-0.3953476,0.49695086,0.77248943,0
-2.627054,0.019986153,-0.5700438,-0.89779794,-0.031385541,-0.43928787,0
-2.5926943,1.1576338,-0.77362251,-0.89779794,-0.031385541,-0.43928787,0
-1.836445,0.10020328,-2.0925255,-0.89779794,-0.031385541,-0.43928787,0
-0.84052354,0.72968298,-1.3818011,0.29593453,0.69571555,-0.65452468,0
1.2819818,0.2349093,2.0584421,-0.43911248,-0.012648284,0.89834315,0
-2.0083797,0.72625327,-1.2762768,-0.89779794,-0.031385541,-0.43928787,0
-2.5130029,-0.11106658,-0.87468898,-0.89779794,-0.031385541,-0.43928787,0
-2.3732147,-1.2422469,-0.65429133,-0.89779794,-0.031385541,-0.43928787,0
1.9028623,0.92607701,-0.34023649,0.35387611,0.54235464,-0.76198632,0
1.7478349,-0.23524857,1.7775369,0.89779794,0.031385541,0.43928787,0
-1.7964264,-1.3486121,-0.59498394,-0.099045217,-0.95751673,0.27083534,0
0.92199016,0.45183659,1.7159798,-0.43558687,0.21046111,0.87519723,0
1.919871,0.84515357,1.923617,0.89779794,0.031385541,0.43928787,0
-0.24518687,1.2457433,-0.51749068,0.16141284,0.90459967,-0.39451903,0
-2.3034759,0.33483744,-1.0311729,-0.89779794,-0.031385541,-0.43928787,0
1.9327358,0.097127199,2.0755734,0.89779794,0.031385541,0.43928787,0
-1.4747303,-0.71061093,0.2746163,-0.33808339,-0.59011197,0.73312175,0
-1.9297769,-1.2768154,-1.2172816,-0.89779794,-0.031385541,-0.43928787,0
-1.5281738,-1.4093447,-1.3020134,0.11912966,-0.97757941,-0.17362756,0
-2.1457911,0.6978929,-1.0176302,-0.89779794,-0.031385541,-0.43928787,0
-0.18133104,1.1829748,0.67123479,-0.28292441,0.80551118,0.52067792,0
-1.8771163,0.375,-1.874434,-0.89779794,-0.031385541,-0.43928787,0
-1.5991228,0.83585775,-0.13290375,-0.26381481,0.83702153,0.47937122,0
-2.5859895,-1.0262549,-0.18056852,-0.89779794,-0.031385541,-0.43928787,0
-1.8152491,-1.0815327,-1.8205507,-0.89779794,-0.031385541,-0.43928787,0
-0.54030877,-0.1128805,1.1513102,-0.44031543,0.084377676,0.89386958,0
0.88328165,-0.20477861,-0.96523809,0.42134658,-0.35148382,-0.83601803,0
-0.78569305,1.2099638,-0.43513188,-0.0040634871,0.99800527,-0.062999152,0
-2.7475061,0.72433877,-0.39907193,-0.89779794,-0.031385541,-0.43928787,0
-0.68693972,1.1244082,-1.1209663,0.22576892,0.82362366,-0.52026194,0
0.68483317,-0.30047888,1.6297904,-0.40989637,-0.30525303,0.85953796,0
-0.5616734,0.30098465,1.2909193,-0.43855399,0.15513033,0.88521457,0
2.3610597,0.65082955,0.86038876,0.89779794,0.031385541,0.43928787,0
-0.55696237,-0.46817267,-1.7172548,0.41426215,-0.39874384,-0.81816262,0
-1.8619429,-0.18977213,-1.4975107,-0.89779794,-0.031385541,-0.43928787,0
2.0967293,1.3639463,0.59480977,0.069517851,0.97485322,-0.21172726,0
-2.1550822,0.62591505,-1.7476442,-0.89779794,-0.031385541,-0.43928787,0
0.069547772,1.3525044,-0.25522238,0.088137269,0.9644745,-0.24903944,0
-0.38219345,-1.4303874,0.034902677,-0.043858528,-0.98612732,0.16009147,0
2.4423797,-0.44126105,0.71242994,0.89779794,0.031385541,0.43928787,0
-1.7599579,0.31962228,-2.1005487,-0.89779794,-0.031385541,-0.43928787,0
2.4027359,0.11709809,0.39975959,0.89779794,0.031385541,0.43928787,0
0.81697834,-1.1194363,1.1426121,-0.24886662,-0.78678203,0.56483573,0
2.2761602,0.4240489,-0.29478478,0.40322712,0.34254026,-0.84857178,0
2.2411199,-0.70822549,1.2477267,0.89779794,0.031385541,0.43928787,0
0.97704273,-0.52267122,1.652818,-0.39702764,-0.37399885,0.83814907,0
-1.9272747,-0.10518765,-1.5463128,-0.89779794,-0.031385541,-0.43928787,0
-2.4533722,0.44882679,-0.63871539,-0.89779794,-0.031385541,-0.43928787,0
-0.18206167,0.75704855,-1.2500862,0.29357922,0.700863,-0.65007877,0
1.9338435,-0.88767719,1.4762458,0.89779794,0.031385541,0.43928787,0
1.8412926,-0.23232293,2.3294957,0.89779794,0.031385541,0.43928787,0
-2.3199868,0.98233151,-1.2261971,-0.89779794,-0.031385541,-0.43928787,0
-0.17314532,-0.72307527,1.0612861,-0.37827939,-0.45583522,0.8056792,0
2.6216235,-0.62573266,0.67755967,0.89779794,0.031385541,0.43928787,0
0.5473398,1.1155252,0.3938531,-0.13311625,0.97014177,0.20274404,0
-2.3494163,1.064909,-0.83414698,-0.89779794,-0.031385541,-0.43928787,0
-0.86406136,0.531443,-1.7556038,0.39273953,0.39429483,-0.83083528,0
2.5301347,0.57562256,0.86771673,0.89779794,0.031385541,0.43928787,0
1.8451438,0.42203403,1.4952168,0.89779794,0.031385541,0.43928787,0
0.47072685,0.81550896,1.1423784,-0.35859221,0.63116461,0.68778116,0
-1.9226764,0.8795588,-2.0326998,-0.89779794,-0.031385541,-0.43928787,0
2.1034236,-0.033957958,1.8202868,0.89779794,0.031385541,0.43928787,0
-1.3111298,0.39088333,0.35842448,-0.41071039,0.41974202,0.8094033,0
-1.9097595,-0.16338849,-2.14781,-0.89779794,-0.031385541,-0.43928787,0
1.9019943,0.79522991,1.7871084,0.89779794,0.031385541,0.43928787,0
2.0551593,-1.031724,1.5268908,-0.17854488,-0.88587296,0.42819488,0
1.6918013,-1.3139433,0.47329044,0.060760021,-0.99674612,-0.052964702,0
0.98431742,1.1149294,-0.61107564,0.26937878,0.74997616,-0.60412806,0
0.45348352,-0.5819574,1.629869,-0.36133632,-0.51775813,0.77547574,0
0.23401117,-1.3600159,-0.40924558,0.19018924,-0.92728329,-0.32244968,0
0.13691366,1.1675603,-0.31413639,0.039093256,0.98784059,-0.1504747,0
1.9461684,1.4291755,0.59697163,0.10289204,0.95490569,-0.27851099,0
2.1121714,0.04708004,1.396881,0.89779794,0.031385541,0.43928787,0
2.6840544,-0.85688543,0.71387166,0.89779794,0.031385541,0.43928787,0
-2.2454329,-0.36539268,-0.87088007,-0.89779794,-0.031385541,-0.43928787,0
-1.8832648,-0.66211402,-1.830359,-0.89779794,-0.031385541,-0.43928787,0
2.2705569,1.0757917,1.2789887,0.89779794,0.031385541,0.43928787,0
-2.191946,-1.2164427,-1.0366008,-0.89779794,-0.031385541,-0.43928787,0
-2.2433808,-1.0890015,-0.87754881,-0.89779794,-0.031385541,-0.43928787,0
2.1961195,-0.97538447,0.22909606,0.32381189,-0.72310996,-0.61012942,0
-1.7916299,-0.71516991,0.23920101,-0.37106559,-0.4833408,0.79290092,0
1.9070967,0.79519129,-0.24420393,0.36275315,0.51291919,-0.77802569,0
2.7415395,0.012749672,0.37947714,0.89779794,0.031385541,0.43928787,0
-1.9336722,-0.54884779,-1.7925833,-0.89779794,-0.031385541,-0.43928787,0
0.11606967,0.96045256,0.60258132,-0.24680513,0.86197066,0.44282499,0
1.9586984,-0.49456692,1.4988838,0.89779794,0.031385541,0.43928787,0
-2.1599782,-0.25603676,-1.6086396,-0.89779794,-0.031385541,-0.43928787,0
0.41850147,0.84635675,-1.105497,0.36473611,0.50605154,-0.78158772,0
1.1110915,0.65434361,-0.71295923,0.34737939,0.56266212,-0.75015932,0
-2.2374542,-1.0414624,-0.46042937,-0.25161874,-0.78207815,0.57012433,0
1.5891955,-0.0057508945,2.0129306,0.89779794,0.031385541,0.43928787,0
-2.6930492,-0.097573519,-0.37596804,-0.89779794,-0.031385541,-0.43928787,0
-1.4781624,-0.57614839,0.7017386,-0.3965897,-0.37612259,0.8374058,0
-2.1852818,0.34638119,-1.2503977,-0.89779794,-0.031385541,-0.43928787,0
2.4525015,0.73473883,0.27133936,0.89779794,0.031385541,0.43928787,0
0.89893377,0.68220109,1.4764578,-0.39148271,0.51379102,0.7633872,0
-0.84255558,1.1454839,0.18571919,-0.23071408,0.88315314,0.40842554,0
2.1352987,-0.32588172,1.5668417,0.89779794,0.031385541,0.43928787,0
-2.220156,-0.55977762,0.11672324,-0.39676669,-0.37526569,0.83770627,0
-2.4666426,-0.555058,-0.28386891,-0.89779794,-0.031385541,-0.43928787,0
-1.9262922,0.13338566,-1.5984143,-0.89779794,-0.031385541,-0.43928787,0
-1.870885,-0.87273359,-1.6721339,-0.89779794,-0.031385541,-0.43928787,0
2.6482058,-0.59712029,-0.098110795,0.39418066,-0.50212586,-0.76973456,0
-0.7761578,0.4641189,-1.7183977,0.38579178,0.42505985,-0.81883383,0
-0.13830304,1.2990987,-0.14261962,0.0070269108,0.99630958,-0.085543901,0
-0.034181952,0.35263729,1.2837462,-0.40923944,0.42801875,0.8058058,0
0.03894341,-1.2601902,-0.04131465,0.053925514,-0.99778616,-0.038922381,0
0.77511168,-0.11366165,1.7959845,-0.43936667,-0.0047103763,0.89829552,0
2.6662729,-0.12716007,-0.087061167,0.89779794,0.031385541,0.43928787,0
2.3450222,1.2267113,0.83145893,0.89779794,0.031385541,0.43928787,0
1.1950141,1.4141197,0.51528275,-0.026928186,0.99950314,-0.016376179,0
-2.6958623,0.60599613,-0.60717916,-0.89779794,-0.031385541,-0.43928787,0
-2.0561662,0.46114993,-1.4831932,-0.89779794,-0.031385541,-0.43928787,0
2.0883856,-0.50054479,-0.27594829,0.39796591,-0.485039,-0.77869141,0
2.4873252,1.0510579,0.95378548,0.89779794,0.031385541,0.43928787,0
-2.2078764,0.53695846,-0.92162865,-0.89779794,-0.031385541,-0.43928787,0
-2.2217479,-1.3484799,-1.0143945,-0.89779794,-0.031385541,-0.43928787,0
-1.3820817,1.0230246,-1.2539471,0.16674381,0.89897788,-0.40501267,0
-2.2696822,0.29691339,-1.1806521,-0.89779794,-0.031385541,-0.43928787,0
2.1396446,1.301532,1.2037845,0.89779794,0.031385541,0.43928787,0
0.14748248,0.76578581,-0.89214051,0.30885306,0.66619503,-0.67881799,0
0.11476111,1.4228182,-0.0043739825,-0.011369467,0.99877667,-0.048122503,0
2.7970824,-0.41332126,0.37196791,0.89779794,0.031385541,0.43928787,0
-2.5784249,-0.24853468,-0.057402492,-0.89779794,-0.031385541,-0.43928787,0
-2.6900768,0.31502914,-0.052323937,-0.89779794,-0.031385541,-0.43928787,0
-2.7617397,-0.064136744,0.070863485,-0.43515134,-0.090428084,0.89580458,0
2.4078157,0.28093982,1.0215987,0.89779794,0.031385541,0.43928787,0
-1.1613994,1.0607587,-0.8782292,0.0083987713,0.9960559,-0.08832971,0
0.51998335,-0.52073121,1.3526415,-0.3938244,-0.38926196,0.83269292,0
-2.4465942,1.0587294,-0.58809102,-0.89779794,-0.031385541,-0.43928787,0
0.32744139,0.45068756,1.3834958,-0.41774035,0.37656716,0.82685554,0
2.1496611,1.0454125,0.80216718,0.89779794,0.031385541,0.43928787,0
-1.646252,1.216502,-1.0488279,0.1200946,0.94220877,-0.31276163,0
-2.0455885,-0.23101044,-1.5719533,-0.89779794,-0.031385541,-0.43928787,0
1.7981812,-0.85740685,0.10717762,0.30352759,-0.76682729,-0.56554997,0
2.0285809,0.72366476,1.3589301,0.89779794,0.031385541,0.43928787,0
2.2627091,0.050981998,1.206799,0.89779794,0.031385541,0.43928787,0
-2.0010676,0.11984921,-1.7108588,-0.89779794,-0.031385541,-0.43928787,0
1.6544276,1.269614,0.55507094,0.1076526,0.95155984,-0.28800136,0
-0.43491137,-0.34771046,0.9419015,-0.38130379,-0.4437274,0.81099522,0
-2.5172076,0.84445095,-0.36925185,-0.30771077,0.75830394,0.57470804,0
1.7050977,-0.63180363,1.8880217,0.89779794,0.031385541,0.43928787,0
-1.969599,0.89093041,-0.30302763,-0.29777092,0.77817249,0.55297393,0
-2.2487166,0.17196131,-0.91131645,-0.89779794,-0.031385541,-0.43928787,0
2.0653367,1.2892544,1.0140563,0.015704513,0.99454153,-0.10315254,0
-1.5893277,-1.1103959,-1.6475968,0.26023054,-0.84250975,-0.47165391,0
-2.7785523,-0.37212801,-0.24260598,-0.89779794,-0.031385541,-0.43928787,0
0.11148834,0.70700741,-1.0912312,0.30341032,0.67890567,-0.66860253,0
-2.3818107,-0.56016707,-0.33379358,-0.89779794,-0.031385541,-0.43928787,0
-0.27076852,-1.2270699,-0.81057829,0.19016725,-0.92730397,-0.32240313,0
0.1163981,-1.1945053,-0.21669388,0.13813591,-0.9671908,-0.21321417,0
-0.39514011,0.25979114,-1.5349165,0.40526855,0.33154798,-0.85195851,0
-2.8041553,-0.18697882,-0.33015686,-0.89779794,-0.031385541,-0.43928787,0
-0.51456916,1.1238017,-1.1834115,0.22618407,0.82300133,-0.52106589,0
0.93783045,1.1031946,0.92921388,-0.15561664,0.95572144,0.2497599,0
-2.4020739,0.044852495,-0.88036823,-0.89779794,-0.031385541,-0.43928787,0
-2.6469307,0.64630389,-0.22581339,-0.37133753,0.59023035,0.71675414,0
-1.8805978,0.68509674,0.25003511,-0.35538048,0.64076698,0.68053097,0
-2.4493778,0.92679787,-0.68414724,-0.89779794,-0.031385541,-0.43928787,0
2.089983,-0.71805024,1.2902709,0.89779794,0.031385541,0.43928787,0
1.6624582,0.32705033,1.9546504,0.89779794,0.031385541,0.43928787,0
1.823059,0.41953254,1.9431124,0.89779794,0.031385541,0.43928787,0
2.0001535,0.29847312,1.7512343,0.89779794,0.031385541,0.43928787,0
-2.4479475,0.63124132,-1.0017915,-0.89779794,-0.031385541,-0.43928787,0
-2.4671688,-0.29857659,-0.88745999,-0.89779794,-0.031385541,-0.43928787,0
-2.1970286,1.0771182,-0.65913481,-0.12368083,0.97528452,0.18309323,0
-2.2086022,1.1550848,-0.35660076,-0.26502162,0.83514476,0.48197189,0
2.1763208,-0.96010876,1.157002,0.89779794,0.031385541,0.43928787,0
-1.4737878,0.058752775,0.5762381,-0.43765175,0.17499337,0.88195139,0
1.9909238,-0.35321975,1.7116179,0.89779794,0.031385541,0.43928787,0
-1.8052282,-1.0467448,-1.3881963,0.19524348,-0.92244661,-0.33312488,0
-2.7819469,0.086578131,-0.17708653,-0.89779794,-0.031385541,-0.43928787,0
-2.3227072,0.16339493,-1.1547998,-0.89779794,-0.031385541,-0.43928787,0
1.5220344,-0.73057997,1.7720504,-0.31316239,-0.65583408,0.68688488,0
0.028023481,-1.0515989,0.46404293,-0.16539592,-0.90041649,0.40236074,0
-2.6414971,0.20803237,-0.68225187,-0.89779794,-0.031385541,-0.43928787,0
2.1897264,-0.78826952,0.06668371,0.37288833,-0.58490741,-0.72030383,0
-2.049844,-0.82665229,-1.7223854,-0.89779794,-0.031385541,-0.43928787,0
-1.8995821,0.78609681,-1.5043585,-0.89779794,-0.031385541,-0.43928787,0
-2.3418374,0.50054049,-1.1770728,-0.89779794,-0.031385541,-0.43928787,0
2.3158114,-1.1170619,0.58863062,0.89779794,0.031385541,0.43928787,0
2.17766,-0.97311282,0.14006346,0.27118671,-0.82532549,-0.49527329,0
0.93533504,-1.1227143,0.36651602,0.11853564,-0.97787005,-0.17239276,0
-2.9430516,0.18537855,0.0072385073,-0.89779794,-0.031385541,-0.43928787,0
-1.3895525,0.76052225,0.21388674,-0.27415556,0.82045543,0.50168878,0
0.49265218,0.3864986,1.490433,-0.41441762,0.39778912,0.81854856,0
0.34179872,-1.1600348,0.71116447,-0.084522069,-0.96663654,0.24180529,0
2.161809,0.50333261,1.4216799,0.89779794,0.031385541,0.43928787,0
-1.815661,-0.49129212,-2.1233909,-0.89779794,-0.031385541,-0.43928787,0
-2.5257199,0.91262746,-0.98693985,-0.89779794,-0.031385541,-0.43928787,0
2.1853156,0.95159686,0.8969993,0.89779794,0.031385541,0.43928787,0
-0.0052370429,0.18208474,1.4768192,-0.43713957,0.18479484,0.88020438,0
-2.4773314,0.29719853,0.079928517,-0.43892062,0.14566317,0.88664025,0
2.0388427,0.34875131,1.2111844,0.89779794,0.031385541,0.43928787,0
-2.3255126,-0.48929048,-0.57034755,-0.89779794,-0.031385541,-0.43928787,0
-0.48366511,1.1709139,0.34253579,-0.20128661,0.91642404,0.34590572,0
2.3257313,-0.66182995,1.3671128,0.89779794,0.031385541,0.43928787,0
0.94565332,-1.1273926,1.2380158,-0.22482401,-0.82503504,0.51843148,0
2.6209862,-0.10760546,0.059274077,0.89779794,0.031385541,0.43928787,0
0.48722935,-1.0836853,-0.6543268,0.25847644,-0.84514958,-0.46788031,0
0.13544697,-0.38445577,-1.061551,0.4247053,-0.32567233,-0.8447265,0
1.0923119,1.1946929,0.97953111,-0.20760232,0.90984422,0.3592838,0
-2.4684393,-0.27780914,0.31304479,-0.43014345,-0.15160149,0.8899402,0
1.6975925,0.52615619,2.0707872,-0.42283985,0.34033966,0.83986622,0
-2.4779801,1.0807643,-0.45954311,-0.89779794,-0.031385541,-0.43928787,0
-2.1528659,-0.32237792,-1.1225786,-0.89779794,-0.031385541,-0.43928787,0
1.9994853,0.39581966,1.9493495,0.89779794,0.031385541,0.43928787,0
-1.9849994,-1.0496759,-0.29148442,-0.23806852,-0.80457783,0.54403841,0
-2.4540522,0.28972769,-0.50495934,-0.89779794,-0.031385541,-0.43928787,0
-2.0519748,-1.0916307,-1.0637212,0.021495938,-0.9993915,0.027470352,0
2.4340982,-0.7985394,0.80703592,0.89779794,0.031385541,0.43928787,0
1.4620968,0.56386077,-0.34110075,0.35132256,0.5504539,-0.75734603,0
-2.5072167,0.47546124,-0.40362692,-0.89779794,-0.031385541,-0.43928787,0
1.3345026,-0.45960164,1.7983191,-0.36175355,-0.51633894,0.77622712,0
-1.9769411,-1.04292,0.16082346,-0.3204492,-0.63768268,0.70048052,0
-2.6061592,-1.3361744,-0.63527083,-0.89779794,-0.031385541,-0.43928787,0
-2.6476912,-0.35519361,-0.47297639,-0.89779794,-0.031385541,-0.43928787,0
-0.99588597,-0.68704736,0.85173917,-0.33054656,-0.61111605,0.71921909,0
-1.3935151,1.0618128,-0.25899088,-0.21457618,0.90223098,0.37408054,0
1.1103033,1.1589348,0.05204919,0.19609284,0.86464024,-0.46254167,0
0.66265643,1.1742667,-0.046576083,0.14168608,0.92384505,-0.35557729,0
-0.13772058,0.81862444,1.1134799,-0.38411897,0.54372811,0.74619853,0
-2.2652669,0.2296145,-0.79732323,-0.89779794,-0.031385541,-0.43928787,0
2.749409,0.66597533,0.33011705,0.89779794,0.031385541,0.43928787,0
2.4230993,-0.85178447,0.46205145,0.89779794,0.031385541,0.43928787,0
-2.3414397,-0.11870885,-0.48080665,-0.89779794,-0.031385541,-0.43928787,0
-1.2850708,-0.82507318,0.19243324,-0.28414318,-0.7208066,0.63221872,0
1.8951936,-0.022341967,2.1524427,0.89779794,0.031385541,0.43928787,0
-2.58394,-0.54871249,-0.68213654,-0.89779794,-0.031385541,-0.43928787,0
1.0552852,0.97849715,-0.53167903,0.31631345,0.64808464,-0.69277132,0
-0.32140517,-0.85829926,-1.4445977,0.38339835,-0.5465222,-0.74452615,0
2.5392222,0.87811661,0.20052743,0.35627949,0.53458679,-0.76634312,0
-0.9533416,0.70854431,0.88423038,-0.40726537,0.43878293,0.80100214,0
-2.5431919,-1.1424862,-0.8667478,-0.89779794,-0.031385541,-0.43928787,0
-2.0913074,1.0384829,-1.0902578,-0.89779794,-0.031385541,-0.43928787,0
-1.3007835,-0.49023855,-1.8670251,0.4110454,-0.41782403,-0.81022513,0
0.98461294,1.0041319,1.3460999,-0.30200273,0.76987541,0.56221539,0
0.019217312,-1.0151827,0.74722123,-0.25241899,-0.78069723,0.57166117,0
0.53976923,-0.97963607,-0.47877252,0.23349184,-0.87965542,-0.41435245,0
-0.87995642,1.24877,-0.35578385,-0.0085248947,0.99850905,-0.053916998,0
-0.62505376,-0.39021349,0.90210909,-0.41942227,-0.24329932,0.87458014,0
-2.1042802,-0.5726769,-1.332082,-0.89779794,-0.031385541,-0.43928787,0
-2.1778648,-0.52378678,-0.85997707,-0.89779794,-0.031385541,-0.43928787,0
-1.8231912,1.0738107,-1.019551,0.0056113005,0.99656117,-0.082668923,0
-0.7145611,0.95503807,0.24190971,-0.27445567,0.81995797,0.50233757,0
-1.998294,1.0831754,-1.0818669,0.011749387,0.99539542,-0.095130235,0
-1.8942329,-0.86562133,-1.9442627,-0.89779794,-0.031385541,-0.43928787,0
-0.34718508,-0.65974641,0.86149681,-0.37444174,-0.4706971,0.7988978,0
1.9630799,-0.81465042,0.14267272,0.31315076,-0.74684989,-0.58664447,0
2.2892897,-0.77445483,0.93769109,0.89779794,0.031385541,0.43928787,0
-1.750922,1.0197604,0.074071109,-0.29466224,0.78412002,0.54619592,0
-1.9884402,-0.077924013,-1.7251887,-0.89779794,-0.031385541,-0.43928787,0
-2.3124232,-0.17148113,0.091318548,-0.43995416,0.018664062,0.89782619,0
1.0084286,-0.88181877,-0.42430609,0.32379085,-0.72315836,-0.61008298,0
-0.15348274,-0.92395806,0.92459226,-0.23200786,-0.81412107,0.53233373,0
-1.6774709,1.0089937,-1.4950566,0.19825214,0.86187792,-0.46675733,0
2.5106983,-0.14653563,0.36414558,0.89779794,0.031385541,0.43928787,0
-0.82468468,-0.46027088,0.78061724,-0.40658569,-0.32426757,0.85413033,0
-0.68687308,0.050219595,0.94166893,-0.43074271,-0.14524263,0.89071059,0
-0.17814827,0.94420707,0.58830333,-0.22121692,0.8946324,0.38819557,0
-1.6425755,0.099480748,0.67491543,-0.43912554,-0.012260288,0.89834213,0
-1.3777353,-1.2806818,-0.10206926,-0.16765583,-0.8979978,0.4068065,0
2.258481,-0.35335374,1.1289814,0.89779794,0.031385541,0.43928787,0
-2.3054066,0.18088675,-0.8329035,-0.89779794,-0.031385541,-0.43928787,0
2.3439975,-0.60099316,0.97645366,0.89779794,0.031385541,0.43928787,0
2.3071904,0.1731286,0.91098022,0.89779794,0.031385541,0.43928787,0
-0.54320318,1.12791,0.28276068,-0.18217731,0.93458456,0.30555347,0
-1.1957552,-0.078116298,-2.0313704,0.43623364,-0.20037818,-0.87723935,0
-0.49081731,-1.019794,-0.60602564,0.21971208,-0.89638466,-0.38499486,0
-2.8024611,-0.67955089,0.073452234,-0.36235762,-0.51427567,0.77731425,0
2.2451391,-1.0344536,0.78970593,0.89779794,0.031385541,0.43928787,0
-2.4035401,0.09401083,-0.73408973,-0.89779794,-0.031385541,-0.43928787,0
-2.1991971,-0.67139363,-1.4011819,-0.89779794,-0.031385541,-0.43928787,0
-0.56812179,-0.6277898,-1.4666626,0.37099665,-0.5913896,-0.71597475,0
-2.1131344,0.27941179,-1.6180491,-0.89779794,-0.031385541,-0.43928787,0
2.0847933,1.0167723,1.112353,0.89779794,0.031385541,0.43928787,0
-1.9877205,0.47974133,-1.2728868,-0.89779794,-0.031385541,-0.43928787,0
2.4470334,-0.53180218,0.3109802,0.89779794,0.031385541,0.43928787,0
-1.9080319,-0.61745298,-1.5686115,-0.89779794,-0.031385541,-0.43928787,0
0.42882204,-1.2662647,0.91066384,-0.15320444,-0.912902,0.37833616,0
-2.8272943,-0.30111933,-0.026109815,-0.89779794,-0.031385541,-0.43928787,0
1.059553,-0.55583084,-0.73302436,0.39579874,-0.49492908,-0.77355582,0
0.12391227,-0.7899518,0.99244761,-0.29306692,-0.70197332,0.64911103,0
-0.3319912,-0.52164096,1.2766905,-0.36431551,-0.5075177,0.78083289,0
-1.5996234,-0.069632292,0.79806554,-0.43535975,-0.087339967,0.89600992,0
2.2440012,0.10420871,1.2658613,0.89779794,0.031385541,0.43928787,0
-1.7529278,-0.94876301,-0.17180276,-0.20536733,-0.85253596,0.48063168,0
-1.5764234,0.14083898,0.56724459,-0.4382132,-0.035788208,0.89815837,0
-1.0319852,-1.2890631,-1.3457576,0.23113018,-0.88263327,-0.40931308,0
1.876961,-0.44087338,1.6377701,0.89779794,0.031385541,0.43928787,0
2.0298138,-0.36986017,1.2368941,0.89779794,0.031385541,0.43928787,0
1.8722687,0.676265,2.1859031,0.89779794,0.031385541,0.43928787,0
2.3222117,-0.48044562,0.5366143,0.89779794,0.031385541,0.43928787,0
-2.0931628,1.2547493,-0.82557917,-0.072584033,0.99436224,0.077300541,0
-2.4693744,0.13969541,-0.024185658,-0.42814055,0.29597923,0.85386872,0
-0.59609634,-0.31615365,1.1618901,-0.42848176,-0.16830242,0.88773745,0
-1.2421262,-0.79451036,-1.7481246,0.39839673,-0.48303646,-0.77971518,0
-0.36500394,-1.2126567,-0.75966817,0.20015585,-0.91757095,-0.34351292,0
-2.2199583,-1.0525533,-1.4249834,-0.89779794,-0.031385541,-0.43928787,0
2.5893748,0.15795064,0.46944463,0.89779794,0.031385541,0.43928787,0
0.094241984,-0.4330548,1.2419094,-0.36945361,-0.48924381,0.79002827,0
-1.8756063,0.15271401,-2.2215185,-0.89779794,-0.031385541,-0.43928787,0
-2.3939946,-1.3125434,-1.0949519,-0.89779794,-0.031385541,-0.43928787,0
-2.1611586,-1.1565357,-0.19152099,-0.18966138,-0.87267089,0.44997111,0
1.9622777,-0.89341664,1.4091349,0.89779794,0.031385541,0.43928787,0
2.4070308,-0.47303152,0.75202215,0.89779794,0.031385541,0.43928787,0
2.4556031,-0.11678767,0.96136922,0.89779794,0.031385541,0.43928787,0
-2.1425285,1.10798,-1.2961704,-0.89779794,-0.031385541,-0.43928787,0
-2.6368425,0.25075912,-0.48951006,-0.89779794,-0.031385541,-0.43928787,0
-2.3334148,0.16357994,-0.71006989,-0.89779794,-0.031385541,-0.43928787,0
-2.5922203,0.53867674,-0.26163524,-0.89779794,-0.031385541,-0.43928787,0
2.5352182,0.060984373,0.18041897,0.89779794,0.031385541,0.43928787,0
0.52323812,-1.0744727,0.52627873,-0.029375434,-0.99096847,0.13083747,0
2.3716865,-0.94512534,1.2999289,0.89779794,0.031385541,0.43928787,0
-1.1134067,0.49250317,-1.7521002,0.34852278,0.55915838,-0.75224584,0
2.1430168,0.025702,-0.41297239,0.43567878,0.082484126,-0.89631492,0
-2.3423314,0.12359047,-1.1517012,-0.89779794,-0.031385541,-0.43928787,0
0.48410797,0.92924899,1.2847761,-0.38062823,0.55705702,0.73811215,0
-1.3261783,-0.49023187,-1.734297,0.4014191,-0.46863428,-0.78692096,0
-2.3686647,0.62925982,0.16113001,-0.37295717,0.58466905,0.72046173,0
2.0976074,1.1361253,1.1593177,0.89779794,0.031385541,0.43928787,0
0.9770695,1.3809,0.68573171,-0.057062864,0.99733925,0.045366518,0
1.8405992,-1.0272928,0.2768594,0.22514331,-0.88997555,-0.39655262,0
-0.33301055,1.3143872,-0.4870556,0.076258719,0.97131169,-0.22525129,0
2.553736,1.0436965,0.57773358,0.89779794,0.031385541,0.43928787,0
0.89879674,-0.78652751,1.2821968,-0.29030585,-0.70790243,0.64389175,0
1.7989373,0.17427421,-0.43529373,0.41797641,0.25355068,-0.87235773,0
-2.0440054,0.97891021,-1.2891226,-0.89779794,-0.031385541,-0.43928787,0
-1.5615413,1.3393382,-0.86475039,0.031731486,0.99025518,-0.13560155,0
-1.4247351,0.81515718,0.14716351,-0.34754276,0.66314346,0.66291392,0
-2.0550232,0.37613177,0.12002999,-0.42740762,0.30265394,0.85189396,0
1.4424078,0.0093004704,2.2645319,-0.44027224,0.039230943,0.89700687,0
-0.77439356,-1.3642792,-0.96084428,0.20677108,-0.91072702,-0.35752195,0
-2.1201792,-1.1713699,-0.25462896,-0.18513918,-0.87814391,0.44111988,0
2.1000285,0.024726868,-0.16529179,0.44010156,-0.10111806,-0.89223647,0
2.0729609,-0.58268213,1.5019587,0.89779794,0.031385541,0.43928787,0
1.914953,-0.6644814,1.8513999,0.89779794,0.031385541,0.43928787,0
-0.084471464,1.2765719,-0.10743713,0.052290738,0.98280489,-0.17708747,0
0.69887894,0.34939688,1.6107419,-0.44006419,0.10331953,0.89200258,0
-1.525187,-0.29183674,-1.9193226,0.43501174,-0.21885812,-0.87342191,0
-2.264322,-0.69367194,0.081971765,-0.37650374,-0.4627791,0.80254626,0
2.0095437,-0.95615482,1.5892963,0.89779794,0.031385541,0.43928787,0
-0.5226261,1.1117945,-0.66784555,0.17388308,0.89115989,-0.41904506,0
-2.0996134,0.25702095,-1.539475,-0.89779794,-0.031385541,-0.43928787,0
0.90082848,-0.14848745,1.7660162,-0.412025,-0.29242879,0.8629722,0
0.4020052,0.97036594,1.2491736,-0.31781149,0.73668927,0.59689587,0
-2.5715122,0.54463387,-0.84028572,-0.89779794,-0.031385541,-0.43928787,0
-2.2459302,-0.91444945,-1.1180671,-0.89779794,-0.031385541,-0.43928787,0
2.2756386,-0.11901116,0.63452822,0.89779794,0.031385541,0.43928787,0
-1.5594554,-0.97620606,-1.3720307,0.24437845,-0.86531007,-0.43762705,0
-0.28785187,-0.4402377,1.3571768,-0.41014466,-0.30378258,0.85994035,0
1.9803904,0.56814921,-0.48979658,0.39625281,0.37774819,-0.83683336,0
-1.7391945,0.28516936,-2.0812294,-0.89779794,-0.031385541,-0.43928787,0
1.7152753,-0.78931057,-0.33955675,0.38015825,-0.55881333,-0.7370261,0
2.6743369,-0.12159777,-0.046909928,0.42361224,-0.33437365,-0.84187102,0
-0.06588459,-0.051545843,-1.4410951,0.43880343,0.021310627,-0.89833045,0
-0.24041939,1.2306261,-0.58645403,0.086160064,0.96566576,-0.24508364,0
-2.0839219,0.1390543,-1.3638039,-0.89779794,-0.031385541,-0.43928787,0
-2.0913293,-1.0690112,-1.0444546,-0.89779794,-0.031385541,-0.43928787,0
-0.22094262,0.29324946,0.95796585,-0.42854771,0.29217973,0.85497248,0
1.7554024,-1.1406603,1.8491305,-0.24822569,-0.78786743,0.5636034,0
0.89585793,0.95283532,-0.26222065,0.21579337,0.83816427,-0.50091314,0
1.9882369,-0.33596039,2.0764735,0.89779794,0.031385541,0.43928787,0
1.6680744,-0.57487369,2.0666132,0.89779794,0.031385541,0.43928787,0
2.1193376,-0.59703517,0.049154401,0.38730872,-0.53108096,-0.75362122,0
2.2416129,-0.91558743,1.1125036,0.89779794,0.031385541,0.43928787,0
0.54361951,0.55955499,-0.94124353,0.39796025,0.36943579,-0.83972907,0
2.2095778,-1.1494429,1.6679575,0.89779794,0.031385541,0.43928787,0
2.2626746,0.88546646,1.133309,0.89779794,0.031385541,0.43928787,0
2.0471261,0.29794312,1.3573728,0.89779794,0.031385541,0.43928787,0
-1.9824309,1.1435988,-1.3034025,0.020111322,0.99349523,-0.11208426,0
-0.49389496,0.7695266,-1.1000749,0.32776695,0.61860198,-0.71407306,0
2.3171225,0.50990915,0.57687867,0.89779794,0.031385541,0.43928787,0
2.4315927,0.19119573,1.0417664,0.89779794,0.031385541,0.43928787,0
-1.6671149,-1.3513769,-0.31770319,-0.094661951,-0.96039152,0.26208255,0
0.64857101,-0.83844066,-0.58391541,0.30436552,-0.76513946,-0.56738281,0
-1.62204,-0.61994112,-2.1183341,-0.89779794,-0.031385541,-0.43928787,0
-0.29332924,1.0125993,-0.87901139,0.28119084,0.72683209,-0.62661541,0
2.7106965,-0.056456804,0.42622352,0.89779794,0.031385541,0.43928787,0
2.1473451,-0.76580071,1.6347986,0.89779794,0.031385541,0.43928787,0
-2.7484167,-0.62088132,-0.23073691,-0.35011971,-0.55421561,0.75515646,0
-2.5441041,-0.5161581,0.20097506,-0.41873157,-0.24824172,0.87352169,0
-0.26071811,-0.76882499,-1.1254382,0.30439627,-0.76507717,-0.56745023,0
2.128912,1.1698109,0.93037301,0.89779794,0.031385541,0.43928787,0
2.3108552,0.032812119,0.88253909,0.89779794,0.031385541,0.43928787,0
-0.22713679,-0.11070532,1.320911,-0.43226951,-0.12806688,0.89260399,0
-0.84762084,-1.0756215,-0.95850724,0.16694927,-0.94726551,-0.27352506,0
-1.2992597,-0.99933201,-1.400094,0.2926622,-0.78788269,-0.54183924,0
-0.96217781,-0.43549263,-1.7264967,0.43650752,-0.19586647,-0.8781215,0
1.7836498,-1.0317037,-0.13441426,0.30995667,-0.75362659,-0.57963252,0
-0.30031425,1.129699,-0.43655092,0.0074342489,0.99623525,-0.086371116,0
2.5925112,0.91718626,0.11235464,0.31332582,0.65543592,-0.68719041,0
-2.0987763,0.60558105,0.37645912,-0.38796341,0.52842629,0.75514901,0
-2.4010599,-0.88044822,-0.73793095,-0.89779794,-0.031385541,-0.43928787,0
1.0439651,0.77940905,-0.75896484,0.37983686,0.44964558,-0.80841994,0
2.6899939,0.1485908,0.43274426,0.89779794,0.031385541,0.43928787,0
2.4687586,0.47004104,0.68696392,0.89779794,0.031385541,0.43928787,0
-1.9729201,0.27500653,-1.7446488,-0.89779794,-0.031385541,-0.43928787,0
-2.5163732,-0.15605402,-0.8153981,-0.89779794,-0.031385541,-0.43928787,0
0.51082408,1.1491127,1.0994987,-0.3018173,0.770244,0.56181014,0
-1.8781531,1.0043888,0.11168826,-0.30852658,0.75661284,0.57649642,0
-2.1741438,0.9134841,-1.3414044,-0.89779794,-0.031385541,-0.43928787,0
2.4779258,-0.38488841,0.38186997,0.89779794,0.031385541,0.43928787,0
-0.73053479,1.350571,0.061252683,-0.17913401,0.93724251,0.29914415,0
1.7286416,1.249751,0.78814054,0.054162264,0.98201704,-0.18085624,0
-1.7508469,-0.78842103,-1.7769214,-0.89779794,-0.031385541,-0.43928787,0
-1.6175836,-1.3364646,-1.2319593,0.15243793,-0.95794719,-0.24310449,0
-2.1715083,0.4007051,-0.85532761,-0.89779794,-0.031385541,-0.43928787,0
2.3965294,-0.76231885,0.68431252,0.89779794,0.031385541,0.43928787,0
-1.9738014,-1.4078429,-0.79302204,-0.030421734,-0.99065518,0.13295333,0
-2.0372326,1.0661705,-1.6884458,-0.89779794,-0.031385541,-0.43928787,0
-0.12383217,-0.90430081,0.73416257,-0.29730594,-0.69268608,0.65711117,0
2.5645046,-0.26696682,0.083405018,0.89779794,0.031385541,0.43928787,0
0.41284108,-0.85214025,-0.79914129,0.37781769,-0.56742889,-0.73162711,0
0.32710254,1.2824669,0.34832862,-0.094421625,0.98798066,0.1223873,0
2.1778464,0.42644763,-0.40123135,0.40944567,0.30790555,-0.85880649,0
0.77120697,-1.2393906,0.90754133,-0.085567951,-0.96601838,0.24389869,0
-1.7142942,0.11471939,-1.8119259,-0.89779794,-0.031385541,-0.43928787,0
-2.1037788,-1.398609,-0.29994172,-0.17998785,-0.88420689,0.431025,0
1.0448766,-0.047601581,2.0171437,-0.42927644,-0.16047576,0.88880217,0
-1.6474224,-0.89475644,-1.5669014,0.29008985,-0.79264951,-0.53624117,0
2.2745204,-0.60839248,1.492815,0.89779794,0.031385541,0.43928787,0
2.5348046,0.215657,0.71416843,0.89779794,0.031385541,0.43928787,0
1.9210203,0.48921251,1.7183379,0.89779794,0.031385541,0.43928787,0
-2.0172436,-0.23068833,0.32113659,-0.4149577,-0.27387932,0.86764061,0
1.8857325,1.311518,1.3197577,-0.092008471,0.98881376,0.11739565,0
2.260926,0.68437147,0.89091575,0.89779794,0.031385541,0.43928787,0
2.2965007,0.65806174,0.76918113,0.89779794,0.031385541,0.43928787,0
2.3631189,0.3586719,0.50986826,0.89779794,0.031385541,0.43928787,0
-2.0410385,-1.2911378,-0.48075598,-0.1540255,-0.91209066,0.37995636,0
-1.0801015,-0.027249217,-1.9006321,0.43594959,0.078230888,-0.89656454,0
1.9234302,0.1348145,1.5483053,0.89779794,0.031385541,0.43928787,0
-0.170169,0.8969785,1.0885541,-0.3806603,0.5569368,0.73818636,0
-0.30190933,-1.0644494,0.48369327,-0.23790359,-0.80484176,0.54372019,0
-1.9816965,-1.1631738,-1.1585593,-0.89779794,-0.031385541,-0.43928787,0
0.62205416,0.082669675,1.5295722,-0.43241411,-0.12635879,0.8927775,0
2.231168,0.49504852,1.063962,0.89779794,0.031385541,0.43928787,0
2.549063,-0.61060166,0.81858104,0.89779794,0.031385541,0.43928787,0
1.8153783,-0.0077431202,2.1428254,0.89779794,0.031385541,0.43928787,0
-1.7745452,-1.0300205,-0.57404107,-0.10934329,-0.95034081,0.29136956,0
-1.8926567,0.57352543,-2.1098831,-0.89779794,-0.031385541,-0.43928787,0
-0.69320881,-0.94524199,-1.2053581,0.32857001,-0.7119208,-0.62065327,0
-2.6810269,0.97827506,-0.5249359,-0.89779794,-0.031385541,-0.43928787,0
-1.051688,0.24242246,-1.8063526,0.4172152,0.25880754,-0.87117749,0
-1.6243786,-1.1324818,-0.4191539,-0.053855717,-0.9821474,0.18023883,0
-2.6860237,0.097507,-0.49400407,-0.89779794,-0.031385541,-0.43928787,0
1.158299,-1.3209362,0.61358285,0.00092089176,-0.99758905,0.069392048,0
0.88331592,-0.72343403,-0.75077039,0.41210461,-0.41167843,-0.8128289,0
-2.4536428,-1.2899579,-0.7694658,-0.89779794,-0.031385541,-0.43928787,0
2.3545518,0.54854703,0.65626812,0.89779794,0.031385541,0.43928787,0
0.36506665,-0.92579865,1.092236,-0.29888999,-0.68915719,0.66009635,0
1.8293778,-0.16260004,1.6501694,0.89779794,0.031385541,0.43928787,0
2.0812707,-1.06742,0.15457404,0.25999916,-0.84285969,-0.47115591,0
-2.6365743,-0.50869274,-0.20871443,-0.35628378,-0.53457272,0.76635098,0
1.8956697,-1.0190699,1.5820138,0.89779794,0.031385541,0.43928787,0
-2.2600827,-0.37228703,-0.93038666,-0.89779794,-0.031385541,-0.43928787,0
2.0257802,-0.65127397,1.8027849,0.89779794,0.031385541,0.43928787,0
-2.2543645,0.83725333,-0.85240608,-0.89779794,-0.031385541,-0.43928787,0
2.0849574,0.65119469,1.8061929,0.89779794,0.031385541,0.43928787,0
-2.0012937,-0.9475776,-1.3728921,-0.89779794,-0.031385541,-0.43928787,0
2.1815343,-0.90557337,1.0889227,0.89779794,0.031385541,0.43928787,0
-0.24006939,-0.46251589,-1.4653338,0.39751261,-0.48713207,-0.77761567,0
-2.0132122,-1.2942667,-1.1378433,-0.89779794,-0.031385541,-0.43928787,0
1.9890282,-1.0425522,1.5084169,0.89779794,0.031385541,0.43928787,0
-2.3886385,-0.16094756,-0.73352897,-0.89779794,-0.031385541,-0.43928787,0
-0.53690052,-1.3199325,-0.1132299,0.025654674,-0.99949074,0.018978087,0
1.1522111,-1.0123492,1.2495825,-0.23872358,-0.80352747,0.54530221,0
2.3066735,-0.65422225,0.89130729,0.89779794,0.031385541,0.43928787,0
0.60470998,1.0242774,-0.65119088,0.20316941,0.85546136,-0.47634855,0
1.9837112,0.51252139,1.6229647,0.89779794,0.031385541,0.43928787,0
1.1921589,0.50110245,1.9615941,-0.42640591,0.31146067,0.84921753,0
2.3107941,0.66247857,0.068296194,0.35741198,0.53087592,-0.76839268,0
1.8125696,-0.89805841,1.7926033,0.89779794,0.031385541,0.43928787,0
-0.48949838,0.49474233,1.1520493,-0.41642612,0.38515523,0.82355613,0
2.8833909,0.27653003,0.16239953,0.89779794,0.031385541,0.43928787,0
-2.4482856,0.66437745,-0.58292574,-0.89779794,-0.031385541,-0.43928787,0
-2.0978818,0.97193623,-1.8261492,-0.89779794,-0.031385541,-0.43928787,0
-2.405056,0.27706957,0.086886644,-0.44015378,0.097810447,0.89257932,0
-1.3250306,-0.68922174,0.34810197,-0.33476689,-0.5994854,0.72701335,0
0.73270571,0.28422058,-0.96411216,0.43069828,0.14572035,-0.89065403,0
1.9682229,1.0811188,0.34266597,0.18276787,0.88095742,-0.43647438,0
-2.2031152,-0.40525961,-1.2861128,-0.89779794,-0.031385541,-0.43928787,0
-0.060470641,-0.092137799,-1.3205687,0.43956143,-0.0020546615,-0.89821005,0
1.6118276,1.1089863,1.9217396,-0.32130313,0.7288577,0.60459137,0
-2.3483658,-0.80594468,-0.9763357,-0.89779794,-0.031385541,-0.43928787,0
2.3562593,-0.12953353,0.91885322,0.89779794,0.031385541,0.43928787,0
-1.8456224,-0.38037848,0.38458365,-0.43121722,-0.14006266,0.89131039,0
0.25951099,1.1293062,0.97784245,-0.23280281,0.88052911,0.4128817,0
-2.4851394,-0.26678133,-0.19642717,-0.89779794,-0.031385541,-0.43928787,0
2.0228195,0.38794613,1.4848672,0.89779794,0.031385541,0.43928787,0
2.7075722,0.11616802,-0.044341087,0.42633599,0.18818831,-0.88477272,0
-0.96340013,1.0399262,-0.83103162,0.045049429,0.9856807,-0.16249344,0
-2.3799772,0.63696194,-0.18889821,-0.34408039,0.67258435,0.65516329,0
-1.0863879,1.224007,-0.5380432,-0.038734078,0.9992193,0.0077722715,0
0.20791852,-1.3072429,-0.5577836,0.19255918,-0.92503786,-0.32745364,0
2.5515261,0.29566741,-0.18269527,0.43686438,0.062806219,-0.89733207,0
-2.2043548,-1.3620471,-1.0693519,-0.89779794,-0.031385541,-0.43928787,0
2.4946988,0.74714065,0.7414723,0.89779794,0.031385541,0.43928787,0
0.13815549,0.06551674,-1.3144327,0.43292227,0.12022662,-0.8933779,0
-2.0661037,-0.60487342,-1.5861714,-0.89779794,-0.031385541,-0.43928787,0
-2.2769446,0.3467145,-0.64766598,-0.89779794,-0.031385541,-0.43928787,0
0.39571452,0.027854145,1.6032842,-0.44017541,0.03155911,0.89735699,0
1.6211731,1.1763904,0.26085532,0.065209687,0.97698933,-0.20307513,0
2.6139677,-0.49724293,0.59684539,0.89779794,0.031385541,0.43928787,0
-1.6610856,0.41741061,-1.9040515,-0.89779794,-0.031385541,-0.43928787,0
