2.0954778,2.2876506,-0.84386897,0.70273399,0.48014855,-0.52499735,0
2.8265195,1.4965632,-0.72033691,0.70273399,0.48014855,-0.52499735,0
-1.401041,-1.5783684,-0.23115742,-0.18840265,-0.58598691,-0.78811395,0
-0.86550575,-1.2300916,-0.26463363,-0.18403029,-0.5901314,-0.78605187,0
-2.4217248,-1.0422251,1.3312595,-0.70273399,-0.48014855,0.52499735,0
1.2412015,1.514008,-2.5411844,-0.58333606,-0.033581913,-0.81153631,0
-2.9769917,-1.1868863,0.82610679,-0.70273399,-0.48014855,0.52499735,0
-0.48961335,-1.9645833,1.5428414,0.67884535,-0.67336696,0.29282361,0
-0.9744156,-1.4859278,-0.38530007,-0.083104849,-0.67747265,-0.73083806,0
-1.1402056,0.83256191,0.66560984,-0.46817172,0.86772662,0.1669293,0
-0.47094053,-0.0077804923,-1.1095843,-0.49017453,-0.20807689,-0.84642357,0
1.1292249,0.97818881,-2.4072309,-0.4817965,-0.2217899,-0.84775066,0
2.3663216,0.66589117,-1.7643607,0.70273399,0.48014855,-0.52499735,0
-2.6317019,-1.0783863,1.5017948,-0.70273399,-0.48014855,0.52499735,0
-1.3482571,-1.7558179,2.5651548,-0.70273399,-0.48014855,0.52499735,0
-1.6301751,-0.84871852,2.5956008,-0.70273399,-0.48014855,0.52499735,0
3.0261843,0.84461141,-0.62669992,0.70948887,-0.418167,0.56724048,0
1.5229155,1.9291167,-2.0668614,0.70273399,0.48014855,-0.52499735,0
2.502996,1.6091505,-0.78309035,0.70273399,0.48014855,-0.52499735,0
-1.325109,-1.9330726,0.106262,0.045434833,-0.76670426,-0.64039057,0
-0.56159186,-1.5253645,1.6468192,0.71145266,-0.47430342,0.51852816,0
-2.5544517,-0.86143589,1.3601592,-0.70273399,-0.48014855,0.52499735,0
0.22180957,-1.1222458,0.00021970272,0.44410884,-0.87254584,-0.20354629,0
-1.6135138,-2.0086863,1.4160638,-0.70273399,-0.48014855,0.52499735,0
1.5410128,2.3020182,-0.90514469,-0.29826164,0.86877143,0.39531755,0
-0.87046313,0.6141597,-0.34465945,-0.66149139,0.71260864,-0.2337051,0
-2.1982398,-2.5061507,0.61676621,-0.70273399,-0.48014855,0.52499735,0
2.801373,1.0566406,-0.96585512,0.70273399,0.48014855,-0.52499735,0
-2.0441487,-0.72355974,0.29767048,-0.6656276,0.18316391,-0.72345757,0
-1.4226849,-1.5540305,2.6052492,-0.70273399,-0.48014855,0.52499735,0
1.6289861,2.3483577,-1.5740099,0.70273399,0.48014855,-0.52499735,0
2.7846491,1.553828,-0.61010182,0.70273399,0.48014855,-0.52499735,0
-2.3477328,-0.16296911,1.495972,-0.48158675,0.86419505,0.14574265,0
2.694392,1.7975745,-0.80389392,0.70273399,0.48014855,-0.52499735,0
-2.6950424,-0.6663065,1.8773562,-0.70273399,-0.48014855,0.52499735,0
0.26437747,0.36324114,1.3392226,0.42049009,0.31494051,0.85088223,0
-2.8967168,-0.95930934,0.6447295,-0.70273399,-0.48014855,0.52499735,0
-2.2046919,-1.6207861,1.3472123,-0.70273399,-0.48014855,0.52499735,0
2.2561171,0.45136249,-1.998312,0.70273399,0.48014855,-0.52499735,0
-2.0495687,-1.2610015,2.1443603,-0.70273399,-0.48014855,0.52499735,0
1.0907401,2.4276016,-1.1801813,-0.46368849,0.86876786,0.17388248,0
-2.0542448,-0.2056756,1.7443557,-0.26921052,0.8625136,0.42848074,0
2.6105547,0.81517744,-1.4052896,0.70273399,0.48014855,-0.52499735,0
1.7506191,0.048491955,-0.15322077,0.69985664,-0.59922171,0.38875937,0
1.8515456,0.94227016,-2.4588683,0.70273399,0.48014855,-0.52499735,0
-2.1474609,-0.99038398,1.9344079,-0.70273399,-0.48014855,0.52499735,0
2.2256501,1.1313874,-1.4349647,0.70273399,0.48014855,-0.52499735,0
1.9184263,1.1199493,-2.3360307,0.70273399,0.48014855,-0.52499735,0
0.16800421,1.2875502,-1.513183,-0.7071448,0.39031124,-0.58957887,0
-1.6619642,-1.8793527,1.5564728,-0.70273399,-0.48014855,0.52499735,0
-1.7340035,-1.7447946,1.7015178,-0.70273399,-0.48014855,0.52499735,0
-1.9331877,-1.6073966,2.001025,-0.70273399,-0.48014855,0.52499735,0
1.6292222,2.1906996,-1.6241698,0.70273399,0.48014855,-0.52499735,0
2.4490561,1.0705961,-1.814891,0.70273399,0.48014855,-0.52499735,0
2.732655,0.7071135,-0.5990634,0.6980623,-0.32284465,0.63912451,0
2.5906491,0.11607885,-1.9016237,0.70273399,0.48014855,-0.52499735,0
-1.7975612,-1.8833228,1.7209266,-0.70273399,-0.48014855,0.52499735,0
-0.45555365,-0.27933502,1.8152883,0.44713968,0.2759009,0.85084945,0
-2.0853305,-1.7042098,1.1078241,-0.70273399,-0.48014855,0.52499735,0
1.3182222,2.5310633,-1.3702056,-0.43020844,0.87450993,0.22394884,0
-2.2899919,-1.9576432,0.89373344,-0.70273399,-0.48014855,0.52499735,0
-2.3293805,-0.68280292,1.8025959,-0.70273399,-0.48014855,0.52499735,0
2.7204695,0.90586495,-1.3112667,0.70273399,0.48014855,-0.52499735,0
2.1193385,2.1270022,-0.69456512,0.70273399,0.48014855,-0.52499735,0
-1.9209597,-1.8070973,1.2872022,-0.70273399,-0.48014855,0.52499735,0
1.9995751,1.8813803,-1.2236345,0.70273399,0.48014855,-0.52499735,0
1.4321201,1.7546775,-2.0914388,0.70273399,0.48014855,-0.52499735,0
2.2757964,1.8856258,-1.0626886,0.70273399,0.48014855,-0.52499735,0
2.3241119,0.94508481,-1.4798592,0.70273399,0.48014855,-0.52499735,0
-2.7836936,-1.5857706,0.47914612,-0.70273399,-0.48014855,0.52499735,0
-1.6430609,-0.98999751,2.2427886,-0.70273399,-0.48014855,0.52499735,0
-1.8037548,-2.1544392,1.5646544,-0.70273399,-0.48014855,0.52499735,0
-2.4053135,-2.1021028,0.54421341,-0.70273399,-0.48014855,0.52499735,0
-1.8676808,-2.0923622,0.95814317,-0.70273399,-0.48014855,0.52499735,0
-0.98853743,-1.8167522,0.21806669,0.18190622,-0.83465624,-0.51986432,0
-0.72434831,0.62520057,0.80871797,-0.25980687,0.86015135,0.43890753,0
1.3762571,0.049129248,0.2485255,0.70911103,-0.41288364,0.57156676,0
-1.4797986,-1.8111688,2.4548783,-0.70273399,-0.48014855,0.52499735,0
-2.789777,-1.337424,0.73027623,-0.70273399,-0.48014855,0.52499735,0
-0.55748975,-1.9232999,1.0574955,0.58197045,-0.81241333,0.035983741,0
-0.36492515,0.82093763,1.1363584,-0.084993958,0.78929651,0.60810107,0
0.94690007,-0.94238079,0.41128552,0.66673648,-0.70194077,0.25048238,0
1.8873676,0.98572838,-2.6170096,0.70273399,0.48014855,-0.52499735,0
-2.2761269,-0.48559105,2.2474477,-0.70273399,-0.48014855,0.52499735,0
2.0727038,1.3160359,-0.13498509,0.40686685,0.33412153,0.85018933,0
-0.61973131,1.1068373,0.43956012,-0.32944506,0.87365401,0.3580426,0
2.3932433,1.2658499,-0.060227871,0.51339436,0.16862452,0.84142244,0
-2.307394,-0.47249627,2.4937084,-0.70273399,-0.48014855,0.52499735,0
0.80947506,0.21588802,-2.0685344,-0.27828324,-0.49362341,-0.82395035,0
0.73023367,0.041231036,-1.615406,-0.1727283,-0.60070181,-0.78059089,0
0.77689749,0.054548025,0.64021343,0.6378243,-0.09826538,0.76388741,0
-1.9777796,-1.9264954,1.6540245,-0.70273399,-0.48014855,0.52499735,0
-2.0682316,-0.880633,-0.3044728,-0.56585908,-0.070075572,-0.8215186,0
1.3760449,0.30161715,0.27291012,0.67426813,-0.21403465,0.70678979,0
-0.79104877,-1.2500232,1.9849991,0.62237942,-0.057376146,0.78060997,0
1.6819181,1.6842322,-1.8717659,0.70273399,0.48014855,-0.52499735,0
-2.9221697,-0.67903209,0.94633472,-0.70273399,-0.48014855,0.52499735,0
-2.9761055,-1.7357407,0.45902419,-0.70273399,-0.48014855,0.52499735,0
0.42016697,0.2496742,1.3313907,0.50736308,0.17908683,0.8429178,0
-1.3861144,0.7876839,0.63891828,-0.5553062,0.83146942,0.017135799,0
-1.3786116,-1.9994981,2.0613065,-0.70273399,-0.48014855,0.52499735,0
2.4557769,1.4153273,-1.0201919,0.70273399,0.48014855,-0.52499735,0
1.5612049,0.046761274,0.28806055,0.66363674,-0.17642963,0.72695166,0
1.2166947,0.8349486,-2.3593171,-0.4705829,-0.23974386,-0.84916109,0
1.5025244,1.542574,-2.1671791,0.70273399,0.48014855,-0.52499735,0
0.71708715,-0.4032712,-1.6325825,-0.0028772354,-0.73599899,-0.67697632,0
-1.9333675,0.27880371,0.92896092,-0.51897287,0.85071516,0.083371282,0
-1.3763274,-1.6212347,2.3356481,-0.70273399,-0.48014855,0.52499735,0
2.6136155,0.50976062,-1.5208596,0.70273399,0.48014855,-0.52499735,0
-2.5953007,-0.7682116,1.8126624,-0.70273399,-0.48014855,0.52499735,0
-2.6545677,-1.9686323,0.4499011,-0.70273399,-0.48014855,0.52499735,0
1.6338418,2.2446778,-1.3996854,0.70273399,0.48014855,-0.52499735,0
0.21305324,-1.447422,0.99513954,0.68655062,-0.65118927,0.32342058,0
-2.3335302,-1.3797243,1.176706,-0.70273399,-0.48014855,0.52499735,0
2.1868792,0.29645765,-1.7863984,0.37971717,-0.87715745,-0.29395524,0
0.91109484,0.33355516,0.68183869,0.54832822,0.10466501,0.82968748,0
-2.1494386,-0.79699409,1.742353,-0.70273399,-0.48014855,0.52499735,0
1.3618199,1.2009709,0.47561014,0.39762193,0.34685761,0.84946263,0
0.73598945,2.2695026,-1.1431766,-0.60226649,0.79430532,-0.079712033,0
1.8589177,1.4233025,-1.6021516,0.70273399,0.48014855,-0.52499735,0
2.4624443,0.57108307,-1.7063212,0.70273399,0.48014855,-0.52499735,0
0.64821625,-0.9232828,0.09038794,0.54486156,-0.8377167,-0.036829948,0
-3.1073375,-1.0956721,0.69699979,-0.70273399,-0.48014855,0.52499735,0
2.3140078,1.9526848,-0.60839057,0.70273399,0.48014855,-0.52499735,0
2.5642283,0.82508802,-1.6330174,0.70273399,0.48014855,-0.52499735,0
2.8926866,0.46158314,-1.2845297,0.70273399,0.48014855,-0.52499735,0
-0.99230742,-0.17951286,-0.67698306,-0.60092682,0.0055595934,-0.79928458,0
2.223053,0.26714826,-1.644305,0.40734923,-0.87654054,-0.25640416,0
-3.0194638,-0.3736012,1.6697496,-0.70273399,-0.48014855,0.52499735,0
2.399183,0.86085677,-1.9542131,0.70273399,0.48014855,-0.52499735,0
-2.1156662,-0.69013345,-0.13131678,-0.64907706,0.13053149,-0.74943995,0
2.8553884,0.71164536,-1.2046013,0.70273399,0.48014855,-0.52499735,0
0.096758485,-1.4733641,0.16110289,0.40424359,-0.8767072,-0.26071364,0
-2.7768703,-1.6803197,0.60707819,-0.70273399,-0.48014855,0.52499735,0
-1.7940652,-1.3231734,1.8801501,-0.70273399,-0.48014855,0.52499735,0
1.5509119,2.4951687,-0.56115198,-0.15870321,0.82512313,0.54220372,0
1.1987247,0.35536659,-2.1529963,-0.23400843,-0.5408709,-0.80789763,0
2.5660224,0.37473702,-1.5946827,0.70273399,0.48014855,-0.52499735,0
-1.4559708,-1.265142,2.2657404,-0.70273399,-0.48014855,0.52499735,0
-0.54553735,-0.59555352,-0.92125499,-0.25615537,-0.51767719,-0.81632996,0
-0.84869051,0.84351569,1.0628558,-0.24003965,0.85466784,0.46035185,0
-2.5803246,-1.5045565,0.67892194,-0.57439435,-0.052524537,-0.81689179,0
1.9117937,2.2183354,-0.41029835,0.033638,0.71467429,0.69864798,0
-0.86259389,0.726367,1.1539087,-0.20061827,0.84171247,0.50127059,0
2.1266179,2.2519627,-0.82546568,0.70273399,0.48014855,-0.52499735,0
1.6292346,1.3740709,-2.1886351,0.70273399,0.48014855,-0.52499735,0
0.97002363,0.099010825,-2.0106869,-0.20358443,-0.57135361,-0.79505229,0
1.6588604,0.094850421,-1.7465317,0.2342931,-0.85294449,-0.46646786,0
-1.4877741,-1.2941701,2.2599726,-0.70273399,-0.48014855,0.52499735,0
-0.4181487,-1.6943833,1.0858763,0.68015534,-0.66986072,0.29778379,0
1.9096591,-0.13110495,-1.7348542,0.2486636,-0.85714543,-0.45107418,0
2.5178623,1.153181,-1.1519915,0.70273399,0.48014855,-0.52499735,0
-0.28387871,-1.8216087,0.93672633,0.64582431,-0.74007583,0.18761301,0
-1.6842282,-1.2300479,2.3167686,-0.70273399,-0.48014855,0.52499735,0
-2.2764306,-2.1899574,0.90357071,-0.70273399,-0.48014855,0.52499735,0
0.55830967,1.5198543,-0.059888341,-0.16621685,0.82830393,0.53505552,0
0.91932625,-0.81292295,0.04693532,0.64897269,-0.73500818,0.19646221,0
1.8434151,0.45794845,-2.4211216,-0.13166511,-0.63740647,-0.75919503,0
-0.07670337,-1.1667765,1.4869691,0.70449376,-0.36666882,0.60765308,0
-2.1716995,-0.28065753,1.8481953,-0.34823555,0.87562209,0.33469069,0
1.4691902,2.3530934,-0.84777331,-0.19756258,0.84059942,0.50434268,0
0.75177479,1.8137112,-1.0202169,-0.63056856,0.76207072,-0.14707673,0
2.3241816,2.1353812,-0.91355217,0.70273399,0.48014855,-0.52499735,0
1.6434652,1.1249586,-2.1383309,0.70273399,0.48014855,-0.52499735,0
1.0506063,2.2518053,-0.46579438,-0.2761606,0.86415529,0.42067903,0
-1.4048206,-2.3714776,1.1871588,0.34913671,-0.87569726,-0.33355299,0
2.1492403,-0.057757616,-1.6338573,0.42685771,-0.87489867,-0.22878951,0
-2.7836928,-1.3666472,0.86605179,-0.70273399,-0.48014855,0.52499735,0
-2.1938934,-1.9088963,0.98233813,-0.70273399,-0.48014855,0.52499735,0
2.2258067,0.81177986,-1.8879457,0.70273399,0.48014855,-0.52499735,0
-1.1127687,0.48242268,-0.26433802,-0.70846272,0.53985184,-0.45457721,0
1.4811337,0.1977793,-1.9343181,0.031880856,-0.75843406,-0.65096951,0
-2.364574,-0.66485512,2.0779476,-0.70273399,-0.48014855,0.52499735,0
-1.887623,-1.8769705,1.4299273,-0.70273399,-0.48014855,0.52499735,0
-2.2791646,-0.696329,1.9539323,-0.70273399,-0.48014855,0.52499735,0
-0.39157307,0.85579044,0.61558402,-0.15288293,0.8225981,0.54768527,0
1.2970507,2.5490153,-1.3117647,-0.45563054,0.87047136,0.18622661,0
-1.8536224,-0.16765082,1.7302868,-0.23802686,0.85407078,0.4624998,0
-0.53810161,-1.7100742,1.1143159,0.6676839,-0.69991767,0.2536009,0
-0.3039763,0.85285294,0.98031831,-0.11249804,0.8036322,0.58439654,0
0.16790366,-0.04836186,1.2946153,0.49166781,0.20560476,0.84616154,0
-1.6808023,-1.8048954,1.948573,-0.70273399,-0.48014855,0.52499735,0
-1.9648039,-0.36770701,2.2687218,-0.16600645,0.82821608,0.53525674,0
1.9876003,0.59891856,0.094476104,0.67696035,-0.22429264,0.70101172,0
1.206267,0.23782933,-2.2121253,-0.30094051,-0.46804455,-0.83088446,0
0.59975564,-0.8697536,0.39304996,0.67734188,-0.67727673,0.28723526,0
1.6258143,-0.15010917,-0.21598446,0.69134063,-0.63507438,0.34457046,0
-1.761802,-0.92152834,2.6690168,-0.70273399,-0.48014855,0.52499735,0
-1.8966398,-1.5875882,1.9078324,-0.70273399,-0.48014855,0.52499735,0
2.6934702,0.92849374,-0.89055705,0.70273399,0.48014855,-0.52499735,0
-1.1667281,0.50681698,-0.29561973,-0.69665426,0.61412275,-0.37084478,0
-2.8572054,-1.0693314,1.0908155,-0.70273399,-0.48014855,0.52499735,0
2.7622578,0.80887294,-1.530259,0.70273399,0.48014855,-0.52499735,0
-0.18779564,-0.11150537,1.6180277,0.33958185,0.42206952,0.84056014,0
-0.21349275,-0.46161339,1.6428893,0.5271793,0.14410183,0.83744645,0
-0.57319897,-1.2276397,1.9866384,0.63860095,-0.10041833,0.76295793,0
0.55302095,0.24906123,-1.9644773,-0.42484123,-0.30870676,-0.85100526,0
-2.5879242,-1.7692634,0.58154178,-0.70273399,-0.48014855,0.52499735,0
1.1435419,-0.78284252,-0.29236758,0.53803253,-0.84147465,-0.049407959,0
1.7699994,0.7399261,-2.391372,0.70273399,0.48014855,-0.52499735,0
1.9957578,1.5041809,-1.6450689,0.70273399,0.48014855,-0.52499735,0
1.8202374,1.311065,0.30643046,0.36220193,0.393686,0.84487933,0
1.6728528,2.1387739,-1.4343157,0.70273399,0.48014855,-0.52499735,0
-0.2456876,-1.2710482,-0.27751535,0.14401352,-0.81864834,-0.55594498,0
1.666021,-0.32636666,-0.49136651,0.65215784,-0.72966737,0.20561016,0
-1.0876194,0.59880471,0.0081987381,-0.62755829,0.76597428,-0.13947701,0
-0.36245537,0.84235477,-1.3309125,-0.70611221,0.38045913,-0.59720719,0
1.8595252,1.9595648,-1.2422206,0.70273399,0.48014855,-0.52499735,0
-2.3392932,-0.33897614,0.92288411,-0.62566757,0.76836103,-0.1347636,0
1.3698506,1.7529917,0.15843284,0.091670513,0.67066306,0.73607576,0
2.6870391,0.79524374,-0.6993295,0.69864011,-0.32631004,0.63672876,0
1.5372117,1.6697266,-0.13174385,0.24746144,0.52688521,0.81311411,0
-1.1108699,-0.94233203,-0.33453131,-0.34776795,-0.41192833,-0.8422426,0
0.90404058,-0.9039216,-0.48799628,0.41193789,-0.87624764,-0.24999404,0
1.6567893,-0.43251705,-0.34089971,0.59412301,-0.80199838,0.061775744,0
-0.4496007,0.042949289,1.5375274,0.33148217,0.43196207,0.83876574,0
2.2827382,1.4855155,-1.5030651,0.70273399,0.48014855,-0.52499735,0
-1.3104722,0.070340514,1.9393574,0.085178852,0.67583364,0.73211551,0
0.7560088,0.99571872,0.64440501,0.2492094,0.52504468,0.81377059,0
2.2313411,1.2829026,-1.5812151,0.70273399,0.48014855,-0.52499735,0
-0.64694071,0.83331984,-0.51790649,-0.69708174,0.61225164,-0.37312835,0
-2.2451921,-0.452461,0.44766557,-0.71144861,0.47671324,-0.51631886,0
2.2273006,0.24918103,-0.52522111,0.70707655,-0.55306685,0.44063568,0
-1.3170917,-0.049509287,1.5426185,-0.11916101,0.80693352,0.57849711,0
-1.5767355,-0.137555,-0.52563608,-0.6504705,0.13470122,-0.7474916,0
-1.8885074,-0.84866238,2.6654613,-0.70273399,-0.48014855,0.52499735,0
-2.8562417,-1.2085919,0.64730883,-0.66656286,0.18637243,-0.72177505,0
0.16905856,1.1739508,0.69294107,-0.11136699,0.80306512,0.58539188,0
2.7926123,0.38325214,-1.3169781,0.63561821,-0.75521976,0.16010159,0
-0.58271182,0.59433317,-1.0047576,-0.68115342,0.24101004,-0.69133508,0
2.7448444,1.5668638,-0.5825125,0.70273399,0.48014855,-0.52499735,0
-2.0005517,-2.1680212,1.1168516,-0.70273399,-0.48014855,0.52499735,0
0.95796138,2.2240772,-0.57269746,-0.34813589,0.87561369,0.33481652,0
-2.4095011,-1.5588366,1.0969464,-0.70273399,-0.48014855,0.52499735,0
0.77886415,0.74953073,-2.0683572,-0.51691657,-0.16244128,-0.84048194,0
-2.3197141,-1.3817298,1.6281117,-0.70273399,-0.48014855,0.52499735,0
-2.7713594,-0.76662469,0.63655531,-0.68047291,0.23823011,-0.69296676,0
-2.140533,-1.849689,1.528574,-0.70273399,-0.48014855,0.52499735,0
1.8721715,0.88240671,0.21320093,0.61621922,-0.041968614,0.78645563,0
-1.8919681,-1.5623494,1.7688934,-0.70273399,-0.48014855,0.52499735,0
2.9154198,1.364738,-0.65789604,0.70273399,0.48014855,-0.52499735,0
1.1334128,1.1404972,-2.5416131,-0.59596241,-0.0057592392,-0.80299151,0
-2.3482106,-0.44470608,2.2035646,-0.70273399,-0.48014855,0.52499735,0
2.5554261,0.40835333,-2.0254054,0.38418847,-0.87718689,-0.28799716,0
1.49367,1.6952429,-2.0889013,0.70273399,0.48014855,-0.52499735,0
2.1954863,1.8649548,-0.79642135,0.70273399,0.48014855,-0.52499735,0
2.2396026,1.130788,-0.36245811,0.60765445,-0.02127561,0.79391646,0
2.4447327,0.76463163,-0.23774028,0.68081981,-0.23964363,0.69213825,0
-0.13512844,1.1146635,0.026038826,-0.39283991,0.8771044,0.2763412,0
-1.675227,-1.6150644,2.2210643,-0.70273399,-0.48014855,0.52499735,0
-1.4348077,-1.7724701,1.8500333,-0.70273399,-0.48014855,0.52499735,0
-2.341347,-0.27935672,1.992661,-0.70273399,-0.48014855,0.52499735,0
-2.5685349,-0.49644542,1.7857463,-0.70273399,-0.48014855,0.52499735,0
-1.5493059,-2.2632799,1.3420544,-0.70273399,-0.48014855,0.52499735,0
0.81153226,1.8632956,-2.0831807,-0.70448637,0.36660925,-0.60769767,0
-1.3415065,-2.011791,2.0956469,-0.70273399,-0.48014855,0.52499735,0
-1.9064393,-1.0339901,1.9113637,-0.70273399,-0.48014855,0.52499735,0
-1.6983545,-1.3077675,2.12444,-0.70273399,-0.48014855,0.52499735,0
-2.8865883,-1.716136,0.64172232,-0.70273399,-0.48014855,0.52499735,0
2.3836436,1.4724693,-0.52219701,0.53235757,0.13465792,0.83574075,0
2.1234775,1.4093043,-1.2326771,0.70273399,0.48014855,-0.52499735,0
2.656215,1.1188785,-0.29793394,0.61744648,-0.045001328,0.78532457,0
2.1613469,1.1008339,-2.1173496,0.70273399,0.48014855,-0.52499735,0
0.45719302,-1.1735535,-0.10721463,0.40707535,-0.87655634,-0.25678509,0
2.0027409,0.1371336,-2.0143216,0.13361645,-0.81386298,-0.56548518,0
-1.8865893,-2.0526233,1.6649319,-0.70273399,-0.48014855,0.52499735,0
1.4285656,-0.32220966,-1.1365235,0.34380168,-0.87522626,-0.34026361,0
-1.8054466,-1.6494009,-0.13516235,-0.36194563,-0.394014,-0.84483618,0
1.2110211,0.019617736,0.6166411,0.66618448,-0.18507072,0.72245896,0
0.21299231,0.54411113,1.0225842,0.28552353,0.4855561,0.82626355,0
-0.31958121,-1.386355,0.00044365227,0.35425293,-0.87609005,-0.3270641,0
1.5073358,2.0481534,-0.71718985,-0.23550022,0.8533113,0.46518749,0
2.6799173,0.74461412,-1.1549443,0.70273399,0.48014855,-0.52499735,0
2.9859247,1.013474,-1.0587362,0.70273399,0.48014855,-0.52499735,0
-1.7486595,-1.0094824,2.3312089,-0.70273399,-0.48014855,0.52499735,0
-2.0703919,-0.19849813,1.4448684,-0.38559741,0.87718606,0.28611028,0
2.6258793,0.42774534,-0.99881184,0.6693998,-0.69617182,0.25932354,0
2.0036156,1.1826603,-2.1717772,0.70273399,0.48014855,-0.52499735,0
-0.23975974,-1.2449782,1.8210967,0.70635331,-0.38267329,0.59550488,0
1.5217595,1.1792736,-2.8323734,0.70273399,0.48014855,-0.52499735,0
-1.8180737,0.12941313,0.32208014,-0.66419542,0.70721751,-0.24225515,0
2.534543,1.4709097,-0.77376175,0.70273399,0.48014855,-0.52499735,0
1.5198092,1.8521743,-1.6961005,0.70273399,0.48014855,-0.52499735,0
-1.7434534,0.22501266,0.78111613,-0.57308149,0.81930542,-0.017782092,0
-2.7710216,-0.65763664,1.7708919,-0.70273399,-0.48014855,0.52499735,0
0.37181389,0.13046134,1.1414763,0.47029454,0.2401996,0.84919196,0
-2.3155751,-0.95715439,1.9868975,-0.70273399,-0.48014855,0.52499735,0
1.9007372,0.82407546,-2.4210801,0.70273399,0.48014855,-0.52499735,0
-2.2525141,-0.98211122,1.8601238,-0.70273399,-0.48014855,0.52499735,0
1.2014904,-0.37966239,0.19313502,0.70832902,-0.54125345,0.45311642,0
-2.2850609,-0.51028073,1.9803877,-0.70273399,-0.48014855,0.52499735,0
2.7804289,0.96340728,-0.8960681,0.70470035,-0.36833858,0.60640258,0
2.046355,0.76395977,-2.188427,0.70273399,0.48014855,-0.52499735,0
-1.9173135,0.082773566,1.9856242,-0.21841478,0.84788722,0.48309642,0
2.4429688,1.6043243,-0.8199594,0.70273399,0.48014855,-0.52499735,0
-0.072988033,-0.10154851,1.398307,0.43031603,0.30078703,0.85109049,0
-0.074137509,-1.7179927,0.68429554,0.58579504,-0.8092649,0.043982565,0
-2.3164763,-1.0621743,1.2740322,-0.70273399,-0.48014855,0.52499735,0
-0.63464427,0.48049664,1.0639592,-0.070282578,0.781165,0.62035596,0
0.98284459,0.1625824,0.97658998,0.54491872,0.11118284,0.83108473,0
-1.2471151,-1.1420841,2.3339214,0.55266875,0.09627226,0.82782173,0
2.8036618,1.1042228,-1.2225033,0.70273399,0.48014855,-0.52499735,0
-1.6883471,-1.4338807,1.9985001,-0.70273399,-0.48014855,0.52499735,0
-1.7391241,-1.0361835,-0.17164743,-0.40236205,-0.3403551,-0.84986061,0
-2.3216546,-0.8350898,2.2205141,-0.70273399,-0.48014855,0.52499735,0
0.37518764,-0.3856537,1.6011362,0.5886541,0.022024721,0.80808485,0
-1.1830863,-0.26580286,-0.81841338,-0.62654769,0.06807518,-0.77640438,0
-2.5128195,-0.99650764,0.032700062,-0.62682152,0.068786144,-0.77612066,0
2.2972977,0.68115211,-2.3824275,0.70273399,0.48014855,-0.52499735,0
2.6613517,1.4726645,-1.0766093,0.70273399,0.48014855,-0.52499735,0
1.8846055,0.75375569,-2.5552001,0.70273399,0.48014855,-0.52499735,0
-1.3528745,-2.2247081,2.0102744,-0.70273399,-0.48014855,0.52499735,0
0.7331233,1.7669678,-0.078414872,-0.10695779,0.80083609,0.58925503,0
1.5791142,1.2399901,-2.7336361,0.70273399,0.48014855,-0.52499735,0
-0.013459921,0.85889232,0.99953353,-0.046116948,0.76711339,0.63985181,0
1.6416813,1.2279017,0.049316525,0.43578851,0.29278445,0.85109663,0
2.2769186,0.78843176,-2.1752067,0.70273399,0.48014855,-0.52499735,0
-0.2892071,1.0410206,0.37390685,-0.39015937,0.87714988,0.27997082,0
-1.3993788,-1.3048108,2.4698334,0.46957767,0.2413317,0.84926772,0
2.4643793,0.12303448,-1.9685071,0.34855771,-0.87564921,-0.33428431,0
-1.7490541,-1.5617838,1.9441589,-0.70273399,-0.48014855,0.52499735,0
-1.8150303,-1.7574847,1.5859965,-0.70273399,-0.48014855,0.52499735,0
-0.38076246,-1.3444415,1.6679372,0.69075751,-0.28378132,0.66507304,0
0.2266624,-0.46076638,1.2022527,0.66536582,-0.18227133,0.72392356,0
0.49153781,0.82194698,0.75319606,0.31740379,0.44882989,0.83534807,0
2.0034845,2.260675,-1.1251101,0.70273399,0.48014855,-0.52499735,0
-1.5707712,-0.20190597,-0.41047025,-0.66861016,0.19350144,-0.71799546,0
1.4668148,-0.59735125,-1.0353098,0.46249944,-0.86903274,-0.17571652,0
2.7782221,1.805854,-0.70034134,0.70273399,0.48014855,-0.52499735,0
2.1748855,1.5592083,-1.719049,0.70273399,0.48014855,-0.52499735,0
-2.2597756,-0.27272618,0.10214365,-0.70584726,0.37807995,-0.59902853,0
-0.6890018,-1.765889,1.1518774,0.57933164,-0.81452012,0.030524731,0
2.5128114,0.86905372,-1.2082949,0.70273399,0.48014855,-0.52499735,0
0.41732082,1.448967,-1.443457,-0.71130395,0.48924997,-0.50465935,0
0.55864376,1.2637957,-1.8672597,-0.70984852,0.42367166,-0.56268746,0
0.94489223,1.5635765,-2.3358636,-0.69191146,0.2894769,-0.66140878,0
1.5879385,1.9928678,-1.3862184,0.70273399,0.48014855,-0.52499735,0
-2.554297,-0.55567026,1.8898685,-0.70273399,-0.48014855,0.52499735,0
0.75639939,1.8445059,-1.9460959,-0.71141011,0.46617109,-0.52590883,0
2.1047978,1.2427478,-1.8852655,0.70273399,0.48014855,-0.52499735,0
-2.018724,-1.5424836,1.3467003,-0.70273399,-0.48014855,0.52499735,0
1.9663643,1.2032034,-1.7988381,0.70273399,0.48014855,-0.52499735,0
2.0636415,0.39684045,-2.2483006,0.065941691,-0.77870429,-0.62391615,0
1.9479573,2.4938166,-1.0900247,0.70273399,0.48014855,-0.52499735,0
-2.0023787,-1.5562669,1.8267636,-0.70273399,-0.48014855,0.52499735,0
-2.4662004,-0.26659894,0.62410414,-0.71143281,0.47975478,-0.51351601,0
1.5287126,1.5813607,-1.9974349,0.70273399,0.48014855,-0.52499735,0
-1.2011288,-2.4220195,1.7645485,0.59031999,-0.80538863,0.053584635,0
1.9986271,1.0358053,-1.7973835,0.70273399,0.48014855,-0.52499735,0
1.2864329,2.1730914,-2.1360476,-0.68249202,0.66335613,-0.30686045,0
2.7910509,1.7620572,-0.5389396,0.70273399,0.48014855,-0.52499735,0
-2.3268282,-0.51575243,2.1922324,-0.70273399,-0.48014855,0.52499735,0
-0.87038106,-1.641664,2.0922694,0.68360764,-0.2512773,0.68523008,0
-0.85812116,0.7257722,0.32886434,-0.54564649,0.83726859,0.035369575,0
-1.5050484,-1.9302747,1.6514536,-0.70273399,-0.48014855,0.52499735,0
1.3312184,-0.018355012,0.13930929,0.70996785,-0.4256258,0.56105995,0
1.4577301,-0.19764256,0.38821673,0.70955765,-0.4191792,0.56640679,0
1.7712802,1.3542312,-1.7771144,0.70273399,0.48014855,-0.52499735,0
-0.42394257,-0.87017727,1.8953483,0.57767427,0.04564482,0.81499004,0
-1.7857736,-0.90256679,2.2234154,-0.70273399,-0.48014855,0.52499735,0
1.488034,2.063477,-2.1432145,0.70273399,0.48014855,-0.52499735,0
0.75885403,0.47203422,-1.8385267,-0.45894861,-0.25791219,-0.85020423,0
1.3906307,1.7366254,0.13995707,0.080392241,0.67960626,0.72915858,0
-0.32774135,-1.7614306,1.4245868,0.68532282,-0.65499699,0.31829464,0
2.2450871,1.2102594,-1.2837164,0.70273399,0.48014855,-0.52499735,0
-1.5496539,-0.96629882,2.4991834,-0.70273399,-0.48014855,0.52499735,0
-0.60032916,-1.7312585,0.49227297,0.3570447,-0.87627983,-0.32350072,0
1.9454486,1.4683326,-2.0282242,0.70273399,0.48014855,-0.52499735,0
-1.3905857,-1.996557,2.003293,-0.70273399,-0.48014855,0.52499735,0
2.2393684,-0.050351858,-0.45648384,0.67068887,-0.69328547,0.26368868,0
-1.3032638,-1.7199712,2.1982033,-0.70273399,-0.48014855,0.52499735,0
-1.8796585,-1.0712608,2.2226825,-0.70273399,-0.48014855,0.52499735,0
1.1734486,-0.62123597,-0.87292737,0.43108374,-0.87440294,-0.22267938,0
2.3225527,1.7398534,-0.74515319,0.70273399,0.48014855,-0.52499735,0
1.9874382,1.7232105,-1.7870059,0.70273399,0.48014855,-0.52499735,0
-1.9839442,-1.7901958,1.2492065,-0.70273399,-0.48014855,0.52499735,0
-1.3492937,-1.1194966,-0.46754307,-0.40864676,-0.33164391,-0.8503058,0
1.3263043,1.7903444,-2.1669147,0.70273399,0.48014855,-0.52499735,0
-1.9101368,-2.1603532,1.3800659,-0.70273399,-0.48014855,0.52499735,0
-0.29921448,0.29754442,-1.3867879,-0.60459143,0.014064699,-0.7964114,0
2.7492423,0.55482221,-1.4991124,0.70273399,0.48014855,-0.52499735,0
-2.0158439,-0.90640807,2.4918168,-0.70273399,-0.48014855,0.52499735,0
0.48301268,-0.90063918,0.93647832,0.70246178,-0.3513276,0.6189639,0
-1.5034523,-1.2392074,2.1985726,-0.70273399,-0.48014855,0.52499735,0
0.49351799,0.93095767,1.039127,0.28978765,0.48075852,0.82758349,0
2.3878012,0.7330097,-2.1452937,0.70273399,0.48014855,-0.52499735,0
-2.0664382,-0.58477151,0.014681578,-0.64849448,0.12880057,-0.75024331,0
-0.075281441,0.81538451,-1.5010602,-0.6874339,0.26813185,-0.67493683,0
-2.1486337,-0.92704475,1.9749255,-0.70273399,-0.48014855,0.52499735,0
1.6438562,0.8289808,0.15055132,0.4957037,0.19888037,0.8454138,0
-2.1814065,-1.8476187,1.4426078,-0.70273399,-0.48014855,0.52499735,0
-2.6667237,-0.32860994,1.5688879,-0.70273399,-0.48014855,0.52499735,0
-1.1313152,-1.7421331,2.2403736,-0.70273399,-0.48014855,0.52499735,0
-2.6003962,-1.2214947,0.97296369,-0.70273399,-0.48014855,0.52499735,0
1.5897428,2.218627,-1.635277,0.70273399,0.48014855,-0.52499735,0
-0.44859272,-1.7178277,1.0678056,0.674496,-0.6843676,0.27694076,0
1.7647438,1.7460868,-1.3822988,0.70273399,0.48014855,-0.52499735,0
0.31884122,-1.0566096,-0.79475933,0.20334411,-0.84269249,-0.49851814,0
0.61646283,-0.0091093779,-1.7743547,-0.24359071,-0.53094184,-0.811643,0
-1.284369,0.406883,1.2637616,-0.30882472,0.87064421,0.38289133,0
-1.9940107,-1.6774497,1.4123102,-0.70273399,-0.48014855,0.52499735,0
-2.9497685,-0.87892413,0.78959346,-0.70273399,-0.48014855,0.52499735,0
1.61844,1.1982539,-2.7477624,0.70273399,0.48014855,-0.52499735,0
2.7881591,0.45839429,-1.8443438,0.70273399,0.48014855,-0.52499735,0
1.6872095,2.7093782,-0.87030166,-0.25976127,0.86013949,0.43895781,0
-2.0294526,-1.0168835,2.2658851,-0.70273399,-0.48014855,0.52499735,0
1.5308837,1.2459302,-2.152626,0.70273399,0.48014855,-0.52499735,0
-1.2688462,-1.8029928,0.28291729,0.08624208,-0.78997159,-0.6070478,0
-2.1188312,-2.2792666,0.62527144,-0.70273399,-0.48014855,0.52499735,0
-0.96720719,-1.1127325,2.2420068,0.55331057,0.095022082,0.8275373,0
-0.28129858,-1.1152289,1.7621648,0.674703,-0.21566877,0.70587736,0
-0.56230485,0.55434209,-1.0041326,-0.66684556,0.18734837,-0.72126091,0
-1.0762905,-2.1062369,1.6446402,0.6855638,-0.65425855,0.31929266,0
-0.94959581,0.64411139,-0.6263175,-0.70699072,0.5538047,-0.43984592,0
-2.7342675,-1.7890798,0.73173797,-0.70273399,-0.48014855,0.52499735,0
-2.1446881,-1.266852,1.5532333,-0.70273399,-0.48014855,0.52499735,0
0.094634056,0.60722232,1.2410195,0.26596975,0.50711924,0.81981105,0
-1.4920483,-2.1857815,1.713028,-0.70273399,-0.48014855,0.52499735,0
-1.6547146,-1.2725252,2.4395704,-0.70273399,-0.48014855,0.52499735,0
-0.28208554,0.83567834,1.0068623,-0.14821708,0.8205356,0.55204433,0
2.2550583,1.1127539,-1.9389199,0.70273399,0.48014855,-0.52499735,0
-2.4641657,-1.7827408,0.8882457,-0.70273399,-0.48014855,0.52499735,0
1.4304576,1.736896,-1.8385534,0.70273399,0.48014855,-0.52499735,0
-1.2201321,-2.2809181,1.7310072,-0.70273399,-0.48014855,0.52499735,0
2.0291431,2.0635309,-0.56428063,0.048703432,0.70372558,0.70880044,0
2.4969728,1.0796841,-1.1597321,0.70273399,0.48014855,-0.52499735,0
1.6921521,2.5165365,-1.1351491,0.70273399,0.48014855,-0.52499735,0
1.672574,2.5029607,-1.111581,0.70273399,0.48014855,-0.52499735,0
-2.266299,-0.94681263,1.9859509,-0.70273399,-0.48014855,0.52499735,0
-2.2309549,-1.5714128,0.1005615,-0.44924444,-0.27272704,-0.85076398,0
-0.37896496,-1.8598354,1.2946591,0.69524425,-0.62007523,0.36351341,0
-0.9304983,-1.4543731,2.0736513,0.64724016,-0.1250971,0.75195134,0
-1.1262217,-1.0806793,-0.37423527,-0.22179127,-0.5533002,-0.80291176,0
-1.3204467,0.41684127,-0.25176585,-0.69186795,0.63315868,-0.34702832,0
-2.0863731,-1.2258276,1.7214732,-0.70273399,-0.48014855,0.52499735,0
2.6109641,0.82593131,-1.831238,0.70273399,0.48014855,-0.52499735,0
2.2162523,1.5434722,-1.0548137,0.70273399,0.48014855,-0.52499735,0
-1.4539959,-1.9874996,1.8926799,-0.70273399,-0.48014855,0.52499735,0
-1.5808706,-2.3330402,1.1008283,-0.70273399,-0.48014855,0.52499735,0
1.5098766,0.083943963,0.51920629,0.67129749,-0.20309317,0.71282017,0
0.96335906,1.1892271,-1.9377805,-0.64898157,0.13024721,-0.74957228,0
1.0910965,0.59766626,-2.2608862,-0.35675794,-0.40062115,-0.84393495,0
1.8796781,0.12523293,-1.6011548,0.25749481,-0.85954607,-0.44144875,0
-1.4903305,-2.4289341,1.5252168,-0.70273399,-0.48014855,0.52499735,0
0.14484638,1.094484,-1.5071595,-0.69433236,0.30194348,-0.65324771,0
1.5061262,1.9585228,0.010608494,0.085494161,0.67558402,0.73230916,0
2.4015522,1.364819,-1.4220847,0.70273399,0.48014855,-0.52499735,0
-0.025520474,-1.3801174,0.52186507,0.63005114,-0.76275074,0.14576221,0
-0.38620871,0.54823399,-1.3681647,-0.64586109,0.12106276,-0.75379515,0
1.1086018,-0.63366246,0.36388111,0.68580681,-0.65351015,0.32030225,0
-1.5509878,-0.46066058,2.3461196,0.065446734,0.69116646,0.71972597,0
0.87360424,-0.57386047,0.79950517,0.68633932,-0.26319417,0.67798758,0
-1.0308285,0.23823428,1.3590689,-0.041248679,0.76417875,0.64368403,0
-2.5437055,-0.81877422,1.529817,-0.70273399,-0.48014855,0.52499735,0
1.7865386,0.25371516,-1.9961731,0.12888837,-0.81163162,-0.56977344,0
-2.4997144,-1.4812518,0.89617026,-0.70273399,-0.48014855,0.52499735,0
1.8421712,-0.13790047,-1.4780664,0.23983508,-0.85460746,-0.46057042,0
-1.5986328,-2.1140752,0.60906923,0.12432635,-0.80944622,-0.57388115,0
-0.98536557,0.80092001,-0.28503299,-0.699301,0.60196602,-0.3855058,0
0.025485277,-0.80119002,-1.1331506,-0.16922534,-0.60393637,-0.77886039,0
0.14687693,-0.056035027,-1.5529523,-0.43974727,-0.2869404,-0.85105067,0
1.0147473,-0.74170399,-0.55659753,0.50684345,-0.85571915,-0.10418367,0
2.2903395,1.3889886,-1.0171325,0.70273399,0.48014855,-0.52499735,0
-1.7883806,-2.3942494,1.0619466,-0.70273399,-0.48014855,0.52499735,0
-2.1715722,-1.8953503,1.2604136,-0.70273399,-0.48014855,0.52499735,0
0.55039996,-1.068007,-0.084356546,0.43297201,-0.87416488,-0.21993411,0
0.88591665,0.98381901,0.62822187,0.31477237,0.45193768,0.83466798,0
2.188549,0.9463625,-1.8367114,0.70273399,0.48014855,-0.52499735,0
-0.78409851,-0.70613182,-0.70222378,-0.27025521,-0.50245404,-0.8212806,0
1.212414,-0.52825373,-0.24283373,0.62634665,-0.76750952,0.13645118,0
-0.21801555,-1.7542313,1.296941,0.69031191,-0.6387229,0.33985656,0
-2.5803032,-1.4897685,1.0835681,-0.70273399,-0.48014855,0.52499735,0
-2.3855615,-1.0063238,1.7040946,-0.70273399,-0.48014855,0.52499735,0
-0.38428724,0.48983753,1.0000888,-0.041381001,0.76425898,0.64358044,0
-2.2492931,-0.58142376,0.094757318,-0.68458849,0.25549307,-0.68268716,0
1.294502,-0.5379833,-0.81648999,0.43813324,-0.87346053,-0.2123813,0
2.0430708,1.5720747,-1.2011683,0.70273399,0.48014855,-0.52499735,0
-2.5295134,-0.073969364,1.9306172,-0.38911223,0.87716269,0.28138423,0
1.254703,2.5758271,-1.66345,0.70273399,0.48014855,-0.52499735,0
-1.7159433,-1.2171942,1.9825267,-0.70273399,-0.48014855,0.52499735,0
-2.8638754,-0.55959129,0.85837865,-0.69505316,0.62085754,-0.36254221,0
-0.20822497,-1.5254635,1.1964449,0.65066749,-0.7321943,0.20130426,0
2.4321864,2.0951655,-0.50476062,0.70273399,0.48014855,-0.52499735,0
1.6171679,1.1159979,-2.6642749,0.70273399,0.48014855,-0.52499735,0
-1.8585261,-2.0968742,0.20872802,-0.064090967,-0.69219887,-0.71885532,0
-2.41132,-0.18263531,0.66322875,-0.70435417,0.57351279,-0.41829222,0
-1.1068494,0.34622926,1.4263726,-0.26330763,0.86104965,0.43504322,0
-2.7071095,-1.0634952,0.74595964,-0.70273399,-0.48014855,0.52499735,0
-2.9090142,-0.52392197,1.0359714,-0.70273399,-0.48014855,0.52499735,0
-1.3071231,-2.2278581,1.444994,0.62141865,-0.77355069,0.12432981,0
1.5757278,-0.097901225,-2.0866024,0.023306727,-0.75306368,-0.65753466,0
2.3259165,0.62429857,-2.2488847,0.70273399,0.48014855,-0.52499735,0
2.1724772,0.16260469,-0.52711701,0.67361021,-0.68649745,0.27380729,0
-0.89341402,-1.9668735,1.2131251,0.54905856,-0.83528101,-0.028984487,0
-2.100678,-1.7760164,1.4632275,-0.70273399,-0.48014855,0.52499735,0
-1.5104512,-1.6731886,1.9059075,-0.70273399,-0.48014855,0.52499735,0
-2.4049573,-0.98955595,1.5224695,-0.70273399,-0.48014855,0.52499735,0
-0.97506213,-0.86131299,-0.49852598,-0.37133014,-0.3819046,-0.84632301,0
0.9495275,-0.32577518,0.60178626,0.70519531,-0.3724401,0.60331392,0
-2.0667374,-0.71382749,2.0808115,-0.70273399,-0.48014855,0.52499735,0
-2.1196647,-0.84447074,1.9620976,-0.70273399,-0.48014855,0.52499735,0
2.7502785,0.87884569,-0.92809319,0.70273399,0.48014855,-0.52499735,0
-1.0406847,0.68720019,0.33124602,-0.56023383,0.82829928,0.0076406598,0
2.4126773,0.38413227,-0.7158829,0.67215425,-0.68992496,0.26872361,0
-2.5355091,-0.33573127,1.7374363,-0.48003632,0.86463594,0.14822149,0
0.6483196,0.8745451,-1.9045477,-0.51682454,-0.16260359,-0.84050715,0
-1.8731167,-0.88233769,2.5724475,-0.70273399,-0.48014855,0.52499735,0
-1.6708632,-0.85368383,2.4955132,-0.70273399,-0.48014855,0.52499735,0
-0.80512941,-0.38330221,2.0282838,0.41147178,0.32769412,0.85047483,0
-1.7928908,-1.4303995,2.2716935,-0.70273399,-0.48014855,0.52499735,0
2.9424591,1.0788634,-0.85877812,0.70273399,0.48014855,-0.52499735,0
-0.78646326,0.48059168,1.4185741,-0.089849234,0.79190969,0.60399187,0
-0.50051463,-0.73989952,-0.96942466,-0.31753886,-0.44867009,-0.83538264,0
-1.8201463,-1.5976783,1.8680398,-0.70273399,-0.48014855,0.52499735,0
-1.8564292,-2.0779405,1.3683755,-0.70273399,-0.48014855,0.52499735,0
-1.3166568,-2.1974664,1.8728191,-0.70273399,-0.48014855,0.52499735,0
-1.7526567,-2.3160777,1.5279652,-0.70273399,-0.48014855,0.52499735,0
-1.9799461,-1.3333929,1.6003728,-0.70273399,-0.48014855,0.52499735,0
1.9645617,1.1006792,-2.0271935,0.70273399,0.48014855,-0.52499735,0
0.84938204,1.3987886,0.31578347,0.062827587,0.69315839,0.71804178,0
2.134542,-0.24364674,-1.1770661,0.46959817,-0.86738122,-0.16470414,0
-1.4892166,-2.3593998,1.6317688,-0.70273399,-0.48014855,0.52499735,0
-1.0965238,0.15192771,-0.67305923,-0.67858541,0.23065791,-0.69736552,0
-0.16741991,0.38104028,-1.3667487,-0.56728077,-0.067186207,-0.82077909,0
-1.739014,0.18056965,1.2792745,-0.48277617,0.86385083,0.14383584,0
-0.60609072,-1.4018141,-0.28227198,0.071183085,-0.78167188,-0.61961424,0
2.8645802,1.1038852,-0.95487165,0.70273399,0.48014855,-0.52499735,0
1.1384714,-0.087364793,0.98967755,0.63846231,-0.10003361,0.76312447,0
1.1752878,-0.15328234,-1.8533726,0.063531876,-0.77732611,-0.62588131,0
-1.6186155,-1.1704259,2.1437778,-0.70273399,-0.48014855,0.52499735,0
1.346693,1.5199275,-2.5019412,0.70273399,0.48014855,-0.52499735,0
-1.7929542,-1.4984553,1.6932685,-0.70273399,-0.48014855,0.52499735,0
-2.1541193,-1.9264584,0.52739698,-0.31736445,-0.4488765,-0.835338,0
2.5896637,1.6346328,-1.0002246,0.70273399,0.48014855,-0.52499735,0
2.6214898,1.5747375,-0.80747402,0.70273399,0.48014855,-0.52499735,0
2.2417026,0.36933303,-2.3440232,0.70273399,0.48014855,-0.52499735,0
2.450382,0.68939304,-1.9204452,0.70273399,0.48014855,-0.52499735,0
-0.21588445,-0.87226176,-1.0175216,-0.051455498,-0.70168966,-0.71062219,0
1.881613,0.63426864,-2.3200068,0.70273399,0.48014855,-0.52499735,0
-2.411139,-0.094735742,0.61913705,-0.70386297,0.57670355,-0.4147166,0
-1.2977465,0.5791496,-0.25393486,-0.70341766,0.57949811,-0.41156471,0
-0.35613436,1.1146715,-0.35128188,-0.65937978,0.7166689,-0.22716516,0
-2.4285905,-2.0486796,0.87793857,-0.70273399,-0.48014855,0.52499735,0
2.2220893,1.4571733,-1.4366484,0.70273399,0.48014855,-0.52499735,0
-1.8379364,0.14811242,0.38480401,-0.7030226,0.58190471,-0.40883487,0
-2.0439312,-0.11278009,0.59755886,-0.66048378,0.71456206,-0.23056978,0
-0.13749796,1.1485167,-0.071087122,-0.43906379,0.87332511,0.21101195,0
1.5725822,1.0151434,-2.4976687,0.70273399,0.48014855,-0.52499735,0
1.6303189,2.1910889,-1.3166436,0.70273399,0.48014855,-0.52499735,0
2.3339715,2.1168993,-1.023946,0.70273399,0.48014855,-0.52499735,0
2.4092832,1.9185712,-1.0442442,0.70273399,0.48014855,-0.52499735,0
-1.511469,-1.2283475,2.760849,-0.70273399,-0.48014855,0.52499735,0
-1.4964855,-1.8777173,1.8576131,-0.70273399,-0.48014855,0.52499735,0
1.6545594,1.7506503,-1.6749666,0.70273399,0.48014855,-0.52499735,0
1.3719753,1.4197028,-2.7440019,-0.59372312,-0.010792136,-0.80459696,0
2.1877685,2.1833079,-0.88489413,0.70273399,0.48014855,-0.52499735,0
2.1042752,1.9049783,-1.104704,0.70273399,0.48014855,-0.52499735,0
-2.7766929,-1.5223055,0.92688632,-0.70273399,-0.48014855,0.52499735,0
0.027953744,-1.7057129,0.25084579,0.51946515,-0.85049832,-0.082514107,0
-1.1739591,-2.0638938,0.52566415,0.31821293,-0.87212211,-0.37167639,0
-0.91475064,0.45932424,-0.69515181,-0.69979322,0.33344588,-0.63174611,0
-1.8005209,0.064212441,1.284831,-0.3898136,0.87715441,0.28043795,0
1.8595397,0.58770025,-2.6341741,-0.20968282,-0.56536853,-0.79774141,0
-1.5551462,-2.3974719,1.7235671,0.63529491,-0.75567019,0.15925688,0
-1.4732487,0.43873531,0.59298646,-0.61912197,0.77626014,-0.11877751,0
0.1533435,1.35734,-0.50773597,-0.5187993,0.85079134,0.083673418,0
-1.9605289,-1.3836111,1.7304069,-0.70273399,-0.48014855,0.52499735,0
-1.740698,-2.0025978,1.7880617,-0.70273399,-0.48014855,0.52499735,0
0.73717415,-0.057099402,-1.8066955,-0.12967372,-0.63911992,-0.75809646,0
-1.7679704,-2.5887761,1.3146763,-0.70273399,-0.48014855,0.52499735,0
0.62350422,-0.15231267,1.0895889,0.56187177,0.078108668,0.82352835,0
-1.5507562,-1.7181958,2.3013043,-0.70273399,-0.48014855,0.52499735,0
2.2935171,1.3821161,-1.4590217,0.70273399,0.48014855,-0.52499735,0
-2.0509009,-1.6232305,1.6113983,-0.70273399,-0.48014855,0.52499735,0
2.8553634,1.2895365,-0.55415559,0.6276443,-0.070928723,0.77526248,0
-0.38112831,0.29220295,-1.4006337,-0.58096135,-0.038670897,-0.81301188,0
-1.5237885,-2.4089251,1.1956058,-0.70273399,-0.48014855,0.52499735,0
1.0697687,1.6722137,-0.15347353,0.0070527792,0.73318529,0.67999232,0
-2.899972,-0.6051054,1.0662167,-0.70273399,-0.48014855,0.52499735,0
-2.5017486,-1.5328864,0.25601304,-0.43111342,-0.2996265,-0.85109633,0
-2.5206671,-0.8870815,0.40141237,-0.66213572,0.17143428,-0.72951114,0
0.3876757,-0.87471747,0.74265611,0.71111757,-0.4966841,0.49761087,0
1.6270795,1.967015,-1.717761,0.70273399,0.48014855,-0.52499735,0
1.7915081,1.4165882,-1.7954535,0.70273399,0.48014855,-0.52499735,0
0.052340388,-0.90424562,-0.57929611,0.14649785,-0.81976706,-0.55364275,0
-2.405792,-0.415483,1.7982876,-0.70273399,-0.48014855,0.52499735,0
-1.5210749,-1.3830732,2.2978575,-0.70273399,-0.48014855,0.52499735,0
2.3578725,1.9009893,-0.85841733,0.70273399,0.48014855,-0.52499735,0
0.96631813,-0.68773276,-0.097342253,0.61465073,-0.78135204,0.10813564,0
-2.0934043,-0.47586405,0.020202994,-0.69943601,0.33120191,-0.63332009,0
2.6100292,0.40873003,-1.4990437,0.70273399,0.48014855,-0.52499735,0
1.4529197,1.177399,-2.4969752,0.70273399,0.48014855,-0.52499735,0
1.4218062,-0.22466958,-0.13573492,0.692231,-0.63182139,0.34873742,0
0.49282366,1.9208446,-0.85793132,-0.5256725,0.8476671,0.071615875,0
-1.2628114,0.37179714,-0.10825968,-0.70550638,0.56550676,-0.42715657,0
1.6348021,1.5579777,-2.0923891,0.70273399,0.48014855,-0.52499735,0
-0.13358355,0.99963534,-1.5514441,-0.69349509,0.2975463,-0.65614837,0
1.8725775,1.040652,-1.9100958,0.70273399,0.48014855,-0.52499735,0
1.4505934,2.1756854,-1.9516213,0.70273399,0.48014855,-0.52499735,0
1.840207,1.4017406,0.13819587,0.40281433,0.33973169,0.84989583,0
1.4706198,0.12084389,0.53460133,0.64858627,-0.12907249,0.75011742,0
1.8642786,1.5382969,-2.1452801,0.70273399,0.48014855,-0.52499735,0
-2.0908787,-1.0945265,1.6209292,-0.70273399,-0.48014855,0.52499735,0
-2.0102446,-2.2136335,1.1061261,-0.70273399,-0.48014855,0.52499735,0
-1.1090143,-2.4030468,1.6087261,0.63069111,-0.76190907,0.14738852,0
-1.3942603,-0.91973495,2.662673,0.47150147,0.23828974,0.84906077,0
-1.6472635,-1.3104672,2.3088865,-0.70273399,-0.48014855,0.52499735,0
1.3328562,2.3733041,-0.80043751,-0.26800334,0.86221945,0.4298276,0
1.7505167,0.041919708,-0.15349042,0.71076012,-0.44125134,0.54782969,0
-1.9498086,-1.1622682,1.9568208,-0.70273399,-0.48014855,0.52499735,0
-1.9260225,-1.3324008,-0.10447633,-0.41293633,-0.32563794,-0.85055476,0
-2.4619288,-1.9041958,0.90583819,-0.70273399,-0.48014855,0.52499735,0
2.2422006,1.171476,-1.3070427,0.70273399,0.48014855,-0.52499735,0
-1.3766718,-0.16799736,1.9905429,0.066581845,0.69030005,0.72045302,0
-0.58433902,-0.22519326,-1.2373933,-0.48871112,-0.21049127,-0.84667289,0
1.7775972,1.6397319,-1.4936033,0.70273399,0.48014855,-0.52499735,0
1.6860504,1.7852823,-1.6218997,0.70273399,0.48014855,-0.52499735,0
1.3429624,1.8272276,-2.1729035,0.70273399,0.48014855,-0.52499735,0
-1.9872969,-1.0324011,2.4853487,-0.70273399,-0.48014855,0.52499735,0
2.3924146,0.54696465,-2.1008909,0.70273399,0.48014855,-0.52499735,0
-0.42363781,-1.5832074,0.034434944,0.23590428,-0.85343355,-0.46475834,0
2.7631645,1.1699853,-0.5366354,0.59107941,0.016677648,0.80644095,0
-1.6050407,-0.30760539,2.2159219,0.16961789,0.60357493,0.77905512,0
2.592478,1.5386297,-0.60410702,0.70273399,0.48014855,-0.52499735,0
1.410603,1.6767364,-1.9610221,0.70273399,0.48014855,-0.52499735,0
-1.1763879,-1.9180588,2.2963707,-0.70273399,-0.48014855,0.52499735,0
-2.890728,-0.68857598,0.7795136,-0.70407802,0.36337602,-0.6101082,0
2.5624971,0.94760978,-1.1983782,0.70273399,0.48014855,-0.52499735,0
0.15200153,-1.2073379,0.68633556,0.63796633,-0.75189656,0.16628397,0
0.43958998,1.0983832,-1.6383032,-0.7004292,0.33751974,-0.62887138,0
-0.23534614,1.1541567,-1.3523053,-0.71141917,0.4670845,-0.52508557,0
0.24407461,-0.88959658,0.93589473,0.7092371,-0.53097761,0.4637298,0
1.890208,1.9942707,-0.6170758,0.045407057,0.70614964,0.70660514,0
1.4642147,1.8842891,-2.146131,0.70273399,0.48014855,-0.52499735,0
2.4224911,0.64057326,-2.0284595,0.70273399,0.48014855,-0.52499735,0
1.0786179,0.34447092,-2.0008008,-0.18189192,-0.59214717,-0.78503311,0
-0.56453532,0.77982187,-0.8867051,-0.71037185,0.51420265,-0.4805907,0
2.0977709,0.047690749,-0.41199303,0.71129298,-0.48978856,0.50415218,0
2.0334258,-0.044284225,-0.86462963,0.65626663,-0.72243261,0.21772677,0
1.351541,1.9902713,-2.1566651,0.70273399,0.48014855,-0.52499735,0
2.3371592,1.6516329,-0.76801407,0.70273399,0.48014855,-0.52499735,0
1.5576642,-0.2042253,-1.7077249,0.11407793,-0.80442113,-0.58300334,0
-1.9804108,-0.39651084,2.1947093,0.012636662,0.72938287,0.68398893,0
-2.9147182,-0.9094975,1.2460384,-0.70273399,-0.48014855,0.52499735,0
-0.56320083,0.84419239,0.85790563,-0.13162208,0.81292593,0.56729788,0
1.667359,2.0734162,-1.4775078,0.70273399,0.48014855,-0.52499735,0
1.9738436,1.4529567,-1.5017371,0.70273399,0.48014855,-0.52499735,0
-0.94851905,-2.1942887,1.4438002,0.55512983,-0.8315801,-0.017473102,0
2.8248391,1.2018163,-1.126649,0.70273399,0.48014855,-0.52499735,0
1.5357406,1.2687286,0.10033506,0.37297559,0.37976038,0.84656435,0
-1.7335176,-2.5995584,1.2183416,-0.70273399,-0.48014855,0.52499735,0
2.828582,0.85063267,-1.4690883,0.70273399,0.48014855,-0.52499735,0
-0.50035894,0.83506727,-0.84614193,-0.70588195,0.56271297,-0.43021452,0
-1.9915444,-1.7247914,1.1202837,-0.70273399,-0.48014855,0.52499735,0
-2.497437,-0.86141968,1.3518547,-0.70273399,-0.48014855,0.52499735,0
1.3627017,1.4516522,-2.4420986,0.70273399,0.48014855,-0.52499735,0
-1.8856895,-1.7459017,1.5276064,-0.70273399,-0.48014855,0.52499735,0
-2.1119113,-2.2599027,1.0575702,-0.70273399,-0.48014855,0.52499735,0
-1.1798649,0.26402843,-0.62270463,-0.67963028,0.23482499,-0.69495314,0
1.6609575,1.5069412,-2.2487118,0.70273399,0.48014855,-0.52499735,0
-2.5558004,-1.4881862,0.68304265,-0.70273399,-0.48014855,0.52499735,0
-0.26710641,0.2827099,1.2386544,0.15491772,0.6169461,0.77160728,0
2.0736606,1.3556186,-1.731797,0.70273399,0.48014855,-0.52499735,0
-1.8567474,-1.5764673,1.72752,-0.70273399,-0.48014855,0.52499735,0
1.7194114,0.80801868,-2.320744,0.70273399,0.48014855,-0.52499735,0
-1.2126281,-2.2170599,2.2696795,-0.70273399,-0.48014855,0.52499735,0
2.3352211,1.9720674,-0.7354632,0.70273399,0.48014855,-0.52499735,0
-2.9155989,-0.85804868,1.3294089,-0.70273399,-0.48014855,0.52499735,0
0.10084569,0.52140337,0.93752754,0.15575349,0.61619502,0.772039,0
-0.81019723,0.65352368,1.0571136,-0.11518586,0.80497205,0.58202422,0
1.522434,1.200321,-2.6250331,0.70273399,0.48014855,-0.52499735,0
1.6317587,2.260253,-0.99285829,-0.31703204,0.87194598,0.3730959,0
0.80778056,0.9890331,0.55713296,0.14577115,0.62509447,0.7668165,0
0.48870915,1.9735096,-0.5426327,-0.44041377,0.87312418,0.20902121,0
0.72753322,1.4557977,-2.4075186,-0.65854204,0.15974185,-0.73539424,0
-1.3157911,0.49830186,1.4557096,-0.19838536,0.84090066,0.50351691,0
1.8982875,0.27547467,-1.9793237,0.14488506,-0.81904197,-0.55513823,0
1.852668,1.7017415,-0.0093387365,0.22577155,0.54927886,0.80456179,0
-2.7352045,-0.75344253,1.5633143,-0.70273399,-0.48014855,0.52499735,0
2.392132,0.41728234,-2.4581087,0.70273399,0.48014855,-0.52499735,0
2.3487635,0.4437108,-1.8396254,0.70273399,0.48014855,-0.52499735,0
-0.72990882,-2.0424888,1.1774379,0.53184211,-0.84467125,-0.060617566,0
1.8314619,0.26066089,0.24978316,0.66405201,-0.17782375,0.72623241,0
-1.5709124,-2.3303995,1.5197611,-0.70273399,-0.48014855,0.52499735,0
-1.0715084,0.19531685,-1.0195626,-0.66374683,0.17679894,-0.72676134,0
-2.1731713,-1.3138622,1.3930445,-0.70273399,-0.48014855,0.52499735,0
-2.6848826,-1.7358094,0.90618789,-0.70273399,-0.48014855,0.52499735,0
-1.6813442,-1.7600803,2.2230549,-0.70273399,-0.48014855,0.52499735,0
2.244946,0.95106506,-0.10118783,0.67023021,-0.19925076,0.7149058,0
-2.2740576,-0.45549715,0.39353442,-0.70261854,0.35244924,-0.61814791,0
1.1657876,1.8437455,-2.098882,-0.70907044,0.53301227,-0.4616459,0
-1.799051,0.10976052,0.61719704,-0.66594744,0.70360214,-0.2479068,0
-1.2664343,-0.13378614,-0.90084267,-0.62416452,0.06193006,-0.77883446,0
2.0965607,0.89438391,-1.723608,0.70273399,0.48014855,-0.52499735,0
-1.4804167,-1.5826786,2.2254746,-0.70273399,-0.48014855,0.52499735,0
-2.6734633,-0.41487145,0.58551133,-0.70573413,0.5638243,-0.42900026,0
2.4905839,1.800566,-1.0000846,0.70273399,0.48014855,-0.52499735,0
2.5848656,1.4032439,-0.59405529,0.70273399,0.48014855,-0.52499735,0
