-0.60929936,1.0239683,-2.5939922,-0.17146629,0.29979706,-0.93846738,0
-1.2474588,0.5544343,1.0617828,-0.81100655,0.49787569,0.30722648,0
0.64974982,1.4623191,-1.0311365,0.69870657,0.70856792,0.098694801,0
-0.34381068,0.31087875,-2.876718,-0.17146629,0.29979706,-0.93846738,0
0.55926681,-1.3503833,0.28828728,0.36375833,-0.86600006,-0.34310898,0
-1.4143417,0.43312508,-0.54601514,-0.94600642,0.21587464,0.24180579,0
-0.31184036,1.7228134,-0.50212121,-0.14859509,0.93380761,0.32545808,0
-1.5983704,1.8958589,-2.0599327,-0.62452924,0.70364559,0.33888942,0
1.3822575,-1.6537658,2.322058,0.17146629,-0.29979706,0.93846738,0
-0.72457123,-1.381747,1.4532801,-0.73490202,-0.67333949,-0.080827832,0
1.0402999,-0.87948012,2.7332616,0.17146629,-0.29979706,0.93846738,0
1.0716019,0.48636007,-2.4930098,0.97161496,-0.10612974,-0.21142626,0
-1.4477159,0.039014995,-0.079517961,-0.9851895,-0.053109497,0.16303688,0
0.90943021,1.6663312,-0.96115673,0.63555086,0.76151705,0.12714887,0
-0.28035152,0.36597276,-3.0384598,-0.17146629,0.29979706,-0.93846738,0
-2.0302994,0.65272331,-1.8686273,-0.97967017,0.048809379,0.19458681,0
1.4404101,0.049792409,-0.28375554,0.98351645,-0.0034097433,-0.18078637,0
0.66452587,-0.5635494,-2.248342,0.63496971,-0.69470149,-0.33793968,0
1.359992,-1.7565434,1.9940443,0.55839521,-0.75521719,-0.34328082,0
0.64698708,1.0570772,1.5497087,0.32251549,0.91716778,0.23406637,0
-0.84759951,1.047652,-2.8227222,-0.17146629,0.29979706,-0.93846738,0
-1.2848544,-0.32072943,-1.7414293,-0.78609771,-0.61581737,-0.053098083,0
-0.53609836,-1.1815056,-1.2727132,-0.25214219,-0.93420333,-0.25236624,0
0.87060905,-2.1730018,2.4589853,0.17146629,-0.29979706,0.93846738,0
1.502321,-1.8475373,2.3273883,0.17146629,-0.29979706,0.93846738,0
-0.20641565,-0.56312323,-3.2695246,-0.17146629,0.29979706,-0.93846738,0
-0.3712405,0.34381819,-2.8665974,-0.17146629,0.29979706,-0.93846738,0
0.25218463,0.01013422,3.1381891,0.17146629,-0.29979706,0.93846738,0
-0.35361028,0.075288773,-3.1782601,-0.17146629,0.29979706,-0.93846738,0
-1.7505928,1.3718306,-2.6460192,-0.17146629,0.29979706,-0.93846738,0
-0.38478816,0.96653712,-2.677943,-0.17146629,0.29979706,-0.93846738,0
0.40983319,0.41024041,-3.2863407,-0.17146629,0.29979706,-0.93846738,0
-0.22237492,0.023314714,3.399806,0.17146629,-0.29979706,0.93846738,0
1.6853499,-0.036056042,3.0474186,0.17146629,-0.29979706,0.93846738,0
-1.4446534,0.45977685,-0.087168455,-0.91525972,0.30401033,0.26434338,0
-1.5701754,0.3238892,0.3561523,-0.94256794,0.22723448,0.24480647,0
-0.70069373,1.6723907,-2.3259883,-0.17146629,0.29979706,-0.93846738,0
-0.44805384,0.59124732,-2.8966339,-0.17146629,0.29979706,-0.93846738,0
0.65003061,-0.76515913,2.8910489,0.17146629,-0.29979706,0.93846738,0
0.98468328,-2.3307385,2.3670382,0.17146629,-0.29979706,0.93846738,0
-0.04148221,0.11737847,-2.9457612,-0.17146629,0.29979706,-0.93846738,0
-1.5382156,1.6750494,-1.7498258,-0.79162598,0.52511251,0.31238633,0
-1.1530297,0.90792531,0.314192,-0.63047242,0.69858313,0.33835804,0
0.29573536,0.39548349,-3.290801,-0.17146629,0.29979706,-0.93846738,0
0.41817558,-1.1735152,-0.56991971,0.16957986,-0.92937589,-0.32787651,0
-0.26880646,1.6766778,-2.6977806,-0.17146629,0.29979706,-0.93846738,0
0.15088868,0.62866974,3.165622,-0.18460476,0.92592555,0.32951945,0
1.3269448,0.64278919,0.054851651,0.8694275,0.4940595,-0.0010230541,0
-0.29397714,-1.6913474,0.74335289,-0.33946562,-0.91221929,-0.22938859,0
-1.4584233,-0.59886217,-0.71960044,-0.77189767,-0.63280207,-0.061118484,0
-1.1597352,-0.644077,-0.90413237,-0.70358163,-0.70405078,-0.096361041,0
0.33453071,1.4375019,-2.9958253,-0.17146629,0.29979706,-0.93846738,0
-0.84505653,-1.1463912,3.1064115,0.17146629,-0.29979706,0.93846738,0
1.8846452,-1.0603476,2.349853,0.17146629,-0.29979706,0.93846738,0
-0.99928582,-0.34818888,2.2328846,-0.96331316,0.14860895,0.22347957,0
-0.21630168,-1.0398076,2.8048124,0.17146629,-0.29979706,0.93846738,0
-0.31736922,1.0345935,1.0948397,-0.31770736,0.88485742,0.3407191,0
-0.1787641,0.72130966,-3.0532706,-0.17146629,0.29979706,-0.93846738,0
-0.40303087,-1.6713614,0.49248767,-0.41009992,-0.88784242,-0.20869571,0
1.3908026,-1.6344978,1.8825898,0.61410934,-0.71234155,-0.33976352,0
0.28454831,2.0724659,-2.1602726,0.51169425,0.84111351,0.17520589,0
-1.0883592,-1.1907612,0.75708652,-0.72774917,-0.68062282,-0.084461451,0
-0.70116282,0.091027737,2.9703083,-0.68217885,0.6511355,0.33264792,0
-0.42991614,-1.084163,3.1164188,0.17146629,-0.29979706,0.93846738,0
-1.0527394,-0.33552456,2.9196403,-0.90561306,0.3270925,0.2699545,0
1.5133524,-0.66077995,2.6088421,0.17146629,-0.29979706,0.93846738,0
-0.75546533,-1.1494238,-0.48744619,-0.60155123,-0.78624529,-0.14126033,0
1.1151801,-0.34352183,-1.7091373,0.85614789,-0.42597196,-0.29250419,0
0.88447678,-1.9011736,2.3444276,0.17146629,-0.29979706,0.93846738,0
-0.2673018,0.043039083,-3.1072497,-0.17146629,0.29979706,-0.93846738,0
-1.5027201,1.6549988,-1.79935,-0.63953835,0.69071299,0.33750027,0
-0.039709091,0.92012691,-2.8892369,-0.17146629,0.29979706,-0.93846738,0
-0.2251752,1.5655893,-2.6519172,-0.17146629,0.29979706,-0.93846738,0
0.71248567,-0.56527722,-1.734817,0.7134468,-0.61912882,-0.32813612,0
-0.68168831,-1.316705,-0.55979884,-0.30440509,-0.92208576,-0.23894638,0
-1.629347,-0.13960195,-2.340395,-0.77011579,-0.63487351,-0.062105775,0
-1.4301442,-0.77741641,0.0027068853,-0.91271544,-0.40693858,0.036763072,0
-0.13629842,1.6572019,-0.22888809,-0.10630512,0.94138324,0.32015142,0
-0.49885988,-1.0406512,-2.1412544,-0.011497259,-0.95311904,-0.3023769,0
-1.2562969,-0.97345185,2.1208329,-0.9718107,-0.20792523,0.11113596,0
-0.18443599,1.9778392,-2.0795774,0.27440953,0.92941135,0.24676704,0
-0.27782261,0.44516397,-3.0808461,-0.17146629,0.29979706,-0.93846738,0
1.8006508,-0.74476433,2.5113075,0.17146629,-0.29979706,0.93846738,0
-1.2056243,-0.074679255,1.3485963,-0.97557575,0.081085473,0.20414943,0
-0.83515024,-1.3219197,2.5009661,-0.95080817,-0.29981434,0.07794416,0
-1.2360039,-0.022511482,1.8224775,-0.93224967,0.25868446,0.25296807,0
-0.75247329,1.8801605,-2.2603929,-0.17146629,0.29979706,-0.93846738,0
-0.53446436,0.14104509,-3.1336236,-0.17146629,0.29979706,-0.93846738,0
-0.4539783,1.6111321,0.18205011,-0.19755721,0.92276335,0.33087575,0
-0.54319954,0.87261581,-2.8031714,-0.17146629,0.29979706,-0.93846738,0
-0.14013451,1.5655012,-2.530529,-0.17146629,0.29979706,-0.93846738,0
-1.5500512,0.096977532,-1.6694592,-0.94448519,-0.32100633,0.070019126,0
0.8030889,-1.3199328,2.5531206,0.17146629,-0.29979706,0.93846738,0
1.5194993,-1.123623,1.2387719,0.84925091,-0.43786174,-0.29504234,0
0.010461688,1.0729533,1.1797972,-0.080241084,0.94516051,0.31659591,0
-0.86700177,0.41981411,2.1701202,-0.67757976,0.65561938,0.33323997,0
-0.16453123,0.9379344,-2.7936168,-0.17146629,0.29979706,-0.93846738,0
-1.4228063,1.5535982,-2.2396398,-0.17146629,0.29979706,-0.93846738,0
-0.96521318,-0.81751227,3.2940917,0.17146629,-0.29979706,0.93846738,0
1.2339268,0.70220065,-0.32495034,0.92152131,0.38569325,-0.045158863,0
1.3002993,-1.257344,2.5683506,0.17146629,-0.29979706,0.93846738,0
0.68721294,-0.53157055,-1.7411773,0.62085527,-0.7067377,-0.33920586,0
-1.0472109,0.88483572,-2.8758821,-0.17146629,0.29979706,-0.93846738,0
-0.78419125,-1.0766962,-1.4763343,-0.31186438,-0.92010593,-0.23695105,0
-0.16611087,-1.433099,2.744348,0.17146629,-0.29979706,0.93846738,0
-1.3117747,0.55525297,-0.414217,-0.91090226,0.31464028,0.26694304,0
-0.92413497,-1.2584155,3.1554918,0.17146629,-0.29979706,0.93846738,0
-0.48376369,1.2221134,1.3685303,-0.3507635,0.87157762,0.34251642,0
1.3866148,-0.34129769,-0.39226556,0.9238165,-0.28203112,-0.25888538,0
-0.057509661,-1.1624904,-1.5351992,0.19967794,-0.92222905,-0.33109263,0
-0.79197574,-0.54492211,-3.2430866,-0.17146629,0.29979706,-0.93846738,0
-0.22240722,-1.3251081,-1.3571845,-0.019549191,-0.95342284,-0.30100283,0
-1.2298331,0.011622787,1.7800019,-0.95715559,0.1749323,0.23076367,0
1.470085,-1.3452601,1.4414783,0.82096756,-0.48311043,-0.30432957,0
-1.1366467,-0.85189509,2.0757666,-0.97099674,-0.21253732,0.10951388,0
-0.73484099,-1.3148952,-1.2147393,-0.31645358,-0.91885608,-0.2357133,0
-0.55681205,-0.22213936,3.1791482,0.17146629,-0.29979706,0.93846738,0
0.073729396,-1.2069404,2.8652954,0.17146629,-0.29979706,0.93846738,0
-0.56133652,-2.0618482,2.7748792,0.17146629,-0.29979706,0.93846738,0
1.1709309,-0.40206265,2.6907008,0.17146629,-0.29979706,0.93846738,0
0.0027489662,1.1058946,-2.7021613,-0.17146629,0.29979706,-0.93846738,0
-1.3154675,1.6902579,-1.2629395,-0.7058866,0.62712073,0.32930791,0
-0.24144053,1.6851399,-0.13465077,-0.074875534,0.94585431,0.31583726,0
-0.66592252,-1.0397372,-0.80941206,-0.41553801,-0.8857038,-0.20701909,0
1.8154106,-1.2209501,2.5049021,0.17146629,-0.29979706,0.93846738,0
0.13478422,0.25777602,3.3849182,0.17146629,-0.29979706,0.93846738,0
-1.0326784,-1.2678988,2.7983959,0.17146629,-0.29979706,0.93846738,0
1.2531215,0.61042666,1.1844515,0.75528193,0.65163296,0.070169926,0
0.24834323,1.4898951,-2.6674914,-0.17146629,0.29979706,-0.93846738,0
1.2883775,-1.6959658,2.2956009,0.17146629,-0.29979706,0.93846738,0
-0.31487477,-1.7920587,0.69072288,-0.2473138,-0.93517077,-0.2535575,0
-0.93904352,-0.65046215,3.3004999,0.17146629,-0.29979706,0.93846738,0
-1.3364334,0.46502709,0.1040107,-0.88472027,0.37223318,0.28055757,0
-0.83361673,-0.73021579,-2.5413659,-0.27773917,-0.92864776,-0.2459147,0
-0.20704055,-0.080531597,-3.3883581,-0.17146629,0.29979706,-0.93846738,0
0.33459258,-0.91084409,-1.735405,0.30794501,-0.88853526,-0.3401103,0
-1.5810424,1.448581,-2.2902827,-0.17146629,0.29979706,-0.93846738,0
1.4410098,-2.1339328,2.1282685,0.17146629,-0.29979706,0.93846738,0
1.3899457,0.6620484,0.093816876,0.9101153,0.4129267,-0.034374952,0
-1.702692,1.1757791,-1.2150607,-0.86240339,0.41485542,0.29009598,0
-0.31415689,0.42220092,-2.8445237,-0.17146629,0.29979706,-0.93846738,0
-1.3395967,0.80490255,0.20891505,-0.86850417,0.40368605,0.28764242,0
1.6851648,-0.12128434,0.77432108,0.98361737,0.10589576,-0.14588678,0
-1.4821572,-0.72969598,-1.1576942,-0.75360572,-0.65347403,-0.071064353,0
1.1087581,1.1178112,-1.2840347,0.88744688,0.46066633,-0.01498282,0
1.5960346,0.46400598,0.22273898,0.93982542,0.33550459,-0.064536095,0
1.6806955,-0.45877391,0.60145462,0.938968,-0.23862293,-0.24778682,0
1.428329,0.036568761,-1.3438905,0.95875019,-0.1684272,-0.22897685,0
1.260515,0.78881609,0.33182311,0.79112887,0.60958695,0.050188661,0
0.75475597,0.15398693,3.1184492,0.17146629,-0.29979706,0.93846738,0
0.69191217,-1.5052643,2.5858288,0.17146629,-0.29979706,0.93846738,0
-0.47688103,-0.73588336,-2.9404798,0.043205023,-0.94937038,-0.31117401,0
1.389513,-0.74232185,2.5568483,0.17146629,-0.29979706,0.93846738,0
-0.75343871,1.6397231,-2.5818765,-0.17146629,0.29979706,-0.93846738,0
-1.5681098,1.4927344,-1.4490021,-0.712722,0.61990219,0.32825083,0
0.64919591,0.83560431,2.3745716,0.2729072,0.92975187,0.24715024,0
1.0288775,-1.4647253,0.25971252,0.5205577,-0.7811721,-0.34465891,0
-0.18203092,-0.94718528,-2.1164041,0.12769717,-0.93777609,-0.32290766,0
1.0733093,0.084054232,2.8967299,0.17146629,-0.29979706,0.93846738,0
0.10791337,-1.8615189,2.6920195,0.17146629,-0.29979706,0.93846738,0
0.80520397,-2.1387239,1.7137671,0.36314625,-0.86626744,-0.34308252,0
-1.1880879,0.25289607,-3.0767732,-0.17146629,0.29979706,-0.93846738,0
0.98781151,-1.1745521,2.6052203,0.17146629,-0.29979706,0.93846738,0
1.3640269,0.50382102,1.066363,0.84865665,0.52876264,0.013858199,0
1.4546778,0.42502892,2.606956,0.66918236,0.73455,0.11238921,0
1.0074644,0.68104905,1.4208272,0.54406714,0.82295901,0.16349155,0
0.68854499,-0.30924058,-2.9938552,0.69857377,-0.63469386,-0.33039102,0
-0.54611444,1.3056786,0.20658505,-0.43227893,0.83308554,0.34511361,0
0.35828161,0.85841823,-2.7954628,-0.17146629,0.29979706,-0.93846738,0
-1.1856515,-0.84280562,-0.1217128,-0.81491268,-0.57847071,-0.035902858,0
0.8360374,0.30871582,2.9850447,0.17146629,-0.29979706,0.93846738,0
-0.30723333,0.26806235,-3.2641087,-0.17146629,0.29979706,-0.93846738,0
0.31178546,0.087810755,2.9629569,0.17146629,-0.29979706,0.93846738,0
-0.29429841,-0.3760922,3.227139,0.17146629,-0.29979706,0.93846738,0
-1.2972507,1.8678586,-2.4483752,-0.17146629,0.29979706,-0.93846738,0
1.8350778,-0.63604796,2.6355083,0.17146629,-0.29979706,0.93846738,0
0.35380617,-2.0501361,2.5614169,0.17146629,-0.29979706,0.93846738,0
0.69250953,-0.90898299,2.9402404,0.17146629,-0.29979706,0.93846738,0
0.60094005,-1.5982878,0.36433202,0.36712629,-0.86452097,-0.34325176,0
-0.6682632,-0.023160458,3.2590437,0.17146629,-0.29979706,0.93846738,0
0.96839887,1.1961809,-1.724637,0.83640605,0.54766309,0.022134304,0
1.0836668,-1.3888885,2.4094732,0.17146629,-0.29979706,0.93846738,0
-0.050081253,-0.21125269,-3.1623573,-0.17146629,0.29979706,-0.93846738,0
-0.34346104,0.87351167,1.7020664,-0.40330911,0.8477385,0.34450144,0
-0.43443656,1.5745531,-2.5701425,-0.17146629,0.29979706,-0.93846738,0
1.0689142,1.3620359,-2.2644949,0.91763157,0.39527136,-0.041388392,0
-1.2420777,1.4847804,-0.5447824,-0.61507225,0.71154737,0.33968574,0
-0.77576768,-0.89898324,2.88379,0.17146629,-0.29979706,0.93846738,0
-0.3927674,-2.1202695,2.7453222,0.17146629,-0.29979706,0.93846738,0
-0.70378971,0.021980047,-3.0017273,-0.17146629,0.29979706,-0.93846738,0
1.3246361,-0.62899446,2.9279637,0.17146629,-0.29979706,0.93846738,0
-1.4668415,0.82449919,-0.77333468,-0.90789396,0.32178059,0.26867437,0
-0.20087719,0.071083546,3.2705634,0.17146629,-0.29979706,0.93846738,0
-1.1628187,2.175844,-2.1449182,-0.46032113,0.81782061,0.34536076,0
-0.69804966,0.19143462,2.7204416,-0.67321718,0.65982246,0.33378559,0
-1.0968046,0.28112912,1.263501,-0.88025272,0.38117442,0.28259766,0
-0.40741754,0.89604282,-2.7517743,-0.17146629,0.29979706,-0.93846738,0
-0.99265182,-0.83863854,-1.7457128,-0.47289807,-0.86070615,-0.18855327,0
-1.5843399,1.3289472,-2.6871228,-0.17146629,0.29979706,-0.93846738,0
0.52633071,-1.4128678,-0.43019181,0.36403161,-0.86588049,-0.34312075,0
0.45805979,-0.29625058,-2.9126251,0.55927116,-0.75458747,-0.34323972,0
-1.1666629,0.31786752,1.0132737,-0.93991375,0.23567763,0.24701869,0
-1.3359183,-0.21932638,-0.2457329,-0.9771809,-0.17296973,0.12328386,0
-1.3111225,-0.25165892,1.7588364,-0.94662005,0.21379328,0.24125296,0
-0.50538969,-0.1077075,3.0966747,0.17146629,-0.29979706,0.93846738,0
-1.6665435,1.497582,-2.3019497,-0.17146629,0.29979706,-0.93846738,0
-0.46030521,-1.1048295,3.1390471,0.17146629,-0.29979706,0.93846738,0
-0.46216837,-1.5565873,1.6627984,-0.65769613,-0.74405879,-0.11752558,0
1.3477566,-0.83250833,2.5498765,0.17146629,-0.29979706,0.93846738,0
-0.72861874,1.5616312,-2.6773121,-0.17146629,0.29979706,-0.93846738,0
0.9225167,-0.95284247,2.8769796,0.17146629,-0.29979706,0.93846738,0
-0.18691745,-1.8910897,1.7092012,-0.41442168,-0.88614607,-0.20736426,0
-1.7685196,0.22830355,-2.0179873,-0.93573868,-0.34756404,0.059937119,0
-1.1494126,1.7608463,-0.81250554,-0.55866605,0.75502259,0.34326819,0
0.95109832,1.3507848,-2.927525,-0.17146629,0.29979706,-0.93846738,0
-1.4336406,-0.32556224,-2.845273,-0.17146629,0.29979706,-0.93846738,0
-1.613657,1.8102648,-2.265995,-0.17146629,0.29979706,-0.93846738,0
0.95753872,-1.3859013,2.7893045,0.17146629,-0.29979706,0.93846738,0
0.36696422,0.89687186,1.5082996,0.071279883,0.95385373,0.29168874,0
-0.53294981,0.065112114,-3.0025308,-0.17146629,0.29979706,-0.93846738,0
1.6992525,-0.26483867,0.70020354,0.98518413,0.055464774,-0.16228342,0
-1.1872436,0.39989829,-2.8754554,-0.17146629,0.29979706,-0.93846738,0
-0.56077123,-1.0199358,3.1311629,0.17146629,-0.29979706,0.93846738,0
-0.56645858,-1.4290386,-0.58427083,-0.34033865,-0.91195518,-0.22914475,0
-0.045723915,0.0087559223,-3.2047052,-0.17146629,0.29979706,-0.93846738,0
-0.03423655,-1.2398691,-1.1207696,0.063284338,-0.94725609,-0.31416723,0
-1.2418574,-0.28794026,1.5915406,-0.9585166,0.16939262,0.22924268,0
-1.1762251,-0.10613465,-2.9046597,-0.17146629,0.29979706,-0.93846738,0
0.10210693,1.7869208,-0.18328977,0.25373495,0.93387842,0.25197142,0
-0.88393974,1.4248179,-2.3909149,-0.17146629,0.29979706,-0.93846738,0
-1.5875523,1.431108,-1.1537688,-0.77464384,0.54753029,0.31644502,0
0.31490326,-2.0422597,2.4615712,0.17146629,-0.29979706,0.93846738,0
-0.8751111,-1.4683902,1.6684211,-0.76177067,-0.6444065,-0.066675901,0
0.94902086,-1.7474233,2.3443141,0.17146629,-0.29979706,0.93846738,0
-0.35486472,-0.91038585,3.0679922,0.17146629,-0.29979706,0.93846738,0
-1.1427671,-1.2433847,2.0897155,-0.90065879,-0.43374884,0.025995612,0
0.59981883,1.4061487,0.57056034,0.29990476,0.92324954,0.24014038,0
-0.74472123,-1.4871106,2.7559526,-0.91805232,-0.39425042,0.041791558,0
-0.093901634,-0.47665071,3.2101636,0.17146629,-0.29979706,0.93846738,0
0.74405426,-1.6586213,2.585113,0.17146629,-0.29979706,0.93846738,0
-1.2996686,2.0130031,-2.2410569,-0.17146629,0.29979706,-0.93846738,0
-0.10879421,-1.7007902,0.17554587,-0.1955604,-0.94397688,-0.2658264,0
-1.3973823,1.2950165,-2.7258739,-0.17146629,0.29979706,-0.93846738,0
-0.74556065,-0.70467091,3.0993078,0.17146629,-0.29979706,0.93846738,0
-1.2292072,1.7296574,-2.3485584,-0.17146629,0.29979706,-0.93846738,0
0.92432916,-0.035609722,3.0453634,0.17146629,-0.29979706,0.93846738,0
-0.0080006123,-0.049551725,-3.3637691,-0.17146629,0.29979706,-0.93846738,0
0.34141868,1.9037851,-0.63988245,0.25316089,0.93399584,0.25211382,0
-0.24113089,2.2607725,-2.36462,0.047632933,0.95398372,0.29605085,0
0.54143476,-0.14767885,2.9750171,0.17146629,-0.29979706,0.93846738,0
-1.2742852,0.67523479,-2.6246243,-0.17146629,0.29979706,-0.93846738,0
0.25944781,-0.031226635,-3.082679,-0.17146629,0.29979706,-0.93846738,0
-1.0409619,1.6221633,-1.122584,-0.38613337,0.85591054,0.34397396,0
0.12088805,-1.6959912,2.4564762,0.17146629,-0.29979706,0.93846738,0
-0.19736242,0.80925012,-3.1057096,-0.17146629,0.29979706,-0.93846738,0
0.3307606,-1.271639,-0.39445269,0.12945926,-0.93745852,-0.3231281,0
-0.69139642,-1.4207542,3.070086,0.17146629,-0.29979706,0.93846738,0
0.98890996,0.016334295,3.1167099,0.17146629,-0.29979706,0.93846738,0
-0.46120918,-1.4394748,-0.99772495,-0.11747074,-0.9520008,-0.28265738,0
0.51488853,-0.55425632,-2.3852797,0.60326153,-0.72115785,-0.34059793,0
0.10323632,1.2849934,-2.9276595,-0.17146629,0.29979706,-0.93846738,0
0.81573856,-1.491559,2.3709772,0.17146629,-0.29979706,0.93846738,0
1.2359676,-0.36084223,2.8430498,0.17146629,-0.29979706,0.93846738,0
1.2858609,1.1257765,-1.4001235,0.9330101,0.35531294,-0.056963086,0
1.6717268,-1.1538532,2.3434882,0.17146629,-0.29979706,0.93846738,0
-1.3589996,-0.77267969,0.2749902,-0.89541626,-0.44470882,0.021536469,0
1.9375459,-0.77429795,2.4333251,0.17146629,-0.29979706,0.93846738,0
2.0761735,-0.9477123,2.5949826,0.17146629,-0.29979706,0.93846738,0
1.147512,1.0571311,0.65007341,0.68325156,0.72245491,0.10595489,0
-1.3058448,1.2171335,-2.7650168,-0.17146629,0.29979706,-0.93846738,0
0.73087013,0.41298556,-3.3411968,-0.17146629,0.29979706,-0.93846738,0
-0.9490124,-1.1735878,-0.70513976,-0.60254222,-0.7855581,-0.14085972,0
-0.29089046,-1.057647,2.8630142,0.17146629,-0.29979706,0.93846738,0
1.7403355,0.19619465,2.5818877,0.790986,0.60976553,0.050271749,0
-0.058792353,0.11634493,3.1004562,0.17146629,-0.29979706,0.93846738,0
-0.050314784,1.1669545,1.1882472,-0.23314273,0.91316998,0.33431298,0
0.69398856,0.42726135,-3.1256013,-0.17146629,0.29979706,-0.93846738,0
0.2477954,-2.2768202,2.2999892,-0.074986577,-0.95378327,-0.29098907,0
-0.4114396,1.6910496,-0.35417777,-0.24833941,0.9086622,0.33564943,0
-0.94842911,-0.89418483,3.0268855,0.17146629,-0.29979706,0.93846738,0
-1.3271978,1.6684815,-2.4804642,-0.17146629,0.29979706,-0.93846738,0
-0.2002461,-0.61943603,-2.3276863,0.20290148,-0.92140782,-0.33141917,0
-0.85019016,1.2167541,-2.6779501,-0.17146629,0.29979706,-0.93846738,0
-0.60955799,0.9992643,1.6295881,-0.45172471,0.82261628,0.34532207,0
-0.82089949,0.81685793,1.1662362,-0.71191823,0.62075824,0.3283774,0
-0.19228637,1.4111617,0.67674708,-0.077839971,0.94547451,0.31625757,0
0.44550687,-2.3319225,2.3029742,-0.028042555,-0.95367432,-0.29953134,0
-1.6584046,1.7030113,-1.7361543,-0.74836671,0.5798921,0.32198206,0
-0.60630363,1.8940451,-2.6013107,-0.17146629,0.29979706,-0.93846738,0
1.8723,-1.0913661,1.8298657,0.96542358,-0.13872638,-0.22070819,0
1.3963457,-2.0904391,1.8668282,0.55018699,-0.76105326,-0.34364545,0
1.4662069,-1.1789443,2.3801606,0.17146629,-0.29979706,0.93846738,0
1.5915425,-0.14095071,0.86707544,0.97788239,0.16759738,-0.12512815,0
0.48804808,1.1151001,-3.0730109,-0.17146629,0.29979706,-0.93846738,0
-1.1416647,-1.121519,1.3082769,-0.91738927,-0.39585745,0.041157007,0
-0.66288155,1.7214136,-1.1364973,-0.24152249,0.91071504,0.33505976,0
-1.8558974,0.24072535,-0.94919777,-0.97309577,-0.20033851,0.11379433,0
-1.5948364,1.0786426,-1.5556824,-0.93638349,0.24651238,0.2498349,0
-0.65505433,0.5662725,2.031188,-0.72174013,0.61016476,0.32678783,0
1.586743,-0.015578032,2.8515468,0.17146629,-0.29979706,0.93846738,0
-0.1036579,-1.517221,0.48725164,-0.20131272,-0.94313788,-0.26450735,0
-1.897146,0.52876234,-2.7016866,-0.17146629,0.29979706,-0.93846738,0
0.33428803,-1.8603649,2.6896825,0.17146629,-0.29979706,0.93846738,0
-0.48090911,0.10453176,3.2961154,0.17146629,-0.29979706,0.93846738,0
1.2421052,-0.11810875,-2.1630344,0.90657026,-0.32487351,-0.26942056,0
-0.25173163,0.2959969,3.0182123,-0.56917417,0.74737328,0.3427445,0
2.0466137,-1.3154873,2.3575571,0.17146629,-0.29979706,0.93846738,0
-0.23643064,0.67566991,2.9472876,-0.31714064,0.8850739,0.34068471,0
-1.4073541,1.8566346,-2.1907861,-0.17146629,0.29979706,-0.93846738,0
0.47978842,-1.6399884,2.7758133,0.17146629,-0.29979706,0.93846738,0
-0.82609677,0.20104718,-3.1385663,-0.17146629,0.29979706,-0.93846738,0
0.16931105,0.30080605,3.3777075,0.17146629,-0.29979706,0.93846738,0
0.29899347,-1.0381831,-1.2641397,0.27939939,-0.8986674,-0.33813155,0
-1.3143791,0.37676585,-2.67891,-0.17146629,0.29979706,-0.93846738,0
-1.1715282,-0.58038235,-2.040808,-0.45906645,-0.86715341,-0.19314003,0
-1.7823102,0.089615405,-1.0467083,-0.94531238,-0.31834003,0.071022034,0
0.52937293,-0.73208308,2.9156694,0.17146629,-0.29979706,0.93846738,0
1.7036369,-0.47527468,0.37552404,0.94821751,-0.20829189,-0.2397874,0
0.20524246,-1.9651213,2.524889,0.17146629,-0.29979706,0.93846738,0
1.4327524,-0.25460529,3.059886,0.17146629,-0.29979706,0.93846738,0
0.71019244,0.12262535,3.0623116,0.17146629,-0.29979706,0.93846738,0
-1.6811726,0.91544354,-1.2295246,-0.91848481,0.29590759,0.26234418,0
-1.2778636,1.6460537,-2.5175176,-0.17146629,0.29979706,-0.93846738,0
-0.87096405,-1.7083378,2.3331485,-0.78055263,-0.62255281,-0.05626297,0
-0.8063128,1.9817767,-2.3995962,-0.17146629,0.29979706,-0.93846738,0
0.27128845,1.2262552,-2.6816399,-0.17146629,0.29979706,-0.93846738,0
-0.36300501,1.9687369,-2.688221,-0.17146629,0.29979706,-0.93846738,0
0.56677306,-1.7360861,1.154177,0.12793529,-0.93773335,-0.32293743,0
0.90197253,-0.76520026,2.6748309,0.17146629,-0.29979706,0.93846738,0
-1.2544949,0.49822193,0.2716288,-0.94631034,0.21484563,0.24153256,0
0.49427056,0.35510755,-3.2105145,-0.17146629,0.29979706,-0.93846738,0
-0.77589369,-0.79576373,2.8797355,0.17146629,-0.29979706,0.93846738,0
1.8477416,-1.6128385,1.7943317,0.82239223,-0.48095274,-0.30390057,0
-0.72770548,-0.44049716,-3.1088729,-0.17146629,0.29979706,-0.93846738,0
-0.25168598,-1.6714305,0.77308482,-0.42318201,-0.88263196,-0.2046411,0
-1.1124287,1.0481956,0.24163431,-0.66191566,0.67048985,0.33512843,0
-0.18521416,1.106055,-2.5974641,-0.17146629,0.29979706,-0.93846738,0
-1.3052557,0.55025351,-2.7916467,-0.17146629,0.29979706,-0.93846738,0
-0.54291296,1.1272554,-2.9265723,-0.17146629,0.29979706,-0.93846738,0
-0.37280345,-0.098535061,-2.995544,-0.17146629,0.29979706,-0.93846738,0
0.89123523,1.6413559,-1.3268714,0.70678294,0.70104748,0.094816804,0
-1.3156471,0.11280489,-3.0740776,-0.17146629,0.29979706,-0.93846738,0
0.29941219,1.6216538,-2.6098843,-0.17146629,0.29979706,-0.93846738,0
-1.1052117,0.69569147,0.72064185,-0.87284803,0.39552289,0.28582841,0
-0.48625696,-0.4686439,3.1474791,0.17146629,-0.29979706,0.93846738,0
-0.91538936,-1.246151,2.9304695,0.17146629,-0.29979706,0.93846738,0
0.51258367,-2.1220379,2.5116427,0.17146629,-0.29979706,0.93846738,0
0.5575608,-0.68633938,3.0626991,0.17146629,-0.29979706,0.93846738,0
-1.6656649,0.019359946,-2.8051822,-0.17146629,0.29979706,-0.93846738,0
0.26567876,0.93494737,1.6863414,0.067221522,0.95391524,0.29244992,0
-0.87005484,-0.77148938,-1.9398421,-0.32645953,-0.91604644,-0.23298752,0
-1.4283051,1.5258473,-2.3288789,-0.17146629,0.29979706,-0.93846738,0
-0.59730023,1.7293391,-0.41949815,-0.15167993,0.93318415,0.32582259,0
-0.78138733,0.71883821,-2.6454036,-0.17146629,0.29979706,-0.93846738,0
1.4772562,0.39284313,-1.1020181,0.98248285,0.12260365,-0.14034212,0
1.8982042,-1.1518649,2.3053036,0.17146629,-0.29979706,0.93846738,0
0.54523158,0.007209301,-3.1908603,-0.17146629,0.29979706,-0.93846738,0
-0.706846,-0.11218381,-3.0087173,-0.17146629,0.29979706,-0.93846738,0
0.97420919,-0.5115211,-1.3240894,0.78128558,-0.53891301,-0.3149057,0
-0.54609126,-1.3385429,2.8302855,0.17146629,-0.29979706,0.93846738,0
1.2164676,0.62903476,-2.0189271,0.98510563,0.039706945,-0.16730297,0
-0.85715044,0.85595238,-2.8077662,-0.17146629,0.29979706,-0.93846738,0
-1.0627289,-0.31867337,3.2411439,-0.91808695,0.29691848,0.2625944,0
-0.59981704,-0.99006701,2.9845226,0.17146629,-0.29979706,0.93846738,0
1.8024247,-1.4844517,2.5677295,0.17146629,-0.29979706,0.93846738,0
-1.1027739,1.0608199,-2.7614946,-0.17146629,0.29979706,-0.93846738,0
-0.020875156,1.4665732,-2.6158857,-0.17146629,0.29979706,-0.93846738,0
0.018279791,0.20452499,-3.2711663,-0.17146629,0.29979706,-0.93846738,0
0.89267707,1.3528423,-3.0267918,-0.17146629,0.29979706,-0.93846738,0
-0.23390412,-1.0840204,-1.2272313,-0.14890516,-0.94951802,-0.2761209,0
1.0328321,-0.48762703,2.9132581,0.17146629,-0.29979706,0.93846738,0
-0.36022329,-1.3772849,-1.0146563,-0.072644174,-0.95382941,-0.29143173,0
1.3467038,-0.37887549,2.8456964,0.17146629,-0.29979706,0.93846738,0
0.88121748,1.4811912,-1.9127269,0.81666476,0.57606149,0.034813166,0
0.83761454,-0.55380058,-1.3729961,0.6947763,-0.63856733,-0.33093458,0
0.444942,-0.90406966,2.8005166,0.17146629,-0.29979706,0.93846738,0
-1.1105608,-0.68493605,0.093567133,-0.86728525,-0.49781132,-0.00056695938,0
-0.91662401,-1.4914274,0.72551715,-0.71248955,-0.69562006,-0.09204042,0
-0.88981611,1.758364,-2.3064384,-0.17146629,0.29979706,-0.93846738,0
-0.65254819,2.1809814,-1.4624851,-0.20020986,0.92209435,0.33114672,0
1.7887865,0.12497222,2.8204384,0.17146629,-0.29979706,0.93846738,0
-0.19124866,-0.72762299,2.9928527,0.17146629,-0.29979706,0.93846738,0
-0.44176167,1.5907487,-2.7189059,-0.17146629,0.29979706,-0.93846738,0
1.3226411,0.13460159,3.1115451,0.17146629,-0.29979706,0.93846738,0
-1.1827409,-0.30658388,0.93436027,-0.98513299,-0.062419713,0.1600523,0
-1.9589943,1.5338893,-2.3176556,-0.17146629,0.29979706,-0.93846738,0
0.43675625,0.86103123,1.7258198,0.11831081,0.95194733,0.28248689,0
-1.5413167,1.7474979,-2.5680575,-0.17146629,0.29979706,-0.93846738,0
-0.99925995,-1.5379174,1.1815823,-0.70805132,-0.69984937,-0.09420228,0
1.231267,-0.95983315,2.6049516,0.17146629,-0.29979706,0.93846738,0
0.2960403,0.63855577,2.7731199,-0.041649222,0.94951761,0.31093681,0
-0.9658885,-0.72761488,2.7684352,-0.9772585,0.068872482,0.20055538,0
-1.2211354,-0.50007629,-1.1455144,-0.77037299,-0.63457537,-0.061963558,0
-1.710783,1.187292,-1.4412134,-0.90430665,0.33009741,0.27067578,0
1.7724397,0.18631792,2.8855863,0.79577976,0.60372317,0.047465682,0
0.93190753,1.4332699,-2.342207,0.92501807,0.37679669,-0.048639894,0
1.8361931,-0.57112181,2.5961444,0.17146629,-0.29979706,0.93846738,0
0.27037823,-0.7458117,-1.6812227,0.40201497,-0.84836733,-0.34446591,0
0.35402697,-1.1390166,2.6837692,0.17146629,-0.29979706,0.93846738,0
1.749352,-0.43650097,1.6385372,0.98346996,0.10835046,-0.14507568,0
0.29909062,0.56679583,-3.195056,-0.17146629,0.29979706,-0.93846738,0
-0.17757666,-1.2225457,-1.4338498,-0.11799443,-0.95196754,-0.28255111,0
-1.3150346,0.38789034,-2.6514232,-0.17146629,0.29979706,-0.93846738,0
0.98211807,-0.91872346,-0.49207473,0.68519592,-0.64816397,-0.33224985,0
0.10010654,1.8718708,-2.6847529,-0.17146629,0.29979706,-0.93846738,0
0.81930792,0.076994896,3.0318701,0.17146629,-0.29979706,0.93846738,0
-0.83837318,-0.57342744,3.0699363,0.17146629,-0.29979706,0.93846738,0
0.10424376,-0.42453647,-2.9917505,0.4078564,-0.8455115,-0.34462094,0
-0.15708947,0.64919865,2.5443382,-0.45204127,0.82244152,0.3453241,0
0.78318071,-1.7450528,0.73605621,0.39330578,-0.85254371,-0.3442089,0
0.31183124,-0.18442202,3.2538781,0.17146629,-0.29979706,0.93846738,0
0.6971482,1.2249732,-0.44415438,0.67013842,0.73374391,0.11195707,0
1.5692888,0.019626379,3.0504165,0.17146629,-0.29979706,0.93846738,0
0.63818377,1.8481457,-1.4632353,0.64476478,0.75438923,0.12318838,0
0.59384757,-1.5473559,2.7057085,0.17146629,-0.29979706,0.93846738,0
0.35228825,0.71378434,2.1874466,-0.083878338,0.94467396,0.31710508,0
0.79516232,0.0045266151,-2.8550684,0.83625633,-0.45930785,-0.29951915,0
-1.0303348,0.31046057,1.7867649,-0.79111618,0.52580428,0.31251413,0
1.0688565,-2.0777683,2.1007183,0.49025011,-0.80029428,-0.34523019,0
-0.50648952,-0.26802039,-3.1723614,-0.17146629,0.29979706,-0.93846738,0
-0.8034845,0.76628792,-2.6026311,-0.17146629,0.29979706,-0.93846738,0
1.9428463,-0.19915652,2.7947848,0.17146629,-0.29979706,0.93846738,0
-0.37879837,1.2088966,1.4476216,-0.34969276,0.87202811,0.34246472,0
0.58451474,1.8151641,-2.8188736,-0.17146629,0.29979706,-0.93846738,0
0.42357016,0.020611286,2.9693096,0.17146629,-0.29979706,0.93846738,0
-1.6171557,1.1666118,-2.7006979,-0.17146629,0.29979706,-0.93846738,0
-1.5038595,1.5514064,-2.2423923,-0.17146629,0.29979706,-0.93846738,0
-0.39158291,-1.7563231,2.6789043,0.17146629,-0.29979706,0.93846738,0
0.24779344,0.00018572807,3.2060287,0.17146629,-0.29979706,0.93846738,0
0.06401825,-0.52809334,-3.516715,-0.17146629,0.29979706,-0.93846738,0
-1.3575672,0.92755711,-2.5976584,-0.17146629,0.29979706,-0.93846738,0
0.86705256,0.60940874,2.2256327,0.24243045,0.93612379,0.25475419,0
1.9045902,-0.23691618,2.9726267,0.17146629,-0.29979706,0.93846738,0
0.028060675,-0.042516708,-3.3641524,-0.17146629,0.29979706,-0.93846738,0
-1.1027281,-0.78501755,0.090819716,-0.83166564,-0.5547024,-0.025249124,0
-1.6703901,1.4682735,-2.2830725,-0.17146629,0.29979706,-0.93846738,0
0.62233341,0.9208672,-3.0008044,-0.17146629,0.29979706,-0.93846738,0
-0.47373137,-1.7551253,2.6272416,0.17146629,-0.29979706,0.93846738,0
1.5149348,-1.1197146,2.7490497,0.17146629,-0.29979706,0.93846738,0
1.0383277,0.74491656,2.64362,0.41459537,0.88607723,0.20731056,0
-1.2720611,-0.3793385,-2.9504848,-0.4839775,-0.85534143,-0.18481517,0
-0.86723363,-1.0170376,2.862772,0.17146629,-0.29979706,0.93846738,0
0.14240181,-0.80134964,2.7242932,0.17146629,-0.29979706,0.93846738,0
-0.40332717,-1.8678052,0.77556145,-0.35369432,-0.90780246,-0.22537792,0
-1.1346676,0.77687764,1.1687713,-0.77557868,0.54632866,0.316232,0
0.61995256,-0.33872914,2.7835739,0.17146629,-0.29979706,0.93846738,0
-0.81533349,2.4235923,-2.0998716,-0.17002189,0.92927778,0.32792586,0
1.2501113,-0.17991972,-1.4722414,0.88546169,-0.37072742,-0.28021199,0
2.0267136,-0.91083819,1.9641545,0.94296026,-0.22596312,-0.24447203,0
-0.54500413,-1.3284292,0.069489241,-0.49809223,-0.84824264,-0.17996854,0
-0.21762621,-1.9363395,2.7488663,0.17146629,-0.29979706,0.93846738,0
0.55654162,1.7815104,-2.6687546,0.75499535,0.65194851,0.07032299,0
0.27061701,2.1399312,-2.3060873,0.50043821,0.84703338,0.17915362,0
-1.4816922,1.8137503,-2.4531281,-0.17146629,0.29979706,-0.93846738,0
-0.38229811,-0.68950391,2.8932748,0.17146629,-0.29979706,0.93846738,0
0.39698881,1.6156933,-2.814749,-0.17146629,0.29979706,-0.93846738,0
-1.1259546,-1.3426549,2.9480798,-0.96349037,-0.24985564,0.09622097,0
-1.027233,-0.75166667,-2.0325136,-0.5217911,-0.83563387,-0.17161065,0
-1.1042854,1.8479655,-2.4283686,-0.17146629,0.29979706,-0.93846738,0
0.031450987,0.21322322,-3.3128848,-0.17146629,0.29979706,-0.93846738,0
1.7591221,-0.045352519,0.6781888,0.97882837,0.15991855,-0.12775409,0
0.42869198,-0.55711675,2.8868508,0.17146629,-0.29979706,0.93846738,0
-1.3446136,0.7011013,0.17657715,-0.88481057,0.37205005,0.28051561,0
1.295185,1.2137861,-0.86064863,0.85421616,0.51982206,0.0099862814,0
-0.54228473,1.6516751,-2.7141428,-0.17146629,0.29979706,-0.93846738,0
-0.40147853,-0.35175014,3.0918937,0.17146629,-0.29979706,0.93846738,0
-1.0450085,1.1142131,-2.509347,-0.17146629,0.29979706,-0.93846738,0
-0.76106501,-0.17246056,-3.2885075,-0.17146629,0.29979706,-0.93846738,0
-0.16721308,0.53270507,-3.0162168,-0.17146629,0.29979706,-0.93846738,0
1.5075606,0.13189673,-0.42576671,0.98372602,0.10400984,-0.14650917,0
-1.413784,1.075351,-0.45731246,-0.7296406,0.60142636,0.32543978,0
1.4960274,0.71385604,0.89520907,0.78596777,0.61597675,0.053172946,0
0.76369512,-1.4282295,2.6677661,0.17146629,-0.29979706,0.93846738,0
-0.23494923,-0.34267378,3.0080876,0.17146629,-0.29979706,0.93846738,0
-0.76198924,1.1431797,0.62918746,-0.41958749,0.83964157,0.3448891,0
-0.8626895,-0.98746151,-1.3276515,-0.56234682,-0.81193185,-0.15662909,0
1.6848905,-1.2036065,2.6542697,0.17146629,-0.29979706,0.93846738,0
-0.39283085,-0.14774132,3.2769814,0.17146629,-0.29979706,0.93846738,0
1.361618,0.14050806,-1.0427235,0.98340988,-0.0051528215,-0.18132383,0
1.1394644,1.2442789,-1.0668994,0.82226241,0.5682475,0.031294107,0
-0.014135271,-2.2836893,2.1442273,-0.30942124,-0.92076147,-0.23760676,0
1.7715797,-0.99211335,0.96776849,0.90372252,-0.33143187,-0.27099538,0
0.78467011,-1.0690402,2.7066245,0.17146629,-0.29979706,0.93846738,0
0.89086795,1.2749717,-0.43394876,0.77046371,0.63447022,0.06191349,0
-1.9400103,0.93459201,-1.3511332,-0.96513498,0.14010897,0.22109711,0
-1.4095205,0.47295806,0.10133398,-0.96647435,0.13360542,0.21926421,0
-1.7693608,0.95736682,-2.5053787,-0.17146629,0.29979706,-0.93846738,0
-1.3637631,0.74965572,-2.6027079,-0.17146629,0.29979706,-0.93846738,0
0.7005229,1.9876291,-1.8579509,0.60670245,0.78265166,0.13917118,0
0.4134607,-1.9244587,2.3690803,0.17146629,-0.29979706,0.93846738,0
1.075503,-0.84879941,-1.1915171,0.69022799,-0.6431542,-0.3315689,0
-0.29932928,-0.1852591,-3.0380588,-0.17146629,0.29979706,-0.93846738,0
0.95797187,1.0278753,-1.8669026,0.96347558,0.24992213,-0.09619689,0
-0.86995959,-1.7470059,2.8070693,0.17146629,-0.29979706,0.93846738,0
0.32692099,-1.3195026,2.8573813,0.17146629,-0.29979706,0.93846738,0
-0.031822503,-1.8280652,1.4963518,-0.17993635,-0.94608212,-0.26935363,0
-0.15089549,-2.2364831,2.2142098,-0.50576323,-0.84425724,-0.17729378,0
-0.65404224,2.0749073,-2.3092043,-0.17146629,0.29979706,-0.93846738,0
-0.55984938,0.82121956,-2.6609528,-0.17146629,0.29979706,-0.93846738,0
1.7388473,0.30446249,1.8460248,0.8200959,0.57129318,0.032663107,0
-1.0682617,-0.1371944,-2.9801891,-0.17146629,0.29979706,-0.93846738,0
-1.161473,1.0054193,-2.5068145,-0.17146629,0.29979706,-0.93846738,0
-0.35753441,-1.152391,2.808188,0.17146629,-0.29979706,0.93846738,0
-1.1235721,1.4363486,-2.7315087,-0.17146629,0.29979706,-0.93846738,0
-1.6134863,0.22024322,-2.9701812,-0.17146629,0.29979706,-0.93846738,0
1.3775078,-0.79918754,2.6148167,0.17146629,-0.29979706,0.93846738,0
-0.43013358,-1.8313602,0.99367642,-0.3768118,-0.90010303,-0.21869451,0
-0.45345038,1.4470671,-2.6610129,-0.17146629,0.29979706,-0.93846738,0
0.00067746639,1.0445063,1.2936428,-0.10287482,0.94191897,0.31969577,0
1.9529207,-0.25074565,2.555264,0.17146629,-0.29979706,0.93846738,0
1.3731573,-1.1785358,2.4746716,0.17146629,-0.29979706,0.93846738,0
-1.0569324,0.038257837,-3.0370893,-0.17146629,0.29979706,-0.93846738,0
-1.4825149,-0.6963414,0.58636475,-0.91765153,-0.39522284,0.041407704,0
1.9258468,-0.42730319,2.8605971,0.17146629,-0.29979706,0.93846738,0
1.1655793,-1.4289417,2.580256,0.17146629,-0.29979706,0.93846738,0
0.56159401,-0.72360694,-2.0909042,0.54802161,-0.76257348,-0.34373546,0
1.4955798,0.33779413,-0.25607038,0.97263563,0.20309994,-0.11282814,0
1.2107556,0.88223171,-1.5375438,0.9735198,0.19774488,-0.11470032,0
1.0090187,-0.11128712,2.9597239,0.17146629,-0.29979706,0.93846738,0
0.90516245,0.33447647,-2.1092422,0.92501533,-0.27882203,-0.25807929,0
-0.74263775,0.603701,1.6936927,-0.64338297,0.68732023,0.33711892,0
-0.32167703,1.3892292,-2.5888271,-0.17146629,0.29979706,-0.93846738,0
0.28814477,-1.3971392,2.6206288,0.17146629,-0.29979706,0.93846738,0
-0.48508871,-0.9302516,3.1939912,0.17146629,-0.29979706,0.93846738,0
-0.8129468,-0.74145782,-1.8219882,-0.48218709,-0.85622072,-0.1854232,0
-0.74113131,0.8425914,-2.6318207,-0.17146629,0.29979706,-0.93846738,0
-1.0640515,1.2415528,-2.6034646,-0.17146629,0.29979706,-0.93846738,0
0.28861666,0.54600883,-2.9482112,-0.17146629,0.29979706,-0.93846738,0
-0.4283101,-2.0839705,2.0925848,-0.61643445,-0.77571619,-0.13517749,0
0.71152014,-1.9534591,2.4331012,0.17146629,-0.29979706,0.93846738,0
0.99891722,0.14451671,2.954,0.17146629,-0.29979706,0.93846738,0
0.065462589,0.1457963,-3.2129595,-0.17146629,0.29979706,-0.93846738,0
-2.010046,0.72636425,-2.646219,-0.17146629,0.29979706,-0.93846738,0
0.08286643,0.26061058,-3.2157638,-0.17146629,0.29979706,-0.93846738,0
-1.191341,1.1185328,-2.5880051,-0.17146629,0.29979706,-0.93846738,0
0.94284266,-0.94351184,2.849287,0.17146629,-0.29979706,0.93846738,0
0.60686982,-0.58183646,2.8093905,0.17146629,-0.29979706,0.93846738,0
-0.28622353,-1.1696687,2.8834095,0.17146629,-0.29979706,0.93846738,0
1.0721012,0.18448353,-2.725661,0.90281975,-0.33348438,-0.2714861,0
-0.53474808,1.1283162,-2.9123988,-0.17146629,0.29979706,-0.93846738,0
-1.7302127,0.017235428,-0.27018142,-0.98422408,-0.0099563599,0.17664587,0
1.4798334,0.4142822,-1.2604208,0.98518968,0.052934229,-0.16309279,0
-0.23211765,-0.12596297,3.3250508,0.17146629,-0.29979706,0.93846738,0
-1.4867609,1.118111,-1.3363127,-0.85513932,0.42773414,0.29288292,0
1.3756965,0.78366339,0.78018439,0.77876365,0.62469727,0.057274938,0
-1.3157561,1.100594,-0.099211156,-0.77969515,0.54099369,0.31527975,0
-0.93145943,-0.19373226,2.7761765,-0.87196618,0.39719495,0.28620142,0
1.0052012,-2.365386,2.3154366,0.41427904,-0.84232014,-0.3447749,0
1.5979437,-0.74003613,2.6554794,0.17146629,-0.29979706,0.93846738,0
-1.3170965,-0.15764713,-3.0123563,-0.17146629,0.29979706,-0.93846738,0
1.001673,0.39289403,-2.8356521,0.91910315,-0.29432976,-0.26195306,0
-0.50879014,0.50678647,2.0474219,-0.55719233,0.75607985,0.34333661,0
0.88161445,1.1504515,-1.7161683,0.90235603,0.4301154,-0.027466416,0
0.46914971,-2.0514364,1.9008319,0.030577123,-0.95049667,-0.30922657,0
1.7114723,-1.5432464,2.3999581,0.17146629,-0.29979706,0.93846738,0
0.25759992,-2.348305,2.2804739,0.17146629,-0.29979706,0.93846738,0
1.1497691,-0.41187203,-1.7890415,0.79444873,-0.52126014,-0.31167138,0
0.48518944,-0.61222744,-2.4872947,0.62883729,-0.6999836,-0.33850661,0
-0.50550091,-0.52008677,3.0263343,0.17146629,-0.29979706,0.93846738,0
-0.30143678,-1.3273435,2.7412775,0.17146629,-0.29979706,0.93846738,0
-1.0973827,2.2771814,-2.3130913,-0.17146629,0.29979706,-0.93846738,0
-0.93300557,-0.38100386,3.096133,0.17146629,-0.29979706,0.93846738,0
0.0075802803,-1.5820916,-0.39042741,0.046288431,-0.94907153,-0.3116419,0
0.77089834,-0.77274734,-1.3680067,0.68111241,-0.65218019,-0.33278674,0
1.5337857,0.43538129,2.8187947,0.68735695,0.7188288,0.10404634,0
0.29518771,1.1615865,-2.8288107,-0.17146629,0.29979706,-0.93846738,0
0.83827007,0.30876279,-3.1753163,0.86616945,-0.40799999,-0.28859407,0
0.0035574436,-0.12956476,3.2118745,0.17146629,-0.29979706,0.93846738,0
1.8262539,-0.33927941,2.6116154,0.17146629,-0.29979706,0.93846738,0
-0.7222811,-1.3500279,0.26205075,-0.50466269,-0.84483469,-0.17767936,0
-1.8908951,0.15365344,-1.5446885,-0.93527901,-0.34888536,0.059431076,0
0.32568252,0.73482537,-2.9507508,-0.17146629,0.29979706,-0.93846738,0
-1.4939222,1.2729127,-0.65389997,-0.82366145,0.47902018,0.30351514,0
-1.0868834,-0.8072648,-1.5231504,-0.60232806,-0.7857067,-0.14094633,0
-1.3779023,-0.42458385,0.5643543,-0.94463915,-0.32051238,0.070205092,0
-0.18090841,1.7885906,-2.4244919,-0.17146629,0.29979706,-0.93846738,0
-0.1457774,1.9720242,-2.723053,-0.17146629,0.29979706,-0.93846738,0
1.9451969,-1.298893,2.0241966,0.9416154,-0.23029578,-0.24561036,0
-1.5058725,1.0928849,-2.5390286,-0.17146629,0.29979706,-0.93846738,0
-0.96992767,0.30703974,-2.7774284,-0.17146629,0.29979706,-0.93846738,0
-0.6770221,2.1560111,-1.8954965,-0.20504582,0.9208554,0.33163452,0
-1.3442512,1.6424224,-1.7274268,-0.69678289,0.63652569,0.33064905,0
1.0029848,-1.6512628,0.37497216,0.45030189,-0.8233999,-0.34531248,0
-1.8208444,0.78808284,-2.6671665,-0.17146629,0.29979706,-0.93846738,0
0.15645778,-2.1804373,2.4534645,0.17146629,-0.29979706,0.93846738,0
1.3000457,-0.51388848,2.7605116,0.17146629,-0.29979706,0.93846738,0
-1.3389283,0.76052999,-0.10783762,-0.89901328,0.34200364,0.27351207,0
-0.32628942,-0.11562538,-3.0292783,-0.17146629,0.29979706,-0.93846738,0
0.77373135,1.1545441,-3.1120763,-0.17146629,0.29979706,-0.93846738,0
1.0910745,-1.7117553,1.359129,0.56563437,-0.74997222,-0.34292796,0
-0.80384552,1.7545531,-0.39780414,-0.40964329,0.84462893,0.34466553,0
-0.021919847,1.7902474,-1.5138985,0.27559525,0.92914093,0.24646401,0
1.7573411,-1.1357979,2.3076723,0.17146629,-0.29979706,0.93846738,0
0.19809151,0.16810894,3.1529477,0.17146629,-0.29979706,0.93846738,0
-0.15312862,0.89593589,2.3605828,-0.39236826,0.85298759,0.34417936,0
-1.3410857,0.093503833,1.7466356,-0.94019729,0.23478836,0.24678648,0
0.25378346,0.431849,-3.3027663,-0.17146629,0.29979706,-0.93846738,0
0.92549765,-0.014475346,-2.3500421,0.91324949,-0.30895793,-0.26555663,0
0.22737432,-0.50842476,2.8219757,0.17146629,-0.29979706,0.93846738,0
-1.5783367,-0.3198756,-2.7309651,-0.67160124,-0.73250616,-0.11129439,0
0.4454782,1.6039866,-0.50367546,0.30629528,0.92159009,0.2384426,0
0.77506101,-0.65645623,-1.735164,0.58362067,-0.73653066,-0.34192026,0
-0.3394936,1.9786731,-2.518548,-0.17146629,0.29979706,-0.93846738,0
-0.45425913,-1.7919748,2.5807164,0.17146629,-0.29979706,0.93846738,0
0.04190731,-0.90764964,-2.1235933,0.1206755,-0.93901068,-0.32201904,0
0.96362865,-1.0091573,-0.77513415,0.60916108,-0.7163927,-0.34015357,0
-1.0102983,1.3187113,0.069284767,-0.53521311,0.7714029,0.34421587,0
0.54414034,0.71304297,2.9744256,0.066634059,0.95392287,0.29255968,0
-1.4230559,-0.24401727,-0.083366513,-0.98233235,-0.12452805,0.13969982,0
0.69389653,0.59388518,3.2363148,0.17146629,-0.29979706,0.93846738,0
-1.8316555,0.64944905,-1.8829068,-0.98038781,-0.14586204,0.13252938,0
1.2607596,-0.011731386,-1.8703183,0.88760895,-0.36633033,-0.27919966,0
1.0239826,0.626562,2.1049395,0.44778174,0.87221229,0.19681787,0
0.39982784,-1.4195614,-0.63753408,0.32865524,-0.88060158,-0.34135979,0
1.5505583,0.45258844,0.1591959,0.88217407,0.47080022,-0.010782003,0
1.6537786,-0.29111212,1.6789572,0.96579933,0.23921403,-0.10004234,0
-1.1097742,-0.73544639,-1.9346054,-0.46924281,-0.86243665,-0.18977398,0
-0.95231199,0.70113337,0.91645479,-0.69109499,0.64228427,0.33144939,0
1.0392604,1.6050189,-2.5045991,0.90357769,0.42747316,-0.028533816,0
0.2644245,1.6465037,-2.7851896,-0.17146629,0.29979706,-0.93846738,0
0.052539229,-0.67843366,2.9179778,0.17146629,-0.29979706,0.93846738,0
-0.37328333,-1.6580012,2.6980104,0.17146629,-0.29979706,0.93846738,0
0.45787942,-0.59724212,2.9006181,0.17146629,-0.29979706,0.93846738,0
1.1198449,-0.50782204,-1.2062771,0.8589223,-0.4210819,-0.29144895,0
-0.38651943,0.39216352,2.4177723,-0.54135239,0.7672053,0.34399658,0
-1.294399,0.86519873,0.0066567063,-0.71827316,0.61393762,0.32735962,0
0.68004942,0.52526999,-3.2383094,-0.17146629,0.29979706,-0.93846738,0
0.29676509,0.24545288,3.3902678,0.17146629,-0.29979706,0.93846738,0
-1.1670623,-0.59912395,2.640784,-0.97899187,0.0548352,0.19638783,0
-0.25082541,-0.024583101,-3.0378618,-0.17146629,0.29979706,-0.93846738,0
-1.0761051,-0.83239794,0.81912136,-0.91816247,-0.39398289,0.041897178,0
1.0604873,1.4593129,-1.5328261,0.78722954,0.61442572,0.052446842,0
1.0700227,-1.3474474,-0.075841427,0.6532436,-0.67846525,-0.33609176,0
-0.71242315,1.2008893,0.35561156,-0.40691119,0.84597653,0.34459677,0
0.74742687,-0.47863674,2.7597904,0.17146629,-0.29979706,0.93846738,0
-0.38873821,1.6134417,-2.6909556,-0.17146629,0.29979706,-0.93846738,0
-0.59154689,1.7687536,-2.3606701,-0.17146629,0.29979706,-0.93846738,0
0.15472794,0.13797855,-3.1964879,-0.17146629,0.29979706,-0.93846738,0
-0.76987779,1.2542044,0.18677039,-0.56794375,0.74827933,0.34280908,0
-1.0249814,1.41232,-2.3790519,-0.17146629,0.29979706,-0.93846738,0
-0.67036498,0.78978312,-2.6338651,-0.17146629,0.29979706,-0.93846738,0
0.095595002,-1.1483574,2.716639,0.17146629,-0.29979706,0.93846738,0
0.27660286,2.0327861,-2.7265787,-0.17146629,0.29979706,-0.93846738,0
0.16950905,1.6858568,-0.4196797,0.25660884,0.93328553,0.251257,0
0.56560802,1.0292546,2.1901641,0.044025242,0.95395511,0.29670089,0
-0.33988982,-1.9787163,2.4966278,0.17146629,-0.29979706,0.93846738,0
0.76463652,1.6260078,-2.6161652,-0.17146629,0.29979706,-0.93846738,0
0.78125525,-0.28712177,2.7959242,0.17146629,-0.29979706,0.93846738,0
-0.086040616,0.82266903,-2.7356377,-0.17146629,0.29979706,-0.93846738,0
-0.63752699,-0.56132126,3.3364458,0.17146629,-0.29979706,0.93846738,0
1.896495,-0.90645355,1.8403467,0.94730687,-0.2114428,-0.24062771,0
-1.5004151,1.0804033,-0.71465874,-0.82049263,0.4838272,0.30447176,0
-0.087382555,0.029691219,-3.3643346,-0.17146629,0.29979706,-0.93846738,0
-1.3208075,0.38942766,-3.03527,-0.17146629,0.29979706,-0.93846738,0
-0.68549454,-1.8164551,1.9157728,-0.64729393,-0.75239921,-0.12209058,0
-0.95062697,1.158917,-2.5239034,-0.17146629,0.29979706,-0.93846738,0
0.54013437,1.6969845,-2.6102748,-0.17146629,0.29979706,-0.93846738,0
-0.53216982,0.40060258,2.5395062,-0.63231927,0.69699442,0.33818793,0
-1.5336307,-0.30651736,-2.3893661,-0.7190339,-0.6892761,-0.088818073,0
0.19764519,-0.19057846,-3.3012142,-0.17146629,0.29979706,-0.93846738,0
-0.45512795,0.29732919,3.1224456,-0.68241787,0.65090096,0.33261663,0
0.81759828,-0.75414658,2.6326902,0.17146629,-0.29979706,0.93846738,0
1.7062645,-0.54765236,2.8870559,0.17146629,-0.29979706,0.93846738,0
-0.69622558,1.7100888,-2.6120417,-0.17146629,0.29979706,-0.93846738,0
-1.0720233,-1.0126005,-1.2446096,-0.59604841,-0.79002631,-0.14347368,0
0.69415319,1.4689289,-0.092060208,0.4920854,0.85130048,0.18204284,0
-1.5089835,0.15370226,0.55353665,-0.94358999,0.22390971,0.24393111,0
0.037316322,-0.20801711,2.9263413,0.17146629,-0.29979706,0.93846738,0
1.874069,-1.7710707,2.2266891,0.79843962,-0.51574892,-0.31064004,0
1.1977069,-1.6267271,2.4502497,0.17146629,-0.29979706,0.93846738,0
0.80215657,1.7796159,-2.581826,0.72528344,0.68309528,0.085701704,0
-1.5829469,0.15661669,-3.0544121,-0.17146629,0.29979706,-0.93846738,0
1.3257444,-0.17090052,-0.34484446,0.97055334,-0.11218661,-0.21316719,0
0.9868046,-0.32979727,2.7794583,0.17146629,-0.29979706,0.93846738,0
-0.19060659,-0.73884988,3.0279589,0.17146629,-0.29979706,0.93846738,0
-0.4658072,0.83913159,-2.7256384,-0.17146629,0.29979706,-0.93846738,0
-0.72772443,0.90651059,1.7964939,-0.57869923,0.74026763,0.34221488,0
0.93867779,0.84339833,-2.0319002,0.95275754,0.29286435,-0.08052063,0
-0.39910209,1.0156319,-2.9984498,-0.17146629,0.29979706,-0.93846738,0
0.21171546,0.71575451,-2.9053025,-0.17146629,0.29979706,-0.93846738,0
-0.099429548,-1.5315359,2.8508034,0.17146629,-0.29979706,0.93846738,0
-1.2813085,-0.22750807,1.2583513,-0.9814114,0.031371772,0.18933445,0
-0.76312637,0.40636194,1.5613985,-0.75663275,0.5699957,0.32033086,0
-0.95336574,0.82968521,-2.5531867,-0.17146629,0.29979706,-0.93846738,0
-0.6569736,0.63717413,2.401011,-0.61008114,0.71564317,0.3400822,0
1.015583,-1.1027033,2.8614559,0.17146629,-0.29979706,0.93846738,0
0.54101562,0.25875926,3.2376468,0.17146629,-0.29979706,0.93846738,0
-0.5852443,-0.97380477,-1.2221376,-0.20487165,-0.94260144,-0.26368582,0
1.8335761,-0.31661093,2.4247751,0.89834851,0.43862653,-0.024015307,0
0.037893295,0.05967927,3.0478075,0.17146629,-0.29979706,0.93846738,0
-0.57069397,-0.88264227,2.9334335,0.17146629,-0.29979706,0.93846738,0
-0.69374549,-0.93803453,2.8970404,0.17146629,-0.29979706,0.93846738,0
-1.4479046,1.5566993,-1.5697724,-0.64051133,0.68985742,0.33740473,0
-1.1069655,0.78211045,0.52291751,-0.86076427,0.41779989,0.29073709,0
