-0.60363185,0.70353174,0.98465884,-0.49908245,0.540658,0.67720419,0
-0.74945378,-1.0670276,0.63294619,0.33262074,-0.60210407,0.72583342,0
-1.0900848,-0.29091918,-1.33657,-0.33262074,0.60210407,-0.72583342,0
-0.37707412,-0.65762407,-1.6869775,0.007507205,-0.76794225,-0.64047486,0
-1.0840805,-1.4002974,0.6944474,-0.85989684,-0.50965893,-0.028723001,0
-1.6070981,-0.038254261,0.63024127,-0.92252517,-0.047998756,0.38294029,0
-1.5305433,1.0869572,0.35466039,-0.68610436,0.3735424,0.62428087,0
-0.35537028,-1.5972875,-0.085359037,-0.33074671,-0.79524946,-0.50811881,0
0.02154839,0.39919287,-1.3209212,-0.33262074,0.60210407,-0.72583342,0
1.2129786,-0.33622545,0.5772506,0.33262074,-0.60210407,0.72583342,0
-0.59322155,-0.44848406,-1.5812051,-0.33262074,0.60210407,-0.72583342,0
1.3920763,-0.098962784,0.7478447,0.33262074,-0.60210407,0.72583342,0
-1.253952,-0.13178937,1.0380678,-0.85147619,0.1391194,0.5056023,0
1.3408699,-1.0503348,0.13501775,0.33262074,-0.60210407,0.72583342,0
-0.056489229,1.035248,0.69422996,0.0097390413,0.77180922,0.63577944,0
-0.77715355,-1.1050748,0.68632436,0.33262074,-0.60210407,0.72583342,0
-0.03400299,-1.4650792,0.43013045,0.33262074,-0.60210407,0.72583342,0
0.56892037,0.29247183,1.3276074,0.33262074,-0.60210407,0.72583342,0
-0.78089035,-0.30280793,-1.3534076,-0.33262074,0.60210407,-0.72583342,0
-0.68678492,-1.3522477,0.77544087,0.33262074,-0.60210407,0.72583342,0
0.10430032,-0.62366492,1.0398197,0.33262074,-0.60210407,0.72583342,0
-0.78394932,0.63753802,-0.44633579,-0.33262074,0.60210407,-0.72583342,0
0.026468039,1.0717164,1.0590271,0.0014532804,0.76998347,0.63806188,0
-1.3036642,1.2999649,0.44486159,-0.64225948,0.41895249,0.64185774,0
-0.57387555,-0.34100956,-1.3408769,-0.33262074,0.60210407,-0.72583342,0
1.3433579,0.058485627,0.61450982,0.33262074,-0.60210407,0.72583342,0
-0.95008719,1.4532672,0.50878066,-0.35478187,0.63322413,0.68786383,0
0.15916336,0.73849678,1.4637835,-0.172647,0.71777201,0.67453396,0
-0.14583224,0.44842267,-1.2128377,-0.33262074,0.60210407,-0.72583342,0
-0.25271726,0.23787582,-1.018636,-0.33262074,0.60210407,-0.72583342,0
1.2294947,0.099413753,1.1558343,0.33262074,-0.60210407,0.72583342,0
-1.652723,0.019625664,-0.094536543,-0.93119895,-0.33137989,0.15184081,0
-0.61202776,1.5471989,0.099506602,-0.33262074,0.60210407,-0.72583342,0
1.5222001,0.36429906,0.016437292,0.93783289,0.29211414,-0.18745291,0
0.18757081,1.0907351,1.357861,0.026729822,0.77536714,0.63094455,0
-0.20834625,1.0016572,1.1240019,-0.21395743,0.70140707,0.67988968,0
-0.048046589,-1.6057823,-0.16755265,-0.14340484,-0.79299939,-0.59210372,0
-1.0209591,-1.067606,0.16696835,-0.83185661,-0.549905,-0.074958205,0
-0.91092825,-1.1382825,0.66234595,0.33262074,-0.60210407,0.72583342,0
0.15783417,-0.78035349,0.48675114,0.33262074,-0.60210407,0.72583342,0
0.70164466,0.12477008,-1.7321893,0.67927068,-0.38093343,-0.62728041,0
1.421798,-0.24449807,0.38077855,0.33262074,-0.60210407,0.72583342,0
-0.51984036,1.179229,1.1049893,-0.36509228,0.6274277,0.68778038,0
-0.52886426,-0.59219253,-1.4029456,-0.33262074,0.60210407,-0.72583342,0
0.83595788,-0.51798773,-1.3825907,0.52655911,-0.51993716,-0.67260712,0
0.41845244,0.91759598,-0.6513598,-0.33262074,0.60210407,-0.72583342,0
-1.0732033,-0.31224424,1.2334349,-0.86087847,0.12037912,0.49436527,0
-0.091048479,1.2654032,-0.15850988,-0.33262074,0.60210407,-0.72583342,0
0.081864595,0.017645657,1.5191076,0.33262074,-0.60210407,0.72583342,0
0.74174011,-1.1569844,-0.61986643,0.49276936,-0.54526496,-0.67813289,0
0.92272687,-0.056281209,0.85781521,0.33262074,-0.60210407,0.72583342,0
0.13583231,0.5623008,-1.1199185,-0.33262074,0.60210407,-0.72583342,0
0.25584173,0.34313694,-1.2574856,-0.33262074,0.60210407,-0.72583342,0
0.69843525,0.87880057,0.9582544,0.35364008,0.79312861,0.49586838,0
-0.46851283,0.36587292,-0.65588462,-0.33262074,0.60210407,-0.72583342,0
-0.50652289,0.28983393,1.8082938,-0.48947597,0.54764616,0.678599,0
1.4100578,-0.69166452,0.39509249,0.33262074,-0.60210407,0.72583342,0
-1.3405918,1.2168151,0.46427613,-0.611184,0.44851559,0.65214062,0
-0.96057439,1.2022454,-0.0066758394,-0.33262074,0.60210407,-0.72583342,0
0.6484673,0.50510997,1.600831,0.33262074,-0.60210407,0.72583342,0
-0.77434933,1.5033015,0.28193891,-0.33262074,0.60210407,-0.72583342,0
-0.43402934,-1.663583,0.22957873,0.33262074,-0.60210407,0.72583342,0
-0.30337656,0.076960921,-1.2864039,-0.33262074,0.60210407,-0.72583342,0
0.69360572,0.97163391,-0.68419027,-0.33262074,0.60210407,-0.72583342,0
1.6235136,-0.3380143,-0.091819644,0.94243586,0.18421212,-0.27907079,0
0.85504633,-0.76952213,0.61694586,0.33262074,-0.60210407,0.72583342,0
1.1952438,0.11047705,-1.2538019,0.8257432,-0.18582763,-0.53255594,0
0.80122387,0.24529186,-1.3225205,-0.33262074,0.60210407,-0.72583342,0
0.82425475,0.38965452,-1.1700746,-0.33262074,0.60210407,-0.72583342,0
0.62056553,0.8650102,1.4964802,0.25133324,0.79841745,0.54713881,0
0.13110828,-0.65715039,-1.2551205,0.27895522,-0.67239863,-0.68561208,0
-0.24316525,0.53822446,1.6784692,-0.31898117,0.6524632,0.68741727,0
-1.1068316,-0.10507499,0.92281729,-0.89582044,0.038815022,0.44271749,0
0.89465928,-1.5030231,-0.015860498,0.33262074,-0.60210407,0.72583342,0
-0.59522849,0.95792425,-0.41808325,-0.33262074,0.60210407,-0.72583342,0
-1.2582942,-0.22653422,1.0167756,-0.91445339,-0.017791003,0.40429968,0
0.69365239,1.6830659,-0.21615255,-0.33262074,0.60210407,-0.72583342,0
-0.57174617,1.3316786,-0.18891113,-0.33262074,0.60210407,-0.72583342,0
1.436763,-0.75494695,-0.31013656,0.83304507,-0.17317039,-0.52540249,0
0.41242218,0.086074084,-1.3563112,-0.33262074,0.60210407,-0.72583342,0
1.7440525,0.053855777,-0.039120078,0.9416855,0.25360143,-0.22116607,0
1.252197,0.88099331,-1.1059642,0.93925649,0.14244774,-0.31225884,0
1.2896367,-0.105955,0.83535039,0.33262074,-0.60210407,0.72583342,0
-0.075615168,-0.25234115,1.4066081,0.33262074,-0.60210407,0.72583342,0
-1.1876162,0.88039452,0.62781793,-0.59616292,0.46211329,0.65653694,0
-0.56085455,-0.56825548,-1.5989915,-0.33262074,0.60210407,-0.72583342,0
-0.59081584,-0.69146758,0.91272783,0.33262074,-0.60210407,0.72583342,0
0.49485302,0.29117042,1.225343,0.33262074,-0.60210407,0.72583342,0
-0.58228213,1.3008924,0.11785335,-0.33262074,0.60210407,-0.72583342,0
0.061608598,0.97360569,-0.5390932,-0.33262074,0.60210407,-0.72583342,0
1.0297618,0.96420133,-0.38656723,0.86749887,0.49721515,0.014916539,0
0.26408267,1.3376305,-0.51102936,-0.33262074,0.60210407,-0.72583342,0
-0.98793459,0.86745119,0.6116668,-0.67016304,0.39059636,0.63112247,0
-0.22610402,1.5208853,0.55633599,-0.1259284,0.73440719,0.66692412,0
0.46766359,0.078903735,1.2831378,0.33262074,-0.60210407,0.72583342,0
-0.73921645,-0.27209297,1.3829792,-0.82550114,0.18624003,0.53278708,0
-0.069807172,-0.86486024,-1.3477809,0.0001386404,-0.7696259,-0.63849479,0
-1.4515694,-0.34887415,-0.0092077255,-0.91072214,-0.40490556,0.081464887,0
0.16113505,-0.38095152,0.71433556,0.33262074,-0.60210407,0.72583342,0
-0.57203031,0.47805703,1.3026692,-0.54927135,0.50194865,0.66809309,0
0.57418406,-1.6573199,-0.066701382,0.33262074,-0.60210407,0.72583342,0
0.13585234,-1.3069143,-0.79218388,-0.033147097,-0.77664578,-0.6290645,0
0.29623061,-0.97963041,0.41946238,0.33262074,-0.60210407,0.72583342,0
-1.0166794,-1.1827246,-0.06612432,-0.79215664,-0.59600621,-0.13139367,0
-0.97918749,-1.1633098,0.79678625,0.33262074,-0.60210407,0.72583342,0
-0.073413134,0.056572914,1.4796984,0.33262074,-0.60210407,0.72583342,0
0.16017473,1.1907711,0.66878146,0.18916672,0.79661202,0.57412964,0
-1.0426486,-0.66044605,1.0830801,-0.94303834,-0.20708111,0.26037633,0
1.3762693,-0.12004828,0.50716186,0.33262074,-0.60210407,0.72583342,0
0.97958428,0.31552726,1.2395349,0.33262074,-0.60210407,0.72583342,0
-0.36281991,-0.1593467,1.6279527,0.33262074,-0.60210407,0.72583342,0
0.42988992,-0.26183012,-1.5640147,-0.33262074,0.60210407,-0.72583342,0
-0.60259295,-0.56006414,1.2877407,0.33262074,-0.60210407,0.72583342,0
0.66864347,-0.17083871,0.69939393,0.33262074,-0.60210407,0.72583342,0
-1.0853539,1.114615,0.53975475,-0.66790694,0.39295787,0.63204753,0
1.5706961,-0.49564922,0.14443886,0.93655664,0.12066427,-0.32909179,0
1.0770206,0.54609108,-1.0558063,0.90083027,-0.024884194,-0.43345726,0
0.94709337,0.77688825,1.5638406,0.39830136,0.7873345,0.47059536,0
0.03328979,1.2709432,1.0202934,-0.065843344,0.75295186,0.65477306,0
-0.95700014,0.77758318,0.88927865,-0.51418984,0.52940214,0.67479026,0
-0.70315051,-0.98598468,0.62805355,0.33262074,-0.60210407,0.72583342,0
-0.75890577,0.39500749,-0.51498103,-0.33262074,0.60210407,-0.72583342,0
-0.50296521,1.2835913,0.86111021,-0.1884023,0.71171629,0.67673057,0
-0.10135257,1.3574359,0.83919966,0.09860158,0.78764248,0.60819137,0
0.39969611,-0.069586039,-1.8421165,-0.33262074,0.60210407,-0.72583342,0
0.034477115,-0.21530497,-1.4229193,-0.33262074,0.60210407,-0.72583342,0
-1.0730865,1.2678171,0.20281106,-0.50479198,0.53644252,0.67632389,0
1.4700198,-0.0052320957,0.65446651,0.33262074,-0.60210407,0.72583342,0
1.098513,0.1604771,0.9133023,0.33262074,-0.60210407,0.72583342,0
-0.59907037,0.47855577,-0.49554598,-0.33262074,0.60210407,-0.72583342,0
0.30587626,1.651304,0.19673449,0.42927176,0.78196442,0.45194811,0
-0.50105572,1.3663774,0.71032959,-0.27377355,0.67486155,0.68528062,0
-0.015565634,0.35592037,1.7768729,-0.16474247,0.72072494,0.67336118,0
0.42056406,1.443218,0.81681293,0.32153034,0.79594636,0.51292032,0
0.15486526,-1.0167167,-1.2698095,0.20095015,-0.70673013,-0.67834455,0
0.30159169,-0.98548162,0.5710336,0.33262074,-0.60210407,0.72583342,0
0.55378258,0.63363522,-1.0856285,-0.33262074,0.60210407,-0.72583342,0
-1.1927722,1.1845524,-0.066946745,-0.33262074,0.60210407,-0.72583342,0
1.3603324,0.28216958,0.89380217,0.70231807,0.67180198,0.23543835,0
-0.51145738,0.37954921,-0.57652849,-0.33262074,0.60210407,-0.72583342,0
1.6301901,0.50043023,-0.18123877,0.9266448,0.35164726,-0.13294125,0
-0.10883462,-1.4361687,-0.63305449,-0.21602708,-0.79783821,-0.56283772,0
-1.4472059,0.81183934,0.57342178,-0.80474633,0.22005329,0.55132526,0
0.79849869,1.1287137,-0.92092687,-0.33262074,0.60210407,-0.72583342,0
1.2568426,-0.86272687,-0.66626096,0.75488436,-0.29132995,-0.58760202,0
-1.7786376,0.53570914,-0.16695201,-0.92987591,-0.081146538,0.35881156,0
0.27957389,1.1109523,-0.69789457,-0.33262074,0.60210407,-0.72583342,0
0.24880886,-1.1486242,0.076628976,0.33262074,-0.60210407,0.72583342,0
1.00413,0.27515015,-1.3547344,-0.33262074,0.60210407,-0.72583342,0
-1.0053964,-0.4923346,1.0527921,-0.8965627,0.036798507,0.44138497,0
-0.72868633,1.0914299,0.89083546,-0.40728116,0.60246664,0.6864078,0
-0.11535645,-0.24776202,-1.4517252,-0.33262074,0.60210407,-0.72583342,0
0.082699537,-0.33927071,1.2610466,0.33262074,-0.60210407,0.72583342,0
-0.30773309,-0.86041284,0.82999378,0.33262074,-0.60210407,0.72583342,0
1.240013,0.6992088,0.25103295,0.85678381,0.51454031,0.034198761,0
0.83608735,-1.0768819,0.36443871,0.33262074,-0.60210407,0.72583342,0
0.15428042,1.1624306,0.57787991,0.1803509,0.79606438,0.57771522,0
-0.8546586,-0.69950658,1.3111289,0.33262074,-0.60210407,0.72583342,0
0.90930974,-1.1605469,-0.3052296,0.44368625,-0.57924384,-0.68382668,0
0.49084091,0.32859743,1.1710758,0.33262074,-0.60210407,0.72583342,0
-1.7087233,-0.3092609,-0.45208275,-0.86839235,-0.49570048,-0.013250828,0
-0.71568316,-1.2848724,-0.54824018,-0.4666754,-0.77390337,-0.42812073,0
1.7596798,-0.0091795921,0.39581656,0.33262074,-0.60210407,0.72583342,0
-0.72672224,0.92608547,1.1871425,-0.49313593,0.544999,0.67808026,0
-0.25937527,-0.668966,0.98456275,0.33262074,-0.60210407,0.72583342,0
-1.2091373,1.2565203,0.26896071,-0.33262074,0.60210407,-0.72583342,0
0.63310146,-0.48941743,-1.478442,0.49498475,-0.54365456,-0.67781222,0
-1.4381815,-0.38848734,-0.6375488,-0.78716666,-0.60112041,-0.13792276,0
0.49931329,-0.19131821,1.1932814,0.33262074,-0.60210407,0.72583342,0
1.750075,-0.57920563,0.080902576,0.92425978,0.055214465,-0.37774956,0
0.34819353,0.86451638,1.0515788,0.11732244,0.7900973,0.60164887,0
0.40623575,-1.1277132,0.31159911,0.33262074,-0.60210407,0.72583342,0
-0.68116027,1.1423898,-0.094268441,-0.33262074,0.60210407,-0.72583342,0
1.5493174,0.28548884,0.78892267,0.78426951,0.60403007,0.14166403,0
-0.89029348,0.99050629,-0.29374641,-0.33262074,0.60210407,-0.72583342,0
-0.83752435,1.3243034,-0.029108763,-0.33262074,0.60210407,-0.72583342,0
-0.25330564,-0.96862239,0.93665636,0.33262074,-0.60210407,0.72583342,0
-0.60738641,1.1915402,0.090664342,-0.33262074,0.60210407,-0.72583342,0
-0.56875217,0.385387,-0.76791334,-0.33262074,0.60210407,-0.72583342,0
-0.23534602,-0.58253866,0.80528635,0.33262074,-0.60210407,0.72583342,0
0.55956912,-0.41781005,-1.5455363,0.58613503,-0.47095585,-0.65927672,0
0.65570712,-1.5185927,-0.41954428,0.33262074,-0.60210407,0.72583342,0
0.3152675,0.12984335,1.1122566,0.33262074,-0.60210407,0.72583342,0
-0.76590723,0.2522952,-0.98640025,-0.33262074,0.60210407,-0.72583342,0
1.7736485,0.17581594,0.66074812,0.85239041,0.52123511,0.04176569,0
0.50988555,0.72499233,1.7902521,0.082855344,0.78533876,0.61349636,0
0.40745258,-1.3060961,-0.75265908,0.15191364,-0.72539687,-0.67135781,0
0.35465315,-0.52459985,0.88697422,0.33262074,-0.60210407,0.72583342,0
1.1580118,-0.46859545,0.21420193,0.33262074,-0.60210407,0.72583342,0
-0.30795014,-1.6041925,-0.15167737,-0.38900894,-0.78872567,-0.47600776,0
1.0171504,0.88224018,0.83062375,0.52541333,0.75745535,0.38755918,0
0.69359916,-0.68320006,0.42154449,0.33262074,-0.60210407,0.72583342,0
-0.19172227,-0.1254634,1.3034859,0.33262074,-0.60210407,0.72583342,0
0.324669,1.4703537,0.41456753,0.20756644,0.79752433,0.56645453,0
-1.0148556,0.20725033,1.2283866,-0.76462507,0.27832475,0.58127749,0
0.36731195,-0.19404757,1.0087703,0.33262074,-0.60210407,0.72583342,0
-0.07765162,1.3742557,-0.024799347,-0.33262074,0.60210407,-0.72583342,0
-0.7092489,0.26471996,-0.66048688,-0.33262074,0.60210407,-0.72583342,0
-1.1770002,-0.30337393,-1.1349614,-0.33262074,0.60210407,-0.72583342,0
1.3341554,-0.70280546,0.062751055,0.33262074,-0.60210407,0.72583342,0
-0.98041332,-0.65543056,1.4517813,0.33262074,-0.60210407,0.72583342,0
-1.1878549,-0.77282155,-0.34593689,-0.74500155,-0.63966322,-0.18921793,0
-0.91240954,0.60339642,1.0770596,-0.59920132,0.45939738,0.65567636,0
-0.35709825,0.6601392,-0.59676152,-0.33262074,0.60210407,-0.72583342,0
-0.10457851,-0.95313197,0.6233508,0.33262074,-0.60210407,0.72583342,0
0.4061496,1.523033,-0.37696564,-0.33262074,0.60210407,-0.72583342,0
0.95924675,-0.51850039,0.31866747,0.33262074,-0.60210407,0.72583342,0
0.77960646,0.20454201,-1.4260064,0.72967553,-0.32327551,-0.60254979,0
0.67605066,-0.4504911,-1.5017354,0.62256199,-0.43792281,-0.64856768,0
0.6465345,0.77399731,0.85060328,0.38336736,0.78952205,0.47925365,0
-1.4359839,0.28438127,-0.73979294,-0.33262074,0.60210407,-0.72583342,0
-0.66500795,-0.35281196,1.2304146,0.33262074,-0.60210407,0.72583342,0
-0.58915317,0.22768611,-0.81024647,-0.33262074,0.60210407,-0.72583342,0
0.30124831,0.29626441,-1.4200037,-0.33262074,0.60210407,-0.72583342,0
-0.62751853,1.2484248,0.93897104,-0.25954437,0.68148923,0.68425786,0
0.36998272,-1.2914033,-0.99021631,0.11665952,-0.73747551,-0.66522187,0
1.4642789,-0.44505572,-0.20102477,0.84834874,-0.14513233,-0.50915706,0
0.84967721,1.305328,0.25388873,0.62372172,0.71773535,0.30955923,0
0.52114761,0.37716258,1.2180736,0.33262074,-0.60210407,0.72583342,0
-0.26253045,-1.4895718,-0.64027208,-0.18348908,-0.79626745,-0.57644558,0
0.023184866,0.78303766,-0.57545114,-0.33262074,0.60210407,-0.72583342,0
-1.2541456,-0.60483468,-0.29909694,-0.8260842,-0.55729157,-0.083730936,0
0.98541725,0.078643382,-1.2925127,0.82665986,-0.18426204,-0.53167731,0
-1.4565312,-0.69172645,-0.67436504,-0.71336007,-0.66405141,-0.2239489,0
1.248468,0.40742373,-0.30257154,0.94197756,0.24899369,-0.22512233,0
0.63055331,-0.83027089,0.57602704,0.33262074,-0.60210407,0.72583342,0
0.36111569,-0.1781655,-1.6168035,-0.33262074,0.60210407,-0.72583342,0
-1.1065637,0.80216485,-0.46829772,-0.33262074,0.60210407,-0.72583342,0
1.3206518,-1.1767769,-0.045260429,0.33262074,-0.60210407,0.72583342,0
0.74066424,0.65780467,-1.2035254,-0.33262074,0.60210407,-0.72583342,0
1.6954489,-0.20699489,0.00061571598,0.9424721,0.23941442,-0.2332952,0
-0.11476672,1.082074,0.98173165,-0.034456372,0.76138419,0.64738452,0
-0.0023561716,-1.2197115,-0.79049242,-0.1155268,-0.78987533,-0.60228753,0
-0.87815797,1.0522063,0.034651518,-0.33262074,0.60210407,-0.72583342,0
-0.4012754,1.7499094,0.34595376,-0.0016263723,0.76928973,0.63889778,0
-0.9921515,-1.2682525,-0.29681659,-0.62525034,-0.71697718,-0.3082298,0
-1.3013353,0.80279672,0.81972891,-0.67632717,0.38407946,0.62854123,0
-0.16811055,-1.625303,0.23416579,0.33262074,-0.60210407,0.72583342,0
-1.5433463,-0.012580276,-0.55883813,-0.90068555,-0.43094188,0.055267572,0
-0.51145011,1.4496191,-0.20619288,-0.33262074,0.60210407,-0.72583342,0
0.1299665,-1.57341,-0.06184876,0.33262074,-0.60210407,0.72583342,0
0.86159599,-0.80776048,-0.82669801,0.5763489,-0.47941086,-0.66180575,0
1.4956994,0.12517357,0.88304663,0.33262074,-0.60210407,0.72583342,0
-1.1336849,-0.37148517,-0.96490026,-0.33262074,0.60210407,-0.72583342,0
-0.78448021,-0.8189069,-1.0898845,-0.36035269,-0.79239959,-0.49218738,0
-0.46048605,-0.5897637,1.3725452,0.33262074,-0.60210407,0.72583342,0
0.10984707,-0.71370459,-1.5226556,0.068064809,-0.75232267,-0.65526897,0
-0.97354138,-0.37990364,1.1920029,-0.91139716,-0.0074713826,0.41145951,0
0.52851933,-0.64761412,0.6696862,0.33262074,-0.60210407,0.72583342,0
0.39552784,1.3173211,0.49398243,0.26768529,0.79827976,0.53953105,0
0.68410903,-0.81088328,0.30505791,0.33262074,-0.60210407,0.72583342,0
-1.234426,-0.43334886,0.090994835,-0.91977733,-0.37708867,0.10868967,0
0.97154641,0.76672912,0.74418569,0.60355723,0.72729897,0.32673323,0
-0.30203009,1.2458698,0.06124422,-0.33262074,0.60210407,-0.72583342,0
-0.12573457,-0.054783225,-1.1967922,-0.33262074,0.60210407,-0.72583342,0
1.1677798,0.49808651,0.74297667,0.64628714,0.7060402,0.28951687,0
0.83280849,-0.16162358,-1.414922,0.64364046,-0.41759115,-0.64136136,0
-0.33302253,-0.69511414,1.1095742,0.33262074,-0.60210407,0.72583342,0
1.2266366,0.96742499,0.71686995,0.72846627,0.65283179,0.20771921,0
0.29199326,0.23129928,1.2475116,0.33262074,-0.60210407,0.72583342,0
0.059043407,1.0183448,1.4898906,-0.052750707,0.75657344,0.65177739,0
0.3567673,-0.27869302,-1.5032375,-0.33262074,0.60210407,-0.72583342,0
-0.77501023,1.164021,-0.22717094,-0.33262074,0.60210407,-0.72583342,0
0.96966588,1.3884584,-0.58780658,0.85114038,0.52310026,0.043885708,0
0.080251575,-1.3995717,-0.85131645,0.092905879,-0.74499202,-0.66057175,0
-1.4892679,-0.14352906,-0.86718667,-0.33262074,0.60210407,-0.72583342,0
1.4755137,0.72090721,-0.11911726,0.91241223,0.40008301,-0.086239815,0
-0.15680927,-0.59987152,1.0888844,0.33262074,-0.60210407,0.72583342,0
-0.23233891,-0.1721164,-1.5053502,-0.33262074,0.60210407,-0.72583342,0
-1.2372656,-0.12385496,0.80541188,-0.93098968,-0.086897105,0.35455161,0
-0.18636803,-1.2903442,0.45170122,0.33262074,-0.60210407,0.72583342,0
-0.45834649,-0.65609574,-1.6127584,-0.058690071,-0.78138149,-0.62128758,0
0.96186441,1.0593721,-0.37119675,0.87834704,0.47798544,-0.0060063601,0
-0.73893225,0.14031351,1.2702715,-0.75577503,0.29015705,0.58703721,0
1.2397672,0.46625626,1.2199701,0.53981674,0.75265342,0.3769753,0
1.3853498,0.10058147,-0.64317763,0.93072701,0.085518122,-0.35557514,0
-0.3133136,-0.14052981,-1.498904,-0.33262074,0.60210407,-0.72583342,0
0.7190634,-1.4117178,-0.62216252,0.2618283,-0.68043876,-0.6844331,0
0.78820467,0.89707327,1.2175877,0.45515108,0.77657735,0.43562001,0
0.65017045,1.5662386,-0.23452544,0.72030705,0.65898317,0.21656096,0
-1.7238482,0.95221269,0.019313574,-0.33262074,0.60210407,-0.72583342,0
-1.2610426,-0.46354443,-0.9158864,-0.33262074,0.60210407,-0.72583342,0
0.090081938,0.92430055,-0.38795143,-0.33262074,0.60210407,-0.72583342,0
0.88573587,1.1624591,-0.62698442,-0.33262074,0.60210407,-0.72583342,0
-0.48343861,1.1388421,-0.46913514,-0.33262074,0.60210407,-0.72583342,0
1.3867898,-0.4249858,-0.68177044,0.80915844,-0.21310571,-0.547584,0
-0.1175034,0.19396776,-1.4248823,-0.33262074,0.60210407,-0.72583342,0
0.44705194,1.7543848,-0.14567864,-0.33262074,0.60210407,-0.72583342,0
0.11807972,-0.80856466,0.81785333,0.33262074,-0.60210407,0.72583342,0
0.34375072,0.27797547,-1.1138884,-0.33262074,0.60210407,-0.72583342,0
-0.28884447,1.1447792,-0.47296464,-0.33262074,0.60210407,-0.72583342,0
-0.51724172,-1.3721108,-0.50395066,-0.29927713,-0.7972663,-0.52421314,0
0.90198195,0.6469605,-1.4355468,-0.33262074,0.60210407,-0.72583342,0
0.66706455,-1.6903672,-0.35857958,0.20239711,-0.70614564,-0.67852283,0
-1.2957292,0.98299795,0.26901799,-0.76166773,0.28231508,0.5832324,0
-0.19663763,0.87395257,1.3644243,-0.31089425,0.65662265,0.68716174,0
1.1218588,1.2989901,-0.18718445,0.80890715,0.57781422,0.10862672,0
1.3316587,0.34889147,-1.2705158,0.8926155,-0.047345847,-0.44832551,0
-0.80557406,1.3704952,0.3005988,-0.35587084,0.63261747,0.68785954,0
1.3231069,0.80776668,0.68685484,0.79268003,0.59546202,0.13070226,0
1.5283167,-0.5196507,0.12021172,0.33262074,-0.60210407,0.72583342,0
0.095265269,1.8790686,0.18634659,0.28772813,0.79775238,0.52990878,0
-0.54646659,-0.42681056,1.250374,0.33262074,-0.60210407,0.72583342,0
0.67086446,0.93370306,1.1263905,0.32412809,0.79575896,0.51157451,0
-0.42730606,-1.1237365,-0.74313557,-0.4206574,-0.78357339,-0.45723069,0
0.27988088,-1.7139513,-0.41248327,0.022509813,-0.76436901,-0.64438581,0
1.0180459,-1.3269861,-0.5601337,0.50658202,-0.53511143,-0.67603993,0
-1.2799349,-0.70950955,0.66808474,-0.92659688,-0.35184336,0.13275659,0
-1.0851481,-0.73020941,0.80098051,-0.9411391,-0.26103702,0.21474767,0
-0.70066941,-0.61569834,1.1704102,0.33262074,-0.60210407,0.72583342,0
-0.58396888,-0.34318817,-1.4274446,-0.33262074,0.60210407,-0.72583342,0
-0.80209446,1.2000256,0.70945102,-0.30028677,0.66197658,0.68674207,0
1.6123724,-0.98371905,-0.10044968,0.33262074,-0.60210407,0.72583342,0
-0.88330197,1.4748957,0.0769144,-0.33262074,0.60210407,-0.72583342,0
0.24959707,-0.81788564,-0.99868089,0.26163518,-0.68052781,-0.68441844,0
0.58221745,-1.053105,0.34893817,0.33262074,-0.60210407,0.72583342,0
-0.91917038,-1.226944,0.35990739,-0.79692549,-0.59099257,-0.12504923,0
-0.18769407,0.52117163,1.7914588,-0.33363557,0.64475232,0.68773639,0
0.97742677,-1.4316841,-0.52737969,0.33262074,-0.60210407,0.72583342,0
-0.011413217,-1.0986949,0.6371733,0.33262074,-0.60210407,0.72583342,0
-0.35972738,0.38945037,1.7608209,0.33262074,-0.60210407,0.72583342,0
0.53980184,0.99576139,1.0203018,0.38460565,0.78935039,0.47854382,0
1.3056045,-0.85965651,-0.076670408,0.33262074,-0.60210407,0.72583342,0
0.90139353,-0.72514486,-1.0761259,0.52918184,-0.51790082,-0.6721198,0
-0.16732073,-0.23548827,1.2570603,0.33262074,-0.60210407,0.72583342,0
0.77354002,0.41180214,-1.2716061,-0.33262074,0.60210407,-0.72583342,0
1.3055855,-0.32826185,0.70288134,0.33262074,-0.60210407,0.72583342,0
-0.31520754,0.94850314,-0.27659467,-0.33262074,0.60210407,-0.72583342,0
0.1500349,-0.87576091,-1.4267101,0.25895679,-0.6817587,-0.68421209,0
0.42761403,0.44057944,-0.96390003,-0.33262074,0.60210407,-0.72583342,0
-0.10060322,-0.11730427,-1.6748867,-0.33262074,0.60210407,-0.72583342,0
-0.55648023,0.069058299,-0.83890682,-0.33262074,0.60210407,-0.72583342,0
-0.46442628,1.2445612,0.99031335,-0.30048466,0.66187775,0.68675071,0
1.5845199,0.12424088,0.10959888,0.94217628,0.24548557,-0.22812343,0
1.4908149,-0.35152531,0.67551208,0.33262074,-0.60210407,0.72583342,0
-0.027530193,1.1968771,1.2732552,-0.047267795,0.75804573,0.65048617,0
1.2572854,0.7792958,0.92643285,0.64579278,0.70630825,0.28996581,0
0.33863986,-0.18088531,0.9260965,0.33262074,-0.60210407,0.72583342,0
0.17117178,-0.2986542,-1.5321981,-0.33262074,0.60210407,-0.72583342,0
-0.56083167,0.90218872,0.928774,-0.27924597,0.67225957,0.68562996,0
0.62673241,-1.1099255,-0.10454088,0.33262074,-0.60210407,0.72583342,0
0.97148299,-0.44947991,-1.1223692,0.68647665,-0.37313622,-0.62411457,0
0.85210085,-1.3515575,-0.10700035,0.33262074,-0.60210407,0.72583342,0
-1.2516201,0.97318143,-0.064831614,-0.33262074,0.60210407,-0.72583342,0
1.215014,0.66385925,-0.2379806,0.90621674,0.41709739,-0.069286704,0
-1.333794,-0.58981442,0.13668835,-0.91129851,-0.40327713,0.083079815,0
0.41054261,0.37668234,1.2285035,0.33262074,-0.60210407,0.72583342,0
0.16357028,0.041283131,1.1242481,0.33262074,-0.60210407,0.72583342,0
-0.35793042,1.2816851,0.7201367,-0.23075306,0.6942991,0.68169022,0
-1.3030941,-0.85529613,0.79618633,-0.93611181,-0.30405939,0.17675531,0
-1.2762873,-0.39738452,0.52958214,-0.93628573,-0.11874974,0.3305558,0
0.67951,-1.1931825,-0.75004208,0.26226997,-0.68023509,-0.68446648,0
-0.12042737,-1.1204389,-1.1967938,0.039612293,-0.76005769,-0.64864689,0
1.1559159,-0.74021679,0.4852978,0.33262074,-0.60210407,0.72583342,0
-0.68792254,-1.7190092,-0.061030507,-0.58010983,-0.73744696,-0.34589624,0
-0.37570465,-0.30061448,-1.2121606,-0.33262074,0.60210407,-0.72583342,0
-1.2633951,-0.96632546,-0.23891854,-0.72767216,-0.65344012,-0.20858777,0
-0.60084844,-0.32160407,-1.3494718,-0.33262074,0.60210407,-0.72583342,0
1.5085458,0.62905324,0.17204618,0.9149605,0.3925181,-0.093682885,0
-0.27571446,-1.4086237,0.43736517,0.33262074,-0.60210407,0.72583342,0
0.32305005,-0.41699827,1.0065814,0.33262074,-0.60210407,0.72583342,0
1.2435875,-0.64420813,-0.60205257,0.73465717,-0.31714565,-0.59974766,0
-0.54324448,-1.233559,0.69883138,0.33262074,-0.60210407,0.72583342,0
0.73676574,0.5953458,-0.97799146,-0.33262074,0.60210407,-0.72583342,0
-1.595396,-0.21770632,-0.75310838,-0.82823938,-0.55456483,-0.080481291,0
-0.36601615,-0.13171732,1.3328896,0.33262074,-0.60210407,0.72583342,0
-1.2642534,0.80355489,-0.24903309,-0.33262074,0.60210407,-0.72583342,0
-0.385234,1.1080105,1.1288812,-0.14835811,0.72666538,0.67078078,0
1.4833667,0.64881915,0.27775204,0.86214983,0.50605088,0.024697423,0
1.0742865,-0.97265822,0.15295649,0.33262074,-0.60210407,0.72583342,0
-1.1184864,-0.71444392,-0.63376153,-0.60837674,-0.72508585,-0.3226887,0
-0.16773617,0.10963899,1.3055468,0.33262074,-0.60210407,0.72583342,0
-1.4755285,0.38340104,-0.16089284,-0.33262074,0.60210407,-0.72583342,0
-1.1278874,0.79261744,0.4619841,-0.6564272,0.4047825,0.63659579,0
0.32983565,1.1397743,-0.4965626,-0.33262074,0.60210407,-0.72583342,0
-1.2936804,0.2606433,0.68962574,-0.86985248,0.10144228,0.48276889,0
0.61098957,1.415809,0.5055939,0.51049793,0.76209736,0.3982451,0
-0.69297397,-1.0133512,-0.50043619,-0.5194754,-0.75934291,-0.391846,0
-0.81970692,0.83972913,0.79844356,-0.46857226,0.56241453,0.68127048,0
0.20783269,0.91759378,1.2832662,0.081479907,0.78512728,0.61395121,0
0.051525176,-0.37009627,1.0713767,0.33262074,-0.60210407,0.72583342,0
0.0074958801,-0.39675397,1.2689834,0.33262074,-0.60210407,0.72583342,0
0.43430626,-1.3899776,-0.19750869,0.33262074,-0.60210407,0.72583342,0
-0.44083768,0.03008455,-1.1884465,-0.33262074,0.60210407,-0.72583342,0
-0.70666969,-1.4872125,-0.097867489,-0.53050148,-0.75579536,-0.38385051,0
0.24366593,-1.5197816,-0.055842906,0.33262074,-0.60210407,0.72583342,0
-0.84658569,-0.23146808,-1.1954482,-0.33262074,0.60210407,-0.72583342,0
0.33318067,0.64965022,-0.95041603,-0.33262074,0.60210407,-0.72583342,0
0.70382953,-0.99841529,-0.86252499,0.44400036,-0.57903624,-0.68379843,0
-1.4589446,0.73381984,0.045197248,-0.33262074,0.60210407,-0.72583342,0
-1.3451664,-0.68679732,0.47289991,-0.94303274,-0.20644787,0.26089901,0
-0.69010091,0.62492508,-0.63546884,-0.33262074,0.60210407,-0.72583342,0
0.67885715,1.4201833,0.45217907,0.53864467,0.75305623,0.37784654,0
0.66894221,0.28147206,-1.2567736,-0.33262074,0.60210407,-0.72583342,0
0.57447922,0.32992396,-1.4749135,-0.33262074,0.60210407,-0.72583342,0
0.30998051,1.1976445,1.0312119,0.12287152,0.79076546,0.59966016,0
1.2488997,0.51104158,1.1334308,0.33262074,-0.60210407,0.72583342,0
0.98308492,-1.3198425,-0.35949135,0.46883774,-0.56223077,-0.68123966,0
-1.2147725,0.2281487,-0.47031617,-0.33262074,0.60210407,-0.72583342,0
0.8672176,0.67326921,-1.3156813,-0.33262074,0.60210407,-0.72583342,0
1.5999286,0.11307651,-0.2144165,0.94293588,0.19982663,-0.26634717,0
-0.73596621,-0.37601963,1.1631433,0.33262074,-0.60210407,0.72583342,0
0.48197743,-0.45269245,0.59646684,0.33262074,-0.60210407,0.72583342,0
-1.5447898,-0.46597189,0.16999483,-0.92135566,-0.37165192,0.11392283,0
-0.24095261,1.4377894,0.6017977,-0.074097872,0.75059187,0.65659815,0
-0.52378619,0.72468883,1.3956568,-0.32108474,0.65137011,0.68747449,0
1.5413171,0.29632139,0.079525948,0.92854404,0.34361812,-0.14047194,0
-0.59584576,-0.90036488,0.82064945,0.33262074,-0.60210407,0.72583342,0
-1.2731948,0.70453328,0.88598692,-0.6977303,0.36067817,0.61893725,0
0.5093255,-0.929223,-1.3041966,0.35312343,-0.63414562,-0.68786824,0
-1.146663,-0.42446119,0.99040782,-0.89925623,0.029345155,0.43643641,0
0.71995282,-0.62287772,0.48639414,0.33262074,-0.60210407,0.72583342,0
-0.69933265,-0.57745343,1.0423484,0.33262074,-0.60210407,0.72583342,0
-0.96215796,-1.3517435,0.73441863,0.33262074,-0.60210407,0.72583342,0
1.5704829,-1.0703515,-0.022295117,0.33262074,-0.60210407,0.72583342,0
1.1898859,0.56416404,0.71212733,0.77435702,0.613671,0.15420413,0
-1.4948683,-0.072368622,-0.36426318,-0.91858929,-0.3810479,0.1048609,0
-1.0181003,-1.1100372,1.0756413,-0.92732936,-0.34881365,0.13560557,0
0.11373377,-1.9236114,-0.020387292,0.33262074,-0.60210407,0.72583342,0
-0.7588526,-0.49090892,-1.7027996,-0.33262074,0.60210407,-0.72583342,0
1.3453525,-0.96514243,-0.061892271,0.33262074,-0.60210407,0.72583342,0
0.28851056,-1.8289564,-0.3608667,0.33262074,-0.60210407,0.72583342,0
-1.2283471,-0.95924312,0.059190392,-0.87630737,-0.48174822,0.0019501448,0
-0.012128472,0.040174484,1.3552055,0.33262074,-0.60210407,0.72583342,0
0.50195658,0.65105712,1.3097628,0.11617923,0.78995633,0.60205579,0
-0.13140064,-1.6396028,0.32381207,0.33262074,-0.60210407,0.72583342,0
0.53721094,0.33737981,-1.1779729,-0.33262074,0.60210407,-0.72583342,0
-0.031808257,-1.4066465,0.096949011,0.33262074,-0.60210407,0.72583342,0
1.0761604,-0.7682333,-0.57235396,0.67567915,-0.38476914,-0.62881637,0
0.81935668,-0.83527899,0.48910031,0.33262074,-0.60210407,0.72583342,0
0.60643172,-1.4118294,-0.17396517,0.33262074,-0.60210407,0.72583342,0
0.6660831,-1.2357919,-1.0155588,0.39054656,-0.61261106,-0.68715411,0
0.52432376,0.86595488,-0.98726153,-0.33262074,0.60210407,-0.72583342,0
-1.070516,0.43662161,0.98326868,-0.70224994,0.35557473,0.61677492,0
0.76614082,-0.91327703,-1.1749723,0.41608465,-0.59699798,-0.68590558,0
0.41977584,-1.2024364,-0.81626081,0.11596966,-0.73770082,-0.66509265,0
1.7321491,-0.40095115,0.010917902,0.93132949,0.088703156,-0.3532092,0
1.1985364,-0.81625187,-0.10617381,0.33262074,-0.60210407,0.72583342,0
0.13271511,-1.2747245,0.25991994,0.33262074,-0.60210407,0.72583342,0
0.028084397,-0.11846268,-1.6042804,-0.33262074,0.60210407,-0.72583342,0
1.4838428,0.22872674,0.37021196,0.90213609,0.42741817,-0.058855176,0
-0.41181195,1.1185906,0.65090179,-0.19066918,0.71082628,0.67703104,0
0.37804461,-1.6604267,-0.28603315,0.33262074,-0.60210407,0.72583342,0
-0.37854707,0.26415062,-0.80056369,-0.33262074,0.60210407,-0.72583342,0
-1.5684993,0.28958166,-0.32707322,-0.33262074,0.60210407,-0.72583342,0
-0.35319734,0.18321735,-1.3036613,-0.33262074,0.60210407,-0.72583342,0
1.1264722,-0.36963043,-1.1547537,0.66607797,-0.39486301,-0.63278979,0
0.59794331,0.60218394,1.353636,0.14711428,0.7933628,0.59070528,0
-1.3995727,-0.91860086,-0.1830827,-0.82750821,-0.55549395,-0.081587076,0
-1.5700839,1.0225213,-0.044943452,-0.33262074,0.60210407,-0.72583342,0
0.7024796,0.05913344,-1.5004766,-0.33262074,0.60210407,-0.72583342,0
0.32673365,1.5835238,-0.10904294,0.4771331,0.77132541,0.42118984,0
-0.05802238,-1.2507205,-1.0259911,0.028403759,-0.7629118,-0.64587802,0
0.87885416,-0.42007369,-1.4658068,0.63497376,-0.4260653,-0.64441931,0
0.12173915,-1.4839469,0.0052903295,0.33262074,-0.60210407,0.72583342,0
-0.96278113,-1.0002413,-0.98968935,-0.48526856,-0.76921809,-0.41571367,0
-1.5446644,0.010134935,-0.43913019,-0.33262074,0.60210407,-0.72583342,0
-1.3876278,0.64319766,0.17660987,-0.77513856,0.26382703,0.57406902,0
-0.16510975,1.3443636,0.48313928,-0.0019875765,0.76920784,0.63899535,0
1.1042039,0.57897371,-0.97448999,0.9268347,0.066552639,-0.369524,0
0.22232825,1.2202122,-0.58589566,-0.33262074,0.60210407,-0.72583342,0
0.43618155,-0.7042563,-1.4583378,0.47066116,-0.56096518,-0.68102545,0
1.2063317,0.56411368,0.459916,0.76506621,0.62229103,0.16561222,0
-0.49659908,-0.59883952,-1.5317715,-0.33262074,0.60210407,-0.72583342,0
1.5081874,-0.59608132,0.058104753,0.88448375,-0.067852795,-0.46161026,0
0.44217801,-1.3972312,-0.46714285,0.30302179,-0.66060698,-0.68685931,0
-1.467252,0.49462163,-0.56405663,-0.33262074,0.60210407,-0.72583342,0
0.58815998,0.041793585,1.411122,0.33262074,-0.60210407,0.72583342,0
-1.1802922,-0.57048845,-0.051859736,-0.90094769,-0.4303101,0.05591166,0
-1.0855012,-0.60963237,0.83900923,-0.94206834,-0.17684376,0.28501469,0
1.5814807,-0.00014060736,-0.17407286,0.93385351,0.10300532,-0.3425017,0
0.4845528,-0.13981175,1.1677706,0.33262074,-0.60210407,0.72583342,0
-0.53734255,0.72373068,-0.35802397,-0.33262074,0.60210407,-0.72583342,0
0.46871054,0.35001349,-1.1612958,-0.33262074,0.60210407,-0.72583342,0
1.1727946,0.70271134,-0.15940785,0.8887226,0.45760959,-0.027663589,0
0.65671158,-1.2046056,-0.66871297,0.45795143,-0.56969488,-0.68244261,0
0.0284127,-0.21451896,1.4186494,0.33262074,-0.60210407,0.72583342,0
0.17877406,0.72562182,-0.91885149,-0.33262074,0.60210407,-0.72583342,0
-0.35216287,-0.79888344,0.83934146,0.33262074,-0.60210407,0.72583342,0
0.30049479,1.5661397,0.40315038,0.30679107,0.79687744,0.52044702,0
0.52741814,0.14337844,-1.2601153,-0.33262074,0.60210407,-0.72583342,0
0.61098111,-0.14809355,-1.6897135,-0.33262074,0.60210407,-0.72583342,0
-0.94500244,-0.22549734,1.5524884,0.33262074,-0.60210407,0.72583342,0
-0.12505305,1.8287883,0.099728405,0.10346282,0.78830957,0.60651708,0
0.8000828,0.73276383,1.5903497,0.33262074,-0.60210407,0.72583342,0
0.74617279,1.5987504,-0.12192142,-0.33262074,0.60210407,-0.72583342,0
0.70151305,0.1599997,-1.3344796,-0.33262074,0.60210407,-0.72583342,0
-0.77573687,-1.4478829,0.78887153,0.33262074,-0.60210407,0.72583342,0
-0.65218097,0.2193442,-1.0848215,-0.33262074,0.60210407,-0.72583342,0
-1.4164932,-0.35544789,-0.26559627,-0.91375148,-0.39615339,0.090113282,0
0.035601854,0.54750073,-0.98100662,-0.33262074,0.60210407,-0.72583342,0
-0.63356364,0.55685818,-0.60392702,-0.33262074,0.60210407,-0.72583342,0
-0.29031479,-0.3408936,1.4306221,0.33262074,-0.60210407,0.72583342,0
1.2237571,-0.31232029,0.47963524,0.33262074,-0.60210407,0.72583342,0
1.609519,-0.43804258,-0.40532243,0.88501161,-0.066566765,-0.46078527,0
-0.32551062,-0.9694128,0.45660427,0.33262074,-0.60210407,0.72583342,0
1.6328759,-0.036234021,0.2045114,0.94296825,0.20157236,-0.26491386,0
-1.4149584,-0.69892704,0.46284378,-0.93870997,-0.28522789,0.19356728,0
-1.0940218,0.18513134,1.3935028,-0.7044636,0.35305351,0.61569798,0
1.2689773,0.77305245,-0.69122493,0.93321824,0.32105368,-0.16133201,0
0.43038583,0.086938173,-1.5667527,-0.33262074,0.60210407,-0.72583342,0
-0.12179041,1.5187402,0.50607109,0.18011117,0.79604852,0.57781184,0
1.2719246,-0.012367845,0.98603356,0.33262074,-0.60210407,0.72583342,0
-1.0134842,-0.60509193,-1.2527311,-0.57273698,-0.74043375,-0.3517527,0
-1.0117886,0.88772047,0.010070622,-0.33262074,0.60210407,-0.72583342,0
-0.18729353,-0.73613179,-1.3861198,-0.13352025,-0.79197097,-0.59578025,0
-1.3809321,-0.91067064,-0.23144662,-0.75557709,-0.63070911,-0.17694378,0
-0.52689815,0.11081025,1.7249089,-0.54132295,0.50833571,0.66974902,0
-1.1780031,-1.2574444,0.29883814,-0.84459889,-0.53259182,-0.054757118,0
1.3473206,0.88758731,0.026026726,0.89854354,0.43601787,-0.050075054,0
-0.5743376,1.773916,0.42174867,-0.33262074,0.60210407,-0.72583342,0
1.3754851,0.15362024,0.66863656,0.33262074,-0.60210407,0.72583342,0
-0.85119224,1.0756906,0.088167638,-0.33262074,0.60210407,-0.72583342,0
-0.66103685,-1.546962,0.47891545,0.33262074,-0.60210407,0.72583342,0
-0.15714419,1.6326294,0.55507612,-0.01171267,0.7669602,0.64158744,0
-0.43179536,-0.55274636,-1.5151758,-0.19403815,-0.79688406,-0.57212293,0
-1.3382899,-0.14824964,1.0796486,-0.89398372,0.04373768,0.44595939,0
-0.18885855,-1.2126578,0.35720202,0.33262074,-0.60210407,0.72583342,0
-1.5143652,-0.1325261,0.10262513,-0.93866968,-0.2855593,0.1932739,0
0.61471987,0.92577273,1.4049932,0.21878177,0.79792583,0.56164807,0
-1.5038903,-0.25276744,-0.69302559,-0.33262074,0.60210407,-0.72583342,0
-1.2018455,0.6132592,-0.084271431,-0.33262074,0.60210407,-0.72583342,0
0.70310891,0.29312378,-1.5996842,-0.33262074,0.60210407,-0.72583342,0
-1.7057884,0.36100262,-0.15435541,-0.33262074,0.60210407,-0.72583342,0
0.85495174,0.63925141,1.1141102,0.55769992,0.7462368,0.36345744,0
-0.56514502,-1.4014566,-0.74237376,-0.33249205,-0.79510742,-0.50720119,0
-0.59757555,-0.99300504,-1.2222037,-0.25379479,-0.79841334,-0.54600728,0
1.5953952,0.067614019,0.019022942,0.94143319,0.25719309,-0.2180711,0
0.070726871,-1.6423132,0.086185783,0.33262074,-0.60210407,0.72583342,0
0.23547119,-1.6859059,0.12598306,0.33262074,-0.60210407,0.72583342,0
-1.1131152,1.1800389,0.47648174,-0.57014525,0.48468366,0.66333699,0
-0.64246392,1.4423416,0.74618435,-0.22928047,0.694933,0.6815412,0
-0.95247757,-1.6519184,0.64877653,0.33262074,-0.60210407,0.72583342,0
-0.22992139,0.76515472,-0.44269037,-0.33262074,0.60210407,-0.72583342,0
0.67839944,1.1484624,1.1136963,0.33361924,0.79501396,0.50660717,0
-0.10539675,0.013873816,-1.0923935,-0.33262074,0.60210407,-0.72583342,0
0.35837591,0.37283623,1.3356924,0.33262074,-0.60210407,0.72583342,0
-0.24982256,0.82981658,-0.82988775,-0.33262074,0.60210407,-0.72583342,0
1.1368955,-0.39953983,-0.66576827,0.72335297,-0.33093423,-0.60600549,0
0.060690165,0.4058485,-1.2582433,-0.33262074,0.60210407,-0.72583342,0
-0.21071315,1.8184514,0.41182205,0.018747568,0.7737267,0.63324177,0
-0.99915791,1.3552481,0.4157255,-0.33262074,0.60210407,-0.72583342,0
-1.2576787,0.040227175,-0.71578312,-0.33262074,0.60210407,-0.72583342,0
1.5031087,-0.57254022,-0.0098820925,0.86312389,-0.11574338,-0.49154884,0
-0.4962061,-0.7711221,1.1100067,0.33262074,-0.60210407,0.72583342,0
1.4456294,0.038538277,-0.61383724,0.93083894,0.086104065,-0.35514039,0
0.41159141,0.88235211,1.0968063,0.24835485,0.79841471,0.54850143,0
-1.1774,0.53441805,-0.11970651,-0.33262074,0.60210407,-0.72583342,0
-0.54026437,0.027672827,-1.1041002,-0.33262074,0.60210407,-0.72583342,0
-1.6490073,0.92239243,0.21783793,-0.82551694,0.18621325,0.53277218,0
-0.36954921,-1.6054165,0.16751808,-0.53205997,-0.75527912,-0.38270813,0
1.2517393,-0.84913653,-0.65650034,0.76116806,-0.28298557,-0.58355963,0
-0.028653041,1.0085016,-0.44014695,-0.33262074,0.60210407,-0.72583342,0
-0.12278426,-0.54869384,0.92023802,0.33262074,-0.60210407,0.72583342,0
-0.1945436,0.41351372,1.6380372,0.33262074,-0.60210407,0.72583342,0
-0.76552486,-0.23676336,-0.97857112,-0.33262074,0.60210407,-0.72583342,0
1.0363922,-0.31479174,-0.78522938,0.78756511,-0.24601918,-0.56499147,0
0.15224123,1.0905193,0.8841362,0.1398536,0.79263997,0.59343284,0
0.67070603,-0.39613461,0.80937707,0.33262074,-0.60210407,0.72583342,0
1.3392243,-1.0436547,-0.12226331,0.33262074,-0.60210407,0.72583342,0
0.87999082,0.83606571,-0.85664105,-0.33262074,0.60210407,-0.72583342,0
0.71437085,-1.3022141,-0.15931654,0.33262074,-0.60210407,0.72583342,0
1.0272714,1.3801379,-0.6936084,0.82564628,0.55784118,0.084387422,0
-0.85416496,0.74729168,-0.13081259,-0.33262074,0.60210407,-0.72583342,0
-1.275582,-0.84306043,-0.47123754,-0.78279698,-0.60549271,-0.14355206,0
1.380941,-1.210708,-0.31194574,0.68683624,-0.37274337,-0.62395346,0
1.0975893,-0.88943022,0.39446223,0.33262074,-0.60210407,0.72583342,0
-0.65914708,-1.4524329,-0.4175607,-0.49102968,-0.76767087,-0.41178989,0
-0.16677773,0.75564325,1.2721307,-0.34431183,0.63899207,0.68785048,0
0.66916704,0.054422647,-1.7067873,-0.33262074,0.60210407,-0.72583342,0
1.1743828,0.41956666,-0.55688095,0.93994075,0.14910993,-0.307046,0
-0.20261407,-0.42067689,-1.6130311,-0.33262074,0.60210407,-0.72583342,0
1.1805573,-0.76494825,-0.95248997,0.62818044,-0.4325951,-0.64672291,0
-0.15709364,-0.69904327,1.1218661,0.33262074,-0.60210407,0.72583342,0
0.98127997,-0.45431465,0.61748791,0.33262074,-0.60210407,0.72583342,0
1.7185407,-0.0074937344,0.74800134,0.87680817,0.48083103,-0.0029405355,0
1.3131814,0.1440239,-0.46268165,0.92042446,0.039648741,-0.38890421,0
-0.23493826,-1.0747383,-1.1135809,-0.17326295,-0.79557228,-0.58055514,0
-0.17419863,-1.2119462,-0.63595229,-0.17075694,-0.79538739,-0.58155024,0
-1.1854986,-0.72321975,0.71969807,-0.94305146,-0.21573278,0.25320542,0
0.12334478,-0.013311923,1.5583416,0.33262074,-0.60210407,0.72583342,0
-0.2357192,1.7847277,0.006796062,-0.33262074,0.60210407,-0.72583342,0
-0.036010087,1.2360542,-0.51177567,-0.33262074,0.60210407,-0.72583342,0
-1.3158723,-0.55139834,-0.31961858,-0.83672297,-0.5434646,-0.067385674,0
-1.3026118,0.20268494,0.95239496,-0.8414706,0.15800469,0.5166831,0
0.61739409,-0.65979159,-1.4339833,0.52199602,-0.52345556,-0.67343462,0
1.5271209,0.66513157,0.42306089,0.83471364,0.54614842,0.07053268,0
1.033169,-1.106192,-0.24348211,0.33262074,-0.60210407,0.72583342,0
0.24885607,0.32233804,-1.2500073,-0.33262074,0.60210407,-0.72583342,0
-1.1728321,1.4573742,0.34402937,-0.33262074,0.60210407,-0.72583342,0
-1.3291042,-0.13726127,-0.70052838,-0.33262074,0.60210407,-0.72583342,0
-0.44952273,-1.0789154,-0.75417972,-0.44862086,-0.77801639,-0.43980628,0
-0.15240109,-1.5939695,-0.16011971,-0.21954918,-0.79794908,-0.5613156,0
0.95171714,0.39512354,-1.5265025,-0.33262074,0.60210407,-0.72583342,0
-0.60730082,-0.029144406,-1.2088592,-0.33262074,0.60210407,-0.72583342,0
0.29568815,0.68100536,1.7880187,-0.016462564,0.76583266,0.64282882,0
1.0449851,0.76314276,-0.55845547,0.92698848,0.3502329,-0.13427198,0
0.88304996,-0.36461356,-1.2222145,0.72773266,-0.32564324,-0.60362351,0
-0.86060452,-0.69443876,-1.4730492,-0.27807373,-0.79805619,-0.534585,0
0.6428026,1.0469745,-0.73817873,-0.33262074,0.60210407,-0.72583342,0
-0.7531516,1.0352912,-0.15600806,-0.33262074,0.60210407,-0.72583342,0
1.169201,-1.1912973,-0.28955048,0.33262074,-0.60210407,0.72583342,0
1.1336697,-0.82425231,0.17972165,0.33262074,-0.60210407,0.72583342,0
1.3376656,-0.68602121,-0.26936889,0.85857803,-0.12506133,-0.49719518,0
-0.82310212,-0.01710774,1.5107653,0.33262074,-0.60210407,0.72583342,0
0.30332482,0.98650807,1.0286686,0.19512635,0.79694188,0.57167208,0
1.8662918,0.014270782,0.23376894,0.93734837,0.29566109,-0.18428862,0
1.0321562,-0.85140365,-0.40595496,0.7349062,-0.31683692,-0.59960568,0
0.57100642,-0.54968059,0.61134017,0.33262074,-0.60210407,0.72583342,0
-0.85285676,0.19358844,-1.0653166,-0.33262074,0.60210407,-0.72583342,0
-0.96217155,0.73506552,-0.17050898,-0.33262074,0.60210407,-0.72583342,0
1.3371609,0.44605488,0.88599706,0.75891316,0.62779218,0.17299533,0
-1.4806548,0.93643165,0.47356486,-0.79399347,0.23649733,0.56003857,0
-0.87426066,-1.0399898,0.64441901,0.33262074,-0.60210407,0.72583342,0
0.37321967,1.8636055,0.07551837,0.46002877,0.77546674,0.43246341,0
-0.088094532,-0.69162226,0.91113609,0.33262074,-0.60210407,0.72583342,0
1.0161958,-1.3622202,-0.32556164,0.33262074,-0.60210407,0.72583342,0
0.5026769,1.0598081,-0.66135049,-0.33262074,0.60210407,-0.72583342,0
-0.67111081,0.28927261,-0.79533851,-0.33262074,0.60210407,-0.72583342,0
0.62543494,-0.56770515,0.76802891,0.33262074,-0.60210407,0.72583342,0
0.17832875,1.610406,0.20377505,0.32573354,0.79563957,0.51073974,0
-0.95788461,-0.78022122,-0.95238519,-0.49846801,-0.76560497,-0.40666765,0
1.1438301,1.2038853,-1.0141146,-0.33262074,0.60210407,-0.72583342,0
-0.70546174,1.1464195,-0.080297858,-0.33262074,0.60210407,-0.72583342,0
-0.96795064,-1.3562238,-0.019712925,-0.69746393,-0.67509556,-0.24039489,0
0.012485504,-1.2848463,-0.90211219,-0.00011324883,-0.76968265,-0.63842642,0
-0.41575205,1.0849645,-0.23534341,-0.33262074,0.60210407,-0.72583342,0
-0.25149024,1.648066,0.39196956,-0.12674117,0.7341345,0.66707045,0
-0.12490034,1.7503253,-0.093835562,-0.33262074,0.60210407,-0.72583342,0
-0.20110154,0.40910113,1.6418734,-0.35023224,0.63574499,0.68787014,0
1.4061334,0.34749407,0.27084506,0.89077884,0.45329565,-0.032184482,0
-0.54610342,0.66611195,-0.38240358,-0.33262074,0.60210407,-0.72583342,0
1.2806256,0.053410217,-1.0012829,0.8286854,-0.18077882,-0.52971613,0
-0.36329448,0.81326443,-0.45579821,-0.33262074,0.60210407,-0.72583342,0
1.2284279,0.0087128282,-0.86188954,0.89461476,-0.042056769,-0.4448542,0
-0.58671868,0.57206351,1.3132274,-0.43894899,0.58235782,0.68423891,0
1.3770237,0.088009357,0.9884131,0.33262074,-0.60210407,0.72583342,0
1.3825927,-0.76361763,0.046686769,0.33262074,-0.60210407,0.72583342,0
1.5640084,-0.3872844,-0.21868432,0.93158245,0.090062976,-0.35219705,0
-0.29734528,0.30945498,-0.7528888,-0.33262074,0.60210407,-0.72583342,0
-0.092781067,-1.4263791,-0.81949711,-0.046667457,-0.77922308,-0.62500662,0
1.3119887,-1.134567,-0.30458283,0.33262074,-0.60210407,0.72583342,0
0.61061239,0.43024042,-1.5369915,-0.33262074,0.60210407,-0.72583342,0
1.3973784,-1.1109174,-0.38790256,0.33262074,-0.60210407,0.72583342,0
0.98600841,1.010509,-0.29504812,0.80736047,0.57956457,0.11078751,0
0.6435737,1.3835061,0.17077351,0.60248572,0.72778499,0.32762736,0
1.2384696,0.39099598,1.2989933,0.33262074,-0.60210407,0.72583342,0
0.48696363,0.39368823,-1.5498393,-0.33262074,0.60210407,-0.72583342,0
1.1289142,1.1021442,-0.34533989,0.88129103,0.472422,-0.01197052,0
1.0029001,0.72340161,-1.0985899,-0.33262074,0.60210407,-0.72583342,0
-0.57499731,0.85224193,0.92532676,-0.45450425,0.57202619,0.68279684,0
1.3592262,-0.18354502,-0.73549277,0.81482863,-0.20399389,-0.54262376,0
-0.98919773,1.1795666,0.52999151,-0.56988585,0.48490268,0.6633997,0
-0.16394246,1.0539806,0.85813135,-0.088282466,0.74639732,0.65961874,0
0.1511308,-0.01329881,1.0786136,0.33262074,-0.60210407,0.72583342,0
0.34452486,0.28556597,1.2154584,0.33262074,-0.60210407,0.72583342,0
0.9631747,-0.82894635,0.36554557,0.33262074,-0.60210407,0.72583342,0
0.88524103,-0.34729838,0.54642993,0.33262074,-0.60210407,0.72583342,0
0.5552845,1.5720061,-0.13887894,0.62636673,0.71642023,0.30725628,0
-0.043298602,-1.3509715,-0.54805613,-0.24452525,-0.79839838,-0.55024284,0
-1.3399056,0.4804678,0.44989604,-0.83774126,0.16479534,0.52060717,0
1.1737854,0.56569821,0.9419893,0.60237372,0.72783571,0.32772082,0
0.38609195,-0.24181807,-1.9354365,-0.33262074,0.60210407,-0.72583342,0
0.24800396,0.18811619,1.4068166,0.33262074,-0.60210407,0.72583342,0
-1.0884798,0.27342454,1.2209271,-0.81499594,0.20372151,0.54247451,0
1.0519025,0.556687,-1.1493907,0.90342832,-0.017338276,-0.42838818,0
0.34438103,1.342186,-0.55431896,-0.33262074,0.60210407,-0.72583342,0
0.75852019,-1.0988094,0.20765793,0.33262074,-0.60210407,0.72583342,0
-1.0370831,-0.48527098,-1.1384059,-0.33262074,0.60210407,-0.72583342,0
-0.99166405,0.63793963,-0.12530172,-0.33262074,0.60210407,-0.72583342,0
0.27364266,-0.19355732,-1.6905777,-0.33262074,0.60210407,-0.72583342,0
-0.13814217,0.22690728,-0.93610853,-0.33262074,0.60210407,-0.72583342,0
-0.62386733,0.41383213,-0.6287148,-0.33262074,0.60210407,-0.72583342,0
1.2666231,1.0815872,-0.77743006,0.91656953,0.38754112,-0.098548889,0
0.088649035,-0.81516582,-1.0055262,0.075001836,-0.75032985,-0.65679491,0
-0.011069179,1.6275871,0.32133657,0.09371388,0.78695065,0.60985744,0
1.5023743,-0.70634049,0.32804847,0.33262074,-0.60210407,0.72583342,0
0.60826206,1.6113575,-0.051218867,0.61127657,0.72373259,0.32023728,0
-0.82476896,0.2132293,-1.0923141,-0.33262074,0.60210407,-0.72583342,0
-1.3980505,0.75320554,0.23064542,-0.83191055,0.17516512,0.5265373,0
0.91851246,-1.5412776,-0.30426574,0.47033978,-0.56118858,-0.68106353,0
0.037630796,1.4890686,-0.42168272,-0.33262074,0.60210407,-0.72583342,0
0.36243734,-0.23000091,0.78110278,0.33262074,-0.60210407,0.72583342,0
0.83696067,0.74902087,-0.87609231,-0.33262074,0.60210407,-0.72583342,0
-0.85093427,-0.82343119,-1.2582567,-0.45636493,-0.77630383,-0.43483686,0
1.469039,0.54270673,-0.58553171,0.94304818,0.20843491,-0.25925773,0
-1.3227929,0.1547215,0.18284178,-0.92411506,-0.054599971,0.3781929,0
