0.24950927,1.6641459,0.1585741,0.14936635,0.98614442,0.072171807,0
2.8348489,-0.38963044,0.51571298,0.71511364,-0.15814573,0.68088359,0
-3.013413,0.53969729,-0.58388412,-0.71511364,0.15814573,-0.68088359,0
1.1484864,1.091223,2.4554756,-0.30784982,0.80326444,0.50989687,0
-0.36622012,0.77607727,1.6815727,-0.47624362,0.60278273,0.64019144,0
0.23759662,1.5768105,-0.41962183,0.2582128,0.96494061,-0.047071695,0
-1.6901438,-1.0445291,-1.909695,-0.71511364,0.15814573,-0.68088359,0
0.24154095,1.6324862,-0.56081486,0.37742618,0.907233,-0.1856817,0
-1.088662,1.9608374,-0.54935956,-0.061947823,0.95590001,0.28708458,0
-0.1819452,0.40202355,-2.2199912,0.69604599,0.071523756,-0.71442586,0
-1.6145298,1.6808515,-1.3455046,-0.71511364,0.15814573,-0.68088359,0
-0.82763529,-1.3704946,-0.0033917427,-0.37863398,-0.90643048,0.18713665,0
0.68711686,0.22195208,-1.6577142,0.69572628,0.066750854,-0.71519876,0
-0.22386169,-0.17449045,2.4416203,-0.68047321,0.065324903,0.72985536,0
1.0925205,1.3831668,-0.17305565,0.46948349,0.83032984,-0.30022895,0
2.4323671,0.55720818,1.1962564,0.71511364,-0.15814573,0.68088359,0
-1.3202398,-1.7188665,-1.2423247,-0.11435929,-0.98741573,-0.10923398,0
0.052106112,1.9299897,-0.53958046,0.27414876,0.95948303,-0.065076351,0
0.50801373,1.1189238,-1.2172455,0.61473751,0.60594708,-0.50490177,0
0.68891323,-1.2446442,2.5056858,-0.61251593,-0.61110753,0.50136989,0
2.0774348,0.072465658,1.3412231,0.71511364,-0.15814573,0.68088359,0
1.6392444,-1.1533648,1.5963067,0.71511364,-0.15814573,0.68088359,0
-1.0418637,0.57051259,1.3490399,-0.59319699,0.37797728,0.71080983,0
2.6682973,0.67132962,0.40367103,0.65184367,0.50261152,-0.56787455,0
2.025511,1.4244413,1.1017513,0.3705093,0.91173577,-0.17737114,0
-1.389715,0.23997688,-1.9312658,-0.71511364,0.15814573,-0.68088359,0
-1.1075754,-1.3470809,-0.95278788,-0.16684377,-0.98453397,-0.053441525,0
-0.68930441,1.3307765,-2.3644507,0.62302428,0.58586472,-0.51826942,0
0.98752546,0.47321355,-1.5388393,0.69588017,0.25311333,-0.67207468,0
-0.71392906,0.81969553,1.2766407,-0.5399313,0.49366826,0.6817373,0
-2.2153428,0.2105636,0.26639664,-0.69887948,-0.14306653,0.7007848,0
2.3857489,1.1977404,1.2377813,0.71511364,-0.15814573,0.68088359,0
-2.6002636,1.5926857,-0.76565212,-0.71511364,0.15814573,-0.68088359,0
0.64643085,-0.77649921,-1.2488508,0.55335993,-0.46707237,-0.68966377,0
-0.64390695,0.8718605,-2.5017545,-0.71511364,0.15814573,-0.68088359,0
1.0930468,-1.3120047,2.1937745,0.71511364,-0.15814573,0.68088359,0
-2.8576803,-0.16342354,-0.95643008,-0.71511364,0.15814573,-0.68088359,0
2.2514939,-0.91350687,1.1637216,0.71511364,-0.15814573,0.68088359,0
2.2765536,-0.72086191,0.93934625,0.71511364,-0.15814573,0.68088359,0
0.61014056,0.11710477,2.8196466,0.71511364,-0.15814573,0.68088359,0
0.85569113,-1.8498062,1.7151861,-0.3301934,-0.93496943,0.12963212,0
0.31108475,0.66808939,-1.8845632,0.69522983,0.26205558,-0.66931468,0
0.86524332,-0.20117545,2.7552674,0.71511364,-0.15814573,0.68088359,0
0.75628698,-0.93962288,2.8070378,0.71511364,-0.15814573,0.68088359,0
2.779933,0.57558239,0.65807509,0.71511364,-0.15814573,0.68088359,0
-1.2278155,-0.19492173,-2.5759764,-0.71511364,0.15814573,-0.68088359,0
-0.40680349,1.4326601,1.1752312,-0.32738644,0.78485364,0.52613944,0
2.5885522,-1.1634879,0.82323509,0.71511364,-0.15814573,0.68088359,0
1.8464847,-2.1293278,1.413602,0.71511364,-0.15814573,0.68088359,0
-0.74814641,0.62665892,-2.591718,-0.71511364,0.15814573,-0.68088359,0
1.6154871,0.26180774,-0.88836384,0.69899774,0.16712219,-0.69532174,0
2.5165255,-1.1242373,0.92348206,0.71511364,-0.15814573,0.68088359,0
1.7066214,1.5481479,1.0399239,0.21332222,0.97697765,0.0028713942,0
0.68190557,1.7030642,0.57565701,0.061661333,0.98454553,0.16391456,0
-1.5427384,-0.010806799,0.99631643,-0.68057561,0.064692944,0.72981608,0
-0.99506611,1.7496126,-2.5116115,-0.71511364,0.15814573,-0.68088359,0
2.4977202,-0.81833148,0.92607641,0.71511364,-0.15814573,0.68088359,0
-0.055468917,0.61878371,-2.6164634,0.69878721,0.13724834,-0.70203936,0
-2.2185571,-0.14706576,-1.3725415,-0.71511364,0.15814573,-0.68088359,0
1.0212159,-0.55476809,2.4466324,0.71511364,-0.15814573,0.68088359,0
-1.3079002,0.79201126,-2.0364246,-0.71511364,0.15814573,-0.68088359,0
2.0012512,0.73098361,0.18907142,0.57685733,0.68363905,-0.44707191,0
-0.56914008,-0.76435071,1.5021147,-0.65886384,-0.4778471,0.58099961,0
2.4503171,-1.760318,0.81588107,0.30111545,-0.80936432,-0.50424075,0
-0.99501264,-0.28348088,-2.4141834,-0.71511364,0.15814573,-0.68088359,0
1.8325219,1.2859123,1.9289844,0.71511364,-0.15814573,0.68088359,0
-2.1244709,1.5367926,-1.3288748,-0.71511364,0.15814573,-0.68088359,0
-2.7045636,0.35054648,-0.75645161,-0.71511364,0.15814573,-0.68088359,0
-1.9792554,0.94015479,-1.1848443,-0.71511364,0.15814573,-0.68088359,0
-1.1388204,0.31450844,-2.626101,-0.71511364,0.15814573,-0.68088359,0
-0.93871528,1.6076516,0.66935909,-0.36477911,0.7464872,0.55650079,0
-0.29337049,0.65528047,1.7942238,-0.57576013,0.41908666,0.70204461,0
-1.4099476,1.4709799,-2.0524116,-0.71511364,0.15814573,-0.68088359,0
-2.6811779,1.1523865,-0.62148547,-0.71511364,0.15814573,-0.68088359,0
-1.5300142,-0.79748392,-1.9823461,-0.71511364,0.15814573,-0.68088359,0
0.75513947,-1.760819,2.3129642,0.71511364,-0.15814573,0.68088359,0
-3.1483293,0.13966203,-0.44361854,-0.71511364,0.15814573,-0.68088359,0
-1.5535688,-0.37262362,0.66641366,-0.68773949,-0.33337927,0.64488178,0
-0.061560988,0.07148385,2.1460085,-0.66253686,0.1571798,0.73235196,0
-1.4655945,-0.05339238,0.98752272,-0.68933213,0.0019622743,0.72444272,0
2.2736895,-0.8619405,1.2776928,0.71511364,-0.15814573,0.68088359,0
-0.41652,0.83176374,-2.5914438,0.69617093,0.24880791,-0.6733799,0
-1.1750845,1.1511078,0.49030805,-0.4166618,0.68567038,0.59686607,0
1.3536835,-0.95719182,1.911383,0.71511364,-0.15814573,0.68088359,0
2.5924895,-0.93320489,0.66155303,0.71511364,-0.15814573,0.68088359,0
0.48802394,-1.9512795,1.6576898,-0.37486085,-0.90892148,0.18259525,0
-0.090991497,-0.92027819,-2.155942,0.45886302,-0.62860417,-0.6279344,0
-1.8124957,-1.3659995,-1.1828506,-0.24215703,-0.96980125,0.029079676,0
-0.71304059,-0.93043017,-2.590703,0.435045,-0.66173065,-0.61061311,0
0.1330924,1.0273372,1.8104136,-0.41066635,0.69319165,0.59231621,0
2.2678535,0.96087784,0.6911726,0.54933172,0.7294994,-0.40751076,0
-2.4602609,0.65186048,-0.89056975,-0.71511364,0.15814573,-0.68088359,0
2.3295884,1.0749649,0.78706932,0.50048232,0.79584944,-0.3407948,0
1.7808046,0.93761814,-0.27374005,0.63004023,0.56771952,-0.52985257,0
1.2345741,0.90292859,-0.48889828,0.62444067,0.58229101,-0.52058703,0
1.1964064,-0.2080195,2.1107569,0.71511364,-0.15814573,0.68088359,0
-1.335943,-0.16586447,-2.1529446,-0.71511364,0.15814573,-0.68088359,0
0.94286263,-1.6797587,2.0603557,0.71511364,-0.15814573,0.68088359,0
-0.93679333,-1.4480622,-0.17636847,-0.33500445,-0.93245602,0.13526881,0
-1.3679217,0.17258,-2.2343478,-0.71511364,0.15814573,-0.68088359,0
0.04481101,0.13925672,2.500458,-0.6193496,0.30823466,0.7220785,0
-2.6239479,-0.25075436,-0.083864689,-0.68254739,-0.36812413,0.63135862,0
-2.288523,-1.1678088,-0.98205924,-0.40149951,-0.89028966,0.21490061,0
0.2365253,1.117965,1.5202091,-0.35362023,0.75838506,0.54754436,0
-0.090493701,1.9538404,-0.83392334,0.31925893,0.94043243,-0.11687911,0
0.90726471,1.3749048,-0.61726391,0.55492508,0.72075462,-0.41541648,0
-0.59238446,0.26998472,-2.6994913,0.68607056,-0.027745664,-0.72700572,0
-1.2771024,-0.45619965,1.0665493,-0.69890928,-0.17815414,0.69266653,0
-0.9975282,1.9369394,-1.9178162,-0.71511364,0.15814573,-0.68088359,0
0.038684011,0.53385949,-2.4058309,0.69645989,0.078101009,-0.71333277,0
-2.5578244,-0.70685387,-1.3667346,-0.71511364,0.15814573,-0.68088359,0
-0.39864326,-1.6524357,-0.18570232,-0.22818767,-0.9735229,0.013543606,0
2.1824937,0.95252037,1.8331956,0.71511364,-0.15814573,0.68088359,0
-1.8194754,0.6374135,-1.5863302,-0.71511364,0.15814573,-0.68088359,0
-0.85717392,0.88716102,-2.555372,-0.71511364,0.15814573,-0.68088359,0
-1.1221101,0.59736681,0.86150092,-0.61256111,0.32744211,0.71940982,0
-0.5455097,1.8371763,0.22357666,-0.070496142,0.95278782,0.29533976,0
-1.4985793,-1.4176906,0.26883864,-0.55700684,-0.71742982,0.41837513,0
-1.1808399,0.32731819,-2.6128302,-0.71511364,0.15814573,-0.68088359,0
-2.209497,0.043299913,-1.5542196,-0.71511364,0.15814573,-0.68088359,0
-2.2838178,0.50461841,-1.0113227,-0.71511364,0.15814573,-0.68088359,0
0.05207479,-0.52487278,2.6359479,-0.69765818,-0.10096803,0.70928019,0
-2.2388573,0.62326515,-1.109385,-0.71511364,0.15814573,-0.68088359,0
0.472664,-1.5302393,2.2608974,-0.55729932,-0.71695966,0.41879153,0
-2.2435236,0.55475706,0.45933437,-0.66226685,0.15835875,0.73234218,0
1.2362602,0.96519637,2.4735422,0.71511364,-0.15814573,0.68088359,0
-0.65420032,-1.4619547,-1.7267236,0.24933755,-0.85228419,-0.45982864,0
0.85709667,0.058163643,2.9802198,0.71511364,-0.15814573,0.68088359,0
-0.85013294,-0.47260571,-2.673826,-0.71511364,0.15814573,-0.68088359,0
-1.9296732,-1.1605973,-0.19743204,-0.48350263,-0.8153705,0.31842732,0
0.41250771,-1.8148311,1.2248803,-0.34425068,-0.92743337,0.14614654,0
1.4934691,-0.20062909,-0.78745264,0.66502547,-0.14609569,-0.73239136,0
-1.2069051,1.4142071,-1.8677855,-0.71511364,0.15814573,-0.68088359,0
2.379076,0.55911887,-0.029271126,0.68020189,0.38186383,-0.62570393,0
-0.59637642,1.3563271,-2.4627991,-0.71511364,0.15814573,-0.68088359,0
1.7996402,-2.0153491,1.4544184,-0.048316717,-0.98292434,-0.17755342,0
-0.29926419,-0.17452657,1.9325051,-0.68735874,0.017999381,0.72609496,0
0.80577034,1.4057701,0.75883126,0.094812244,0.98701376,0.12967038,0
-2.3713245,0.3569231,-1.3039815,-0.71511364,0.15814573,-0.68088359,0
0.6197378,1.6642157,0.39904702,0.15247697,0.98590589,0.068849325,0
-0.45141518,1.3370321,-2.1241093,0.57213151,0.6920464,-0.44015574,0
-2.0221105,1.5675051,-1.0295858,-0.71511364,0.15814573,-0.68088359,0
-1.372671,-0.61560774,0.72183955,-0.64839327,-0.51398611,0.56160867,0
0.41110349,1.0101714,1.7178597,-0.36455059,0.7467348,0.55631828,0
0.8708688,0.59078693,2.5325849,-0.48930287,0.58237767,0.64916778,0
2.6052082,-1.5009742,0.83467907,0.71511364,-0.15814573,0.68088359,0
-2.134275,-1.087296,-0.54183936,-0.55612397,-0.71884459,0.41711926,0
3.039804,0.46526766,0.87563252,0.71511364,-0.15814573,0.68088359,0
-1.3557676,0.21583438,-2.3582311,-0.71511364,0.15814573,-0.68088359,0
-0.19106835,-1.9116411,0.0060329437,-0.13088316,-0.98713708,-0.091814697,0
-2.4659534,0.42466342,-1.1019169,-0.71511364,0.15814573,-0.68088359,0
2.6085048,0.37915599,1.1375872,0.71511364,-0.15814573,0.68088359,0
-0.72424871,-1.7202966,-0.16385698,-0.29837611,-0.9499321,0.092740059,0
1.5814812,0.0066098869,-0.9100734,0.69782746,0.10492212,-0.70853949,0
2.5037088,0.43232346,1.1320872,0.71511364,-0.15814573,0.68088359,0
2.6519055,-0.91603005,0.58180737,0.71511364,-0.15814573,0.68088359,0
0.23675418,0.41859007,2.5966892,-0.61467344,0.32155797,0.72026169,0
-0.2111907,1.8010237,-0.12538981,0.0021104217,0.9745549,0.22413886,0
0.92868102,-1.508178,2.5904102,0.71511364,-0.15814573,0.68088359,0
0.8326872,-1.4772137,-0.65302235,0.29835427,-0.81182981,-0.50191331,0
2.3530488,0.16619921,0.97251153,0.71511364,-0.15814573,0.68088359,0
-2.0082374,0.069689751,-1.7516847,-0.71511364,0.15814573,-0.68088359,0
1.0395513,0.54528499,2.9567075,0.71511364,-0.15814573,0.68088359,0
-1.7373574,-0.96078908,-1.8096219,-0.71511364,0.15814573,-0.68088359,0
1.9343165,0.30193639,1.8401753,0.71511364,-0.15814573,0.68088359,0
1.8997619,0.43727344,-0.22999024,0.67273021,0.42027691,-0.60893452,0
2.4011838,-0.81648493,0.82474858,0.71511364,-0.15814573,0.68088359,0
0.28022772,1.7272474,-0.99814594,0.37724689,0.90735173,-0.18546581,0
1.8663918,1.0035114,0.11809897,0.56279743,0.70797312,-0.42665327,0
2.3963797,-0.30234766,1.3535388,0.71511364,-0.15814573,0.68088359,0
-1.6426524,-0.57457328,-1.912484,-0.71511364,0.15814573,-0.68088359,0
1.9168429,0.76824641,1.7207236,0.71511364,-0.15814573,0.68088359,0
-1.4687247,1.6657135,-1.5038506,-0.71511364,0.15814573,-0.68088359,0
-1.9924886,-1.2352105,-1.8166208,-0.71511364,0.15814573,-0.68088359,0
-0.5944863,-1.9154084,-0.35344076,-0.16895148,-0.98429501,-0.051172495,0
1.038017,-1.1610014,2.3494825,0.71511364,-0.15814573,0.68088359,0
0.10470408,1.7400898,0.20743918,0.083737522,0.98643768,0.141168,0
1.7655504,-1.2230526,1.6564865,0.71511364,-0.15814573,0.68088359,0
-1.5511236,0.3141613,-2.1505749,-0.71511364,0.15814573,-0.68088359,0
-1.3354784,-0.49572778,-2.3881264,-0.71511364,0.15814573,-0.68088359,0
1.3634094,0.35758948,2.2962759,0.71511364,-0.15814573,0.68088359,0
1.8339865,1.0532097,1.9139909,0.71511364,-0.15814573,0.68088359,0
0.94888246,1.593725,0.18719459,0.36299402,0.91645098,-0.168383,0
-0.26779413,-0.5441227,-2.3857598,0.57062894,-0.43051937,-0.69931084,0
1.0170736,-1.4730425,2.3001478,0.71511364,-0.15814573,0.68088359,0
0.9401412,0.54939127,2.7536473,0.71511364,-0.15814573,0.68088359,0
-2.1413672,-0.50108445,0.25229168,-0.67494398,-0.40960422,0.61373848,0
1.5639929,1.3594099,0.61645603,0.40798441,0.88537276,-0.22285354,0
-2.6058538,0.58098477,0.1607424,-0.67116225,0.11684826,0.7320435,0
-3.0595636,0.68911529,-0.30296493,-0.66190267,0.15994188,0.7323274,0
1.9289206,0.88697469,-0.38556504,0.63393945,0.55712295,-0.53640908,0
-1.4483893,0.16222668,-2.0519607,-0.71511364,0.15814573,-0.68088359,0
0.43149996,-0.80491865,-1.8247014,0.58097476,-0.40717283,-0.70475423,0
-2.4963427,0.84392619,-1.0021694,-0.71511364,0.15814573,-0.68088359,0
-0.83309889,-1.5913849,-1.6165619,0.087752223,-0.94605404,-0.31189948,0
-1.5810244,0.45208263,-1.876546,-0.71511364,0.15814573,-0.68088359,0
-1.0071688,0.073667765,-2.7868872,-0.71511364,0.15814573,-0.68088359,0
-0.98341405,0.47435594,-2.5045609,-0.71511364,0.15814573,-0.68088359,0
1.7946188,-0.95469165,-0.63445079,0.55453342,-0.46467614,-0.69033962,0
1.3094049,-1.6461799,-0.022653937,0.32145989,-0.79055285,-0.52123868,0
-1.1911831,0.17227376,1.400681,-0.66721869,0.13597867,0.73234487,0
0.99072611,-0.39403009,2.5389166,0.71511364,-0.15814573,0.68088359,0
2.5348997,0.32837248,0.96527231,0.71511364,-0.15814573,0.68088359,0
-0.32497418,-1.761915,0.1310941,-0.28046036,-0.95714271,0.072248936,0
1.1154332,1.2026721,-0.11280036,0.47697225,0.82246351,-0.30992115,0
-1.4150312,-0.82661533,-2.1914763,-0.71511364,0.15814573,-0.68088359,0
-0.52079463,0.26073718,-2.9729366,-0.71511364,0.15814573,-0.68088359,0
1.7742338,-1.6179683,0.52766037,0.22392416,-0.87090969,-0.43746367,0
1.6080331,0.29473591,-0.57209015,0.69629896,0.24683979,-0.67397183,0
-2.8662086,0.59174287,-0.44495893,-0.71511364,0.15814573,-0.68088359,0
-0.91441262,-0.2013092,-2.7592978,-0.71511364,0.15814573,-0.68088359,0
0.46099401,-1.368167,-1.2819521,0.30276644,-0.8078804,-0.50563002,0
0.88491046,1.0540382,2.2018452,-0.28307974,0.82510036,0.48895323,0
1.9974674,1.0977033,0.3724997,0.50876641,0.78572261,-0.35184753,0
-0.80109268,-1.4740812,-0.0010962486,-0.33536977,-0.93226242,0.13569748,0
-1.2926939,0.8263979,-1.9200072,-0.71511364,0.15814573,-0.68088359,0
1.7995915,0.29135323,1.848823,0.71511364,-0.15814573,0.68088359,0
1.4792475,0.12826562,2.3379807,0.71511364,-0.15814573,0.68088359,0
-2.8420644,-0.69380581,-1.0109189,-0.71511364,0.15814573,-0.68088359,0
-1.6848989,-1.4321645,-2.0624433,0.06062144,-0.95636976,-0.28580064,0
0.19331315,1.4894953,-0.69169116,0.36277723,0.91658431,-0.16812432,0
1.7355042,-1.1069838,1.5989953,0.71511364,-0.15814573,0.68088359,0
-1.0527402,1.7681456,-0.74259371,0.011648238,0.97663164,0.21460384,0
-2.1065664,-0.53115201,0.11407542,-0.68504131,-0.35230333,0.6376524,0
-1.6240218,1.4140631,-1.7150004,-0.71511364,0.15814573,-0.68088359,0
-2.2476051,0.89434063,-1.3099146,-0.71511364,0.15814573,-0.68088359,0
2.2863877,0.9272095,1.2866213,0.71511364,-0.15814573,0.68088359,0
2.3973536,0.7676841,1.123631,0.71511364,-0.15814573,0.68088359,0
-0.53203875,1.7574321,-1.3296502,0.29989916,0.94927961,-0.094491243,0
-0.86077225,0.11817122,-2.5311556,-0.71511364,0.15814573,-0.68088359,0
2.0952933,0.42210555,1.6415508,0.71511364,-0.15814573,0.68088359,0
0.84827125,-0.054767132,2.7956581,0.71511364,-0.15814573,0.68088359,0
-0.904419,1.51282,-2.4300554,-0.71511364,0.15814573,-0.68088359,0
2.6703985,0.23675877,0.061043024,0.68199778,0.37143373,-0.63001263,0
-0.48631227,0.098792911,2.2061293,-0.65872878,0.17341381,0.73212296,0
-2.0375252,-1.1654388,-1.0933211,-0.32582366,-0.93719381,0.12452614,0
2.4157944,1.299186,1.5608246,0.71511364,-0.15814573,0.68088359,0
-1.8240615,1.8219341,-1.3183777,-0.71511364,0.15814573,-0.68088359,0
1.5428172,0.07275492,-0.83989465,0.69467026,0.052435011,-0.7174145,0
0.87639999,0.7828474,2.6478982,-0.48553175,0.58836299,0.64659715,0
0.45051408,-0.49269676,2.7854815,-0.68574959,0.030098081,0.72721493,0
-0.84485328,0.70210028,-2.5455627,-0.71511364,0.15814573,-0.68088359,0
1.1351342,-1.3445354,2.2154396,0.71511364,-0.15814573,0.68088359,0
1.6570468,0.075675488,2.0511146,0.71511364,-0.15814573,0.68088359,0
-0.61113262,1.3226588,-2.3557501,0.59363371,0.65169817,-0.47211051,0
0.18235981,-1.8805412,1.1497993,-0.36389881,-0.91589296,0.16946268,0
2.231339,1.3236042,1.4745464,0.22978702,0.97312033,-0.015316963,0
-2.1051989,-0.0079171658,-1.5436648,-0.71511364,0.15814573,-0.68088359,0
-2.4575596,0.78382003,-1.1783146,-0.71511364,0.15814573,-0.68088359,0
-0.26852632,1.1908132,-1.977865,0.60077375,0.63699067,-0.48302555,0
2.685926,-1.5448527,0.77533996,0.71511364,-0.15814573,0.68088359,0
0.76985002,0.38446832,3.0769913,0.71511364,-0.15814573,0.68088359,0
-0.20995116,1.584672,0.47621566,-0.09095186,0.94473886,0.3149544,0
1.8550472,1.0565968,2.0883574,0.71511364,-0.15814573,0.68088359,0
0.46335208,1.1273316,2.1711898,-0.38252127,0.7267406,0.57054842,0
-1.4800493,-0.22690231,0.91457689,-0.69795436,-0.21501368,0.68310225,0
2.0020328,1.0960408,1.7778366,0.71511364,-0.15814573,0.68088359,0
-2.6122806,1.5799936,-0.64060372,-0.71511364,0.15814573,-0.68088359,0
2.2168229,-1.410633,0.10330808,0.46779299,-0.6155206,-0.63427442,0
2.2208016,0.19077957,1.3696288,0.71511364,-0.15814573,0.68088359,0
-0.62870777,-1.5040786,-1.219587,0.047310352,-0.96088701,-0.27286947,0
-2.5601768,-0.92158985,-0.95949268,-0.71511364,0.15814573,-0.68088359,0
-2.3814211,-0.86982846,-1.4843649,-0.71511364,0.15814573,-0.68088359,0
2.2642179,-1.0912675,0.94698966,0.71511364,-0.15814573,0.68088359,0
-0.9290992,1.5475309,-2.1672652,-0.71511364,0.15814573,-0.68088359,0
2.3207841,-1.1476442,0.68775421,0.71511364,-0.15814573,0.68088359,0
0.86522824,1.7712429,0.52923179,0.14827093,0.98622352,0.073340654,0
-3.0147233,-0.37473023,-0.61163044,-0.71511364,0.15814573,-0.68088359,0
1.4518797,-1.763243,1.8011179,0.71511364,-0.15814573,0.68088359,0
0.72943223,-0.61835718,2.573936,0.71511364,-0.15814573,0.68088359,0
2.2602198,0.3641583,-0.13640642,0.68312448,0.36458403,-0.63278687,0
0.69157743,0.4252224,2.8357611,0.71511364,-0.15814573,0.68088359,0
2.3716865,-0.18428528,1.1966314,0.71511364,-0.15814573,0.68088359,0
-2.836957,0.98933315,-0.70462394,-0.71511364,0.15814573,-0.68088359,0
0.79035354,0.53371406,2.84306,0.71511364,-0.15814573,0.68088359,0
1.6444623,-0.19357872,1.8277582,0.71511364,-0.15814573,0.68088359,0
-1.0588,-1.0246198,1.2522982,-0.66889066,-0.43766147,0.60086411,0
-1.70462,1.1743593,-1.5149429,-0.71511364,0.15814573,-0.68088359,0
0.83965975,0.49386674,-1.3111844,0.69749928,0.2254082,-0.68021011,0
1.1772424,-1.8422333,1.8241565,0.71511364,-0.15814573,0.68088359,0
-0.83385563,0.36872458,-2.8622205,-0.71511364,0.15814573,-0.68088359,0
1.1648419,-0.27547187,-1.2869134,0.67879307,-0.075452179,-0.73044288,0
1.9347756,-1.2948737,1.4599926,0.71511364,-0.15814573,0.68088359,0
0.91148531,-0.9537425,2.6813083,0.71511364,-0.15814573,0.68088359,0
1.9128218,1.0812111,2.0805783,0.71511364,-0.15814573,0.68088359,0
1.5791422,-0.81498933,1.8672162,0.71511364,-0.15814573,0.68088359,0
1.0989515,-0.3828423,2.5603328,0.71511364,-0.15814573,0.68088359,0
-2.6606171,1.0311745,-0.44254804,-0.71511364,0.15814573,-0.68088359,0
-0.53896952,-1.2982116,1.2891977,-0.61918777,-0.59533221,0.51204109,0
-0.64056361,-1.0378063,1.7550898,-0.6601795,-0.47293091,0.58352321,0
1.5716269,-1.3330246,1.5278416,0.71511364,-0.15814573,0.68088359,0
2.2345016,-1.549329,1.1278075,0.71511364,-0.15814573,0.68088359,0
-1.0974555,0.99340534,-2.2153065,-0.71511364,0.15814573,-0.68088359,0
2.1480579,-0.60712349,-0.19848299,0.61776096,-0.31280866,-0.7214722,0
2.7378659,-1.4105153,0.46368438,0.54471147,-0.48437029,-0.68459821,0
-2.3755362,1.1652951,-1.0268102,-0.71511364,0.15814573,-0.68088359,0
2.3907719,0.46004045,1.1939884,0.71511364,-0.15814573,0.68088359,0
-1.1486809,-1.672585,-0.7825861,-0.18272787,-0.9824937,-0.036285162,0
-0.91902864,-1.7043631,-0.080912828,-0.3204385,-0.93985939,0.1182512,0
0.92916083,-0.36148643,2.5796571,0.71511364,-0.15814573,0.68088359,0
2.7749679,-0.19227719,0.72898185,0.71511364,-0.15814573,0.68088359,0
-0.21235627,-1.8526675,-0.41149223,-0.042942941,-0.98217046,-0.18302232,0
1.4092551,-2.281384,1.3397697,-0.13954645,-0.98676199,-0.082628727,0
-2.9142978,-0.35613537,-0.76513004,-0.71511364,0.15814573,-0.68088359,0
-2.1523018,0.23292458,-1.2954283,-0.71511364,0.15814573,-0.68088359,0
1.0034325,-1.9592611,0.14887202,0.10929143,-0.936795,-0.33237094,0
-2.5507226,0.31958139,-0.69132042,-0.71511364,0.15814573,-0.68088359,0
0.88538277,-0.65160584,2.8204448,0.71511364,-0.15814573,0.68088359,0
-1.3017948,1.8014952,-1.815136,-0.71511364,0.15814573,-0.68088359,0
1.9119908,-0.23325215,-0.73517621,0.69301474,0.033119023,-0.72016227,0
1.4190301,-1.7395314,-0.19047877,0.296565,-0.81341642,-0.50040263,0
-0.94627666,0.32477188,1.2801013,-0.62792432,0.28263813,0.72513902,0
1.2532604,-0.96766376,2.036499,0.71511364,-0.15814573,0.68088359,0
-1.4857942,1.0790578,-1.5948842,-0.71511364,0.15814573,-0.68088359,0
-1.7835624,1.9730816,-1.0936928,-0.71511364,0.15814573,-0.68088359,0
-2.4410634,1.489893,-0.32867679,-0.4207114,0.68051201,0.59992117,0
-2.3728104,1.3534071,-0.64575475,-0.49363905,0.57539946,0.65210116,0
-0.40840575,-1.8371685,0.04177022,-0.23090206,-0.97283614,0.016554117,0
2.04037,-0.93029696,-0.12425232,0.53126019,-0.51008523,-0.6764434,0
1.1123304,0.082746029,-1.4535499,0.68929303,-0.002295047,-0.72447896,0
0.53531992,-0.87250733,2.8040979,0.71511364,-0.15814573,0.68088359,0
0.23181999,-1.5724384,1.6739633,-0.48597085,-0.81263125,0.32165587,0
-2.2837892,0.36070895,-1.0353439,-0.71511364,0.15814573,-0.68088359,0
0.66841531,-1.5621532,-0.72149956,0.2220698,-0.87220865,-0.4358179,0
-1.3022668,2.0880566,-1.1362078,0.060778171,0.98444915,0.16481978,0
-0.46542776,-0.25228453,1.8656247,-0.68908262,0.0040744245,0.72467124,0
-1.1817358,0.10775244,1.2145305,-0.66522753,0.14517805,0.73239028,0
0.89581335,-0.91158533,2.6786811,0.71511364,-0.15814573,0.68088359,0
-0.8524698,0.48575759,-2.708384,-0.71511364,0.15814573,-0.68088359,0
-1.3198402,0.65635991,-2.165328,-0.71511364,0.15814573,-0.68088359,0
-1.2794816,0.71902227,-2.0793605,-0.71511364,0.15814573,-0.68088359,0
0.26133299,-0.083520174,-2.1766784,0.63230801,-0.26890138,-0.72655255,0
-1.5371746,0.30624509,-1.9417117,-0.71511364,0.15814573,-0.68088359,0
-0.60963047,-0.32909119,1.9847028,-0.6985625,-0.12690401,0.70420587,0
-2.6011486,0.39568901,-1.0102423,-0.71511364,0.15814573,-0.68088359,0
0.77698863,-0.93919468,2.5702629,0.71511364,-0.15814573,0.68088359,0
1.4438853,0.44816375,2.3839381,0.71511364,-0.15814573,0.68088359,0
0.062758297,-1.890548,1.2940478,-0.43533611,-0.86286253,0.25680852,0
-2.004523,0.090338975,0.18885267,-0.69631302,-0.075710714,0.71373373,0
0.8263343,1.3746411,0.16307294,0.3054488,0.94684923,-0.10088444,0
1.2391857,0.93231392,2.3721554,0.71511364,-0.15814573,0.68088359,0
-1.0352489,-0.41387403,1.2600589,-0.69287336,-0.28913951,0.66054899,0
-2.7827568,-0.30905056,-1.0000707,-0.71511364,0.15814573,-0.68088359,0
-2.752634,0.6475389,-0.73602057,-0.71511364,0.15814573,-0.68088359,0
-1.3781255,-0.47309661,-2.4222388,-0.71511364,0.15814573,-0.68088359,0
2.1802192,1.3886204,1.9695151,0.71511364,-0.15814573,0.68088359,0
-2.3708715,1.6186302,-0.50841588,-0.45614201,0.63251632,0.62598526,0
-1.2291145,-1.2010471,-2.3302293,0.21195793,-0.87915134,-0.42681009,0
-1.0446308,2.0333171,-0.44453168,-0.014722705,0.97044712,0.2408641,0
-2.3312433,-0.47701943,0.12113905,-0.67830473,-0.39231032,0.62128508,0
3.0108263,-0.29385853,0.31172204,0.71511364,-0.15814573,0.68088359,0
-0.91205579,-1.5577972,-0.052316427,-0.26783514,-0.96172196,0.057925344,0
2.4791875,-1.6383214,0.77153689,0.71511364,-0.15814573,0.68088359,0
2.137399,1.2086952,1.994048,0.71511364,-0.15814573,0.68088359,0
-1.3257082,1.5443821,-2.2010593,-0.71511364,0.15814573,-0.68088359,0
1.6128858,-1.990582,1.2521908,0.71511364,-0.15814573,0.68088359,0
1.8787955,-1.4387639,1.1347868,0.71511364,-0.15814573,0.68088359,0
-0.10904527,0.88477278,1.8545015,-0.42604595,0.67361861,0.60392278,0
-1.4305007,0.52887928,-1.757164,-0.71511364,0.15814573,-0.68088359,0
0.31110442,1.5294921,1.6198808,-0.29348767,0.81612521,0.49779975,0
-1.0649093,1.8024474,-2.033607,0.48663196,0.81189215,-0.32252192,0
2.9578438,-0.55101883,0.57676983,0.71511364,-0.15814573,0.68088359,0
-2.3109794,-0.1671145,-1.3415879,-0.71511364,0.15814573,-0.68088359,0
-1.4304186,-0.7164309,-2.4520991,-0.71511364,0.15814573,-0.68088359,0
2.5400815,-0.77397931,0.81839371,0.71511364,-0.15814573,0.68088359,0
0.55918908,-0.25508213,-2.122262,0.64053279,-0.24175239,-0.72888505,0
-0.45216203,-0.65591228,1.7841148,-0.68623513,-0.34419447,0.64078975,0
0.85623264,0.86548126,-1.3211787,0.64493418,0.52493209,-0.55543345,0
-1.789254,2.1554966,-1.113569,-0.040223777,0.96314681,0.26595163,0
-1.6668404,1.0406129,-1.5007794,-0.71511364,0.15814573,-0.68088359,0
0.74492013,-0.96138787,2.5542254,0.71511364,-0.15814573,0.68088359,0
1.8669877,0.61019999,-0.45743632,0.65790009,0.48138928,-0.57916445,0
-2.103972,-0.092011213,-1.2488236,-0.71511364,0.15814573,-0.68088359,0
1.111465,1.6246079,0.83178031,0.14301503,0.98656732,0.078940511,0
-1.3530395,1.7700918,-1.7663659,-0.71511364,0.15814573,-0.68088359,0
-0.19962811,-0.74913347,-1.9124866,0.42646694,-0.67306972,-0.6042375,0
2.4183455,0.79429924,1.5850085,0.71511364,-0.15814573,0.68088359,0
-1.3328743,0.21025229,-2.3084469,-0.71511364,0.15814573,-0.68088359,0
0.21855152,0.759781,2.0470276,-0.53425711,0.50447488,0.67828786,0
0.69781059,-1.6844454,2.1355393,-0.49949628,-0.79702765,0.33948553,0
-1.9000821,-1.0783144,0.17024112,-0.6150946,-0.60510927,0.50547141,0
2.0643289,-0.31530857,1.2054012,0.71511364,-0.15814573,0.68088359,0
0.81440711,-1.1630524,-1.1297994,0.39694518,-0.70990098,-0.58178616,0
-1.1972721,1.3636407,-2.1920238,-0.71511364,0.15814573,-0.68088359,0
2.1536813,0.93624461,1.6728467,0.71511364,-0.15814573,0.68088359,0
0.92342699,-0.26858318,-1.7168332,0.66906309,-0.12719098,-0.73224097,0
1.251518,-2.1126232,1.839125,-0.30693734,-0.94618297,0.10260236,0
1.5713365,-2.0043733,0.71232831,0.1251601,-0.92936015,-0.34731042,0
2.2204676,1.2076604,1.055042,0.37155792,0.91106337,-0.17862868,0
-0.60840183,1.8274927,-1.0207523,0.26417464,0.96297371,-0.053789973,0
1.3861618,0.27514839,2.5515122,0.71511364,-0.15814573,0.68088359,0
1.6652409,-1.2669362,1.7715647,0.71511364,-0.15814573,0.68088359,0
-1.4513766,-1.2582176,-2.3491056,-0.71511364,0.15814573,-0.68088359,0
1.4815381,1.1895972,0.89273822,0.27346456,0.95973051,-0.064300299,0
-0.90730929,0.51139432,1.2323998,-0.63432842,0.26240629,0.72716594,0
-2.1623039,-1.0138466,-1.5867994,-0.71511364,0.15814573,-0.68088359,0
-0.69143403,1.0132444,1.0333765,-0.44545728,0.64755464,0.61825627,0
1.0503178,-1.0448875,2.1256726,0.71511364,-0.15814573,0.68088359,0
-0.32825935,1.2268636,1.5532244,-0.43718708,0.65885174,0.6121943,0
1.5901613,-2.0310988,1.4944758,-0.10399908,-0.98730087,-0.1200884,0
-0.86889911,-0.18653762,1.9576038,-0.69467604,-0.052508563,0.71740353,0
-2.1385484,-1.2428652,-1.5551462,-0.30846038,-0.94549489,0.10436177,0
1.649711,-0.90212226,1.5050154,0.71511364,-0.15814573,0.68088359,0
0.23948514,-1.8590174,-0.10080743,-0.096686751,-0.98708642,-0.12771851,0
1.4805366,-0.57917345,1.6994991,0.71511364,-0.15814573,0.68088359,0
2.4686935,-1.2529243,1.0406934,0.71511364,-0.15814573,0.68088359,0
-0.57697046,-1.6971788,0.40265632,-0.3820318,-0.90414631,0.19123578,0
-1.7809846,-0.45769739,-1.8032173,-0.71511364,0.15814573,-0.68088359,0
-0.39634681,1.2383149,1.240344,-0.31729764,0.79449546,0.51778287,0
-0.65029353,1.7908419,-1.6803467,0.43894133,0.8596707,-0.26133657,0
0.47936881,-1.7856075,1.1193769,-0.247879,-0.96814132,0.035474896,0
-1.8385005,0.55001473,-1.6744214,-0.71511364,0.15814573,-0.68088359,0
-1.1643996,-0.86595845,1.2124404,-0.6716038,-0.42551631,0.6065346,0
-1.7810439,1.7461176,-1.5287836,-0.71511364,0.15814573,-0.68088359,0
-1.8059406,0.054824352,-1.5562563,-0.71511364,0.15814573,-0.68088359,0
-1.4798856,-0.68321723,0.79871595,-0.66420639,-0.45725697,0.59139311,0
-0.067372084,-1.7082981,1.4587003,-0.48174518,-0.81730127,0.31613314,0
-1.4271417,-1.3781925,-0.44170547,-0.38856497,-0.8996439,0.19914317,0
-1.6473179,1.8875738,-0.65005744,-0.20619708,0.88300097,0.42165384,0
-1.8159108,1.7506828,-0.48950294,-0.21239889,0.87885356,0.42720404,0
-0.73684883,0.12736392,-2.983314,-0.71511364,0.15814573,-0.68088359,0
2.4294286,-0.8243643,1.007727,0.71511364,-0.15814573,0.68088359,0
-0.46471298,0.97575831,-2.8338995,-0.71511364,0.15814573,-0.68088359,0
0.2951833,1.56918,-0.97628665,0.4509204,0.84866536,-0.27647388,0
-2.6516902,-0.052729249,-1.0411298,-0.71511364,0.15814573,-0.68088359,0
-1.9209845,-0.408885,-1.7930115,-0.71511364,0.15814573,-0.68088359,0
0.39047617,1.5919111,0.71049416,-0.034618258,0.96486306,0.26046282,0
-2.651401,0.33706725,-0.71766615,-0.71511364,0.15814573,-0.68088359,0
2.3949871,-0.58194673,1.1599228,0.71511364,-0.15814573,0.68088359,0
0.54711658,-1.4253087,2.1692083,-0.59200418,-0.6549558,0.46964252,0
0.80311155,0.24439502,3.0083652,0.71511364,-0.15814573,0.68088359,0
-0.25033766,-1.4670373,-0.39428461,-0.086198688,-0.98658752,-0.13861799,0
1.1055843,-0.28260446,2.4067242,0.71511364,-0.15814573,0.68088359,0
-0.27095163,-1.1377367,2.0053155,-0.64815104,-0.51476699,0.56117302,0
-2.5418892,0.10607123,-1.2293383,-0.71511364,0.15814573,-0.68088359,0
-2.0118141,-0.45957637,-1.6936932,-0.71511364,0.15814573,-0.68088359,0
2.5544593,-1.1522772,0.8993994,0.71511364,-0.15814573,0.68088359,0
-1.3189172,0.40737748,-2.0739985,-0.71511364,0.15814573,-0.68088359,0
0.33418393,0.99776554,-1.6391534,0.66809839,0.44109097,-0.59923548,0
-2.0076771,-1.1605026,-0.9249506,-0.40060323,-0.89095712,0.21380424,0
-1.2150979,-0.048224449,-2.6158266,-0.71511364,0.15814573,-0.68088359,0
-1.5703559,1.4167265,-1.473788,-0.71511364,0.15814573,-0.68088359,0
-1.6037493,1.7803613,-0.048941523,-0.24079037,0.85872138,0.45234692,0
-0.90620762,-1.6274455,-0.81016111,-0.052225053,-0.98343617,-0.17356765,0
1.3339697,-1.6869563,1.8655869,0.71511364,-0.15814573,0.68088359,0
2.3020227,0.11004186,1.2231306,0.71511364,-0.15814573,0.68088359,0
-2.5330951,0.16280967,-0.022680998,-0.69882309,-0.13933158,0.70159316,0
2.816519,0.12995887,0.70781493,0.71511364,-0.15814573,0.68088359,0
0.081244707,1.1005832,1.9994557,-0.45612675,0.6325382,0.6259743,0
1.0623432,0.36411214,2.3511362,0.71511364,-0.15814573,0.68088359,0
-1.3711363,0.096135437,0.86578971,-0.67813587,0.079298496,0.73064601,0
-0.37615561,0.74298167,-2.7476385,0.6945771,0.27026713,-0.66672188,0
-1.86088,0.28174186,-1.5840201,-0.71511364,0.15814573,-0.68088359,0
0.68040013,-0.034875154,2.6845148,0.71511364,-0.15814573,0.68088359,0
2.726455,0.10861897,0.88577199,0.71511364,-0.15814573,0.68088359,0
-0.27193689,0.95825005,1.6913648,-0.49392128,0.57494152,0.65229124,0
-0.98006159,-1.4514902,-0.79724705,-0.19260821,-0.98094308,-0.025547862,0
-2.0943918,0.089750171,-1.337496,-0.71511364,0.15814573,-0.68088359,0
-1.3028542,1.3939863,-1.7473425,-0.71511364,0.15814573,-0.68088359,0
0.78866279,-0.4685359,2.7742038,0.71511364,-0.15814573,0.68088359,0
-2.012393,-0.094596535,0.27040207,-0.69549918,-0.25845653,0.6704334,0
2.3682394,0.2251327,1.4883536,0.71511364,-0.15814573,0.68088359,0
-0.64168549,1.1572444,-2.6489966,0.66165471,0.46730283,-0.58637977,0
2.5517695,0.2420243,0.81861567,0.71511364,-0.15814573,0.68088359,0
-1.9593296,-0.80365646,0.18873334,-0.66308296,-0.46173036,0.58917415,0
1.2280647,0.74663615,2.6507869,0.71511364,-0.15814573,0.68088359,0
1.6162615,-0.0017755032,2.1249464,0.71511364,-0.15814573,0.68088359,0
2.0188904,-1.6387113,1.3657734,0.71511364,-0.15814573,0.68088359,0
-2.9705434,0.58107221,-0.4801693,-0.71511364,0.15814573,-0.68088359,0
-1.46545,1.4731549,-1.5728658,-0.71511364,0.15814573,-0.68088359,0
0.79895264,1.4021031,-0.63337409,0.45320177,0.84649777,-0.27937353,0
2.8456328,0.31745517,0.622612,0.65388328,0.49565375,-0.5716328,0
1.4193863,1.1552291,2.3895571,0.71511364,-0.15814573,0.68088359,0
-1.8489511,2.0277047,-1.3325533,-0.71511364,0.15814573,-0.68088359,0
-2.9030578,0.93618101,-0.41699243,-0.58840263,0.38965318,0.70848632,0
-2.3747106,1.0506005,-0.18115747,-0.5805853,0.40807337,0.70455438,0
2.721415,0.050990939,0.75692046,0.71511364,-0.15814573,0.68088359,0
-2.6377349,0.62098658,-1.0466826,-0.71511364,0.15814573,-0.68088359,0
-0.094870567,-0.18859172,2.3296852,-0.68288088,0.049973279,0.72881836,0
2.3242667,-1.2744986,0.13392657,0.47995228,-0.59707898,-0.64276159,0
0.081014276,-0.60244083,2.4706876,-0.69486851,-0.26668507,0.66785991,0
1.0984982,-1.7020334,1.8563722,0.71511364,-0.15814573,0.68088359,0
-2.1935291,-1.01238,-1.5583758,-0.71511364,0.15814573,-0.68088359,0
0.67070031,-1.7790064,1.7122576,-0.38972229,-0.89883095,0.20054746,0
-0.12759611,-1.5191191,0.6705792,-0.3229982,-0.93860269,0.12123132,0
2.3960819,-1.4559059,0.53640908,0.71511364,-0.15814573,0.68088359,0
-0.067200422,0.58763611,2.2369659,-0.56550056,0.44167334,0.69651538,0
-2.6233151,0.91305017,-0.84544575,-0.71511364,0.15814573,-0.68088359,0
-1.0759916,-0.16028619,-2.7996476,-0.71511364,0.15814573,-0.68088359,0
-1.7333337,-0.7194736,-2.3005476,-0.71511364,0.15814573,-0.68088359,0
1.9094076,0.30639052,1.9862477,0.71511364,-0.15814573,0.68088359,0
-1.9454967,1.4369012,-1.0883054,-0.71511364,0.15814573,-0.68088359,0
0.83464932,-1.2744827,2.5260992,0.71511364,-0.15814573,0.68088359,0
1.6758187,0.37821651,2.2413201,0.71511364,-0.15814573,0.68088359,0
0.26224852,0.31445038,-2.0844851,0.69043827,0.0077446401,-0.72334993,0
0.94754028,-0.057918072,-1.5535865,0.66175497,-0.16058147,-0.7323209,0
-1.0433445,1.7005175,-0.46125817,-0.039657772,0.96332306,0.26539803,0
-2.6239557,-0.27169168,-1.1714344,-0.71511364,0.15814573,-0.68088359,0
1.9545708,-1.0866102,1.0845891,0.71511364,-0.15814573,0.68088359,0
-0.92581749,0.17951155,-2.7927403,-0.71511364,0.15814573,-0.68088359,0
-0.58040512,-1.2680223,-1.3056319,0.13584191,-0.92405903,-0.35729796,0
2.674705,-0.6228497,0.78525019,0.71511364,-0.15814573,0.68088359,0
-2.5508862,0.38402617,-0.84995699,-0.71511364,0.15814573,-0.68088359,0
0.21420634,-0.93602395,-1.8449086,0.50170571,-0.56213444,-0.6574924,0
-1.2301819,0.61089277,-2.3006577,-0.71511364,0.15814573,-0.68088359,0
-0.99464107,-1.4332389,-0.21247339,-0.31006649,-0.94476259,0.10621881,0
0.66259241,-1.5761042,2.4765463,-0.55797803,-0.71586543,0.41975844,0
-0.55095029,1.6596556,-0.38026452,0.096887529,0.98709381,0.12750942,0
-2.9200873,0.35319054,-0.62996626,-0.71511364,0.15814573,-0.68088359,0
2.9628997,-0.42040431,0.36323738,0.71511364,-0.15814573,0.68088359,0
0.017554283,-0.23593879,-2.2478611,0.59812522,-0.36565226,-0.71312314,0
-1.8179593,1.2488544,-1.6762559,-0.71511364,0.15814573,-0.68088359,0
1.7556024,0.9769069,-0.074560642,0.53907782,0.74485475,-0.39317489,0
-1.9030765,1.0698227,0.093155205,-0.48323876,0.59196472,0.64502549,0
1.4767354,-0.97901773,2.0671139,0.71511364,-0.15814573,0.68088359,0
-1.6447518,-0.58456969,-2.0949883,-0.71511364,0.15814573,-0.68088359,0
-1.8365628,0.21692824,-1.6184099,-0.71511364,0.15814573,-0.68088359,0
0.5529635,-0.28214979,3.011097,0.71511364,-0.15814573,0.68088359,0
-1.8536705,-0.98862231,0.069806337,-0.54723126,-0.73271459,0.40455794,0
-2.5109756,0.03493309,-0.78663349,-0.71511364,0.15814573,-0.68088359,0
1.3513683,-1.7310395,0.06326133,0.23127091,-0.86568356,-0.44396588,0
-0.82329518,-1.6162629,0.67981839,-0.50423956,-0.79130751,0.34579599,0
-2.0424342,-0.57026291,-1.82907,-0.71511364,0.15814573,-0.68088359,0
-2.4044425,-0.49651337,-1.1395308,-0.71511364,0.15814573,-0.68088359,0
0.71673727,-1.0274048,2.5097203,0.71511364,-0.15814573,0.68088359,0
0.23981452,-0.033088207,2.7339611,-0.66822398,0.13122216,0.73229599,0
2.1567049,-0.57128239,1.1976149,0.71511364,-0.15814573,0.68088359,0
-1.1029614,0.92571008,0.74100345,-0.54321104,0.48730844,0.68370473,0
1.7294605,-0.71903068,-0.81427431,0.63104534,-0.27290684,-0.72615665,0
0.53119838,-0.41932631,2.8621783,0.71511364,-0.15814573,0.68088359,0
-2.2086496,0.71314585,-1.4565649,-0.71511364,0.15814573,-0.68088359,0
-0.57119405,-0.28878248,1.7462076,-0.6955272,-0.063892812,0.7156533,0
0.63945764,-1.616629,2.3019249,-0.57543069,-0.68620253,0.44497824,0
-1.6027024,1.9618348,-1.5159273,-0.71511364,0.15814573,-0.68088359,0
0.60129428,-0.85497135,-1.5951661,0.52045888,-0.52977508,-0.66967231,0
-1.3348705,1.687408,0.1701622,-0.30846357,0.80270219,0.51041085,0
-0.60963267,1.4375986,0.46455342,-0.20442855,0.88416761,0.42006734,0
2.1858218,-0.48462951,1.4993074,0.71511364,-0.15814573,0.68088359,0
0.76824689,-1.9421223,0.47942626,0.038001001,-0.96383476,-0.26377684,0
-0.45089573,1.621092,-2.1009181,0.58035159,0.67726415,-0.45222259,0
-2.0073805,1.8137329,-1.176774,-0.71511364,0.15814573,-0.68088359,0
1.8366971,-2.0856748,1.3506325,0.71511364,-0.15814573,0.68088359,0
-0.4441942,-0.35968935,1.8767413,-0.69871694,-0.18983626,0.68975121,0
-1.5964681,-0.8164115,-2.012269,-0.71511364,0.15814573,-0.68088359,0
-1.1287836,0.20762229,-2.662796,-0.71511364,0.15814573,-0.68088359,0
-2.0584273,-0.38929796,-1.6323512,-0.71511364,0.15814573,-0.68088359,0
2.9277539,-0.49776554,0.30252898,0.71511364,-0.15814573,0.68088359,0
-0.56213021,1.2195346,1.4402869,-0.38414091,0.72488564,0.57181871,0
0.65605062,-1.875201,1.2817671,-0.3335464,-0.93322492,0.13355887,0
-0.039540291,1.0929224,-1.8444958,0.66127485,0.46876365,-0.5856415,0
1.0760682,0.44934773,2.6372268,0.71511364,-0.15814573,0.68088359,0
2.163295,0.8135252,1.4851125,0.71511364,-0.15814573,0.68088359,0
-2.4791579,0.49620199,-1.2366779,-0.71511364,0.15814573,-0.68088359,0
0.96412396,-1.1346719,2.6233616,0.71511364,-0.15814573,0.68088359,0
-0.47914791,-1.3270648,-1.5954177,0.23027861,-0.8663969,-0.44308937,0
0.082461983,1.7180724,-1.2823421,0.42689329,0.87012696,-0.24625421,0
0.96422577,1.2303531,-0.58749485,0.52532887,0.76417875,-0.37424648,0
-2.668354,-0.23255086,-0.86331868,-0.71511364,0.15814573,-0.68088359,0
-0.023473322,-1.8652723,-0.2840575,-0.099178761,-0.98717189,-0.125121,0
-1.4376042,1.0591613,-1.8795073,-0.71511364,0.15814573,-0.68088359,0
-0.25474679,1.616519,-1.8121816,0.47724009,0.82217693,-0.31026912,0
1.6286367,-0.13955021,1.9116335,0.71511364,-0.15814573,0.68088359,0
-2.477416,-0.91142511,-1.5696694,-0.71511364,0.15814573,-0.68088359,0
-1.7536747,0.093895063,0.60658252,-0.68059206,0.064591229,0.72980982,0
0.18405673,-1.7804465,0.47930551,-0.19993079,-0.97965264,-0.017557502,0
0.4066146,1.5901911,0.53884447,0.014408946,0.97719896,0.21183616,0
-2.08711,0.15652323,-1.5991305,-0.71511364,0.15814573,-0.68088359,0
-2.6721661,-0.11931086,-1.1528364,-0.71511364,0.15814573,-0.68088359,0
-1.3144969,0.43897414,-1.9141707,-0.71511364,0.15814573,-0.68088359,0
1.6313977,-0.34639645,1.8888922,0.71511364,-0.15814573,0.68088359,0
1.8073947,-1.0125093,1.2788179,0.71511364,-0.15814573,0.68088359,0
2.6742535,0.69683826,1.1840563,0.71511364,-0.15814573,0.68088359,0
-1.5384394,0.012469769,-2.0399792,-0.71511364,0.15814573,-0.68088359,0
-0.90902662,1.2910495,-2.4752429,-0.71511364,0.15814573,-0.68088359,0
-2.3150592,1.5147229,-0.65305233,-0.71511364,0.15814573,-0.68088359,0
0.10941446,-0.46347952,-1.9556055,0.59853762,-0.3646054,-0.71331304,0
1.2839882,-1.6465851,1.6934983,0.71511364,-0.15814573,0.68088359,0
-0.90453672,0.65835387,1.393638,-0.62761557,0.28358835,0.72503543,0
1.5949631,-0.20939302,1.9790391,0.71511364,-0.15814573,0.68088359,0
-1.0656657,-0.16563058,1.4714758,-0.6983335,-0.11884385,0.70583737,0
-1.3435272,0.39306402,-2.2620265,-0.71511364,0.15814573,-0.68088359,0
1.0931127,-1.0782839,-0.72928143,0.49796247,-0.56833661,-0.65500146,0
-1.4023869,0.62859178,-2.0804613,-0.71511364,0.15814573,-0.68088359,0
-2.4323173,0.056106091,-1.1347263,-0.71511364,0.15814573,-0.68088359,0
0.23143196,-1.5196381,1.4182792,-0.48387635,-0.81495792,0.31891584,0
1.1762285,-0.6876868,-0.96037334,0.54911536,-0.4756408,-0.68719584,0
-1.2847425,1.0048218,-2.2350104,-0.71511364,0.15814573,-0.68088359,0
-0.63773882,0.13967371,-2.7960892,0.66401452,-0.15064678,-0.73238659,0
-2.8159304,-0.39667237,-0.58958101,-0.71511364,0.15814573,-0.68088359,0
1.034816,-0.15440202,2.2973254,0.71511364,-0.15814573,0.68088359,0
0.81660283,0.42446268,-1.707954,0.69869494,0.19087338,-0.68948716,0
-1.5474846,-1.5640551,-1.0655131,-0.27945617,-0.9575218,0.071106076,0
1.2061636,1.1301235,1.859306,-0.093476057,0.94368649,0.31736112,0
0.87604898,-1.1922566,-0.95187151,0.47117984,-0.61045814,-0.63665569,0
-1.0778216,-1.0924791,0.93058252,-0.62004399,-0.59324533,0.51342511,0
-0.034387112,0.7377547,2.1031709,-0.57295322,0.42537534,0.70055723,0
-1.4640182,1.3542192,-1.9065928,-0.71511364,0.15814573,-0.68088359,0
-1.7219875,1.8775876,-1.639326,-0.71511364,0.15814573,-0.68088359,0
0.6326977,0.93374717,2.155067,-0.3489598,0.76323891,0.54377699,0
-1.42124,1.1750312,-2.0288286,-0.71511364,0.15814573,-0.68088359,0
0.40905261,1.6734289,1.3134271,-0.17939889,0.89992154,0.3974385,0
-2.4890738,-0.87582982,-1.04669,-0.71511364,0.15814573,-0.68088359,0
-0.5128659,-0.47243094,1.6748222,-0.69530427,-0.2610749,0.66962057,0
-1.701516,-1.3597435,-1.5922222,-0.21497907,-0.97661817,-0.0010478497,0
1.026947,-0.68978113,-1.3119704,0.62989432,-0.27652359,-0.72578782,0
-2.8452957,0.16248286,-0.55558252,-0.71511364,0.15814573,-0.68088359,0
0.2282449,1.5869365,1.1585648,-0.1806891,0.8991437,0.39861286,0
0.10992694,-1.7772858,1.7211889,-0.52837318,-0.76001799,0.37841022,0
-0.97588497,1.9227123,-1.5053413,0.29535455,0.95120788,-0.089270234,0
-2.471504,0.28746867,-0.93933201,-0.71511364,0.15814573,-0.68088359,0
2.1348462,-1.5261534,1.1776325,0.71511364,-0.15814573,0.68088359,0
1.1783899,0.90870786,2.3805361,-0.26202756,0.84239686,0.47086003,0
0.92547333,-1.9497223,0.73221755,-0.12738174,-0.98724377,-0.095517039,0
2.5030553,-1.0627993,0.65823191,0.71511364,-0.15814573,0.68088359,0
-1.1568825,1.7936813,-2.2232726,-0.71511364,0.15814573,-0.68088359,0
-2.3534875,-1.0798646,-1.6412224,-0.71511364,0.15814573,-0.68088359,0
0.33151674,1.1768547,1.6544299,-0.36610317,0.74504918,0.55755728,0
-1.9942255,1.4920418,-0.96926618,-0.71511364,0.15814573,-0.68088359,0
0.80058771,0.45642018,-1.6056788,0.69241458,0.29373908,-0.65899885,0
0.15890193,0.25328898,2.4455879,-0.60633343,0.34433624,0.716793,0
2.1689191,-1.2741983,1.2465143,0.71511364,-0.15814573,0.68088359,0
0.25246775,-1.1770196,2.4915102,-0.67747784,-0.39670041,0.61939698,0
-1.3487772,1.9016707,-1.9574298,-0.71511364,0.15814573,-0.68088359,0
0.80818641,-2.018404,0.22204006,0.011637807,-0.97124219,-0.23780882,0
-2.0937159,1.0725193,-1.1378083,-0.71511364,0.15814573,-0.68088359,0
-0.61027455,1.908728,0.18880057,-0.052978456,0.95900702,0.27838582,0
1.1416664,-1.1638076,2.4675207,0.71511364,-0.15814573,0.68088359,0
1.2800643,1.0461241,-0.98566175,0.61200827,0.61227435,-0.50056571,0
-2.4612124,-0.88811588,-1.3642933,-0.71511364,0.15814573,-0.68088359,0
-2.8562136,-0.018347383,-0.60026026,-0.71511364,0.15814573,-0.68088359,0
-1.5502498,0.92411137,-2.1011105,-0.71511364,0.15814573,-0.68088359,0
1.3557113,-1.7403357,-0.00983724,0.1983062,-0.88815123,-0.41456246,0
1.3827404,1.00182,-0.9005996,0.61777031,0.59875476,-0.50975746,0
-1.9186881,-0.98762035,0.20408416,-0.5701375,-0.6955229,0.43725407,0
0.80550885,-1.1625109,2.4029465,0.71511364,-0.15814573,0.68088359,0
-0.14914298,0.22335243,-2.626317,0.67149305,-0.11518297,-0.73200405,0
1.0932795,-0.83307624,2.5528467,0.71511364,-0.15814573,0.68088359,0
2.6295435,0.58545756,0.67614365,0.64326745,0.53005493,-0.5524931,0
1.0124704,-1.9945953,2.0686662,0.71511364,-0.15814573,0.68088359,0
2.3668022,-0.43181562,1.0616484,0.71511364,-0.15814573,0.68088359,0
2.6385865,0.063385367,0.11028337,0.69210529,0.29674658,-0.65797549,0
-1.27548,0.052298725,1.104002,-0.6783874,0.077833712,0.73056996,0
-2.4370463,1.9213417,-0.72245634,-0.71511364,0.15814573,-0.68088359,0
-1.4882795,-0.0068802834,-1.9774979,-0.71511364,0.15814573,-0.68088359,0
-0.83721966,-1.5297108,-0.090733051,-0.32407364,-0.93806911,0.12248468,0
-0.93395555,-0.061948061,-2.5803638,-0.71511364,0.15814573,-0.68088359,0
-0.95268011,0.6377368,-2.650454,-0.71511364,0.15814573,-0.68088359,0
0.38139808,-0.35891938,-1.848505,0.59866136,-0.36429071,-0.71337003,0
-0.56340057,-1.6747229,0.00041866302,-0.18621865,-0.98197073,-0.032497406,0
-1.7181994,-0.33322889,0.85837352,-0.69518459,-0.26264849,0.66912943,0
3.003747,-1.2595115,0.4816891,0.71511364,-0.15814573,0.68088359,0
-0.58659816,-0.29972172,-3.0932148,0.60108083,-0.35809466,-0.71447194,0
-0.11998975,-1.6286544,-0.73768961,0.059811473,-0.95665473,-0.28501612,0
0.3406691,-1.3340312,1.9314042,-0.5573715,-0.71684343,0.41889429,0
-0.080618352,-1.6850632,1.258605,-0.49332801,-0.80427057,0.3313247,0
-1.7827674,0.04798317,-1.7586763,-0.71511364,0.15814573,-0.68088359,0
-2.0366111,0.82756865,-1.1496273,-0.71511364,0.15814573,-0.68088359,0
-2.0945151,0.059200168,-1.1648097,-0.71511364,0.15814573,-0.68088359,0
0.10631621,0.9654249,1.6839477,-0.34416586,0.76816231,0.53988558,0
-0.82331586,1.1384518,-2.3388848,-0.71511364,0.15814573,-0.68088359,0
1.2865237,-0.57542515,2.2542419,0.71511364,-0.15814573,0.68088359,0
-1.5469682,1.6823999,-0.136592,-0.29805708,0.81209397,0.50166267,0
-0.42066312,0.89433819,1.4263277,-0.46145409,0.6248467,0.62978297,0
-0.019827247,1.9322701,0.020956635,0.13867521,0.98680687,0.083554268,0
1.9789639,0.40488911,1.6731017,0.71511364,-0.15814573,0.68088359,0
-1.5204535,0.85763729,0.72535342,-0.60189748,0.35598356,0.71483928,0
1.8939834,-2.069294,1.4674369,0.71511364,-0.15814573,0.68088359,0
0.15119982,-0.049074173,2.353055,-0.68060178,0.064531416,0.72980607,0
-2.3354728,-0.7797991,-1.5768154,-0.71511364,0.15814573,-0.68088359,0
1.7531271,0.16189432,2.089385,0.71511364,-0.15814573,0.68088359,0
1.4409719,-0.11377454,-0.82798058,0.68404222,-0.042158812,-0.72822309,0
1.6382833,1.3959634,1.2022061,0.20005411,0.97962987,0.017422676,0
-1.0684117,-0.93157876,0.90368295,-0.60659868,-0.62443131,0.49206048,0
-0.31828618,1.5650502,-2.0147672,0.54006505,0.74341285,-0.39454663,0
-1.0087633,-0.039516449,-2.6106732,-0.71511364,0.15814573,-0.68088359,0
0.59018981,0.74129534,-1.4899684,0.67732227,0.39751589,-0.61904395,0
-2.4494443,-0.97797227,-1.1594198,-0.71511364,0.15814573,-0.68088359,0
0.51163244,1.2539622,1.8212631,-0.30828279,0.80286795,0.51025951,0
1.0618249,1.4980576,0.42652488,0.27079123,0.96068627,-0.061270595,0
1.2705359,-2.0541825,1.5180705,-0.10174072,-0.98724627,-0.12244767,0
-0.95313746,-1.2968531,0.26671004,-0.48893681,-0.80929661,0.32554555,0
-1.1331193,-0.7350719,1.1479777,-0.65493798,-0.491983,0.57359302,0
0.14441341,-1.6306993,-0.36563838,0.084949017,-0.94718915,-0.30921894,0
1.0286818,-1.7662045,0.16515952,0.14958245,-0.91688514,-0.37006304,0
-1.5838825,-0.93210578,-2.3738074,-0.71511364,0.15814573,-0.68088359,0
0.36636811,1.2532113,-1.5715849,0.57025301,0.69532269,-0.43742204,0
-1.666662,-0.59516788,-2.2223063,-0.71511364,0.15814573,-0.68088359,0
-0.068764806,0.971403,-2.1228335,0.66821265,0.44059938,-0.59946972,0
-2.1160517,0.57280684,-1.5753999,-0.71511364,0.15814573,-0.68088359,0
-1.0521922,0.43538308,-2.2357314,-0.71511364,0.15814573,-0.68088359,0
0.16375852,-1.4750305,-1.195699,0.25840038,-0.84526354,-0.46771637,0
-1.8107884,1.2558157,-1.2802494,-0.71511364,0.15814573,-0.68088359,0
-2.2183032,1.1239271,-1.0862857,-0.71511364,0.15814573,-0.68088359,0
-0.77202916,0.99176884,-2.4306862,-0.71511364,0.15814573,-0.68088359,0
0.059578776,-1.0893676,-1.3948687,0.32630813,-0.78589821,-0.5252496,0
