2.2444577,-0.70377028,1.5069808,0.36322373,-0.7177214,0.59409142,0
2.4026079,2.7247603,-0.66124737,0.84698546,0.52002609,0.11040172,0
-3.4709768,-0.98185706,0.65684128,-0.84698546,-0.52002609,-0.11040172,0
0.74585742,2.8871796,0.010538816,-0.51869899,0.85388988,-0.042704105,0
-3.7374606,-0.86193323,1.0110972,-0.84698546,-0.52002609,-0.11040172,0
-2.7125287,-1.6106113,-1.8642873,-0.84698546,-0.52002609,-0.11040172,0
0.0092053637,-2.0192783,-1.0116158,0.51084286,-0.73865879,-0.43979853,0
-2.9927895,-2.0546589,0.75748324,-0.84698546,-0.52002609,-0.11040172,0
3.0232539,1.3203,1.5422421,0.84698546,0.52002609,0.11040172,0
1.6702826,1.9770073,-1.6671543,-0.16131365,0.44928652,-0.87870336,0
3.7473135,0.6861434,1.475325,0.84698546,0.52002609,0.11040172,0
3.0769291,1.1930535,0.85773194,0.84698546,0.52002609,0.11040172,0
-3.7168148,-1.1013291,0.25847268,-0.84698546,-0.52002609,-0.11040172,0
-1.9183356,-0.8899585,1.8281591,-0.1944074,0.10969475,0.97476816,0
-3.2358389,-1.1004043,-1.090239,-0.84698546,-0.52002609,-0.11040172,0
-1.3500425,-2.1979461,-1.86013,0.37183192,-0.43107527,-0.82214063,0
2.0754993,-0.71768779,1.3976711,0.38740283,-0.74597913,0.54169595,0
3.3185489,0.76805305,0.8173244,0.84698546,0.52002609,0.11040172,0
-2.4239886,-2.8622799,-1.2858727,-0.84698546,-0.52002609,-0.11040172,0
-3.3163109,-1.3575292,-0.03498292,-0.84698546,-0.52002609,-0.11040172,0
-3.2668927,-1.0763314,-2.3066916,-0.84698546,-0.52002609,-0.11040172,0
-3.4272807,-0.51259375,-1.1911811,-0.84698546,-0.52002609,-0.11040172,0
-2.0573657,1.0288427,-0.98891664,-0.44276953,0.8049916,-0.39489734,0
2.2622705,-0.16338813,1.9147996,0.21721649,-0.5280757,0.82094657,0
-3.8662171,-0.0065379143,-0.59862113,-0.84698546,-0.52002609,-0.11040172,0
-2.0696361,-3.2740293,-0.88626963,-0.84698546,-0.52002609,-0.11040172,0
4.0572872,0.084205627,0.62815595,0.84698546,0.52002609,0.11040172,0
2.7835832,2.1380701,0.41876209,0.84698546,0.52002609,0.11040172,0
-2.5732379,-2.1234479,-0.18888021,-0.84698546,-0.52002609,-0.11040172,0
-2.4864795,0.29534227,-1.4452765,-0.32012969,0.66471636,-0.67503279,0
0.62522018,1.8221593,-1.3069347,-0.26122332,0.58798605,-0.76552922,0
-2.7671082,-2.2857809,0.065818787,-0.84698546,-0.52002609,-0.11040172,0
-2.4221506,-2.7458797,-0.57867682,-0.84698546,-0.52002609,-0.11040172,0
-3.6417069,-0.59363103,0.22381377,-0.84698546,-0.52002609,-0.11040172,0
2.029537,0.39440775,-1.6496228,0.26634651,-0.23537144,-0.93469787,0
-3.1652999,-1.0611247,-1.3037856,-0.84698546,-0.52002609,-0.11040172,0
-0.17440534,-1.1389425,1.6269038,0.15972674,-0.44700968,0.8801533,0
2.4398279,-1.0477637,0.30313683,0.5040642,-0.85156894,0.14404738,0
-1.08903,-1.861623,-2.0841949,0.34579977,-0.38119262,-0.85738838,0
-0.15021801,2.2591057,-0.65720415,-0.45209479,0.81384492,-0.36505723,0
1.3797134,2.788311,-1.0413349,-0.37181097,0.72789466,-0.57613033,0
2.0797861,-0.97789466,-0.97830391,0.49900216,-0.70607173,-0.50245357,0
-3.2327194,-1.3730807,-0.099423885,-0.84698546,-0.52002609,-0.11040172,0
1.9889915,2.5414426,-1.2677944,-0.21042478,0.51865625,-0.82868397,0
-2.3759203,-2.9600506,0.28184494,-0.84698546,-0.52002609,-0.11040172,0
0.7396735,1.8103665,-1.3304527,-0.27617872,0.607871,-0.74445844,0
2.4971974,1.1026254,2.2818606,0.031165242,-0.25588566,0.96620464,0
-2.7635927,-2.883003,1.3315063,-0.84698546,-0.52002609,-0.11040172,0
3.1336663,1.7605145,-1.288576,0.84698546,0.52002609,0.11040172,0
-1.1690208,1.6310999,-0.66644549,-0.4402532,0.80253565,-0.40263343,0
-1.4964926,0.80326462,-1.1802729,-0.36587179,0.72087383,-0.58862448,0
-1.4993885,-2.574887,-1.8433123,0.39266154,-0.47196358,-0.78934622,0
2.918241,2.1721373,0.10864198,0.84698546,0.52002609,0.11040172,0
1.8232098,-1.1121075,0.42160225,0.49574116,-0.84760463,0.1892277,0
-2.6227622,-1.0226228,1.7104793,-0.21196598,0.13989711,0.96721214,0
2.8725142,2.1733453,0.086689472,0.84698546,0.52002609,0.11040172,0
-0.41009423,-2.2533834,-1.3118656,0.47577772,-0.64884573,-0.59383082,0
-2.6105895,-2.7630916,1.1760848,-0.84698546,-0.52002609,-0.11040172,0
3.8138969,0.90489888,-0.90468431,0.84698546,0.52002609,0.11040172,0
-2.0218394,-3.5470555,-0.28703204,-0.84698546,-0.52002609,-0.11040172,0
-0.28491974,0.76092756,-1.8500299,-0.071106672,0.31662524,-0.94588184,0
-2.0017517,-0.36004829,1.7195431,-0.29110271,0.27991134,0.91482723,0
3.6176291,1.2935505,-0.7158699,0.84698546,0.52002609,0.11040172,0
-0.068689704,2.3611274,0.040952444,-0.52623725,0.84960419,0.035315335,0
-1.1774857,-2.3473482,-1.5381894,0.45524555,-0.60225326,-0.65577632,0
-2.4327168,-2.2820742,-0.51773,-0.84698546,-0.52002609,-0.11040172,0
0.33736092,-1.8423748,-0.57230771,0.52562582,-0.78809565,-0.32034814,0
2.8406882,1.9539435,0.75862032,0.84698546,0.52002609,0.11040172,0
-1.9610651,-1.3319404,-2.2855821,0.080523491,0.079780519,-0.99355483,0
-2.251318,-2.9261556,0.96838355,-0.84698546,-0.52002609,-0.11040172,0
-3.4323175,-1.1296145,-0.90811145,-0.84698546,-0.52002609,-0.11040172,0
-2.3669508,-2.0350666,1.6032704,0.026541829,-0.24877813,0.96819687,0
-2.8879702,-1.564944,-1.4238554,-0.84698546,-0.52002609,-0.11040172,0
-0.43200922,-1.7754383,1.4365875,0.30924147,-0.65087152,0.69335139,0
1.9767594,3.4515138,0.92735004,-0.52898204,0.80376679,0.27228111,0
-3.7514677,-0.7462635,-0.31489325,-0.84698546,-0.52002609,-0.11040172,0
3.2580643,-0.54199588,0.6926682,0.4998982,-0.84974706,0.16742671,0
2.8631117,1.4310915,1.3847387,0.84698546,0.52002609,0.11040172,0
-3.0852344,-1.6436479,1.5096741,-0.84698546,-0.52002609,-0.11040172,0
1.7197946,1.7381566,2.146163,-0.28117609,0.26196399,0.92320895,0
-0.048839152,1.3993542,1.5696228,-0.36860749,0.42482764,0.82683146,0
-2.7504637,-1.8090861,-2.1951261,-0.84698546,-0.52002609,-0.11040172,0
-3.4388678,0.033613205,-0.19370127,-0.52850783,0.84610009,0.069240153,0
3.4345098,1.6534948,-0.9585048,0.84698546,0.52002609,0.11040172,0
-2.9445815,-1.6501845,-0.17425478,-0.84698546,-0.52002609,-0.11040172,0
2.3258662,2.8531165,1.39695,0.84698546,0.52002609,0.11040172,0
0.087442517,0.49742961,2.0133495,-0.22141236,0.15626654,0.96257854,0
-0.54573071,-1.8019253,1.3766496,0.30431044,-0.64454776,0.70139396,0
2.5181265,-0.60965067,1.3217746,0.39176828,-0.75094593,0.53159952,0
1.6290125,3.1924913,1.1143457,-0.51640439,0.75548857,0.4031918,0
-3.5820105,-0.76605153,-1.2829224,-0.84698546,-0.52002609,-0.11040172,0
-0.5480988,0.91729605,-1.6563215,-0.21293759,0.52214646,-0.82584554,0
1.9943877,3.4410028,0.82092685,0.84698546,0.52002609,0.11040172,0
-0.23595405,2.0116086,-0.40245152,-0.46371555,0.82425201,-0.32492572,0
1.9222264,-0.047517776,-1.4483297,0.37139997,-0.43023711,-0.82277477,0
2.4388099,2.814847,-0.89184809,0.84698546,0.52002609,0.11040172,0
-0.88297844,-1.2492244,-2.1767473,0.22489923,-0.16233078,-0.96076488,0
-2.6608491,0.60430789,0.95126581,-0.50290573,0.71645105,0.48351198,0
-1.054913,-0.43119502,-2.2302499,0.084209085,0.073810875,-0.9937107,0
1.9436245,2.8656263,-0.79634416,-0.35961479,0.71340382,-0.60144186,0
3.5536795,1.6048722,-1.4154226,0.84698546,0.52002609,0.11040172,0
-0.72525215,-1.6027893,-2.0891221,0.30929846,-0.31313413,-0.89793193,0
2.3303609,2.7676973,-0.63395119,0.84698546,0.52002609,0.11040172,0
0.55232978,-2.1555264,-0.58000493,0.53049964,-0.81332707,-0.2388919,0
2.4886436,1.7366347,-1.5173179,0.051615,0.12624913,-0.99065495,0
3.2237291,-0.45511162,0.84333658,0.49592683,-0.84770644,0.18828321,0
-1.7931148,-0.29229683,-2.0116563,-0.12545848,0.39733231,-0.90905845,0
-0.89321303,-1.5919905,-2.0242901,0.28604525,-0.27075231,-0.91916883,0
1.2420561,-0.3812052,-1.4884224,0.34641144,-0.38235101,-0.8566252,0
2.3244724,3.1513829,-0.176906,0.84698546,0.52002609,0.11040172,0
3.1909871,1.1100731,0.55985391,0.84698546,0.52002609,0.11040172,0
1.6544224,3.0568831,-0.61848366,-0.38018334,0.7376703,-0.55794555,0
-0.41520405,1.75255,-0.86425149,-0.43018454,0.79245323,-0.43238789,0
-0.3708322,-0.27089718,-2.1691918,0.15031505,-0.03506726,-0.98801607,0
-0.0069618225,2.0665865,-0.90226954,-0.42196655,0.78394896,-0.45537734,0
-0.20791602,2.2096086,-0.13672483,-0.51763749,0.85404432,-0.051575005,0
3.8376296,0.36845303,0.89572787,0.84698546,0.52002609,0.11040172,0
2.4715266,2.6638684,1.4766927,0.84698546,0.52002609,0.11040172,0
-1.9744771,0.40427864,1.3715589,-0.41091311,0.50864422,0.75659204,0
2.3463163,-0.36906499,1.4815434,0.3664825,-0.72159898,0.58735466,0
-2.9543891,-1.8561764,1.4074847,-0.84698546,-0.52002609,-0.11040172,0
-3.0170414,-1.6850709,0.19288146,-0.84698546,-0.52002609,-0.11040172,0
3.5345256,0.47013414,1.4532214,0.84698546,0.52002609,0.11040172,0
-3.0510602,-2.0439599,-0.14969969,-0.84698546,-0.52002609,-0.11040172,0
3.3069453,1.4429932,-1.2669488,0.84698546,0.52002609,0.11040172,0
0.55518734,-1.2699192,-1.3134685,0.44324276,-0.57613063,-0.68673819,0
-3.0084636,-1.3920028,-1.5872407,-0.84698546,-0.52002609,-0.11040172,0
2.179106,3.0692403,0.53517973,0.84698546,0.52002609,0.11040172,0
0.29299861,-1.5316544,-1.1733437,0.46301857,-0.61957204,-0.63383305,0
-2.2116153,-2.8377275,0.053756624,-0.84698546,-0.52002609,-0.11040172,0
-3.4754477,-0.071701527,-0.97078896,-0.43978989,0.80208051,-0.40404445,0
-2.7476666,-2.7285151,0.58455765,-0.84698546,-0.52002609,-0.11040172,0
-2.8474722,-2.1683922,0.44863868,-0.84698546,-0.52002609,-0.11040172,0
-3.1027851,0.437163,0.45325351,-0.51090097,0.7388283,0.43944621,0
1.9937108,-0.82620287,1.0767026,0.45129323,-0.81310028,0.36769909,0
-0.42235565,1.0700507,-1.5696864,-0.25545061,0.58024311,-0.77334541,0
-0.22113323,-0.20476639,1.9897425,-0.093624234,-0.058513343,0.99388677,0
3.7457242,0.15604305,-0.44902635,0.50783575,-0.73004091,-0.45732182,0
3.1204412,1.7534027,-0.95155835,0.84698546,0.52002609,0.11040172,0
2.7483995,1.856492,0.85522896,0.84698546,0.52002609,0.11040172,0
-3.5367782,-1.4908795,0.73404408,-0.84698546,-0.52002609,-0.11040172,0
-0.72111583,0.17782575,-2.0834093,-0.025812626,0.24765584,-0.96850419,0
2.1250582,3.3813553,0.12781173,0.84698546,0.52002609,0.11040172,0
-1.8873212,-3.2992725,0.050247818,-0.84698546,-0.52002609,-0.11040172,0
-3.0889189,-1.5492729,-0.37739062,-0.84698546,-0.52002609,-0.11040172,0
0.028138161,1.2214222,1.6893204,-0.37175128,0.43091875,0.82225925,0
2.3781199,2.0366139,2.4436455,0.84698546,0.52002609,0.11040172,0
2.6542211,2.1030788,-0.024709582,0.84698546,0.52002609,0.11040172,0
-1.2255028,-1.5172912,-2.0542207,0.22342265,-0.15976128,-0.96153986,0
3.0600157,1.5273204,-0.729527,0.84698546,0.52002609,0.11040172,0
0.2876007,2.1133151,1.3174002,-0.46603271,0.62638545,0.62486392,0
-2.5150523,-2.6651542,0.58617586,-0.84698546,-0.52002609,-0.11040172,0
-1.8782744,-3.3654079,-0.054026753,-0.84698546,-0.52002609,-0.11040172,0
-2.7464447,0.46886706,0.4555397,-0.52033782,0.76839244,0.37258762,0
-0.94159359,1.335574,0.61052215,-0.51626873,0.75506091,0.40416563,0
3.621573,1.1475937,0.12047505,0.84698546,0.52002609,0.11040172,0
3.1886411,1.8177283,-1.3066807,0.84698546,0.52002609,0.11040172,0
3.6794298,0.38365388,0.41719127,0.84698546,0.52002609,0.11040172,0
-1.4742758,-3.0171402,-0.37649295,0.52862132,-0.84586495,-0.071218073,0
2.5771158,2.5561795,0.49799237,0.84698546,0.52002609,0.11040172,0
3.4329789,1.2183225,-0.7049098,0.84698546,0.52002609,0.11040172,0
-3.1514988,-1.8316977,0.9467119,-0.84698546,-0.52002609,-0.11040172,0
2.9750686,1.8086934,-1.7946495,0.063846111,0.1066651,-0.99224311,0
-1.5725622,0.72579038,-1.7451818,-0.29232359,0.62904108,-0.72031546,0
-0.038519263,-1.7844391,-1.6784272,0.44428346,-0.57836884,-0.68417972,0
-2.8962817,-1.4008683,-1.9467092,-0.84698546,-0.52002609,-0.11040172,0
-1.9839923,0.10162473,1.4670213,-0.3994489,0.48550314,0.77764213,0
1.5263939,3.1866367,0.3440159,-0.52429706,0.85145491,0.011713207,0
-0.77151871,1.6112944,-0.9315396,-0.41292018,0.77433282,-0.47948483,0
2.316546,2.847043,1.7916934,0.84698546,0.52002609,0.11040172,0
0.89525092,-1.6639137,1.173717,0.40545666,-0.76621675,0.4985148,0
-2.6789062,-2.190979,0.20621204,-0.84698546,-0.52002609,-0.11040172,0
0.93218851,-0.95758343,1.6232483,0.2805081,-0.61357898,0.73813021,0
-2.8020051,-2.2756617,0.39688718,-0.84698546,-0.52002609,-0.11040172,0
2.8155651,2.4533086,-0.39323688,0.84698546,0.52002609,0.11040172,0
0.56633717,2.7033184,0.27130747,-0.51756024,0.85405266,-0.052207232,0
2.4218946,2.3091493,0.48705637,0.84698546,0.52002609,0.11040172,0
1.8965709,3.388308,0.32716131,0.84698546,0.52002609,0.11040172,0
-2.9598296,-1.4305761,-0.70186317,-0.84698546,-0.52002609,-0.11040172,0
-1.3756212,-0.48757112,1.7129674,-0.15104932,0.036296397,0.98785973,0
3.3464947,1.637455,-0.042010546,0.84698546,0.52002609,0.11040172,0
-2.8538358,0.69278145,0.38694143,-0.52645606,0.79161304,0.31014985,0
1.7282183,2.6580031,1.6635588,-0.41202337,0.51090473,0.75446218,0
-3.14486,-2.2372947,1.3079191,-0.84698546,-0.52002609,-0.11040172,0
1.4256757,3.2936051,0.57725811,-0.52625138,0.84958774,0.035501003,0
0.038712502,-0.43962842,1.810277,-0.027675509,-0.16425818,0.98602909,0
1.4751815,-1.3856063,0.38687861,0.5088324,-0.85315698,0.11494678,0
2.8208508,2.3676312,-1.5320137,-0.035229683,0.26212078,-0.96439189,0
-0.060017228,-1.0859659,-1.8662705,0.34677973,-0.38304865,-0.85616446,0
-2.879581,-1.7340086,0.17180109,-0.84698546,-0.52002609,-0.11040172,0
-3.4489076,-1.3827806,1.3075829,-0.84698546,-0.52002609,-0.11040172,0
-1.3497998,-1.4140825,1.7299739,0.066056371,-0.30901086,0.94876182,0
-3.8209705,-0.59254861,-1.2988291,-0.84698546,-0.52002609,-0.11040172,0
0.19474864,0.53925371,1.869444,-0.18318456,0.090538263,0.97890055,0
-0.83828366,1.4745991,-0.73938227,-0.43525612,0.79758096,-0.41763246,0
2.3247263,-1.0349195,-0.36388922,0.53160584,-0.82980108,-0.16978073,0
-1.8664489,-3.3548131,-0.56385332,-0.84698546,-0.52002609,-0.11040172,0
-1.0542309,-2.9106727,-1.1038615,0.5148192,-0.75055134,-0.41428721,0
-3.5710697,-0.40606117,-1.1841502,-0.84698546,-0.52002609,-0.11040172,0
2.260803,3.3138692,-0.54376024,0.84698546,0.52002609,0.11040172,0
-2.2477589,0.85919499,0.5916853,-0.52755523,0.79657108,0.2952289,0
-2.0510287,-3.3350737,-0.86475974,-0.84698546,-0.52002609,-0.11040172,0
3.4932649,0.90264583,-0.24848866,0.84698546,0.52002609,0.11040172,0
2.4329355,3.1148403,0.039094865,0.84698546,0.52002609,0.11040172,0
-3.0965147,-1.612227,0.65790033,-0.84698546,-0.52002609,-0.11040172,0
-3.7533073,-0.44595885,-0.21181607,-0.84698546,-0.52002609,-0.11040172,0
-3.5636659,-1.2487183,1.0050862,-0.84698546,-0.52002609,-0.11040172,0
-0.52126074,-1.725929,-1.7280357,0.42096785,-0.52925056,-0.73666811,0
-0.99438739,0.52464896,1.5099621,-0.36932534,0.42621672,0.82579559,0
-2.4961228,-2.1381226,-1.3414204,-0.84698546,-0.52002609,-0.11040172,0
3.6121285,-0.24270439,0.5061388,0.50415492,-0.85160446,0.14351892,0
3.1309953,2.0372322,-0.62952304,0.84698546,0.52002609,0.11040172,0
0.55331445,0.97267008,2.1815963,-0.18452007,0.092812091,0.97843665,0
-2.564244,-2.2834945,-0.32506514,-0.84698546,-0.52002609,-0.11040172,0
-2.3703086,0.44751954,0.77164602,-0.51447266,0.74948812,0.41663611,0
0.29825523,-2.0331068,-0.42210662,0.52991736,-0.84246135,-0.09719342,0
3.0845213,2.3742247,-1.5561581,0.84698546,0.52002609,0.11040172,0
3.6928163,0.74672246,-0.74973083,0.84698546,0.52002609,0.11040172,0
-3.2594602,-0.21004903,-1.4252,-0.3964656,0.75623953,-0.52049685,0
2.3148174,2.5410533,0.65538943,0.84698546,0.52002609,0.11040172,0
-0.20728841,1.9693277,0.52713156,-0.53156942,0.83120143,0.16290563,0
0.2626096,-2.1200011,-0.019829512,0.50802386,-0.85293108,0.1200853,0
-3.329329,0.47599077,-0.28326702,-0.51982248,0.8536402,-0.032909274,0
-3.8072765,-1.1508904,1.1627555,-0.84698546,-0.52002609,-0.11040172,0
-4.0632753,-0.32742691,0.29176164,-0.52900738,0.80390513,0.27182347,0
-1.7846197,1.0691808,0.39746904,-0.53000647,0.80986273,0.25142705,0
3.7450771,0.88013935,-0.76680517,0.84698546,0.52002609,0.11040172,0
-3.6842644,-0.71350539,-1.8674527,-0.84698546,-0.52002609,-0.11040172,0
-2.1241491,-0.27252662,1.3956416,-0.32298595,0.33842188,0.88382739,0
2.5365989,2.7410145,-1.2619175,-0.20641124,0.51306963,-0.83315909,0
1.4994472,1.3512938,2.1519852,-0.18140274,0.087507367,0.9795078,0
-2.3537846,-2.648972,-1.4699335,-0.84698546,-0.52002609,-0.11040172,0
-3.0167754,-1.5684355,-2.1558568,-0.84698546,-0.52002609,-0.11040172,0
2.4555163,2.756454,0.90873122,0.84698546,0.52002609,0.11040172,0
-1.826455,0.73928237,-1.4084262,-0.36091018,0.71495658,-0.59881639,0
3.4385777,-0.14356637,1.2449601,0.4063257,-0.76716983,0.49633655,0
3.263721,1.2678356,-1.3970673,0.26127547,-0.22633594,-0.93835348,0
-1.7745109,-3.2604532,0.010201603,0.48362535,-0.83995366,0.24613941,0
1.4217103,1.5352387,1.9577444,-0.24000257,0.18873811,0.95224828,0
0.93092883,0.25107384,-2.0181348,0.13397539,-0.0078307092,-0.99095374,0
-3.9321213,-0.42396474,0.94020414,-0.45821077,0.60881919,0.64759731,0
-1.6397227,-0.37515485,1.7472376,-0.20796931,0.13299718,0.96905136,0
3.0159066,1.7767813,1.1002454,0.84698546,0.52002609,0.11040172,0
3.977941,0.5265758,-0.0055837631,0.84698546,0.52002609,0.11040172,0
-0.87353897,1.7739511,0.28938651,-0.53146571,0.83322674,0.15256971,0
-2.4447606,-2.9057906,-0.21426558,-0.84698546,-0.52002609,-0.11040172,0
3.2091329,1.2702709,0.52099216,0.84698546,0.52002609,0.11040172,0
0.35377359,2.0062997,-1.4450803,-0.28032082,0.61333263,-0.73840606,0
-3.1726229,-1.422137,-1.496171,-0.84698546,-0.52002609,-0.11040172,0
-3.1781807,-0.9130547,-1.859575,-0.84698546,-0.52002609,-0.11040172,0
2.4246356,2.1114407,-1.4972236,-0.0018006563,0.21047714,-0.97759724,0
2.1188025,3.4625227,0.73767561,0.84698546,0.52002609,0.11040172,0
-3.2266293,-1.1611915,1.4782307,-0.2455458,0.1984888,0.94884646,0
-2.6510787,-2.4399805,0.11156148,-0.84698546,-0.52002609,-0.11040172,0
2.6424773,2.1039214,1.8000195,0.84698546,0.52002609,0.11040172,0
2.9225495,1.6280996,0.748263,0.84698546,0.52002609,0.11040172,0
-4.0026932,-0.55854225,-0.15298724,-0.84698546,-0.52002609,-0.11040172,0
-3.6104312,-0.47780633,-0.97083688,-0.84698546,-0.52002609,-0.11040172,0
3.6959162,0.76723909,0.73949313,0.84698546,0.52002609,0.11040172,0
2.6126146,-0.67020416,0.29700232,0.52739602,-0.8480581,-0.051487744,0
-2.9689379,-0.84290242,1.3998898,-0.33043516,0.35229859,0.87561321,0
-2.1418962,1.1986532,0.081133842,-0.53145969,0.8232379,0.19957477,0
2.2653012,2.9045105,1.3655965,0.84698546,0.52002609,0.11040172,0
2.7797608,0.74187648,2.0911922,0.15702009,-0.44312143,0.88260317,0
2.4823403,2.3237739,-0.079088032,0.84698546,0.52002609,0.11040172,0
-3.8505147,-0.40989399,-0.77105808,-0.84698546,-0.52002609,-0.11040172,0
-1.4257424,-1.0804169,-2.2380137,0.10839039,0.034384102,-0.99351364,0
-0.38236737,-0.92087805,1.6128778,0.10793269,-0.37155914,0.92211413,0
-3.0666909,-1.5803697,-2.1696005,-0.84698546,-0.52002609,-0.11040172,0
3.5763736,0.90757608,1.5506634,0.84698546,0.52002609,0.11040172,0
3.1530323,0.41127002,1.8172202,0.31856036,-0.66273147,0.6777215,0
-2.6838949,-1.8843579,1.6192782,-0.080245972,-0.0802297,0.99354106,0
0.14121526,2.2780409,1.0260601,-0.50066423,0.71045458,0.49456018,0
0.11346185,-0.52170753,-1.8981434,0.18183321,-0.088239402,-0.97936231,0
-2.3905134,-3.0483809,0.73534775,-0.84698546,-0.52002609,-0.11040172,0
3.1722937,1.4161067,1.2979157,0.84698546,0.52002609,0.11040172,0
4.0752316,0.30337477,0.17628932,0.84698546,0.52002609,0.11040172,0
-3.4893234,-0.97779751,0.86237144,-0.84698546,-0.52002609,-0.11040172,0
3.5528321,0.35443783,1.0662408,0.84698546,0.52002609,0.11040172,0
-1.7573076,-2.5723271,-1.8574716,0.39200512,-0.47066003,-0.79044998,0
-1.6680942,1.0513152,-1.3304011,-0.35975814,0.7135759,-0.60115194,0
3.4695151,0.94780993,-1.1603339,0.37470865,-0.43666682,-0.81787258,0
3.1081102,1.7382107,-1.0829812,0.84698546,0.52002609,0.11040172,0
0.54591835,1.2957263,2.0534837,-0.29788703,0.29224804,0.90876544,0
-1.6534424,1.2806357,-0.15351725,-0.51364249,0.85405195,-0.082260132,0
-2.4893785,-2.2870362,-0.46256363,-0.84698546,-0.52002609,-0.11040172,0
-3.3980334,-0.76491117,1.3198543,-0.34728929,0.38401419,0.85552508,0
0.59139764,1.8510141,1.4403981,-0.4457081,0.58144063,0.68064016,0
2.1570883,2.8516715,1.7403038,0.84698546,0.52002609,0.11040172,0
0.87339783,2.7734644,-0.62496984,-0.45465231,0.81619912,-0.35652536,0
2.5166423,3.0359826,-0.62236983,0.84698546,0.52002609,0.11040172,0
0.8001523,-1.7341172,0.82554495,0.4554494,-0.81692588,0.35383302,0
-1.9106975,-3.136488,0.7908349,0.35754675,-0.71091896,0.60560274,0
-1.2441164,0.52988428,1.3629971,-0.38251615,0.45192933,0.80587924,0
2.3081858,2.9201927,0.19076143,0.84698546,0.52002609,0.11040172,0
-3.0510278,-1.4265957,-1.8925132,-0.84698546,-0.52002609,-0.11040172,0
2.2500646,3.3498645,-0.60119128,0.84698546,0.52002609,0.11040172,0
-0.81625307,-2.5759683,0.59224451,0.44705021,-0.80910587,0.38143665,0
2.1709991,3.2356429,-0.63159513,-0.37313145,0.72944605,-0.57330763,0
2.3177695,2.5392189,1.7004645,0.84698546,0.52002609,0.11040172,0
3.8685787,0.57171965,0.79438424,0.84698546,0.52002609,0.11040172,0
-2.1118753,0.62828195,-1.130749,-0.41380298,0.7752822,-0.47718427,0
2.4322288,2.1070962,1.6394391,0.84698546,0.52002609,0.11040172,0
-4.1416392,-0.27103114,0.54705906,-0.52000713,0.76726454,0.37536353,0
-3.6763897,-0.35795736,-0.045084715,-0.84698546,-0.52002609,-0.11040172,0
-2.3117628,-2.486383,-1.2684739,-0.84698546,-0.52002609,-0.11040172,0
3.9310992,0.3929441,0.15452909,0.84698546,0.52002609,0.11040172,0
1.9045827,3.0850363,0.76473069,0.84698546,0.52002609,0.11040172,0
-3.3981514,-1.1124735,-2.1657453,-0.84698546,-0.52002609,-0.11040172,0
-0.30233479,-0.24885434,2.0791683,-0.097617626,-0.052004427,0.99386442,0
-2.2208953,0.68038273,-0.49108171,-0.48508316,0.8409667,-0.23972785,0
-3.4531269,-0.79617119,-0.73670197,-0.84698546,-0.52002609,-0.11040172,0
-1.1897106,-1.8760082,1.75721,0.14787877,-0.42994368,0.89066291,0
3.1815529,1.7919078,-0.095924973,0.84698546,0.52002609,0.11040172,0
2.772136,2.1126633,-0.026528358,0.84698546,0.52002609,0.11040172,0
2.0185547,-0.28088188,-1.2481273,0.4312897,-0.55074477,-0.71461135,0
-1.5497208,1.2826035,-0.54965484,-0.47122878,0.83053893,-0.2968986,0
-0.33110702,-2.150908,-1.1830764,0.48649502,-0.6744715,-0.55534768,0
0.75598878,2.6994915,0.25826478,-0.52783793,0.84734684,0.058228076,0
2.4871299,2.8541241,0.28022641,0.84698546,0.52002609,0.11040172,0
-3.6760166,0.20624876,-0.39758492,-0.52387357,0.85176742,0.0069923401,0
1.2404081,1.0854493,-1.9603622,0.0098553896,0.19227681,-0.98129129,0
3.5422196,1.2569239,-1.3013558,0.84698546,0.52002609,0.11040172,0
3.177938,1.0240928,2.1518717,0.84698546,0.52002609,0.11040172,0
0.76468039,1.0646625,2.0703597,-0.21362197,0.1427606,0.96642911,0
2.6481326,2.575707,0.4870688,0.84698546,0.52002609,0.11040172,0
0.95564324,-1.4077139,-1.0133919,0.51339442,-0.74621558,-0.42377883,0
-3.0018032,0.17465067,-1.197777,-0.43153375,0.7938267,-0.42850661,0
2.9736426,-0.3130753,0.21148419,0.53089184,-0.83822858,-0.12460679,0
2.0768342,2.8494678,1.053308,0.84698546,0.52002609,0.11040172,0
-3.2546575,-1.7405381,1.1889143,-0.84698546,-0.52002609,-0.11040172,0
-1.5232493,-1.021709,-2.2393575,0.15070283,-0.035716593,-0.98793375,0
3.4705167,0.94541585,1.0998679,0.84698546,0.52002609,0.11040172,0
2.8930883,1.5323746,2.3559813,0.84698546,0.52002609,0.11040172,0
-2.8611002,-2.3720098,0.34633958,-0.84698546,-0.52002609,-0.11040172,0
3.6415656,0.75428677,0.47852659,0.84698546,0.52002609,0.11040172,0
3.9102035,0.30344033,-0.47309661,0.84698546,0.52002609,0.11040172,0
2.5967698,1.7312847,2.1595843,0.84698546,0.52002609,0.11040172,0
3.2671952,1.1867769,-0.31408548,0.84698546,0.52002609,0.11040172,0
-0.31120187,1.9118195,1.3711423,-0.47680193,0.65124899,0.59036839,0
1.0341657,-1.059891,1.1169229,0.35938609,-0.71312952,0.60190374,0
-3.1048443,-1.3421458,-0.85903203,-0.84698546,-0.52002609,-0.11040172,0
0.13884938,-1.5477996,-1.4967022,0.41502759,-0.51703948,-0.7486136,0
2.5661364,2.7032576,0.14842635,0.84698546,0.52002609,0.11040172,0
0.2652204,-1.8909832,0.68542355,0.42970383,-0.79196239,0.43376309,0
1.9819499,2.3577976,-1.3668909,-0.19232571,0.49334362,-0.848306,0
-3.0402856,-1.3219213,-1.7394314,-0.84698546,-0.52002609,-0.11040172,0
-1.5318471,0.89109951,1.1499484,-0.46474481,0.62346703,0.62872988,0
-2.1525939,-3.1531992,-0.34880096,-0.84698546,-0.52002609,-0.11040172,0
2.6320183,2.5072784,-0.56426626,0.84698546,0.52002609,0.11040172,0
2.1816542,2.6054571,1.8434699,0.84698546,0.52002609,0.11040172,0
-2.6771185,-2.5779486,1.3732988,-0.84698546,-0.52002609,-0.11040172,0
3.8191905,-0.10689044,0.47331023,0.50671494,-0.85252571,0.12821847,0
-1.308857,-1.8146856,-1.9426928,0.35291648,-0.3947081,-0.84832507,0
1.889431,-0.0014797449,-1.6689767,0.30619687,-0.30744034,-0.90095723,0
2.7719464,2.2697806,1.1678619,0.84698546,0.52002609,0.11040172,0
-2.0559382,-3.2295518,0.29113811,-0.84698546,-0.52002609,-0.11040172,0
2.050072,3.206449,-0.46893841,0.84698546,0.52002609,0.11040172,0
1.2439644,-0.50681794,-1.6275251,0.36592221,-0.41964042,-0.83066416,0
2.7559702,2.1474288,-0.65371692,0.84698546,0.52002609,0.11040172,0
-3.1190765,-1.1628145,-1.0441236,-0.84698546,-0.52002609,-0.11040172,0
-2.6188955,-2.6734824,0.67439044,-0.84698546,-0.52002609,-0.11040172,0
-0.66101122,-1.5350263,-1.9770305,0.32161039,-0.33586854,-0.88530171,0
-2.5153925,-2.1382537,-1.3182669,-0.84698546,-0.52002609,-0.11040172,0
-2.4584928,-1.8995469,-2.1541429,-0.84698546,-0.52002609,-0.11040172,0
-2.1718602,-2.9904778,-0.82858038,-0.84698546,-0.52002609,-0.11040172,0
3.3199944,1.7675905,-0.39952135,0.84698546,0.52002609,0.11040172,0
2.6692052,2.0281715,0.56637466,0.84698546,0.52002609,0.11040172,0
2.5436664,2.2500508,1.9277747,0.84698546,0.52002609,0.11040172,0
-2.162581,0.59484172,-1.550161,-0.32876164,0.67557132,-0.65993905,0
-2.2018209,-2.4635019,-1.4947189,-0.84698546,-0.52002609,-0.11040172,0
-3.3895602,-0.85829067,-1.9523367,-0.23555839,0.55328822,-0.79898977,0
-1.4729183,1.4338166,0.3296001,-0.53150856,0.82417381,0.19554073,0
-2.8744125,-2.2099597,1.6626408,0.039138317,-0.2681053,0.96259433,0
-3.0212488,-0.18961334,-1.5907894,-0.30704969,0.64806473,-0.69694531,0
-0.53499436,-0.62379098,2.0546877,-0.061159015,-0.11097744,0.99193943,0
-2.1467533,-3.3013592,-1.2472793,-0.84698546,-0.52002609,-0.11040172,0
-3.4068823,-1.4692509,0.94691384,-0.84698546,-0.52002609,-0.11040172,0
-3.5447395,-0.061312914,-0.047041178,-0.53095734,0.83782947,0.12698919,0
0.80065823,-1.0241886,-1.7487202,0.38683507,-0.46042922,-0.79897654,0
-2.8124864,-2.3730433,1.0255238,-0.84698546,-0.52002609,-0.11040172,0
3.3738706,-0.069981098,-0.24665618,0.53144234,-0.82293773,-0.20085508,0
1.4626563,2.4190955,1.8190069,-0.37853223,0.44412524,0.8120752,0
-3.1800857,-1.6850998,0.85674143,-0.84698546,-0.52002609,-0.11040172,0
-3.3695052,-0.83256006,-1.9858166,-0.84698546,-0.52002609,-0.11040172,0
-0.67283756,2.0800607,0.25485408,-0.53155565,0.82529283,0.19063127,0
2.9512086,2.1718845,-1.014374,0.84698546,0.52002609,0.11040172,0
2.0562747,3.2891016,-0.45138112,-0.40787482,0.7688635,-0.49242991,0
-2.5485847,-2.5393777,1.0815744,-0.84698546,-0.52002609,-0.11040172,0
-1.573912,0.29481101,1.4352829,-0.39177144,0.47019622,0.79084176,0
3.5615592,0.67304635,1.2063407,0.84698546,0.52002609,0.11040172,0
3.5427096,0.65043759,0.070587397,0.84698546,0.52002609,0.11040172,0
2.0064516,-0.81578565,0.59977531,0.48418522,-0.84034532,0.24368942,0
0.034591436,1.2275401,-1.6729066,-0.22589421,0.54004562,-0.81075442,0
3.1051021,1.4360752,-0.45880091,0.84698546,0.52002609,0.11040172,0
1.3087968,2.9186816,0.6290856,-0.53146058,0.82325262,0.19951165,0
-2.3180616,0.15980458,1.2832705,-0.38589391,0.4585734,0.80049765,0
-2.7624335,-0.94717669,1.6102506,-0.223001,0.15902779,0.96175927,0
-0.48380518,0.56884134,1.7049063,-0.28245252,0.26426497,0.92216301,0
3.0210936,2.4286516,-1.1460482,0.84698546,0.52002609,0.11040172,0
-3.7946298,-0.34223461,-0.90940642,-0.84698546,-0.52002609,-0.11040172,0
2.3483553,2.9650679,-0.054982573,0.84698546,0.52002609,0.11040172,0
-1.0855308,-0.57466078,-2.2724624,0.093266428,0.059095979,-0.99388587,0
-0.79907262,1.8110451,-0.42224324,-0.49614385,0.84782475,-0.18717515,0
1.6992232,3.4889433,0.48148549,0.84698546,0.52002609,0.11040172,0
3.103231,1.6903118,1.0168284,0.84698546,0.52002609,0.11040172,0
0.59085202,-1.3727115,1.3723507,0.36088389,-0.71492505,0.5988698,0
1.3644487,2.9034526,-1.1026702,-0.36331469,0.71783006,-0.59390438,0
2.4069152,2.6667156,-0.21692502,0.84698546,0.52002609,0.11040172,0
0.7784465,-1.806458,-0.91293275,0.50708818,-0.7279402,-0.46148109,0
-2.6996117,-1.4226699,1.5908037,-0.13258123,0.0055168271,0.99115682,0
-3.0678813,-1.163975,-0.93738556,-0.84698546,-0.52002609,-0.11040172,0
0.78664029,-2.0472858,-0.07489264,0.5264957,-0.84929383,-0.038759649,0
3.6775928,0.31506324,0.2276454,0.84698546,0.52002609,0.11040172,0
-0.68746483,-1.2223611,-2.0896697,0.27048504,-0.24276704,-0.93161261,0
2.6815963,1.8643985,0.70147359,0.84698546,0.52002609,0.11040172,0
-1.944793,0.018216908,-1.8324324,-0.18109763,0.47749016,-0.85977149,0
-3.1683536,-1.0542718,-1.2210963,-0.84698546,-0.52002609,-0.11040172,0
-0.20067197,-1.9084537,-1.3159337,0.45059681,-0.59205288,-0.66815877,0
-1.7529616,1.3557299,0.64143872,-0.52434886,0.78297305,0.33468115,0
-2.1776125,-2.2255843,-2.2713943,0.25496602,-0.21513382,-0.9427141,0
-1.5003043,1.1366191,1.1200087,-0.47370481,0.6440084,0.60071379,0
0.35739982,-0.37275934,1.8215349,0.01117146,-0.2250368,0.97428632,0
-3.9970024,-0.1347661,0.10279441,-0.84698546,-0.52002609,-0.11040172,0
1.524958,2.8537598,-0.75063151,-0.41806901,0.77983713,-0.46591038,0
3.0898261,1.8508077,-0.8793509,0.84698546,0.52002609,0.11040172,0
-0.5681501,1.1410133,1.4711108,-0.44462684,0.57910854,0.68333024,0
3.2252564,1.4638546,-0.33653748,0.84698546,0.52002609,0.11040172,0
-3.2653036,0.18238842,-1.1920226,-0.39841813,0.75842392,-0.51580644,0
3.0471506,0.22310162,1.436727,0.3292169,-0.67614067,0.65912837,0
2.775604,-0.50423145,0.43331051,0.51085943,-0.85363424,0.10164356,0
4.0010715,0.13055944,0.33694458,0.51841867,-0.85393786,0.045080364,0
0.28602684,2.498045,-0.22959721,-0.48970321,0.8440218,-0.21867359,0
3.2873077,1.190414,-0.44258785,0.84698546,0.52002609,0.11040172,0
-2.3316901,0.81151247,-0.82929122,-0.48629367,0.8417908,-0.23432195,0
2.8715329,1.5391172,1.2198164,0.84698546,0.52002609,0.11040172,0
2.6359048,1.2203615,-1.5250999,0.14036804,-0.018460453,-0.98992729,0
-3.1751313,-0.51433897,-1.8197566,-0.22951031,0.54501164,-0.80640399,0
-1.0931138,-0.71074164,1.9652389,-0.10979909,-0.03207317,0.99343622,0
0.78580594,-0.73989999,-1.5300967,0.37011176,-0.4277398,-0.82465506,0
-1.2490742,-2.1932821,1.3659728,0.26220477,-0.58929878,0.7641831,0
-2.6102171,-2.6187613,0.4953739,-0.84698546,-0.52002609,-0.11040172,0
-1.2343559,0.39198864,1.7090181,-0.36166808,0.41145071,0.83660299,0
-2.8797805,-1.3878436,-1.4303277,-0.84698546,-0.52002609,-0.11040172,0
0.45245698,1.9893969,1.3667119,-0.46977475,0.63492805,0.61333376,0
-2.5102012,-1.1477845,1.6829853,-0.16306317,0.056471229,0.98499829,0
2.5314085,2.5894005,-0.24019521,0.84698546,0.52002609,0.11040172,0
2.670408,1.6843996,1.9506593,0.84698546,0.52002609,0.11040172,0
3.6818972,0.43308496,1.4223435,0.84698546,0.52002609,0.11040172,0
-3.276309,-0.85934842,-1.99584,-0.84698546,-0.52002609,-0.11040172,0
1.1090579,1.8855584,1.8474457,-0.38289797,0.45267919,0.80527687,0
2.553329,2.8324399,0.080705106,0.84698546,0.52002609,0.11040172,0
0.42698276,0.0074249506,-2.1719916,0.10606176,0.038200498,-0.99362552,0
3.3159339,1.6836953,-1.0336967,0.84698546,0.52002609,0.11040172,0
2.7987683,2.1416962,0.94487721,0.84698546,0.52002609,0.11040172,0
2.8807628,-0.21088612,1.0724379,0.44263053,-0.80485666,0.39532769,0
-3.6127286,-0.41047192,-0.40757275,-0.84698546,-0.52002609,-0.11040172,0
-2.7023911,-2.0167825,-0.93200028,-0.84698546,-0.52002609,-0.11040172,0
-1.3671681,0.93600792,1.237334,-0.45826209,0.60893333,0.64745349,0
0.6360392,-1.7822964,-0.82354915,0.50576532,-0.72425991,-0.46866745,0
3.3246627,1.5217955,0.17060578,0.84698546,0.52002609,0.11040172,0
-0.10843742,1.5822964,1.3382232,-0.44876125,0.58805513,0.67290759,0
3.4836659,1.2750788,0.71575284,0.84698546,0.52002609,0.11040172,0
-2.2533777,-2.0129881,-2.1821818,0.21863198,-0.15143943,-0.96398455,0
1.8673909,-0.26953334,1.6764604,0.21763635,-0.52865642,0.82046139,0
0.34358668,-1.0805674,1.7687101,0.20011079,-0.50426877,0.84004092,0
-2.9524961,-1.1860416,1.6324351,-0.22445571,0.16155875,0.96099877,0
-1.2166685,-1.8536745,1.5258093,0.10811889,-0.37183416,0.92198145,0
-0.85303289,1.0767297,1.1034968,-0.46711534,0.62884712,0.62157446,0
-3.1070979,-1.2914066,1.3289169,-0.26220584,0.22799158,0.93769294,0
-2.6934133,-2.3194728,-0.72750247,-0.84698546,-0.52002609,-0.11040172,0
-3.7796378,-0.67672825,-1.1871395,-0.84698546,-0.52002609,-0.11040172,0
3.8300095,0.53128815,0.47502351,0.84698546,0.52002609,0.11040172,0
3.1248646,1.3012359,0.4845072,0.84698546,0.52002609,0.11040172,0
3.2614079,1.239381,0.33932364,0.84698546,0.52002609,0.11040172,0
-1.1006647,-2.6269703,0.79890984,0.40336967,-0.76391965,0.5037061,0
-2.9428704,-1.3680712,-1.5416968,-0.84698546,-0.52002609,-0.11040172,0
2.1313276,2.3899407,2.0823905,-0.31141627,0.31702983,0.89583033,0
-1.9207354,-0.49459291,1.9145833,-0.19678044,0.11375976,0.97382557,0
4.0920978,0.26364255,0.8006444,0.84698546,0.52002609,0.11040172,0
2.129962,3.1288922,1.6698864,-0.44014516,0.56949651,0.6942234,0
1.9286928,-1.1675918,-0.11745,0.5315907,-0.83051378,-0.16630781,0
0.56335592,2.0665321,-1.5486385,-0.26881486,0.59811193,-0.75498408,0
-0.58379626,-2.435025,-1.0092224,0.51524025,-0.75185055,-0.41139793,0
0.61244452,-1.9188187,0.98969495,0.42628932,-0.78845119,0.44342107,0
3.8237398,0.77749205,-1.0347948,0.84698546,0.52002609,0.11040172,0
-1.422143,1.4225785,-0.45077229,-0.4814747,0.83841938,-0.25541174,0
-2.7479286,-0.00072455406,1.2211189,-0.39778695,0.48217726,0.78055799,0
2.0132387,-0.30459452,-1.3014774,0.38389039,-0.45462936,-0.80370426,0
-2.4821181,-2.7036791,-0.34481281,-0.84698546,-0.52002609,-0.11040172,0
0.04962042,-2.0424595,-0.4637965,0.53052765,-0.81354004,-0.23810321,0
-0.11975324,-2.4335425,0.14204109,0.51463205,-0.85412395,0.075008154,0
3.8341322,0.28039026,0.30748224,0.84698546,0.52002609,0.11040172,0
-3.170845,0.084913254,0.91543412,-0.48333508,0.66679895,0.56724465,0
-2.2254868,0.90168524,0.22116947,-0.52904129,0.80409217,0.2712031,0
-1.8706741,0.59443671,-1.5221765,-0.32544774,0.67141706,-0.66579509,0
-2.5179846,-2.6367855,-1.4158192,-0.84698546,-0.52002609,-0.11040172,0
-2.3962831,-3.1341181,0.77929819,-0.84698546,-0.52002609,-0.11040172,0
-2.9351134,-2.0645645,0.86808288,-0.84698546,-0.52002609,-0.11040172,0
-0.024299145,1.5539192,-1.3228501,-0.29299229,0.62991107,-0.71928275,0
-0.084417105,-1.2930819,-1.846065,0.38823724,-0.46319765,-0.79669309,0
-3.2607622,0.46638,-0.75888681,-0.47994751,0.83730251,-0.26186842,0
-3.4022584,0.14107251,0.47291565,-0.52360904,0.78013295,0.34238309,0
-2.4019203,-3.2564745,0.87963623,-0.84698546,-0.52002609,-0.11040172,0
-2.3135567,-3.0126667,-1.0515594,-0.84698546,-0.52002609,-0.11040172,0
-1.851205,-3.2848063,-0.56293625,-0.84698546,-0.52002609,-0.11040172,0
2.788801,2.0352654,0.73547506,0.84698546,0.52002609,0.11040172,0
0.70700967,-1.2206866,-1.4036877,0.41524374,-0.51748186,-0.7481879,0
3.1353962,1.4733665,-0.6310991,0.84698546,0.52002609,0.11040172,0
3.2694283,1.5164411,1.2414573,0.84698546,0.52002609,0.11040172,0
-1.9092174,-3.3689973,-0.90175319,-0.84698546,-0.52002609,-0.11040172,0
1.1049602,0.37647831,2.1490548,-0.039022207,-0.14629593,0.98847103,0
1.0296226,1.7964065,1.7463675,-0.37886193,0.44476977,0.81156862,0
2.094331,-0.069148839,1.891487,0.25264418,-0.5764659,0.7770831,0
-3.8545361,-0.94244289,0.77994275,-0.84698546,-0.52002609,-0.11040172,0
3.4199805,0.6596905,1.4457446,0.84698546,0.52002609,0.11040172,0
3.427495,1.1337497,-0.6342814,0.84698546,0.52002609,0.11040172,0
-2.8870645,-1.6347414,-0.20776904,-0.84698546,-0.52002609,-0.11040172,0
0.61528206,-0.61576343,-1.7704548,0.29217666,-0.28186035,-0.91388595,0
-3.7755558,-0.55059505,-1.4368322,-0.84698546,-0.52002609,-0.11040172,0
-0.65830564,1.4645449,-1.1054192,-0.36571223,0.72068417,-0.58895588,0
1.2333107,0.36919326,2.2608004,0.0074572563,-0.21927378,0.97563493,0
-0.71087348,-2.3670697,-1.3088683,0.46039495,-0.6136874,-0.64142358,0
-1.1574273,-0.84092999,-2.025497,0.10877967,0.033745587,-0.99349302,0
-2.1685205,-3.2272415,0.33581215,-0.84698546,-0.52002609,-0.11040172,0
-2.5805855,0.61974967,0.43138909,-0.52152216,0.77251148,0.36227185,0
2.0645194,3.0610561,-0.26806465,0.84698546,0.52002609,0.11040172,0
-2.613579,-2.2149177,-1.1274195,-0.84698546,-0.52002609,-0.11040172,0
1.7711689,2.2360814,-1.2870398,-0.16131735,0.44929177,-0.87870002,0
-3.6598353,-0.62631679,1.3778076,-0.3911432,0.46895003,0.79189217,0
3.4606142,1.003361,-0.25329232,0.84698546,0.52002609,0.11040172,0
-2.5853119,-2.4120152,-1.1250627,-0.84698546,-0.52002609,-0.11040172,0
3.5032959,0.074940205,-0.12655497,0.52778965,-0.79768395,-0.29178518,0
3.6892817,-0.074519157,0.96792579,0.47089612,-0.83026886,0.29817867,0
-2.5559118,-2.3489852,-1.5722346,-0.84698546,-0.52002609,-0.11040172,0
-2.4777207,-2.6662698,-0.040479243,-0.84698546,-0.52002609,-0.11040172,0
-1.9264417,-3.1457872,-1.1500173,-0.84698546,-0.52002609,-0.11040172,0
-1.9140148,-3.1104386,-0.59380597,-0.84698546,-0.52002609,-0.11040172,0
1.4833308,2.2509313,-1.4637324,-0.19402778,0.49573705,-0.84652114,0
-3.0795803,-1.2872589,-1.1166545,-0.84698546,-0.52002609,-0.11040172,0
-3.3709579,0.12084818,0.50590873,-0.50555098,0.72366792,0.46981156,0
0.065236211,2.1339996,-0.44916439,-0.46584988,0.82607669,-0.31714559,0
-2.4285209,-2.4256358,-0.88585544,-0.84698546,-0.52002609,-0.11040172,0
-0.60427284,1.5170994,1.5997379,-0.43844497,0.56587207,0.69825137,0
-0.88368511,-2.827167,0.2602253,0.4614349,-0.82227075,0.33308953,0
-3.0011697,-2.0744576,0.76424623,-0.84698546,-0.52002609,-0.11040172,0
-3.3381763,-0.82450998,-0.83093321,-0.84698546,-0.52002609,-0.11040172,0
2.6844292,-0.30780745,-0.74386787,0.51749921,-0.75897819,-0.39515412,0
-3.037611,-1.722869,0.36206007,-0.84698546,-0.52002609,-0.11040172,0
3.1927984,1.9030254,-0.76530159,0.84698546,0.52002609,0.11040172,0
-0.94952917,0.40161872,-1.7911632,-0.083893061,0.33581641,-0.93818414,0
0.049710989,-0.052562118,1.939806,-0.085000992,-0.072526872,0.99373776,0
1.9835153,3.4694371,-0.39245385,-0.46838808,0.82820743,-0.30770952,0
-1.3586056,0.79008007,1.3395847,-0.43666038,0.5620805,0.7024197,0
-3.678195,-0.37876964,-1.2122061,-0.84698546,-0.52002609,-0.11040172,0
-3.3129237,-1.3610229,0.84392846,-0.84698546,-0.52002609,-0.11040172,0
3.0960519,1.6136901,0.85891151,0.84698546,0.52002609,0.11040172,0
-2.7087159,-1.9602672,-2.0854347,-0.84698546,-0.52002609,-0.11040172,0
-2.2012117,0.66059196,0.96739006,-0.49919465,0.7065767,0.50155169,0
-0.89868438,-2.7533503,-1.1522543,0.51338482,-0.74618667,-0.42384136,0
-2.3101854,-0.55354381,-2.2563441,-0.13008869,0.40410054,-0.90541697,0
-3.6822314,-0.95501947,-0.25320458,-0.84698546,-0.52002609,-0.11040172,0
-0.28058136,-0.35213304,1.8909873,-0.0047295094,-0.20029274,0.97972476,0
-2.1152365,0.81441653,0.1157527,-0.52832747,0.84645844,0.06616801,0
3.1397069,2.0304403,-0.44213128,0.84698546,0.52002609,0.11040172,0
-2.4209309,-2.8581402,0.90122443,-0.84698546,-0.52002609,-0.11040172,0
2.3442402,2.7445154,0.5249393,0.84698546,0.52002609,0.11040172,0
2.8000576,1.4488387,-1.5090238,0.12653238,0.0045039952,-0.9919523,0
-2.5739565,-2.2823629,-0.86856067,-0.84698546,-0.52002609,-0.11040172,0
2.7969911,1.3965197,2.2398438,0.84698546,0.52002609,0.11040172,0
2.2162664,0.14570999,-1.2946188,0.39461949,-0.47585762,-0.78602493,0
2.6240101,2.4021597,-0.18348348,0.84698546,0.52002609,0.11040172,0
2.5350347,2.7437119,0.58450282,0.84698546,0.52002609,0.11040172,0
-1.6915474,0.63437295,1.2977321,-0.46946564,0.63421869,0.61430347,0
3.0653882,1.6446122,0.3639791,0.84698546,0.52002609,0.11040172,0
-3.4272332,-1.1393759,0.98781228,-0.84698546,-0.52002609,-0.11040172,0
-0.71800065,-2.4793558,-1.0226483,0.5161581,-0.75471306,-0.40495569,0
-0.84589076,-2.7360485,-1.0983564,0.50128716,-0.7121107,-0.49153805,0
2.644891,2.1688397,-0.033341527,0.84698546,0.52002609,0.11040172,0
1.4434896,1.8993485,2.1983778,-0.33868554,0.36776704,0.86604822,0
-0.68718338,0.6746704,1.7780524,-0.35226968,0.39347604,0.84916592,0
-0.95670438,-2.9385157,-0.29079127,0.52111202,-0.85322815,0.021074951,0
-2.7791755,-2.6676056,0.40857184,-0.84698546,-0.52002609,-0.11040172,0
0.76380283,2.0661459,1.86191,-0.39452359,0.47566667,0.7861886,0
2.2619689,3.1794326,1.1043359,0.84698546,0.52002609,0.11040172,0
2.4455633,2.2373834,1.9390137,0.84698546,0.52002609,0.11040172,0
3.178736,1.6296059,1.4045882,0.84698546,0.52002609,0.11040172,0
2.7804315,1.9850551,0.44743603,0.84698546,0.52002609,0.11040172,0
-0.86558747,-2.6520998,0.92298067,0.4039771,-0.76458961,0.5022006,0
-0.48914361,0.61850178,1.92971,-0.28258067,0.26449624,0.92205751,0
-3.3353019,-1.3372927,0.92968023,-0.84698546,-0.52002609,-0.11040172,0
-3.4178994,-0.48383963,-1.5662043,-0.84698546,-0.52002609,-0.11040172,0
-2.0354469,0.74523038,0.57046413,-0.51594955,0.75405872,0.40643764,0
3.5914674,0.48908305,0.57340455,0.84698546,0.52002609,0.11040172,0
0.56515884,-1.7104182,0.55529165,0.48159164,-0.83850384,0.25491357,0
2.3233595,2.4833674,1.3304021,0.84698546,0.52002609,0.11040172,0
3.8898225,0.18177915,-0.21237063,0.52580851,-0.78885561,-0.31817013,0
-2.6699269,-1.8549234,-1.4109504,-0.84698546,-0.52002609,-0.11040172,0
-2.8716075,-2.0420487,1.0873356,-0.84698546,-0.52002609,-0.11040172,0
-2.7474532,-1.6017016,-1.8614564,-0.84698546,-0.52002609,-0.11040172,0
3.4617977,0.38680267,1.5957983,0.84698546,0.52002609,0.11040172,0
-1.5657952,1.1826583,1.1673115,-0.49441192,0.69421422,0.52309042,0
-1.2822679,1.6964855,-0.24352527,-0.52069366,0.85337782,-0.024989367,0
2.6696029,2.2787325,1.9953279,0.84698546,0.52002609,0.11040172,0
-2.7491899,-2.3354206,1.2513268,-0.84698546,-0.52002609,-0.11040172,0
3.0817957,1.0560752,1.7932277,0.84698546,0.52002609,0.11040172,0
-2.284313,-3.1672039,-0.72228611,-0.84698546,-0.52002609,-0.11040172,0
0.25274169,2.3651433,-0.62714207,-0.46103239,0.82191789,-0.33451504,0
-2.8860784,-1.3917836,-2.1066647,-0.84698546,-0.52002609,-0.11040172,0
-2.955606,-1.3865981,-1.3375785,-0.84698546,-0.52002609,-0.11040172,0
-0.73505521,-1.8589511,1.6907735,0.20504463,-0.51116353,0.83466685,0
-0.57178664,0.40556026,-1.9424229,-0.090222836,0.34527087,-0.9341563,0
-3.2104206,-1.604578,0.87716663,-0.84698546,-0.52002609,-0.11040172,0
2.837523,1.8754065,2.3068161,0.84698546,0.52002609,0.11040172,0
-2.9275625,0.49637198,-0.32964492,-0.51039934,0.85353768,-0.10471827,0
1.5803041,-0.64163113,1.6551012,0.32030547,-0.66493869,0.67473048,0
3.7574091,0.041549206,0.16603303,0.52830315,-0.84650546,-0.065760434,0
0.54301047,2.3547359,0.64328098,-0.52574337,0.78858364,0.31895131,0
-3.3609467,-1.6182969,0.53803349,-0.84698546,-0.52002609,-0.11040172,0
-0.857283,1.6060308,0.99991536,-0.51648033,0.75572854,0.40264452,0
-3.9740877,-0.41871524,0.30492353,-0.84698546,-0.52002609,-0.11040172,0
2.3716829,2.72715,-1.1476077,0.84698546,0.52002609,0.11040172,0
-1.3015678,1.0481318,1.0698159,-0.46331775,0.62024581,0.63295496,0
-2.6143484,-2.3498783,0.0055282712,-0.84698546,-0.52002609,-0.11040172,0
-3.2150536,-1.6970286,0.023844957,-0.84698546,-0.52002609,-0.11040172,0
2.189239,3.3090861,0.87570453,0.84698546,0.52002609,0.11040172,0
-1.0014478,1.4731835,1.2729235,-0.47355238,0.64365399,0.60121351,0
1.9895892,3.2416914,0.13693258,0.84698546,0.52002609,0.11040172,0
3.1160266,1.8019733,-1.4518471,0.84698546,0.52002609,0.11040172,0
0.065351665,2.2891223,0.21329582,-0.53018612,0.84151357,0.10371941,0
2.3652246,2.16677,1.5901263,0.84698546,0.52002609,0.11040172,0
-2.6810491,-1.5927345,-1.8997065,-0.84698546,-0.52002609,-0.11040172,0
-0.95264274,1.8484712,0.0069937706,-0.52695334,0.84869802,0.045077622,0
-1.0729722,1.2895019,-1.2800078,-0.35899901,0.71266484,-0.6026845,0
0.36408973,0.88503766,-1.7841573,-0.024699092,0.24594101,-0.96897018,0
-1.9982976,0.92915112,-0.60519409,-0.48533607,0.84114027,-0.23860466,0
0.65926361,-0.60707575,1.9145625,0.16344368,-0.4523392,0.87674141,0
-0.71221286,1.296947,1.4070526,-0.41837826,0.52391374,0.74193943,0
-0.54807687,-0.096190691,2.09203,-0.1636942,0.057534486,0.98483199,0
3.5037189,1.1874936,0.41418672,0.84698546,0.52002609,0.11040172,0
-2.8688681,-2.5949802,1.393744,-0.84698546,-0.52002609,-0.11040172,0
-0.50835907,0.42334199,-1.8147327,-0.12611747,0.39829659,-0.9085452,0
-2.1834126,0.5098415,-1.4842538,-0.33757204,0.68653393,-0.64398491,0
0.55491066,2.7423079,0.44015849,-0.53142816,0.82270277,0.20185244,0
-0.65602773,1.9124048,0.73026788,-0.52185977,0.77371085,0.35921305,0
-1.9861664,-3.3423984,0.020466983,-0.84698546,-0.52002609,-0.11040172,0
-3.736084,-0.79750943,0.79323363,-0.84698546,-0.52002609,-0.11040172,0
1.8769425,1.2938743,2.4204941,-0.14622259,0.028224975,0.98884904,0
2.8941569,2.1163387,-1.3076067,0.84698546,0.52002609,0.11040172,0
-1.8299973,1.2088573,0.43064237,-0.52744532,0.79605663,0.29680866,0
0.32487774,0.11974496,-2.0349915,0.13729417,-0.013345003,-0.99044049,0
3.7466335,0.92902017,-0.35893583,0.84698546,0.52002609,0.11040172,0
2.4353542,2.6331313,-0.84456599,0.84698546,0.52002609,0.11040172,0
-0.4137558,1.8921652,0.80669308,-0.52250099,0.77602184,0.35324633,0
2.9324803,0.80206466,2.2529693,0.12485754,-0.39645261,0.90952522,0
-3.5827351,-0.8891933,1.3149252,-0.84698546,-0.52002609,-0.11040172,0
0.85734427,3.0891044,0.33100784,-0.52824992,0.84660721,0.064872384,0
2.6439648,-0.92173052,0.5459404,0.51414579,-0.85409415,0.078597307,0
1.0539718,-0.66859847,-1.4929116,0.36045706,-0.40912545,-0.83826435,0
-3.2214446,-1.7673213,0.12305701,-0.84698546,-0.52002609,-0.11040172,0
-1.1656934,-2.6462216,0.69761074,0.40415794,-0.76478887,0.50175142,0
-1.0142221,-1.0945354,1.8381462,0.042155981,-0.2727178,0.9611702,0
1.525954,-0.94394076,1.5647039,0.30596226,-0.64666963,0.69871724,0
-1.7946229,-0.63731849,1.6620963,-0.22764248,0.1671102,0.95929825,0
2.8970392,1.704043,-0.15374696,0.84698546,0.52002609,0.11040172,0
-1.3973513,1.302165,-0.75485981,-0.45628417,0.81768328,-0.35099709,0
-1.1691915,1.0282353,1.2092736,-0.43794066,0.56479931,0.69943535,0
-2.6248293,-0.52846944,-2.1960938,-0.17633367,0.4707298,-0.86447674,0
-3.0280852,-2.0982137,0.47520161,-0.84698546,-0.52002609,-0.11040172,0
-3.6213884,-1.3187363,0.65894628,-0.84698546,-0.52002609,-0.11040172,0
3.8323202,0.21366501,0.59254694,0.84698546,0.52002609,0.11040172,0
-2.032814,-1.0742576,1.8948994,-0.093206465,-0.059193581,0.99388576,0
-0.76613688,-0.57055497,1.8007023,-0.12169623,-0.012494773,0.99248886,0
-1.7478701,-3.3690591,-0.032929868,0.51130772,-0.85372114,0.098614573,0
-0.85265028,-2.9401934,0.16259789,0.47442818,-0.83309305,0.28438383,0
-2.4039431,-2.4148338,-1.7638662,-0.84698546,-0.52002609,-0.11040172,0
0.97104681,-1.5962288,0.4294064,0.47645444,-0.83466864,0.27625954,0
2.6198854,2.4028006,-1.1089776,0.84698546,0.52002609,0.11040172,0
3.0789576,0.99910069,2.0233154,0.84698546,0.52002609,0.11040172,0
3.791573,0.54343867,-0.050911903,0.84698546,0.52002609,0.11040172,0
2.2345443,3.4354358,-0.15991758,0.84698546,0.52002609,0.11040172,0
0.10888028,-0.33309448,2.0661218,-0.033284307,-0.15539122,0.98729223,0
0.79476446,-0.76292121,-1.7813671,0.34815323,-0.3856526,-0.8544364,0
1.0812215,2.93993,0.46902412,-0.52960885,0.84342146,0.090304136,0
2.463306,-0.87084389,0.62699866,0.49989223,-0.8497442,0.16745949,0
-2.5780034,-2.4106967,-1.7108755,-0.84698546,-0.52002609,-0.11040172,0
0.18658549,2.6656911,0.16506243,-0.52655286,0.84922284,0.039532423,0
1.0501441,0.45286724,2.206636,-0.055919528,-0.11936969,0.99127394,0
3.1841915,2.0449238,-0.93274939,0.84698546,0.52002609,0.11040172,0
-2.8819444,-2.0420184,-0.39383221,-0.84698546,-0.52002609,-0.11040172,0
2.6019228,2.5693653,0.19084793,0.84698546,0.52002609,0.11040172,0
3.1478565,1.6566765,-1.3736566,0.84698546,0.52002609,0.11040172,0
-0.72035384,1.5816858,1.084236,-0.46965584,0.63465512,0.61370724,0
-2.3330429,-2.9648836,-0.64977551,-0.84698546,-0.52002609,-0.11040172,0
1.1305995,-0.68771833,-1.3366009,0.41642231,-0.51989669,-0.74585515,0
0.62692314,-1.3089077,-1.6399679,0.40284985,-0.49233121,-0.77157116,0
-3.5172622,-1.1794698,1.4120755,-0.32890618,0.34944347,0.87733126,0
-0.62399459,1.5961231,-1.4252428,-0.33591348,0.68447953,-0.64703166,0
