-1.224021,1.6561488,0.22974837,-0.5446825,0.81204122,-0.20954758,0
1.7076471,-0.76891303,2.1114674,0.79991114,-0.5759328,0.16865253,0
1.6601348,0.93286753,-1.9321404,0.81209695,0.57643235,-0.090687245,0
-1.9785813,-0.7039398,1.5084019,-0.9026441,-0.42715764,0.052630872,0
-0.91250283,2.0161519,0.51979542,-0.45364869,0.86437201,-0.21694225,0
-0.37266442,2.2207069,1.4513674,-0.047195554,0.21978897,0.97440517,0
1.6005614,0.27907062,-2.1123881,0.047195554,-0.21978897,-0.97440517,0
0.63588738,1.7727396,1.4932832,-0.047195554,0.21978897,0.97440517,0
1.6158199,1.167854,0.094866276,0.86005974,0.50504977,-0.072262943,0
-1.9580774,-0.25607529,-0.15505834,-0.99777651,-0.056330666,-0.035621449,0
1.6453172,1.7936858,1.5901937,0.81469053,0.57290608,-0.089766234,0
0.23968589,-1.3240006,-1.6643677,0.047195554,-0.21978897,-0.97440517,0
0.74609095,2.2520816,1.4008765,0.48735148,0.85657591,-0.16960621,0
0.54623497,-1.9130347,0.29512978,0.2068902,-0.95218807,0.22479844,0
-1.9953339,0.23065108,-0.45393276,-0.98662633,0.14210546,-0.079841077,0
-0.14476058,1.8944123,-1.402849,-0.057951137,0.97324675,-0.22233444,0
-0.86252385,1.8072993,-0.54463804,-0.43757308,0.872365,-0.21796644,0
-0.34995085,-1.5511487,-1.7209692,0.047195554,-0.21978897,-0.97440517,0
-1.064523,-1.0161437,-2.0052001,0.047195554,-0.21978897,-0.97440517,0
0.4257364,2.0916443,1.3944297,0.31930292,0.92763019,-0.19377279,0
-0.21537222,-2.4148769,-1.6812482,0.047195554,-0.21978897,-0.97440517,0
-1.3968477,-0.98239553,1.3796551,-0.76325709,-0.63721299,0.10676265,0
1.346333,0.97925115,1.9823992,-0.047195554,0.21978897,0.97440517,0
1.1663845,-1.8563107,-1.4515291,0.56166446,-0.80083382,0.20784205,0
-0.036545418,-2.3798044,-1.6834201,0.047195554,-0.21978897,-0.97440517,0
1.7040076,0.93353653,2.0973463,-0.047195554,0.21978897,0.97440517,0
0.53842258,1.478934,1.8909283,-0.047195554,0.21978897,0.97440517,0
-1.5807744,-0.81327438,1.6307369,-0.83248359,-0.54776216,0.08323288,0
-1.8397835,-0.46933639,2.0498312,-0.047195554,0.21978897,0.97440517,0
-1.9922262,0.054717541,2.0521653,-0.047195554,0.21978897,0.97440517,0
0.13258433,2.2122066,0.39231253,0.098661214,0.97174799,-0.2144109,0
-0.801938,2.1121945,1.461673,-0.35692561,0.90738022,-0.22195834,0
0.24828058,0.078812599,-1.9866357,0.047195554,-0.21978897,-0.97440517,0
-2.139765,0.044142723,1.8243644,-0.047195554,0.21978897,0.97440517,0
1.2810009,-0.46444273,2.3853178,-0.047195554,0.21978897,0.97440517,0
-0.26276436,0.76413012,2.0132656,-0.047195554,0.21978897,0.97440517,0
1.2907523,0.2696898,2.1715782,-0.047195554,0.21978897,0.97440517,0
-0.37479198,-1.3517675,2.485405,-0.047195554,0.21978897,0.97440517,0
-0.43073756,-1.1969224,2.4869051,-0.047195554,0.21978897,0.97440517,0
2.0351233,0.88025922,1.6234691,0.95385498,0.29950714,-0.021357313,0
-1.4529593,-1.6043113,0.096635342,-0.71497905,-0.68864775,0.12070274,0
-0.42230618,-1.5609059,-1.5486827,0.047195554,-0.21978897,-0.97440517,0
-0.69638026,1.9391712,-0.67027688,-0.37202138,0.90144545,-0.22135097,0
-1.763822,0.6503042,-0.7663691,-0.91065454,0.39138395,-0.1323891,0
-1.732528,-0.74540997,1.9593189,-0.047195554,0.21978897,0.97440517,0
1.6572449,0.59437847,2.0490935,-0.047195554,0.21978897,0.97440517,0
-0.82443213,0.83901799,-2.2711513,0.047195554,-0.21978897,-0.97440517,0
0.9798733,-1.8989433,0.50466359,0.41180104,-0.88445663,0.21944565,0
0.50997341,-0.94288445,2.4641681,-0.047195554,0.21978897,0.97440517,0
1.062827,-1.4553428,0.43541646,0.48749268,-0.84636414,0.21451956,0
0.071765065,0.51216221,2.0403926,-0.047195554,0.21978897,0.97440517,0
0.0017965138,0.32409394,2.070987,-0.047195554,0.21978897,0.97440517,0
-1.7163308,0.55804503,-0.26603365,-0.94629437,0.30251473,-0.11406982,0
0.13372904,0.72925782,-2.2319748,0.047195554,-0.21978897,-0.97440517,0
1.6640894,1.0269806,-1.5168934,0.77083212,0.62842327,-0.10441312,0
-0.93583542,-2.2537889,-1.2713478,-0.4549689,-0.87315977,0.17491531,0
-0.43641824,-1.7453576,0.46416688,-0.23157117,-0.95132381,0.20336646,0
-1.3981408,1.6769406,0.59055614,-0.61613506,0.76140678,-0.20158726,0
-0.81924868,0.21023917,1.9568385,-0.047195554,0.21978897,0.97440517,0
0.29917282,-2.238394,-0.32760835,0.15896863,-0.96140701,0.22455674,0
-1.2160909,1.1433986,-2.1003113,-0.6289112,0.75133044,-0.19993323,0
0.96343803,-1.0911928,2.1904182,-0.047195554,0.21978897,0.97440517,0
1.0164876,-0.61443985,-1.9816545,0.047195554,-0.21978897,-0.97440517,0
-1.1843755,0.91188419,1.6136105,-0.047195554,0.21978897,0.97440517,0
0.0082208514,-0.025122881,-1.973115,0.047195554,-0.21978897,-0.97440517,0
0.82712114,-1.0418307,2.2308712,-0.047195554,0.21978897,0.97440517,0
1.7885745,0.50976992,1.5625937,0.99413872,0.10532428,0.024394155,0
0.95494533,1.5060955,-1.3691936,0.44572929,0.87762141,-0.17636919,0
-1.7931277,0.98789048,0.97472596,-0.87657666,0.4586128,-0.14590287,0
-1.425468,-1.2478395,0.60173941,-0.76951081,-0.62997186,0.10482642,0
-1.3977269,-1.7076074,-0.33696645,-0.70732492,-0.69614673,0.12276495,0
2.1200812,-0.61436915,-0.87744844,0.97865391,-0.18516429,0.089167356,0
-0.80973923,-1.7393318,0.63050604,-0.47820628,-0.86141163,0.1711399,0
0.029385597,-1.9452058,0.94233596,0.025448248,-0.97491097,0.22113568,0
-0.65067816,-1.9747546,-0.7661643,-0.45546645,-0.87291628,0.17483628,0
-0.20475945,-0.074658871,-2.1154761,0.047195554,-0.21978897,-0.97440517,0
-0.92649722,0.95256114,1.8138144,-0.047195554,0.21978897,0.97440517,0
1.6901066,-0.64128864,1.1607561,0.85855842,-0.48965663,0.15203249,0
0.9942311,-2.1916823,-0.95110202,0.51929724,-0.82790726,0.21189672,0
1.7367822,-0.41933212,1.0932415,0.92364657,-0.36181867,0.12634966,0
-1.0708784,0.69078875,-2.2350206,0.047195554,-0.21978897,-0.97440517,0
1.5596119,-0.77101541,0.91281992,0.8900463,-0.43354857,0.14090171,0
1.9926083,-0.10822591,0.095629305,0.99865353,-0.010648847,0.050771967,0
-1.929548,0.41455683,-0.47109181,-0.95655823,0.27101356,-0.10746154,0
0.57104546,1.7424713,-0.79643416,0.1527628,0.96560514,-0.21040499,0
1.7097712,0.99938184,1.0192471,0.92442226,0.37918651,-0.04075554,0
-0.062057957,1.2638175,1.911832,-0.047195554,0.21978897,0.97440517,0
1.0190202,-0.185395,2.1572943,-0.047195554,0.21978897,0.97440517,0
-1.4056827,-0.10936141,-2.0757148,0.047195554,-0.21978897,-0.97440517,0
0.82289797,0.2211628,-2.24828,0.047195554,-0.21978897,-0.97440517,0
-0.39392161,2.0336344,0.27867079,-0.14942017,0.9629631,-0.22444528,0
1.2923309,1.4977411,0.7301293,0.68472898,0.7173543,-0.12864301,0
-1.2593431,-1.9079721,-1.5953444,0.047195554,-0.21978897,-0.97440517,0
0.5976125,-0.10944247,1.9198899,-0.047195554,0.21978897,0.97440517,0
0.89930594,0.96138501,2.046088,-0.047195554,0.21978897,0.97440517,0
1.371778,0.75141478,-2.1582692,0.047195554,-0.21978897,-0.97440517,0
-1.9683584,-0.82706624,-0.54547483,-0.93649513,-0.34908816,0.03338176,0
-1.6743884,-1.2637404,-1.2862854,-0.88124204,-0.46845049,0.062981591,0
0.82292461,0.51608169,2.030797,-0.047195554,0.21978897,0.97440517,0
-0.37497056,1.4372981,-1.7953261,-0.21177611,0.95111465,-0.2247929,0
1.5638666,-1.3849852,0.7413274,0.72106183,-0.66757607,0.18550473,0
-1.3703011,-0.48792672,1.9380789,-0.047195554,0.21978897,0.97440517,0
0.67099631,-0.31344163,2.1676726,-0.047195554,0.21978897,0.97440517,0
-1.7957356,1.4283501,0.84418869,-0.84498918,0.51143664,-0.15628803,0
-0.016245902,-0.51171833,1.9874634,-0.047195554,0.21978897,0.97440517,0
-0.71376812,1.4561267,-1.6847709,-0.46741879,0.85724181,-0.21600085,0
1.7614026,0.66668963,-2.1117053,0.047195554,-0.21978897,-0.97440517,0
0.98526561,-2.3322294,-1.5628412,0.047195554,-0.21978897,-0.97440517,0
-1.4371989,-0.41406512,2.2691305,-0.047195554,0.21978897,0.97440517,0
1.2825625,-1.0145226,2.391541,-0.047195554,0.21978897,0.97440517,0
0.84373486,1.4209554,1.8626647,-0.047195554,0.21978897,0.97440517,0
-1.4428089,-1.3603549,-0.44239751,-0.80486459,-0.586092,0.093216419,0
2.102695,0.48865491,-1.4299151,0.89324349,0.44590473,-0.057314828,0
1.1069121,0.69341898,-2.3476872,0.047195554,-0.21978897,-0.97440517,0
0.0050682127,1.8218476,-0.60852039,0.0056359768,0.97553527,-0.21977097,0
-1.4287961,-1.625178,-0.76829743,-0.73087937,-0.67252553,0.11629608,0
-1.1532668,-0.32332683,-1.8848923,0.047195554,-0.21978897,-0.97440517,0
1.4958248,1.7887995,0.98485041,0.69574225,0.7071867,-0.12581614,0
2.0598993,-0.10705751,-0.44797337,0.99840379,-0.019917428,0.052850544,0
0.058347218,2.0538378,1.4629508,-0.047195554,0.21978897,0.97440517,0
-1.3588583,1.105498,-2.041441,-0.76422828,0.62020785,-0.17691106,0
1.8257616,0.12666118,-2.0754366,0.95403039,0.29895747,-0.021224841,0
0.22617565,2.1370831,0.85071969,0.19406885,0.95892191,-0.20689678,0
0.38828689,-2.2950079,-1.4111749,0.047195554,-0.21978897,-0.97440517,0
-1.0119864,-0.44894969,-1.9440594,0.047195554,-0.21978897,-0.97440517,0
1.5217298,-0.024391413,-1.7978963,0.047195554,-0.21978897,-0.97440517,0
1.2793883,0.40204823,-2.0310264,0.047195554,-0.21978897,-0.97440517,0
1.1808842,-1.9314713,-1.3629535,0.047195554,-0.21978897,-0.97440517,0
-0.65205228,-0.68124509,2.0882993,-0.047195554,0.21978897,0.97440517,0
0.47136673,-1.6712644,-1.5247943,0.047195554,-0.21978897,-0.97440517,0
0.13448688,2.3243785,0.40030611,0.075451925,0.9734897,-0.21592796,0
-1.9827569,-0.32943204,0.40919748,-0.97157705,-0.23663908,0.0063182954,0
0.99126995,-1.6673751,0.36196709,0.49632061,-0.84139425,0.21382618,0
-0.71292168,-1.9988476,-1.8284261,0.047195554,-0.21978897,-0.97440517,0
0.87310642,1.3312422,-1.6760885,0.42313719,0.88804388,-0.1798144,0
0.70528495,0.41831243,2.0744364,-0.047195554,0.21978897,0.97440517,0
-2.1054523,0.94079924,0.35928822,-0.92054105,0.36913258,-0.12784898,0
1.6549695,0.87960917,1.399911,0.94024217,0.3390972,-0.030946672,0
2.0925839,0.4403528,1.7741396,0.99709511,0.068748765,0.032787375,0
1.0756807,1.3432685,-1.2125313,0.58882415,0.79410678,-0.15060061,0
0.24073058,0.32166576,-2.2068505,0.047195554,-0.21978897,-0.97440517,0
0.32389599,1.465835,1.7713895,-0.047195554,0.21978897,0.97440517,0
1.4165339,-0.1246562,-2.1029406,0.047195554,-0.21978897,-0.97440517,0
1.0291209,-0.83270049,-1.7182778,0.047195554,-0.21978897,-0.97440517,0
0.61939585,2.3171158,0.97065806,0.32213897,0.92672068,-0.1934303,0
-0.66405106,-2.064116,-1.1393862,-0.31418774,-0.92924732,0.19438523,0
-0.95236254,-0.32129407,-2.0594573,0.047195554,-0.21978897,-0.97440517,0
0.12881005,-2.1307898,-1.758327,0.047195554,-0.21978897,-0.97440517,0
0.87977469,-0.77899051,2.0806255,-0.047195554,0.21978897,0.97440517,0
-1.3790492,-1.6163949,-0.73164856,-0.75194561,-0.64995182,0.11018389,0
1.2068969,-0.8422972,2.2577467,-0.047195554,0.21978897,0.97440517,0
-1.5804951,-0.79401261,2.003099,-0.80941141,-0.5800488,0.091633052,0
-2.1285486,0.35204148,1.321921,-0.99840051,-0.040779024,-0.039159536,0
1.8103775,0.37478942,1.3439122,0.99678797,0.073549412,0.031689681,0
-0.19229341,1.937619,1.4045275,-0.047195554,0.21978897,0.97440517,0
-1.6531241,0.16428316,-1.3325648,-0.96917123,0.22608672,-0.097938597,0
0.14429057,-0.89972687,2.4557595,-0.047195554,0.21978897,0.97440517,0
-1.1163502,-0.45199263,-2.1840734,0.047195554,-0.21978897,-0.97440517,0
2.1930716,-0.90811539,-1.8662717,0.047195554,-0.21978897,-0.97440517,0
1.1682101,1.5119686,-0.30753183,0.61114728,0.77795821,-0.14587694,0
-0.17374146,0.3596189,-2.0107436,0.047195554,-0.21978897,-0.97440517,0
1.0771735,0.37213635,-2.0026886,0.047195554,-0.21978897,-0.97440517,0
-1.6164936,0.93780923,-1.2730676,-0.86382794,0.48084438,-0.15030003,0
1.1384928,-2.1977828,-1.5749182,0.58030945,-0.78795362,0.20583993,0
-1.2895204,0.033964753,1.9444526,-0.047195554,0.21978897,0.97440517,0
0.68260765,0.61949348,1.7415519,-0.047195554,0.21978897,0.97440517,0
-2.0124681,-0.44402802,-0.27025729,-0.99238193,-0.12145326,-0.020670958,0
-0.23128408,-1.7122856,1.0318135,-0.055051908,-0.97458184,0.21716243,0
-1.2464888,1.687665,1.4240085,-0.047195554,0.21978897,0.97440517,0
-0.97687334,1.9877077,1.7253166,-0.047195554,0.21978897,0.97440517,0
-1.1976721,-0.0498873,-1.9249097,0.047195554,-0.21978897,-0.97440517,0
0.34976691,0.62434471,-2.3698931,0.047195554,-0.21978897,-0.97440517,0
-1.7119262,-0.50957513,-2.1915276,0.047195554,-0.21978897,-0.97440517,0
1.1884533,1.6380377,0.65754986,0.64521384,0.75139225,-0.13823462,0
1.1235485,-1.1672727,-1.7919393,0.047195554,-0.21978897,-0.97440517,0
0.15166414,1.9765433,1.5154487,-0.047195554,0.21978897,0.97440517,0
1.0489268,1.1888061,1.8116355,-0.047195554,0.21978897,0.97440517,0
-1.7302284,-0.15679932,1.8230892,-0.047195554,0.21978897,0.97440517,0
0.75064766,-1.7232568,1.3519518,0.37093931,-0.90188003,0.22139663,0
-1.6520741,1.5995538,0.26474953,-0.69531137,0.69313323,-0.19002223,0
1.2160444,-1.0695058,1.5821913,0.62761831,-0.75236541,0.200104,0
-0.65598541,-1.6969824,0.98974895,-0.23362412,-0.95086509,0.20316356,0
0.36025763,2.0191994,0.8979131,0.28609255,0.93759984,-0.19763011,0
1.6797653,-0.99106288,0.30180466,0.86370921,-0.48104519,0.15033954,0
-1.2560513,0.12580776,-2.3384202,0.047195554,-0.21978897,-0.97440517,0
-1.7996829,-0.32346952,1.7512511,-0.91588593,-0.39884031,0.045602173,0
-0.072321296,-2.2105649,-0.9618957,-0.025776774,-0.97543532,0.21877289,0
-1.6288007,-0.31757402,1.8792425,-0.047195554,0.21978897,0.97440517,0
-0.68905288,-1.2356746,-1.7774345,0.047195554,-0.21978897,-0.97440517,0
1.7313191,-0.11466455,-2.0541306,0.047195554,-0.21978897,-0.97440517,0
0.39948884,-2.3820786,-1.6238353,0.047195554,-0.21978897,-0.97440517,0
0.76834917,2.1109593,1.0246646,0.49973339,0.84983248,-0.16748536,0
-1.4830379,1.4416887,1.5027707,-0.81079972,0.56132531,-0.16588503,0
-1.7525551,0.88143182,1.791901,-0.047195554,0.21978897,0.97440517,0
-1.3328859,1.2873197,-0.42504144,-0.62116331,0.75748092,-0.20094526,0
1.7579513,-1.1061488,-1.4246793,0.92638624,-0.35522503,0.12499505,0
-1.8111138,-0.91748756,1.6290545,-0.76756573,-0.6322397,0.10543215,0
-1.8492404,-0.055829167,1.4010841,-0.96984684,-0.2435849,0.0079688095,0
-0.0056193471,-1.1342641,2.1284797,-0.047195554,0.21978897,0.97440517,0
0.23188572,1.0314864,1.8623248,-0.047195554,0.21978897,0.97440517,0
-1.3654506,-0.99184203,0.85390234,-0.71713221,-0.6865083,0.12011588,0
-1.4403408,-1.0188462,1.0691456,-0.80099756,-0.59115481,0.094545662,0
0.87873787,-1.4233365,-1.5449526,0.047195554,-0.21978897,-0.97440517,0
0.89330548,-0.15967357,1.9829602,-0.047195554,0.21978897,0.97440517,0
-1.1289992,-1.8224406,-1.0496758,-0.53446919,-0.82966268,0.16125339,0
0.19279517,1.5402868,1.831682,-0.047195554,0.21978897,0.97440517,0
1.7632183,1.4156148,1.3639225,0.849805,0.52152002,-0.076474726,0
-1.9145229,0.43544126,1.905817,-0.047195554,0.21978897,0.97440517,0
-2.1073232,0.33217454,1.4815686,-0.99726522,-0.065910287,-0.033435889,0
-0.14204344,-1.9580231,0.5169363,-0.0023091584,-0.97551352,0.21992719,0
0.62231255,-1.2852497,2.5028682,-0.047195554,0.21978897,0.97440517,0
-2.0913169,-0.37806654,0.96121323,-0.97288686,-0.2312271,0.0050341114,0
1.4037367,1.5030695,1.9421229,-0.047195554,0.21978897,0.97440517,0
1.9624906,0.26071078,0.75929856,0.98992747,0.1406426,0.016223714,0
-1.5725812,0.76134145,1.9381803,-0.047195554,0.21978897,0.97440517,0
-1.2633225,1.1888604,-1.0540634,-0.60905397,0.76684976,-0.20247191,0
-1.433255,0.44166446,2.0743847,-0.047195554,0.21978897,0.97440517,0
-1.6132944,0.63960207,-1.8205526,-0.87526828,0.4609575,-0.14636838,0
-0.38102105,2.121644,0.93006146,-0.20317854,0.95298696,-0.22479886,0
1.8406196,0.75088787,-2.047852,0.80749285,0.58261085,-0.092303902,0
0.75985086,-0.88382691,2.2603829,-0.047195554,0.21978897,0.97440517,0
1.8166806,1.1358151,-0.10797346,0.80768061,0.5823608,-0.092238396,0
-1.107368,0.79874343,-2.3749976,0.047195554,-0.21978897,-0.97440517,0
-0.25238442,1.7851293,-0.53871977,-0.077930205,0.97170877,-0.22295535,0
1.8793333,-0.61594951,0.61294407,0.9320749,-0.34107625,0.12207919,0
0.81354821,-0.031227946,1.9913645,-0.047195554,0.21978897,0.97440517,0
0.95930713,0.44243336,2.0316997,-0.047195554,0.21978897,0.97440517,0
-1.6530373,0.12218964,1.8972528,-0.047195554,0.21978897,0.97440517,0
2.194931,-0.3861109,-1.346294,0.99888575,0.010370165,0.046042129,0
1.1433842,1.8965904,-0.024381161,0.56603438,0.80963922,-0.15520805,0
-0.8244772,-1.3311429,-1.5957617,0.047195554,-0.21978897,-0.97440517,0
0.7766434,1.9340025,1.7040777,-0.047195554,0.21978897,0.97440517,0
-0.030714689,1.9580725,1.5082601,-0.047195554,0.21978897,0.97440517,0
0.79930121,1.6966479,0.3197512,0.43258086,0.88377023,-0.17839301,0
-1.9994564,-0.022785783,0.99610388,-0.9946233,-0.10036111,-0.025537118,0
-0.41931123,1.5932723,1.805002,-0.047195554,0.21978897,0.97440517,0
-0.6054967,0.96066481,-2.4986305,0.047195554,-0.21978897,-0.97440517,0
-2.0104115,0.26274264,-0.1277355,-0.96550179,0.24004908,-0.10091025,0
-2.029819,0.28419179,-1.1115681,-0.98001802,0.17851481,-0.087733537,0
-0.50778449,-0.46104336,2.0786541,-0.047195554,0.21978897,0.97440517,0
-1.2088898,0.56987417,1.7878988,-0.047195554,0.21978897,0.97440517,0
-0.0090936422,-0.85234743,2.1226532,-0.047195554,0.21978897,0.97440517,0
0.75847119,-2.3656273,-1.0394371,0.31233212,-0.92333245,0.22339666,0
0.29887125,1.9642192,0.31293464,0.20250624,0.95734072,-0.2061314,0
-0.081911743,-0.49464154,2.1893644,-0.047195554,0.21978897,0.97440517,0
-1.9159744,-1.125405,-0.63447517,-0.9292959,-0.36739063,0.037858784,0
-0.48781431,-1.525797,2.3586755,-0.28838211,-0.93695235,0.19737315,0
1.3199177,-0.91506422,-1.7458955,0.047195554,-0.21978897,-0.97440517,0
1.3583674,-1.0171285,1.8691227,0.67278093,-0.71404916,0.1936487,0
-1.8918849,-0.92278111,-1.4150379,-0.93645966,-0.34918112,0.033404425,0
-1.5495467,-1.3267307,1.0940475,-0.752922,-0.64886981,0.10989255,0
-1.7016938,-0.868402,2.2764788,-0.047195554,0.21978897,0.97440517,0
-0.64055389,1.6914177,-1.8025001,-0.26846319,0.93680936,-0.22431183,0
1.9265587,0.32282627,-2.0681059,0.047195554,-0.21978897,-0.97440517,0
1.9819927,-0.67932975,0.39289987,0.92624664,-0.35556453,0.12506485,0
-0.50946879,0.87464225,1.7586671,-0.047195554,0.21978897,0.97440517,0
1.8666681,0.22527695,-0.86664343,0.98640001,0.16400868,0.010782316,0
0.76264095,-0.19024658,-1.8541837,0.047195554,-0.21978897,-0.97440517,0
-0.25608125,2.0118942,1.4350908,-0.047195554,0.21978897,0.97440517,0
-1.4523088,1.3851854,0.63531774,-0.80493313,0.56926513,-0.16739178,0
1.0542064,1.5946286,-0.7790643,0.54545021,0.82288623,-0.15919298,0
-1.4328164,-1.2297406,0.17965311,-0.76660025,-0.63335997,0.10573158,0
1.9683334,-1.2267128,-0.70133615,0.8592996,-0.48842967,0.15179163,0
-0.61808521,1.9355683,1.7877427,-0.047195554,0.21978897,0.97440517,0
0.30741829,-1.8136995,1.0181251,0.089241497,-0.97066361,0.22326738,0
-0.22802809,2.2314146,-0.022870183,-0.13331023,0.96537995,-0.22421008,0
-1.7836295,-0.14783192,1.9882362,-0.047195554,0.21978897,0.97440517,0
-1.3083591,-0.58967245,2.2753167,-0.047195554,0.21978897,0.97440517,0
1.6499414,0.90874606,1.6262494,0.9726674,0.23214367,-0.0052514877,0
1.4915091,0.72608101,-2.1302514,0.047195554,-0.21978897,-0.97440517,0
1.3887469,-1.7943759,-1.2129329,0.63802767,-0.74393332,0.19870621,0
1.135883,0.53975296,2.1136382,-0.047195554,0.21978897,0.97440517,0
0.61894035,-1.5444303,-1.6504411,0.047195554,-0.21978897,-0.97440517,0
-0.99489796,1.8816751,1.7148811,-0.047195554,0.21978897,0.97440517,0
-0.22506687,-0.072955728,1.9724739,-0.047195554,0.21978897,0.97440517,0
0.63771969,-1.8108617,0.5473938,0.25062248,-0.94168317,0.22454697,0
-1.6292733,-1.4311874,0.10861075,-0.79683483,-0.59652835,0.095959336,0
0.58734256,2.0885067,1.6769108,-0.047195554,0.21978897,0.97440517,0
0.45397145,1.0760605,1.6272268,-0.047195554,0.21978897,0.97440517,0
0.19953594,-0.015598059,-2.1998456,0.047195554,-0.21978897,-0.97440517,0
1.5737581,0.46670961,2.2183268,-0.047195554,0.21978897,0.97440517,0
-0.87593663,0.20191717,1.8725445,-0.047195554,0.21978897,0.97440517,0
-0.73519772,-1.3416862,-1.6290772,0.047195554,-0.21978897,-0.97440517,0
0.37330341,-1.1896493,-1.9193439,0.047195554,-0.21978897,-0.97440517,0
1.7637379,0.53712749,1.8104402,0.98594123,0.16678464,0.010133967,0
1.8246865,0.65810567,1.1276392,0.97786444,0.20923945,0.00016656378,0
-0.40594113,-1.6004024,1.6699891,-0.095572487,-0.97201055,0.2146197,0
0.70432007,-0.47689438,-2.0847473,0.047195554,-0.21978897,-0.97440517,0
1.8443367,1.2826004,1.316238,0.86933362,0.4894833,-0.068302572,0
2.0665491,0.011448741,-1.4351954,0.98971796,0.14214936,0.015873674,0
-1.0266583,2.0370269,0.93486798,-0.52039933,0.82723963,-0.21179968,0
0.43099266,1.9969809,0.55274302,0.19664729,0.9584465,-0.20666462,0
-1.716717,-1.1904449,-1.6915753,0.047195554,-0.21978897,-0.97440517,0
0.55229574,-1.6001453,1.3156052,0.30821848,-0.92468798,0.22350329,0
2.0176344,-0.59065586,-0.13701463,0.9463743,-0.30228275,0.11402139,0
-0.61855721,1.3384959,1.8021667,-0.047195554,0.21978897,0.97440517,0
-0.43965441,-0.49711382,1.9590838,-0.047195554,0.21978897,0.97440517,0
0.56819081,0.25164056,-1.9491867,0.047195554,-0.21978897,-0.97440517,0
0.15483445,-2.117933,0.020346045,0.14366114,-0.96385717,0.22436798,0
1.4419272,-0.87241364,-1.9253685,0.047195554,-0.21978897,-0.97440517,0
1.6030537,-1.2387468,-0.31579202,0.86312795,-0.48202705,0.1505329,0
-1.8129262,0.31230289,0.36081031,-0.99183947,0.10535063,-0.071803033,0
-0.12069315,1.3989798,-2.1462297,-0.21308345,0.95082331,-0.22479045,0
-1.3919985,1.4506741,0.52509344,-0.65269542,0.73165476,-0.19664711,0
-0.34589595,-2.1152942,-0.4417901,-0.30799007,-0.93116653,0.19511843,0
-1.5484143,0.72952294,1.6474605,-0.047195554,0.21978897,0.97440517,0
-0.30936068,1.3675729,1.9257637,-0.047195554,0.21978897,0.97440517,0
-1.5403168,0.48732543,1.9742337,-0.047195554,0.21978897,0.97440517,0
-0.59614575,2.1293044,1.7021649,-0.047195554,0.21978897,0.97440517,0
-0.26652837,1.8237003,1.4705848,-0.047195554,0.21978897,0.97440517,0
-1.3656973,1.9972675,0.8928268,-0.55548912,0.80496579,-0.20847517,0
-0.5205512,-1.5323225,1.2930566,-0.30648059,-0.93162733,0.19529539,0
-1.8502479,-1.0583054,-1.4944407,-0.96149826,-0.27438363,0.015320208,0
0.86572373,1.6394885,-0.57110584,0.3753694,0.90789658,-0.18660599,0
1.385667,1.3271639,1.8001807,-0.047195554,0.21978897,0.97440517,0
-1.9360013,-0.99486774,-0.086336911,-0.88488001,-0.46176821,0.061298087,0
0.34483886,-0.11574149,2.1999779,-0.047195554,0.21978897,0.97440517,0
-1.4124043,2.0126481,0.99452722,-0.61397403,0.76307839,-0.20185965,0
-0.62929493,0.50274038,-2.1661737,0.047195554,-0.21978897,-0.97440517,0
-1.8863349,0.46755075,1.7036614,-0.047195554,0.21978897,0.97440517,0
-1.858458,1.6487292,1.4006659,-0.80718946,0.56623089,-0.16681665,0
0.081535429,-0.53472781,-1.7585146,0.047195554,-0.21978897,-0.97440517,0
0.38028345,1.0320815,1.9968064,-0.047195554,0.21978897,0.97440517,0
1.541049,1.6480995,1.2690237,0.70819277,0.69530475,-0.12253296,0
1.9841387,0.2632153,-1.8321786,0.047195554,-0.21978897,-0.97440517,0
-0.48746979,-1.6676276,1.5263218,-0.16071889,-0.9644534,0.20975977,0
0.83322179,-1.1436832,-1.7719239,0.047195554,-0.21978897,-0.97440517,0
-0.79626131,-0.033228397,2.1020334,-0.047195554,0.21978897,0.97440517,0
1.9004519,-0.63612747,-0.84304857,0.96071327,-0.25710785,0.10452613,0
-0.61989558,0.44887054,2.0552588,-0.047195554,0.21978897,0.97440517,0
0.016733468,-0.6436035,2.1863422,-0.047195554,0.21978897,0.97440517,0
-0.84373695,2.1028962,1.4771196,-0.39105427,0.893565,-0.22049528,0
1.0025349,2.0167015,1.3936778,0.44967252,0.87573165,-0.17575192,0
-0.17623803,1.8265772,1.5774245,-0.047195554,0.21978897,0.97440517,0
1.4923936,-1.7449377,-0.44127154,0.66270095,-0.72300237,0.19518,0
-0.68002969,0.96465313,-2.1341426,0.047195554,-0.21978897,-0.97440517,0
1.8501992,0.46121758,-1.1432619,0.90414864,0.42405888,-0.051859006,0
0.48639956,1.197199,1.9973407,-0.047195554,0.21978897,0.97440517,0
1.5486853,1.1237786,-1.400939,0.74116313,0.661686,-0.11335298,0
-0.33436912,2.0711894,1.0894222,-0.081463106,0.97139591,-0.2230559,0
1.1078551,-1.0280892,2.280189,-0.047195554,0.21978897,0.97440517,0
1.7647593,-0.40805683,0.84948725,0.96898454,-0.22681831,0.098094642,0
-1.7866111,-0.24429452,-0.98905027,-0.99888533,-0.00955154,-0.046226755,0
-0.23349762,-0.47112131,2.2134552,-0.047195554,0.21978897,0.97440517,0
0.35473296,-2.0937009,-1.5876509,0.047195554,-0.21978897,-0.97440517,0
-1.5135947,-1.4483876,-0.46136689,-0.78486121,-0.611561,0.099930108,0
0.34265941,-2.0708981,-0.60043883,0.06642592,-0.97264236,0.22260869,0
-0.8102783,1.8168671,1.7671442,-0.047195554,0.21978897,0.97440517,0
1.5072596,-1.694085,-1.4729277,0.047195554,-0.21978897,-0.97440517,0
-1.284832,-1.4133723,0.65403062,-0.67352724,-0.72738075,0.1314472,0
-1.1125115,0.4836728,-2.1704185,0.047195554,-0.21978897,-0.97440517,0
1.6090262,-0.99995363,-0.29178458,0.89038152,-0.43290201,0.1407721,0
1.5174268,1.2468829,-0.024064004,0.77872217,0.6190359,-0.10191351,0
1.2464181,-1.6485949,-0.30775082,0.5502305,-0.80843341,0.20900249,0
-1.333182,1.4446468,1.5053612,-0.047195554,0.21978897,0.97440517,0
-1.7412126,0.24911281,-1.3785266,-0.94290131,0.31218719,-0.11608729,0
-0.48149621,-1.9457369,-1.7502626,0.047195554,-0.21978897,-0.97440517,0
1.8444608,-0.55049628,0.53882915,0.97712582,-0.19234402,0.090712816,0
1.1987649,-1.4623611,-1.5206393,0.047195554,-0.21978897,-0.97440517,0
-1.8247377,1.5531256,1.016512,-0.82140094,0.54654425,-0.16306442,0
0.96492815,0.79575396,1.9768952,-0.047195554,0.21978897,0.97440517,0
0.61425388,-2.1744289,-0.28373921,0.2205824,-0.94911671,0.22476882,0
1.3354361,0.15085721,1.89033,-0.047195554,0.21978897,0.97440517,0
1.8138227,0.77990574,-0.72371185,0.91597885,0.39863253,-0.045550793,0
0.51681483,-0.10721231,-1.8160639,0.047195554,-0.21978897,-0.97440517,0
-1.6022561,-0.95294446,-0.30860263,-0.90718776,-0.41771084,0.05027993,0
1.8776522,-0.49085069,-1.9657215,0.047195554,-0.21978897,-0.97440517,0
2.016356,-0.42327881,-1.0489473,0.98567063,-0.14790472,0.081102878,0
-0.92778832,2.1415792,1.3733914,-0.36508876,0.90420526,-0.22163761,0
-1.5701144,-0.62860823,1.5027802,-0.80367774,-0.58765322,0.093626022,0
1.9356699,-0.8961401,-0.064262092,0.88215405,-0.44844502,0.14387959,0
1.7655205,-0.73497319,-1.6163584,0.047195554,-0.21978897,-0.97440517,0
-0.71343571,-1.8996089,-0.62291813,-0.39130843,-0.90159309,0.18441218,0
-1.3310148,1.4115152,1.8566713,-0.047195554,0.21978897,0.97440517,0
-0.13337404,-0.61789811,2.3764288,-0.047195554,0.21978897,0.97440517,0
-0.68945521,0.59137195,-2.3199408,0.047195554,-0.21978897,-0.97440517,0
1.1350482,0.86360049,1.9097414,-0.047195554,0.21978897,0.97440517,0
1.4191991,-1.1068431,-1.5415874,0.047195554,-0.21978897,-0.97440517,0
1.5656846,-0.43709981,-2.0533798,0.047195554,-0.21978897,-0.97440517,0
-1.4354434,-0.11999035,-2.25615,0.047195554,-0.21978897,-0.97440517,0
1.9391779,-0.42274439,-0.80583596,0.98422885,-0.15626299,0.082918316,0
0.60884887,-1.8512609,1.0417085,0.29810303,-0.92793971,0.2237469,0
0.37656206,2.0605855,1.6241291,-0.047195554,0.21978897,0.97440517,0
-2.0787959,-0.49794966,-0.074727833,-0.99076885,-0.1344053,-0.01767135,0
-1.5704296,-1.5027317,-0.53161401,-0.73018777,-0.67324263,0.11649126,0
-1.3420844,-0.85177171,2.3838065,-0.047195554,0.21978897,0.97440517,0
-0.75962639,2.1125884,1.0788095,-0.28574044,0.93175763,-0.22400922,0
1.3508674,1.1758506,-0.60995787,0.73821306,0.66482979,-0.11420497,0
0.68179476,1.546131,-1.7511007,0.25996196,0.94458008,-0.20047027,0
-1.5801316,-0.88809907,-2.0283852,0.047195554,-0.21978897,-0.97440517,0
1.8580137,0.91720408,0.2797052,0.93808955,0.34487844,-0.032354966,0
-0.20191029,-2.1999521,-0.35097325,-0.20361982,-0.95712644,0.20602918,0
1.5537626,-0.26789051,2.0808094,-0.047195554,0.21978897,0.97440517,0
-1.2379575,-0.67248476,-1.8257104,0.047195554,-0.21978897,-0.97440517,0
1.8328836,0.60882229,-0.46937454,0.92357373,0.38119549,-0.041249797,0
1.3422967,1.2260516,-0.34531587,0.7463336,0.65610754,-0.11184427,0
-1.8066227,1.4041561,1.3173596,-0.8176924,0.55178034,-0.16406584,0
-0.038216949,-1.9778726,1.1404612,-0.0056175888,-0.97553515,0.2197718,0
-2.1017635,-0.51828456,0.36465105,-0.96745193,-0.25285012,0.010174692,0
-1.9964837,1.0375464,1.0540532,-0.92848402,0.35008159,-0.12393647,0
-0.8570708,0.86411893,-2.3004906,0.047195554,-0.21978897,-0.97440517,0
1.3164517,1.02403,-2.070765,0.047195554,-0.21978897,-0.97440517,0
0.85453367,-0.31359386,-2.1315823,0.047195554,-0.21978897,-0.97440517,0
0.58261079,0.12543178,2.0317218,-0.047195554,0.21978897,0.97440517,0
1.1311362,-0.32054996,-2.0216503,0.047195554,-0.21978897,-0.97440517,0
-2.0058975,-0.48478365,2.1804779,-0.047195554,0.21978897,0.97440517,0
1.7758756,1.0847087,1.4841977,0.89183789,0.44862199,-0.057995811,0
0.28470817,-2.39568,-1.6159873,0.047195554,-0.21978897,-0.97440517,0
0.24213517,-2.2405472,-0.48557532,0.0081662536,-0.97537464,0.22040325,0
0.45207679,1.2562621,1.9208058,-0.047195554,0.21978897,0.97440517,0
1.0164547,-0.17862976,-2.1377199,0.047195554,-0.21978897,-0.97440517,0
1.6672302,-1.8609024,-1.4482572,0.74930811,-0.63727826,0.18003875,0
0.025517642,-2.1026385,-0.78963512,-0.063702703,-0.97416878,0.21665025,0
1.8619071,-1.1017427,-0.54121566,0.90345907,-0.40669745,0.1354948,0
1.9960461,0.3277967,2.1762514,-0.047195554,0.21978897,0.97440517,0
1.0103168,-1.0865529,2.1149468,0.56447792,-0.79892933,0.20754886,0
0.58270901,1.3904169,1.939301,-0.047195554,0.21978897,0.97440517,0
-1.1925207,1.5320696,1.6112717,-0.047195554,0.21978897,0.97440517,0
0.53622317,0.52478063,-2.1148875,0.047195554,-0.21978897,-0.97440517,0
1.5435516,1.6556208,1.1360419,0.72183716,0.68178618,-0.11882284,0
-1.7237818,-1.0015831,1.9238725,-0.7842114,-0.61235946,0.10014167,0
-1.1850027,1.0932803,1.5670453,-0.047195554,0.21978897,0.97440517,0
0.71151042,-1.977711,0.17452431,0.38626707,-0.89558947,0.22072005,0
-0.91768378,-1.8640034,-0.81876802,-0.56680638,-0.80912817,0.15505534,0
-0.43389133,2.3372076,1.5701497,-0.047195554,0.21978897,0.97440517,0
-1.7966834,1.118673,0.8691591,-0.92360723,0.36191243,-0.12636888,0
1.8520113,0.67989373,0.0075113624,0.90340418,0.4255957,-0.052241728,0
-1.7531298,0.11193478,-1.9827173,0.047195554,-0.21978897,-0.97440517,0
0.66033745,1.9114176,1.490031,-0.047195554,0.21978897,0.97440517,0
0.80416578,0.32346749,-2.1070707,0.047195554,-0.21978897,-0.97440517,0
1.2569293,-0.52500403,-2.0099642,0.047195554,-0.21978897,-0.97440517,0
0.06760782,0.71215266,-2.266922,0.047195554,-0.21978897,-0.97440517,0
1.6448374,0.99513537,1.3325462,0.91269791,0.40588295,-0.047345132,0
-2.1933942,0.36246967,1.3242755,-0.99336988,0.092045933,-0.068876162,0
0.63488865,-1.112373,-1.593919,0.047195554,-0.21978897,-0.97440517,0
-1.4654047,-1.3199134,-0.63796908,-0.84713984,-0.52568173,0.077542514,0
-1.9764253,-0.96089059,-1.0962718,-0.92557347,-0.37644047,0.040080398,0
0.047345594,-2.0867348,-0.48045206,0.10982414,-0.96843654,0.22376198,0
-0.42916197,-0.74777782,2.3814957,-0.047195554,0.21978897,0.97440517,0
-0.38454276,2.1912191,0.56631136,-0.14097026,0.96426332,-0.22432935,0
2.076771,-0.29126555,-0.28495869,0.99845803,-0.018159643,0.052456632,0
1.353739,-1.0973665,0.63307488,0.77880025,-0.60274875,0.1736787,0
0.68664932,-1.5281837,1.2949753,0.42534548,-0.87821114,0.2186929,0
-1.0514473,1.7636008,1.6547112,-0.047195554,0.21978897,0.97440517,0
-0.15601043,2.2479572,1.4466025,-0.15845925,0.96149242,-0.22455132,0
1.3328189,-1.1211114,1.5955073,0.69700891,-0.6915046,0.18973702,0
0.76014167,2.058903,0.7546916,0.38691884,0.90336055,-0.18502343,0
1.0260623,1.7907026,-0.15057957,0.47547501,0.86283231,-0.17159265,0
-0.60854888,-0.60989988,-2.1449518,0.047195554,-0.21978897,-0.97440517,0
-2.0017891,0.69971716,0.71938235,-0.9547106,0.27696389,-0.10871419,0
0.0091512082,-2.3134551,-1.5319328,0.047195554,-0.21978897,-0.97440517,0
1.0328417,-1.6402159,-0.2854141,0.53496975,-0.81823468,0.21047419,0
0.51030791,2.2559075,0.39993346,0.2546435,0.94590938,-0.20102769,0
-1.3413382,-1.6285638,-1.6081755,0.047195554,-0.21978897,-0.97440517,0
-0.80912524,-1.819826,-0.39155221,-0.49293613,-0.85356265,0.16865599,0
1.9585817,0.55262816,1.1117108,0.97190022,0.23531649,-0.0060043,0
-0.78750092,1.9094328,1.5940785,-0.047195554,0.21978897,0.97440517,0
0.56314719,0.14887583,-2.263922,0.047195554,-0.21978897,-0.97440517,0
0.11364394,2.1170955,-0.14367509,0.019318104,0.9755106,-0.21910262,0
1.0883112,-1.9628925,-0.18907034,0.52146626,-0.82659185,0.21170515,0
-1.2184057,0.42604816,2.0191467,-0.047195554,0.21978897,0.97440517,0
-0.57388812,-2.4282417,-0.89191073,-0.27601475,-0.94038087,0.19874555,0
-1.8213121,-0.66904372,-0.79647177,-0.94352728,-0.33004534,0.028745815,0
1.8204917,0.32154036,-2.0119786,0.047195554,-0.21978897,-0.97440517,0
-0.12891918,1.9507352,0.61908627,-0.02199319,0.97502702,-0.22099453,0
1.8278081,0.90105206,-0.77374524,0.82312614,0.56119829,-0.086716831,0
-0.3186433,-0.13807142,-1.84145,0.047195554,-0.21978897,-0.97440517,0
-0.091813356,-1.7906599,0.41245222,0.0078783333,-0.97538,0.22039038,0
0.58882314,1.280962,-2.4544997,0.047195554,-0.21978897,-0.97440517,0
0.40908474,1.8366939,1.4796132,-0.047195554,0.21978897,0.97440517,0
0.31793568,1.868912,-0.27788067,0.25987637,0.94460177,-0.20047927,0
-0.12260371,1.7144969,1.6131527,-0.047195554,0.21978897,0.97440517,0
-1.0547082,1.8443979,1.6273491,-0.047195554,0.21978897,0.97440517,0
1.8177259,0.18433785,-1.800437,0.95517707,0.29533467,-0.020352118,0
-1.8109667,0.89591324,-0.8066597,-0.88407195,0.44488153,-0.14316869,0
-1.33331,1.2159919,-0.36986899,-0.69257843,0.69573951,-0.19047767,0
-0.19236213,1.4772971,-2.2561283,0.047195554,-0.21978897,-0.97440517,0
-1.6309181,1.4839222,1.55246,-0.047195554,0.21978897,0.97440517,0
-1.3343213,-1.1144074,-2.0704772,0.047195554,-0.21978897,-0.97440517,0
1.826849,0.51134431,-1.7491903,0.87357795,0.48212823,-0.06643796,0
1.0825455,0.24995255,1.9580077,-0.047195554,0.21978897,0.97440517,0
-0.81683618,-1.3777966,-1.7542865,0.047195554,-0.21978897,-0.97440517,0
-1.7850276,1.1130737,1.4474487,-0.90254587,0.40859288,-0.13587809,0
-0.37154916,2.1693196,1.4082474,-0.047195554,0.21978897,0.97440517,0
0.9760043,0.81661844,-2.2582409,0.047195554,-0.21978897,-0.97440517,0
0.37843549,1.3306668,-2.3855534,0.047195554,-0.21978897,-0.97440517,0
-1.5558617,1.1044853,-0.30786932,-0.85787016,0.49079239,-0.1522553,0
2.1072168,-0.76518345,-1.1034435,0.98410344,-0.15697002,0.083071768,0
1.6830997,-0.65545475,1.3525615,0.90022802,-0.4133572,0.13684046,0
1.9364511,0.36538994,-1.5212505,0.92952979,0.36681312,-0.037717193,0
0.75174618,2.1133997,1.1486052,0.44997564,0.87558556,-0.1757043,0
0.69592941,1.5866699,-0.92755103,0.34911236,0.9176029,-0.19006723,0
2.0793793,0.22886932,-1.9196235,0.047195554,-0.21978897,-0.97440517,0
0.045141198,2.1391659,0.96828282,0.11607523,0.97009027,-0.21319348,0
-1.0938525,0.065329552,1.983602,-0.047195554,0.21978897,0.97440517,0
0.078844845,2.178632,0.90538728,-0.028903112,0.9747833,-0.2212742,0
-0.60576749,1.9526203,0.29603183,-0.37132555,0.90172517,-0.22138029,0
0.32805598,1.4267354,-2.2909296,0.047195554,-0.21978897,-0.97440517,0
-1.5526568,-0.99426705,-0.64755267,-0.84339815,-0.53144592,0.079023927,0
1.2132127,1.2580171,-1.6330233,0.58402407,0.79745638,-0.15158868,0
-1.198402,-1.8110329,-1.3795679,-0.67488819,-0.726179,0.13111016,0
-0.40225479,-0.30296421,1.9051113,-0.047195554,0.21978897,0.97440517,0
-0.90776372,1.5633066,1.529309,-0.047195554,0.21978897,0.97440517,0
-0.81162536,1.9452226,1.1527008,-0.38691115,0.89531881,-0.22069013,0
-1.4511089,1.0744783,-0.79707217,-0.80472463,0.5695442,-0.16744465,0
0.64107966,-0.0068559647,-2.0580051,0.047195554,-0.21978897,-0.97440517,0
-0.053037882,-1.8618408,0.18190145,-0.00138551,-0.97550565,0.21997023,0
-1.1208285,-1.9679316,-1.6313614,0.047195554,-0.21978897,-0.97440517,0
-1.4997784,-0.3956722,-2.2023957,0.047195554,-0.21978897,-0.97440517,0
-1.8530957,-1.2332637,-0.47109103,-0.84163827,-0.53412616,0.079713762,0
0.48823136,1.5953124,-0.88073421,0.21668816,0.95451581,-0.20480734,0
-0.91208541,-1.5968132,0.710024,-0.54291648,-0.82446742,0.15967244,0
1.0525634,0.55739272,1.9333154,-0.047195554,0.21978897,0.97440517,0
-1.0950358,-1.5372279,1.245905,-0.51455688,-0.84145504,0.16487777,0
-0.12244028,1.3404063,-2.2089329,0.047195554,-0.21978897,-0.97440517,0
1.9768548,-0.18781056,1.0378876,0.99096227,-0.11232141,0.073332906,0
0.75149584,1.195104,1.8802319,-0.047195554,0.21978897,0.97440517,0
0.4347688,1.2749778,-2.3178954,0.047195554,-0.21978897,-0.97440517,0
-0.32756281,-1.2489434,2.2445545,-0.047195554,0.21978897,0.97440517,0
-0.077022791,-1.4115864,1.9233769,0.00094248354,-0.97548205,0.22007746,0
-0.66378969,-0.28949153,2.0811405,-0.047195554,0.21978897,0.97440517,0
1.7142956,1.1716869,-0.54076838,0.80406141,0.58714914,-0.093493789,0
0.86760354,-0.84498036,-1.8231783,0.047195554,-0.21978897,-0.97440517,0
0.36692977,1.8669323,-1.5714123,0.14122184,0.96716213,-0.21131504,0
-1.2439634,-0.85282439,2.2033303,-0.047195554,0.21978897,0.97440517,0
0.083688661,-1.16008,-1.6285559,0.047195554,-0.21978897,-0.97440517,0
0.89399815,1.2313428,-2.3224072,0.047195554,-0.21978897,-0.97440517,0
1.0114363,-2.275527,-1.6614083,0.047195554,-0.21978897,-0.97440517,0
1.9265629,0.55051029,0.50114059,0.98913825,0.146229,0.014925383,0
2.0246291,0.70166898,-0.41902354,0.94360054,0.32984039,-0.028696023,0
-1.8155833,1.2130177,0.27147418,-0.81114781,0.56084889,-0.16579443,0
-0.97596872,-2.0104976,-1.1091362,-0.52355337,-0.83620495,0.16325778,0
0.6923914,0.23137164,1.8667241,-0.047195554,0.21978897,0.97440517,0
-1.2934691,-1.4277754,1.9852443,-0.59073853,-0.792759,0.15020388,0
-1.7806664,-0.12085688,1.9441808,-0.047195554,0.21978897,0.97440517,0
1.0795622,1.536562,-2.0244913,0.43860739,0.88098085,-0.17747188,0
0.44932687,-1.9100875,0.94656277,0.17834659,-0.95796353,0.22471857,0
2.2889285,-0.223261,-1.242431,0.99634629,0.079872496,0.030242026,0
0.3730363,-0.31300724,1.9580063,-0.047195554,0.21978897,0.97440517,0
0.96600395,1.8857301,1.4697671,-0.047195554,0.21978897,0.97440517,0
1.2254019,-1.0899622,2.5250528,-0.047195554,0.21978897,0.97440517,0
1.1663754,1.2891362,-0.96895641,0.58741736,0.79509288,-0.15089118,0
1.9196889,-0.078379869,0.03835389,0.99714416,0.06794396,0.032971308,0
1.5307819,-0.9764486,0.31146574,0.84845763,-0.50598836,0.15522712,0
0.22372513,-2.2199097,-1.7035494,0.047195554,-0.21978897,-0.97440517,0
-0.56057131,0.2667954,2.115591,-0.047195554,0.21978897,0.97440517,0
1.2577956,1.7773015,0.41615236,0.60363346,0.78350055,-0.14749098,0
-0.25134769,-0.53436661,-2.0061491,0.047195554,-0.21978897,-0.97440517,0
0.74729234,0.75315332,-2.253387,0.047195554,-0.21978897,-0.97440517,0
2.0492427,-0.24769706,0.7604869,0.96245033,-0.25105709,0.1032455,0
0.63079375,-1.7005682,1.1046813,0.41940942,-0.88097793,0.21902943,0
-1.7426302,0.38673824,-1.974473,-0.95820767,0.26558387,-0.10631669,0
-2.1068065,0.18511906,-0.103293,-0.99647272,0.05740346,-0.06121242,0
-1.2496189,0.167261,2.134737,-0.047195554,0.21978897,0.97440517,0
-0.16707224,1.9173586,-0.56956577,-0.029439181,0.97476238,-0.22129542,0
0.17950931,1.923628,-0.69811714,0.13446781,0.96801084,-0.21183366,0
0.8818804,2.2619879,1.5666063,0.52254009,0.83680272,-0.16344172,0
1.9802889,0.76961541,-1.1671796,0.91121864,0.40910017,-0.048142463,0
1.1845063,1.1261996,-2.4306631,0.047195554,-0.21978897,-0.97440517,0
-0.27286035,-1.0165844,2.4531169,-0.047195554,0.21978897,0.97440517,0
-0.32224455,0.82483089,-2.3080063,0.047195554,-0.21978897,-0.97440517,0
-0.16018185,0.71805918,-2.2495923,0.047195554,-0.21978897,-0.97440517,0
-0.21123797,1.6316423,-1.3629935,-0.21692687,0.94995588,-0.22478104,0
-1.1145594,-1.0631937,-2.0658057,0.047195554,-0.21978897,-0.97440517,0
-1.439043,-0.22149706,-2.2711811,0.047195554,-0.21978897,-0.97440517,0
0.37285662,0.39320421,-2.0184221,0.047195554,-0.21978897,-0.97440517,0
-0.57346702,1.7481973,-1.680263,-0.36878961,0.90273923,-0.22148627,0
1.4898552,-0.60096812,-1.9736344,0.047195554,-0.21978897,-0.97440517,0
-0.67723042,0.54197776,-2.3591721,0.047195554,-0.21978897,-0.97440517,0
0.87537265,-0.41757065,1.9850163,-0.047195554,0.21978897,0.97440517,0
1.6984469,0.76369756,-1.8413831,0.80668938,0.58367848,-0.092583627,0
-0.35432646,-2.0841284,0.64888871,-0.12306547,-0.96933985,0.21268576,0
-0.58206469,1.1992527,1.6794966,-0.047195554,0.21978897,0.97440517,0
0.38480771,1.8074043,-1.7193069,0.1306023,0.96847606,-0.21212578,0
0.29369685,-0.74148273,-2.063427,0.047195554,-0.21978897,-0.97440517,0
-0.64769638,0.63182008,1.9332118,-0.047195554,0.21978897,0.97440517,0
-0.35185587,-0.39282632,2.0535474,-0.047195554,0.21978897,0.97440517,0
1.7457936,-1.4395105,-0.56078953,0.75622952,-0.62945664,0.17860973,0
-1.9120073,-0.064952254,-1.336345,-0.99536765,0.071451172,-0.064327523,0
1.7032895,-0.56440997,1.9145927,0.84718418,-0.50799781,0.15561873,0
-1.4741259,-0.86082423,1.658396,-0.72137237,-0.68225545,0.11895123,0
-1.1943433,-1.7296557,-1.7593796,0.047195554,-0.21978897,-0.97440517,0
0.40830353,1.710397,-0.55675352,0.27772915,0.93991572,-0.19855756,0
-1.6935871,1.4117092,1.4343388,-0.80963802,0.56291068,-0.16618639,0
-1.1167355,-0.75166512,-1.8998724,0.047195554,-0.21978897,-0.97440517,0
1.8281723,-0.39548093,0.91264141,0.92219347,-0.36526173,0.12705591,0
2.0379167,-0.22532868,1.8293934,0.95692557,-0.26981434,0.10720882,0
-0.91585237,1.342067,-2.0907235,-0.43324733,0.87445593,-0.21822864,0
0.83545154,-1.4545383,1.2494842,0.39701819,-0.89100283,0.22020614,0
0.89356083,-2.023998,-0.61145437,0.44164824,-0.87037206,0.21771431,0
-0.69212186,-2.2603106,-1.6814008,0.047195554,-0.21978897,-0.97440517,0
-0.35934007,1.2472215,-2.199151,0.047195554,-0.21978897,-0.97440517,0
-1.5367019,1.0026113,-1.6498458,-0.77818686,0.60350019,-0.17381847,0
-0.10597476,-2.2253942,-0.60323262,-0.015725821,-0.9755348,0.21928209,0
1.5423076,-1.2884881,-1.6022724,0.047195554,-0.21978897,-0.97440517,0
-0.80923784,-2.3477397,-1.1348176,-0.39024282,-0.90202433,0.18456107,0
0.80782831,0.092431664,2.0603421,-0.047195554,0.21978897,0.97440517,0
-0.52550465,-1.815551,-0.31588095,-0.33052903,-0.92397571,0.19240475,0
-1.4518343,-1.6051006,-0.33923298,-0.658283,-0.74053836,0.13515335,0
1.6356446,-1.1573331,-0.50832492,0.82799792,-0.53704804,0.16124195,0
-0.82005513,0.14915109,-2.2519407,0.047195554,-0.21978897,-0.97440517,0
-1.1538935,0.8158114,1.8970693,-0.047195554,0.21978897,0.97440517,0
-0.75586802,2.0275061,-0.11601055,-0.41730613,0.8819471,-0.21914625,0
-0.48141986,-1.4955279,-1.6021862,0.047195554,-0.21978897,-0.97440517,0
-2.1424775,-0.080876887,0.22663784,-0.99834383,-0.042506784,-0.038767055,0
-2.1319394,-0.074617982,1.7310742,-0.97800505,-0.20858103,-0.00032190327,0
-1.2496282,-1.7083089,-1.0695715,-0.68927842,-0.71319222,0.12748384,0
0.3783488,-1.8292305,1.1191001,0.26768577,-0.937029,0.22432375,0
-1.8287605,-0.18650967,0.076447926,-0.99516231,-0.094492845,-0.02688688,0
1.3911819,0.68307507,-2.1521597,0.047195554,-0.21978897,-0.97440517,0
1.6581204,-1.2597505,0.13804471,0.85883301,-0.48920256,0.15194333,0
1.7851503,0.036141396,2.108742,-0.047195554,0.21978897,0.97440517,0
1.5891448,-0.8853476,-1.5791571,0.047195554,-0.21978897,-0.97440517,0
-1.5750034,-1.1992642,-1.9557794,0.047195554,-0.21978897,-0.97440517,0
-0.038722813,0.861875,-2.4218717,0.047195554,-0.21978897,-0.97440517,0
-0.25046796,-1.6074228,2.3080764,-0.16780655,-0.96337312,0.20917279,0
0.17442298,-2.3281024,-0.70770788,0.078318007,-0.97167498,0.22296655,0
-1.7181612,-0.94205368,-1.1310608,-0.89828318,-0.43598247,0.054832608,0
1.5918502,1.6541715,1.0528212,0.79990965,0.59256679,-0.09491685,0
1.304129,1.2658061,-1.1156638,0.6373595,0.75773352,-0.1400454,0
1.0767779,1.6919104,0.4426769,0.53733861,0.82791096,-0.16071934,0
-1.5656214,-1.1915379,-0.089663088,-0.81774902,-0.56870389,0.088670254,0
-0.41683275,-1.9739792,-0.44826132,-0.25627163,-0.94550574,0.20085776,0
-1.2990808,1.8785801,1.1089402,-0.53621054,0.81745207,-0.21035779,0
1.2487597,1.1001102,-1.9449744,0.5410459,0.82562792,-0.16002476,0
0.25887099,0.61918437,2.0016463,-0.047195554,0.21978897,0.97440517,0
-1.6607012,-0.36874187,-2.0606594,0.047195554,-0.21978897,-0.97440517,0
0.81433654,-1.6604929,1.1940829,0.35837501,-0.9068222,0.22190279,0
-1.2612915,1.8494136,1.7455332,-0.58367491,0.7855624,-0.20546371,0
-0.31929615,-2.0701423,-1.5699518,0.047195554,-0.21978897,-0.97440517,0
1.9179598,-0.27889276,1.5309291,0.92681414,-0.35418257,0.12478065,0
1.1923039,0.04916513,2.284476,-0.047195554,0.21978897,0.97440517,0
0.84231162,1.8278205,0.13729727,0.4896394,0.85534704,-0.16921818,0
0.77621031,-1.8266912,0.37687945,0.40445995,-0.88774234,0.21983129,0
0.66229081,1.67787,-1.6604499,0.29309756,0.93560034,-0.19683981,0
0.96280134,-1.5331426,1.4126902,0.47484085,-0.85328764,0.21546835,0
-1.9401634,0.0026046336,-0.77780867,-0.99129707,0.10970974,-0.072760046,0
0.88446003,2.0879047,1.2460088,0.56703234,0.80897844,-0.15501064,0
-1.5919557,1.0705615,-0.69505644,-0.73658717,0.65123522,-0.18257082,0
-0.048792303,-1.0545084,2.3606405,-0.047195554,0.21978897,0.97440517,0
-1.6184464,1.8395675,1.5532987,-0.74862754,0.63803846,-0.18017727,0
-0.48328111,-1.9826683,-0.052499771,-0.21006736,-0.95586067,0.2054314,0
1.5693085,-1.4216733,0.51362991,0.74624294,-0.64068997,0.18065983,0
1.6138253,-0.69329613,0.63078582,0.89309382,-0.42762572,0.13971335,0
-0.84515297,1.9470415,1.5031641,-0.047195554,0.21978897,0.97440517,0
-0.80259264,-1.549755,0.71875453,-0.45190513,-0.87465221,0.17540038,0
-1.4493781,1.5075643,1.77352,-0.047195554,0.21978897,0.97440517,0
0.66948354,2.1758072,0.76190269,0.39180255,0.90139264,-0.18434298,0
1.7861501,-1.1498517,-1.6212945,0.047195554,-0.21978897,-0.97440517,0
-0.30496931,2.0215805,-0.83273339,-0.17826672,0.95797849,-0.22471815,0
-0.81114829,-1.6408641,2.0893874,-0.35552716,-0.91530824,0.18923891,0
1.8653547,-0.35827225,-0.095227242,0.98615909,-0.14496824,0.080464184,0
0.015831187,-1.0915025,-1.8950911,0.047195554,-0.21978897,-0.97440517,0
-0.57579821,1.1072631,-2.2126679,0.047195554,-0.21978897,-0.97440517,0
1.516536,0.46404564,-2.0123241,0.047195554,-0.21978897,-0.97440517,0
1.2030524,2.0392976,1.3269588,0.5385499,0.82716751,-0.1604929,0
-0.23740743,0.10558689,-1.898838,0.047195554,-0.21978897,-0.97440517,0
-1.2431926,-0.15094137,-2.2040281,0.047195554,-0.21978897,-0.97440517,0
1.0137206,1.7742893,0.2278952,0.48985946,0.85522842,-0.16918075,0
-1.6965442,-0.97753131,-0.68727243,-0.92909211,-0.36789304,0.037981987,0
-0.37134048,1.2186649,1.7513368,-0.047195554,0.21978897,0.97440517,0
0.47768807,1.7333481,-1.3709959,0.33548993,0.92231417,-0.19178969,0
0.76683575,0.98028553,-2.3845179,0.047195554,-0.21978897,-0.97440517,0
1.2041745,1.6773614,1.3467563,0.68167675,0.72011721,-0.12941408,0
0.097069502,-1.3131267,-1.9055684,0.047195554,-0.21978897,-0.97440517,0
1.6401794,-1.0247935,0.61431599,0.87345612,-0.46418011,0.14700758,0
1.9399511,0.55228925,-0.56723058,0.95223689,0.30452543,-0.022567622,0
1.8507538,-1.4057454,-1.3986207,0.86081511,-0.48590821,0.15129632,0
-0.084865332,0.78806764,-2.4107451,0.047195554,-0.21978897,-0.97440517,0
-0.85960102,-1.737772,0.66974318,-0.46342048,-0.86897516,0.17356205,0
-0.22822869,-1.6808505,1.7867506,-0.089778602,-0.9724775,0.2150057,0
0.068413496,-1.2021108,2.5163739,-0.047195554,0.21978897,0.97440517,0
-0.80798316,-0.32697666,-1.8178389,0.047195554,-0.21978897,-0.97440517,0
-0.48555797,-0.99691474,2.073714,-0.047195554,0.21978897,0.97440517,0
-1.2650028,-0.64121866,2.3189862,-0.047195554,0.21978897,0.97440517,0
1.7998779,-1.1288275,-1.8273895,0.047195554,-0.21978897,-0.97440517,0
-1.3700721,-1.860459,-0.86025709,-0.6183809,-0.7725172,0.14429927,0
1.6057417,0.56610096,2.118336,-0.047195554,0.21978897,0.97440517,0
0.058707923,-2.1367812,-1.4206671,0.047195554,-0.21978897,-0.97440517,0
1.0454339,-0.90297794,-1.8999867,0.047195554,-0.21978897,-0.97440517,0
-0.86921287,1.5058082,-0.64159179,-0.52215457,0.82617277,-0.21164399,0
-0.14065844,0.83664173,-2.2970679,0.047195554,-0.21978897,-0.97440517,0
-1.3446845,1.8730905,0.40545011,-0.60044372,0.77333564,-0.20351785,0
-1.795859,0.66872811,-1.9844298,-0.84533548,0.51089627,-0.15618294,0
1.3705375,1.6305399,1.9152132,-0.047195554,0.21978897,0.97440517,0
-1.532848,1.6749032,1.0550368,-0.71173644,0.67704618,-0.18718916,0
-1.666587,-0.83867329,-1.4727197,-0.98095024,-0.19422376,-0.0037029865,0
2.1272092,-0.80608785,-1.8243115,0.047195554,-0.21978897,-0.97440517,0
0.85103619,0.28947234,1.8750269,-0.047195554,0.21978897,0.97440517,0
-1.6030382,1.1348661,-0.093095183,-0.80553347,0.56846011,-0.16723931,0
