0.72961897,0.42557818,1.3039172,0.60132533,0.76698124,-0.22393672,0
0.15792632,0.036959648,2.0115087,0.25395304,0.082273096,0.96371102,0
-0.95064515,1.0701146,1.1697471,-0.50117189,0.58034194,0.64189577,0
0.63349277,-0.79786497,-1.7585534,0.1850073,-0.40630794,-0.89481074,0
-0.83713222,0.94933462,-0.75721961,0.60132533,0.76698124,-0.22393672,0
0.27778459,0.59367776,1.8415271,0.16422027,0.15564843,0.97406632,0
0.76856303,-0.00240767,0.0024064928,0.60132533,0.76698124,-0.22393672,0
-1.3604687,-0.11926344,-0.99520493,-0.60132533,-0.76698124,0.22393672,0
1.2072002,-1.3859246,0.58299893,-0.60132533,-0.76698124,0.22393672,0
-1.4262085,1.0588188,1.3073299,-0.56737792,0.60722744,0.55619895,0
-0.36017549,0.31113863,1.9261856,-0.60132533,-0.76698124,0.22393672,0
-0.018343687,-0.08212018,2.2409964,0.1143344,0.19478677,0.974159,0
-1.0469769,-0.34845138,-1.5274029,-0.60132533,-0.76698124,0.22393672,0
0.2370429,0.79244441,1.0968146,0.60132533,0.76698124,-0.22393672,0
0.25041723,0.22673196,1.9329351,0.17010862,0.15095258,0.97379488,0
-1.832664,0.86340755,-0.24077535,-0.60132533,-0.76698124,0.22393672,0
0.0031113625,0.33130389,-0.59543419,0.60132533,0.76698124,-0.22393672,0
0.63904953,-0.78286397,1.4327226,-0.60132533,-0.76698124,0.22393672,0
0.041302919,0.071071029,-1.7939465,0.60132533,0.76698124,-0.22393672,0
-0.8186,1.2977799,-0.34177727,0.60132533,0.76698124,-0.22393672,0
1.0540314,-1.1563275,1.3413708,-0.60132533,-0.76698124,0.22393672,0
0.55553943,0.42674661,1.128861,0.60132533,0.76698124,-0.22393672,0
0.078860886,0.63011444,0.18293208,0.60132533,0.76698124,-0.22393672,0
0.6581744,0.56692517,0.86982191,0.60132533,0.76698124,-0.22393672,0
-1.587191,0.99724907,0.79604876,-0.6412344,0.63045502,0.43742985,0
1.6822925,-0.79666966,-0.45776105,0.60132533,0.76698124,-0.22393672,0
-1.3015881,0.56560838,0.70958745,-0.60132533,-0.76698124,0.22393672,0
0.34599292,0.28934491,0.40134126,0.60132533,0.76698124,-0.22393672,0
-1.1014937,1.7385082,0.39087749,-0.70837009,0.64140141,0.29464549,0
-0.72277147,-0.067616224,0.18912427,-0.60132533,-0.76698124,0.22393672,0
0.70751655,-0.87078458,1.5633683,0.61081088,-0.2605882,0.74766558,0
0.12288705,0.41129959,-0.45897713,0.60132533,0.76698124,-0.22393672,0
-1.0387377,1.4187298,-0.81809473,0.60132533,0.76698124,-0.22393672,0
-0.4304229,-0.11204904,-1.7518272,-0.27665967,-0.063064992,-0.95889652,0
-0.39124525,0.041020155,1.297587,-0.60132533,-0.76698124,0.22393672,0
0.30923036,0.11197799,-0.93758351,0.60132533,0.76698124,-0.22393672,0
0.83306742,0.1296958,0.95731699,0.60132533,0.76698124,-0.22393672,0
-0.4063513,1.0261681,0.3134166,0.60132533,0.76698124,-0.22393672,0
1.8365526,-0.82922059,-0.020901918,0.60132533,0.76698124,-0.22393672,0
1.0980496,-0.41386068,-1.3036593,0.60132533,0.76698124,-0.22393672,0
0.73867154,-0.015952468,-0.37985453,0.60132533,0.76698124,-0.22393672,0
0.19820189,-1.1373039,-1.4336468,-0.60132533,-0.76698124,0.22393672,0
0.95535302,-0.96594715,1.6099905,-0.60132533,-0.76698124,0.22393672,0
0.2776013,0.40907043,-0.49881425,0.60132533,0.76698124,-0.22393672,0
-1.3809867,1.2321036,-0.99972355,0.60132533,0.76698124,-0.22393672,0
0.77257967,-0.47114915,1.6569625,0.4663114,-0.10929006,0.87784368,0
-1.1088694,1.1312613,-0.55339223,0.60132533,0.76698124,-0.22393672,0
-0.41863635,-0.11112207,0.39092034,-0.60132533,-0.76698124,0.22393672,0
0.707937,0.24810028,0.27560043,0.60132533,0.76698124,-0.22393672,0
-0.22059369,-0.63197374,-1.9288517,-0.028371096,-0.25959685,-0.9653002,0
0.55317825,-0.43827552,-1.5833561,0.60132533,0.76698124,-0.22393672,0
0.50172919,-0.7589373,0.78540301,-0.60132533,-0.76698124,0.22393672,0
-0.28604257,0.34061313,1.7463354,-0.60132533,-0.76698124,0.22393672,0
1.3180479,-1.4097023,0.9158777,0.77678633,-0.49554011,0.38864258,0
-0.65599132,-0.029403329,0.96419376,-0.60132533,-0.76698124,0.22393672,0
-0.38481146,-0.12002635,0.28000683,-0.60132533,-0.76698124,0.22393672,0
-0.76012141,-0.12142733,-0.36846206,-0.60132533,-0.76698124,0.22393672,0
-0.32273692,0.23016202,1.4453694,-0.60132533,-0.76698124,0.22393672,0
-1.1844497,-0.069793344,-0.52055329,-0.60132533,-0.76698124,0.22393672,0
-0.7427361,0.6994617,-1.4000505,0.60132533,0.76698124,-0.22393672,0
-0.36660486,-0.5057897,-0.72670794,-0.60132533,-0.76698124,0.22393672,0
0.5645647,0.30749667,1.103042,0.60132533,0.76698124,-0.22393672,0
-1.3012718,1.798174,0.19750214,-0.74814653,0.63887858,0.17919534,0
0.26672268,-0.46287918,1.99172,-0.60132533,-0.76698124,0.22393672,0
1.3593515,-1.2245551,0.42580527,0.79870838,-0.5693841,0.1945937,0
-1.3511105,0.56923944,1.0589285,-0.60132533,-0.76698124,0.22393672,0
-0.21593317,-0.58398974,-0.89374816,-0.60132533,-0.76698124,0.22393672,0
-1.3150957,0.25568175,-1.3887378,-0.64441645,0.2998504,-0.70343238,0
0.45006993,-1.0957102,-0.057201028,-0.60132533,-0.76698124,0.22393672,0
0.22296935,-1.3051525,-1.6908565,0.19787553,-0.41449034,-0.88828087,0
0.29904535,-1.3670201,-0.82343149,-0.60132533,-0.76698124,0.22393672,0
0.72328269,0.50695974,1.6021423,0.60132533,0.76698124,-0.22393672,0
1.0739462,-0.5009551,-0.45337933,0.60132533,0.76698124,-0.22393672,0
-0.33583501,1.2038786,0.61511397,0.60132533,0.76698124,-0.22393672,0
-0.11663747,0.20776188,-1.7870986,0.60132533,0.76698124,-0.22393672,0
-1.4091773,1.3753223,-1.02703,0.60132533,0.76698124,-0.22393672,0
-0.60610926,-0.89898181,-1.7465487,-0.60132533,-0.76698124,0.22393672,0
0.90683246,-1.4935834,0.063684464,-0.60132533,-0.76698124,0.22393672,0
0.16764987,-0.70243919,0.90143073,-0.60132533,-0.76698124,0.22393672,0
-0.6232602,-0.27722877,-1.1496356,-0.60132533,-0.76698124,0.22393672,0
-0.77480125,1.3692008,-0.12922513,0.60132533,0.76698124,-0.22393672,0
0.57647765,-1.3179276,-1.1260737,-0.60132533,-0.76698124,0.22393672,0
0.64149714,-0.70227909,1.6331282,-0.60132533,-0.76698124,0.22393672,0
0.62180382,-0.78646445,0.39695582,-0.60132533,-0.76698124,0.22393672,0
-1.0063612,1.007241,-0.66696316,0.60132533,0.76698124,-0.22393672,0
0.32426128,0.14050061,-0.87554413,0.60132533,0.76698124,-0.22393672,0
-1.591107,0.78181601,-0.83046234,-0.76031977,0.46312642,-0.45544243,0
0.9024269,-0.99863923,0.90662837,-0.60132533,-0.76698124,0.22393672,0
-0.49018729,1.2799438,1.4379926,-0.30496064,0.47936514,0.8229267,0
-1.8961836,0.93428326,-0.273422,-0.60132533,-0.76698124,0.22393672,0
-0.65408713,0.30975455,1.5629965,-0.60132533,-0.76698124,0.22393672,0
-1.5756525,1.236443,0.17917717,-0.78575933,0.61847651,0.0083188415,0
0.62970537,-0.74566162,1.2253842,-0.60132533,-0.76698124,0.22393672,0
-0.23620433,0.088632405,1.0362462,-0.60132533,-0.76698124,0.22393672,0
0.84072757,-0.1278795,1.8772739,0.47349501,-0.11631206,0.87308306,0
0.71174902,-0.18740672,-0.88771063,0.60132533,0.76698124,-0.22393672,0
-0.83191526,0.41384363,1.4443997,-0.60132533,-0.76698124,0.22393672,0
0.94711363,0.4679141,1.0696683,0.60132533,0.76698124,-0.22393672,0
0.09487617,0.42918813,1.8011885,-0.00011014938,0.28034928,0.95989805,0
0.37474459,-0.64226902,-1.8776004,0.072441757,-0.33144957,-0.94068789,0
0.43959534,-0.61663294,1.8146632,-0.60132533,-0.76698124,0.22393672,0
0.20425922,0.048769116,-1.4869838,0.60132533,0.76698124,-0.22393672,0
1.1352174,-0.79182827,-1.351353,0.52190179,-0.58925629,-0.61676228,0
0.76593155,-0.15616241,-0.1054914,0.60132533,0.76698124,-0.22393672,0
-1.2586178,1.2594432,0.93940115,-0.6246444,0.62602603,0.46680921,0
0.83858174,-0.82823771,0.82465768,-0.60132533,-0.76698124,0.22393672,0
-0.96049416,0.9552272,-1.1870248,0.60132533,0.76698124,-0.22393672,0
-1.4072397,1.0519006,0.56250465,-0.69597578,0.64045906,0.32469952,0
1.5456187,-0.59767151,1.1205651,0.73831403,-0.42623636,0.52269965,0
-1.2609606,0.089754641,-1.6108069,-0.55353224,0.19777164,-0.8090046,0
1.0481746,-1.6921637,-0.29584885,-0.60132533,-0.76698124,0.22393672,0
0.83654851,0.72259891,1.6890537,0.60132533,0.76698124,-0.22393672,0
0.11517644,-0.54884899,1.3804674,-0.60132533,-0.76698124,0.22393672,0
1.089746,-1.6958039,-0.13220906,0.77661633,-0.62693226,-0.061830819,0
0.72976553,-0.8041774,0.56131297,-0.60132533,-0.76698124,0.22393672,0
-0.01953721,-0.2881403,1.9205465,-0.60132533,-0.76698124,0.22393672,0
-1.2588482,0.034366801,-1.3714658,-0.60132533,-0.76698124,0.22393672,0
-1.1277606,-0.030319512,-0.58865863,-0.60132533,-0.76698124,0.22393672,0
-1.6269525,0.93729019,-0.55536956,-0.77844959,0.49921292,-0.38052955,0
-1.7333539,0.99878836,0.51776028,-0.60132533,-0.76698124,0.22393672,0
-1.2083393,0.089378774,-0.23751134,-0.60132533,-0.76698124,0.22393672,0
0.81512332,-0.4222874,-1.2545787,0.60132533,0.76698124,-0.22393672,0
1.0270364,-0.50759882,1.6281055,0.56506586,-0.21006976,0.79785424,0
-1.6245893,1.1646059,0.13836443,-0.78415579,0.62027919,0.018798947,0
1.2875007,0.12225428,0.90997559,0.60132533,0.76698124,-0.22393672,0
1.8351407,-0.99397111,-0.16691923,0.60132533,0.76698124,-0.22393672,0
-1.3031508,1.5313004,0.13591135,-0.77045047,0.63085318,0.091816962,0
0.68737519,-0.99141991,1.5082489,-0.60132533,-0.76698124,0.22393672,0
1.4499278,-0.62614989,-0.5618546,0.60132533,0.76698124,-0.22393672,0
1.0700612,-0.2408064,-0.01629436,0.60132533,0.76698124,-0.22393672,0
-0.61216414,0.15823245,1.6411518,-0.60132533,-0.76698124,0.22393672,0
0.9465543,-0.097968623,0.52223438,0.60132533,0.76698124,-0.22393672,0
-1.303056,0.13849175,-0.63522673,-0.60132533,-0.76698124,0.22393672,0
-1.3727398,0.13057075,-1.6425018,-0.60132533,-0.76698124,0.22393672,0
1.5622914,-0.49658871,-0.43485391,0.60132533,0.76698124,-0.22393672,0
0.75612849,-0.95827436,1.1121767,-0.60132533,-0.76698124,0.22393672,0
1.7622755,-0.60973418,0.13833243,0.60132533,0.76698124,-0.22393672,0
0.99020511,-1.0487404,0.71658909,-0.60132533,-0.76698124,0.22393672,0
-1.6738665,0.43685031,-0.98465347,-0.72955358,0.41276222,-0.54532468,0
1.2040204,-0.056142449,0.77708328,0.60132533,0.76698124,-0.22393672,0
0.94241357,-0.88275868,-1.5369719,0.38689947,-0.52472782,-0.75826734,0
0.070803881,0.574871,1.8772662,-0.086303413,0.34097821,0.93610126,0
0.96100605,-1.4259325,-0.52916479,-0.60132533,-0.76698124,0.22393672,0
-0.29644758,0.98063356,1.0744791,0.60132533,0.76698124,-0.22393672,0
0.24793494,-0.86071235,-1.7601926,0.12348217,-0.36610979,-0.92234254,0
-0.90346491,0.85411346,-0.96440202,0.60132533,0.76698124,-0.22393672,0
-0.53495979,-0.25720808,-0.74382436,-0.60132533,-0.76698124,0.22393672,0
0.98914313,-1.5425954,-0.0063601732,-0.60132533,-0.76698124,0.22393672,0
-0.2914964,-0.58763474,-1.3343868,-0.60132533,-0.76698124,0.22393672,0
0.23234797,-0.21594602,-1.8128338,0.60132533,0.76698124,-0.22393672,0
0.79803914,-0.75135648,1.4420671,-0.60132533,-0.76698124,0.22393672,0
-1.263122,0.22126254,-0.24282397,-0.60132533,-0.76698124,0.22393672,0
1.3141353,-1.5637133,-0.20315015,-0.60132533,-0.76698124,0.22393672,0
-0.78657877,-0.3228004,-2.0436616,-0.3153522,-0.029696912,-0.94850993,0
0.25118285,0.6096068,-0.3401351,0.60132533,0.76698124,-0.22393672,0
-1.0131826,0.070121735,-0.30507359,-0.60132533,-0.76698124,0.22393672,0
0.60400552,-0.20163214,-1.6591785,0.60132533,0.76698124,-0.22393672,0
1.8797537,-0.95762992,0.034610033,0.78520936,-0.61911452,-0.011980593,0
0.34077924,-1.1534941,-1.520578,-0.60132533,-0.76698124,0.22393672,0
-1.0689322,0.94885576,-1.1074352,-0.73716617,0.4244391,-0.52577311,0
0.13869613,-0.87841845,-1.6676639,0.14455211,-0.38007382,-0.91359115,0
-0.10606465,0.59147412,-0.33144426,0.60132533,0.76698124,-0.22393672,0
0.63493681,0.16437173,-0.66553223,0.60132533,0.76698124,-0.22393672,0
0.27256876,0.5965215,0.97156084,0.60132533,0.76698124,-0.22393672,0
-1.1461054,1.4618795,-0.19533682,-0.78739858,0.61643654,-0.0030699372,0
1.3177917,-0.85528374,-1.1779097,0.60132533,0.76698124,-0.22393672,0
-0.088221431,0.70440203,2.0057571,-0.10133696,0.35121533,0.93079472,0
1.0052737,-0.34771067,0.16213411,0.60132533,0.76698124,-0.22393672,0
0.25991791,0.78083479,0.34682602,0.60132533,0.76698124,-0.22393672,0
-0.94278347,1.6776332,0.89802575,0.60132533,0.76698124,-0.22393672,0
-0.1954809,-0.83454257,-0.33520353,-0.60132533,-0.76698124,0.22393672,0
-0.063051343,-1.0900251,-1.8486493,0.11505288,-0.3604666,-0.92564934,0
-1.4620285,1.0586098,0.54333901,-0.72390234,0.64159763,0.25360978,0
1.5768163,-0.8833676,-0.80738914,0.60132533,0.76698124,-0.22393672,0
0.66154009,-0.83483487,0.25880331,-0.60132533,-0.76698124,0.22393672,0
-0.54267216,-0.43765712,-1.7697098,-0.26532727,-0.072685063,-0.96141469,0
0.34716171,-0.92982876,-0.7669853,-0.60132533,-0.76698124,0.22393672,0
0.48117387,0.35458207,0.88228607,0.60132533,0.76698124,-0.22393672,0
-0.93947053,0.20341435,0.023264498,-0.60132533,-0.76698124,0.22393672,0
-0.092423141,-0.33353043,0.95618838,-0.60132533,-0.76698124,0.22393672,0
-0.44965357,0.76401895,-0.098359883,0.60132533,0.76698124,-0.22393672,0
-0.39154184,0.73140967,-1.5470712,0.60132533,0.76698124,-0.22393672,0
1.9039481,-1.0811628,0.46713662,0.7968049,-0.55485505,0.2392444,0
-1.7706025,1.2944199,0.19068813,-0.77702415,0.62663251,0.059709132,0
0.50171393,-0.97616655,0.23373866,-0.60132533,-0.76698124,0.22393672,0
-1.1128142,-0.073446438,-1.8117149,-0.40634894,0.0522407,-0.91222334,0
-0.46721438,-0.70578408,-1.020888,-0.60132533,-0.76698124,0.22393672,0
-0.2191678,0.7242161,0.51390183,0.60132533,0.76698124,-0.22393672,0
-0.67676806,1.3781908,1.2334425,-0.43259734,0.54815876,0.71580815,0
0.95628345,-1.0601182,0.44716132,-0.60132533,-0.76698124,0.22393672,0
0.81924671,-0.95497817,1.3780582,-0.60132533,-0.76698124,0.22393672,0
-1.5464222,1.3199376,-0.092203736,-0.78726566,0.61661029,-0.002117753,0
0.14735107,0.54781908,0.0081726313,0.60132533,0.76698124,-0.22393672,0
1.1985912,-0.0071703196,0.91143394,0.60132533,0.76698124,-0.22393672,0
0.59422308,-0.98436445,0.88320929,-0.60132533,-0.76698124,0.22393672,0
0.78342712,-0.92154264,1.8829498,0.57973015,-0.22594632,0.7828545,0
-1.5868876,0.65120983,-0.39832625,-0.60132533,-0.76698124,0.22393672,0
0.21710515,-0.20647228,1.7659113,-0.60132533,-0.76698124,0.22393672,0
1.0874749,0.30688548,0.97147781,0.60132533,0.76698124,-0.22393672,0
0.54393274,0.23136696,0.62907422,0.60132533,0.76698124,-0.22393672,0
0.17558193,-0.62811601,-2.0231304,0.085645914,-0.34052822,-0.93632555,0
-1.4312022,1.4983346,-0.83358222,-0.78671026,0.51936704,-0.33368382,0
-1.4480785,1.1166254,-0.3877126,-0.798962,0.58007604,-0.15865499,0
-0.70128971,-0.38938737,-0.70897293,-0.60132533,-0.76698124,0.22393672,0
1.6395466,-0.93817073,0.86181879,0.78729665,-0.52096426,0.32978797,0
-0.30045271,0.10105795,-1.7594601,-0.25040376,-0.085251272,-0.96438074,0
-1.5276587,0.21226051,-0.35813937,-0.60132533,-0.76698124,0.22393672,0
-0.79722464,0.72940695,-1.5957198,0.60132533,0.76698124,-0.22393672,0
0.60510314,0.17520726,-0.79152572,0.60132533,0.76698124,-0.22393672,0
1.4573146,-0.75773215,-1.1109394,0.60132533,0.76698124,-0.22393672,0
1.2585011,-0.73127216,-1.2913307,0.55001354,-0.60064191,-0.58027089,0
0.99649501,0.0020316541,1.7729496,0.42050678,-0.065471828,0.90492392,0
0.87274855,-1.7605251,-0.88034964,-0.60132533,-0.76698124,0.22393672,0
0.063003957,0.56864876,-0.56470418,0.60132533,0.76698124,-0.22393672,0
-0.23537868,0.4173525,-1.0532751,0.60132533,0.76698124,-0.22393672,0
0.84794742,-0.21270895,-0.92654657,0.60132533,0.76698124,-0.22393672,0
-0.95705688,0.80830055,-1.7382612,-0.61786985,0.26866567,-0.73895568,0
1.5437679,-0.77040642,-0.99267995,0.62997389,-0.62750638,-0.45756811,0
0.95450783,0.55230451,1.6081724,0.60132533,0.76698124,-0.22393672,0
0.550807,-0.40648091,-1.3718038,0.60132533,0.76698124,-0.22393672,0
-0.65789759,0.62628073,1.6284767,-0.20153564,0.41680312,0.88637382,0
1.3145741,-1.2899771,-0.026348591,0.78885972,-0.61441582,0.013914406,0
0.40684271,-0.88592452,1.182448,-0.60132533,-0.76698124,0.22393672,0
0.35292482,0.95258528,1.2939873,0.60132533,0.76698124,-0.22393672,0
0.43649846,0.55672657,0.80723488,0.60132533,0.76698124,-0.22393672,0
-0.11071235,0.3641026,-0.83007562,0.60132533,0.76698124,-0.22393672,0
1.6546273,-0.92157888,-0.6941154,0.60132533,0.76698124,-0.22393672,0
-0.34953147,1.1307559,1.5039138,0.60132533,0.76698124,-0.22393672,0
0.46140617,0.55476904,0.59357208,0.60132533,0.76698124,-0.22393672,0
-0.72740704,-0.35644066,-0.58626044,-0.60132533,-0.76698124,0.22393672,0
0.93517834,-0.64135599,-1.4621516,0.60132533,0.76698124,-0.22393672,0
0.19946048,0.13190049,-0.55695724,0.60132533,0.76698124,-0.22393672,0
1.1776083,-1.0317061,1.5106636,0.63278759,-0.28602356,0.71956265,0
-0.67200166,0.21842706,1.3700709,-0.60132533,-0.76698124,0.22393672,0
-1.0945278,-0.022203088,-0.26634124,-0.60132533,-0.76698124,0.22393672,0
0.097692847,-0.17335701,2.15468,-0.60132533,-0.76698124,0.22393672,0
0.85229516,-0.14949805,0.1279386,0.60132533,0.76698124,-0.22393672,0
1.0246004,-0.40810853,-0.49066144,0.60132533,0.76698124,-0.22393672,0
-0.19673899,-0.24262863,0.74758351,-0.60132533,-0.76698124,0.22393672,0
-1.8495238,0.43426484,-0.55701566,-0.60132533,-0.76698124,0.22393672,0
-1.3269737,1.2776171,0.077581763,-0.78671807,0.61731005,0.0017492771,0
0.84512866,-1.3331043,0.14218688,-0.60132533,-0.76698124,0.22393672,0
-0.90631258,1.1020128,1.2902665,-0.48322833,0.57230186,0.66254127,0
-0.10804314,-0.28881368,0.1305881,-0.60132533,-0.76698124,0.22393672,0
-0.31460348,0.89684844,-0.055490553,0.60132533,0.76698124,-0.22393672,0
-1.7995694,0.88725805,0.42159927,-0.60132533,-0.76698124,0.22393672,0
-0.91726512,0.014041185,-0.18894593,-0.60132533,-0.76698124,0.22393672,0
0.21239424,0.99418879,1.0374287,0.60132533,0.76698124,-0.22393672,0
0.40979326,0.60970414,1.7676121,0.11018574,0.19799037,0.97399127,0
0.79978997,-1.1456709,-1.2097245,0.44116747,-0.55238688,-0.70727652,0
-1.2878587,1.5456691,0.28478467,0.60132533,0.76698124,-0.22393672,0
0.81540304,-0.68781161,-1.5501626,0.3371456,-0.49766117,-0.79916602,0
-1.4600909,0.057543129,-1.4184459,-0.60132533,-0.76698124,0.22393672,0
-1.5021557,0.84718913,-0.867917,-0.77896452,0.50037092,-0.37794599,0
-0.58769894,-0.48201251,-1.9762363,-0.18741804,-0.13705391,-0.97267193,0
-0.45555896,-0.46725264,-0.69058585,-0.60132533,-0.76698124,0.22393672,0
-1.2006075,0.28295124,-0.75829506,-0.60132533,-0.76698124,0.22393672,0
0.27585155,0.26260361,-0.09621916,0.60132533,0.76698124,-0.22393672,0
-0.82654917,1.4523271,0.44287694,0.60132533,0.76698124,-0.22393672,0
-0.67916167,0.17232025,1.0796155,-0.60132533,-0.76698124,0.22393672,0
0.24723774,-0.39620525,1.3575182,-0.60132533,-0.76698124,0.22393672,0
0.16626561,-0.39616513,1.0258353,-0.60132533,-0.76698124,0.22393672,0
0.91714025,-1.5774367,-1.0814257,-0.60132533,-0.76698124,0.22393672,0
-0.15533686,-0.33671063,-1.9436532,-0.14110535,-0.1739258,-0.97459698,0
-1.1942546,0.20249239,-1.6367164,-0.46920812,0.11211652,-0.87594151,0
-0.68173671,-0.27238369,-1.8356521,-0.28105694,-0.059313774,-0.9578563,0
-0.78174973,1.2377515,-0.011761189,0.60132533,0.76698124,-0.22393672,0
0.95713294,-0.1841515,-0.15352118,0.60132533,0.76698124,-0.22393672,0
1.0601189,-0.14515305,-0.22469854,0.60132533,0.76698124,-0.22393672,0
-1.1284297,-0.069430918,-1.2279553,-0.60132533,-0.76698124,0.22393672,0
0.65985036,-0.016160786,1.8592465,0.33934271,0.0085853636,0.94062364,0
-0.90324646,0.92406207,-1.1663768,0.60132533,0.76698124,-0.22393672,0
1.4085068,-1.1521933,-0.87631035,0.65308869,-0.63327491,-0.41525656,0
-1.4069943,0.40922013,-1.1513004,-0.63225877,0.2854012,-0.72027427,0
0.32894355,0.52934992,0.95072109,0.60132533,0.76698124,-0.22393672,0
-1.0270978,0.036789954,0.40328985,-0.60132533,-0.76698124,0.22393672,0
-1.0606918,1.4682125,0.34503913,0.60132533,0.76698124,-0.22393672,0
0.64161783,0.65236467,1.0066907,0.60132533,0.76698124,-0.22393672,0
1.702203,-0.32554847,0.48036584,0.60132533,0.76698124,-0.22393672,0
0.21395861,-0.79278308,-0.063775718,-0.60132533,-0.76698124,0.22393672,0
-0.34329399,0.72478449,-0.12004364,0.60132533,0.76698124,-0.22393672,0
-0.57091403,0.56853133,-0.94625407,0.60132533,0.76698124,-0.22393672,0
0.87670189,-1.6139724,-0.27096629,-0.60132533,-0.76698124,0.22393672,0
0.55345947,0.71969861,1.3308328,0.60132533,0.76698124,-0.22393672,0
-0.71253651,0.38037628,1.5075958,-0.60132533,-0.76698124,0.22393672,0
-0.94575524,0.35295224,0.91146636,-0.60132533,-0.76698124,0.22393672,0
0.07919167,-0.65294933,-0.25045609,-0.60132533,-0.76698124,0.22393672,0
-1.362396,0.57847887,0.19226265,-0.60132533,-0.76698124,0.22393672,0
-0.24447095,0.22386837,-1.8938124,0.60132533,0.76698124,-0.22393672,0
0.33799264,-1.0964391,-1.1278718,-0.60132533,-0.76698124,0.22393672,0
1.0727972,-0.036139965,0.33373636,0.60132533,0.76698124,-0.22393672,0
-1.9043995,0.62979746,-0.080789089,-0.60132533,-0.76698124,0.22393672,0
-0.68049055,0.87271458,-1.3569655,0.60132533,0.76698124,-0.22393672,0
-1.8069899,0.72107303,0.41617942,-0.75995994,0.63555968,0.13610619,0
0.67186946,-0.71642941,1.3774161,-0.60132533,-0.76698124,0.22393672,0
0.45196956,0.47368771,0.92755336,0.60132533,0.76698124,-0.22393672,0
-0.13273089,0.6127376,0.13260138,0.60132533,0.76698124,-0.22393672,0
0.78589267,-0.30129421,-1.6025532,0.60132533,0.76698124,-0.22393672,0
0.21714172,0.59837258,-0.08033371,0.60132533,0.76698124,-0.22393672,0
0.17762291,0.80328357,1.990831,0.036116242,0.2538918,0.96655816,0
0.26662827,-0.62175691,1.3745782,-0.60132533,-0.76698124,0.22393672,0
0.42845356,0.83635718,1.5940844,0.60132533,0.76698124,-0.22393672,0
0.65231842,-0.95405775,0.80490893,-0.60132533,-0.76698124,0.22393672,0
-0.85273921,1.3658333,-0.10555506,0.60132533,0.76698124,-0.22393672,0
0.48239988,-1.2017994,-0.10111356,-0.60132533,-0.76698124,0.22393672,0
0.34669155,0.7908054,1.4010522,0.60132533,0.76698124,-0.22393672,0
-0.25230783,0.68482935,-0.80894566,0.60132533,0.76698124,-0.22393672,0
-0.28913057,0.17192531,-1.6159899,0.60132533,0.76698124,-0.22393672,0
-0.10250914,-0.3629927,0.76618379,-0.60132533,-0.76698124,0.22393672,0
-1.2312222,1.694019,0.75322723,-0.65694606,0.63412458,0.40780866,0
0.91433787,0.24784057,1.3469236,0.60132533,0.76698124,-0.22393672,0
-0.5741961,0.53573728,-1.8331809,0.60132533,0.76698124,-0.22393672,0
1.4766215,-0.48860717,0.74119473,0.60132533,0.76698124,-0.22393672,0
-0.012607768,0.74286234,0.41773307,0.60132533,0.76698124,-0.22393672,0
0.90688092,-1.0517696,1.387823,-0.60132533,-0.76698124,0.22393672,0
-0.67847288,-0.52443904,-1.4972351,-0.60132533,-0.76698124,0.22393672,0
0.60108918,0.12581593,-0.041013837,0.60132533,0.76698124,-0.22393672,0
0.99168921,-1.446268,-0.12643135,-0.60132533,-0.76698124,0.22393672,0
-1.3671054,0.9494065,1.2435573,-0.61175668,0.62223762,0.48844063,0
-1.0914066,0.47011262,0.88224936,-0.60132533,-0.76698124,0.22393672,0
0.21270563,0.33058566,-0.40854108,0.60132533,0.76698124,-0.22393672,0
0.74861175,-1.4833429,-0.85854399,-0.60132533,-0.76698124,0.22393672,0
1.2222055,-0.083635449,-0.096809894,0.60132533,0.76698124,-0.22393672,0
0.63696867,0.35993063,1.4084343,0.60132533,0.76698124,-0.22393672,0
-1.019058,0.053851068,0.47764695,-0.60132533,-0.76698124,0.22393672,0
0.71063948,-1.2556821,-0.81592965,-0.60132533,-0.76698124,0.22393672,0
0.85076004,-1.3066361,-0.15136492,-0.60132533,-0.76698124,0.22393672,0
0.12921423,-0.9182148,-1.3914541,-0.60132533,-0.76698124,0.22393672,0
1.0485327,-0.36492437,-0.62031555,0.60132533,0.76698124,-0.22393672,0
-1.4451346,0.38595581,-1.129241,-0.6765672,0.33967745,-0.65335745,0
0.90373242,-1.503799,-0.22974181,-0.60132533,-0.76698124,0.22393672,0
0.77085018,-0.81114721,-1.5097938,0.41574004,-0.53968513,-0.73205209,0
0.36089903,-0.28214031,1.4632525,-0.60132533,-0.76698124,0.22393672,0
-0.35139936,-0.68433172,-1.3437179,-0.60132533,-0.76698124,0.22393672,0
-1.9806575,0.85491806,-0.12228596,-0.79681045,0.5963949,-0.096985519,0
-1.4085039,1.5919795,0.37832355,-0.72875226,0.64138961,0.23987412,0
1.7895209,-0.63063121,0.35649252,0.60132533,0.76698124,-0.22393672,0
1.0901853,-1.3468916,0.59774345,-0.60132533,-0.76698124,0.22393672,0
-1.5725076,1.1744182,0.09950161,-0.78016746,0.62411529,0.042647004,0
-1.1912385,0.5654223,1.1014045,-0.60132533,-0.76698124,0.22393672,0
-0.29086751,1.2081448,0.72108734,0.60132533,0.76698124,-0.22393672,0
-1.6537728,0.56325608,-1.2869959,-0.66823268,0.32910115,-0.66720128,0
-0.53508765,1.0023069,-1.0312287,0.60132533,0.76698124,-0.22393672,0
0.95081306,-1.1814378,1.3553364,-0.60132533,-0.76698124,0.22393672,0
0.9112246,0.039102346,1.7963207,0.34821314,0.00069397688,0.93741518,0
0.17088854,-0.53715485,1.1783617,-0.60132533,-0.76698124,0.22393672,0
-1.743144,1.0813236,-0.051130176,-0.7980243,0.59039378,-0.12079901,0
-0.60504609,0.11780876,1.2590899,-0.60132533,-0.76698124,0.22393672,0
0.37357834,-1.049062,0.49896136,-0.60132533,-0.76698124,0.22393672,0
1.1696997,0.20764747,1.738619,0.60132533,0.76698124,-0.22393672,0
-0.069016218,-0.7084257,-1.9136888,-0.093075871,-0.2111208,-0.97301847,0
-0.4533267,-0.95318013,-1.9048109,-0.60132533,-0.76698124,0.22393672,0
0.059024692,1.208529,1.6222147,0.60132533,0.76698124,-0.22393672,0
0.36042148,0.44836658,-0.49426445,0.60132533,0.76698124,-0.22393672,0
0.017906105,-0.74957532,-0.22106254,-0.60132533,-0.76698124,0.22393672,0
-0.77946389,-0.55809247,-2.0121436,-0.24567217,-0.089211553,-0.96523911,0
0.019368291,0.91693985,1.6503807,0.60132533,0.76698124,-0.22393672,0
0.57052857,-0.54732138,-1.7526138,0.26928169,-0.45841038,-0.84696352,0
0.90287596,0.13827723,0.16924593,0.60132533,0.76698124,-0.22393672,0
0.22710258,-0.51383948,0.5895313,-0.60132533,-0.76698124,0.22393672,0
-0.18528378,0.72813749,-0.79190975,0.60132533,0.76698124,-0.22393672,0
0.43756032,-1.0418048,0.53115392,-0.60132533,-0.76698124,0.22393672,0
1.0180326,-0.18167973,-0.49752116,0.60132533,0.76698124,-0.22393672,0
-0.84917742,0.23465234,1.0927505,-0.60132533,-0.76698124,0.22393672,0
-1.1947999,0.23637712,-0.029629886,-0.60132533,-0.76698124,0.22393672,0
0.6696738,-0.98399073,0.65389478,-0.60132533,-0.76698124,0.22393672,0
0.16726935,0.8033216,0.72298825,0.60132533,0.76698124,-0.22393672,0
1.6062173,-1.2118638,-0.84492743,0.6669004,-0.63615024,-0.3880164,0
-0.88166028,1.1180525,-0.32988238,0.60132533,0.76698124,-0.22393672,0
-0.58730006,-0.45015499,-1.5197968,-0.60132533,-0.76698124,0.22393672,0
1.4613125,-0.12792861,0.5756976,0.60132533,0.76698124,-0.22393672,0
0.62071586,-1.1063913,0.47130579,-0.60132533,-0.76698124,0.22393672,0
1.0093576,-0.46791101,-1.5336825,0.32744211,-0.49220771,-0.80654407,0
0.68554223,-0.63269991,1.8357705,0.44419712,-0.087934673,0.89160323,0
0.49203393,-1.4231089,-0.8041122,-0.60132533,-0.76698124,0.22393672,0
-1.0842402,0.41338125,0.076176524,-0.60132533,-0.76698124,0.22393672,0
0.26436436,-0.36680645,-2.1192801,0.007255435,-0.28549972,-0.95835131,0
-1.776036,1.0599642,0.34665132,-0.60132533,-0.76698124,0.22393672,0
-1.7825147,0.67256314,0.025514007,-0.60132533,-0.76698124,0.22393672,0
-0.80732536,-0.48378393,-0.84482944,-0.60132533,-0.76698124,0.22393672,0
0.24164402,-0.93314779,-1.2042786,-0.60132533,-0.76698124,0.22393672,0
-0.68202531,-0.33669156,-0.67381066,-0.60132533,-0.76698124,0.22393672,0
-0.49375349,0.84443158,-1.0556945,0.60132533,0.76698124,-0.22393672,0
-1.4092542,1.2856998,0.90470648,-0.66916335,0.63657528,0.38339561,0
0.39214045,-0.11336952,-1.1940444,0.60132533,0.76698124,-0.22393672,0
0.012970686,-0.50770974,0.72491354,-0.60132533,-0.76698124,0.22393672,0
0.37948745,0.26042116,-1.128603,0.60132533,0.76698124,-0.22393672,0
-0.88533896,1.5279956,1.1865342,-0.57260901,0.60913861,0.54869771,0
-0.24712136,0.9218694,0.53698885,0.60132533,0.76698124,-0.22393672,0
1.6022187,-1.1008909,0.51587176,0.79897112,-0.57464665,0.17727506,0
1.3506601,-0.12996547,1.2863195,0.60132533,0.76698124,-0.22393672,0
0.71638376,-0.5574252,-1.5228291,0.60132533,0.76698124,-0.22393672,0
0.55105633,0.3238197,0.034245878,0.60132533,0.76698124,-0.22393672,0
1.4664054,-0.12479746,1.6819665,0.59297681,-0.24053656,0.76845348,0
0.83744478,-1.5787652,-0.56089902,-0.60132533,-0.76698124,0.22393672,0
0.60191429,-0.91590691,1.4708799,-0.60132533,-0.76698124,0.22393672,0
0.37285984,0.6296097,1.6319573,0.60132533,0.76698124,-0.22393672,0
1.0371337,-1.2614198,-1.0355101,0.61033571,-0.62180269,-0.49076653,0
0.60422528,-0.1279518,-1.1666975,0.60132533,0.76698124,-0.22393672,0
-0.61902004,0.025556326,1.5390996,-0.60132533,-0.76698124,0.22393672,0
0.5959304,0.083981991,-0.98939717,0.60132533,0.76698124,-0.22393672,0
-0.04068251,1.006186,0.44419706,0.60132533,0.76698124,-0.22393672,0
0.27323133,-0.61003631,1.109068,-0.60132533,-0.76698124,0.22393672,0
0.19814205,0.13543487,-1.8289814,0.60132533,0.76698124,-0.22393672,0
0.004321456,-0.84923172,-1.2484652,-0.60132533,-0.76698124,0.22393672,0
0.69999814,-1.2445359,-0.74268353,-0.60132533,-0.76698124,0.22393672,0
-0.42650378,-0.68642211,-0.55294031,-0.60132533,-0.76698124,0.22393672,0
1.1205964,-1.380468,-0.18482292,-0.60132533,-0.76698124,0.22393672,0
-0.17682523,-0.17078638,0.87491322,-0.60132533,-0.76698124,0.22393672,0
0.25845766,-0.33245671,1.961892,0.37717974,-0.025410056,0.92579144,0
-0.97471982,-0.30562586,-1.2760296,-0.60132533,-0.76698124,0.22393672,0
1.2308173,-1.6915295,-0.3138485,0.76786,-0.632213,-0.10342997,0
-1.5350808,1.1076077,0.36004364,-0.73411459,0.6409843,0.2240867,0
0.49905217,-0.32637978,2.1545563,0.33552319,0.011968911,0.94195586,0
-1.3034539,0.4978565,0.25417262,-0.60132533,-0.76698124,0.22393672,0
-0.30459261,0.31678516,2.1230536,-0.60132533,-0.76698124,0.22393672,0
-0.89327264,1.2611977,1.5563431,-0.4924171,0.57645524,0.65209258,0
-1.729677,0.52459341,-1.1379819,-0.72461993,0.40539926,-0.55729461,0
-0.27432743,-0.54921836,-0.86910695,-0.60132533,-0.76698124,0.22393672,0
-0.38219607,0.65449333,-1.5654612,0.60132533,0.76698124,-0.22393672,0
-0.46873519,1.152842,0.50027645,0.60132533,0.76698124,-0.22393672,0
0.94808292,-0.90922463,-1.7506001,0.30545694,-0.47965169,-0.82257557,0
-0.96452171,0.29911745,0.64321411,-0.60132533,-0.76698124,0.22393672,0
-0.5671072,0.27277726,1.6870894,-0.60132533,-0.76698124,0.22393672,0
-1.4976965,0.93036568,-1.2493234,-0.7391963,0.42762476,-0.52031332,0
-1.113421,0.56348169,1.7225504,-0.60132533,-0.76698124,0.22393672,0
1.216355,-0.15415519,0.53531468,0.60132533,0.76698124,-0.22393672,0
0.4803949,-1.1313633,-1.7545345,0.21615943,-0.42597863,-0.87853128,0
0.8040027,-0.88201088,1.0543683,-0.60132533,-0.76698124,0.22393672,0
-0.27349964,-0.56105298,-0.90284997,-0.60132533,-0.76698124,0.22393672,0
0.39472032,-0.50734866,-2.01265,0.02869159,-0.30081666,-0.95325035,0
-0.78054243,0.74076998,-0.98510861,0.60132533,0.76698124,-0.22393672,0
-1.2436345,-0.36386698,-1.5130489,-0.60132533,-0.76698124,0.22393672,0
0.55364561,0.19774175,0.10454685,0.60132533,0.76698124,-0.22393672,0
-0.73369074,-0.26804727,-1.6182475,-0.30086499,-0.042286813,-0.95272875,0
-0.62112176,0.80505866,-0.27368689,0.60132533,0.76698124,-0.22393672,0
-1.0507632,0.2911849,-0.042762756,-0.60132533,-0.76698124,0.22393672,0
0.12428606,-0.043823838,-1.4050174,0.60132533,0.76698124,-0.22393672,0
-1.4561155,0.87909341,0.98715591,-0.60132533,-0.76698124,0.22393672,0
1.2727953,-0.39596486,0.44983047,0.60132533,0.76698124,-0.22393672,0
-0.71889424,-0.54802692,-1.6150001,-0.60132533,-0.76698124,0.22393672,0
0.90986687,-1.1303867,1.1917583,-0.60132533,-0.76698124,0.22393672,0
0.52480471,-0.64821774,1.6259055,-0.60132533,-0.76698124,0.22393672,0
1.0546234,-1.4460256,0.41680813,-0.60132533,-0.76698124,0.22393672,0
1.8334938,-0.64564955,0.6402052,0.78476554,-0.51426309,0.34594283,0
0.47041631,-0.45642233,-1.8620181,0.60132533,0.76698124,-0.22393672,0
0.91450548,-1.4849461,0.36296141,-0.60132533,-0.76698124,0.22393672,0
1.0392989,0.047733963,0.85192519,0.60132533,0.76698124,-0.22393672,0
0.17004776,-0.020374179,-1.7572625,0.60132533,0.76698124,-0.22393672,0
0.67881435,-0.7295959,0.80407321,-0.60132533,-0.76698124,0.22393672,0
0.91053253,-1.296545,-1.0792657,0.51912582,-0.5880869,-0.62021136,0
-0.84033465,0.32362932,0.76064289,-0.60132533,-0.76698124,0.22393672,0
0.59565282,-0.63633585,1.3850305,-0.60132533,-0.76698124,0.22393672,0
1.0237107,-0.043260992,-0.049686491,0.60132533,0.76698124,-0.22393672,0
1.4822401,-0.57816768,0.61782461,0.60132533,0.76698124,-0.22393672,0
0.45302776,0.2166577,-0.85487998,0.60132533,0.76698124,-0.22393672,0
0.98940611,-0.027345628,0.56649268,0.60132533,0.76698124,-0.22393672,0
-0.35735023,1.1552315,0.78511834,0.60132533,0.76698124,-0.22393672,0
0.71805394,0.12653771,1.8964131,0.24379456,0.090779841,0.96556896,0
0.6637255,-1.3832984,-1.0812347,-0.60132533,-0.76698124,0.22393672,0
-1.2393316,0.80667698,1.0580319,-0.60132533,-0.76698124,0.22393672,0
0.66345453,0.38213867,0.036535457,0.60132533,0.76698124,-0.22393672,0
0.30839288,-0.97707641,0.016499817,-0.60132533,-0.76698124,0.22393672,0
1.0351843,-0.27470249,0.4915666,0.60132533,0.76698124,-0.22393672,0
0.40196905,0.73033655,0.55265528,0.60132533,0.76698124,-0.22393672,0
1.2829316,-1.2752271,1.0787771,-0.60132533,-0.76698124,0.22393672,0
-0.450407,-0.094759405,0.74046719,-0.60132533,-0.76698124,0.22393672,0
0.61070257,0.56193388,0.68901324,0.60132533,0.76698124,-0.22393672,0
0.92033958,-1.596522,-1.109359,0.54695582,-0.59944546,-0.58438385,0
-0.073286712,0.42638403,-1.2191498,0.60132533,0.76698124,-0.22393672,0
0.0081319809,-0.35052335,-2.1529698,-0.079198539,-0.2216741,-0.97189933,0
0.84346575,-0.64755338,1.5900794,0.57134759,-0.21683672,0.79154521,0
-0.42734903,0.9681921,0.17696095,0.60132533,0.76698124,-0.22393672,0
0.16998732,-0.27486801,1.7607853,-0.60132533,-0.76698124,0.22393672,0
0.45628357,0.31119329,0.91062528,0.60132533,0.76698124,-0.22393672,0
-1.8241814,0.73981547,-0.39668608,-0.60132533,-0.76698124,0.22393672,0
0.52304721,0.34829444,0.46694455,0.60132533,0.76698124,-0.22393672,0
-0.6581974,1.4072281,0.56748569,0.60132533,0.76698124,-0.22393672,0
0.55068171,0.58895826,1.3887153,0.60132533,0.76698124,-0.22393672,0
0.21054703,-0.73640299,-0.53541207,-0.60132533,-0.76698124,0.22393672,0
1.9044708,-0.44806528,0.84536409,0.60132533,0.76698124,-0.22393672,0
1.2272604,-0.98807663,1.3888072,-0.60132533,-0.76698124,0.22393672,0
-0.566926,0.056619763,0.9240756,-0.60132533,-0.76698124,0.22393672,0
1.5854117,-0.7670415,-0.24393749,0.60132533,0.76698124,-0.22393672,0
1.7181504,-0.45852238,0.9286412,0.75683057,-0.45690495,0.46738142,0
0.97663212,-1.0383357,1.2429492,0.71586829,-0.39268214,0.5773502,0
1.365905,-0.40471596,1.4121931,0.62003189,-0.27115649,0.73623002,0
1.8011562,-0.42974538,0.74450743,0.60132533,0.76698124,-0.22393672,0
-0.45007974,1.2077227,1.3876433,-0.28870803,0.46990514,0.83416843,0
-0.30533057,-0.25754535,1.0681547,-0.60132533,-0.76698124,0.22393672,0
-0.42894214,1.281991,0.95975614,0.60132533,0.76698124,-0.22393672,0
0.38972127,-1.3810143,-1.1069276,-0.60132533,-0.76698124,0.22393672,0
-1.4838428,0.076578856,-1.2880325,-0.66242003,0.32183561,-0.67647719,0
-0.86701703,1.2088361,-0.13494265,0.60132533,0.76698124,-0.22393672,0
-0.10150516,0.50112426,-0.73548001,0.60132533,0.76698124,-0.22393672,0
0.2940861,0.052175105,1.9356685,0.193344,0.13226286,0.97217524,0
-0.4883115,0.74481535,-0.10831332,0.60132533,0.76698124,-0.22393672,0
-0.48144746,-0.71491581,-0.77229238,-0.60132533,-0.76698124,0.22393672,0
-0.77834129,0.62007225,-1.7964914,-0.45184237,0.095274001,-0.88699567,0
1.4064038,-0.3827945,1.0822029,0.60132533,0.76698124,-0.22393672,0
0.82104743,-0.59640312,-1.6640533,0.60132533,0.76698124,-0.22393672,0
0.59803748,-1.0628765,-0.28953135,-0.60132533,-0.76698124,0.22393672,0
-0.19332695,0.65097058,-0.58811998,0.60132533,0.76698124,-0.22393672,0
0.30555147,0.13945675,-0.90718687,0.60132533,0.76698124,-0.22393672,0
-0.72293615,0.38666117,1.4325627,-0.60132533,-0.76698124,0.22393672,0
1.070049,0.39100882,1.1130447,0.60132533,0.76698124,-0.22393672,0
0.63310623,0.42332837,0.83760512,0.60132533,0.76698124,-0.22393672,0
0.62706482,-0.30092776,-1.5353392,0.60132533,0.76698124,-0.22393672,0
-1.7449986,1.1062086,0.42046285,-0.75209844,0.63795406,0.1654169,0
1.0542392,0.044308126,1.1992455,0.60132533,0.76698124,-0.22393672,0
0.7926662,0.21811938,0.016713046,0.60132533,0.76698124,-0.22393672,0
-0.72432172,-0.073290706,0.36368054,-0.60132533,-0.76698124,0.22393672,0
0.93568194,-0.15946685,0.32894596,0.60132533,0.76698124,-0.22393672,0
1.0348015,-1.3190857,1.1351953,-0.60132533,-0.76698124,0.22393672,0
0.71160173,-0.091070354,-0.66577399,0.60132533,0.76698124,-0.22393672,0
-0.03124404,0.99132222,1.6747674,0.60132533,0.76698124,-0.22393672,0
-0.44374374,-0.44989789,0.15467963,-0.60132533,-0.76698124,0.22393672,0
0.77728128,-1.2152374,-1.3948977,0.43621296,-0.54994929,-0.71223181,0
1.4628539,-0.51625812,1.4370706,0.60111308,-0.24962369,0.75917792,0
1.1440377,-1.4365811,0.12352061,-0.60132533,-0.76698124,0.22393672,0
0.56955749,0.65409356,0.91778278,0.60132533,0.76698124,-0.22393672,0
0.20380354,-0.28937125,1.7422798,-0.60132533,-0.76698124,0.22393672,0
-1.5045389,0.35293004,-0.98320782,-0.60132533,-0.76698124,0.22393672,0
-0.88329989,1.2867867,-0.37629688,0.60132533,0.76698124,-0.22393672,0
0.45552921,-0.66383559,-1.6712855,0.21614197,-0.42596775,-0.87854099,0
0.20384812,-0.26451159,1.7445912,-0.60132533,-0.76698124,0.22393672,0
-1.1395361,1.0106975,1.2026011,-0.53723037,0.59557027,0.5972265,0
-0.42903185,1.0529559,-0.62673962,0.60132533,0.76698124,-0.22393672,0
-0.71238464,-0.73248756,-1.5441287,-0.60132533,-0.76698124,0.22393672,0
0.35283419,0.34522146,-0.14777799,0.60132533,0.76698124,-0.22393672,0
-0.93710518,-0.22108763,-1.1107364,-0.60132533,-0.76698124,0.22393672,0
0.8414169,-1.5411561,-0.57543957,-0.60132533,-0.76698124,0.22393672,0
0.25237021,0.52477497,-0.31826544,0.60132533,0.76698124,-0.22393672,0
1.7170783,-1.2628701,0.10448027,0.79740107,-0.59381282,0.10741496,0
1.6314971,-1.0259473,-0.94499481,0.60132533,0.76698124,-0.22393672,0
0.87608379,-1.6820544,-0.33849299,-0.60132533,-0.76698124,0.22393672,0
0.97190177,-0.41190863,-0.26611072,0.60132533,0.76698124,-0.22393672,0
1.2797582,-0.32884765,0.36043307,0.60132533,0.76698124,-0.22393672,0
-0.5518406,1.0145733,-0.98646092,0.60132533,0.76698124,-0.22393672,0
-1.6237944,0.17971805,-1.2980739,-0.67214245,0.33403847,-0.66078961,0
-0.76398575,0.9057911,-0.47272205,0.60132533,0.76698124,-0.22393672,0
0.16185927,0.08648324,-1.4197558,0.60132533,0.76698124,-0.22393672,0
-0.11736786,-0.3476553,1.5928134,-0.60132533,-0.76698124,0.22393672,0
0.21568942,-0.17567968,1.4926709,-0.60132533,-0.76698124,0.22393672,0
0.16058303,-0.58403909,0.0061376095,-0.60132533,-0.76698124,0.22393672,0
-0.97178018,-0.20501713,-1.1275554,-0.60132533,-0.76698124,0.22393672,0
1.1458945,-1.2841702,0.21150959,-0.60132533,-0.76698124,0.22393672,0
-0.98468453,0.36700109,0.61475563,-0.60132533,-0.76698124,0.22393672,0
0.51110041,-0.97851849,-1.4953836,0.33444276,-0.49614766,-0.80124009,0
-0.6092869,1.0585251,0.27733159,0.60132533,0.76698124,-0.22393672,0
-0.083655059,-0.22389805,0.55013502,-0.60132533,-0.76698124,0.22393672,0
1.2465531,0.039379299,0.48934504,0.60132533,0.76698124,-0.22393672,0
-0.81993586,1.0869746,1.1884091,-0.50118607,0.58034819,0.64187896,0
0.222036,-0.27272308,1.7546642,-0.60132533,-0.76698124,0.22393672,0
0.88489151,-1.5347884,0.091696024,-0.60132533,-0.76698124,0.22393672,0
-0.090248227,-0.16719711,1.9192805,-0.60132533,-0.76698124,0.22393672,0
0.080324888,-0.6873033,-1.835907,0.019092619,-0.2939828,-0.95562011,0
0.36075449,-0.62899148,-1.8842394,0.12220913,-0.36525959,-0.92284906,0
-0.89229083,1.3912427,0.73191857,0.60132533,0.76698124,-0.22393672,0
0.56278384,-0.34474009,1.9574535,-0.60132533,-0.76698124,0.22393672,0
-0.013596654,-0.49270609,-1.929529,-0.052484751,-0.24174786,-0.96891862,0
0.49330178,-0.15959847,-0.59281427,0.60132533,0.76698124,-0.22393672,0
0.31698102,-1.5187856,-1.5145173,-0.60132533,-0.76698124,0.22393672,0
-0.69281942,0.5401001,1.8030711,-0.60132533,-0.76698124,0.22393672,0
-0.65885526,0.80198348,-1.1424365,0.60132533,0.76698124,-0.22393672,0
-0.59551907,0.8436116,-1.6347939,0.60132533,0.76698124,-0.22393672,0
-0.52420616,-0.20033854,0.77601099,-0.60132533,-0.76698124,0.22393672,0
-0.82048845,1.3571012,0.40198803,0.60132533,0.76698124,-0.22393672,0
0.12900452,0.61498117,0.52021766,0.60132533,0.76698124,-0.22393672,0
0.5304141,-0.78395367,1.4882259,-0.60132533,-0.76698124,0.22393672,0
-0.22444999,0.19535863,1.9072151,-0.05397588,0.31862336,0.9463433,0
0.72099924,0.30565947,-0.067918487,0.60132533,0.76698124,-0.22393672,0
0.20480239,0.29993182,-0.95837843,0.60132533,0.76698124,-0.22393672,0
-0.51664639,0.26859295,1.8930861,-0.1399048,0.37701133,0.91558135,0
1.230278,-0.20108861,0.19521004,0.60132533,0.76698124,-0.22393672,0
0.35886759,-1.3214031,-1.6787422,-0.60132533,-0.76698124,0.22393672,0
0.24849364,0.64121187,0.51722997,0.60132533,0.76698124,-0.22393672,0
-0.34941322,-0.28607082,0.28008473,-0.60132533,-0.76698124,0.22393672,0
0.24100721,-0.14365423,-1.6778536,0.60132533,0.76698124,-0.22393672,0
0.89506918,-1.434429,-1.0488892,-0.60132533,-0.76698124,0.22393672,0
1.5368018,-0.7278468,1.3235703,0.71757644,-0.39513221,0.57354569,0
-0.68251735,1.377579,0.47007716,0.60132533,0.76698124,-0.22393672,0
0.77532876,-0.25478929,-1.1412714,0.60132533,0.76698124,-0.22393672,0
-0.98617554,0.81227529,1.7372975,-0.30955976,0.48201558,0.81965464,0
-0.17251337,0.33914727,-1.1362785,0.60132533,0.76698124,-0.22393672,0
-0.99686849,0.67039728,1.1767634,-0.60132533,-0.76698124,0.22393672,0
-0.66661757,-0.2591778,-1.2896242,-0.60132533,-0.76698124,0.22393672,0
-0.96588355,0.375898,0.84024179,-0.60132533,-0.76698124,0.22393672,0
0.29063988,0.16008806,-1.7147321,0.60132533,0.76698124,-0.22393672,0
-1.2901076,1.2117307,1.1123698,-0.59313971,0.61628675,0.51805013,0
-0.61734813,-0.063177675,-0.1016916,-0.60132533,-0.76698124,0.22393672,0
-0.72896779,1.2810915,-0.2811287,0.60132533,0.76698124,-0.22393672,0
0.078586392,-0.76515865,-0.39500391,-0.60132533,-0.76698124,0.22393672,0
0.88452512,-1.0023196,1.3305563,0.6974324,-0.36709142,0.61549324,0
-1.2979175,1.4969926,0.30708754,-0.74659425,0.63919735,0.18445534,0
1.1444416,-1.6126096,0.16485691,-0.60132533,-0.76698124,0.22393672,0
-1.1250106,0.24366452,-0.25951114,-0.60132533,-0.76698124,0.22393672,0
0.064146996,0.20934725,-1.6510544,0.60132533,0.76698124,-0.22393672,0
1.1911556,-0.39836568,0.44216803,0.60132533,0.76698124,-0.22393672,0
-1.1724147,0.048932135,-0.34412298,-0.60132533,-0.76698124,0.22393672,0
0.6764906,-0.30318993,-0.64776981,0.60132533,0.76698124,-0.22393672,0
0.53660154,0.2852391,0.14779769,0.60132533,0.76698124,-0.22393672,0
0.12551945,-0.95955861,-1.2661295,-0.60132533,-0.76698124,0.22393672,0
1.2484486,-0.50559717,-1.008124,0.60132533,0.76698124,-0.22393672,0
-0.40932563,-0.25377637,-0.43813285,-0.60132533,-0.76698124,0.22393672,0
0.74130321,-0.64726847,1.7060642,-0.60132533,-0.76698124,0.22393672,0
-0.005748868,0.48562956,-0.40153241,0.60132533,0.76698124,-0.22393672,0
-1.6393151,0.53784913,0.54820752,-0.60132533,-0.76698124,0.22393672,0
0.18317735,0.23861754,-1.7473006,0.60132533,0.76698124,-0.22393672,0
0.005484581,1.2216309,1.2507741,0.60132533,0.76698124,-0.22393672,0
0.85381985,-0.042462826,-0.1453256,0.60132533,0.76698124,-0.22393672,0
-1.0049508,-0.25456819,-1.4985366,-0.60132533,-0.76698124,0.22393672,0
-0.10394591,-0.4867574,-0.30729795,-0.60132533,-0.76698124,0.22393672,0
-1.0230263,1.6143875,0.58234072,-0.69980371,0.64081573,0.3156423,0
-1.1274579,1.4901055,-0.88249898,0.60132533,0.76698124,-0.22393672,0
1.3047322,0.037721306,1.0510533,0.60132533,0.76698124,-0.22393672,0
1.117581,-0.27310359,-0.56490248,0.60132533,0.76698124,-0.22393672,0
-0.64054143,1.1590835,1.6908519,-0.27246442,0.46030736,0.84491426,0
-0.28532982,0.74217176,-1.2998114,0.60132533,0.76698124,-0.22393672,0
-1.0015314,0.52669537,1.5894291,-0.60132533,-0.76698124,0.22393672,0
0.12989697,-0.94916821,-0.76813877,-0.60132533,-0.76698124,0.22393672,0
0.443436,0.45154744,0.34904283,0.60132533,0.76698124,-0.22393672,0
0.17908418,0.19744813,-1.1449635,0.60132533,0.76698124,-0.22393672,0
-0.58143079,-0.86931503,-1.6800951,-0.60132533,-0.76698124,0.22393672,0
-0.52820259,-0.57468355,-1.3605604,-0.60132533,-0.76698124,0.22393672,0
0.99048048,-1.250541,0.42071879,-0.60132533,-0.76698124,0.22393672,0
0.56727648,-1.6019377,-1.3001521,-0.60132533,-0.76698124,0.22393672,0
1.6012872,-0.12228325,0.91709757,0.60132533,0.76698124,-0.22393672,0
0.63593382,-0.053423584,-0.79157132,0.60132533,0.76698124,-0.22393672,0
-1.2794909,0.50933701,0.31725174,-0.60132533,-0.76698124,0.22393672,0
-1.4708633,0.8067174,-1.1965466,-0.74347401,0.43444818,-0.50843012,0
-0.24817115,1.0253162,0.56464577,0.60132533,0.76698124,-0.22393672,0
-1.7010775,1.1243566,-0.022707224,-0.77520168,0.62792933,0.06904459,0
-0.84173256,0.96080714,-0.85743988,0.60132533,0.76698124,-0.22393672,0
-1.559984,0.32442558,-1.294436,-0.60132533,-0.76698124,0.22393672,0
-1.1798116,0.61093593,-1.526227,-0.57535625,0.22118151,-0.78742868,0
0.28890175,-0.77990907,-0.34549171,-0.60132533,-0.76698124,0.22393672,0
-0.73139137,1.1911936,-0.92214018,0.60132533,0.76698124,-0.22393672,0
-0.9817875,0.95714533,-1.2327454,0.60132533,0.76698124,-0.22393672,0
1.2299666,0.012515426,0.33997411,0.60132533,0.76698124,-0.22393672,0
0.25216472,0.41920349,0.15241063,0.60132533,0.76698124,-0.22393672,0
1.3916466,-0.6775623,0.061342657,0.60132533,0.76698124,-0.22393672,0
0.7863481,-1.5002061,-1.2096243,-0.60132533,-0.76698124,0.22393672,0
-1.5730177,0.040986687,-1.0857233,-0.60132533,-0.76698124,0.22393672,0
-0.77326047,-0.086872101,-0.55312747,-0.60132533,-0.76698124,0.22393672,0
-1.5655179,1.4256759,-0.071091413,-0.79007447,0.6125589,-0.023536325,0
-0.62199759,-0.58241898,-1.1422544,-0.60132533,-0.76698124,0.22393672,0
-0.81729114,0.11327749,0.25680909,-0.60132533,-0.76698124,0.22393672,0
1.0255884,-0.12594971,0.097594202,0.60132533,0.76698124,-0.22393672,0
-1.381108,0.83353549,0.56042993,-0.60132533,-0.76698124,0.22393672,0
1.3480664,-0.5686028,-0.29204023,0.60132533,0.76698124,-0.22393672,0
-0.34976602,0.71365482,-0.67355514,0.60132533,0.76698124,-0.22393672,0
0.76762295,-0.60112989,1.8078541,-0.60132533,-0.76698124,0.22393672,0
1.6374199,-0.50965762,0.40221563,0.60132533,0.76698124,-0.22393672,0
-1.155777,0.28371066,0.20557821,-0.60132533,-0.76698124,0.22393672,0
0.32159284,-0.50494891,0.71699423,-0.60132533,-0.76698124,0.22393672,0
-0.94774193,-0.42446509,-1.4509065,-0.60132533,-0.76698124,0.22393672,0
-0.028843284,1.0555456,1.8733234,-0.092295647,0.34507078,0.93402773,0
-1.5631025,0.81302488,-0.95732164,-0.7463007,0.43904567,-0.50027418,0
1.7299049,-0.76570427,0.56442559,0.79551315,-0.54853165,0.25743324,0
0.46592358,-0.31115454,-1.1681237,0.60132533,0.76698124,-0.22393672,0
-1.2686009,-0.2094204,-1.4159989,-0.60132533,-0.76698124,0.22393672,0
-0.024965018,0.65389931,-0.25617176,0.60132533,0.76698124,-0.22393672,0
1.0949134,0.13016537,0.68503433,0.60132533,0.76698124,-0.22393672,0
-1.144464,-0.28705558,-1.4809526,-0.60132533,-0.76698124,0.22393672,0
0.7567575,0.16799995,1.7893245,0.2884146,0.05301401,0.95603681,0
-0.73605776,1.3864436,1.5285528,-0.41927379,0.54147834,0.72870499,0
-0.62072074,-0.21876964,-0.15470299,-0.60132533,-0.76698124,0.22393672,0
-0.0060885549,0.96868873,1.1606934,0.60132533,0.76698124,-0.22393672,0
-0.56938159,0.74632299,-0.43006414,0.60132533,0.76698124,-0.22393672,0
0.19717216,0.74884605,1.6189673,0.60132533,0.76698124,-0.22393672,0
-1.4415054,1.3550283,0.46713805,-0.70767355,0.64136541,0.29639256,0
-0.53830421,1.2815548,0.70393741,0.60132533,0.76698124,-0.22393672,0
-1.7588377,0.7858845,0.76351655,-0.60132533,-0.76698124,0.22393672,0
0.090050042,-0.48499155,0.40397191,-0.60132533,-0.76698124,0.22393672,0
1.6073544,-0.96684289,0.64922261,0.79652447,-0.55336922,0.24358022,0
-0.74425471,-0.29410183,-1.9288044,-0.23595458,-0.097309291,-0.96687967,0
0.12041957,-0.61921024,-0.37174124,-0.60132533,-0.76698124,0.22393672,0
-0.80210102,0.21628547,0.59653354,-0.60132533,-0.76698124,0.22393672,0
-0.81395507,1.5821028,0.95083642,0.60132533,0.76698124,-0.22393672,0
0.034655333,-0.13929069,1.9847159,0.13865709,0.1758472,0.97460359,0
0.12438154,-0.14587152,-2.1328344,-0.006939888,-0.27524561,-0.96134889,0
0.10586859,-0.83083487,-0.31730419,-0.60132533,-0.76698124,0.22393672,0
0.47057104,-0.58700752,1.6013561,-0.60132533,-0.76698124,0.22393672,0
-0.032905459,-0.010730267,-2.0193195,0.60132533,0.76698124,-0.22393672,0
-0.20603991,0.10685372,-1.5479355,0.60132533,0.76698124,-0.22393672,0
0.77722442,-0.14065492,-0.21328419,0.60132533,0.76698124,-0.22393672,0
