0.061551213,-2.9775939,0.65949011,0.58599722,-0.75603837,-0.2915709,0
0.69394505,1.6380835,1.1834626,0.15296733,0.6600219,0.7355082,0
-2.3404214,-1.6861088,4.3109436,-0.46525407,-0.60852599,0.64283347,0
2.4943218,0.6359669,-0.12792277,0.85184288,-0.11038172,0.51203513,0
0.55642748,-2.2087693,0.070430279,0.58564621,-0.75616574,-0.2919454,0
3.1195786,2.8656049,-0.93711424,0.68959117,0.20614588,0.69423944,0
1.408945,-1.5718244,0.20987916,0.77127635,-0.63505042,-0.042943001,0
0.069887877,-2.4560444,0.18898749,0.48288953,-0.78312385,-0.39183539,0
-2.9501655,-0.78374743,1.7484611,-0.82851577,0.55502278,-0.074240923,0
-1.3261597,-0.44599858,-1.2505617,-0.70734739,-0.18101105,-0.68329722,0
-1.2692987,-1.2817501,-1.0103674,-0.44593817,-0.46619779,-0.76406747,0
1.4602822,-0.92936659,1.0609989,0.88392448,-0.28076732,0.37396204,0
3.7416589,2.3755312,-2.9206202,0.46525407,0.60852599,-0.64283347,0
2.3465087,2.9715278,-3.4728036,0.46525407,0.60852599,-0.64283347,0
2.0439429,4.1813016,-2.5002775,0.46525407,0.60852599,-0.64283347,0
-0.76790786,2.6178157,-1.4051747,-0.80142593,0.59793007,-0.014017105,0
2.4692671,0.15352064,-0.95098019,0.86515772,-0.46618795,0.18485439,0
2.9090571,3.9775763,-1.6261978,0.27291495,0.59222794,0.75814497,0
-3.8374004,-2.5588417,2.8690042,-0.46525407,-0.60852599,0.64283347,0
1.8139163,-0.93709129,0.28084469,0.8551535,-0.49653316,0.14888811,0
2.5182776,2.9150596,-3.4901955,0.46525407,0.60852599,-0.64283347,0
-2.3062449,-3.3973014,2.7153594,-0.46525407,-0.60852599,0.64283347,0
-2.4369895,-0.73644686,3.8330894,-0.1749562,0.77511114,0.60711896,0
-2.8312302,-3.5278938,0.9154042,-0.43685091,-0.47377038,-0.76465893,0
-3.3468738,-2.6115944,3.0586455,-0.46525407,-0.60852599,0.64283347,0
-1.3703573,-3.3882384,0.62114757,0.079985261,-0.7521506,-0.65411937,0
-0.63212049,-3.422905,3.8816197,-0.46525407,-0.60852599,0.64283347,0
-2.6312227,-2.8744843,0.54891777,-0.4740876,-0.44197541,-0.76151109,0
3.9698179,2.3262403,-2.7510259,0.46525407,0.60852599,-0.64283347,0
-1.7554861,1.2215309,0.2925992,-0.77631962,0.62942386,0.03396666,0
-3.4011884,-2.5272567,2.9920995,-0.46525407,-0.60852599,0.64283347,0
-3.4909444,-1.986784,3.4790924,-0.46525407,-0.60852599,0.64283347,0
2.5033588,0.37823081,-3.1635702,0.47680825,-0.78414506,-0.39720368,0
-0.9701978,-1.5621758,-1.026309,-0.21196759,-0.62849987,-0.74837017,0
-0.062180042,-2.5053821,3.763752,0.79643494,0.029153079,0.60402125,0
-3.2108331,-3.4316802,2.4448428,-0.46525407,-0.60852599,0.64283347,0
-1.8116529,-2.7602212,3.924366,-0.46525407,-0.60852599,0.64283347,0
2.9716372,2.0005584,-3.736274,0.46525407,0.60852599,-0.64283347,0
-3.5300708,-3.5214553,1.8046179,-0.46525407,-0.60852599,0.64283347,0
2.7044384,1.8351756,-0.48854327,0.77822924,0.064837247,0.62462443,0
-0.068740129,2.4459853,-0.14972174,-0.37382549,0.79335678,0.48045802,0
-2.1172152,-3.0055609,3.5398288,-0.46525407,-0.60852599,0.64283347,0
-3.4808948,-2.5607274,2.7875569,-0.46525407,-0.60852599,0.64283347,0
0.45396411,3.8030007,-3.2465823,-0.86955231,0.4500469,-0.20331478,0
3.130295,3.7486687,-1.8686101,0.46525407,0.60852599,-0.64283347,0
-0.06549263,2.0118253,0.54809314,-0.20989966,0.78135121,0.58773535,0
-2.954803,-2.7499542,1.0553583,-0.61260992,-0.3028467,-0.73006386,0
2.4327898,3.4691815,-2.7904594,0.46525407,0.60852599,-0.64283347,0
0.77170467,4.0879145,-3.1381552,0.46525407,0.60852599,-0.64283347,0
1.3644857,0.44685173,-3.5714359,-0.11425161,-0.67886233,-0.72532248,0
-2.4009361,-0.92680752,-0.039726019,-0.84166706,0.079237819,-0.53415203,0
-1.1116397,-3.2806294,3.5736165,-0.46525407,-0.60852599,0.64283347,0
2.3829584,4.1171064,-2.0214608,0.46525407,0.60852599,-0.64283347,0
-2.3090968,-3.9317191,1.1488765,-0.14816916,-0.66243517,-0.73431993,0
-3.6318529,-3.8017607,1.620077,-0.56335437,-0.35659876,-0.74529827,0
-1.1560724,-3.1370933,0.33780304,0.11171913,-0.76078075,-0.63932133,0
2.3406801,2.2263708,-3.887856,0.46525407,0.60852599,-0.64283347,0
-2.432168,-3.8599429,1.1960722,-0.20660031,-0.63151073,-0.74733585,0
-3.6158428,-3.4408622,2.0475147,-0.46525407,-0.60852599,0.64283347,0
2.8779945,1.2372048,-3.5603979,0.4819665,-0.78328264,-0.39265382,0
-1.8824,-2.1701059,4.4489584,-0.46525407,-0.60852599,0.64283347,0
0.69268966,3.675251,-3.837775,0.46525407,0.60852599,-0.64283347,0
-1.4025834,-3.1937459,0.50074995,0.041525364,-0.74042505,-0.67085522,0
1.4231272,-0.82459432,1.6662793,0.87295663,-0.19517162,0.44705153,0
-3.6818748,-3.3897672,1.8870137,-0.46525407,-0.60852599,0.64283347,0
-1.9543428,-2.2569261,4.1582489,-0.46525407,-0.60852599,0.64283347,0
3.7113266,2.0929437,-1.8310313,0.87699378,-0.21836554,0.42801738,0
3.3839033,1.8517303,-3.8620408,0.46525407,0.60852599,-0.64283347,0
1.8699523,0.37415481,0.79671466,0.81053364,-0.0009894371,0.58569145,0
-0.52601606,-3.7725964,3.2160983,0.86683542,-0.46028879,0.19165313,0
2.5658722,2.3000534,-3.6344712,0.46525407,0.60852599,-0.64283347,0
3.890945,2.3109903,-3.0842481,0.46525407,0.60852599,-0.64283347,0
-1.3030947,1.0623959,1.3682344,-0.40649116,0.79199678,0.45552871,0
-0.86920583,-3.7560387,3.480974,-0.46525407,-0.60852599,0.64283347,0
-0.89858723,-4.5097384,2.415422,0.55158955,-0.76729226,-0.32712692,0
2.6103861,0.68747401,-3.2742417,0.37031049,-0.79342252,-0.48306417,0
-0.23233366,0.28089571,2.7547116,0.24209392,0.61105442,0.75365996,0
2.8790088,3.6509385,-1.9961649,0.46525407,0.60852599,-0.64283347,0
-1.0107527,-0.91103321,-1.2186551,-0.4721067,-0.44371879,-0.76172787,0
0.85441327,-0.33454192,2.3406434,0.69946861,0.1923199,0.68830019,0
-2.2667036,0.31805891,0.32144094,-0.86520183,0.46603653,-0.18502975,0
0.65413725,3.9469461,-3.5885754,0.46525407,0.60852599,-0.64283347,0
2.4189088,1.3347323,-4.0573282,0.13772535,-0.76714069,-0.6265198,0
-2.9829059,-2.4658346,3.3343954,-0.46525407,-0.60852599,0.64283347,0
3.0571709,1.1252142,-1.3920075,0.88514185,-0.31332457,0.34402335,0
3.6796229,2.967906,-1.6555152,0.77350748,0.073597372,0.62949979,0
1.2953064,2.5741825,-4.6944513,0.46525407,0.60852599,-0.64283347,0
-1.9273463,-3.114779,3.2237949,-0.46525407,-0.60852599,0.64283347,0
-3.6289792,-1.6182032,3.7578876,-0.46525407,-0.60852599,0.64283347,0
0.80352402,-1.6377809,1.863964,0.87484109,-0.20545292,0.43868291,0
0.88837075,1.4961922,-4.2056541,-0.52061599,-0.39921618,-0.75470906,0
-0.81245941,2.0959468,-0.75291491,-0.72888231,0.67543936,0.11185956,0
2.5809975,2.310169,-0.20721865,0.59905636,0.31818357,0.73477274,0
-2.8523083,-2.3845696,3.2656221,-0.46525407,-0.60852599,0.64283347,0
1.4896977,-1.0306382,1.2960558,0.88514936,-0.32561451,0.33239484,0
1.7192788,2.34201,-4.0454617,0.46525407,0.60852599,-0.64283347,0
0.22199857,2.7967362,-0.15364206,-0.25810331,0.78792393,0.55906975,0
1.6926494,2.8337646,-3.8357759,0.46525407,0.60852599,-0.64283347,0
-2.2447934,-4.3949904,2.0762062,-0.46525407,-0.60852599,0.64283347,0
0.97146642,3.4448831,-1.1653607,-0.37115586,0.79340816,0.48243874,0
2.3577807,3.8773823,-2.382571,0.46525407,0.60852599,-0.64283347,0
-0.61829746,-0.85051638,-1.6383198,-0.32464552,-0.55830902,-0.76347661,0
1.7862039,0.98810422,0.85299957,0.6335845,0.27820909,0.72192156,0
-2.6455278,-2.8818872,3.3365278,-0.46525407,-0.60852599,0.64283347,0
0.1360023,-0.56680071,-1.9862845,-0.18719089,-0.64215738,-0.74336648,0
-3.8178818,-2.9145434,1.9885921,-0.46525407,-0.60852599,0.64283347,0
-3.6199841,-3.0391331,1.9943343,-0.46525407,-0.60852599,0.64283347,0
1.9896412,3.2698276,-3.1302607,0.46525407,0.60852599,-0.64283347,0
-1.6946876,-0.10953414,-0.71763456,-0.82220739,0.028080374,-0.56849533,0
-3.6949716,-3.0632024,2.0401731,-0.46525407,-0.60852599,0.64283347,0
-0.43008566,-0.84374428,3.324621,0.53470492,0.38554305,0.75196254,0
-2.3096666,-2.8583162,3.5753052,-0.46525407,-0.60852599,0.64283347,0
1.6467667,-1.2419617,0.969836,0.88336033,-0.36569622,0.29315746,0
-0.27750778,-0.4759798,2.9516675,0.48143148,0.43545872,0.76065749,0
-3.241333,-0.95889878,1.5908177,-0.84625399,0.51876378,-0.12140298,0
1.2923636,3.5146968,-0.85873121,-0.1548475,0.77097356,0.61775589,0
-0.21406937,0.79221058,2.1632252,0.087358236,0.69110924,0.71745157,0
-1.8860192,-3.1275086,0.30848259,-0.29482621,-0.57822365,-0.7607466,0
-1.9133427,-1.9515138,4.4252958,-0.46525407,-0.60852599,0.64283347,0
-0.58562207,1.4777145,0.97258401,-0.38345623,0.79309744,0.47324231,0
0.91887259,-0.69567823,-2.2749729,0.060571194,-0.74640429,-0.66273069,0
0.7025373,-0.22867179,2.3044248,0.60629267,0.31004983,0.73231041,0
0.87880439,4.5944448,-2.9210017,-0.69682479,0.69963104,0.15796185,0
-1.6021224,-2.3004425,-0.37713701,-0.31265503,-0.56643754,-0.76249313,0
0.37391853,-1.8647492,2.8748178,0.86205453,-0.14658472,0.48515487,0
3.3067772,2.6851006,-2.7940528,0.46525407,0.60852599,-0.64283347,0
-2.8143606,-3.1131873,2.7117994,-0.46525407,-0.60852599,0.64283347,0
3.4223709,2.5528023,-2.6536102,0.46525407,0.60852599,-0.64283347,0
-3.2301946,-3.2762465,1.4542527,-0.5958097,-0.32179308,-0.73583984,0
-1.2207568,-1.281827,3.8287456,0.33354908,0.55216634,0.7641058,0
1.1700124,3.5067859,-3.5666785,0.46525407,0.60852599,-0.64283347,0
1.6545064,2.2340686,0.29449487,0.27771509,0.58920461,0.75875729,0
3.0846961,1.5316026,-4.1070895,0.46525407,0.60852599,-0.64283347,0
1.8123655,1.6711843,-4.658123,-0.19890952,-0.63577449,-0.74580568,0
1.386292,-1.245564,-0.37959707,0.70417893,-0.69447756,-0.14776087,0
-1.0854144,-1.4453773,4.2340412,0.4431746,0.46851307,0.76425904,0
1.7126509,3.0022845,-3.5745373,0.46525407,0.60852599,-0.64283347,0
0.3513,-1.9494452,3.2887015,0.84342062,-0.08433786,0.53059328,0
1.923123,2.9530954,-3.7061896,0.46525407,0.60852599,-0.64283347,0
1.9997177,2.1614184,-4.3117666,0.46525407,0.60852599,-0.64283347,0
-1.4636793,-4.3764324,2.6744277,-0.46525407,-0.60852599,0.64283347,0
-3.6319287,-2.8430855,2.645936,-0.46525407,-0.60852599,0.64283347,0
1.3377078,-0.44266868,-2.4350564,0.14400804,-0.76858008,-0.62333512,0
3.4360774,3.3938491,-1.90567,0.46525407,0.60852599,-0.64283347,0
-1.7859659,-0.89730507,-0.87479448,-0.68634343,-0.21061045,-0.69611508,0
-0.9148705,1.3251419,-1.8311297,-0.86564064,0.16105127,-0.47405601,0
0.95371377,3.1094666,-3.9185901,0.46525407,0.60852599,-0.64283347,0
-0.54519129,2.232965,-1.8369163,-0.87288636,0.4360041,-0.21902096,0
3.7149615,1.6480961,-3.1667805,0.70539761,-0.69360209,-0.1460501,0
-1.5719535,-2.3665617,4.5376062,-0.46525407,-0.60852599,0.64283347,0
2.6277113,2.3361413,-3.4085197,0.46525407,0.60852599,-0.64283347,0
3.0681322,0.81919968,-1.4400001,0.87893331,-0.40369454,0.2539829,0
0.45797968,0.2863394,2.1609888,0.48488677,0.43236357,0.76022816,0
2.5919843,3.3008618,-2.9449973,0.46525407,0.60852599,-0.64283347,0
2.0822647,3.8395095,-2.9116488,0.46525407,0.60852599,-0.64283347,0
2.48159,0.62439919,-3.4754207,0.41415083,-0.79147685,-0.44949269,0
1.2597375,1.1807408,-3.7890427,-0.26834506,-0.59508306,-0.75754035,0
1.3501434,2.6201012,-4.4180059,0.46525407,0.60852599,-0.64283347,0
3.4193993,2.727571,-2.8386388,0.46525407,0.60852599,-0.64283347,0
-2.9824929,-3.8696563,1.9289616,-0.46525407,-0.60852599,0.64283347,0
1.907956,-0.75834441,-1.2007418,0.70979065,-0.69039416,-0.13983381,0
-1.3477905,-1.5072672,4.5577245,0.31563306,0.56443393,0.76275188,0
-1.4094331,-1.8909693,4.273623,0.40987504,0.49557313,0.76577413,0
-1.112712,-1.9300822,-0.75095671,-0.33185691,-0.55334079,-0.76399291,0
-2.4390888,-2.1102922,0.33613777,-0.58835608,-0.32998914,-0.73820382,0
-1.0984546,0.32094991,-1.8806666,-0.70428741,-0.1854338,-0.68526924,0
-0.13696158,-3.2087035,3.490288,0.88238966,-0.26124755,0.39132917,0
1.7784312,2.2333353,-4.6503525,0.46525407,0.60852599,-0.64283347,0
-2.4324763,-3.3521948,2.8384619,-0.46525407,-0.60852599,0.64283347,0
0.48654723,-0.5981195,2.8556237,0.63036251,0.28206858,0.72324324,0
-0.048604012,-1.1651382,3.3585,0.62464583,0.28884828,0.72552359,0
-1.2308892,1.269691,1.4144791,-0.48801768,0.78221744,0.38726598,0
-1.2388144,1.6865493,-1.2390721,-0.87417865,0.42999667,-0.22564328,0
0.91253328,3.0064373,-4.1509976,0.46525407,0.60852599,-0.64283347,0
0.3521142,1.13292,-3.3077102,-0.50743884,-0.41168928,-0.75697953,0
-1.3619897,-4.4928889,2.3460789,-0.46525407,-0.60852599,0.64283347,0
1.3260336,4.5111108,-2.8297398,0.46525407,0.60852599,-0.64283347,0
2.1425107,1.0528591,-3.8231144,0.11919236,-0.76267445,-0.63570523,0
0.84086537,2.643235,-4.3248711,-0.74198568,-0.12791088,-0.65810055,0
-1.3144054,-2.2603071,4.6407652,-0.46525407,-0.60852599,0.64283347,0
0.30878067,-1.5292643,-1.2573959,0.063024044,-0.74714971,-0.66166127,0
2.4459302,2.1638582,-0.27097821,0.66381693,0.24055102,0.7081542,0
0.88370943,1.0728579,-3.7865314,-0.37551206,-0.52194905,-0.76587212,0
2.3347621,2.649471,-3.3340902,0.46525407,0.60852599,-0.64283347,0
0.59566295,2.5585561,0.18849713,-0.074313045,0.75050813,0.65666986,0
0.85360616,4.4129992,-2.6187167,-0.71500838,0.68647468,0.13234723,0
1.64252,1.8745573,-4.4199648,-0.34246588,-0.5459218,-0.7646482,0
0.99247187,3.8757064,-1.2318436,-0.30652112,0.79204565,0.52792877,0
1.7190502,3.4465537,-3.2634895,0.46525407,0.60852599,-0.64283347,0
1.529943,1.0511408,-3.864922,-0.16637039,-0.6531623,-0.73871517,0
1.9761789,3.5212026,-3.1977634,0.46525407,0.60852599,-0.64283347,0
-1.3623857,-4.2548647,2.9176967,-0.46525407,-0.60852599,0.64283347,0
1.0342526,0.34693217,-3.2088084,-0.13252056,-0.67015129,-0.7302984,0
-3.0771761,-1.8692739,3.9352074,-0.46525407,-0.60852599,0.64283347,0
2.2953634,1.6097372,-4.3098941,0.46525407,0.60852599,-0.64283347,0
-1.4926119,-0.43763691,-1.3144536,-0.69604325,-0.19715774,-0.6904006,0
0.95530766,4.2638421,-3.1067545,0.46525407,0.60852599,-0.64283347,0
-0.9446975,1.7862303,-1.6027379,-0.88344717,0.36460257,-0.2942555,0
2.3192835,3.2488894,-3.0555072,0.46525407,0.60852599,-0.64283347,0
2.9636281,3.8106215,-2.1886656,0.46525407,0.60852599,-0.64283347,0
-3.7353635,-1.8487262,2.5826995,-0.86600125,0.46325907,-0.18823767,0
-1.3559941,-4.3561935,2.8383749,-0.46525407,-0.60852599,0.64283347,0
0.46270132,3.1102645,-0.5530811,-0.32682115,0.79299974,0.51413965,0
0.35219938,3.7097819,-1.6794457,-0.63232744,0.7366811,0.23971492,0
-0.10398346,2.821207,-2.4438586,-0.8752712,0.4246088,-0.23153424,0
2.2716098,4.413373,-1.9136927,-0.04759717,0.74236798,0.66829979,0
-1.8391701,-3.6602898,2.7369986,-0.46525407,-0.60852599,0.64283347,0
1.4683803,2.8441794,-3.7412879,0.46525407,0.60852599,-0.64283347,0
3.6732516,2.7215643,-2.4811423,0.46525407,0.60852599,-0.64283347,0
3.0472128,1.6716273,-3.8602641,0.46525407,0.60852599,-0.64283347,0
2.0720708,3.5431981,-2.756135,0.46525407,0.60852599,-0.64283347,0
-2.3690374,-0.082445025,1.2959801,-0.80876774,0.58739805,-0.02930069,0
2.6791196,1.5867362,-4.3448844,0.46525407,0.60852599,-0.64283347,0
-3.1372981,-0.77984238,2.4240675,-0.73111254,0.67357743,0.10848284,0
2.0193205,4.1662841,-2.0655446,0.46525407,0.60852599,-0.64283347,0
1.834051,2.5052762,-0.044230938,0.41237646,0.49359286,0.76571006,0
0.14583039,2.6100922,-0.23869032,-0.36430627,0.79349965,0.48748282,0
-0.58385539,0.43174434,2.59252,0.050445557,0.70681208,0.70560056,0
1.3273085,4.5494547,-2.7680485,0.46525407,0.60852599,-0.64283347,0
-1.8432271,-3.1388955,3.6002245,-0.46525407,-0.60852599,0.64283347,0
-2.1475863,0.75069541,0.65029502,-0.80896139,0.5871107,-0.029712915,0
2.2091744,3.2274609,-3.3369589,0.46525407,0.60852599,-0.64283347,0
-0.94006258,2.0756645,-1.8885757,-0.87176931,0.44092169,-0.21355748,0
-2.1562524,-3.9124842,2.5445232,-0.46525407,-0.60852599,0.64283347,0
2.3503237,-0.4304992,-1.6568139,0.64480603,-0.7305243,-0.22485524,0
1.4447134,3.9250798,-3.291383,0.46525407,0.60852599,-0.64283347,0
-1.1107012,-0.83392882,-1.4889901,-0.44198138,-0.46950942,-0.76433867,0
-1.7258871,-2.1775358,4.7584596,-0.46525407,-0.60852599,0.64283347,0
-2.0036054,-1.7538688,4.5812082,0.0740273,0.69692749,0.71331096,0
-1.8941672,-3.1201608,3.287921,-0.46525407,-0.60852599,0.64283347,0
3.8955107,2.2159474,-1.8440773,0.87833393,-0.22724342,0.42058313,0
3.0483737,4.0204482,-1.3407602,0.36444825,0.53012323,0.76560259,0
-3.3101656,-1.3043864,1.2873991,-0.87855089,0.22875631,-0.41930795,0
-2.6674991,-3.2576199,3.0704019,-0.46525407,-0.60852599,0.64283347,0
-1.1341178,-2.6748457,0.13249464,-0.084233165,-0.69248819,-0.71649516,0
2.2304769,4.6013808,-1.9767752,0.46525407,0.60852599,-0.64283347,0
3.7797327,2.6494117,-2.8109293,0.46525407,0.60852599,-0.64283347,0
1.1578164,3.983233,-2.8592732,0.46525407,0.60852599,-0.64283347,0
-1.9723662,0.068483829,-0.6280179,-0.87971562,0.23732184,-0.41204262,0
-3.4050567,-1.7823355,1.1071997,-0.83909786,0.071937591,-0.53920317,0
2.8141389,3.7197249,-2.164196,0.46525407,0.60852599,-0.64283347,0
1.2841605,0.5851258,1.1574143,0.64843947,0.2600418,0.7154752,0
1.6879983,4.6707606,-1.991333,-0.22340298,0.78343374,0.57993358,0
3.391017,2.8164449,-2.7158091,0.46525407,0.60852599,-0.64283347,0
0.18931496,-2.0509651,-0.39350468,0.35786498,-0.79353333,-0.49217662,0
-0.93295348,-3.4775903,3.7990146,-0.46525407,-0.60852599,0.64283347,0
-3.1304476,-3.3396864,2.0677812,-0.46525407,-0.60852599,0.64283347,0
-3.0606294,-2.7845352,2.8844028,-0.46525407,-0.60852599,0.64283347,0
1.6603686,2.7312641,-3.9803987,0.46525407,0.60852599,-0.64283347,0
-0.91561085,1.8860053,-0.42255819,-0.71912295,0.6832974,0.12636161,0
-0.73638934,-3.9417715,2.1562083,0.64669466,-0.72955406,-0.22256988,0
-3.0971034,-2.9804873,2.8849957,-0.46525407,-0.60852599,0.64283347,0
-2.5049245,-3.9873095,1.2998719,-0.21936214,-0.62430394,-0.74975008,0
0.41622376,-0.96018195,2.8208747,0.7294156,0.14787093,0.66789758,0
0.61656988,2.9148538,-0.53714794,-0.3384639,0.79333311,0.50602877,0
1.6957041,0.60766661,0.84609497,0.70379061,0.18614832,0.68558598,0
0.54162097,2.4585285,0.47866881,-0.082221031,0.75278962,0.65310621,0
-3.1777225,-2.173255,3.275341,-0.46525407,-0.60852599,0.64283347,0
-0.41227126,0.9846766,1.7307105,-0.040216088,0.74000156,0.67140198,0
3.4902937,1.7115653,-3.4434812,0.46525407,0.60852599,-0.64283347,0
2.5074167,2.573035,-3.7894571,0.46525407,0.60852599,-0.64283347,0
-2.0134742,-2.2476308,4.0337305,-0.46525407,-0.60852599,0.64283347,0
-1.5488961,-3.6723509,3.1518927,-0.46525407,-0.60852599,0.64283347,0
-2.0058293,-4.3539624,2.0088043,-0.46525407,-0.60852599,0.64283347,0
1.0697,3.9918284,-3.4127412,0.46525407,0.60852599,-0.64283347,0
2.2040172,4.2478037,-2.052299,0.46525407,0.60852599,-0.64283347,0
3.3393722,2.1223342,-1.0102911,0.79469746,0.032703012,0.60612428,0
2.3655334,4.4339542,-2.1578116,0.46525407,0.60852599,-0.64283347,0
1.3822728,4.4560342,-2.8255787,0.46525407,0.60852599,-0.64283347,0
-1.0391585,-0.5915606,-1.8086057,-0.59866869,-0.31861591,-0.73490131,0
-1.7596781,-1.3239465,4.4964466,0.16204345,0.65539593,0.73769796,0
0.44594264,2.9854746,-3.615221,-0.8785584,0.22880915,-0.4192636,0
3.410794,2.3087344,-2.866179,0.46525407,0.60852599,-0.64283347,0
-3.6480222,-1.6264508,3.5829136,-0.46525407,-0.60852599,0.64283347,0
1.9579536,2.8643205,-3.6608622,0.46525407,0.60852599,-0.64283347,0
3.0133929,2.3316777,-3.4434805,0.46525407,0.60852599,-0.64283347,0
-3.3543019,-2.065942,3.512445,-0.46525407,-0.60852599,0.64283347,0
-2.2634742,-3.1283202,2.9769959,-0.46525407,-0.60852599,0.64283347,0
-0.92393279,-3.2972732,4.0116987,-0.46525407,-0.60852599,0.64283347,0
-1.2550442,-3.1337297,3.8815947,-0.46525407,-0.60852599,0.64283347,0
-1.3659521,0.704826,-1.700652,-0.83661067,0.065050989,-0.54392213,0
-1.6603587,-0.66187686,-0.72339082,-0.74093461,-0.12961319,-0.65895128,0
-3.6001287,-2.8106191,1.6972948,-0.82716048,0.040292412,-0.56051975,0
-0.66593754,2.2171793,-1.5496031,-0.83305252,0.54653823,-0.085556149,0
1.8650734,4.1676664,-2.4433525,0.46525407,0.60852599,-0.64283347,0
3.3494697,1.9968321,-3.1587756,0.46525407,0.60852599,-0.64283347,0
-1.8053945,-4.6019149,2.3812404,-0.46525407,-0.60852599,0.64283347,0
-1.5939324,0.71121264,1.4601164,-0.44131947,0.78898883,0.42747396,0
2.5716081,3.4251351,-1.1467096,0.39308661,0.50864947,0.76600188,0
1.8332288,0.89981937,0.9098289,0.67583656,0.2247923,0.70193571,0
-1.8603374,-3.7295301,2.8791676,-0.46525407,-0.60852599,0.64283347,0
2.7449868,3.4752831,-2.4835012,0.46525407,0.60852599,-0.64283347,0
-0.90107501,-3.5841365,3.706701,-0.46525407,-0.60852599,0.64283347,0
3.3622732,2.6204445,-3.1327329,0.46525407,0.60852599,-0.64283347,0
1.0564553,3.5461917,-3.7344856,0.46525407,0.60852599,-0.64283347,0
3.3083496,1.3716209,-4.016736,0.46525407,0.60852599,-0.64283347,0
1.6809695,3.9343343,-2.996098,0.46525407,0.60852599,-0.64283347,0
-1.5628936,-4.0639977,2.8551292,-0.46525407,-0.60852599,0.64283347,0
1.5355604,-1.6709572,0.69617105,0.84147185,-0.52942872,0.10784614,0
3.3050718,2.9049423,-2.5175288,0.46525407,0.60852599,-0.64283347,0
3.9984462,2.4385898,-2.7189693,0.46525407,0.60852599,-0.64283347,0
0.1937238,2.914083,-0.57942235,-0.48746049,0.782318,0.38776433,0
-2.2730703,-0.18874466,0.29353929,-0.88250506,0.37526706,-0.28347826,0
1.4011762,1.8154988,-4.6140904,-0.39085376,-0.51036096,-0.76600605,0
-0.8430928,1.4527071,1.2505962,-0.39769298,0.79249835,0.46237117,0
-2.5239725,-2.5215566,3.6089978,-0.46525407,-0.60852599,0.64283347,0
-1.562217,-3.3404231,3.2049217,-0.46525407,-0.60852599,0.64283347,0
2.8531723,2.5542121,-0.75944078,0.6201753,0.29409081,0.72725064,0
-3.295845,-1.184852,2.1350908,-0.86685038,0.46023476,-0.19171524,0
1.6819048,4.2228079,-2.7982495,0.46525407,0.60852599,-0.64283347,0
2.8036385,1.1805334,-0.69802904,0.87348425,-0.19796909,0.44478512,0
2.1385806,4.3927984,-1.8826039,-0.0064609051,0.72853529,0.68497807,0
-1.1793764,-2.7919059,4.133985,-0.46525407,-0.60852599,0.64283347,0
1.091454,-1.7531683,1.4997886,0.87963188,-0.39900357,0.25892901,0
2.0261025,3.3934155,-3.3785241,0.46525407,0.60852599,-0.64283347,0
2.5664716,0.64154851,-0.60363841,0.88408852,-0.35546067,0.30337358,0
0.73357487,0.71211958,-3.661725,-0.36015666,-0.53325337,-0.76545954,0
-2.7357831,-1.4269457,4.0529914,-0.31321144,0.79241186,0.52343315,0
-0.81951141,-3.1622574,4.359592,0.79888415,0.024091601,0.60100245,0
-0.95569623,-3.704288,3.5342743,-0.46525407,-0.60852599,0.64283347,0
-3.5900393,-1.5004983,2.0005484,-0.87892878,0.40372387,-0.25395191,0
2.2180057,0.92685509,0.50705028,0.80840617,0.003724128,0.58861357,0
2.213815,1.2746797,-4.1068802,0.11858094,-0.76252151,-0.63600302,0
-1.0802746,-4.2410226,2.9093864,-0.46525407,-0.60852599,0.64283347,0
1.457865,4.7523241,-2.3859317,-0.46302128,0.7862494,0.40917414,0
-3.6911354,-2.1520386,2.8199115,-0.46525407,-0.60852599,0.64283347,0
0.35691696,3.4430015,-2.7086034,-0.82836384,0.55529898,-0.073869467,0
1.7261784,-1.1620247,-0.26100969,0.79432112,-0.60749847,-0.00018286705,0
2.5692122,0.09472084,-2.0345602,0.71854866,-0.6837455,-0.1272012,0
-0.2370972,2.9409759,-2.1357727,-0.81940114,0.57079154,-0.05271697,0
3.4756229,2.8650012,-2.8011932,0.46525407,0.60852599,-0.64283347,0
1.3916421,2.9153414,-4.2390766,0.46525407,0.60852599,-0.64283347,0
0.36952627,3.8590646,-3.7520494,-0.87999517,0.39643955,-0.26161921,0
-2.3583245,-0.52793902,-0.1027739,-0.86139792,0.14405401,-0.48707533,0
0.61216092,1.4950683,1.4722738,0.21156836,0.62872481,0.74829423,0
-1.5710714,0.364851,2.6043055,-0.25937539,0.7880646,0.55828202,0
-3.2093515,-2.9021258,2.445328,-0.46525407,-0.60852599,0.64283347,0
-0.70659274,1.8977853,-2.1634612,-0.87891459,0.23134661,-0.41711915,0
-3.047086,-2.8500443,2.5778618,-0.46525407,-0.60852599,0.64283347,0
1.3496675,3.2371206,-0.45726618,-0.047519684,0.74234331,0.66833264,0
0.92011166,3.7773023,-3.7986512,0.46525407,0.60852599,-0.64283347,0
-1.4317713,0.88063908,-0.68006325,-0.87870073,0.40519348,-0.25239563,0
-0.86208963,-2.2261634,4.4352856,0.66419959,0.24005669,0.70796323,0
-3.1578999,-2.2250431,3.172734,-0.46525407,-0.60852599,0.64283347,0
-2.387707,0.17420161,1.2119337,-0.76320302,0.64364684,0.056923866,0
2.5823889,3.2913115,-2.6590962,0.46525407,0.60852599,-0.64283347,0
3.5779865,2.0852005,-3.4293785,0.46525407,0.60852599,-0.64283347,0
0.24962687,-2.3805599,3.302772,0.84827828,-0.099019557,0.52021086,0
2.3048711,4.3436894,-1.7489707,0.46525407,0.60852599,-0.64283347,0
-2.3900821,-3.2328897,2.8484082,-0.46525407,-0.60852599,0.64283347,0
3.2476544,3.0959191,-2.6583896,0.46525407,0.60852599,-0.64283347,0
3.5012329,1.6379606,-2.4844208,0.85008323,-0.50962311,0.13282728,0
0.24474716,0.011278152,2.6395156,0.46805567,0.44726568,0.76215345,0
-3.1378136,-1.6227593,3.8182259,-0.46525407,-0.60852599,0.64283347,0
1.9451733,0.15374424,0.30112958,0.86987174,-0.17984961,0.45932305,0
-1.6918592,-3.7546558,3.1223259,-0.46525407,-0.60852599,0.64283347,0
2.7308748,1.7045696,-4.16922,0.46525407,0.60852599,-0.64283347,0
1.7022154,4.3014784,-2.4224901,0.46525407,0.60852599,-0.64283347,0
1.1697094,4.0016346,-3.1800361,0.46525407,0.60852599,-0.64283347,0
-2.5965431,-3.6927752,2.5049946,-0.46525407,-0.60852599,0.64283347,0
2.9000053,3.5301621,-2.3189416,0.46525407,0.60852599,-0.64283347,0
-2.192564,-2.6252527,3.4692388,-0.46525407,-0.60852599,0.64283347,0
0.96286035,4.5386267,-2.6097558,0.46525407,0.60852599,-0.64283347,0
2.5867453,3.9252629,-1.3251648,0.32178235,0.56026489,0.76325589,0
0.98532891,4.0480981,-3.5435536,0.46525407,0.60852599,-0.64283347,0
0.67991066,0.65445673,1.8822279,0.51523238,0.40434825,0.75567091,0
2.954551,2.7502089,-3.0626945,0.46525407,0.60852599,-0.64283347,0
2.609601,0.32933944,-0.5931561,0.87423646,-0.42971933,0.22594774,0
1.0397911,2.7382963,-4.6853895,0.46525407,0.60852599,-0.64283347,0
-0.91525936,-2.8528395,4.2031817,-0.46525407,-0.60852599,0.64283347,0
-1.5157752,-3.7494791,3.0443811,-0.46525407,-0.60852599,0.64283347,0
1.3690357,-1.3398314,0.29395962,0.79949445,-0.60058886,0.010102153,0
0.38442016,3.809361,-3.4443486,-0.8421365,0.52799159,-0.10968745,0
-1.539477,-3.02776,3.8765874,-0.46525407,-0.60852599,0.64283347,0
-3.1717613,-3.3437791,1.4798467,-0.61149073,-0.30412993,-0.73046851,0
-1.1392996,-4.5140777,2.7921622,-0.46525407,-0.60852599,0.64283347,0
-0.41484952,-0.032371759,2.9448867,0.28851914,0.58230853,0.76004857,0
-3.039499,-1.9041952,0.76290274,-0.79086244,-0.040424228,-0.61065775,0
3.5765688,2.3487115,-3.0742495,0.46525407,0.60852599,-0.64283347,0
-0.66924286,0.35081959,2.522604,0.1261636,0.67321861,0.72860128,0
2.2722478,-0.47921771,-1.4773816,0.71377224,-0.68741429,-0.13413119,0
-1.1108751,1.5264847,-0.017608643,-0.71659553,0.68525839,0.1300472,0
-0.95222771,-3.3329237,4.1175256,-0.46525407,-0.60852599,0.64283347,0
-1.8402307,0.02311416,-0.5024662,-0.87556946,0.20966426,-0.43522346,0
1.6365894,4.416151,-2.6633902,0.46525407,0.60852599,-0.64283347,0
1.8610885,3.1771495,-3.5599227,0.46525407,0.60852599,-0.64283347,0
3.3965116,2.4914916,-1.1942095,0.74373287,0.12506738,0.65667343,0
-1.737717,-3.8302336,2.864234,-0.46525407,-0.60852599,0.64283347,0
-2.1230502,-3.1352253,3.220196,-0.46525407,-0.60852599,0.64283347,0
0.85778165,4.0422292,-3.0873249,0.46525407,0.60852599,-0.64283347,0
-3.2984793,-2.5094368,3.0842838,-0.46525407,-0.60852599,0.64283347,0
-0.32354665,-2.84829,3.8092346,0.83320075,-0.055874676,0.55014086,0
2.4013009,0.64545631,-3.6290202,0.34711307,-0.79347777,-0.49990585,0
-1.4386477,-3.2062075,3.5225916,-0.46525407,-0.60852599,0.64283347,0
-0.98593682,2.2274289,-0.8716917,-0.79613215,0.60511363,-0.0033855438,0
-0.6219511,-0.81571752,-2.0073965,-0.36025965,-0.53317851,-0.76546323,0
-1.3975866,-4.2120509,2.913033,-0.46525407,-0.60852599,0.64283347,0
-1.8811399,0.079274058,-1.0014529,-0.85018611,0.10503301,-0.51589918,0
0.70806098,0.62425089,-3.4896421,-0.25991666,-0.60029048,-0.75636965,0
-0.84647024,1.0544838,-2.0121932,-0.84249407,0.081630826,-0.53248537,0
1.0387037,1.7044528,-4.1767564,-0.39005315,-0.51097304,-0.76600605,0
-1.0926101,-4.1944056,2.8707941,-0.46525407,-0.60852599,0.64283347,0
-2.1114235,-0.0049982071,0.25231361,-0.87861884,0.40571496,-0.25184262,0
-1.1105682,-2.6550465,0.0095953122,0.00071275234,-0.72647732,-0.68719023,0
-0.70683455,0.94593298,-2.1662679,-0.82674432,0.039247841,-0.56120747,0
-1.18582,0.79647106,-1.5203376,-0.83096713,0.050017446,-0.55406886,0
-2.5322187,-4.0324755,1.9738272,-0.46525407,-0.60852599,0.64283347,0
0.3548975,2.6534688,0.26728767,-0.12464201,0.76402187,0.63303649,0
-2.4629502,-2.5891762,3.8113527,-0.46525407,-0.60852599,0.64283347,0
3.4963856,1.5005774,-2.6607103,0.82628173,-0.55903685,0.068824291,0
-0.95588422,-3.2561665,4.1968789,-0.46525407,-0.60852599,0.64283347,0
-0.68673271,2.1489022,-0.15140188,-0.65446067,0.72545397,0.21306783,0
0.070270777,-0.09245348,-2.6698933,-0.28518194,-0.58445209,-0.75966257,0
0.81209636,-0.34474528,-2.3808131,-0.044808626,-0.70909816,-0.70368481,0
0.4340353,4.2172031,-3.1790752,0.46525407,0.60852599,-0.64283347,0
2.1563952,1.3709711,0.089458466,0.73996973,0.13117024,0.65972692,0
3.0969222,1.6598942,-4.1444511,0.46525407,0.60852599,-0.64283347,0
2.4873965,4.3748922,-1.9897528,0.46525407,0.60852599,-0.64283347,0
-1.2535347,-3.895216,3.0718699,-0.46525407,-0.60852599,0.64283347,0
-1.7726872,-3.9366784,2.7374518,-0.46525407,-0.60852599,0.64283347,0
0.55002236,2.2554915,-4.2776761,-0.71320486,-0.17243281,-0.679416,0
1.400842,3.7100778,-3.4752276,0.46525407,0.60852599,-0.64283347,0
-1.1536449,-4.3077145,2.6941555,-0.46525407,-0.60852599,0.64283347,0
-3.4006071,-1.1344774,3.2477021,-0.64121288,0.73234177,0.22917628,0
-0.83932716,-4.3080907,3.2831807,-0.46525407,-0.60852599,0.64283347,0
0.95201135,0.52375144,2.014853,0.56293803,0.35703087,0.74540597,0
-2.5397577,-3.5782681,2.7095737,-0.46525407,-0.60852599,0.64283347,0
-0.7224223,-3.1349549,0.52339858,0.31863576,-0.7926715,-0.5197531,0
-3.7094231,-1.9577844,3.2503614,-0.46525407,-0.60852599,0.64283347,0
-2.363739,-1.3868926,4.5139732,-0.46525407,-0.60852599,0.64283347,0
-2.4817586,-4.2027574,1.7174356,-0.15833485,-0.65729582,-0.73681241,0
-1.5344503,0.28505754,2.7820332,-0.19515097,0.77886593,0.59605718,0
2.4738288,0.014167845,-0.4342072,0.88207281,-0.37949273,0.27916527,0
-2.920011,-1.0065489,1.0087717,-0.88373864,0.36071357,-0.2981478,0
-2.5632625,0.14305222,1.1801608,-0.80290872,0.59585845,-0.017051458,0
1.6518624,3.2183006,-0.66468418,0.12195385,0.6752286,0.72745717,0
-1.9396009,-2.2517011,4.2875667,-0.46525407,-0.60852599,0.64283347,0
3.7553678,1.7865531,-3.2415476,0.46525407,0.60852599,-0.64283347,0
-0.44286799,-0.93931067,-1.707489,-0.24927133,-0.60675979,-0.75478917,0
-2.0157175,-0.44318795,3.2012041,-0.30086106,0.79169655,0.53169477,0
-1.9991906,-3.1638503,3.2153797,-0.46525407,-0.60852599,0.64283347,0
-1.0715125,-3.843488,3.4025867,-0.46525407,-0.60852599,0.64283347,0
-1.1829191,-3.0172937,3.9097834,-0.46525407,-0.60852599,0.64283347,0
-2.4587107,-0.26722473,0.83429432,-0.87370443,0.43224394,-0.22317266,0
1.78234,3.1627512,-0.47926065,0.1138078,0.67907006,0.72519791,0
-1.0603461,-3.9675832,3.328985,-0.46525407,-0.60852599,0.64283347,0
0.30922604,1.1571791,-3.5437977,-0.58481199,-0.33384243,-0.73928642,0
-2.0877254,-1.5259776,4.5311451,-0.46525407,-0.60852599,0.64283347,0
2.519326,1.4501417,-4.3953199,0.10171819,-0.75816357,-0.64408213,0
-1.8069773,-2.1947789,4.5244226,-0.46525407,-0.60852599,0.64283347,0
2.121011,2.2540536,-4.3247395,0.46525407,0.60852599,-0.64283347,0
-2.9209888,-1.7326778,0.73917484,-0.83458483,0.059563935,-0.54765016,0
-0.53598905,-2.6172981,0.12074244,0.12786555,-0.76480556,-0.63144535,0
-2.5927486,-3.6273179,1.3163869,-0.35374177,-0.53789055,-0.76520646,0
3.0575657,1.6506717,-4.0382557,0.46525407,0.60852599,-0.64283347,0
3.7317059,2.8087993,-2.1518822,0.46525407,0.60852599,-0.64283347,0
0.23448917,-3.1308219,1.4433296,0.68397886,-0.70812619,-0.17530096,0
2.0531807,0.32501784,0.16782045,0.85111874,-0.1080288,0.51373827,0
1.3723295,3.6084194,-3.4826832,0.46525407,0.60852599,-0.64283347,0
-2.4098177,-1.7619822,4.1713414,-0.46525407,-0.60852599,0.64283347,0
-2.9610741,-2.7901223,3.2375143,-0.46525407,-0.60852599,0.64283347,0
-0.16739917,-1.2540548,3.3225365,0.69718981,0.19554359,0.68970245,0
2.2018642,1.7603357,-4.7618904,0.46525407,0.60852599,-0.64283347,0
0.26779291,-2.9119048,1.2524939,0.70095766,-0.69676197,-0.1522547,0
1.260251,-0.069750547,-2.7484515,0.050760984,-0.74336666,-0.66695547,0
1.633491,-0.88630337,0.46141481,0.88253784,-0.37493229,0.28381896,0
-1.4023772,-4.5024328,2.6915464,-0.46525407,-0.60852599,0.64283347,0
1.6503979,3.1533091,-3.5933847,0.46525407,0.60852599,-0.64283347,0
-0.27972126,-2.5051479,3.5083015,0.82146567,-0.02629149,0.56965184,0
2.0036302,4.1297731,-2.5411663,0.46525407,0.60852599,-0.64283347,0
-2.3117719,-3.5328581,3.042217,-0.46525407,-0.60852599,0.64283347,0
0.47019446,4.1573853,-3.5551038,-0.8493768,0.51135397,-0.13067746,0
-2.6322846,-2.572227,3.3328853,-0.46525407,-0.60852599,0.64283347,0
1.6565883,0.28338194,-3.3861613,0.1050868,-0.75905573,-0.64248854,0
-2.0964189,-2.6952622,3.910203,-0.46525407,-0.60852599,0.64283347,0
0.15180933,-2.6481762,0.41019702,0.51262689,-0.77727318,-0.36477458,0
3.5712166,2.4590852,-1.8489337,0.83948642,-0.073029131,0.53845119,0
0.59682345,1.3259683,1.5896558,0.22346532,0.62195164,0.75049293,0
2.1733546,2.5765572,-3.80831,0.46525407,0.60852599,-0.64283347,0
-0.90223378,1.6057454,-2.0104907,-0.88463658,0.29426864,-0.36169672,0
-0.45844835,-3.3775876,1.0006483,0.42235798,-0.79083234,-0.44294268,0
-2.3828039,-0.04870677,2.3389299,-0.5593726,0.76495779,0.3192839,0
1.8271379,4.4484587,-2.5524678,0.46525407,0.60852599,-0.64283347,0
1.4586141,4.2196655,-2.0261648,-0.39723796,0.79252148,0.46272236,0
1.9987628,3.0439858,-3.4156587,0.46525407,0.60852599,-0.64283347,0
-3.7101042,-2.5259099,2.9071765,-0.46525407,-0.60852599,0.64283347,0
-2.4374206,-1.8478808,4.3216405,-0.46525407,-0.60852599,0.64283347,0
-0.23879907,-3.5491123,2.0675726,0.67792857,-0.7119171,-0.18326849,0
-3.5188217,-2.8911574,2.2226458,-0.46525407,-0.60852599,0.64283347,0
-3.13622,-2.9112363,3.0202751,-0.46525407,-0.60852599,0.64283347,0
-2.6895657,-3.2031517,2.8391933,-0.46525407,-0.60852599,0.64283347,0
1.7794936,3.6372914,-3.3525276,0.46525407,0.60852599,-0.64283347,0
-0.97700191,-2.3571782,4.7401967,0.62578189,0.28750786,0.72507697,0
2.2050409,-0.033823252,-2.2352214,0.51616704,-0.77647841,-0.36146009,0
0.78902173,4.1917458,-2.87375,-0.76286328,0.64399815,0.05750227,0
1.9418371,4.3387065,-2.3421655,0.46525407,0.60852599,-0.64283347,0
0.31800961,-0.78994668,-1.895393,-0.10026395,-0.68531758,-0.72130942,0
-0.64097726,2.2508698,0.070320129,-0.57419568,0.76017523,0.30402821,0
2.1504109,4.1015906,-1.4874437,0.050266385,0.70688522,0.70554018,0
-0.058469772,1.5494363,1.328151,-0.05008626,0.74315441,0.66724294,0
-1.2772975,-3.6677852,3.4353194,-0.46525407,-0.60852599,0.64283347,0
1.0647147,1.3739593,-3.9560759,-0.37784231,-0.52020806,-0.76591063,0
-2.6951711,-3.723974,2.1735816,-0.46525407,-0.60852599,0.64283347,0
2.4132771,3.29719,-2.8749671,0.46525407,0.60852599,-0.64283347,0
-2.6107595,-1.3257827,-0.050534725,-0.77866757,-0.064014465,-0.62416291,0
1.1468971,-1.4039366,-0.57469988,0.5956251,-0.752437,-0.28119338,0
-3.6304164,-3.1225307,2.3765755,-0.46525407,-0.60852599,0.64283347,0
3.2530689,3.4910147,-2.2154207,0.46525407,0.60852599,-0.64283347,0
-2.91556,-3.3204503,1.1482257,-0.43986869,-0.47126853,-0.76447487,0
-3.5245194,-2.8189237,2.5117767,-0.46525407,-0.60852599,0.64283347,0
2.6430891,3.9549847,-2.0111868,0.46525407,0.60852599,-0.64283347,0
-3.4768724,-1.171572,2.7417936,-0.75824577,0.64869195,0.06528759,0
-2.4554114,-0.24897584,-0.16985631,-0.87778407,0.22350821,-0.42372108,0
-1.6130117,-3.1166356,3.900178,-0.46525407,-0.60852599,0.64283347,0
-3.0927184,-1.8125756,3.8981771,-0.46525407,-0.60852599,0.64283347,0
-2.0835762,-2.7385311,3.4919996,-0.46525407,-0.60852599,0.64283347,0
1.9465889,2.9664054,-0.34652346,0.22679913,0.62002772,0.75108457,0
-2.5639663,-4.0861392,1.8173933,-0.46525407,-0.60852599,0.64283347,0
3.3006082,2.2431583,-3.2997396,0.46525407,0.60852599,-0.64283347,0
-3.1368082,-2.0702927,3.616317,-0.46525407,-0.60852599,0.64283347,0
-3.6921034,-1.5885355,3.6239488,-0.65483558,0.72525156,0.21260494,0
-2.6751907,-1.7209961,4.0628147,-0.46525407,-0.60852599,0.64283347,0
2.4682167,2.4309578,-0.34779334,0.6128158,0.30261046,0.72998917,0
2.5791922,2.9001796,-3.3983622,0.46525407,0.60852599,-0.64283347,0
-3.8079901,-2.1011271,3.1689587,-0.46525407,-0.60852599,0.64283347,0
2.2727754,4.1252351,-2.1497743,0.46525407,0.60852599,-0.64283347,0
-1.0654395,-1.1833715,3.7874832,0.39153069,0.50984269,0.76600552,0
2.7785912,0.3941555,-1.4340678,0.79994637,-0.5999707,0.011014581,0
-1.4036031,-2.4325073,4.5895844,-0.46525407,-0.60852599,0.64283347,0
0.87507355,4.2559943,-2.2525244,-0.52262205,0.77497315,0.35536307,0
3.7807629,3.1288378,-1.6344548,0.76535666,0.088302106,0.63752043,0
-1.1842921,-1.1223819,4.0400248,0.31845754,0.56252444,0.76298845,0
-3.9727921,-1.910037,2.8252077,-0.83006513,0.55217695,-0.078056216,0
2.8071084,0.85638565,-0.65601254,0.8821215,-0.25844848,0.39378476,0
3.5185304,2.8832121,-2.6294737,0.46525407,0.60852599,-0.64283347,0
0.82054472,1.0495067,-3.5320501,-0.38152099,-0.5174458,-0.76595813,0
-0.77551889,0.14529157,-2.0145676,-0.621858,-0.29212356,-0.72660637,0
0.47958612,3.8623321,-3.4690516,0.46525407,0.60852599,-0.64283347,0
1.8259422,2.8516605,-0.29169369,0.32405275,0.55871481,0.76343167,0
1.9904563,4.5440388,-2.1403737,0.46525407,0.60852599,-0.64283347,0
-1.0743227,1.1526833,1.7474232,-0.37878168,0.79323781,0.47675842,0
1.5710921,2.000998,-4.5939722,0.46525407,0.60852599,-0.64283347,0
2.4258239,3.6622057,-2.6750793,0.46525407,0.60852599,-0.64283347,0
-0.93578362,-2.9950731,4.1161594,-0.46525407,-0.60852599,0.64283347,0
2.0583508,2.6691952,-3.9622798,0.46525407,0.60852599,-0.64283347,0
4.1364489,2.7166882,-2.5016859,0.46525407,0.60852599,-0.64283347,0
-0.72914922,2.1170788,0.28611588,-0.50621605,0.77865803,0.37072539,0
-0.4082095,2.9072051,-0.78109276,-0.62678796,0.73927772,0.2461822,0
2.7052045,2.1222777,-0.28868866,0.67176437,0.23018518,0.70409358,0
2.0914612,2.9939401,-3.6481657,0.46525407,0.60852599,-0.64283347,0
-1.4293461,-3.0616837,3.9039853,-0.46525407,-0.60852599,0.64283347,0
-1.0258564,-1.9297106,-0.98239458,-0.24459124,-0.60956621,-0.7540586,0
-1.1612127,1.1146805,-1.7267972,-0.87467337,0.20450346,-0.43946004,0
1.7196076,3.1512046,-3.4630795,0.46525407,0.60852599,-0.64283347,0
2.4881699,2.5499654,-3.5885634,0.46525407,0.60852599,-0.64283347,0
1.0894237,-1.6475835,-0.42344463,0.65043235,-0.7276032,-0.21801788,0
-1.1930369,-2.0157483,-0.8838973,-0.26588053,-0.59661353,-0.75720543,0
-2.1823688,0.010040507,0.009360075,-0.88505197,0.30757648,-0.34939957,0
-1.490129,-2.2037928,-0.2361387,-0.25199437,-0.60511631,-0.7552042,0
-1.7359934,-2.5103164,3.8893673,-0.46525407,-0.60852599,0.64283347,0
-0.78672433,-0.26047492,2.9142804,0.19978738,0.6352908,0.74598324,0
-0.87331742,2.3830857,-0.80821288,-0.73390555,0.67120898,0.1042192,0
0.67697883,0.21538973,1.8771515,0.57100958,0.34859094,0.74325824,0
-0.682441,1.6987264,-2.7701254,-0.85584128,0.12383136,-0.50219715,0
1.1794251,3.6727962,-3.4501805,0.46525407,0.60852599,-0.64283347,0
1.1236246,3.2087653,-4.097086,0.46525407,0.60852599,-0.64283347,0
3.7087712,1.9488621,-2.9593978,0.46525407,0.60852599,-0.64283347,0
-3.2807157,-3.1473155,2.6867881,-0.46525407,-0.60852599,0.64283347,0
-3.4291184,-1.1979451,2.790724,-0.77003813,0.63640094,0.045117617,0
-3.7718327,-1.8741615,2.9993377,-0.46525407,-0.60852599,0.64283347,0
-0.96822977,-2.0753996,4.3515062,0.64109492,0.2691021,0.71873629,0
-2.2027512,-1.6667509,4.4231706,-0.46525407,-0.60852599,0.64283347,0
3.8661592,3.1051776,-2.2797341,0.46525407,0.60852599,-0.64283347,0
2.1680892,1.6802051,-4.5224237,0.46525407,0.60852599,-0.64283347,0
3.1380901,3.859467,-1.9253379,0.46525407,0.60852599,-0.64283347,0
0.35718465,-0.37963736,2.4329152,0.63559759,0.27578336,0.72108227,0
3.7898042,2.4462411,-2.6293497,0.46525407,0.60852599,-0.64283347,0
-2.4761093,-3.057126,3.3057687,-0.46525407,-0.60852599,0.64283347,0
-2.3261976,-3.5328043,2.6395936,-0.46525407,-0.60852599,0.64283347,0
-1.0752492,-2.2987416,4.4977508,0.59511399,0.32256341,0.73606551,0
1.9238861,1.7234845,-4.841362,0.46525407,0.60852599,-0.64283347,0
-3.5851021,-2.1945491,3.1793356,-0.46525407,-0.60852599,0.64283347,0
-0.21610165,0.72474325,2.1856861,0.20912802,0.63009644,0.74782646,0
0.62921584,-1.0758657,2.5240917,0.77163827,0.077014953,0.63138217,0
0.57346296,-2.5443139,1.8424633,0.86781907,-0.45668659,0.19577491,0
-1.358767,1.2060745,-1.5109792,-0.88517642,0.32087171,-0.33690393,0
3.1374679,1.4297411,-3.9882231,0.43459857,-0.78969967,-0.43301129,0
2.6727686,4.3256068,-1.9647522,0.46525407,0.60852599,-0.64283347,0
-0.64385009,-1.9546645,-0.84635776,-0.08102107,-0.69389588,-0.71550292,0
-2.3054476,-3.5529456,2.8298948,-0.46525407,-0.60852599,0.64283347,0
-2.6971436,-3.2707787,2.7040489,-0.46525407,-0.60852599,0.64283347,0
-1.5202918,0.82669812,-1.2573323,-0.87505949,0.20669991,-0.43766046,0
-2.7675385,-2.7064924,3.1851208,-0.46525407,-0.60852599,0.64283347,0
3.2656846,2.4965882,-2.9439166,0.46525407,0.60852599,-0.64283347,0
2.4592633,0.74221277,0.1651175,0.82917869,-0.04540953,0.55713642,0
-1.5927109,0.98498744,1.6480529,-0.41788501,0.79119492,0.44652325,0
0.70754611,0.38101161,2.0046821,0.48698026,0.43047905,0.7599594,0
3.7677121,2.9537311,-2.1494894,0.46525407,0.60852599,-0.64283347,0
1.4435215,1.1349456,-4.0873795,-0.30429161,-0.57201064,-0.76171571,0
2.7895947,3.8800628,-1.8073499,0.46525407,0.60852599,-0.64283347,0
-2.0047376,-0.098957777,2.7083292,-0.42765784,0.79036742,0.43866673,0
-0.82016921,1.1232446,-2.1894407,-0.85367507,0.1164445,-0.50762188,0
1.6539855,0.36426139,-3.5462229,0.12920797,-0.76512891,-0.63077992,0
1.9630156,2.1707187,-4.1701636,0.46525407,0.60852599,-0.64283347,0
1.9473182,3.4709303,-2.7786808,0.46525407,0.60852599,-0.64283347,0
-1.5581963,-0.71526897,-0.84226966,-0.68657184,-0.21029773,-0.69598442,0
2.6192832,3.9873948,-1.1875912,0.22234476,0.62259567,0.75029171,0
1.0602556,-1.7551757,2.0307016,0.87725711,-0.22005145,0.4266119,0
-2.4053917,-2.1240296,4.2851248,-0.46525407,-0.60852599,0.64283347,0
-3.0284438,-2.5739119,2.8523345,-0.46525407,-0.60852599,0.64283347,0
2.1064622,0.42598414,-3.4902925,0.26000839,-0.78813398,-0.55788958,0
-1.8788726,-4.4460998,1.9089239,-0.46525407,-0.60852599,0.64283347,0
-0.097696304,0.9680469,1.9752665,0.080585837,0.6940859,0.71536779,0
-2.9882197,-3.8342509,2.0754101,-0.46525407,-0.60852599,0.64283347,0
-1.4226091,-2.8506925,3.8326945,-0.46525407,-0.60852599,0.64283347,0
-2.1267748,-1.4124926,-0.59407079,-0.66509402,-0.23889932,-0.70751494,0
-1.8361104,0.79448122,0.3384316,-0.81635618,0.57572699,-0.045841217,0
1.4993972,4.5543852,-1.9079502,-0.28582031,0.79059625,0.54153907,0
0.19323146,3.0400748,-3.3734026,-0.88289315,0.26688129,-0.38636053,0
-3.2898483,-1.9357024,1.5512664,-0.87392187,0.2003352,-0.44286191,0
-1.9507949,-4.029315,2.3053215,-0.46525407,-0.60852599,0.64283347,0
1.6273518,-0.46185994,1.0747558,0.86971998,-0.1791357,0.45988905,0
-3.3498936,-1.5709772,4.1508894,-0.46525407,-0.60852599,0.64283347,0
-1.6047044,-3.6587315,3.2515886,-0.46525407,-0.60852599,0.64283347,0
-1.3127925,-2.9551079,3.9651837,-0.46525407,-0.60852599,0.64283347,0
0.30937839,1.0511942,1.8355384,0.16985786,0.65134865,0.73952246,0
2.2866158,4.1162438,-2.1224916,0.46525407,0.60852599,-0.64283347,0
-3.4464109,-1.5653875,3.5483198,-0.46525407,-0.60852599,0.64283347,0
-0.60818076,-1.9900749,3.7061596,0.65579623,0.25080764,0.71205842,0
-2.5638759,-0.055412054,2.3888121,-0.61568624,0.74424052,0.25891507,0
-1.0736194,1.796062,0.1895628,-0.57760191,0.75901186,0.30046189,0
0.13084316,-0.3716563,-2.5227091,-0.25227636,-0.60494566,-0.75524682,0
3.0831749,3.831594,-1.6212132,0.46525407,0.60852599,-0.64283347,0
-0.062311411,2.7571483,-0.10137641,-0.40754461,0.7919299,0.45470291,0
-2.2752039,-2.2006993,4.1815157,-0.46525407,-0.60852599,0.64283347,0
-1.7687969,-0.48537078,-1.2434392,-0.75569999,-0.10509738,-0.64643049,0
-2.7940674,-3.2851019,2.7397649,-0.46525407,-0.60852599,0.64283347,0
-2.3148241,-1.5504858,0.09860611,-0.75400108,-0.10798723,-0.6479364,0
1.3212301,-0.54780698,-1.8399411,0.36585218,-0.79348403,-0.48634925,0
-2.0365448,-3.0829339,3.2982683,-0.46525407,-0.60852599,0.64283347,0
3.2606504,2.0248969,-3.2120953,0.46525407,0.60852599,-0.64283347,0
-3.1465983,-1.7537887,3.7752271,-0.46525407,-0.60852599,0.64283347,0
1.1949254,2.3177156,0.14247909,0.15960991,0.65664417,0.73711836,0
0.63722086,3.9657826,-3.1124239,-0.82358736,0.56374502,-0.06241715,0
-2.7973895,-2.1301432,3.7567482,-0.46525407,-0.60852599,0.64283347,0
-2.4360204,-3.967346,1.5018938,-0.20190179,-0.63412255,-0.74640769,0
-3.619081,-3.2721186,1.9538683,-0.46525407,-0.60852599,0.64283347,0
2.3340914,2.1581779,-4.1033483,0.46525407,0.60852599,-0.64283347,0
2.1472018,0.47062421,-2.9179804,0.28098452,-0.79018986,-0.54465425,0
2.8748739,0.3627969,-1.9722826,0.75637889,-0.65054852,-0.068396211,0
1.7391133,4.0929832,-1.320751,-0.13428319,0.76633608,0.62824941,0
0.65702277,-2.3768744,0.25848866,0.62353581,-0.74076426,-0.24994326,0
1.1455446,3.7759781,-0.89669794,-0.15637076,0.77130079,0.61696315,0
-2.1526186,0.61152148,-0.3803196,-0.88458359,0.34622446,-0.3124752,0
-1.4885478,-4.3710089,1.6997579,0.35963804,-0.79352915,-0.49088937,0
0.054146528,-2.4637833,3.5076616,0.86239326,-0.14790355,0.4841516,0
-2.8356848,-2.1875639,3.4334376,-0.46525407,-0.60852599,0.64283347,0
1.0793215,3.6469221,-3.4406357,0.46525407,0.60852599,-0.64283347,0
-2.9178653,-3.1152349,2.7750247,-0.46525407,-0.60852599,0.64283347,0
1.7531146,4.2776384,-2.6183023,0.46525407,0.60852599,-0.64283347,0
2.8104475,3.8637061,-2.1138976,0.46525407,0.60852599,-0.64283347,0
2.6003604,3.7688503,-2.5868995,0.46525407,0.60852599,-0.64283347,0
-0.75696373,-3.4447963,3.8061492,-0.46525407,-0.60852599,0.64283347,0
3.285495,2.9777896,-2.4640164,0.46525407,0.60852599,-0.64283347,0
-2.3386383,-3.5552623,1.2424927,-0.23968697,-0.61248267,-0.75326979,0
3.3348174,3.5067153,-1.8717614,0.46525407,0.60852599,-0.64283347,0
0.86988711,3.3901842,-3.7595401,0.46525407,0.60852599,-0.64283347,0
-0.5321331,2.6867301,-0.78704643,-0.63834918,0.73376423,0.23259532,0
-1.733773,-3.7230525,3.2019634,-0.46525407,-0.60852599,0.64283347,0
1.7412299,3.9808543,-2.9931984,0.46525407,0.60852599,-0.64283347,0
1.5343385,3.9540653,-3.1802895,0.46525407,0.60852599,-0.64283347,0
-1.7150209,-0.15860176,3.3134825,-0.21496701,0.78215444,0.58482814,0
-1.5670936,-0.64729506,-1.0970287,-0.69912744,-0.19280374,-0.68851125,0
-1.7350659,-2.5224006,4.0083833,-0.46525407,-0.60852599,0.64283347,0
2.2114818,0.2103548,-0.13221502,0.88488376,-0.30103701,0.35546839,0
-3.3289657,-3.6358857,2.1082239,-0.46525407,-0.60852599,0.64283347,0
-3.0338671,-2.9832091,2.4646823,-0.46525407,-0.60852599,0.64283347,0
1.1679485,1.612179,-4.3488455,-0.47992706,-0.4368006,-0.76083875,0
3.0638759,3.642334,-2.298363,0.46525407,0.60852599,-0.64283347,0
1.5662279,2.5313814,-4.4891877,0.46525407,0.60852599,-0.64283347,0
2.408601,3.1916032,-0.91340184,0.33140624,0.55365312,0.76396233,0
0.079995275,3.0526907,-3.1703882,-0.88185203,0.25575352,-0.39614081,0
1.7991641,2.3770328,-4.3111172,0.46525407,0.60852599,-0.64283347,0
-2.3475373,-2.8988848,3.1608355,-0.46525407,-0.60852599,0.64283347,0
-2.1344919,-0.9256525,3.7578511,-0.1957438,0.77897012,0.59572667,0
-2.071245,0.16879871,-0.43034911,-0.87078249,0.1842069,-0.4558574,0
0.84888196,1.1196742,1.5980968,0.39560401,0.50671208,0.76598996,0
-1.2616653,-2.8405635,4.4046574,-0.46525407,-0.60852599,0.64283347,0
-0.09973526,0.32535243,2.4678364,0.31417042,0.56541926,0.76262599,0
3.6435416,1.9829295,-3.4772389,0.46525407,0.60852599,-0.64283347,0
-2.2155297,-3.091922,0.45029521,-0.41788989,-0.48919883,-0.7655409,0
0.80810595,3.0196579,-4.1381431,0.46525407,0.60852599,-0.64283347,0
1.8393953,2.5070732,-4.1115832,0.46525407,0.60852599,-0.64283347,0
-1.0926299,0.37690651,2.3360004,-0.07231462,0.74992239,0.65756166,0
0.69164574,1.3198588,1.3486872,0.30757928,0.56982917,0.76203012,0
-3.2111907,-2.3433356,1.0176263,-0.74804825,-0.11796752,-0.65307558,0
-2.9819365,-4.3875647,1.7715176,-0.46525407,-0.60852599,0.64283347,0
3.4604301,1.5822306,-3.5034094,0.46525407,0.60852599,-0.64283347,0
-0.37388563,-3.3688989,3.5209317,0.88456798,-0.29268259,0.36314833,0
-1.8246515,-3.3554695,0.66616112,-0.089168549,-0.69030637,-0.7180016,0
-0.14526975,-3.1523147,3.1051211,0.87183774,-0.44062707,0.2138859,0
-3.2463856,-2.4616201,2.9430215,-0.46525407,-0.60852599,0.64283347,0
-1.2611592,-4.2021704,2.1938217,0.43773478,-0.7893759,-0.43043488,0
