2.2580743,0.10993338,1.6416069,0.41106197,-0.15424407,0.89846361,0
-1.2176473,-1.6152457,-0.78552175,-0.35856116,-0.93349862,0.0037889518,0
-1.9064999,1.698346,-0.88764966,-0.65181124,0.63930058,0.40796655,0
0.57032281,2.0602169,-1.4557133,0.49588519,0.86484146,-0.078403741,0
0.26468766,-2.1276617,2.2889264,-0.31686723,-0.94830227,-0.017828107,0
1.5582441,-1.2405789,-0.51317859,0.67627048,-0.60930747,-0.41400802,0
-1.8978755,1.2183424,0.18841827,-0.74232483,0.51543462,0.42811328,0
-0.055940978,1.5404575,-2.4592893,-0.41106197,0.15424407,-0.89846361,0
2.5317726,-1.4017656,1.3267446,0.68935865,-0.59230947,-0.41707796,0
0.92708069,-1.975976,2.067903,0.41106197,-0.15424407,0.89846361,0
-1.040513,1.7841365,-0.26653934,-0.32364345,0.89668518,0.30201095,0
1.8183323,1.1861968,-0.2874794,0.80415338,0.52557403,-0.27768543,0
-1.6475352,1.1728661,-1.7177656,-0.41106197,0.15424407,-0.89846361,0
-0.55671728,1.1194723,-2.244333,-0.41106197,0.15424407,-0.89846361,0
2.0648024,-1.559437,1.6467123,0.41106197,-0.15424407,0.89846361,0
-0.30796289,1.0796807,2.6480484,-0.53771776,0.75483954,0.37560213,0
0.71338689,0.72147882,-2.8412728,-0.41106197,0.15424407,-0.89846361,0
-1.2418454,-1.581823,-0.7499764,-0.42454451,-0.90456915,0.038943954,0
-2.4923337,-0.55612373,-0.75017548,-0.85043639,-0.41983348,0.31701374,0
-1.3524369,0.44861242,1.7223424,-0.86692923,0.23862132,0.4375999,0
0.18797773,-2.0927622,1.6395243,-0.36327463,-0.93166101,0.0062609725,0
2.1278057,-1.4348595,0.9296155,0.65039837,-0.64096725,-0.40760636,0
0.005663693,2.1417136,-2.4790888,0.48302537,0.87270927,-0.071169451,0
-0.074458599,-0.57597303,-2.6697602,-0.41106197,0.15424407,-0.89846361,0
1.6730299,-2.2256877,1.5363982,0.39621538,-0.85739249,-0.32846826,0
-1.2538854,-0.031754646,1.6578457,-0.89347625,0.12742114,0.43065524,0
-0.86385953,-1.8260784,0.30974045,-0.4371593,-0.89821684,0.045805931,0
1.1187252,1.2499111,-1.0610882,0.77058423,0.58537638,-0.25206035,0
-1.9734895,1.0161197,-1.7643472,-0.41106197,0.15424407,-0.89846361,0
-2.3937755,-0.84070706,-1.6375128,-0.70652258,-0.67671841,0.20706993,0
-1.6880435,-0.79066485,0.64019001,-0.8818776,-0.31693226,0.34906417,0
1.8171045,-0.66894221,-0.580302,0.84286261,-0.31116527,-0.43904305,0
-2.0235887,-0.19024777,-1.7131433,-0.41106197,0.15424407,-0.89846361,0
0.2304417,-1.9455175,2.4281602,0.41106197,-0.15424407,0.89846361,0
0.16611385,-0.53152895,-2.9069283,-0.41106197,0.15424407,-0.89846361,0
2.5309198,0.71170497,1.5151967,0.79439849,0.54406351,-0.27004823,0
0.83758855,0.53613758,2.3391249,0.41106197,-0.15424407,0.89846361,0
2.6009755,-0.66037941,1.121078,0.90339071,-0.063105017,-0.42414981,0
1.5340889,1.3760052,0.83470851,0.55669451,0.8229382,-0.11341878,0
0.68431461,0.44706106,2.557533,0.41106197,-0.15424407,0.89846361,0
-1.8447253,-0.1904459,0.3422761,-0.911506,-0.054847062,0.40761328,0
0.90716428,-0.23888814,2.1523094,0.41106197,-0.15424407,0.89846361,0
0.91299689,1.7230155,0.067948066,0.41019315,0.91146505,-0.031194068,0
0.53761089,-1.4438454,2.4997406,0.41106197,-0.15424407,0.89846361,0
-0.17239313,1.4145929,-2.2448533,-0.41106197,0.15424407,-0.89846361,0
1.613358,0.55598992,-0.89492744,0.89859104,0.23451456,-0.37085992,0
-0.59999704,-0.62234044,-2.8189595,-0.41106197,0.15424407,-0.89846361,0
1.5109777,-0.69233751,1.8805556,0.41106197,-0.15424407,0.89846361,0
-0.71207356,-1.3998196,-2.9039712,-0.41106197,0.15424407,-0.89846361,0
0.26028061,2.0373893,-0.26735014,0.28460985,0.95803106,0.034256563,0
-2.4501331,-1.0972214,-1.2968799,-0.72456145,-0.6533798,0.21932974,0
-2.011543,1.9259808,-1.5675306,-0.41106197,0.15424407,-0.89846361,0
1.3379631,1.2558725,2.5153542,0.41106197,-0.15424407,0.89846361,0
-0.58015406,-0.28545833,3.1420293,0.41106197,-0.15424407,0.89846361,0
1.6346723,-1.8993822,1.7041008,0.41106197,-0.15424407,0.89846361,0
-0.12363735,-1.8858464,2.2936578,0.41106197,-0.15424407,0.89846361,0
-0.81780291,0.88435048,2.0498312,-0.70010465,0.57781327,0.41950589,0
-1.8895836,-1.2783725,-0.23524863,-0.69109815,-0.69545263,0.19679677,0
1.7212727,-2.3355644,1.7361381,0.41106197,-0.15424407,0.89846361,0
1.474324,-1.5712569,1.9491475,0.41106197,-0.15424407,0.89846361,0
-0.68363237,0.2847116,3.0003448,0.41106197,-0.15424407,0.89846361,0
0.24917179,-2.198688,1.9341645,-0.38298082,-0.92360604,0.016659673,0
2.7083917,0.65022731,1.554677,0.41106197,-0.15424407,0.89846361,0
1.2130436,1.653612,0.5383662,0.43728399,0.89815271,-0.045873962,0
-0.17913251,1.8602479,-2.5065322,-0.41106197,0.15424407,-0.89846361,0
-0.49120355,-1.7305481,-1.7449799,0.087597728,-0.97433758,-0.20734712,0
1.3786676,0.79982018,-1.9234672,0.88776994,0.29164451,-0.35610127,0
0.53524232,0.21907544,-2.8229067,-0.41106197,0.15424407,-0.89846361,0
0.60408854,1.6401588,1.3039147,0.07921797,0.98789734,0.1333541,0
-0.71931398,1.4028322,1.9618282,-0.53274232,0.75912058,0.37406075,0
0.35039246,-1.977669,1.1827737,-0.21987879,-0.97325885,-0.066486344,0
2.5189261,-1.0374329,1.3025067,0.41106197,-0.15424407,0.89846361,0
0.11218286,1.2247162,2.8174825,0.41106197,-0.15424407,0.89846361,0
0.20989466,-0.48195291,-2.9004705,-0.41106197,0.15424407,-0.89846361,0
0.29665661,1.8049155,1.6527194,-0.14685291,0.96150512,0.23225439,0
-1.4089273,-0.91902792,-2.1481521,-0.41106197,0.15424407,-0.89846361,0
-0.64417702,2.1129725,-2.0341322,-0.41106197,0.15424407,-0.89846361,0
-1.0144557,-0.40185118,-2.5102358,-0.41106197,0.15424407,-0.89846361,0
1.6552031,0.45734841,-1.5925207,0.91142327,0.089346945,-0.40165251,0
0.40864119,-1.1441469,2.1839604,0.41106197,-0.15424407,0.89846361,0
1.6745209,-1.8885827,1.2705455,0.4058997,-0.85152411,-0.33189154,0
-2.5487683,0.58197856,-0.81841588,-0.90538442,0.045886606,0.42210609,0
-0.1770587,-0.72554648,-2.7428014,-0.41106197,0.15424407,-0.89846361,0
-0.60713124,2.4323001,-1.6126845,0.19326258,0.97792375,0.07946457,0
-1.7125454,-0.86560351,0.16380376,-0.85985762,-0.39294824,0.32593957,0
0.64868665,-0.18044662,2.490262,0.41106197,-0.15424407,0.89846361,0
0.55239022,0.14267218,2.3479993,0.41106197,-0.15424407,0.89846361,0
-0.66323584,0.37800348,-2.4491668,-0.41106197,0.15424407,-0.89846361,0
-0.37419951,2.3786092,-1.1055409,0.16527319,0.98185837,0.092945695,0
1.7833209,1.2860581,2.1029246,0.47868878,0.87528938,-0.068742409,0
0.52258492,1.8378049,2.1449656,-0.028154612,0.98296344,0.18163183,0
-0.7719233,0.62459052,2.5634427,-0.80235445,0.40662873,0.43689865,0
-0.065825224,1.7843013,1.5912958,-0.23509997,0.93430495,0.26795927,0
-0.49372125,-0.78871822,-2.6809487,-0.41106197,0.15424407,-0.89846361,0
-0.54533947,1.6774042,1.1312587,-0.42670614,0.83838844,0.33915579,0
-1.6100123,0.31802988,-2.032156,-0.41106197,0.15424407,-0.89846361,0
-1.1614819,-1.042997,-2.4148045,-0.41106197,0.15424407,-0.89846361,0
0.65560645,-2.0109606,1.9853334,0.41106197,-0.15424407,0.89846361,0
-0.14989996,-2.069613,1.7257451,-0.43323112,-0.90022451,0.043664038,0
0.25868601,-2.072227,2.5104489,0.41106197,-0.15424407,0.89846361,0
0.40428329,1.4186094,2.7650218,0.41106197,-0.15424407,0.89846361,0
0.3554045,0.52323472,-2.776432,-0.41106197,0.15424407,-0.89846361,0
2.0051746,0.34180403,1.9774095,0.41106197,-0.15424407,0.89846361,0
-0.58863777,0.4901334,-2.2377405,-0.41106197,0.15424407,-0.89846361,0
1.4913917,1.6742892,2.0089912,0.23231739,0.97076482,0.060367301,0
-0.053810835,-1.5876693,-1.5051266,0.17907917,-0.9527148,-0.24548936,0
-1.6084522,-1.0974025,-2.2650938,-0.41106197,0.15424407,-0.89846361,0
-1.3226794,-1.5898511,-0.95548153,-0.46224791,-0.88474572,0.059597053,0
-0.14331667,1.3377067,-2.3714995,-0.41106197,0.15424407,-0.89846361,0
-0.54172415,1.4673761,-2.1133962,-0.41106197,0.15424407,-0.89846361,0
1.9315777,-1.5191011,1.4837348,0.41106197,-0.15424407,0.89846361,0
2.1068687,-0.87338758,1.5026135,0.41106197,-0.15424407,0.89846361,0
-0.76026666,-1.76327,-0.55449152,-0.2763989,-0.96027559,-0.038398594,0
-1.010865,-0.029756546,-2.2972419,-0.41106197,0.15424407,-0.89846361,0
-0.66331577,0.16404998,3.0824564,-0.87829018,0.19700801,0.43565375,0
1.2329445,-1.8922042,0.096009493,0.51311988,-0.77547663,-0.36789107,0
-1.5460072,-0.93527532,-2.1115031,-0.41106197,0.15424407,-0.89846361,0
0.98978186,1.5677679,2.3341935,0.11318213,0.98659122,0.1175907,0
2.0770929,-0.61938393,-0.026001811,0.89064872,-0.14217067,-0.43189377,0
-1.0062511,0.94050586,-2.0004125,-0.41106197,0.15424407,-0.89846361,0
1.0507865,1.1931423,2.4314289,0.41106197,-0.15424407,0.89846361,0
-1.7110802,1.8876678,-1.1036178,-0.40495461,0.85210359,0.33155864,0
-0.085202217,2.0552523,-0.24749935,0.082574785,0.98783016,0.13180673,0
1.741594,0.025475979,-0.4893074,0.90725064,-0.027022064,-0.41972125,0
2.0010564,-1.1923914,0.23422098,0.77240616,-0.46452338,-0.43313581,0
-1.1970122,0.066315055,2.3059778,-0.89726156,0.10570362,0.42865878,0
-1.7756398,-0.3325386,-2.1836419,-0.41106197,0.15424407,-0.89846361,0
0.20152271,-2.3063631,0.45211089,-0.011577845,-0.98638552,-0.16404104,0
-0.49462056,-1.9894457,-0.53815603,-0.20869005,-0.97533071,-0.071961105,0
-0.27121684,2.065443,-2.4434917,-0.41106197,0.15424407,-0.89846361,0
0.47850299,1.2855817,2.7068741,0.41106197,-0.15424407,0.89846361,0
-0.98292273,-1.3042285,1.4684855,-0.72960305,-0.64655709,0.22280756,0
0.69053948,-0.33874929,-3.0727892,-0.41106197,0.15424407,-0.89846361,0
-1.8327193,0.15346253,0.60143423,-0.88898885,0.15035897,0.43254012,0
0.16117215,-2.0313923,-0.69155508,0.047084153,-0.98067391,-0.18989933,0
-2.7207034,0.13643646,-0.99726903,-0.91160309,-0.072551876,0.40461826,0
2.14977,0.67083001,1.0970786,0.78954417,0.55290043,-0.26631021,0
1.3454108,-1.7178922,1.6794989,0.41106197,-0.15424407,0.89846361,0
0.038806677,0.81044936,2.9940052,0.41106197,-0.15424407,0.89846361,0
-0.40921354,0.26938617,2.8053069,0.41106197,-0.15424407,0.89846361,0
2.2769809,-0.14631259,0.00012457371,0.90677547,-0.032157898,-0.42038554,0
2.7614541,0.83486819,1.8319831,0.41106197,-0.15424407,0.89846361,0
-0.104563,-0.96997941,2.5718665,0.41106197,-0.15424407,0.89846361,0
2.6613114,-1.1372712,1.5621988,0.41106197,-0.15424407,0.89846361,0
-0.64446431,-1.5475999,1.7881416,-0.69888943,-0.68612278,0.20196313,0
-1.2047923,1.0742153,1.0787852,-0.67572427,0.61000174,0.41387737,0
-2.3956621,0.0039565563,-0.31617618,-0.90535957,-0.18426731,0.38258284,0
0.53109384,1.0023634,-2.9071293,-0.41106197,0.15424407,-0.89846361,0
-1.5867162,-0.93007755,-2.1213629,-0.41106197,0.15424407,-0.89846361,0
1.7705016,-1.9102213,0.53393221,0.50271636,-0.78381753,-0.36456323,0
1.3192931,-1.6033236,1.9733183,0.41106197,-0.15424407,0.89846361,0
1.7250586,0.20883965,2.0028119,0.41106197,-0.15424407,0.89846361,0
-0.32404816,-1.8809941,1.6727343,-0.4392904,-0.89711636,0.046969883,0
-1.1848675,1.5140691,-2.0427923,-0.41106197,0.15424407,-0.89846361,0
0.41845024,-2.3276067,1.8091252,-0.19636512,-0.97742665,-0.077959761,0
-1.4199708,0.41590363,1.6031777,-0.87283337,0.21779126,0.43672514,0
0.052352071,-2.2774594,1.0909723,-0.19700098,-0.97732335,-0.077651113,0
1.0655231,1.6679664,-0.58303112,0.58457345,0.80086416,-0.12996338,0
-2.7960489,0.76068354,-1.5768514,-0.41106197,0.15424407,-0.89846361,0
-1.0809857,-0.36762393,-2.2431345,-0.41106197,0.15424407,-0.89846361,0
-1.5636411,-1.5864654,-1.2897359,-0.50616974,-0.85831082,0.084230214,0
-0.39412594,0.0059667826,3.0372865,0.41106197,-0.15424407,0.89846361,0
2.416431,1.0069313,1.8669304,0.41106197,-0.15424407,0.89846361,0
0.30619335,1.8263867,0.57734096,0.045176029,0.98781747,0.14891511,0
1.1342828,-0.61649847,2.2956738,0.41106197,-0.15424407,0.89846361,0
-0.67968738,1.5588194,-2.2813907,-0.41106197,0.15424407,-0.89846361,0
0.86327082,0.97957504,-2.8122387,0.87169307,0.35495037,-0.33787781,0
-2.3186641,0.75356054,-0.18265688,-0.85745221,0.2692188,0.4385168,0
-0.30447602,0.17652571,-2.5743363,-0.41106197,0.15424407,-0.89846361,0
-1.2760744,2.1500936,-0.85481393,-0.30302215,0.90641928,0.29424763,0
-0.092553288,1.3271494,-2.6876709,-0.41106197,0.15424407,-0.89846361,0
1.7082309,-1.9624659,0.59899318,0.45717794,-0.81779844,-0.34956235,0
0.13510656,0.64087629,2.940485,0.41106197,-0.15424407,0.89846361,0
-1.3824891,1.7651472,-0.51741147,-0.46733361,0.81056374,0.35296673,0
-2.4304438,-0.81292939,-1.6822362,-0.70970732,-0.67271453,0.20921442,0
-0.082491398,-0.44874561,-2.9055073,-0.41106197,0.15424407,-0.89846361,0
2.3710413,0.20314205,0.39469755,0.91039777,0.12021479,-0.39588416,0
2.309237,0.24723053,0.37485361,0.90515471,0.18611816,-0.38217139,0
-2.7055373,0.58296037,-1.6389219,-0.41106197,0.15424407,-0.89846361,0
-1.0792816,1.8995696,-1.940563,-0.41106197,0.15424407,-0.89846361,0
1.6977694,1.3954105,1.9884454,0.32587487,0.94532079,0.01319512,0
-1.7185866,-1.000441,0.16929436,-0.79665148,-0.53988224,0.27179682,0
0.37300324,2.0905685,-0.00038045645,0.1696797,0.98130417,0.090834439,0
0.37963003,1.9216154,-1.81463,0.56887692,0.81353116,-0.12060736,0
0.52132928,-0.21998668,-2.9710038,-0.41106197,0.15424407,-0.89846361,0
1.9835763,-1.6733326,0.97299969,0.56847614,-0.72710186,-0.38491273,0
-0.78271902,1.6323702,0.74130225,-0.39749503,0.85662591,0.32892209,0
1.4483769,0.81877685,-0.94548202,0.84352791,0.43807924,-0.31072059,0
1.6562458,0.79842114,-0.7900812,0.83425105,0.46096686,-0.30254704,0
-2.5379755,0.12132335,-1.1144377,-0.9115659,-0.078952581,0.40350235,0
1.4768969,-1.4474754,-0.075907111,0.6701594,-0.61701018,-0.41253448,0
1.0339134,1.7084597,1.1511623,0.29303509,0.95563126,0.029989906,0
-0.39706111,0.9216215,2.627234,-0.70874441,0.56578195,0.4213931,0
1.5740154,1.3339369,2.109817,0.41106197,-0.15424407,0.89846361,0
2.1535296,1.2037237,1.8319387,0.6388464,0.75182211,-0.16321349,0
2.8478534,0.017080069,1.3489398,0.90548396,0.18312871,-0.38283521,0
0.45864391,-1.8586683,-1.0501852,0.32706177,-0.89501238,-0.30328774,0
-1.2462546,-1.0355186,1.7268466,-0.86845809,-0.36589277,0.33451918,0
0.5994792,0.81017816,-2.8335617,-0.41106197,0.15424407,-0.89846361,0
-2.0261769,0.0071181059,0.037694812,-0.91012311,-0.12565804,0.39482403,0
2.2494724,-0.83682466,0.91463065,0.82574326,-0.35457432,-0.43866295,0
-1.297801,-0.74676049,-2.3050337,-0.41106197,0.15424407,-0.89846361,0
-0.23463285,-0.39837289,-2.7277379,-0.41106197,0.15424407,-0.89846361,0
-1.1199933,0.81441951,1.7948486,-0.77605075,0.45790595,0.4336673,0
-1.6937031,-1.4501736,-1.1613802,-0.53167748,-0.84115922,0.098844945,0
-1.822952,-1.3704387,-1.6168333,-0.42270988,-0.90547013,0.037949882,0
-1.0968908,-0.46580791,-2.5764129,-0.41106197,0.15424407,-0.89846361,0
2.7781687,0.38578868,1.0639683,0.88600188,0.29955068,-0.35393506,0
1.4679456,-1.8207092,1.6341469,0.41106197,-0.15424407,0.89846361,0
-0.5955621,1.7049984,-2.1985967,-0.41106197,0.15424407,-0.89846361,0
0.2160368,0.95004249,-2.6060617,-0.41106197,0.15424407,-0.89846361,0
-0.5872426,-1.6517403,-2.5816009,0.15319872,-0.9598763,-0.23487803,0
1.3893853,1.5508912,0.27546409,0.61259687,0.77661538,-0.1469475,0
-0.26557684,-1.170774,-2.8631771,-0.41106197,0.15424407,-0.89846361,0
2.6008468,-0.38218164,1.653825,0.41106197,-0.15424407,0.89846361,0
0.65408719,-0.36319458,-2.9385018,0.77965021,-0.45126352,-0.4341737,0
-0.26695779,-1.297581,2.8104777,0.41106197,-0.15424407,0.89846361,0
1.7531528,1.0611272,-0.43567795,0.78128737,0.5674237,-0.26003927,0
-0.0049723089,-1.4210894,2.6857674,0.41106197,-0.15424407,0.89846361,0
-1.5037538,1.2435303,-1.8073828,-0.41106197,0.15424407,-0.89846361,0
0.65635723,-1.9541551,2.1515689,0.41106197,-0.15424407,0.89846361,0
1.0014164,-0.35607219,2.2130797,0.41106197,-0.15424407,0.89846361,0
1.0714977,1.3625982,-0.19724882,0.60444546,0.78389442,-0.14196855,0
0.71305513,1.8241956,0.56590039,0.1668998,0.98165655,0.092166781,0
0.33351886,-2.0865107,1.9271115,-0.28036302,-0.9592036,-0.036400884,0
-0.62880421,-0.49932003,-2.679462,-0.41106197,0.15424407,-0.89846361,0
-1.0033398,-1.2709218,2.387877,-0.84509015,-0.43404973,0.31212714,0
2.2159581,1.0107607,1.4346026,0.68537915,0.70213509,-0.19303299,0
-1.0006518,2.2881818,-1.5398111,0.0018465519,0.98572052,0.16837913,0
-1.9503098,-0.21987414,0.42086506,-0.89810896,-0.23750022,0.37012678,0
1.6080849,1.243036,2.2960372,0.41106197,-0.15424407,0.89846361,0
1.604526,-0.87193036,2.0916848,0.41106197,-0.15424407,0.89846361,0
1.155019,-1.009562,-1.2902617,0.66295612,-0.62590754,-0.41076624,0
2.1927869,0.4942553,1.8268696,0.41106197,-0.15424407,0.89846361,0
0.31147408,1.6651094,2.2399635,-0.16517735,0.95666552,0.23980719,0
1.2269746,-0.5159502,1.9830576,0.41106197,-0.15424407,0.89846361,0
0.42253685,1.5710523,-2.539,-0.41106197,0.15424407,-0.89846361,0
-1.8489543,0.69685006,-1.8907187,-0.41106197,0.15424407,-0.89846361,0
1.9621389,1.3965036,0.8184256,0.67890441,0.70953751,-0.1887999,0
-1.5520999,-0.21735764,-2.2890172,-0.41106197,0.15424407,-0.89846361,0
0.45953894,-0.72348273,2.5620852,0.41106197,-0.15424407,0.89846361,0
1.4683068,1.3810989,-0.88634032,0.72992957,0.64611042,-0.2230337,0
-0.59212577,1.2626336,1.3432944,-0.50716168,0.78028095,0.36598986,0
-1.4700874,-0.90061581,-2.0848832,-0.41106197,0.15424407,-0.89846361,0
0.25284445,1.9620534,-0.44578761,0.23081279,0.9710772,0.061109379,0
0.25720656,1.9549122,-1.7613235,0.41957307,0.90699732,-0.036252532,0
-0.76105297,1.0991305,2.3154898,-0.65485024,0.63569236,0.40873748,0
-0.4701165,0.66910934,2.7430475,-0.72022247,0.54924357,0.42380536,0
0.95381641,-1.2010467,-1.3327262,0.66773796,-0.62002265,-0.41194385,0
1.7359843,-1.7365198,1.6761603,0.41106197,-0.15424407,0.89846361,0
1.4108958,0.88842654,2.1810498,0.41106197,-0.15424407,0.89846361,0
1.3659763,-1.9834377,1.9160507,0.41106197,-0.15424407,0.89846361,0
-2.2056842,0.47057736,0.20722079,-0.89979094,0.089523703,0.42703825,0
0.10281348,0.70726907,2.7260475,0.41106197,-0.15424407,0.89846361,0
1.042491,1.7592318,2.1588485,0.023301959,0.98703754,0.15878898,0
-1.6771454,0.96077681,-1.9012767,-0.41106197,0.15424407,-0.89846361,0
-2.0618553,-0.013159752,-1.7434692,-0.41106197,0.15424407,-0.89846361,0
1.0864201,0.79919481,-2.4137065,0.89747101,0.24136806,-0.3691709,0
0.049684167,-0.042622447,-2.8543587,-0.41106197,0.15424407,-0.89846361,0
-2.6291692,0.36008406,-1.5091993,-0.41106197,0.15424407,-0.89846361,0
-0.39320683,0.73704785,2.9644687,0.41106197,-0.15424407,0.89846361,0
-0.88997138,2.2478709,-1.781979,-0.019983649,0.9838202,0.17804056,0
2.5213132,0.26627612,0.98763502,0.88488698,0.30438784,-0.35259461,0
-1.7047782,0.25683218,0.93859506,-0.89907253,0.094283462,0.42752671,0
0.64500606,0.30762017,-2.8270099,-0.41106197,0.15424407,-0.89846361,0
0.312536,-1.9829601,-0.99380785,0.19689548,-0.94729596,-0.25271028,0
0.71682572,1.6521575,-1.2225186,0.61558044,0.77390295,-0.1487782,0
1.1626791,0.42197502,-2.4847353,0.91097295,0.1062687,-0.39854157,0
0.35260201,2.1486733,-1.9791093,0.54646897,0.83056015,-0.1074319,0
1.1953896,1.3984469,-1.5926204,0.77255273,0.58214432,-0.25351587,0
1.0163548,1.2964004,2.4052978,0.41106197,-0.15424407,0.89846361,0
-1.4312212,-0.5413658,1.8519239,-0.89221084,-0.27030098,0.36179727,0
-2.0973172,1.2145171,-1.6949979,-0.41106197,0.15424407,-0.89846361,0
1.8799388,-0.54419816,-0.82943022,0.87256306,-0.21877983,-0.43677121,0
-2.4172301,-1.0376303,-1.8011193,-0.41106197,0.15424407,-0.89846361,0
2.6297917,0.50389171,0.9744122,0.85086244,0.41867048,-0.31740832,0
-0.96502924,-1.7845101,-2.0504797,-0.15267628,-0.98330933,-0.09895806,0
-1.9787061,0.75746882,-0.12727785,-0.84374642,0.30877042,0.43903625,0
0.26338553,-0.9699139,-2.731566,0.53963637,-0.75317383,-0.37619394,0
0.55648887,0.80004692,-2.834548,-0.41106197,0.15424407,-0.89846361,0
-0.19760263,0.32957065,-2.7036967,-0.41106197,0.15424407,-0.89846361,0
0.13076365,-1.8991698,2.5983613,0.41106197,-0.15424407,0.89846361,0
-0.92664069,2.4074764,-1.9926546,-0.41106197,0.15424407,-0.89846361,0
0.69711673,-1.893315,0.23464477,0.12936354,-0.96573764,-0.22497937,0
0.56119597,0.15507078,-2.9145696,-0.41106197,0.15424407,-0.89846361,0
-0.94018257,1.2431411,-2.0359838,-0.41106197,0.15424407,-0.89846361,0
-1.6573355,-0.74690753,0.19916236,-0.81900412,-0.4952969,0.28967771,0
-0.49034476,1.4331388,1.928431,-0.49937135,0.786452,0.3634851,0
-2.1459029,0.19423008,-0.083312392,-0.90831035,0.014447182,0.41804725,0
2.7469993,-0.26369452,1.5895779,0.41106197,-0.15424407,0.89846361,0
-1.2422249,-0.79378307,-2.2542424,-0.41106197,0.15424407,-0.89846361,0
0.52431667,-0.46513915,-3.0835357,-0.41106197,0.15424407,-0.89846361,0
-2.3885069,0.6367991,-0.55548382,-0.87242913,0.21926832,0.43679374,0
-0.34626436,-1.7002819,-1.2857335,-0.049205542,-0.98789907,-0.14708558,0
1.1714077,1.7511034,2.5131612,0.41106197,-0.15424407,0.89846361,0
1.7836161,-1.0091321,1.5822268,0.41106197,-0.15424407,0.89846361,0
1.3323328,-1.0888081,2.0035417,0.41106197,-0.15424407,0.89846361,0
-1.3683587,-0.21083164,-2.2996495,-0.41106197,0.15424407,-0.89846361,0
1.4250894,1.7805724,1.6270683,0.28099811,0.95902979,0.036080465,0
0.12759471,-0.55420291,-2.8567417,-0.41106197,0.15424407,-0.89846361,0
-2.4067273,-0.21196699,-0.47602093,-0.89531285,-0.25382197,0.36604553,0
2.1740785,0.58605289,1.8700262,0.41106197,-0.15424407,0.89846361,0
1.6679833,-1.2154765,1.7302896,0.41106197,-0.15424407,0.89846361,0
1.1561131,-1.9149445,1.8662838,0.41106197,-0.15424407,0.89846361,0
-1.6061934,-1.2479302,-0.73762143,-0.61446995,-0.77491552,0.14809632,0
2.0536234,1.3305316,0.84475285,0.69255769,0.69372499,-0.19776118,0
-0.67005432,1.2435254,2.0987535,-0.64543808,0.64676422,0.40633214,0
-2.2947905,-0.29055715,-0.45790756,-0.87890679,-0.32866514,0.34569073,0
1.9585736,1.0802693,-0.052870989,0.79718101,0.53889197,-0.27220908,0
0.81512487,1.9463927,0.0086977854,0.41001719,0.91154736,-0.03109948,0
1.8266861,0.24625754,2.0412304,0.41106197,-0.15424407,0.89846361,0
0.038070202,1.1317563,-2.7771602,-0.41106197,0.15424407,-0.89846361,0
0.59451783,-0.28281438,2.2485387,0.41106197,-0.15424407,0.89846361,0
0.91846716,-1.8631767,-0.54006135,0.34051633,-0.88826197,-0.30828452,0
-0.27332354,0.69771874,-2.5771499,-0.41106197,0.15424407,-0.89846361,0
-2.0241201,-0.58485293,0.16613376,-0.85840708,-0.39725742,0.32453617,0
2.2192013,-1.6621494,1.2380496,0.69402397,-0.58607805,-0.41814262,0
0.92895466,1.6521466,-0.98636889,0.64664352,0.74403536,-0.16811761,0
1.0130047,-0.89873433,2.2852478,0.41106197,-0.15424407,0.89846361,0
-0.75821626,1.8455545,0.67024374,-0.34737062,0.88471985,0.31081241,0
0.57772833,-0.69483459,2.294004,0.41106197,-0.15424407,0.89846361,0
-0.85750604,-1.2494226,1.9215562,-0.78212249,-0.56598258,0.26066878,0
1.7924905,-0.14404446,-1.0065839,0.89113927,-0.13968799,-0.431692,0
2.4879446,-0.68667769,0.45550215,0.87648082,-0.204083,-0.43604058,0
-0.60119748,-1.9013358,0.63288617,-0.50957388,-0.85610139,0.086167015,0
0.75856888,1.5716821,-1.7314208,0.69577408,0.68988526,-0.19989187,0
-1.6060326,0.067768097,-1.876031,-0.41106197,0.15424407,-0.89846361,0
0.49995995,-0.15786111,2.5862303,0.41106197,-0.15424407,0.89846361,0
1.5294106,1.5237383,2.2055593,0.41106197,-0.15424407,0.89846361,0
-1.0616993,0.87197614,-2.2295599,-0.41106197,0.15424407,-0.89846361,0
-2.5567241,-1.0029752,-1.7758764,-0.41106197,0.15424407,-0.89846361,0
2.026206,-1.4993644,1.5784546,0.41106197,-0.15424407,0.89846361,0
-1.9275749,-0.67950487,-1.9264622,-0.41106197,0.15424407,-0.89846361,0
-0.7869674,0.73142099,-2.1810956,-0.41106197,0.15424407,-0.89846361,0
0.1207153,-1.6784978,2.6175113,0.41106197,-0.15424407,0.89846361,0
1.6227714,-0.22298479,2.1663833,0.41106197,-0.15424407,0.89846361,0
-0.87634832,-0.54602635,3.2863915,-0.91160107,-0.073231012,0.40450066,0
-0.1899603,0.9174819,-2.7486925,-0.41106197,0.15424407,-0.89846361,0
-0.76147914,-1.4538929,2.6808255,-0.80418098,-0.52552027,0.27770725,0
1.9833933,0.40497398,2.1164474,0.41106197,-0.15424407,0.89846361,0
-1.6652356,-0.14546168,1.1846544,-0.90874094,0.0087633133,0.41726851,0
-1.0788214,2.3712208,-1.8217599,-0.41106197,0.15424407,-0.89846361,0
0.3246271,-2.3323445,1.8861804,-0.30141491,-0.95314586,-0.025729321,0
0.27445084,1.9080375,-2.3004699,0.52564698,0.84534025,-0.095368154,0
-0.65641075,2.195466,-1.7387249,0.20332599,0.9762668,0.074575901,0
-0.55494177,-0.3270911,-2.5256693,-0.41106197,0.15424407,-0.89846361,0
1.7577026,1.1406842,1.4303584,0.57542199,0.80832565,-0.12449551,0
-1.1635516,1.4749469,0.64283037,-0.62927598,0.66508704,0.40208322,0
-1.6488143,-0.61024094,-2.1576703,-0.41106197,0.15424407,-0.89846361,0
1.1697677,0.78872979,-1.6589012,0.86163574,0.38757223,-0.32767603,0
1.0876117,1.1974066,-2.0411673,0.7844919,0.56186032,-0.2624605,0
1.1601157,1.5694255,0.45052442,0.50150943,0.86129665,-0.081585512,0
-1.6633151,0.21464819,0.84633315,-0.90522027,0.047400057,0.42229074,0
-1.4761147,1.5813403,-2.0480762,-0.41106197,0.15424407,-0.89846361,0
0.8656503,0.68215108,2.3699961,0.41106197,-0.15424407,0.89846361,0
0.51255083,0.19230354,2.7550859,0.41106197,-0.15424407,0.89846361,0
1.6774985,-0.58519483,1.7526515,0.41106197,-0.15424407,0.89846361,0
0.043129183,1.4198396,-2.4847658,-0.41106197,0.15424407,-0.89846361,0
-2.0796804,1.0100104,-0.18212306,-0.76647329,0.47507241,0.43223238,0
-0.61915743,-0.2963773,-2.6634862,-0.41106197,0.15424407,-0.89846361,0
1.1566035,-1.3547159,-1.0381083,0.60190547,-0.69427854,-0.3945722,0
1.8811917,1.2892495,0.85655928,0.59118724,0.79533517,-0.13393854,0
-2.2875051,-0.58149076,-1.7277232,-0.41106197,0.15424407,-0.89846361,0
-0.0051832199,2.090935,-1.2037947,0.27433389,0.96082544,0.039437756,0
1.4767514,0.65988028,2.0837817,0.41106197,-0.15424407,0.89846361,0
0.49595439,0.215698,-2.9329159,-0.41106197,0.15424407,-0.89846361,0
-1.0850041,0.31544971,2.184413,-0.85352814,0.28104526,0.43875182,0
-0.08159709,-1.896974,0.34040919,-0.084327519,-0.98778963,-0.13099787,0
0.23757982,1.0642852,2.641583,0.41106197,-0.15424407,0.89846361,0
-0.33460319,-0.57736349,2.6718044,0.41106197,-0.15424407,0.89846361,0
0.88901824,-1.6719766,2.0061374,0.41106197,-0.15424407,0.89846361,0
1.5305264,1.3029616,-0.55239201,0.7820887,0.56604093,-0.26064327,0
1.4592437,-0.89726377,-1.1136626,0.71779978,-0.55278909,-0.42330557,0
-1.1938283,0.48168516,-2.1608915,-0.41106197,0.15424407,-0.89846361,0
2.7924793,-0.012767315,1.3984814,0.41106197,-0.15424407,0.89846361,0
-1.9713484,0.31950331,-1.660845,-0.41106197,0.15424407,-0.89846361,0
1.4267415,-0.12912917,1.9394107,0.41106197,-0.15424407,0.89846361,0
2.4488764,-0.90379143,1.2868996,0.41106197,-0.15424407,0.89846361,0
0.12131415,-1.3957235,2.5842254,0.41106197,-0.15424407,0.89846361,0
-0.37716937,1.7676196,1.1518247,-0.33044422,0.89334035,0.30454826,0
-1.6100043,-0.74800909,-2.1124792,-0.41106197,0.15424407,-0.89846361,0
-0.056615666,1.7823944,-2.469182,-0.41106197,0.15424407,-0.89846361,0
-0.78570807,-1.3453321,1.6579427,-0.76093698,-0.60079098,0.24500036,0
2.2323129,-0.10257363,1.8876071,0.41106197,-0.15424407,0.89846361,0
1.0540839,-1.7179528,2.1199558,0.41106197,-0.15424407,0.89846361,0
1.8905435,0.270154,-0.50333035,0.90382206,0.19749019,-0.37960935,0
1.708261,-0.12447882,1.7954131,0.41106197,-0.15424407,0.89846361,0
1.8951526,-0.89106041,-0.61520457,0.81747228,-0.37381276,-0.43818158,0
2.5915008,-0.36669874,1.3568273,0.41106197,-0.15424407,0.89846361,0
-0.70498395,0.068791032,3.0703351,0.41106197,-0.15424407,0.89846361,0
2.7200711,0.4983058,1.3732423,0.85789263,0.39877012,-0.3240411,0
0.17092276,-1.7088733,-1.4952135,0.31383198,-0.90139246,-0.29833025,0
0.31970167,-1.9115199,-0.46887821,0.24222928,-0.93167013,-0.27076867,0
1.0827785,1.0438721,2.285156,0.41106197,-0.15424407,0.89846361,0
0.76987779,1.1431012,-2.2125595,0.83891213,0.44968024,-0.30661723,0
0.15029335,0.97196531,2.6860909,0.41106197,-0.15424407,0.89846361,0
1.4663234,-0.51155162,1.8860683,0.41106197,-0.15424407,0.89846361,0
-2.0170546,-1.1926754,-1.1233119,-0.7190814,-0.66064286,0.21557561,0
2.6867995,-0.93889761,0.97087717,0.84506381,-0.3051689,-0.43902063,0
-2.2048934,0.86673498,0.21436703,-0.84484529,0.30576888,0.43902367,0
1.7874093,-1.7915304,1.5245008,0.41106197,-0.15424407,0.89846361,0
1.6529069,-1.7789501,0.65917587,0.47541827,-0.80466658,-0.35565317,0
1.2807631,-0.13599086,2.0337198,0.41106197,-0.15424407,0.89846361,0
-1.467562,-1.3992538,-2.1561227,-0.41106197,0.15424407,-0.89846361,0
1.8669298,-0.4879241,1.9699864,0.41106197,-0.15424407,0.89846361,0
-1.9438609,0.41660118,-1.9434935,-0.41106197,0.15424407,-0.89846361,0
1.9836116,-0.23073161,-0.53672862,0.88705885,-0.15950266,-0.43322676,0
0.54160112,-2.2389088,1.2277068,0.013916731,-0.98440504,-0.17536524,0
-2.5729072,-0.38724256,-1.5292594,-0.87654769,-0.33757889,0.34308112,0
0.59658766,1.8615074,-0.77425462,0.4991644,0.86278248,-0.080257505,0
0.75273383,-1.0442657,-1.7050948,0.63713264,-0.6562857,-0.40416694,0
1.0934922,-1.2560284,1.8737475,0.41106197,-0.15424407,0.89846361,0
-0.072795272,-2.0995791,0.46871352,-0.11219221,-0.98664898,-0.11805353,0
-1.9274558,-0.93906522,-0.67991382,-0.71964288,-0.65990597,0.21595901,0
-0.0062124729,0.85892498,2.9628475,0.41106197,-0.15424407,0.89846361,0
-0.2611022,-1.0594701,-2.6731083,-0.41106197,0.15424407,-0.89846361,0
-2.2818973,0.5953536,-1.7296952,-0.41106197,0.15424407,-0.89846361,0
-0.9617579,-1.6905751,-1.1651692,-0.29436684,-0.95524281,-0.029313944,0
1.1364938,-1.0634146,1.9421002,0.41106197,-0.15424407,0.89846361,0
-1.5165761,-1.0750746,-2.3347981,-0.41106197,0.15424407,-0.89846361,0
-2.2075028,-0.38126183,-1.7835783,-0.41106197,0.15424407,-0.89846361,0
-0.25104803,-1.1286578,2.8846884,0.41106197,-0.15424407,0.89846361,0
0.010462612,-1.8916087,2.6469145,0.41106197,-0.15424407,0.89846361,0
2.1845164,-0.26487541,1.7587335,0.41106197,-0.15424407,0.89846361,0
1.8841153,0.85829294,0.46472645,0.77677524,0.57510692,-0.2566559,0
2.7227135,-0.52781749,1.5700501,0.41106197,-0.15424407,0.89846361,0
-0.635584,-1.9782813,0.59024608,-0.35819137,-0.93364125,0.0035953075,0
0.3238225,-1.1560946,-3.1233268,-0.41106197,0.15424407,-0.89846361,0
1.531889,-2.097652,1.6217003,0.41106197,-0.15424407,0.89846361,0
0.593799,1.190928,-2.7719979,-0.41106197,0.15424407,-0.89846361,0
0.39283514,1.4765943,2.6776433,-0.36235452,0.87673026,0.31629616,0
0.38781261,0.67309952,2.9120042,0.41106197,-0.15424407,0.89846361,0
0.66697621,1.6965948,1.9275982,-0.081075847,0.97549039,0.20456114,0
-1.5822222,-0.81974912,-2.2769494,-0.41106197,0.15424407,-0.89846361,0
0.43386441,-1.5664579,2.4092975,0.41106197,-0.15424407,0.89846361,0
0.056314707,-0.92103279,-2.8007958,-0.41106197,0.15424407,-0.89846361,0
1.7036481,-1.7694594,0.76010895,0.45053238,-0.82243013,-0.34731698,0
-1.5072502,1.0877218,-2.0138891,-0.41106197,0.15424407,-0.89846361,0
-1.1078535,-0.38212585,2.5156546,-0.90988278,-0.13001546,0.39396596,0
-0.0048508644,2.0722136,0.64295757,-0.063474357,0.97834682,0.19699857,0
-2.5841105,0.39032817,-1.0455563,-0.90798581,0.018489748,0.41859281,0
-0.70510602,-0.82618368,-2.6763668,-0.41106197,0.15424407,-0.89846361,0
1.2539301,-1.0128495,-1.4934087,0.73375022,-0.52887625,-0.42649794,0
-0.64439631,-0.24017131,3.0297899,0.41106197,-0.15424407,0.89846361,0
-0.94262254,-0.59794068,-2.5052321,-0.41106197,0.15424407,-0.89846361,0
-1.8005259,1.2575201,-0.062009931,-0.76288116,0.48133051,0.43166333,0
1.0721891,-2.2779458,1.8108819,0.025701642,-0.98322904,-0.18055508,0
-1.6430767,0.51985407,-1.871431,-0.41106197,0.15424407,-0.89846361,0
0.8943367,-1.5924009,2.0915978,0.41106197,-0.15424407,0.89846361,0
-0.24484724,1.7699531,-2.4475856,-0.41106197,0.15424407,-0.89846361,0
-0.86323428,-1.5915415,-2.2591186,0.0039694309,-0.98526955,-0.1709626,0
-1.0364232,-0.85696268,-2.5388238,-0.41106197,0.15424407,-0.89846361,0
0.67764008,0.33485866,-3.0254965,0.9116019,0.072953701,-0.4045487,0
-0.16515964,1.0495688,-2.4145224,-0.41106197,0.15424407,-0.89846361,0
-1.3994937,0.33384585,2.0565476,-0.87476403,0.21062338,0.43637794,0
0.3279869,1.8537169,-2.2411008,0.65738553,0.73296857,-0.17493217,0
1.659649,0.015149355,1.9048055,0.41106197,-0.15424407,0.89846361,0
0.92933935,-1.1130404,2.2229152,0.41106197,-0.15424407,0.89846361,0
0.29588246,-1.3265396,2.3292997,0.41106197,-0.15424407,0.89846361,0
1.0870767,1.5791557,1.3654315,0.2058202,0.97583616,0.07336089,0
-0.43716529,1.7870041,-2.1635296,-0.41106197,0.15424407,-0.89846361,0
0.97413778,0.45563537,-2.2874944,0.90631998,0.17514616,-0.38458812,0
1.8921264,-2.1357737,1.458658,0.49645412,-0.7887311,-0.36254168,0
-0.7812233,1.9536057,0.26817751,-0.22896022,0.93652052,0.26553059,0
0.22809529,-2.3458772,1.3343093,-0.15934539,-0.98256576,-0.095779151,0
0.11048275,0.65632498,-2.5032403,-0.41106197,0.15424407,-0.89846361,0
-1.4731238,0.84779906,-1.8747066,-0.41106197,0.15424407,-0.89846361,0
2.4945383,0.50555658,1.7309163,0.41106197,-0.15424407,0.89846361,0
-2.2842009,0.91148996,-0.81594765,-0.8476643,0.29794353,0.43897003,0
0.87350821,1.5927813,1.6737528,0.036386371,0.98757243,0.15289444,0
-0.77824461,-1.7531699,1.6497478,-0.68475825,-0.70285237,0.19262587,0
2.0776446,-1.1781442,1.7936853,0.41106197,-0.15424407,0.89846361,0
1.9695733,0.06512022,-0.50043643,0.91120207,0.098907292,-0.39991015,0
1.0304847,-2.1517239,1.7313821,0.41106197,-0.15424407,0.89846361,0
-1.8729632,1.1012084,-1.6731384,-0.41106197,0.15424407,-0.89846361,0
1.3507135,-0.19020319,2.3472481,0.41106197,-0.15424407,0.89846361,0
2.0597603,1.2332129,2.0586681,0.41106197,-0.15424407,0.89846361,0
3.0655131,-0.013755322,1.5751915,0.41106197,-0.15424407,0.89846361,0
1.3298042,1.4539546,0.61522156,0.52198166,0.84784287,-0.09326154,0
-0.65439749,-1.0945399,-2.8210373,-0.41106197,0.15424407,-0.89846361,0
-2.2137427,1.7353101,-1.3803252,-0.41106197,0.15424407,-0.89846361,0
0.34842181,1.5971391,1.4186856,-0.0095368624,0.9848001,0.17342919,0
-1.4862998,-1.7187188,-0.67980379,-0.5035975,-0.85996437,0.082769558,0
0.73236954,1.9622433,-0.91002554,0.49431127,0.86582208,-0.077515304,0
-0.65746558,0.11557555,-2.6228602,-0.41106197,0.15424407,-0.89846361,0
0.93779528,1.5420022,0.29868436,0.46979177,0.88047004,-0.063782543,0
-1.8222156,1.3827506,-0.24541152,-0.75053716,0.50214267,0.42958879,0
-0.82826912,0.33300567,-2.4137545,-0.41106197,0.15424407,-0.89846361,0
-1.7390327,2.0209496,-1.6556289,-0.41106197,0.15424407,-0.89846361,0
1.585544,0.78466916,-0.69010568,0.88356757,0.30997616,-0.35103154,0
-0.86266792,0.92217517,-2.1142302,-0.41106197,0.15424407,-0.89846361,0
-0.31430686,-1.8452975,0.24029452,-0.21332461,-0.97449213,-0.069696739,0
1.749954,-2.2988303,1.6494744,0.41106197,-0.15424407,0.89846361,0
0.25835514,1.574285,2.715246,-0.26111776,0.92436284,0.27815604,0
-2.1194305,0.3143512,0.1947906,-0.89655578,0.1099557,0.42906576,0
2.1330566,0.25467527,0.33211493,0.88989079,0.28173873,-0.35877228,0
-0.65369236,-1.807487,1.4692862,-0.52986747,-0.84242237,0.097799994,0
-1.0274037,1.2724519,1.0998043,-0.56996071,0.7257055,0.38535219,0
0.63879645,-1.273922,-1.616307,0.47663122,-0.80377102,-0.35605443,0
0.87192649,-1.3982422,2.2994862,0.41106197,-0.15424407,0.89846361,0
-0.055982143,1.3619041,-2.571399,-0.41106197,0.15424407,-0.89846361,0
1.991986,0.092855215,-0.41010189,0.90888536,-0.0067625046,-0.41699106,0
0.38542706,-1.0425532,2.4282639,0.41106197,-0.15424407,0.89846361,0
-1.5084562,0.54349208,-1.9673703,-0.41106197,0.15424407,-0.89846361,0
-1.5708026,0.9151125,-2.0565701,-0.41106197,0.15424407,-0.89846361,0
-0.27742288,-1.8006487,2.8198829,0.41106197,-0.15424407,0.89846361,0
-1.7816312,1.3041599,-0.050980091,-0.74394351,0.5128479,0.42840981,0
-2.0009825,-0.45637697,0.63577819,-0.9021464,-0.21045524,0.37661701,0
-1.803108,1.5793183,-0.41531086,-0.63474846,0.65897739,0.40353811,0
2.7252431,0.66777205,1.2028825,0.85776967,0.3991304,-0.32392296,0
-2.3525326,0.0099506378,-0.85569429,-0.90407455,-0.19541639,0.38008094,0
-0.0039021969,-2.0800047,2.451889,0.41106197,-0.15424407,0.89846361,0
-0.10844159,-1.4363031,-2.5697849,0.31963676,-0.89862424,-0.30051076,0
1.7098658,-0.19514364,-0.85379016,0.90169454,-0.076154232,-0.42561412,0
-0.0857234,-0.98994827,-3.0880415,-0.41106197,0.15424407,-0.89846361,0
-2.5910075,0.6941452,-1.6846861,-0.41106197,0.15424407,-0.89846361,0
0.27840137,1.4967484,2.3023696,-0.17329347,0.95438838,0.24312964,0
0.62972689,1.4291587,2.4456871,-0.096122384,0.97275376,0.21097544,0
2.0961146,-1.0771213,1.4624143,0.41106197,-0.15424407,0.89846361,0
-0.98762381,0.29141295,2.6974277,-0.81426215,0.38102046,0.43795031,0
-1.15323,-1.4433554,0.23540539,-0.57300353,-0.81026161,0.12305672,0
1.4357476,0.9119277,-1.3808075,0.84305984,0.4392761,-0.31030092,0
0.84524274,1.7465589,-1.9596978,0.69155526,0.69491255,-0.19709867,0
-0.38165271,-0.02492249,3.169596,0.41106197,-0.15424407,0.89846361,0
0.30371064,1.8513939,-1.8701122,0.50320137,0.86021781,-0.082544729,0
-1.6988933,0.55282438,1.2302127,-0.85202122,0.28547272,0.43882245,0
0.074412823,-1.4818741,-2.0925326,0.42363417,-0.84037399,-0.33809114,0
1.3970087,1.2209826,2.3264577,0.41106197,-0.15424407,0.89846361,0
-0.2292068,-1.9357185,-0.67213356,-0.03053689,-0.98735845,-0.15553397,0
-0.097583294,0.53126037,3.1136446,0.41106197,-0.15424407,0.89846361,0
-0.59484971,1.1101564,2.0914524,-0.67951924,0.60515308,0.41478115,0
0.91133451,-1.0266407,-2.3061533,0.69823635,-0.58037019,-0.41908997,0
1.4326236,1.2210217,-0.76462758,0.80986971,0.51424563,-0.28224552,0
0.42227465,2.0534012,-1.4619435,0.54735571,0.82990885,-0.10794942,0
1.5388651,1.1825976,2.2106495,0.41106197,-0.15424407,0.89846361,0
0.67482781,-1.1300508,2.4321024,0.41106197,-0.15424407,0.89846361,0
1.2761221,1.6725078,0.47826084,0.53125602,0.84145391,-0.098601595,0
-1.4810106,-1.4682009,-0.99057621,-0.42130256,-0.90615737,0.037188049,0
-0.80051374,1.4520295,1.4306452,-0.51612991,0.77302128,0.36884665,0
1.1504338,-0.69455987,-1.5443805,0.80097055,-0.4094981,-0.43675798,0
2.2731543,-0.033813,0.43388557,0.90859652,0.14935884,-0.39005673,0
1.5060805,-0.47539115,2.0026836,0.41106197,-0.15424407,0.89846361,0
0.019480947,1.643309,-2.622793,-0.41106197,0.15424407,-0.89846361,0
-0.31672484,2.2996745,-2.3262463,-0.41106197,0.15424407,-0.89846361,0
0.12058852,1.5407147,-2.4752717,-0.41106197,0.15424407,-0.89846361,0
-2.4962528,-0.4462626,-0.81640565,-0.85369891,-0.41080689,0.32005605,0
-0.30357862,0.21023035,3.1770167,0.41106197,-0.15424407,0.89846361,0
-1.4409646,-0.79247189,-2.4545152,-0.41106197,0.15424407,-0.89846361,0
2.6732929,0.18987131,1.617026,0.41106197,-0.15424407,0.89846361,0
2.163269,0.3528893,2.0403109,0.41106197,-0.15424407,0.89846361,0
2.2100768,-0.64443827,0.17948592,0.86403769,-0.2482934,-0.43793738,0
-1.1918099,-1.7821519,-1.9248275,-0.15589815,-0.98295695,-0.097423494,0
-0.69481063,-2.0045636,-0.15907764,-0.2822963,-0.95867288,-0.035425246,0
-1.1790856,-0.0056347847,-2.3348875,-0.41106197,0.15424407,-0.89846361,0
-0.74267268,0.14497209,3.2732058,-0.87440032,0.21198821,0.43644583,0
0.69741464,1.6482081,-0.59806013,0.48754334,0.86998218,-0.07370466,0
0.34122896,2.0891683,0.36662158,0.13104844,0.98534316,0.1092023,0
2.3426237,-0.27321815,1.4532293,0.41106197,-0.15424407,0.89846361,0
1.6027354,-1.1905041,-0.50371885,0.76393318,-0.47950751,-0.43183172,0
-0.4582361,0.84622538,-2.5890179,-0.41106197,0.15424407,-0.89846361,0
0.0056357384,-1.2583661,-2.7495749,0.49611026,-0.78899866,-0.36243027,0
0.95187557,-1.3364586,-1.0220537,0.5325914,-0.75924957,-0.37401384,0
0.58036387,-1.9576628,-0.12674415,0.19447595,-0.94805545,-0.25173372,0
-0.82075733,0.66707861,-2.2605588,-0.41106197,0.15424407,-0.89846361,0
0.42032409,-2.0269849,2.333904,0.41106197,-0.15424407,0.89846361,0
-1.5892353,0.96863604,1.0280963,-0.78264588,0.44565114,0.4345808,0
-1.1948723,-1.3491187,0.36832935,-0.65946364,-0.73078078,0.17625856,0
-1.3069961,0.76074862,-1.9419491,-0.41106197,0.15424407,-0.89846361,0
-0.19663158,1.2269548,-2.5709963,-0.41106197,0.15424407,-0.89846361,0
2.159369,-0.13886333,-0.29277384,0.91149461,0.054042846,-0.40774602,0
1.3561928,-2.1309764,1.6519318,0.41106197,-0.15424407,0.89846361,0
1.6188246,0.95728111,2.3104918,0.41106197,-0.15424407,0.89846361,0
0.79750681,1.7873919,1.5299891,0.17519665,0.9805761,0.08818537,0
0.98654616,1.5549791,-0.75495923,0.65778542,0.73254895,-0.17518714,0
0.75123477,-1.7979546,1.9653267,0.41106197,-0.15424407,0.89846361,0
-1.6414931,0.36568218,1.0555527,-0.89861143,0.097266436,0.42782795,0
-0.79312384,1.4484124,-2.3922658,-0.41106197,0.15424407,-0.89846361,0
0.56061387,1.7576441,-2.6987355,-0.41106197,0.15424407,-0.89846361,0
1.1598545,-2.0913663,2.0852265,0.41106197,-0.15424407,0.89846361,0
-0.61018509,-0.94495797,2.7176788,0.41106197,-0.15424407,0.89846361,0
-0.078240871,-0.99792314,-3.112052,-0.41106197,0.15424407,-0.89846361,0
0.77299178,-1.2038976,-2.2316284,0.62684524,-0.66777062,-0.40143186,0
-0.96328354,-1.7721229,0.066811256,-0.38913196,-0.92096651,0.019927047,0
1.213944,-0.60147047,-1.3023841,0.81543714,-0.37839857,-0.43803763,0
-1.8131737,-1.1520976,-2.2350907,-0.41106197,0.15424407,-0.89846361,0
-0.074561596,0.55255067,-2.4941754,-0.41106197,0.15424407,-0.89846361,0
-1.7762247,0.78028363,0.96240759,-0.83572531,0.32991657,0.43899673,0
-0.40360823,1.2669591,-2.5844388,-0.41106197,0.15424407,-0.89846361,0
-2.0448539,-0.7365827,0.27106893,-0.83612329,-0.45648241,0.30417353,0
-2.0445852,0.68857265,-1.7806011,-0.41106197,0.15424407,-0.89846361,0
-0.15779963,-1.0687131,2.4684806,0.41106197,-0.15424407,0.89846361,0
-0.10742605,0.48449647,-2.5185304,-0.41106197,0.15424407,-0.89846361,0
-1.5914799,-1.0153984,-2.1719854,-0.41106197,0.15424407,-0.89846361,0
1.7339873,0.64687496,-0.56955564,0.87221795,0.3531298,-0.33843046,0
0.94179279,-2.12255,1.7906784,0.41106197,-0.15424407,0.89846361,0
-2.5667307,0.44523001,-0.70155108,-0.89801025,0.1010763,0.42820698,0
0.18308043,1.6660711,1.8381158,-0.13936633,0.96336293,0.22914809,0
-1.0133241,-0.92850369,1.8884612,-0.85618567,-0.40373111,0.3224085,0
-1.6645021,0.074670792,-1.8828845,-0.41106197,0.15424407,-0.89846361,0
-1.5378826,-0.54388201,1.5661507,-0.90202534,-0.21134502,0.37640882,0
0.36647379,2.1182046,-0.10127702,0.16107976,0.98236334,0.09495087,0
1.3087935,-2.128418,1.0935081,0.20302296,-0.94533902,-0.2551778,0
0.46704164,0.96930289,-2.8353605,-0.41106197,0.15424407,-0.89846361,0
0.46657014,0.66016948,2.8718941,0.41106197,-0.15424407,0.89846361,0
0.93771982,1.0423689,-2.0709894,0.88220084,0.31561822,-0.34943765,0
0.35662997,0.47134221,2.6098194,0.41106197,-0.15424407,0.89846361,0
0.6456275,1.600943,2.4574473,-0.044942379,0.98095429,0.18896759,0
0.070381224,-1.1900039,2.7093339,0.41106197,-0.15424407,0.89846361,0
-2.5178008,-0.26468515,-1.5071104,-0.41106197,0.15424407,-0.89846361,0
1.9850699,1.3166424,1.7540016,0.56947821,0.81305742,-0.12096383,0
-1.0678744,0.50158739,-2.247509,-0.41106197,0.15424407,-0.89846361,0
-1.3103176,-0.96219218,1.4981861,-0.8497752,-0.42162943,0.31640288,0
-0.051776916,-1.1661817,2.7097182,0.41106197,-0.15424407,0.89846361,0
0.27078545,-2.2235436,2.1433802,0.41106197,-0.15424407,0.89846361,0
1.6996126,-1.5967352,1.7872605,0.41106197,-0.15424407,0.89846361,0
0.25261903,-1.9329052,-0.8212837,0.14790839,-0.96123767,-0.23269132,0
-2.2691605,0.72857344,-0.041405678,-0.86931193,0.23039994,0.43727863,0
1.6254952,1.1330525,-0.17334938,0.80453128,0.52483696,-0.27798483,0
1.6213976,-0.25019097,1.8115033,0.41106197,-0.15424407,0.89846361,0
2.7890015,-0.076753139,1.4617372,0.91090882,0.10807604,-0.39820182,0
-0.58957881,-2.0593109,1.3254471,-0.47319573,-0.87850571,0.065677121,0
0.21848512,1.2593762,-2.6214135,-0.41106197,0.15424407,-0.89846361,0
0.38470721,-1.5262916,-1.2464457,0.352934,-0.88179308,-0.3128553,0
2.521234,-1.2979693,1.137313,0.72983694,-0.53487033,-0.42573655,0
2.752341,-0.072266579,1.4641266,0.91159147,0.063722849,-0.40612859,0
-1.0940317,1.1245217,1.5908847,-0.66240531,0.62657988,0.41062981,0
-0.88596082,1.0045708,-2.263927,-0.41106197,0.15424407,-0.89846361,0
1.394014,-0.49322033,2.1735017,0.41106197,-0.15424407,0.89846361,0
1.0482173,0.76998222,2.2452679,0.41106197,-0.15424407,0.89846361,0
-1.4327544,-0.045641571,1.4007168,-0.9116056,-0.067624867,0.40546513,0
2.4625132,0.4901073,0.75420582,0.88304704,0.31214181,-0.35042161,0
-1.4869924,0.63267517,-1.8332309,-0.41106197,0.15424407,-0.89846361,0
-0.76583147,-1.248438,-2.8166635,-0.41106197,0.15424407,-0.89846361,0
-1.0495137,-0.66295397,2.3521738,-0.91105676,-0.10376084,0.39901036,0
2.5872495,0.72192311,1.5610247,0.41106197,-0.15424407,0.89846361,0
0.17265725,0.77585804,2.9584584,0.41106197,-0.15424407,0.89846361,0
-1.3829831,0.65787625,-1.8835689,-0.41106197,0.15424407,-0.89846361,0
-1.0784733,-1.4038888,-2.411027,-0.41106197,0.15424407,-0.89846361,0
-0.37377459,1.9235213,-2.4386289,-0.41106197,0.15424407,-0.89846361,0
-0.0071158409,1.5457582,1.8527354,-0.21816808,0.94029558,0.26124108,0
-1.0324188,2.1610689,-1.6037872,-0.08438015,0.97491264,0.2059738,0
-0.50880504,-1.3199511,2.9123425,0.41106197,-0.15424407,0.89846361,0
-0.40939713,-0.28051198,2.9731538,0.41106197,-0.15424407,0.89846361,0
2.1450968,-1.0633328,0.48730302,0.84013289,-0.31845742,-0.43904608,0
-1.5771112,1.2731026,-1.6374803,-0.41106197,0.15424407,-0.89846361,0
-2.2434831,0.86994839,-1.569387,-0.41106197,0.15424407,-0.89846361,0
2.1441455,1.0996289,1.6883312,0.70321083,0.68083143,-0.20484868,0
-0.6868192,0.22993279,-2.5702002,-0.41106197,0.15424407,-0.89846361,0
1.2651452,-1.25843,2.0946357,0.41106197,-0.15424407,0.89846361,0
-0.30265039,2.3300223,-2.3602843,-0.41106197,0.15424407,-0.89846361,0
-2.5858557,0.35323858,-1.575233,-0.41106197,0.15424407,-0.89846361,0
-0.64938879,-1.3869152,2.1839137,-0.78780621,-0.55600929,0.2649813,0
-0.37964237,-1.1793674,2.8917403,0.41106197,-0.15424407,0.89846361,0
0.29658389,-0.80381036,-3.030237,-0.41106197,0.15424407,-0.89846361,0
0.15304184,-0.5985533,-3.1391058,-0.41106197,0.15424407,-0.89846361,0
0.0084011555,1.2640156,2.5852218,-0.41360241,0.84674609,0.33459538,0
-0.66090477,-0.42929745,-2.7602904,-0.41106197,0.15424407,-0.89846361,0
-0.6832931,-0.79554653,-2.680732,-0.41106197,0.15424407,-0.89846361,0
0.037866235,-1.8221885,-0.19976944,-0.0085117817,-0.98618817,-0.16540992,0
-0.043674707,-0.5180186,2.6748662,0.41106197,-0.15424407,0.89846361,0
0.21039343,0.01263833,2.8814521,0.41106197,-0.15424407,0.89846361,0
0.54115534,0.6752156,2.690295,0.41106197,-0.15424407,0.89846361,0
0.10963237,2.1863153,-2.3231726,0.46119988,0.88533133,-0.059016995,0
-0.98230839,-1.0286219,2.4945197,-0.88836002,-0.28893659,0.3568362,0
-0.045109183,1.2495974,-2.3277678,-0.41106197,0.15424407,-0.89846361,0
0.85866308,-1.8404319,1.9838842,0.41106197,-0.15424407,0.89846361,0
0.90698218,-0.95623529,2.3802006,0.41106197,-0.15424407,0.89846361,0
-0.21925032,0.92559898,-2.5768075,-0.41106197,0.15424407,-0.89846361,0
1.8398963,1.0886104,0.089231491,0.80019808,0.53319377,-0.27456766,0
-1.2481481,-1.1288719,1.2973862,-0.85403788,-0.40985262,0.32037491,0
0.5271433,-0.51479936,2.4498301,0.41106197,-0.15424407,0.89846361,0
1.1228127,0.29491764,-2.7913439,0.90965557,0.0049435794,-0.41533387,0
0.74968195,1.6351018,2.3713024,-0.10001898,0.9720006,0.21262884,0
1.3477201,-0.12139068,-1.5671291,0.87773788,-0.19918811,-0.4357754,0
-0.064261079,-1.8404727,0.44494414,-0.24046791,-0.96902061,-0.056338906,0
-0.83835959,-1.384053,2.7833822,0.41106197,-0.15424407,0.89846361,0
0.40784669,-1.3676044,2.5540006,0.41106197,-0.15424407,0.89846361,0
-1.0093832,-0.48999557,2.2910471,-0.90595329,-0.17872047,0.38380671,0
2.4330428,-1.1630502,1.5806673,0.41106197,-0.15424407,0.89846361,0
1.2267004,-0.3544898,2.2499502,0.41106197,-0.15424407,0.89846361,0
-0.012409747,-0.73304045,2.7163301,0.41106197,-0.15424407,0.89846361,0
0.22555329,-1.4244828,2.2665873,0.41106197,-0.15424407,0.89846361,0
0.6023128,0.88867474,2.6415062,0.41106197,-0.15424407,0.89846361,0
0.33548856,-0.038511515,-2.9823248,-0.41106197,0.15424407,-0.89846361,0
2.1222668,-0.33027434,-0.29998827,0.8838107,-0.1740948,-0.43424588,0
1.1448605,0.49436235,2.3509564,0.41106197,-0.15424407,0.89846361,0
2.0671115,0.69483542,1.7523255,0.41106197,-0.15424407,0.89846361,0
0.22852579,-1.0567299,2.2824242,0.41106197,-0.15424407,0.89846361,0
0.9391427,-0.52532691,-2.6306906,0.78386831,-0.44333822,-0.43474311,0
1.8762144,-1.0479221,-0.011053443,0.77899748,-0.45247602,-0.43408322,0
0.60533977,1.4728086,2.6013532,-0.22471905,0.93802214,0.26384798,0
-0.64663571,0.51847565,-2.4456077,-0.41106197,0.15424407,-0.89846361,0
-1.227048,1.0350549,-2.2041786,-0.41106197,0.15424407,-0.89846361,0
-0.65870774,-0.30427349,-2.3635092,-0.41106197,0.15424407,-0.89846361,0
0.90331125,0.72162199,2.5557451,0.41106197,-0.15424407,0.89846361,0
-1.0695046,-1.3549354,0.16981539,-0.59802943,-0.78949153,0.13807218,0
