1.3504913,-1.1336895,1.3827006,0.51057988,-0.51027042,0.69204938,0
2.5399065,2.479099,-3.0482275,-0.43057117,0.76667404,-0.47625548,0
4.1646852,-0.6440475,-0.18403167,0.5145278,-0.48610842,0.70637083,0
-0.11453915,-2.1526775,1.6835021,0.39717224,-0.82517999,0.40166152,0
-3.5507274,-1.7444203,2.2444894,-0.84726709,-0.16149402,0.50602156,0
2.1600254,1.9942434,-3.4370012,-0.50692183,0.53037679,-0.67950761,0
4.5582008,0.13292456,-1.2370236,0.84726709,0.16149402,-0.50602156,0
3.9889388,2.2448039,-1.5142969,0.84726709,0.16149402,-0.50602156,0
-3.704628,-2.2262969,2.055954,-0.84726709,-0.16149402,0.50602156,0
1.1984479,2.3255236,-2.1297174,-0.41271934,0.79985076,-0.43577671,0
-0.14648503,-0.62216604,2.770793,0.52605259,-0.12323883,0.84147537,0
1.9524257,0.4545095,-3.5488234,-0.50407797,-0.055884879,-0.86184818,0
-2.4055023,-1.4165792,3.7641244,0.52563584,-0.39203885,0.75499165,0
-2.9330533,0.071937084,3.9193463,-0.84726709,-0.16149402,0.50602156,0
-3.5028682,-2.648839,1.1081773,-0.044574916,-0.92768234,-0.37069982,0
3.7087352,2.0322042,-2.0450404,0.84726709,0.16149402,-0.50602156,0
4.1329112,1.6585672,-1.5945305,0.84726709,0.16149402,-0.50602156,0
-4.6080856,0.36203718,1.088171,-0.84726709,-0.16149402,0.50602156,0
-3.0815086,-0.93432343,-0.64112389,-0.45133266,-0.28342226,-0.8461504,0
0.22250706,1.0896976,-2.6144528,-0.52839619,0.35343322,-0.77193421,0
1.3332069,2.6049743,-1.1859252,-0.22058123,0.97360569,-0.058613658,0
3.3658955,0.60596514,-2.9636233,0.84726709,0.16149402,-0.50602156,0
2.1495199,-1.7242115,-0.7614367,0.24838358,-0.9625439,0.10869527,0
-4.6999359,0.08818388,0.3746317,-0.52752268,0.36723459,-0.76606691,0
4.5186424,-0.52547312,-1.2879,0.84726709,0.16149402,-0.50602156,0
-2.9055493,-0.38114691,3.7271047,-0.84726709,-0.16149402,0.50602156,0
-2.1041,1.4956946,2.8131199,0.13638771,0.85457605,0.50109684,0
0.95855093,2.4516311,-0.51886439,-0.17970484,0.98363417,0.013029218,0
-0.25546288,-1.9398084,-1.409848,-0.16404599,-0.82653099,-0.5384565,0
4.5048127,-0.018317223,-0.40091914,0.53115994,-0.2624554,0.80559683,0
-0.0077911615,-1.9107822,1.5922368,0.40296617,-0.81609058,0.41426343,0
-2.7688558,-0.13650084,4.0605221,-0.84726709,-0.16149402,0.50602156,0
3.9552791,0.56558275,-2.4208689,0.84726709,0.16149402,-0.50602156,0
1.0621368,1.7663186,-2.6028326,-0.4893122,0.60796607,-0.62526035,0
3.3995671,0.061440945,-3.2084703,0.84726709,0.16149402,-0.50602156,0
-3.6219997,1.0902934,3.4413285,-0.84726709,-0.16149402,0.50602156,0
0.66047871,-0.82317162,-2.6769774,-0.37152195,-0.50067639,-0.78185332,0
1.828178,0.54657221,-3.6752195,-0.52019751,0.059672095,-0.85195881,0
-3.9163532,-0.85187149,2.2538517,-0.84726709,-0.16149402,0.50602156,0
-3.445775,-0.47431374,3.3088081,-0.84726709,-0.16149402,0.50602156,0
-4.8188667,-1.2259541,0.59622449,-0.84726709,-0.16149402,0.50602156,0
0.55343235,2.0883131,-2.1359417,-0.42044443,0.78607929,-0.45310649,0
-3.2969115,0.0080547333,3.6402202,-0.84726709,-0.16149402,0.50602156,0
-1.922295,0.076653957,-1.3046346,-0.52117056,0.068800293,-0.85067493,0
-1.6243525,-2.5939932,2.2936916,0.35707727,-0.87844867,0.31752723,0
4.734973,0.46392345,-0.90416747,0.84726709,0.16149402,-0.50602156,0
3.90206,-0.44167852,-0.16025397,0.5143255,-0.48742089,0.70561326,0
-3.3267381,0.70912552,3.3188734,-0.84726709,-0.16149402,0.50602156,0
3.5698493,0.10183144,-2.708231,0.84726709,0.16149402,-0.50602156,0
3.656558,0.072496414,-2.9121621,0.84726709,0.16149402,-0.50602156,0
4.0752959,1.3052335,-1.6900661,0.84726709,0.16149402,-0.50602156,0
3.9070146,0.3933301,0.19481224,0.51976955,-0.055783734,0.85248333,0
-2.7427397,-0.67563534,4.0537248,-0.84726709,-0.16149402,0.50602156,0
0.65771854,1.3151554,-2.9089508,-0.53036606,0.30950448,-0.7892521,0
-1.0512228,-2.3236756,0.80343509,0.17121017,-0.98484659,-0.027639329,0
-4.7249718,-0.35702801,0.77457899,-0.84726709,-0.16149402,0.50602156,0
0.0057240725,-1.3836155,-1.6683941,-0.22061914,-0.75960565,-0.61182201,0
-3.6843991,-0.75632286,2.3177471,-0.84726709,-0.16149402,0.50602156,0
-2.7198632,-1.3552575,3.685225,-0.84726709,-0.16149402,0.50602156,0
-3.6522851,-0.078525066,2.7161551,-0.84726709,-0.16149402,0.50602156,0
-0.16364253,-1.0674233,2.5596478,0.53068697,-0.29785201,0.79350829,0
-0.79079795,-1.4858118,-1.713189,-0.33086538,-0.58480555,-0.74062842,0
4.3778553,0.9561944,-1.5731313,0.84726709,0.16149402,-0.50602156,0
3.5231149,0.82129383,-2.4132435,0.84726709,0.16149402,-0.50602156,0
-3.547431,-2.81899,1.7284842,-0.84726709,-0.16149402,0.50602156,0
2.0423815,1.835482,0.73146713,0.27289075,0.68497747,0.67552674,0
2.6969686,0.75130892,-3.8057859,0.84726709,0.16149402,-0.50602156,0
-1.2547909,2.2386203,0.28838849,-0.23460948,0.96847606,-0.083739102,0
2.9363809,2.1440182,-3.6121511,0.84726709,0.16149402,-0.50602156,0
1.6452495,-0.95610583,1.063311,0.50842404,-0.52234888,0.68458486,0
2.3999798,2.2466125,-3.0405419,-0.43317145,0.76142156,-0.48228562,0
-4.2755785,-0.83180523,1.1814878,-0.84726709,-0.16149402,0.50602156,0
-3.4007964,-2.2034216,2.1590939,-0.84726709,-0.16149402,0.50602156,0
4.4339838,0.046172142,-1.2968322,0.84726709,0.16149402,-0.50602156,0
2.3302243,2.6675358,-1.7008899,-0.22797304,0.97101516,-0.071816742,0
-0.94043756,0.8907302,-2.0161383,-0.53102076,0.27987301,-0.79980499,0
-2.9503489,-1.6657076,-0.2696659,-0.35652775,-0.53326523,-0.76714802,0
3.2938259,-0.82722759,-3.53406,0.84726709,0.16149402,-0.50602156,0
2.3158998,0.77113414,0.98191828,0.47076291,0.21291743,0.85618252,0
-0.32645929,-1.6611184,2.2056355,0.47128603,-0.66798264,0.5759241,0
1.1018822,0.76347995,-3.2060373,-0.53108984,0.24134731,-0.81221604,0
4.3717661,-0.40909386,-1.7405758,0.84726709,0.16149402,-0.50602156,0
-3.9097147,0.43260574,2.619808,-0.84726709,-0.16149402,0.50602156,0
4.1537123,1.0945315,-1.5158248,0.84726709,0.16149402,-0.50602156,0
-3.5017653,1.259408,3.1687341,-0.84726709,-0.16149402,0.50602156,0
-2.2001624,-2.4539223,2.6531312,0.41581184,-0.7944389,0.44268188,0
-2.8376513,0.050891399,3.8901508,-0.84726709,-0.16149402,0.50602156,0
3.9719515,-0.60610151,-2.109746,0.84726709,0.16149402,-0.50602156,0
-2.5912902,-1.7691998,3.741751,-0.84726709,-0.16149402,0.50602156,0
-1.9246397,-1.6904674,-0.83843505,-0.30909371,-0.62484968,-0.71695453,0
1.5790526,-1.4514155,0.72331125,0.46951735,-0.67317349,0.57130605,0
-3.7874308,-0.32545233,2.2170238,-0.84726709,-0.16149402,0.50602156,0
0.14263964,-1.2092961,-1.9031974,-0.27964437,-0.67432559,-0.68343538,0
2.5473752,2.9827709,-1.8575332,-0.20425844,0.9784652,-0.029732406,0
-3.1112518,-1.899487,3.1388869,-0.84726709,-0.16149402,0.50602156,0
0.7426517,2.3529139,-1.4582887,-0.28076476,0.94485945,-0.16855723,0
-2.7392082,0.020302176,-1.1170975,-0.52180529,0.074990191,-0.8497622,0
-4.1150618,-0.44271135,1.8225361,-0.84726709,-0.16149402,0.50602156,0
-0.6027621,-2.0614822,2.1853404,0.41688973,-0.79252136,0.44509855,0
4.8525362,-0.894732,-1.4455161,0.84726709,0.16149402,-0.50602156,0
2.8116126,0.36185265,-3.9945731,0.84726709,0.16149402,-0.50602156,0
-3.0454452,1.7265186,1.1429632,-0.24178469,0.96549904,-0.096702993,0
1.6069632,0.016955495,1.6374952,0.50807488,0.031439438,0.86073893,0
3.7239542,-0.84673309,-3.302161,0.84726709,0.16149402,-0.50602156,0
-0.099012852,-1.1891135,2.6089876,0.53050375,-0.30486599,0.79096305,0
0.32415751,-1.0249259,2.3816257,0.5300675,-0.3183271,0.78593653,0
2.8547764,-0.84553099,-3.3775964,-0.2750026,-0.68167299,-0.6780082,0
1.5556006,-2.0214863,-1.5491536,-0.012106419,-0.94654155,-0.32235417,0
-1.0887263,0.95463538,2.8073511,0.31573135,0.6129725,0.72427779,0
4.7448688,0.88359785,-0.80311191,0.84726709,0.16149402,-0.50602156,0
-5.1127977,-0.012407303,0.63832015,-0.84726709,-0.16149402,0.50602156,0
4.3658915,1.2117419,0.11896691,0.45313689,0.27729464,0.84721571,0
3.1133833,-1.3138165,-3.3728118,-0.1891278,-0.79850417,-0.57150811,0
1.217747,-1.5069473,-2.2118711,-0.14128458,-0.84982288,-0.50777906,0
3.8727822,-1.1674747,-2.4264405,0.84726709,0.16149402,-0.50602156,0
4.3530798,-1.086329,-1.8532414,0.84726709,0.16149402,-0.50602156,0
-1.6565564,0.33169913,3.3211994,0.4192,0.38175666,0.8237313,0
-3.887605,-0.19962454,2.1840465,-0.84726709,-0.16149402,0.50602156,0
-3.7069407,-2.2276058,2.0259516,-0.84726709,-0.16149402,0.50602156,0
2.4126487,-0.51766014,-3.7846022,-0.40228814,-0.42697969,-0.80984735,0
1.1147487,0.46475092,2.1951764,0.47681481,0.1885581,0.85854149,0
-3.1146281,-0.77989388,3.2585001,-0.84726709,-0.16149402,0.50602156,0
-2.3663116,0.099277139,-1.2160063,-0.529109,0.17282484,-0.83076787,0
-4.001617,-1.9149482,1.6189235,-0.84726709,-0.16149402,0.50602156,0
-4.0524373,-1.4256938,1.5227995,-0.84726709,-0.16149402,0.50602156,0
-1.2811661,1.9299972,0.78001159,-0.17133862,0.98483038,0.02741909,0
3.7782927,-0.92036033,-0.045581579,0.48072833,-0.63832629,0.60119855,0
3.4331932,2.689199,-1.9776714,0.84726709,0.16149402,-0.50602156,0
2.5342374,-0.46596885,0.90639162,0.52900362,-0.34244141,0.77645934,0
-0.90036786,0.71717882,3.055927,0.38502759,0.46954593,0.79453146,0
1.4632685,2.6782446,-0.89381492,-0.12764579,0.98664761,0.10115701,0
3.90605,-0.29953098,-2.7590663,0.84726709,0.16149402,-0.50602156,0
3.5723686,0.93559885,-2.784837,0.84726709,0.16149402,-0.50602156,0
3.5984142,-1.0111747,-2.9505665,0.84726709,0.16149402,-0.50602156,0
0.088175356,-1.3636273,2.0132048,0.49520162,-0.58474582,0.64253223,0
-4.1452065,1.1715598,2.603097,-0.84726709,-0.16149402,0.50602156,0
-2.5867243,1.0127772,-0.47868663,-0.4748314,0.65724814,-0.58528614,0
-4.6762867,-1.2808394,0.39211601,-0.84726709,-0.16149402,0.50602156,0
5.0813804,0.66100931,-0.52328479,0.84726709,0.16149402,-0.50602156,0
-3.6348319,0.50384045,2.6596823,-0.84726709,-0.16149402,0.50602156,0
2.765877,0.66819668,-3.851794,0.84726709,0.16149402,-0.50602156,0
2.4886324,0.57990885,-4.0290051,-0.49873945,-0.085890979,-0.86248577,0
1.2972584,2.1006227,-2.8570902,-0.48795968,0.61300188,-0.62138867,0
4.2504892,2.0874903,-1.1713676,0.84726709,0.16149402,-0.50602156,0
3.520679,0.21901989,-2.7920976,0.84726709,0.16149402,-0.50602156,0
3.1269612,-1.2484107,-3.3984721,-0.1773268,-0.81200641,-0.55605811,0
-4.6284428,-0.7442174,1.2608821,-0.84726709,-0.16149402,0.50602156,0
3.4464376,1.4083471,0.12680668,0.38945013,0.45895261,0.79855561,0
-3.7545977,-0.39101219,-0.36152759,-0.51582152,0.022823067,-0.85639203,0
1.7601206,-1.2369032,0.76994091,0.4757005,-0.65454644,0.58760357,0
-4.7367249,0.50094223,1.0173018,-0.84726709,-0.16149402,0.50602156,0
-1.9280829,-1.2981679,3.4954863,0.53115207,-0.26469681,0.8048684,0
2.5791678,2.4763217,-0.1677891,0.1538344,0.83722699,0.52477205,0
-4.5542631,1.0143933,1.4595456,-0.84726709,-0.16149402,0.50602156,0
3.9059954,-0.77054262,-2.7655544,0.84726709,0.16149402,-0.50602156,0
-4.0767078,-1.9958351,1.1407367,-0.84726709,-0.16149402,0.50602156,0
4.6366944,1.3156004,-0.34153259,0.43329054,0.3409124,0.8342889,0
-4.3219304,0.91181278,2.3274376,-0.84726709,-0.16149402,0.50602156,0
4.8804612,0.95345879,-0.69420737,0.84726709,0.16149402,-0.50602156,0
3.2602172,2.7396257,-2.1034594,-0.14739347,0.98672932,0.068118155,0
1.055963,1.1160449,-3.0219116,-0.52647936,0.38161016,-0.75973225,0
-3.636436,0.75060415,3.3701434,-0.84726709,-0.16149402,0.50602156,0
-1.5381541,2.060946,1.2634052,-0.085142791,0.98163342,0.17072245,0
3.4277172,0.93410444,-3.0416353,0.84726709,0.16149402,-0.50602156,0
3.8030791,0.16197729,-2.1530516,0.84726709,0.16149402,-0.50602156,0
-2.6595628,-1.32113,3.8015852,-0.84726709,-0.16149402,0.50602156,0
-3.1150041,-0.20926905,3.9407325,-0.84726709,-0.16149402,0.50602156,0
2.0753407,1.694235,1.020437,0.32907653,0.58821642,0.73872185,0
4.4230757,-1.2492728,-1.314015,0.37383923,-0.85806173,0.35209924,0
-0.91964471,-1.1313109,2.9730468,0.53054094,-0.30352986,0.79145169,0
-3.9685249,-0.051723957,2.4067168,-0.84726709,-0.16149402,0.50602156,0
-1.0939944,-2.2556214,-0.31997669,-0.067728639,-0.91203779,-0.40447474,0
3.0039017,0.4639945,-3.6459546,0.84726709,0.16149402,-0.50602156,0
3.7586558,1.3135586,-2.1412725,0.84726709,0.16149402,-0.50602156,0
0.018842697,-1.0469508,2.2034311,0.5278706,-0.36196858,0.76833022,0
0.079670131,0.12159491,-2.7487385,-0.5062381,-0.042913802,-0.86132538,0
-2.2111347,-2.5609496,0.6610148,-0.042672575,-0.92888606,-0.36789867,0
-4.2013321,-0.33931684,1.9954104,-0.84726709,-0.16149402,0.50602156,0
-4.8825736,-0.72316456,0.70486414,-0.84726709,-0.16149402,0.50602156,0
2.9687457,1.9015262,-3.3852458,0.84726709,0.16149402,-0.50602156,0
-4.7538733,0.48287964,1.1177902,-0.84726709,-0.16149402,0.50602156,0
3.6140442,-0.16528368,-2.8645506,0.84726709,0.16149402,-0.50602156,0
4.1099806,0.01116848,-2.0454075,0.84726709,0.16149402,-0.50602156,0
4.8266582,-0.79332113,-1.3753706,0.84726709,0.16149402,-0.50602156,0
-4.5671186,0.26406574,1.6161352,-0.84726709,-0.16149402,0.50602156,0
0.28083181,-1.5076277,-1.7833498,-0.18619609,-0.80191165,-0.56768703,0
-3.1812639,-1.10287,3.4385266,-0.84726709,-0.16149402,0.50602156,0
4.0580211,-0.93490076,-2.7808342,0.84726709,0.16149402,-0.50602156,0
1.0186832,2.0931182,0.92698038,0.18351895,0.80499256,0.56418753,0
1.7706497,2.2299998,-2.9869292,-0.43334144,0.76107424,-0.4826811,0
-3.4796538,0.90378952,3.3442307,-0.84726709,-0.16149402,0.50602156,0
-1.6076205,-0.6135087,3.5946393,0.50652617,0.041142192,0.86124241,0
-3.6279399,-1.5469079,2.379643,-0.84726709,-0.16149402,0.50602156,0
2.4650993,-1.3480356,-2.6238112,-0.11396366,-0.87520605,-0.47013447,0
-2.59479,-1.9180903,3.5427361,-0.84726709,-0.16149402,0.50602156,0
5.0367441,0.017328262,-0.47085524,0.84726709,0.16149402,-0.50602156,0
-2.9915683,-1.3244729,3.134645,-0.84726709,-0.16149402,0.50602156,0
2.630692,2.1290927,0.25628692,0.2662394,0.69522947,0.66766191,0
-3.1438665,1.6694925,0.85548425,-0.28071517,0.9448908,-0.16846406,0
3.526536,2.3906956,-1.949289,0.84726709,0.16149402,-0.50602156,0
3.5769362,2.1808553,-0.093333244,0.24729496,0.72318459,0.64486355,0
1.444458,2.1576986,-2.861207,-0.4654724,0.68466389,-0.56086612,0
0.50164717,-0.19626731,2.3288517,0.51395029,-0.0086687431,0.85777611,0
3.1091652,0.38063717,-3.6425507,0.84726709,0.16149402,-0.50602156,0
4.5920711,1.2811165,-0.75218701,0.84726709,0.16149402,-0.50602156,0
-2.2956214,-2.4277973,0.71633172,-0.041743338,-0.92946959,-0.36652899,0
0.18783385,-0.51112008,-2.5732462,-0.41749981,-0.38647869,-0.82239169,0
-3.0791512,-2.2066112,3.2614961,-0.84726709,-0.16149402,0.50602156,0
-3.3046107,-1.8994219,3.1309164,-0.84726709,-0.16149402,0.50602156,0
0.72199583,1.5932025,1.4102063,0.22845423,0.74925089,0.62163615,0
4.5623655,1.8850591,-0.90308899,0.84726709,0.16149402,-0.50602156,0
0.73598683,-0.96015048,-2.71875,-0.34516978,-0.55669802,-0.75560898,0
-4.5594673,-0.49808931,1.4183587,-0.84726709,-0.16149402,0.50602156,0
-2.9994931,-2.762553,2.6087055,-0.84726709,-0.16149402,0.50602156,0
4.4072037,-0.72239113,-1.3680849,0.84726709,0.16149402,-0.50602156,0
2.2850585,0.26426458,1.0876334,0.51322001,-0.0033511706,0.8582505,0
-0.42871475,-2.4925237,-0.15705144,0.061577618,-0.97610027,-0.20841348,0
-3.1021183,0.23120213,4.0560555,-0.84726709,-0.16149402,0.50602156,0
1.8052031,1.6556987,1.0930233,0.35611171,0.53414184,0.76673114,0
-2.16922,-2.6939225,0.46634698,0.0038406849,-0.95449799,-0.29819214,0
-0.28410327,-2.1156564,1.6193817,0.37837619,-0.85210228,0.36159778,0
-3.2984447,0.38829756,3.3364012,-0.84726709,-0.16149402,0.50602156,0
2.9825988,-1.321604,0.14231414,0.4417291,-0.74328023,0.50240386,0
-2.7096455,-2.2674594,3.2831473,-0.84726709,-0.16149402,0.50602156,0
-3.8572683,-2.4444277,1.8217765,-0.84726709,-0.16149402,0.50602156,0
-2.6985502,0.059558868,-0.92491519,-0.53091556,0.22818018,-0.81612641,0
-0.33682096,-1.8637687,-1.4081197,-0.15684813,-0.83411241,-0.52882415,0
-4.4130588,-0.002304554,1.2072184,-0.84726709,-0.16149402,0.50602156,0
-3.4888039,-2.2232268,2.595201,-0.84726709,-0.16149402,0.50602156,0
3.8062105,2.3323944,-1.5248427,0.84726709,0.16149402,-0.50602156,0
1.8203387,-2.1842861,-0.96743357,0.14993775,-0.98663288,-0.063827276,0
0.74671483,-1.979475,-1.1062924,0.002576232,-0.95389849,-0.30011803,0
-3.4666696,-0.51009893,3.0841844,-0.84726709,-0.16149402,0.50602156,0
3.2520485,0.17726278,-3.3150313,0.84726709,0.16149402,-0.50602156,0
-1.2359877,-0.13851227,-1.8878742,-0.5090971,-0.024858277,-0.86035001,0
3.5282717,-0.64277434,-0.016579866,0.50779092,-0.52576876,0.68243355,0
2.4062951,2.7989454,-1.4831032,-0.1453824,0.98678815,0.071504176,0
-0.4864918,-1.9733042,-1.2344691,-0.15303671,-0.83804542,-0.52369785,0
3.1084392,1.4391172,-3.4737349,0.84726709,0.16149402,-0.50602156,0
3.2456784,-0.18322039,-3.3156173,0.84726709,0.16149402,-0.50602156,0
4.1044011,1.0722728,-1.813839,0.84726709,0.16149402,-0.50602156,0
2.7131119,2.564589,-3.22966,-0.43602371,0.75552481,-0.48894322,0
3.9800403,0.33140516,-2.0985494,0.84726709,0.16149402,-0.50602156,0
3.4042749,-0.30299902,0.52959633,0.52749628,-0.36762273,0.76589894,0
-0.4962641,2.1597755,0.0079935789,-0.24004704,0.96624243,-0.093556345,0
-4.2553673,1.0408173,1.850282,-0.84726709,-0.16149402,0.50602156,0
-2.0562141,-0.23591566,-1.2519486,-0.51156777,-0.0083011836,-0.85920286,0
3.735755,-1.2953987,-3.2644155,0.84726709,0.16149402,-0.50602156,0
4.7171516,-1.1566615,-1.430796,0.41076156,-0.80320972,0.43142664,0
-3.3964844,0.98878241,3.2712517,-0.84726709,-0.16149402,0.50602156,0
3.7957692,2.843101,-1.7679604,0.84726709,0.16149402,-0.50602156,0
2.443193,0.57938004,1.1797507,0.46801293,0.22356319,0.85497564,0
4.2344122,0.86150122,-1.8508189,0.84726709,0.16149402,-0.50602156,0
-2.6654685,-0.33907843,4.0136781,-0.84726709,-0.16149402,0.50602156,0
-2.5617423,-0.96103668,3.9948452,0.52311963,-0.088497579,0.84765214,0
3.4170923,0.50479698,-2.8619194,0.84726709,0.16149402,-0.50602156,0
4.0948844,-0.79521036,-2.5736117,0.84726709,0.16149402,-0.50602156,0
-4.9041643,0.25966406,0.94467628,-0.84726709,-0.16149402,0.50602156,0
-3.9965501,0.51168108,2.6249785,-0.84726709,-0.16149402,0.50602156,0
-4.5424128,-0.12118483,1.5451477,-0.84726709,-0.16149402,0.50602156,0
3.755183,-0.29767752,-2.7345815,0.84726709,0.16149402,-0.50602156,0
4.1203232,-1.4820266,-1.6569734,0.32401729,-0.91202033,0.25145847,0
-3.9758022,-0.43265963,2.1677754,-0.84726709,-0.16149402,0.50602156,0
3.4749343,-0.011351585,-2.7290804,0.84726709,0.16149402,-0.50602156,0
-2.7326057,-0.90407038,3.887423,-0.84726709,-0.16149402,0.50602156,0
-2.672749,1.1384811,3.4058573,0.21962523,0.76089948,0.61057061,0
2.5220084,1.7111447,-3.8361712,-0.51585406,0.47727132,-0.71141171,0
-0.70424891,-2.6106622,0.89880908,0.20408964,-0.97850949,0.029435456,0
2.4616618,2.0645256,-3.3134618,-0.4571954,0.7066766,-0.53998202,0
2.9112139,-0.33077812,-3.8936872,-0.39072838,-0.45585188,-0.7997064,0
2.7037053,-1.7690198,-1.4475664,0.12841052,-0.98667789,-0.099886358,0
-3.3867874,-1.1870167,2.4609122,-0.84726709,-0.16149402,0.50602156,0
-3.4221933,1.2411394,0.51368129,-0.41685852,0.79257703,-0.4450286,0
0.29736882,0.080124736,2.3061829,0.49390656,0.11098571,0.86240274,0
-3.698215,-2.6068525,1.6978401,-0.84726709,-0.16149402,0.50602156,0
-2.2803066,-0.80139923,4.0031796,0.51051253,0.01549191,0.85973078,0
0.44110286,-1.5373858,-2.2165341,-0.27236015,-0.68580401,-0.67490208,0
-3.5534053,-0.42811537,2.5213528,-0.84726709,-0.16149402,0.50602156,0
3.2075791,-0.48077393,-3.707448,0.84726709,0.16149402,-0.50602156,0
2.5881,1.7323331,0.53291202,0.30116838,0.63866961,0.70809507,0
-4.4308362,-1.748188,0.54500514,-0.84726709,-0.16149402,0.50602156,0
2.6422048,0.61147022,-4.0559855,0.84726709,0.16149402,-0.50602156,0
-4.4275117,-0.70539284,-0.063814029,-0.51562059,0.021263996,-0.85655308,0
-3.605741,0.35434532,2.7501926,-0.84726709,-0.16149402,0.50602156,0
4.3611097,0.42038822,-1.4726514,0.84726709,0.16149402,-0.50602156,0
-3.3000486,-1.2646041,2.5990872,-0.84726709,-0.16149402,0.50602156,0
2.496222,0.32749176,1.206058,0.51241958,0.0023568384,0.85873199,0
0.53286493,1.6401143,1.2556477,0.25266325,0.71544546,0.65138221,0
-4.3792529,-0.30086422,1.4885018,-0.84726709,-0.16149402,0.50602156,0
-3.211781,0.82117414,-0.47093213,-0.51856041,0.45780599,-0.72215557,0
3.1413085,0.45200872,-3.2576253,0.84726709,0.16149402,-0.50602156,0
1.6506956,0.0022851825,1.4674622,0.52238166,-0.080791213,0.84887588,0
-3.543473,0.13675356,3.112452,-0.84726709,-0.16149402,0.50602156,0
-2.6303911,-0.52056789,4.2123194,-0.84726709,-0.16149402,0.50602156,0
-4.4726143,-2.2770491,0.64654469,-0.84726709,-0.16149402,0.50602156,0
-3.5667801,0.31174374,3.0079932,-0.84726709,-0.16149402,0.50602156,0
1.7284622,-1.6970668,-1.7623185,-0.043416917,-0.92841655,-0.36899513,0
0.24659789,-1.8742564,1.4818678,0.44747609,-0.73029673,0.51617008,0
-3.8417027,-1.3520997,-0.11070698,-0.42503521,-0.36522341,-0.82822514,0
-3.4244957,-2.8594141,1.0507556,-0.021737039,-0.94132048,-0.33681315,0
-0.14335847,2.4003143,-0.16205442,-0.1644147,0.98560947,0.039260745,0
1.6085736,1.23245,1.4539716,0.38219976,0.47621286,0.79192448,0
-3.1931729,1.7013187,2.1486349,-0.10114086,0.98428082,0.14478081,0
-1.0554729,-1.2713211,2.9592981,0.52626288,-0.38437557,0.75848716,0
3.8004155,2.267225,-1.888953,0.84726709,0.16149402,-0.50602156,0
-3.8390598,-0.54456377,2.2005808,-0.84726709,-0.16149402,0.50602156,0
-4.2524848,-1.5025077,1.4546489,-0.84726709,-0.16149402,0.50602156,0
-3.3206871,-0.30135441,3.2478056,-0.84726709,-0.16149402,0.50602156,0
-3.3925428,-0.7541976,2.9737442,-0.84726709,-0.16149402,0.50602156,0
1.2464919,2.257174,0.089942336,0.037415624,0.93214834,0.3601377,0
-3.3151834,0.027254105,3.054873,-0.84726709,-0.16149402,0.50602156,0
-2.0924332,0.66709834,-1.4203383,-0.52791631,0.36125556,-0.76863432,0
-4.4101315,-2.6008899,0.87120676,-0.84726709,-0.16149402,0.50602156,0
3.8115387,0.97935152,-2.0782349,0.84726709,0.16149402,-0.50602156,0
-2.3881767,-1.5139502,-0.75032806,-0.322088,-0.60132974,-0.73120558,0
-3.1785409,-0.49473429,3.5470307,-0.84726709,-0.16149402,0.50602156,0
-3.0797024,-2.9688225,1.7429116,0.14105678,-0.98686266,-0.078770638,0
3.5845723,-1.1946511,-0.56277531,0.45322073,-0.71660531,0.53015828,0
-0.41466773,2.2409015,0.56202465,-0.10063547,0.98421109,0.14560455,0
-1.7589827,-1.9550495,3.1074359,0.48075184,-0.63824791,0.60126293,0
-4.995862,-0.035015583,0.72115338,-0.84726709,-0.16149402,0.50602156,0
-0.070729159,0.3072896,-2.4901006,-0.51933509,0.051908746,-0.85299265,0
4.375524,-0.15796471,-1.9743266,0.84726709,0.16149402,-0.50602156,0
0.69520772,-1.4505305,-1.9883963,-0.18540829,-0.80282134,-0.56665808,0
4.7159982,-0.66769361,-1.29335,0.84726709,0.16149402,-0.50602156,0
-4.8713799,-0.78926277,0.39322746,-0.84726709,-0.16149402,0.50602156,0
-0.94851172,1.9935502,0.66338891,-0.093566895,0.98314041,0.15709835,0
-2.6794033,-0.45277214,4.0266118,-0.84726709,-0.16149402,0.50602156,0
-4.8604031,-1.116919,0.74038434,-0.84726709,-0.16149402,0.50602156,0
1.0167248,2.1821022,0.7862801,0.11644703,0.87301207,0.47359246,0
4.5727386,1.744478,-0.61534035,0.38447833,0.47084728,0.79402721,0
-3.1945529,0.27282619,3.377424,-0.84726709,-0.16149402,0.50602156,0
2.8496866,0.55075169,-3.8297648,0.84726709,0.16149402,-0.50602156,0
1.2725949,-1.2661269,-2.522826,-0.23798519,-0.73627436,-0.63345319,0
-4.3741031,-1.1088462,1.3489976,-0.84726709,-0.16149402,0.50602156,0
-3.4922268,1.1195254,3.4806871,-0.84726709,-0.16149402,0.50602156,0
-0.8075757,-2.0796859,-0.81913543,-0.12243295,-0.86763144,-0.48189786,0
-3.1872959,-1.6553826,3.2449269,-0.84726709,-0.16149402,0.50602156,0
-3.5265315,-2.5602992,2.130311,-0.84726709,-0.16149402,0.50602156,0
-4.6238275,0.74701118,0.90415406,-0.46776456,0.67821634,-0.56676167,0
3.067271,2.9004595,-1.5874058,-0.10714823,0.98503989,0.13496447,0
-2.8880692,1.227432,-0.081912458,-0.43285903,0.76205885,-0.48155904,0
3.3895135,-0.51160765,-3.5650802,0.84726709,0.16149402,-0.50602156,0
0.45396036,-0.5853343,-2.7430348,-0.39588901,-0.44315135,-0.80429387,0
-3.5527177,1.1735795,0.65042663,-0.42756498,0.77260458,-0.46932942,0
3.3691683,2.4126165,-2.4768934,0.84726709,0.16149402,-0.50602156,0
4.2447219,1.1085083,-1.2000703,0.84726709,0.16149402,-0.50602156,0
3.4003038,-1.6071472,-2.5347013,0.072099805,-0.9788093,-0.19165993,0
-2.3657098,-0.31079435,4.0868669,0.47305959,0.20382965,0.85712779,0
2.1671267,0.45714474,1.1941166,0.50643295,0.041716807,0.86126971,0
1.3309597,2.0446234,-2.609185,-0.45906681,0.70186347,-0.54465151,0
3.8599224,1.228869,-2.1835973,0.84726709,0.16149402,-0.50602156,0
-4.7229929,0.30447388,1.286752,-0.84726709,-0.16149402,0.50602156,0
-4.7542892,-0.75369692,0.85823327,-0.84726709,-0.16149402,0.50602156,0
-4.6546969,-1.6158872,0.37709284,-0.38437885,-0.47108248,-0.79393578,0
-0.058687091,1.7297845,1.3483423,0.1109947,0.87779957,0.46599114,0
2.9288261,2.2968554,-3.4163547,0.84726709,0.16149402,-0.50602156,0
-2.1171508,-2.4197299,2.095787,0.29526013,-0.93510896,0.19593972,0
0.7937929,-1.8128096,1.4200648,0.45631427,-0.70891136,0.53779352,0
-4.4789534,0.55898142,1.8196969,-0.84726709,-0.16149402,0.50602156,0
0.20449644,-0.6716038,-2.2713993,-0.4119727,-0.40154904,-0.81794679,0
3.6331646,0.94106865,-2.7226279,0.84726709,0.16149402,-0.50602156,0
-4.6146421,0.20872736,1.2996842,-0.84726709,-0.16149402,0.50602156,0
-4.5358076,1.0222926,1.499379,-0.84726709,-0.16149402,0.50602156,0
3.2820253,0.79747152,-3.0739224,0.84726709,0.16149402,-0.50602156,0
-0.37557387,-0.25857437,-2.609931,-0.48666561,-0.14568967,-0.86135423,0
-3.3026042,-1.944926,2.8686621,-0.84726709,-0.16149402,0.50602156,0
3.8519006,1.3999684,0.055167317,0.4241055,0.36789232,0.82752025,0
2.7434461,0.10990477,-3.8763731,0.84726709,0.16149402,-0.50602156,0
4.355052,-0.068643093,-1.2813579,0.84726709,0.16149402,-0.50602156,0
-4.1065969,-0.93385315,1.7046183,-0.84726709,-0.16149402,0.50602156,0
4.0649548,1.1856008,-1.8719391,0.84726709,0.16149402,-0.50602156,0
4.0064325,1.8218846,-1.6382204,0.84726709,0.16149402,-0.50602156,0
3.0572107,2.6403503,-1.5331211,-0.071448624,0.97865278,0.19270024,0
-0.84637821,-1.6661639,2.4052417,0.4948836,-0.58605802,0.64158082,0
-4.0103202,0.20616245,2.4368756,-0.84726709,-0.16149402,0.50602156,0
-0.42818236,1.5503926,1.8066165,0.18032855,0.80862582,0.56000525,0
-2.4504037,-2.5227282,3.0000796,0.42712691,-0.77345663,0.4683238,0
-4.611824,0.95857477,1.4256684,-0.84726709,-0.16149402,0.50602156,0
-2.8366723,-0.96934271,3.9973092,-0.84726709,-0.16149402,0.50602156,0
-2.7793002,1.1439519,-0.24161339,-0.45807612,0.70442283,-0.54217595,0
-3.2532423,0.31142044,-0.35802162,-0.52115607,0.43682843,-0.7331965,0
-5.0899239,0.49316502,0.85225624,-0.84726709,-0.16149402,0.50602156,0
-2.0203857,-1.5533955,-0.97187072,-0.36152864,-0.52261358,-0.77212173,0
-4.1303439,-0.2436223,1.9411254,-0.84726709,-0.16149402,0.50602156,0
4.4631534,1.3647521,-0.66718173,0.84726709,0.16149402,-0.50602156,0
-1.5331547,-1.1876383,3.2162814,0.53105438,-0.27714521,0.80073196,0
4.3071036,1.6855307,-1.4786577,0.84726709,0.16149402,-0.50602156,0
-1.3700109,-0.54962581,-1.9836102,-0.46839511,-0.22209856,-0.85514808,0
3.2562714,2.4028206,-0.21587491,0.21227551,0.77032995,0.60127425,0
-0.08120364,-0.43249834,-2.3256133,-0.44890079,-0.29156327,-0.84467673,0
3.3229442,1.9859788,-2.3311453,0.84726709,0.16149402,-0.50602156,0
3.5287273,-0.55510306,0.39153478,0.52120537,-0.43640277,0.73341489,0
-4.5282331,-0.20804405,-0.03574609,-0.52995789,0.19277576,-0.82582211,0
2.680928,0.52383518,-3.9035685,0.84726709,0.16149402,-0.50602156,0
-4.3646016,0.44622707,1.7017499,-0.84726709,-0.16149402,0.50602156,0
4.3967371,-1.3802547,-1.8001401,0.26951903,-0.95162088,0.14756984,0
0.54630518,2.443109,-0.32318258,-0.12844318,0.98667908,0.099831879,0
-2.8090763,-2.5589027,0.61368299,-0.078819156,-0.90388852,-0.42044351,0
4.4759254,0.14132977,-1.7441932,0.84726709,0.16149402,-0.50602156,0
-3.7629271,1.1747236,3.0039854,-0.84726709,-0.16149402,0.50602156,0
1.0672895,-1.1268835,-2.3281097,-0.26110691,-0.7029826,-0.66154253,0
-3.0376842,0.38609982,3.9994597,-0.84726709,-0.16149402,0.50602156,0
-2.6633728,1.4569893,2.3470507,0.048777938,0.92497903,0.37687439,0
2.6391482,2.7011678,-2.4411366,-0.33555514,0.90122384,-0.27422255,0
-0.23349392,1.7834337,-1.8677129,-0.45106176,0.72183883,-0.52487314,0
3.6802835,-1.2740173,-3.0089941,0.84726709,0.16149402,-0.50602156,0
-3.443356,1.0376558,3.5835395,-0.84726709,-0.16149402,0.50602156,0
4.3010807,-0.9384551,-1.9150367,0.84726709,0.16149402,-0.50602156,0
-3.2316196,-0.099179268,-0.84896076,-0.52765387,0.14651127,-0.83672929,0
3.0341125,1.4246702,-3.35358,0.84726709,0.16149402,-0.50602156,0
-3.3439174,0.35530901,3.489321,-0.84726709,-0.16149402,0.50602156,0
4.0813971,2.2198765,-1.1938264,0.84726709,0.16149402,-0.50602156,0
0.32933307,1.0361035,1.8584468,0.32680309,0.59251922,0.73628849,0
-4.6516714,-1.0300102,1.0637503,-0.84726709,-0.16149402,0.50602156,0
-0.19000387,2.1039371,-1.4481094,-0.38801837,0.83875912,-0.38200074,0
2.3642602,-1.1824923,-2.8727841,-0.19968033,-0.78594273,-0.585168,0
-0.80277359,-0.12148142,-2.1783376,-0.49331215,-0.11395687,-0.86235547,0
3.844276,-1.3867741,-2.7188892,0.84726709,0.16149402,-0.50602156,0
-1.480184,-2.3361135,1.6282901,0.30097163,-0.93093228,0.20683569,0
-4.0029922,1.3201194,1.4413745,-0.3507067,0.88556796,-0.30458838,0
3.3706727,-1.0407519,-3.5241251,0.84726709,0.16149402,-0.50602156,0
3.5993164,0.29663992,0.42367825,0.52895629,-0.16970454,0.83150804,0
2.4673495,2.3610034,-0.824265,-0.018189847,0.96092308,0.27621686,0
-3.7161961,-0.42501736,2.8416982,-0.84726709,-0.16149402,0.50602156,0
2.9930699,0.35605431,-3.3966007,0.84726709,0.16149402,-0.50602156,0
-2.9962463,-1.4720795,3.6953502,-0.84726709,-0.16149402,0.50602156,0
0.82267785,1.9761391,-2.3270555,-0.47460854,0.65793663,-0.58469319,0
4.7934155,0.9612627,-0.33537614,0.84726709,0.16149402,-0.50602156,0
-1.5016873,1.4251593,-0.73639411,-0.47348979,0.66136348,-0.58172631,0
-0.83244634,-0.25500357,-2.2834461,-0.48046243,-0.17319091,-0.85974461,0
3.3715782,-0.12972212,-2.9899766,0.84726709,0.16149402,-0.50602156,0
2.9118974,2.7899895,-1.2173969,-0.059803843,0.97560591,0.21122554,0
-0.63993001,-1.5151119,-1.6813456,-0.33465415,-0.57750636,-0.74464279,0
-2.6611021,-0.54839635,-0.85600853,-0.48957503,-0.13211697,-0.86189401,0
0.42387843,2.2514937,0.63852447,0.0073410869,0.94900906,0.31516272,0
-1.6972811,1.7347751,-0.37483883,-0.38768807,0.83923215,-0.38129663,0
-4.2522044,0.60029745,1.8211702,-0.84726709,-0.16149402,0.50602156,0
-2.9682145,-1.7970209,3.0943182,-0.84726709,-0.16149402,0.50602156,0
2.5154314,2.7375631,-0.76035714,0.0081760883,0.94858223,0.31642452,0
-4.219708,0.75714445,2.0598156,-0.84726709,-0.16149402,0.50602156,0
4.3287687,1.2278237,-1.3119891,0.84726709,0.16149402,-0.50602156,0
3.0923824,-0.80052543,0.25340706,0.49756899,-0.57474387,0.64968801,0
0.74356937,1.7127075,-2.6821446,-0.4854393,0.62212193,-0.61425805,0
-3.4163537,0.73608637,3.5763533,-0.84726709,-0.16149402,0.50602156,0
-1.4857118,1.7540934,2.1126156,0.14177161,0.84934521,0.50844193,0
2.5808735,1.859545,-3.8035474,-0.50416803,0.54436725,-0.67043185,0
-3.1768074,-1.229303,-0.67599678,-0.42998368,-0.35078642,-0.8319031,0
-3.1899872,-1.104447,-0.59466904,-0.45831561,-0.25926775,-0.85013354,0
-2.0033216,1.1584609,-0.68457192,-0.46160471,0.69518697,-0.55103171,0
-4.3412781,0.93883657,0.96779889,-0.42048931,0.78599685,-0.45320791,0
-1.6587757,1.277328,2.3501506,0.13790536,0.85311264,0.50317073,0
1.9180372,-1.3629286,0.47361475,0.46145594,-0.69558316,0.5506562,0
-3.2269988,0.029391289,3.3764162,-0.84726709,-0.16149402,0.50602156,0
-2.9000692,-0.26954126,3.7127368,-0.84726709,-0.16149402,0.50602156,0
2.934967,-0.24469137,-3.7415454,0.84726709,0.16149402,-0.50602156,0
3.9642298,-0.95467663,-2.5470567,0.84726709,0.16149402,-0.50602156,0
-1.0351918,0.22443223,3.1216342,0.42788941,0.35694468,0.83036196,0
4.6237502,0.495924,-0.9606685,0.84726709,0.16149402,-0.50602156,0
-3.4817586,-1.9953563,2.1726987,-0.84726709,-0.16149402,0.50602156,0
-3.4696329,-2.8233197,2.4778972,-0.84726709,-0.16149402,0.50602156,0
0.3898741,1.3213276,1.9471459,0.34949887,0.5478878,0.76004577,0
2.9854057,1.0307117,-3.3790977,0.84726709,0.16149402,-0.50602156,0
-1.2171433,1.9400405,0.81961769,-0.083571672,0.98132479,0.17325458,0
4.9288783,0.094428062,-0.59697568,0.84726709,0.16149402,-0.50602156,0
4.083292,-1.47824,-2.551434,0.84726709,0.16149402,-0.50602156,0
1.0778893,0.5994904,-3.2209134,-0.52128249,0.069877997,-0.85051841,0
-2.7987547,1.7519321,0.63128489,-0.30525583,0.92767024,-0.21505016,0
-3.9254649,-2.1371775,2.0081911,-0.84726709,-0.16149402,0.50602156,0
4.4122572,-0.60688925,-2.0025887,0.84726709,0.16149402,-0.50602156,0
-3.8001518,0.011515617,2.2548473,-0.84726709,-0.16149402,0.50602156,0
-3.7130051,-1.4328976,2.49722,-0.84726709,-0.16149402,0.50602156,0
3.6694162,0.45878792,-2.4931879,0.84726709,0.16149402,-0.50602156,0
0.57220781,-0.056348085,2.4579797,0.50485814,0.05126163,0.8616789,0
0.055059195,2.0717807,0.19633293,-0.083322585,0.98127508,0.17365593,0
-4.4538674,0.31472349,1.2304213,-0.84726709,-0.16149402,0.50602156,0
4.2686496,0.027977467,-0.25491777,0.53100538,-0.28101197,0.79941583,0
3.8009257,1.6925449,-1.893242,0.84726709,0.16149402,-0.50602156,0
3.9996085,-0.80776358,-2.779387,0.84726709,0.16149402,-0.50602156,0
4.5100393,1.4588039,-0.81363732,0.84726709,0.16149402,-0.50602156,0
4.4809031,0.93593264,-1.2101179,0.84726709,0.16149402,-0.50602156,0
4.395278,0.66128016,-1.2300577,0.84726709,0.16149402,-0.50602156,0
-4.0093517,0.48309851,2.5101082,-0.84726709,-0.16149402,0.50602156,0
-3.5320396,-2.8426225,2.1870675,-0.84726709,-0.16149402,0.50602156,0
0.97198457,0.58788925,2.0138924,0.43754157,0.32793772,0.83726591,0
3.228683,0.74322081,-3.5130768,0.84726709,0.16149402,-0.50602156,0
4.4946809,0.16573763,-1.1357872,0.84726709,0.16149402,-0.50602156,0
3.7429159,2.0528495,-2.0087962,0.84726709,0.16149402,-0.50602156,0
-1.6536217,0.79649329,3.1667738,0.38079619,0.47949225,0.79062092,0
3.8396051,1.05336,-2.3874152,0.84726709,0.16149402,-0.50602156,0
-2.5412116,1.546176,0.15501779,-0.40535438,0.81222594,-0.41949558,0
4.0390735,-1.3640828,-2.2877553,0.84726709,0.16149402,-0.50602156,0
-4.3149281,0.9652071,2.0755925,-0.84726709,-0.16149402,0.50602156,0
1.4123013,-1.9782573,-0.6399138,0.21218342,-0.97625178,0.043707907,0
-2.4774494,1.7034662,1.2337373,-0.17728519,0.98400909,0.017200232,0
3.0003781,-0.10686016,-4.0877609,0.84726709,0.16149402,-0.50602156,0
0.60719848,-1.4162717,2.0083487,0.4946655,-0.58695412,0.64092958,0
4.1743727,1.0384121,-1.9140338,0.84726709,0.16149402,-0.50602156,0
3.9325619,2.5555711,-1.6065326,0.84726709,0.16149402,-0.50602156,0
4.1940699,-0.91465712,-2.5421381,0.84726709,0.16149402,-0.50602156,0
-2.9596157,-0.18858433,4.0403128,-0.84726709,-0.16149402,0.50602156,0
3.0957963,0.56554747,-3.9049699,0.84726709,0.16149402,-0.50602156,0
-3.3398223,-0.2649169,2.874069,-0.84726709,-0.16149402,0.50602156,0
0.59867299,1.5715129,-2.5143063,-0.51127332,0.50623089,-0.69449967,0
-2.962985,-1.5125489,3.786453,-0.84726709,-0.16149402,0.50602156,0
0.838287,2.3919582,-1.9256854,-0.36279559,0.87177122,-0.32923275,0
-2.0523062,0.26853192,-1.1800544,-0.52983701,0.18958563,-0.82663774,0
-0.15644997,1.0087546,-2.4913692,-0.52925628,0.33740205,-0.7784906,0
-3.2941945,1.1695948,3.6181645,0.1839546,0.80449319,0.56475747,0
3.3105373,0.60891771,-3.49754,0.84726709,0.16149402,-0.50602156,0
2.4774661,0.84179777,1.1369907,0.47445297,0.19822481,0.85767198,0
3.0168037,0.40367746,-3.9850883,0.84726709,0.16149402,-0.50602156,0
1.6523843,2.6445179,-1.6279081,-0.23989242,0.96630782,-0.09327668,0
-2.3589029,1.4954751,2.1219678,0.036371887,0.93278491,0.35859317,0
4.3643179,-1.3182611,-2.1530871,0.84726709,0.16149402,-0.50602156,0
-4.089941,-1.8506472,1.4435561,-0.84726709,-0.16149402,0.50602156,0
4.3335238,-0.090581417,-2.0311723,0.84726709,0.16149402,-0.50602156,0
3.4425235,1.0303802,-2.5911217,0.84726709,0.16149402,-0.50602156,0
2.6624229,1.0199146,-3.9359841,0.84726709,0.16149402,-0.50602156,0
-4.2994785,1.3155246,2.2429981,-0.84726709,-0.16149402,0.50602156,0
0.19496274,2.1847532,1.0359327,0.11534125,0.87399179,0.47205344,0
-3.4835248,0.66227627,2.9248309,-0.84726709,-0.16149402,0.50602156,0
4.1531553,2.1905119,-1.2854481,0.84726709,0.16149402,-0.50602156,0
-3.8535397,-0.8024292,1.9886796,-0.84726709,-0.16149402,0.50602156,0
-0.071394086,0.53189063,2.3247149,0.44152403,0.31547937,0.83995789,0
-2.8675485,-2.4167547,3.2485297,0.40707767,-0.80939323,0.42328501,0
-2.3076198,-2.5131407,2.5321569,0.35504279,-0.88075835,0.31338358,0
-3.8064482,-0.31257701,-0.41604799,-0.52191561,0.076086707,-0.84959692,0
-0.16885006,2.0577278,-0.61747658,-0.27248174,0.94990551,-0.15307802,0
-3.1487606,-0.13980293,3.5367801,-0.84726709,-0.16149402,0.50602156,0
2.4515231,-1.9206254,-1.143239,0.23348796,-0.96891958,0.081719697,0
0.29726654,1.2593551,-2.5361459,-0.52353108,0.4148497,-0.74418747,0
4.1474137,0.48817396,-1.6629577,0.84726709,0.16149402,-0.50602156,0
-4.3979559,-0.14143991,-0.13705313,-0.53081167,0.2225946,-0.81773502,0
-1.7838647,2.0361323,0.47330469,-0.2213757,0.97333914,-0.060028791,0
-3.4936273,-0.53141642,2.9586012,-0.84726709,-0.16149402,0.50602156,0
-0.017482713,0.23943603,-2.5142016,-0.52179641,0.074901983,-0.84977543,0
-2.9418888,-0.040651321,3.9490414,-0.84726709,-0.16149402,0.50602156,0
-3.1631312,-2.4690037,0.44709253,-0.10962433,-0.878986,-0.46407527,0
-3.4650774,-0.50910044,3.0435319,-0.84726709,-0.16149402,0.50602156,0
-1.9770232,-1.8052161,3.4824643,0.51949555,-0.45054829,0.72603762,0
-4.8562355,-0.0052633286,1.0592721,-0.84726709,-0.16149402,0.50602156,0
-1.5544233,0.56684041,3.4898388,0.39305404,0.45016503,0.80178541,0
2.8481364,-0.23542833,-4.0095215,0.84726709,0.16149402,-0.50602156,0
1.3978589,2.6222789,-0.70888186,-0.086537778,0.98190022,0.16847187,0
-2.0816922,-0.54607296,-1.2221878,-0.49223128,-0.11929885,-0.86225063,0
3.6795964,1.2255826,-2.1369803,0.84726709,0.16149402,-0.50602156,0
-3.1695123,-0.23101425,3.7068174,-0.84726709,-0.16149402,0.50602156,0
-3.1773944,-0.81582022,3.5366921,-0.84726709,-0.16149402,0.50602156,0
-3.9353974,-0.76910591,1.710952,-0.84726709,-0.16149402,0.50602156,0
-4.7114797,0.9332962,1.5420359,-0.84726709,-0.16149402,0.50602156,0
-0.55489314,-1.5079947,-1.4844131,-0.22526735,-0.75349629,-0.6176551,0
-3.829957,1.3618269,2.9268637,-0.84726709,-0.16149402,0.50602156,0
-4.4439125,1.2318635,2.0509481,-0.84726709,-0.16149402,0.50602156,0
-2.7000561,-1.7400272,3.4890416,-0.84726709,-0.16149402,0.50602156,0
-2.8809605,-1.8173985,3.1065865,-0.84726709,-0.16149402,0.50602156,0
1.380922,1.9409676,0.45464474,0.19287103,0.79410172,0.57637054,0
-4.1545196,0.19365501,1.6261684,-0.84726709,-0.16149402,0.50602156,0
-1.9119437,-1.5940535,3.6403649,0.52789295,-0.36162111,0.76847851,0
4.7833357,0.74125767,-0.84923536,0.84726709,0.16149402,-0.50602156,0
-4.7040372,-0.63448906,0.90750414,-0.84726709,-0.16149402,0.50602156,0
4.5166488,-0.11389923,-1.4901514,0.84726709,0.16149402,-0.50602156,0
-3.3288913,1.5904541,0.93969768,-0.36361593,0.87079018,-0.33091944,0
4.52003,-0.99251461,-1.5945188,0.84726709,0.16149402,-0.50602156,0
-4.2163219,-0.37942505,1.7674521,-0.84726709,-0.16149402,0.50602156,0
-4.0030904,0.63744259,2.0815766,-0.84726709,-0.16149402,0.50602156,0
-3.8018289,-0.075012445,-0.49147964,-0.52613622,0.1243573,-0.84125853,0
0.14746189,1.0226408,1.950475,0.34339595,0.56026632,0.75377768,0
-2.1327944,1.3140785,-0.82822388,-0.47356367,0.66113853,-0.58192194,0
-4.3969264,0.29911423,0.27434897,-0.52786624,0.36203623,-0.76830137,0
3.3321486,-1.4944997,-2.628757,-0.0088056326,-0.94825888,-0.3173756,0
-0.62309408,1.8244087,-1.1069884,-0.39600047,0.82697058,-0.39912802,0
-3.3323283,-2.0221286,3.0218229,-0.84726709,-0.16149402,0.50602156,0
-2.126889,1.4280086,2.8595982,0.19253516,0.79449904,0.57593513,0
-3.0841758,1.3699574,3.1349769,0.16070032,0.83007991,0.53398722,0
3.9317245,0.83407307,-1.8941692,0.84726709,0.16149402,-0.50602156,0
4.957037,-0.54781008,-0.79703701,0.84726709,0.16149402,-0.50602156,0
-4.5410247,-1.1206141,1.08046,-0.84726709,-0.16149402,0.50602156,0
-4.0639067,0.72657919,2.2288842,-0.84726709,-0.16149402,0.50602156,0
-1.1229913,1.9178166,-0.92619121,-0.39809945,0.82375199,-0.4036696,0
0.57019639,0.58299398,-3.0823076,-0.52748317,0.14381206,-0.83730495,0
-4.8647375,-0.16110134,0.16161308,-0.53050756,0.20982909,-0.82129991,0
4.8514419,1.1465855,-0.55342901,0.84726709,0.16149402,-0.50602156,0
3.3527179,-1.3945985,-1.075911,0.31279379,-0.92165482,0.22959125,0
4.3089809,-1.1869898,-2.0051451,0.84726709,0.16149402,-0.50602156,0
2.8186758,1.3320076,-3.7016866,0.84726709,0.16149402,-0.50602156,0
-2.9901919,-0.80040884,3.238008,-0.84726709,-0.16149402,0.50602156,0
0.78422439,0.56688422,2.2246981,0.45432773,0.27320817,0.8479054,0
-2.3541195,-0.9163931,-1.0186206,-0.45468602,-0.27197182,-0.8481108,0
-3.4759452,-2.5428948,2.2691336,-0.84726709,-0.16149402,0.50602156,0
-0.80075848,-0.23813319,3.0910432,0.49612164,0.099700518,0.86250985,0
1.0630908,1.7191797,-2.8710194,-0.51022488,0.5123077,-0.69080484,0
4.5254097,-1.2419152,-1.9526243,0.84726709,0.16149402,-0.50602156,0
-2.6258407,0.96494699,-0.33500057,-0.47820312,0.64660233,-0.59432918,0
-2.7305796,-1.6444831,3.9003956,-0.84726709,-0.16149402,0.50602156,0
-2.9655404,-2.8306601,2.5075812,0.31849813,-0.91686171,0.24067229,0
-4.6883068,0.98071432,1.3405263,-0.84726709,-0.16149402,0.50602156,0
-4.4813595,-1.6569982,0.96915609,-0.84726709,-0.16149402,0.50602156,0
4.2550597,-1.4738765,-2.4072082,0.84726709,0.16149402,-0.50602156,0
-1.268343,-1.3246682,3.1518636,0.53011101,-0.31712475,0.78639317,0
3.0152535,1.5774634,0.5403915,0.3421123,0.56283349,0.75244766,0
-2.4291978,0.39171433,-0.92593741,-0.52912247,0.34011054,-0.77740222,0
-1.2093928,-1.0148803,-1.4312932,-0.39465001,-0.4462277,-0.8032012,0
-4.0575352,-0.25945807,1.6666878,-0.84726709,-0.16149402,0.50602156,0
-0.52410531,1.4755452,2.1841202,0.23992634,0.73357928,0.63584328,0
2.7107079,0.72993469,-3.7867317,0.84726709,0.16149402,-0.50602156,0
-3.5158291,-1.0248036,3.0621755,-0.84726709,-0.16149402,0.50602156,0
-1.572399,0.89340639,2.8912356,0.34157264,0.56390899,0.75188738,0
-2.8642845,1.4246483,0.41578078,-0.41504854,0.79578698,-0.44097349,0
2.9067008,2.5205004,-0.3400594,0.092613161,0.89315301,0.44011366,0
-3.0111723,1.5945692,2.7709827,0.0084875226,0.94842255,0.31689516,0
4.7736506,-0.40068293,-0.85886073,0.51049614,-0.51075262,0.69175524,0
3.1232138,1.9039593,-3.1596723,0.84726709,0.16149402,-0.50602156,0
-3.8995719,0.75372481,0.22769907,-0.47850689,0.64562094,-0.59515095,0
0.015210241,-0.12247992,2.3204436,0.5066148,0.040595561,0.86121631,0
3.2950051,-1.8183804,-1.2442371,0.27184653,-0.95027715,0.15189582,0
-4.4079909,-0.51041698,1.2580029,-0.84726709,-0.16149402,0.50602156,0
-2.0801747,-1.8445117,3.1144133,0.48213527,-0.63359505,0.60506415,0
3.9346454,1.0194223,0.23504567,0.44619498,0.30046794,0.84298813,0
-3.8123403,-0.2270751,2.2077484,-0.84726709,-0.16149402,0.50602156,0
2.6011505,-1.6356132,-1.9108822,0.069712698,-0.97822833,-0.19547144,0
-2.5874655,-2.8368344,2.4862633,0.29233867,-0.93717104,0.19038999,0
-0.3792479,1.7996217,-1.3244025,-0.40088305,0.8194046,-0.40971786,0
-2.0814667,-0.8933779,-1.0755563,-0.42452148,-0.36669993,-0.82783616,0
-0.19537261,-0.29938459,2.6732311,0.51799721,-0.040391214,0.85442811,0
-4.2037373,0.85187101,0.80658293,-0.45775807,0.705239,-0.54138291,0
1.9004433,2.5622277,-0.084116101,0.084591925,0.89947712,0.42870134,0
4.3441987,1.2146635,-1.5928962,0.84726709,0.16149402,-0.50602156,0
-1.906939,0.37650299,-1.5185322,-0.52752519,0.14447127,-0.83716494,0
1.6357539,0.63135719,-3.5232308,-0.51746184,0.035943948,-0.85495102,0
-4.0761695,-2.3159647,1.540181,-0.84726709,-0.16149402,0.50602156,0
-2.5716286,-1.2892903,-0.5963186,-0.38200247,-0.47667518,-0.79174161,0
3.5796764,0.66227722,-2.987581,0.84726709,0.16149402,-0.50602156,0
4.0204988,1.2466877,0.32560578,0.45000023,0.28789943,0.84534824,0
3.4944644,0.25998116,-2.8475723,0.84726709,0.16149402,-0.50602156,0
4.0136709,0.47426605,-1.9961026,0.84726709,0.16149402,-0.50602156,0
-1.8453487,-2.3192306,0.052510738,-0.088998139,-0.89603126,-0.43497932,0
-3.2058396,-0.81280482,-0.93583673,-0.4786101,-0.18106361,-0.8591556,0
-1.4618518,1.957034,1.3024914,-0.057166874,0.97485095,0.21539986,0
-2.6115704,-1.1304588,3.9435499,-0.84726709,-0.16149402,0.50602156,0
-0.22266638,1.9580787,0.85691726,-0.0020478368,0.95364636,0.30092224,0
0.52712679,2.2699046,-0.43903279,-0.13547504,0.98685467,0.088113964,0
-3.62872,0.9630599,3.3757594,-0.84726709,-0.16149402,0.50602156,0
4.5751433,-0.12580013,-1.1270775,0.84726709,0.16149402,-0.50602156,0
2.2993119,1.7888422,-3.4209116,-0.49562442,0.58298993,-0.64380038,0
3.8896642,0.513731,-2.1119628,0.84726709,0.16149402,-0.50602156,0
3.7271957,-1.3822572,-1.0619103,0.38679457,-0.84050578,0.37939417,0
0.78327286,-1.0382733,-2.5606925,-0.30001253,-0.64065313,-0.70679271,0
3.0652492,-1.923492,-1.8651717,0.12137103,-0.98631823,-0.11155814,0
-4.1197605,-0.41201782,1.9146235,-0.84726709,-0.16149402,0.50602156,0
-3.1809592,-1.9269741,2.7414067,-0.84726709,-0.16149402,0.50602156,0
-3.1483407,-2.0636048,2.6325226,-0.84726709,-0.16149402,0.50602156,0
-2.1928141,-0.84357566,-1.1374643,-0.42655447,-0.36083299,-0.8293677,0
3.2464702,2.4667368,-2.4923258,0.84726709,0.16149402,-0.50602156,0
-0.5575887,-1.3075185,-1.9383084,-0.36011326,-0.52564967,-0.7707209,0
-4.6156073,1.3381872,1.6488459,-0.84726709,-0.16149402,0.50602156,0
-0.75525993,0.93883467,2.8879192,0.35451299,0.53749764,0.76512527,0
-2.9901509,-1.905129,2.888341,-0.84726709,-0.16149402,0.50602156,0
3.9976449,-1.1423278,-0.97072417,0.43374979,-0.76023775,0.48363161,0
-0.71090567,-1.095366,3.0087705,0.53112978,-0.24632768,0.81069344,0
-0.63289827,0.83751833,-1.9787371,-0.5214746,0.43405905,-0.73461354,0
4.7053843,-0.68759394,-0.8951,0.84726709,0.16149402,-0.50602156,0
2.5779347,1.2796435,-3.8857203,0.84726709,0.16149402,-0.50602156,0
-1.9867747,-2.6027875,0.85553706,0.098411083,-0.98389328,-0.14922765,0
2.7799284,0.44723082,-3.728761,0.84726709,0.16149402,-0.50602156,0
1.9195404,2.3397026,0.32962751,0.18058062,0.80834025,0.56033611,0
2.4315033,2.8501878,-1.7998887,-0.21039301,0.97677571,-0.04054296,0
3.6913054,-0.3095355,-2.978302,0.84726709,0.16149402,-0.50602156,0
-3.7514172,1.4395089,3.0509963,-0.84726709,-0.16149402,0.50602156,0
-2.7173367,-1.6963909,3.9904923,-0.84726709,-0.16149402,0.50602156,0
-3.5269651,0.41151714,3.2760129,-0.84726709,-0.16149402,0.50602156,0
3.7379856,0.061227322,0.44314387,0.52806729,-0.15332936,0.83524555,0
-0.076950192,-1.4472809,-2.1477742,-0.28830385,-0.66030002,-0.69345844,0
-3.4300327,1.1050706,3.2476997,-0.84726709,-0.16149402,0.50602156,0
4.9562101,-0.11869717,-0.43205157,0.53111404,-0.27099973,0.80279315,0
-2.3674486,-2.344018,2.9233992,0.40871137,-0.80667269,0.4268887,0
-3.1810884,0.6153183,3.9429119,-0.84726709,-0.16149402,0.50602156,0
4.2188249,-0.9078126,-2.3976049,0.84726709,0.16149402,-0.50602156,0
-4.9870768,-0.60576057,0.68217796,-0.84726709,-0.16149402,0.50602156,0
-4.124434,0.19531345,1.6630405,-0.84726709,-0.16149402,0.50602156,0
-3.1248608,-2.3130736,0.63654387,-0.17273802,-0.81710428,-0.55000162,0
0.36652529,1.7340395,-2.4120927,-0.50258476,0.55203027,-0.66533524,0
-3.7971313,-1.2098083,2.1662471,-0.84726709,-0.16149402,0.50602156,0
-4.6988211,-0.55874681,0.65726197,-0.84726709,-0.16149402,0.50602156,0
3.6851392,-1.2349806,-0.73646581,0.42954993,-0.76870537,0.47389722,0
3.0634694,1.4316618,-3.2135413,0.84726709,0.16149402,-0.50602156,0
1.2814457,1.7333906,0.78369677,0.24844539,0.72153795,0.64626431,0
-3.8913007,1.4575577,1.1549532,-0.36012974,0.87491864,-0.32376468,0
2.0092938,0.62990499,-3.8006067,-0.51867902,0.046185113,-0.85372066,0
2.8509855,1.2038164,0.73280352,0.4419432,0.31415015,0.84023553,0
1.2318616,0.81915128,1.9997241,0.43523788,0.33500916,0.83566546,0
-2.9646528,-2.8590741,1.9070919,0.22491187,-0.9721179,0.066339612,0
-4.5058436,-0.66862774,1.0139438,-0.84726709,-0.16149402,0.50602156,0
3.2775435,1.1461191,-2.7595687,0.84726709,0.16149402,-0.50602156,0
-2.1839662,-1.4077606,3.7355587,0.53032076,-0.31093973,0.78871822,0
2.9521873,-1.5725622,-2.8397255,-0.043618977,-0.92828882,-0.36929265,0
3.2869613,1.9481184,-2.9857402,0.84726709,0.16149402,-0.50602156,0
0.16098213,2.0868897,-0.36578453,-0.19749928,0.98013979,-0.017880619,0
-3.7118812,-2.0138366,2.4065595,-0.84726709,-0.16149402,0.50602156,0
