-2.715632,1.7744401,1.5001581,-0.76974404,0.43254298,-0.46946859,0
-3.0508602,1.8241448,2.1272194,-0.34645396,0.33462465,0.87635362,0
1.4915953,-2.1798096,0.18370402,0.48853469,-0.73316133,0.47308382,0
0.57587314,-3.2746367,-1.9411583,-0.25713336,-0.93230665,0.25433567,0
-0.69333935,-2.2445219,-1.5299001,-0.61440355,-0.78688878,0.057567954,0
-0.86827326,-2.0398335,-3.0226812,-0.84889734,-0.50937569,-0.14110076,0
1.7649295,-1.2041707,-2.9860702,0.34645396,-0.33462465,-0.87635362,0
-2.7749593,1.9251244,2.2979889,-0.34645396,0.33462465,0.87635362,0
0.23292685,2.6697073,3.2128882,-0.34645396,0.33462465,0.87635362,0
2.4991741,-1.0142727,-2.7497623,0.34645396,-0.33462465,-0.87635362,0
-0.88796902,0.70913482,-3.0445805,-0.68087465,0.55292082,-0.48030019,0
-2.432605,-0.37833452,3.2554357,-0.34645396,0.33462465,0.87635362,0
0.36608458,2.6973853,1.9003538,0.47503591,0.86815453,-0.14369535,0
-1.1159863,2.3923364,0.10546851,-0.28679293,0.85169762,-0.43858969,0
0.3748033,2.7743046,2.6850243,0.62809265,0.77664137,-0.048243344,0
-0.59993649,-1.9646268,-3.2767529,0.34645396,-0.33462465,-0.87635362,0
-0.53048873,0.5281918,3.7527218,-0.34645396,0.33462465,0.87635362,0
-0.43099618,1.4518692,3.2868133,-0.34645396,0.33462465,0.87635362,0
-0.11764973,0.13701749,-4.1773109,0.34645396,-0.33462465,-0.87635362,0
-1.3483238,-1.5752988,-2.6465025,-0.9115507,-0.3406432,-0.23029834,0
0.018909454,-2.3303406,-3.2253344,0.34645396,-0.33462465,-0.87635362,0
-3.0171652,0.75374508,2.5826352,-0.34645396,0.33462465,0.87635362,0
-1.9588571,2.7413163,1.7032967,-0.4094817,0.78655988,-0.46222097,0
1.8271554,-0.45237082,1.4057693,0.83641946,-0.31276259,0.45009109,0
-0.58468693,0.36010432,3.7545075,-0.34645396,0.33462465,0.87635362,0
-2.6339157,0.67914248,0.40644777,-0.92837054,0.011666358,-0.37147284,0
-2.4572661,1.5654545,2.3314128,-0.34645396,0.33462465,0.87635362,0
0.86133313,0.28204465,-3.6734893,0.34645396,-0.33462465,-0.87635362,0
1.1908622,1.3697742,3.3581738,0.93646908,0.17787915,0.30229878,0
-2.5230567,0.97150564,2.8297272,-0.34645396,0.33462465,0.87635362,0
1.7530866,-1.1232111,-3.0106359,0.34645396,-0.33462465,-0.87635362,0
-0.25501496,-1.2583085,3.1259031,0.20999968,-0.88283575,0.4201203,0
1.238017,1.4802461,1.5619235,0.85144532,0.50426984,0.14405763,0
0.85026193,1.1679659,3.8212776,-0.34645396,0.33462465,0.87635362,0
-2.4119272,2.55004,1.9017125,-0.60284007,0.63634175,-0.48130342,0
-1.1575634,1.2793655,2.9253335,-0.34645396,0.33462465,0.87635362,0
-0.75006509,-2.3601782,-0.47845399,-0.40917879,-0.89456087,0.17981386,0
0.51769614,1.8193364,-1.7840285,0.0057724714,0.934955,-0.35471889,0
1.1765954,-1.0072558,-3.3647175,0.34645396,-0.33462465,-0.87635362,0
-0.65406299,-2.6305814,-3.3521018,0.34645396,-0.33462465,-0.87635362,0
-1.3915274,2.7173684,2.2531524,-0.34645396,0.33462465,0.87635362,0
2.5416622,0.78839588,-2.2668805,0.75103092,0.6587047,0.045391202,0
-1.0329279,0.052236319,3.4000244,-0.34645396,0.33462465,0.87635362,0
-2.197228,1.7191625,2.5845292,-0.34645396,0.33462465,0.87635362,0
0.97159958,-1.4203005,1.3475727,0.47325033,-0.74426377,0.47128075,0
-1.3866367,3.1324821,2.0079968,-0.054476678,0.92545855,-0.37491149,0
1.9640207,1.2879851,-1.1547164,0.6139791,0.78719914,-0.057854235,0
1.5539219,-1.1514869,-3.0589886,0.34645396,-0.33462465,-0.87635362,0
-0.42870474,2.1732373,3.2166617,-0.34645396,0.33462465,0.87635362,0
-2.1731038,2.3508453,1.0853862,-0.48969206,0.73230451,-0.47321421,0
-1.3636127,0.67739624,-1.8966733,-0.79821992,0.38557544,-0.46279207,0
-2.0058568,2.7685342,2.2355161,-0.34645396,0.33462465,0.87635362,0
-2.365453,1.7213008,2.6230373,-0.34645396,0.33462465,0.87635362,0
-1.5163398,2.8911653,2.0951772,-0.34645396,0.33462465,0.87635362,0
1.3394989,1.0222392,-3.9561851,0.34645396,-0.33462465,-0.87635362,0
-0.78531516,-0.73314476,-4.1093483,0.34645396,-0.33462465,-0.87635362,0
0.14773679,2.3320589,-0.64622974,0.11945307,0.94234443,-0.31259847,0
-1.2267053,0.71074176,3.2314553,-0.34645396,0.33462465,0.87635362,0
-0.35723138,1.4999125,3.4865198,-0.34645396,0.33462465,0.87635362,0
0.32235467,-0.62296414,3.5972171,0.4861052,-0.73495233,0.47280726,0
0.68228292,1.6028123,3.7070203,-0.34645396,0.33462465,0.87635362,0
0.83278394,-0.98909098,2.6228592,0.58589536,-0.65239608,0.48073483,0
1.6096628,-2.7555916,-2.1555357,0.34645396,-0.33462465,-0.87635362,0
1.3301942,1.3207173,-2.3481419,0.29738212,0.92520458,-0.23571208,0
0.53833389,0.9638176,-3.2558312,-0.14300966,0.90445131,-0.40189037,0
-1.5827658,-0.7694478,3.7545938,-0.34645396,0.33462465,0.87635362,0
1.6815076,1.4227769,-1.3248875,0.51193607,0.85027564,-0.12228048,0
0.36603618,1.2316558,3.5168304,-0.34645396,0.33462465,0.87635362,0
-0.68388224,-2.2134478,-0.060791135,-0.42966139,-0.88706219,0.16885319,0
-1.6600081,0.55912352,3.108356,-0.34645396,0.33462465,0.87635362,0
1.0839832,0.25303066,3.1274049,0.86532271,-0.24670538,0.4362945,0
1.6861289,-1.2607274,1.0685862,0.64299971,-0.5955044,0.48158681,0
-1.7344754,1.0557721,2.863447,-0.34645396,0.33462465,0.87635362,0
1.4834499,-0.36843669,2.433557,0.82755363,-0.33088741,0.45350686,0
-0.18576527,-2.7077587,-2.3728178,-0.62004846,-0.78272027,0.053744614,0
3.3045468,0.014172554,-2.2883811,0.89138186,0.40848085,0.19642186,0
-0.11335602,0.87746263,-3.3328156,-0.35828173,0.81618643,-0.45329228,0
1.1203671,-1.6062346,-2.9487596,0.34645396,-0.33462465,-0.87635362,0
0.85460842,-0.29053664,-3.3280368,0.34645396,-0.33462465,-0.87635362,0
1.7442427,-1.9535099,-0.57383347,0.55290163,-0.68184936,0.47893757,0
0.116184,2.2155495,-0.62436002,0.11642087,0.94232762,-0.31379077,0
1.5937834,-1.5524681,0.34452826,0.67806262,-0.55623347,0.48045337,0
-3.0319123,0.39990616,2.7984414,-0.34645396,0.33462465,0.87635362,0
-2.4508653,1.8280692,2.4219873,-0.34645396,0.33462465,0.87635362,0
-1.4885409,-1.6329167,-1.4781042,-0.85291719,-0.50127816,-0.14578182,0
0.73580456,0.078967094,-3.6078343,0.34645396,-0.33462465,-0.87635362,0
0.11940753,-0.83648205,-3.4269085,0.34645396,-0.33462465,-0.87635362,0
0.13919544,0.52080178,3.7559781,-0.34645396,0.33462465,0.87635362,0
0.1781849,0.700984,-3.8969676,-0.47093344,0.74591273,-0.47099438,0
0.394315,-2.364876,-3.160327,0.34645396,-0.33462465,-0.87635362,0
0.25492775,-1.8089768,1.2231734,0.10808587,-0.91375035,0.39163443,0
1.0035083,2.229507,1.7909861,0.77911633,0.62294191,0.070150018,0
-1.8659729,-0.10766281,-1.4186606,-0.91232932,0.09713915,-0.39776784,0
-1.7505933,-0.85225654,-1.0981885,-0.93300778,-0.21981347,-0.28491825,0
0.69572103,-1.9556113,0.4922379,0.28299445,-0.85340381,0.43773952,0
-2.2659862,2.6124034,2.0347519,-0.34645396,0.33462465,0.87635362,0
0.5317924,-2.5821939,-2.5710864,0.34645396,-0.33462465,-0.87635362,0
0.34713522,-0.94222844,2.5467882,0.47167665,-0.74538481,0.47108659,0
2.9978738,-1.1672435,-2.4684367,0.34645396,-0.33462465,-0.87635362,0
0.88907063,-1.3214364,-3.0396018,0.34645396,-0.33462465,-0.87635362,0
-1.1501316,1.9600167,3.0125923,-0.34645396,0.33462465,0.87635362,0
1.2679303,1.1209409,-2.936239,0.24412143,0.93418527,-0.2601971,0
2.1377773,-0.83124852,0.51250505,0.86404145,-0.24990767,0.43701077,0
-1.2510518,-0.61953449,3.8660774,-0.34645396,0.33462465,0.87635362,0
0.25891685,1.791242,-2.1014979,-0.060900569,0.92421806,-0.37697744,0
0.27125931,-2.5404303,-0.4869653,-0.037880778,-0.93844092,0.34335637,0
-2.0455279,0.64874268,2.9291775,-0.34645396,0.33462465,0.87635362,0
1.2890429,1.6228557,-0.91837883,0.52006233,0.84601557,-0.1174413,0
0.038062066,0.42767215,-4.0745955,-0.48745772,0.73395658,-0.47296166,0
2.3686399,-0.12475276,-0.40673804,0.93755406,0.15440547,0.31169099,0
-0.26243281,-2.796546,-1.4148329,-0.49654901,-0.8580175,0.13131976,0
0.932688,1.8118615,3.6194441,0.89969623,0.38298866,0.20944273,0
2.7425313,-0.65911198,-2.7826018,0.34645396,-0.33462465,-0.87635362,0
-1.0861913,0.88694382,3.1463203,-0.34645396,0.33462465,0.87635362,0
-3.0275922,0.40438795,1.9072204,-0.93742347,-0.15809765,-0.31022942,0
1.0817494,1.2195153,-3.5737276,-0.042584419,0.92763877,-0.37104252,0
-0.79939175,-2.377707,-1.9214156,-0.72072375,-0.69292372,-0.020343602,0
-1.9090266,3.0743606,1.7545772,-0.31137109,0.84022498,-0.44392562,0
-2.32582,2.2563481,0.85998106,-0.62571609,0.61358404,-0.48165748,0
0.32809711,2.2303567,0.18434709,0.27990538,0.92853087,-0.24389136,0
1.6873224,1.6391778,0.64901495,0.80188662,0.59041709,0.091571093,0
-1.2362841,1.0850128,-1.2911845,-0.65873426,0.57833153,-0.48125005,0
0.10023212,1.4714833,-2.7084012,-0.24601042,0.86910343,-0.42911309,0
0.93514603,0.79143095,-4.0579448,0.34645396,-0.33462465,-0.87635362,0
3.4629564,-0.69154024,-2.2470212,0.93742025,0.15818182,0.3101961,0
-1.4319463,2.2679477,2.7693729,-0.34645396,0.33462465,0.87635362,0
-1.076818,-2.0193045,-1.6186506,-0.69128805,-0.72257435,0.0026150942,0
-2.2012136,-0.56936121,3.424696,-0.34645396,0.33462465,0.87635362,0
-3.0577753,0.24796009,1.102699,-0.93782401,-0.14481202,-0.31546074,0
1.0155736,-0.92229545,2.5315933,0.63286197,-0.60620511,0.4816649,0
-1.1281003,-1.5834602,1.6497819,-0.28465146,-0.92766476,0.24168441,0
0.33713698,-2.5440402,-0.43890795,-0.14395297,-0.94211197,0.30282405,0
-1.5686827,1.8221068,-0.35206032,-0.53526664,0.69667852,-0.47762814,0
0.99533385,0.53075624,-3.8914816,0.34645396,-0.33462465,-0.87635362,0
2.3016934,-1.8298936,-2.1628828,0.34645396,-0.33462465,-0.87635362,0
0.75088286,1.51969,3.6691499,-0.34645396,0.33462465,0.87635362,0
-0.84998536,2.4890141,0.72829801,-0.10586882,0.91429585,-0.3909663,0
2.1716685,-0.1575489,-2.9785745,0.34645396,-0.33462465,-0.87635362,0
-0.54623997,1.5103822,3.2679882,-0.34645396,0.33462465,0.87635362,0
-0.75668716,-1.4146855,-3.5280168,0.34645396,-0.33462465,-0.87635362,0
1.2359529,1.6421227,2.8051844,0.89562041,0.39583424,0.20292652,0
1.202001,1.7280972,-0.50059581,0.51883751,0.84666544,-0.11817366,0
1.1674405,0.15332305,2.7470386,0.87254596,-0.22806218,0.43203145,0
1.1403012,-3.0238566,-2.5806317,0.34645396,-0.33462465,-0.87635362,0
1.0865269,1.2829986,-2.7077239,0.101524,0.94210029,-0.31959325,0
0.67839301,1.2003286,3.9630256,-0.34645396,0.33462465,0.87635362,0
1.6046685,1.4231851,-0.81308115,0.64049834,0.76693606,-0.039633036,0
-2.443187,0.56207037,2.9714744,-0.34645396,0.33462465,0.87635362,0
2.9497755,-0.69970798,-2.6089506,0.34645396,-0.33462465,-0.87635362,0
-1.1676707,2.2606444,2.5607762,-0.34645396,0.33462465,0.87635362,0
1.0819199,1.0775032,3.6081655,0.93767512,0.096537918,0.33383477,0
-0.82608926,1.9849172,-0.35367066,-0.3375324,0.82717305,-0.44928443,0
0.10961695,-0.70177555,3.9186773,0.49014041,-0.7319721,0.47326446,0
-0.35312676,0.54295135,3.6871657,-0.34645396,0.33462465,0.87635362,0
1.3599598,1.6775682,1.6911391,0.82191157,0.55856556,0.11164969,0
-2.5019665,-0.6555295,3.3270957,-0.34645396,0.33462465,0.87635362,0
-0.37743807,-2.3605266,-3.2768934,0.34645396,-0.33462465,-0.87635362,0
-1.0874789,2.7727413,2.5169311,-0.34645396,0.33462465,0.87635362,0
-1.4579048,-1.2652538,2.6290679,-0.22352481,-0.93675148,0.26931953,0
0.39218354,2.419585,1.0175117,0.36991394,0.90724391,-0.20017961,0
-1.9236406,0.6908133,2.7568886,-0.34645396,0.33462465,0.87635362,0
-1.3733865,-0.40300417,-2.9964483,-0.90334773,0.13279751,-0.4078328,0
-0.94955993,3.0424113,2.3426802,-0.34645396,0.33462465,0.87635362,0
-0.18934965,-0.38515663,-3.8424127,0.34645396,-0.33462465,-0.87635362,0
0.20868564,2.6877561,2.2487705,0.55526519,0.82612228,-0.095928311,0
0.37352169,-1.3061326,-3.3965678,0.34645396,-0.33462465,-0.87635362,0
-1.3605726,0.84638822,-1.5417411,-0.69558579,0.53516203,-0.47933498,0
-1.4863751,1.6696067,2.8821888,-0.34645396,0.33462465,0.87635362,0
0.28667101,0.42924738,-3.836302,0.34645396,-0.33462465,-0.87635362,0
0.89893651,2.3085485,0.05713439,0.43805403,0.88380778,-0.16429263,0
-0.98443484,1.5643663,-1.3827144,-0.5214721,0.70786107,-0.47644463,0
1.1271038,2.0366151,0.49058497,0.61382395,0.78731239,-0.057958841,0
-0.57345176,-2.0874,0.67647356,-0.27836967,-0.92880535,0.24460328,0
-0.051576614,-1.7099953,-3.3277411,0.34645396,-0.33462465,-0.87635362,0
-0.37826753,-2.6753314,-3.1694562,0.34645396,-0.33462465,-0.87635362,0
-1.3523104,-2.0000911,-0.13811469,-0.63833332,-0.76865935,0.041146934,0
0.36153173,1.6859963,3.6774936,-0.34645396,0.33462465,0.87635362,0
-1.9691515,1.0511059,-0.38626683,-0.80295038,0.37723759,-0.46147859,0
1.8859403,0.51653892,0.70648038,0.92846382,0.25565341,0.26943696,0
-2.646481,-0.43807364,2.9687371,-0.34645396,0.33462465,0.87635362,0
1.7297357,-1.1497171,-2.7920437,0.34645396,-0.33462465,-0.87635362,0
2.3785315,-1.4112403,-0.60303485,0.84428352,-0.29593506,0.44677472,0
-0.92167115,-1.0533099,3.0869231,-0.048097491,-0.93932009,0.3396531,0
1.5360609,1.4663248,-2.3540099,0.41601139,0.89212865,-0.17618403,0
-1.8078997,1.1279457,2.781857,-0.34645396,0.33462465,0.87635362,0
-2.7910712,0.91158152,2.5562172,-0.34645396,0.33462465,0.87635362,0
0.11952114,2.7628946,2.208638,0.52279598,0.84455526,-0.11580294,0
-0.4214263,3.0418558,1.8517581,0.31806719,0.92077571,-0.22584343,0
-0.42454654,0.46300268,3.4386611,-0.34645396,0.33462465,0.87635362,0
0.53858423,-0.22757006,3.8548334,0.69634312,-0.53422779,0.47927764,0
1.6398542,-2.7891943,-2.3362432,0.34645396,-0.33462465,-0.87635362,0
0.033764601,2.746717,1.7390049,0.47521192,0.86807477,-0.14359522,0
0.56866097,1.255832,3.5760922,-0.34645396,0.33462465,0.87635362,0
-2.2356911,1.2025231,0.35268652,-0.8653996,0.24651226,-0.43625122,0
0.44092298,2.5559347,3.2671423,-0.34645396,0.33462465,0.87635362,0
-0.60691571,-2.3810923,-1.8843539,-0.586595,-0.80630863,0.075976849,0
-2.5963793,2.4769993,1.7665788,-0.58837193,0.65009046,-0.48083353,0
2.3761461,-1.1820519,0.03940165,0.80919051,-0.36597443,0.45964482,0
-0.057087183,-2.7299209,-1.5145725,-0.30768591,-0.92306578,0.230822,0
0.21445625,0.4253087,-3.9926934,0.34645396,-0.33462465,-0.87635362,0
1.7935206,1.3353118,-1.542459,0.56166035,0.82224584,-0.091919899,0
-1.6862559,-1.2882965,1.8283658,-0.43019813,-0.88685739,0.16856277,0
-0.015808105,1.9698355,3.3021228,-0.34645396,0.33462465,0.87635362,0
1.9683143,0.98946548,-2.7560658,0.47117001,0.86989385,-0.14588773,0
0.38200474,-1.8791101,-2.9631426,0.34645396,-0.33462465,-0.87635362,0
0.9152624,1.2907808,-3.0391612,0.039998651,0.93863231,-0.34259221,0
-2.9637094,0.10058451,2.7717357,-0.84836245,-0.51043606,-0.14048445,0
2.3143482,0.73505282,-0.434255,0.85685641,0.49311188,0.15045744,0
1.8988073,0.2706461,-3.3008718,0.34645396,-0.33462465,-0.87635362,0
2.9485111,0.0215168,-2.803339,0.34645396,-0.33462465,-0.87635362,0
0.11619878,-2.8162053,-0.67379135,-0.21624732,-0.93754029,0.27249777,0
0.60371614,-1.4689243,-3.3218336,0.34645396,-0.33462465,-0.87635362,0
0.49055481,2.4913225,1.608283,0.47916359,0.86627018,-0.14134395,0
2.1816962,-2.6579139,-2.0649753,0.48293975,-0.73727095,0.4724412,0
-1.0202525,-1.7387675,-3.1499386,-0.92047757,-0.30133116,-0.24883825,0
0.49405777,-1.3969183,-3.0484467,0.34645396,-0.33462465,-0.87635362,0
-0.040951371,0.59972286,3.8259721,-0.34645396,0.33462465,0.87635362,0
1.5513471,-1.5385306,-2.986109,0.34645396,-0.33462465,-0.87635362,0
2.907094,-0.24089432,-1.8725319,0.91011679,0.34625146,0.22758996,0
1.7307651,-2.8893502,-1.9638426,0.26391149,-0.86170983,0.43336684,0
-0.56430066,-0.38726759,-3.973459,-0.85430205,0.27333316,-0.44210511,0
-1.2654155,-0.032474041,3.6493766,-0.34645396,0.33462465,0.87635362,0
1.8106933,0.43661547,-3.6102061,0.34645396,-0.33462465,-0.87635362,0
-0.46584702,3.3076744,2.4810815,-0.34645396,0.33462465,0.87635362,0
0.98812532,-0.66540575,2.0451796,0.69425237,-0.53680217,0.4794341,0
0.90086341,0.72558546,-3.711432,0.34645396,-0.33462465,-0.87635362,0
0.36094141,-1.5651346,1.9964548,0.36508048,-0.81246144,0.45455769,0
0.40560746,0.73749423,-3.7868445,-0.26426458,0.86156011,-0.4334493,0
1.406234,0.98634124,-3.2750568,0.091265321,0.94180423,-0.32353586,0
-0.23400947,-0.58398199,3.9505341,0.41367185,-0.78397048,0.46288866,0
0.74436212,2.1883178,-0.79537362,0.24041104,0.93468416,-0.26185444,0
-1.7918575,0.90726042,3.054538,-0.34645396,0.33462465,0.87635362,0
-0.97570133,-1.4145184,-3.8291128,0.34645396,-0.33462465,-0.87635362,0
0.182374,-2.3960495,-3.0205786,0.34645396,-0.33462465,-0.87635362,0
0.38603437,-1.2388282,2.565408,0.48840737,-0.73325539,0.47306943,0
2.1814675,0.87352252,0.062770367,0.89763713,0.38956833,0.2061162,0
-2.1221652,2.6221888,2.1665695,-0.34645396,0.33462465,0.87635362,0
0.94765639,0.83271885,-4.0147977,-0.089751124,0.91810226,-0.38604778,0
2.8241243,-0.77160978,-0.91379976,0.91329747,-0.092940032,0.3965472,0
2.7423191,-1.0778155,-2.7189412,0.34645396,-0.33462465,-0.87635362,0
0.25328422,-1.7495897,-3.2489431,0.34645396,-0.33462465,-0.87635362,0
0.84960139,0.37532687,3.4611948,0.84482169,-0.29475549,0.44653711,0
2.4945309,0.3770709,-3.2909842,0.34645396,-0.33462465,-0.87635362,0
0.28748059,-1.8007939,-2.9824674,0.34645396,-0.33462465,-0.87635362,0
2.9570832,-0.74249172,-1.7744665,0.9378975,0.14131534,0.31682503,0
1.2900767,0.69921088,-3.8394613,0.34645396,-0.33462465,-0.87635362,0
-0.67175722,-1.4362614,-3.8520858,0.34645396,-0.33462465,-0.87635362,0
-0.28387105,1.7628088,-1.3256419,-0.13400054,0.90697765,-0.39929342,0
1.9285173,1.2060127,-3.1794677,0.32400036,0.9194051,-0.22297448,0
-0.94032395,0.25476241,3.6113527,-0.34645396,0.33462465,0.87635362,0
0.93004167,1.6479573,-1.0629354,0.31550384,0.92135382,-0.22707754,0
-0.19035292,3.203208,2.7236745,-0.34645396,0.33462465,0.87635362,0
-1.5888232,0.86729026,3.1761866,-0.34645396,0.33462465,0.87635362,0
1.6120586,-3.2072365,-2.1932955,0.34645396,-0.33462465,-0.87635362,0
-1.3305621,-1.2531734,2.794193,-0.13791394,-0.94223022,0.30525658,0
2.8857903,0.50767255,-1.5037452,0.86036444,0.48563462,0.15469933,0
2.8934457,-0.56787634,-2.6756074,0.34645396,-0.33462465,-0.87635362,0
-0.27900434,0.80661249,3.3976927,-0.34645396,0.33462465,0.87635362,0
-0.19822019,0.08892417,-4.2980275,0.34645396,-0.33462465,-0.87635362,0
0.77985764,0.83029985,-3.9481816,-0.11896026,0.91099751,-0.39488232,0
0.48610568,1.3680803,-2.8397522,-0.14828432,0.90293074,-0.40339506,0
2.5091343,0.58901596,-2.3962181,0.7147125,0.69924533,0.015553236,0
-0.055623174,-0.65754104,-3.7022176,0.34645396,-0.33462465,-0.87635362,0
-1.1173334,3.0498443,1.8961815,-0.045213819,0.9271698,-0.371903,0
2.9139931,-0.35825849,-1.0775208,0.93597066,0.18572792,0.29910493,0
0.13728166,1.7063375,3.307117,-0.34645396,0.33462465,0.87635362,0
-0.17844844,0.99368596,3.3530903,-0.34645396,0.33462465,0.87635362,0
-0.075184107,-2.8268089,-2.1094892,-0.43223995,-0.88607377,0.16745633,0
-1.8204151,-1.0801051,1.5749929,-0.62666702,-0.7777307,0.049222827,0
-3.3045759,1.1861749,2.2278118,-0.92962617,0.0025673509,-0.36849493,0
1.7773955,-1.3279407,-2.7985675,0.34645396,-0.33462465,-0.87635362,0
0.21989855,-1.0212252,3.1828249,0.43075949,-0.77314132,0.46550909,0
-1.6043797,0.054825783,3.250109,-0.34645396,0.33462465,0.87635362,0
0.68821645,-2.9913445,-1.729561,-0.10282445,-0.94212967,0.31909031,0
-0.41426277,2.377512,-0.48088998,-0.11532378,0.91193235,-0.39380166,0
-0.21470857,1.5981705,3.093987,-0.34645396,0.33462465,0.87635362,0
-1.522778,-1.1763942,2.3230021,-0.3386333,-0.91583121,0.21582487,0
-0.38020468,-1.7898643,-3.4557283,0.34645396,-0.33462465,-0.87635362,0
-2.6410303,2.1261637,1.9185181,-0.34645396,0.33462465,0.87635362,0
-1.4947144,-0.33326626,3.3368118,-0.34645396,0.33462465,0.87635362,0
2.3301907,-0.25676966,-2.9848745,0.34645396,-0.33462465,-0.87635362,0
-0.51218987,0.98523569,3.360903,-0.34645396,0.33462465,0.87635362,0
0.41228175,-0.37907147,-3.8778944,0.34645396,-0.33462465,-0.87635362,0
1.190671,-2.2910478,-2.4615076,0.34645396,-0.33462465,-0.87635362,0
-1.3623525,-0.1411674,-2.1183496,-0.87457907,0.22261995,-0.43075711,0
-0.14293551,-2.4304125,-2.9357507,0.34645396,-0.33462465,-0.87635362,0
1.2298183,-2.7662756,-2.3187265,0.34645396,-0.33462465,-0.87635362,0
0.83237892,-0.66901803,-3.5987265,0.34645396,-0.33462465,-0.87635362,0
-2.610894,2.0545843,2.3587191,-0.34645396,0.33462465,0.87635362,0
-1.7407955,0.73663211,2.9566755,-0.34645396,0.33462465,0.87635362,0
-1.3519726,-0.090604007,-2.1262736,-0.90790439,0.11538211,-0.40298438,0
2.8413444,-1.6232774,-2.1000402,0.34645396,-0.33462465,-0.87635362,0
0.57253098,-2.9268131,-1.9733571,-0.14568102,-0.94207084,0.30212516,0
0.79995203,-2.5915749,-2.6735129,0.34645396,-0.33462465,-0.87635362,0
0.88493562,1.5359333,3.5775547,-0.34645396,0.33462465,0.87635362,0
-2.0945063,0.63570476,-0.41862702,-0.88550997,0.19164896,-0.42325258,0
-2.4285939,-0.86978436,0.72189438,-0.84658116,-0.51393968,-0.13844234,0
1.1013358,-1.4743943,-2.8640432,0.34645396,-0.33462465,-0.87635362,0
1.2113878,-1.31021,-2.8128147,0.34645396,-0.33462465,-0.87635362,0
2.4627461,-1.8292124,-2.1617718,0.34645396,-0.33462465,-0.87635362,0
0.98721457,2.2934151,0.79250062,0.54382509,0.83285105,-0.10302019,0
2.7452464,0.1777668,-2.9385228,0.34645396,-0.33462465,-0.87635362,0
0.15757895,-2.2840254,0.15659195,-0.052507162,-0.93966526,0.33804157,0
-1.2644496,-1.729933,-2.1978381,-0.82480061,-0.55367595,-0.11465895,0
-0.72996002,-0.015837431,-3.7030275,-0.80590731,0.37193877,-0.46062425,0
2.4820867,-0.23905849,-3.0691409,0.34645396,-0.33462465,-0.87635362,0
2.1898527,-1.6660938,-2.402386,0.34645396,-0.33462465,-0.87635362,0
-2.6493859,0.26815152,0.33142698,-0.93721259,-0.08361131,-0.33858782,0
1.3271742,1.3895508,2.7435257,0.9099189,0.34701273,0.22722107,0
-0.41765904,-1.3307626,-3.5576062,0.34645396,-0.33462465,-0.87635362,0
-2.482507,-0.63280749,2.5808532,-0.64602524,-0.76247841,0.035746038,0
2.2521951,-0.87888384,-2.7798264,0.34645396,-0.33462465,-0.87635362,0
-1.9945352,-0.57686812,-0.88409698,-0.93212771,-0.22776243,-0.28153521,0
-0.4775846,2.9365957,1.9413496,0.30997962,0.92257154,-0.22972643,0
3.0739908,-0.67283106,-2.6536748,0.34645396,-0.33462465,-0.87635362,0
0.82311296,1.5916677,3.6036243,-0.34645396,0.33462465,0.87635362,0
1.3286723,-1.3077407,-2.9590454,0.34645396,-0.33462465,-0.87635362,0
0.38334346,-3.1477799,-2.1266074,-0.34551233,-0.91405463,0.21242702,0
-0.86122966,-2.0911248,-3.4017353,0.34645396,-0.33462465,-0.87635362,0
-0.016591787,-2.3983083,-0.38080895,-0.13786018,-0.94223118,0.30527818,0
-0.69578648,-0.73309183,-4.0897717,0.34645396,-0.33462465,-0.87635362,0
0.17377329,-2.0977116,-3.003267,0.34645396,-0.33462465,-0.87635362,0
-2.8755226,0.42380142,2.5411642,-0.34645396,0.33462465,0.87635362,0
2.1977134,-2.4078534,-1.4073777,0.56558597,-0.67079771,0.47973216,0
-0.73359752,3.0288312,2.5898664,-0.34645396,0.33462465,0.87635362,0
2.497344,0.025560141,0.074914217,0.93806636,0.12262842,0.32402712,0
0.72588563,1.445024,3.7599657,-0.34645396,0.33462465,0.87635362,0
-0.24632227,0.4216392,3.9465914,-0.34645396,0.33462465,0.87635362,0
-1.1051822,-0.58114958,3.8369629,-0.34645396,0.33462465,0.87635362,0
-1.4200341,0.46514416,3.0421591,-0.34645396,0.33462465,0.87635362,0
2.0058455,0.84713721,-0.90266311,0.79945976,0.59405661,0.089222014,0
-1.2444136,0.41772723,-2.201915,-0.77085912,0.43079826,-0.4692432,0
-0.70798242,-1.0926914,-3.7209415,0.34645396,-0.33462465,-0.87635362,0
0.099620342,2.2368381,-0.43223783,0.10418189,0.94215846,-0.31856465,0
-1.8875899,0.3801856,3.017909,-0.34645396,0.33462465,0.87635362,0
0.92263532,-2.937422,-1.2016128,0.12999839,-0.9080714,0.39812887,0
0.24830246,2.6994445,2.6948543,0.57544774,0.81359863,-0.083167493,0
2.6084664,-0.9189384,-0.54317331,0.89037168,-0.17679387,0.41950238,0
-0.78443718,-2.0394325,-3.4413083,0.34645396,-0.33462465,-0.87635362,0
-1.4536233,2.2908921,-0.11162394,-0.4492974,0.76089245,-0.46816072,0
1.7129073,-3.0297415,-1.4292228,0.28240043,-0.85366911,0.43760598,0
-1.2035294,0.91777492,3.1957517,-0.34645396,0.33462465,0.87635362,0
-0.51641345,-2.4107485,-2.5686188,-0.73147517,-0.68124872,-0.0290519,0
-0.54048824,1.8222561,-1.5777941,-0.2950269,0.84793794,-0.44040924,0
1.1812296,-2.8857071,-2.3557568,0.34645396,-0.33462465,-0.87635362,0
0.41494989,2.6192586,3.3751144,-0.34645396,0.33462465,0.87635362,0
-0.12826705,1.6169283,3.4334247,-0.34645396,0.33462465,0.87635362,0
0.12081051,-3.1916273,-2.5511775,0.34645396,-0.33462465,-0.87635362,0
-2.5450258,2.6469038,2.0501323,-0.66011506,0.57679063,-0.48120749,0
-1.5036004,3.0145102,1.6817272,-0.15463084,0.90106064,-0.40518996,0
-2.8258638,-0.36169076,1.9735405,-0.84501541,-0.51698399,-0.13666105,0
0.049456835,2.7878859,2.2617028,0.46758562,0.87148464,-0.1479122,0
-1.9606882,2.2457113,2.167558,-0.34645396,0.33462465,0.87635362,0
1.2229403,1.7370554,0.53679955,0.6637004,0.74764192,-0.023093283,0
3.015481,-0.70748067,-1.5941328,0.93767977,0.15036923,0.31328177,0
1.3304126,1.4999323,-0.21796906,0.66049957,0.75039613,-0.025410354,0
-2.2284026,0.25792694,2.8921993,-0.34645396,0.33462465,0.87635362,0
-0.39951706,1.3105149,3.3734956,-0.34645396,0.33462465,0.87635362,0
2.3295627,-1.8439891,-2.4452367,0.34645396,-0.33462465,-0.87635362,0
-1.6927853,1.5816176,2.7974477,-0.34645396,0.33462465,0.87635362,0
1.5102161,-0.54658413,-2.9755301,0.34645396,-0.33462465,-0.87635362,0
-0.39413476,-0.078769684,-4.0711145,0.34645396,-0.33462465,-0.87635362,0
1.204857,0.2366848,-3.637033,0.34645396,-0.33462465,-0.87635362,0
2.3220367,0.9359169,-2.7866833,0.63156313,0.77396733,-0.045850217,0
2.3856001,-2.3174131,-2.2302573,0.34645396,-0.33462465,-0.87635362,0
0.96448898,2.1848435,1.7475674,0.77991319,0.62186134,0.070877612,0
-1.5419378,3.3248596,2.2563124,-0.34645396,0.33462465,0.87635362,0
-1.6300136,-1.1339874,3.4302058,-0.1879698,-0.94002903,0.2846272,0
0.83809888,1.0243747,4.0289035,-0.34645396,0.33462465,0.87635362,0
2.077148,0.99885607,-3.5025187,0.34645396,-0.33462465,-0.87635362,0
-0.2204237,-1.9835584,0.74245006,-0.12323618,-0.94235128,0.31110543,0
1.660617,-1.5083332,-2.986372,0.34645396,-0.33462465,-0.87635362,0
-0.2480464,-2.9276607,-2.6252387,-0.60178465,-0.7959258,0.066007316,0
-0.74399662,1.4058349,-1.7274309,-0.42870462,0.77446669,-0.46520281,0
-1.1829669,-1.509928,1.8499931,-0.30211514,-0.92423856,0.23347211,0
-0.70296186,-0.24849153,-3.9266465,-0.78594869,0.40645802,-0.46591467,0
2.6138816,-1.6959424,-1.3823847,0.77175415,-0.42939246,0.4690603,0
-0.33814788,-2.9683855,-2.543757,-0.59432167,-0.80109328,0.070930898,0
-0.66846716,-0.7997539,-3.8165693,0.34645396,-0.33462465,-0.87635362,0
-1.1454692,0.75632834,3.291923,-0.34645396,0.33462465,0.87635362,0
0.79434323,-2.2424374,-3.0297689,0.34645396,-0.33462465,-0.87635362,0
1.3317032,1.2132326,2.7423151,0.93642181,0.17867327,0.30197698,0
0.092272997,-2.5161507,-0.73632383,-0.26959753,-0.93031752,0.24864858,0
-2.5573545,1.2729049,2.4502094,-0.34645396,0.33462465,0.87635362,0
0.66491646,0.093480587,-3.6750829,0.34645396,-0.33462465,-0.87635362,0
-0.7894907,-1.6116123,-3.4762208,0.34645396,-0.33462465,-0.87635362,0
0.50868928,1.9123615,-1.3745756,0.06719923,0.94066525,-0.33261511,0
2.0529559,0.84793317,0.29343712,0.91705281,0.31744877,0.24132997,0
1.1346442,-1.9395595,-2.7314823,0.34645396,-0.33462465,-0.87635362,0
-1.7598389,-1.5383246,0.95475316,-0.67529583,-0.73740232,0.014599264,0
-2.3188033,-0.30221844,3.1970322,-0.34645396,0.33462465,0.87635362,0
1.7901373,-1.1669693,-2.6179302,0.34645396,-0.33462465,-0.87635362,0
2.094661,0.81771564,-2.9084969,0.53920537,0.835495,-0.10585618,0
1.0163262,-2.6535654,-0.44754079,0.17152369,-0.89586508,0.40988442,0
0.41205797,0.59376669,-3.863121,0.34645396,-0.33462465,-0.87635362,0
2.5711129,-2.5137568,-1.9832566,0.34645396,-0.33462465,-0.87635362,0
-0.013332844,-2.2759228,-0.18445593,-0.16969681,-0.94115591,0.29228145,0
3.0459583,-0.97198462,-1.2390622,0.91071963,-0.10394675,0.3997308,0
-0.8589766,0.13621235,-2.8724711,-0.79741454,0.38697842,-0.46300948,0
2.9558125,-2.075763,-2.0713577,0.34645396,-0.33462465,-0.87635362,0
2.3255873,-1.8381655,-0.90647644,0.66835612,-0.56747448,0.48090824,0
0.61098623,-1.3691411,-3.4558277,0.34645396,-0.33462465,-0.87635362,0
0.7563076,-2.6419952,-0.61789358,0.14083272,-0.90506995,0.40126595,0
1.8042976,1.2467663,-1.0270686,0.62111181,0.78192604,-0.053020954,0
-0.038091302,-0.3092525,-3.9110012,0.34645396,-0.33462465,-0.87635362,0
-1.8966147,-1.3477397,2.5430164,-0.41356874,-0.89300597,0.17748472,0
0.33642149,-3.1649752,-2.8535602,0.34645396,-0.33462465,-0.87635362,0
1.2128631,-2.0083342,-0.018628001,0.39667839,-0.79431444,0.46012029,0
-2.9012008,0.49671984,2.840384,-0.34645396,0.33462465,0.87635362,0
1.6634926,-0.43213987,-3.2073374,0.34645396,-0.33462465,-0.87635362,0
-2.2687323,1.5686016,2.6044197,-0.34645396,0.33462465,0.87635362,0
-0.40648293,-1.6240287,-3.5186362,0.34645396,-0.33462465,-0.87635362,0
-2.6460249,1.5202289,0.63970387,-0.78347009,0.4105531,-0.46649843,0
1.3089516,0.37940979,2.3046978,0.92809582,-0.013576329,0.37209356,0
2.7617435,-0.8288424,-0.82852399,0.90014267,-0.14435688,0.41097951,0
-1.9293928,-1.2379297,1.4819468,-0.60623455,-0.79278272,0.063048005,0
1.9824467,-1.8883684,-0.28646541,0.59104335,-0.6475879,0.48093402,0
-1.9729869,1.6231701,2.3874621,-0.34645396,0.33462465,0.87635362,0
-0.66197252,2.2358031,2.9590125,-0.34645396,0.33462465,0.87635362,0
-2.5798082,0.11613274,2.7247541,-0.34645396,0.33462465,0.87635362,0
-2.1177161,0.87802696,2.6809688,-0.34645396,0.33462465,0.87635362,0
0.87908286,-0.59484816,-3.2653365,0.34645396,-0.33462465,-0.87635362,0
0.45947218,-1.1549263,-3.3478637,0.34645396,-0.33462465,-0.87635362,0
1.1912498,1.7090141,-1.4403616,0.29477334,0.92572498,-0.23694211,0
-1.7556951,0.13061285,3.4012103,-0.34645396,0.33462465,0.87635362,0
0.79883611,-1.7749186,1.2140812,0.30300212,-0.84421611,0.44214106,0
-0.87419701,-2.1884756,-0.42378676,-0.45017308,-0.8789171,0.15763396,0
-1.2276088,0.97640294,-1.7390419,-0.63512856,0.6038366,-0.48165661,0
3.2586384,-1.0714035,-2.4358625,0.34645396,-0.33462465,-0.87635362,0
-0.42481875,-1.0096834,2.9069819,0.22498894,-0.87730289,0.42393339,0
2.9450181,-0.089975357,-1.2587297,0.92997891,0.24493352,0.27412915,0
-2.2732198,1.7102174,0.38141084,-0.715662,0.5096857,-0.47754407,0
-1.1455517,-1.0587735,-2.6890967,-0.93767124,-0.096403778,-0.33388442,0
-0.90672559,1.2650622,-2.2693155,-0.53844184,0.69405347,-0.47788104,0
-0.83416915,-2.3627217,-1.238775,-0.67228544,-0.74010074,0.016819775,0
0.86191511,1.5418246,-2.3044071,0.1631372,0.94146931,-0.29499438,0
0.46813494,-0.017359734,-3.6402531,0.34645396,-0.33462465,-0.87635362,0
1.3412528,1.7886934,2.562094,0.88939965,0.41417313,0.1934647,0
-0.1327498,-1.8599465,-3.3606918,0.34645396,-0.33462465,-0.87635362,0
-1.5479395,2.2441399,2.7099588,-0.34645396,0.33462465,0.87635362,0
-1.2647949,1.9096022,2.8676987,-0.34645396,0.33462465,0.87635362,0
0.38568464,-0.39054871,3.1792178,0.61598682,-0.62342066,0.48156711,0
-1.4642779,1.9262571,-0.39396375,-0.54616618,0.68758535,-0.47846505,0
0.081641972,-0.053544283,4.1488037,-0.34645396,0.33462465,0.87635362,0
-2.3362138,-0.77434397,1.1913257,-0.76318163,-0.64376134,-0.055900753,0
-2.3348687,1.5388482,2.3830113,-0.34645396,0.33462465,0.87635362,0
-1.8211293,1.9061779,0.13051242,-0.61034977,0.62901217,-0.48147362,0
1.3668175,1.7494262,1.7468441,0.81605685,0.56823456,0.10564321,0
2.7329218,-0.70474696,-0.73870146,0.92979294,-0.0013097227,0.36808062,0
-2.8538725,-0.41352081,2.6779776,-0.71782124,-0.69599384,-0.018023849,0
-0.013214827,2.92152,1.4700587,0.2721647,0.92988467,-0.2474685,0
1.5603073,0.027038574,-3.3492656,0.34645396,-0.33462465,-0.87635362,0
-0.7996437,-0.059828997,-3.9814098,-0.8082335,0.36772195,-0.45993376,0
-0.43976188,-1.2724459,2.7505207,0.16166329,-0.89893627,0.40715903,0
2.0709915,1.1615448,-0.33578563,0.8188259,0.56370056,0.10846919,0
1.4760087,-0.079810709,1.8739456,0.88853121,-0.18250585,0.42095584,0
-1.5722959,-1.0641756,3.5307493,-0.22010934,-0.93712938,0.27081409,0
0.28822374,0.8004353,3.9005899,-0.34645396,0.33462465,0.87635362,0
0.65598273,2.0719428,-1.0243368,0.28885597,0.92687446,-0.23972043,0
-1.9652294,0.66879201,2.7513375,-0.34645396,0.33462465,0.87635362,0
0.72703314,0.83174109,-3.6951904,-0.19755715,0.88723278,-0.41688025,0
0.9883306,-0.59600329,-3.3930774,0.34645396,-0.33462465,-0.87635362,0
1.1018128,-2.8967171,-2.2469659,0.34645396,-0.33462465,-0.87635362,0
-1.4754028,-0.30334759,-2.3463311,-0.91527689,0.084090263,-0.39395058,0
1.0346239,-0.099280238,3.2712317,0.81762195,-0.3502444,0.45697176,0
-1.1270957,-1.7550097,-2.5756865,-0.88273466,-0.43240196,-0.18386936,0
2.5093849,-0.73739219,-0.67092502,0.89360368,-0.16647911,0.41684163,0
0.73180544,-0.041214943,-3.5211208,0.34645396,-0.33462465,-0.87635362,0
-2.2870688,-1.1476867,0.1081543,-0.8392182,-0.52798551,-0.13016838,0
0.20730686,2.3603036,3.1255651,-0.34645396,0.33462465,0.87635362,0
-0.19481629,0.3950038,-4.0813718,0.34645396,-0.33462465,-0.87635362,0
-1.1516728,1.6471183,-1.0510197,-0.44731981,0.76222456,-0.46788755,0
2.8185916,-0.53854012,-1.4872174,0.93540275,0.19359311,0.29587716,0
0.40521908,2.8286009,3.0640986,-0.34645396,0.33462465,0.87635362,0
0.85622835,2.5149212,2.6966085,0.7905463,0.60705721,0.080734015,0
2.3843853,0.32461452,-0.52885544,0.89688808,0.39191559,0.20492393,0
2.3830423,0.64358234,-3.3323507,0.34645396,-0.33462465,-0.87635362,0
-1.8980516,-1.3400857,1.7738276,-0.59500277,-0.80062699,0.070483565,0
1.1115078,0.50412905,3.1336756,0.87270665,-0.22763529,0.43193197,0
2.1699178,0.94930971,-0.68581045,0.86027384,0.48583025,0.15458876,0
-0.73147249,3.0045094,1.6805732,0.18251002,0.94040501,-0.28692925,0
-0.68259239,-1.441005,-3.6573672,0.34645396,-0.33462465,-0.87635362,0
1.8891537,-1.4121673,-2.6442621,0.34645396,-0.33462465,-0.87635362,0
-2.0817418,-0.50686198,-0.99691415,-0.93505996,-0.19793093,-0.29408526,0
-1.779729,2.1798823,2.5792296,-0.34645396,0.33462465,0.87635362,0
-1.6806179,-0.75750256,-1.4979022,-0.93775111,-0.099306971,-0.33280748,0
2.5409245,-0.29288387,-2.9376514,0.34645396,-0.33462465,-0.87635362,0
-0.60471368,1.6692407,3.2919805,-0.34645396,0.33462465,0.87635362,0
0.077119112,-1.5626702,-3.1601167,0.34645396,-0.33462465,-0.87635362,0
-1.063055,-1.1106209,-3.4411664,-0.92974025,0.0017091334,-0.36821222,0
-0.88504827,-0.045270443,-3.5141604,-0.81223875,0.36035776,-0.45870528,0
2.7481377,-0.69315648,-0.97618115,0.92602384,-0.027215958,0.37648243,0
-3.2754912,0.92713165,2.2283072,-0.34645396,0.33462465,0.87635362,0
1.6053741,-2.9094248,-1.5461937,0.34488744,-0.82334381,0.45073,0
-0.54007792,2.3534756,-0.41415006,-0.12884307,0.90838397,-0.39779139,0
0.52604473,-1.2308385,-3.4825923,0.34645396,-0.33462465,-0.87635362,0
0.51800752,-1.5154049,1.6062868,0.33360523,-0.82918864,0.4485015,0
1.2284002,-0.42053723,-3.1569407,0.34645396,-0.33462465,-0.87635362,0
2.1041396,-1.2704792,-2.4944894,0.34645396,-0.33462465,-0.87635362,0
-0.35053539,-1.0229735,-3.759541,0.34645396,-0.33462465,-0.87635362,0
2.8184576,0.083980799,-0.67353201,0.93413377,0.20852599,0.28967351,0
1.5903249,-2.389575,-2.5674653,0.34645396,-0.33462465,-0.87635362,0
-1.3218997,1.2792195,-0.90734029,-0.62833112,0.61089915,-0.48166609,0
0.31865633,-0.27456903,-3.9379869,0.34645396,-0.33462465,-0.87635362,0
3.530211,-0.90763235,-2.2999501,0.34645396,-0.33462465,-0.87635362,0
-3.2830935,1.6530499,2.2219124,-0.34645396,0.33462465,0.87635362,0
-3.2201543,1.8530321,2.095382,-0.34645396,0.33462465,0.87635362,0
2.4673865,-0.15029073,-0.52466261,0.93655056,0.0702914,0.3434121,0
-0.96471858,-1.4144517,-3.4490407,-0.93690097,-0.16999552,-0.30547982,0
-2.5045509,0.19462037,-0.0045847893,-0.92779833,0.015616208,-0.37275481,0
-1.6123933,-1.0278056,2.5549843,-0.41800189,-0.89140713,0.17512158,0
2.113672,-0.21518278,-2.8649535,0.34645396,-0.33462465,-0.87635362,0
-1.3000996,-1.2420559,-2.3013325,-0.93153518,-0.23277894,-0.27938545,0
2.3227434,-1.7022392,-0.27553165,0.76925284,-0.43330923,0.46956697,0
0.75821102,-1.0723283,-3.2509885,0.34645396,-0.33462465,-0.87635362,0
-1.5785224,-1.0678346,3.5169327,-0.26947618,-0.93033791,0.24870443,0
0.58769411,1.2245598,-3.5786133,-0.15007269,0.90240836,-0.40390253,0
1.3904574,-2.5466676,-0.79988468,0.22098637,-0.87880576,0.42292488,0
2.905422,0.026127815,-2.8514528,0.34645396,-0.33462465,-0.87635362,0
-1.154125,0.58799839,3.4273534,-0.34645396,0.33462465,0.87635362,0
2.8864965,-1.5825896,-2.1590419,0.34645396,-0.33462465,-0.87635362,0
0.88272238,0.944561,4.0222511,-0.34645396,0.33462465,0.87635362,0
1.3591881,-0.65958977,-3.1339703,0.34645396,-0.33462465,-0.87635362,0
0.81964183,1.3774185,3.5992074,-0.34645396,0.33462465,0.87635362,0
0.68893933,-3.0635076,-2.0150542,-0.15885949,-0.94164789,0.29675376,0
-0.6160053,0.89923358,3.5718887,-0.34645396,0.33462465,0.87635362,0
-0.40076685,-0.41885614,4.0468073,-0.34645396,0.33462465,0.87635362,0
-2.5949702,1.9045134,2.1797488,-0.34645396,0.33462465,0.87635362,0
-1.395721,1.1967933,3.0753455,-0.34645396,0.33462465,0.87635362,0
-0.25945044,2.8248882,2.8425078,-0.34645396,0.33462465,0.87635362,0
-0.14161301,2.1733942,-0.68746305,-0.11233276,0.91269052,-0.39290875,0
-1.0909448,1.5797155,2.829195,-0.34645396,0.33462465,0.87635362,0
1.3411419,-0.14779019,-3.2656169,0.34645396,-0.33462465,-0.87635362,0
0.049921155,-1.1288822,3.037852,0.41051602,-0.785923,0.46238664,0
-0.27721998,-0.53185201,4.0087452,-0.34645396,0.33462465,0.87635362,0
1.8934462,-0.14817023,1.3525288,0.91153288,-0.10053331,0.39874905,0
2.3727148,-2.4185421,-1.3741627,0.55503309,-0.68001521,0.47907984,0
-1.2512146,0.99093497,-1.7975198,-0.65798908,0.57916105,-0.48127216,0
-0.38356596,-1.1433446,3.2490091,0.27651978,-0.85627151,0.43627489,0
-0.086477339,0.26713872,3.9505825,-0.34645396,0.33462465,0.87635362,0
1.841352,-2.5721052,-1.1142782,0.4238798,-0.77755356,0.46447408,0
-2.6139846,1.6541886,0.79684293,-0.76925588,0.43330446,-0.46956638,0
-0.7299192,2.4767458,2.8932621,-0.34645396,0.33462465,0.87635362,0
-2.3017406,0.47081661,-0.10560966,-0.92815709,0.013153166,-0.37195611,0
-2.3422029,2.4440691,1.9894379,-0.34645396,0.33462465,0.87635362,0
1.6055897,0.092106998,2.4114826,0.90480936,-0.12734571,0.40632892,0
1.1837666,2.1226037,2.3062871,0.82187045,0.5586347,0.11160702,0
2.8469372,-0.76430702,-2.634577,0.34645396,-0.33462465,-0.87635362,0
-2.8622806,0.081466675,1.2876894,-0.90647095,-0.35984364,-0.22095865,0
1.0373445,-2.6102877,-0.32830524,0.26330012,-0.86196864,0.43322396,0
0.34890512,0.049479723,-3.7440238,0.34645396,-0.33462465,-0.87635362,0
1.6599365,0.059141636,-3.4457026,0.34645396,-0.33462465,-0.87635362,0
0.76991916,0.55131197,-3.9733772,0.34645396,-0.33462465,-0.87635362,0
-1.5545686,-0.36163163,3.2951045,-0.34645396,0.33462465,0.87635362,0
1.6767607,-1.3906076,-2.6235094,0.34645396,-0.33462465,-0.87635362,0
2.0562477,-0.12170172,0.52043891,0.9359501,0.060583115,0.34688169,0
-2.5356488,1.6171217,2.2939026,-0.34645396,0.33462465,0.87635362,0
-1.9115114,2.7147577,2.1693618,-0.34645396,0.33462465,0.87635362,0
-2.3935232,0.28609133,2.7675455,-0.34645396,0.33462465,0.87635362,0
-0.79941857,1.0690821,-2.2977643,-0.60427237,0.63495409,-0.48133987,0
-1.9009347,2.3451512,2.5268445,-0.34645396,0.33462465,0.87635362,0
2.0577946,-2.8724425,-1.7061789,0.34733832,-0.822052,0.45120567,0
0.11964965,-3.0330951,-2.417623,-0.50490475,-0.85386544,0.12643099,0
1.688395,-1.8769596,0.0012227297,0.57940918,-0.65837008,0.48045167,0
-0.92635274,-2.0403016,-3.4070742,-0.9129892,-0.33485031,-0.23307896,0
-0.65124178,-0.51707697,-3.7028637,-0.84786272,0.28801906,-0.44516701,0
0.021579981,-0.24835658,-3.6902897,0.34645396,-0.33462465,-0.87635362,0
-2.500932,1.8218768,0.80124569,-0.78576624,0.40676078,-0.46595815,0
3.286232,-0.17424583,-2.7000926,0.87462884,0.45294237,0.17282176,0
1.9565136,-0.52697563,-3.1341815,0.34645396,-0.33462465,-0.87635362,0
-0.32372451,-0.27744985,3.9232833,-0.34645396,0.33462465,0.87635362,0
2.6321676,-0.55845928,-2.9002059,0.34645396,-0.33462465,-0.87635362,0
-2.3009796,2.1970356,1.3825988,-0.68560326,0.54729217,-0.48002025,0
-0.34441829,0.68127608,3.7785921,-0.34645396,0.33462465,0.87635362,0
0.63801748,0.71068335,-4.1637278,0.34645396,-0.33462465,-0.87635362,0
-1.6538,-0.28393662,-1.7546568,-0.92881131,0.0085431635,-0.37045455,0
0.069908142,-2.5207443,-0.80620956,-0.29851741,-0.92497545,0.23517576,0
-2.0932336,-1.0454628,-0.26345956,-0.85199118,-0.50316405,-0.14469576,0
1.3690926,1.7142742,-1.5242682,0.33816642,0.91594958,-0.21605471,0
-0.2029556,0.24299312,3.6294484,-0.34645396,0.33462465,0.87635362,0
1.6629086,0.45670938,-3.4989984,0.34645396,-0.33462465,-0.87635362,0
0.38574672,1.9658673,3.1873112,-0.34645396,0.33462465,0.87635362,0
-1.6157357,-0.30198431,3.6313438,-0.34645396,0.33462465,0.87635362,0
3.0562019,-1.5916691,-2.3383794,0.34645396,-0.33462465,-0.87635362,0
-0.011487961,-1.0877143,3.0423479,0.36261243,-0.81382084,0.45410103,0
0.13280463,2.6287756,2.9084988,-0.34645396,0.33462465,0.87635362,0
0.24858427,2.2060566,-0.15134966,0.13902473,0.94221163,-0.3048104,0
2.2414584,-0.28132725,-3.1324103,0.34645396,-0.33462465,-0.87635362,0
-2.5888128,1.2515042,0.50094879,-0.81634939,0.35265815,-0.45739034,0
2.7877162,-0.90878654,-0.48531199,0.87739301,-0.21493372,0.42893469,0
0.94220734,1.7248758,-1.857163,0.2265439,0.93640637,-0.26799425,0
-1.0860484,0.09927702,3.5798473,-0.34645396,0.33462465,0.87635362,0
-1.7622023,2.5085762,2.2642527,-0.34645396,0.33462465,0.87635362,0
-0.81018168,0.55010962,3.3484678,-0.34645396,0.33462465,0.87635362,0
-2.7613642,1.0807815,2.3074851,-0.34645396,0.33462465,0.87635362,0
-1.3463345,0.090285897,-2.6477015,-0.83113319,0.32367101,-0.4521665,0
-0.022500753,1.2447453,3.7358503,-0.34645396,0.33462465,0.87635362,0
1.516099,-0.72268128,1.9696168,0.80153739,-0.37974566,0.46187767,0
1.0989987,-1.6050227,-3.1312628,0.34645396,-0.33462465,-0.87635362,0
-0.25948691,2.8129365,1.4875129,0.3246944,0.91924191,-0.22263783,0
-2.2223601,2.4716914,2.0912442,-0.34645396,0.33462465,0.87635362,0
1.4257839,0.27908039,-3.7228985,0.34645396,-0.33462465,-0.87635362,0
-0.17232656,1.5991042,3.1842442,-0.34645396,0.33462465,0.87635362,0
1.3702261,0.50990099,2.5375776,0.93269366,0.023030311,0.35993332,0
-1.3654089,0.32448769,3.4379463,-0.34645396,0.33462465,0.87635362,0
2.1628346,-0.17368007,0.37887585,0.91851699,-0.068721682,0.38936323,0
2.4693952,-0.43305969,-2.7094483,0.34645396,-0.33462465,-0.87635362,0
-0.57562876,-1.1698265,-3.7763562,0.34645396,-0.33462465,-0.87635362,0
1.9037203,-1.0702066,-3.0123363,0.34645396,-0.33462465,-0.87635362,0
0.32498232,0.093737364,-4.0005579,0.34645396,-0.33462465,-0.87635362,0
0.98541486,0.67362356,-3.8862286,0.34645396,-0.33462465,-0.87635362,0
2.4005446,-2.6277668,-1.8825138,0.34645396,-0.33462465,-0.87635362,0
-2.557646,-0.58312082,3.1325862,-0.34645396,0.33462465,0.87635362,0
0.54267001,-3.0237775,-2.0597754,-0.22398067,-0.93670011,0.26911974,0
2.8833973,-1.9044633,-2.3237531,0.34645396,-0.33462465,-0.87635362,0
2.470566,-1.285501,-2.5208011,0.34645396,-0.33462465,-0.87635362,0
-1.6834443,2.0970595,0.134583,-0.48045355,0.73908025,-0.47214913,0
-2.4821434,2.2459393,2.1376131,-0.34645396,0.33462465,0.87635362,0
-1.9995878,-1.1478544,0.36960709,-0.80833238,-0.58053005,-0.097894609,0
-1.1999459,-1.5860289,-2.7238963,-0.92486328,-0.27803776,-0.25946635,0
-1.2371085,-1.6152097,1.889541,-0.33482701,-0.91678762,0.21769485,0
1.9933008,-1.7871356,-2.3461788,0.34645396,-0.33462465,-0.87635362,0
0.60546839,-0.21583557,-3.53882,0.34645396,-0.33462465,-0.87635362,0
-2.6082664,0.044689417,-0.010986567,-0.93467325,-0.043746471,-0.35280579,0
1.1623288,0.30390143,-3.4814978,0.34645396,-0.33462465,-0.87635362,0
2.4338739,-1.1482048,-2.7649076,0.34645396,-0.33462465,-0.87635362,0
2.3871768,0.22031546,-0.33804274,0.93655902,0.17633486,0.3029241,0
0.58622539,-1.400884,1.4963052,0.39215004,-0.79700094,0.45935586,0
-0.39270544,2.348542,2.7648339,-0.34645396,0.33462465,0.87635362,0
0.84482145,1.7249309,3.2147918,0.91690153,0.31812689,0.24101132,0
3.2855597,-1.1062465,-2.21557,0.9332583,0.028481662,0.35807502,0
0.43086195,-3.1044626,-1.9760544,-0.18463516,-0.94026268,0.28603476,0
-1.0999925,3.1823502,2.3087404,-0.34645396,0.33462465,0.87635362,0
2.3009753,-1.1210117,-2.5072267,0.34645396,-0.33462465,-0.87635362,0
-0.16195035,-1.3690889,2.5758078,0.28679603,-0.85169625,0.43859041,0
2.8502669,-1.1983299,-2.3985977,0.34645396,-0.33462465,-0.87635362,0
2.5043089,0.5913105,-2.9674749,0.64711523,0.76158917,-0.034975529,0
-3.149873,1.5811286,2.2495112,-0.34645396,0.33462465,0.87635362,0
0.66927409,2.3880653,3.1689782,-0.34645396,0.33462465,0.87635362,0
2.8234844,-2.464134,-1.9055932,0.34645396,-0.33462465,-0.87635362,0
2.3581038,0.1017909,-3.0343335,0.34645396,-0.33462465,-0.87635362,0
1.4411414,-2.8517222,-2.2930379,0.34645396,-0.33462465,-0.87635362,0
1.0841358,-2.8615942,-2.3608012,0.34645396,-0.33462465,-0.87635362,0
1.5983284,1.0512931,1.9344977,0.92202652,0.29349568,0.25244242,0
-0.25873566,2.7197969,2.6592212,-0.34645396,0.33462465,0.87635362,0
1.7514274,-0.8576498,1.1472046,0.76581395,-0.43863636,0.47024152,0
2.4831426,-0.71296406,-2.561512,0.34645396,-0.33462465,-0.87635362,0
3.1106427,-1.1341209,-2.3789988,0.34645396,-0.33462465,-0.87635362,0
0.84974766,-0.97137475,1.8819144,0.57225448,-0.66485333,0.48009872,0
0.16449404,2.063823,3.431762,-0.34645396,0.33462465,0.87635362,0
-3.0974269,-0.031458378,2.8296671,-0.34645396,0.33462465,0.87635362,0
2.485225,-2.0659153,-2.1538239,0.34645396,-0.33462465,-0.87635362,0
1.8360852,0.80372,-3.6361446,0.34645396,-0.33462465,-0.87635362,0
1.2398015,-0.10552263,-3.2506208,0.34645396,-0.33462465,-0.87635362,0
2.9586792,-0.9978199,-2.6094162,0.34645396,-0.33462465,-0.87635362,0
-0.14619422,1.815717,3.0511267,-0.34645396,0.33462465,0.87635362,0
2.8230081,-1.6886096,-1.7008144,0.8644619,-0.24886006,0.43677694,0
-3.3560543,1.4336171,2.0692492,-0.89524317,0.16109934,-0.41543549,0
1.9740405,0.45875072,-3.5994663,0.34645396,-0.33462465,-0.87635362,0
1.8131371,-1.3242166,-2.5534475,0.34645396,-0.33462465,-0.87635362,0
0.95705402,-0.45830649,2.241365,0.70744747,-0.52029127,0.47834611,0
0.63667631,-2.3917243,-2.8579628,0.34645396,-0.33462465,-0.87635362,0
-0.10814214,1.9378316,3.1904576,-0.34645396,0.33462465,0.87635362,0
0.85676336,-1.0511699,-3.1936734,0.34645396,-0.33462465,-0.87635362,0
2.1088262,-1.8051543,-2.3896453,0.34645396,-0.33462465,-0.87635362,0
1.5450677,0.12607116,1.8298829,0.91971242,-0.062731236,0.38754845,0
0.24563265,2.1365099,3.1709301,-0.34645396,0.33462465,0.87635362,0
-2.0451751,0.26139736,2.9503672,-0.34645396,0.33462465,0.87635362,0
1.4420528,0.057437897,-3.3176808,0.34645396,-0.33462465,-0.87635362,0
0.42683393,0.32811379,-3.8740182,0.34645396,-0.33462465,-0.87635362,0
-3.0722265,0.033596516,2.5538392,-0.34645396,0.33462465,0.87635362,0
1.8668721,-2.3737502,-2.4481661,0.34645396,-0.33462465,-0.87635362,0
-2.2265148,0.071634054,-0.5464555,-0.93631989,-0.066368252,-0.34481901,0
1.0086842,2.2104692,0.81253886,0.6217857,0.7814216,-0.052561998,0
-1.2196887,-2.0771866,-2.1030707,-0.79716301,-0.59746093,-0.087014019,0
-2.5375476,1.4674873,2.5420556,-0.34645396,0.33462465,0.87635362,0
-0.18926787,-1.3128322,2.1896877,0.19542432,-0.88796878,0.41631812,0
2.7852757,-1.9533241,-1.9912257,0.34645396,-0.33462465,-0.87635362,0
-1.980667,1.8841369,2.6014616,-0.34645396,0.33462465,0.87635362,0
-1.7247767,2.0922861,2.4572244,-0.34645396,0.33462465,0.87635362,0
-1.493287,-1.5951735,0.044827819,-0.61722285,-0.78481692,0.055662334,0
-1.4070421,1.373064,2.8892679,-0.34645396,0.33462465,0.87635362,0
0.89426327,1.8349589,3.2112675,0.92426449,0.28143543,0.25793225,0
0.84371948,-0.60865724,3.1150401,0.64601266,-0.5922702,0.48154294,0
-0.23519665,-1.2183322,2.7950182,0.1928907,-0.88883632,0.41564775,0
-1.6539702,-1.220449,3.188751,-0.298944,-0.92488891,0.23497409,0
1.6666679,-2.6906404,-2.4545114,0.34645396,-0.33462465,-0.87635362,0
-2.0668421,-0.56359625,3.4333904,-0.34645396,0.33462465,0.87635362,0
0.95292592,-1.3305535,-3.1605177,0.34645396,-0.33462465,-0.87635362,0
-3.0690413,1.4460216,1.9566462,-0.90268731,0.13522285,-0.40849787,0
1.7536858,1.5058082,-1.0109477,0.6340698,0.77201641,-0.044114411,0
-1.09747,-1.6166213,-3.1643395,-0.91383201,-0.33137298,-0.23473996,0
0.9187851,0.58486795,3.7326291,0.89968121,-0.14597934,0.41141665,0
1.5358487,1.9345236,-0.17657375,0.60245275,0.79545695,-0.065564156,0
1.7113378,-2.7121003,-2.0558031,0.34645396,-0.33462465,-0.87635362,0
2.6380982,-1.1919475,-0.43182063,0.88131869,-0.20389038,0.42626989,0
0.19688988,1.5483003,3.350709,-0.34645396,0.33462465,0.87635362,0
-1.6371202,-1.434382,0.72103131,-0.68377805,-0.72964287,0.0082830787,0
