1.5539011,-0.62341738,2.8954246,0.68132722,-0.65883708,0.31894675,0
1.9369237,0.55022192,3.6760755,0.78852832,-0.55514318,0.264649,0
1.4754285,2.5979855,1.1849968,0.59940004,0.71017015,-0.36929357,0
0.036565423,1.2294483,5.0264578,0.017068207,0.44991314,0.89290917,0
0.21395469,3.1329451,1.0198227,0.072905302,0.89010203,-0.44989234,0
-1.8660079,-2.5240083,-4.233984,-0.017068207,-0.44991314,-0.89290917,0
-1.4252212,-1.7132463,-4.8756661,-0.017068207,-0.44991314,-0.89290917,0
0.43524981,2.9356313,4.0186911,0.017068207,0.44991314,0.89290917,0
-2.1420496,-1.5169476,-1.4853436,-0.96454275,-0.22782835,0.13323408,0
0.23213267,3.5597277,4.0067167,0.017068207,0.44991314,0.89290917,0
-1.3960552,1.6074084,-0.63840508,-0.55732441,0.74571824,-0.36509424,0
-0.17790371,-0.79632711,-5.2904215,-0.017068207,-0.44991314,-0.89290917,0
1.0918313,2.0493474,4.4034648,0.017068207,0.44991314,0.89290917,0
1.7828473,2.650583,2.0536854,0.78685486,0.54495382,-0.28962862,0
1.6876936,-0.087953568,-3.0442748,0.81175822,0.51514685,-0.27508581,0
-1.420566,0.72285247,-2.7836926,-0.5937767,0.72307014,-0.35298565,0
-1.2033827,-2.5806956,-4.2701297,-0.017068207,-0.44991314,-0.89290917,0
-1.5750878,-3.7321212,-3.6162169,-0.66983724,-0.65786463,0.34428465,0
-0.08341372,1.1805844,5.1512146,0.017068207,0.44991314,0.89290917,0
0.059115887,-2.3865507,0.014024138,0.023586571,-0.89297187,0.44949394,0
-1.6307312,2.108253,0.492598,-0.76755786,0.57819641,-0.27666575,0
2.4447694,1.9072471,4.608891,0.017068207,0.44991314,0.89290917,0
-0.66117549,-2.6764271,-0.55648661,-0.17133522,-0.87851369,0.44593483,0
1.486186,3.9332337,3.6196172,0.017068207,0.44991314,0.89290917,0
2.3960097,-0.030539751,-0.96242154,0.97586638,0.18694738,-0.1128518,0
-0.55990779,0.89283228,5.1651344,0.017068207,0.44991314,0.89290917,0
1.9397266,-0.7844494,0.071433604,0.9258846,-0.34421277,0.15574116,0
1.6204827,-0.91853076,1.7332182,0.69405878,-0.64815962,0.31332326,0
0.67883945,3.9110467,3.6203907,0.017068207,0.44991314,0.89290917,0
2.0119481,0.89624834,4.3613911,0.86862272,-0.4489519,0.20961098,0
-0.52878225,0.17653751,-4.6008406,-0.25814629,0.86474431,-0.43078718,0
1.3944796,2.1835442,0.9811964,0.65659833,0.66844821,-0.34936428,0
1.7337308,-0.46306777,2.5832405,0.80161887,-0.53990811,0.25672227,0
2.3864141,0.86488986,2.9675472,0.9667781,-0.23522586,0.10004389,0
-2.3465168,-0.82318193,-1.3566562,-0.99146587,-0.10782066,0.073280036,0
-0.66564536,-0.77946281,-5.0367351,-0.017068207,-0.44991314,-0.89290917,0
0.21213692,-0.72169065,3.5468917,0.030334175,-0.89286119,0.44930911,0
0.44659352,-3.9028668,-3.4972978,-0.017068207,-0.44991314,-0.89290917,0
-0.41323185,-2.1873686,1.0103259,-0.12292057,-0.88532066,0.44843924,0
-1.6202468,-0.65544748,-4.1038265,-0.79956782,0.54234105,-0.25798732,0
-0.003494978,-3.633873,-3.6356897,-0.017068207,-0.44991314,-0.89290917,0
-1.818801,2.1549482,4.4389544,0.017068207,0.44991314,0.89290917,0
1.7040786,-2.69222,-1.8206301,0.72021389,-0.62498277,0.30114514,0
1.4286504,0.72575951,-2.6734385,0.60503012,0.7063328,-0.36746764,0
0.15296221,3.9582164,3.7374012,0.017068207,0.44991314,0.89290917,0
1.446735,0.09335804,-4.1328087,0.63969123,0.68143535,-0.35558498,0
-0.0058448315,2.8030543,0.27193427,-0.051814079,0.89223737,-0.44858426,0
1.3998873,3.2927914,4.0483484,0.017068207,0.44991314,0.89290917,0
1.7229202,0.1784997,-2.0423751,0.8489936,0.46518564,-0.25062346,0
-0.53804404,-0.69434237,3.0848999,-0.27243227,-0.85715729,0.43710643,0
2.0023985,3.1775241,3.9223559,0.017068207,0.44991314,0.89290917,0
0.45404077,3.2763243,3.7886782,0.017068207,0.44991314,0.89290917,0
1.8825037,3.4561028,3.8098521,0.82852733,0.49353218,-0.26451528,0
1.932375,-2.2131376,-4.510622,-0.017068207,-0.44991314,-0.89290917,0
2.1522384,2.8986993,3.9835198,0.017068207,0.44991314,0.89290917,0
1.0486255,2.8223047,4.0011306,0.017068207,0.44991314,0.89290917,0
0.70588326,-3.4620414,-3.8175049,-0.017068207,-0.44991314,-0.89290917,0
1.1679072,-3.3583834,-2.5358326,0.59601712,-0.7216059,0.35220501,0
2.2335465,-1.5690722,-3.2552626,0.99420357,0.087172121,-0.06292814,0
1.7392898,-3.498744,-3.2154818,0.70632541,-0.63750494,0.30772024,0
-1.0205791,-3.2597725,-2.0520279,-0.39797419,-0.81619173,0.41886467,0
2.4101157,1.0887284,2.9977057,0.98613179,-0.15502262,0.05926168,0
-0.37141705,-3.6376545,-2.7756395,-0.17471838,-0.87795675,0.44571888,0
1.6297667,-2.7148185,-4.414197,-0.017068207,-0.44991314,-0.89290917,0
0.94543695,2.826952,4.2536211,0.017068207,0.44991314,0.89290917,0
1.6434025,-0.51258016,2.890934,0.73144639,-0.61447901,0.29563785,0
0.62384909,-0.29929066,-5.2771683,-0.017068207,-0.44991314,-0.89290917,0
2.1966784,-0.42605275,0.76674354,0.95609969,-0.26863557,0.11708221,0
2.1088057,-2.3074002,-4.4792118,-0.017068207,-0.44991314,-0.89290917,0
-1.5228156,2.2290916,4.578712,0.017068207,0.44991314,0.89290917,0
0.59817147,1.8967962,4.4101648,0.017068207,0.44991314,0.89290917,0
-0.19602227,2.3646626,4.4228573,0.017068207,0.44991314,0.89290917,0
1.424149,1.6227365,4.7341604,0.017068207,0.44991314,0.89290917,0
-1.3173443,1.8428326,4.7606277,0.017068207,0.44991314,0.89290917,0
-1.6283089,2.5494256,4.3432984,0.017068207,0.44991314,0.89290917,0
0.18334402,-0.10300589,4.487319,0.06419903,-0.89168966,0.44807154,0
2.3711214,-1.7788701,-3.6105604,0.99983221,-0.013616651,-0.01225096,0
1.6409392,-3.5320177,-3.5074024,0.78675503,-0.55715507,0.26569664,0
-0.45211709,1.3039532,5.0852118,0.017068207,0.44991314,0.89290917,0
-0.58774763,-0.39051771,-5.2781897,-0.017068207,-0.44991314,-0.89290917,0
0.20952475,2.094471,4.3382258,0.017068207,0.44991314,0.89290917,0
1.9607346,-1.8755689,-1.0465406,0.87036091,-0.44623068,0.20820664,0
-2.0507288,0.89610469,1.0584559,-0.98031014,0.18323851,-0.073590159,0
-1.3949935,1.1527478,-1.8284848,-0.56607664,0.74047685,-0.36228591,0
1.8785346,-2.8217435,-4.070271,0.94542199,-0.29790053,0.13203216,0
-2.2750692,1.0165679,0.41587621,-0.95818692,0.2624791,-0.11394024,0
1.9089168,-2.4100661,-4.2252903,-0.017068207,-0.44991314,-0.89290917,0
1.8456213,2.2934594,4.5810804,0.017068207,0.44991314,0.89290917,0
-0.77063501,-1.2768402,-4.7412219,-0.017068207,-0.44991314,-0.89290917,0
0.1459856,4.1038575,3.5635333,0.017068207,0.44991314,0.89290917,0
1.5038234,2.7524853,1.465945,0.54367185,0.74530381,-0.38593119,0
0.59591913,4.247364,3.0098507,0.18803751,0.87566,-0.44481611,0
-1.7222666,1.232064,-1.0650513,-0.80804813,0.53216678,-0.25269869,0
-1.2157435,-2.504353,-1.0477517,-0.53096163,-0.75263596,0.38938278,0
-1.8828468,-1.108974,-5.1710978,-0.017068207,-0.44991314,-0.89290917,0
0.94599926,1.0654411,5.2368174,0.017068207,0.44991314,0.89290917,0
-1.836611,-0.24982691,2.4552977,-0.80114162,-0.52816784,0.28144372,0
0.51545167,-3.7479677,-2.536675,0.27128327,-0.86162376,0.42896366,0
1.4102676,3.3025899,2.3376362,0.61136228,0.7019496,-0.36538011,0
0.79507118,1.5204396,4.6236563,0.017068207,0.44991314,0.89290917,0
0.67800927,2.4311671,-0.12764263,0.31992036,0.84363347,-0.43119979,0
-1.7127426,2.4086189,4.5663056,0.017068207,0.44991314,0.89290917,0
2.3049037,0.091416478,-0.65966344,0.9769783,0.18243247,-0.11059809,0
-1.4299465,-2.8854604,-1.70382,-0.6426276,-0.67922115,0.35452545,0
-1.4801795,-2.2167397,-4.2567134,-0.017068207,-0.44991314,-0.89290917,0
-1.7740675,1.2359385,5.0717688,0.017068207,0.44991314,0.89290917,0
0.29469228,2.6743557,0.60024059,0.066550016,0.89054751,-0.44999534,0
0.41787636,1.3789376,-1.7875316,0.19462985,0.87446141,-0.44433826,0
-1.2940254,1.5745254,-1.1260161,-0.62635183,0.7009061,-0.34119508,0
-1.0705118,-3.4648983,-2.5180931,-0.43097779,-0.80250776,0.41260058,0
-1.1634367,-3.2336621,-4.1353059,-0.017068207,-0.44991314,-0.89290917,0
2.1657822,-1.4249611,-3.5461993,0.98334754,0.15404895,-0.096418202,0
1.9827195,0.43548584,1.8345366,0.97297519,-0.21315113,0.088802516,0
0.2865802,-0.63426399,-5.1902657,-0.017068207,-0.44991314,-0.89290917,0
-2.0114081,0.45809841,2.1247234,-0.98178023,-0.16149199,0.10013843,0
1.9322237,2.4587326,4.3402901,0.017068207,0.44991314,0.89290917,0
0.76498508,2.1883507,-0.47196841,0.39978456,0.81547427,-0.4185378,0
-1.1460948,-3.5501096,-3.6442127,-0.017068207,-0.44991314,-0.89290917,0
-1.4222972,-1.9891164,0.40554261,-0.54534149,-0.74432272,0.38546878,0
-0.12417531,1.2492075,4.9824357,0.017068207,0.44991314,0.89290917,0
0.96822083,2.1418729,4.6501226,0.017068207,0.44991314,0.89290917,0
0.81010413,-3.8479662,-3.3681219,0.33832061,-0.84296048,0.41827831,0
0.43822217,-4.1510849,-3.2925122,-0.017068207,-0.44991314,-0.89290917,0
-2.0994096,0.58511609,-0.36220276,-0.97794259,0.19344792,-0.078779638,0
-0.026103497,-3.9537582,-3.5317731,-0.017068207,-0.44991314,-0.89290917,0
-1.0309387,0.36505079,-3.818547,-0.3502664,0.83913875,-0.41612431,0
-0.79910326,1.695137,-1.7745579,-0.33713692,0.84333086,-0.41848755,0
0.95176691,-1.1408195,-4.842896,-0.017068207,-0.44991314,-0.89290917,0
-0.4815414,-3.7254672,-2.5714917,-0.18366224,-0.87643284,0.445122,0
-1.4176927,1.6512358,-1.0514884,-0.63053471,0.69791901,-0.33961004,0
0.78568125,-3.583003,-4.0059614,-0.017068207,-0.44991314,-0.89290917,0
-1.5179605,0.085125685,-3.9092827,-0.60046977,0.71867037,-0.3506408,0
-1.7254399,2.2603736,4.4044785,0.017068207,0.44991314,0.89290917,0
0.85353255,-3.8908052,-3.6782923,-0.017068207,-0.44991314,-0.89290917,0
-0.92744541,3.7138605,2.8449147,-0.44833386,0.80167222,-0.39537132,0
-0.65659702,-0.045504093,4.717412,-0.28701615,-0.85324931,0.43541598,0
-2.1757534,-1.4667903,-0.6258955,-0.89778519,-0.38618979,0.21175218,0
1.0777509,-3.6757231,-3.7640994,-0.017068207,-0.44991314,-0.89290917,0
0.97507328,-1.3610983,-5.0036154,-0.017068207,-0.44991314,-0.89290917,0
0.93700385,0.51418877,5.2698269,0.017068207,0.44991314,0.89290917,0
-0.7662431,-1.4565048,-4.9593534,-0.017068207,-0.44991314,-0.89290917,0
1.0545844,1.0494127,5.1872506,0.017068207,0.44991314,0.89290917,0
-1.9929541,2.6502438,4.2817469,0.017068207,0.44991314,0.89290917,0
1.2827449,3.3747823,3.8353305,0.017068207,0.44991314,0.89290917,0
0.84918499,3.9337049,3.7066474,0.017068207,0.44991314,0.89290917,0
-0.18286192,0.70924568,5.0272284,0.017068207,0.44991314,0.89290917,0
-0.08483988,-0.87596321,-4.9877949,-0.017068207,-0.44991314,-0.89290917,0
-1.8052642,1.533004,-0.33629933,-0.78385139,0.56042379,-0.26739916,0
-1.0298529,-0.87448788,2.2680967,-0.47988084,-0.77977294,0.40207988,0
-1.8078812,2.3584096,1.6459285,-0.75475043,0.59152913,-0.28362852,0
0.77980936,1.8855333,-0.81774795,0.25580221,0.86135328,-0.43890274,0
0.12262857,-1.4716187,-4.7029686,-0.017068207,-0.44991314,-0.89290917,0
-2.014123,0.99732876,3.3578775,-0.96654832,-0.2211515,0.12990814,0
1.87122,2.5282235,1.7327335,0.74632442,0.58854938,-0.31082058,0
-0.18639302,1.6071626,-2.2000971,-0.10612667,0.88880956,-0.44581884,0
2.0157142,-2.1185517,-2.0643191,0.86857283,-0.44902974,0.20965117,0
-0.12622309,3.6597016,2.0857911,0.020095468,0.89270437,-0.45019412,0
1.2949858,-2.5987387,-4.1122932,-0.017068207,-0.44991314,-0.89290917,0
0.29512835,-1.2998221,1.8919551,0.081630528,-0.89068502,0.44723213,0
-0.61642981,1.4644351,4.9733415,0.017068207,0.44991314,0.89290917,0
-0.97725844,-3.5585492,-3.6265652,-0.017068207,-0.44991314,-0.89290917,0
-1.7045386,2.1630445,4.5990577,0.017068207,0.44991314,0.89290917,0
1.1899425,-1.9916897,-4.4324899,-0.017068207,-0.44991314,-0.89290917,0
-0.25677037,-3.8723557,-3.6437619,-0.017068207,-0.44991314,-0.89290917,0
-1.4329156,2.1428914,0.46187782,-0.68338025,0.65714061,-0.31805274,0
-0.25758123,3.3165441,3.9778101,0.017068207,0.44991314,0.89290917,0
-0.47469819,-0.1034565,-4.7711768,-0.18636101,0.87882119,-0.43925232,0
-1.6241077,2.0672536,1.4192362,-0.82939386,0.50511986,-0.23866239,0
-0.8177917,3.1561904,3.8517594,0.017068207,0.44991314,0.89290917,0
1.999885,1.1908108,0.9450568,0.94125891,0.29399446,-0.16612834,0
-1.6082315,-0.58310843,-4.3828979,-0.67399347,0.66481864,-0.32210094,0
1.0999849,3.909162,3.7631037,0.017068207,0.44991314,0.89290917,0
-0.1029501,1.2293572,4.9816437,0.017068207,0.44991314,0.89290917,0
0.45168304,-3.750802,-3.8850281,-0.017068207,-0.44991314,-0.89290917,0
-2.0638728,1.7524333,4.568471,0.017068207,0.44991314,0.89290917,0
1.1943612,1.9131575,-0.47486615,0.56758809,0.73083961,-0.3791002,0
-1.576654,1.1555012,-0.45017865,-0.80102921,0.54060948,-0.25708687,0
1.4421136,3.4443996,2.947473,0.58357859,0.72066104,-0.37427723,0
-0.86933011,0.69265604,5.1159267,0.017068207,0.44991314,0.89290917,0
0.1655395,3.8433218,3.525445,0.017068207,0.44991314,0.89290917,0
-1.3353586,-2.5681229,-4.3797226,-0.017068207,-0.44991314,-0.89290917,0
-0.83868051,-3.2323055,-4.1129436,-0.017068207,-0.44991314,-0.89290917,0
-1.9813129,0.56122065,3.0677278,-0.93317336,-0.31349838,0.17580128,0
-0.67150331,0.5435605,-3.9447923,-0.29118913,0.85656506,-0.42603421,0
1.3653702,2.5226622,4.4722004,0.017068207,0.44991314,0.89290917,0
1.5131476,2.3622451,4.4562306,0.017068207,0.44991314,0.89290917,0
0.37124419,-3.378355,-3.9305036,-0.017068207,-0.44991314,-0.89290917,0
2.1215329,2.5745375,4.0523248,0.97410452,0.19388446,-0.11631346,0
-1.5860595,2.0158532,1.0775573,-0.79644847,0.54600787,-0.25989452,0
0.32081747,3.2968695,3.7221897,0.017068207,0.44991314,0.89290917,0
-2.3262076,-2.0155308,-2.6189151,-0.97961158,-0.17126441,0.10502106,0
1.5775728,3.3761184,2.936722,0.70444286,0.62834197,-0.33007038,0
-2.265738,-1.6386151,-2.8901622,-0.99867046,-0.035773456,0.037115097,0
0.96341491,2.5204263,4.1217136,0.017068207,0.44991314,0.89290917,0
2.0400951,-1.7695017,-3.7492781,0.99708313,0.058783144,-0.048678756,0
-0.57692051,-1.627799,-4.6278353,-0.017068207,-0.44991314,-0.89290917,0
0.75040579,-2.7415385,-4.0456324,-0.017068207,-0.44991314,-0.89290917,0
0.88948512,2.7476625,0.82650328,0.43704861,0.79984838,-0.4113766,0
-1.1317775,3.9037716,3.0889812,-0.5510416,0.74940687,-0.36707288,0
-1.6989352,2.0171518,4.8066335,0.017068207,0.44991314,0.89290917,0
2.0277851,-0.92984235,-0.40112096,0.9446665,-0.29984772,0.13302779,0
-1.6037465,-2.3497744,-4.2810063,-0.017068207,-0.44991314,-0.89290917,0
-1.7936116,2.185488,1.3661803,-0.83212578,0.50149739,-0.23678496,0
1.5478847,-0.33792019,-3.9473963,0.76023352,0.57420731,-0.30385995,0
0.68517661,2.8988714,3.937475,0.017068207,0.44991314,0.89290917,0
-2.2046647,1.5734925,4.3126955,-0.96914464,-0.21218669,0.12544072,0
-1.3741624,-0.76561499,1.8776938,-0.64714831,-0.67577839,0.35287714,0
1.8099904,1.336524,4.8480034,0.017068207,0.44991314,0.89290917,0
1.3243203,-1.6536191,0.61534649,0.54015696,-0.75565404,0.37042874,0
1.8797059,0.49081242,-1.0699937,0.91454786,0.35392007,-0.1958127,0
1.1382773,0.062793732,-4.1199598,0.4783175,0.78054732,-0.40244031,0
-1.7141093,-0.82169175,1.0962383,-0.8103618,-0.51688761,0.27593613,0
-2.2393496,0.71391308,0.16478372,-0.97979152,0.18552768,-0.074753523,0
-2.1523695,-0.21816194,-1.5228217,-0.95600253,0.26891834,-0.1172266,0
0.95446336,-1.7025541,1.0667472,0.34715945,-0.84014755,0.41669199,0
-2.1612232,2.8881783,3.1146297,-0.88076186,0.42945957,-0.19955727,0
-1.190609,-0.18142271,-4.2720118,-0.49354941,0.78044689,-0.3838121,0
2.1415911,1.5082071,2.6376281,0.99890816,0.03116855,-0.034799337,0
-1.8389478,3.22891,4.1673546,0.017068207,0.44991314,0.89290917,0
2.0715981,-2.3838229,-3.2685199,0.96124876,-0.25314254,0.10917729,0
-0.25924921,3.3754325,1.9182931,-0.18987644,0.87824678,-0.43889573,0
-1.4925667,2.4978619,4.1733923,0.017068207,0.44991314,0.89290917,0
1.5406325,-0.7479291,2.0693822,0.70431149,-0.63927972,0.308653,0
0.0090920925,1.8670011,4.5487356,0.017068207,0.44991314,0.89290917,0
2.1653166,2.3802991,4.4160991,0.017068207,0.44991314,0.89290917,0
-0.34489536,-3.692173,-3.9432626,-0.017068207,-0.44991314,-0.89290917,0
-1.7549344,-2.5152652,-4.0765305,-0.017068207,-0.44991314,-0.89290917,0
-1.5779237,0.58000994,4.6369495,-0.72885299,-0.60573763,0.31914723,0
0.94520211,-0.98822546,-5.2972093,-0.017068207,-0.44991314,-0.89290917,0
1.158522,-0.69025373,-5.4136071,-0.017068207,-0.44991314,-0.89290917,0
2.1866322,2.1213503,4.4118648,0.017068207,0.44991314,0.89290917,0
-1.0395285,-2.4914923,-0.29681802,-0.46448112,-0.78726077,0.40555853,0
-1.9833926,-0.73259544,-3.7741137,-0.90279019,0.3907674,-0.17964026,0
-0.21147615,-0.8982296,-5.0063267,-0.017068207,-0.44991314,-0.89290917,0
-1.3352675,-0.2206893,3.1782162,-0.59893119,-0.71048731,0.36944443,0
0.60467243,3.4108775,3.6856787,0.017068207,0.44991314,0.89290917,0
2.4035027,2.4967513,3.7997813,0.97156394,0.20346919,-0.12109441,0
-1.2947516,-2.9578915,-1.8538575,-0.60823756,-0.70412147,0.36641467,0
1.0978534,-0.25135469,-4.6785831,0.48874795,0.77531981,-0.40000558,0
-0.052410841,2.1745088,-0.32556987,0.00092864037,0.89303172,-0.44999278,0
-0.32380533,3.8767371,3.4641581,0.017068207,0.44991314,0.89290917,0
-1.0888114,-0.5645411,3.4345493,-0.47419924,-0.78257149,0.40338141,0
0.31426597,-2.9086251,-4.1243529,-0.017068207,-0.44991314,-0.89290917,0
1.9396408,-2.3016109,-3.1105366,0.94551975,-0.29764754,0.13190281,0
-0.75595284,-3.1556592,-3.9046226,-0.017068207,-0.44991314,-0.89290917,0
2.2817483,1.5598323,1.890388,0.9851135,0.14521414,-0.092000246,0
-0.11148524,3.8663414,3.5765612,0.017068207,0.44991314,0.89290917,0
0.1531496,-1.5970353,1.4311254,0.045254707,-0.89247155,0.44882774,0
-0.52807844,1.3155389,5.0332403,0.017068207,0.44991314,0.89290917,0
1.4449991,-2.4458857,-4.5217118,-0.017068207,-0.44991314,-0.89290917,0
2.2001517,1.8588052,4.4114256,0.017068207,0.44991314,0.89290917,0
-1.458535,0.76243496,5.061111,-0.71093923,-0.62247831,0.32723999,0
-1.6966175,0.42683363,3.5365434,-0.78874284,-0.54278153,0.28857017,0
0.51112103,-3.3076425,-3.8200691,-0.017068207,-0.44991314,-0.89290917,0
1.2815033,-1.6674815,0.26419467,0.60546231,-0.71533751,0.34886599,0
-2.0504313,-1.6467495,-4.6681962,-0.017068207,-0.44991314,-0.89290917,0
1.0956087,2.0869761,4.3587079,0.017068207,0.44991314,0.89290917,0
1.9536735,2.0197387,1.7648039,0.8544842,0.45716685,-0.24668789,0
1.2597129,-0.658288,-5.3232021,0.62538946,0.69198084,-0.36062533,0
-1.4367435,-3.6274688,-3.7776103,-0.017068207,-0.44991314,-0.89290917,0
-0.22202539,3.8942528,3.7104053,0.017068207,0.44991314,0.89290917,0
-0.086308718,3.5253758,3.8330376,0.017068207,0.44991314,0.89290917,0
-1.4734006,-0.19086456,3.7788749,-0.65039194,-0.6732831,0.35168195,0
-1.9939024,-0.61066937,-3.8145468,-0.89532626,0.40441257,-0.18665835,0
0.89780504,-1.0598283,-4.9222445,-0.017068207,-0.44991314,-0.89290917,0
0.07387948,-0.45692396,-5.3395624,-0.017068207,-0.44991314,-0.89290917,0
-1.2418189,3.8158112,3.8957469,0.017068207,0.44991314,0.89290917,0
0.86529875,-3.5386143,-2.5274727,0.3512128,-0.8388294,0.4159503,0
1.5377312,-1.3821635,-4.7282743,-0.017068207,-0.44991314,-0.89290917,0
0.8102361,1.9108839,4.8358326,0.017068207,0.44991314,0.89290917,0
-1.1807699,-1.1811566,-4.8098373,-0.017068207,-0.44991314,-0.89290917,0
-0.68121099,3.4258962,4.0556355,0.017068207,0.44991314,0.89290917,0
-1.9250081,3.1701727,3.0739861,-0.79058796,0.55279136,-0.26342458,0
0.89530993,-2.0433269,-4.6502371,-0.017068207,-0.44991314,-0.89290917,0
-0.74942589,-2.6717472,-4.2541876,-0.017068207,-0.44991314,-0.89290917,0
1.4469067,0.92341185,5.1435518,0.017068207,0.44991314,0.89290917,0
0.34800553,2.514281,0.12607026,0.1679666,0.87905759,-0.44614446,0
-1.7449571,0.11629701,-2.3527689,-0.82068336,0.51641822,-0.24452189,0
-2.1659298,2.4979396,4.1676774,0.017068207,0.44991314,0.89290917,0
-1.9253331,-1.2470531,-4.7385826,-0.017068207,-0.44991314,-0.89290917,0
-2.0930772,2.64045,4.2088971,-0.99416459,0.10277203,-0.032780409,0
0.88254917,0.72720289,-3.1029432,0.50438738,0.76720643,-0.39621633,0
-1.4061414,0.42674875,5.2161345,-0.60995829,-0.70292765,0.3658461,0
-1.1089412,-2.3009372,-0.3093729,-0.58027363,-0.72279912,0.37529123,0
-2.3312545,-1.9538908,-4.7834229,-0.017068207,-0.44991314,-0.89290917,0
-0.86726952,3.9790807,3.4588275,0.017068207,0.44991314,0.89290917,0
-1.1364336,-3.545547,-2.5599403,-0.5197475,-0.75890762,0.3923285,0
-1.5614603,0.25932407,-2.8920016,-0.75226974,0.59405047,-0.28494641,0
-2.2747116,0.21263522,-0.22226453,-0.99731749,0.07123521,-0.01682955,0
0.74165273,0.83115888,-3.408529,0.31832296,0.84412628,-0.43141764,0
-0.26166803,-0.49294519,-5.3843069,-0.017068207,-0.44991314,-0.89290917,0
-2.0361209,1.1873245,4.0314856,-0.9337554,-0.31213942,0.17512763,0
-1.8096204,-2.7196817,-4.0963025,-0.017068207,-0.44991314,-0.89290917,0
-0.80485415,-3.4865909,-4.0076637,-0.017068207,-0.44991314,-0.89290917,0
2.1956515,0.27818274,2.1056256,0.97327548,-0.21201685,0.088225245,0
0.78751945,3.9552979,3.4323115,0.017068207,0.44991314,0.89290917,0
0.0054297745,-0.42006874,-5.1644239,-0.017068207,-0.44991314,-0.89290917,0
-1.7183414,3.0856605,2.8153026,-0.77038592,0.57517856,-0.27509108,0
1.2493025,1.3310807,-1.0374993,0.62221843,0.69426614,-0.36171615,0
-1.5719614,2.4454045,1.3159219,-0.72493672,0.62060863,-0.29885089,0
0.4904294,-2.5617318,-4.3224487,-0.017068207,-0.44991314,-0.89290917,0
-0.96844196,-0.43546963,-5.2000484,-0.017068207,-0.44991314,-0.89290917,0
-0.83955908,-2.9945626,-4.0535293,-0.017068207,-0.44991314,-0.89290917,0
-1.9764538,-2.1149046,-1.1875007,-0.83322048,-0.48723406,0.26143157,0
-0.30560043,-0.15424156,-4.932682,-0.18440855,0.87913531,-0.43944791,0
-0.77179486,-1.2276187,-5.0305672,-0.017068207,-0.44991314,-0.89290917,0
-0.90390563,-2.8411918,-3.9852459,-0.017068207,-0.44991314,-0.89290917,0
-1.406816,-0.21794939,3.7866445,-0.63812172,-0.68261194,0.35614789,0
1.9772267,-1.374681,-4.9968796,-0.017068207,-0.44991314,-0.89290917,0
-0.61012387,-1.5743551,-4.9836564,-0.017068207,-0.44991314,-0.89290917,0
-1.6285988,-1.9195429,-0.16584802,-0.75115776,-0.58363408,0.30843627,0
-0.022463083,2.8285856,4.1312323,0.017068207,0.44991314,0.89290917,0
2.4944041,-0.20080334,0.26848423,0.99587917,-0.087203234,0.02490294,0
-2.1685307,-0.33756018,-2.1792803,-0.9546876,0.27271169,-0.11916307,0
-0.43221346,-0.77830076,-5.1108799,-0.017068207,-0.44991314,-0.89290917,0
-1.4302841,1.5507593,4.9834747,0.017068207,0.44991314,0.89290917,0
-1.5767615,-2.2805495,-4.4809065,-0.017068207,-0.44991314,-0.89290917,0
-1.3406694,-1.7320223,-4.4871163,-0.017068207,-0.44991314,-0.89290917,0
0.91555572,-2.6134777,-0.84854305,0.35691017,-0.83694637,0.41489258,0
1.8489008,-0.55399525,1.6873648,0.87438416,-0.43984482,0.20491204,0
2.2656024,1.4143295,1.0035925,0.95512593,0.25678021,-0.14764225,0
2.3816612,1.7361512,4.6756368,0.95421785,-0.27405256,0.11984774,0
-1.6919571,1.3608651,5.0254593,0.017068207,0.44991314,0.89290917,0
-1.2260077,-2.1976271,-4.4123244,-0.017068207,-0.44991314,-0.89290917,0
-2.387279,-0.60947376,-1.49954,-0.99745911,0.069438219,-0.015921414,0
-1.5643792,-1.0304999,-4.9564033,-0.017068207,-0.44991314,-0.89290917,0
0.43252969,3.0680585,3.88784,0.017068207,0.44991314,0.89290917,0
-0.21758509,3.6633391,2.4032235,-0.07847017,0.8908875,-0.44739455,0
1.2018347,-3.3774047,-4.1415291,-0.017068207,-0.44991314,-0.89290917,0
-1.853328,2.4317007,2.4571836,-0.82191014,0.5148496,-0.24370804,0
0.68354166,-1.6517878,-4.6539345,-0.017068207,-0.44991314,-0.89290917,0
2.4807556,0.68054485,2.0254974,0.99537122,-0.092119306,0.027389705,0
-1.3582458,-3.2519388,-4.0386491,-0.017068207,-0.44991314,-0.89290917,0
-0.45942199,-2.3569467,0.57075548,-0.20930552,-0.87164503,0.44319975,0
1.4178534,0.36757088,-2.7589977,0.69488609,0.63677698,-0.3341378,0
2.021235,0.91136241,3.9734035,0.88928401,-0.41504222,0.19212985,0
-0.50974107,-3.1687269,-4.0209684,-0.017068207,-0.44991314,-0.89290917,0
1.7848314,-1.3811717,-5.1613083,-0.017068207,-0.44991314,-0.89290917,0
-0.48920417,-2.8681173,-3.9561749,-0.017068207,-0.44991314,-0.89290917,0
-0.82830393,0.19416285,4.8786445,-0.49104226,-0.77415049,0.39946032,0
0.09881413,-1.8286562,-4.7340603,-0.017068207,-0.44991314,-0.89290917,0
-0.27069092,3.2394128,1.3089952,-0.10966945,0.88849336,-0.44559187,0
-0.89632642,-1.66294,-4.8265219,-0.017068207,-0.44991314,-0.89290917,0
0.43502927,-3.0497994,-3.896102,-0.017068207,-0.44991314,-0.89290917,0
-1.0183791,1.2731104,-1.9358175,-0.3817448,0.82831919,-0.41007093,0
0.093900204,-3.3597999,-3.9568913,-0.017068207,-0.44991314,-0.89290917,0
-0.28357005,-1.3378415,-4.9705081,-0.017068207,-0.44991314,-0.89290917,0
-2.0138605,-0.55093277,0.54975843,-0.92300421,-0.33625412,0.18707299,0
2.0223258,0.410326,-1.984171,0.8029142,0.5260275,-0.2803992,0
1.0762014,-3.7537832,-3.7587895,-0.017068207,-0.44991314,-0.89290917,0
2.3310125,1.5710173,4.7255998,0.017068207,0.44991314,0.89290917,0
0.078620501,-0.15932465,-5.519001,0.049560726,0.89156079,-0.45018113,0
1.1816807,-3.2424879,-3.9424276,-0.017068207,-0.44991314,-0.89290917,0
-0.93159223,2.8683972,4.2073388,0.017068207,0.44991314,0.89290917,0
0.76074195,2.6203465,4.2373629,0.017068207,0.44991314,0.89290917,0
-0.14806724,0.67967701,5.4055796,0.017068207,0.44991314,0.89290917,0
2.1654429,2.3716536,4.1480036,0.017068207,0.44991314,0.89290917,0
1.2555239,-1.5406451,-4.643518,-0.017068207,-0.44991314,-0.89290917,0
-1.8158658,-2.2674479,-4.4228106,-0.017068207,-0.44991314,-0.89290917,0
0.70021522,-1.9124417,-4.534482,-0.017068207,-0.44991314,-0.89290917,0
-1.9239802,-3.5874047,-3.9527488,-0.017068207,-0.44991314,-0.89290917,0
-1.4054656,-2.0056586,-4.4145899,-0.017068207,-0.44991314,-0.89290917,0
0.21200317,0.183002,-4.2932429,0.082752764,0.88933957,-0.44969642,0
-1.9599636,-2.3135471,-4.2422338,-0.017068207,-0.44991314,-0.89290917,0
1.3370303,-1.3904738,-4.7912922,-0.017068207,-0.44991314,-0.89290917,0
-0.35253972,1.135026,4.8827906,0.017068207,0.44991314,0.89290917,0
1.6804892,-1.2474356,-5.0211573,-0.017068207,-0.44991314,-0.89290917,0
-1.0797949,-2.9233727,-4.205945,-0.017068207,-0.44991314,-0.89290917,0
2.1431758,1.5106058,4.5882387,0.017068207,0.44991314,0.89290917,0
-0.0058579147,-0.36196184,-5.6066113,-0.017068207,-0.44991314,-0.89290917,0
-0.67994261,-2.65273,-4.186049,-0.017068207,-0.44991314,-0.89290917,0
-0.37162328,3.7700171,2.3169341,-0.15747458,0.88310319,-0.44196209,0
0.35874087,-1.102386,-5.1614962,-0.017068207,-0.44991314,-0.89290917,0
1.1514705,1.3153119,4.9730549,0.017068207,0.44991314,0.89290917,0
-0.36521578,-3.9639809,-3.5377421,-0.017068207,-0.44991314,-0.89290917,0
1.4413456,2.4852557,4.5146241,0.017068207,0.44991314,0.89290917,0
-1.5217901,-0.53646851,2.4542608,-0.63360167,-0.68597364,0.35775542,0
1.4355943,3.701437,3.6836071,0.017068207,0.44991314,0.89290917,0
-1.2480944,-1.876385,0.54928446,-0.49096668,-0.77418905,0.39947832,0
1.0052531,-1.6039991,-4.7962313,-0.017068207,-0.44991314,-0.89290917,0
1.67136,1.8172231,-0.079517126,0.71858615,0.61543703,-0.32383835,0
2.171159,-0.97881198,-2.0836267,0.99968278,-0.024217993,-0.0069063902,0
-0.93898535,-2.9071476,-3.9494319,-0.017068207,-0.44991314,-0.89290917,0
-1.0100408,-1.5428195,-4.9730692,-0.017068207,-0.44991314,-0.89290917,0
0.66740584,-2.7397184,-4.3388605,-0.017068207,-0.44991314,-0.89290917,0
1.5826468,0.73797131,-2.0213513,0.65214109,0.67192847,-0.35103273,0
0.13332963,3.7609131,2.2602787,0.082364857,0.88937128,-0.449705,0
-0.5871861,-3.5040178,-3.7416503,-0.017068207,-0.44991314,-0.89290917,0
-1.8647938,2.6520343,4.0777788,0.017068207,0.44991314,0.89290917,0
-1.3125368,-1.808538,-4.5397205,-0.017068207,-0.44991314,-0.89290917,0
-2.0278249,-1.3199484,-1.67764,-0.98837864,-0.12732118,0.083046794,0
2.0493488,-1.6108105,-2.217865,0.96024191,-0.25625491,0.11076474,0
1.8646278,0.33365679,-1.5371962,0.8949495,0.3913368,-0.21429145,0
-1.5637358,-1.6869655,-4.9082918,-0.017068207,-0.44991314,-0.89290917,0
-1.6125474,0.40355539,3.9482136,-0.73263919,-0.6020875,0.31738043,0
-0.12757468,1.7562737,4.6296635,0.017068207,0.44991314,0.89290917,0
1.6262729,3.5916567,3.4743371,0.63545573,0.68459964,-0.35709846,0
2.2547355,1.5201516,1.8078016,0.98494405,0.14608464,-0.092435539,0
-2.21421,-1.0071661,-2.85748,-0.98219234,0.17465776,-0.069230556,0
2.2105494,-2.6248989,-4.2736683,-0.017068207,-0.44991314,-0.89290917,0
-1.7691227,1.8057632,4.8752103,0.017068207,0.44991314,0.89290917,0
-1.923943,-2.2697513,-1.2741642,-0.78927088,-0.54217166,0.2882731,0
-0.51458108,1.7634721,4.7331285,0.017068207,0.44991314,0.89290917,0
-0.60474467,-3.6250606,-3.9512022,-0.017068207,-0.44991314,-0.89290917,0
0.2329092,2.5357366,4.1735826,0.017068207,0.44991314,0.89290917,0
2.1570523,0.69120121,2.7498953,0.92650175,-0.34286207,0.15504882,0
0.46344721,1.789887,-1.1915734,0.25401652,0.86178756,-0.43908745,0
-1.4770449,0.42740726,4.4059539,-0.63605922,-0.68415082,0.35688388,0
-0.74303925,-0.65424871,-5.3113136,-0.017068207,-0.44991314,-0.89290917,0
-0.63136458,3.6018629,3.6704743,0.017068207,0.44991314,0.89290917,0
1.565788,-1.844669,-0.38276801,0.70088112,-0.64227962,0.31023011,0
-1.3161798,2.2383902,0.38583961,-0.56410682,0.74166709,-0.36292329,0
1.1140018,1.520256,4.6352239,0.017068207,0.44991314,0.89290917,0
1.4009186,1.0479753,-2.2458162,0.61966717,0.69609135,-0.36258709,0
0.17528701,-3.0573695,-1.1788772,0.11143863,-0.88833117,0.44547629,0
1.4610244,-1.8015251,-0.53268987,0.75624359,-0.59000212,0.28283063,0
0.16153657,1.6900954,4.7709255,0.017068207,0.44991314,0.89290917,0
-1.5292,0.67158413,5.1299553,0.017068207,0.44991314,0.89290917,0
2.298367,-1.741051,-2.1102984,0.96824831,-0.23020026,0.097483516,0
-2.1824803,-0.88518548,-2.9725339,-0.96807307,0.2308057,-0.097791851,0
0.59802198,3.637727,2.1472392,0.2352069,0.86617112,-0.44093674,0
0.34266889,1.0589046,-2.9251561,0.089370966,0.88877803,-0.44954002,0
0.23587847,3.9077146,3.6849577,0.017068207,0.44991314,0.89290917,0
1.6021327,-1.8890936,-0.24247308,0.69908267,-0.64384043,0.31105089,0
-2.4510503,0.02265954,-1.2879628,-0.97245616,0.21509606,-0.08979243,0
-1.8473229,0.13092202,-1.4004633,-0.92431134,0.34762758,-0.15749186,0
2.0886998,0.62267613,-0.65928841,0.91764271,0.34757459,-0.19267452,0
-2.1113737,-3.1694844,-3.9884331,-0.017068207,-0.44991314,-0.89290917,0
2.0480635,-1.3181012,0.013681948,0.83950496,-0.49151441,0.23161373,0
1.1997826,-3.5842705,-3.8687193,-0.017068207,-0.44991314,-0.89290917,0
-1.9309248,2.1827469,2.1598537,-0.9180364,0.3608616,-0.16428006,0
0.85766947,-1.9261618,0.4016968,0.44402832,-0.80355668,0.39640319,0
2.2529974,2.9059281,4.2554846,0.017068207,0.44991314,0.89290917,0
2.1869533,1.0682862,2.1648469,0.99924445,0.023511171,-0.030947506,0
1.8481474,-1.6561601,-1.5981214,0.92824417,-0.33901376,0.15307638,0
2.0468364,-1.8941531,-3.9487758,0.99106014,0.11057049,-0.074657917,0
1.564326,1.5955509,-0.732795,0.61063361,0.70245779,-0.36562228,0
-1.4549116,2.6833987,1.1594054,-0.60113776,0.71822697,-0.35040459,0
0.022332907,2.2055001,4.6160336,0.017068207,0.44991314,0.89290917,0
-1.0884335,-3.0634708,-2.1048756,-0.49408057,-0.77259082,0.39873242,0
-0.96253586,-2.5226254,-4.3502126,-0.017068207,-0.44991314,-0.89290917,0
0.43140143,1.0107627,5.1591301,0.017068207,0.44991314,0.89290917,0
2.0686343,-0.44105816,-3.1781878,0.90599388,0.37080345,-0.20415628,0
1.2393489,-3.9320078,-3.3533015,0.57676589,-0.73390967,0.35877258,0
-1.7692728,1.8055425,4.733983,0.017068207,0.44991314,0.89290917,0
-0.28448465,0.41243649,5.3098073,0.017068207,0.44991314,0.89290917,0
-0.93208915,-1.3994651,1.6448842,-0.35682738,-0.83149201,0.42578763,0
2.1509602,-0.035328746,0.54880261,0.99780297,-0.064838946,0.013597369,0
1.8585459,-2.5702734,-4.3245912,-0.017068207,-0.44991314,-0.89290917,0
-0.07458663,-3.2394485,-4.0297198,-0.017068207,-0.44991314,-0.89290917,0
1.4956483,2.2614722,4.3721685,0.017068207,0.44991314,0.89290917,0
1.1786072,-2.3584099,-0.93568933,0.63887835,-0.69186056,0.33639783,0
-0.32675743,3.7214513,3.7738574,0.017068207,0.44991314,0.89290917,0
0.39997333,1.3086722,-2.3990512,0.11995989,0.88566703,-0.44855708,0
2.0587678,-1.7069523,-1.751441,0.96503919,-0.24102052,0.10299689,0
1.0267893,2.2249024,0.27466083,0.4259817,0.80466259,-0.41359091,0
2.1437829,-0.10325998,1.2785791,0.95940852,-0.25879955,0.11206287,0
2.1892459,-2.7832212,-4.2612238,0.97800112,-0.19320223,0.078654766,0
1.1517984,1.4347501,-1.2703155,0.59170437,0.71532637,-0.37174451,0
2.1259816,-0.94683981,-3.724798,0.95971167,0.24313307,-0.1408534,0
-0.49832463,-2.7308645,-4.4340091,-0.017068207,-0.44991314,-0.89290917,0
0.41603971,1.2597089,5.0233126,0.017068207,0.44991314,0.89290917,0
-2.0156007,1.5515001,0.086768717,-0.84681296,0.48132867,-0.22634168,0
0.078628987,0.23099327,-4.2275329,0.066564858,0.89054668,-0.44999528,0
-1.849406,-2.6415668,-4.429729,-0.017068207,-0.44991314,-0.89290917,0
2.1323955,-0.18717098,-2.6758776,0.8920415,0.39653105,-0.21685302,0
0.04038322,0.80399513,5.2637014,0.017068207,0.44991314,0.89290917,0
1.1706752,1.2086611,5.1037278,0.017068207,0.44991314,0.89290917,0
1.3698537,-0.87173605,-5.1038976,-0.017068207,-0.44991314,-0.89290917,0
-1.6290766,1.9506745,4.6869326,0.017068207,0.44991314,0.89290917,0
-1.3492564,-1.5676084,-4.8057289,-0.017068207,-0.44991314,-0.89290917,0
-1.9687731,-2.8024282,-2.0981436,-0.81203961,-0.51479489,0.27491379,0
-1.3618355,2.0037966,0.28224134,-0.62270582,0.70348269,-0.34256303,0
-1.0126369,3.7611189,2.5947127,-0.44337946,0.80383873,-0.39655766,0
0.52277803,-0.72132397,-5.2320662,-0.017068207,-0.44991314,-0.89290917,0
-2.1560445,0.88877058,3.8600166,-0.9056896,-0.37138745,0.20444477,0
0.40904674,0.71175766,5.3992724,0.017068207,0.44991314,0.89290917,0
-0.89034176,3.8780663,3.4007959,-0.51214242,0.77092612,-0.37865946,0
-1.4637867,-0.44284248,2.7711055,-0.72727579,-0.60724652,0.31987739,0
-2.0327554,-0.15705371,2.4425783,-0.88178241,-0.41421968,0.22556984,0
-2.1376762,-1.6955602,-4.097065,-0.99347293,0.10836652,-0.035612524,0
-2.0077834,2.9585772,4.3553619,0.017068207,0.44991314,0.89290917,0
1.597194,3.3681395,2.8794546,0.59195673,0.71515882,-0.37166488,0
0.14442849,-3.650135,-3.7234335,-0.017068207,-0.44991314,-0.89290917,0
-2.2621951,-0.85860181,-1.2351232,-0.99979711,-0.0018666089,0.020051897,0
-0.90754986,2.6576085,4.1608081,0.017068207,0.44991314,0.89290917,0
1.9616132,2.2975225,4.4615002,0.017068207,0.44991314,0.89290917,0
2.1986952,-1.7527695,-2.6317129,0.99239969,-0.11647072,0.039716542,0
0.297297,4.0761418,2.8225579,0.12799263,0.88470876,-0.44822782,0
0.12581599,1.2668219,5.03092,0.017068207,0.44991314,0.89290917,0
-0.26832381,0.1056757,-4.7655101,-0.17498583,0.88060057,-0.44036639,0
1.5575221,-0.17852139,3.7306237,0.61669302,-0.70767796,0.34479189,0
1.8943585,1.0000596,5.0302973,0.79266888,-0.55039817,0.26217896,0
0.31581491,0.39112473,-4.3478923,0.21139926,0.87122655,-0.44302881,0
-0.16811252,-4.0361185,-3.7041116,-0.017068207,-0.44991314,-0.89290917,0
1.2200673,-1.4370217,-4.7885175,-0.017068207,-0.44991314,-0.89290917,0
0.45544827,2.2572484,4.6087079,0.017068207,0.44991314,0.89290917,0
-0.90335155,2.8607993,4.3915505,0.017068207,0.44991314,0.89290917,0
-0.91792846,-1.4950796,1.7114075,-0.42538545,-0.80491781,0.41370797,0
-1.2410014,2.4661727,4.305337,0.017068207,0.44991314,0.89290917,0
1.6648549,-2.5817943,-2.2719483,0.79182935,-0.55136573,0.26268256,0
0.32991081,0.47255611,5.4617987,0.017068207,0.44991314,0.89290917,0
1.6482481,1.4944592,4.7191877,0.017068207,0.44991314,0.89290917,0
-1.5057353,1.0380198,-1.2286007,-0.65462482,0.68005121,-0.33014643,0
-0.40898591,-0.58951807,-5.2248063,-0.017068207,-0.44991314,-0.89290917,0
1.0473275,-1.4307499,-5.0794983,-0.017068207,-0.44991314,-0.89290917,0
1.061518,-3.4231939,-4.0739088,-0.017068207,-0.44991314,-0.89290917,0
-0.022892095,-0.089402676,-5.6468377,-0.017068207,-0.44991314,-0.89290917,0
-2.2473028,-0.97004062,-0.28515077,-0.96603024,-0.22289631,0.13077754,0
-0.14779866,-1.4612842,-4.6400514,-0.017068207,-0.44991314,-0.89290917,0
1.7052444,-2.2664225,-2.1381803,0.87097108,-0.44527009,0.20771092,0
-1.391613,1.5212846,4.8018961,0.017068207,0.44991314,0.89290917,0
-0.32047009,2.1155691,-0.58931518,-0.10117418,0.88923264,-0.4461267,0
-0.89456987,-1.0209627,-4.9846778,-0.017068207,-0.44991314,-0.89290917,0
1.5631599,-1.5112052,-4.8090205,-0.017068207,-0.44991314,-0.89290917,0
0.45760798,-2.0639372,-4.4931083,-0.017068207,-0.44991314,-0.89290917,0
1.7267141,-1.109623,-4.3714643,0.85633707,0.45441821,-0.24533832,0
-1.5430804,-0.08082366,2.7866907,-0.73156625,-0.60312587,0.31788313,0
1.8307701,-0.66921663,1.6402555,0.77441198,-0.57083476,0.27282539,0
1.3465631,-2.6281686,-4.3004217,-0.017068207,-0.44991314,-0.89290917,0
0.8701365,2.1352041,-0.38099599,0.33492231,0.83887416,-0.42908853,0
-1.2126597,-0.088096142,-4.4827881,-0.53716725,0.75733864,-0.37133476,0
1.3235488,-3.5499067,-3.9098644,-0.017068207,-0.44991314,-0.89290917,0
-0.11465085,0.78335953,5.3710413,0.017068207,0.44991314,0.89290917,0
-2.1284573,-1.4147506,-4.9731688,-0.017068207,-0.44991314,-0.89290917,0
-2.0758634,-1.8987191,-1.0404525,-0.83767378,-0.48115033,0.25845122,0
1.3230957,-1.4546938,-4.8808184,-0.017068207,-0.44991314,-0.89290917,0
-0.70690084,-3.8770115,-3.7898841,-0.017068207,-0.44991314,-0.89290917,0
-2.0169764,0.86873233,-0.26386184,-0.92913616,0.33702353,-0.15205652,0
1.6158698,-3.1029842,-2.4619906,0.74179578,-0.60448664,0.29040515,0
-1.8240764,1.5285335,-0.075503126,-0.85079831,0.47564131,-0.22339982,0
0.1001792,-1.3184462,-5.0603375,-0.017068207,-0.44991314,-0.89290917,0
-0.36839151,-2.9913015,-4.1150985,-0.017068207,-0.44991314,-0.89290917,0
1.8522105,0.34959912,-2.3392234,0.7549839,0.57969201,-0.30652308,0
-1.1628082,3.4617262,3.7470407,0.017068207,0.44991314,0.89290917,0
0.91215777,3.1118679,3.9760766,0.017068207,0.44991314,0.89290917,0
0.93298995,2.1865377,4.4993348,0.017068207,0.44991314,0.89290917,0
-2.211664,-0.66766334,-3.2002032,-0.94403684,0.30145979,-0.13385206,0
0.2307899,3.4769807,1.7106408,0.10735518,0.88705182,-0.44901395,0
0.0813611,-0.21251249,-5.3718376,-0.017068207,-0.44991314,-0.89290917,0
-1.1557715,-3.398746,-4.0749598,-0.017068207,-0.44991314,-0.89290917,0
-0.71384573,2.9010503,0.78712833,-0.27354705,0.86106855,-0.42864066,0
0.31165206,-1.863081,1.4038165,0.15992045,-0.88277078,0.44174778,0
2.2320065,0.59351212,1.561323,0.9958964,-0.087031096,0.024815917,0
0.13710642,-2.9354734,-4.162426,-0.017068207,-0.44991314,-0.89290917,0
1.0304749,1.1941233,4.9025555,0.017068207,0.44991314,0.89290917,0
-1.0087245,-3.6341751,-3.5954695,-0.017068207,-0.44991314,-0.89290917,0
-0.21744049,0.78214836,-3.3667331,-0.091693878,0.88998032,-0.44668472,0
-1.0219755,-1.3555474,-4.7278595,-0.017068207,-0.44991314,-0.89290917,0
-0.31890172,-1.1774492,-5.2013903,-0.017068207,-0.44991314,-0.89290917,0
0.45538545,-2.8939486,-3.9586067,-0.017068207,-0.44991314,-0.89290917,0
1.2484164,-1.5544465,1.1019206,0.6042338,-0.71616185,0.34930483,0
0.60783696,3.7716875,2.4721894,0.32238358,0.84286839,-0.43086141,0
-1.7786388,-1.5583663,-4.7799902,-0.017068207,-0.44991314,-0.89290917,0
1.9786882,-0.89104247,-0.69072968,0.97217047,-0.21615848,0.090333223,0
2.5447607,1.0978925,2.2910082,0.99973351,0.0061988831,-0.022233605,0
0.98176789,-3.667841,-3.5816951,-0.017068207,-0.44991314,-0.89290917,0
0.85132694,-2.0966473,-4.6537676,-0.017068207,-0.44991314,-0.89290917,0
-1.9290997,2.8043032,4.1193695,0.017068207,0.44991314,0.89290917,0
-0.63136077,1.7933664,4.6118922,0.017068207,0.44991314,0.89290917,0
2.0420561,-1.9333043,-1.9877012,0.89733618,-0.40079609,0.1847977,0
0.72889137,-2.7590251,-0.58543634,0.31322694,-0.85049254,0.42255312,0
-0.91225588,-2.3980975,-4.5125666,-0.017068207,-0.44991314,-0.89290917,0
-0.81185615,-0.56420469,3.7119353,-0.35344827,-0.83266473,0.42631394,0
2.0397739,-1.6209056,-1.7366161,0.94901079,-0.2884427,0.12719807,0
-0.43813062,1.9127231,4.7244415,0.017068207,0.44991314,0.89290917,0
-0.96883631,2.6967988,4.3743324,0.017068207,0.44991314,0.89290917,0
1.1715343,0.96045637,5.1108093,0.017068207,0.44991314,0.89290917,0
0.20212579,-1.7023871,1.7668018,0.048864663,-0.89234746,0.44869602,0
1.3962462,-2.164607,-4.6868587,-0.017068207,-0.44991314,-0.89290917,0
-1.2712978,2.4982193,0.87630057,-0.53109241,0.76072073,-0.37315503,0
-1.5855398,-3.3032591,-3.7720456,-0.017068207,-0.44991314,-0.89290917,0
-1.6640621,0.61971951,3.8679161,-0.84362483,-0.4728494,0.25438237,0
-0.32900071,2.951694,4.1212726,0.017068207,0.44991314,0.89290917,0
-1.31724,1.342792,5.1678696,0.017068207,0.44991314,0.89290917,0
-0.33741093,2.701004,0.22418022,-0.12077433,0.88742793,-0.44484276,0
1.8409656,-1.2898335,-5.1292028,-0.017068207,-0.44991314,-0.89290917,0
-0.89919686,-0.96452808,-5.1824512,-0.017068207,-0.44991314,-0.89290917,0
-0.58474541,0.81127501,5.2768068,0.017068207,0.44991314,0.89290917,0
-0.6190511,-1.2272775,2.3799567,-0.34023476,-0.83713144,0.42831206,0
-0.097313881,3.9919198,3.643224,0.017068207,0.44991314,0.89290917,0
1.9810246,2.7534473,3.7258387,0.89093125,0.39849204,-0.21781993,0
1.1111649,-1.3363862,1.5410107,0.52876115,-0.76200426,0.37384629,0
1.0950348,-4.1776037,-3.5668621,-0.017068207,-0.44991314,-0.89290917,0
-0.26672363,-3.302206,-1.5469632,-0.0086430311,-0.89293945,0.45009363,0
0.27685404,1.5848541,4.8282118,0.017068207,0.44991314,0.89290917,0
0.47672045,1.455151,-2.1030507,0.17810559,0.87738836,-0.44549721,0
-1.3906875,-3.5904841,-3.7123089,-0.017068207,-0.44991314,-0.89290917,0
0.56456196,0.56235981,5.302002,0.017068207,0.44991314,0.89290917,0
1.5957202,-0.80013365,1.7275233,0.77158189,-0.57389408,0.27442098,0
-1.6108013,-1.2116987,1.651974,-0.65642256,-0.66858625,0.34943056,0
-0.69319189,2.052032,4.6458826,0.017068207,0.44991314,0.89290917,0
-1.5800549,-0.023424625,-3.6098251,-0.73778284,0.6083979,-0.29245263,0
-0.72410655,3.2308378,4.160059,0.017068207,0.44991314,0.89290917,0
-1.7791489,2.8485227,3.1633122,-0.83516306,0.49742404,-0.23467442,0
-1.3472092,2.8979149,4.0640354,0.017068207,0.44991314,0.89290917,0
-0.48325896,-3.4858675,-3.8428771,-0.017068207,-0.44991314,-0.89290917,0
1.7342052,-0.52868789,1.8287235,0.81361914,-0.52531302,0.24913877,0
0.33593184,0.48177624,5.1336036,0.017068207,0.44991314,0.89290917,0
0.28916943,2.3403912,4.3200269,0.017068207,0.44991314,0.89290917,0
-1.3167746,3.2755938,3.896776,0.017068207,0.44991314,0.89290917,0
-1.8044434,1.5379143,4.6878018,0.017068207,0.44991314,0.89290917,0
0.97861218,-2.8174956,-0.65148914,0.34971029,-0.83932018,0.41622636,0
0.67596835,-1.2891001,2.4453793,0.33472449,-0.84408081,0.41891152,0
-1.4168986,-1.6151395,-4.8163242,-0.017068207,-0.44991314,-0.89290917,0
1.755873,-1.2020931,-5.1309533,-0.017068207,-0.44991314,-0.89290917,0
-2.0033138,-0.97754854,0.60799265,-0.90636241,-0.3700946,0.20380616,0
2.0623603,0.7247057,4.2377806,0.80859387,-0.53150153,0.25235304,0
0.47717881,-2.4184103,-4.5609865,-0.017068207,-0.44991314,-0.89290917,0
-0.72052705,-1.5842848,-4.8841934,-0.017068207,-0.44991314,-0.89290917,0
-2.0311441,0.78887963,2.737452,-0.94515651,-0.28406587,0.16120011,0
-1.2451665,2.5661197,0.78756672,-0.51206607,0.77096629,-0.37868115,0
2.1147909,-1.9257765,-4.445806,-0.017068207,-0.44991314,-0.89290917,0
-1.0554826,1.0819864,4.9084415,0.017068207,0.44991314,0.89290917,0
-1.5580053,2.5781817,4.2084203,0.017068207,0.44991314,0.89290917,0
-1.5325751,-2.3052597,-4.4061847,-0.017068207,-0.44991314,-0.89290917,0
0.71208346,1.2179732,-2.8132584,0.30444872,0.8482942,-0.43325257,0
-2.0094109,2.736578,3.6208596,-0.95992899,0.25721353,-0.1112538,0
-0.56789899,-4.2210536,-3.675806,-0.017068207,-0.44991314,-0.89290917,0
0.81364202,2.8135345,1.1546459,0.3178755,0.84426391,-0.43147838,0
-2.2568338,1.6806102,3.4259269,-0.99964249,-0.010699779,0.024499774,0
-2.1789749,-0.044819474,-0.5628829,-0.99849993,0.05413726,-0.0081917048,0
1.6805685,-1.0826373,-4.928196,-0.017068207,-0.44991314,-0.89290917,0
2.1712389,-2.0443883,-2.3871236,0.93776113,-0.31700927,0.14180699,0
2.0553033,-0.68109751,-1.4970429,0.99869132,0.035391331,-0.036922991,0
2.0582459,1.366536,0.1222744,0.88308334,0.41202864,-0.22449064,0
0.92610693,3.664109,2.6057057,0.36456484,0.82875949,-0.42455864,0
1.0506791,1.2204971,5.0718913,0.017068207,0.44991314,0.89290917,0
-0.45201159,-2.780488,-3.9923527,-0.017068207,-0.44991314,-0.89290917,0
0.62566066,1.8460929,-1.17364,0.22833133,0.86768734,-0.44156921,0
1.799613,-0.28862333,-3.4110856,0.83961004,0.47847128,-0.25713825,0
1.8053244,1.2397374,-0.39910007,0.80774927,0.52012122,-0.27751565,0
-1.6886916,-1.8593292,-4.4527884,-0.017068207,-0.44991314,-0.89290917,0
-0.31967759,-2.9319348,-4.3243351,-0.017068207,-0.44991314,-0.89290917,0
-1.0017745,-3.4400609,-3.9501204,-0.017068207,-0.44991314,-0.89290917,0
-0.48051554,0.63645077,5.4219685,0.017068207,0.44991314,0.89290917,0
-2.0185828,-0.51600575,-3.6371675,-0.83184046,0.50187755,-0.2369819,0
1.5523993,-0.41936016,-4.6866703,0.63609582,0.68412375,-0.35687101,0
-1.4516392,3.056644,3.918931,0.017068207,0.44991314,0.89290917,0
0.83173108,-2.0875921,-4.6155663,-0.017068207,-0.44991314,-0.89290917,0
-1.0009891,-2.2675853,-4.2282572,-0.017068207,-0.44991314,-0.89290917,0
2.2208121,0.48939079,0.02349329,0.98868656,0.12550697,-0.082138598,0
-1.8752475,-2.177115,-4.5878592,-0.017068207,-0.44991314,-0.89290917,0
-1.1782861,-3.7080414,-3.0631335,-0.47036466,-0.78443646,0.40424788,0
-1.5165873,2.1373854,4.7710018,0.017068207,0.44991314,0.89290917,0
1.19353,2.0502238,4.3868585,0.017068207,0.44991314,0.89290917,0
-0.51820064,3.1071219,3.9186287,0.017068207,0.44991314,0.89290917,0
1.0338479,0.97009897,5.2996206,0.017068207,0.44991314,0.89290917,0
0.027039409,0.39241886,5.3718586,0.017068207,0.44991314,0.89290917,0
-1.503206,1.6822224,0.0027195439,-0.69243276,0.64954448,-0.31405216,0
1.6153915,1.0615382,5.1070089,0.017068207,0.44991314,0.89290917,0
0.34876657,-3.683845,-3.7066851,-0.017068207,-0.44991314,-0.89290917,0
-1.672704,3.2929578,4.1957974,0.017068207,0.44991314,0.89290917,0
0.74762619,0.080938339,-4.1022735,0.38009924,0.82307267,-0.42199022,0
0.59520364,-2.9137561,-1.1778741,0.25929487,-0.86447835,0.43063119,0
1.6836951,-3.3188176,-3.9306762,-0.017068207,-0.44991314,-0.89290917,0
-0.89891595,-1.4497404,-4.7692151,-0.017068207,-0.44991314,-0.89290917,0
2.0847192,1.0663612,0.52032375,0.9123491,0.35834906,-0.19800246,0
-1.1218374,3.0350468,2.1521845,-0.58010739,0.73181844,-0.35765499,0
0.99448967,3.8168819,3.8035178,0.017068207,0.44991314,0.89290917,0
-0.30068305,-0.51020527,3.7938182,-0.11257142,-0.88649631,0.44883376,0
-1.779296,-2.6543286,-1.5405538,-0.70270133,-0.62989599,0.3308202,0
0.46704185,-2.2218866,-4.2839103,-0.017068207,-0.44991314,-0.89290917,0
1.7509774,1.4131804,4.8628998,0.017068207,0.44991314,0.89290917,0
-1.5242529,2.9730091,2.5615299,-0.76577568,0.58008403,-0.27765092,0
0.43312037,1.9491341,-0.79492891,0.23020065,0.86727965,-0.44139946,0
-0.024526834,-3.4794099,-3.6799026,-0.017068207,-0.44991314,-0.89290917,0
-0.57722783,1.4705825,4.830584,0.017068207,0.44991314,0.89290917,0
1.6873952,-2.1168041,-4.7808065,-0.017068207,-0.44991314,-0.89290917,0
1.1484399,1.0572872,-2.5073447,0.46685433,0.78612685,-0.40503246,0
-1.8327738,2.2560463,4.6251264,0.017068207,0.44991314,0.89290917,0
0.60437894,-3.4944959,-3.8346939,-0.017068207,-0.44991314,-0.89290917,0
-1.7381849,-0.17245269,-3.7231207,-0.71670675,0.62819237,-0.30282941,0
1.4873433,-0.74024796,1.7899873,0.68368518,-0.65688789,0.31791955,0
0.88605332,2.9144886,3.9257944,0.017068207,0.44991314,0.89290917,0
1.6126831,3.3324604,3.7577877,0.017068207,0.44991314,0.89290917,0
0.6126833,2.5913043,4.1700788,0.017068207,0.44991314,0.89290917,0
0.86170733,2.5389695,4.4219122,0.017068207,0.44991314,0.89290917,0
-1.4599365,-2.6492703,-4.014286,-0.017068207,-0.44991314,-0.89290917,0
2.0842793,1.3556476,4.333343,0.90892237,-0.37909037,0.17363927,0
0.34497982,0.83781719,5.3360682,0.017068207,0.44991314,0.89290917,0
-0.81297815,1.354053,4.7986879,0.017068207,0.44991314,0.89290917,0
-2.3930013,-1.4730797,-1.9478123,-0.97642106,-0.18470863,0.11173427,0
2.186048,-2.6664538,-4.242322,-0.017068207,-0.44991314,-0.89290917,0
-2.0341473,-2.0864601,-2.2720382,-0.91433465,-0.35435259,0.19602656,0
1.2484046,-1.0333347,-5.0995874,-0.017068207,-0.44991314,-0.89290917,0
-0.30767131,2.3203979,4.6397171,0.017068207,0.44991314,0.89290917,0
2.3984828,-0.13234746,-0.58874059,0.9962765,0.067828178,-0.053220868,0
0.92078209,2.4976683,4.2031994,0.017068207,0.44991314,0.89290917,0
0.15120196,-2.6995497,-4.4250259,-0.017068207,-0.44991314,-0.89290917,0
1.0498525,0.78510237,4.9729719,0.017068207,0.44991314,0.89290917,0
-1.2870167,-1.0067868,2.0446982,-0.54731077,-0.74316001,0.38492048,0
-1.6906012,-2.3533268,-4.215385,-0.017068207,-0.44991314,-0.89290917,0
0.11477041,-3.7149527,-2.3382053,0.02561599,-0.89294279,0.44944048,0
0.64116687,-0.35183382,4.4288268,0.23675454,-0.86946082,0.43357259,0
