-0.97545385,1.9435892,0.66084826,-0.45623535,0.88357598,-0.10555962,0
2.0889065,0.47827196,0.40023541,0.98758399,0.13313195,0.083389878,0
-0.062233686,0.41420543,-1.9633249,0.093355089,-0.070444822,-0.99313766,0
-2.1159048,-0.4776271,0.14984703,-0.98127478,-0.17530292,-0.079805493,0
0.67751795,-0.28713155,2.111042,-0.093355089,0.070444822,0.99313766,0
-2.1583285,-0.325194,-1.3834927,-0.98892355,-0.12216756,-0.084293365,0
-1.424358,1.651324,-1.9258966,-0.63053668,0.76778185,-0.11373055,0
-1.2434764,-2.0504789,-1.0104759,-0.56379259,-0.82589751,0.0055856109,0
1.6697253,1.5013421,0.48759508,0.69128925,0.72244757,0.013736844,0
2.1197281,0.54892176,-1.1432551,0.93429649,0.35089788,0.06293416,0
0.73598409,-1.7590556,-1.9008485,0.093355089,-0.070444822,-0.99313766,0
0.99906051,-0.67076898,2.3109179,-0.093355089,0.070444822,0.99313766,0
2.2564662,-0.57489038,-0.8020997,0.98492986,-0.13933438,0.1024667,0
-1.0333617,-2.1281431,1.4722066,-0.42751032,-0.90369409,0.023914516,0
-1.1515436,-1.0874285,2.0512884,-0.093355089,0.070444822,0.99313766,0
-1.8737487,1.248467,1.7576652,-0.093355089,0.070444822,0.99313766,0
1.5442355,-1.5683538,-0.093943238,0.73465258,-0.66837209,0.1164661,0
1.9355304,-0.49537188,-1.6467395,0.093355089,-0.070444822,-0.99313766,0
-1.0973281,-0.28730023,1.7898624,-0.093355089,0.070444822,0.99313766,0
1.514498,0.17972851,2.0063324,-0.093355089,0.070444822,0.99313766,0
-1.0002713,-1.9358081,-1.8751538,-0.59015536,-0.80728769,0.0017875433,0
0.78001654,-1.9883367,0.46408918,0.31613004,-0.94377887,0.096660048,0
1.9545937,0.74862611,1.1332817,0.96255481,0.26136678,0.071941018,0
-2.0146773,1.0873104,-1.0168674,-0.87960291,0.46149495,-0.11541736,0
-1.5602729,0.54915977,-2.2964215,0.093355089,-0.070444822,-0.99313766,0
-0.46199167,0.089297414,1.8438923,-0.093355089,0.070444822,0.99313766,0
-1.1108851,1.3955127,1.8035649,-0.093355089,0.070444822,0.99313766,0
1.5222754,-0.23576641,2.2926221,-0.093355089,0.070444822,0.99313766,0
2.1308823,-0.31188494,-1.7804801,0.093355089,-0.070444822,-0.99313766,0
0.21997684,-1.148824,-1.7181399,0.093355089,-0.070444822,-0.99313766,0
-0.1482389,2.4742532,1.257496,-0.018392086,0.99720162,-0.072462015,0
2.24067,-0.087866783,-0.29280806,0.99383134,-0.053385943,0.09720695,0
2.0983384,0.88267487,0.4273572,0.91263855,0.40476301,0.057077646,0
1.6218698,0.40858889,-1.8557155,0.093355089,-0.070444822,-0.99313766,0
-0.06323947,1.1688395,2.0075674,-0.093355089,0.070444822,0.99313766,0
-0.34981537,-2.1292408,1.4511199,-0.012476325,-0.99749827,0.069581419,0
-1.8875144,0.88811547,1.9391916,-0.093355089,0.070444822,0.99313766,0
1.3164157,-1.6974798,-0.074493408,0.60196322,-0.79053676,0.11265874,0
-1.1456177,-1.881954,0.65598333,-0.53800535,-0.8428911,0.0092151165,0
1.4194348,-1.743452,0.36535871,0.68160903,-0.72257143,0.1153245,0
1.6243769,1.3327157,2.1319499,0.85365683,0.51902217,0.043428779,0
0.61775947,-0.85727549,2.0511336,-0.093355089,0.070444822,0.99313766,0
-0.47090173,-2.3530719,0.84119463,-0.21231389,-0.97595882,0.049268812,0
-0.029163718,0.4349798,-2.0274434,0.093355089,-0.070444822,-0.99313766,0
-2.1534083,-0.45205182,0.53294444,-0.95978093,-0.27163652,-0.070951939,0
1.0780849,1.8974386,1.1789986,0.56381911,0.8258794,-0.0055819154,0
1.1218829,1.2044077,1.9950027,-0.093355089,0.070444822,0.99313766,0
1.3363736,-1.2349837,2.1795688,0.74564618,-0.65605646,0.11662602,0
0.75798631,0.672369,-2.1498563,0.093355089,-0.070444822,-0.99313766,0
1.7385975,1.235751,-1.2571213,0.74180609,0.67024732,0.022188127,0
1.3207281,1.531554,-1.9646195,0.093355089,-0.070444822,-0.99313766,0
-1.7523978,1.4754157,0.67848122,-0.76953292,0.62782222,-0.11686867,0
-2.2547317,-0.057024479,1.3827786,-0.99295056,-0.079758793,-0.087679982,0
1.0295023,-1.9470397,-0.6944021,0.3868916,-0.91653544,0.10137922,0
-2.1856551,1.5259124,1.6203636,-0.84246171,0.52600914,-0.11650211,0
-0.4641006,-2.2162824,0.92859292,-0.24268234,-0.96901834,0.045921892,0
0.05487287,0.11728501,-2.0870953,0.093355089,-0.070444822,-0.99313766,0
-2.0016327,1.1472373,1.1543543,-0.90584844,0.4079496,-0.11408645,0
0.19389057,2.3941212,0.81672657,0.064782739,0.99580985,-0.064544827,0
-2.3210213,0.6642139,1.3197293,-0.98076212,0.16525015,-0.10391319,0
1.3441964,1.079794,-1.9377773,0.093355089,-0.070444822,-0.99313766,0
-2.210386,0.66141766,1.8801714,-0.093355089,0.070444822,0.99313766,0
2.1723783,0.62244594,-1.7811384,0.92880309,0.3654542,0.061385393,0
1.1301954,1.9341252,-0.12510848,0.47413331,0.88027179,-0.017870486,0
-0.93845606,-2.0921113,0.80849624,-0.30262333,-0.95230782,0.039102107,0
-1.3879149,0.42482686,-2.3248014,0.093355089,-0.070444822,-0.99313766,0
-1.4889638,-1.4010117,1.6028436,-0.67332691,-0.73926508,-0.010855556,0
1.8679456,-0.80180788,1.4985577,0.90170598,-0.41695747,0.11433595,0
-1.9584897,-1.1492898,-0.050097466,-0.83811128,-0.5440166,-0.040194631,0
-1.8069463,-0.84065628,-2.1935334,0.093355089,-0.070444822,-0.99313766,0
1.9229769,-0.68146497,0.27963734,0.90506279,-0.40967613,0.11413509,0
-0.97497761,2.0402215,-0.67269695,-0.40877801,0.90683156,-0.10274822,0
-0.049400091,2.3187695,1.983304,-0.093355089,0.070444822,0.99313766,0
-1.8319719,1.1248133,-1.4381491,-0.88104159,0.45875704,-0.11535847,0
-0.22160977,1.2432275,1.8985817,-0.093355089,0.070444822,0.99313766,0
-0.19056189,-2.2119679,-1.7926339,0.093355089,-0.070444822,-0.99313766,0
1.2034314,-1.9854128,-0.065422952,0.49853939,-0.86012906,0.10787305,0
-0.91183507,2.2610567,0.54934657,-0.29540312,0.95061797,-0.095196828,0
-0.053347349,-0.11451352,1.9285593,-0.093355089,0.070444822,0.99313766,0
0.58604532,-0.31703448,-1.8227191,0.093355089,-0.070444822,-0.99313766,0
-0.89414173,-0.1593504,-1.9357586,0.093355089,-0.070444822,-0.99313766,0
-1.4091103,-0.60129547,1.9991226,-0.093355089,0.070444822,0.99313766,0
-1.9251311,-0.63929009,-2.0732193,0.093355089,-0.070444822,-0.99313766,0
1.5292026,-1.9362062,0.30749667,0.6327697,-0.76593083,0.11380917,0
0.55102396,-2.0825434,2.1180708,0.33363807,-0.93760735,0.097868025,0
-1.7416806,-1.4165643,-1.3790365,-0.84916353,-0.52641875,-0.042481661,0
0.39368558,-2.112422,1.7258428,0.30782008,-0.94658113,0.096077636,0
0.83006877,-0.073920965,2.2502882,-0.093355089,0.070444822,0.99313766,0
-0.32762647,-1.860714,-1.862707,0.093355089,-0.070444822,-0.99313766,0
1.9563789,0.76455832,2.2857018,-0.093355089,0.070444822,0.99313766,0
1.4068265,1.8093705,1.3152257,0.73642927,0.67618048,0.02126193,0
1.3446652,-0.37851024,1.9861925,-0.093355089,0.070444822,0.99313766,0
-0.29150939,-1.1417102,2.0105829,-0.093355089,0.070444822,0.99313766,0
2.2329109,0.96637785,-1.2687175,0.91859376,0.39083076,0.058625579,0
-1.3650022,-1.7224088,-1.9316816,-0.69062322,-0.72308636,-0.013629019,0
-2.0426278,0.39934444,-1.6524656,-0.97477466,0.19664124,-0.10557711,0
-2.1483686,-0.64765471,0.34406304,-0.93254101,-0.35562539,-0.062433839,0
1.8090372,1.0635833,0.46706223,0.88257325,0.46753004,0.049799323,0
2.0193973,-0.60240567,-1.9309061,0.093355089,-0.070444822,-0.99313766,0
-0.89862692,-0.96446609,1.856234,-0.093355089,0.070444822,0.99313766,0
-0.99925518,-0.30364966,-2.0755439,0.093355089,-0.070444822,-0.99313766,0
0.60133123,-1.9678161,2.1748047,0.38297904,-0.91820467,0.1011298,0
-1.8905289,1.0862014,0.75494576,-0.88082868,0.45916361,-0.11536723,0
2.1119518,0.10486221,1.2473869,0.99338931,0.073516726,0.088164091,0
-1.1395802,2.005857,1.9241412,-0.093355089,0.070444822,0.99313766,0
-1.6641787,1.750523,0.54312027,-0.61903405,0.77714664,-0.11331356,0
1.9498129,0.53342468,-0.46119583,0.94711423,0.31387419,0.066765308,0
0.08982873,2.1383657,-0.50130886,0.046022058,0.99673283,-0.06637381,0
-2.1791127,0.11783147,-1.0809376,-0.99559093,0.0025626421,-0.093767524,0
1.4141808,1.9731708,-1.8934555,0.49381912,0.8694309,-0.0152511,0
-1.8612802,-0.69374228,-1.1167772,-0.93725312,-0.34276479,-0.06378901,0
-1.3886776,-1.6806266,-0.37837398,-0.6569925,-0.75385165,-0.0082855225,0
0.50045288,-0.92452276,-1.9714913,0.093355089,-0.070444822,-0.99313766,0
0.69768047,-2.3830223,-1.5515268,0.25659102,-0.96209675,0.09236268,0
1.7467103,1.633039,-1.3303204,0.69529068,0.71858466,0.014387012,0
0.62059891,-2.3843434,-1.0836116,0.23822129,-0.96694028,0.090979472,0
-1.092806,0.5986886,-2.0541203,0.093355089,-0.070444822,-0.99313766,0
-1.0298206,1.9845842,-0.46730423,-0.52371669,0.84487015,-0.10915744,0
-0.23087037,-1.2968254,-1.9436151,0.093355089,-0.070444822,-0.99313766,0
1.9253862,0.97694135,-1.7510159,0.83555108,0.54797864,0.039672852,0
-1.5345187,-1.7167901,0.95257783,-0.6806882,-0.73247439,-0.012029171,0
-2.1537292,-0.88522756,-1.4841695,-0.95781732,-0.27865449,-0.070269465,0
1.8414326,-0.92999482,2.0145769,0.8688851,-0.48127544,0.11581296,0
1.2166435,-1.6041669,2.0880065,-0.093355089,0.070444822,0.99313766,0
0.82651132,-0.78756464,-2.0038023,0.093355089,-0.070444822,-0.99313766,0
-0.33965993,-2.2485075,0.46898612,-0.071940184,-0.99536383,0.063840434,0
-1.098616,0.033742189,-2.0716105,0.093355089,-0.070444822,-0.99313766,0
-1.4873269,1.676931,1.6723853,-0.093355089,0.070444822,0.99313766,0
1.8749888,-0.39884472,1.5052977,0.9803859,-0.1673964,0.10403001,0
1.7985203,-0.45589399,-1.9482996,0.093355089,-0.070444822,-0.99313766,0
0.8551209,2.2200642,0.48983634,0.4646191,0.88530409,-0.019121766,0
0.86205208,0.31929994,2.2680302,-0.093355089,0.070444822,0.99313766,0
-2.2151537,0.77405524,-0.8158915,-0.93506658,0.33639362,-0.11175722,0
-1.9639032,0.89594823,0.093214273,-0.91330087,0.39112386,-0.11359352,0
-1.8985112,-1.4484346,-0.95016146,-0.83226836,-0.5529989,-0.03900826,0
1.9467976,0.93355256,-1.8295567,0.093355089,-0.070444822,-0.99313766,0
-0.23540604,-2.3979321,-1.7086719,-0.24588108,-0.96822852,0.045565188,0
1.6064682,1.6446785,1.096637,0.72481674,0.68867177,0.019284248,0
-2.1433463,0.90456796,1.4955585,-0.93701541,0.33099401,-0.11155748,0
1.6211638,-1.2341336,1.007502,0.75693864,-0.64297062,0.1167593,0
-1.916748,0.64396191,-2.3942215,0.093355089,-0.070444822,-0.99313766,0
1.5187855,-0.14821136,-1.7410579,0.093355089,-0.070444822,-0.99313766,0
-0.28509605,-0.91949093,2.0070305,-0.093355089,0.070444822,0.99313766,0
-0.37191629,-0.79503644,2.1274483,-0.093355089,0.070444822,0.99313766,0
-0.59138775,1.3767759,-2.2548137,0.093355089,-0.070444822,-0.99313766,0
1.6509098,1.7140454,0.27756882,0.71863538,0.69514775,0.018243849,0
0.79375529,1.5909303,2.1367135,-0.093355089,0.070444822,0.99313766,0
-0.87800151,-0.74963963,-2.0938487,0.093355089,-0.070444822,-0.99313766,0
0.27401924,-2.1670113,1.7253859,0.17668718,-0.98048902,0.086156294,0
0.088613153,0.68805933,-2.1634812,0.093355089,-0.070444822,-0.99313766,0
-0.56163192,-2.202271,-2.052022,-0.4260419,-0.90438247,0.024101317,0
0.052209258,-2.1904635,-1.4733402,-0.077442169,-0.99498558,0.063296393,0
0.41936326,-1.9240481,1.8550845,0.29911548,-0.94942981,0.095461488,0
-0.49304545,2.28439,1.1053882,-0.15526837,0.98425943,-0.084410362,0
0.69116503,-1.9881806,-1.8168554,0.093355089,-0.070444822,-0.99313766,0
0.99423444,-1.2554673,2.0040765,-0.093355089,0.070444822,0.99313766,0
0.80432773,0.97925615,-2.2011654,0.093355089,-0.070444822,-0.99313766,0
-1.0174804,0.29122758,-2.3146536,0.093355089,-0.070444822,-0.99313766,0
-1.3480316,0.89144874,1.8607125,-0.093355089,0.070444822,0.99313766,0
1.2816432,0.97953653,2.1352277,-0.093355089,0.070444822,0.99313766,0
-1.9694014,0.85209036,-0.13819861,-0.93965852,0.32351157,-0.1112752,0
-1.7944081,-1.3957176,1.8991592,-0.7069549,-0.70707089,-0.016300201,0
1.7915463,1.1039208,1.9401007,-0.093355089,0.070444822,0.99313766,0
1.509465,-0.69286585,-1.904393,0.093355089,-0.070444822,-0.99313766,0
-1.6480485,1.3555049,0.59269738,-0.73493969,0.66805565,-0.11647063,0
0.26655966,1.1610249,2.0794516,-0.093355089,0.070444822,0.99313766,0
2.107825,-0.94750941,-0.55575418,0.93388534,-0.33962074,0.11187512,0
2.5717142,-0.10402918,-1.1673055,0.9931432,-0.06390959,0.097888827,0
-0.51895261,-1.1654329,-2.1117058,0.093355089,-0.070444822,-0.99313766,0
2.010107,-1.2225742,-1.6062999,0.86336547,-0.49106678,0.11598867,0
-0.29801941,0.35597539,-2.0300922,0.093355089,-0.070444822,-0.99313766,0
-0.13924289,-1.5980033,2.0494468,-0.093355089,0.070444822,0.99313766,0
-1.2671132,-0.43826175,-2.1449378,0.093355089,-0.070444822,-0.99313766,0
1.1999761,0.82541907,-1.9575468,0.093355089,-0.070444822,-0.99313766,0
-1.6786746,-0.50734699,1.8318803,-0.093355089,0.070444822,0.99313766,0
-1.590093,0.20728695,1.6975086,-0.093355089,0.070444822,0.99313766,0
-1.0141656,0.47795248,1.7542757,-0.093355089,0.070444822,0.99313766,0
-0.45547158,0.2578032,1.7639604,-0.093355089,0.070444822,0.99313766,0
-2.2936399,-0.2242263,1.5078013,-0.98335546,-0.16268986,-0.080895662,0
0.1825223,-2.279439,0.2777667,0.048923135,-0.99596423,0.075244129,0
-0.45765859,-0.27966094,-1.9874413,0.093355089,-0.070444822,-0.99313766,0
1.9870484,-1.3327205,-1.0476009,0.8435635,-0.52424514,0.11648059,0
0.72390056,-2.1094079,-0.97691679,0.29833889,-0.94967967,0.095406204,0
0.1496737,2.2887733,-1.6014159,-0.03962183,0.99644083,-0.074403584,0
0.14047456,2.1509945,0.57622737,0.095526934,0.99352574,-0.06149286,0
-1.0321487,-2.1875842,-1.5038369,-0.57114828,-0.82083446,0.004535079,0
-1.1308943,1.5402098,-2.2484057,0.093355089,-0.070444822,-0.99313766,0
0.25120294,2.4791098,2.0030332,0.19499874,0.97946906,-0.051145464,0
2.1234844,-0.075899839,0.78403974,0.99443161,-0.042390227,0.096483469,0
-1.8631897,-1.1990604,-1.919902,-0.90170968,-0.42891383,-0.054337263,0
1.5946351,0.79920542,-1.988879,0.093355089,-0.070444822,-0.99313766,0
2.24196,0.58612508,-1.0499754,0.93917298,0.33736169,0.064352751,0
2.2101364,-0.045949221,0.4963305,0.99269849,-0.069941938,0.098274827,0
1.9489946,0.0056669712,2.0149646,0.99181998,-0.080634445,0.098950744,0
1.6471586,-1.8800124,-0.60413158,0.61137217,-0.78323007,0.11302489,0
-1.5682325,1.3938071,-0.97084773,-0.79555815,0.59448278,-0.11695021,0
-0.10983264,-0.79090929,1.9582558,-0.093355089,0.070444822,0.99313766,0
-2.1707532,-1.0341877,-0.96415091,-0.92949903,-0.36364788,-0.06157887,0
2.1828985,-0.81242037,-1.6348826,0.093355089,-0.070444822,-0.99313766,0
-1.9043533,0.23762321,-2.3177652,0.093355089,-0.070444822,-0.99313766,0
-0.23300946,-1.4524339,-1.8176107,0.093355089,-0.070444822,-0.99313766,0
-1.93697,1.139505,1.0198209,-0.84101129,0.52831894,-0.1165297,0
-0.89606071,1.72844,1.7430918,-0.093355089,0.070444822,0.99313766,0
-0.6144399,1.8902049,1.6578481,-0.093355089,0.070444822,0.99313766,0
-0.82002401,2.1108291,-0.12929147,-0.43322569,0.895239,-0.10422406,0
2.063663,0.3486284,1.0243425,0.98209167,0.17046967,0.080224991,0
1.5130199,-1.6426339,-1.6159501,0.65298229,-0.7486704,0.11448485,0
2.0980835,1.1045635,0.44897056,0.91433245,0.40085983,0.057513833,0
-0.56659365,1.2479522,-2.3227758,0.093355089,-0.070444822,-0.99313766,0
1.9140267,-1.3982524,0.28020251,0.77744401,-0.61799014,0.11691493,0
-1.4138993,-1.7524018,-0.65835059,-0.70641911,-0.70760828,-0.016211689,0
1.7795947,0.70976508,-1.9429351,0.093355089,-0.070444822,-0.99313766,0
0.99540782,-1.0192673,2.3761358,-0.093355089,0.070444822,0.99313766,0
1.3593047,-1.5802033,0.42858756,0.62634361,-0.77122831,0.11358088,0
-1.1985056,2.1592059,0.94559324,-0.46862084,0.87698579,-0.10625648,0
-0.36073208,-1.1999993,2.0124049,-0.093355089,0.070444822,0.99313766,0
1.8459291,-0.88149285,0.41093302,0.91890693,-0.3778888,0.11318159,0
-0.33296299,-1.9547361,2.1405962,-0.093355089,0.070444822,0.99313766,0
-0.59008193,-0.1166563,-2.1155188,0.093355089,-0.070444822,-0.99313766,0
-0.93341947,-2.0991888,1.731752,-0.40120864,-0.91558188,0.027230024,0
-0.57738972,-0.83910346,2.0843527,-0.093355089,0.070444822,0.99313766,0
-1.9647559,-0.98159242,-2.1399484,0.093355089,-0.070444822,-0.99313766,0
-2.2710121,0.16447365,-1.1562233,-0.98204339,0.15772921,-0.10350013,0
1.4979553,1.9551787,-0.39090729,0.55348915,0.83282661,-0.0070456862,0
-1.500788,-1.9108866,-0.32782137,-0.60595626,-0.79549789,-0.00053405762,0
-2.4886723,0.2715832,0.60945368,-0.98937654,0.10508561,-0.1004554,0
-0.79530287,-1.7744064,-2.1493196,0.093355089,-0.070444822,-0.99313766,0
0.12746072,2.3631375,1.7672102,0.14347339,0.98803461,-0.056596398,0
-1.6115215,-1.7481215,-2.087615,-0.74461257,-0.66711169,-0.022674382,0
0.10344362,-2.1521125,0.3192991,0.12161011,-0.98921824,0.08159823,0
0.58204293,-2.3711896,-0.31581184,0.22399139,-0.97043687,0.089889906,0
1.1507137,1.7519922,1.932831,-0.093355089,0.070444822,0.99313766,0
-0.076638818,1.9112129,1.7345476,-0.093355089,0.070444822,0.99313766,0
-0.7694006,-2.2039671,0.25971985,-0.26127589,-0.96426833,0.04383713,0
1.8029083,0.23357415,2.3212028,-0.093355089,0.070444822,0.99313766,0
-0.49495006,-0.093809009,2.0966203,-0.093355089,0.070444822,0.99313766,0
0.57442784,-1.8706661,0.72648174,0.32198131,-0.94175696,0.097066671,0
1.6331908,1.1819717,1.9174525,-0.093355089,0.070444822,0.99313766,0
-0.15490019,-2.2577798,-1.9373627,0.093355089,-0.070444822,-0.99313766,0
-0.043963492,0.41697812,1.9311966,-0.093355089,0.070444822,0.99313766,0
1.333562,-1.4358284,2.2564464,-0.093355089,0.070444822,0.99313766,0
0.010506153,0.13610697,-2.1028209,0.093355089,-0.070444822,-0.99313766,0
-1.5137312,1.2862455,-1.2870308,-0.75954115,0.63988954,-0.11678541,0
1.6176618,-1.336163,0.83186138,0.78939629,-0.60264122,0.11694968,0
2.1488149,0.27404022,-1.6580374,0.96842402,0.23802754,0.074148417,0
-2.1330676,1.2238457,0.83250284,-0.82058346,0.55946082,-0.11681843,0
1.4393339,-0.26580012,-1.959956,0.093355089,-0.070444822,-0.99313766,0
0.29947162,1.7625554,-1.9959255,0.093355089,-0.070444822,-0.99313766,0
-1.3442881,0.28250718,-2.0262084,0.093355089,-0.070444822,-0.99313766,0
1.6406348,1.7077059,-0.98328471,0.61302829,0.79005945,0.0015844703,0
-1.2772048,0.48521423,2.0404823,-0.093355089,0.070444822,0.99313766,0
1.741892,-1.7248507,0.096415997,0.73077899,-0.67261606,0.11640304,0
0.9307878,-0.18779314,-1.813444,0.093355089,-0.070444822,-0.99313766,0
1.283344,-0.58465809,-1.6769413,0.093355089,-0.070444822,-0.99313766,0
2.0206029,-0.86591005,1.2585393,0.913064,-0.39167172,0.11361009,0
0.37021804,2.3737011,0.65727901,0.15367973,0.98655903,-0.055532306,0
-2.0184193,-0.71039021,1.9393687,-0.093355089,0.070444822,0.99313766,0
-2.2111168,0.61389631,0.67083097,-0.97573215,0.19196674,-0.10533547,0
1.0100417,-2.0093071,-0.84909254,0.46992248,-0.87628031,0.10632879,0
0.92926109,0.46748817,1.8826587,-0.093355089,0.070444822,0.99313766,0
1.2242508,1.9858732,-0.30252111,0.55903763,0.82911873,-0.0062611103,0
1.9957473,0.20043719,0.74280405,0.99247926,0.085914224,0.087199092,0
2.2696242,-0.38635489,-0.57469034,0.99099827,-0.089559764,0.099506617,0
-2.3228321,-0.026948929,-0.75845432,-0.99403912,-0.06301105,-0.088970304,0
1.0646756,-1.115418,-1.7102659,0.093355089,-0.070444822,-0.99313766,0
-1.2745483,-1.5909214,-1.8974942,0.093355089,-0.070444822,-0.99313766,0
1.6249032,1.1736387,-2.1437778,0.093355089,-0.070444822,-0.99313766,0
-0.3931731,1.4603415,1.6719608,-0.093355089,0.070444822,0.99313766,0
1.0473356,-0.83131766,2.0530486,-0.093355089,0.070444822,0.99313766,0
-1.5410174,-0.68448454,1.7284347,-0.093355089,0.070444822,0.99313766,0
-0.97150385,-0.86794448,2.0117428,-0.093355089,0.070444822,0.99313766,0
0.91757053,-1.0550354,-1.9089819,0.093355089,-0.070444822,-0.99313766,0
-2.1201034,0.37134981,-1.9701064,-0.95248771,0.28414032,-0.10968852,0
1.7425303,1.3527713,-0.079460382,0.70735753,0.70666647,0.01636672,0
1.430094,-1.9142594,-1.5892646,0.093355089,-0.070444822,-0.99313766,0
0.081049442,-2.0494313,0.88126326,0.12271923,-0.98907346,0.081692234,0
1.4620185,1.6917483,-1.2537079,0.57057184,0.8212347,-0.004617691,0
-0.87610304,-0.95369208,-1.9460243,0.093355089,-0.070444822,-0.99313766,0
-0.68125796,-1.9479699,-1.7817589,0.093355089,-0.070444822,-0.99313766,0
-2.1549318,-0.36309719,-2.0183375,-0.98766237,-0.13251737,-0.083440661,0
0.77192771,2.2294831,0.56325698,0.28702772,0.95704859,-0.040904343,0
0.61135173,1.8614633,-2.0652604,0.093355089,-0.070444822,-0.99313766,0
0.38728261,-1.5213405,2.0302174,-0.093355089,0.070444822,0.99313766,0
-0.9452281,-1.8922372,1.7970431,-0.3365047,-0.94102675,0.03511703,0
1.1875638,-2.051964,0.026355505,0.5224843,-0.84564066,0.10909623,0
-1.5595558,-1.6331153,-0.86793542,-0.74360502,-0.66824055,-0.022499561,0
-2.1834595,-0.14739609,-2.0893214,-0.9948808,-0.045365363,-0.090301156,0
-0.065303802,1.3530818,-2.2411308,0.093355089,-0.070444822,-0.99313766,0
-0.98030174,1.5541607,-2.0289712,-0.54732323,0.82962185,-0.11029488,0
1.7480668,-1.6134394,-0.056288362,0.77355707,-0.62285256,0.11689448,0
1.7176026,-1.2323072,-1.6322663,0.093355089,-0.070444822,-0.99313766,0
0.28552508,-0.077627659,2.0990415,-0.093355089,0.070444822,0.99313766,0
-1.6726036,-1.6872035,-0.67140174,-0.72255045,-0.69105971,-0.018901885,0
-1.7248585,-1.541793,1.5179145,-0.66906345,-0.74313563,-0.010180235,0
0.24452364,-2.4721098,-1.4794042,0.023180127,-0.99706972,0.072902717,0
1.1145692,1.9240718,-0.17827225,0.45438153,0.89057231,-0.020457864,0
0.18032694,-2.3760381,-1.0070403,0.023760557,-0.99705207,0.072956041,0
-1.1059043,1.7951497,0.0082381368,-0.48288792,0.86911553,-0.10703933,0
-0.40367925,2.3020797,1.4149333,-0.1661132,0.98241055,-0.085298643,0
1.3247006,1.7768286,1.6250083,0.6538983,0.75654233,0.0078037381,0
-0.31121781,0.54151654,1.97595,-0.093355089,0.070444822,0.99313766,0
-0.42439002,0.067727804,1.9395275,-0.093355089,0.070444822,0.99313766,0
0.87188399,-2.1354606,-1.3425623,0.25257272,-0.96318829,0.092062429,0
1.4508647,-1.4430056,2.0757596,-0.093355089,0.070444822,0.99313766,0
-1.0129552,1.9020722,-0.93079126,-0.48573107,0.86751091,-0.10719275,0
-1.8201374,1.291694,0.27384865,-0.76143217,0.63763475,-0.11680323,0
1.7717279,-0.86781895,1.404646,0.89177483,-0.4376556,0.11487061,0
-2.3346786,0.12688029,-0.83421445,-0.99028844,0.096645147,-0.099942446,0
-1.4751211,2.0277247,1.1524953,-0.61396998,0.7811811,-0.11312371,0
-0.92375809,1.1955078,1.8057976,-0.093355089,0.070444822,0.99313766,0
-2.1185517,0.5526638,-0.90738702,-0.96029651,0.25701901,-0.10849881,0
-0.56188154,1.0611401,1.9563922,-0.093355089,0.070444822,0.99313766,0
-0.75899553,1.6320995,-2.263128,0.093355089,-0.070444822,-0.99313766,0
0.2681849,-2.3361251,-0.094087571,0.073607564,-0.99427575,0.077444695,0
-1.2518821,-0.34800315,-2.2502337,0.093355089,-0.070444822,-0.99313766,0
0.87554467,-0.60358834,-1.8383594,0.093355089,-0.070444822,-0.99313766,0
2.1298916,-0.48592257,1.8740633,0.96960402,-0.22016022,0.10675919,0
0.093924761,2.2295637,0.88547444,0.046190262,0.99672616,-0.066357478,0
0.0091619492,-1.2216136,2.2259889,-0.093355089,0.070444822,0.99313766,0
-1.0543802,-0.10741663,-2.0893426,0.093355089,-0.070444822,-0.99313766,0
1.3470662,-1.589836,1.4172069,0.60050929,-0.79164988,0.11260092,0
0.32915187,2.2448313,0.58932012,0.23113918,0.971775,-0.047202468,0
0.97014385,-1.9920092,-1.3818538,0.41874999,-0.90220046,0.10335708,0
0.070750475,2.2298732,-0.52651799,-0.06273663,0.99509537,-0.076480985,0
1.9426641,-0.058633804,2.0273225,-0.093355089,0.070444822,0.99313766,0
-2.4096384,-0.14865506,1.4747301,-0.98579186,-0.14644012,-0.082277298,0
1.9097588,1.1072052,2.2117684,0.91968191,0.38821965,0.058913112,0
-1.5901003,1.0134943,-2.0635002,0.093355089,-0.070444822,-0.99313766,0
0.74322593,-2.2798901,-1.418299,0.18291163,-0.97930276,0.086657286,0
1.7356884,-1.0911216,-1.6207883,0.093355089,-0.070444822,-0.99313766,0
1.7957786,-0.85634947,1.7901198,0.8609032,-0.49535391,0.11606127,0
-0.36337274,-1.6033772,-1.8438528,0.093355089,-0.070444822,-0.99313766,0
-0.55786002,-2.1321466,-0.73668414,-0.25949419,-0.9647401,0.044038087,0
-1.8263128,0.70028126,-0.79886651,-0.897645,0.42556822,-0.11456501,0
-1.9934545,-0.90545714,-1.7674373,-0.95595765,-0.28512448,-0.069635868,0
1.5462594,-1.2172788,1.5358771,0.7966575,-0.59300905,0.11694896,0
-0.047396004,-0.72219276,-1.7884474,0.093355089,-0.070444822,-0.99313766,0
-0.32936764,-0.86101985,-2.120677,0.093355089,-0.070444822,-0.99313766,0
0.12478423,-2.3587844,-0.67738116,0.010771394,-0.99736404,0.071757182,0
-1.7317343,1.286878,-1.6708454,-0.77057809,0.62653762,-0.11687577,0
-1.5091214,0.073296666,1.6891243,-0.093355089,0.070444822,0.99313766,0
2.0099807,1.3087018,0.63573813,0.82753682,0.56011993,0.038058281,0
2.3039608,0.45965618,-1.5474958,0.93741274,0.34231925,0.063835621,0
2.0132425,0.73754221,0.55341387,0.94718826,0.31364572,0.066788435,0
-1.6340519,1.6547126,1.8015709,-0.093355089,0.070444822,0.99313766,0
1.3172126,1.6902838,-1.9203986,0.093355089,-0.070444822,-0.99313766,0
-1.0533057,1.4190819,-2.3865166,0.093355089,-0.070444822,-0.99313766,0
2.235754,0.077798665,0.052468538,0.99466419,-0.037392795,0.096150875,0
0.87131381,-1.898947,2.0875375,0.41805303,-0.90252852,0.10331485,0
2.0412092,0.41730925,-1.2960606,0.95467019,0.28950971,0.069203734,0
-2.0806234,-0.92699492,-0.29210925,-0.89920729,-0.43421173,-0.053726315,0
-2.0118191,-0.77863383,-1.9640532,0.093355089,-0.070444822,-0.99313766,0
1.9907053,0.27195311,1.5053747,0.99521554,0.035482913,0.091033578,0
1.391546,-1.7126875,0.64424443,0.56448132,-0.81793779,0.11107895,0
1.7616509,1.3462869,1.3711468,0.79813272,0.60161251,0.032351255,0
0.096048236,-0.19153571,1.9428773,-0.093355089,0.070444822,0.99313766,0
-0.693501,-0.17211437,-1.9013283,0.093355089,-0.070444822,-0.99313766,0
-2.1134751,0.34250155,0.35825276,-0.96493649,0.23937815,-0.10768366,0
-1.9344528,1.2241247,1.7887185,-0.093355089,0.070444822,0.99313766,0
2.2791967,0.25567865,1.1957867,0.99562538,0.010495991,0.092844367,0
0.75800389,-0.89016354,-1.7855842,0.093355089,-0.070444822,-0.99313766,0
1.5158455,-1.1098669,-1.7378119,0.093355089,-0.070444822,-0.99313766,0
2.1481104,-0.10583282,1.8947359,0.99368215,-0.055818111,0.097365499,0
0.3805275,-1.712638,1.9960469,-0.093355089,0.070444822,0.99313766,0
-0.15477681,1.8761296,-2.0081668,0.093355089,-0.070444822,-0.99313766,0
1.4856524,-1.8906972,-0.60943288,0.56822234,-0.81532073,0.11124504,0
0.60372066,-1.886281,2.2389171,-0.093355089,0.070444822,0.99313766,0
-2.452564,-0.023194015,0.54651475,-0.99544168,-0.026151568,-0.091716766,0
-2.0442703,1.1272318,-0.43498015,-0.8949033,0.43126497,-0.11471128,0
-2.0923045,0.51363277,-2.2573698,-0.97637939,0.18874142,-0.10516763,0
1.5987234,-1.6739107,-1.7304449,0.093355089,-0.070444822,-0.99313766,0
-1.0725391,1.9441391,0.78051108,-0.50717527,0.85500854,-0.10832167,0
-2.1156421,0.035231769,1.65914,-0.093355089,0.070444822,0.99313766,0
0.48016343,0.76659572,2.1865513,-0.093355089,0.070444822,0.99313766,0
0.055777073,-1.375828,2.2731669,-0.093355089,0.070444822,0.99313766,0
-1.2542783,-0.096180439,-2.0980213,0.093355089,-0.070444822,-0.99313766,0
0.16068435,2.1906776,-0.11717865,0.041056037,0.99691784,-0.066853747,0
-0.53371322,0.82410765,1.8420689,-0.093355089,0.070444822,0.99313766,0
-2.2828498,0.33098879,0.92889178,-0.99430823,0.044840395,-0.096645713,0
0.046099186,-2.3383019,-1.1554699,-0.02234292,-0.99739081,0.068646312,0
-0.46574974,1.734764,-2.3521075,0.093355089,-0.070444822,-0.99313766,0
-0.18395495,1.6991392,-2.0802329,0.093355089,-0.070444822,-0.99313766,0
-1.4139836,-1.6638405,0.15448999,-0.65420508,-0.75627643,-0.0078514814,0
0.75284827,-0.017269373,1.9923346,-0.093355089,0.070444822,0.99313766,0
-1.4096487,1.5290387,-0.45524144,-0.71524107,0.68916422,-0.11611629,0
-0.67504501,-1.9369661,0.61024207,-0.38148797,-0.92389739,0.029673576,0
-1.1591125,1.7345607,0.50666553,-0.55159652,0.82676017,-0.11049363,0
-1.6691177,-1.1738776,-1.9674484,0.093355089,-0.070444822,-0.99313766,0
-2.0662498,1.1527834,0.86760712,-0.88888013,0.44346893,-0.11501086,0
0.0070961118,1.7641625,1.7690885,-0.093355089,0.070444822,0.99313766,0
1.2926588,0.93930793,2.1959877,-0.093355089,0.070444822,0.99313766,0
-2.1720846,1.1105144,0.53938806,-0.91510022,0.38693324,-0.11346537,0
-0.10815644,2.3135884,1.7459761,-0.093355089,0.070444822,0.99313766,0
-0.75899541,0.62597942,-2.1492519,0.093355089,-0.070444822,-0.99313766,0
-1.4598484,1.737167,-0.12920558,-0.68840438,0.71607155,-0.11550218,0
2.2518692,-0.13809532,-0.76009512,0.99117607,-0.087700605,0.099391341,0
1.5047529,1.4776492,-1.3512768,0.66598386,0.74590325,0.0096944571,0
0.71148098,0.80785084,-2.0476675,0.093355089,-0.070444822,-0.99313766,0
-0.099105597,-0.43875408,-2.1177683,0.093355089,-0.070444822,-0.99313766,0
-0.70852542,-2.1826992,-1.8983862,0.093355089,-0.070444822,-0.99313766,0
-0.46861768,-2.1111426,2.1398528,-0.12990141,-0.98982906,0.057999462,0
-0.14038248,0.79704618,2.0771608,-0.093355089,0.070444822,0.99313766,0
-0.47126722,2.1187935,-0.12136537,-0.14429903,0.98600465,-0.083503045,0
1.0184245,2.0152261,-1.2803645,0.33875853,0.94022787,-0.034848511,0
-0.96303141,-1.1117554,-1.8351023,0.093355089,-0.070444822,-0.99313766,0
1.590456,-0.25173032,-1.7471459,0.093355089,-0.070444822,-0.99313766,0
0.83520973,-1.8655876,1.1685917,0.43422812,-0.8947463,0.10428333,0
0.49439454,-1.9959435,1.8591886,0.24113864,-0.96619594,0.091200903,0
1.7148383,-1.4571579,1.359916,0.77604514,-0.61974716,0.11690801,0
2.2393529,0.38896984,-0.50073266,0.98126799,0.17534208,0.079801917,0
1.6569194,1.5895188,-0.65825284,0.72481364,0.68867499,0.019283712,0
-0.26016915,1.7726166,1.8696504,-0.093355089,0.070444822,0.99313766,0
0.71822304,0.54878449,2.0693226,-0.093355089,0.070444822,0.99313766,0
0.27664018,2.0028858,-0.68308699,0.082216024,0.9946326,-0.06282258,0
-0.48438263,2.0199933,0.73182702,-0.22330546,0.97059983,-0.089836992,0
-0.54585695,2.2300618,1.2614145,-0.13936752,0.9867484,-0.083092205,0
-1.1618435,1.7708873,1.956241,-0.093355089,0.070444822,0.99313766,0
1.2000961,-1.7848626,-0.48463279,0.52845275,-0.84188557,0.10939094,0
0.19920135,-2.2716126,-0.12957145,-0.0060807467,-0.99751562,0.070183814,0
-0.95508957,-1.9432333,1.6185856,-0.38031381,-0.92437667,0.029817998,0
-1.5791423,1.8304192,1.2257307,-0.68133771,0.72282845,-0.11531729,0
0.76983285,-2.2047307,0.81511247,0.32831693,-0.93952173,0.097503632,0
0.92867613,2.0324254,0.57423723,0.37953109,0.92469525,-0.0299142,0
1.0271038,0.03931427,1.9200966,-0.093355089,0.070444822,0.99313766,0
0.49055535,1.7124817,1.7862269,-0.093355089,0.070444822,0.99313766,0
-1.91558,0.7741192,-0.56332004,-0.94831753,0.29755545,-0.11024809,0
-0.084623158,0.034192324,1.9375896,-0.093355089,0.070444822,0.99313766,0
-0.25443792,2.1353397,-1.2628112,-0.1759423,0.98062831,-0.086096175,0
-0.71639454,-1.9837205,-0.53226107,-0.43086731,-0.90210956,0.023486495,0
-2.0490503,0.079254687,0.038573742,-0.9954235,-0.027058929,-0.091650605,0
-1.4830211,-1.5494421,-0.94111133,-0.75358605,-0.65690207,-0.024242043,0
-1.6942422,1.2537963,-1.4027203,-0.78646213,0.60646617,-0.11694515,0
-2.1821256,-0.13151097,-1.7857633,-0.99459267,-0.052182287,-0.089790463,0
0.1355774,-0.84358573,-2.0406203,0.093355089,-0.070444822,-0.99313766,0
1.3074864,-0.40525985,2.3248615,-0.093355089,0.070444822,0.99313766,0
-1.8873676,1.2992841,1.544421,-0.81171334,0.5722394,-0.11689103,0
0.63462079,2.3254502,1.1707281,0.23978436,0.96972418,-0.046244353,0
-0.24740088,0.70016313,-1.8918762,0.093355089,-0.070444822,-0.99313766,0
-0.04341197,-0.92067266,1.9350483,-0.093355089,0.070444822,0.99313766,0
-2.1979375,-0.80130899,-0.87339139,-0.94460028,-0.32152134,-0.065986514,0
-0.68636578,-1.7234131,-2.0306242,0.093355089,-0.070444822,-0.99313766,0
-2.1379526,0.31053448,-1.9642737,-0.9885686,0.1120567,-0.10087395,0
1.4918582,-0.47145152,-1.9236214,0.093355089,-0.070444822,-0.99313766,0
-1.5773115,1.4639091,-0.98793685,-0.74217296,0.65999144,-0.1165787,0
0.44101793,0.94493639,2.1850832,-0.093355089,0.070444822,0.99313766,0
-1.0994346,1.3870757,1.9931511,-0.093355089,0.070444822,0.99313766,0
1.5375044,-1.1840649,1.1201601,0.77676201,-0.61884779,0.11691165,0
0.37679744,-1.6145676,2.1774821,-0.093355089,0.070444822,0.99313766,0
1.040626,-1.7527125,-1.9268053,0.093355089,-0.070444822,-0.99313766,0
-2.1891284,0.64205539,-1.2285833,-0.96383607,0.24368197,-0.1078856,0
2.0497522,-0.20293403,2.2688355,0.99273062,-0.069521576,0.098248124,0
0.43486762,-2.1275792,-1.6327909,0.093355089,-0.070444822,-0.99313766,0
-0.62595367,1.3823383,-2.290544,0.093355089,-0.070444822,-0.99313766,0
-0.33298588,2.4293337,0.62640405,-0.17509681,0.98078561,-0.086027838,0
-0.97464466,-2.0977588,-2.0073464,0.093355089,-0.070444822,-0.99313766,0
2.0571115,-1.0886492,-1.6050944,0.093355089,-0.070444822,-0.99313766,0
1.0168273,-0.57836413,2.2322974,-0.093355089,0.070444822,0.99313766,0
1.3232096,-1.7469962,-0.39583373,0.5788275,-0.80776268,0.11170578,0
0.3687799,-0.27218294,1.8989387,-0.093355089,0.070444822,0.99313766,0
0.53085756,1.7827657,-2.268147,0.093355089,-0.070444822,-0.99313766,0
2.0970907,-1.2020233,-0.65314114,0.81625801,-0.56574476,0.11685753,0
-0.21069574,2.0852549,-1.1252301,-0.11124361,0.99050987,-0.080715418,0
-1.4579874,0.78139222,1.6504352,-0.093355089,0.070444822,0.99313766,0
1.0250247,-1.8854523,0.87012166,0.57605457,-0.80975902,0.11158669,0
-0.1975472,2.2831039,-1.3998687,-0.072419167,0.99437118,-0.077339761,0
-1.9627287,-1.0247424,-2.1257343,0.093355089,-0.070444822,-0.99313766,0
1.9584002,-1.1373775,0.48263621,0.88620126,-0.44876656,0.11513478,0
-0.016849279,-1.4129313,2.1017106,-0.093355089,0.070444822,0.99313766,0
-1.950492,-0.55745685,1.7115891,-0.093355089,0.070444822,0.99313766,0
-1.9119899,0.046808362,1.7369292,-0.093355089,0.070444822,0.99313766,0
-1.790272,0.69181585,-2.3785663,0.093355089,-0.070444822,-0.99313766,0
1.8432673,0.85699517,-1.7495334,0.093355089,-0.070444822,-0.99313766,0
-1.9812663,-0.67350382,-0.61898756,-0.95231891,-0.2973322,-0.06842792,0
-1.630605,-1.3361293,1.4821892,-0.74306118,-0.6688484,-0.022405386,0
1.9188881,1.2487662,1.4348834,0.8553611,0.51617819,0.043790698,0
0.70660162,2.1342971,-1.5749213,0.22804105,0.97248995,-0.04754439,0
0.26537585,-2.1416395,-0.92908567,0.10573637,-0.99115133,0.080243215,0
-0.97765255,-0.89583278,-2.1769102,0.093355089,-0.070444822,-0.99313766,0
1.545218,1.2734634,1.8454645,0.84269822,0.53681254,0.041136742,0
-2.1428046,0.37641409,0.18801022,-0.96877182,0.22371072,-0.10693276,0
1.7770429,1.3500295,1.0429676,0.7974115,0.60257542,0.032215118,0
1.6306839,1.440263,-0.19838631,0.67201084,0.74046475,0.01064676,0
0.67276931,-2.2356958,0.47990251,0.36207384,-0.92679429,0.099774033,0
0.42211533,2.1167107,-1.9521651,0.16004324,0.98558414,-0.054865003,0
2.2694294,-0.87617075,-1.8196552,0.93835413,-0.3272278,0.11141622,0
0.58585405,1.8171476,-2.1077933,0.093355089,-0.070444822,-0.99313766,0
-1.4596752,1.6478586,1.635519,-0.093355089,0.070444822,0.99313766,0
-2.0291162,-0.38729858,-1.4147408,-0.99435037,-0.057208806,-0.089411139,0
2.1661296,0.54451257,-0.63543248,0.96419555,0.25507748,0.072541475,0
-1.8192533,1.4372745,1.7888713,-0.093355089,0.070444822,0.99313766,0
1.0273747,-1.5084037,1.662931,0.56816947,-0.81535804,0.11124262,0
0.60730028,2.0812192,-2.2219117,0.093355089,-0.070444822,-0.99313766,0
-0.990372,0.43610084,2.0014572,-0.093355089,0.070444822,0.99313766,0
-1.0316014,0.86795294,1.9354813,-0.093355089,0.070444822,0.99313766,0
-0.63698554,-0.91267347,2.1837392,-0.093355089,0.070444822,0.99313766,0
-0.82402098,-0.4026227,2.0357053,-0.093355089,0.070444822,0.99313766,0
1.3459097,2.0434132,0.12914181,0.53494447,0.8448323,-0.0096404552,0
-0.94501245,1.8183091,-1.0356343,-0.50028497,0.85910344,-0.10796443,0
0.75433791,0.13736033,2.0520763,-0.093355089,0.070444822,0.99313766,0
1.934813,-1.0063035,-0.12952316,0.87152773,-0.47649541,0.11572236,0
2.04738,-1.1508143,-0.83033669,0.85836965,-0.49971479,0.1161325,0
1.8754838,-1.2541281,1.0116204,0.78835517,-0.60400254,0.11694831,0
0.74386418,-0.65571642,2.2458735,-0.093355089,0.070444822,0.99313766,0
0.34550321,-2.1316929,-1.6710758,0.093355089,-0.070444822,-0.99313766,0
1.1815847,-1.0383465,2.0551801,-0.093355089,0.070444822,0.99313766,0
-1.0710537,-1.0119779,2.0293262,-0.093355089,0.070444822,0.99313766,0
-1.1620586,1.8131481,-0.99293727,-0.61374044,0.78136277,-0.11311501,0
-0.016119957,-0.94372749,1.9533141,-0.093355089,0.070444822,0.99313766,0
-2.0347326,0.88177824,1.6845627,-0.093355089,0.070444822,0.99313766,0
-1.5624019,1.9032302,1.1216214,-0.56430799,0.81805855,-0.11107123,0
-1.8374934,-1.5690131,0.54063356,-0.74327862,-0.66860551,-0.022442997,0
-2.4008932,0.18507242,1.9345658,-0.093355089,0.070444822,0.99313766,0
0.86693561,0.3183279,2.0510545,-0.093355089,0.070444822,0.99313766,0
-2.0117259,-0.7646597,0.37661028,-0.91531575,-0.39857242,-0.057768345,0
-0.13616085,2.0915747,-2.1411147,0.093355089,-0.070444822,-0.99313766,0
-1.5859795,0.39869952,1.7407275,-0.093355089,0.070444822,0.99313766,0
1.4987671,-1.5476527,-0.3423723,0.68158996,-0.72258937,0.1153239,0
-0.40909764,-0.76112843,-1.8253889,0.093355089,-0.070444822,-0.99313766,0
-0.49686718,-2.2867553,-1.3060167,-0.24497461,-0.96845341,0.045666337,0
-1.948032,-0.95879352,1.8505435,-0.093355089,0.070444822,0.99313766,0
-0.60688591,1.0351832,-2.3432169,0.093355089,-0.070444822,-0.99313766,0
1.909602,-1.3115214,1.1586338,0.83266276,-0.54135108,0.1166693,0
2.1626177,-1.3087183,-0.63754702,0.87692887,-0.46652997,0.11552316,0
2.1939697,-0.90559161,-0.49732816,0.89583719,-0.42933458,0.11466223,0
0.16759467,-0.25943279,2.0848799,-0.093355089,0.070444822,0.99313766,0
-0.095888793,-1.7551962,-1.8203195,0.093355089,-0.070444822,-0.99313766,0
-2.1549368,0.76496911,-0.24242783,-0.9362241,0.33319819,-0.11163944,0
-1.1892831,-0.48432326,-2.1778431,0.093355089,-0.070444822,-0.99313766,0
0.6009171,2.3356531,-0.12613463,0.22575963,0.97300994,-0.047795743,0
-0.66875124,-2.1466007,1.4965978,-0.18661118,-0.98105431,0.052046299,0
-2.1237357,-0.38503969,0.29139495,-0.98851717,-0.1256021,-0.084011674,0
-0.86331272,-2.0551026,-1.3742557,-0.37461007,-0.92668015,0.030517578,0
2.2640009,0.80224824,1.0664132,0.95598888,0.2850171,0.069646239,0
1.4847147,-1.2697787,-1.8090434,0.093355089,-0.070444822,-0.99313766,0
0.86134219,-1.9698005,0.5202437,0.34502071,-0.93339753,0.098639369,0
0.39596218,-1.0427132,-1.7278647,0.093355089,-0.070444822,-0.99313766,0
-1.9829464,-1.4686043,0.99142921,-0.76890975,-0.6387884,-0.026967347,0
1.8983767,-1.4971792,-0.84309733,0.79671562,-0.59293109,0.11694896,0
1.9989377,-0.5095036,1.8689657,0.96092457,-0.25470558,0.10839379,0
0.80663729,1.6640698,-2.0794287,0.093355089,-0.070444822,-0.99313766,0
0.15695667,2.27267,-1.4207493,0.048324704,0.99663866,-0.066150665,0
-2.4537883,-0.24160337,0.87680483,-0.99319911,-0.076291651,-0.087949395,0
-0.85045362,-1.4755901,1.9265705,-0.093355089,0.070444822,0.99313766,0
0.66271079,2.0047855,0.3755632,0.30921239,0.95022023,-0.038334608,0
1.6301827,0.78809065,-1.8054,0.093355089,-0.070444822,-0.99313766,0
2.0155969,-1.1551639,-1.2240883,0.8575635,-0.50109196,0.11615437,0
-1.384317,1.4279432,1.7977356,-0.093355089,0.070444822,0.99313766,0
0.2530601,2.1106372,0.33967286,0.10662448,0.99246472,-0.060374424,0
2.3259864,0.60313547,1.3017075,0.97937763,0.18600893,0.078867674,0
-0.97411954,2.1093974,0.38552848,-0.39757174,0.91187823,-0.10205281,0
0.16748023,-1.8456837,2.1361473,-0.093355089,0.070444822,0.99313766,0
-0.20187551,0.1096679,1.9265363,-0.093355089,0.070444822,0.99313766,0
1.8425633,-0.28409624,2.0426245,-0.093355089,0.070444822,0.99313766,0
0.28629935,2.2585859,1.3814409,0.28242636,0.95839387,-0.041432351,0
-1.7577419,1.5248648,-0.16396165,-0.70307976,0.70160985,-0.11585593,0
1.8412106,-1.2766629,-0.2852186,0.78359216,-0.61017102,0.11693817,0
-0.42291462,-0.88065219,-2.0322495,0.093355089,-0.070444822,-0.99313766,0
2.1788807,0.065219283,-1.7424155,0.98488164,0.15272826,0.081745744,0
-0.31360173,-1.6403652,-1.8365176,0.093355089,-0.070444822,-0.99313766,0
0.38772732,0.14342403,1.9319634,-0.093355089,0.070444822,0.99313766,0
-1.8568267,0.89326531,-0.39093363,-0.8771466,0.46612248,-0.11551476,0
-1.9803582,-0.85693765,-1.6922814,-0.93187761,-0.3573927,-0.062246203,0
1.4102964,-1.7938944,1.0256233,0.61659443,-0.77909696,0.11322254,0
1.2827853,0.33873272,-1.9594065,0.093355089,-0.070444822,-0.99313766,0
1.6952405,0.94990325,-1.9238739,0.093355089,-0.070444822,-0.99313766,0
1.1849105,1.8386647,0.99531698,0.51640844,0.85625565,-0.012193143,0
0.95260608,-0.56780243,2.1909206,-0.093355089,0.070444822,0.99313766,0
-2.0668728,-1.0223961,-0.98335981,-0.9067986,-0.41788197,-0.05559814,0
-2.1270792,0.50183749,0.88490212,-0.97441578,0.1983653,-0.10566556,0
-1.3916323,1.8499734,1.8252989,-0.093355089,0.070444822,0.99313766,0
-2.2191994,-0.65960789,1.466947,-0.96726203,-0.24284348,-0.073697448,0
-1.3489193,-0.72885513,2.0743227,-0.093355089,0.070444822,0.99313766,0
1.9865116,0.81995225,-1.826303,0.86706948,0.49602941,0.046320558,0
-1.6469891,1.5210743,0.051561236,-0.73484403,0.66816109,-0.1164692,0
0.50127721,2.2393026,-1.9373983,0.093355089,-0.070444822,-0.99313766,0
-2.1393735,-0.37275803,-1.3160415,-0.99484366,-0.046311885,-0.090230346,0
-1.1591285,1.9692914,-1.2943633,-0.5247407,0.84422785,-0.10920817,0
-2.1603343,-0.41922545,-2.0058675,0.093355089,-0.070444822,-0.99313766,0
1.7771031,1.3082525,0.17013645,0.8609336,0.50672466,0.044985175,0
0.040055752,-2.017257,0.67508686,0.080618858,-0.99368352,0.078061789,0
-0.84202379,-1.2238276,-2.0241699,0.093355089,-0.070444822,-0.99313766,0
-2.0291004,-0.084636569,-0.58686638,-0.99534023,-0.030786723,-0.091378331,0
-2.2439823,0.51174074,0.10543466,-0.96720326,0.23025104,-0.10724926,0
-0.97209692,-1.9085433,-0.61067891,-0.42035323,-0.90702093,0.024823189,0
-1.6170369,0.62304759,-2.2500267,0.093355089,-0.070444822,-0.99313766,0
1.4300501,1.7343818,0.7973814,0.62435818,0.78113139,0.003282845,0
-2.1711388,0.91679311,1.6394744,-0.93917322,0.32489926,-0.11132801,0
-0.11729735,1.7607803,1.7592542,-0.093355089,0.070444822,0.99313766,0
0.233464,1.6964791,-1.9673045,0.093355089,-0.070444822,-0.99313766,0
0.26532617,1.1897233,2.0038624,-0.093355089,0.070444822,0.99313766,0
-1.5007586,-0.53823924,-2.3041711,0.093355089,-0.070444822,-0.99313766,0
0.53371525,1.774225,-2.0908833,0.093355089,-0.070444822,-0.99313766,0
1.7941647,1.4869114,-0.74267268,0.79663849,0.60360479,0.032069445,0
-1.7557602,-0.20512688,1.9939899,-0.093355089,0.070444822,0.99313766,0
0.76568484,-1.9190387,2.4098494,-0.093355089,0.070444822,0.99313766,0
2.0644972,-1.2625793,-1.7341561,0.093355089,-0.070444822,-0.99313766,0
-0.30110097,1.1991738,-2.2166741,0.093355089,-0.070444822,-0.99313766,0
-1.6703776,0.25336206,1.6650262,-0.093355089,0.070444822,0.99313766,0
-0.55439162,1.0670485,-2.2044218,0.093355089,-0.070444822,-0.99313766,0
1.3643661,-1.8111194,-1.8740581,0.093355089,-0.070444822,-0.99313766,0
-2.0784528,-0.48501435,0.46971321,-0.96822333,-0.23886675,-0.074069977,0
-2.0296664,-1.01214,-0.38048124,-0.91919041,-0.38940141,-0.058783174,0
2.2514627,-0.2341519,-1.7862138,0.093355089,-0.070444822,-0.99313766,0
0.80649495,-0.3781234,-1.7318479,0.093355089,-0.070444822,-0.99313766,0
-0.9871757,-2.0892172,-0.56479132,-0.38389051,-0.92291117,0.029377818,0
0.95046115,2.0127139,-1.8690563,0.093355089,-0.070444822,-0.99313766,0
1.6196592,-1.7397249,-0.73709154,0.63992941,-0.75992209,0.11405593,0
1.1703813,0.54811549,2.0082073,-0.093355089,0.070444822,0.99313766,0
1.1404381,-1.8397378,0.74148589,0.51992583,-0.84723252,0.1089687,0
-1.4892967,-0.80125171,1.7439159,-0.093355089,0.070444822,0.99313766,0
-0.071035147,-2.0125744,-1.9508935,0.093355089,-0.070444822,-0.99313766,0
-0.28975201,-2.1051452,-1.766493,0.093355089,-0.070444822,-0.99313766,0
0.25356865,2.0856521,-1.3645916,0.013747454,0.99748993,-0.069461301,0
1.8427116,-0.57823384,1.3094134,0.95756471,-0.26683745,0.10893846,0
0.17539835,1.9111415,-2.326992,0.093355089,-0.070444822,-0.99313766,0
-1.3678541,-1.485898,-1.8736598,0.093355089,-0.070444822,-0.99313766,0
2.042114,-1.0662063,0.82197857,0.87544668,-0.4692916,0.11557972,0
-1.7954707,-0.9438529,-1.6626133,-0.89841557,-0.43587098,-0.053534269,0
-1.0263996,-0.77573907,1.9446591,-0.093355089,0.070444822,0.99313766,0
-1.4185693,-1.175337,2.0537736,-0.093355089,0.070444822,0.99313766,0
-1.6003532,1.4227377,0.65233326,-0.75015813,0.65088224,-0.11668313,0
-1.1590214,-1.4585693,-2.2031112,0.093355089,-0.070444822,-0.99313766,0
2.1624317,0.48833483,0.02901721,0.96550655,0.24992749,0.073029995,0
1.1566869,0.01902914,1.9642558,-0.093355089,0.070444822,0.99313766,0
0.040899277,2.2632518,-1.9402548,-0.024644613,0.99702466,-0.073037207,0
-1.6683768,1.0771108,-2.1557043,0.093355089,-0.070444822,-0.99313766,0
0.27179688,1.5402426,1.9611783,-0.093355089,0.070444822,0.99313766,0
-0.9913522,1.1722758,-2.3384585,0.093355089,-0.070444822,-0.99313766,0
-1.3053787,-1.5252316,1.8455868,-0.093355089,0.070444822,0.99313766,0
-1.2750666,0.43958271,1.8676349,-0.093355089,0.070444822,0.99313766,0
0.20271194,-0.87171614,2.2022192,-0.093355089,0.070444822,0.99313766,0
1.8552303,-1.7282872,-0.77636778,0.75575304,-0.64436603,0.11674684,0
0.95153534,-0.45914364,1.9715391,-0.093355089,0.070444822,0.99313766,0
-0.85561615,-0.93361831,-2.0156624,0.093355089,-0.070444822,-0.99313766,0
-1.629248,2.1667492,1.7436833,-0.57729244,0.8088696,-0.11163998,0
0.3978951,-1.4905403,-1.749944,0.093355089,-0.070444822,-0.99313766,0
-0.86094105,-1.9396927,-0.47133267,-0.35218954,-0.93533826,0.033239245,0
0.10874367,1.9883668,-1.0812049,0.031054378,0.99721456,-0.067814901,0
-1.3646195,2.1169901,1.1660799,-0.50326437,0.85734195,-0.10811961,0
-0.51085806,1.8416679,1.6377826,-0.093355089,0.070444822,0.99313766,0
-1.6876174,-1.0339934,-0.92380965,-0.87080705,-0.48935947,-0.04714489,0
-1.5643528,-1.4097762,-1.9619088,-0.84829426,-0.52783298,-0.042299747,0
-0.74223328,2.1710162,-0.38412541,-0.33925539,0.93554944,-0.098250106,0
1.8707336,-0.82578468,1.3585664,0.9112922,-0.39574185,0.11373222,0
2.3372622,-0.61089289,-0.30944085,0.96813637,-0.22638384,0.1070627,0
-0.85377455,-1.8495634,0.26390707,-0.4679414,-0.88356209,0.018685937,0
-2.3594155,-0.28967321,1.0131657,-0.96804464,-0.23961183,-0.074000239,0
-0.87705755,1.729697,-2.2912941,0.093355089,-0.070444822,-0.99313766,0
-1.9915463,-1.3296529,-0.88626289,-0.85572153,-0.51557386,-0.043867469,0
-0.034585714,-2.3922219,-0.31272787,0.031443834,-0.99678767,0.073659502,0
0.29974127,-1.2079905,-1.9961907,0.093355089,-0.070444822,-0.99313766,0
0.46697497,1.9281769,1.762517,-0.093355089,0.070444822,0.99313766,0
1.0186135,0.84597087,2.2379029,-0.093355089,0.070444822,0.99313766,0
0.43009216,-0.18585443,-1.8309667,0.093355089,-0.070444822,-0.99313766,0
-0.94635606,-0.71442878,1.985111,-0.093355089,0.070444822,0.99313766,0
1.751967,-1.4167353,-1.6097047,0.093355089,-0.070444822,-0.99313766,0
1.3273283,-0.87406993,2.1222787,-0.093355089,0.070444822,0.99313766,0
2.3356152,0.19495267,-1.2627312,0.9766078,0.2005474,0.077576041,0
1.9768076,0.019230127,2.3931932,-0.093355089,0.070444822,0.99313766,0
-1.5737824,1.442456,-1.4254197,-0.70255345,0.70213872,-0.11584395,0
-1.1922165,-1.9708411,-0.88329029,-0.52090281,-0.8535375,0.011577904,0
1.1374738,0.280761,-2.0825474,0.093355089,-0.070444822,-0.99313766,0
1.8657234,0.46861637,-2.0320187,0.093355089,-0.070444822,-0.99313766,0
-2.0739558,1.0867034,-0.63759875,-0.88357133,0.45389289,-0.11525106,0
1.1623958,1.360309,2.1103189,-0.093355089,0.070444822,0.99313766,0
-0.41889,0.082008243,1.8640411,-0.093355089,0.070444822,0.99313766,0
-0.0060405731,-1.5482216,-1.7919375,0.093355089,-0.070444822,-0.99313766,0
1.0211011,0.5550729,-1.9516134,0.093355089,-0.070444822,-0.99313766,0
-1.936623,0.64975905,-2.3021574,0.093355089,-0.070444822,-0.99313766,0
0.665905,2.1478968,-0.54053807,0.29535055,0.9545536,-0.039945066,0
0.49774063,0.28351271,-1.7969897,0.093355089,-0.070444822,-0.99313766,0
-1.7923585,-1.4540209,-1.8494682,-0.86504936,-0.49958453,-0.04587853,0
-2.2390437,0.3746708,-0.12226653,-0.97906375,0.1747269,-0.10442579,0
0.89370894,1.9558966,1.3843992,0.39605093,0.91780543,-0.027872562,0
-1.4456389,-0.57892203,-1.9514446,0.093355089,-0.070444822,-0.99313766,0
-0.2184664,-1.0142466,-2.0771751,0.093355089,-0.070444822,-0.99313766,0
0.16591144,0.69505918,-2.1002131,0.093355089,-0.070444822,-0.99313766,0
2.0706286,0.54658592,-0.21764493,0.9769901,0.19860858,0.077749491,0
-0.0017226934,2.1020222,0.74101514,-0.010508299,0.99736857,-0.071732767,0
-0.53467488,-2.0504007,-2.1092591,0.093355089,-0.070444822,-0.99313766,0
-0.41020799,-2.1890864,0.44445354,-0.2068814,-0.97709465,0.04986003,0
-1.1223675,1.2339053,1.719017,-0.093355089,0.070444822,0.99313766,0
1.581013,1.0293,-2.0994065,0.093355089,-0.070444822,-0.99313766,0
2.1956987,0.010023713,-1.8068328,0.093355089,-0.070444822,-0.99313766,0
