-1.7235677,0.86528254,-0.65401715,-0.19440053,-0.086199164,-0.97712755,0
0.74992514,0.57398945,0.81855381,0.19440053,0.086199164,0.97712755,0
1.0528502,1.0965836,-1.2997857,-0.19440053,-0.086199164,-0.97712755,0
-0.0040935874,1.0622829,0.8882063,0.19440053,0.086199164,0.97712755,0
-0.37406996,0.262896,0.95274299,0.19440053,0.086199164,0.97712755,0
0.79826367,-0.67808163,-0.99412227,-0.19440053,-0.086199164,-0.97712755,0
-1.7890952,0.69369924,-0.80985153,-0.19440053,-0.086199164,-0.97712755,0
-1.4297271,-0.44708914,-0.63182032,-0.19440053,-0.086199164,-0.97712755,0
0.1755394,-0.47062099,1.1867576,0.19440053,0.086199164,0.97712755,0
0.98479837,-2.0413735,0.054746389,0.3974891,-0.91760498,0.0018674135,0
-2.111609,-1.5494945,0.24439442,-0.81666565,-0.53758627,0.20990065,0
1.2473891,-0.5185681,-1.1174924,-0.19440053,-0.086199164,-0.97712755,0
0.28384376,-1.3284198,-1.0277408,-0.19440053,-0.086199164,-0.97712755,0
-1.5610673,1.8031323,1.3400559,0.19440053,0.086199164,0.97712755,0
2.2395532,1.025425,0.61484063,0.19440053,0.086199164,0.97712755,0
-0.80987555,0.3350687,-1.0884491,-0.19440053,-0.086199164,-0.97712755,0
-1.4579844,1.7171581,1.0448086,0.19440053,0.086199164,0.97712755,0
0.77578515,-1.0448475,-1.0248402,-0.19440053,-0.086199164,-0.97712755,0
-1.5517895,0.24741787,1.466097,0.19440053,0.086199164,0.97712755,0
1.3637564,0.27522874,0.82301104,0.19440053,0.086199164,0.97712755,0
-0.3479296,0.456177,-1.1451457,-0.19440053,-0.086199164,-0.97712755,0
-1.2314547,-1.9320396,-0.65621519,-0.19440053,-0.086199164,-0.97712755,0
-1.0391282,-2.3672452,0.48090363,-0.3813327,-0.91113842,0.15624434,0
0.25121188,2.5551586,0.23708892,0.10128349,0.98904335,-0.10740077,0
-0.75303012,-1.3408462,-0.9396708,-0.19440053,-0.086199164,-0.97712755,0
-1.365788,-2.1339495,0.45283544,-0.45776325,-0.87303996,0.16808933,0
1.2850242,-1.0090903,0.81824332,0.19440053,0.086199164,0.97712755,0
-0.71939433,-2.0956326,-0.67860997,-0.19440053,-0.086199164,-0.97712755,0
-1.0994632,-2.369756,-0.60763991,-0.35802197,-0.92117667,0.15249223,0
-0.20875025,-0.50654554,1.1854041,0.19440053,0.086199164,0.97712755,0
2.22194,-1.0140125,0.59651637,0.19440053,0.086199164,0.97712755,0
-0.489411,2.3420444,-1.0988556,-0.15510508,0.98630106,-0.056150198,0
-0.52239633,-2.6153259,0.16853595,-0.16734737,-0.97861391,0.11962426,0
-2.1356757,-0.3057003,-0.40591586,-0.19440053,-0.086199164,-0.97712755,0
1.0082771,-0.98660779,1.0551908,0.19440053,0.086199164,0.97712755,0
-0.25625521,2.3658001,-0.75779617,-0.1418809,0.98812747,-0.058942258,0
-0.9455353,-0.40900117,1.099154,0.19440053,0.086199164,0.97712755,0
-2.1770356,-0.55779064,-0.55080974,-0.19440053,-0.086199164,-0.97712755,0
2.4436231,0.79946423,0.5381586,0.90606958,0.36587542,-0.21253984,0
-0.026523709,2.5115414,-0.14132428,0.019530058,0.99559402,-0.091713786,0
-1.3363879,2.0184233,-0.66543996,-0.44343144,0.89626157,0.0091557503,0
-0.63824826,-0.63720286,-0.99410737,-0.19440053,-0.086199164,-0.97712755,0
2.3070922,-1.094413,0.160653,0.91196668,-0.38276666,-0.14767015,0
-0.7507199,-1.4046543,-0.67282486,-0.19440053,-0.086199164,-0.97712755,0
1.6066585,2.219775,0.0029889345,0.59952456,0.77798527,-0.18790749,0
0.80843747,-0.23530006,-1.2425034,-0.19440053,-0.086199164,-0.97712755,0
0.82393783,-2.0814595,-1.1003506,-0.19440053,-0.086199164,-0.97712755,0
-0.11878717,-2.3129845,-0.36339545,-0.012997985,-0.99581766,0.090433955,0
-0.12493685,-0.23928899,-0.85632062,-0.19440053,-0.086199164,-0.97712755,0
-2.1024055,-1.8175902,-0.37882721,-0.19440053,-0.086199164,-0.97712755,0
2.1910849,-1.1704499,0.23948133,0.88488889,-0.44527048,-0.13676906,0
0.5622915,-0.018159032,0.80189484,0.19440053,0.086199164,0.97712755,0
-1.5599751,-1.5248363,1.3866552,-0.66865969,-0.71718973,0.19629878,0
1.4714837,-0.21379623,-1.2849581,-0.19440053,-0.086199164,-0.97712755,0
-0.71650195,1.8089141,0.92931879,0.19440053,0.086199164,0.97712755,0
2.3091199,-0.70603049,-1.250802,0.9594906,-0.22379909,-0.17114878,0
-1.177439,-0.52345228,-0.90046602,-0.19440053,-0.086199164,-0.97712755,0
-0.59909976,-2.0432868,1.1806321,0.19440053,0.086199164,0.97712755,0
-1.0165286,-2.4309707,-0.15997314,-0.33204252,-0.93154353,0.14823812,0
2.1264324,1.1878635,0.41355816,0.19440053,0.086199164,0.97712755,0
1.7436132,-0.75304902,0.76636755,0.19440053,0.086199164,0.97712755,0
1.7523849,-1.7823519,-0.65300393,0.74091661,-0.66571689,-0.088678539,0
2.6061239,0.43509606,-0.54809409,0.96239877,0.17591064,-0.20698848,0
1.2601438,1.6880368,0.69362247,0.19440053,0.086199164,0.97712755,0
2.4399333,-0.56211662,0.40760362,0.19440053,0.086199164,0.97712755,0
1.7014867,1.4253547,-1.0871149,0.77259398,0.60032284,-0.20666699,0
-0.9603194,-0.73143148,1.149684,0.19440053,0.086199164,0.97712755,0
-2.3326745,0.56451416,-0.51903862,-0.94992095,0.26499707,0.16561055,0
-1.6221592,-1.788059,0.58191353,-0.67646098,-0.70959175,0.1971806,0
1.2258605,0.99155152,-1.3583061,-0.19440053,-0.086199164,-0.97712755,0
1.5179852,-0.61080694,-1.4020877,-0.19440053,-0.086199164,-0.97712755,0
-0.65638673,-2.5420918,0.403175,-0.25911856,-0.95623571,0.13590813,0
2.0144098,-1.4908299,-0.77168441,0.86405945,-0.48658556,-0.12898034,0
0.28794777,-2.3967955,0.89111197,0.0084974766,-0.99624211,0.086194873,0
-1.4517376,-1.9503109,0.31858218,-0.56563425,-0.80399048,0.18345907,0
-1.541487,-1.9325056,0.73834503,-0.61120945,-0.76847464,0.18939319,0
0.79183966,-2.097002,-1.0315428,-0.19440053,-0.086199164,-0.97712755,0
1.3951519,2.1400805,0.021484017,0.49205834,0.85316736,-0.17315936,0
2.0542257,1.1452447,-0.79241431,0.84972435,0.48287883,-0.21165159,0
0.37824333,-2.1452427,-1.0718517,-0.19440053,-0.086199164,-0.97712755,0
-0.1594553,-0.66302168,1.180532,0.19440053,0.086199164,0.97712755,0
-1.1775234,-1.4472528,-0.48109055,-0.19440053,-0.086199164,-0.97712755,0
-0.31964099,-1.7502415,1.4262012,0.19440053,0.086199164,0.97712755,0
1.2015743,-2.2174139,-1.2405708,-0.19440053,-0.086199164,-0.97712755,0
-2.5955648,0.040678024,-0.24035585,-0.97812384,-0.058156088,0.19972906,0
-2.474221,0.38869259,1.102199,-0.974567,0.13017978,0.18240705,0
-0.46621543,1.6936901,0.9889375,0.19440053,0.086199164,0.97712755,0
2.4820271,-0.014368534,-0.43564337,0.98085064,-0.029118508,-0.19257247,0
-2.022943,0.76861352,1.4402543,0.19440053,0.086199164,0.97712755,0
-0.59716403,0.20096838,1.08132,0.19440053,0.086199164,0.97712755,0
-2.640012,-0.10907173,-0.53110313,-0.19440053,-0.086199164,-0.97712755,0
1.0117589,2.0832262,-1.2877285,0.51954365,0.83588803,-0.17710322,0
-0.54196215,2.4658785,-0.47792768,-0.16651526,0.98457408,-0.053727746,0
-0.43157747,-0.27248055,1.0914112,0.19440053,0.086199164,0.97712755,0
0.65482271,1.7597761,0.79582047,0.19440053,0.086199164,0.97712755,0
-2.073627,0.65424979,1.5385332,0.19440053,0.086199164,0.97712755,0
1.6301138,-1.3140202,-1.0333624,-0.19440053,-0.086199164,-0.97712755,0
2.2637,-0.86966383,-0.67944622,0.93238109,-0.32571527,-0.15676451,0
1.1550798,0.5265606,0.5876925,0.19440053,0.086199164,0.97712755,0
2.0637863,0.20622873,0.78837287,0.19440053,0.086199164,0.97712755,0
-0.47815484,-2.0938344,1.2667117,0.19440053,0.086199164,0.97712755,0
0.36603296,2.2703168,-0.90070379,0.26878703,0.95332408,-0.13757473,0
0.40642941,1.800619,-1.3029671,-0.19440053,-0.086199164,-0.97712755,0
1.9291432,-1.264673,0.84532464,0.19440053,0.086199164,0.97712755,0
0.13032985,1.7813699,-1.2367647,-0.19440053,-0.086199164,-0.97712755,0
-2.0833879,-0.1798532,1.0163273,-0.97541672,-0.088403821,0.20185883,0
-0.15907466,2.4502382,-0.45155859,-0.098338783,0.99282587,-0.06801945,0
1.8262224,-1.6512967,0.41572952,0.75277162,-0.65178359,-0.092266321,0
-1.0863336,2.3796055,0.16903853,-0.47557339,0.87951136,0.017027855,0
-0.009999752,-1.7083235,1.3383162,0.19440053,0.086199164,0.97712755,0
-1.742099,-1.4879494,-0.41099215,-0.19440053,-0.086199164,-0.97712755,0
-0.32083273,-2.4423575,1.0831757,-0.15038604,-0.9817363,0.11652529,0
2.3694267,0.89128774,-0.289969,0.91276962,0.34892347,-0.21237735,0
-0.89888865,2.4819469,0.39648414,-0.38506687,0.9228763,-0.004803896,0
0.55167329,-2.5510945,0.23892546,0.16140449,-0.98536503,0.054814398,0
-1.5215214,1.9351552,0.95043445,-0.69434559,0.7157228,0.075001836,0
0.3686204,2.4559596,-0.63223159,0.14462498,0.98272645,-0.11546636,0
-0.1466592,1.8644083,-1.0734891,-0.19440053,-0.086199164,-0.97712755,0
-0.053441405,-2.4914746,-0.46980596,-0.053700984,-0.99370247,0.09834528,0
0.92872143,0.39905232,-1.2327902,-0.19440053,-0.086199164,-0.97712755,0
-0.086791873,1.8461537,0.90944839,0.19440053,0.086199164,0.97712755,0
0.92935979,-1.6009899,1.0123901,0.19440053,0.086199164,0.97712755,0
0.88370919,-0.9047277,0.77190357,0.19440053,0.086199164,0.97712755,0
-2.2204762,-1.2826002,-0.29582149,-0.19440053,-0.086199164,-0.97712755,0
2.2158699,-1.4092609,0.21957076,0.82484484,-0.553482,-0.11527717,0
2.0316637,0.2698321,-1.4375381,-0.19440053,-0.086199164,-0.97712755,0
-0.98859626,-1.1268179,-0.81294233,-0.19440053,-0.086199164,-0.97712755,0
2.6330597,-0.5425061,0.64758754,0.93581265,-0.31490299,-0.15840107,0
-1.4790549,0.75447619,-0.78767604,-0.19440053,-0.086199164,-0.97712755,0
1.3028084,-1.1686972,0.99490434,0.19440053,0.086199164,0.97712755,0
-0.77413797,-2.3979182,1.1299769,-0.39114663,-0.90669835,0.15780526,0
-0.36245179,-0.81713665,-0.87862962,-0.19440053,-0.086199164,-0.97712755,0
-1.3623562,1.4798148,1.3092046,0.19440053,0.086199164,0.97712755,0
-2.1903915,1.2897872,0.44688678,-0.88251269,0.45023799,0.13585812,0
0.94559836,2.459455,0.19499469,0.37303346,0.91479361,-0.15491563,0
0.58508855,-1.6020685,0.98085839,0.19440053,0.086199164,0.97712755,0
-1.4023575,-0.32158923,1.4712244,0.19440053,0.086199164,0.97712755,0
-1.3578104,2.0297644,-1.0889032,-0.19440053,-0.086199164,-0.97712755,0
0.75948924,2.0403771,-1.2037611,-0.19440053,-0.086199164,-0.97712755,0
-1.8683245,1.8538573,-0.91774511,-0.7019707,0.70800954,0.07719934,0
-1.3218319,-0.043457508,1.3499624,0.19440053,0.086199164,0.97712755,0
-1.3023763,0.31259924,1.1623957,0.19440053,0.086199164,0.97712755,0
-2.3997569,-0.35518414,0.46040791,-0.96325356,-0.17143823,0.206764,0
-1.9238439,1.4331729,-0.87160778,-0.73739886,0.66975015,0.087622941,0
1.8238008,-1.3229064,-1.2109292,-0.19440053,-0.086199164,-0.97712755,0
0.37369895,2.5531294,-1.2429683,0.23648235,0.96263206,-0.13196892,0
-0.39255112,1.5473157,-1.1556793,-0.19440053,-0.086199164,-0.97712755,0
0.72587156,1.2792706,-1.4666805,-0.19440053,-0.086199164,-0.97712755,0
1.751683,0.7506454,-1.3287042,-0.19440053,-0.086199164,-0.97712755,0
-1.050604,1.491111,0.94536793,0.19440053,0.086199164,0.97712755,0
0.98483258,-0.6448251,0.831352,0.19440053,0.086199164,0.97712755,0
1.8508399,-0.33866215,0.5575338,0.19440053,0.086199164,0.97712755,0
-0.6848141,2.450314,-0.81551266,-0.19673872,0.97931689,-0.047251046,0
0.18932498,-2.4358597,0.01924777,0.079738438,-0.99422354,0.071843326,0
1.1522046,-1.0110642,1.0736531,0.19440053,0.086199164,0.97712755,0
1.8368874,-1.2357194,-0.92947221,0.8436501,-0.52291507,-0.12171501,0
-0.30568212,-2.2601495,1.2379032,0.19440053,0.086199164,0.97712755,0
2.1764073,0.33345586,-0.70368367,0.97260422,0.11251178,-0.203426,0
2.0924907,-0.89786983,-0.94171083,0.90288049,-0.40509471,-0.14389277,0
-0.89520878,-1.646696,1.2668153,0.19440053,0.086199164,0.97712755,0
0.70918763,2.504703,-0.42962933,0.23588124,0.96279401,-0.13186353,0
-1.3734255,-2.0055773,0.8058818,-0.53476733,-0.82577062,0.17923948,0
-0.30693972,-2.1023879,-0.87869847,-0.19440053,-0.086199164,-0.97712755,0
-1.4129548,1.3465567,-0.9144398,-0.19440053,-0.086199164,-0.97712755,0
1.398241,-0.89119017,0.74088633,0.19440053,0.086199164,0.97712755,0
-0.17032117,-1.0854675,-0.99739069,-0.19440053,-0.086199164,-0.97712755,0
-1.173401,2.0086405,0.95010972,-0.60067433,0.7979843,0.049108922,0
-2.3241868,-1.1753316,-0.42976806,-0.19440053,-0.086199164,-0.97712755,0
0.26486397,-2.5188105,-0.18524528,0.032819539,-0.99614543,0.081347406,0
0.7333858,2.1817422,-1.3204141,0.39206272,0.90627736,-0.15795034,0
-1.8410501,1.4554082,0.7585218,-0.79266965,0.60059023,0.10472012,0
-1.2134181,1.008036,1.2411783,0.19440053,0.086199164,0.97712755,0
-0.91565305,-1.6238778,-0.64855206,-0.19440053,-0.086199164,-0.97712755,0
2.0956235,-0.48692966,0.67382532,0.19440053,0.086199164,0.97712755,0
-0.79632896,0.80803102,1.024945,0.19440053,0.086199164,0.97712755,0
1.6060805,-1.649729,-0.14957356,0.71262372,-0.69693631,-0.080295563,0
-0.29965153,-1.1009123,1.1037816,0.19440053,0.086199164,0.97712755,0
0.8104372,1.6832391,-1.3248317,-0.19440053,-0.086199164,-0.97712755,0
-0.85432136,2.4691319,-0.5378933,-0.33223736,0.94304103,-0.017093301,0
1.9979957,1.2715977,-0.91854131,0.84791744,0.48607853,-0.21157435,0
2.2188044,-0.94452214,0.49946225,0.87599397,-0.4635101,-0.13339037,0
-1.0898993,-0.53594184,1.4278853,0.19440053,0.086199164,0.97712755,0
0.87059289,-0.2326715,0.79076558,0.19440053,0.086199164,0.97712755,0
-0.17592502,1.2617695,0.74243593,0.19440053,0.086199164,0.97712755,0
1.7727556,-1.1571757,0.7535007,0.19440053,0.086199164,0.97712755,0
-1.5218551,-1.7368271,0.83027124,-0.64338303,-0.74072635,0.19334632,0
0.60310102,-1.7809172,1.0894718,0.19440053,0.086199164,0.97712755,0
-2.5398309,0.14987588,-0.18045485,-0.97505128,0.12580353,0.18288937,0
2.4894011,-1.0335575,0.60364497,0.90495098,-0.40014231,-0.14474148,0
0.42064589,2.2143981,-1.3846517,0.25736335,0.95675266,-0.1356045,0
-0.12873776,-0.40634477,0.89396095,0.19440053,0.086199164,0.97712755,0
-1.1031914,2.3559763,0.84750247,-0.43708447,0.89938825,0.007617116,0
1.6080799,-2.1159296,0.90195346,0.58510613,-0.80970865,-0.044977367,0
-0.93295193,-2.6400399,-0.73588181,-0.22824523,-0.96481496,0.13052267,0
-0.80926621,-0.8294065,-0.65114135,-0.19440053,-0.086199164,-0.97712755,0
1.0381881,-1.6912211,1.0603477,0.19440053,0.086199164,0.97712755,0
-0.46304178,1.3684615,1.1131586,0.19440053,0.086199164,0.97712755,0
-2.1262951,1.025846,0.59160483,-0.86913693,0.47695059,0.13084048,0
-1.5955496,0.48536277,-0.55263799,-0.19440053,-0.086199164,-0.97712755,0
1.5554023,1.7024295,-0.74628544,0.64586544,0.73848522,-0.19364247,0
-0.40914649,2.2480378,0.58420873,-0.22007638,0.97456998,-0.042189121,0
-0.52992392,1.3987311,1.199062,0.19440053,0.086199164,0.97712755,0
-0.4818019,1.1645081,1.1676171,0.19440053,0.086199164,0.97712755,0
-1.3551033,-1.1817468,1.537274,0.19440053,0.086199164,0.97712755,0
-1.6149584,0.3654868,1.3506968,0.19440053,0.086199164,0.97712755,0
2.8683832,0.31133866,0.5881393,0.97675329,0.074731216,-0.20091857,0
-0.49844611,-2.4036314,-0.090186834,-0.19459456,-0.9729448,0.12454504,0
0.093165576,1.5036573,-1.3725101,-0.19440053,-0.086199164,-0.97712755,0
-0.10537945,0.018338799,-0.93088806,-0.19440053,-0.086199164,-0.97712755,0
0.0047792792,1.1062213,0.9220323,0.19440053,0.086199164,0.97712755,0
2.6084282,-0.74055707,0.71795541,0.19440053,0.086199164,0.97712755,0
-1.8629557,-1.2816818,1.4653471,0.19440053,0.086199164,0.97712755,0
1.7103167,1.9865206,0.4277128,0.58639216,0.78833431,-0.18620774,0
-1.1021119,-0.15313488,1.2839726,0.19440053,0.086199164,0.97712755,0
-1.6366103,1.0983771,-0.85573196,-0.19440053,-0.086199164,-0.97712755,0
-0.12444717,0.84222382,0.99104553,0.19440053,0.086199164,0.97712755,0
-2.2621524,-0.04541266,1.3217611,0.19440053,0.086199164,0.97712755,0
0.83476919,1.2048116,0.8631857,0.19440053,0.086199164,0.97712755,0
-0.72439814,1.0506574,-1.0109829,-0.19440053,-0.086199164,-0.97712755,0
0.57087082,2.3265648,-1.0907466,0.28658026,0.94768071,-0.14061689,0
-0.13330531,2.1311719,0.77222896,0.19440053,0.086199164,0.97712755,0
0.96803939,-2.1341884,0.88422334,0.19440053,0.086199164,0.97712755,0
-2.5239303,-0.5152263,-0.17891508,-0.97312564,-0.10839632,0.20316666,0
0.034451723,-2.3891058,0.38832283,-0.023749173,-0.99542594,0.092538357,0
0.12740922,2.4143314,-0.62415266,-0.010127008,0.99625486,-0.085871816,0
-1.8847687,-1.7044394,0.041312277,-0.69391096,-0.69198769,0.19909933,0
-0.3772043,-0.74901307,-0.90174752,-0.19440053,-0.086199164,-0.97712755,0
-0.54051405,2.286993,0.26150298,-0.2586796,0.9653753,-0.033697903,0
-1.0016761,2.2344813,-0.56544161,-0.3058199,0.95180869,-0.023122549,0
1.1856949,2.0608399,-0.06019938,0.47484663,0.86336803,-0.17063487,0
-2.3917124,0.3019855,-0.77359784,-0.19440053,-0.086199164,-0.97712755,0
2.210135,0.20612967,0.41908985,0.19440053,0.086199164,0.97712755,0
2.4620812,-0.4812144,0.63683033,0.19440053,0.086199164,0.97712755,0
0.46727192,-2.5329487,0.99947214,0.16883403,-0.98420596,0.053233981,0
-0.24867213,2.5987775,0.69961834,-0.16680393,0.9845286,-0.053666353,0
-1.5459229,2.0775764,0.70907331,-0.57832271,0.81466413,0.043190658,0
0.83765358,-0.24073434,0.89994919,0.19440053,0.086199164,0.97712755,0
0.85648334,-0.44986963,0.85874778,0.19440053,0.086199164,0.97712755,0
1.9023345,1.4670513,-1.1124495,0.75078017,0.62801164,-0.20476973,0
-1.2446018,1.9849089,0.49755931,-0.58003628,0.81342089,0.043641269,0
-1.9573796,1.1841557,0.83674026,-0.87962067,0.45618844,0.13475788,0
-0.79687113,2.9683113e-05,1.367148,0.19440053,0.086199164,0.97712755,0
-0.71681124,2.030751,-0.95403028,-0.19440053,-0.086199164,-0.97712755,0
-2.0590634,-0.39515305,-0.66817516,-0.19440053,-0.086199164,-0.97712755,0
-2.4059505,-0.37428269,0.49794441,-0.94811261,-0.238966,0.20970879,0
-1.2741301,1.9333245,0.57708883,-0.57851452,0.81452525,0.043241084,0
0.88646138,2.4117913,-0.76187861,0.31472665,0.93798578,-0.14536136,0
-1.3817724,1.8378965,-0.77819538,-0.19440053,-0.086199164,-0.97712755,0
0.87576377,-1.1215885,1.1185496,0.19440053,0.086199164,0.97712755,0
1.8213406,-1.5671042,0.17959213,0.74368501,-0.66251057,-0.089512169,0
2.6313167,0.18844962,0.56451416,0.19440053,0.086199164,0.97712755,0
0.31100416,2.585403,0.76686168,-0.016092449,0.99627775,-0.084686995,0
-1.7159317,2.0163095,-0.45545006,-0.61664021,0.78543252,0.053392708,0
1.5592953,2.1065645,0.6323607,0.19440053,0.086199164,0.97712755,0
1.8456752,-1.9077797,0.62313843,0.66859233,-0.74054217,-0.067688704,0
0.69045442,0.10006654,-1.3095775,-0.19440053,-0.086199164,-0.97712755,0
0.98318058,-0.59035081,-1.0426421,-0.19440053,-0.086199164,-0.97712755,0
-1.9932795,1.6101968,0.5180974,-0.77606225,0.62276423,0.099460006,0
-2.0533524,-1.1115191,-0.48766375,-0.19440053,-0.086199164,-0.97712755,0
0.17181683,-2.2091527,-0.8194313,-0.19440053,-0.086199164,-0.97712755,0
-0.5556376,2.4846225,0.82031751,-0.27970082,0.95964897,-0.029010653,0
-1.7982043,1.0205371,1.098493,0.19440053,0.086199164,0.97712755,0
-0.98255426,2.20893,1.0532794,0.19440053,0.086199164,0.97712755,0
-1.4603542,-2.0970922,0.91622233,-0.61445355,-0.76578224,0.18980107,0
-0.51425761,-1.5894492,-0.7515806,-0.19440053,-0.086199164,-0.97712755,0
1.2716398,-1.4624747,0.91043198,0.19440053,0.086199164,0.97712755,0
-1.5693438,1.1336604,-0.80590075,-0.19440053,-0.086199164,-0.97712755,0
0.45155656,2.4286528,-1.4138725,-0.19440053,-0.086199164,-0.97712755,0
-0.59350586,1.0625163,-0.87389243,-0.19440053,-0.086199164,-0.97712755,0
-2.2219574,1.3520139,-0.54608262,-0.19440053,-0.086199164,-0.97712755,0
-0.0034782887,-1.8172116,-1.0536585,-0.19440053,-0.086199164,-0.97712755,0
1.2639072,-1.4210347,0.80051243,0.19440053,0.086199164,0.97712755,0
0.67680597,2.2817798,-0.065400362,0.26576495,0.95424581,-0.13705486,0
-1.37573,-0.22947937,1.4665668,0.19440053,0.086199164,0.97712755,0
-1.5393368,-2.1930106,0.11501205,-0.56032264,-0.8078633,0.18274397,0
-1.1001222,0.97962642,1.2478745,0.19440053,0.086199164,0.97712755,0
-1.3382609,-0.22462314,1.3284032,0.19440053,0.086199164,0.97712755,0
-0.56400734,-2.0030308,1.1626906,0.19440053,0.086199164,0.97712755,0
-0.62071443,-0.55360317,1.0471327,0.19440053,0.086199164,0.97712755,0
-1.9480563,-1.8365223,0.24750364,-0.71594298,-0.66847622,0.20140848,0
-2.2070508,1.1820085,-0.69400871,-0.19440053,-0.086199164,-0.97712755,0
-0.45041752,-2.2477131,0.79766107,-0.24879366,-0.95922595,0.13411772,0
-1.706916,0.52824998,-0.52927202,-0.19440053,-0.086199164,-0.97712755,0
-2.2862084,-0.14722104,0.98987889,-0.97841197,-0.054179966,0.19943562,0
2.4150097,-0.092365861,0.1304909,0.98064041,-0.040953487,-0.19148663,0
-1.4430008,-1.4580599,1.3268774,0.19440053,0.086199164,0.97712755,0
0.26779917,-1.744339,0.9580971,0.19440053,0.086199164,0.97712755,0
-0.086933792,0.68265569,1.0945916,0.19440053,0.086199164,0.97712755,0
-1.8773438,1.9415784,-0.83423805,-0.63736355,0.76829928,0.059027016,0
-2.6654649,0.34381855,-0.59285307,-0.9767797,0.10846326,0.18476292,0
0.35447907,2.267437,0.73703992,0.19440053,0.086199164,0.97712755,0
0.42815948,1.5129746,0.9153868,0.19440053,0.086199164,0.97712755,0
-0.9613995,0.60427082,-0.88660073,-0.19440053,-0.086199164,-0.97712755,0
-0.87344575,-2.3398638,0.023421526,-0.28474441,-0.94828027,0.14030463,0
2.4182484,-0.8573209,0.11288989,0.93029404,-0.3320896,-0.15578693,0
-1.4767978,-1.5996473,1.322924,-0.65325892,-0.73172128,0.19451672,0
-1.6658447,-1.0394033,1.6058068,0.19440053,0.086199164,0.97712755,0
0.43845919,-1.1252679,1.1483344,0.19440053,0.086199164,0.97712755,0
-1.5102777,1.6948344,0.84477592,-0.7534771,0.65093756,0.092481196,0
0.82863224,1.6875839,0.50704265,0.19440053,0.086199164,0.97712755,0
-2.5875742,-0.2980113,-0.59670389,-0.19440053,-0.086199164,-0.97712755,0
0.61176831,-2.3274155,0.37975812,0.17087483,-0.98387706,0.052798867,0
-0.24828321,-1.6952566,1.03646,0.19440053,0.086199164,0.97712755,0
1.8271054,0.50443912,0.69672078,0.19440053,0.086199164,0.97712755,0
-1.4339472,-0.13150823,-0.8293345,-0.19440053,-0.086199164,-0.97712755,0
-0.82328576,0.86849439,1.0279644,0.19440053,0.086199164,0.97712755,0
2.4541461,0.6555841,-0.59791827,0.95483983,0.2115538,-0.20862895,0
1.0476503,2.0270526,-0.75860816,0.54064488,0.82175642,-0.18005466,0
0.62540239,2.1727085,-1.1253197,0.33472934,0.93051064,-0.14868152,0
-0.1793834,-2.5166628,-0.3050642,-0.030961931,-0.99509603,0.093944252,0
0.043651581,2.7743089,0.51813221,-0.018041253,0.99627727,-0.084299266,0
0.89020997,1.3641433,0.63759851,0.19440053,0.086199164,0.97712755,0
-2.2426243,1.0665231,0.7878691,-0.90806699,0.39254183,0.14603198,0
-1.3565452,1.7796388,-0.96031475,-0.19440053,-0.086199164,-0.97712755,0
1.3021107,2.1600106,-0.71531701,0.52915359,0.82954818,-0.17845586,0
0.010505319,-1.8995547,1.1183562,0.19440053,0.086199164,0.97712755,0
0.73440599,0.80971307,-1.2934482,-0.19440053,-0.086199164,-0.97712755,0
-1.4578999,0.34879994,-0.63481629,-0.19440053,-0.086199164,-0.97712755,0
1.7075535,0.94807386,-1.3974028,-0.19440053,-0.086199164,-0.97712755,0
-0.47042644,-1.4740279,-0.80288625,-0.19440053,-0.086199164,-0.97712755,0
1.002393,1.5408692,0.51485205,0.19440053,0.086199164,0.97712755,0
2.5720487,-0.33565581,-0.42736828,0.97957492,-0.069251359,-0.18877825,0
-0.60975659,1.2364829,-1.1066728,-0.19440053,-0.086199164,-0.97712755,0
-1.3707942,-1.5919676,1.5735743,0.19440053,0.086199164,0.97712755,0
-1.6467421,0.1648159,-0.68710518,-0.19440053,-0.086199164,-0.97712755,0
-1.4141983,-1.6306736,-0.65572989,-0.19440053,-0.086199164,-0.97712755,0
0.94158649,0.83093971,-1.4715824,-0.19440053,-0.086199164,-0.97712755,0
2.1309369,-0.51879334,0.83717489,0.19440053,0.086199164,0.97712755,0
1.1404277,2.3266237,-0.12394702,0.41357216,0.8960644,-0.16132867,0
1.6179854,-0.81104255,-1.1965301,-0.19440053,-0.086199164,-0.97712755,0
2.5773013,-0.29967558,-0.53424537,0.97488546,-0.1273219,-0.18272242,0
2.0666389,-1.4053108,0.13418639,0.77429789,-0.62504399,-0.098907888,0
2.096396,-1.1378074,-0.13206947,0.85797787,-0.49779576,-0.1267814,0
-0.26238254,1.0175501,-1.2144685,-0.19440053,-0.086199164,-0.97712755,0
-1.7930427,1.2935998,1.1428876,0.19440053,0.086199164,0.97712755,0
1.4582601,-1.5690093,-1.0395964,-0.19440053,-0.086199164,-0.97712755,0
1.0769122,-1.9325216,-0.93914723,-0.19440053,-0.086199164,-0.97712755,0
2.5219259,0.092237532,-0.56169242,0.98045582,0.013640583,-0.196266,0
0.3620334,1.3867409,-1.163427,-0.19440053,-0.086199164,-0.97712755,0
-2.4777291,-0.45426041,0.85486996,-0.96457243,-0.1643164,0.2063981,0
1.5662546,-1.1484936,-1.3800783,-0.19440053,-0.086199164,-0.97712755,0
0.089917898,-0.070160747,-1.2351516,-0.19440053,-0.086199164,-0.97712755,0
-0.27508748,-0.055163741,0.99873412,0.19440053,0.086199164,0.97712755,0
-1.6159216,1.7141392,1.2833951,0.19440053,0.086199164,0.97712755,0
2.2104292,0.66303754,-1.5408512,-0.19440053,-0.086199164,-0.97712755,0
-0.15381801,2.4567175,-0.2078166,0.010084391,0.99590331,-0.089861929,0
-0.59838563,-0.73572743,-0.91827828,-0.19440053,-0.086199164,-0.97712755,0
-0.67461413,-0.94309348,-0.7261306,-0.19440053,-0.086199164,-0.97712755,0
-0.27888727,1.9915199,0.97136021,0.19440053,0.086199164,0.97712755,0
1.0177112,-0.84281981,0.91861403,0.19440053,0.086199164,0.97712755,0
1.4954081,-2.1952283,-0.51855206,0.61571807,-0.78617245,-0.053143978,0
-0.041961372,0.80411875,1.1187673,0.19440053,0.086199164,0.97712755,0
2.0757513,-1.1006238,-0.26105118,0.89149308,-0.43107522,-0.13933533,0
2.5685134,-0.32398593,0.33337992,0.9753685,-0.12283696,-0.18321422,0
-1.5418322,1.7849252,-0.89916694,-0.19440053,-0.086199164,-0.97712755,0
0.46347553,1.8018488,-1.1096432,-0.19440053,-0.086199164,-0.97712755,0
0.4520182,-2.2758541,-0.93015695,-0.19440053,-0.086199164,-0.97712755,0
2.3972149,-0.48959678,-0.50462735,0.9673183,-0.18217033,-0.17637843,0
2.2887862,0.70835155,-1.0271597,0.91473287,0.34378231,-0.21231443,0
1.7131581,1.6418132,-0.070251644,0.67379689,0.71220475,-0.19688109,0
0.95295513,2.5058408,0.67215204,0.29006174,0.94653285,-0.14120829,0
-0.36111814,-1.6651453,1.3635075,0.19440053,0.086199164,0.97712755,0
0.2738415,-1.5362229,0.97246933,0.19440053,0.086199164,0.97712755,0
-1.2295561,-0.13680255,1.1394877,0.19440053,0.086199164,0.97712755,0
1.3643856,1.589143,0.48395073,0.19440053,0.086199164,0.97712755,0
-0.72317946,0.3811056,1.1699297,0.19440053,0.086199164,0.97712755,0
1.8258226,-2.0375185,0.74393535,0.60238099,-0.79666853,-0.0495646,0
-0.14074373,-2.2593226,1.3411787,0.19440053,0.086199164,0.97712755,0
-0.87521255,-1.1063018,-0.75216532,-0.19440053,-0.086199164,-0.97712755,0
-2.8190877,0.41721809,-0.33831573,-0.96408576,0.20055752,0.17411324,0
2.5029323,0.67372108,0.6000939,0.19440053,0.086199164,0.97712755,0
-0.45365727,2.4283371,-0.52638578,-0.18504575,0.98146915,-0.049767196,0
-2.0889752,-0.95438516,1.2209886,-0.85781348,-0.46821555,0.21196739,0
0.77078521,0.2282325,0.76796198,0.19440053,0.086199164,0.97712755,0
-1.164345,2.0165262,-0.042387486,-0.4902837,0.87131774,0.020677328,0
-2.1722095,-0.32319453,0.69281924,-0.96471655,-0.1635205,0.2063566,0
-1.7702552,1.2155788,1.424813,0.19440053,0.086199164,0.97712755,0
-2.4359362,0.76257294,0.493361,-0.9472779,0.27514803,0.16418916,0
-0.48649073,-2.3283517,-0.60685277,-0.19440053,-0.086199164,-0.97712755,0
1.8543679,1.7559596,-0.80165231,0.68790233,0.69814688,-0.19844726,0
2.0741832,1.2078183,-0.27400962,0.85491866,0.47352853,-0.21186016,0
-1.3962215,-0.77493632,1.4663545,0.19440053,0.086199164,0.97712755,0
-0.43405396,0.19429338,-1.0146683,-0.19440053,-0.086199164,-0.97712755,0
2.1887159,-0.63727713,0.66200912,0.19440053,0.086199164,0.97712755,0
2.3348944,-1.0044434,0.81962049,0.19440053,0.086199164,0.97712755,0
0.26066417,-1.8910196,-0.71056259,-0.19440053,-0.086199164,-0.97712755,0
2.1039197,0.0052942634,-1.5111971,-0.19440053,-0.086199164,-0.97712755,0
-0.5663141,0.64423513,-0.90101641,-0.19440053,-0.086199164,-0.97712755,0
-0.57855397,0.81873894,-0.90221471,-0.19440053,-0.086199164,-0.97712755,0
-2.262867,-0.44786531,0.70744753,-0.94827032,-0.23835906,0.20968664,0
0.042141378,-1.6062626,1.3234658,0.19440053,0.086199164,0.97712755,0
1.4205534,2.127079,-0.75876909,0.49475431,0.85152692,-0.1735509,0
-2.3616285,-0.20961094,0.1897068,-0.97773236,-0.063241646,0.20009978,0
1.8426471,0.82524002,-1.2805557,-0.19440053,-0.086199164,-0.97712755,0
2.0864375,0.95363808,-0.53550225,0.86260617,0.45925084,-0.21213007,0
-2.1518435,1.0812823,0.82900035,-0.89916742,0.41379231,0.14238673,0
-0.32777932,1.7465377,-1.0036504,-0.19440053,-0.086199164,-0.97712755,0
2.1672187,0.93853652,-0.82027626,0.90164268,0.37661532,-0.21260655,0
-0.18788093,0.18085957,-1.030786,-0.19440053,-0.086199164,-0.97712755,0
-1.7858692,-1.6868114,0.228297,-0.75684637,-0.62050742,0.20531461,0
0.70491087,2.4533803,0.48979926,0.19440053,0.086199164,0.97712755,0
1.8593428,-1.3011001,-1.1335264,-0.19440053,-0.086199164,-0.97712755,0
-0.46420562,1.4838728,-1.054098,-0.19440053,-0.086199164,-0.97712755,0
-0.011553824,-1.7542899,1.1205509,0.19440053,0.086199164,0.97712755,0
-0.10587358,-2.6835656,-0.74372554,-0.019009709,-0.9956134,0.091611981,0
-0.037713528,-1.375366,-1.0592265,-0.19440053,-0.086199164,-0.97712755,0
-2.1447656,-0.31477624,1.2147837,-0.95813161,-0.19679281,0.20798168,0
0.25277871,1.3827323,0.88201106,0.19440053,0.086199164,0.97712755,0
-1.4719995,0.69626999,-0.64015746,-0.19440053,-0.086199164,-0.97712755,0
2.1179872,-0.57260597,-1.3753461,-0.19440053,-0.086199164,-0.97712755,0
1.1832188,1.5401258,0.80157143,0.19440053,0.086199164,0.97712755,0
0.79859948,1.7326448,0.6419189,0.19440053,0.086199164,0.97712755,0
0.62524438,-2.2745466,-0.069331169,0.25378165,-0.96663606,0.034783542,0
-0.86618781,2.0418451,-1.1373539,-0.19440053,-0.086199164,-0.97712755,0
-0.91843188,2.1399,0.85691404,0.19440053,0.086199164,0.97712755,0
1.7265556,0.54689646,-1.3397652,-0.19440053,-0.086199164,-0.97712755,0
-0.0095717907,1.5845795,0.95752215,0.19440053,0.086199164,0.97712755,0
-0.053634048,2.6411881,0.60284781,0.19440053,0.086199164,0.97712755,0
1.4673908,2.0245817,-1.0679607,0.54942501,0.81564462,-0.18126231,0
-1.0423415,2.2863262,0.96778464,0.19440053,0.086199164,0.97712755,0
0.67404366,2.3415272,-0.79890561,0.31599128,0.93752778,-0.1455726,0
-1.6609005,1.7069697,0.89683843,-0.69657826,0.7134822,0.075643718,0
0.40653089,0.1917522,1.1171585,0.19440053,0.086199164,0.97712755,0
0.083724022,-2.4680669,-0.6794858,-0.19440053,-0.086199164,-0.97712755,0
0.11825061,-1.0598983,1.2309313,0.19440053,0.086199164,0.97712755,0
2.5492651,-0.74398112,0.45995414,0.19440053,0.086199164,0.97712755,0
-1.9162216,-1.761045,-0.34056246,-0.19440053,-0.086199164,-0.97712755,0
0.32896268,1.2467685,-1.2539479,-0.19440053,-0.086199164,-0.97712755,0
1.9068915,0.31077358,-1.3552036,-0.19440053,-0.086199164,-0.97712755,0
1.8599193,-1.4988,0.7563262,0.19440053,0.086199164,0.97712755,0
-0.60948277,-0.83819002,-0.62522781,-0.19440053,-0.086199164,-0.97712755,0
-1.4384472,-1.2739623,1.4868991,0.19440053,0.086199164,0.97712755,0
-2.1074157,1.1997851,-0.44281757,-0.85415071,0.50467622,0.12541306,0
2.2836006,0.4421376,-1.4395981,0.94367808,0.2554481,-0.21028057,0
-2.168175,-0.7691409,1.355848,-0.91563421,-0.34139407,0.21228305,0
-1.5009555,0.23947573,-0.69173956,-0.19440053,-0.086199164,-0.97712755,0
-1.5466646,-1.5831227,1.5252463,0.19440053,0.086199164,0.97712755,0
0.26749912,0.94287318,-1.0249832,-0.19440053,-0.086199164,-0.97712755,0
-1.7484809,-2.0115638,-0.20445168,-0.60707319,-0.77187443,0.18887019,0
-1.026064,2.1918435,-0.83361459,-0.19440053,-0.086199164,-0.97712755,0
-2.2570879,0.12629557,1.0122559,-0.97858262,0.08580178,0.1871208,0
1.7921946,0.60110009,0.60194314,0.19440053,0.086199164,0.97712755,0
-1.4539722,-0.78097343,1.4922521,0.19440053,0.086199164,0.97712755,0
2.3486483,-0.96213961,-1.1634772,0.91990739,-0.36185753,-0.1510945,0
0.53211284,-1.0539564,1.1555879,0.19440053,0.086199164,0.97712755,0
-2.1466055,-0.66654408,-0.62519956,-0.19440053,-0.086199164,-0.97712755,0
0.18949029,-0.38530171,1.087544,0.19440053,0.086199164,0.97712755,0
-0.85823852,-0.40804797,1.210175,0.19440053,0.086199164,0.97712755,0
-2.4879451,-0.21426243,0.05047363,-0.9780612,-0.058992922,0.1997904,0
1.8605932,0.37978512,-1.565161,-0.19440053,-0.086199164,-0.97712755,0
-1.6304806,1.8035042,1.1763473,-0.73570222,0.67167962,0.087115109,0
0.32173735,0.19174445,-0.96467781,-0.19440053,-0.086199164,-0.97712755,0
-0.86263037,-0.27591109,-0.83442688,-0.19440053,-0.086199164,-0.97712755,0
0.96674728,2.4069731,0.079161167,0.2571134,0.95682603,-0.13556123,0
0.10285115,-2.3325281,-0.64899516,-0.19440053,-0.086199164,-0.97712755,0
-0.20969737,2.5287549,-0.26316428,-0.12883225,0.98974639,-0.061681092,0
1.073257,-2.0912218,-1.2278771,-0.19440053,-0.086199164,-0.97712755,0
1.7858262,-1.5163782,-0.34494662,0.76773942,-0.63339829,-0.096866012,0
-1.1924833,-1.3909082,1.418643,0.19440053,0.086199164,0.97712755,0
-0.0092487335,2.1248114,1.0362139,0.19440053,0.086199164,0.97712755,0
-2.3736062,-0.9570967,0.5624277,-0.88324314,-0.41795456,0.21259278,0
-0.82859302,-2.4491906,-0.39782357,-0.24226531,-0.96105355,0.13298017,0
0.88056409,-2.2851,-0.57408738,0.46841672,-0.88337594,-0.0152632,0
-1.101809,0.6257503,-1.0070401,-0.19440053,-0.086199164,-0.97712755,0
0.47385025,-2.1575482,-0.80571008,-0.19440053,-0.086199164,-0.97712755,0
-0.2062321,0.89854729,0.91625404,0.19440053,0.086199164,0.97712755,0
0.46457464,-1.940449,-0.85936606,-0.19440053,-0.086199164,-0.97712755,0
2.0324252,-0.93317509,-1.4300623,-0.19440053,-0.086199164,-0.97712755,0
2.4333858,0.96004224,-0.24808884,0.93727869,0.27750209,-0.21095292,0
-2.1308777,1.0600452,-0.75032926,-0.19440053,-0.086199164,-0.97712755,0
0.65060091,-1.1483728,-0.99197531,-0.19440053,-0.086199164,-0.97712755,0
1.3465115,-0.059270263,-1.4005258,-0.19440053,-0.086199164,-0.97712755,0
0.65153587,2.1736684,0.8707155,0.19440053,0.086199164,0.97712755,0
-0.63389611,2.3968863,-0.79526448,-0.1397039,0.98841012,-0.05940026,0
1.7040591,-1.1696329,-1.0680436,-0.19440053,-0.086199164,-0.97712755,0
-1.824245,1.7512712,1.2544789,-0.75925708,0.64393014,0.094249368,0
-1.3545773,-1.7295377,-0.69759476,-0.19440053,-0.086199164,-0.97712755,0
0.89743108,2.211247,-0.76910853,0.35142452,0.92389023,-0.15141904,0
-1.0646571,2.4187686,0.024909258,-0.44031835,0.89780265,0.008400321,0
2.0237439,-1.3357453,-0.78532255,0.88180488,-0.45170349,-0.13558799,0
-2.5297027,0.23336628,1.2512258,-0.98002082,0.059762388,0.189704,0
0.01813966,-2.2148075,1.0552332,0.19440053,0.086199164,0.97712755,0
-0.38847607,-0.69750679,1.3164561,0.19440053,0.086199164,0.97712755,0
1.394174,-2.0599256,0.59667039,0.56487542,-0.82422197,-0.039672196,0
1.6545666,-1.2761983,0.88900197,0.19440053,0.086199164,0.97712755,0
0.51436925,1.6931839,-1.4709309,-0.19440053,-0.086199164,-0.97712755,0
-0.0016525984,1.8798366,0.81512177,0.19440053,0.086199164,0.97712755,0
0.8994109,1.8737723,-1.2134039,-0.19440053,-0.086199164,-0.97712755,0
1.651407,0.2213732,-1.4843912,-0.19440053,-0.086199164,-0.97712755,0
-0.51125163,-2.0346851,1.266651,0.19440053,0.086199164,0.97712755,0
2.2121174,-1.1664497,-0.91969562,0.90437901,-0.40151787,-0.14450645,0
0.036505044,-1.2471941,-1.0805894,-0.19440053,-0.086199164,-0.97712755,0
0.6191026,0.34227693,0.90822732,0.19440053,0.086199164,0.97712755,0
-2.2628841,1.2262837,-0.61419868,-0.19440053,-0.086199164,-0.97712755,0
1.1649383,1.5467198,0.5291096,0.19440053,0.086199164,0.97712755,0
-1.200653,1.9265016,1.1787426,-0.66324395,0.7454707,0.066189826,0
2.2462978,-1.0160275,0.27943516,0.88243198,-0.45040524,-0.13582736,0
0.035061479,-2.4994359,0.26045394,0.054626375,-0.99553704,0.076955259,0
0.63635623,-2.2561703,0.30981231,0.24841952,-0.96798462,0.035969317,0
-0.66747749,0.59628922,-0.76200885,-0.19440053,-0.086199164,-0.97712755,0
2.0894592,-1.4629043,-0.45094156,0.84765846,-0.51605952,-0.12311727,0
2.4227557,-1.1447325,0.04843688,0.87983942,-0.45574173,-0.13484079,0
1.7561722,-0.022293806,0.48562497,0.19440053,0.086199164,0.97712755,0
-0.53640515,-1.0237874,-0.97340828,-0.19440053,-0.086199164,-0.97712755,0
0.41554439,-2.3182473,-0.92870164,0.23564672,-0.97106469,0.038782239,0
0.13792706,-2.3988917,0.41067696,0.07834962,-0.99431342,0.072127581,0
-2.3042774,0.35231173,0.7693578,-0.96568763,0.19169709,0.17521355,0
-0.0089305639,2.71578,-0.31296372,-0.017654836,0.99627757,-0.084376037,0
-1.258889,1.7225595,-0.86516309,-0.19440053,-0.086199164,-0.97712755,0
-1.1531705,1.407732,-0.72073925,-0.19440053,-0.086199164,-0.97712755,0
-1.9513018,1.3250223,0.39746034,-0.84561467,0.51957089,0.12240094,0
-1.1510491,-1.4826219,-0.48914504,-0.19440053,-0.086199164,-0.97712755,0
-0.062842488,1.789241,-1.2935889,-0.19440053,-0.086199164,-0.97712755,0
-1.2587712,-0.27940154,-0.87710214,-0.19440053,-0.086199164,-0.97712755,0
2.4962666,0.31475985,0.47825134,0.19440053,0.086199164,0.97712755,0
-0.78069973,-1.2670009,1.3544546,0.19440053,0.086199164,0.97712755,0
1.1504015,0.18630397,-1.2819123,-0.19440053,-0.086199164,-0.97712755,0
0.032700181,2.5060253,-0.95226073,0.0015054941,0.99610418,-0.088172853,0
0.22100043,1.9270456,0.77262342,0.19440053,0.086199164,0.97712755,0
1.1893778,-0.57342118,-1.104624,-0.19440053,-0.086199164,-0.97712755,0
0.011176705,-2.6588511,0.12860966,0.024962604,-0.99624366,0.08291924,0
0.29792762,-0.016155481,-1.0089847,-0.19440053,-0.086199164,-0.97712755,0
-1.8418028,-1.7782346,0.75286114,-0.68433297,-0.70175672,0.1980556,0
0.45315462,1.5764384,-1.4177741,-0.19440053,-0.086199164,-0.97712755,0
-2.4824021,-0.54045475,-0.42623103,-0.19440053,-0.086199164,-0.97712755,0
-1.5534068,1.8814473,1.0722692,0.19440053,0.086199164,0.97712755,0
0.92658591,-2.3451474,0.49943829,0.2760669,-0.9606756,0.029824018,0
1.7081475,1.3559154,0.36410445,0.19440053,0.086199164,0.97712755,0
-0.5772621,-1.148558,-0.73538047,-0.19440053,-0.086199164,-0.97712755,0
0.77567434,0.24192697,-1.2240739,-0.19440053,-0.086199164,-0.97712755,0
1.5318055,2.1117551,0.48911548,0.52850616,0.82998019,-0.17836514,0
-1.924432,1.7875366,-0.72229624,-0.19440053,-0.086199164,-0.97712755,0
-1.7893599,-1.1128306,1.0815858,-0.8425712,-0.49539119,0.21133226,0
0.71200955,2.4862461,0.63590574,0.19440053,0.086199164,0.97712755,0
2.4501121,-0.089222312,0.03724283,0.98087806,-0.0076241493,-0.19447407,0
-1.9799104,1.6259673,0.14194131,-0.7358948,0.67146111,0.087172687,0
-1.9424093,-0.87434286,-0.56091756,-0.19440053,-0.086199164,-0.97712755,0
1.2123599,0.54156733,-1.3256812,-0.19440053,-0.086199164,-0.97712755,0
-1.4909475,-0.084848583,1.4195623,0.19440053,0.086199164,0.97712755,0
-0.01139468,-1.2884496,-1.0303242,-0.19440053,-0.086199164,-0.97712755,0
-1.6917361,-2.0295174,-0.33865511,-0.64489079,-0.73936701,0.19352633,0
-2.3277767,-0.88237798,-0.13797699,-0.89257073,-0.3976126,0.21265399,0
-0.75417066,-1.8795869,-0.85706663,-0.19440053,-0.086199164,-0.97712755,0
-0.73250282,2.364471,-0.77951324,-0.3201924,0.94714463,-0.019851685,0
-1.7825255,-1.1903796,1.2508367,-0.81122488,-0.54589617,0.20955127,0
0.32303524,-2.2193463,-0.74665427,-0.19440053,-0.086199164,-0.97712755,0
-1.6006373,-1.0894833,1.2884021,0.19440053,0.086199164,0.97712755,0
0.68632102,1.2235229,0.67075527,0.19440053,0.086199164,0.97712755,0
-2.4273431,0.63385212,0.8505758,-0.96631491,0.18809727,0.1756559,0
-0.84454387,0.32308924,-0.81687009,-0.19440053,-0.086199164,-0.97712755,0
2.5060513,-0.59536648,-0.94710672,0.96595693,-0.19016062,-0.1754027,0
-0.30023956,-0.75427079,1.1284202,0.19440053,0.086199164,0.97712755,0
0.7181862,1.1193345,-1.3731924,-0.19440053,-0.086199164,-0.97712755,0
-1.8438796,1.4904464,-0.59906483,-0.19440053,-0.086199164,-0.97712755,0
-2.2624495,-1.2595272,0.46945262,-0.8362543,-0.50611144,0.21102124,0
0.29449421,2.3764462,-1.2667645,0.16567951,0.97893465,-0.11932075,0
-0.82586056,-0.71839666,-0.87334979,-0.19440053,-0.086199164,-0.97712755,0
2.1658673,0.50749731,0.48440415,0.19440053,0.086199164,0.97712755,0
2.1767855,0.58452237,0.66502464,0.19440053,0.086199164,0.97712755,0
-1.7097552,-2.1487217,-0.18252385,-0.61301661,-0.76697761,0.18962067,0
0.10125458,2.6727965,-0.55388951,0.078053474,0.99161363,-0.10300595,0
0.51021314,-0.18614715,-0.98699653,-0.19440053,-0.086199164,-0.97712755,0
1.2496213,-1.970722,0.99715137,0.19440053,0.086199164,0.97712755,0
-0.60082734,0.21448791,-0.87780505,-0.19440053,-0.086199164,-0.97712755,0
-2.0701704,0.8014093,0.90719426,-0.92652917,0.34323597,0.1540547,0
-0.62650609,2.2573855,1.0496812,-0.37152007,0.92839062,-0.0079854727,0
1.8801887,-1.6187608,-1.0408173,0.7499336,-0.655168,-0.091403186,0
1.2887379,-0.60921794,-1.4218566,-0.19440053,-0.086199164,-0.97712755,0
0.65788466,0.9621557,0.64770299,0.19440053,0.086199164,0.97712755,0
-2.3100295,0.36046731,1.2685552,-0.97558397,0.12077287,0.18343917,0
-1.2016662,-1.5243794,1.5881443,0.19440053,0.086199164,0.97712755,0
-0.96899563,2.3339055,0.25084376,-0.36012176,0.9328447,-0.010646105,0
-1.0906378,1.8159866,1.0275807,0.19440053,0.086199164,0.97712755,0
2.4136312,0.53368306,-0.39623082,0.94775474,0.24033742,-0.20975859,0
0.49994016,-0.75809956,1.1923134,0.19440053,0.086199164,0.97712755,0
1.2466075,0.9637019,0.68342149,0.19440053,0.086199164,0.97712755,0
1.158578,-1.4952128,-1.1929598,-0.19440053,-0.086199164,-0.97712755,0
-0.16604805,2.422857,0.45272851,-0.073505163,0.99461097,-0.073117614,0
-2.3117604,0.059547231,1.1357584,-0.9807139,-0.0034508109,0.19541842,0
0.03746748,-1.723057,1.0527742,0.19440053,0.086199164,0.97712755,0
0.65256059,2.3633008,0.46468353,0.2414245,0.96128535,-0.1328333,0
-0.50956899,-2.1851263,1.1642466,-0.26250982,-0.95522672,0.13649386,0
-1.5932386,0.88268596,1.1873305,0.19440053,0.086199164,0.97712755,0
-0.95878679,2.1668558,-0.62064326,-0.31843728,0.94772768,-0.020252228,0
-2.1019526,-0.65442604,0.64820284,-0.94560575,-0.24841766,0.21004385,0
1.1733489,-2.2862356,-0.16269088,0.45858878,-0.88855577,-0.012851,0
-1.2950422,-2.4556663,-0.4330827,-0.47142079,-0.86534333,0.17012763,0
0.66665173,1.1076851,-1.3874996,-0.19440053,-0.086199164,-0.97712755,0
0.10558051,-2.4016647,1.1654485,-0.025208533,-0.99536359,0.092823148,0
-2.2387023,1.3871828,-0.50895488,-0.19440053,-0.086199164,-0.97712755,0
-0.79122305,-1.7542691,-0.77305865,-0.19440053,-0.086199164,-0.97712755,0
0.71335852,-0.45614135,1.007067,0.19440053,0.086199164,0.97712755,0
-0.50256455,-2.3148303,-0.18685699,-0.17566121,-0.9769699,0.12113327,0
-2.5756402,0.50965047,-0.12872863,-0.9497807,0.26554734,0.16553396,0
1.2875056,2.1435623,0.61457479,0.19440053,0.086199164,0.97712755,0
0.68470681,2.2627292,-0.57731771,0.28795767,0.94722831,-0.14085102,0
2.1792789,1.4543452,0.14110476,0.76589173,0.60904151,-0.20610268,0
-0.97061026,0.017235637,-0.931234,-0.19440053,-0.086199164,-0.97712755,0
0.67444587,1.6757433,0.72147512,0.19440053,0.086199164,0.97712755,0
-0.80619866,0.038022637,1.3736012,0.19440053,0.086199164,0.97712755,0
0.14425534,1.5462784,-1.1053489,-0.19440053,-0.086199164,-0.97712755,0
0.33643013,-2.2840691,1.0857311,0.052981943,-0.9956001,0.077287972,0
1.586876,1.7241836,0.49345422,0.19440053,0.086199164,0.97712755,0
-1.555534,-1.51421,1.3583467,0.19440053,0.086199164,0.97712755,0
2.1930106,-1.4464543,0.5461663,0.19440053,0.086199164,0.97712755,0
1.028476,-2.1304345,0.85715508,0.41530079,-0.9096812,-0.0023751259,0
-1.4385046,-1.5180048,1.5326903,-0.68380845,-0.7022841,0.19799775,0
1.1162221,-1.9685466,-1.0262325,0.53465897,-0.84446669,-0.031874716,0
-2.2261257,-0.24918869,0.82409984,-0.97773546,-0.06320256,0.20009698,0
1.3304728,-0.52437079,0.99257475,0.19440053,0.086199164,0.97712755,0
0.093282163,2.2081668,-1.2729381,0.09548223,0.98973829,-0.10630798,0
1.7772347,1.5681264,0.63920385,0.19440053,0.086199164,0.97712755,0
1.2591133,-1.934793,0.78009355,0.19440053,0.086199164,0.97712755,0
-0.76921862,2.2029805,-1.2295825,-0.19440053,-0.086199164,-0.97712755,0
-1.8968092,-0.4670192,-0.51352286,-0.19440053,-0.086199164,-0.97712755,0
-2.3238938,0.4880659,0.65762055,-0.96380568,0.20206144,0.17392483,0
0.29325354,-2.1024621,1.0729231,0.19440053,0.086199164,0.97712755,0
-1.8466079,-1.4407955,1.1307887,-0.81959397,-0.53303957,0.21008214,0
0.4757247,-1.5243526,0.89991832,0.19440053,0.086199164,0.97712755,0
1.9307791,-1.7269893,0.51910949,0.72015762,-0.68888748,-0.082504511,0
2.2200158,0.82241344,-0.54408592,0.92642093,0.31128207,-0.21177272,0
0.49009216,2.2880507,0.73757184,0.19440053,0.086199164,0.97712755,0
-0.64402437,2.5757258,0.1249609,-0.27468181,0.96106297,-0.030133843,0
2.4924536,-1.077319,-0.058401346,0.88170302,-0.45191392,-0.13554925,0
0.46136779,-1.3510969,1.1943439,0.19440053,0.086199164,0.97712755,0
-1.6262872,-1.5175155,0.99831152,-0.75565195,-0.62199652,0.20520832,0
2.0937386,1.3148658,0.43467438,0.19440053,0.086199164,0.97712755,0
-2.7937386,0.35379934,-0.42655444,-0.96782529,0.17909053,0.17675102,0
-2.7098756,-0.17879581,-0.42475078,-0.97565013,-0.086148113,0.20170628,0
0.69974852,2.092134,-1.0773134,0.39318106,0.90576196,-0.15812737,0
0.67258817,-2.2101276,-0.88869858,-0.19440053,-0.086199164,-0.97712755,0
-1.3362362,1.5665083,-0.71478689,-0.19440053,-0.086199164,-0.97712755,0
-1.5154393,-0.59024,1.4466043,0.19440053,0.086199164,0.97712755,0
0.33584523,2.2770333,-1.1745632,-0.19440053,-0.086199164,-0.97712755,0
0.59268659,0.8868016,0.98574919,0.19440053,0.086199164,0.97712755,0
1.2798823,-1.9441897,0.94619238,0.19440053,0.086199164,0.97712755,0
-0.39204705,-1.8092818,-0.88592803,-0.19440053,-0.086199164,-0.97712755,0
-1.7424135,0.40440273,-0.71229458,-0.19440053,-0.086199164,-0.97712755,0
1.1404877,0.15872192,-1.0939292,-0.19440053,-0.086199164,-0.97712755,0
-0.85882747,0.30759162,1.3476815,0.19440053,0.086199164,0.97712755,0
-0.85202694,-2.2582834,-0.72523963,-0.19440053,-0.086199164,-0.97712755,0
-0.64140999,0.54113448,-1.0340683,-0.19440053,-0.086199164,-0.97712755,0
0.32058835,-2.5496178,0.15575957,0.073625624,-0.99460387,0.073092937,0
1.4517653,-1.974701,0.44984841,0.52887219,-0.84815705,-0.030397773,0
1.7742944,-1.1528765,-1.403108,-0.19440053,-0.086199164,-0.97712755,0
-2.1542547,-0.83783478,0.35917416,-0.90773869,-0.36173388,0.21250655,0
0.46785831,-2.2896934,0.48030114,0.13559458,-0.98892999,0.060263693,0
-1.4414661,1.8012669,0.45580029,-0.67316169,0.73627174,0.068974495,0
-0.089716434,2.4678288,-1.1584128,-0.19440053,-0.086199164,-0.97712755,0
-0.11897147,-2.504065,-0.0016052723,0.02380389,-0.99625278,0.083150566,0
-1.9146078,-1.4233233,-0.32259136,-0.19440053,-0.086199164,-0.97712755,0
-2.5721529,0.19949901,0.46629143,-0.97414565,0.13385256,0.18199921,0
-2.3923128,-0.83329225,-0.1271158,-0.93939805,-0.2704007,0.21074809,0
-2.2444625,-0.64729398,1.3543586,-0.92045677,-0.32829645,0.21208706,0
-2.0872078,0.60445553,1.5008725,0.19440053,0.086199164,0.97712755,0
-0.39715081,-2.2969837,1.3391542,-0.16781148,-0.97852397,0.11970866,0
-2.1599088,-0.29077646,1.4622633,0.19440053,0.086199164,0.97712755,0
-0.061218143,-2.3452404,-0.022764444,-0.046242476,-0.99421877,0.09690696,0
1.6770754,1.8842403,-0.7022593,0.71059513,0.67432171,-0.20086022,0
-2.388262,-0.045500264,0.87763506,-0.97198361,-0.11724383,0.20371996,0
-0.72796988,0.41936892,0.98762637,0.19440053,0.086199164,0.97712755,0
-1.7505761,-1.3321952,1.0971154,-0.76232183,-0.61360717,0.20579521,0
-2.0063884,-1.3295553,0.51547545,-0.83705121,-0.5047754,0.21106191,0
1.5561361,-1.6928215,-1.2727076,0.74920499,-0.65603185,-0.091181934,0
-1.0870483,-1.0652881,1.1543337,0.19440053,0.086199164,0.97712755,0
0.20744348,0.97161555,0.75137913,0.19440053,0.086199164,0.97712755,0
1.188166,-0.11024928,0.64208293,0.19440053,0.086199164,0.97712755,0
-0.53574634,-0.90234464,-0.6702885,-0.19440053,-0.086199164,-0.97712755,0
2.5682204,1.1597323,0.42073268,0.88989383,0.40357172,-0.21264711,0
-1.3002248,-1.0980133,-0.71688408,-0.19440053,-0.086199164,-0.97712755,0
-2.4849072,0.25720984,0.57312191,-0.97454852,0.13034394,0.18238887,0
-0.42894351,1.5960796,0.97212791,0.19440053,0.086199164,0.97712755,0
-0.92925221,1.0196861,0.95311594,0.19440053,0.086199164,0.97712755,0
-0.36834204,-1.5720354,-0.96977723,-0.19440053,-0.086199164,-0.97712755,0
0.17833863,0.054328918,-0.88863236,-0.19440053,-0.086199164,-0.97712755,0
2.0623512,1.6578662,0.38307416,0.19440053,0.086199164,0.97712755,0
-0.1186949,-2.1997628,0.82840717,-0.088622272,-0.99051446,0.1050117,0
0.35211015,1.8693365,-1.1639988,-0.19440053,-0.086199164,-0.97712755,0
-2.0362885,1.6691126,-0.71121776,-0.19440053,-0.086199164,-0.97712755,0
-1.3003722,-0.25324035,1.4048254,0.19440053,0.086199164,0.97712755,0
-1.0892441,-1.4552789,1.282002,0.19440053,0.086199164,0.97712755,0
-0.23399162,2.3351073,-0.25106525,-0.10893551,0.99186707,-0.065826654,0
1.1252332,-0.062294006,0.81939852,0.19440053,0.086199164,0.97712755,0
1.4758406,-2.1618769,-0.18169212,0.52063978,-0.85330713,-0.028305709,0
-1.5351024,1.2181978,1.1383673,0.19440053,0.086199164,0.97712755,0
-0.85583556,1.6132534,-0.86033165,-0.19440053,-0.086199164,-0.97712755,0
-2.2444863,0.49286067,1.5763148,0.19440053,0.086199164,0.97712755,0
