3.1142423,1.6046023,-2.9072289,0.93605828,0.30759132,-0.17082891,0
-3.6262956,-3.1775997,-1.0777755,-0.93605828,-0.30759132,0.17082891,0
3.0746834,0.76170206,2.17048,0.17543656,0.0128299,0.98440713,0
-0.61424267,-3.129724,0.38695645,0.31522024,-0.94883227,0.018801868,0
3.9827754,1.2377775,-0.053333879,0.93605828,0.30759132,-0.17082891,0
-3.4769137,-0.36409473,2.95913,-0.93605828,-0.30759132,0.17082891,0
-3.966532,-1.6333358,-0.9479388,-0.93605828,-0.30759132,0.17082891,0
-3.8839869,-1.1386287,-2.1941798,-0.17949837,-0.00010862947,-0.98375833,0
3.7055368,-1.7655625,0.20727301,0.34665149,-0.88935906,0.29811609,0
3.6974416,2.129782,-0.085358143,0.93605828,0.30759132,-0.17082891,0
-2.3274062,2.0556536,-0.69587731,-0.34661978,0.88953722,-0.29762113,0
-1.9714087,1.3736873,2.1927638,-0.091222644,0.6810872,0.72649747,0
2.9613001,-1.8709509,-1.3530252,0.2507149,-0.92375749,-0.28950655,0
3.7266064,-1.8082714,-0.061049581,0.32592157,-0.94094467,0.091642082,0
-0.85342294,2.0006292,-1.4394877,-0.35012656,0.76639938,-0.53855664,0
0.29179174,-1.3548732,2.5814991,0.30102926,-0.44879031,0.84140879,0
-3.418725,-0.23570895,-2.0483732,-0.2461924,0.22572963,-0.94256848,0
1.5799706,-2.4326854,-0.22328568,0.3084271,-0.95098656,-0.022300541,0
-0.016349316,2.0639193,1.9050493,-0.11976564,0.73508132,0.66731679,0
-4.1004028,0.63008833,1.5230517,-0.93605828,-0.30759132,0.17082891,0
1.9676828,-0.22082615,-3.0339904,-0.047508717,-0.37058043,-0.92758453,0
3.534893,1.5715642,-2.1726015,0.93605828,0.30759132,-0.17082891,0
-1.9392313,1.4394767,2.3288147,-0.081316233,0.66150439,0.74551976,0
3.1444221,3.1291738,-0.67693567,0.93605828,0.30759132,-0.17082891,0
1.5446924,-1.3195832,1.8926471,0.32583505,-0.57462358,0.75075912,0
3.1819844,1.8628736,-2.6347666,0.93605828,0.30759132,-0.17082891,0
-1.1305997,-2.3980846,-1.7894869,0.10878611,-0.7147488,-0.69086879,0
3.6671362,2.0290236,0.19398737,0.93605828,0.30759132,-0.17082891,0
-3.8477526,-2.2250197,-0.66864657,-0.93605828,-0.30759132,0.17082891,0
3.8138676,-1.0606632,-1.9843519,0.16951394,-0.81971556,-0.54711193,0
2.4520075,1.7417746,-3.3009772,-0.25993517,0.27734151,-0.92494065,0
-2.4066396,1.7843237,1.5740172,-0.18399447,0.84178048,0.50749552,0
-0.42774498,-3.0582082,0.6187644,0.32883993,-0.93749964,0.11383635,0
0.18814969,2.9661846,-0.47161579,-0.32710761,0.93962616,-0.10051501,0
3.5146537,0.83605385,-1.6156828,0.93605828,0.30759132,-0.17082891,0
-4.1349874,0.046088696,1.3471118,-0.93605828,-0.30759132,0.17082891,0
-3.527159,-2.4434376,0.39123464,-0.93605828,-0.30759132,0.17082891,0
-4.1736073,0.86597013,2.0480354,-0.93605828,-0.30759132,0.17082891,0
-3.6082096,-1.3028688,1.4236881,-0.93605828,-0.30759132,0.17082891,0
-3.1595187,-2.2522068,3.2058797,-0.93605828,-0.30759132,0.17082891,0
-3.0965304,-3.3885217,-0.67155051,-0.93605828,-0.30759132,0.17082891,0
0.78189015,-2.7228737,-0.16175008,0.30575973,-0.95136607,-0.037599146,0
4.0583992,0.20584917,-0.98277855,0.93605828,0.30759132,-0.17082891,0
3.6324587,-0.13085318,-2.5885503,0.93605828,0.30759132,-0.17082891,0
3.6629684,1.176177,-0.54696417,0.93605828,0.30759132,-0.17082891,0
3.1564569,1.50705,-2.5047839,0.93605828,0.30759132,-0.17082891,0
4.3043141,-0.61398125,-1.6852698,0.93605828,0.30759132,-0.17082891,0
1.7594368,-2.2243044,-0.88190627,0.26715595,-0.93730342,-0.22380799,0
4.3375821,-0.72964954,-0.64720929,0.93605828,0.30759132,-0.17082891,0
3.937881,2.120163,1.3321029,0.93605828,0.30759132,-0.17082891,0
0.86883378,2.4956014,1.3978623,-0.14055884,0.77201009,0.61987376,0
-0.28168023,2.7091246,0.01433897,-0.3061291,0.95132762,0.035506189,0
4.0801716,0.93886232,-0.10789299,0.93605828,0.30759132,-0.17082891,0
-0.77432942,-2.8318882,-1.1291425,0.18108016,-0.83744287,-0.51565444,0
-0.80641186,2.262167,-1.2484225,-0.35184243,0.82018512,-0.45111322,0
-2.9400282,-3.158304,1.6322441,-0.93605828,-0.30759132,0.17082891,0
1.0767552,1.9440672,-2.6839504,-0.30084461,0.44794017,-0.84192759,0
3.7954113,0.17696714,-3.1861944,0.93605828,0.30759132,-0.17082891,0
3.3532186,1.618243,-1.1759059,0.93605828,0.30759132,-0.17082891,0
-0.77753162,-0.38516933,-2.8567982,-0.1362409,-0.13077635,-0.98200613,0
-3.172457,-1.3370829,3.019037,-0.93605828,-0.30759132,0.17082891,0
3.3934879,2.8505397,0.24042249,0.93605828,0.30759132,-0.17082891,0
0.021521807,2.518146,0.9295702,-0.2256096,0.897295,0.37942332,0
-3.8151841,-0.99597788,0.95395851,-0.93605828,-0.30759132,0.17082891,0
2.5133111,2.715034,1.4548676,-0.094932437,0.68831122,0.71917689,0
3.5968909,2.7990041,0.44933057,0.93605828,0.30759132,-0.17082891,0
2.9601822,2.9021738,-2.4792411,0.93605828,0.30759132,-0.17082891,0
-3.2280173,-3.1699839,0.94697523,-0.93605828,-0.30759132,0.17082891,0
-0.17074254,1.835927,-2.0576005,-0.33879638,0.65697676,-0.6734972,0
-3.7710838,1.2127738,-0.7833721,-0.35070845,0.77668726,-0.52322114,0
0.940678,0.66839933,-3.0538344,-0.19341135,0.044252098,-0.98011929,0
-4.2487926,0.021086454,-0.98669678,-0.93605828,-0.30759132,0.17082891,0
0.35284734,-0.87045646,-2.7466667,-0.061194658,-0.33579615,-0.93994474,0
3.2779822,1.4978437,-3.1878865,0.93605828,0.30759132,-0.17082891,0
-2.3679214,-0.44522995,-2.2537048,-0.21440172,0.11369073,-0.9701063,0
-4.4202919,-0.72060847,-1.1297183,-0.93605828,-0.30759132,0.17082891,0
1.7798793,3.257313,0.31820917,-0.25729257,0.92958462,0.26395619,0
-0.47168112,-2.1660645,1.9503261,0.34293693,-0.68904418,0.6384452,0
2.7629395,-1.0268548,1.7797977,0.32585713,-0.57474947,0.75065327,0
-3.4377298,-2.5499725,0.79728365,-0.93605828,-0.30759132,0.17082891,0
-1.3365963,-0.48062181,3.0370512,0.15590322,0.072656423,0.98509657,0
-2.2854476,2.0637064,1.2977953,-0.22252119,0.89363217,0.38975102,0
-1.2940158,1.5986989,-1.813401,-0.34114206,0.67458797,-0.65463972,0
3.4918857,1.3962235,-2.0050411,0.93605828,0.30759132,-0.17082891,0
0.7263906,-2.5417693,0.40080023,0.33546817,-0.92663825,0.1697129,0
-0.5613277,0.55684692,-2.3989716,-0.24635801,0.22633889,-0.94237912,0
1.2936871,-1.7434627,1.6706423,0.33813083,-0.6521942,0.67846167,0
3.0783911,3.1575286,-0.68641949,0.93605828,0.30759132,-0.17082891,0
-4.0251713,-0.92203784,-1.0266693,-0.93605828,-0.30759132,0.17082891,0
-0.32056725,1.3240323,-2.2321334,-0.30288124,0.45737061,-0.83610719,0
4.1373663,-0.80207777,-2.688401,0.1274296,-0.74893779,-0.65027213,0
1.0895488,1.8119278,-2.8287568,-0.29605889,0.42622888,-0.85479712,0
-3.3593955,-1.0608935,2.9520154,-0.93605828,-0.30759132,0.17082891,0
3.1921177,2.0339031,-1.1201453,0.93605828,0.30759132,-0.17082891,0
3.8675959,-1.3422122,-2.0404859,0.19458091,-0.85707712,-0.47702932,0
3.0775232,3.5532346,0.41015315,0.93605828,0.30759132,-0.17082891,0
-1.7917931,0.6227262,-2.3499379,-0.2883718,0.39252323,-0.87336546,0
3.4275308,2.2916851,-0.90153813,0.93605828,0.30759132,-0.17082891,0
3.7727039,0.38773012,-1.0912727,0.93605828,0.30759132,-0.17082891,0
3.1039488,3.3747008,-0.38256764,0.93605828,0.30759132,-0.17082891,0
3.8568473,0.2134819,-2.2118499,0.93605828,0.30759132,-0.17082891,0
4.0182619,0.21395397,-0.086767197,0.93605828,0.30759132,-0.17082891,0
1.0943059,-0.55537057,-2.771666,-0.056906044,-0.34677795,-0.93621933,0
3.9166694,2.1685586,1.6724731,0.93605828,0.30759132,-0.17082891,0
-4.4509487,0.42425442,0.69903386,-0.93605828,-0.30759132,0.17082891,0
1.6924064,0.48592702,2.4665122,0.18270952,-0.010020167,0.98311579,0
1.7456087,3.6027446,-1.0029495,-0.33875954,0.91907036,-0.20137453,0
-2.9534469,1.6969271,1.6829504,-0.19695097,0.86039925,0.47002482,0
4.4587965,-0.71796966,0.69222546,0.93605828,0.30759132,-0.17082891,0
-2.9095883,-2.8144369,1.302259,-0.93605828,-0.30759132,0.17082891,0
1.3480661,3.0324469,0.76240635,-0.22855377,0.90070975,0.36943889,0
0.67086363,2.9906855,-0.32884598,-0.30590087,0.95135188,0.036800265,0
-3.5544672,-1.4831631,0.21829689,-0.93605828,-0.30759132,0.17082891,0
-1.5598824,2.5338819,0.40867412,-0.28802556,0.9487493,0.13006252,0
-2.2648258,1.7918484,-0.80011523,-0.35133761,0.84321225,-0.40688437,0
-3.4768434,-2.4557898,-1.1412702,-0.93605828,-0.30759132,0.17082891,0
3.3562822,1.8634171,-1.4916285,0.93605828,0.30759132,-0.17082891,0
-1.8838096,-1.0485926,-2.2065074,-0.11318356,-0.19647244,-0.9739548,0
-0.36898494,2.4714165,1.0285999,-0.23675156,0.90980279,0.34089261,0
4.4143085,0.090144634,1.2369205,0.93605828,0.30759132,-0.17082891,0
4.2928658,0.20577645,1.7245517,0.28301731,-0.36978775,0.88496226,0
4.5677395,-1.083024,-0.12104127,0.93605828,0.30759132,-0.17082891,0
3.9184055,1.8267493,0.39047313,0.93605828,0.30759132,-0.17082891,0
2.5528798,-1.3832588,-1.8782399,0.16351074,-0.81020403,-0.5628798,0
0.98866242,1.059792,-2.9839191,-0.22946775,0.16564232,-0.95911789,0
-3.6614084,-2.6028194,-1.3945229,-0.93605828,-0.30759132,0.17082891,0
-1.7947706,2.1297519,0.04915905,-0.31464815,0.94908655,-0.015209019,0
2.6971297,1.076331,2.3340802,0.13868952,0.12364689,0.98258674,0
-1.83079,1.8863651,1.7700968,-0.15161037,0.79075247,0.59306389,0
3.6978412,-0.32567215,-2.8780885,0.038029432,-0.57112789,-0.81997967,0
4.361846,-0.54597187,-1.3418229,0.93605828,0.30759132,-0.17082891,0
-4.2614317,0.12869453,1.1510767,-0.93605828,-0.30759132,0.17082891,0
-3.4319351,-1.2810078,2.9487565,-0.93605828,-0.30759132,0.17082891,0
-0.88350421,0.65506399,-2.4573183,-0.25228414,0.24833551,-0.93524444,0
1.8588053,1.2501388,2.1921422,0.1067574,0.21433637,0.97090822,0
-3.4006763,-1.2367911,2.2642012,-0.93605828,-0.30759132,0.17082891,0
3.3284812,2.2726593,2.0129547,0.047017753,0.37181443,0.92711556,0
0.72415113,1.9416015,1.9653958,-0.046878457,0.59022486,0.80587655,0
3.1692793,2.9382384,-1.6782742,0.93605828,0.30759132,-0.17082891,0
0.63041955,-0.92297065,2.329113,0.27531531,-0.33801356,0.89997125,0
1.5922177,0.38931414,2.4237506,0.1645323,0.046495825,0.98527527,0
1.5559788,3.4212871,-1.4727204,-0.34897712,0.87351942,-0.33937991,0
0.10885906,0.89390314,-2.7382507,-0.24608678,0.2253412,-0.942689,0
3.3335166,1.9384193,-2.3526206,0.93605828,0.30759132,-0.17082891,0
-4.3126993,-0.13070869,-0.44184801,-0.93605828,-0.30759132,0.17082891,0
2.2017987,3.3321977,0.81122565,-0.20094109,0.86590463,0.45807409,0
3.5701301,1.9874151,0.28399372,0.93605828,0.30759132,-0.17082891,0
4.346859,-0.17512941,-0.072585136,0.93605828,0.30759132,-0.17082891,0
1.335839,-2.3775611,0.38966739,0.33131358,-0.93400127,0.13368994,0
-3.207525,-2.7848685,1.7119663,-0.93605828,-0.30759132,0.17082891,0
-4.0409055,1.0590367,2.0883009,-0.18860853,0.8485375,0.4943794,0
4.57901,-0.84016562,-0.5496946,0.93605828,0.30759132,-0.17082891,0
-3.8616436,-1.4621558,-1.4589182,-0.93605828,-0.30759132,0.17082891,0
4.5622497,-1.5285144,-0.77251768,0.93605828,0.30759132,-0.17082891,0
-3.1938772,-3.1417403,-0.16576886,-0.93605828,-0.30759132,0.17082891,0
1.2696143,-1.7925642,-1.5776238,0.16233259,-0.80831313,-0.56593108,0
-1.1800718,-0.87864923,2.9268017,0.21480542,-0.11505836,0.96985584,0
-0.88851756,-2.4974303,2.0264874,0.33908403,-0.65907079,0.67130297,0
-3.0710192,-2.8153627,0.87077236,-0.93605828,-0.30759132,0.17082891,0
-0.85963559,1.6554484,-2.1564169,-0.32374451,0.56283492,-0.76053029,0
-4.6042337,1.2096772,0.88256395,-0.93605828,-0.30759132,0.17082891,0
1.4879119,3.4329782,0.08738184,-0.28739965,0.94852048,0.13307971,0
3.2836952,2.1593552,1.7665353,0.0057010651,0.47219962,0.88147318,0
2.0130794,2.2754669,1.7381499,-0.038663864,0.57250756,0.81898725,0
4.0368061,-0.41025066,-2.9128544,0.93605828,0.30759132,-0.17082891,0
-2.5773673,-1.9158926,-1.9353981,-0.030192018,-0.41351128,-0.9099983,0
-2.3330793,1.2642424,-1.5658547,-0.33925435,0.66031837,-0.66998953,0
-3.3880286,-1.4080434,3.0726562,-0.93605828,-0.30759132,0.17082891,0
-1.2556953,1.2891791,-2.2908561,-0.30641687,0.47403947,-0.82546669,0
-4.4792881,0.45355868,-0.96205282,-0.93605828,-0.30759132,0.17082891,0
4.6209483,0.31855822,1.4919868,0.93605828,0.30759132,-0.17082891,0
4.6362305,-1.4645467,-0.58455169,0.31008482,-0.95062578,-0.012567282,0
0.9701395,-1.6276184,1.7685972,0.33494616,-0.63035864,0.70032781,0
4.2691021,-0.63256645,-1.636448,0.93605828,0.30759132,-0.17082891,0
2.2060413,3.5545185,-0.96376371,-0.33815145,0.92061007,-0.19527036,0
-4.3843613,1.1232095,1.1554569,-0.93605828,-0.30759132,0.17082891,0
-4.089664,0.40031815,0.96818674,-0.93605828,-0.30759132,0.17082891,0
2.6951175,3.4905686,-1.4980228,0.93605828,0.30759132,-0.17082891,0
4.157795,0.3210392,1.0992025,0.93605828,0.30759132,-0.17082891,0
-4.060277,1.1688764,-0.56392229,-0.35169744,0.8039186,-0.479608,0
3.6986804,2.5120287,1.1477442,0.93605828,0.30759132,-0.17082891,0
4.6547527,-1.1442132,-1.1322653,0.93605828,0.30759132,-0.17082891,0
-3.2009997,-1.4100966,2.3039908,-0.93605828,-0.30759132,0.17082891,0
0.22251827,-2.4512787,1.0971057,0.34968579,-0.8670097,0.35498458,0
-1.4347808,-2.0951962,2.79848,0.30680186,-0.47587886,0.82426447,0
3.5546904,2.1288233,-0.40911603,0.93605828,0.30759132,-0.17082891,0
4.7006173,-0.28137827,1.4230132,0.33161995,-0.60904294,0.72048241,0
-4.1839242,0.86034203,1.6043657,-0.93605828,-0.30759132,0.17082891,0
0.60925841,1.8411446,2.0386686,-0.042465568,0.58074039,0.81298059,0
0.59555554,-2.5168586,-1.0622447,0.21807259,-0.88821524,-0.40437359,0
-0.23014975,1.3207603,-2.2740078,-0.29584777,0.42528486,-0.85534024,0
-3.622077,-2.7223952,-0.18816996,-0.93605828,-0.30759132,0.17082891,0
-0.96794462,-2.4664712,-1.362076,0.14085889,-0.7725274,-0.61916101,0
3.9617264,0.35815287,-1.1481889,0.93605828,0.30759132,-0.17082891,0
-2.6579981,-1.5827395,-2.3574696,-0.07266289,-0.30605626,-0.94923627,0
3.0131297,3.0863073,-0.9852407,0.93605828,0.30759132,-0.17082891,0
3.9788227,-0.20606327,-1.0601542,0.93605828,0.30759132,-0.17082891,0
-2.1423225,1.802645,1.2905245,-0.2264452,0.8982718,0.37660354,0
-4.2254977,-0.064161301,-1.7488078,-0.29517007,0.42226145,-0.85707051,0
-3.1736512,1.8658774,0.80215275,-0.27412766,0.94193399,0.19394404,0
3.7248292,-1.5141344,-1.1040689,0.28568041,-0.94785136,-0.14129549,0
-3.736692,-0.43077135,1.6981242,-0.93605828,-0.30759132,0.17082891,0
-2.8262801,-3.3440404,1.8494663,-0.93605828,-0.30759132,0.17082891,0
2.4671974,0.21264935,-3.278019,-0.11379278,-0.19476914,-0.97422588,0
-4.4829464,0.1511426,-0.62121272,-0.93605828,-0.30759132,0.17082891,0
1.2997555,2.5772414,-2.0404191,-0.33989596,0.66507518,-0.66494048,0
2.8365307,-1.592397,-1.2521836,0.23775733,-0.91087466,-0.33731097,0
4.2383361,-0.88104343,-1.5425239,0.93605828,0.30759132,-0.17082891,0
-4.5441294,0.84395409,-0.39223886,-0.93605828,-0.30759132,0.17082891,0
-2.7515497,-3.5209093,-0.36006427,0.2468403,-0.9200924,-0.30413765,0
-3.7054064,-1.3480048,0.7371726,-0.93605828,-0.30759132,0.17082891,0
0.60812235,-1.3842461,-2.448082,0.022485971,-0.53682882,-0.8433916,0
4.0981002,1.4667962,0.82395935,0.93605828,0.30759132,-0.17082891,0
3.8981714,-1.4188199,-0.30502349,0.3260231,-0.94083577,0.092394888,0
4.5139928,0.17306423,1.6231955,0.93605828,0.30759132,-0.17082891,0
0.74628544,3.0501237,-0.6309104,-0.32293594,0.94382077,-0.070103765,0
2.2132702,-1.442203,-2.0695305,0.13643569,-0.76485687,-0.62958658,0
-3.3521867,-3.3539987,-0.24054861,-0.93605828,-0.30759132,0.17082891,0
3.368459,1.4803915,-2.5905371,0.93605828,0.30759132,-0.17082891,0
0.47166157,-1.3256745,2.3886008,0.30266178,-0.45634845,0.83674479,0
4.8010907,-0.5052371,1.4166999,0.32997206,-0.59893388,0.72965527,0
4.019413,1.1112671,2.2515669,0.16944343,0.031419009,0.985039,0
-3.4176412,-0.84979248,2.3125229,-0.93605828,-0.30759132,0.17082891,0
-3.1627421,-1.4050827,3.2844577,0.1765511,0.0093492866,0.98424709,0
2.9641895,2.2763252,-2.2702322,0.93605828,0.30759132,-0.17082891,0
-3.8708863,-1.8342309,-1.4680014,-0.93605828,-0.30759132,0.17082891,0
3.6145449,-1.7391396,-1.1597669,0.2634086,-0.93452346,-0.23933613,0
3.3558502,2.9223406,-0.2477262,0.93605828,0.30759132,-0.17082891,0
3.7058542,0.60825491,-1.3329506,0.93605828,0.30759132,-0.17082891,0
-2.9461632,-2.7446628,2.403969,-0.93605828,-0.30759132,0.17082891,0
-1.3535261,1.5784237,-1.6800559,-0.34048218,0.66950303,-0.66017985,0
-2.8708186,-2.4228406,2.643703,-0.93605828,-0.30759132,0.17082891,0
2.5463982,2.3699174,-2.8561838,-0.29763508,0.43331328,-0.85067797,0
-2.4530797,-2.3115342,-2.0067527,0.016231656,-0.52275783,-0.85232669,0
-3.773582,-0.46997309,1.7963005,-0.93605828,-0.30759132,0.17082891,0
-3.5454738,-2.5148137,-0.72904873,-0.93605828,-0.30759132,0.17082891,0
-1.5117843,1.6563945,-1.8204503,-0.33992141,0.66526604,-0.66473651,0
-4.1070967,-0.86110759,-0.79353172,-0.93605828,-0.30759132,0.17082891,0
-1.0794137,-3.1095481,-0.66810083,0.20935076,-0.87713432,-0.43221253,0
-2.4844372,-2.0738945,3.1382499,0.29071927,-0.40267542,0.86794853,0
3.1189137,3.303081,0.58190012,0.93605828,0.30759132,-0.17082891,0
1.6031374,2.9399383,-2.2519825,-0.34555444,0.71229368,-0.61092532,0
-3.0043678,-1.7758013,-2.2279234,-0.087257683,-0.26741061,-0.95962369,0
-1.5838236,-1.3124056,3.0871124,0.25390089,-0.25440592,0.93317318,0
-3.6953232,-0.097503185,1.9877092,-0.93605828,-0.30759132,0.17082891,0
-3.0225945,-2.3714807,1.5279734,-0.93605828,-0.30759132,0.17082891,0
3.0783975,-1.6520996,-0.91765189,0.26959532,-0.93900633,-0.21350759,0
-3.4291911,-2.3186159,0.37026405,-0.93605828,-0.30759132,0.17082891,0
0.8957963,2.9843636,0.90670848,-0.20790178,0.87523651,0.43673533,0
2.933198,2.2185457,-2.5546861,0.93605828,0.30759132,-0.17082891,0
-2.9449735,-2.6711459,1.9679599,-0.93605828,-0.30759132,0.17082891,0
4.2032261,1.1971421,1.941664,0.93605828,0.30759132,-0.17082891,0
1.3046739,-2.4191203,0.7457118,0.34127247,-0.91186249,0.22812277,0
-2.8060355,0.081566334,-2.0192249,-0.26769918,0.30754429,-0.91310108,0
-2.9967387,-2.402972,1.676544,-0.93605828,-0.30759132,0.17082891,0
3.4593458,1.1956191,-2.8065979,0.93605828,0.30759132,-0.17082891,0
3.8180671,1.3283885,2.0761914,0.15431744,0.07741943,0.98498344,0
4.5054541,-0.62901425,0.72365284,0.93605828,0.30759132,-0.17082891,0
-0.95961881,-3.2650383,-0.044163942,0.28208798,-0.94626725,-0.15812832,0
3.8212883,2.0733306,1.1599053,0.93605828,0.30759132,-0.17082891,0
-3.5670424,-2.612396,-1.8591886,-0.014873028,-0.45049718,-0.892654,0
3.8449943,1.6061792,1.0598044,0.93605828,0.30759132,-0.17082891,0
3.3092761,0.61733055,-3.206219,0.93605828,0.30759132,-0.17082891,0
0.26294518,-0.27910519,2.9569788,0.19862241,-0.061196506,0.9781636,0
-1.6003504,1.860129,2.120141,-0.13490421,0.762178,0.63315511,0
1.9915345,2.4392505,1.7669426,-0.049556971,0.59594309,0.80149591,0
-0.15853262,2.8016226,-0.36675906,-0.31884027,0.94686979,-0.042171419,0
3.5900593,1.0440717,-1.8851056,0.93605828,0.30759132,-0.17082891,0
0.64890265,-0.536336,2.4392323,0.24720478,-0.22945805,0.94140255,0
3.915591,0.75555086,0.46080607,0.93605828,0.30759132,-0.17082891,0
4.1416793,-0.79755735,1.3955809,0.33354402,-0.62121093,0.70911592,0
3.0934525,-1.3907628,-1.9931586,0.17775279,-0.83242607,-0.52485305,0
4.1853232,-0.52606583,-1.8251991,0.93605828,0.30759132,-0.17082891,0
-0.13205004,2.4573512,1.2543046,-0.21309644,0.88196588,0.42038798,0
-4.0109854,-0.16201544,2.207772,-0.93605828,-0.30759132,0.17082891,0
-4.4286618,0.3071475,0.83732307,-0.93605828,-0.30759132,0.17082891,0
0.75847769,-1.9841086,1.8069357,0.34557164,-0.71245778,0.61072433,0
0.28827238,-2.8067799,-0.35036969,0.28639996,-0.94813865,-0.13787007,0
4.2710776,-0.2367115,-0.61239076,0.93605828,0.30759132,-0.17082891,0
-3.1756759,-3.0271566,-0.54563332,-0.93605828,-0.30759132,0.17082891,0
-1.2278759,0.47515678,2.9983625,0.068881273,0.31592327,0.94628108,0
0.57906008,2.8691723,-0.97596478,-0.34279513,0.90668678,-0.24578553,0
4.0288858,2.0973959,1.8449312,0.93605828,0.30759132,-0.17082891,0
3.1549585,1.9636312,-3.1744909,-0.25992107,0.27728748,-0.92496091,0
2.3204415,-1.6568446,-1.7527328,0.19903266,-0.86328542,-0.46381503,0
-4.1157947,-0.23605013,0.31958735,-0.93605828,-0.30759132,0.17082891,0
1.8048266,-0.36950541,-2.8131418,-0.067385674,-0.31980902,-0.94508278,0
-3.1902847,0.83266449,2.3006682,-0.11753261,0.73099142,0.67218864,0
1.4057308,-2.151587,-1.3991276,0.21935737,-0.88979661,-0.4001804,0
-1.0878408,0.30683613,2.8558466,0.10096747,0.23027131,0.96787429,0
-1.214046,-3.1165814,-0.63938713,0.22026229,-0.89090216,-0.3972128,0
-0.26201749,2.2815442,1.3772454,-0.17084777,0.82180077,0.54355717,0
0.32983971,2.6776652,-1.5294902,-0.35184002,0.81572384,-0.45913315,0
3.4704227,2.3765063,0.56926775,0.93605828,0.30759132,-0.17082891,0
2.5368569,2.9816682,-2.5716496,-0.34109491,0.67422086,-0.65504241,0
3.4613528,-0.70662737,-2.8769381,0.048502564,-0.59369546,-0.80322671,0
-2.9509523,-3.5951772,0.93946075,-0.93605828,-0.30759132,0.17082891,0
3.8458629,-1.8550501,-0.68940586,0.31132889,-0.9502883,-0.0051429272,0
4.1298962,1.1524241,0.17318821,0.93605828,0.30759132,-0.17082891,0
0.23394945,2.5275221,-1.8695434,-0.34892583,0.74912059,-0.56308889,0
-0.013272405,0.045458674,-2.6642175,-0.16174978,-0.054976672,-0.98529923,0
2.6461225,-1.4320042,-1.8458563,0.18594915,-0.84465969,-0.5019688,0
3.0719786,-1.7710311,-1.3964252,0.24753082,-0.92075765,-0.30155218,0
-0.72845936,2.4587219,-0.16658926,-0.32250598,0.94418705,-0.067088187,0
2.4045165,0.31078136,2.33215,0.21243483,-0.10704535,0.9712944,0
3.6668105,0.54059124,-3.1960926,0.93605828,0.30759132,-0.17082891,0
3.8609154,-1.4083598,-1.1084251,0.27104771,-0.9399786,-0.20730001,0
-3.6922884,-1.6625245,0.93555319,-0.93605828,-0.30759132,0.17082891,0
-2.9720054,-2.824199,2.6804395,-0.93605828,-0.30759132,0.17082891,0
-1.8638597,-0.19181657,-2.2783771,-0.20597792,0.085437685,-0.97481978,0
-1.0320752,2.5610733,-0.0037748814,-0.31973934,0.94628072,-0.048158765,0
1.1059358,1.0484805,-2.895633,-0.2476801,0.23121226,-0.94084829,0
4.2636566,0.18643999,0.025959313,0.93605828,0.30759132,-0.17082891,0
3.5468352,1.8327892,-1.1710414,0.93605828,0.30759132,-0.17082891,0
-2.6631308,0.40129805,-2.303144,-0.27316654,0.32932669,-0.90383846,0
-0.067496538,0.68158507,2.7615714,0.1086669,0.20904788,0.97184896,0
4.5066886,0.10213113,1.8448884,0.93605828,0.30759132,-0.17082891,0
-3.9434581,0.66027641,2.0981126,-0.93605828,-0.30759132,0.17082891,0
-2.415112,0.99777293,2.4490998,-0.09375298,0.68602109,0.72151595,0
-3.7130399,-0.38560271,-1.96224,-0.24384439,0.21712457,-0.94519663,0
-0.52327108,-2.6958718,-1.1289494,0.20618665,-0.8729701,-0.4420523,0
2.9557581,2.9421113,-1.0948071,0.93605828,0.30759132,-0.17082891,0
-2.7071297,0.98995602,-1.5751868,-0.33800724,0.65131545,-0.67936677,0
-1.6745944,-1.4818617,-2.1285975,-0.037840784,-0.39469662,-0.91803187,0
3.5411448,-1.6047678,-0.75900924,0.29137564,-0.9498328,-0.11365634,0
2.4549708,1.8207345,2.1480932,0.028617263,0.41735637,0.90829217,0
2.1293249,0.31621993,2.2370954,0.1920011,-0.039698333,0.98059142,0
3.810298,0.75912285,-1.5713422,0.93605828,0.30759132,-0.17082891,0
0.88462806,-1.9894853,-1.9106748,0.14716971,-0.78329802,-0.60397446,0
4.7901325,-1.1173153,-0.15146118,0.93605828,0.30759132,-0.17082891,0
-0.93565035,2.1590691,-1.1960019,-0.35183951,0.82103729,-0.44956297,0
3.7575943,0.24172688,-2.1483612,0.93605828,0.30759132,-0.17082891,0
0.38607121,0.70038462,-2.8295679,-0.21091038,0.10191548,-0.9721781,0
-0.77556932,0.064898014,3.0237148,0.12494051,0.16329274,0.97863442,0
4.6490355,-0.062989235,1.2391162,0.93605828,0.30759132,-0.17082891,0
3.3981261,1.7241316,-2.3419065,0.93605828,0.30759132,-0.17082891,0
0.11469221,-2.347717,-1.3639135,0.15021634,-0.78842354,-0.59650928,0
-1.0565366,1.0262858,-2.4197991,-0.29065973,0.40241644,-0.86808866,0
2.8071043,3.5278704,-1.6594813,0.93605828,0.30759132,-0.17082891,0
-0.30144954,-2.6203997,1.3020113,0.35082704,-0.85286415,0.38670808,0
-3.5690897,-0.63235044,3.0112567,-0.93605828,-0.30759132,0.17082891,0
2.6323466,-0.75229979,1.9873894,0.30258989,-0.45601416,0.83695304,0
3.2494321,2.6927168,-0.57473445,0.93605828,0.30759132,-0.17082891,0
-4.548655,-0.3518877,-1.2611901,-0.93605828,-0.30759132,0.17082891,0
1.7198309,3.404676,-0.17112517,-0.30133843,0.95149559,0.062058985,0
0.31367099,-0.78245914,2.681284,0.25302732,-0.25112212,0.93429905,0
-3.0863776,-0.67227125,3.3361378,0.14169526,0.11485425,0.98322475,0
-4.0213642,0.4872551,1.8776269,-0.93605828,-0.30759132,0.17082891,0
-1.6544868,-2.5780454,2.1888821,0.33925253,-0.66030484,0.67000401,0
3.4549453,2.0815046,-1.3952808,0.93605828,0.30759132,-0.17082891,0
0.43621856,1.4683365,-2.7030599,-0.27953449,0.35529149,-0.89198005,0
0.33018005,2.9768767,-0.85768938,-0.34546399,0.89553201,-0.28049421,0
-2.516551,-3.5644343,1.2139263,0.34103248,-0.91261661,0.22544968,0
4.3411226,0.10138083,0.44051084,0.93605828,0.30759132,-0.17082891,0
3.5315986,2.5810649,-0.28648543,0.93605828,0.30759132,-0.17082891,0
3.1783619,-0.98909116,1.6309073,0.33480561,-0.62943023,0.70122945,0
-2.3812666,-1.5325063,-2.1478701,-0.060312867,-0.33806014,-0.93918991,0
-0.11021233,2.5374479,1.5179126,-0.17214859,0.82382411,0.54007292,0
-1.7562687,1.2862941,-1.6963867,-0.33503741,0.63096321,-0.6997394,0
3.9129086,2.0153484,1.147825,0.93605828,0.30759132,-0.17082891,0
3.4898214,0.29395723,-2.7015543,0.93605828,0.30759132,-0.17082891,0
3.3149445,0.40340281,-3.2887917,-0.075133204,-0.29957858,-0.95110869,0
-2.8764048,-2.0444603,2.9746954,-0.93605828,-0.30759132,0.17082891,0
-3.305337,0.80498219,-1.5936573,-0.3170599,0.52692765,-0.7885558,0
-4.1388183,0.93809462,1.4746182,-0.93605828,-0.30759132,0.17082891,0
-2.5939465,0.74709761,-1.6640661,-0.31923819,0.53835952,-0.7799077,0
-3.4742768,-0.88138151,3.3232841,-0.93605828,-0.30759132,0.17082891,0
4.3244166,1.5622604,2.1156404,0.16384661,0.048589796,0.98528844,0
-3.7827382,1.547591,0.4481926,-0.32523966,0.94165552,-0.086626232,0
-0.69663,2.4165418,0.78285873,-0.23479229,0.90768683,0.34781778,0
-1.0043962,-3.1394951,0.45022392,0.31060928,-0.95049071,-0.0094498992,0
3.9770608,1.0926957,-0.49846101,0.93605828,0.30759132,-0.17082891,0
-3.3902678,-1.4358052,-2.3119516,-0.13415337,-0.13683033,-0.98146844,0
3.0560064,1.4894238,-3.0338326,0.93605828,0.30759132,-0.17082891,0
4.4794397,0.5885942,1.2951864,0.93605828,0.30759132,-0.17082891,0
4.2109404,1.4020085,1.4211723,0.93605828,0.30759132,-0.17082891,0
-2.2812529,0.21035039,-2.1711812,-0.25115955,0.24413107,-0.93665296,0
1.495605,3.2568746,-1.7241085,-0.351841,0.81599486,-0.45865035,0
-4.0612178,-0.82648325,0.74135959,-0.93605828,-0.30759132,0.17082891,0
-3.4578543,-2.0768895,1.3546267,-0.93605828,-0.30759132,0.17082891,0
3.1721702,3.0174365,-1.5362678,0.93605828,0.30759132,-0.17082891,0
3.264473,-1.875809,-0.79459321,0.29843885,-0.95127314,-0.077547133,0
-1.5692537,-3.1706448,1.1170011,0.34716257,-0.88638103,0.306279,0
3.9191103,-1.1057882,-2.1248193,0.18207157,-0.83892459,-0.51288939,0
-3.1719017,-1.6482582,2.9836457,-0.93605828,-0.30759132,0.17082891,0
1.4695326,3.3144972,-0.094566584,-0.28356731,0.9469493,0.15125048,0
1.5140879,2.1930199,-2.6492887,-0.30230331,0.45468223,-0.83778089,0
2.8781233,3.1603355,-1.2407227,0.93605828,0.30759132,-0.17082891,0
4.2134743,-0.61568499,-1.0423851,0.93605828,0.30759132,-0.17082891,0
-3.6880488,-2.6270669,-0.79914403,-0.93605828,-0.30759132,0.17082891,0
-4.7012095,0.70617628,-0.0038092844,-0.93605828,-0.30759132,0.17082891,0
-4.3383222,0.5856967,0.55848342,-0.93605828,-0.30759132,0.17082891,0
-4.0610032,0.28834724,1.078578,-0.93605828,-0.30759132,0.17082891,0
-3.7779105,-2.8674376,-1.4822462,-0.93605828,-0.30759132,0.17082891,0
-3.9635606,-0.70562792,1.4413474,-0.93605828,-0.30759132,0.17082891,0
-2.924161,-3.4332347,-0.93046427,0.19019639,-0.85083109,-0.48980793,0
4.140779,0.6325357,0.43909734,0.93605828,0.30759132,-0.17082891,0
3.3193595,1.853519,-3.0139673,0.93605828,0.30759132,-0.17082891,0
2.3140774,-2.1067677,-0.11340499,0.31542069,-0.94873977,0.020066679,0
3.4531353,0.79914951,-2.5532064,0.93605828,0.30759132,-0.17082891,0
4.2164698,-0.30002785,-2.0106707,0.93605828,0.30759132,-0.17082891,0
-1.1989578,-1.4686468,2.7287776,0.26766613,-0.30741382,0.91315466,0
-0.16068226,-1.4729073,2.5871031,0.30061102,-0.44686592,0.84258163,0
-2.9828892,-3.5365462,1.4859407,-0.93605828,-0.30759132,0.17082891,0
3.390959,-0.7022357,-2.7038364,0.072228432,-0.64317209,-0.76230741,0
-1.8954014,1.0703739,-2.0098858,-0.30333862,0.45950505,-0.8347699,0
3.1952705,2.0463114,1.885023,0.039545536,0.39047137,0.91976523,0
3.9833932,0.81929493,-0.4852761,0.93605828,0.30759132,-0.17082891,0
-3.5159225,-1.4537516,1.5866874,-0.93605828,-0.30759132,0.17082891,0
-3.7131329,-2.1922939,-0.46281433,-0.93605828,-0.30759132,0.17082891,0
-2.323555,1.8691328,1.4138287,-0.20017231,0.86485279,0.460392,0
0.32736063,-2.8250191,-0.51791835,0.25905865,-0.93106002,-0.25693583,0
2.5704761,2.3392153,1.884994,0.0028508902,0.47887656,0.87787759,0
3.8283677,0.34449959,-0.97374409,0.93605828,0.30759132,-0.17082891,0
1.2229819,-2.3861351,0.92895162,0.34996772,-0.86404675,0.36186421,0
-4.2021999,-0.54516697,-0.051465154,-0.93605828,-0.30759132,0.17082891,0
-3.2843027,-3.0204663,-0.90965509,-0.93605828,-0.30759132,0.17082891,0
4.3315816,-0.93893814,-0.81837553,0.93605828,0.30759132,-0.17082891,0
4.0658426,-0.5206182,1.4534411,0.31930453,-0.53871143,0.77963758,0
-4.0012374,0.16730833,1.4966326,-0.93605828,-0.30759132,0.17082891,0
-0.46235466,2.5952921,1.4736172,-0.18956333,0.8499186,0.49163401,0
-3.4271133,-1.0149345,2.9261177,-0.93605828,-0.30759132,0.17082891,0
1.3912177,-2.1473763,-0.88829756,0.25047392,-0.92353451,-0.29042518,0
-2.6547189,-2.8505247,2.7322512,-0.93605828,-0.30759132,0.17082891,0
-3.6910951,-0.8925252,0.41212285,-0.93605828,-0.30759132,0.17082891,0
2.2452545,3.4309685,-0.94471622,-0.3335807,0.93024254,-0.15288061,0
4.0192699,0.11951351,-1.8702136,0.93605828,0.30759132,-0.17082891,0
-0.38222122,1.2057508,2.590188,-0.016523123,0.52341706,0.85191637,0
4.1422348,0.2404356,0.11380947,0.93605828,0.30759132,-0.17082891,0
3.7218289,2.2212827,1.6721377,0.014136076,0.4522534,0.89177752,0
1.8925487,-0.9801662,-2.608896,0.045055389,-0.58631611,-0.80882841,0
-2.6983738,-3.2928727,2.4930298,0.3477335,-0.73475337,0.582425,0
-0.49205565,1.2451631,2.6323047,-0.016614914,0.52362466,0.85178703,0
-3.0690126,-3.3386166,1.6444149,-0.93605828,-0.30759132,0.17082891,0
-4.3935251,1.2193518,0.45164257,-0.93605828,-0.30759132,0.17082891,0
-4.3166952,0.80791521,1.5254872,-0.93605828,-0.30759132,0.17082891,0
0.46696898,-1.773119,2.4368718,0.32096699,-0.54760969,0.77272493,0
-3.5397367,-1.9140496,-2.0994122,-0.058154464,-0.34358907,-0.93731779,0
3.7384002,1.6536319,0.16200662,0.93605828,0.30759132,-0.17082891,0
3.7866755,1.8898013,1.7525603,0.93605828,0.30759132,-0.17082891,0
-1.5906771,1.7052149,-1.2610656,-0.3487871,0.74733806,-0.56553829,0
-3.5637555,-1.0017958,1.8212076,-0.93605828,-0.30759132,0.17082891,0
-2.6379929,-2.8769522,2.6051955,0.335109,-0.63143778,0.69927698,0
3.1121325,3.4928453,0.33430004,0.93605828,0.30759132,-0.17082891,0
4.0661988,-0.51381683,-2.1218202,0.93605828,0.30759132,-0.17082891,0
-3.376477,-2.3625968,0.528548,-0.93605828,-0.30759132,0.17082891,0
-3.3971617,-1.8649058,0.70776105,-0.93605828,-0.30759132,0.17082891,0
3.221108,1.5905581,-1.9429501,0.93605828,0.30759132,-0.17082891,0
2.3864727,1.7423387,-3.2851558,-0.24955678,0.23816322,-0.93861586,0
-3.4955163,-2.2844145,0.80745125,-0.93605828,-0.30759132,0.17082891,0
0.63234425,2.6091135,1.2254636,-0.15318012,0.79336256,0.58916187,0
3.2671099,-0.12022686,-3.139534,-0.038445115,-0.39320016,-0.91864878,0
-4.4381042,0.72818685,-0.74944919,-0.93605828,-0.30759132,0.17082891,0
-3.6775541,-0.47285175,1.3651321,-0.93605828,-0.30759132,0.17082891,0
-3.5745277,0.82975054,-1.1955948,-0.34200007,0.6813761,-0.64711875,0
3.9576168,1.1649361,0.44016337,0.93605828,0.30759132,-0.17082891,0
3.0925167,-0.64850378,-2.7727156,0.048828721,-0.59439111,-0.80269229,0
-4.4398546,1.2678776,0.59383911,-0.32546306,0.9414264,-0.088262141,0
-1.3207827,2.0207961,1.0897758,-0.21894193,0.8892867,0.40153897,0
-2.3288012,1.7125945,1.7731998,-0.16594797,0.81409049,0.55652285,0
-2.439703,1.5946562,-1.4724611,-0.34532526,0.71012563,-0.61357325,0
-3.7525201,-1.3542404,1.3100953,-0.93605828,-0.30759132,0.17082891,0
3.4086089,0.3583889,-3.0104499,0.93605828,0.30759132,-0.17082891,0
-4.7306156,0.29280138,-1.1397563,-0.93605828,-0.30759132,0.17082891,0
4.1865263,0.93870187,1.8173125,0.93605828,0.30759132,-0.17082891,0
2.7821712,3.0287738,-1.6334956,0.93605828,0.30759132,-0.17082891,0
-3.1087799,-2.7051294,2.6202912,-0.93605828,-0.30759132,0.17082891,0
0.20528412,-2.5894799,-1.3490843,0.19361728,-0.85571539,-0.4798578,0
4.087903,-0.78351641,-1.6581402,0.93605828,0.30759132,-0.17082891,0
3.4855065,0.59830093,-2.7335355,0.93605828,0.30759132,-0.17082891,0
-1.9109906,-3.5281837,0.53743601,0.31816113,-0.94728684,0.037699163,0
2.9684074,2.8140748,-2.2708576,0.93605828,0.30759132,-0.17082891,0
0.071748018,-2.0989428,-1.833832,0.13411272,-0.76078904,-0.63499105,0
2.848767,1.8195833,2.1781428,0.058836162,0.34184498,0.93791282,0
-1.2652147,2.44174,-0.37019086,-0.33473441,0.9280957,-0.16306818,0
2.3948116,3.6711507,-0.96852183,-0.32537067,0.94152164,-0.087584555,0
2.9821887,-0.92806435,-2.4057579,0.094513655,-0.68749875,-0.72000885,0
-4.0003486,-1.7345037,-1.7892076,-0.93605828,-0.30759132,0.17082891,0
-4.2095346,0.33776712,2.0941041,-0.93605828,-0.30759132,0.17082891,0
4.2975135,0.75948,1.9136947,0.20687002,-0.088404506,0.97436619,0
-0.43819511,2.0029902,-1.8910488,-0.34485453,0.70576352,-0.61884832,0
3.321034,2.6836677,-1.4211917,0.93605828,0.30759132,-0.17082891,0
-3.4047201,0.69334412,-1.4684658,-0.32715437,0.5822252,-0.74430084,0
-4.3254533,-0.22363424,-0.13605595,-0.93605828,-0.30759132,0.17082891,0
3.3940988,-1.1701915,0.85531276,0.35105425,-0.78395045,0.51203787,0
-4.2812247,-0.66753602,-1.6264733,-0.93605828,-0.30759132,0.17082891,0
4.2212062,-0.51758385,-1.7792852,0.93605828,0.30759132,-0.17082891,0
3.6381626,1.6110834,2.1936324,0.10129839,0.22936457,0.96805501,0
4.3546586,-0.20495033,0.75093555,0.93605828,0.30759132,-0.17082891,0
3.9965384,1.7963815,1.7834003,0.93605828,0.30759132,-0.17082891,0
-3.9504731,-1.6282072,-1.3605434,-0.93605828,-0.30759132,0.17082891,0
1.537431,1.1491511,-2.9558721,-0.22308081,0.1433849,-0.96419698,0
-0.12647939,0.81965816,-2.8043189,-0.23513746,0.1857076,-0.95405608,0
-1.5540947,1.4557941,-1.9284601,-0.33444417,0.62705457,-0.70352656,0
-2.9154892,-1.216252,-2.0987926,-0.137016,-0.12852284,-0.98219573,0
3.9108262,0.14112902,-1.5702484,0.93605828,0.30759132,-0.17082891,0
2.4483337,0.9064889,-3.4249115,-0.16965735,-0.030759096,-0.98502302,0
-2.1290352,-1.4811218,-2.0720625,-0.069717824,-0.31374574,-0.946944,0
-2.9697957,0.09329319,3.2299907,0.062642276,0.33207217,0.94117165,0
1.7279618,-2.1300981,0.41183901,0.3402046,-0.91510534,0.21643233,0
4.0717235,0.75884676,-0.74567819,0.93605828,0.30759132,-0.17082891,0
4.6785402,-0.51113605,0.15808089,0.93605828,0.30759132,-0.17082891,0
-3.1089175,-3.2367017,0.48740244,-0.93605828,-0.30759132,0.17082891,0
4.0736222,1.0527396,1.6317427,0.93605828,0.30759132,-0.17082891,0
-2.7793183,-3.1970332,1.4404368,-0.93605828,-0.30759132,0.17082891,0
-3.5182886,-0.81768465,2.7211976,-0.93605828,-0.30759132,0.17082891,0
-3.459084,1.5357904,1.512741,-0.24933946,0.92247558,0.29473466,0
3.2774005,-1.3602285,1.1703259,0.34650448,-0.72162998,0.59932029,0
0.10107458,2.9009113,-0.45183039,-0.32308191,0.94369388,-0.071132421,0
-3.1948419,-3.4368494,0.049572706,-0.93605828,-0.30759132,0.17082891,0
4.1579413,-0.31448317,-1.0583525,0.93605828,0.30759132,-0.17082891,0
-3.6274285,-1.0716071,2.4917319,-0.93605828,-0.30759132,0.17082891,0
0.86608005,-0.81907088,2.5429096,0.25528756,-0.25963715,0.9313522,0
-3.7708895,0.76045227,2.4666088,-0.11786377,0.73159957,0.67146856,0
4.5071564,-0.88181591,-0.43719575,0.93605828,0.30759132,-0.17082891,0
-3.5931585,-0.27870321,3.0141098,-0.93605828,-0.30759132,0.17082891,0
3.4296343,0.86701429,2.4080992,0.17528629,0.013298392,0.98442757,0
1.3789723,3.1684484,-1.4470062,-0.35059708,0.85627782,-0.37930167,0
1.038952,2.6334407,-1.788415,-0.35090971,0.78077066,-0.51697135,0
-4.1256185,0.71999359,1.921492,-0.93605828,-0.30759132,0.17082891,0
-4.2990446,1.1503725,-0.395408,-0.35007578,0.8628391,-0.3646307,0
0.73562789,-1.6399376,-1.9112149,0.097993493,-0.69422609,-0.71305501,0
-2.6585073,-0.062809587,-2.3679795,-0.2446067,0.21991187,-0.94435489,0
3.9694462,0.47672629,2.0344098,0.23855105,-0.19793478,0.95074463,0
-3.5190251,1.0811601,1.9807018,-0.16261071,0.80876011,0.56521225,0
-4.3370061,0.93971634,2.1275065,-0.93605828,-0.30759132,0.17082891,0
1.1193651,-2.4023042,-0.94435763,0.25959313,-0.93149871,-0.25479722,0
-3.7417877,-1.8908587,-0.7062912,-0.93605828,-0.30759132,0.17082891,0
1.1620054,-1.9333864,-1.8883184,0.1363005,-0.7646209,-0.6299023,0
-1.7204213,0.89122349,-1.9339508,-0.30148125,0.45087501,-0.84013146,0
-0.76145327,1.4396853,-2.4697642,-0.30884194,0.48570928,-0.81774271,0
-2.6516049,-0.42605686,3.2733717,0.13298595,0.14020655,0.98115081,0
-0.77005839,1.9855696,1.6404673,-0.14784682,0.78444153,0.6023227,0
-3.6015134,-2.4855363,-1.0567729,-0.93605828,-0.30759132,0.17082891,0
1.9456897,0.56480336,-3.0102072,-0.15076274,-0.08804673,-0.98464119,0
-2.4610662,1.5700257,-1.5012629,-0.34294349,0.68909878,-0.63838285,0
2.690809,-1.5872607,1.1151773,0.35162613,-0.80068898,0.48503232,0
0.23677444,2.8050032,0.6253047,-0.2382291,0.91137409,0.33562505,0
1.5569172,-0.93993759,2.4304328,0.28775239,-0.38986388,0.87475979,0
0.90303087,1.408531,2.3782754,0.0084315538,0.46577346,0.88486385,0
-4.6254182,1.0392394,-0.76816523,-0.93605828,-0.30759132,0.17082891,0
-3.8098421,-2.0269933,-1.5435675,-0.93605828,-0.30759132,0.17082891,0
-2.9887004,-3.9279885,0.19613314,0.28586209,-0.94792485,-0.14043236,0
3.2923326,3.1503298,-0.31054616,0.93605828,0.30759132,-0.17082891,0
3.2399764,2.2022409,1.7908047,0.038514853,0.3930271,0.91871989,0
4.4119449,-0.29928923,1.0448033,0.93605828,0.30759132,-0.17082891,0
-3.7056823,1.1329544,-0.99766821,-0.34937835,0.75519562,-0.55463004,0
-3.6208742,-1.6434765,1.559468,-0.93605828,-0.30759132,0.17082891,0
-3.8944523,-0.99153996,-0.87495619,-0.93605828,-0.30759132,0.17082891,0
4.3466935,-0.65305901,-1.7633147,0.93605828,0.30759132,-0.17082891,0
-0.26760769,-0.20441937,2.9866099,0.16083592,0.05775249,0.98529005,0
3.309473,1.6954832,-2.4178801,0.93605828,0.30759132,-0.17082891,0
0.11134052,1.8327868,2.1112158,-0.06909883,0.63677877,0.76794416,0
-4.2909136,-0.20990324,-1.283294,-0.93605828,-0.30759132,0.17082891,0
-1.8906794,-3.4633727,0.099354744,0.27720255,-0.94373548,-0.1803388,0
-0.21980262,-0.45362985,2.7844794,0.22065628,-0.13502759,0.96595985,0
-2.9935384,-3.0779963,1.0437276,-0.93605828,-0.30759132,0.17082891,0
2.8321035,-1.2256904,1.6726413,0.33974844,-0.66397357,0.66611564,0
4.4301214,-0.11364079,-0.44195095,0.93605828,0.30759132,-0.17082891,0
1.4742956,2.5528233,1.2356074,-0.14807838,0.78483188,0.60175705,0
-0.036765963,-2.3182471,1.9530677,0.34560081,-0.71273589,0.61038321,0
3.4231224,1.2127161,-1.7912796,0.93605828,0.30759132,-0.17082891,0
-0.48307514,-2.8668985,-0.6356082,0.25271189,-0.9255805,-0.2818464,0
3.1417422,2.6253505,-0.86415219,0.93605828,0.30759132,-0.17082891,0
-4.0904417,-0.82963371,-0.34874606,-0.93605828,-0.30759132,0.17082891,0
-4.1045666,-0.42502928,1.2117317,-0.93605828,-0.30759132,0.17082891,0
-4.0656652,-1.926744,-1.630344,-0.93605828,-0.30759132,0.17082891,0
-3.9527318,-1.4150877,-0.28340232,-0.93605828,-0.30759132,0.17082891,0
3.2095389,1.2889109,-3.2221794,0.93605828,0.30759132,-0.17082891,0
3.8950114,1.7482109,1.8708311,0.93605828,0.30759132,-0.17082891,0
3.9382038,0.50096512,-1.7703503,0.93605828,0.30759132,-0.17082891,0
-3.3604219,1.7981544,0.46645111,-0.31883895,0.94687063,-0.042162955,0
0.19112593,-2.5879705,1.4667836,0.35174063,-0.8299104,0.4330442,0
1.6973277,-2.3882737,-0.360021,0.30825233,-0.95101887,-0.023315787,0
0.62940264,-1.621487,2.2766552,0.3209022,-0.54726028,0.77299929,0
-2.9150529,-3.0531361,2.4614081,-0.93605828,-0.30759132,0.17082891,0
-3.1611879,-2.7529271,1.1858494,-0.93605828,-0.30759132,0.17082891,0
4.1353216,0.43562078,0.14242971,0.93605828,0.30759132,-0.17082891,0
-3.4132664,-1.9724088,2.1161399,-0.93605828,-0.30759132,0.17082891,0
3.9685614,-0.013652325,-1.2339773,0.93605828,0.30759132,-0.17082891,0
2.6078606,-1.844698,-1.7939012,0.18821156,-0.84796166,-0.49551722,0
3.5135374,1.1600008,-2.616636,0.93605828,0.30759132,-0.17082891,0
2.5096292,3.1244292,1.1260386,-0.16633642,0.81470674,0.55550438,0
4.4996333,-1.2170997,-1.0797796,0.93605828,0.30759132,-0.17082891,0
-0.95362008,0.13689876,-2.6573071,-0.20808834,0.092465669,-0.97372961,0
3.5829196,1.8546281,2.1862485,0.06627351,0.32269257,0.94418073,0
-2.9795144,1.6511781,-0.07607007,-0.32955554,0.93654633,-0.11947423,0
0.87145823,2.3728399,-2.2544508,-0.33382887,0.62304902,-0.70736706,0
-4.8496771,1.3109312,-0.23203295,-0.34812349,0.88009965,-0.32285392,0
-3.7361808,-1.1622212,0.63032055,-0.93605828,-0.30759132,0.17082891,0
3.2151532,2.8005934,-0.19005132,0.93605828,0.30759132,-0.17082891,0
2.3459609,3.2704251,0.86435223,-0.19181782,0.85315579,0.48510918,0
3.0291841,2.4471095,-1.9485102,0.93605828,0.30759132,-0.17082891,0
-0.13815355,2.8390214,0.25066233,-0.27928156,0.94486392,0.17097914,0
-3.8548813,-0.14528561,2.8094962,-0.93605828,-0.30759132,0.17082891,0
0.70651293,1.854821,-2.3762147,-0.31267309,0.50457984,-0.8047576,0
-1.6667967,-1.7357128,-2.2735975,-0.042621195,-0.38281894,-0.9228397,0
1.3545215,-1.7029467,1.8502753,0.32722706,-0.58264792,0.74393797,0
-0.66331053,2.3872812,-1.0398986,-0.35048985,0.85774553,-0.37607104,0
-3.9196441,-0.65043306,1.2803559,-0.93605828,-0.30759132,0.17082891,0
-4.2609367,-1.7397232,-2.0880489,-0.93605828,-0.30759132,0.17082891,0
-0.6253438,1.7095445,-2.2013297,-0.32581574,0.5745132,-0.75085199,0
3.5256617,2.6744702,0.66952634,0.93605828,0.30759132,-0.17082891,0
-2.0391018,-1.8493888,2.9111705,0.28981388,-0.39874572,0.87006313,0
-1.0899909,1.5562552,-1.994885,-0.32672071,0.57971174,-0.74645019,0
1.6066729,1.2151594,-2.9352069,-0.22458398,0.14859134,-0.96305895,0
-1.0426884,-2.763222,-1.207094,0.14488834,-0.77942818,-0.60950732,0
3.70698,1.6672678,-1.1358478,0.93605828,0.30759132,-0.17082891,0
-4.5756373,0.45380068,0.063063309,-0.93605828,-0.30759132,0.17082891,0
-3.3321443,-2.7744358,0.50628781,-0.93605828,-0.30759132,0.17082891,0
1.5846434,2.6332543,-2.2218139,-0.33772057,0.64928746,-0.68144739,0
-3.2618198,-2.1594014,-1.9202087,-0.03964287,-0.39022964,-0.91986376,0
0.53140807,-0.22197783,2.894439,0.19930834,-0.063440919,0.97788101,0
-3.7580044,-0.60574102,1.7849383,-0.93605828,-0.30759132,0.17082891,0
3.6967261,2.072937,1.2207071,0.93605828,0.30759132,-0.17082891,0
3.6038666,0.78466749,-3.1097624,0.93605828,0.30759132,-0.17082891,0
4.3141594,-0.90154505,-1.1850696,0.93605828,0.30759132,-0.17082891,0
-3.5285621,-0.63806677,2.2234402,-0.93605828,-0.30759132,0.17082891,0
-2.0731606,-0.74607426,-2.3303504,-0.15695602,-0.069486707,-0.98515815,0
3.8650599,2.1740873,1.4639559,0.93605828,0.30759132,-0.17082891,0
1.7180759,-0.13881397,-2.9948206,-0.061424792,-0.33520469,-0.94014084,0
-3.3043065,-0.91601658,2.8149912,-0.93605828,-0.30759132,0.17082891,0
-1.6095457,1.7378347,2.0701706,-0.12640595,0.74710339,0.65257788,0
2.9530065,2.8951423,-1.4155624,0.93605828,0.30759132,-0.17082891,0
4.4844737,0.062722206,1.2509435,0.93605828,0.30759132,-0.17082891,0
-3.3118906,-1.7499795,1.828099,-0.93605828,-0.30759132,0.17082891,0
-2.4861712,-1.7036448,-2.3294792,-0.055209935,-0.35110056,-0.9347086,0
3.8577664,0.1653924,-2.8216133,0.93605828,0.30759132,-0.17082891,0
-3.4716575,-0.69143915,2.0548224,-0.93605828,-0.30759132,0.17082891,0
0.09202981,-0.81734109,-2.775661,-0.068361044,-0.31727585,-0.94586611,0
3.170213,1.8590798,-2.8621898,0.93605828,0.30759132,-0.17082891,0
3.0829496,2.7491419,-1.3318996,0.93605828,0.30759132,-0.17082891,0
1.8713244,-2.1367958,-0.49518454,0.29180586,-0.94995433,-0.11151773,0
2.8977039,3.4399307,-1.7571239,0.93605828,0.30759132,-0.17082891,0
0.13095009,3.0137289,-0.49345565,-0.3212871,0.94516385,-0.058650434,0
3.57969,1.6897662,0.03186059,0.93605828,0.30759132,-0.17082891,0
-4.2697058,-0.96442628,-1.7310965,-0.93605828,-0.30759132,0.17082891,0
-3.508208,-1.8718102,0.26974726,-0.93605828,-0.30759132,0.17082891,0
2.9786811,1.4904714,2.2251716,0.085912526,0.27101028,0.95873487,0
-3.6261716,-1.111259,0.94268453,-0.93605828,-0.30759132,0.17082891,0
3.8695025,0.64135695,-1.1315942,0.93605828,0.30759132,-0.17082891,0
3.1248698,1.4159636,-2.6175647,0.93605828,0.30759132,-0.17082891,0
-3.1939759,-2.4433246,2.2897186,-0.93605828,-0.30759132,0.17082891,0
-2.0583472,2.4357238,0.70433056,-0.28781384,0.94867277,0.13108462,0
-3.7300737,-0.44081116,2.3132892,-0.93605828,-0.30759132,0.17082891,0
-4.5165744,0.70433617,0.2576243,-0.93605828,-0.30759132,0.17082891,0
4.2525406,-0.86464882,-1.0337512,0.93605828,0.30759132,-0.17082891,0
1.5507658,0.11702347,-3.163775,-0.11484951,-0.1918104,-0.97468889,0
3.3660977,0.53394032,-3.4762859,0.93605828,0.30759132,-0.17082891,0
3.210907,2.4490426,-2.0039515,0.93605828,0.30759132,-0.17082891,0
-3.9515612,0.17692137,1.6787211,-0.93605828,-0.30759132,0.17082891,0
0.99111485,2.9392507,0.66978455,-0.21785605,0.8879475,0.4050777,0
3.7487295,-1.6086526,-1.0672759,0.29050893,-0.94957572,-0.11794293,0
4.594408,-0.96139622,-0.79987884,0.93605828,0.30759132,-0.17082891,0
2.0335233,2.1819892,-2.5253029,-0.310404,0.49333608,-0.81256932,0
-4.2780533,0.25156498,-0.035826147,-0.93605828,-0.30759132,0.17082891,0
-4.2375989,-0.50902128,-0.53348017,-0.93605828,-0.30759132,0.17082891,0
-0.056514621,-2.7312317,0.16975403,0.31811863,-0.94731212,0.03742075,0
-2.3895683,-2.3297718,3.0218849,0.3042444,-0.46375111,0.83208787,0
-2.8980422,-3.7297318,0.63300061,-0.93605828,-0.30759132,0.17082891,0
2.9303522,3.3130713,-2.1676664,0.93605828,0.30759132,-0.17082891,0
-2.95595,-3.2203684,2.4077618,-0.93605828,-0.30759132,0.17082891,0
-4.3994451,-1.3764853,-2.1815822,-0.93605828,-0.30759132,0.17082891,0
3.3769243,0.76444197,-2.7335005,0.93605828,0.30759132,-0.17082891,0
-4.2592959,-0.19183254,-0.27701944,-0.93605828,-0.30759132,0.17082891,0
-1.4458108,0.30392468,-2.5352554,-0.25398561,0.25472504,-0.93306297,0
-4.0533442,0.097364902,1.0041413,-0.93605828,-0.30759132,0.17082891,0
0.37986577,1.9915669,-2.485321,-0.31434008,0.51297259,-0.79877996,0
-3.8372836,-2.0014553,-1.0929431,-0.93605828,-0.30759132,0.17082891,0
-4.2046604,0.60548687,0.77170169,-0.93605828,-0.30759132,0.17082891,0
-2.9941659,-1.870122,2.4981732,-0.93605828,-0.30759132,0.17082891,0
-0.030398548,-1.6236805,2.4215679,0.31079593,-0.49526381,0.81124574,0
-3.5618806,-0.9878583,1.6210666,-0.93605828,-0.30759132,0.17082891,0
-2.7938888,0.85775506,-1.8499613,-0.30826497,0.48291427,-0.81961364,0
-2.62393,1.5464382,-1.5370026,-0.34589818,0.71560347,-0.60684931,0
-4.5824828,0.4560957,-0.52216899,-0.93605828,-0.30759132,0.17082891,0
3.8421001,0.45320344,1.9745767,0.24226686,-0.21137574,0.94690394,0
2.9439213,2.8421302,-2.0971603,0.93605828,0.30759132,-0.17082891,0
-3.8340652,-1.5720408,-0.84815526,-0.93605828,-0.30759132,0.17082891,0
-4.4701967,0.5839057,-0.64849353,-0.93605828,-0.30759132,0.17082891,0
-4.2253284,-0.12315154,-0.91959059,-0.93605828,-0.30759132,0.17082891,0
-3.5392847,-0.86872482,1.3141012,-0.93605828,-0.30759132,0.17082891,0
4.2756066,0.18453264,0.044052064,0.93605828,0.30759132,-0.17082891,0
-2.9358668,0.28162694,-1.9425836,-0.27661392,0.34329972,-0.89756894,0
-0.25015986,-0.63118589,2.7085376,0.21036744,-0.10009265,0.97248495,0
0.68670475,1.3947303,-2.6920905,-0.27442083,0.33438858,-0.90159726,0
3.2555869,2.1520782,-2.5469627,0.93605828,0.30759132,-0.17082891,0
1.4482892,-2.1311567,1.3901253,0.3517915,-0.80972457,0.4696691,0
-4.4279351,-0.087170362,-1.5174628,-0.93605828,-0.30759132,0.17082891,0
3.3060949,-0.62514949,1.6597073,0.32021913,-0.54358828,0.77586818,0
-3.3911107,-1.4577122,2.0912218,-0.93605828,-0.30759132,0.17082891,0
3.8055804,1.9209104,-0.022912025,0.93605828,0.30759132,-0.17082891,0
-3.7471566,-1.4219711,-0.23532927,-0.93605828,-0.30759132,0.17082891,0
-4.2002678,0.10531807,1.5226377,-0.93605828,-0.30759132,0.17082891,0
0.47735381,2.3470988,1.4536806,-0.14750773,0.78386921,0.60315049,0
-2.7708101,1.9539877,0.27932739,-0.30417055,0.95148134,0.046515048,0
-3.2839308,-3.2093992,-1.2090492,0.11915016,-0.73395634,-0.66866392,0
0.70678616,2.9312384,-1.4788623,-0.3515628,0.83711219,-0.41910231,0
3.0107951,1.8729119,-2.5135031,0.93605828,0.30759132,-0.17082891,0
3.4236274,3.0454016,0.37559152,0.93605828,0.30759132,-0.17082891,0
