-3.1570978,1.2427127,-0.30899674,-0.47619408,0.87932575,-0.0050409343,0
-1.1500509,-2.4463768,1.6343768,-0.71412784,-0.38337454,0.58570027,0
0.8826586,0.70319945,2.3331933,0.37987292,0.2108815,0.90068042,0
0.91733944,-2.229856,0.22680631,0.47619408,-0.87932575,0.0050409343,0
-0.9647038,-1.0770682,2.4857147,-0.40528488,-0.21438526,0.88869721,0
1.1751593,-0.25705943,2.4056361,0.28412613,0.15928708,0.94546252,0
-2.1256313,0.41093183,2.2592063,-0.51573777,-0.2746428,0.81153274,0
-0.67556584,2.6636698,-1.5064957,-0.47619408,0.87932575,-0.0050409343,0
-0.80279875,-0.036238164,2.8777232,-0.18430975,-0.094203405,0.97834301,0
-2.4159427,1.3467369,0.79582703,-0.47619408,0.87932575,-0.0050409343,0
2.1843786,-1.6765244,-2.3345857,0.40523624,0.21435878,-0.88872564,0
-0.57061863,2.3264802,2.5947757,0.21359766,0.12122981,0.96937037,0
-0.54321373,2.6212761,-2.2821474,-0.47619408,0.87932575,-0.0050409343,0
0.95526975,-2.4397721,-1.9009721,0.47619408,-0.87932575,0.0050409343,0
-2.7199383,0.82235873,-2.1265407,-0.61610246,-0.33772638,-0.71158844,0
0.29239476,3.0296111,0.85984421,-0.47619408,0.87932575,-0.0050409343,0
1.3827549,-1.8969492,1.291742,0.47619408,-0.87932575,0.0050409343,0
1.3065423,-1.6000215,2.905983,0.055678241,0.035872392,0.99780399,0
1.3970889,-2.2879803,2.7774215,0.47619408,-0.87932575,0.0050409343,0
0.40322155,-2.4850309,-1.3409958,0.47619408,-0.87932575,0.0050409343,0
3.5823815,-0.975734,-0.59980768,0.47619408,-0.87932575,0.0050409343,0
-1.5070673,1.7648616,2.9084845,-0.1160171,-0.057143867,0.99160182,0
0.098123312,-2.9735181,-1.8143263,0.47619408,-0.87932575,0.0050409343,0
0.14575601,-2.7419579,-0.66928554,0.47619408,-0.87932575,0.0050409343,0
0.65881544,0.57918477,2.8371561,0.21074356,0.11968888,0.97018635,0
0.63908428,-1.070563,-2.6624575,0.027145892,0.0089703407,-0.99959093,0
-1.0994171,2.0713377,-1.2422302,-0.47619408,0.87932575,-0.0050409343,0
-0.22727728,-2.5445781,2.2982967,-0.46288174,-0.2457888,0.85166198,0
0.29188862,-2.4917765,-1.7884175,0.47619408,-0.87932575,0.0050409343,0
3.0687623,-0.79833078,1.2716397,0.78485948,0.42760757,0.44849408,0
-2.6188326,-0.88159353,0.82740176,-0.82695186,-0.4458676,0.34256691,0
2.1804724,0.99748749,-1.365726,0.78929162,0.42489561,-0.44326282,0
0.39410353,3.1618552,-1.1772473,-0.47619408,0.87932575,-0.0050409343,0
-3.281831,0.51249421,-0.49177063,-0.86401427,-0.4689526,-0.18319976,0
0.28872085,2.879632,-2.3086603,-0.47619408,0.87932575,-0.0050409343,0
3.2352889,-0.83723116,-1.6555475,0.727054,0.39049485,-0.56471765,0
0.17961624,-2.5573599,-2.0487196,0.47619408,-0.87932575,0.0050409343,0
-0.17618155,-2.7643607,-1.6212718,0.47619408,-0.87932575,0.0050409343,0
1.8849576,1.6144249,0.96545506,0.81958169,0.44590279,0.35979992,0
1.278461,2.1994519,-2.0267413,0.64909357,0.34763435,-0.67662948,0
0.89814353,-2.3537078,-1.4043314,0.47619408,-0.87932575,0.0050409343,0
1.9888005,2.1087093,0.55260301,0.86835825,0.47114256,0.15484884,0
1.3080608,-2.0876682,-0.15249348,0.47619408,-0.87932575,0.0050409343,0
2.1618078,1.9610956,-0.58280069,0.85589385,0.46217465,-0.23203366,0
0.21212167,-2.5860009,0.4747718,0.47619408,-0.87932575,0.0050409343,0
-0.062971115,2.982461,-0.61915302,-0.47619408,0.87932575,-0.0050409343,0
2.2003562,2.0260911,-0.026800573,0.87933779,0.47619784,-0.00050410628,0
-2.6355953,1.4269435,-0.80268013,-0.47619408,0.87932575,-0.0050409343,0
-1.5731761,2.1973815,0.0096586794,-0.47619408,0.87932575,-0.0050409343,0
-1.4166896,2.1239855,1.3897706,-0.47619408,0.87932575,-0.0050409343,0
-1.8544288,1.8556275,0.29911679,-0.47619408,0.87932575,-0.0050409343,0
-0.21832812,-2.9374604,-1.7305909,0.47619408,-0.87932575,0.0050409343,0
-3.1119044,1.2354132,-0.48099303,-0.47619408,0.87932575,-0.0050409343,0
-0.89201021,-3.4951556,0.077596188,0.47619408,-0.87932575,0.0050409343,0
0.6876967,3.446876,1.1036724,-0.47619408,0.87932575,-0.0050409343,0
2.2535384,1.1987178,-0.6121282,0.85434997,0.4612965,-0.23935628,0
-0.63125682,1.523331,2.7892883,0.011661634,0.012047215,0.99985915,0
0.14129436,-2.6837702,-1.6832763,0.47619408,-0.87932575,0.0050409343,0
-0.042839646,-0.064536452,2.8822157,-0.085103184,-0.040379949,0.99555331,0
0.030058742,-3.0126169,-0.52975625,0.47619408,-0.87932575,0.0050409343,0
-0.41649425,-3.1912744,-0.51465565,0.47619408,-0.87932575,0.0050409343,0
2.492413,-1.3918917,-1.7607983,0.47619408,-0.87932575,0.0050409343,0
2.6603937,-1.2080253,1.9322464,0.62219274,0.34098509,0.7047019,0
-1.370066,-2.3630192,-1.7379105,-0.71936899,-0.3928546,-0.57286388,0
1.3260894,2.9018741,-0.82277215,0.84282637,0.4547784,-0.28778416,0
-2.2292604,1.7781754,0.87195396,-0.47619408,0.87932575,-0.0050409343,0
-3.2356522,0.11981595,0.058244854,-0.87838292,-0.47593537,-0.043916926,0
-1.6274657,-2.6326599,0.5331524,-0.85573602,-0.46208483,0.2327935,0
2.9701138,-0.023763895,1.1154057,0.8234821,0.44794834,0.34816509,0
1.877372,2.2444057,-0.29508874,0.87778193,0.47500145,-0.062226109,0
0.33390146,-2.5927541,1.6927904,0.47619408,-0.87932575,0.0050409343,0
-2.715416,1.1444442,1.9637635,-0.64194983,-0.34371543,0.68539011,0
-0.13753498,-3.0321989,-1.4958532,0.47619408,-0.87932575,0.0050409343,0
0.74826169,3.2246716,-0.31521112,-0.47619408,0.87932575,-0.0050409343,0
-1.728369,-2.3425455,1.3750955,-0.78931713,-0.4249098,0.44320372,0
1.3283265,-2.0234282,-1.5891348,0.47619408,-0.87932575,0.0050409343,0
-0.24683464,-2.9635272,0.71900564,0.47619408,-0.87932575,0.0050409343,0
-1.1518967,-3.3921962,0.32077006,0.47619408,-0.87932575,0.0050409343,0
-0.017689586,3.0294089,0.63194579,-0.47619408,0.87932575,-0.0050409343,0
-1.7921242,0.18296653,2.249244,-0.41388887,-0.21907407,0.88357347,0
1.349492,-2.3201115,-0.082451552,0.47619408,-0.87932575,0.0050409343,0
-0.29982752,2.7716575,-0.064629078,-0.47619408,0.87932575,-0.0050409343,0
0.2199887,-2.843801,-2.2439759,0.47619408,-0.87932575,0.0050409343,0
0.3175118,3.065824,0.073889732,-0.47619408,0.87932575,-0.0050409343,0
0.27916515,-2.7466183,1.320846,0.47619408,-0.87932575,0.0050409343,0
-1.8665763,1.9705281,-2.4555497,-0.47619408,0.87932575,-0.0050409343,0
0.18059486,-0.48976475,2.854979,0.0053854287,0.0086488724,0.99994785,0
0.77353698,-2.3539462,0.75117302,0.47619408,-0.87932575,0.0050409343,0
-3.0114827,0.87173367,1.5915613,-0.74713051,-0.4015682,0.52965868,0
-1.1611981,2.39709,1.359791,-0.47619408,0.87932575,-0.0050409343,0
-0.39765501,2.4658134,-1.5989807,-0.47619408,0.87932575,-0.0050409343,0
1.5055062,-0.60687596,-2.465605,0.39597476,0.20931251,-0.89408696,0
-1.3543568,-2.6218929,-0.88159871,-0.81155539,-0.44168621,-0.38247979,0
0.66007143,-0.98125428,2.7446942,0.052228883,0.034005851,0.9980557,0
2.8996921,-0.60306668,-1.3885427,0.73143965,0.39291227,-0.55732894,0
-0.31988811,-2.9440634,0.30703199,0.47619408,-0.87932575,0.0050409343,0
0.096870184,2.9883387,-0.77522177,-0.47619408,0.87932575,-0.0050409343,0
-3.1031427,1.0889142,-1.3852172,-0.72383815,-0.39523292,-0.56555164,0
0.11206579,-1.8104845,2.7126713,-0.20761833,-0.10686037,0.97235537,0
3.1635244,-0.95647967,-0.15458043,0.47619408,-0.87932575,0.0050409343,0
-1.0825129,-3.2226381,-1.0018157,0.47619408,-0.87932575,0.0050409343,0
-1.5156167,-1.1816571,1.8637736,-0.60220897,-0.32193509,0.7305488,0
-0.18277061,2.8816447,2.1916852,0.45376742,0.25063768,0.85514635,0
0.27469736,-2.5926523,0.80683351,0.47619408,-0.87932575,0.0050409343,0
3.1663158,-0.15237463,0.41473341,0.86842871,0.47117782,0.15434596,0
3.6712008,-0.87712324,-0.56047964,0.86278152,0.46611217,-0.19582401,0
-0.33308518,2.847605,0.61251509,-0.47619408,0.87932575,-0.0050409343,0
-2.1116567,-0.74410105,1.658731,-0.71559888,-0.38418448,0.58336973,0
0.36931628,-2.4484904,1.0541627,0.47619408,-0.87932575,0.0050409343,0
1.6482668,-2.0264194,-2.7088759,0.47619408,-0.87932575,0.0050409343,0
0.66667926,1.7522066,2.2373188,0.46501839,0.25668547,0.84727204,0
-0.16873884,-3.0843129,0.041697741,0.47619408,-0.87932575,0.0050409343,0
-3.0213161,-0.019162059,0.62030315,-0.86535537,-0.46759495,0.1803177,0
2.0901666,-1.7199032,1.5701463,0.47619408,-0.87932575,0.0050409343,0
1.6076062,1.6924465,1.7710705,0.71851188,0.39239833,0.57425058,0
-3.5635793,0.74335706,0.3877309,-0.47619408,0.87932575,-0.0050409343,0
-1.9584706,1.6306295,-0.35827643,-0.47619408,0.87932575,-0.0050409343,0
-0.7786324,-0.74216247,-2.5148315,-0.38599139,-0.21417555,-0.8972953,0
0.19158101,-2.6936045,2.1007023,0.47619408,-0.87932575,0.0050409343,0
0.16262341,-2.3112683,2.8212202,-0.25860569,-0.13456282,0.95656431,0
1.9170341,-1.1212094,-2.5370629,0.37317842,0.19689539,-0.90662539,0
-1.601264,1.7794096,2.6517096,-0.13657221,-0.068294473,0.98827308,0
-0.7629621,-3.3249679,-1.1512437,0.47619408,-0.87932575,0.0050409343,0
-1.8554204,-2.6512821,0.39826763,-0.8754878,-0.47356421,0.096216679,0
0.052066669,1.2995996,2.6779525,0.17649226,0.1011913,0.97908664,0
-0.85896659,2.2451601,-0.81017292,-0.47619408,0.87932575,-0.0050409343,0
-0.64066696,-0.50740278,2.548502,-0.29876214,-0.15639612,0.94142503,0
-1.5764093,1.8087249,0.15093306,-0.47619408,0.87932575,-0.0050409343,0
-0.86011422,2.319905,2.5630398,-0.47619408,0.87932575,-0.0050409343,0
-0.48540294,-3.033442,-1.1287318,0.47619408,-0.87932575,0.0050409343,0
-3.0582364,1.0156894,0.53849173,-0.47619408,0.87932575,-0.0050409343,0
0.74020505,3.2605088,0.35417002,-0.47619408,0.87932575,-0.0050409343,0
0.2770378,-2.7960241,-0.92734373,0.47619408,-0.87932575,0.0050409343,0
1.7308164,0.354498,2.1692808,0.52045476,0.28646094,0.80440438,0
1.9954196,-0.40661716,2.1229508,0.5378648,0.29580343,0.7894311,0
-2.1515713,-1.4837896,1.461256,-0.78260523,-0.42118785,0.45839879,0
2.223207,-1.4390264,-0.58410931,0.47619408,-0.87932575,0.0050409343,0
-0.98562539,2.08235,-1.1826601,-0.47619408,0.87932575,-0.0050409343,0
0.91554099,-2.5396228,0.95925474,0.47619408,-0.87932575,0.0050409343,0
-2.9351835,0.72427952,-1.1689227,-0.77078956,-0.42016241,-0.47890133,0
1.5641916,-2.0960443,-2.7107265,0.47619408,-0.87932575,0.0050409343,0
-0.1016584,0.53596222,-2.698647,0.026242003,0.0084806681,-0.99961931,0
2.7774677,-1.5568221,0.75315893,0.47619408,-0.87932575,0.0050409343,0
1.1350226,2.7331979,0.96790516,0.80035079,0.43578613,0.41173834,0
-2.6663649,1.2978652,-2.1379416,-0.49423611,-0.2723836,-0.8255527,0
0.45106661,3.1273761,-0.61640716,-0.47619408,0.87932575,-0.0050409343,0
-2.0312827,-0.56149971,2.0943327,-0.61074543,-0.32661083,0.7213285,0
0.33761972,0.96558082,2.7491627,0.21230596,0.12053244,0.96974099,0
-1.421031,1.9476585,-2.6468885,-0.16287971,-0.093837179,-0.98217332,0
0.89931959,-2.325932,-2.0251639,0.47619408,-0.87932575,0.0050409343,0
2.4044843,-1.68872,1.7535233,0.47619408,-0.87932575,0.0050409343,0
-0.33418435,-1.9852393,-2.6028066,-0.40151319,-0.22253035,-0.88840693,0
-3.343008,0.78325701,1.253656,-0.79020739,-0.42540371,0.44113886,0
-0.7679925,-0.60150111,2.7085624,-0.31546497,-0.16548175,0.93439662,0
-0.85341007,2.320245,-1.318683,-0.47619408,0.87932575,-0.0050409343,0
-0.76060921,-1.3233111,-2.5582817,-0.43278894,-0.23935708,-0.86913854,0
1.3937184,0.38531411,2.1310494,0.4969911,0.27386326,0.82340652,0
0.97682226,-2.385751,2.0906413,0.47619408,-0.87932575,0.0050409343,0
-2.0870075,1.8800541,0.79586577,-0.47619408,0.87932575,-0.0050409343,0
-0.0078894496,-2.7251453,-2.3350809,0.47619408,-0.87932575,0.0050409343,0
-1.5881565,2.0117381,-2.5508659,-0.47619408,0.87932575,-0.0050409343,0
-1.31249,2.2345815,-0.76280242,-0.47619408,0.87932575,-0.0050409343,0
-3.2672932,0.87119818,-0.52191341,-0.47619408,0.87932575,-0.0050409343,0
-3.1964908,1.2735013,-1.2473992,-0.47619408,0.87932575,-0.0050409343,0
-1.5710428,2.1880674,2.1891539,-0.47619408,0.87932575,-0.0050409343,0
-1.4837675,-2.3025987,-1.4054347,-0.72641844,-0.3966057,-0.56126612,0
0.90848291,-2.2511768,2.08635,0.47619408,-0.87932575,0.0050409343,0
-1.311851,1.994819,0.025997855,-0.47619408,0.87932575,-0.0050409343,0
0.17210132,-2.8021719,-2.4182794,0.47619408,-0.87932575,0.0050409343,0
0.35156736,-2.8597653,-1.997453,0.47619408,-0.87932575,0.0050409343,0
0.058517694,2.6771924,-0.44299215,-0.47619408,0.87932575,-0.0050409343,0
-0.59067005,2.5832174,-2.2005799,-0.47619408,0.87932575,-0.0050409343,0
-1.2599119,-2.3286047,-1.4833672,-0.73907506,-0.40333518,-0.53952593,0
0.31173885,-2.8650081,1.7340684,0.47619408,-0.87932575,0.0050409343,0
-1.7541997,-2.1012514,0.76521653,-0.83817202,-0.45215923,0.30499086,0
2.6025717,0.80849195,-0.058402061,0.87824672,0.47588,0.047124103,0
3.337317,-0.94614041,-0.65109175,0.47619408,-0.87932575,0.0050409343,0
-1.9931426,-1.7326956,0.052601576,-0.87839615,-0.47540963,0.049044341,0
2.1814296,0.55953735,-1.6780438,0.7039094,0.3777501,-0.60151154,0
0.31769902,-2.5079577,0.064909242,0.47619408,-0.87932575,0.0050409343,0
1.9217662,-1.5296416,2.5266683,0.29690033,0.16617548,0.94033796,0
2.0568666,-1.5357355,-1.4615089,0.47619408,-0.87932575,0.0050409343,0
0.68268961,-2.4790525,-0.0030221641,0.47619408,-0.87932575,0.0050409343,0
-3.1818349,0.97301662,-0.21116793,-0.47619408,0.87932575,-0.0050409343,0
-1.9007872,1.4335566,2.5021446,-0.35387862,-0.18638688,0.91653121,0
0.091098666,-0.34986264,2.5665662,0.0032084286,0.0074700397,0.99996656,0
-1.21435,-2.1198521,1.6776849,-0.67631036,-0.36257648,0.6412037,0
1.0874097,-2.0956473,-1.5384063,0.47619408,-0.87932575,0.0050409343,0
-1.5548539,1.8250277,-1.1645156,-0.47619408,0.87932575,-0.0050409343,0
3.0885379,-1.1141541,0.36349726,0.47619408,-0.87932575,0.0050409343,0
-1.1801517,2.078851,-1.7278029,-0.47619408,0.87932575,-0.0050409343,0
2.5854869,0.2392118,-1.1667719,0.76640534,0.41221857,-0.49264416,0
0.61372995,3.2845738,0.78676236,-0.47619408,0.87932575,-0.0050409343,0
-1.9180081,-2.0237975,-1.1371465,-0.78611755,-0.4282726,-0.44564724,0
3.2345221,-0.4023304,-0.96443629,0.81868511,0.44124782,-0.36749786,0
-0.3134557,-3.1468923,0.84292382,0.47619408,-0.87932575,0.0050409343,0
2.4142025,-1.5041275,2.2506614,0.47619408,-0.87932575,0.0050409343,0
-2.1611533,-1.577655,-0.53381109,-0.85068995,-0.46212295,-0.2505368,0
3.3448262,-1.2178637,-0.17385186,0.47619408,-0.87932575,0.0050409343,0
-1.611058,-1.2067912,1.7574481,-0.62203199,-0.33279511,0.70874751,0
2.3979585,-1.6895487,2.0444698,0.47619408,-0.87932575,0.0050409343,0
-0.069747448,-2.9655671,2.0340352,0.47619408,-0.87932575,0.0050409343,0
0.9871105,-0.031919897,-2.4668586,0.2574608,0.13394055,-0.95696044,0
1.0023363,1.8624449,-2.1302037,0.62395585,0.33384946,-0.70655751,0
2.8403776,-1.1258897,-1.110719,0.47619408,-0.87932575,0.0050409343,0
-0.50709486,2.3761261,2.4975276,-0.47619408,0.87932575,-0.0050409343,0
-1.1070201,2.093164,1.8168002,-0.47619408,0.87932575,-0.0050409343,0
1.0312474,2.7898231,-1.7883062,0.70069218,0.37598005,-0.60635722,0
1.641953,0.26917416,-2.4327645,0.46419775,0.24650681,-0.85073745,0
1.7044764,-2.0911179,2.1977291,0.47619408,-0.87932575,0.0050409343,0
-0.57738334,2.4361222,-2.0666919,-0.47619408,0.87932575,-0.0050409343,0
2.5781043,-1.3062977,-1.2801434,0.47619408,-0.87932575,0.0050409343,0
-1.5627699,-1.5581969,1.6573322,-0.65535295,-0.35106903,0.66877681,0
1.5414703,-2.0370202,-2.6154623,0.47619408,-0.87932575,0.0050409343,0
0.12845361,2.0794384,-2.5104389,0.32763898,0.17210549,-0.92899507,0
1.5761136,-1.3123238,-2.559881,0.19381511,0.099364474,-0.97599274,0
0.79373467,-2.3768375,-0.14447559,0.47619408,-0.87932575,0.0050409343,0
3.5510511,-1.0728374,-0.70341933,0.47619408,-0.87932575,0.0050409343,0
-0.31372809,-2.9773943,-1.8772295,0.47619408,-0.87932575,0.0050409343,0
-0.22448754,-2.7449312,-0.11212277,0.47619408,-0.87932575,0.0050409343,0
-3.28825,1.0317813,1.2008808,-0.47619408,0.87932575,-0.0050409343,0
0.3916961,2.8686285,-0.3953962,-0.47619408,0.87932575,-0.0050409343,0
-0.16616374,-1.8759327,-2.5438337,-0.2884112,-0.16159794,-0.94377154,0
1.6097277,-2.0702217,-1.3336117,0.47619408,-0.87932575,0.0050409343,0
2.7828379,-1.266836,-1.634315,0.47619408,-0.87932575,0.0050409343,0
-0.054593682,-2.8832273,-1.2908539,0.47619408,-0.87932575,0.0050409343,0
2.3857071,1.2999631,0.60918844,0.86805058,0.47098842,0.15702701,0
1.402665,1.9793475,1.7156878,0.64074594,0.35090727,0.68286765,0
2.3675683,0.031600595,-1.593706,0.67038882,0.35932377,-0.64920342,0
1.5199542,0.6606971,-2.1727726,0.596937,0.31904817,-0.73612088,0
0.14831448,2.8119884,-0.43103877,-0.47619408,0.87932575,-0.0050409343,0
-2.8289304,1.1025189,-2.1208341,-0.60436589,-0.33144447,-0.72449011,0
0.31902933,2.8599699,-0.82203084,-0.47619408,0.87932575,-0.0050409343,0
0.93646431,3.3785441,0.41506779,-0.47619408,0.87932575,-0.0050409343,0
1.4128165,-0.93830919,2.735163,0.28638214,0.16050375,0.94457573,0
0.3138274,-2.7883115,2.2082548,0.47619408,-0.87932575,0.0050409343,0
2.0839121,-1.704386,2.4233947,0.47619408,-0.87932575,0.0050409343,0
-2.2474294,1.5746509,0.64909339,-0.47619408,0.87932575,-0.0050409343,0
-0.94851971,-3.4086668,1.1623116,0.47619408,-0.87932575,0.0050409343,0
0.93273091,1.4478545,2.1502924,0.53109717,0.29217234,0.79534316,0
1.3551006,3.3965571,0.66005278,0.84349722,0.45839646,0.27997231,0
-1.1505048,-3.495286,0.35024685,-0.8703196,-0.47048256,0.14556597,0
0.9580369,-2.1695883,1.0249332,0.47619408,-0.87932575,0.0050409343,0
-2.6000726,1.6066813,0.67938566,-0.47619408,0.87932575,-0.0050409343,0
0.34584624,-2.1449308,2.6991515,-0.17497352,-0.089134887,0.98052979,0
-2.4605918,0.69080746,1.7726468,-0.62370008,-0.33370936,0.70684904,0
1.0726873,-2.4191072,-1.781196,0.47619408,-0.87932575,0.0050409343,0
0.10469389,-2.0263772,2.5431063,-0.25458428,-0.13237713,0.95794719,0
0.098941207,-2.9227998,-1.9963002,0.47619408,-0.87932575,0.0050409343,0
1.003912,3.2161298,-0.65738946,-0.47619408,0.87932575,-0.0050409343,0
-2.5917635,1.3131298,-1.7187834,-0.47619408,0.87932575,-0.0050409343,0
-0.89019823,2.2977517,0.60287994,-0.47619408,0.87932575,-0.0050409343,0
0.59229255,1.5377054,-2.5506668,0.41682661,0.22067519,-0.88179231,0
1.2267513,3.1229749,-0.94208705,0.83673227,0.45135027,-0.31009936,0
0.21195555,-2.8343658,-0.18047914,0.47619408,-0.87932575,0.0050409343,0
3.1298089,-1.3419402,-0.48957494,0.47619408,-0.87932575,0.0050409343,0
-1.6582115,0.79901093,2.350529,-0.33046782,-0.17364483,0.92770571,0
2.0170391,-1.7804763,-0.96397191,0.47619408,-0.87932575,0.0050409343,0
-0.18885267,-3.0339594,-0.62886375,0.47619408,-0.87932575,0.0050409343,0
2.0479004,-1.8843004,1.071903,0.47619408,-0.87932575,0.0050409343,0
-2.7272215,0.034167409,-1.639163,-0.70616663,-0.38582426,-0.59369016,0
1.0817451,2.1409526,-1.8752162,0.62649769,0.33524275,-0.70364225,0
2.1526434,1.8954316,0.47143435,0.85875118,0.46627012,0.21245766,0
-0.98833382,2.2007244,1.3391761,-0.47619408,0.87932575,-0.0050409343,0
2.0900593,1.7136416,-1.2766027,0.80479908,0.43351054,-0.40542167,0
-0.80910283,1.7451819,-2.796797,0.011248291,0.00035909377,-0.99993634,0
-0.82766008,2.3627982,0.9769519,-0.47619408,0.87932575,-0.0050409343,0
-2.8448391,1.253767,1.9373636,-0.66003275,-0.35363764,0.66279465,0
-0.30340517,2.6012423,-1.7713386,-0.47619408,0.87932575,-0.0050409343,0
0.563954,-1.5556105,2.5798841,-0.078340352,-0.036713578,0.99625015,0
1.1952904,-1.0817972,2.6937869,0.18625864,0.10646662,0.97671497,0
0.98497051,-2.4419532,0.33850935,0.47619408,-0.87932575,0.0050409343,0
-1.3322165,1.9898,0.65528518,-0.47619408,0.87932575,-0.0050409343,0
-2.6659923,0.90375531,-2.1469126,-0.60909331,-0.33397511,-0.71935076,0
2.9013453,-1.2644005,0.076638818,0.47619408,-0.87932575,0.0050409343,0
0.041578889,2.9444919,2.0229156,-0.47619408,0.87932575,-0.0050409343,0
-3.0300808,0.39866376,-0.88970554,-0.82221454,-0.44728383,-0.3519941,0
-0.43900487,2.7532458,2.4136467,-0.47619408,0.87932575,-0.0050409343,0
3.1412797,-0.060724854,-0.95867515,0.82643646,0.44557917,-0.34418237,0
0.91796303,2.6841056,1.8737178,0.69094157,0.37770939,0.61638856,0
-0.69530392,2.598598,-2.3546529,-0.47619408,0.87932575,-0.0050409343,0
-0.068405271,-2.8524272,0.3098155,0.47619408,-0.87932575,0.0050409343,0
-1.494329,1.8729006,-0.033939287,-0.47619408,0.87932575,-0.0050409343,0
2.8663421,0.38633764,-0.14405814,0.8782534,0.47531298,-0.052421734,0
-3.4668941,0.42434752,-0.20032793,-0.87030816,-0.4721148,-0.14025268,0
-0.74849617,-1.6436516,-2.2422805,-0.43244186,-0.23917043,-0.86936253,0
-2.0166287,-0.29515117,-1.7783959,-0.64166296,-0.35139748,-0.68175364,0
-0.3102127,2.497612,1.2616457,-0.47619408,0.87932575,-0.0050409343,0
-0.72002,2.6060603,0.43199319,-0.47619408,0.87932575,-0.0050409343,0
-0.24746114,0.46394923,2.8044832,0.052618556,0.034216717,0.99802804,0
1.8074117,-0.2899726,2.2929478,0.49060449,0.27043301,0.82835543,0
-0.37608531,2.6570501,1.3411201,-0.47619408,0.87932575,-0.0050409343,0
-2.4754663,-0.87567961,0.79661679,-0.85725951,-0.46295252,0.22534573,0
-2.6806276,-0.18571293,0.71617651,-0.83963966,-0.45298445,0.29968256,0
1.9113055,-1.9280735,-0.66399348,0.47619408,-0.87932575,0.0050409343,0
2.1695995,1.8260791,0.98764408,0.82253772,0.44745329,0.3510223,0
1.8140948,-0.33945864,2.2530646,0.40879416,0.22644855,0.88408589,0
-1.3110759,2.1090717,-1.8292434,-0.47619408,0.87932575,-0.0050409343,0
2.1596951,0.20746678,1.7151778,0.67071134,0.36691552,0.6446076,0
0.56952435,1.3868731,2.2602682,0.43129167,0.23855177,0.87010348,0
-0.42088044,-3.0988207,-0.2562961,0.47619408,-0.87932575,0.0050409343,0
0.17944896,2.97806,1.6423985,-0.47619408,0.87932575,-0.0050409343,0
0.31524855,-2.8041151,-1.6908101,0.47619408,-0.87932575,0.0050409343,0
-3.5167477,1.120286,0.62359434,-0.47619408,0.87932575,-0.0050409343,0
0.58000398,-2.6151879,0.54923999,0.47619408,-0.87932575,0.0050409343,0
-1.8609767,1.844373,-0.18788812,-0.47619408,0.87932575,-0.0050409343,0
1.7325586,-1.8025023,2.505286,0.47619408,-0.87932575,0.0050409343,0
-0.12782764,-2.7533059,-1.537089,0.47619408,-0.87932575,0.0050409343,0
-0.10719717,-1.2211559,2.6509826,-0.26816881,-0.13976106,0.95317996,0
1.483614,2.4051468,-0.8220247,0.85302472,0.46054396,-0.24545369,0
1.3571208,3.2317326,0.72924137,0.84284443,0.45805737,0.28248239,0
-0.17219478,-1.5747972,-2.5366051,-0.34067619,-0.18977024,-0.9208293,0
0.55531633,1.9472437,2.2201838,0.46270803,0.25544366,0.84891063,0
-1.094296,-3.6520455,-0.52586854,0.47619408,-0.87932575,0.0050409343,0
1.5753837,2.3705823,0.47872001,0.85899287,0.46639383,0.21120548,0
0.89982784,-2.4020002,0.30734625,0.47619408,-0.87932575,0.0050409343,0
-0.94947255,2.4260087,1.3055832,-0.47619408,0.87932575,-0.0050409343,0
-0.78711373,2.3659201,-2.1056325,-0.47619408,0.87932575,-0.0050409343,0
2.3756518,1.326598,0.487589,0.86095321,0.46739548,0.20075053,0
3.1581039,-1.2818251,-1.4327686,0.47619408,-0.87932575,0.0050409343,0
0.29743457,2.8171775,1.5752925,-0.47619408,0.87932575,-0.0050409343,0
1.7887819,2.572922,-0.16422759,0.87642711,0.47414261,-0.084048137,0
0.053165734,1.4806315,2.7576268,0.26768664,0.15042007,0.95169187,0
-0.58502877,2.6907067,-1.8823515,-0.47619408,0.87932575,-0.0050409343,0
2.8492861,0.80080605,0.55920172,0.86337864,0.46863011,0.18698314,0
0.17742693,3.1297946,1.6898755,-0.47619408,0.87932575,-0.0050409343,0
1.9190764,-0.69462174,-2.3370371,0.46094525,0.24473231,-0.85301518,0
-0.049328774,-0.29236653,-2.5514367,7.2315335e-05,-0.0056934636,-0.99998349,0
-0.54323721,-2.9549866,-1.0609438,0.47619408,-0.87932575,0.0050409343,0
0.18596733,3.0856707,0.79339147,-0.47619408,0.87932575,-0.0050409343,0
-2.8964682,1.4295487,1.4376202,-0.47619408,0.87932575,-0.0050409343,0
0.86047912,2.3311751,-2.3796771,0.54316801,0.2896319,-0.78808725,0
-2.0760162,1.5075721,-2.4024732,-0.47619408,0.87932575,-0.0050409343,0
0.98150444,2.458539,-2.0744319,0.63084316,0.33762491,-0.69860274,0
1.1375661,1.4934597,-2.3221276,0.54157984,0.28876376,-0.78949744,0
-2.382519,1.4435039,1.8510207,-0.47619408,0.87932575,-0.0050409343,0
-1.6207961,2.0540395,0.74822694,-0.47619408,0.87932575,-0.0050409343,0
-0.83976728,1.4482667,2.5260737,-0.065882742,-0.029960763,0.99737722,0
1.736701,0.83078516,-1.6442857,0.66444117,0.35605779,-0.65706968,0
0.70744061,-2.4286685,2.3582225,0.47619408,-0.87932575,0.0050409343,0
-0.41334915,2.6073325,-2.1042457,-0.47619408,0.87932575,-0.0050409343,0
0.37976015,2.8747883,1.7177058,-0.47619408,0.87932575,-0.0050409343,0
-0.28258824,-2.9776223,-0.34144956,0.47619408,-0.87932575,0.0050409343,0
-0.22724938,-2.893271,-2.1259127,0.47619408,-0.87932575,0.0050409343,0
-1.8110495,2.0498395,-0.70652372,-0.47619408,0.87932575,-0.0050409343,0
0.85891068,2.4362311,2.026906,0.62271672,0.34126541,0.70410305,0
-2.6914425,-0.74747097,0.65293646,-0.85906243,-0.46398148,0.216177,0
-0.63968503,2.2854795,-1.5557055,-0.47619408,0.87932575,-0.0050409343,0
1.1285861,-1.2576003,2.8653338,0.10479007,0.062438421,0.99253213,0
1.0917915,-2.1800034,0.82924062,0.47619408,-0.87932575,0.0050409343,0
-1.7748816,-1.6684432,1.0854739,-0.77950311,-0.41946894,0.46520972,0
-1.218098,-2.3334725,-2.0452354,-0.64082932,-0.35095182,-0.68276656,0
1.9740125,-1.6038005,-0.61645174,0.47619408,-0.87932575,0.0050409343,0
2.5233469,-1.4337287,1.6441596,0.47619408,-0.87932575,0.0050409343,0
-2.8130279,0.50204372,1.3677753,-0.77240294,-0.41553715,0.48033527,0
-0.81539077,2.3951244,-1.9569284,-0.47619408,0.87932575,-0.0050409343,0
-2.5402911,1.2569072,-0.43924314,-0.47619408,0.87932575,-0.0050409343,0
1.4603016,-2.2529864,-1.056308,0.47619408,-0.87932575,0.0050409343,0
-0.63415271,1.3960841,-2.9548664,0.0080837011,-0.0013548434,-0.99996614,0
1.1814888,-2.2173138,1.7572653,0.47619408,-0.87932575,0.0050409343,0
-2.3534439,0.26975143,1.9614677,-0.62467092,-0.33424145,0.70573968,0
-1.1299747,2.3275533,0.57036686,-0.47619408,0.87932575,-0.0050409343,0
-0.63625848,2.561378,1.9968719,-0.47619408,0.87932575,-0.0050409343,0
2.7610006,-1.2862841,-1.4493816,0.47619408,-0.87932575,0.0050409343,0
-3.0686083,1.0326799,-0.73421204,-0.47619408,0.87932575,-0.0050409343,0
-0.54825771,-2.9583991,-0.33930707,0.47619408,-0.87932575,0.0050409343,0
2.7234235,-0.97808003,-2.0542898,0.57437736,0.30670014,-0.75896323,0
1.9245883,-1.8286805,2.1674261,0.47619408,-0.87932575,0.0050409343,0
-0.2358532,2.6572657,-2.6623275,-0.47619408,0.87932575,-0.0050409343,0
0.019418016,-0.75435859,-2.5527818,-0.158233,-0.09132649,-0.98316896,0
1.5037932,3.2273464,0.65310335,0.85361093,0.46362987,0.23747665,0
1.4491003,-2.2234302,-1.9180532,0.47619408,-0.87932575,0.0050409343,0
0.43248916,-1.3108534,2.8204026,-0.093340427,-0.044846106,0.99462348,0
1.6880577,2.3047624,-1.1841912,0.76892102,0.41361028,-0.48753098,0
-1.0971563,-2.9377193,-1.2412997,-0.80270231,-0.43702555,-0.4058044,0
-1.4093109,2.1725094,-0.29797789,-0.47619408,0.87932575,-0.0050409343,0
-1.5851729,2.0812206,-1.693077,-0.47619408,0.87932575,-0.0050409343,0
-1.7623793,1.0637872,2.760772,-0.31715858,-0.16640316,0.93365955,0
0.75846046,-2.2899723,1.2421603,0.47619408,-0.87932575,0.0050409343,0
1.1393832,0.36746702,-2.633177,0.3209545,0.16846836,-0.9319905,0
-1.7860413,-2.4156399,-0.79040229,-0.83302826,-0.45294309,-0.31765693,0
0.81597245,2.2512805,2.2242541,0.51158977,0.28170222,0.81173825,0
2.8085063,0.28854167,-1.2206273,0.80641389,0.43440902,-0.40122944,0
-2.191947,1.4486251,-1.8403771,-0.47619408,0.87932575,-0.0050409343,0
-0.24338591,-3.1734734,0.8458696,0.47619408,-0.87932575,0.0050409343,0
2.787961,-1.3398638,1.4953512,0.47619408,-0.87932575,0.0050409343,0
1.2155969,-1.7661183,2.6064482,0.12715952,0.07453268,0.98907781,0
-2.7904997,1.3595308,-0.487122,-0.47619408,0.87932575,-0.0050409343,0
0.94234025,-2.3050396,-0.75026089,0.47619408,-0.87932575,0.0050409343,0
0.86962187,2.2527864,1.9594753,0.55007058,0.30235052,0.77846384,0
0.27859998,-2.2321475,2.6237054,-0.23386872,-0.12112004,0.96469432,0
-0.75971293,-2.0954494,1.919245,-0.58369339,-0.31179813,0.74972218,0
3.1965094,-1.18171,0.2733652,0.47619408,-0.87932575,0.0050409343,0
1.1043246,2.59905,-1.6871775,0.66679084,0.35734802,-0.65398133,0
-1.4609911,2.2596185,2.5458279,-0.47619408,0.87932575,-0.0050409343,0
0.41006991,-2.6003585,-1.9135883,0.47619408,-0.87932575,0.0050409343,0
0.39279056,3.1484618,0.29219151,-0.47619408,0.87932575,-0.0050409343,0
0.26126242,3.1240125,-0.50681329,-0.47619408,0.87932575,-0.0050409343,0
2.8444796,-0.82915437,-1.6347568,0.73659372,0.39575434,-0.54845929,0
-0.921772,-3.1614962,-1.3873965,-0.72597414,-0.39636931,-0.56200755,0
-1.9967024,0.31789219,-2.2925999,-0.52179509,-0.28718036,-0.80327868,0
2.0142994,-1.7688006,-1.3970009,0.47619408,-0.87932575,0.0050409343,0
0.1047349,-2.7433567,1.3897765,0.47619408,-0.87932575,0.0050409343,0
-2.1486311,1.841029,-0.19419849,-0.47619408,0.87932575,-0.0050409343,0
-2.1516547,-1.138602,-1.036358,-0.81657517,-0.4443244,-0.36848414,0
-1.7017159,1.9988978,-1.0755595,-0.47619408,0.87932575,-0.0050409343,0
0.068788052,3.0206006,0.5831297,-0.47619408,0.87932575,-0.0050409343,0
-0.66260052,0.58106959,2.5859513,-0.077363402,-0.036183983,0.99634588,0
-0.40560484,-3.231823,-0.34288329,0.47619408,-0.87932575,0.0050409343,0
-0.74752855,-1.3578274,-2.6025167,-0.37409124,-0.20776846,-0.90381825,0
3.1789978,-0.9460299,-1.2689643,0.47619408,-0.87932575,0.0050409343,0
2.1195478,-0.95521849,2.331656,0.47612271,0.26265284,0.83923793,0
-0.040753525,-1.0260959,-2.6907945,-0.20581475,-0.11702763,-0.97156787,0
-1.9446456,-0.68458903,-1.8560822,-0.64251256,-0.35185164,-0.68071848,0
1.4782101,-0.66136408,-2.5626066,0.27978653,0.14607723,-0.94888389,0
-0.82211637,2.5517035,0.7380622,-0.47619408,0.87932575,-0.0050409343,0
-1.2183686,0.76001859,-2.4947317,-0.19716424,-0.11235641,-0.97391069,0
-2.3608739,-1.4881262,-0.55763221,-0.84426522,-0.45879528,-0.27698866,0
0.16498792,-2.9406185,1.3683984,0.47619408,-0.87932575,0.0050409343,0
-1.6978328,1.9399217,-2.3876977,-0.47619408,0.87932575,-0.0050409343,0
-0.55824322,2.3351333,-0.64113289,-0.47619408,0.87932575,-0.0050409343,0
2.167027,1.7466713,0.59507442,0.8626231,0.46824613,0.1913799,0
-0.064750314,-2.599782,-2.3623805,-0.42567772,-0.2355321,-0.87368333,0
2.0817924,-1.5458837,-0.97304654,0.47619408,-0.87932575,0.0050409343,0
2.3873699,1.2776334,0.52238524,0.87175316,0.47282925,0.12836903,0
1.3335912,1.3948472,1.8374317,0.63794059,0.3494074,0.68625516,0
-0.31190348,2.7646244,-1.2838942,-0.47619408,0.87932575,-0.0050409343,0
0.76290429,0.59421724,-2.6353292,0.26938629,0.14042294,-0.95273912,0
0.1619222,0.30815232,2.6326437,0.094623476,0.056940496,0.99388313,0
-1.6621069,-0.36421135,-2.1128981,-0.47453928,-0.26180202,-0.84039968,0
2.0175238,-1.5660567,-1.8617063,0.47619408,-0.87932575,0.0050409343,0
1.8029077,1.4979628,-1.3366411,0.79586178,0.4285427,-0.42773193,0
3.2069185,-0.45920134,-1.2106485,0.80700928,0.43474048,-0.39966995,0
2.219178,-1.5320145,2.4581132,0.39259911,0.21773252,0.89356476,0
2.4504614,0.527206,1.1412086,0.80026805,0.4357425,0.41194534,0
1.0495903,0.39019087,2.5165217,0.40244776,0.22303331,0.88785774,0
-0.19341341,0.61567163,2.8853447,-0.018405229,-0.0042355563,0.99982131,0
-2.5475314,0.19053411,-1.6344099,-0.65899992,-0.36066169,-0.66003174,0
0.61912251,2.027622,2.1730204,0.48875454,0.26943928,0.82977164,0
0.31254196,2.9702311,-1.9800273,-0.47619408,0.87932575,-0.0050409343,0
-1.7738054,-2.2144442,-0.27023232,-0.87592584,-0.47484207,-0.085314453,0
-1.0017042,2.3306129,-1.0971562,-0.47619408,0.87932575,-0.0050409343,0
1.0853629,2.0225887,2.1663122,0.60393924,0.33121601,0.72495043,0
-1.6227646,-2.3973694,-0.10861617,-0.87912071,-0.47593951,0.025058225,0
-1.7038531,1.733134,-1.6482379,-0.47619408,0.87932575,-0.0050409343,0
-2.5301738,-1.1927671,-0.21169651,-0.87312162,-0.47349945,-0.11600134,0
1.5884583,2.560111,0.67583823,0.83481538,0.45387608,0.31157553,0
1.8800032,1.5965635,-1.300927,0.77430439,0.41658971,-0.47634584,0
-2.9244092,-0.076060414,0.89589942,-0.80805767,-0.43532398,0.39690727,0
-0.4718087,2.7192972,1.5093195,-0.47619408,0.87932575,-0.0050409343,0
-0.73356354,-1.3465478,2.4786875,-0.4606936,-0.2445951,0.85319054,0
1.8063238,-1.8605504,0.1408301,0.47619408,-0.87932575,0.0050409343,0
1.3622353,2.8689699,0.24507725,0.87593132,0.47484466,0.085244328,0
-0.50981402,-3.0027018,1.4859809,0.47619408,-0.87932575,0.0050409343,0
2.0622716,-1.5210446,0.038360953,0.47619408,-0.87932575,0.0050409343,0
2.075738,0.87768745,-1.3101983,0.78016061,0.41983315,-0.46377704,0
0.93312347,-2.5458412,-0.53718513,0.47619408,-0.87932575,0.0050409343,0
2.1477261,-1.6350926,2.2981834,0.47619408,-0.87932575,0.0050409343,0
0.85438383,2.3661673,1.9911509,0.56498158,0.31034553,0.76451331,0
3.4015303,-0.96398449,-0.89383292,0.47619408,-0.87932575,0.0050409343,0
0.38700628,2.8641474,1.2777818,-0.47619408,0.87932575,-0.0050409343,0
-1.64101,-0.34676892,2.430464,-0.47686183,-0.25341704,0.84165442,0
1.6014462,2.112978,-1.1543651,0.80225128,0.4320935,-0.41193163,0
-1.6104741,1.9769363,-0.48070449,-0.47619408,0.87932575,-0.0050409343,0
1.7405944,0.13060945,2.2775834,0.47728539,0.26327762,0.83838117,0
-1.4217458,2.1508074,0.10842731,-0.47619408,0.87932575,-0.0050409343,0
-0.30182958,-3.1654947,-0.26166457,0.47619408,-0.87932575,0.0050409343,0
-0.40505838,-1.3364077,2.7065785,-0.34466529,-0.18137161,0.92103732,0
0.97781622,3.0809493,1.7551081,0.68083978,0.3723211,0.63074052,0
1.613415,-2.0141683,-2.2397521,0.47619408,-0.87932575,0.0050409343,0
-2.0820923,1.8656861,-1.0176793,-0.47619408,0.87932575,-0.0050409343,0
-0.1518411,-2.6449466,-2.4530067,-0.48046273,-0.26498476,-0.83602512,0
-2.2685282,1.4384214,1.0098703,-0.47619408,0.87932575,-0.0050409343,0
-3.3834748,0.096836567,0.32653007,-0.8754465,-0.47353902,0.096714497,0
-0.6843546,2.3200901,0.15471706,-0.47619408,0.87932575,-0.0050409343,0
0.34982359,2.9060731,0.59163433,-0.47619408,0.87932575,-0.0050409343,0
0.80685741,-2.2221978,2.8015592,-0.13421687,-0.067016594,0.98868304,0
3.0252299,0.11497998,-0.87870097,0.84691095,0.45708263,-0.27169272,0
0.41095233,2.9026527,2.111037,-0.47619408,0.87932575,-0.0050409343,0
-0.92413718,0.87283611,2.8206618,-0.18719751,-0.095771268,0.97764224,0
2.1281652,-1.5414213,-0.45881307,0.47619408,-0.87932575,0.0050409343,0
0.70726275,1.0250514,-2.701354,0.3414762,0.17963584,-0.92256409,0
-1.2705719,1.9356341,2.7810099,-0.033983573,-0.012674676,0.99934179,0
2.8283391,-1.3441205,-0.17171696,0.47619408,-0.87932575,0.0050409343,0
1.3797404,-0.17469859,-2.6494391,0.30171472,0.158002,-0.94021446,0
-1.3369546,-2.4853659,0.98504645,-0.80985385,-0.43632418,0.39211905,0
-1.9385059,-0.23740923,-2.1785235,-0.54259515,-0.29834101,-0.78522784,0
-0.35897982,-2.4203398,-2.2436743,-0.45646977,-0.25209042,-0.85327911,0
-2.3218241,1.4036946,2.2251577,-0.47619408,0.87932575,-0.0050409343,0
-2.2048242,-1.5011228,-0.92759144,-0.82303888,-0.447716,-0.3495093,0
-0.78099692,-0.54813552,-2.6466279,-0.24369349,-0.13747469,-0.96005929,0
2.4713733,0.94514179,1.0678847,0.82413673,0.44829145,0.34616899,0
-1.1835461,2.4087703,1.8619307,-0.47619408,0.87932575,-0.0050409343,0
0.032093346,2.7799864,1.7574296,-0.47619408,0.87932575,-0.0050409343,0
0.66620314,-2.581439,2.1195645,0.47619408,-0.87932575,0.0050409343,0
-0.067549765,0.11239117,2.7910087,0.0022285283,0.0069394149,0.99997312,0
-1.1703954,2.118149,1.0302162,-0.47619408,0.87932575,-0.0050409343,0
-1.5900211,1.836933,2.5339208,-0.21611461,-0.11147508,0.96998316,0
0.94121778,-0.57975733,2.764493,0.23199528,0.13116123,0.96383321,0
-1.5025955,2.1659937,2.3307364,-0.47619408,0.87932575,-0.0050409343,0
-0.79532838,-3.1355956,1.491701,0.47619408,-0.87932575,0.0050409343,0
-2.5831363,-0.37906605,-1.5988336,-0.7366159,-0.40202817,-0.54384738,0
0.9072597,3.1855466,0.94847739,-0.47619408,0.87932575,-0.0050409343,0
-0.85370541,2.2003598,1.9410467,-0.47619408,0.87932575,-0.0050409343,0
-1.5527893,1.7806004,-2.2916553,-0.47619408,0.87932575,-0.0050409343,0
0.51531529,-2.5363927,1.4769911,0.47619408,-0.87932575,0.0050409343,0
1.719537,2.5464191,-0.039363146,0.87758762,0.47559905,0.060374588,0
1.0100019,3.084502,-1.2957525,0.77498966,0.41696906,-0.47489727,0
-1.7147486,-2.7488465,0.52051634,-0.85336483,-0.46073693,0.24390523,0
-1.8682173,1.800087,-0.55304265,-0.47619408,0.87932575,-0.0050409343,0
1.2598453,2.9465446,-0.87138391,0.82974118,0.44742909,-0.33367109,0
-2.4368708,-1.5919909,-0.55536783,-0.86590999,-0.46991163,-0.17141265,0
2.9702942,-0.67319036,1.2050426,0.77905542,0.42453814,0.46134531,0
-2.9302957,0.65392494,-1.5610485,-0.76463979,-0.41690397,-0.4914434,0
2.1758609,-1.7150074,-0.46135175,0.47619408,-0.87932575,0.0050409343,0
-1.716212,2.0584471,-1.0729394,-0.47619408,0.87932575,-0.0050409343,0
0.12232646,-2.323647,-2.4395359,-0.29489931,-0.16509657,-0.9411571,0
2.1079812,1.5898784,-0.16156791,0.87921071,0.47601807,-0.019868076,0
0.44541276,-2.1979773,2.5078309,-0.24448895,-0.12689075,0.96131337,0
-1.6396115,-1.6085889,1.8085706,-0.67852843,-0.36379513,0.63816273,0
-0.53684711,0.17886601,-2.576328,-0.09685941,-0.058149725,-0.99359763,0
-3.0529201,1.249384,0.96089137,-0.47619408,0.87932575,-0.0050409343,0
-0.69261527,-0.95972979,2.3744488,-0.34050626,-0.1791079,0.92302513,0
1.8215451,-1.9052422,0.86235833,0.47619408,-0.87932575,0.0050409343,0
0.4152323,3.2969308,0.55294788,-0.47619408,0.87932575,-0.0050409343,0
3.286483,-1.256291,-0.52443326,0.47619408,-0.87932575,0.0050409343,0
-0.39432853,2.677115,0.31157777,-0.47619408,0.87932575,-0.0050409343,0
-0.21322918,2.9372115,-0.39135367,-0.47619408,0.87932575,-0.0050409343,0
3.1341426,-0.059733868,0.35456604,0.86402965,0.4689604,0.18310776,0
-1.4856133,2.0308242,1.2088461,-0.47619408,0.87932575,-0.0050409343,0
2.5216045,-1.403078,2.0086036,0.47619408,-0.87932575,0.0050409343,0
-1.4255658,-0.43492961,2.1462903,-0.46769065,-0.24841253,0.84826666,0
2.3294907,-1.5375655,-1.7143553,0.47619408,-0.87932575,0.0050409343,0
0.5947755,-2.608171,0.47907421,0.47619408,-0.87932575,0.0050409343,0
0.9081018,3.2155397,1.1330961,-0.47619408,0.87932575,-0.0050409343,0
2.8943439,-0.73768425,1.2739911,0.76271802,0.41588527,0.49527794,0
0.051898122,-2.0875323,2.4614315,-0.27248749,-0.14210889,0.95160651,0
1.4170511,1.4000634,1.8184533,0.62697369,0.34354264,0.69920105,0
-0.10215557,-1.5061228,2.4598536,-0.28175896,-0.14714971,0.94813418,0
-1.6903489,0.40891498,2.2457438,-0.41790169,-0.22126114,0.8811363,0
-1.394141,-2.7775168,-1.2492408,-0.8102591,-0.44100437,-0.38599849,0
0.71582842,3.0455654,-1.7399285,-0.47619408,0.87932575,-0.0050409343,0
0.12291372,-2.7362576,-2.4511466,0.47619408,-0.87932575,0.0050409343,0
-0.93682384,-2.5137503,1.9624991,-0.6458531,-0.34585646,0.68062955,0
0.25505841,-1.1267195,2.8771801,-0.048425496,-0.020499779,0.99861616,0
0.40678525,2.9958575,0.29239345,-0.47619408,0.87932575,-0.0050409343,0
2.6584058,0.68475795,1.0885727,0.82395035,0.44819373,0.3467384,0
-1.8222346,1.6969407,1.1132094,-0.47619408,0.87932575,-0.0050409343,0
-0.60334837,-1.8883493,2.1772177,-0.49926442,-0.2656461,0.82472217,0
0.89610988,-2.3590474,-0.11052315,0.47619408,-0.87932575,0.0050409343,0
-1.5409689,1.8616862,2.4737177,-0.47619408,0.87932575,-0.0050409343,0
-0.34341562,-3.1284351,-1.4349571,0.47619408,-0.87932575,0.0050409343,0
2.0825038,0.92548215,1.1334718,0.77772433,0.42383385,0.4642294,0
-1.158385,2.0378397,-2.6262157,-0.47619408,0.87932575,-0.0050409343,0
-0.16064858,-3.1025252,1.0589674,0.47619408,-0.87932575,0.0050409343,0
0.75708634,-0.65121537,-2.8664114,0.11464286,0.056398511,-0.99180424,0
1.8367656,-1.642476,2.5546734,0.47619408,-0.87932575,0.0050409343,0
3.0302007,-0.83275259,-1.5040243,0.73498434,0.39486673,-0.55125117,0
0.26143956,-2.6119506,1.638254,0.47619408,-0.87932575,0.0050409343,0
0.62229455,-2.4548259,-1.9642148,0.47619408,-0.87932575,0.0050409343,0
-3.1858048,-0.28508973,-0.14341289,-0.87922198,-0.47621626,-0.013649762,0
-2.1680717,1.8704128,1.1663456,-0.47619408,0.87932575,-0.0050409343,0
-0.6575188,1.4798039,-2.6222494,0.097988814,0.04736666,-0.99405944,0
-2.4094467,-1.4199444,-0.10286826,-0.87614983,-0.47494659,-0.082381427,0
3.5048079,-0.82194281,-0.25880387,0.86967754,0.47010633,-0.1505346,0
0.98511517,2.3380017,1.8462083,0.65202767,0.3569369,0.66892105,0
2.7110147,0.2188803,-1.3554436,0.78281313,0.42130312,-0.45793751,0
0.43544102,3.2016988,-1.6523228,-0.47619408,0.87932575,-0.0050409343,0
-0.12996876,-2.9735858,1.8256936,0.47619408,-0.87932575,0.0050409343,0
-2.829725,1.3255996,2.2126112,-0.58639389,-0.3132762,0.74699366,0
1.9349697,1.8015016,0.24169767,0.87523884,0.47451842,0.093748152,0
0.35141706,2.1243339,-2.4286277,0.38538754,0.203545,-0.90002519,0
1.1608781,-2.1335626,-1.7000645,0.47619408,-0.87932575,0.0050409343,0
3.4361029,-0.36436975,0.22919512,0.87176013,0.47283265,0.12830874,0
-2.1402791,1.6567363,-0.61122352,-0.47619408,0.87932575,-0.0050409343,0
-0.25356001,2.5069845,2.589833,0.28682494,0.16074254,0.94440079,0
3.0879731,-0.97546101,1.2700222,0.47619408,-0.87932575,0.0050409343,0
-3.4427898,1.1908332,-0.50679696,-0.47619408,0.87932575,-0.0050409343,0
-0.55767518,2.3318937,-2.5821848,0.23066768,0.11938089,-0.96568125,0
3.0266621,-0.33515239,0.78908503,0.82579106,0.44915807,0.34106547,0
0.63122058,3.3332953,-0.10109703,-0.47619408,0.87932575,-0.0050409343,0
-0.78233111,2.5545309,-1.7456107,-0.47619408,0.87932575,-0.0050409343,0
0.90096283,2.0111041,-2.1959276,0.54145378,0.2886948,-0.78960913,0
1.6934566,0.72389597,-1.7849631,0.60966432,0.32601851,-0.72251016,0
1.6004076,2.2142525,-0.90941143,0.81923902,0.44155705,-0.36588848,0
-2.1350262,1.5890703,-1.6636243,-0.47619408,0.87932575,-0.0050409343,0
0.24655239,0.080078997,2.6346724,0.037685722,0.026135197,0.9989475,0
1.1632453,-2.2020817,2.5726886,0.47619408,-0.87932575,0.0050409343,0
-1.6156062,0.40485859,2.288996,-0.42310286,-0.22409618,0.87793177,0
0.1304521,-2.9899008,-2.0974898,0.47619408,-0.87932575,0.0050409343,0
-3.295229,0.42778516,0.90537059,-0.81674105,-0.44016302,0.3730821,0
1.6701612,3.1127584,0.20926821,0.87806267,0.47580346,0.05115059,0
2.7829757,0.21080089,-0.27721417,0.87386036,0.47257999,-0.11417402,0
-3.0955772,-0.077012658,1.0331295,-0.82612836,-0.44540685,0.34514377,0
-1.1808764,0.7729969,-2.7507253,-0.27035025,-0.15185691,-0.95071018,0
2.5930443,-1.284392,1.1429706,0.47619408,-0.87932575,0.0050409343,0
1.7577085,1.4491256,-1.394845,0.72403103,0.38882911,-0.56972837,0
-2.9688187,1.3053131,1.4944973,-0.47619408,0.87932575,-0.0050409343,0
-1.0593987,-0.0049857795,-2.3785441,-0.32325017,-0.18037991,-0.92896277,0
1.5537415,2.064333,1.555316,0.73870969,0.40314102,0.54017097,0
0.36718154,2.8697121,0.0549061,-0.47619408,0.87932575,-0.0050409343,0
2.9628592,-1.3398873,0.69933891,0.47619408,-0.87932575,0.0050409343,0
-2.1691155,0.31917816,-2.3831172,-0.5186947,-0.28551626,-0.80587578,0
-0.70015299,-0.045476466,-2.6977715,-0.16812521,-0.096671201,-0.98101377,0
-3.4578693,0.4373343,0.35343805,-0.86827993,-0.46929061,0.16079748,0
1.9463162,1.305215,-1.2121171,0.76920515,0.41376746,-0.48694912,0
-1.1789141,-2.7375889,-1.6532643,-0.7191264,-0.39272544,-0.57325715,0
2.0102212,-1.5634093,2.4253652,0.35543013,0.19771846,0.91355151,0
2.8816009,-1.1710681,1.599721,0.47619408,-0.87932575,0.0050409343,0
1.426671,-0.25941187,2.6724653,0.3290804,0.18352197,0.92629641,0
-2.0976274,-2.1234598,-0.52901649,-0.86611605,-0.47001562,-0.17008233,0
0.096775174,2.869308,-0.48675239,-0.47619408,0.87932575,-0.0050409343,0
0.48497057,2.5094378,-2.3018332,0.46215433,0.24539201,-0.85217112,0
2.3747506,1.2843359,-0.45513502,0.87377656,0.47252968,-0.11502001,0
2.2388258,-1.5117124,-2.4212811,0.47619408,-0.87932575,0.0050409343,0
0.73042345,3.2357388,-0.78770602,-0.47619408,0.87932575,-0.0050409343,0
1.7024239,-0.060590208,-2.3583243,0.50315517,0.26777068,-0.82166487,0
-0.16197586,2.1691403,-2.6436357,0.31657851,0.16608757,-0.93391246,0
1.7771752,-1.8142564,-1.9758099,0.47619408,-0.87932575,0.0050409343,0
2.85042,-0.63665795,1.4320507,0.7611599,0.41505909,0.49835843,0
-1.8186213,2.0454955,-1.5024661,-0.47619408,0.87932575,-0.0050409343,0
1.9679399,1.9997692,-1.1718717,0.82326883,0.44380796,-0.35392427,0
1.9292368,-1.881523,-0.4633249,0.47619408,-0.87932575,0.0050409343,0
-1.9416479,0.64901638,2.4265802,-0.40363479,-0.21348612,0.88966405,0
-0.21186996,2.7786038,-1.3861259,-0.47619408,0.87932575,-0.0050409343,0
-2.5410268,-0.81928408,0.008479774,-0.87717652,-0.4746128,0.072825022,0
1.1713629,-2.3499434,-1.7483939,0.47619408,-0.87932575,0.0050409343,0
-2.2262788,-0.9328568,-0.97321689,-0.79865003,-0.43488935,-0.4159674,0
2.4251633,-1.3719522,-1.8585353,0.47619408,-0.87932575,0.0050409343,0
-0.30522013,-0.49823418,-2.5222616,-0.11756241,-0.069344372,-0.99064124,0
1.0388017,3.4681547,0.26032257,-0.47619408,0.87932575,-0.0050409343,0
0.19683832,-1.1922719,2.6847916,-0.070585221,-0.032509677,0.99697572,0
1.6181165,-1.8523743,2.6256678,0.47619408,-0.87932575,0.0050409343,0
-0.60329032,-0.63103783,2.5819228,-0.31338131,-0.16434823,0.93529749,0
0.16860545,-2.6888983,1.4112877,0.47619408,-0.87932575,0.0050409343,0
0.39764535,2.6404755,2.4483082,0.49330908,0.27188569,0.82627088,0
0.18306023,2.7307553,2.2279603,-0.47619408,0.87932575,-0.0050409343,0
-1.6635804,2.1143289,0.96093678,-0.47619408,0.87932575,-0.0050409343,0
-0.087224483,2.7103646,-2.4697688,0.37181467,0.19615272,-0.90734649,0
-1.7205868,-0.27056801,-2.207752,-0.51969492,-0.28605312,-0.80504054,0
2.6116118,-1.5730516,0.73784947,0.47619408,-0.87932575,0.0050409343,0
1.9876409,-1.487205,2.5928111,0.33767843,0.18815507,0.92226374,0
0.79315782,3.3643064,-0.35922399,-0.47619408,0.87932575,-0.0050409343,0
1.5704002,-2.0908678,-0.30558294,0.47619408,-0.87932575,0.0050409343,0
0.93239969,-2.1133037,1.7842056,0.47619408,-0.87932575,0.0050409343,0
0.0045223236,3.0473144,-0.9485386,-0.47619408,0.87932575,-0.0050409343,0
-1.9328502,-0.64005929,-1.7312059,-0.66368437,-0.36316362,-0.65393788,0
-0.16461533,1.1907507,-2.6000972,0.18422702,0.094158515,-0.97836298,0
1.7548478,0.51191586,-2.0017648,0.61358559,0.32816681,-0.71820521,0
-2.3935912,-1.3919102,0.82954872,-0.84989226,-0.45876846,0.25925711,0
-0.58759391,2.4280269,0.37305522,-0.47619408,0.87932575,-0.0050409343,0
1.0881883,-2.3070912,-0.2448047,0.47619408,-0.87932575,0.0050409343,0
3.1715784,-1.309397,0.93919182,0.47619408,-0.87932575,0.0050409343,0
0.0095591545,2.871321,-0.34346366,-0.47619408,0.87932575,-0.0050409343,0
-1.00021,2.4178779,1.12123,-0.47619408,0.87932575,-0.0050409343,0
0.30774981,1.2651329,2.5970552,0.30523759,0.17067054,0.93685699,0
-1.1436646,-2.4236403,1.9051008,-0.62995315,-0.33713692,0.69964081,0
2.293215,0.87224293,1.6970172,0.72793275,0.39741123,0.55872858,0
-2.200774,1.8098603,0.20730925,-0.47619408,0.87932575,-0.0050409343,0
-0.90541792,2.5335209,-2.5827274,-0.47619408,0.87932575,-0.0050409343,0
-0.44524109,2.5084186,0.96535826,-0.47619408,0.87932575,-0.0050409343,0
2.9077907,-1.3257487,1.0489064,0.47619408,-0.87932575,0.0050409343,0
1.0789194,3.1820548,1.0974531,0.82745034,0.45002678,0.33585912,0
-0.90404308,-2.2291713,-2.0863359,-0.564358,-0.31001127,-0.76510936,0
-0.737885,2.3746355,-1.7763588,-0.47619408,0.87932575,-0.0050409343,0
1.5622127,1.1368049,-1.8077649,0.64893568,0.34754768,-0.67682528,0
-1.078356,-2.8248422,-1.1575369,-0.76637089,-0.41782147,-0.48795545,0
-0.056939498,0.83251947,2.6159506,0.068848804,0.042998508,0.99669975,0
1.058291,3.3426566,-0.043050736,-0.47619408,0.87932575,-0.0050409343,0
-2.0438018,1.6576412,1.8063745,-0.47619408,0.87932575,-0.0050409343,0
-2.8991108,1.3168477,0.077099741,-0.47619408,0.87932575,-0.0050409343,0
1.2535727,3.347074,-0.25839347,-0.47619408,0.87932575,-0.0050409343,0
-2.5024908,-0.62996209,-1.2299699,-0.79719424,-0.43412152,-0.41954648,0
0.37820607,-2.5054398,1.0030172,0.47619408,-0.87932575,0.0050409343,0
-2.3650136,-1.6399981,-0.022670507,-0.87801206,-0.4757821,-0.052207589,0
2.7449422,-1.4107199,0.71388161,0.47619408,-0.87932575,0.0050409343,0
0.70828187,0.19597887,-2.5698786,0.27855909,0.14540987,-0.94934738,0
2.1683359,-1.4510093,1.4745035,0.47619408,-0.87932575,0.0050409343,0
-0.96498549,0.73997557,2.7238142,-0.19134828,-0.098025009,0.97661489,0
3.2149515,-1.1220226,0.46442729,0.47619408,-0.87932575,0.0050409343,0
-1.1171418,1.5778149,2.7807088,-0.08528766,-0.040479958,0.99553347,0
-1.916543,-2.2953396,-0.8018955,-0.8422665,-0.45775697,-0.28468466,0
-0.40727258,-2.978302,1.9321151,0.47619408,-0.87932575,0.0050409343,0
3.0561714,0.040958285,0.43304932,0.85889286,0.46634266,0.21172419,0
1.560586,-1.4731845,2.5145068,0.22712524,0.12853253,0.9653461,0
-0.56611747,2.6684794,0.45406705,-0.47619408,0.87932575,-0.0050409343,0
-0.30252373,-3.1707296,0.072121039,0.47619408,-0.87932575,0.0050409343,0
-2.2942464,-0.64165545,-1.4444112,-0.75941938,-0.41413608,-0.50176978,0
-2.5869079,1.5735127,-0.056593895,-0.47619408,0.87932575,-0.0050409343,0
