0.83449882,0.037207603,4.3260784,-0.087566108,-0.5240773,0.84715712,0
2.5538948,-0.10677266,2.2720714,0.93659639,0.24634108,0.24920511,0
-2.2037821,0.28113723,4.1222019,-0.087566108,-0.5240773,0.84715712,0
-2.7376711,-2.8905096,2.2862728,-0.087566108,-0.5240773,0.84715712,0
2.6680725,-1.4299084,0.51368213,0.94647384,-0.3089954,-0.093322039,0
-0.73574328,-3.1441622,2.2911806,-0.087566108,-0.5240773,0.84715712,0
-0.41613567,2.4735665,-2.496664,0.087566108,0.5240773,-0.84715712,0
-1.6874013,-3.1288056,1.8944464,-0.087566108,-0.5240773,0.84715712,0
3.0247996,0.604967,-2.4089518,0.96643162,-0.25089791,-0.055318236,0
-3.3059242,-2.0007892,2.6520023,-0.087566108,-0.5240773,0.84715712,0
1.5183687,0.065160751,-4.0181532,0.087566108,0.5240773,-0.84715712,0
3.0767643,2.1309152,-2.6815538,0.087566108,0.5240773,-0.84715712,0
0.47895157,-1.6375049,-3.0149698,0.080818594,-0.851358,-0.51832235,0
2.0205493,3.4565468,-1.5036908,0.6273973,0.63154685,0.45554501,0
1.4136186,2.839994,0.52789187,0.49724483,0.71390396,0.49304038,0
1.8860011,-0.24624228,-3.9948068,0.087566108,0.5240773,-0.84715712,0
-0.13826156,2.2005677,2.1774452,-0.014330924,0.85099864,0.52497244,0
-1.0257058,-0.064641237,3.9360361,-0.087566108,-0.5240773,0.84715712,0
-2.8232133,1.3669732,-2.0747776,-0.99256134,0.11811095,-0.029528677,0
-0.93798125,0.49882126,4.4067621,-0.087566108,-0.5240773,0.84715712,0
-0.32859701,-0.073217869,4.0373468,-0.087566108,-0.5240773,0.84715712,0
0.21693015,3.0849264,-1.9663243,0.087566108,0.5240773,-0.84715712,0
-0.21238041,3.1035764,-2.0191641,0.087566108,0.5240773,-0.84715712,0
-0.39474654,4.1343112,-0.76254058,-0.18033606,0.84471238,0.50392455,0
-0.6669364,2.2962995,1.4572916,-0.2639097,0.83224159,0.48757115,0
-2.3856506,0.13509989,-2.3930926,-0.90252936,-0.31820971,-0.29014391,0
-0.12006187,1.7465999,2.9153743,-0.015348613,0.85103261,0.5248884,0
-1.0976182,-1.5974061,3.1963959,-0.087566108,-0.5240773,0.84715712,0
-1.5077887,-1.6917446,2.8588977,-0.087566108,-0.5240773,0.84715712,0
-0.47332889,0.046088696,-4.2874608,0.087566108,0.5240773,-0.84715712,0
1.9156451,-0.90266967,-2.8442397,0.59926504,-0.7070455,-0.37545714,0
-0.70398617,-2.5149868,2.4092684,-0.087566108,-0.5240773,0.84715712,0
0.41501474,-2.3730698,2.5883269,-0.087566108,-0.5240773,0.84715712,0
-0.24168563,-2.6635163,2.5325305,-0.087566108,-0.5240773,0.84715712,0
-1.3020654,2.6793826,-2.6995549,0.087566108,0.5240773,-0.84715712,0
1.760926,2.6961944,-2.4240842,0.087566108,0.5240773,-0.84715712,0
2.899426,-1.3669293,1.181916,0.97402298,-0.22332644,-0.037477016,0
0.14777619,0.55440903,-3.7347133,0.087566108,0.5240773,-0.84715712,0
-1.3178841,1.7848034,-3.1918089,0.087566108,0.5240773,-0.84715712,0
-1.194229,1.9393578,-3.2328963,0.087566108,0.5240773,-0.84715712,0
-2.318748,-0.17501712,-2.6634469,-0.82555592,-0.43774822,-0.35613781,0
1.4789436,3.2935641,-1.8386981,0.087566108,0.5240773,-0.84715712,0
-1.4123915,2.1396742,-2.9038086,0.087566108,0.5240773,-0.84715712,0
1.5353358,-1.4887495,-2.4549823,0.41225016,-0.79324806,-0.44811541,0
0.33142984,-0.43358493,-4.2469072,0.087566108,0.5240773,-0.84715712,0
-1.2935061,-0.62080812,3.8161581,-0.087566108,-0.5240773,0.84715712,0
-0.44420338,3.1592233,-2.3438678,0.087566108,0.5240773,-0.84715712,0
-2.1232171,-0.97564006,-2.0947957,-0.70884734,-0.56473011,-0.42262906,0
-2.9846036,-1.6854352,0.68617463,-0.95102358,-0.20910475,-0.22766089,0
-1.3407165,2.1003752,1.7307527,-0.47371948,0.77001762,0.42739061,0
0.8924576,2.2459557,-2.8809876,0.087566108,0.5240773,-0.84715712,0
-2.0029747,-3.4817684,1.8700601,-0.087566108,-0.5240773,0.84715712,0
-2.9034915,1.8882017,-2.8773394,-0.99612576,0.052983791,-0.070186734,0
0.42364192,2.155818,1.9267778,0.20340776,0.82309937,0.53021967,0
2.9551473,0.88647223,-3.3642447,0.087566108,0.5240773,-0.84715712,0
-2.7969913,0.069179296,-0.48278952,-0.99615657,0.044280827,-0.075573921,0
1.2146379,-2.2450755,-1.1670556,0.47082621,-0.77121377,-0.42842966,0
2.1876655,-1.9080434,-0.67167413,0.76561928,-0.57947719,-0.27934438,0
-0.093157768,-2.7951765,-0.98166716,-0.0023134947,-0.85031462,-0.52626979,0
2.0379939,1.2315061,1.6968544,0.7566756,0.518121,0.3987391,0
0.75168061,-3.7482851,0.95574057,0.35028392,-0.81231272,-0.46631455,0
-0.23283148,-4.1888981,1.489297,-0.087566108,-0.5240773,0.84715712,0
-1.2743766,-2.3494287,-1.539803,-0.37467891,-0.77064943,-0.51547593,0
1.5394191,-0.014347315,-4.0222321,0.087566108,0.5240773,-0.84715712,0
2.0993977,1.5299256,-2.9596734,0.087566108,0.5240773,-0.84715712,0
-2.5306358,-2.3792861,2.5776491,-0.087566108,-0.5240773,0.84715712,0
1.7280793,-2.9578788,2.5385907,-0.087566108,-0.5240773,0.84715712,0
0.89184868,2.4297013,-2.7389531,0.087566108,0.5240773,-0.84715712,0
-3.1159317,-0.6167953,3.2265015,-0.92686319,0.35450265,0.12350124,0
-2.9943273,-1.3350554,2.9284194,-0.087566108,-0.5240773,0.84715712,0
-2.0140839,2.2204027,-3.0751052,0.087566108,0.5240773,-0.84715712,0
3.1569219,2.1748934,-2.275943,0.087566108,0.5240773,-0.84715712,0
2.3881822,-3.0138264,2.3150005,-0.087566108,-0.5240773,0.84715712,0
-0.35697079,3.0899737,0.42678416,-0.11404967,0.85010618,0.51411295,0
0.76706481,3.5627518,-0.37045026,0.17538506,0.82902867,0.53099108,0
-2.7204623,0.74858165,-1.0612502,-0.9961586,0.04652375,-0.074186563,0
-1.8738667,0.6326251,-4.0881557,0.087566108,0.5240773,-0.84715712,0
-1.8312879,1.7118356,1.9541926,-0.62862456,0.68878198,0.36112404,0
1.6598881,1.3473694,2.6847842,0.61198217,0.64271659,0.46086156,0
0.59613401,0.62125158,-3.5062356,0.087566108,0.5240773,-0.84715712,0
-2.1313977,2.4990144,-2.7788565,0.087566108,0.5240773,-0.84715712,0
-1.6418879,3.4018955,-0.85359961,-0.60402751,0.70418471,0.37319511,0
0.20454478,-1.7701142,3.1253133,-0.087566108,-0.5240773,0.84715712,0
2.8468513,-1.0035664,0.21818399,0.95873642,-0.27524313,-0.071174324,0
0.048469841,0.048838615,-3.9668145,0.087566108,0.5240773,-0.84715712,0
1.08496,-3.5371311,1.9878621,-0.087566108,-0.5240773,0.84715712,0
0.98617351,-0.99514937,-4.1270561,0.24736613,-0.83522654,-0.49112782,0
1.699321,-3.6083989,1.9929855,-0.087566108,-0.5240773,0.84715712,0
2.5439911,-2.6736512,1.9621902,0.91137433,-0.38546902,-0.14425898,0
-1.828465,-0.82636786,3.5106273,-0.087566108,-0.5240773,0.84715712,0
0.90434933,0.26327968,-3.7180371,0.087566108,0.5240773,-0.84715712,0
1.1472766,3.2678442,-0.33112335,0.36567515,0.77414238,0.51670617,0
-1.5459781,3.6329737,-2.0807521,0.087566108,0.5240773,-0.84715712,0
3.0184166,0.0019622743,-1.0214527,0.97490042,-0.21983653,-0.035227299,0
1.4564145,3.0032105,-2.3089936,0.087566108,0.5240773,-0.84715712,0
2.1841719,0.0721457,3.1803169,0.7810725,0.49169761,0.38491446,0
-0.77532911,-2.5719509,2.3224156,-0.087566108,-0.5240773,0.84715712,0
-1.8577753,2.6572044,-2.4699967,0.087566108,0.5240773,-0.84715712,0
-1.5512224,2.6903405,-2.7940669,0.087566108,0.5240773,-0.84715712,0
-1.4964082,1.0748253,-3.7625155,0.087566108,0.5240773,-0.84715712,0
0.63960397,-0.12253428,-4.2421522,0.087566108,0.5240773,-0.84715712,0
-1.7019006,-2.0135455,2.6146312,-0.087566108,-0.5240773,0.84715712,0
-1.8306463,-0.30801749,3.6308827,-0.087566108,-0.5240773,0.84715712,0
1.3349444,-2.7636337,-0.29018608,0.48185548,-0.76659727,-0.42443371,0
-1.326056,-3.1766331,2.1514866,-0.087566108,-0.5240773,0.84715712,0
-1.1533386,-0.1432693,3.9275665,-0.087566108,-0.5240773,0.84715712,0
-2.2863746,0.71828032,-3.8115134,-0.84918952,-0.4053179,-0.33851826,0
-1.2977157,3.5910273,-1.8300476,0.087566108,0.5240773,-0.84715712,0
1.0953283,0.35067797,4.6046295,-0.087566108,-0.5240773,0.84715712,0
0.15257025,2.405601,-2.8107076,0.087566108,0.5240773,-0.84715712,0
-2.9604511,1.2739049,-0.48347831,-0.95596659,0.28333804,0.076468408,0
3.299973,0.55576336,-2.2675252,0.96919823,-0.24133477,-0.049116194,0
-2.1146729,1.8119926,1.2841444,-0.68091023,0.65222818,0.33310622,0
3.2762439,2.0299311,-1.3253059,0.9516629,0.20731789,0.22662151,0
-0.6985364,3.8925607,-1.8864918,0.087566108,0.5240773,-0.84715712,0
1.4262345,-2.7940454,-0.96275443,0.42702127,-0.78807378,-0.44338763,0
-1.1625857,0.43199635,4.310883,-0.087566108,-0.5240773,0.84715712,0
-0.39225793,-0.4109807,-4.4051142,0.087566108,0.5240773,-0.84715712,0
1.5987535,3.5339632,-1.5740957,0.087566108,0.5240773,-0.84715712,0
0.18535805,4.1752558,-1.7297013,0.087566108,0.5240773,-0.84715712,0
-0.56595588,3.7492537,-1.7963548,0.087566108,0.5240773,-0.84715712,0
-2.2036552,-0.027716875,-3.0595264,-0.79969394,-0.47010684,-0.37348258,0
-1.4918264,1.1956085,2.96717,-0.41858679,0.79105896,0.44610626,0
-2.4509087,0.9368552,1.3654981,-0.83673567,0.50017393,0.22293395,0
1.6404572,2.5976086,0.43546653,0.5375182,0.69113708,0.48311895,0
-0.30688918,0.74468851,4.3836026,0.0091558695,0.8499645,0.52676046,0
0.12493563,2.4871845,-2.3720615,0.087566108,0.5240773,-0.84715712,0
-2.7466891,0.81045985,0.70759153,-0.91003418,0.38798794,0.14595586,0
-2.130352,-2.5428946,2.5597382,-0.087566108,-0.5240773,0.84715712,0
0.99223906,-1.6180668,3.3278325,-0.087566108,-0.5240773,0.84715712,0
-1.6516467,3.031981,-0.30620795,-0.58399737,0.71596199,0.38255128,0
0.23557997,1.8691282,2.9067268,0.13787192,0.83586329,0.53134167,0
0.66394597,0.13278222,-3.9010835,0.087566108,0.5240773,-0.84715712,0
-0.31848264,-3.8751328,1.816137,-0.087566108,-0.5240773,0.84715712,0
-2.7485971,0.81961679,-1.1844602,-0.99533981,0.08050561,-0.053079844,0
1.704197,0.92080522,2.6340322,0.65081435,0.61374009,0.44694966,0
-2.3108094,2.0659556,-0.78012311,-0.85275662,0.47902185,0.20819265,0
0.60678482,2.9109979,-2.0952225,0.087566108,0.5240773,-0.84715712,0
2.5062141,0.45066237,2.3135433,0.86803573,0.3770777,0.32299608,0
2.5293286,0.71055698,1.3535428,0.89235556,0.33671555,0.30054063,0
1.3553969,0.55602074,-3.7043262,0.087566108,0.5240773,-0.84715712,0
-1.6230583,-1.9210373,-2.0333734,-0.53752327,-0.69113398,-0.48311758,0
1.7181294,1.7553573,-3.0023327,0.087566108,0.5240773,-0.84715712,0
-2.9279952,1.5171447,-1.7079816,-0.98962057,0.14304134,-0.013802052,0
-0.3889513,-1.9622499,-2.3746371,-0.16872007,-0.8303346,-0.53111005,0
-0.1128841,0.065312862,4.0032692,-0.087566108,-0.5240773,0.84715712,0
-0.81780815,-3.5232406,0.29099143,-0.17704028,-0.82869816,-0.53095776,0
-3.1385782,0.40593755,-0.43138576,-0.99551916,0.07650879,-0.055570841,0
-3.042654,-1.4196272,2.9702282,-0.087566108,-0.5240773,0.84715712,0
2.6390705,-0.26219082,2.4704049,0.91035467,0.30318695,0.28165925,0
2.3491089,-3.0006726,2.1662529,0.86212838,-0.46592432,-0.19912142,0
0.34136897,1.4775541,-3.4100676,0.087566108,0.5240773,-0.84715712,0
1.5251945,0.16756558,-3.7537072,0.087566108,0.5240773,-0.84715712,0
-1.1492285,-1.5736178,-2.168839,-0.47644854,-0.72481191,-0.49763882,0
2.6567373,1.719713,0.63279176,0.83894932,0.41974178,0.34638286,0
-2.4240389,-2.1845174,-0.35675144,-0.77682865,-0.49643889,-0.38740891,0
0.82019442,-0.44702554,-4.232749,0.087566108,0.5240773,-0.84715712,0
0.61372268,0.93957686,-3.5658174,0.087566108,0.5240773,-0.84715712,0
-2.1388502,1.1943195,1.6880296,-0.74203134,0.60170549,0.29553357,0
-2.2017825,-1.5883248,3.0447321,-0.087566108,-0.5240773,0.84715712,0
-0.89339793,-0.43698835,3.9261389,-0.087566108,-0.5240773,0.84715712,0
-0.68286943,-3.30405,-0.44597363,-0.12039012,-0.83862287,-0.53124189,0
2.7509918,-0.77728224,1.9857936,0.98147082,0.1001097,0.16338038,0
-0.55024701,-0.13358307,-4.2971621,0.087566108,0.5240773,-0.84715712,0
-1.4608052,-0.33169889,-3.7189412,-0.62637198,-0.63230312,-0.45590681,0
2.5372815,1.2100041,-2.9369392,0.087566108,0.5240773,-0.84715712,0
0.65594089,1.602066,-3.1536751,0.087566108,0.5240773,-0.84715712,0
0.13046908,-2.3184245,-1.8086941,0.050943911,-0.85166693,-0.52160144,0
2.0449948,-0.48132277,-3.6844597,0.63595086,-0.68398327,-0.35739815,0
1.6568085,-0.62345314,3.8370175,-0.087566108,-0.5240773,0.84715712,0
-1.0335656,1.9221346,2.1596265,-0.32808864,0.81814849,0.47221893,0
2.1685629,2.3955102,0.12239766,0.71067023,0.56306553,0.4217878,0
1.0141675,-1.6216979,-2.7347991,0.3496471,-0.8124873,-0.46648836,0
2.5932209,1.4743876,-2.9626918,0.087566108,0.5240773,-0.84715712,0
0.87500572,1.6338203,2.6750064,0.3800298,0.76853216,0.51471919,0
2.8580096,2.3002162,-2.5295932,0.087566108,0.5240773,-0.84715712,0
0.58845115,2.8561828,0.75124753,0.13561416,0.83623481,0.53133821,0
-2.2673657,-0.77000141,3.2598953,-0.087566108,-0.5240773,0.84715712,0
0.20480597,-0.030543804,-4.2758074,0.087566108,0.5240773,-0.84715712,0
0.20399213,1.5658417,3.4741399,0.089614391,0.84283137,0.53066427,0
-1.5997798,-3.9187908,1.0616562,-0.4981038,-0.71344125,-0.49284291,0
-2.6110597,1.1163074,0.54408097,-0.90878481,0.39031595,0.14752513,0
-2.0488372,1.72839,1.171069,-0.70719302,0.6316433,0.31765521,0
2.7308943,0.14919686,2.1105068,0.92065108,0.28220552,0.2697438,0
-1.859201,1.3330088,-3.6881285,0.087566108,0.5240773,-0.84715712,0
2.7322605,-0.93916273,2.8067193,0.98153317,0.099799573,0.16319489,0
3.2919912,1.8056214,-2.0945942,0.99148881,0.036396593,0.12500095,0
2.5830567,2.9993808,-1.8557165,0.087566108,0.5240773,-0.84715712,0
0.28894496,2.8748159,-2.3866467,0.087566108,0.5240773,-0.84715712,0
0.12169003,-2.9667456,2.3934844,-0.087566108,-0.5240773,0.84715712,0
2.202975,-2.0712829,3.0331399,-0.087566108,-0.5240773,0.84715712,0
-2.89113,1.5119972,-1.4008455,-0.98117155,0.19233754,0.017567396,0
-2.8473084,0.10748005,-1.0279012,-0.99120164,-0.0388951,-0.12651694,0
0.69766968,1.2068789,-3.2988672,0.087566108,0.5240773,-0.84715712,0
2.8328309,2.5297055,-2.0799999,0.087566108,0.5240773,-0.84715712,0
2.6113124,0.95629811,-3.3583803,0.087566108,0.5240773,-0.84715712,0
-0.98418009,2.7980273,-2.5202813,0.087566108,0.5240773,-0.84715712,0
-0.20488936,0.091700077,-4.0673227,0.087566108,0.5240773,-0.84715712,0
1.3625467,-0.277174,4.1209126,-0.087566108,-0.5240773,0.84715712,0
-2.8907974,-2.1068945,2.5901403,-0.087566108,-0.5240773,0.84715712,0
-2.5219254,2.7988877,-2.3073735,-0.94208914,0.31993601,0.10054338,0
0.77758849,-1.4836373,3.3430469,-0.087566108,-0.5240773,0.84715712,0
-2.8480558,0.25749707,-0.75863242,-0.99602842,0.032309413,-0.082966566,0
-1.551752,2.1208324,-2.940109,0.087566108,0.5240773,-0.84715712,0
1.8291721,-1.0186017,-2.9974957,0.55328542,-0.73277485,-0.39612675,0
2.0982697,1.8218935,-2.9232242,0.087566108,0.5240773,-0.84715712,0
-3.0809605,-1.2284369,1.8715154,-0.99597812,0.029866785,-0.084472418,0
-0.24772745,-1.2024672,3.3865066,-0.087566108,-0.5240773,0.84715712,0
-2.2993448,1.7851545,0.52806878,-0.76559806,0.57949799,0.27935934,0
0.9265902,-2.4070485,2.609441,-0.087566108,-0.5240773,0.84715712,0
-2.1295087,-3.4004126,0.76407337,-0.57984239,-0.66469204,-0.47113407,0
1.9595389,-1.5165482,-1.6279788,0.65657151,-0.66992706,-0.34657109,0
-3.038265,-0.10029384,1.0259681,-0.99114203,0.13107702,-0.021360815,0
-0.063345432,2.4070392,-2.5019903,0.087566108,0.5240773,-0.84715712,0
-0.88561082,3.0725853,0.62855488,-0.32570899,0.8187443,0.47283345,0
-0.46317506,0.47443175,4.1476054,-0.087566108,-0.5240773,0.84715712,0
-1.6091219,2.7803798,-0.11673164,-0.62589061,0.69054735,0.3624987,0
-1.0543923,-2.2070518,-1.7974535,-0.32950479,-0.78731477,-0.52111608,0
-2.8138616,1.5864401,-3.3024352,-0.99097484,-0.040816724,-0.12768233,0
3.3608482,1.3253088,-3.1152458,0.98430657,-0.17631486,-0.0073311925,0
2.7209744,0.59007955,-3.607861,0.087566108,0.5240773,-0.84715712,0
-0.017591715,3.1177177,-2.0744436,0.087566108,0.5240773,-0.84715712,0
0.19242978,-3.7458265,0.083292246,0.078908622,-0.85140085,-0.51854628,0
0.29786682,1.0548015,-3.5615788,0.087566108,0.5240773,-0.84715712,0
-1.9609928,2.6518092,-2.8175516,0.087566108,0.5240773,-0.84715712,0
2.7817826,-0.62516189,0.27714562,0.98151994,-0.19064835,-0.016486406,0
-2.3625972,1.203109,1.9548647,-0.72868961,0.6135537,0.30424231,0
0.82591426,-1.232482,3.6853869,-0.087566108,-0.5240773,0.84715712,0
-1.1948022,-0.30947185,3.759069,-0.087566108,-0.5240773,0.84715712,0
-0.24411952,2.1892231,-2.7692406,0.087566108,0.5240773,-0.84715712,0
0.93258429,-1.5630531,3.1801798,-0.087566108,-0.5240773,0.84715712,0
-2.4368825,1.8322643,-0.1528641,-0.89740568,0.41066793,0.16129166,0
2.9470658,-0.12245023,0.3182888,0.99556005,-0.016560405,0.092661023,0
0.20578384,3.533474,-1.8807832,0.087566108,0.5240773,-0.84715712,0
-3.020891,-1.2748694,0.56520438,-0.94530451,-0.22453043,-0.23661244,0
2.8037114,-0.35237551,1.9641786,0.97850764,0.11412984,0.17174733,0
-0.79063678,0.41532993,-3.7564983,0.087566108,0.5240773,-0.84715712,0
-2.075449,-2.6840563,2.4680469,-0.087566108,-0.5240773,0.84715712,0
-3.0362492,-0.55869699,2.2650294,-0.97241032,0.22955665,0.041497886,0
-0.65297866,4.4755487,-1.4670929,-0.27346462,0.83039862,0.48544341,0
2.1160202,-2.962059,2.4980192,-0.087566108,-0.5240773,0.84715712,0
-2.1354034,2.8563244,-1.7226826,-0.84802544,0.48542371,0.21264207,0
0.59417105,-2.2898924,2.7948544,-0.087566108,-0.5240773,0.84715712,0
1.9220681,3.5109773,-1.2818971,0.55027306,0.68345046,0.47968215,0
-1.9511228,1.9690695,-3.0589623,0.087566108,0.5240773,-0.84715712,0
-1.1365438,2.4971924,-2.6826353,0.087566108,0.5240773,-0.84715712,0
2.8658102,2.0634267,-2.6779985,0.087566108,0.5240773,-0.84715712,0
1.3387388,-3.2980132,2.4217954,-0.087566108,-0.5240773,0.84715712,0
-1.1987026,-2.7246165,2.4919524,-0.087566108,-0.5240773,0.84715712,0
3.1218872,1.003979,-3.0063715,0.087566108,0.5240773,-0.84715712,0
1.6044062,-3.533715,2.3323801,-0.087566108,-0.5240773,0.84715712,0
2.2709069,-3.2117112,1.8587856,0.78650391,-0.55828059,-0.26407278,0
2.3265312,0.32541943,-3.5776772,0.087566108,0.5240773,-0.84715712,0
2.3728991,-1.004961,3.4592056,0.93673962,0.24599698,0.24900711,0
2.3816948,-1.4328408,3.51337,-0.087566108,-0.5240773,0.84715712,0
2.5619287,-2.6745157,1.4477046,0.87110162,-0.45282254,-0.19008875,0
-2.0313859,3.0860963,-2.2943213,0.087566108,0.5240773,-0.84715712,0
-1.3754332,2.7038496,-2.6654122,0.087566108,0.5240773,-0.84715712,0
-0.12248302,-3.233948,-0.49785399,0.017074049,-0.85108852,-0.52474457,0
-2.0337565,2.5044971,0.51592588,-0.65426749,0.67153913,0.34780642,0
-1.4561508,-1.4243126,-2.8514147,-0.51728529,-0.70285332,-0.48827571,0
-1.0692309,-0.290977,-4.5423493,-0.45779157,-0.73413146,-0.50147569,0
-2.3692863,-0.85440111,-2.20889,-0.82135475,-0.4432109,-0.35908282,0
-1.4401495,-3.2358518,2.1044292,-0.087566108,-0.5240773,0.84715712,0
2.0242915,-2.6940746,-0.074848056,0.65238422,-0.67284876,-0.34881133,0
1.0221385,1.450798,2.8493018,0.37822276,0.76925057,0.51497686,0
3.1238544,1.3723636,-2.488817,0.99410558,-0.10054475,0.040555418,0
-0.46163538,0.0032892227,3.9733231,-0.087566108,-0.5240773,0.84715712,0
3.054821,2.4774332,-2.1323359,0.087566108,0.5240773,-0.84715712,0
-2.9937449,-0.67572975,-0.062772036,-0.98649508,-0.072547168,-0.14684856,0
-1.0529315,1.9455018,-2.9265072,0.087566108,0.5240773,-0.84715712,0
2.704772,0.53732914,0.49980927,0.96055365,0.18091184,0.21120489,0
-2.7918086,-0.56733352,-0.16344523,-0.9652853,-0.16544056,-0.20212305,0
-1.1766815,4.0958986,-1.5480987,-0.52439797,0.74730253,0.40810007,0
1.1320779,-4.2081585,1.5445427,0.43496859,-0.78518522,-0.44077927,0
2.4347756,-1.7900591,3.284874,-0.087566108,-0.5240773,0.84715712,0
3.1621711,1.1810455,-2.9866667,0.087566108,0.5240773,-0.84715712,0
1.8164949,-3.1186552,2.2816777,-0.087566108,-0.5240773,0.84715712,0
-1.1170398,-1.211834,3.1563745,-0.087566108,-0.5240773,0.84715712,0
-2.8739312,-2.551008,2.3041644,-0.087566108,-0.5240773,0.84715712,0
1.4506402,-0.25257349,4.0246639,-0.087566108,-0.5240773,0.84715712,0
0.75093555,0.93915319,-3.2808785,0.087566108,0.5240773,-0.84715712,0
-2.1458626,2.7545433,-2.8682446,0.087566108,0.5240773,-0.84715712,0
-3.1277959,-0.60259593,1.7535636,-0.99027073,0.13812321,-0.016911805,0
2.4728293,0.40206003,2.8444879,0.8203001,0.44456917,0.35981423,0
1.2344828,3.7638292,-1.8020396,0.087566108,0.5240773,-0.84715712,0
3.1584888,2.6147475,-2.1959691,0.92648059,0.26962095,0.2625612,0
1.8750162,1.2377758,2.3255911,0.63173252,0.62832832,0.4540019,0
-1.0960374,2.8924892,0.74384785,-0.37117672,0.80634928,0.46046579,0
-1.5506487,2.0056973,1.5326335,-0.51457566,0.75197339,0.41200477,0
2.2039256,1.2499442,-2.9841943,0.087566108,0.5240773,-0.84715712,0
3.2062864,1.776639,-2.730319,0.087566108,0.5240773,-0.84715712,0
-2.2013495,-3.7568982,1.7283595,-0.087566108,-0.5240773,0.84715712,0
0.58782554,-0.13064528,3.8940036,-0.087566108,-0.5240773,0.84715712,0
0.51322937,-2.1412821,-2.0369201,0.091024339,-0.85107559,-0.5170927,0
-2.8737235,0.56827688,-1.6295571,-0.99191064,-0.032583088,-0.12268543,0
2.9827151,1.9868412,-2.5356855,0.087566108,0.5240773,-0.84715712,0
-2.5961614,2.665751,-2.097631,-0.92710125,0.35399711,0.12316394,0
-2.1807244,-3.2870584,0.79093552,-0.68507558,-0.5857076,-0.43314928,0
-1.6319027,-4.1884279,1.591995,-0.087566108,-0.5240773,0.84715712,0
-2.4581239,0.86030626,-3.4995284,-0.94148618,-0.23432192,-0.24227524,0
1.4809365,2.6920195,1.0116246,0.43712819,0.74395663,0.505418,0
-2.9424429,-0.89789939,3.0604122,-0.087566108,-0.5240773,0.84715712,0
2.7349863,-1.3858755,1.1728387,0.98085594,-0.19385096,-0.01853627,0
0.31046247,2.0124798,2.4183044,0.076602578,0.84436321,0.53026688,0
-2.8492556,0.63765705,-0.11423063,-0.9913305,0.12947339,-0.022372365,0
-2.7856302,1.0293484,1.2206142,-0.8894273,0.42411238,0.17043358,0
-2.2634122,2.0064058,-0.24843335,-0.81662363,0.5247941,0.24024364,0
2.4345365,0.42847228,-3.5595441,0.087566108,0.5240773,-0.84715712,0
1.2622207,-0.10208201,-3.9652615,0.087566108,0.5240773,-0.84715712,0
-1.8667998,-3.6017804,0.68985152,-0.49786037,-0.71357256,-0.492899,0
0.14259148,3.1207535,0.763273,0.079426408,0.84404314,0.53036082,0
0.86180854,3.2872591,-1.9375589,0.087566108,0.5240773,-0.84715712,0
-0.30592465,-0.49604559,-4.6891618,0.087566108,0.5240773,-0.84715712,0
1.2815323,3.9645033,-1.3761421,0.087566108,0.5240773,-0.84715712,0
-0.48126411,0.6632812,4.4746571,-0.087566108,-0.5240773,0.84715712,0
0.22529292,-1.4466364,3.3175058,-0.087566108,-0.5240773,0.84715712,0
2.1579661,0.044221401,3.2948709,0.84703767,0.40839934,0.34020215,0
1.7103364,2.1900356,-2.4864416,0.087566108,0.5240773,-0.84715712,0
1.0739522,1.353693,-3.2699566,0.087566108,0.5240773,-0.84715712,0
-1.5830909,2.1777258,1.8153641,-0.48668289,0.76452792,0.42265454,0
-2.9374866,-2.3171687,1.0397477,-0.85834157,-0.39189565,-0.33116078,0
2.8400769,-1.8808219,1.6917446,0.97266603,-0.22858381,-0.040869594,0
-0.019861221,4.0126057,-1.6187812,0.087566108,0.5240773,-0.84715712,0
-0.31788453,0.61875343,-3.7204332,0.087566108,0.5240773,-0.84715712,0
1.1957451,0.070183754,4.1221504,-0.087566108,-0.5240773,0.84715712,0
2.3229511,1.7978771,-2.5510049,0.087566108,0.5240773,-0.84715712,0
2.6793728,-1.7837372,3.0981107,-0.087566108,-0.5240773,0.84715712,0
1.1812692,2.8999388,-2.0628986,0.087566108,0.5240773,-0.84715712,0
-0.84160948,3.5376585,-2.263694,0.087566108,0.5240773,-0.84715712,0
1.3062708,2.2854846,1.23993,0.49010593,0.71771151,0.49465799,0
1.2033765,3.1166699,-1.9074818,0.087566108,0.5240773,-0.84715712,0
-0.37678456,2.7740166,-2.3867404,0.087566108,0.5240773,-0.84715712,0
-1.5022914,0.74486971,-4.0506668,0.087566108,0.5240773,-0.84715712,0
-1.7426281,-3.7541239,1.3650441,-0.47193033,-0.72710884,-0.49859273,0
-1.5600752,3.3589566,-2.3362327,0.087566108,0.5240773,-0.84715712,0
-0.67318279,-0.86326694,3.6935859,-0.087566108,-0.5240773,0.84715712,0
2.7026339,-0.23064137,2.5056725,0.91173828,0.30045193,0.28011036,0
2.3500552,0.91197014,-3.3630092,0.087566108,0.5240773,-0.84715712,0
2.6864767,-0.77950847,-1.2271353,0.91790354,-0.37285051,-0.13577789,0
3.1368933,1.5082972,-1.4163785,0.98250347,0.09489125,0.16025877,0
1.0815208,-1.3075557,3.3937526,-0.087566108,-0.5240773,0.84715712,0
2.6240025,-1.9497824,2.973268,-0.087566108,-0.5240773,0.84715712,0
0.85306168,-3.7946458,1.0647606,0.32484061,-0.81896019,-0.47305679,0
-0.87023252,-1.5051937,3.1239495,-0.087566108,-0.5240773,0.84715712,0
-2.18296,-1.6988113,-1.1613963,-0.7305246,-0.54438567,-0.41228414,0
-2.4024091,2.4842906,-2.826757,0.087566108,0.5240773,-0.84715712,0
1.1154902,4.0847807,-1.197961,0.28515697,0.8016488,0.52539963,0
-2.8863435,-1.3429091,-0.2867856,-0.91306943,-0.29779732,-0.2786057,0
-0.8967275,1.9433837,-3.1483426,0.087566108,0.5240773,-0.84715712,0
-1.5972221,-0.59838319,3.7940671,-0.087566108,-0.5240773,0.84715712,0
-2.2788823,-2.9105458,0.82095075,-0.67517084,-0.5940671,-0.43729705,0
2.7202425,-0.57554364,1.7511473,0.99300969,0.021644086,0.11603177,0
1.3974562,2.7761369,0.5162096,0.39551961,0.76222718,0.51241994,0
2.4385777,1.7554038,0.18147659,0.84045744,0.41765451,0.34524751,0
-2.5066979,2.1710012,-1.8547555,-0.96365511,0.26003182,0.061255753,0
-0.58445358,-3.4902303,2.1387117,-0.087566108,-0.5240773,0.84715712,0
-0.5299685,-1.1817348,-3.5212882,-0.18959397,-0.82611108,-0.53065491,0
-0.21037328,0.6824069,4.6051188,-0.087566108,-0.5240773,0.84715712,0
-1.3794161,2.3515532,-2.7888467,0.087566108,0.5240773,-0.84715712,0
2.0730417,3.5043159,-1.6535327,0.087566108,0.5240773,-0.84715712,0
-1.0314336,4.1376638,-1.3227501,-0.37395692,0.80552071,0.45966589,0
2.0885334,-1.5127945,3.4086547,-0.087566108,-0.5240773,0.84715712,0
-1.5185277,-1.3992677,-2.5056291,-0.57910746,-0.66517478,-0.47135675,0
-1.5674462,-1.8942664,-1.8482587,-0.56933504,-0.67151207,-0.47426707,0
2.8379283,2.2292957,-1.2616222,0.93317807,0.25443146,0.25385678,0
-2.0930831,-1.9876559,2.6702204,-0.087566108,-0.5240773,0.84715712,0
-2.2637625,0.56717014,3.4008145,-0.68213212,0.65130615,0.33240956,0
1.6517372,0.59963417,-3.7606874,0.087566108,0.5240773,-0.84715712,0
-0.18904734,2.7660537,1.6082352,-0.025305271,0.85131961,0.52403677,0
1.8760318,-0.80972147,3.9564533,-0.087566108,-0.5240773,0.84715712,0
-1.4577174,-3.0771506,2.0073795,-0.087566108,-0.5240773,0.84715712,0
-1.7881413,0.75081396,-3.7823815,0.087566108,0.5240773,-0.84715712,0
0.72079372,-3.8669329,1.9632301,-0.087566108,-0.5240773,0.84715712,0
-2.2429264,-1.4264996,3.1817873,-0.087566108,-0.5240773,0.84715712,0
-2.1088707,1.515707,-3.2344189,0.087566108,0.5240773,-0.84715712,0
1.8082736,3.5968363,-0.72049546,0.51284599,0.70534801,0.48936003,0
-1.4661226,0.047474861,4.2065449,-0.087566108,-0.5240773,0.84715712,0
0.16030397,-0.47973108,3.9143643,-0.087566108,-0.5240773,0.84715712,0
-1.1476717,-2.430222,-1.5854993,-0.41973734,-0.75183439,-0.50849384,0
-1.6798526,0.1738925,-4.1097898,0.087566108,0.5240773,-0.84715712,0
0.42143369,3.3405986,0.34762597,0.035892248,0.84821177,0.52843976,0
-2.2508061,0.8791641,3.0337119,-0.69584316,0.64072984,0.32444954,0
-1.9162087,2.9562056,-0.69542724,-0.73537576,0.60767817,0.29991642,0
-0.055906773,2.3167939,2.1916404,-0.041687727,0.85160673,0.52252102,0
1.5165635,0.49233079,-3.6003432,0.087566108,0.5240773,-0.84715712,0
0.7375617,4.0936427,-1.2364717,0.20224869,0.82335865,0.53026026,0
-1.7375453,0.66198063,-3.8653121,0.087566108,0.5240773,-0.84715712,0
0.45905936,-0.56122923,3.8647616,-0.087566108,-0.5240773,0.84715712,0
-1.7266688,-0.51462436,-3.5349784,-0.68113613,-0.58905834,-0.43481493,0
-1.5451481,-0.26087475,-4.0510778,-0.59138501,-0.65699708,-0.46756691,0
0.40174639,-0.12060452,-4.3360767,0.087566108,0.5240773,-0.84715712,0
-0.67685533,-3.5749414,1.7886242,-0.087566108,-0.5240773,0.84715712,0
-0.99396777,3.3707492,-2.0032668,0.087566108,0.5240773,-0.84715712,0
2.699383,-1.4229977,-0.53786981,0.86518723,-0.46152234,-0.19608206,0
-0.76759553,-3.2702174,2.1858783,-0.087566108,-0.5240773,0.84715712,0
0.09357655,-0.41889381,-4.437613,0.087566108,0.5240773,-0.84715712,0
-2.1729691,-0.89075112,-2.208729,-0.76320034,-0.51124674,-0.39516085,0
-0.31193542,-2.6652708,2.366992,-0.087566108,-0.5240773,0.84715712,0
1.6626583,-0.77919412,-3.9445622,0.47308928,-0.77027905,-0.42761746,0
-0.39175153,3.8343244,-1.707485,0.087566108,0.5240773,-0.84715712,0
0.43844402,0.85248017,-3.5206394,0.087566108,0.5240773,-0.84715712,0
0.18318272,4.2662449,-1.4247606,0.022487521,0.84916723,0.52764523,0
-0.34465927,-1.1565542,3.5078785,-0.087566108,-0.5240773,0.84715712,0
2.5018225,-1.8345367,-0.82093382,0.78209841,-0.56287968,-0.26737326,0
1.2002779,1.8925745,-2.813684,0.087566108,0.5240773,-0.84715712,0
1.2275708,3.0529709,-2.136512,0.087566108,0.5240773,-0.84715712,0
-1.0392773,-0.10472822,4.0247097,-0.087566108,-0.5240773,0.84715712,0
2.7910452,2.3609247,-2.2265666,0.087566108,0.5240773,-0.84715712,0
-0.55625916,1.274797,3.605562,-0.073808372,0.85149968,0.51913452,0
2.6594961,0.35531545,-3.6536565,0.087566108,0.5240773,-0.84715712,0
0.16371989,-2.9990969,2.4738169,-0.087566108,-0.5240773,0.84715712,0
-1.205071,-3.9267058,1.6925656,-0.087566108,-0.5240773,0.84715712,0
-1.2331675,2.3391569,-2.8104644,0.087566108,0.5240773,-0.84715712,0
1.3582895,-2.096844,2.7600338,-0.087566108,-0.5240773,0.84715712,0
1.099591,3.1096587,-2.2884319,0.087566108,0.5240773,-0.84715712,0
0.041105032,3.0063369,-2.4348679,0.087566108,0.5240773,-0.84715712,0
-1.6783342,3.1163797,-2.5933437,0.087566108,0.5240773,-0.84715712,0
-1.4877518,1.8301482,-3.3444157,0.087566108,0.5240773,-0.84715712,0
-2.4789827,-0.32072449,-1.6589246,-0.905545,-0.31250727,-0.28692794,0
1.4727283,0.95016432,3.0757046,0.54087007,0.68914002,0.48223001,0
2.6442723,0.5380733,1.2520688,0.9126389,0.29865843,0.27909386,0
-2.4614534,-3.2273288,1.533608,-0.72717083,-0.54761392,-0.41393447,0
0.087839067,0.13807726,-3.9736729,0.087566108,0.5240773,-0.84715712,0
0.24403787,-3.4485579,2.2141604,-0.087566108,-0.5240773,0.84715712,0
-2.7824862,2.090745,-1.0247886,-0.92980969,0.34817499,0.11928225,0
-1.6708543,-1.1642617,-2.6300607,-0.59418881,-0.65509498,-0.46667987,0
-0.76770258,-0.76358199,3.7048323,-0.087566108,-0.5240773,0.84715712,0
0.72664344,1.918731,-2.7607892,0.087566108,0.5240773,-0.84715712,0
-0.72622567,-0.234828,3.8445535,-0.087566108,-0.5240773,0.84715712,0
1.5931292,0.30403066,-3.6191761,0.087566108,0.5240773,-0.84715712,0
2.8405838,-1.3080626,1.7791629,0.99613839,-0.040640026,0.077824354,0
-0.26991105,-3.3806028,2.1991546,-0.087566108,-0.5240773,0.84715712,0
-2.5727019,0.042966366,-3.0268404,-0.87166715,-0.371355,-0.31983119,0
2.3510599,2.5664504,-2.4403582,0.087566108,0.5240773,-0.84715712,0
-0.30919266,-3.5938494,2.0012109,-0.087566108,-0.5240773,0.84715712,0
-1.2505472,0.53429461,-3.7280838,0.087566108,0.5240773,-0.84715712,0
0.79165685,2.0746965,-2.6065094,0.087566108,0.5240773,-0.84715712,0
1.5755438,1.5848458,-3.2228978,0.087566108,0.5240773,-0.84715712,0
1.5531683,3.6090145,-0.47917652,0.39617997,0.76195252,0.51231819,0
-0.54223013,-4.2660007,0.90590978,-0.15004522,-0.83378243,-0.53131282,0
0.27441818,1.4176118,-3.3104286,0.087566108,0.5240773,-0.84715712,0
2.5144253,-0.96155834,3.8057039,-0.087566108,-0.5240773,0.84715712,0
-1.3910184,1.268121,3.301218,-0.45503217,0.77756023,0.43398833,0
-2.5848062,0.52972317,-3.1265957,-0.88512588,-0.3492417,-0.30754232,0
0.80660713,1.1134529,-3.4596331,0.087566108,0.5240773,-0.84715712,0
1.1426736,0.42471647,4.3186827,0.53517926,0.69252104,0.4837333,0
-0.50501108,-2.5622716,2.7084572,-0.087566108,-0.5240773,0.84715712,0
-0.91875124,4.3288546,-1.3861177,-0.39054513,0.80040294,0.45478517,0
2.6755662,1.311491,-2.9405222,0.087566108,0.5240773,-0.84715712,0
1.2620647,1.1178591,3.2583985,0.41677874,0.75313962,0.50899547,0
-0.42591763,-4.0535088,1.2163811,0.0080525875,-0.85076845,-0.52547908,0
0.19427967,-3.5994935,0.14080369,0.14028567,-0.84843647,-0.51036817,0
3.1202657,2.1525736,-1.7202513,0.9597165,0.18353572,0.21274161,0
-1.7084874,-0.28023815,3.6313934,-0.087566108,-0.5240773,0.84715712,0
1.194201,-1.9598547,-2.5134652,0.33797616,-0.81561148,-0.46962744,0
1.1106317,-2.6666913,-0.97240812,0.41139215,-0.79354095,-0.4483853,0
-2.0607882,1.3378305,-3.3135226,0.087566108,0.5240773,-0.84715712,0
0.85445994,0.026647091,4.0007071,-0.087566108,-0.5240773,0.84715712,0
3.2068408,1.4164386,-2.5222631,0.99598658,-0.06186676,0.064677238,0
-2.9188666,-0.20807147,3.4991961,-0.82364517,0.51642382,0.23433974,0
2.9923048,2.3056884,-1.3839011,0.89798546,0.32660919,0.29487044,0
-1.6458027,-0.51131392,-3.4446533,-0.62435031,-0.63378847,-0.45661676,0
-2.9118593,-2.4943306,2.1676235,-0.087566108,-0.5240773,0.84715712,0
-0.74492812,1.4276505,-3.4421449,0.087566108,0.5240773,-0.84715712,0
-2.4658959,0.7269457,2.0506442,-0.82556808,0.51409054,0.23269758,0
2.1573858,2.3162322,0.044286013,0.70697582,0.56643045,0.4234876,0
-3.0314319,-0.71171165,3.3408034,-0.087566108,-0.5240773,0.84715712,0
1.5385311,-2.0177464,-1.5816021,0.49604446,-0.76042891,-0.41915116,0
0.69407535,-2.4058175,-1.6767414,0.2878564,-0.82745636,-0.48213559,0
1.1035386,2.0345004,-2.559746,0.087566108,0.5240773,-0.84715712,0
-0.086344898,0.080924511,-4.3143153,0.087566108,0.5240773,-0.84715712,0
-2.0823629,1.9815888,1.1723586,-0.6714232,0.65927583,0.33844674,0
-2.7138748,2.2566268,-1.7003925,-0.91405022,0.38036823,0.14082688,0
-1.879792,1.3110008,-3.5180984,0.087566108,0.5240773,-0.84715712,0
1.4760473,3.7866931,-1.7611603,0.087566108,0.5240773,-0.84715712,0
0.46143818,4.0787868,-1.5588084,0.087566108,0.5240773,-0.84715712,0
2.2701628,-2.2814465,0.24801493,0.83787572,-0.49871647,-0.22191459,0
0.60893065,-0.22708464,-4.2463503,0.087566108,0.5240773,-0.84715712,0
-0.76792395,1.8703532,2.3458843,-0.25065619,0.83465362,0.49043331,0
1.9322784,2.4314685,0.65048051,0.65899247,0.60727024,0.44379252,0
1.2469027,-2.9526014,-0.12271762,0.40933836,-0.79423857,-0.44902915,0
2.7357259,2.6551051,-0.65177727,0.81124312,0.45602176,0.36596286,0
1.4701962,-0.22463489,-3.9910474,0.087566108,0.5240773,-0.84715712,0
-2.4224904,-3.6527741,1.7745264,-0.087566108,-0.5240773,0.84715712,0
1.0638905,3.3871865,-1.8601797,0.087566108,0.5240773,-0.84715712,0
-0.056758285,-1.1778371,-3.6108136,-0.071780264,-0.84489363,-0.53009665,0
-0.51845717,3.8007262,-1.7023704,0.087566108,0.5240773,-0.84715712,0
-1.3094611,-2.9393437,-0.6172576,-0.46097887,-0.73256999,-0.50083917,0
0.32483387,2.4082527,2.0269306,0.12884474,0.83732176,0.53131086,0
-2.8206761,2.2355957,-2.3361492,-0.97923505,0.20137805,0.023360252,0
0.89087057,-0.98202372,3.7047274,-0.087566108,-0.5240773,0.84715712,0
-2.0555937,-0.75409603,3.2826986,-0.087566108,-0.5240773,0.84715712,0
1.2321343,-2.3173184,2.717665,-0.087566108,-0.5240773,0.84715712,0
-0.15689677,0.39579296,-3.8979933,0.087566108,0.5240773,-0.84715712,0
-2.4132915,3.3152721,-2.0614564,-0.85567266,0.47500739,0.20540774,0
0.9962945,0.36581659,-3.6959515,0.087566108,0.5240773,-0.84715712,0
1.3311918,-0.46878386,-4.1453786,0.087566108,0.5240773,-0.84715712,0
-1.8118075,2.6674056,-2.7458005,0.087566108,0.5240773,-0.84715712,0
0.82960367,-3.8061526,1.7987863,-0.087566108,-0.5240773,0.84715712,0
1.8926953,0.18067431,-3.7725163,0.087566108,0.5240773,-0.84715712,0
2.1084547,2.4985635,-2.4834754,0.087566108,0.5240773,-0.84715712,0
-0.33748341,-4.0907564,1.3841531,-0.087566108,-0.5240773,0.84715712,0
0.78098547,-2.4265819,2.5418568,-0.087566108,-0.5240773,0.84715712,0
2.0883327,0.50676465,2.5550153,0.77838004,0.49471313,0.38650173,0
1.2816145,-2.9093499,2.2467279,-0.087566108,-0.5240773,0.84715712,0
1.4606676,-3.6496408,0.76750058,0.50535315,-0.75623894,-0.4155969,0
-0.58478904,-1.5884907,-3.0904479,-0.24295342,-0.8135078,-0.5283736,0
-1.4568917,1.9735632,-3.11973,0.087566108,0.5240773,-0.84715712,0
-2.3827851,1.7573799,-0.24066925,-0.8853817,0.43069759,0.17492557,0
2.5869467,-2.4620748,2.2870817,0.96197599,-0.26535508,-0.064722478,0
-3.2008867,-2.4281042,2.1959071,-0.087566108,-0.5240773,0.84715712,0
-0.67221177,-1.3426185,3.1288514,-0.087566108,-0.5240773,0.84715712,0
-0.53381419,0.8041935,-3.7684832,0.087566108,0.5240773,-0.84715712,0
-1.931684,2.9772844,-2.6604114,0.087566108,0.5240773,-0.84715712,0
-1.4370255,-0.97751141,3.3242157,-0.087566108,-0.5240773,0.84715712,0
0.43191648,-2.3112109,2.7342987,-0.087566108,-0.5240773,0.84715712,0
-0.36493337,1.3768165,-3.1722085,0.087566108,0.5240773,-0.84715712,0
2.939373,2.3798461,-1.1205151,0.85106516,0.40260974,0.33703679,0
2.6549973,2.9795992,-0.93603826,0.78321069,0.48928463,0.38364279,0
-1.302438,-1.3635402,3.0744004,-0.087566108,-0.5240773,0.84715712,0
0.34699011,2.0921762,-2.9036839,0.087566108,0.5240773,-0.84715712,0
2.8188939,-0.54386318,0.88982844,0.99433869,0.0054008365,0.10612071,0
2.141603,1.8621178,-2.9401665,0.087566108,0.5240773,-0.84715712,0
1.4883063,2.88796,0.49594498,0.46791327,0.72912931,0.49942744,0
2.6415,-1.5266378,0.38340926,0.90961301,-0.38877484,-0.14648616,0
-2.1171699,-2.830075,0.3093617,-0.67009079,-0.59827209,-0.43937314,0
0.72479439,2.0248337,2.0981071,0.2729246,0.80526173,0.52637041,0
-1.9274776,-0.94195056,3.1569226,-0.087566108,-0.5240773,0.84715712,0
3.0290649,-0.30990279,0.70792818,0.9961139,-0.037995785,0.07945776,0
1.8999691,2.168762,1.1167877,0.56069201,0.67699343,0.47676462,0
-2.5849416,-0.53746152,-1.6808891,-0.8589313,-0.39101246,-0.33067548,0
-3.1887658,-0.45061713,1.7168585,-0.98430157,0.17634201,0.0073485374,0
2.2211571,-2.864819,2.6582561,-0.087566108,-0.5240773,0.84715712,0
0.78759015,-2.8642774,2.5123801,-0.087566108,-0.5240773,0.84715712,0
3.0983663,1.6367006,-2.6595538,0.087566108,0.5240773,-0.84715712,0
-1.4407672,0.016051292,3.9775934,-0.087566108,-0.5240773,0.84715712,0
-3.2060046,0.028680861,0.1703279,-0.99538529,0.079536796,-0.053683758,0
0.88274729,0.058404446,-3.8756261,0.087566108,0.5240773,-0.84715712,0
2.0487866,-0.60578656,-3.9908199,0.52980435,-0.7446745,-0.40591538,0
2.1104472,-1.9535079,3.0767007,-0.087566108,-0.5240773,0.84715712,0
-1.7560338,0.15990877,4.0954938,-0.087566108,-0.5240773,0.84715712,0
0.89368802,-1.9191439,3.0117595,-0.087566108,-0.5240773,0.84715712,0
-1.1411059,2.252619,-2.8947351,0.087566108,0.5240773,-0.84715712,0
-1.235427,-0.67430615,3.5754907,-0.087566108,-0.5240773,0.84715712,0
-2.3494458,-0.47046423,-2.1892555,-0.83260131,-0.4283917,-0.3510778,0
3.1277692,-0.19601959,-0.35799718,0.9943248,-0.097561985,0.042423248,0
-1.262774,-0.53922868,3.8732924,-0.087566108,-0.5240773,0.84715712,0
-0.56590652,3.2122231,-2.4221332,0.087566108,0.5240773,-0.84715712,0
0.89915556,-0.65039825,3.8788805,-0.087566108,-0.5240773,0.84715712,0
-2.8228645,-1.6419922,-0.01466465,-0.90259874,-0.31807965,-0.29007065,0
-2.6979716,-0.88764405,-0.14304686,-0.94241744,-0.23196819,-0.2409153,0
1.8428062,-2.0324655,-1.0382223,0.62876594,-0.6886903,-0.36105269,0
0.9422226,3.1304989,0.12520099,0.30162907,0.7965529,0.52394986,0
1.0331745,3.8849988,-1.7931738,0.087566108,0.5240773,-0.84715712,0
0.97168982,-0.915025,-4.4379177,0.21613038,-0.84016156,-0.49740946,0
-0.5094049,3.1747141,-2.0446744,0.087566108,0.5240773,-0.84715712,0
0.82753175,-0.88874865,3.63376,-0.087566108,-0.5240773,0.84715712,0
-3.0029831,-0.58331382,2.5425744,-0.95862108,0.27558675,0.071398795,0
-2.7129827,0.32194805,-2.872246,-0.92082846,-0.28183052,-0.26953006,0
1.8964545,-2.3155556,-1.0468802,0.57769912,-0.71952987,-0.3854095,0
1.2690938,0.19148183,-3.7262487,0.087566108,0.5240773,-0.84715712,0
-2.5731263,0.15851855,3.7823148,-0.69494796,0.6414336,0.32497734,0
0.30804205,-2.4584489,2.6483145,-0.087566108,-0.5240773,0.84715712,0
1.0037277,0.11253405,4.3070087,-0.087566108,-0.5240773,0.84715712,0
-2.9336603,-2.7481978,2.155766,-0.087566108,-0.5240773,0.84715712,0
3.0554495,0.10991231,-1.0818534,0.98548949,-0.16970846,-0.0031220913,0
0.47936547,-0.84068251,3.7970436,-0.087566108,-0.5240773,0.84715712,0
0.77411914,-3.5801187,0.53520954,0.29591799,-0.82571995,-0.48022816,0
-2.5315294,-3.3949747,1.7119331,-0.087566108,-0.5240773,0.84715712,0
-0.98115075,2.5252278,-2.737133,0.087566108,0.5240773,-0.84715712,0
2.8063309,1.1532778,0.65605092,0.89558768,0.33095258,0.29730952,0
-0.9496026,3.6250801,-0.2455107,-0.35001564,0.81238627,0.46638775,0
-2.6575623,1.948878,-1.1204693,-0.92149878,0.36564076,0.13094616,0
0.84815431,3.4097977,0.0067595243,0.18786508,0.82647586,0.53070188,0
2.4794431,2.9938197,-1.9261954,0.087566108,0.5240773,-0.84715712,0
-0.4901309,1.6173418,-3.1292534,0.087566108,0.5240773,-0.84715712,0
-0.37226653,-3.4055569,-0.20359325,-0.054099381,-0.84666699,-0.52936614,0
2.0495396,-3.0966668,1.3549824,0.76539409,-0.57969773,-0.27950403,0
1.8104475,3.1732275,-0.61028218,0.5586285,0.67828524,0.47735041,0
-2.2435224,-0.66254926,3.2813513,-0.087566108,-0.5240773,0.84715712,0
0.099051714,-2.3883889,2.6727138,-0.087566108,-0.5240773,0.84715712,0
-2.8296993,0.91927361,-2.2538283,-0.99085504,-0.04181537,-0.12828767,0
-1.1685238,-1.0785754,3.3825705,-0.087566108,-0.5240773,0.84715712,0
-1.9769211,2.7485201,-2.5526884,0.087566108,0.5240773,-0.84715712,0
2.3885574,-3.0131373,2.3571544,-0.087566108,-0.5240773,0.84715712,0
2.4366159,-1.4180489,3.4701684,-0.087566108,-0.5240773,0.84715712,0
1.0894458,-0.77887344,-4.3405595,0.22215885,-0.83927977,-0.49624079,0
0.55124044,3.7548347,-0.20369005,0.16493577,0.83105844,0.53116673,0
-2.0699918,-1.1564612,3.0971284,-0.087566108,-0.5240773,0.84715712,0
1.9820365,-1.2828479,3.6281154,-0.087566108,-0.5240773,0.84715712,0
1.7939855,0.30175066,3.9539227,0.68057674,0.5895313,0.43504971,0
-2.793731,0.96722525,1.0452106,-0.87838364,0.44174805,0.18248498,0
-0.3835597,-3.0326865,2.4178357,-0.087566108,-0.5240773,0.84715712,0
-3.0026715,1.0467143,-1.181535,-0.99299496,0.11364612,-0.032335758,0
0.31558037,-1.9687918,-2.3418221,0.096029162,-0.85090411,-0.51646936,0
-1.3900621,3.7922657,-1.1341732,-0.50705516,0.75546038,0.41493934,0
2.0427716,2.4157259,0.77431703,0.60165977,0.64996314,0.46427745,0
0.64967704,3.8608115,-1.8031414,0.087566108,0.5240773,-0.84715712,0
1.3111112,-0.9811635,3.8201315,-0.087566108,-0.5240773,0.84715712,0
-1.5621254,0.79336071,-3.635807,0.087566108,0.5240773,-0.84715712,0
-2.2178938,-1.6715899,2.6926188,-0.087566108,-0.5240773,0.84715712,0
-2.8556466,-0.62112671,0.12611127,-0.98078191,-0.10348904,-0.16539979,0
1.0474926,2.3291466,-2.6762726,0.087566108,0.5240773,-0.84715712,0
-1.5822935,0.49234295,-4.1789632,0.087566108,0.5240773,-0.84715712,0
-1.1146441,-3.1900334,0.0041980743,-0.31977296,-0.79062879,-0.52216035,0
-1.9208853,-0.41401505,-3.4296665,-0.7485128,-0.52653456,-0.40310019,0
-2.1884105,1.0191613,2.7929177,-0.62363529,0.69199342,0.36362642,0
-1.5972855,0.85783386,-3.8706956,0.087566108,0.5240773,-0.84715712,0
-1.0309885,2.2586639,-2.9148047,0.087566108,0.5240773,-0.84715712,0
-1.9265304,-2.7615566,2.3474953,-0.087566108,-0.5240773,0.84715712,0
0.19828701,-3.3168945,2.1729209,-0.087566108,-0.5240773,0.84715712,0
-1.0504646,-2.5221879,2.6075664,-0.087566108,-0.5240773,0.84715712,0
-2.3060632,0.3192687,-3.4454103,-0.88454849,-0.3502219,-0.30808914,0
-1.885222,-3.663749,1.4767834,-0.57690156,-0.66661835,-0.47202182,0
1.9870839,0.96667266,2.4642498,0.74528641,0.52980518,0.40478992,0
3.1062231,0.25553566,-0.55475688,0.99601191,-0.060660124,0.06542623,0
-3.1483092,-0.58956277,0.4868834,-0.99599588,0.030684114,-0.083968759,0
1.1245964,-3.3581591,0.43010342,0.48819134,-0.76387513,-0.42209482,0
-0.19312507,1.2111762,-3.3876128,0.087566108,0.5240773,-0.84715712,0
3.1642544,0.79603684,-1.8702632,0.99473512,-0.091451854,0.046245515,0
-0.22131872,-1.6411046,-3.2315476,-0.072795272,-0.84478366,-0.53013349,0
-0.77914524,2.6261373,1.0240734,-0.22243994,0.83923781,0.49618575,0
0.68177772,3.7523425,-1.7839551,0.087566108,0.5240773,-0.84715712,0
-2.722599,0.66066259,0.74131346,-0.9463383,0.30934146,0.093550205,0
-0.034219503,2.753756,-2.3498068,0.087566108,0.5240773,-0.84715712,0
-0.4860909,2.9750292,1.077013,-0.16499829,0.84630764,0.50649685,0
1.8286438,-2.0243392,3.2684164,-0.087566108,-0.5240773,0.84715712,0
1.3129003,-2.1916869,-1.9794621,0.41318059,-0.79292947,-0.44782218,0
-2.910624,-0.65482485,-0.51082182,-0.97079569,-0.14578408,-0.19053257,0
0.69929892,-0.58364463,-4.3440471,0.087566108,0.5240773,-0.84715712,0
-3.4663653,-1.4311278,2.7642479,-0.99561787,0.074062705,-0.057094216,0
3.1309593,0.98416805,-2.7821622,0.97988987,-0.19838428,-0.021440566,0
-2.2612393,1.7857633,-3.1985638,0.087566108,0.5240773,-0.84715712,0
2.9606953,1.2189379,-0.5123899,0.97046411,0.14702553,0.19126618,0
0.44787979,3.0336971,-2.071044,0.087566108,0.5240773,-0.84715712,0
-2.266165,2.3476663,-3.0305195,0.087566108,0.5240773,-0.84715712,0
-0.35086185,1.1985483,-3.4833353,0.087566108,0.5240773,-0.84715712,0
0.35778713,-3.3111389,2.3043995,-0.087566108,-0.5240773,0.84715712,0
-0.60193133,-3.4984472,1.7830701,-0.087566108,-0.5240773,0.84715712,0
-2.6187816,-2.4014664,2.2914538,-0.087566108,-0.5240773,0.84715712,0
0.37689853,-3.1832631,2.4076548,-0.087566108,-0.5240773,0.84715712,0
2.3450556,-1.9624772,3.1026855,-0.087566108,-0.5240773,0.84715712,0
2.0030787,-1.0385075,3.6622186,-0.087566108,-0.5240773,0.84715712,0
-2.5179424,1.8364873,-0.74513817,-0.90906274,0.38979977,0.1471771,0
2.7778573,-2.0245447,3.0681429,0.99610591,-0.054823577,0.069046617,0
-0.65932512,-3.573534,0.26268768,-0.21163058,-0.82122391,-0.52990937,0
0.69210863,-2.3932037,2.9098504,-0.087566108,-0.5240773,0.84715712,0
1.7073677,0.80332994,-3.6767344,0.087566108,0.5240773,-0.84715712,0
2.2162025,3.7408402,-1.7479496,0.087566108,0.5240773,-0.84715712,0
2.3896327,2.2741623,0.34917927,0.71430027,0.55972636,0.42009729,0
-1.5851412,3.7925267,-1.7879684,-0.68288881,0.65073353,0.33197707,0
0.33258021,-0.45000601,3.7632852,-0.087566108,-0.5240773,0.84715712,0
-0.90595055,-1.5685623,-2.5071514,-0.39143133,-0.76391679,-0.51304245,0
-2.9386392,-1.7098926,0.66995478,-0.94712442,-0.219726,-0.23382843,0
1.2626586,1.3564531,3.0103552,0.5067957,0.70870471,0.49081129,0
-1.8680714,-0.59351349,-3.2118363,-0.62386394,-0.63414478,-0.45678687,0
-1.8855104,-3.4016719,1.8602421,-0.087566108,-0.5240773,0.84715712,0
1.9450005,1.2669845,2.5022373,0.63836038,0.62333977,0.45160109,0
1.6059365,1.5038614,-2.9265351,0.087566108,0.5240773,-0.84715712,0
-0.13009691,-1.5642567,3.3244252,-0.087566108,-0.5240773,0.84715712,0
-2.9511514,-1.9047532,0.79956961,-0.92652082,-0.26953197,-0.2625103,0
1.0337021,-4.0996761,1.0691376,0.37937528,-0.803882,-0.45809203,0
-0.12184462,0.48118544,-3.924319,0.087566108,0.5240773,-0.84715712,0
-2.3350525,1.2955842,-3.352227,0.087566108,0.5240773,-0.84715712,0
-1.7218764,-3.516324,1.9224601,-0.087566108,-0.5240773,0.84715712,0
1.2834874,-2.1977396,-1.7503312,0.47834361,-0.76808399,-0.4257164,0
-0.59889328,-0.060852289,3.8469572,-0.087566108,-0.5240773,0.84715712,0
-0.68829536,-0.87435937,-3.6609931,-0.35828954,-0.77694333,-0.5176754,0
-2.712883,-1.4828823,0.33794856,-0.90667033,-0.31035206,-0.28571093,0
1.846604,-0.2242136,4.1477695,-0.087566108,-0.5240773,0.84715712,0
0.58128619,1.1956182,-3.4623175,0.087566108,0.5240773,-0.84715712,0
-3.1201286,-0.4387331,2.9639907,-0.92218614,0.36423969,0.13000834,0
2.8381925,-0.48522675,-2.080838,0.88509536,-0.43115795,-0.17523992,0
0.96037769,3.6603322,-1.6998866,0.087566108,0.5240773,-0.84715712,0
-2.8465791,-0.95815444,3.326674,-0.087566108,-0.5240773,0.84715712,0
-0.43794712,-0.92767477,3.6203952,-0.087566108,-0.5240773,0.84715712,0
-1.911824,1.254072,2.0149267,-0.63859731,0.68222523,0.35603699,0
0.71376181,2.140697,-2.8284647,0.087566108,0.5240773,-0.84715712,0
0.19473124,1.1319182,-3.2873878,0.087566108,0.5240773,-0.84715712,0
0.89596438,-2.4158938,-1.4684343,0.34269041,-0.81436658,-0.46836999,0
3.3198736,0.46663785,-1.8699901,0.98155695,-0.19046745,-0.016370654,0
-1.5018383,-0.84260535,-3.3301747,-0.54143697,-0.68880063,-0.48207873,0
2.6967981,-1.8248892,2.638557,0.99475265,-0.091173679,0.046419501,0
1.3014461,-2.5526006,2.5959077,-0.087566108,-0.5240773,0.84715712,0
0.85436165,-1.0536511,-3.5278845,0.26009744,-0.83295256,-0.48840505,0
-2.7551374,-3.1475539,1.7522321,-0.79022413,-0.48125154,-0.37939817,0
0.38114929,-4.2625237,1.6094571,-0.087566108,-0.5240773,0.84715712,0
1.3417356,-3.3626051,0.33975533,0.52557319,-0.74673474,-0.40762728,0
2.8264818,-0.61359519,-1.5009201,0.91824925,-0.37216568,-0.13531858,0
1.8832208,-2.1857915,-1.1568314,0.56291902,-0.7276575,-0.39196527,0
-0.14137518,-1.1566553,-3.907022,-0.15260643,-0.83332801,-0.53129637,0
-2.6760082,-1.4040399,-0.90679145,-0.85874856,-0.39128649,-0.3308261,0
1.7035811,4.152359,-1.5205361,0.42990226,0.74727267,0.50672251,0
2.8497939,0.5622564,-0.039993525,0.98463279,0.083457202,0.15340543,0
0.72430789,-0.35082102,4.1976161,-0.087566108,-0.5240773,0.84715712,0
2.4008651,-0.60312879,-2.6569052,0.73626876,-0.60688394,-0.2993328,0
1.4490079,-0.56581926,4.1035604,-0.087566108,-0.5240773,0.84715712,0
-0.17118335,2.8073511,-2.6252174,0.087566108,0.5240773,-0.84715712,0
3.2320282,1.565865,-2.1829882,0.99215257,0.030310035,0.12130427,0
