3.5935922,0.43347931,-3.428966,0.45356447,0.30747366,-0.8365041,0
4.1404366,-0.30844831,-3.3073499,0.45356447,0.30747366,-0.8365041,0
-0.77289712,-1.984746,4.1644287,-0.45356447,-0.30747366,0.8365041,0
-0.99270588,2.9521408,-1.3892803,-0.60074294,0.79879677,-0.032117784,0
0.71387041,3.8090596,-3.817378,0.45356447,0.30747366,-0.8365041,0
0.35882193,-2.605926,4.5047798,-0.45356447,-0.30747366,0.8365041,0
-0.84664905,-0.61209202,-4.0284915,-0.67649925,-0.49226111,-0.54774785,0
-1.713501,-2.0953343,3.6257062,-0.45356447,-0.30747366,0.8365041,0
0.74659121,2.2987185,-4.2858024,0.45356447,0.30747366,-0.8365041,0
3.7205956,0.71087646,-3.2933064,0.45356447,0.30747366,-0.8365041,0
-2.2079062,1.5053916,4.8222036,-0.45356447,-0.30747366,0.8365041,0
0.26087368,-2.8711216,4.3250098,-0.45356447,-0.30747366,0.8365041,0
-2.517364,-1.3006568,-1.0836308,-0.75852317,-0.35958332,-0.54345417,0
2.748404,-1.6328138,-1.0363884,0.70208097,-0.7014187,0.12285793,0
1.6886529,3.3154724,-3.1932988,0.45356447,0.30747366,-0.8365041,0
0.90435439,-0.43858671,-4.8170176,0.45356447,0.30747366,-0.8365041,0
-4.2984715,-2.1159544,2.2308135,-0.45356447,-0.30747366,0.8365041,0
-2.2916803,0.38007784,4.0691075,-0.45356447,-0.30747366,0.8365041,0
2.2620296,-0.62525845,-4.1649542,0.45356447,0.30747366,-0.8365041,0
-1.3573129,0.040698528,4.725841,-0.45356447,-0.30747366,0.8365041,0
0.027685642,1.8026066,-4.8904433,0.45356447,0.30747366,-0.8365041,0
3.4725578,3.0499701,-1.7849388,0.57487249,0.61629766,0.5382365,0
-1.8678246,-3.031208,3.3071716,-0.45356447,-0.30747366,0.8365041,0
1.4650035,-1.4050379,3.4485605,0.88811243,-0.23429073,0.39542902,0
-0.32367554,-3.8762228,3.6507864,0.55432761,-0.83228135,-0.0053572655,0
1.9026904,-1.3520533,2.5836608,0.88590127,-0.25796938,0.38552654,0
-4.5962491,-0.78131342,2.8068807,-0.45356447,-0.30747366,0.8365041,0
4.1257739,1.4010005,-2.5369191,0.45356447,0.30747366,-0.8365041,0
1.9347265,1.2159455,2.0276544,0.70975524,0.44304094,0.54768795,0
-2.4016664,-3.4640067,2.5784822,-0.45356447,-0.30747366,0.8365041,0
-1.0725832,3.1354594,-0.80441976,-0.48879904,0.8706612,0.05499506,0
3.7768795,1.6242037,-2.811095,0.45356447,0.30747366,-0.8365041,0
-0.26104331,-1.4011204,-3.6546731,-0.45404595,-0.72793841,-0.51375848,0
-4.0990682,-0.48396587,3.2142363,-0.45356447,-0.30747366,0.8365041,0
0.43900383,-1.7314281,-3.400105,-0.17616197,-0.88915294,-0.42234331,0
1.6555493,0.76526928,2.7212,0.7516647,0.37230963,0.54441315,0
-1.7376789,1.6458492,4.3745399,0.010372519,0.93671715,0.34993309,0
0.2470867,3.3331699,-0.29620624,-0.15259331,0.95153403,0.26701701,0
-2.9811225,-3.5508108,2.6577818,-0.45356447,-0.30747366,0.8365041,0
-1.868861,0.94486332,4.5702605,-0.45356447,-0.30747366,0.8365041,0
0.46247792,0.60980129,3.9066591,0.62585235,0.5583421,0.54457569,0
-0.83892977,-2.9962471,-0.11054254,-0.035899311,-0.93153703,-0.36187005,0
0.4055391,3.3391838,-3.831315,0.45356447,0.30747366,-0.8365041,0
-3.1521382,1.640655,2.0315659,-0.64961678,0.75664073,-0.074113131,0
3.1770554,0.44041234,0.65194488,0.87353599,0.032692343,0.48566037,0
-0.055700421,1.6292148,-4.8444452,0.45356447,0.30747366,-0.8365041,0
-0.40889585,3.1371577,-3.2183857,-0.71082103,0.69098401,-0.13143241,0
3.5588841,1.8440375,-0.59407187,0.74100685,0.39138266,0.54564494,0
-0.97277284,-1.4902456,-2.8095481,-0.49401426,-0.69446909,-0.52312738,0
-2.2371616,-2.5505233,0.073518038,-0.49365693,-0.69478232,-0.52304894,0
-0.66611552,-3.5954895,1.58043,0.21890748,-0.94828326,-0.22986567,0
1.8196278,2.0399394,-3.4164138,0.45356447,0.30747366,-0.8365041,0
1.606405,3.2312827,-3.4920006,0.45356447,0.30747366,-0.8365041,0
3.9281144,2.4116609,-2.2635734,0.45356447,0.30747366,-0.8365041,0
2.560601,1.9689474,-3.1007359,0.45356447,0.30747366,-0.8365041,0
4.3654561,1.1568959,-2.3655477,0.45356447,0.30747366,-0.8365041,0
4.4957614,0.27399015,-2.3508096,0.87515229,-0.33110231,0.35281685,0
-3.6702228,1.3392377,3.855629,-0.52859324,0.84849888,0.025271833,0
2.9001245,2.0589194,-2.9318619,0.45356447,0.30747366,-0.8365041,0
-1.7249235,-1.2142382,3.9690561,-0.45356447,-0.30747366,0.8365041,0
-2.53477,1.1853042,4.3654895,-0.45356447,-0.30747366,0.8365041,0
-3.572998,0.42802262,1.1516056,-0.86088264,0.39397579,-0.32196921,0
-3.0478792,-0.60049629,3.3829255,-0.45356447,-0.30747366,0.8365041,0
-2.6509926,-4.0698886,2.6332445,-0.45356447,-0.30747366,0.8365041,0
1.4974898,3.8928304,-3.2426887,0.45356447,0.30747366,-0.8365041,0
0.43063939,-0.74528313,-4.6824665,-0.49117962,-0.69694674,-0.52250123,0
1.2363656,0.70619726,-4.545887,0.45356447,0.30747366,-0.8365041,0
0.022744179,-0.34321404,5.227272,-0.45356447,-0.30747366,0.8365041,0
-3.6676569,-2.2105157,0.77041984,-0.71060294,-0.44171476,-0.54766011,0
3.9609017,-0.74343324,-2.3003168,0.78347808,-0.58492863,0.20981079,0
-1.9724953,-2.2757745,3.4065232,-0.45356447,-0.30747366,0.8365041,0
2.8656368,2.5246062,-0.58989596,0.58296669,0.60759318,0.53942579,0
3.8137732,0.13741636,-3.3789968,0.45356447,0.30747366,-0.8365041,0
1.7331882,4.2677011,-2.8960667,-0.15527265,0.95150965,0.2655552,0
1.5474037,3.8848453,-2.9629085,0.45356447,0.30747366,-0.8365041,0
-0.78458381,-3.540484,3.6634429,-0.45356447,-0.30747366,0.8365041,0
-0.76490378,-0.10419512,5.0139871,-0.45356447,-0.30747366,0.8365041,0
-2.4237742,0.65343171,-1.5523212,-0.88792539,0.23657571,-0.39448768,0
-4.3090267,-1.8876901,2.2790353,-0.45356447,-0.30747366,0.8365041,0
-0.45421648,3.3939583,-2.6588719,-0.57788515,0.81600797,-0.013397694,0
2.4118526,-0.010033965,1.9548528,0.8767305,0.014645383,0.48075897,0
-2.129236,1.3765917,4.5296211,-0.020537168,0.94195861,0.33510005,0
3.3774915,0.41841841,-3.2447104,0.45356447,0.30747366,-0.8365041,0
0.056385174,-3.6421912,3.6028616,0.60615969,-0.79449868,0.036634624,0
-1.0283642,-1.7218966,4.0550013,-0.45356447,-0.30747366,0.8365041,0
-0.69537103,-2.2171226,-1.5524238,-0.30661273,-0.82747155,-0.47040331,0
-0.67214394,-2.5763297,-1.7687516,-0.24697664,-0.85847753,-0.44946468,0
-0.18987966,0.31156826,5.2687063,0.63017029,0.55306774,0.54497838,0
0.60632086,1.4230628,-4.5328732,0.45356447,0.30747366,-0.8365041,0
2.7545266,-1.1912963,0.44362807,0.81982148,-0.51205629,0.25630245,0
3.7792385,-0.86612177,-3.4899683,0.45356447,0.30747366,-0.8365041,0
1.5771286,1.2947502,-4.136107,0.45356447,0.30747366,-0.8365041,0
0.34940672,3.4973619,-0.67679501,-0.12065671,0.95114535,0.28419065,0
-2.3855984,-3.7555361,2.7481003,-0.45356447,-0.30747366,0.8365041,0
3.0609934,-0.6741848,-4.0103951,0.45356447,0.30747366,-0.8365041,0
-0.75521106,3.1787887,-1.0049515,-0.41754043,0.90253085,0.1053468,0
-0.73581076,2.9592221,-1.2177646,-0.50197798,0.86369371,0.045288086,0
-3.3547554,-1.3315748,0.17308342,-0.83386606,-0.18487057,-0.52008688,0
-1.0683291,-1.3243039,-3.2936573,-0.59933943,-0.58943284,-0.54162806,0
-1.5703144,-3.4017889,3.098047,-0.45356447,-0.30747366,0.8365041,0
-3.6925404,0.17557812,3.3876243,-0.45356447,-0.30747366,0.8365041,0
0.31983534,3.0042648,-4.2414722,0.45356447,0.30747366,-0.8365041,0
-3.4137297,-1.3011055,3.130497,-0.45356447,-0.30747366,0.8365041,0
2.9824057,-1.4010973,-4.0406103,0.36493582,-0.92038071,-0.14043081,0
1.965294,-1.4179609,2.3419895,0.88287491,-0.28318545,0.37461692,0
-0.58832121,-2.4932323,4.2192955,-0.45356447,-0.30747366,0.8365041,0
4.5796905,1.0234361,-2.0417666,0.89019006,-0.1111135,0.44183177,0
-1.7814159,1.938803,-1.4306217,-0.7834785,0.58492786,-0.20981139,0
-3.1443336,-2.8013453,2.5043404,-0.45356447,-0.30747366,0.8365041,0
4.7549272,0.82164907,-2.5560374,0.45356447,0.30747366,-0.8365041,0
-4.4628239,-0.069924355,3.0605612,-0.45356447,-0.30747366,0.8365041,0
2.7775664,-0.75682259,-4.1220293,0.45356447,0.30747366,-0.8365041,0
4.2111859,0.70730877,-2.6187513,0.45356447,0.30747366,-0.8365041,0
1.2971848,0.42639422,3.5055971,0.7658748,0.34551436,0.54226893,0
-1.0132954,1.4680529,-4.5572786,-0.89114726,0.14419231,-0.43019202,0
-3.1405506,1.6514695,2.563741,-0.55708605,0.83044857,0.0031878352,0
0.1883533,1.1087494,-4.8651223,0.45356447,0.30747366,-0.8365041,0
-2.3107336,-4.1135116,2.522449,-0.45356447,-0.30747366,0.8365041,0
1.6493866,-0.8886373,3.0015354,0.88339317,-0.030959114,0.46760875,0
-0.49957311,-2.0935206,-2.4761391,-0.38153833,-0.78125095,-0.49403983,0
-2.6904602,-3.2466409,2.7201185,-0.45356447,-0.30747366,0.8365041,0
-2.5321681,-1.8573337,3.4243722,-0.45356447,-0.30747366,0.8365041,0
1.5515795,-2.2243326,1.0138643,0.69611609,-0.7083168,0.11708814,0
-0.67653203,0.33095169,5.1179361,-0.45356447,-0.30747366,0.8365041,0
-1.510181,2.3137364,1.8451639,-0.23777249,0.94632912,0.21891844,0
-1.1422454,0.41525173,5.0349455,-0.45356447,-0.30747366,0.8365041,0
-2.7351038,-0.18290913,-0.82303053,-0.88611478,0.055229992,-0.46016318,0
0.64593971,-1.4287663,-4.4959188,-0.27747002,-0.84323525,-0.46039611,0
0.21755958,-3.4275255,0.92555904,0.37213093,-0.91820258,-0.13572896,0
-3.0487616,1.68572,3.8150539,-0.36098853,0.92154151,0.14299774,0
0.57413745,-1.1120319,5.0607166,0.86064261,0.092652962,0.50070918,0
2.4577878,2.7848091,-2.9147453,0.45356447,0.30747366,-0.8365041,0
-0.42196175,-3.8798211,3.728512,-0.45356447,-0.30747366,0.8365041,0
3.9685867,1.5626361,-1.41979,0.82989436,0.19645077,0.52218992,0
3.187793,-0.44158614,0.027069613,0.88106954,-0.29597697,0.36893624,0
-3.1993339,-0.37860537,3.3019147,-0.45356447,-0.30747366,0.8365041,0
1.6671513,3.6307685,-1.2041183,0.14458948,0.9007802,0.40949816,0
-1.2197928,1.133646,-4.407578,-0.88773042,0.072848037,-0.45456332,0
3.7495503,0.27520144,-0.43612206,0.89110458,-0.14112878,0.43129495,0
3.4475095,-1.3365097,-3.5041842,0.55515718,-0.83173215,-0.0047055483,0
-3.9012709,-2.7146401,2.160835,-0.45356447,-0.30747366,0.8365041,0
-1.6310879,-0.48600578,4.3992662,-0.45356447,-0.30747366,0.8365041,0
3.3044515,-0.18180466,-3.7671576,0.45356447,0.30747366,-0.8365041,0
3.9075768,0.6179738,-2.8581116,0.45356447,0.30747366,-0.8365041,0
3.7870209,-0.31880713,-1.4580736,0.85383159,-0.41893756,0.30897078,0
4.0909328,-0.41807652,-2.2088795,0.79973602,-0.5546478,0.22975641,0
0.46919227,-0.94103098,5.1155109,0.83777213,0.17306755,0.51786637,0
-0.082960784,-1.7007804,4.5085859,-0.45356447,-0.30747366,0.8365041,0
-3.2314072,0.40347242,3.7269354,-0.45356447,-0.30747366,0.8365041,0
2.5877945,1.2776804,-3.6335461,0.45356447,0.30747366,-0.8365041,0
-1.1422386,1.607338,3.9849062,0.080576956,0.92061019,0.38207859,0
-0.21641111,0.78710842,-5.3392162,0.45356447,0.30747366,-0.8365041,0
1.7333474,2.7776554,-3.5635843,0.45356447,0.30747366,-0.8365041,0
-1.5577052,1.655664,3.9056361,0.056363851,0.92682672,0.37123483,0
-1.1663601,-2.5595503,3.5956795,-0.45356447,-0.30747366,0.8365041,0
1.0079402,0.83245897,-4.4302897,0.45356447,0.30747366,-0.8365041,0
-1.4222767,-4.0661745,2.9388735,-0.45356447,-0.30747366,0.8365041,0
-2.5713539,0.32729363,-1.7222903,-0.89062595,0.12201092,-0.43806255,0
-1.8739648,-1.6520538,3.5325866,-0.45356447,-0.30747366,0.8365041,0
3.1488285,-1.4457846,-1.5436171,0.68377292,-0.72205019,0.10534745,0
-0.42263913,0.27779436,5.0585098,-0.45356447,-0.30747366,0.8365041,0
-2.6744142,0.19909286,3.7912261,-0.45356447,-0.30747366,0.8365041,0
1.2831303,-2.5501473,-1.6109097,0.19890501,-0.94985092,-0.24128735,0
3.8929305,2.517508,-1.6198888,0.68452656,0.48085397,0.54790747,0
3.2506514,-1.2559142,-2.0829005,0.70326883,-0.70002377,0.12401468,0
0.51199472,3.3192706,-3.9599543,0.45356447,0.30747366,-0.8365041,0
-3.3349009,-0.54977554,-0.30705386,-0.85977447,-0.096180171,-0.50153494,0
0.69793493,-3.1151724,1.5874822,0.48939466,-0.87035394,-0.054559112,0
-2.6323397,-3.4660745,1.5843575,-0.37981358,-0.78241175,-0.49353135,0
-0.84111345,-0.89670324,4.6738663,-0.45356447,-0.30747366,0.8365041,0
-0.49858809,0.14386845,-4.8085318,-0.74568164,-0.38311777,-0.5451417,0
-1.4184965,-1.5779128,3.8788691,-0.45356447,-0.30747366,0.8365041,0
2.294641,0.56913424,-3.8071961,0.45356447,0.30747366,-0.8365041,0
-2.7180283,0.62996531,4.1852274,-0.45356447,-0.30747366,0.8365041,0
-0.4298417,-2.63221,4.0738344,-0.45356447,-0.30747366,0.8365041,0
-0.7715978,2.3786347,-4.0117331,-0.85501659,0.41493821,-0.31108341,0
-2.6049681,1.7466967,0.48607337,-0.66407269,0.74257469,-0.087121606,0
-0.35419267,3.0349991,-4.2849131,0.45356447,0.30747366,-0.8365041,0
0.41218424,2.9516156,-4.1280518,0.45356447,0.30747366,-0.8365041,0
0.87159741,3.5874765,-3.8240113,0.45356447,0.30747366,-0.8365041,0
-3.9607201,0.49774408,3.3218265,-0.45356447,-0.30747366,0.8365041,0
-2.8282483,1.1172271,-0.70455861,-0.87067378,0.35326785,-0.34224114,0
3.0496106,-1.3387103,-4.0188804,0.45356447,0.30747366,-0.8365041,0
2.0640013,3.7288463,-2.8217235,0.45356447,0.30747366,-0.8365041,0
-3.0818667,1.2910516,-0.066145062,-0.83439189,0.47631061,-0.27734172,0
1.9541581,-1.6334534,-4.3520622,0.019183218,-0.94175261,-0.33575839,0
-0.050605118,1.8636661,-4.4936571,0.45356447,0.30747366,-0.8365041,0
-0.74958193,-0.12805748,4.8676214,-0.45356447,-0.30747366,0.8365041,0
-2.4678531,1.2102278,-1.6268048,-0.87340564,0.34009725,-0.34856343,0
2.2649307,3.416105,-1.2871306,0.24148476,0.86108994,0.44744724,0
-1.5397558,-1.2331748,4.0359154,-0.45356447,-0.30747366,0.8365041,0
0.58492857,-1.7922649,-3.419251,-0.1675429,-0.89245009,-0.41888195,0
-1.9985647,-2.0086651,-1.2763542,-0.56291592,-0.62883991,-0.5363636,0
-0.26787817,-0.98389864,-4.3420463,-0.55612803,-0.63579786,-0.53524065,0
-2.8378587,-2.0391421,3.3030775,-0.45356447,-0.30747366,0.8365041,0
-4.1689525,0.11521602,1.8793501,-0.86922532,0.35987073,-0.33902872,0
2.677815,-1.6932828,-0.15693629,0.78094172,-0.58937526,0.20680118,0
-0.42359227,-3.4142385,0.032485008,0.040526062,-0.94474655,-0.32528657,0
1.4963714,2.9806166,-3.418546,0.45356447,0.30747366,-0.8365041,0
-0.090150952,1.311779,4.0104604,0.44135827,0.73792952,0.51055151,0
-1.9548488,2.3806338,1.2646284,-0.51113307,0.85864031,0.038466752,0
-2.0021524,2.070375,1.2986741,-0.46261996,0.88347137,0.073898256,0
-3.5472145,0.65454555,1.4738629,-0.83195281,0.48264706,-0.27369019,0
2.5870976,-1.9264035,-1.861599,0.49639553,-0.86668873,-0.049415946,0
-4.7229381,-1.0121007,2.6263089,-0.45356447,-0.30747366,0.8365041,0
2.4824719,0.54916483,1.2534044,0.85928667,0.098140329,0.50199091,0
1.8353561,0.85661542,2.1945064,0.73992038,0.3932817,0.54575384,0
-2.0600119,1.9609466,-1.0387881,-0.76516265,0.61559123,-0.1886093,0
3.0961647,-1.526998,-3.6531725,0.43766302,-0.89447379,-0.091474533,0
2.2770886,0.23465729,-4.1456795,0.45356447,0.30747366,-0.8365041,0
2.7455144,-2.0388901,-1.6322517,0.56934255,-0.82207441,0.0065357685,0
4.2506604,2.8551521,-2.1771579,0.45356447,0.30747366,-0.8365041,0
1.6492808,4.0318127,-2.3862443,-0.072799891,0.94824737,0.30907398,0
-3.4622989,-0.33419371,3.3946538,-0.45356447,-0.30747366,0.8365041,0
-0.52878654,-2.5094368,-1.0857975,-0.17849097,-0.88824606,-0.42327279,0
-2.9851654,1.1485715,4.3580327,-0.45356447,-0.30747366,0.8365041,0
-2.2248824,-4.0420299,2.6343079,-0.03033489,-0.93273193,-0.35929227,0
2.6440911,2.4561768,-3.2094641,0.45356447,0.30747366,-0.8365041,0
-4.0925508,-1.1744921,1.5305605,-0.88268638,0.025378302,-0.46927685,0
2.7538269,2.9204206,-2.6721704,0.45356447,0.30747366,-0.8365041,0
4.082016,1.5729818,-2.787374,0.45356447,0.30747366,-0.8365041,0
1.4825664,1.7382385,1.9124262,0.61472303,0.57165807,0.54343581,0
-1.632018,0.18436575,4.5741014,-0.45356447,-0.30747366,0.8365041,0
-3.0011683,-0.86482024,-0.78296012,-0.81775677,-0.22959024,-0.52778989,0
-1.0426015,-2.009099,4.0848403,-0.45356447,-0.30747366,0.8365041,0
-2.0576327,-3.511785,2.9132109,-0.45356447,-0.30747366,0.8365041,0
-2.5702477,-3.3944347,2.7458739,-0.45356447,-0.30747366,0.8365041,0
-2.2971969,-0.74041462,3.7142076,-0.45356447,-0.30747366,0.8365041,0
-3.5589209,-2.0366845,2.5565875,-0.45356447,-0.30747366,0.8365041,0
2.5567701,2.9255278,-2.9592826,0.45356447,0.30747366,-0.8365041,0
-1.8414524,2.3083301,-0.98980951,-0.74988824,0.63887662,-0.17176825,0
4.0245261,0.19811749,-1.3970063,0.89005023,-0.20441973,0.40745938,0
0.97344482,2.2038314,-3.8414373,0.45356447,0.30747366,-0.8365041,0
-2.6262922,-1.5151262,3.4933715,-0.45356447,-0.30747366,0.8365041,0
0.44320297,3.0007257,1.0000024,0.10992232,0.9121353,0.39487487,0
1.4046451,-1.4900782,3.6179874,0.89028168,-0.19945252,0.40941069,0
-2.5493512,-2.6851578,2.9206636,-0.45356447,-0.30747366,0.8365041,0
1.6494564,-2.7506187,1.272496,0.66270769,-0.74393743,0.085880637,0
2.9105299,0.8778488,0.48326087,0.84277713,0.15727162,0.51477408,0
-4.0615311,0.59276676,3.2173381,-0.45356447,-0.30747366,0.8365041,0
-4.3970232,-0.55940914,3.0282552,-0.45356447,-0.30747366,0.8365041,0
1.1200951,4.0036449,-3.4578993,0.45356447,0.30747366,-0.8365041,0
-3.6221797,-1.7804346,2.5554874,-0.45356447,-0.30747366,0.8365041,0
4.1675215,1.9975872,-2.3687849,0.45356447,0.30747366,-0.8365041,0
4.0844102,0.5551939,-1.6406275,0.89112347,-0.17051956,0.42050201,0
-3.2895963,-0.62314463,3.1544552,-0.45356447,-0.30747366,0.8365041,0
-2.738044,0.49009198,-0.92991936,-0.88751423,0.24137367,-0.39250121,0
0.41826999,-0.53651619,5.2340431,-0.45356447,-0.30747366,0.8365041,0
1.0157344,-1.5780716,-4.0610428,-0.17439327,-0.88983721,-0.42163593,0
0.33596563,-3.0814073,4.2373934,-0.45356447,-0.30747366,0.8365041,0
-1.5786676,1.4514792,-2.9239657,-0.88025075,0.30138525,-0.36650437,0
0.7878589,-1.876102,-3.6230366,-0.21705133,-0.87223095,-0.43829423,0
0.11760408,3.7836683,-2.1892815,-0.39887598,0.90938294,0.11798561,0
-1.646109,1.8160424,4.1349821,-0.034704208,0.94398338,0.32816267,0
0.15562421,-3.1959281,0.21963811,0.19857112,-0.94987285,-0.24147654,0
3.1682096,-1.30937,-1.4028898,0.68367308,-0.72215837,0.10525364,0
-1.1972908,0.24644804,4.8767595,-0.45356447,-0.30747366,0.8365041,0
0.3649174,0.58851194,4.101737,0.61890757,0.56669772,0.54388154,0
-0.81331813,0.022746563,-4.2986593,-0.76685673,-0.34359998,-0.54209763,0
-1.8336524,-1.9037448,-1.431854,-0.57630509,-0.61476988,-0.53845167,0
0.86183667,-2.9493942,1.1760306,0.48598525,-0.87210286,-0.057050526,0
-4.0004578,-0.19372392,1.4522518,-0.88615662,0.25553441,-0.38655999,0
-1.385635,1.8503879,-2.8525298,-0.86211604,0.38928938,-0.32436052,0
1.1171746,-2.2453737,2.9705837,0.81102598,-0.53152251,0.24437818,0
1.766443,-2.1594789,-1.6730583,0.33445147,-0.92872667,-0.16002762,0
-1.4752477,2.7526951,-1.7835581,-0.70179206,0.70175689,-0.12257689,0
-1.2699021,2.3095288,1.9367255,-0.24607705,0.94532043,0.21404481,0
0.98759872,0.87458992,-4.4030538,0.45356447,0.30747366,-0.8365041,0
0.24499536,2.2646008,-4.1869583,0.45356447,0.30747366,-0.8365041,0
1.7490948,-1.922652,2.1535103,0.85202116,-0.42491248,0.30579302,0
-1.8332367,1.6764674,4.2275271,-0.081893355,0.94900984,0.30442369,0
-4.2718568,-2.8514547,2.2436271,-0.45356447,-0.30747366,0.8365041,0
1.4053122,-2.2796259,-2.1482863,0.24149418,-0.9458884,-0.21673846,0
0.94867826,3.0583622,-3.8526981,0.45356447,0.30747366,-0.8365041,0
-1.8175564,-1.5565294,-1.4614147,-0.62332833,-0.56139684,-0.54433006,0
-0.9817335,-0.78033352,4.7299829,-0.45356447,-0.30747366,0.8365041,0
1.7957536,-0.26964855,-4.7358813,0.45356447,0.30747366,-0.8365041,0
1.26115,3.7395179,-3.2252765,0.45356447,0.30747366,-0.8365041,0
2.6126318,1.290278,-3.2748427,0.45356447,0.30747366,-0.8365041,0
2.0518332,-0.43872356,-4.4317393,0.45356447,0.30747366,-0.8365041,0
-1.8553326,-1.4564147,3.8609264,-0.45356447,-0.30747366,0.8365041,0
-1.643442,-4.046566,2.2914977,-0.016539067,-0.93553632,-0.35284263,0
-2.062341,-0.51521528,-2.2692685,-0.78977555,-0.2962423,-0.53711724,0
-2.1765203,0.41948748,4.4612951,-0.45356447,-0.30747366,0.8365041,0
-0.67700851,0.42120075,5.2048073,-0.45356447,-0.30747366,0.8365041,0
1.2093754,0.87520075,2.7730758,0.66854465,0.50329226,0.54748952,0
-1.3016741,-1.1886873,4.0915074,-0.45356447,-0.30747366,0.8365041,0
-2.1971581,1.0396037,4.4887757,-0.45356447,-0.30747366,0.8365041,0
-2.6588979,-2.7618761,0.77713323,-0.52756631,-0.66385448,-0.53006691,0
2.564714,-0.96288192,1.090688,0.87648541,-0.32388154,0.35619384,0
-0.11389041,0.66438913,-5.0500412,0.45356447,0.30747366,-0.8365041,0
3.6263392,-0.4419508,-1.073303,0.86379272,-0.38274008,0.32767695,0
-1.7557355,1.143338,-2.975136,-0.88879365,0.22531669,-0.39909697,0
-0.10596955,-2.6697562,-1.7424297,-0.12924719,-0.90598619,-0.40309286,0
-0.3016659,1.3942862,-5.1713367,0.45356447,0.30747366,-0.8365041,0
2.4268286,3.9428015,-2.5042567,0.45356447,0.30747366,-0.8365041,0
-0.33074859,-3.6894577,1.5822847,0.2669507,-0.94237804,-0.20164526,0
-0.91263497,-0.27384114,-3.6277838,-0.72743607,-0.41454372,-0.54679996,0
-2.0407438,-2.9351642,3.1968482,-0.45356447,-0.30747366,0.8365041,0
-3.6723771,-0.68391466,3.2397921,-0.45356447,-0.30747366,0.8365041,0
-4.8567276,-0.51375628,2.7921174,-0.45356447,-0.30747366,0.8365041,0
-4.6101747,-0.60272741,2.5548086,-0.45356447,-0.30747366,0.8365041,0
2.1168985,-0.36609721,2.6944566,0.87627631,0.017324135,0.48149735,0
0.20040214,2.9291368,1.0352771,0.010130733,0.93676251,0.34981871,0
1.3442832,1.4198384,-3.9356802,0.45356447,0.30747366,-0.8365041,0
1.0860051,2.6104152,1.2068303,0.27921915,0.84232259,0.46100914,0
4.4965606,1.2798471,-2.2328467,0.45356447,0.30747366,-0.8365041,0
2.62677,-1.3040442,-4.3035364,0.24089751,-0.94596034,-0.21708858,0
-4.0258222,-0.69508886,2.7388608,-0.45356447,-0.30747366,0.8365041,0
2.4766722,3.7187605,-1.8284199,0.27515769,0.84443545,0.45958346,0
-2.582958,-1.7510006,3.1543469,-0.45356447,-0.30747366,0.8365041,0
-1.526927,2.6089528,0.71767664,-0.39338118,0.91128945,0.12166572,0
0.70143646,2.7294366,-3.9947543,0.45356447,0.30747366,-0.8365041,0
1.2247933,1.9116255,2.498714,0.50444424,0.68520975,0.5253793,0
1.4186354,1.5817223,-3.9599254,0.45356447,0.30747366,-0.8365041,0
1.6909205,-2.0194221,2.2748914,0.80965728,-0.53443086,0.242567,0
-1.5971756,2.2809098,2.8470495,-0.17351016,0.95110691,0.25551856,0
0.12317455,0.44598722,-5.0464768,0.45356447,0.30747366,-0.8365041,0
-0.70547569,-1.6959829,4.3015032,-0.45356447,-0.30747366,0.8365041,0
1.0260811,-0.62700176,4.4909768,0.83720291,0.17481445,0.51819992,0
-1.9234529,-0.68084049,4.1972127,-0.45356447,-0.30747366,0.8365041,0
-4.3519702,-1.4471631,1.8050097,-0.85365802,-0.11974749,-0.50688112,0
-1.1346074,-0.80337,4.261961,-0.45356447,-0.30747366,0.8365041,0
-3.9268034,-3.0160751,2.0843136,-0.59303641,-0.59651375,-0.54081333,0
-0.81320006,-0.82259321,4.8397331,-0.45356447,-0.30747366,0.8365041,0
1.2017401,0.99171615,2.904644,0.66156662,0.51275587,0.54718447,0
2.013139,1.4259815,2.0097203,0.67658341,0.49214292,0.54775012,0
-4.6832485,-0.035662651,3.0250113,-0.45356447,-0.30747366,0.8365041,0
3.6433172,2.7244163,-2.2981954,0.45356447,0.30747366,-0.8365041,0
0.8275708,1.3003078,-4.578959,0.45356447,0.30747366,-0.8365041,0
3.5164335,0.7110076,-3.0596299,0.45356447,0.30747366,-0.8365041,0
0.18339837,-0.29707241,5.3652639,-0.45356447,-0.30747366,0.8365041,0
-1.2559958,2.421386,-3.1221166,-0.79923391,0.55563307,-0.22912204,0
-1.1892045,-3.5757036,0.98588228,-0.025469393,-0.9337467,-0.35702699,0
2.123734,-1.0624642,-4.8228922,0.45356447,0.30747366,-0.8365041,0
-3.0126667,-2.019115,0.33659387,-0.70993507,-0.44275987,-0.54768217,0
2.2768939,-0.19840503,1.7608929,0.87948084,-0.0025566071,0.47592732,0
3.1059,0.091272354,-3.6817641,0.45356447,0.30747366,-0.8365041,0
1.3421991,-2.7111895,0.71891618,0.55321181,-0.83301723,-0.0062326789,0
-1.3278909,-3.1279976,0.088122606,-0.18647888,-0.88508362,-0.42644155,0
-1.8481872,0.58396184,-2.4938564,-0.88693714,0.063784525,-0.45746469,0
-1.6686258,-2.0557587,3.5063071,-0.45356447,-0.30747366,0.8365041,0
2.4452641,-0.96463549,0.94806224,0.86442435,-0.38021621,0.32894719,0
1.509915,-0.50225878,-4.5606427,0.45356447,0.30747366,-0.8365041,0
-2.1692748,1.4012694,4.6512942,-0.45356447,-0.30747366,0.8365041,0
-3.613395,-0.15980601,0.46482646,-0.89003623,0.10784007,-0.44295156,0
-1.119922,-2.5900939,3.9467354,-0.45356447,-0.30747366,0.8365041,0
-2.3133399,-1.4695632,-1.3059291,-0.74202019,-0.38960421,-0.54554069,0
2.5247028,2.5570388,-0.18234921,0.52560055,0.66571581,0.52968514,0
-2.2640097,-3.8926945,2.6414654,-0.45356447,-0.30747366,0.8365041,0
2.8512366,-0.21717119,-3.8318872,0.45356447,0.30747366,-0.8365041,0
-0.12976837,2.8820536,-4.4798207,0.45356447,0.30747366,-0.8365041,0
3.5859694,1.2956947,-0.60918844,0.82830954,0.2009622,0.52298892,0
-0.84895325,1.0009232,-4.8617597,-0.87534684,-0.02268301,-0.48296311,0
-0.5282253,0.59078217,-5.0861578,-0.83272469,-0.18824001,-0.52070653,0
3.9886272,-0.47910666,-2.1215563,0.82876778,-0.49069327,0.26900563,0
2.9387138,1.6850576,-3.2983396,0.45356447,0.30747366,-0.8365041,0
3.7895184,1.645468,-0.76339483,0.78233755,0.31221181,0.53895414,0
-0.32460403,0.62113762,-5.2221293,0.45356447,0.30747366,-0.8365041,0
0.69777244,-2.8752985,0.3187089,0.31914648,-0.93239272,-0.1696738,0
-0.26253298,3.4932539,-2.0281086,-0.47948858,0.8753711,0.061774492,0
-0.18190743,-3.7292795,3.5363088,0.53290236,-0.84589124,-0.021976829,0
4.2722611,0.4382782,-2.8425214,0.45356447,0.30747366,-0.8365041,0
1.5764838,4.2164621,-2.9977694,0.45356447,0.30747366,-0.8365041,0
2.7140357,2.1924975,-2.8892651,0.45356447,0.30747366,-0.8365041,0
-2.0754747,-3.9674962,2.1232476,-0.053448498,-0.92752808,-0.36991197,0
-3.8303504,0.8987031,2.5623991,-0.70833564,0.69399202,-0.12897909,0
-3.9970589,-0.82319713,1.4744539,-0.87894571,-0.00093592703,-0.4769209,0
1.2330115,3.2006521,0.26639795,0.16949314,0.89171219,0.4196682,0
-1.3676412,-2.6483688,-1.1560624,-0.35345501,-0.7995711,-0.48554659,0
4.0395951,1.1096444,-2.6176243,0.45356447,0.30747366,-0.8365041,0
0.82586759,2.5710232,1.1310568,0.28651658,0.83846891,0.46354932,0
-3.0280919,1.4215174,1.4080452,-0.68667954,0.71887958,-0.10808903,0
1.309561,3.2614887,-0.53531456,0.081297308,0.92041457,0.38239723,0
2.5266454,-0.75993586,1.6111246,0.88780063,-0.23806232,0.3938736,0
-2.788656,1.3174915,4.3726606,-0.45356447,-0.30747366,0.8365041,0
3.1424818,-1.6116228,-3.0875876,0.45661086,-0.8862257,-0.078168988,0
-1.0689913,0.074961662,-4.2812414,-0.78358144,-0.3095842,-0.53866285,0
2.1320903,-1.7284825,1.5932758,0.83303922,-0.47984403,0.27530953,0
1.5443698,1.5107155,2.2938371,0.60355496,0.58463264,0.54214942,0
-0.052631617,1.6657667,-4.9691048,0.45356447,0.30747366,-0.8365041,0
4.2596931,2.6606796,-2.3088701,0.45356447,0.30747366,-0.8365041,0
1.1618311,1.6025858,-4.1745839,0.45356447,0.30747366,-0.8365041,0
4.5662317,0.087701797,-2.8860674,0.45356447,0.30747366,-0.8365041,0
-4.101912,0.36575389,1.8473675,-0.85865533,0.40217954,-0.3177461,0
3.3929093,1.5570283,-3.1010215,0.45356447,0.30747366,-0.8365041,0
-1.0473469,-1.6627254,4.1417403,-0.45356447,-0.30747366,0.8365041,0
-0.59533095,0.57167053,5.1466684,-0.45356447,-0.30747366,0.8365041,0
-0.29553562,3.2260528,-0.70439053,-0.354249,0.92346764,0.14736009,0
3.1699183,1.6743503,-3.2825451,0.45356447,0.30747366,-0.8365041,0
2.7470827,2.0724914,-3.2224917,0.45356447,0.30747366,-0.8365041,0
-2.4911401,1.1127354,-0.68550783,-0.84619671,0.44314069,-0.29593477,0
1.1391284,3.0416307,-3.7437634,0.45356447,0.30747366,-0.8365041,0
1.7741091,0.53535914,3.0173271,0.77525979,0.32685399,0.54049861,0
1.2539488,2.0283904,-4.0424275,0.45356447,0.30747366,-0.8365041,0
1.661142,1.7968063,-3.6646957,0.45356447,0.30747366,-0.8365041,0
-2.2683494,-4.1498737,2.330586,-0.17016038,-0.89145863,-0.41993672,0
-0.87155384,-3.1431763,-0.080512047,-0.087925732,-0.91858494,-0.38531876,0
-2.7551551,-2.4144883,3.2035246,-0.45356447,-0.30747366,0.8365041,0
-0.46508145,3.5649085,-2.1238353,-0.49047786,0.86979342,0.053765774,0
1.8069212,-1.6362919,1.8613619,0.84123719,-0.45762551,0.28792149,0
-2.1699736,1.8315399,-0.74302483,-0.74781501,0.64189637,-0.16953421,0
3.5950255,1.4732163,-2.7064481,0.45356447,0.30747366,-0.8365041,0
1.57019,-2.3928416,1.5590882,0.75420767,-0.63248098,0.17646116,0
2.8337541,3.2597101,-2.8079588,0.45356447,0.30747366,-0.8365041,0
-3.0034935,1.2061379,0.8629117,-0.78098816,0.58929455,-0.20685601,0
-2.6279907,1.6155238,3.9794743,-0.30076694,0.93634641,0.1810925,0
-4.766839,-0.78424597,2.239738,-0.89122355,0.15630801,-0.42578,0
-3.8148992,-2.8131001,2.2317278,-0.45356447,-0.30747366,0.8365041,0
-1.3107059,-2.5715284,-1.0546479,-0.39492363,-0.77207828,-0.49792594,0
3.9391084,1.2947841,-2.8321912,0.45356447,0.30747366,-0.8365041,0
1.5142106,2.8040512,0.57758784,0.36247665,0.7938199,0.48832428,0
2.2456498,2.8564115,-2.8858023,0.45356447,0.30747366,-0.8365041,0
-2.4594309,0.395509,-2.0409234,-0.88180023,0.018696576,-0.47125238,0
-2.2921243,-1.3722467,3.6161106,-0.45356447,-0.30747366,0.8365041,0
-1.2426798,-3.1355817,3.7427552,-0.45356447,-0.30747366,0.8365041,0
0.18502378,0.68930864,-5.0313005,0.45356447,0.30747366,-0.8365041,0
2.0256605,3.3919001,-3.2064784,0.45356447,0.30747366,-0.8365041,0
0.24217939,3.2719517,0.31361389,-0.09367235,0.94985002,0.2983458,0
1.547556,-1.1927834,-5.0561366,0.45356447,0.30747366,-0.8365041,0
-0.57461596,3.1396253,-1.1523852,-0.48235732,0.87393826,0.059692383,0
-0.45511127,2.3337708,2.1475291,0.057710826,0.92649919,0.37184477,0
-1.5626801,2.323668,-1.2908244,-0.73579186,0.65880507,-0.15679991,0
3.2538948,-0.85661972,-0.46440616,0.82132208,-0.50859076,0.25838992,0
2.6774404,2.8755939,-0.65942526,0.49502155,0.69358474,0.52334857,0
3.9926376,-0.75890779,-2.8837361,0.7036823,-0.69953656,0.12441796,0
0.45201436,3.7186589,-3.0225308,-0.47569859,0.87723899,0.064516068,0
1.2660474,2.9486365,0.69374418,0.26973981,0.84721869,0.45766878,0
-2.7051983,0.21507168,4.0699406,-0.45356447,-0.30747366,0.8365041,0
-4.4822106,-1.3799584,2.3517799,-0.45356447,-0.30747366,0.8365041,0
2.5948148,0.69143343,-3.6761315,0.45356447,0.30747366,-0.8365041,0
1.8938944,-2.3786902,0.18191123,0.62200809,-0.78141028,0.050038755,0
-2.6976962,-2.6210628,3.1009333,-0.45356447,-0.30747366,0.8365041,0
3.6326964,1.2131257,-0.21437538,0.8156904,0.23493588,0.52863431,0
0.9810214,2.3300612,1.3138089,0.31639436,0.82191086,0.47366321,0
1.9535707,-0.14483142,2.6872761,0.8542195,0.11766954,0.50642174,0
1.2364942,0.90458298,3.3920808,0.69450206,0.46627271,0.54795671,0
1.382821,3.3714025,-3.5160599,0.45356447,0.30747366,-0.8365041,0
-2.0218892,-3.4840882,3.0975351,-0.45356447,-0.30747366,0.8365041,0
1.3209834,3.5519567,-1.284539,0.021054924,0.93464315,0.354963,0
-3.0230031,1.1615527,-0.34808111,-0.85222328,0.42425346,-0.3061448,0
0.8821975,1.1349964,-4.6291709,0.45356447,0.30747366,-0.8365041,0
-3.1551747,-3.3204634,2.6806829,-0.45356447,-0.30747366,0.8365041,0
-1.1536592,-3.6642509,3.2687051,-0.45356447,-0.30747366,0.8365041,0
-4.3122835,-1.9172502,2.2273943,-0.45356447,-0.30747366,0.8365041,0
-3.5965118,-2.4482205,0.98922992,-0.67902106,-0.4887079,-0.54780924,0
-3.4245956,-1.3771629,2.9038136,-0.45356447,-0.30747366,0.8365041,0
4.0544662,0.14400053,-3.2433856,0.45356447,0.30747366,-0.8365041,0
1.4468468,-1.2968011,-4.7994952,-0.1694541,-0.89172703,-0.4196524,0
3.9405701,2.3819113,-2.2435677,0.45356447,0.30747366,-0.8365041,0
0.16756487,1.7152834,-4.5808048,0.45356447,0.30747366,-0.8365041,0
-0.37259042,-0.89302731,4.9438095,-0.45356447,-0.30747366,0.8365041,0
3.0854254,-1.2254405,-3.9917936,0.45356447,0.30747366,-0.8365041,0
1.7024812,-2.2500782,-0.12893534,0.5955565,-0.80283153,0.027822495,0
4.4735136,1.9485333,-1.9238011,0.83657181,0.17674044,0.51856565,0
-4.6397929,-1.5980127,2.4990206,-0.45356447,-0.30747366,0.8365041,0
-1.7018206,-3.7112257,2.9137893,-0.45356447,-0.30747366,0.8365041,0
1.4781795,0.55885649,-4.2431765,0.45356447,0.30747366,-0.8365041,0
2.999295,2.9449546,-1.1151402,0.50840664,0.68163234,0.52621281,0
4.0621257,0.11638737,-3.014009,0.45356447,0.30747366,-0.8365041,0
-1.4834833,-2.407855,3.6511571,-0.45356447,-0.30747366,0.8365041,0
-4.1936321,-0.059719563,3.2931142,-0.45356447,-0.30747366,0.8365041,0
1.558514,-2.4450285,-0.13620424,0.50825644,-0.86024743,-0.040617228,0
-0.12823474,-1.5816808,4.9426017,-0.45356447,-0.30747366,0.8365041,0
-0.88830405,3.0134766,-2.2037246,-0.61997283,0.78313518,-0.04830116,0
4.5569129,0.57721996,-2.2844653,0.89067888,-0.18919185,0.41339755,0
0.68520737,0.55178165,-4.6659193,0.45356447,0.30747366,-0.8365041,0
-1.0810819,-1.3827767,4.444562,-0.45356447,-0.30747366,0.8365041,0
0.76730537,3.1258159,-3.7234414,0.45356447,0.30747366,-0.8365041,0
-3.6247294,-2.0132353,2.5982337,-0.45356447,-0.30747366,0.8365041,0
-3.6996202,0.24064398,0.77551842,-0.87702429,0.32086483,-0.35759485,0
2.4320095,0.64573961,1.8963321,0.79333562,0.28837013,0.53615403,0
-0.91237509,-0.62532234,4.6059985,-0.45356447,-0.30747366,0.8365041,0
-3.1140132,-2.5397983,2.6864927,-0.45356447,-0.30747366,0.8365041,0
-2.3911362,2.1232028,1.2389255,-0.60549259,0.79503274,-0.036076665,0
-1.4572597,-1.0077763,4.4354653,-0.45356447,-0.30747366,0.8365041,0
-3.4038141,1.1912513,3.9671292,-0.45356447,-0.30747366,0.8365041,0
2.1677778,0.48543119,2.3820012,0.82413042,0.21258104,0.52499366,0
-0.18081486,1.8683617,3.7549875,0.29966325,0.83133906,0.4680568,0
-0.90919501,-0.1510911,4.7777572,-0.45356447,-0.30747366,0.8365041,0
-1.1098431,-0.9298749,4.2617812,-0.45356447,-0.30747366,0.8365041,0
-0.64092076,0.64572382,5.072578,-0.45356447,-0.30747366,0.8365041,0
-0.9641248,1.9220915,3.7624221,0.14593831,0.90030873,0.41005629,0
-1.4315666,1.3620675,-3.059478,-0.88559866,0.26077852,-0.38432989,0
0.89350635,-2.7372613,2.8451722,0.75384581,-0.63302231,0.17606598,0
1.9058921,-0.63989258,-4.5205269,0.45356447,0.30747366,-0.8365041,0
3.9592965,1.7112846,-2.8025975,0.45356447,0.30747366,-0.8365041,0
1.2245284,-2.2874231,2.8686225,0.82606602,-0.49732897,0.26510161,0
-1.7387693,-1.0527043,4.01195,-0.45356447,-0.30747366,0.8365041,0
-1.1015112,-0.90961576,-3.1215372,-0.67990065,-0.4874621,-0.5478282,0
-1.0684264,-3.2928672,3.7128389,-0.45356447,-0.30747366,0.8365041,0
1.8590789,1.0747008,-3.9391403,0.45356447,0.30747366,-0.8365041,0
-1.6238883,-0.13188744,-2.811832,-0.82356709,-0.21411772,-0.52525306,0
1.6743766,3.6915417,-3.2918444,0.45356447,0.30747366,-0.8365041,0
-1.8368628,-3.4494457,3.3026769,-0.45356447,-0.30747366,0.8365041,0
1.5587642,1.478744,2.1499567,0.61576676,0.57042587,0.54354888,0
-0.63781202,-0.14827061,-4.5532026,-0.73096323,-0.40863788,-0.54654169,0
3.5902481,-0.48602509,-1.0023308,0.87222868,-0.34589529,0.34579414,0
-0.61817545,3.0028517,-2.4064076,-0.62307608,0.78049982,-0.050952554,0
-1.4846938,0.74648952,4.6271758,-0.45356447,-0.30747366,0.8365041,0
4.1446705,-0.43153095,-3.2990696,0.45356447,0.30747366,-0.8365041,0
-1.5849872,2.1738634,2.1904063,-0.22073793,0.94811404,0.22881091,0
-2.151648,-0.67741489,3.9709978,-0.45356447,-0.30747366,0.8365041,0
0.74076688,-1.664021,5.0782909,-0.45356447,-0.30747366,0.8365041,0
0.76055068,-2.8440964,4.3138971,0.83233654,-0.48166054,0.27426085,0
-3.4001689,-0.79911089,3.3707392,-0.45356447,-0.30747366,0.8365041,0
-0.73912925,-2.763345,-0.9326148,-0.14100263,-0.90202326,-0.40801018,0
2.0373411,-0.8959527,-4.4554892,0.45356447,0.30747366,-0.8365041,0
1.7923274,0.50002956,-4.0725751,0.45356447,0.30747366,-0.8365041,0
0.85163736,-2.1341093,-2.6227546,0.053849638,-0.94634193,-0.3186487,0
-3.0682931,-0.33713341,3.7138867,-0.45356447,-0.30747366,0.8365041,0
0.042173266,1.2857418,-4.9714217,0.45356447,0.30747366,-0.8365041,0
-1.8743304,0.58437347,4.7081118,-0.45356447,-0.30747366,0.8365041,0
0.93368101,-1.6185412,4.5032339,0.89022416,-0.20073999,0.40890628,0
-0.17362559,1.5193205,-4.8013706,0.45356447,0.30747366,-0.8365041,0
-0.82603788,-1.3887186,4.5452638,-0.45356447,-0.30747366,0.8365041,0
-0.74080062,3.0305367,0.35631871,-0.28469884,0.93941027,0.1909312,0
0.30742991,0.43494034,-4.9562821,0.45356447,0.30747366,-0.8365041,0
3.8960342,-0.5311985,-3.6720026,0.45356447,0.30747366,-0.8365041,0
1.1133325,4.0968647,-3.2828114,0.45356447,0.30747366,-0.8365041,0
-3.1481366,1.326828,3.6566203,-0.41187814,0.90467161,0.10920382,0
-2.6718132,0.801754,4.3698874,-0.45356447,-0.30747366,0.8365041,0
-3.0671353,-0.38561296,3.5790272,-0.45356447,-0.30747366,0.8365041,0
-1.2589525,-2.7410433,3.7079487,-0.45356447,-0.30747366,0.8365041,0
-0.893323,-2.0501704,4.2618556,-0.45356447,-0.30747366,0.8365041,0
-1.5193875,-2.7607789,3.6144965,-0.45356447,-0.30747366,0.8365041,0
-3.5831752,-1.1921349,3.1868725,-0.45356447,-0.30747366,0.8365041,0
-3.1646128,-1.7029252,3.0928357,-0.45356447,-0.30747366,0.8365041,0
4.345654,2.4798329,-2.1433942,0.45356447,0.30747366,-0.8365041,0
-0.072188854,3.1751008,-0.61911964,-0.28569734,0.93923038,0.19032359,0
0.048344225,3.4240501,-1.7419565,-0.38496852,0.9141131,0.12726498,0
-0.29628909,0.078791142,-5.5179157,0.45356447,0.30747366,-0.8365041,0
-0.77500367,-0.31657219,4.8268051,-0.45356447,-0.30747366,0.8365041,0
3.2758045,1.4548349,-3.0958476,0.45356447,0.30747366,-0.8365041,0
2.1509371,-2.1199272,-1.0972617,0.49718213,-0.86627078,-0.048835874,0
-2.0087452,-2.196671,3.3691602,-0.45356447,-0.30747366,0.8365041,0
1.8534098,-2.1729734,0.16476035,0.67132783,-0.73520565,0.093764007,0
-1.7235738,-1.4660587,3.947103,-0.45356447,-0.30747366,0.8365041,0
3.81689,1.2429177,-0.78527391,0.83367711,0.18543063,0.52019036,0
-2.1729717,1.985039,2.4090774,-0.39968216,0.90909898,0.11744416,0
-1.5213883,1.2399046,-3.1854382,-0.88991892,0.20701675,-0.40643361,0
-1.9565382,-2.9426119,3.0137515,-0.45356447,-0.30747366,0.8365041,0
0.26507747,0.6701932,4.6317291,0.62018144,0.56517667,0.54401314,0
-1.9293089,-2.9696803,-0.0004491806,-0.3894898,-0.77583694,-0.49636126,0
2.1071763,1.9690411,1.0268099,0.55203128,0.63994193,0.53454262,0
0.31881729,-3.3912952,1.0582163,0.3991248,-0.90929526,-0.11781836,0
1.5429237,0.30221844,2.9367151,0.81937027,0.2253606,0.52711004,0
-2.9725692,1.3682833,4.1826773,-0.45356447,-0.30747366,0.8365041,0
3.675576,2.9401522,-2.4177725,0.45356447,0.30747366,-0.8365041,0
2.1996627,0.078470707,2.4927781,0.85700583,0.10711163,0.50405174,0
-1.052624,0.96400499,5.0176797,-0.45356447,-0.30747366,0.8365041,0
3.0925102,-1.0670986,-3.9869771,0.45356447,0.30747366,-0.8365041,0
-1.3736485,-3.2225099,0.5423286,-0.14697915,-0.89994329,-0.41048628,0
0.017954946,2.272243,-4.6430035,0.45356447,0.30747366,-0.8365041,0
-4.0747867,0.58222771,2.9392521,-0.76925176,0.60902369,-0.19324046,0
3.615171,-0.35827971,-0.61553389,0.86813599,-0.36468315,0.33666915,0
2.4943242,2.2756941,-2.9766378,0.45356447,0.30747366,-0.8365041,0
0.43303737,-3.418577,1.0838895,0.4034068,-0.90777326,-0.11493719,0
0.84136212,3.1030221,-0.0019147396,0.11161491,0.91161478,0.39560121,0
-1.7200842,-0.90084696,3.9411361,-0.45356447,-0.30747366,0.8365041,0
0.49914163,-2.4113762,-1.8552885,-0.039124846,-0.93082744,-0.36335808,0
-1.5632881,0.32434273,4.587018,-0.45356447,-0.30747366,0.8365041,0
-2.0622344,-3.8539984,1.5677729,-0.12568292,-0.9071545,-0.40158963,0
-3.7443092,-1.5305114,2.6184278,-0.45356447,-0.30747366,0.8365041,0
-3.639895,1.2286468,4.0902543,-0.45356447,-0.30747366,0.8365041,0
-1.063082,1.6850593,-3.861892,-0.890338,0.19815454,-0.40991831,0
-3.5930104,-2.7205467,1.5349045,-0.65123391,-0.52641988,-0.54660439,0
-3.798007,0.17247295,3.1914639,-0.45356447,-0.30747366,0.8365041,0
3.0087328,2.5959501,-2.6419263,0.45356447,0.30747366,-0.8365041,0
-3.3966117,0.65744781,3.6375413,-0.45356447,-0.30747366,0.8365041,0
3.1956015,1.0206718,-3.208437,0.45356447,0.30747366,-0.8365041,0
-1.5930347,-3.775193,2.993063,-0.45356447,-0.30747366,0.8365041,0
-1.5143278,-4.1748867,3.055872,-0.45356447,-0.30747366,0.8365041,0
-3.3693638,-3.0390916,2.4592745,-0.45356447,-0.30747366,0.8365041,0
3.8405991,-0.79870892,-3.0202808,0.67202783,-0.73448312,0.094409227,0
0.57664549,1.1421118,-4.6512775,0.45356447,0.30747366,-0.8365041,0
2.3110991,-1.9089305,-0.062772274,0.6938141,-0.71093231,0.11487859,0
-0.72863841,2.2363315,3.0073283,0.03915301,0.93082136,0.36337131,0
-2.1151273,-3.4122458,2.8315463,-0.45356447,-0.30747366,0.8365041,0
-0.89319241,-0.22691226,-3.7122064,-0.73500085,-0.40178075,-0.54621047,0
-2.8361607,-0.29416037,3.6622145,-0.45356447,-0.30747366,0.8365041,0
-2.6904085,0.81691027,4.4433861,-0.45356447,-0.30747366,0.8365041,0
-2.672183,-2.7480025,2.9422238,-0.45356447,-0.30747366,0.8365041,0
3.3526669,2.3692195,-2.683686,0.45356447,0.30747366,-0.8365041,0
-4.0133033,0.77966738,3.3683102,-0.45356447,-0.30747366,0.8365041,0
3.3354573,-1.2399373,-3.1184464,0.55075985,-0.83462381,-0.0081527233,0
1.2806754,1.549583,-4.3409071,0.45356447,0.30747366,-0.8365041,0
0.68761945,0.058106899,4.8193698,0.73574626,0.4005034,0.54614508,0
1.9394352,-0.95118392,2.3614285,0.88928729,-0.21797642,0.40206265,0
3.5628972,0.277771,-3.3221154,0.45356447,0.30747366,-0.8365041,0
4.8373313,0.39945889,-2.6994698,0.45356447,0.30747366,-0.8365041,0
0.014792085,-0.038528442,-5.2055941,0.45356447,0.30747366,-0.8365041,0
-1.6522188,0.81700563,-3.6631985,-0.87998617,0.0059277415,-0.4749622,0
4.0779586,2.3524899,-2.1276915,0.45356447,0.30747366,-0.8365041,0
-1.8872457,2.3057079,0.45116878,-0.60122931,0.79841435,-0.032522023,0
3.8781161,-0.84712696,-3.8182805,0.45356447,0.30747366,-0.8365041,0
-2.5966067,0.47917509,4.0404749,-0.45356447,-0.30747366,0.8365041,0
0.71957201,2.6146696,-3.8627982,0.45356447,0.30747366,-0.8365041,0
0.21401954,0.33118677,-5.0517936,0.45356447,0.30747366,-0.8365041,0
1.5719037,1.3968899,2.6470623,0.64285219,0.53721142,0.54602641,0
0.57604194,-2.0200024,4.9431205,-0.45356447,-0.30747366,0.8365041,0
-3.1613126,-0.45390701,3.6856809,-0.45356447,-0.30747366,0.8365041,0
0.37313676,-1.2578239,5.1882,0.87271219,0.037076175,0.48682511,0
-0.032629967,-2.0179725,4.7468576,-0.45356447,-0.30747366,0.8365041,0
4.2544761,1.8445263,-1.642396,0.84245121,0.15832493,0.51498461,0
1.8628366,-2.275059,1.3806527,0.75964504,-0.62422204,0.18244511,0
-0.59817845,-1.8285689,4.2916079,-0.45356447,-0.30747366,0.8365041,0
1.5204397,1.2101078,-4.3474126,0.45356447,0.30747366,-0.8365041,0
-2.4793491,1.5240926,-0.72093892,-0.83541799,0.47359693,-0.27889559,0
-3.7556429,-1.8377397,1.016072,-0.77334213,-0.33073431,-0.54088509,0
-2.0723479,-0.38589525,4.3338399,-0.45356447,-0.30747366,0.8365041,0
1.8881766,-0.72271299,-4.5103245,0.45356447,0.30747366,-0.8365041,0
0.23555124,-1.0836191,5.1121974,-0.45356447,-0.30747366,0.8365041,0
-3.9925706,-2.1220231,1.2494748,-0.79084092,-0.29390275,-0.53683496,0
-3.0144687,-2.7042267,2.7338197,-0.45356447,-0.30747366,0.8365041,0
0.49752712,1.0981894,-4.7695732,0.45356447,0.30747366,-0.8365041,0
1.0879388,3.7543712,-3.3009098,0.45356447,0.30747366,-0.8365041,0
-2.3004024,1.3049984,4.6639876,-0.088287354,0.94948655,0.30113184,0
2.9610605,-0.95108604,-3.9722476,0.45356447,0.30747366,-0.8365041,0
3.2025001,3.3027482,-2.3273268,0.45356447,0.30747366,-0.8365041,0
2.7942705,2.3402863,-3.1999917,0.45356447,0.30747366,-0.8365041,0
1.5198548,-1.8863845,-4.1508484,-0.013502568,-0.93612343,-0.351412,0
-2.134551,0.72710502,-2.3692398,-0.89113551,0.16965586,-0.42082599,0
-0.70470202,-3.8869078,3.6179292,-0.45356447,-0.30747366,0.8365041,0
-0.472812,2.8139842,-3.9145021,-0.78376049,0.5844292,-0.2101475,0
0.66995001,-2.8857732,0.76845431,0.43219444,-0.8967337,-0.095270276,0
0.27806854,2.8644218,0.92253876,0.086825192,0.91889244,0.384835,0
3.4355919,3.1089501,-2.242116,0.45356447,0.30747366,-0.8365041,0
3.8978348,1.700353,-0.80905986,0.79737192,0.27925286,0.53499138,0
-0.082000375,2.0877199,-4.5717607,0.45356447,0.30747366,-0.8365041,0
-2.0161769,-3.3173749,3.2983053,-0.45356447,-0.30747366,0.8365041,0
-0.69527948,2.2594333,-4.8894815,-0.88379449,0.27611375,-0.3777149,0
-3.6279118,-2.4170637,1.1684372,-0.68323636,-0.48270661,-0.54788899,0
1.0784254,1.1029401,-4.2248993,0.45356447,0.30747366,-0.8365041,0
-1.6688709,-2.3950136,3.7843816,-0.45356447,-0.30747366,0.8365041,0
0.55526185,0.072149277,-4.9933338,0.45356447,0.30747366,-0.8365041,0
-1.2981033,-1.6843281,4.0414829,-0.45356447,-0.30747366,0.8365041,0
4.1245189,-0.65632248,-3.4160128,0.45356447,0.30747366,-0.8365041,0
-4.4743457,-1.9622319,2.4253054,-0.45356447,-0.30747366,0.8365041,0
-3.7345514,-2.2240007,2.343919,-0.45356447,-0.30747366,0.8365041,0
0.15680933,-0.091577053,-5.2143717,0.45356447,0.30747366,-0.8365041,0
3.8379827,0.068810225,-0.96320695,0.88941896,-0.2158622,0.40291119,0
-3.4249341,-1.696439,0.37239933,-0.75400054,-0.36801687,-0.54410177,0
-0.15201533,-3.5748405,3.74406,-0.45356447,-0.30747366,0.8365041,0
-0.31902623,-0.54258728,4.7879071,-0.45356447,-0.30747366,0.8365041,0
0.92441821,0.87389755,-4.6074328,0.45356447,0.30747366,-0.8365041,0
-1.780984,1.5690665,4.2392683,0.02417019,0.93401289,0.35642046,0
0.23381394,3.7398431,-3.7348709,-0.59759635,0.80125386,-0.029508471,0
0.040022373,-0.4433589,5.369523,-0.45356447,-0.30747366,0.8365041,0
3.4281895,2.6734381,-1.3662775,0.64791358,0.53072542,0.54638666,0
-2.6393363,1.9073575,2.8003664,-0.47796983,0.87612301,0.062874317,0
0.57459879,0.5808053,-4.6720781,0.45356447,0.30747366,-0.8365041,0
2.2832487,2.9993982,-2.9035299,0.45356447,0.30747366,-0.8365041,0
3.9785314,0.10707664,-1.3768474,0.8845216,-0.27019358,0.38028523,0
0.85302579,0.3833847,-4.9717078,0.45356447,0.30747366,-0.8365041,0
-0.10309064,0.8281045,4.5784273,0.56550229,0.62615824,0.53678036,0
-0.78429896,-0.38028622,4.9644256,-0.45356447,-0.30747366,0.8365041,0
0.059681892,-2.7777281,-0.76805234,0.029526383,-0.94327086,-0.33070838,0
1.39351,-2.0057673,3.0450411,0.86458027,-0.37958795,0.32926267,0
-1.541028,1.1202407,5.0836277,-0.45356447,-0.30747366,0.8365041,0
-0.32042304,3.3420279,-1.0530186,-0.31484979,0.93336052,0.17235923,0
-2.7494984,0.39077616,3.9708169,-0.45356447,-0.30747366,0.8365041,0
0.5305686,-0.14259052,-5.0525904,0.45356447,0.30747366,-0.8365041,0
3.2094917,-0.97463703,-3.9324813,0.45356447,0.30747366,-0.8365041,0
4.5769339,0.44621229,-2.9086666,0.45356447,0.30747366,-0.8365041,0
4.5024428,0.12085962,-2.4461303,0.87393659,-0.33741429,0.34983754,0
2.7987015,-1.6406815,-1.6358197,0.58333862,-0.81203365,0.017815351,0
2.4083574,3.7059104,-2.6627533,0.45356447,0.30747366,-0.8365041,0
1.5897427,0.28107309,-4.6163239,0.45356447,0.30747366,-0.8365041,0
3.4122658,-0.099816322,-3.3695416,0.45356447,0.30747366,-0.8365041,0
3.3262064,-0.85105991,-3.9723299,0.45356447,0.30747366,-0.8365041,0
-3.7288423,-0.76831579,3.0805748,-0.45356447,-0.30747366,0.8365041,0
2.8294539,-0.45422935,-3.8915355,0.45356447,0.30747366,-0.8365041,0
-3.1431899,-3.0843954,2.599767,-0.45356447,-0.30747366,0.8365041,0
-0.83592916,2.469444,-3.9713264,-0.86050141,0.39540291,-0.32123792,0
0.70356631,3.8020535,-3.2149785,-0.45844281,0.8853932,0.076869667,0
1.8366069,3.1836047,-3.3394387,0.45356447,0.30747366,-0.8365041,0
0.39416331,-2.7157075,-1.6915367,-0.03533867,-0.93165904,-0.36161089,0
0.74905598,-2.1605022,4.5987034,0.88776648,-0.23846395,0.39370751,0
1.1492556,-0.94035649,4.0595737,0.87696904,0.013221234,0.48036486,0
1.5690396,-2.4329412,-1.101707,0.39718097,-0.9099763,-0.11912274,0
-3.0116007,-0.11861491,-0.74336308,-0.88533503,0.047729179,-0.46249747,0
-3.4171028,-1.4494824,2.9601226,-0.45356447,-0.30747366,0.8365041,0
1.3649318,-2.2555473,1.8205473,0.74872798,-0.6405704,0.17051667,0
2.2623298,-0.0081977844,2.3005078,0.85358942,0.12000017,0.50693685,0
-0.10291791,-0.22096968,-5.5515866,-0.66648769,-0.50610226,-0.54740715,0
-0.015827417,2.7407751,-4.4933376,0.45356447,0.30747366,-0.8365041,0
0.18902695,-0.8930459,5.2115984,-0.45356447,-0.30747366,0.8365041,0
-1.5363034,-3.7262838,3.0887923,-0.45356447,-0.30747366,0.8365041,0
-2.7413731,1.6164286,2.3995712,-0.54906821,0.83572376,0.0094742179,0
-4.0909538,0.46823502,3.3749557,-0.45356447,-0.30747366,0.8365041,0
1.3358465,1.8439445,2.155745,0.54587072,0.64609653,0.53346449,0
2.0558782,2.9640973,-3.4061439,0.45356447,0.30747366,-0.8365041,0
-3.580935,-2.8679435,2.547997,-0.45356447,-0.30747366,0.8365041,0
-0.37447774,0.72174788,5.2239122,0.53650421,0.65528059,0.53176165,0
2.2161498,2.7225041,-3.4005671,0.45356447,0.30747366,-0.8365041,0
2.1817138,-0.74304819,2.1084394,0.8912009,-0.16315356,0.42325151,0
-4.2509847,-0.19329405,1.7259209,-0.88560045,0.26076236,-0.38433683,0
-2.2407017,1.3142333,-1.3932817,-0.86789745,0.36572033,-0.3361586,0
-2.3528466,-3.2519195,0.809618,-0.35623381,-0.79781294,-0.48640698,0
-0.27857661,-0.78093624,4.954493,-0.45356447,-0.30747366,0.8365041,0
-4.0111828,-1.4203537,2.5428467,-0.45356447,-0.30747366,0.8365041,0
-1.0828598,2.4618015,1.4017622,-0.2140107,0.94871479,0.23267937,0
3.8270819,-0.73451233,-3.4763103,0.45356447,0.30747366,-0.8365041,0
4.0442195,0.70148945,-2.9952743,0.45356447,0.30747366,-0.8365041,0
-2.0442309,0.90738201,4.5706596,-0.45356447,-0.30747366,0.8365041,0
