-2.0042586,1.7538826,-1.4555502,0.41605413,0.39899588,-0.81712973,0
-2.4498131,1.9183391,-0.044194221,-0.75366467,0.65410143,-0.064348876,0
1.9803216,-1.1482918,-0.75250643,0.41605413,0.39899588,-0.81712973,0
-1.7932905,0.90664089,-1.5438348,0.41605413,0.39899588,-0.81712973,0
-2.2423048,1.4124564,-1.6551497,-0.89066911,0.35996327,-0.27773142,0
0.2305243,-2.5309439,-1.1891155,0.11193818,-0.91423452,-0.38941625,0
-0.45020556,-2.9009483,-0.71668875,-0.035280943,-0.89083731,-0.45295051,0
-0.03675878,-1.7785559,0.15083128,-0.41605413,-0.39899588,0.81712973,0
1.6837641,-2.6802161,-0.54744267,0.5047282,-0.84879524,-0.15746783,0
0.66941422,-0.44725353,-0.9572264,0.41605413,0.39899588,-0.81712973,0
1.3786722,-2.3791263,-0.96024293,0.36478645,-0.89635634,-0.25194496,0
-0.89977324,-0.098656774,-1.8600968,0.41605413,0.39899588,-0.81712973,0
-2.6546485,0.55359548,-1.0934031,-0.90788352,0.1314283,-0.39808768,0
-1.520185,-1.9171648,-0.31681728,-0.41605413,-0.39899588,0.81712973,0
-0.17210698,-1.4799519,0.2396436,-0.41605413,-0.39899588,0.81712973,0
-1.436444,-1.4880598,-2.315052,-0.53717119,-0.61721253,-0.57488739,0
0.96987391,-1.4834309,0.7629689,-0.41605413,-0.39899588,0.81712973,0
-1.4093062,2.4787898,-0.14572352,-0.57656562,0.81062704,0.1022536,0
-1.2587755,-2.2617576,-1.3711424,-0.36930645,-0.74701291,-0.5527966,0
1.071485,-0.077299953,1.9539137,-0.41605413,-0.39899588,0.81712973,0
-1.5063484,-1.1495794,-2.4059768,-0.61146879,-0.54234928,-0.57616228,0
-1.0353832,1.2597637,1.4052294,-0.41605413,-0.39899588,0.81712973,0
-2.4194014,-1.0638185,-1.3968873,-0.7498132,-0.35786295,-0.55651963,0
1.8779052,-0.85262132,1.8773925,-0.41605413,-0.39899588,0.81712973,0
-2.3241954,-1.7326097,-1.2926435,-0.67770427,-0.46309757,-0.57118922,0
-2.8657985,0.5263958,-0.50280118,-0.90853596,0.2201682,-0.35508907,0
-1.1780624,1.7262444,-0.91249079,0.41605413,0.39899588,-0.81712973,0
1.4325894,1.8663775,2.1217844,0.52204007,0.63096368,0.57389778,0
-1.8649216,-0.79194963,0.092908859,-0.41605413,-0.39899588,0.81712973,0
-1.0108042,1.4131025,1.1986548,-0.41605413,-0.39899588,0.81712973,0
0.19271517,-2.5160146,-1.8228405,-0.020778,-0.89419079,-0.44720352,0
-0.24918973,0.55266464,1.3261915,-0.41605413,-0.39899588,0.81712973,0
2.2273674,2.0249023,0.88378763,0.41605413,0.39899588,-0.81712973,0
-2.200012,1.906365,0.42149258,-0.71916801,0.69430548,-0.027153194,0
-0.11131072,3.1864297,0.66926235,-0.11969703,0.91480762,0.38574553,0
-0.039427042,-2.1682687,-2.4645286,-0.21262515,-0.83100116,-0.51403058,0
-0.96498728,-2.5739226,-0.76461232,-0.41605413,-0.39899588,0.81712973,0
2.1075838,-0.19117378,-0.14402628,0.41605413,0.39899588,-0.81712973,0
-3.0562749,0.12019658,-0.81412482,-0.9045074,0.089068204,-0.41705263,0
-2.8510907,1.2529041,-0.3600347,-0.866952,0.44519901,-0.2240358,0
0.29211712,-3.1396077,-0.67543417,0.22279793,-0.91593558,-0.33380091,0
1.4724742,-0.91891575,1.5775898,-0.41605413,-0.39899588,0.81712973,0
-0.45175648,1.9196151,2.0516224,-0.41605413,-0.39899588,0.81712973,0
-1.593242,1.3966627,1.1618659,-0.41605413,-0.39899588,0.81712973,0
1.4399922,1.237619,0.24279845,0.41605413,0.39899588,-0.81712973,0
0.25656891,-1.3417399,0.47214663,-0.41605413,-0.39899588,0.81712973,0
-0.15030003,2.1519966,1.9777797,-0.41605413,-0.39899588,0.81712973,0
-3.1413903,0.74286187,0.0037658215,-0.41605413,-0.39899588,0.81712973,0
-0.0021796227,-1.374681,0.38857681,-0.41605413,-0.39899588,0.81712973,0
0.87898719,-0.82621241,-1.2201537,0.41605413,0.39899588,-0.81712973,0
1.6096072,-0.46854776,-0.45823634,0.41605413,0.39899588,-0.81712973,0
-0.8192941,2.326438,2.06529,-0.41605413,-0.39899588,0.81712973,0
1.4654971,-0.54057884,1.4741782,-0.41605413,-0.39899588,0.81712973,0
2.9189796,-0.82151794,-0.098243952,0.86930978,-0.43819773,0.22865492,0
-2.1953983,2.2203608,-0.77892995,-0.77892184,0.62006181,-0.093830228,0
1.9130944,1.8355222,0.59512496,0.41605413,0.39899588,-0.81712973,0
2.4852374,-2.0675027,-0.71028078,0.67237192,-0.73997021,-0.018971354,0
-0.66817117,-1.8119743,0.025091887,-0.41605413,-0.39899588,0.81712973,0
1.0771215,-0.22299173,-0.5574469,0.41605413,0.39899588,-0.81712973,0
0.96991801,-2.7777317,-0.59474641,0.30055302,-0.90843278,-0.29054713,0
1.584731,1.08634,0.20527554,0.41605413,0.39899588,-0.81712973,0
1.3172383,2.2877936,1.7615213,0.41029197,0.7195611,0.56026059,0
2.0966172,1.2852074,1.5874617,0.69857919,0.43501842,0.56810725,0
0.53116667,0.03897655,-1.1213217,0.41605413,0.39899588,-0.81712973,0
0.97454268,-1.1466763,-1.3360224,0.41605413,0.39899588,-0.81712973,0
0.27609634,2.922822,0.15909326,0.41605413,0.39899588,-0.81712973,0
1.6896322,-1.2854517,1.6896712,-0.41605413,-0.39899588,0.81712973,0
1.903267,1.7070746,0.5607183,0.41605413,0.39899588,-0.81712973,0
-1.005777,-1.6497873,-0.24470913,-0.41605413,-0.39899588,0.81712973,0
1.8914946,-1.7663817,-1.3172005,0.41605413,0.39899588,-0.81712973,0
-1.0520288,-1.8455547,-2.4578738,0.41605413,0.39899588,-0.81712973,0
-1.9750259,2.4807241,0.35209882,-0.5993458,0.79611605,0.083569109,0
-1.9017463,1.3497441,-1.333822,0.41605413,0.39899588,-0.81712973,0
-1.9399107,-0.7974205,-0.15383434,-0.41605413,-0.39899588,0.81712973,0
-1.5915821,2.4402509,0.63486832,-0.55133116,0.82528001,0.12225702,0
-0.58339614,-0.15346801,-1.7447128,0.41605413,0.39899588,-0.81712973,0
-2.9522371,0.64478546,-0.71070838,-0.90826625,0.22598925,-0.35210937,0
-2.329648,1.0828489,-1.6694095,-0.90904367,0.20542568,-0.36254621,0
2.2000246,1.9158577,0.79062176,0.41605413,0.39899588,-0.81712973,0
-2.8702488,0.33354965,-0.14002967,-0.41605413,-0.39899588,0.81712973,0
2.3555264,1.0495849,1.2537873,0.77318263,0.31775618,0.5488348,0
-2.487704,-0.95127994,-1.3323975,-0.77008235,-0.32329202,-0.5499593,0
-1.3281791,-2.2333522,-0.53010392,-0.41605413,-0.39899588,0.81712973,0
0.83826482,-1.0855541,1.2163132,-0.41605413,-0.39899588,0.81712973,0
-0.93772233,-1.7781521,-0.15924788,-0.41605413,-0.39899588,0.81712973,0
-2.7667899,-0.41459233,-0.14735723,-0.41605413,-0.39899588,0.81712973,0
2.2946453,-1.8317807,0.26249099,0.79532534,-0.59531581,0.1142655,0
1.052209,1.8055991,2.0187838,0.45838231,0.68405539,0.56740963,0
-0.7844758,-2.3137815,-0.45185328,-0.41605413,-0.39899588,0.81712973,0
-2.767909,0.0582394,-0.90447593,-0.9065311,0.11141941,-0.40716928,0
2.4319699,-1.953794,-0.72286487,0.68201977,-0.73126787,-0.0098097622,0
-0.52780151,-0.75488043,0.60170209,-0.41605413,-0.39899588,0.81712973,0
-1.1013951,2.9292605,-0.27698776,-0.53963697,0.83159691,0.13129576,0
-1.0554023,-1.3145798,-0.024853468,-0.41605413,-0.39899588,0.81712973,0
2.5773866,1.6520145,1.2219,0.71479487,0.41196993,0.56510943,0
-3.0530245,-0.29820466,-1.0000865,-0.89184302,0.0036151111,-0.45233023,0
0.5191009,-2.6529653,0.27913415,-0.41605413,-0.39899588,0.81712973,0
-1.744639,-0.54744744,0.1140821,-0.41605413,-0.39899588,0.81712973,0
2.5059814,0.27996525,0.38490152,0.41605413,0.39899588,-0.81712973,0
-2.2754488,-0.44836104,-1.8135681,-0.84728903,-0.15615386,-0.50765848,0
2.9635429,0.18297409,0.22754264,0.41605413,0.39899588,-0.81712973,0
-1.2157047,1.6082621,1.5839243,-0.41605413,-0.39899588,0.81712973,0
1.5856831,2.0162199,1.3504851,0.53408676,0.62005353,0.57470411,0
2.8879766,1.049788,0.88247919,0.41605413,0.39899588,-0.81712973,0
-0.952057,0.29051721,0.74556392,-0.41605413,-0.39899588,0.81712973,0
2.7121441,-0.042584062,1.3641853,0.90198362,-0.067009747,0.42653859,0
0.42182875,-2.578181,0.32430902,-0.41605413,-0.39899588,0.81712973,0
0.69462556,0.50449979,1.777862,-0.41605413,-0.39899588,0.81712973,0
-1.0053637,2.9257889,-0.43725643,0.41605413,0.39899588,-0.81712973,0
-0.62631989,-1.060758,0.46764037,-0.41605413,-0.39899588,0.81712973,0
0.68252826,-2.8374612,0.40623546,-0.41605413,-0.39899588,0.81712973,0
-1.2330709,0.7904377,-1.5684279,0.41605413,0.39899588,-0.81712973,0
-1.1601238,-1.2369096,-2.5352488,0.41605413,0.39899588,-0.81712973,0
-0.61796665,-2.00279,-1.8881712,-0.29760247,-0.78936553,-0.53696781,0
-1.0188384,2.6904304,0.63354677,-0.36776322,0.89565939,0.25008893,0
-1.3753874,-2.1449711,-0.38725948,-0.41605413,-0.39899588,0.81712973,0
-0.55943203,-0.46994615,0.56456077,-0.41605413,-0.39899588,0.81712973,0
1.0019202,-2.5059566,-1.2809625,0.29071802,-0.90979958,-0.29622224,0
-1.4354234,-2.1902726,-0.65165377,-0.41605413,-0.39899588,0.81712973,0
1.6405194,-2.5835717,0.15940869,0.61736298,-0.78370482,-0.068335146,0
0.71598816,-1.6400452,0.9450863,-0.41605413,-0.39899588,0.81712973,0
0.77377355,-2.1474319,0.35921922,-0.41605413,-0.39899588,0.81712973,0
1.7596467,2.238914,1.2960057,0.52778721,0.62579536,0.57430029,0
-2.4451532,1.9837778,0.72253358,-0.41605413,-0.39899588,0.81712973,0
1.474331,0.60203218,2.4844713,-0.41605413,-0.39899588,0.81712973,0
-2.0154366,-0.14214897,-2.1868255,0.41605413,0.39899588,-0.81712973,0
-2.7103262,1.380968,-0.29913878,-0.83329624,0.52701533,-0.16694939,0
-0.93309057,0.67275476,-1.2334982,0.41605413,0.39899588,-0.81712973,0
2.12641,1.015509,1.5255094,0.73742354,0.37774891,0.55992138,0
2.0565481,-1.2699947,-0.65659708,0.41605413,0.39899588,-0.81712973,0
1.5450244,-1.6119701,1.1250753,-0.41605413,-0.39899588,0.81712973,0
-1.2494117,2.3274674,1.4660327,-0.27075392,0.91219556,0.30755714,0
1.4110637,-0.56440914,1.7191595,-0.41605413,-0.39899588,0.81712973,0
0.36913949,0.98036116,-0.34327602,0.41605413,0.39899588,-0.81712973,0
1.2561975,2.5441048,0.58793044,0.41605413,0.39899588,-0.81712973,0
-1.7157834,-0.50608462,0.23259902,-0.41605413,-0.39899588,0.81712973,0
-0.6375407,1.930701,-0.43648279,0.41605413,0.39899588,-0.81712973,0
-3.0172956,0.9333427,-0.24976087,-0.88906252,0.36718991,-0.27338469,0
-2.9062612,-0.25877035,-1.1704359,-0.88415623,-0.032515079,-0.46605849,0
3.0398536,0.23211677,0.78435278,0.89411116,-0.015732318,0.44756842,0
-1.1270897,1.2057884,-1.0018457,0.41605413,0.39899588,-0.81712973,0
-1.0459033,2.3496556,1.783466,-0.25375366,0.91384292,0.31701753,0
-0.36622089,-0.2811445,0.91630375,-0.41605413,-0.39899588,0.81712973,0
2.4661994,-1.6710896,0.078362942,0.82393211,-0.54561567,0.15309912,0
-1.2993063,-1.5294452,-2.3219454,-0.55804503,-0.59745991,-0.57587075,0
-2.0992708,0.64549482,0.26372623,-0.41605413,-0.39899588,0.81712973,0
2.5793626,-0.47627938,1.5731175,0.90779054,-0.12981144,0.39882982,0
-1.5376097,-0.076779008,-1.9488845,0.41605413,0.39899588,-0.81712973,0
-0.33967388,-1.7262431,0.17552459,-0.41605413,-0.39899588,0.81712973,0
-1.7134657,0.29115036,0.51783407,-0.41605413,-0.39899588,0.81712973,0
0.18159401,1.5893714,2.1433024,-0.41605413,-0.39899588,0.81712973,0
-2.6280549,-0.81850886,-0.72754669,-0.41605413,-0.39899588,0.81712973,0
-0.069032907,1.0363803,1.7141085,-0.41605413,-0.39899588,0.81712973,0
1.580251,-0.71845758,1.46787,-0.41605413,-0.39899588,0.81712973,0
2.4180517,1.4514354,0.78246784,0.41605413,0.39899588,-0.81712973,0
0.37061739,-0.78372312,0.99262226,-0.41605413,-0.39899588,0.81712973,0
0.88237095,2.1177313,2.1217303,0.39972174,0.72687936,0.55845213,0
-1.3251315,-0.036032796,-1.8118585,0.41605413,0.39899588,-0.81712973,0
-1.808975,0.55718344,0.50308621,-0.41605413,-0.39899588,0.81712973,0
0.3153789,-2.8512931,-1.3503546,0.10493076,-0.91365939,-0.39270335,0
1.5398238,-0.077787787,-0.23315966,0.41605413,0.39899588,-0.81712973,0
0.77935433,0.55835074,-0.34152591,0.41605413,0.39899588,-0.81712973,0
-0.29822469,1.9145881,-0.55788368,0.41605413,0.39899588,-0.81712973,0
-1.340113,2.790658,0.35277593,-0.47341377,0.86225569,0.17998467,0
-1.2113042,-2.5929778,-0.56146264,-0.41605413,-0.39899588,0.81712973,0
-0.47375908,0.033123851,-1.4471892,0.41605413,0.39899588,-0.81712973,0
1.615206,0.17803729,-0.35535419,0.41605413,0.39899588,-0.81712973,0
-0.41873109,1.8937676,-0.75356328,0.41605413,0.39899588,-0.81712973,0
2.19613,-2.0467298,0.38355696,0.75971615,-0.64634299,0.071218431,0
-1.5596572,2.0487432,-0.9758718,0.41605413,0.39899588,-0.81712973,0
-1.5324435,2.5362422,-0.78108573,0.41605413,0.39899588,-0.81712973,0
1.7324369,-2.2736843,-1.2425812,0.49046057,-0.85514903,-0.16783497,0
-0.047292233,-0.97190583,-1.6703842,0.41605413,0.39899588,-0.81712973,0
-0.53556061,2.7268546,0.068345577,0.41605413,0.39899588,-0.81712973,0
-2.9072881,0.11793283,-0.5804882,-0.9046284,0.090253919,-0.41653538,0
1.706135,-0.18876249,-0.3623333,0.41605413,0.39899588,-0.81712973,0
-2.3192496,1.9961445,-0.67318165,-0.77172685,0.63022012,-0.085206509,0
0.91087735,-2.0345616,0.47542328,-0.41605413,-0.39899588,0.81712973,0
1.8477569,0.93509912,0.30875897,0.41605413,0.39899588,-0.81712973,0
-1.7311474,0.4904778,-1.9051628,0.41605413,0.39899588,-0.81712973,0
0.96657461,0.4226234,-0.52447462,0.41605413,0.39899588,-0.81712973,0
-2.0403962,2.0261126,1.2587757,-0.41605413,-0.39899588,0.81712973,0
-2.6292138,-1.5134319,-0.63367295,-0.41605413,-0.39899588,0.81712973,0
-0.96569824,2.0166273,1.5891231,-0.41605413,-0.39899588,0.81712973,0
2.2670796,1.4022437,0.43666339,0.41605413,0.39899588,-0.81712973,0
-1.0044471,0.82965136,-1.3445935,0.41605413,0.39899588,-0.81712973,0
0.83892608,-0.20949918,-0.71631604,0.41605413,0.39899588,-0.81712973,0
-2.2539916,1.6357932,-0.60308647,-0.83105528,0.53159267,-0.16357332,0
0.13253164,-2.4417915,-1.6856185,0.012799025,-0.90107709,-0.4334698,0
-2.3760929,-1.5412056,-0.94159961,-0.68316197,-0.45591864,-0.57046276,0
-0.27069378,1.4133456,-0.558864,0.41605413,0.39899588,-0.81712973,0
-1.6465678,2.5301433,-0.59713578,-0.64040601,0.76652175,0.048212141,0
-1.2922766,-1.5658731,-0.38504851,-0.41605413,-0.39899588,0.81712973,0
0.75611699,-1.2205775,-1.3767103,0.41605413,0.39899588,-0.81712973,0
2.671021,1.5187843,1.0991356,0.72984642,0.38949478,0.56179875,0
-1.9563453,-2.2796171,-0.95924544,-0.55434841,-0.60102636,-0.57572997,0
-1.0357655,-1.6701,-0.3565979,-0.41605413,-0.39899588,0.81712973,0
-1.6535839,0.62638831,0.87399089,-0.41605413,-0.39899588,0.81712973,0
2.789501,-0.20474346,0.11524224,0.41605413,0.39899588,-0.81712973,0
-0.28263405,-0.14949989,0.9533903,-0.41605413,-0.39899588,0.81712973,0
-0.93871975,-1.7345462,-2.4902701,-0.39043671,-0.73316938,-0.55679584,0
2.7558134,-0.22013491,1.0453744,0.90890765,-0.15476814,0.38721257,0
-2.2577391,-0.8199718,-2.1981874,-0.76966637,-0.32402933,-0.55010748,0
-0.55348098,0.51653051,-1.3034148,0.41605413,0.39899588,-0.81712973,0
0.41164756,-1.721374,0.64387459,-0.41605413,-0.39899588,0.81712973,0
0.5320971,1.2876297,-0.41786444,0.41605413,0.39899588,-0.81712973,0
-0.9525789,-1.0094939,0.12637591,-0.41605413,-0.39899588,0.81712973,0
-2.2132225,2.2001712,0.34617472,-0.6585784,0.75184029,0.031790584,0
-2.3134024,0.76383233,0.29733336,-0.41605413,-0.39899588,0.81712973,0
-0.90581644,-1.3421649,-0.070059776,-0.41605413,-0.39899588,0.81712973,0
-1.4900022,-0.60541177,-2.1648881,0.41605413,0.39899588,-0.81712973,0
1.2214777,-0.76644754,-0.82932162,0.41605413,0.39899588,-0.81712973,0
0.19750106,0.48385894,-1.0108013,0.41605413,0.39899588,-0.81712973,0
-2.8137145,1.00898,0.23996472,-0.85979974,0.46515748,-0.21064854,0
-0.66667676,3.2668858,-0.072792217,-0.33445066,0.90275389,0.27051473,0
1.962002,1.0717049,0.42205143,0.41605413,0.39899588,-0.81712973,0
-0.29639888,-0.29924822,-1.5733018,0.41605413,0.39899588,-0.81712973,0
1.706547,1.7732016,0.6029892,0.41605413,0.39899588,-0.81712973,0
-2.3697433,0.51598287,0.301772,-0.41605413,-0.39899588,0.81712973,0
-0.091909766,1.4472969,2.1168647,-0.41605413,-0.39899588,0.81712973,0
-0.19378853,-2.3753452,0.011061311,-0.41605413,-0.39899588,0.81712973,0
-0.40135536,-0.26366329,0.91924304,-0.41605413,-0.39899588,0.81712973,0
0.78504491,-1.7390387,0.65213168,-0.41605413,-0.39899588,0.81712973,0
-0.3198669,-3.2005818,-0.73198962,0.0070109963,-0.89997745,-0.43587995,0
0.55081201,2.6308036,1.610551,0.19586641,0.83818293,0.50900447,0
0.49552512,3.0165603,0.26186275,0.41605413,0.39899588,-0.81712973,0
0.71526027,2.5082545,0.37390339,0.41605413,0.39899588,-0.81712973,0
0.53514194,2.7416568,0.87342966,0.13779896,0.86055541,0.49036279,0
0.75961065,3.0676603,0.76591873,0.15601653,0.85395098,0.49641359,0
-0.22330056,0.039876461,-1.1314157,0.41605413,0.39899588,-0.81712973,0
0.49409896,0.90106344,1.7104312,-0.41605413,-0.39899588,0.81712973,0
1.1284871,-1.2202945,0.99184632,-0.41605413,-0.39899588,0.81712973,0
-1.3932508,-1.2979851,-2.2995486,-0.61460757,-0.53888804,-0.57607031,0
0.24809623,-2.3994679,-2.0444756,0.41605413,0.39899588,-0.81712973,0
1.2714158,-0.17985821,1.997497,-0.41605413,-0.39899588,0.81712973,0
1.5836002,0.57307911,2.4727368,0.7411589,0.37184507,0.55894047,0
-0.93639433,-0.63681912,-1.9431171,0.41605413,0.39899588,-0.81712973,0
-3.2669933,-0.012313962,-0.52655268,-0.9088757,0.15375549,-0.38769072,0
-1.6569951,-2.1845498,-0.58943963,-0.41605413,-0.39899588,0.81712973,0
-0.39333308,-1.3343508,0.22094029,-0.41605413,-0.39899588,0.81712973,0
-0.74319649,-2.0065656,-2.2587562,-0.34933209,-0.75951403,-0.54873073,0
-1.577246,0.27578643,0.37212932,-0.41605413,-0.39899588,0.81712973,0
2.5609331,-0.32634676,-0.028737783,0.41605413,0.39899588,-0.81712973,0
-1.5434952,-0.93865061,-2.602632,0.41605413,0.39899588,-0.81712973,0
3.1460638,-0.30630359,0.66987443,0.90892053,-0.20975465,0.36036974,0
2.7557521,-0.33299482,1.4943092,0.90525067,-0.096611083,0.41374809,0
1.4919577,1.1647046,-0.13495898,0.41605413,0.39899588,-0.81712973,0
-2.7362709,-0.20250744,-0.88078666,-0.89094102,-0.00098583102,-0.45411754,0
-0.3551265,-1.7077142,-2.1892328,0.41605413,0.39899588,-0.81712973,0
2.2996521,0.049617529,2.3821285,0.84255779,0.16885713,0.51145232,0
0.044710875,0.98905629,1.5994568,-0.41605413,-0.39899588,0.81712973,0
0.25085819,0.44731832,1.4276772,-0.41605413,-0.39899588,0.81712973,0
-0.17264545,-1.0047282,-1.7223258,0.41605413,0.39899588,-0.81712973,0
0.26784062,3.1426172,0.30305696,-0.050456762,0.90734172,0.41735473,0
2.3908863,-1.8817997,-0.60280478,0.68274784,-0.73059726,-0.0091116726,0
-0.28406382,-1.6748184,-2.1880102,0.41605413,0.39899588,-0.81712973,0
-1.1012986,-2.3838243,-0.69572914,-0.41605413,-0.39899588,0.81712973,0
2.695791,1.0059829,0.72198677,0.80928183,0.24731629,0.53282022,0
3.1245465,-0.27404165,0.67123508,0.90886503,-0.21149176,0.35949326,0
-1.4427059,1.6342082,-1.1764393,0.41605413,0.39899588,-0.81712973,0
-2.19561,1.4233866,-1.4877267,-0.89963078,0.3115662,-0.3059262,0
1.9891605,-1.6897359,-0.91728264,0.41605413,0.39899588,-0.81712973,0
-0.75956178,2.345885,-0.59917247,0.41605413,0.39899588,-0.81712973,0
2.7697213,-1.0667731,-0.3699472,0.41605413,0.39899588,-0.81712973,0
1.5698793,1.1322327,2.5376711,0.68552589,0.45277444,0.570131,0
-0.68962348,-1.4036467,0.15951359,-0.41605413,-0.39899588,0.81712973,0
-1.764318,0.22249083,0.1938566,-0.41605413,-0.39899588,0.81712973,0
1.347717,0.39915043,-0.5401786,0.41605413,0.39899588,-0.81712973,0
-0.12106586,3.0735326,0.49081028,-0.14374745,0.91615617,0.37415832,0
-2.6243432,0.29121727,-0.19905996,-0.41605413,-0.39899588,0.81712973,0
0.77036572,2.0480461,2.1066194,0.29293257,0.79188728,0.53582162,0
-0.30103981,0.87368906,-0.78729808,0.41605413,0.39899588,-0.81712973,0
-1.4092585,-1.3856359,-0.033155322,-0.41605413,-0.39899588,0.81712973,0
1.7807075,0.13474751,2.2470033,-0.41605413,-0.39899588,0.81712973,0
0.054323792,-1.0394177,-1.8982732,0.41605413,0.39899588,-0.81712973,0
0.069937557,-0.49551344,1.0769584,-0.41605413,-0.39899588,0.81712973,0
-0.92602348,2.6836221,1.1160457,-0.2416082,0.91480219,0.32366994,0
0.65151978,0.035458803,-0.99170017,0.41605413,0.39899588,-0.81712973,0
-1.5823348,2.2325087,1.3148791,-0.41605413,-0.39899588,0.81712973,0
-1.537935,2.5239735,1.3465271,-0.40563369,0.88567299,0.22593038,0
-2.5767245,1.1710733,-1.5657115,-0.90683168,0.24874485,-0.34026766,0
3.0433998,-0.27341986,0.68658543,0.90836018,-0.22405627,0.35310113,0
2.3414829,-1.7225311,-1.0281651,0.41605413,0.39899588,-0.81712973,0
0.7266593,-3.1689143,0.17225097,0.40055043,-0.88713652,-0.22923324,0
-0.063415766,1.3192384,-0.66447055,0.41605413,0.39899588,-0.81712973,0
2.7106586,-1.7926924,-0.57679999,0.73236018,-0.67968124,0.041011035,0
-1.5192399,-2.3538857,-0.465873,-0.41605413,-0.39899588,0.81712973,0
1.7272389,-2.0151219,0.89586318,-0.41605413,-0.39899588,0.81712973,0
-1.3974353,-1.9831597,-0.61917686,-0.41605413,-0.39899588,0.81712973,0
-1.2771316,-2.2837186,-1.6240797,-0.43343061,-0.70294011,-0.56392628,0
1.7292036,1.9044013,0.36558914,0.41605413,0.39899588,-0.81712973,0
-0.77215868,-0.30458307,0.8578068,-0.41605413,-0.39899588,0.81712973,0
-2.9323487,0.23449957,-0.36519408,-0.41605413,-0.39899588,0.81712973,0
-2.3812129,2.0259411,0.62950587,-0.70316339,0.71094501,-0.010879219,0
2.0204177,-0.10222781,2.0047929,-0.41605413,-0.39899588,0.81712973,0
-1.7305272,0.27465022,0.51479793,-0.41605413,-0.39899588,0.81712973,0
-2.80564,0.79557014,-1.2743065,-0.90720791,0.24362203,-0.34296066,0
1.0650326,-2.3192992,-1.6845096,0.41605413,0.39899588,-0.81712973,0
1.4469757,-2.7100456,0.64510298,-0.41605413,-0.39899588,0.81712973,0
-0.94405127,2.3509083,-0.49184963,0.41605413,0.39899588,-0.81712973,0
-0.075930834,-2.3457453,-1.5864711,-0.081791341,-0.87853432,-0.47062457,0
1.0683014,-1.9364086,0.8885498,-0.41605413,-0.39899588,0.81712973,0
-1.1488526,-0.44176298,0.40131718,-0.41605413,-0.39899588,0.81712973,0
2.306869,1.6483803,0.89283586,0.41605413,0.39899588,-0.81712973,0
0.10419071,1.9581832,-0.31579021,0.41605413,0.39899588,-0.81712973,0
0.623981,-2.2919011,-1.8754728,0.096115351,-0.91285855,-0.39680085,0
1.9851789,-2.5470138,0.88340759,0.74260044,-0.6677072,0.052071869,0
-1.3298239,1.8942313,1.4444362,-0.41605413,-0.39899588,0.81712973,0
-0.46608025,1.2480265,-0.61782706,0.41605413,0.39899588,-0.81712973,0
-0.0071415305,0.35649812,1.4562945,-0.41605413,-0.39899588,0.81712973,0
-1.5331067,1.0763726,-1.2556516,0.41605413,0.39899588,-0.81712973,0
0.11646104,1.4243846,-0.46148267,0.41605413,0.39899588,-0.81712973,0
-2.953203,-0.15057312,-0.50781465,-0.89749968,0.035641164,-0.43957245,0
-2.3580275,0.4891932,-1.5854542,-0.90864271,0.14723605,-0.39075541,0
1.0161887,0.12106144,-0.76556778,0.41605413,0.39899588,-0.81712973,0
-1.3387895,1.4533259,-1.3487928,0.41605413,0.39899588,-0.81712973,0
0.067093492,-1.7745059,0.17461215,-0.41605413,-0.39899588,0.81712973,0
0.85666323,-2.1982193,-1.9585427,0.41605413,0.39899588,-0.81712973,0
-0.57296091,-0.71818638,-2.0488899,0.41605413,0.39899588,-0.81712973,0
-0.88719368,2.7881424,-0.085180894,0.41605413,0.39899588,-0.81712973,0
1.1958992,0.34121287,2.0378604,-0.41605413,-0.39899588,0.81712973,0
-1.7197398,0.0054259598,0.20060968,-0.41605413,-0.39899588,0.81712973,0
1.6827575,-0.44171154,1.9061606,-0.41605413,-0.39899588,0.81712973,0
-1.9794164,1.8162916,1.0178881,-0.41605413,-0.39899588,0.81712973,0
0.56445801,-1.9295107,0.42404753,-0.41605413,-0.39899588,0.81712973,0
-0.61653352,-2.0751019,-1.8131144,-0.31564552,-0.77935678,-0.54126751,0
2.3284998,-1.1133653,-0.76261258,0.41605413,0.39899588,-0.81712973,0
-0.60836768,2.4459887,-0.34604359,0.41605413,0.39899588,-0.81712973,0
1.7584543,0.46849051,-0.15440226,0.41605413,0.39899588,-0.81712973,0
-2.9895928,0.027094394,-0.74795198,-0.90746856,0.1245625,-0.4012289,0
-0.18669391,-3.0462902,-0.20162559,-0.41605413,-0.39899588,0.81712973,0
-0.65640181,0.080406547,-1.423146,0.41605413,0.39899588,-0.81712973,0
2.5386944,-0.54853559,1.9686975,0.89632308,-0.028443396,0.44248796,0
0.3987391,-1.2284371,1.0279877,-0.41605413,-0.39899588,0.81712973,0
-1.7720575,-1.8214303,-0.594872,-0.41605413,-0.39899588,0.81712973,0
-3.0378079,1.3867199,0.19320321,-0.83911115,0.51473165,-0.17590815,0
1.860513,2.2346697,1.2611132,0.55515712,0.60024875,0.57576191,0
-2.5692985,-1.3106169,-1.3413956,-0.76972151,-0.32393184,-0.55008805,0
2.1521609,1.3662331,1.5390859,0.66167688,0.48356053,0.57302052,0
-1.4311416,0.1694535,0.75298697,-0.41605413,-0.39899588,0.81712973,0
-0.77480197,1.6503166,1.5816772,-0.41605413,-0.39899588,0.81712973,0
2.9840868,-0.054039896,0.92385769,0.90750933,-0.12520054,0.40093809,0
-0.5071618,0.044569254,-1.5365286,0.41605413,0.39899588,-0.81712973,0
-0.60848427,3.059675,-0.27942207,0.41605413,0.39899588,-0.81712973,0
1.0616938,-0.83080333,-0.95255697,0.41605413,0.39899588,-0.81712973,0
-0.81596231,0.7700429,-1.4226063,0.41605413,0.39899588,-0.81712973,0
0.82922828,0.21947658,-0.77607626,0.41605413,0.39899588,-0.81712973,0
2.7026896,-0.66818833,0.01852107,0.41605413,0.39899588,-0.81712973,0
2.3520634,0.25088525,1.4687619,0.84948212,0.15009618,0.50581729,0
0.025778294,2.055407,-0.030428529,0.41605413,0.39899588,-0.81712973,0
1.100355,1.369506,2.3304527,-0.41605413,-0.39899588,0.81712973,0
0.52459341,-1.3942813,0.94066858,-0.41605413,-0.39899588,0.81712973,0
-0.17258048,-2.7125709,-1.6776112,-0.095701396,-0.87439394,-0.47568533,0
-0.93525696,2.0452595,-0.46776289,0.41605413,0.39899588,-0.81712973,0
-2.3551624,1.7574706,-1.4856772,-0.86031514,0.46377754,-0.21158481,0
0.58794832,-1.4294531,0.81038594,-0.41605413,-0.39899588,0.81712973,0
-0.35312212,1.3283707,1.7674375,-0.41605413,-0.39899588,0.81712973,0
-0.83945298,-2.6295114,-0.34959602,-0.41605413,-0.39899588,0.81712973,0
0.69737434,2.8913195,0.54744053,0.095923841,0.87432587,0.47576538,0
-0.27573347,1.3441927,1.7223415,-0.41605413,-0.39899588,0.81712973,0
-1.9653596,-0.15087271,-2.5049558,0.41605413,0.39899588,-0.81712973,0
1.2172694,-1.3671976,1.2019714,-0.41605413,-0.39899588,0.81712973,0
1.2073455,0.91146851,2.3347631,-0.41605413,-0.39899588,0.81712973,0
0.79210472,-2.1347146,-2.0610986,0.41605413,0.39899588,-0.81712973,0
0.69770992,-1.4511666,-1.6674776,0.41605413,0.39899588,-0.81712973,0
-0.23123413,1.1629795,-0.8784585,0.41605413,0.39899588,-0.81712973,0
1.9681162,1.752184,0.73987055,0.41605413,0.39899588,-0.81712973,0
-2.9990039,0.88902688,0.18991709,-0.85809416,0.46966511,-0.20757908,0
-0.85850608,-1.2340224,-0.018610597,-0.41605413,-0.39899588,0.81712973,0
0.75131714,0.21984756,-0.9779048,0.41605413,0.39899588,-0.81712973,0
-0.060731411,-2.4083886,-0.11461878,-0.41605413,-0.39899588,0.81712973,0
0.024499178,-2.8013794,-0.22304565,-0.41605413,-0.39899588,0.81712973,0
-2.1770337,-0.37699449,-1.9706202,-0.81991088,-0.2240022,-0.52684808,0
-0.755867,1.9502624,-0.78658652,0.41605413,0.39899588,-0.81712973,0
-0.45462185,0.48640764,-1.365503,0.41605413,0.39899588,-0.81712973,0
1.6885141,-2.5133431,-0.74365854,0.47631228,-0.86108369,-0.17793658,0
-0.78961515,2.477483,-0.18871878,0.41605413,0.39899588,-0.81712973,0
-0.39624619,2.2047009,2.2084732,-0.41605413,-0.39899588,0.81712973,0
-1.7054377,1.2718424,-1.6951122,0.41605413,0.39899588,-0.81712973,0
0.014414787,1.6177626,2.1447423,-0.41605413,-0.39899588,0.81712973,0
0.76539516,-3.2035394,-0.15931311,0.33306998,-0.90301502,-0.27134523,0
-0.95456493,-0.28803456,-2.0195651,0.41605413,0.39899588,-0.81712973,0
2.9725401,-0.089233093,0.38393521,0.90911174,-0.16238585,0.38359672,0
-2.9310994,-0.3201623,-0.40859699,-0.88595563,-0.024612904,-0.46311605,0
1.1386131,-2.4115927,-1.8109412,0.2856214,-0.91045922,-0.29913938,0
-1.0370402,1.4863271,-0.90994412,0.41605413,0.39899588,-0.81712973,0
2.4058487,-1.2695417,0.8335638,0.88021326,-0.40231511,0.2517277,0
2.438328,0.25342047,1.6885986,0.85350925,0.13866821,0.50228751,0
2.1878526,1.7430415,0.87784171,0.65849352,0.48751962,0.57333279,0
-0.52755857,2.8658433,-0.20685656,0.41605413,0.39899588,-0.81712973,0
-2.4733429,2.0246038,0.89846289,-0.64903831,0.75967818,0.04047519,0
0.3148824,1.4636908,-0.15239042,0.41605413,0.39899588,-0.81712973,0
-2.9596376,0.98700315,-0.55496383,-0.89173985,0.35495934,-0.28072,0
0.073218346,1.9173914,2.1173687,-0.41605413,-0.39899588,0.81712973,0
-1.5735519,0.85759175,0.61773419,-0.41605413,-0.39899588,0.81712973,0
1.1466868,-1.8134691,1.0739424,-0.41605413,-0.39899588,0.81712973,0
-1.3225722,2.0084109,1.7503707,-0.41605413,-0.39899588,0.81712973,0
-1.704621,2.3035483,0.76160872,-0.49663144,0.85244727,0.16337369,0
1.2310977,1.368144,2.4617114,0.55417311,0.60119462,0.57572287,0
0.93561447,1.0594425,-0.28558904,0.41605413,0.39899588,-0.81712973,0
0.13262892,-3.0673883,-0.91745704,0.1088075,-0.9139843,-0.39088809,0
0.30321586,-1.2982469,-1.6975237,0.41605413,0.39899588,-0.81712973,0
0.2849189,-1.6434242,0.70503575,-0.41605413,-0.39899588,0.81712973,0
2.3902106,-1.2752048,1.8413548,-0.41605413,-0.39899588,0.81712973,0
2.5597939,-1.5610129,0.021907568,0.81075919,-0.56968582,0.13463879,0
2.0199223,-0.64903492,-0.34920728,0.41605413,0.39899588,-0.81712973,0
-1.42509,2.8101196,-0.69150877,-0.65520203,0.75464803,0.034880757,0
-2.9429352,-0.68571931,-0.5627532,-0.41605413,-0.39899588,0.81712973,0
0.39022732,2.6354597,0.22251892,0.41605413,0.39899588,-0.81712973,0
0.9773705,2.8021338,0.61418676,0.41605413,0.39899588,-0.81712973,0
1.5311565,-0.35831207,-0.54735678,0.41605413,0.39899588,-0.81712973,0
2.42032,1.7500415,0.97219133,0.41605413,0.39899588,-0.81712973,0
-0.50811964,0.28242069,0.97140539,-0.41605413,-0.39899588,0.81712973,0
1.584003,0.79469329,-0.24733055,0.41605413,0.39899588,-0.81712973,0
-0.21885435,-0.31295681,0.89833176,-0.41605413,-0.39899588,0.81712973,0
0.86674035,-0.79488671,-1.0682141,0.41605413,0.39899588,-0.81712973,0
0.58445877,-1.2562406,-1.6199616,0.41605413,0.39899588,-0.81712973,0
-0.79051167,0.2605114,-1.3880866,0.41605413,0.39899588,-0.81712973,0
-0.45832592,1.1028075,1.374074,-0.41605413,-0.39899588,0.81712973,0
1.4286326,-1.502767,0.9879576,-0.41605413,-0.39899588,0.81712973,0
-0.19130611,-2.4980381,-0.27749038,-0.41605413,-0.39899588,0.81712973,0
0.38492489,2.477505,0.14531195,0.41605413,0.39899588,-0.81712973,0
1.9986736,-1.2489121,1.8096623,-0.41605413,-0.39899588,0.81712973,0
-0.64791584,-2.2480752,-1.6177369,-0.23799956,-0.81949347,-0.52133143,0
-1.6476679,1.3467827,1.1890551,-0.41605413,-0.39899588,0.81712973,0
1.6424707,-2.3748734,-0.43430114,0.57841063,-0.80949849,-0.1007632,0
0.64091706,2.2399755,0.24642909,0.41605413,0.39899588,-0.81712973,0
0.55854303,0.21592611,-0.80081952,0.41605413,0.39899588,-0.81712973,0
-1.8354877,1.3499922,-1.5841364,0.41605413,0.39899588,-0.81712973,0
-1.4059886,1.0628408,1.1189176,-0.41605413,-0.39899588,0.81712973,0
1.0731524,-0.44212893,-0.77800494,0.41605413,0.39899588,-0.81712973,0
-1.8225706,1.7170472,1.176198,-0.41605413,-0.39899588,0.81712973,0
1.40609,-0.42268038,1.9547054,-0.41605413,-0.39899588,0.81712973,0
-1.9715931,2.498981,-0.5931859,-0.7240535,0.68899006,-0.032236159,0
2.8577514,0.24446952,1.0246401,0.89160502,-0.0023899674,0.45280731,0
-2.0333343,2.0203202,1.3789889,-0.41605413,-0.39899588,0.81712973,0
2.1880572,-0.54288065,1.8915317,0.90693319,-0.11673853,0.40477669,0
-0.31053495,-2.2634075,-0.17530543,-0.41605413,-0.39899588,0.81712973,0
1.498381,-0.77486074,1.8500117,-0.41605413,-0.39899588,0.81712973,0
1.6901745,-1.3344845,1.333653,-0.41605413,-0.39899588,0.81712973,0
-0.92079639,2.5793076,1.6868638,-0.158364,0.91665721,0.36696082,0
-2.4438138,2.0225863,0.75709677,-0.67605358,0.73668945,0.015494853,0
-2.1347299,2.2656248,-0.67917371,-0.77514917,0.6254375,-0.089284301,0
2.2474215,-1.5733557,-0.79988164,0.41605413,0.39899588,-0.81712973,0
-0.33959895,0.011390805,-1.2060525,0.41605413,0.39899588,-0.81712973,0
-1.9567556,0.46880341,0.62778628,-0.41605413,-0.39899588,0.81712973,0
0.42337656,-2.7800307,0.053916425,-0.41605413,-0.39899588,0.81712973,0
-1.8322682,-2.2132781,-0.63852811,-0.41605413,-0.39899588,0.81712973,0
-2.5918465,0.91752744,-1.6496701,-0.90925348,0.17015359,-0.37987602,0
-2.9607272,0.34590197,-0.8421948,-0.90928721,0.19220716,-0.36912477,0
0.32412726,0.73038197,1.5089655,-0.41605413,-0.39899588,0.81712973,0
1.4695963,-2.6518734,-0.40185124,0.51262283,-0.84511518,-0.15165129,0
2.2391882,1.0056423,0.4307766,0.41605413,0.39899588,-0.81712973,0
2.5774493,-0.25435984,1.5875525,0.90001565,-0.052329808,0.43270457,0
-1.8966401,-1.3074867,-0.62295675,-0.41605413,-0.39899588,0.81712973,0
-2.7564638,-0.48652375,-1.1643274,-0.8540231,-0.13718021,-0.50182259,0
-2.4701593,-0.5077135,-1.7320781,-0.81203049,-0.24141969,-0.53134036,0
-1.6832066,-0.92778909,-2.269922,-0.72936201,-0.3902356,-0.56191385,0
-2.2880323,-0.19279206,-2.124784,-0.83134627,-0.19720927,-0.51958787,0
0.70581341,2.3500102,0.51281214,0.41605413,0.39899588,-0.81712973,0
0.1542342,0.4023509,-0.99919587,0.41605413,0.39899588,-0.81712973,0
1.6558285,0.20061731,2.2942324,-0.41605413,-0.39899588,0.81712973,0
2.1518481,0.84901488,2.1027112,0.77669144,0.31140387,0.54751956,0
-2.219502,2.0079017,-0.74107122,-0.82144159,0.55034214,-0.14952314,0
0.32188457,0.4447906,-1.0496613,0.41605413,0.39899588,-0.81712973,0
-2.058794,-0.80500543,-2.0959899,-0.79216194,-0.28221232,-0.5411427,0
-0.67495769,0.27291417,-1.4977863,0.41605413,0.39899588,-0.81712973,0
2.7740946,0.71287894,0.77789354,0.86036432,0.1182003,0.49578357,0
0.94575942,-2.2738547,0.38444841,-0.41605413,-0.39899588,0.81712973,0
-2.4226303,1.9182947,0.42533708,-0.74474895,0.66512156,-0.054428339,0
-0.11250725,0.51745069,-1.2204089,0.41605413,0.39899588,-0.81712973,0
-0.015585244,0.0084971189,1.4452492,-0.41605413,-0.39899588,0.81712973,0
-1.6914966,-0.66997975,0.19060934,-0.41605413,-0.39899588,0.81712973,0
2.6456528,1.5086315,0.6238637,0.41605413,0.39899588,-0.81712973,0
1.6254332,-1.4601374,-1.1013879,0.41605413,0.39899588,-0.81712973,0
1.4365003,2.2361853,0.43312502,0.41605413,0.39899588,-0.81712973,0
1.1641622,-2.6910048,-0.68390268,0.37139904,-0.89479107,-0.24781376,0
0.78765798,2.0965717,0.11498594,0.41605413,0.39899588,-0.81712973,0
0.52016145,0.18034172,1.3895607,-0.41605413,-0.39899588,0.81712973,0
3.1824675,-0.091193929,0.50828075,0.90868855,-0.14842057,0.3902005,0
2.2669303,0.19694746,1.7891269,0.84279346,0.16823523,0.51126873,0
1.506875,0.29266179,2.363869,-0.41605413,-0.39899588,0.81712973,0
-1.7396052,2.3516669,1.052734,-0.44921947,0.8714754,0.19680551,0
-2.0906687,0.77930474,-1.8177176,0.41605413,0.39899588,-0.81712973,0
-1.7028348,-2.3613319,-1.113601,-0.48285258,-0.66451478,-0.57032752,0
1.772619,-2.4552701,-1.4608495,0.39564353,-0.88851261,-0.23240362,0
0.56612843,0.85258996,-0.29404148,0.41605413,0.39899588,-0.81712973,0
0.90535742,-0.61280823,1.5941406,-0.41605413,-0.39899588,0.81712973,0
-0.18553209,2.7103453,-0.042814791,0.41605413,0.39899588,-0.81712973,0
-2.1695726,-2.2381389,-0.74821949,-0.41605413,-0.39899588,0.81712973,0
1.0910182,1.3950326,0.058669567,0.41605413,0.39899588,-0.81712973,0
2.9412181,-0.8582539,0.092421532,0.88881016,-0.36829707,0.27271563,0
-0.13565826,-2.540385,-1.5906179,-0.033534706,-0.89125311,-0.45226446,0
0.82407844,0.44378811,-0.62498701,0.41605413,0.39899588,-0.81712973,0
2.9614975,-0.74081945,0.069835663,0.41605413,0.39899588,-0.81712973,0
2.0926681,1.1354923,0.43549562,0.41605413,0.39899588,-0.81712973,0
0.50535226,0.30038846,-0.63839853,0.41605413,0.39899588,-0.81712973,0
-2.1313782,-1.6817563,-0.85799742,-0.41605413,-0.39899588,0.81712973,0
-2.8102839,1.6269813,0.33376122,-0.79680538,0.59296381,-0.11616755,0
0.020971417,-1.3776901,-2.0596919,0.41605413,0.39899588,-0.81712973,0
-2.4102705,-1.2394878,-0.48408175,-0.41605413,-0.39899588,0.81712973,0
0.25618696,-1.4370917,-1.8574532,0.41605413,0.39899588,-0.81712973,0
-2.853003,0.17959344,-0.32906604,-0.41605413,-0.39899588,0.81712973,0
-0.16318697,0.58343995,1.5198846,-0.41605413,-0.39899588,0.81712973,0
-0.49394029,-0.054160833,1.1036766,-0.41605413,-0.39899588,0.81712973,0
0.011685848,1.8436821,2.2143216,-0.41605413,-0.39899588,0.81712973,0
-1.2647102,1.559657,-0.99264038,0.41605413,0.39899588,-0.81712973,0
1.1451477,-0.6819737,-1.0485129,0.41605413,0.39899588,-0.81712973,0
-1.0460498,1.2679659,1.1521043,-0.41605413,-0.39899588,0.81712973,0
0.33589768,2.5283508,1.816689,0.15789407,0.85324895,0.4970268,0
1.0860534,-2.132163,0.77722287,-0.41605413,-0.39899588,0.81712973,0
-1.0518484,2.7874756,-0.10150737,-0.47098833,0.86322522,0.18169303,0
1.7951131,1.8480721,1.4654343,0.53934979,0.61519408,0.57501113,0
-0.89938772,-0.48137128,-2.0941572,0.41605413,0.39899588,-0.81712973,0
-0.52714801,-2.5754108,-0.095368266,-0.41605413,-0.39899588,0.81712973,0
-1.4339134,-1.6331047,-2.149226,-0.58614695,-0.56933433,-0.57644582,0
0.80062711,1.9363612,-0.023614883,0.41605413,0.39899588,-0.81712973,0
-2.4469113,-0.077242523,-0.029767275,-0.41605413,-0.39899588,0.81712973,0
1.5043927,-0.63255471,-0.59037632,0.41605413,0.39899588,-0.81712973,0
-0.2080934,-1.8985876,0.37424579,-0.41605413,-0.39899588,0.81712973,0
1.2472233,-1.8954209,-1.7418175,0.41605413,0.39899588,-0.81712973,0
2.1099501,1.4919279,1.2913966,0.69530737,0.43953297,0.56864589,0
-2.5765018,-0.14935905,-0.18618774,-0.41605413,-0.39899588,0.81712973,0
0.42713261,-2.8797402,0.14118485,-0.41605413,-0.39899588,0.81712973,0
2.8747289,1.123193,1.0077639,0.78412062,0.29763663,0.54457986,0
-2.0283875,2.3177299,0.060561657,-0.62429762,0.77869374,0.062357426,0
0.77456927,2.7799006,0.29376316,0.41605413,0.39899588,-0.81712973,0
-1.5291071,0.58883643,-1.7892714,0.41605413,0.39899588,-0.81712973,0
0.65912473,-0.15881467,-0.81087279,0.41605413,0.39899588,-0.81712973,0
-0.06400454,-1.2224009,0.40644526,-0.41605413,-0.39899588,0.81712973,0
0.65120089,-0.51484597,1.3187908,-0.41605413,-0.39899588,0.81712973,0
-1.0709361,0.17538202,-1.7995901,0.41605413,0.39899588,-0.81712973,0
0.59790802,-1.5131716,0.67132676,-0.41605413,-0.39899588,0.81712973,0
-0.55767846,-2.4423592,-0.095357537,-0.41605413,-0.39899588,0.81712973,0
-0.057695627,-2.3572268,-0.19638872,-0.41605413,-0.39899588,0.81712973,0
3.0067143,-0.67311996,0.22426105,0.90184748,-0.29616475,0.3145752,0
-2.7670267,-0.51102579,-1.0176587,-0.85065365,-0.14681342,-0.50481093,0
-0.47663784,-2.4151196,-0.13366652,-0.41605413,-0.39899588,0.81712973,0
2.3963914,-1.7710197,-0.75353074,0.41605413,0.39899588,-0.81712973,0
1.1932651,-2.4990578,-0.76673937,0.41949964,-0.8814804,-0.2168231,0
-1.2204614,-2.2024946,-0.37163758,-0.41605413,-0.39899588,0.81712973,0
3.0875018,-0.23980954,0.65352607,0.90931904,-0.17647922,0.37682068,0
0.40469909,0.82957017,1.7151808,-0.41605413,-0.39899588,0.81712973,0
-2.6153612,1.1271672,0.65569556,-0.41605413,-0.39899588,0.81712973,0
-0.1357708,-1.9665732,-2.328037,0.41605413,0.39899588,-0.81712973,0
-0.33404845,-0.79304862,-1.6069958,0.41605413,0.39899588,-0.81712973,0
-1.7787497,0.45622101,0.66776222,-0.41605413,-0.39899588,0.81712973,0
1.969512,-2.2823687,0.1612438,0.68585235,-0.7277149,-0.0061234832,0
0.67768955,-0.22657198,-0.83977473,0.41605413,0.39899588,-0.81712973,0
0.47025895,1.3767649,2.3379583,-0.41605413,-0.39899588,0.81712973,0
1.5219285,-2.2643003,-1.4016206,0.41605413,0.39899588,-0.81712973,0
-3.054704,0.9420172,0.13153744,-0.86689758,0.44535786,-0.22393048,0
2.1884327,-1.2021439,-0.49057603,0.41605413,0.39899588,-0.81712973,0
0.38169789,-0.55665982,1.1620287,-0.41605413,-0.39899588,0.81712973,0
-0.50256407,1.0607895,1.3139801,-0.41605413,-0.39899588,0.81712973,0
2.8844767,0.93967551,1.046308,0.8220486,0.21913765,0.52556121,0
-1.4039295,-0.51366127,0.18707454,-0.41605413,-0.39899588,0.81712973,0
0.43916637,-1.0395696,-1.4518566,0.41605413,0.39899588,-0.81712973,0
-1.1078483,-1.7530154,-2.2908609,-0.41545749,-0.71592295,-0.56111431,0
-0.96645939,-1.2526901,-2.1662664,0.41605413,0.39899588,-0.81712973,0
1.8602093,-1.9045333,1.3243725,-0.41605413,-0.39899588,0.81712973,0
1.7074836,2.1671817,0.62767768,0.41605413,0.39899588,-0.81712973,0
-1.8767338,0.47799826,0.566589,-0.41605413,-0.39899588,0.81712973,0
1.9154863,0.82412899,2.6534405,0.73109782,0.38757548,0.5614987,0
-2.8637779,0.084788084,-1.4046161,-0.89711261,0.033235908,-0.44054973,0
1.6776018,-2.1168618,-1.4872481,0.43173623,-0.87753218,-0.20866479,0
-0.07360442,0.091311336,1.4409163,-0.41605413,-0.39899588,0.81712973,0
-0.92956823,0.77982396,1.1556077,-0.41605413,-0.39899588,0.81712973,0
-0.01132822,-1.5927267,0.20107323,-0.41605413,-0.39899588,0.81712973,0
1.3167648,-2.5713563,-1.1793908,0.31088018,-0.90686297,-0.28452244,0
-1.7493434,1.4292243,0.81234902,-0.41605413,-0.39899588,0.81712973,0
0.011505842,1.927811,-0.41695073,0.41605413,0.39899588,-0.81712973,0
-2.3385885,0.24612284,-2.0751228,0.41605413,0.39899588,-0.81712973,0
-1.0245206,1.1916882,1.0697761,-0.41605413,-0.39899588,0.81712973,0
0.67388004,0.013905048,1.5710661,-0.41605413,-0.39899588,0.81712973,0
0.96507549,2.5925956,1.0213163,0.24491656,0.81622231,0.523256,0
-0.76420426,2.7255378,-0.068820611,0.41605413,0.39899588,-0.81712973,0
-2.6108387,0.34386933,-1.2437603,-0.90413117,0.085469067,-0.41861856,0
-0.50428236,-0.18114209,1.1019578,-0.41605413,-0.39899588,0.81712973,0
-2.4701734,-0.76037568,-1.4720368,-0.79406226,-0.27848262,-0.54028904,0
0.084657311,-1.4644524,0.60606694,-0.41605413,-0.39899588,0.81712973,0
0.6749565,-0.52288079,1.4817489,-0.41605413,-0.39899588,0.81712973,0
0.84910965,-1.956544,0.86451209,-0.41605413,-0.39899588,0.81712973,0
-2.0749221,0.8968811,0.40466106,-0.41605413,-0.39899588,0.81712973,0
2.5672491,-0.089206338,1.7901378,0.88883495,0.011312783,0.4580878,0
-2.6623232,0.27561295,-1.495959,-0.90547037,0.098969817,-0.41270816,0
0.28085351,2.463109,-0.076728284,0.41605413,0.39899588,-0.81712973,0
-1.4197142,1.4064707,1.20486,-0.41605413,-0.39899588,0.81712973,0
2.6405668,-1.4214885,0.23463655,0.82518679,-0.54320103,0.15491706,0
1.2335495,1.7619145,2.3913944,0.50813675,0.64319903,0.57279307,0
-0.5290485,1.0318369,1.5081202,-0.41605413,-0.39899588,0.81712973,0
2.5136595,-1.3704473,-0.24167371,0.79904252,-0.58936846,0.11906224,0
-0.11470723,-0.73321146,-1.6963466,0.41605413,0.39899588,-0.81712973,0
2.1038871,-2.0985801,1.3471631,0.83260906,-0.52842796,0.16590971,0
-1.5310655,2.5641849,0.67822731,-0.5010193,0.85048318,0.16018057,0
-2.0470114,0.39046019,0.50889814,-0.41605413,-0.39899588,0.81712973,0
0.053622365,1.200748,-0.83586049,0.41605413,0.39899588,-0.81712973,0
0.45196605,-1.7835331,0.45554858,-0.41605413,-0.39899588,0.81712973,0
0.31119859,1.7201955,-0.032048583,0.41605413,0.39899588,-0.81712973,0
-0.79644996,1.2583669,1.6035377,-0.41605413,-0.39899588,0.81712973,0
0.053098083,-1.5226008,0.7294898,-0.41605413,-0.39899588,0.81712973,0
-0.90748644,-2.7873502,-0.79601884,-0.41605413,-0.39899588,0.81712973,0
-1.9078505,0.41580656,0.43802309,-0.41605413,-0.39899588,0.81712973,0
-2.1702878,-1.119064,-0.25279617,-0.41605413,-0.39899588,0.81712973,0
-2.1678975,-0.78760934,-1.8592455,-0.79714191,-0.27236587,-0.53887045,0
0.14620513,0.032824039,1.3455884,-0.41605413,-0.39899588,0.81712973,0
0.28873134,1.120797,-0.43833181,0.41605413,0.39899588,-0.81712973,0
1.0751902,1.8362195,0.45749199,0.41605413,0.39899588,-0.81712973,0
1.9909035,1.0885767,2.1792195,0.69699216,0.43721378,0.56837118,0
2.4033828,-0.74655843,1.9867299,0.90641189,-0.10991576,0.40784276,0
0.74013042,-2.9013796,-1.0928576,0.20527244,-0.91661167,-0.34305435,0
-0.72689211,-0.22468424,-1.7196919,0.41605413,0.39899588,-0.81712973,0
1.0007408,1.2419524,0.031318903,0.41605413,0.39899588,-0.81712973,0
2.6434474,0.22889757,1.7027936,0.86785084,0.094106257,0.48783064,0
-0.018587828,-1.7478619,-2.2637777,0.41605413,0.39899588,-0.81712973,0
-1.7275417,-1.3489329,-2.1138384,-0.66409612,-0.48052907,-0.57277209,0
0.91583371,2.27285,1.8298444,0.38123316,0.73927867,0.55509275,0
-1.3309534,-2.0881631,-1.4178753,-0.42780435,-0.70705897,-0.56307268,0
1.9354992,-0.87779427,1.8168855,-0.41605413,-0.39899588,0.81712973,0
1.4821765,-1.6868829,1.0949087,-0.41605413,-0.39899588,0.81712973,0
2.4783564,-1.1617247,-0.52867699,0.41605413,0.39899588,-0.81712973,0
-0.31783342,-1.8687456,-0.0016953349,-0.41605413,-0.39899588,0.81712973,0
1.4367819,2.4287252,0.63131976,0.41605413,0.39899588,-0.81712973,0
1.3174753,2.6459267,0.6799264,0.41605413,0.39899588,-0.81712973,0
-0.57118797,1.7805964,1.7497133,-0.41605413,-0.39899588,0.81712973,0
2.5796335,-1.4479135,0.61824536,0.82921845,-0.53528357,0.1608358,0
-1.2416973,-2.4952698,-0.47549438,-0.41605413,-0.39899588,0.81712973,0
-2.0543728,0.023879528,-2.1713929,-0.86653554,-0.098489672,-0.48930132,0
1.6719117,2.0132189,0.59320188,0.41605413,0.39899588,-0.81712973,0
-0.96156836,-1.7795278,-0.14825344,-0.41605413,-0.39899588,0.81712973,0
-0.47328115,2.5578487,-0.40693605,0.41605413,0.39899588,-0.81712973,0
-0.10455176,-0.56199974,0.65151596,-0.41605413,-0.39899588,0.81712973,0
1.7780172,-1.6188728,-0.95370334,0.41605413,0.39899588,-0.81712973,0
-2.8111897,0.0071634054,-0.030985355,-0.41605413,-0.39899588,0.81712973,0
-1.9883132,2.120739,0.3400439,-0.66679919,0.74484473,0.024189025,0
-0.61891389,-1.0979959,-2.0820434,0.41605413,0.39899588,-0.81712973,0
1.6273665,1.6109674,2.034524,0.57888842,0.57677555,0.57638347,0
-1.9063326,1.2814798,0.89080405,-0.41605413,-0.39899588,0.81712973,0
-1.1175936,2.6790907,-0.54886794,0.41605413,0.39899588,-0.81712973,0
-0.53979635,2.5336809,-0.09982004,0.41605413,0.39899588,-0.81712973,0
1.2076503,0.017918646,-0.70979512,0.41605413,0.39899588,-0.81712973,0
-2.0887575,-1.9006877,-1.3628199,-0.64018166,-0.50965732,-0.57481873,0
1.9949813,1.4870151,1.773422,0.63593298,0.51464504,0.57509083,0
-2.3420484,1.7495296,0.7295239,-0.67295271,0.739456,0.0184246,0
1.3254826,2.5654557,1.3289158,0.36369675,0.75058031,0.55168235,0
0.45060873,2.3489726,0.25084662,0.41605413,0.39899588,-0.81712973,0
0.22229719,0.2341336,-1.1437178,0.41605413,0.39899588,-0.81712973,0
0.71180099,-1.5446042,0.88763219,-0.41605413,-0.39899588,0.81712973,0
2.7212648,-0.12996179,0.30292368,0.41605413,0.39899588,-0.81712973,0
-1.256927,-0.94740528,-2.1064656,0.41605413,0.39899588,-0.81712973,0
0.76800299,1.7353647,-0.036414504,0.41605413,0.39899588,-0.81712973,0
-1.6602817,2.1061609,-1.1095357,0.41605413,0.39899588,-0.81712973,0
-1.2254658,-0.45990357,0.19226646,-0.41605413,-0.39899588,0.81712973,0
1.8187726,0.48729628,0.1407876,0.41605413,0.39899588,-0.81712973,0
-1.6852956,1.914946,-1.2943008,0.41605413,0.39899588,-0.81712973,0
1.4865701,-0.015571237,-0.52340418,0.41605413,0.39899588,-0.81712973,0
1.0271941,-1.1167363,-1.0878919,0.41605413,0.39899588,-0.81712973,0
0.22905493,1.0132608,1.6610968,-0.41605413,-0.39899588,0.81712973,0
-1.1993779,1.3828506,-1.03105,0.41605413,0.39899588,-0.81712973,0
-2.434268,-1.4354711,-0.51780033,-0.41605413,-0.39899588,0.81712973,0
1.2603111,-1.5756986,1.0954403,-0.41605413,-0.39899588,0.81712973,0
0.72755933,-1.5412829,0.83935499,-0.41605413,-0.39899588,0.81712973,0
2.5810933,-1.419323,0.65622592,0.83674097,-0.51981181,0.17222071,0
2.064606,0.68332189,0.21127176,0.41605413,0.39899588,-0.81712973,0
-2.3991911,-0.96547836,-1.7181728,-0.77986306,-0.30558062,-0.54629111,0
1.1687,-0.22144625,-0.51935196,0.41605413,0.39899588,-0.81712973,0
0.29219806,-1.3397168,0.48418614,-0.41605413,-0.39899588,0.81712973,0
-1.3709365,1.7060045,-1.2629036,0.41605413,0.39899588,-0.81712973,0
-1.6166525,1.4880304,1.2650805,-0.41605413,-0.39899588,0.81712973,0
2.7286177,-0.24140543,0.82309103,0.90812534,-0.13588333,0.39603549,0
1.9005322,1.7196161,0.35324335,0.41605413,0.39899588,-0.81712973,0
-3.1186872,0.54611325,-0.010591984,-0.41605413,-0.39899588,0.81712973,0
2.6327581,0.71536791,0.33247185,0.41605413,0.39899588,-0.81712973,0
-0.89189982,-1.1200533,-2.3339434,0.41605413,0.39899588,-0.81712973,0
-0.95954609,-2.4090745,-1.3502928,-0.22600561,-0.8250289,-0.51792723,0
2.2107308,-2.1357663,-0.27736032,0.67107809,-0.7411117,-0.020187497,0
-2.2620549,1.0544839,-1.9425728,0.41605413,0.39899588,-0.81712973,0
-0.97170138,-2.3803508,-0.57962644,-0.41605413,-0.39899588,0.81712973,0
2.5177829,0.62602788,1.1932225,0.84167057,0.17118676,0.51213813,0
-1.4148964,0.016638279,-1.8084918,0.41605413,0.39899588,-0.81712973,0
-2.939045,0.26915649,-0.61162591,-0.90877068,0.15065622,-0.38915056,0
0.86290705,-1.6496259,-1.4086727,0.41605413,0.39899588,-0.81712973,0
-0.40249324,-2.4998798,-0.3158561,-0.41605413,-0.39899588,0.81712973,0
1.4626107,2.4163513,1.4807093,0.43417156,0.70239407,0.56403685,0
2.303391,0.38148439,-0.002876997,0.41605413,0.39899588,-0.81712973,0
1.645825,1.1661268,2.4372246,0.64922607,0.49885625,0.57414973,0
0.6200794,1.2138326,-0.53608322,0.41605413,0.39899588,-0.81712973,0
-0.24760509,-3.1754498,-0.31131566,-0.41605413,-0.39899588,0.81712973,0
-1.2170929,1.3649468,1.2365317,-0.41605413,-0.39899588,0.81712973,0
0.096280336,0.90887457,1.6308967,-0.41605413,-0.39899588,0.81712973,0
1.2939678,-1.0976342,1.3445185,-0.41605413,-0.39899588,0.81712973,0
1.4764721,-0.61766601,-0.84434921,0.41605413,0.39899588,-0.81712973,0
0.078253865,1.7674818,-0.18716243,0.41605413,0.39899588,-0.81712973,0
0.59198999,2.4139352,0.11384273,0.41605413,0.39899588,-0.81712973,0
