3.5014493,2.058054,-0.3343254,0.88800126,-0.035514355,-0.45846742,0
2.122297,-2.8986874,-0.61594474,0.051614046,-0.98301488,0.17611825,0
-3.3166077,0.52221179,-0.03532815,-0.88800126,0.035514355,0.45846742,0
0.36913872,-3.0056245,-1.0893177,-0.12435138,-0.97841221,-0.16506404,0
-3.4150004,-1.032074,-1.2902462,-0.43451396,-0.39112127,-0.81130868,0
2.7563066,1.9430964,-1.5043122,0.88800126,-0.035514355,-0.45846742,0
2.7080295,1.7101457,-1.2621367,0.88800126,-0.035514355,-0.45846742,0
-0.3187263,2.709291,-1.1047329,-0.1526342,0.91772276,-0.36672553,0
-2.3458481,-0.57706857,2.1662996,-0.88800126,0.035514355,0.45846742,0
3.8422766,1.8355958,0.71473545,0.88800126,-0.035514355,-0.45846742,0
3.0729446,-0.022249699,-0.32749027,0.88800126,-0.035514355,-0.45846742,0
-2.9738653,-2.2465305,0.96306127,-0.88800126,0.035514355,0.45846742,0
-3.7516541,0.11842227,-1.0299898,-0.88800126,0.035514355,0.45846742,0
1.9636657,-0.91384172,-2.5273597,0.88800126,-0.035514355,-0.45846742,0
2.361084,1.6691917,1.4987824,0.37993217,0.61832118,0.68799007,0
-0.83132124,-2.2675421,-1.9386383,-0.33755857,-0.72738242,-0.59746873,0
0.55409181,-0.50153232,2.9506803,0.44186071,-0.21017098,0.87211657,0
-1.8614823,2.4016654,2.5747313,-0.88800126,0.035514355,0.45846742,0
1.8164815,1.2591549,-3.5369956,0.88800126,-0.035514355,-0.45846742,0
-2.8191772,0.45527935,0.85915256,-0.88800126,0.035514355,0.45846742,0
4.130372,1.2406104,0.99064541,0.88800126,-0.035514355,-0.45846742,0
1.3249719,1.336104,-3.4894421,-0.39561549,0.44920957,-0.80106127,0
0.65923077,-0.60381138,3.105165,0.44583541,-0.17769691,0.87729955,0
2.4507132,1.1337591,1.8269286,0.42647392,0.43646532,0.79222339,0
-0.00048482418,-0.79259455,-3.1146584,-0.45383221,-0.22833449,-0.86133593,0
-1.5382335,-2.9666045,0.38719755,-0.11187476,-0.98374176,-0.14048542,0
2.387445,0.41294742,-1.9672055,0.88800126,-0.035514355,-0.45846742,0
3.5414896,-0.83886766,0.55120307,0.88800126,-0.035514355,-0.45846742,0
-0.23446798,2.6496575,-1.0520724,-0.13728619,0.93106771,-0.33803177,0
-1.5854084,0.5835433,3.3632104,-0.88800126,0.035514355,0.45846742,0
-1.8369863,-0.20246077,2.7292628,-0.88800126,0.035514355,0.45846742,0
2.8843749,-2.2543364,0.72258997,0.31473845,-0.67994046,0.66228449,0
-3.1349103,-2.2663946,-0.67746508,-0.33757132,-0.72735441,-0.59749568,0
2.3416703,-1.4047186,-2.2040539,0.88800126,-0.035514355,-0.45846742,0
-2.3221173,-2.777267,1.4991727,0.011286438,-0.99502951,0.098938853,0
1.2056928,-2.761982,0.021494031,0.061231315,-0.97900236,0.19443509,0
1.2885187,2.9660912,-1.2688072,-0.024321616,0.99199015,-0.12395111,0
1.1853247,2.5568357,-2.3230677,-0.23218149,0.82596147,-0.5136919,0
-1.9556348,-2.3519707,2.9131746,-0.88800126,0.035514355,0.45846742,0
3.9964895,0.34404421,1.1307762,0.88800126,-0.035514355,-0.45846742,0
0.22387844,-0.64096355,3.0185494,0.44476289,-0.18688482,0.87593383,0
-3.4235654,1.7685544,0.13005924,-0.88800126,0.035514355,0.45846742,0
-3.2211466,2.0985346,-0.86729395,-0.3425703,0.61400717,-0.71108425,0
-1.1061485,0.21044517,3.8317909,0.45828336,-0.013640434,0.88870144,0
-1.0305997,-0.69775307,3.9246264,0.43919817,-0.22986665,0.86848509,0
3.1933985,-1.8331687,-0.2824412,0.88800126,-0.035514355,-0.45846742,0
1.8535359,1.6067247,-2.642215,0.88800126,-0.035514355,-0.45846742,0
2.3389773,-1.5567937,-2.2093854,0.88800126,-0.035514355,-0.45846742,0
-2.4640179,2.7413981,1.8751388,-0.88800126,0.035514355,0.45846742,0
-1.2800753,-2.6019108,-0.76655442,-0.21466732,-0.91372192,-0.34500739,0
-2.6910558,-0.28714871,1.6314158,-0.88800126,0.035514355,0.45846742,0
3.2208414,-2.5678346,-0.12089682,0.88800126,-0.035514355,-0.45846742,0
-0.44323117,0.3493104,-3.04073,-0.44826043,0.15548797,-0.88027614,0
-1.9975413,-1.8556435,-1.510806,-0.3584336,-0.67802244,-0.64172488,0
-2.0524378,-1.0471265,2.3549314,-0.88800126,0.035514355,0.45846742,0
-0.80770242,2.4668841,-1.2430499,-0.21431834,0.85014081,-0.48096579,0
2.3483703,-3.0302095,-1.726716,0.88800126,-0.035514355,-0.45846742,0
1.6760986,1.7770007,-3.4503255,-0.31955892,0.66926599,-0.67079431,0
0.84216404,2.8249497,-0.014017701,0.11138666,0.98393375,0.13952507,0
-2.8650599,-1.0238495,1.0711411,-0.88800126,0.035514355,0.45846742,0
1.1559746,2.3709989,-2.8633902,-0.26210731,0.78010201,-0.56810248,0
-2.9823263,-1.7580283,0.81102699,-0.88800126,0.035514355,0.45846742,0
1.6825994,0.68184304,-2.9063296,0.88800126,-0.035514355,-0.45846742,0
3.8173037,-1.1103375,1.1044381,0.88800126,-0.035514355,-0.45846742,0
1.907022,-0.16488969,2.2042205,0.45376909,-0.093808964,0.88616788,0
3.5725553,2.3760586,0.21704939,0.88800126,-0.035514355,-0.45846742,0
3.0008512,-1.564636,-0.62383837,0.88800126,-0.035514355,-0.45846742,0
1.8888038,-2.2026498,-2.3011055,0.88800126,-0.035514355,-0.45846742,0
1.0116066,0.67108202,-3.5955315,-0.43172356,0.27889788,-0.85780585,0
-2.2466512,2.0242167,1.9055276,-0.88800126,0.035514355,0.45846742,0
-3.0888498,-0.23102212,0.71934527,-0.88800126,0.035514355,0.45846742,0
-1.316117,-2.68434,-0.38351467,-0.18776619,-0.93811244,-0.2910133,0
-2.5284681,1.01862,1.9933174,-0.88800126,0.035514355,0.45846742,0
-1.5833058,-1.0402106,3.2465293,-0.88800126,0.035514355,0.45846742,0
2.0376987,2.6064384,-0.086809397,0.16942567,0.95214182,0.25440308,0
-1.8152248,-1.231832,3.1596074,-0.88800126,0.035514355,0.45846742,0
0.39230585,-2.9987326,-1.4454384,-0.21744031,-0.91093546,-0.35059407,0
3.1401465,-0.21406317,1.7154095,0.45757908,-0.030520998,0.88864493,0
-3.787117,-0.86882234,-0.5927518,-0.88800126,0.035514355,0.45846742,0
-1.1072769,1.7101293,3.6059027,0.40536365,0.5311746,0.74399859,0
-3.4560535,-2.5341895,0.3063879,-0.88800126,0.035514355,0.45846742,0
1.7988415,-1.7247362,-2.9494042,0.88800126,-0.035514355,-0.45846742,0
0.68683696,1.6891638,-3.1763391,-0.37129164,0.53281897,-0.76042521,0
2.9581313,-2.4956539,0.1570673,0.20660836,-0.8598963,0.46678817,0
3.555377,0.92113137,0.060913123,0.88800126,-0.035514355,-0.45846742,0
-0.75134504,3.150126,0.63719177,0.074234664,0.99500716,0.066707969,0
-3.2197247,0.15364146,0.1276896,-0.88800126,0.035514355,0.45846742,0
2.2940102,-2.7914305,-1.8160336,0.88800126,-0.035514355,-0.45846742,0
-3.4495678,-0.1807034,-0.057233691,-0.88800126,0.035514355,0.45846742,0
-1.4221042,-1.5717797,3.4789348,0.34142426,-0.61694258,0.7090919,0
-2.7268648,-1.6552603,-1.3367193,-0.40413997,-0.53591245,-0.7412616,0
1.7170578,-0.93284011,-3.4242935,0.88800126,-0.035514355,-0.45846742,0
-1.6228417,-0.42886806,3.3475096,-0.88800126,0.035514355,0.45846742,0
3.5102825,-1.1684201,0.40425318,0.88800126,-0.035514355,-0.45846742,0
0.61746526,-3.2153089,-0.59839338,-0.062155306,-0.99713337,-0.043146968,0
2.6775911,1.2392015,1.5708314,0.42307645,0.45373037,0.78430539,0
0.3619653,-1.2608123,2.6452956,0.39037558,-0.46869498,0.79242152,0
-2.104444,0.65960979,2.0007505,-0.88800126,0.035514355,0.45846742,0
1.507611,-1.5776913,-3.1936173,0.88800126,-0.035514355,-0.45846742,0
2.6196377,-3.0265331,-1.526323,0.88800126,-0.035514355,-0.45846742,0
-2.2833679,2.8101039,0.37898809,-0.071200728,0.97437,-0.21338585,0
-1.7356029,-1.3653486,-2.0376887,-0.41752386,-0.48004439,-0.77151227,0
1.121788,2.4019961,-2.4083595,-0.24388224,0.80886573,-0.53503054,0
1.5419555,-2.6938069,-2.2068644,-0.24502498,-0.88022768,-0.4064014,0
-4.0079207,-0.36383224,-0.91870028,-0.88800126,0.035514355,0.45846742,0
1.7159492,1.8871732,1.611894,0.35887825,0.67688721,0.64267415,0
-2.5764003,0.95998478,1.9100275,-0.88800126,0.035514355,0.45846742,0
-1.6002519,0.26933146,3.6144469,-0.88800126,0.035514355,0.45846742,0
-1.2481097,2.9249196,0.67371142,0.072067976,0.9954409,0.062477648,0
1.1601632,-1.4688458,-3.572547,-0.40644169,-0.52694494,-0.74641424,0
-2.5125484,0.087371826,-1.9801474,-0.45411682,0.089094736,-0.88647628,0
-2.9822698,0.18395698,-2.0536225,-0.45549285,0.068849117,-0.88757312,0
1.4317715,0.16048384,-3.8480868,0.88800126,-0.035514355,-0.45846742,0
3.557946,0.43408823,0.32078698,0.88800126,-0.035514355,-0.45846742,0
-2.9085119,3.0136931,0.97509933,-0.88800126,0.035514355,0.45846742,0
1.1503887,-0.85970855,-3.7159743,-0.45416138,-0.22394943,-0.86231315,0
-2.8251452,2.7453876,0.89926219,-0.88800126,0.035514355,0.45846742,0
3.4852576,-0.98235297,0.15922654,0.88800126,-0.035514355,-0.45846742,0
2.9001765,-2.1092865,1.3272796,0.34338051,-0.61191928,0.71249181,0
3.3134627,-2.2511821,-0.12206006,0.88800126,-0.035514355,-0.45846742,0
1.2452409,-0.31632257,-3.6714487,0.88800126,-0.035514355,-0.45846742,0
1.1189909,-2.8315935,0.71125317,0.11195052,-0.95031846,0.29045081,0
2.9436605,2.6695242,-0.10120988,0.22173858,0.90651131,0.35926208,0
1.3542178,2.8241303,-0.74993825,0.015035629,0.99872249,-0.048241824,0
-3.4460027,-0.18605113,-0.37674236,-0.88800126,0.035514355,0.45846742,0
1.5708367,0.57731104,-3.4414215,0.88800126,-0.035514355,-0.45846742,0
3.6519194,0.35953069,0.76743823,0.88800126,-0.035514355,-0.45846742,0
-2.3352361,-2.5566344,-0.76520848,-0.2681964,-0.84987515,-0.45363307,0
-1.185025,2.8677573,0.22360009,-0.0071251392,0.99583077,-0.090940833,0
3.546737,-0.28228879,0.0054257512,0.88800126,-0.035514355,-0.45846742,0
3.9195931,-0.75880504,1.1097581,0.88800126,-0.035514355,-0.45846742,0
-3.1734836,-1.5400645,0.53483272,-0.88800126,0.035514355,0.45846742,0
-0.44001734,2.712625,1.9395287,0.25183213,0.87176698,0.42024153,0
2.64908,2.5526776,-0.11829418,0.18355829,0.94151133,0.28259987,0
2.2862854,-0.97294784,-2.0326679,0.88800126,-0.035514355,-0.45846742,0
0.93511724,1.8502817,-2.7977757,-0.31609464,0.67696637,-0.66468084,0
3.2393255,-0.65514994,-0.22790211,0.88800126,-0.035514355,-0.45846742,0
-1.4690616,2.6669879,2.437278,0.25062168,0.87329835,0.41777837,0
-4.1267638,-0.017272949,-1.2465105,-0.88800126,0.035514355,0.45846742,0
-1.9935069,-3.0050223,1.3636618,0.01494807,-0.99425679,0.1059711,0
1.6874263,-0.59032398,2.3793242,0.43960485,-0.22694787,0.86904669,0
1.1003175,2.0786853,-2.9093847,-0.26889175,0.76868755,-0.58035898,0
-2.0829999,2.66257,2.7094538,-0.88800126,0.035514355,0.45846742,0
2.8515232,2.8789611,-1.6206598,0.88800126,-0.035514355,-0.45846742,0
3.490824,1.5422283,0.070141494,0.88800126,-0.035514355,-0.45846742,0
4.0026221,1.1098096,0.88576925,0.88800126,-0.035514355,-0.45846742,0
3.544064,0.42537308,0.44589639,0.88800126,-0.035514355,-0.45846742,0
-1.3829978,1.0487556,3.562866,-0.88800126,0.035514355,0.45846742,0
2.6147723,-1.8399253,-1.1272587,0.88800126,-0.035514355,-0.45846742,0
1.954025,-2.5125024,-2.2332573,0.88800126,-0.035514355,-0.45846742,0
-0.67915195,-0.68768442,3.4297042,0.43454626,-0.26130518,0.86191016,0
3.2206109,-2.0378628,0.80544209,0.32807168,-0.64968765,0.68576592,0
3.7305479,0.0097036362,0.3509703,0.88800126,-0.035514355,-0.45846742,0
-1.7405448,-1.1000522,-2.1391408,-0.42990601,-0.41796419,-0.80030417,0
2.6616364,2.0211484,0.87322354,0.34457904,0.7115944,0.61228967,0
0.80239546,-2.8556838,-0.55201775,-0.066219568,-0.99649733,-0.051068336,0
0.8216939,2.4814382,-1.8017274,-0.15826494,0.91249776,-0.3772268,0
-1.8176265,-0.072532892,2.6737902,-0.88800126,0.035514355,0.45846742,0
2.9216168,-2.4437666,0.4690944,0.24099404,-0.81318176,0.52977085,0
1.8633547,1.0586766,-2.7681048,0.88800126,-0.035514355,-0.45846742,0
-2.0346732,2.6429436,2.5018311,-0.88800126,0.035514355,0.45846742,0
0.44744349,-3.1704893,-0.19925004,-0.045463383,-0.99890888,-0.010678887,0
1.3803219,-1.7018838,-3.4380386,-0.38481295,-0.60320544,-0.69861436,0
1.6396499,0.35108805,-3.2859991,0.88800126,-0.035514355,-0.45846742,0
3.5333905,1.2491302,-0.093928903,0.88800126,-0.035514355,-0.45846742,0
2.9745865,-1.2114754,-0.62625653,0.88800126,-0.035514355,-0.45846742,0
-3.6954215,1.0453124,-1.0597677,-0.88800126,0.035514355,0.45846742,0
3.8020866,-0.6550436,1.398308,0.43916547,-0.23009956,0.86843991,0
3.3621054,0.93974209,1.5647086,0.43585381,0.38281024,0.8145476,0
-0.16592413,-1.0336632,-3.2506022,-0.44702774,-0.30039001,-0.84257472,0
-0.23906112,1.6493609,2.7975895,0.39635307,0.56461728,0.72395545,0
0.50693846,3.0309558,-0.83433676,-0.073378086,0.97329378,-0.21751982,0
-1.9716461,1.6002538,2.93647,-0.88800126,0.035514355,0.45846742,0
-1.3305079,2.841125,2.3618011,0.26662219,0.85208011,0.45041326,0
-0.86506808,0.56554437,-3.0138834,-0.45091724,0.12821214,-0.88330925,0
2.5348542,-2.283432,-1.4868276,0.88800126,-0.035514355,-0.45846742,0
1.9118775,-1.1790862,-3.0905747,0.88800126,-0.035514355,-0.45846742,0
-2.5056353,2.8566291,1.8937502,-0.88800126,0.035514355,0.45846742,0
2.4185097,-0.16957068,-1.7813189,0.88800126,-0.035514355,-0.45846742,0
1.5521473,1.4713191,-3.5129924,0.88800126,-0.035514355,-0.45846742,0
-1.8805883,1.8078666,2.6227617,-0.88800126,0.035514355,0.45846742,0
0.17816973,-2.7245226,1.3735156,0.19759709,-0.87080073,0.45017913,0
-0.42054713,2.4547853,2.4297366,0.30260628,0.79584157,0.52446681,0
0.76477885,-1.7452669,2.3104057,0.35727113,-0.57440358,0.73649031,0
2.5843349,-0.59682703,-1.6344905,0.88800126,-0.035514355,-0.45846742,0
-3.0653248,-0.79394984,0.31388488,-0.88800126,0.035514355,0.45846742,0
2.9490337,-2.1768062,-0.33967096,0.88800126,-0.035514355,-0.45846742,0
-3.2363558,-0.44685173,0.35912699,-0.88800126,0.035514355,0.45846742,0
0.10099089,1.5872881,2.9794273,0.40550834,0.53060979,0.74432266,0
2.4200988,-1.3440752,-2.0379295,0.88800126,-0.035514355,-0.45846742,0
3.9277217,-0.43368268,0.78894824,0.88800126,-0.035514355,-0.45846742,0
2.6835008,1.1553999,-1.492828,0.88800126,-0.035514355,-0.45846742,0
2.1420767,-2.0692854,-2.1505499,0.88800126,-0.035514355,-0.45846742,0
1.9688666,-1.3219812,-2.8747392,0.88800126,-0.035514355,-0.45846742,0
-3.5559545,2.4319508,-0.2134937,-0.88800126,0.035514355,0.45846742,0
1.5474709,-1.6889136,2.1641874,0.3594299,-0.56826103,0.74019563,0
-0.62622476,-2.0073609,2.4452677,0.27368617,-0.76037693,0.58900154,0
2.7641826,1.3462431,-0.94977939,0.88800126,-0.035514355,-0.45846742,0
2.2829182,2.8187931,-2.271605,-0.11725223,0.94656962,-0.3004292,0
1.7977769,-0.74637222,-2.8489261,0.88800126,-0.035514355,-0.45846742,0
-1.4807367,2.8070436,-0.23283017,-0.082075417,0.9687624,-0.23401463,0
-2.126483,0.071635485,-2.3766882,-0.45898601,-0.0076875314,-0.88841027,0
3.0375235,1.7724553,-1.1914421,0.88800126,-0.035514355,-0.45846742,0
1.0197396,2.904938,0.52506471,0.17458636,0.94839841,0.2646887,0
2.9600513,-0.68315148,-0.36964655,0.88800126,-0.035514355,-0.45846742,0
3.6018384,-0.75079274,0.42013711,0.88800126,-0.035514355,-0.45846742,0
1.893036,-0.89638591,-3.1969557,0.88800126,-0.035514355,-0.45846742,0
1.7223475,-2.4748719,-2.7371697,0.88800126,-0.035514355,-0.45846742,0
3.2769661,0.8438592,-0.69604808,0.88800126,-0.035514355,-0.45846742,0
2.3117101,2.4670031,-2.3599627,0.88800126,-0.035514355,-0.45846742,0
-2.6384988,0.57235956,1.4035658,-0.88800126,0.035514355,0.45846742,0
2.7925611,2.1556101,-0.93149847,0.88800126,-0.035514355,-0.45846742,0
3.1459386,-1.3870449,-0.18914121,0.88800126,-0.035514355,-0.45846742,0
1.0469313,-0.24240872,2.8724303,0.45733395,-0.035757758,0.88857585,0
-1.5375005,-1.2222002,3.9819,-0.88800126,0.035514355,0.45846742,0
-2.3781054,-2.7308846,1.1891823,-0.016959012,-0.99886411,0.04452756,0
2.8392801,1.8818274,-0.9447422,0.88800126,-0.035514355,-0.45846742,0
-1.8308749,2.9219742,0.19273639,-0.091531813,0.96341068,-0.25191596,0
-2.6152232,2.1734171,-0.9296906,-0.28079063,0.74767619,-0.60177827,0
2.3691216,1.493976,-2.3208489,0.88800126,-0.035514355,-0.45846742,0
-2.5095086,1.2506297,1.6304185,-0.88800126,0.035514355,0.45846742,0
3.7774217,-0.93471622,0.64415199,0.88800126,-0.035514355,-0.45846742,0
1.32025,-1.6666701,-3.2759879,-0.40069485,-0.54890919,-0.7335819,0
-4.2888141,0.14848948,-1.403097,-0.45690155,0.04440558,-0.88840824,0
2.5024385,-1.7135699,1.4442049,0.3437131,-0.61105919,0.71306938,0
-3.2656412,-2.0828114,-0.39862874,-0.30998355,-0.78265631,-0.53977716,0
-1.9429615,-0.36975861,2.5886593,-0.88800126,0.035514355,0.45846742,0
0.74268198,1.2906257,-3.5565634,-0.38065493,0.50257987,-0.77621853,0
0.85377085,-0.30725905,3.0314631,0.44992295,-0.13885009,0.88220745,0
3.0708315,0.37571096,-0.2168382,0.88800126,-0.035514355,-0.45846742,0
3.507751,-1.696991,0.033178866,0.88800126,-0.035514355,-0.45846742,0
-0.80583048,0.84242702,-2.620126,-0.42193928,0.333442,-0.84307981,0
-1.0641243,-1.5357687,-2.4822631,-0.40684867,-0.52533406,-0.74732745,0
3.3423407,-1.8288589,0.84966373,0.36081123,-0.56428307,0.74256307,0
-1.9789935,-1.4133162,2.6512921,-0.88800126,0.035514355,0.45846742,0
2.5182486,0.16104901,2.2009699,0.45972875,0.046546686,0.88683873,0
3.6126542,-0.83660054,0.64457703,0.88800126,-0.035514355,-0.45846742,0
-1.946182,-2.3529937,2.5630071,-0.88800126,0.035514355,0.45846742,0
1.5062258,-0.02955538,2.4707112,0.45801646,-0.020414248,0.88870931,0
1.5908153,2.1004167,-2.9405706,-0.26051387,0.78272581,-0.56521928,0
-2.912441,2.0477827,0.95261461,-0.88800126,0.035514355,0.45846742,0
2.9927592,2.3367608,0.0705145,0.26540881,0.85376483,0.44793266,0
-0.97557658,1.4630346,-2.4437065,-0.37502813,0.52101052,-0.76674765,0
-3.1134245,-0.5894506,0.65797687,-0.88800126,0.035514355,0.45846742,0
-1.8785733,-1.3907573,3.3659406,-0.88800126,0.035514355,0.45846742,0
-1.1759874,-0.68950939,4.089797,0.43218839,-0.27606794,0.85848689,0
0.2906146,-0.40971339,3.3591781,0.45454562,-0.083078116,0.88684064,0
-3.1432142,1.0521123,-1.6286366,-0.42118415,0.33731246,-0.84191698,0
2.2370737,0.79133201,2.0652568,0.44190821,0.34162146,0.82946485,0
-2.0201588,0.83871937,2.2345321,-0.88800126,0.035514355,0.45846742,0
-0.20105577,-0.91845441,3.4284861,0.4239642,-0.32284924,0.84618121,0
-1.4288212,3.1627486,0.79439819,0.01745522,0.99889785,-0.04356879,0
0.56133699,2.728065,-1.4319541,-0.1083681,0.9527694,-0.2837019,0
-2.5456352,-2.7504232,1.801291,-0.88800126,0.035514355,0.45846742,0
2.2767289,-1.7623672,-2.3313415,0.88800126,-0.035514355,-0.45846742,0
-2.9435563,-2.0259485,0.62012875,-0.88800126,0.035514355,0.45846742,0
-2.2303984,-1.0927937,2.4199765,-0.88800126,0.035514355,0.45846742,0
-2.685926,2.2725501,1.1877832,-0.88800126,0.035514355,0.45846742,0
2.3916168,1.7177287,-2.3340147,0.88800126,-0.035514355,-0.45846742,0
-0.82452697,1.8940374,2.8956833,0.3712123,0.6437934,0.66912735,0
-0.44378048,-0.85111797,-3.0952744,-0.4523139,-0.24711409,-0.85694033,0
0.15921485,-2.076205,-2.4868982,-0.34564298,-0.70913351,-0.61454093,0
1.6896594,-2.5128999,1.274652,0.24926722,-0.80064505,0.544824,0
1.7552612,-0.020625591,-3.2145083,0.88800126,-0.035514355,-0.45846742,0
-0.66537958,0.06254828,-3.0475047,-0.45902893,-0.0092381462,-0.88837332,0
-1.4873717,1.7523754,3.4064658,0.39431173,0.5717625,0.71944827,0
1.2773427,-0.93101645,-3.5976176,0.88800126,-0.035514355,-0.45846742,0
1.6876847,-1.5281935,-3.5016809,0.88800126,-0.035514355,-0.45846742,0
-2.8485491,-0.47669721,0.9070819,-0.88800126,0.035514355,0.45846742,0
-1.1057193,-0.46525764,3.7460353,0.43779504,-0.23971099,0.86652994,0
-1.3051227,0.28029609,3.5847802,-0.88800126,0.035514355,0.45846742,0
-2.5549393,-2.3053672,1.550736,-0.88800126,0.035514355,0.45846742,0
-2.0270443,-1.5232447,2.721766,-0.88800126,0.035514355,0.45846742,0
1.6672909,1.4279958,-3.3550787,0.88800126,-0.035514355,-0.45846742,0
3.3569603,-1.5687416,0.43857008,0.88800126,-0.035514355,-0.45846742,0
1.1909351,2.5292106,0.88985044,0.25906897,0.8623628,0.43498683,0
-3.0567446,-0.64416695,0.84822977,-0.88800126,0.035514355,0.45846742,0
0.94761479,1.6418778,2.5167699,0.40629771,0.52751261,0.74609154,0
3.0499887,-0.65070391,-0.72216678,0.88800126,-0.035514355,-0.45846742,0
0.68483317,-2.1933603,-2.7161641,-0.35688657,-0.6819424,-0.63842493,0
1.6121689,-0.58408022,-3.7920203,0.88800126,-0.035514355,-0.45846742,0
2.5721581,0.64520311,-1.4789715,0.88800126,-0.035514355,-0.45846742,0
3.5761695,2.3308451,0.076984227,0.27959126,0.83325136,0.47699142,0
0.37969938,-0.28203511,-3.4602203,-0.45952672,-0.10538142,-0.88188994,0
2.485096,1.8736537,-1.5254519,0.88800126,-0.035514355,-0.45846742,0
3.0113416,2.3961501,0.61252528,0.29027903,0.81654793,0.49898648,0
1.9895765,0.46130323,-2.7845807,0.88800126,-0.035514355,-0.45846742,0
-2.7650027,0.87564874,1.0183318,-0.88800126,0.035514355,0.45846742,0
1.8740764,0.41315126,-2.9664197,0.88800126,-0.035514355,-0.45846742,0
1.9168553,-2.2597578,1.4615084,0.28646234,-0.7371937,0.61195165,0
1.0664515,0.36445951,3.0422673,0.4597359,0.089871205,0.88349652,0
-2.1800306,-2.4558673,-0.85246909,-0.2959913,-0.80715227,-0.51077813,0
-2.1987841,2.5293868,1.6856019,-0.88800126,0.035514355,0.45846742,0
2.4170668,-1.1379976,-1.8984796,0.88800126,-0.035514355,-0.45846742,0
2.3319907,1.9529017,-2.1570785,0.88800126,-0.035514355,-0.45846742,0
-0.60341382,-2.7823048,-0.24949342,-0.10378593,-0.9867661,-0.12458402,0
1.5871626,0.98978138,-3.2715845,0.88800126,-0.035514355,-0.45846742,0
0.73360753,-2.8961835,-1.0068407,-0.10387057,-0.98673618,-0.12475038,0
-0.49118495,-0.055758357,-3.2604995,-0.4576543,0.028857745,-0.8886618,0
3.5128169,0.65714598,0.2674951,0.88800126,-0.035514355,-0.45846742,0
-1.7942326,2.9708037,1.678259,0.15859789,0.95949054,0.23286158,0
3.0224676,-2.8525481,-0.67478669,0.88800126,-0.035514355,-0.45846742,0
-2.0014958,1.5030262,2.9583974,-0.88800126,0.035514355,0.45846742,0
2.9928889,-1.8848023,-1.0192837,0.88800126,-0.035514355,-0.45846742,0
-0.78214669,3.0582376,0.83880848,0.080241978,0.9936837,0.078445971,0
-0.7059319,-2.7987144,-0.41790438,-0.14062929,-0.9702189,-0.19722717,0
-0.72617853,2.2900789,-1.88879,-0.24971956,0.79994416,-0.54564583,0
-1.7500086,-2.0375109,-1.1504173,-0.3314172,-0.74058282,-0.58455092,0
2.482923,-0.96684361,-1.3726811,0.88800126,-0.035514355,-0.45846742,0
2.4947536,-2.1013734,-1.5007334,0.88800126,-0.035514355,-0.45846742,0
-0.31759042,1.6267588,3.021045,0.41604143,0.4867186,0.76812392,0
3.7818394,1.9215534,0.52148235,0.88800126,-0.035514355,-0.45846742,0
-1.4243994,-2.5512214,-0.42330807,-0.22351629,-0.90464371,-0.36285001,0
-2.1811218,2.8640561,2.2892983,0.17460215,0.94838673,0.26472011,0
2.1352448,-1.3206816,-2.2093346,0.88800126,-0.035514355,-0.45846742,0
-1.1252965,-1.5474269,-2.3609271,-0.4167428,-0.48357815,-0.76972574,0
-3.1659288,-1.3700889,0.12466791,-0.88800126,0.035514355,0.45846742,0
2.5580683,0.56212997,-2.0129082,0.88800126,-0.035514355,-0.45846742,0
-1.33233,2.1600075,-1.6927308,-0.2958816,0.71907872,-0.62879241,0
-2.4026289,-0.70059323,1.8023603,-0.88800126,0.035514355,0.45846742,0
3.3279581,1.5598692,-0.58376396,0.88800126,-0.035514355,-0.45846742,0
-2.637532,-1.8987302,1.8305675,-0.88800126,0.035514355,0.45846742,0
2.9353113,-0.90657187,-0.79879743,0.88800126,-0.035514355,-0.45846742,0
-1.7775172,1.1220372,-2.2552061,-0.42329994,0.32635963,-0.84516662,0
-0.85225999,-1.0287371,-2.994185,-0.44778538,-0.29358223,-0.84456956,0
0.48524845,-2.3654704,1.6533358,0.24530494,-0.80671597,0.53761959,0
2.859519,1.3931882,-0.98198366,0.88800126,-0.035514355,-0.45846742,0
1.3772335,-2.8484511,0.36371744,0.14255542,-0.9266324,0.34789413,0
1.9592685,1.5721806,-3.0256357,0.88800126,-0.035514355,-0.45846742,0
0.87387276,2.9831586,0.35628015,0.13486284,0.97328442,0.18582077,0
-0.99254298,2.8579102,0.25115353,-0.014387846,0.99437916,-0.10489556,0
-2.8017235,2.2429984,1.3238398,-0.88800126,0.035514355,0.45846742,0
-3.6087174,2.1552627,-0.44887817,-0.88800126,0.035514355,0.45846742,0
-2.072268,0.60578156,2.5595794,-0.88800126,0.035514355,0.45846742,0
-1.4501648,0.28787732,3.5684972,-0.88800126,0.035514355,0.45846742,0
-0.61821663,2.2389286,-1.6311965,-0.24441087,0.80806875,-0.53599274,0
2.2256534,1.0687031,-1.9670331,0.88800126,-0.035514355,-0.45846742,0
3.278332,-0.29973197,-0.40312311,0.88800126,-0.035514355,-0.45846742,0
-0.9290331,-0.14689369,-2.9675426,-0.45964721,-0.097488113,-0.88273472,0
2.7113214,1.8519915,-1.4347423,0.88800126,-0.035514355,-0.45846742,0
2.6594112,-0.94498658,-1.5448706,0.88800126,-0.035514355,-0.45846742,0
2.7847762,2.1678333,-1.1786585,0.88800126,-0.035514355,-0.45846742,0
-0.52907908,1.7416294,-2.6308904,-0.35173422,0.5897615,-0.72695565,0
2.5085814,2.3347886,-1.8758891,0.88800126,-0.035514355,-0.45846742,0
-3.5658987,-1.5340055,-0.53757787,-0.88800126,0.035514355,0.45846742,0
-4.1802378,-0.081481457,-1.2608807,-0.45984089,-0.068552703,-0.8853513,0
-3.043916,-2.487422,0.42204481,-0.88800126,0.035514355,0.45846742,0
1.607888,-0.4200325,-3.6377347,0.88800126,-0.035514355,-0.45846742,0
-1.4699605,-1.6304083,-1.8175426,-0.39412418,-0.57241172,-0.71903473,0
3.3572948,-0.66891623,-0.24360397,0.88800126,-0.035514355,-0.45846742,0
2.3182199,-1.5841138,1.9649669,0.38982835,-0.47067776,0.79151517,0
-1.8622069,-1.266952,-2.1151226,-0.41541883,-0.48948139,-0.76670408,0
-3.2979698,-1.8584454,0.39889985,-0.88800126,0.035514355,0.45846742,0
0.041535139,2.7100925,1.1793475,0.18554872,0.93991715,0.2865786,0
-2.6969268,-0.20266032,0.94234562,-0.88800126,0.035514355,0.45846742,0
-1.6275002,-0.72526729,3.2824953,-0.88800126,0.035514355,0.45846742,0
-0.18986845,-2.9354119,-1.2703031,-0.18901074,-0.93708622,-0.29350358,0
1.0275956,1.4907397,2.3149433,0.42310515,0.45358863,0.78437197,0
1.6462622,1.178002,2.0301657,0.42814755,0.42758685,0.79615271,0
-0.22428656,-2.7932465,1.0034055,0.086194038,-0.96648633,0.24181551,0
-1.648263,-0.32328057,3.483321,-0.88800126,0.035514355,0.45846742,0
1.9423356,-2.8722746,-0.8277756,-0.0092658401,-0.99819261,0.05937627,0
-2.9900732,-2.2002988,-0.74648643,-0.32347757,-0.75686079,-0.56791198,0
-1.8901179,2.6150832,2.7494659,-0.88800126,0.035514355,0.45846742,0
-0.62104714,1.8522531,3.3379025,0.3975119,0.56049407,0.72651953,0
2.4592013,1.0123891,-1.5842108,0.88800126,-0.035514355,-0.45846742,0
3.5790896,1.8240855,-0.15937594,0.88800126,-0.035514355,-0.45846742,0
0.52332932,1.1774344,2.7105398,0.43990117,0.35601828,0.82446223,0
-2.1434953,2.9386044,0.81392217,-0.020324051,0.99300766,-0.11628699,0
-2.8374057,1.8687208,0.66143322,-0.88800126,0.035514355,0.45846742,0
-2.3746989,0.9407897,1.9202361,-0.88800126,0.035514355,0.45846742,0
1.2845685,2.8779225,-1.4801679,-0.11093515,0.95101988,-0.28853837,0
-0.73277771,-0.54028082,-3.2361286,-0.45900238,-0.12863779,-0.87907284,0
-0.47534934,1.1628386,3.3463981,0.4361729,0.38079333,0.81532186,0
3.3531079,-0.77912307,1.7489815,0.43521565,-0.25698143,0.86287189,0
1.2242588,0.69245231,-3.9536946,0.88800126,-0.035514355,-0.45846742,0
1.7241104,-1.3446708,-2.8704219,0.88800126,-0.035514355,-0.45846742,0
2.1595902,-1.1150348,-2.1054466,0.88800126,-0.035514355,-0.45846742,0
1.1173509,-2.6866393,0.88822162,0.16021055,-0.91065031,0.38085228,0
2.340379,-1.9765842,-2.1306107,0.88800126,-0.035514355,-0.45846742,0
1.0432849,2.9764478,-0.80265886,-0.025255442,0.99174154,-0.12574062,0
-0.72868431,2.9848638,1.4058537,0.149786,0.96497679,0.21536899,0
-2.5875885,0.27111363,1.3437588,-0.88800126,0.035514355,0.45846742,0
-3.5864434,2.1722453,-0.86301899,-0.32522622,0.65633875,-0.6807698,0
-0.055382967,1.0429794,-3.0320001,-0.41109484,0.38542938,-0.82610238,0
-2.4572611,0.087883949,1.4974034,-0.88800126,0.035514355,0.45846742,0
2.2182708,-2.2852244,-1.7765945,0.88800126,-0.035514355,-0.45846742,0
-2.0531573,-0.80099165,2.5548451,-0.88800126,0.035514355,0.45846742,0
3.4331872,1.4098854,0.1793505,0.88800126,-0.035514355,-0.45846742,0
-0.49944687,2.1178894,2.7687612,0.34830785,0.70288724,0.62018633,0
3.6186876,0.51074123,0.18497856,0.88800126,-0.035514355,-0.45846742,0
-3.0985751,0.71705723,0.85359353,-0.88800126,0.035514355,0.45846742,0
3.4089594,-1.8563099,-0.013005376,0.88800126,-0.035514355,-0.45846742,0
2.9418232,-1.6550703,1.5926373,0.393244,-0.45814317,0.79715991,0
-1.686378,-0.14878774,3.298558,-0.88800126,0.035514355,0.45846742,0
1.6629637,-1.114661,-3.2067471,0.88800126,-0.035514355,-0.45846742,0
-1.0714334,-1.653101,-2.2455025,-0.38242024,-0.61069757,-0.69339979,0
-1.1371439,1.0579107,3.7270522,0.45088154,0.26309583,0.8529281,0
-3.6595006,-2.1697276,-0.54347998,-0.33817482,-0.72602701,-0.5987674,0
-2.5927095,2.1564093,-1.0221078,-0.31883231,0.67089379,-0.66951287,0
-2.4272511,-1.615445,-1.7418661,-0.40158823,-0.54558611,-0.73556966,0
1.5630195,2.9613724,0.10356545,0.15861946,0.95947659,0.23290439,0
-1.8923483,1.6776774,3.0254543,-0.88800126,0.035514355,0.45846742,0
-0.53848839,1.6473486,-2.7830987,-0.37990636,0.50507879,-0.77496225,0
-3.8135898,-0.089264393,-0.56527483,-0.88800126,0.035514355,0.45846742,0
-3.183445,-1.0216715,0.54368269,-0.88800126,0.035514355,0.45846742,0
3.4936905,-1.7261744,0.20998323,0.88800126,-0.035514355,-0.45846742,0
0.074001074,-2.2550907,2.1289711,0.29832628,-0.71422684,0.63315189,0
-0.44432092,-0.063610196,-2.9456623,-0.45941019,-0.025377221,-0.88786161,0
1.0323797,-2.773603,-2.4100914,-0.26363039,-0.85621125,-0.4442986,0
2.4430132,-0.61773276,-1.7494473,0.88800126,-0.035514355,-0.45846742,0
1.4986351,1.0749459,-3.8927307,0.88800126,-0.035514355,-0.45846742,0
1.5655783,0.051706791,-3.6686752,0.88800126,-0.035514355,-0.45846742,0
1.7612581,-2.2179306,-3.0162272,0.88800126,-0.035514355,-0.45846742,0
-2.2527647,-2.1998141,-1.2839904,-0.35146052,-0.69534183,-0.62687731,0
2.9651792,-2.4594598,-1.0440437,0.88800126,-0.035514355,-0.45846742,0
2.6921592,-2.4869301,0.90608275,0.28679508,-0.73656875,0.61254787,0
-3.4003,2.5039778,-0.14129376,-0.88800126,0.035514355,0.45846742,0
-2.0227227,0.53069878,2.3048201,-0.88800126,0.035514355,0.45846742,0
3.3951471,1.1692334,-0.16640559,0.88800126,-0.035514355,-0.45846742,0
-3.7900672,-1.3825121,-1.0199039,-0.42788315,-0.42900702,-0.79553068,0
-1.7271876,-1.9253926,3.1550488,-0.88800126,0.035514355,0.45846742,0
0.4817605,-2.9037392,-0.98970932,-0.12773746,-0.97682464,-0.17174563,0
-2.7561166,1.9351382,-1.2673745,-0.32953238,0.64623046,-0.68832731,0
2.386384,-2.1828117,0.98613906,0.3004671,-0.70992613,0.6369651,0
0.17210907,-1.3398026,-3.2921166,-0.4359093,-0.38246077,-0.81468201,0
-0.44772911,1.9097497,-2.6303699,-0.34358895,0.61138046,-0.71285379,0
1.7235284,-2.020201,1.7160227,0.30874446,-0.69282013,0.65167242,0
-1.7033389,-0.070968628,3.1194944,-0.88800126,0.035514355,0.45846742,0
-0.59162265,0.49996543,3.7113431,0.45482218,0.21473277,0.86430699,0
-2.4054933,-1.1467185,2.1952596,-0.88800126,0.035514355,0.45846742,0
-0.20541096,-2.3766389,2.2127047,0.27489612,-0.75824678,0.59117997,0
-0.24552941,-2.3313234,-1.9963706,-0.33473265,-0.73352498,-0.59151936,0
-2.5214579,2.7487521,1.564122,-0.88800126,0.035514355,0.45846742,0
1.552433,-0.2381959,-3.7487819,0.88800126,-0.035514355,-0.45846742,0
2.6689551,-1.881053,-1.0308282,0.88800126,-0.035514355,-0.45846742,0
2.0494394,1.9456774,-2.9585567,0.88800126,-0.035514355,-0.45846742,0
-1.9584537,-3.0130439,1.438761,0.048476875,-0.98422748,0.1701358,0
-2.528553,-1.7265471,1.9730988,-0.88800126,0.035514355,0.45846742,0
-1.9635649,1.7465107,-1.6171319,-0.35656101,0.57640463,-0.7352699,0
3.3873525,1.1927829,-0.17668808,0.88800126,-0.035514355,-0.45846742,0
2.6354921,-2.472599,-1.1298925,0.88800126,-0.035514355,-0.45846742,0
-3.4854882,0.040032864,-0.22291046,-0.88800126,0.035514355,0.45846742,0
-3.1052616,2.0776713,-0.85697532,-0.32721511,0.65170139,-0.68426275,0
-2.1219344,3.0197122,1.9058967,0.16457558,0.95551741,0.24474759,0
3.9458337,0.30556631,1.1373729,0.88800126,-0.035514355,-0.45846742,0
-2.815887,0.40873981,0.63107651,-0.88800126,0.035514355,0.45846742,0
-1.1004676,-1.7812129,-2.1082289,-0.37599307,-0.63005996,-0.67945105,0
0.62400985,1.9390121,-2.8153143,-0.32951501,0.64627188,-0.68829679,0
3.5977597,-1.0420477,0.12826842,0.88800126,-0.035514355,-0.45846742,0
-1.5450523,-1.7486737,3.545274,0.35156751,-0.59021521,0.72666782,0
-1.198959,1.4669056,3.6040168,0.43336684,0.39804438,0.80855048,0
-1.1407478,0.29868934,-2.8670316,-0.45371851,0.094482943,-0.88612217,0
-0.36395526,-2.5978041,1.5738571,0.16428781,-0.90670872,0.38844398,0
1.0449741,2.7554929,-0.040300131,0.081708193,0.99333376,0.081312984,0
-2.6284673,0.84285998,1.6726561,-0.88800126,0.035514355,0.45846742,0
1.5214043,-2.9112594,0.54312921,0.12839717,-0.93820935,0.32136789,0
-3.5196867,-1.8440335,-0.57961082,-0.34953439,-0.69997221,-0.62278771,0
-2.0675144,-1.9105382,2.8428235,-0.88800126,0.035514355,0.45846742,0
-1.4653065,0.77451277,3.5765929,-0.88800126,0.035514355,0.45846742,0
1.3039453,1.864988,-2.9196525,-0.30108902,0.70866728,-0.63807213,0
2.4739141,-1.4580371,-1.4551026,0.88800126,-0.035514355,-0.45846742,0
0.96482086,-0.91836858,-3.6461487,-0.45262903,-0.24338982,-0.85783929,0
-1.4561948,1.1408999,3.4973807,-0.88800126,0.035514355,0.45846742,0
-2.7671666,-2.9843702,0.91045648,-0.079365134,-0.99388796,-0.076731771,0
1.9543444,-2.6945233,-2.3895257,-0.20175242,-0.926018,-0.31903997,0
-3.4659295,0.58307457,-1.3736479,-0.45073092,0.13025022,-0.88310623,0
2.2215862,-2.8555648,-1.8187687,-0.15748042,-0.96021056,-0.23064148,0
-0.6030215,0.3851881,3.7682593,0.4598037,0.081252307,0.88429552,0
-1.8141217,-2.424181,-0.79354352,-0.25011903,-0.87393081,-0.41675574,0
-2.0591636,0.94079769,-2.3308582,-0.43728715,0.2431926,-0.865816,0
-2.2081656,1.6739409,2.1103921,-0.88800126,0.035514355,0.45846742,0
-3.3461623,2.1694067,-0.17695653,-0.88800126,0.035514355,0.45846742,0
-0.46694279,-1.7407062,-2.8422232,-0.40421566,-0.53562146,-0.74143064,0
-2.6996942,2.5343409,1.130107,-0.88800126,0.035514355,0.45846742,0
1.0254602,2.5644369,1.1995814,0.26481652,0.85458261,0.44672209,0
-0.00031518936,-1.3108712,3.1797981,0.39136878,-0.4650718,0.79406464,0
2.5669081,3.0093908,-1.1075001,0.038936257,0.99923968,-0.0019889474,0
0.5471065,-2.978127,0.11338103,-0.00064444542,-0.99710834,0.075990915,0
2.3790159,-2.3626456,-1.4498826,0.88800126,-0.035514355,-0.45846742,0
-0.17189431,1.3270414,3.0837808,0.41645247,0.48488164,0.76906252,0
-0.07683754,-2.8195024,-0.84509856,-0.14265299,-0.96910018,-0.20123374,0
1.5143552,3.036468,-0.14841062,0.10933614,0.98472708,0.13549206,0
0.2578094,3.0281453,0.82784033,0.16098773,0.95792681,0.23761141,0
2.0039945,-0.54892421,-2.7026896,0.88800126,-0.035514355,-0.45846742,0
2.4499273,-0.95750427,-2.1395719,0.88800126,-0.035514355,-0.45846742,0
-3.0779922,0.82262349,-1.5968678,-0.43981975,0.22539321,-0.86934257,0
-0.012020588,2.4706337,2.0802734,0.31611466,0.77121502,0.55253869,0
-0.85659504,-3.1122589,0.40832782,-0.015973091,-0.99879384,0.046431571,0
-0.83355945,-0.51963735,3.8359141,0.45076448,-0.1298849,0.88314283,0
-2.8604488,-0.75556517,1.2587799,-0.88800126,0.035514355,0.45846742,0
1.8441298,-1.8364758,-3.0330493,0.88800126,-0.035514355,-0.45846742,0
-1.561779,-2.2839954,-1.3158772,-0.33190995,-0.73954374,-0.58558583,0
1.8467571,0.49805045,-3.4321001,0.88800126,-0.035514355,-0.45846742,0
-1.2892615,1.0600765,-2.6321225,-0.41977242,0.34443724,-0.83973455,0
-1.5418614,2.8020742,-0.2897687,-0.0882833,0.96529949,-0.24577013,0
-0.53636193,-2.6412838,-1.1393746,-0.21439433,-0.91399354,-0.34445742,0
2.4388745,-3.0249951,-1.4096365,-0.065104604,-0.99667978,-0.048894435,0
3.0182066,1.1650279,1.5278178,0.43914646,0.36122671,0.82259685,0
2.5558453,-1.8720181,-1.3003647,0.88800126,-0.035514355,-0.45846742,0
2.4386144,0.67859578,-1.4519891,0.88800126,-0.035514355,-0.45846742,0
3.7688084,1.5069801,0.61312348,0.88800126,-0.035514355,-0.45846742,0
-1.8898721,2.1032972,3.1391807,-0.88800126,0.035514355,0.45846742,0
-2.2768087,0.25434875,2.1337631,-0.88800126,0.035514355,0.45846742,0
-0.55303085,-1.5420122,-2.484092,-0.41642627,-0.48499918,-0.76900262,0
2.217026,0.9287138,-1.9464669,0.88800126,-0.035514355,-0.45846742,0
-0.059317954,-0.48851776,-3.318779,-0.45807844,-0.15552734,-0.87520027,0
1.9473948,2.3635592,1.0780287,0.31736141,0.76883245,0.55513811,0
2.7897501,-0.30171907,1.9343004,0.45827904,-0.013754331,0.88870198,0
1.5473049,2.8730302,0.48518974,0.21838295,0.90997624,0.35249427,0
2.6597016,-2.8607817,-1.5773669,0.88800126,-0.035514355,-0.45846742,0
1.0212827,2.7913535,-1.2196537,-0.044715583,0.98561907,-0.16295853,0
1.1539855,3.118161,-1.0676092,-0.029550016,0.99054527,-0.13396606,0
-1.7240899,-3.0228171,0.83267832,-0.010787129,-0.99834758,0.056441545,0
-3.1816432,0.15385365,0.79298633,-0.88800126,0.035514355,0.45846742,0
3.5612085,-0.77233243,0.11389077,0.88800126,-0.035514355,-0.45846742,0
-3.7591236,0.046705008,-1.0551897,-0.88800126,0.035514355,0.45846742,0
0.63397837,2.561142,-2.184957,-0.2323314,0.8257488,-0.51396579,0
2.193543,-2.763845,0.13153911,0.14666927,-0.92306376,0.35558575,0
-3.3248734,1.1165597,-0.040197194,-0.88800126,0.035514355,0.45846742,0
-0.81396055,-2.6387999,-1.3221614,-0.23525548,-0.89174283,-0.38658696,0
2.2010555,1.8521506,-2.4126363,0.88800126,-0.035514355,-0.45846742,0
-2.4766338,0.057569027,1.4803133,-0.88800126,0.035514355,0.45846742,0
1.3060062,1.6223023,-3.4135487,-0.37527573,0.52021611,-0.76716572,0
3.0175946,0.466887,-0.47326022,0.88800126,-0.035514355,-0.45846742,0
0.23091006,2.8574636,-0.73840952,-0.079896569,0.96993268,-0.22988495,0
-3.1244102,-2.6055274,1.0236212,-0.88800126,0.035514355,0.45846742,0
-2.7093196,-2.174072,-0.61645782,-0.31941044,-0.76487494,-0.55941343,0
-0.86022055,2.7147202,-1.3806738,-0.2014116,0.86624932,-0.45721474,0
2.1555097,2.7733335,0.018593907,0.1849339,0.94041222,0.28534922,0
-0.3423405,0.063315749,3.3391001,0.45965153,0.03994704,0.88720042,0
-1.2676096,0.69668865,3.7596838,-0.88800126,0.035514355,0.45846742,0
-3.0306551,2.4123759,-0.54088497,-0.25421464,0.7928896,-0.55380583,0
-3.6226435,1.2806697,-0.8950417,-0.88800126,0.035514355,0.45846742,0
-3.3282001,0.54286385,-0.15336621,-0.88800126,0.035514355,0.45846742,0
-0.91486716,-2.5027459,-1.2643406,-0.24833924,-0.87615401,-0.41313627,0
1.8207721,0.185467,-2.6490827,0.88800126,-0.035514355,-0.45846742,0
-0.32148337,-2.9665411,0.50731659,0.0032234788,-0.99650788,0.08343634,0
-0.88153744,-2.5699303,2.5763545,0.23929518,-0.81569099,0.52667457,0
2.3592374,-0.070447922,-2.3671892,0.88800126,-0.035514355,-0.45846742,0
0.44341972,-0.075148523,3.0425742,0.45794043,-0.022252187,0.8887043,0
1.6557858,2.6628904,-2.1199982,-0.17504376,0.89584595,-0.4084357,0
-0.19180107,2.7865477,1.4917582,0.20648736,0.92163849,0.3285504,0
-1.9960324,2.0764511,2.2741125,-0.88800126,0.035514355,0.45846742,0
1.1175852,0.94608271,-3.8769236,-0.41974634,0.34456742,-0.8396942,0
1.3561397,2.6463983,0.35213664,0.15405452,0.96237397,0.22383818,0
-2.7852409,-1.7529684,1.2460825,-0.88800126,0.035514355,0.45846742,0
-2.374856,-2.0446272,-0.99995613,-0.33909357,-0.72399592,-0.60070419,0
3.3008327,0.9418906,1.5094529,0.44954365,0.27685705,0.8492707,0
2.2981088,-2.9960332,-0.1078192,0.14412642,-0.92528063,0.35083234,0
-3.698704,0.76087403,-0.35220277,-0.88800126,0.035514355,0.45846742,0
-3.2344031,-1.5267309,0.76079839,-0.88800126,0.035514355,0.45846742,0
-0.97763062,-2.5672774,-0.77426636,-0.22174692,-0.9065026,-0.35927886,0
-1.9097141,2.9109948,-0.21733284,-0.16283989,0.90811944,-0.38574883,0
3.5019174,0.10716748,0.65554905,0.88800126,-0.035514355,-0.45846742,0
-2.8552418,0.016934156,0.76903796,-0.88800126,0.035514355,0.45846742,0
-2.8800673,0.0055742264,1.2928799,-0.88800126,0.035514355,0.45846742,0
1.239078,2.7379348,-1.8708371,-0.10287213,0.95640135,-0.27333793,0
3.2971458,-0.82228017,0.22557968,0.88800126,-0.035514355,-0.45846742,0
1.0132003,1.8856671,2.2537222,0.36996144,0.64729869,0.66643298,0
1.7743697,2.8909063,0.36708826,0.20288014,0.92498827,0.32130411,0
-0.41450155,2.387363,2.2913888,0.31481898,0.77367055,0.54983884,0
1.3520601,-0.31705856,-3.6918795,0.88800126,-0.035514355,-0.45846742,0
-1.8195813,-1.4606117,3.1487818,-0.88800126,0.035514355,0.45846742,0
-2.8644233,-1.8590587,0.80488968,-0.88800126,0.035514355,0.45846742,0
-3.5542641,0.66647625,-0.38803297,-0.88800126,0.035514355,0.45846742,0
2.7273746,0.3953867,-1.3067881,0.88800126,-0.035514355,-0.45846742,0
-1.1129187,0.30928731,4.0391097,0.45964706,0.039607398,0.88721806,0
-1.5920658,-0.060917139,3.1403036,-0.88800126,0.035514355,0.45846742,0
1.1619046,-2.6314631,-2.6567607,-0.30749899,-0.78716612,-0.53461558,0
-3.8408046,-1.267859,-0.69201159,-0.88800126,0.035514355,0.45846742,0
1.5651807,0.71214044,-3.2560697,0.88800126,-0.035514355,-0.45846742,0
3.4887764,-2.4328668,0.084061861,0.88800126,-0.035514355,-0.45846742,0
-0.60491252,-2.8634486,0.75014341,0.031283021,-0.99003774,0.13728309,0
2.295265,-2.534693,-2.1482244,0.88800126,-0.035514355,-0.45846742,0
1.7875004,-1.4261775,-2.7463307,0.88800126,-0.035514355,-0.45846742,0
2.4402325,2.7008874,-0.99389929,0.04789263,0.9987337,0.015397549,0
1.0245519,2.7608247,0.81338733,0.199938,0.92765749,0.3153986,0
0.22393441,-3.0317547,-0.6963138,-0.084819138,-0.9925558,-0.087398827,0
-1.6256874,-2.4672511,-1.2906723,-0.30282885,-0.79545277,-0.52492815,0
2.3400905,-1.7950234,-1.7304035,0.88800126,-0.035514355,-0.45846742,0
2.1544714,0.098481178,-2.05668,0.88800126,-0.035514355,-0.45846742,0
1.3803148,-0.96234131,-3.8194499,0.88800126,-0.035514355,-0.45846742,0
2.6778009,-3.0638466,-0.1985389,0.11487806,-0.94826651,0.29596204,0
3.5429337,-0.85598969,0.7187168,0.88800126,-0.035514355,-0.45846742,0
0.85509944,1.7891181,2.6592779,0.40121484,0.54697859,0.73473871,0
1.9994643,-1.6898046,-2.2345083,0.88800126,-0.035514355,-0.45846742,0
-1.5588485,-1.1065242,3.1870589,-0.88800126,0.035514355,0.45846742,0
-1.6875813,1.8019109,3.5498891,-0.88800126,0.035514355,0.45846742,0
3.2819414,1.0845321,1.5285796,0.43298385,0.40031826,0.80763251,0
-2.0387988,2.078598,-1.2644538,-0.32296646,0.66154331,-0.67679614,0
1.6763866,-0.11848497,-3.3132687,0.88800126,-0.035514355,-0.45846742,0
-0.60282898,2.757102,1.642529,0.21454132,0.91384745,0.34475341,0
0.98472166,-3.074621,-0.50623053,-0.035368264,-0.99933457,0.0089071393,0
-3.7221708,0.84736943,-0.64907259,-0.88800126,0.035514355,0.45846742,0
-1.6350799,-2.6521864,-0.023205221,-0.12899578,-0.97621924,-0.17422968,0
1.8676591,-2.6450546,-2.954917,0.88800126,-0.035514355,-0.45846742,0
-0.10036778,-1.4681455,2.8290308,0.38581294,-0.48494342,0.78484273,0
0.50310993,2.1644206,-2.4075189,-0.27741486,0.7537694,-0.59571177,0
-0.83717394,-2.8709719,-0.43915552,-0.16731066,-0.95363075,-0.25019106,0
0.4910984,2.6030142,0.92312598,0.20330817,0.9245953,0.32216343,0
-2.2954865,-1.013026,-1.9779755,-0.43670335,-0.3774066,-0.81661153,0
2.9247296,2.3034806,0.21248084,0.27702349,0.83710128,0.47171962,0
0.51221299,2.5185127,-1.9832597,-0.23604429,0.82043117,-0.52074528,0
1.1407248,-1.0925636,2.676415,0.40585983,-0.40817183,0.81772459,0
2.0871797,-2.6631465,-2.2819805,0.88800126,-0.035514355,-0.45846742,0
2.7143221,-0.73075902,1.7351228,0.44533247,-0.18204917,0.87666249,0
-1.8743689,2.305989,3.0490885,-0.88800126,0.035514355,0.45846742,0
2.9706645,-1.1172655,-0.53722084,0.88800126,-0.035514355,-0.45846742,0
2.9887083,0.71444058,-0.60167867,0.88800126,-0.035514355,-0.45846742,0
3.0514982,-0.16717982,-0.68301713,0.88800126,-0.035514355,-0.45846742,0
-2.2290447,-2.9099593,1.1358728,-0.064144611,-0.99683207,-0.047023296,0
-2.398788,3.0740526,0.40618092,-0.077886879,0.97099113,-0.22607458,0
-1.0851395,-2.3080263,2.4251473,0.24031079,-0.81419349,0.52852595,0
1.2299552,-2.4175761,-2.5568528,-0.29136771,-0.8147831,-0.50123179,0
-2.2411699,0.56653142,1.9743389,-0.88800126,0.035514355,0.45846742,0
2.7076979,1.1322608,-1.3666557,0.88800126,-0.035514355,-0.45846742,0
-2.5106099,2.4819903,1.7253437,-0.88800126,0.035514355,0.45846742,0
1.9601879,2.715873,-1.0520753,0.012586892,0.99851674,-0.052968949,0
2.5283117,-0.11461973,-2.0146503,0.88800126,-0.035514355,-0.45846742,0
1.407019,0.81779206,-3.5629926,0.88800126,-0.035514355,-0.45846742,0
1.2703147,-0.39660263,-3.9044592,0.88800126,-0.035514355,-0.45846742,0
1.2331849,-1.5273573,2.122479,0.37706876,-0.51441932,0.77018952,0
-2.2162542,-0.095458269,-2.3699481,-0.45850092,0.0076763108,-0.88866079,0
-0.14583564,-3.0334702,-0.86972845,-0.17197049,-0.95031548,-0.25947365,0
3.9660878,0.75144958,1.0332768,0.88800126,-0.035514355,-0.45846742,0
-1.9719076,-0.49015903,2.8130531,-0.88800126,0.035514355,0.45846742,0
-2.0268474,0.13763022,2.5216811,-0.88800126,0.035514355,0.45846742,0
-2.4834182,1.5132575,1.410274,-0.88800126,0.035514355,0.45846742,0
-1.9958504,-0.14194059,2.7143927,-0.88800126,0.035514355,0.45846742,0
-0.76487976,-0.01235652,-3.124805,-0.45783749,0.024681449,-0.88869321,0
1.6690429,-2.037828,1.7734869,0.3117038,-0.68651462,0.65691584,0
-0.48895395,2.6765494,-0.74868393,-0.11445957,0.94856256,-0.29517439,0
-1.4904667,3.0447917,0.48625177,-0.030526102,0.99026108,-0.13583457,0
1.5614352,2.0888374,-2.8850057,-0.27755895,0.75351161,-0.59597081,0
3.5401464,-2.7329094,0.16853368,0.88800126,-0.035514355,-0.45846742,0
-3.1038494,0.62822556,-1.6377261,-0.43874258,0.23310018,-0.86785316,0
2.2591758,-2.3446755,1.2244353,0.29396304,-0.72284198,0.625368,0
3.9295754,1.0016096,0.59283644,0.88800126,-0.035514355,-0.45846742,0
2.7126095,-1.5354533,-1.5396786,0.88800126,-0.035514355,-0.45846742,0
2.8396988,-2.4797308,-0.91125405,0.88800126,-0.035514355,-0.45846742,0
-3.6328659,1.0735939,-0.34106302,-0.88800126,0.035514355,0.45846742,0
-2.2968757,3.1848009,2.0430915,-0.88800126,0.035514355,0.45846742,0
3.171597,0.64780712,-0.13687862,0.88800126,-0.035514355,-0.45846742,0
-3.5746269,-1.5494467,-1.0525805,-0.40125993,-0.54681098,-0.7348389,0
2.8349268,2.2411358,-1.2200897,0.88800126,-0.035514355,-0.45846742,0
3.5999238,-0.096971512,0.25889519,0.88800126,-0.035514355,-0.45846742,0
2.0232687,1.4986086,-2.8200495,0.88800126,-0.035514355,-0.45846742,0
1.0156355,1.0528605,-3.8324132,-0.42588621,0.31248671,-0.84910131,0
-0.79255176,2.578774,2.3635697,0.27411938,0.84138167,0.46576315,0
-3.1410427,2.0553143,-0.07310462,-0.88800126,0.035514355,0.45846742,0
1.432363,-1.2560081,-3.2959056,0.88800126,-0.035514355,-0.45846742,0
-3.1845274,0.71027184,-1.7935807,-0.43539655,0.25580242,-0.86313087,0
-0.011830211,2.1086111,2.2182112,0.340478,0.72091055,0.6036247,0
-3.8187189,0.2562573,-1.3366277,-0.45805955,0.019356504,-0.88871068,0
-0.86053663,0.72730291,-2.8529603,-0.43664587,0.24753028,-0.86490989,0
0.49391982,-0.84272885,-3.3240292,-0.44971725,-0.27512676,-0.84974098,0
3.8967419,1.2851434,1.1288527,0.42920902,0.42181566,0.79865581,0
3.8907685,0.072369814,0.97734284,0.88800126,-0.035514355,-0.45846742,0
-3.6707878,1.3494031,-0.5852676,-0.88800126,0.035514355,0.45846742,0
-0.5338726,0.94976532,3.5741386,0.43899709,0.36224481,0.82222879,0
-2.9140353,2.006592,-1.181778,-0.3307687,0.64328134,-0.69049352,0
1.5639434,-1.3448489,-3.3226528,0.88800126,-0.035514355,-0.45846742,0
-1.0539834,2.3868155,2.6874058,0.33565694,0.73152888,0.59346426,0
-3.342669,1.4289117,-0.16306919,-0.88800126,0.035514355,0.45846742,0
1.0696864,0.47121751,-3.9135015,-0.44462726,0.18802226,-0.87575924,0
2.1323442,-2.0253549,-2.0175936,0.88800126,-0.035514355,-0.45846742,0
1.5739443,-2.1019773,-3.3328757,-0.37854731,-0.62249357,-0.68498439,0
-3.8522155,-0.65196824,-0.82659978,-0.88800126,0.035514355,0.45846742,0
2.3790064,1.6855284,1.4995348,0.38827935,0.59205735,0.70619208,0
2.3706441,2.4894197,0.75119442,0.27220863,0.84415591,0.46184754,0
1.7986478,-0.24807429,-2.6604443,0.88800126,-0.035514355,-0.45846742,0
2.1143899,-2.5785699,0.77062714,0.22561181,-0.83511668,0.50167644,0
-2.4415619,0.40789723,1.5719011,-0.88800126,0.035514355,0.45846742,0
1.3051171,3.0821748,-0.82609618,0.0060284138,0.99782658,-0.065618545,0
1.6665089,2.0900345,-2.9297547,-0.26746219,0.77112609,-0.57777894,0
-0.45908678,-0.37020326,3.4686882,0.45320714,-0.10114738,0.88564801,0
3.3662839,-2.2586911,0.40592635,0.88800126,-0.035514355,-0.45846742,0
1.8173168,-0.01679492,-3.2571864,0.88800126,-0.035514355,-0.45846742,0
1.9361221,-0.87912679,-2.3612075,0.88800126,-0.035514355,-0.45846742,0
1.2637229,1.96372,-3.0000653,-0.28583398,0.7383703,-0.61082578,0
1.9881382,-0.55188739,2.3610692,0.45076668,-0.12986055,0.88314533,0
2.5812104,-1.3216696,-1.656075,0.88800126,-0.035514355,-0.45846742,0
2.7631388,-2.8117821,0.11654019,0.15423113,-0.91625911,0.3697052,0
0.3887682,2.9507685,-0.34604359,0.03628087,0.99931604,-0.0071381032,0
-3.1368604,2.6948881,0.11669374,-0.18283641,0.88754612,-0.42288631,0
-3.378258,1.5259898,-0.1546706,-0.88800126,0.035514355,0.45846742,0
-0.86847782,-2.8182204,0.64967859,-0.026951969,-0.9993189,0.02520743,0
-0.084252834,2.2312436,-2.2677264,-0.25879955,0.78552449,-0.56211579,0
-0.46871746,-1.2346867,3.3943892,0.41225636,-0.38019583,0.82794678,0
0.025302768,-1.7825737,2.6574399,0.33249977,-0.63911557,0.69352371,0
0.15376711,2.9548101,-1.0806853,-0.10499847,0.95501459,-0.27734905,0
-2.0166941,-2.7107353,0.11608601,-0.15171927,-0.96381062,-0.21920398,0
-2.0787973,2.3517909,2.3682396,-0.88800126,0.035514355,0.45846742,0
