1.3491079,-4.0805387,-0.12954652,0.29929197,-0.62719202,-0.71906495,0
1.0826576,-0.069809914,3.9537497,0.5559305,-0.49785918,0.66564065,0
1.1741641,1.9502785,-2.7246933,0.23964059,0.77886379,-0.57960635,0
0.17752743,2.2585807,-2.2604964,-0.012076735,0.75105888,-0.66012478,0
-2.1900463,-1.2544568,2.7294593,-0.45705044,-0.75576216,0.4689652,0
2.2765036,-2.2583146,-1.1311666,0.29929197,-0.62719202,-0.71906495,0
-0.0041260719,-1.6457325,2.8552845,0.14403641,-0.71527547,0.68383807,0
-3.0581131,-0.23750246,-0.66169858,-0.95349401,-0.1684099,-0.24997425,0
3.6809027,-1.8809592,-0.74632549,0.29929197,-0.62719202,-0.71906495,0
-2.7025034,-0.46774244,3.4078031,-0.29929197,0.62719202,0.71906495,0
1.5453489,1.5890818,3.3413594,-0.29929197,0.62719202,0.71906495,0
-1.2265718,3.2273955,-1.3055344,-0.26745498,0.66825348,-0.69419372,0
-1.5782635,-2.5134923,1.3273618,-0.49460459,-0.74643457,0.44519848,0
-2.6881828,3.2577739,0.47770834,-0.29929197,0.62719202,0.71906495,0
-0.45613384,-4.0103045,-0.19269967,-0.4336428,-0.76069391,0.4830097,0
-2.2162669,-1.2601683,2.8303776,-0.54784155,-0.72996747,0.4086768,0
-3.3135068,-0.59011137,1.6334074,-0.82674247,-0.5466969,0.13273692,0
-0.42166436,-2.687192,-1.8891422,0.29929197,-0.62719202,-0.71906495,0
1.2149732,-3.3670039,-0.76766396,0.29929197,-0.62719202,-0.71906495,0
-0.17345732,-2.9008691,-1.9897337,0.29929197,-0.62719202,-0.71906495,0
-1.5592635,-3.1784611,0.58911324,-0.56956506,-0.72205144,0.3927303,0
3.1436214,1.0633491,-0.27088189,0.91222131,0.40905726,0.022895098,0
-0.052150488,-2.1506085,-2.1793017,0.29929197,-0.62719202,-0.71906495,0
-2.3809919,-2.2769339,-1.7857599,-0.9498499,-0.26740351,-0.16211212,0
1.1603662,-3.8839941,-0.093948752,0.29929197,-0.62719202,-0.71906495,0
1.5478175,-2.7306597,-1.0882392,0.29929197,-0.62719202,-0.71906495,0
0.60512161,-2.4446473,-1.9808985,0.29929197,-0.62719202,-0.71906495,0
0.22093558,0.98453712,3.3002687,-0.29929197,0.62719202,0.71906495,0
-0.4992702,-1.2117076,-3.3771291,0.29929197,-0.62719202,-0.71906495,0
2.7514174,0.21474242,-3.3671241,0.29929197,-0.62719202,-0.71906495,0
3.6716075,-1.1970367,-0.61931205,0.94928426,0.11962701,0.29077208,0
1.930146,-1.9896142,1.68498,0.56192523,-0.49320108,0.66407281,0
2.0137005,-2.6710196,1.4140383,0.50787789,-0.53326774,0.67652452,0
1.6380042,-3.4299901,-0.53526092,0.29929197,-0.62719202,-0.71906495,0
2.4081068,-0.32518721,-3.0763781,0.29929197,-0.62719202,-0.71906495,0
2.3004205,2.4690695,2.9453545,0.95388091,0.21494852,0.20954275,0
-3.35864,-0.2915144,2.2909939,-0.79312414,-0.58248544,0.17794579,0
-3.0128512,0.43227792,2.3976111,-0.29929197,0.62719202,0.71906495,0
2.2609155,-2.3325927,1.2861923,0.62664771,-0.43909779,0.64382106,0
-3.1847875,-0.58509487,2.2673242,-0.77594626,-0.59855086,0.1991083,0
-3.1653337,0.44110873,-0.55485082,-0.93602455,-0.046754152,-0.3488152,0
-0.26266861,-1.1936454,3.4626102,0.036159754,-0.74561238,0.66539806,0
1.2377264,1.7353401,2.9457006,-0.29929197,0.62719202,0.71906495,0
3.4477575,-2.3856592,-0.28389978,0.83988374,-0.18445075,0.51046354,0
-3.4087701,2.1394124,0.30247903,-0.85021412,0.16675463,-0.49932826,0
2.0752895,-2.4543676,-0.9150914,0.29929197,-0.62719202,-0.71906495,0
0.49518168,-1.9220657,-2.421865,0.29929197,-0.62719202,-0.71906495,0
2.0642557,2.2125978,-1.0636432,0.68522471,0.66571432,-0.29545099,0
4.0519962,-0.8653515,-1.8577876,0.93822855,0.33059046,0.10216129,0
1.5117875,-3.1534085,-0.66973686,0.29929197,-0.62719202,-0.71906495,0
-2.9252467,-0.40509808,2.7770495,-0.70819098,-0.65105844,0.27310848,0
2.1138959,-0.6722424,-2.9797442,0.29929197,-0.62719202,-0.71906495,0
1.379205,-2.276922,-1.6872752,0.29929197,-0.62719202,-0.71906495,0
-0.10968164,2.221458,1.9589701,-0.29929197,0.62719202,0.71906495,0
-0.64124632,2.1155794,-2.4117281,-0.2363264,0.68140191,-0.69270575,0
2.6037507,1.8716218,-0.86931777,0.8048718,0.57069063,-0.16276824,0
-1.429213,-1.2932376,3.0948625,-0.3052783,-0.77693987,0.55060828,0
2.6536069,-0.76834714,-2.3662682,0.29929197,-0.62719202,-0.71906495,0
-1.1165242,-1.7019041,3.1766756,-0.17317176,-0.77679873,0.60547107,0
-3.1724153,0.41115993,-0.82875705,-0.90615922,0.049185991,-0.42006683,0
-2.663609,2.7988391,-0.54247665,-0.64245439,0.42472008,-0.63785958,0
-1.9244969,2.6974742,1.2269508,-0.29929197,0.62719202,0.71906495,0
-1.0684667,4.2532997,0.091187134,-0.29929197,0.62719202,0.71906495,0
-0.88009024,4.2367969,0.18078409,-0.29929197,0.62719202,0.71906495,0
-1.3096068,3.0056937,0.75984114,-0.29929197,0.62719202,0.71906495,0
3.0552416,1.0319812,0.16192675,0.93618292,0.3386282,0.094299078,0
-0.68456721,-0.46767282,-4.0029631,0.29929197,-0.62719202,-0.71906495,0
-0.15259105,2.3033581,2.34602,-0.29929197,0.62719202,0.71906495,0
-0.039648294,2.7612226,-1.7657222,0.027773023,0.75901622,-0.65047896,0
-0.7836113,2.1925731,-2.0788944,-0.26213229,0.67056531,-0.69399476,0
-2.996789,-1.5778799,-1.0473897,-0.94783139,-0.28208986,-0.14846194,0
-3.6077783,-0.07460314,1.3297477,-0.89848894,-0.43890652,0.0088561773,0
-1.6622691,3.729224,0.26554465,-0.29929197,0.62719202,0.71906495,0
-3.5707445,1.7273057,0.21331573,-0.87856621,0.11283693,-0.46410024,0
-1.151346,4.2432671,-0.17238407,-0.11947155,0.72304547,-0.68039089,0
2.4475474,-1.3049066,-1.9700292,0.29929197,-0.62719202,-0.71906495,0
-1.1714635,2.5393264,1.1917748,-0.29929197,0.62719202,0.71906495,0
2.9495389,-2.0281198,-0.97742939,0.29929197,-0.62719202,-0.71906495,0
0.98181367,0.2935102,-3.7455115,0.29929197,-0.62719202,-0.71906495,0
-0.7656064,2.3781514,-1.8465241,-0.24173927,0.67917955,-0.69302028,0
-0.90754151,3.9887285,0.51050526,-0.29929197,0.62719202,0.71906495,0
-0.86908388,2.5189269,1.3484492,-0.29929197,0.62719202,0.71906495,0
0.42577672,2.8826733,-1.4476993,0.2200768,0.77866554,-0.58757633,0
-0.40598345,0.80661058,-3.6722839,-0.24912113,0.67610568,-0.69341165,0
1.2146866,3.0812793,1.8151689,-0.29929197,0.62719202,0.71906495,0
-0.66265917,-1.9401405,3.0241094,-0.11376858,-0.77169019,0.62574023,0
0.23175478,0.69269776,3.7891173,-0.29929197,0.62719202,0.71906495,0
3.357357,-0.01559478,-0.53864121,0.94864655,0.27650279,0.15367448,0
-0.76054299,-3.879626,-1.1838295,0.29929197,-0.62719202,-0.71906495,0
0.53657699,-3.8699369,0.46730897,-0.060773015,-0.76460928,0.64162213,0
1.264339,3.3894465,-0.040318251,0.57790238,0.71881497,-0.38643724,0
-0.48778343,-1.1681912,-3.3579504,0.29929197,-0.62719202,-0.71906495,0
0.04148984,4.272315,0.66411924,-0.29929197,0.62719202,0.71906495,0
-3.2807145,-0.16305003,-0.2510643,-0.95303977,-0.1599683,-0.25714827,0
-2.739007,0.37042439,2.9758892,-0.29929197,0.62719202,0.71906495,0
-0.11947829,2.2747753,2.3323128,-0.29929197,0.62719202,0.71906495,0
1.4115803,3.7207587,0.89392138,0.69881177,0.65720987,-0.28237772,0
-3.0236506,-0.81026328,-0.74516487,-0.95413208,-0.20264259,-0.2203809,0
3.8133888,-0.49103749,-1.412648,0.93593007,0.33958647,0.093357921,0
1.6868269,2.6890311,-0.87309647,0.60550702,0.7072674,-0.36487526,0
-2.0918646,-1.9612353,1.1269021,-0.66062176,-0.67997825,0.31813282,0
0.12692386,3.3278127,1.3962998,-0.29929197,0.62719202,0.71906495,0
-2.6643431,-0.38275027,-1.5553329,-0.93210471,-0.031082988,-0.3608526,0
-0.69903833,-3.2449424,-1.4886123,0.29929197,-0.62719202,-0.71906495,0
3.791656,-2.1040013,-0.51544499,0.86534405,-0.13908604,0.48149216,0
-1.4556547,3.6877947,0.25017309,-0.29929197,0.62719202,0.71906495,0
-1.1513577,-0.82126999,-3.719594,0.29929197,-0.62719202,-0.71906495,0
-0.34794712,-1.5091624,3.2418518,0.085757256,-0.73287761,0.67493397,0
-2.1204596,-0.39531112,3.7336354,-0.29929197,0.62719202,0.71906495,0
0.70420218,3.3176799,-0.64217436,0.33606529,0.77460945,-0.53576136,0
2.1059475,-0.83232856,2.4680769,0.64988804,-0.4177835,0.63490331,0
0.37947726,-2.1875095,2.6051493,0.14986265,-0.71335691,0.68458962,0
3.3097904,-1.8737578,-1.061393,0.29929197,-0.62719202,-0.71906495,0
-1.2609935,2.144289,1.6280261,-0.29929197,0.62719202,0.71906495,0
2.0013382,3.2111776,1.2985342,0.80110645,0.57454771,-0.16769969,0
1.8817794,-0.84197628,2.4679871,0.65998805,-0.40817145,0.63072312,0
1.5457537,-3.4014668,1.0610371,0.28589314,-0.66003937,0.69470346,0
-2.7930396,2.9138484,0.20035362,-0.29929197,0.62719202,0.71906495,0
-2.5370193,-2.2155719,-2.1018531,-0.95078099,-0.25941479,-0.16946769,0
-1.8344946,-2.2352993,1.4954107,-0.57915694,-0.7183181,0.38548166,0
-1.3125043,-0.7543509,4.0608883,-0.080151796,-0.76747149,0.63605267,0
0.14813566,-3.447108,1.232952,-0.11346006,-0.7716558,0.62583864,0
0.92546189,-4.0163813,-0.39456788,0.29929197,-0.62719202,-0.71906495,0
-0.8240087,0.22503996,3.5859146,-0.29929197,0.62719202,0.71906495,0
-1.5810405,-3.1713481,0.17445779,-0.65626168,-0.68236274,0.32202739,0
1.0720484,2.6121664,2.1525898,-0.29929197,0.62719202,0.71906495,0
3.5647306,-2.0703895,-0.9384582,0.29929197,-0.62719202,-0.71906495,0
-3.8483424,1.0578246,0.93296146,-0.95387948,-0.17835233,-0.24146259,0
2.5913174,2.1824708,0.98353481,0.90721738,0.42052299,0.010811567,0
0.40355498,-2.9798417,-1.3035101,0.29929197,-0.62719202,-0.71906495,0
-2.6172423,-2.0010929,-0.54529095,-0.8728165,-0.48443794,0.059255719,0
1.1328988,-3.5481253,1.0312139,0.18253481,-0.70205528,0.68833095,0
0.18530083,0.35723257,3.8598518,-0.29929197,0.62719202,0.71906495,0
2.215198,-1.3101085,-2.2131138,0.29929197,-0.62719202,-0.71906495,0
0.57087147,-3.7324059,-0.61251044,0.29929197,-0.62719202,-0.71906495,0
3.8941512,-0.6171369,-1.547925,0.94875085,0.27575722,0.15436828,0
-1.6460644,3.5358262,0.19552165,-0.29929197,0.62719202,0.71906495,0
1.6469514,-1.3878351,-2.3452892,0.29929197,-0.62719202,-0.71906495,0
-1.3023976,4.0641656,-0.046576381,-0.29929197,0.62719202,0.71906495,0
1.3513806,-1.2713245,2.8344009,0.53657943,-0.51252198,0.6703757,0
1.5680032,0.25738597,-3.7769608,0.29929197,-0.62719202,-0.71906495,0
2.0912147,2.0553885,-1.0518198,0.63501149,0.69340855,-0.34050673,0
-3.1299675,-0.12870634,3.0431709,-0.29929197,0.62719202,0.71906495,0
-2.008647,-3.1646779,-1.2694964,-0.79826605,-0.57740885,0.1713776,0
3.1399307,-0.60691273,-2.318471,0.29929197,-0.62719202,-0.71906495,0
-1.5033948,-0.43792582,-4.0379601,-0.71937722,0.34675848,-0.60187602,0
-0.78541565,2.3636215,-2.1972742,-0.29173487,0.65736961,-0.69480628,0
0.89257693,0.022076368,-3.6432762,0.29929197,-0.62719202,-0.71906495,0
1.4548502,1.27582,3.9223495,-0.29929197,0.62719202,0.71906495,0
-2.2036936,-0.058274031,3.0569534,-0.29929197,0.62719202,0.71906495,0
-0.33266616,-3.1139665,1.0481446,-0.17025161,-0.77661854,0.60652941,0
2.6988518,-0.92811024,1.3543186,0.83047307,-0.19984746,0.5199762,0
-2.4844651,3.3691282,-0.33848119,-0.53392285,0.51449162,-0.67098784,0
-0.10053301,-0.99647117,3.9466705,0.19927049,-0.69590533,0.68993258,0
-3.4899037,-0.089920461,0.84008551,-0.94635773,-0.29130882,-0.13980758,0
-3.2605684,-0.24154589,0.92977023,-0.91779369,-0.39531037,-0.037204981,0
1.0611984,1.7597843,3.039731,-0.29929197,0.62719202,0.71906495,0
2.1842933,-0.62142098,2.2318306,0.73396063,-0.33021384,0.59351522,0
2.6076581,1.6748481,-1.6633692,0.65534014,0.68286139,-0.32284594,0
0.73614061,3.3005533,1.6326448,-0.29929197,0.62719202,0.71906495,0
1.48623,-2.4583325,-1.5836295,0.29929197,-0.62719202,-0.71906495,0
2.4544363,-1.5294745,1.3971317,0.714643,-0.35199344,0.60447162,0
0.278052,-2.4480791,-2.0120995,0.29929197,-0.62719202,-0.71906495,0
-0.15571976,-1.2767732,-3.3883977,0.29929197,-0.62719202,-0.71906495,0
3.2531285,0.57223916,0.042881012,0.93974018,0.32428634,0.10828912,0
0.19504499,0.17242789,-4.3604345,0.29929197,-0.62719202,-0.71906495,0
-1.4276485,2.2288103,1.3861276,-0.29929197,0.62719202,0.71906495,0
-1.4523261,3.4883821,0.41512519,-0.29929197,0.62719202,0.71906495,0
2.537801,-0.78662068,1.4738016,0.79993784,-0.2458635,0.5474034,0
0.69167042,1.6023867,-2.8003597,0.074849725,0.76671958,-0.63760376,0
-3.0975692,0.89637417,-0.74592853,-0.895634,0.075212061,-0.43838668,0
2.6434987,1.5193762,2.3322601,0.94095856,0.069076329,0.33139884,0
-1.5597904,2.3331318,1.6794077,-0.29929197,0.62719202,0.71906495,0
-0.26599383,3.2786138,-1.0103794,0.047053576,0.76239395,-0.64540017,0
3.4121556,-2.6770616,-0.36790895,0.29929197,-0.62719202,-0.71906495,0
1.3865347,2.3898346,-1.7317547,0.42391324,0.76255357,-0.48868141,0
0.42742825,3.741046,-0.49198914,0.2568109,0.77875,-0.57236046,0
-1.996676,1.6461017,1.7332339,-0.29929197,0.62719202,0.71906495,0
1.3497367,0.95297384,-4.0617189,0.15970039,0.77590603,-0.61029953,0
-2.7977905,-1.5899934,0.94661927,-0.8238709,-0.55001396,0.13682544,0
-0.32366657,-1.2686138,-3.1826682,0.29929197,-0.62719202,-0.71906495,0
2.3917148,0.15525901,-3.0759423,0.29929197,-0.62719202,-0.71906495,0
-1.6925519,-0.38067102,3.8022158,-0.29929197,0.62719202,0.71906495,0
-0.74427104,2.6040821,-1.8176553,-0.14158976,0.71607238,-0.68351483,0
-0.9699614,0.40742874,-3.8410206,-0.51025027,0.53159672,-0.67605436,0
-0.12989044,0.051143646,4.3145113,-0.29929197,0.62719202,0.71906495,0
-2.7347138,-1.399394,1.7036104,-0.69388187,-0.66034991,0.28716868,0
2.1164908,3.0008712,0.79084659,0.83871245,0.53225851,-0.11516118,0
2.7916367,1.1978381,-1.8446975,0.75317413,0.61795789,-0.22551405,0
1.3372579,-4.1874304,0.35082865,0.13997555,-0.71659541,0.68329906,0
3.6609921,-1.8903089,0.032423735,0.88710272,-0.094625056,0.45176828,0
-3.1929059,-0.43356615,1.0500596,-0.90513492,-0.42508233,-0.0059679747,0
-0.55611944,0.029281378,-4.0196157,-0.45119125,0.57100296,-0.685844,0
1.619507,3.2373991,0.29866862,0.65612131,0.68243873,-0.32215208,0
-2.3331075,3.249083,-0.5154562,-0.52805549,0.51880533,-0.67230827,0
2.5449626,-1.3562146,-2.0995662,0.29929197,-0.62719202,-0.71906495,0
1.0940042,0.84788609,3.6741073,-0.29929197,0.62719202,0.71906495,0
-0.82744074,3.9612358,-0.5189414,-0.030534983,0.74692738,-0.66420388,0
2.15921,-3.2630889,-0.60109115,0.29929197,-0.62719202,-0.71906495,0
3.4229195,-0.73451328,-1.9176223,0.29929197,-0.62719202,-0.71906495,0
0.63708806,0.11632895,-3.791641,0.29929197,-0.62719202,-0.71906495,0
2.780375,0.76119995,-3.3109694,0.56960022,0.72203803,-0.39270401,0
0.66334939,0.72214437,4.0906448,-0.29929197,0.62719202,0.71906495,0
0.4064073,3.1526217,1.7216998,-0.29929197,0.62719202,0.71906495,0
-0.69913268,-1.5983965,-3.2924464,0.29929197,-0.62719202,-0.71906495,0
-3.4244866,-0.19738871,1.7362106,-0.85713381,-0.50783169,0.086187959,0
2.7701716,0.25584197,2.0194411,0.89275181,-0.081920564,0.44303834,0
0.41514039,-2.5868349,2.2387834,0.077590466,-0.73511559,0.67348683,0
2.899735,-0.69971156,-2.5342994,0.29929197,-0.62719202,-0.71906495,0
2.4955196,1.2854365,2.7004797,0.91611445,-0.021800101,0.40032351,0
2.0906796,2.6556382,2.5637043,0.95087576,0.25854075,0.17026937,0
3.059973,0.87541378,0.70600748,0.95372629,0.21940041,0.20559537,0
-1.5536904,2.7258525,-1.4656644,-0.35485452,0.6263895,-0.69405639,0
-3.6076722,1.5643475,0.33996463,-0.91914755,0.012766361,-0.39370632,0
1.730459,2.9166377,-0.23745108,0.63724786,0.69228959,-0.33859986,0
1.8345304,2.0711379,3.0401542,-0.29929197,0.62719202,0.71906495,0
1.2844092,4.092299,1.2534456,-0.29929197,0.62719202,0.71906495,0
0.2116046,-0.62367129,-3.5254996,0.29929197,-0.62719202,-0.71906495,0
-0.2221545,1.4452879,2.7588673,-0.29929197,0.62719202,0.71906495,0
1.5074306,-1.3978238,-2.0795469,0.29929197,-0.62719202,-0.71906495,0
1.7715746,-1.2077134,2.4001961,0.60923773,-0.45437634,0.64990121,0
-1.773113,0.15256333,3.4667683,-0.29929197,0.62719202,0.71906495,0
-2.4626892,1.2358389,2.145653,-0.29929197,0.62719202,0.71906495,0
2.2431068,1.1005834,-2.8213935,0.46571356,0.75376844,-0.46362036,0
1.8942103,3.2662086,0.9744525,0.76994967,0.60385847,-0.20623374,0
-1.9364312,-1.243234,3.2583187,-0.42405951,-0.76252639,0.48859683,0
3.4713037,-0.012677863,-0.42591286,0.95266771,0.23857452,0.18843043,0
-1.8818007,-0.45920157,4.0625191,-0.29929197,0.62719202,0.71906495,0
-0.78963459,-2.924396,-1.8673195,0.29929197,-0.62719202,-0.71906495,0
2.5084927,-2.6024418,-0.6271621,0.29929197,-0.62719202,-0.71906495,0
-0.41979504,-0.12151933,4.0240803,-0.29929197,0.62719202,0.71906495,0
-1.9728818,-0.54713988,3.6358142,-0.29929197,0.62719202,0.71906495,0
2.2173669,-0.15747488,-2.8925388,0.29929197,-0.62719202,-0.71906495,0
-2.5868452,-1.5541414,-2.0008013,-0.95392013,-0.17973284,-0.2402755,0
-0.45816585,-2.5551167,-2.3439145,0.29929197,-0.62719202,-0.71906495,0
-3.0184264,1.4338763,1.8761426,-0.29929197,0.62719202,0.71906495,0
-1.6232567,0.63067412,2.8145044,-0.29929197,0.62719202,0.71906495,0
3.3245749,-1.5069176,0.43284655,0.83685172,-0.18948269,0.51359057,0
0.56703091,-0.81713557,-3.238945,0.29929197,-0.62719202,-0.71906495,0
-0.63746643,-0.076094866,-4.1598806,0.29929197,-0.62719202,-0.71906495,0
-1.8769795,-1.781713,-3.1683958,0.29929197,-0.62719202,-0.71906495,0
-1.4169102,-2.1060872,-3.0958471,0.29929197,-0.62719202,-0.71906495,0
-0.87232977,2.6918733,1.4002775,-0.29929197,0.62719202,0.71906495,0
-0.98747253,-0.57844043,-4.2890854,0.29929197,-0.62719202,-0.71906495,0
-2.6601961,2.8316989,0.35801697,-0.29929197,0.62719202,0.71906495,0
-1.4011921,2.4046457,1.3076295,-0.29929197,0.62719202,0.71906495,0
-1.2473238,3.2461495,0.55021167,-0.29929197,0.62719202,0.71906495,0
0.8109107,4.0381708,0.79632378,0.55281365,0.72822005,-0.40508318,0
-0.14809227,-1.4399089,3.4844909,0.08934772,-0.73187596,0.67555487,0
1.0692658,-0.2440896,-3.244787,0.29929197,-0.62719202,-0.71906495,0
-3.3560996,0.67593277,1.9367678,-0.29929197,0.62719202,0.71906495,0
-0.11770523,-2.2197728,-2.4497118,0.29929197,-0.62719202,-0.71906495,0
-2.8839524,2.0389366,0.96505237,-0.29929197,0.62719202,0.71906495,0
-3.8515468,0.50817382,2.0381086,-0.91551268,-0.40107507,-0.03122735,0
-0.77201056,3.2432868,1.0174637,-0.29929197,0.62719202,0.71906495,0
-3.2756338,-0.44859004,2.3103182,-0.77399778,-0.60029155,0.20143759,0
3.1374493,-0.30925167,1.0412693,0.92656195,0.011096746,0.37597823,0
1.2192876,0.044059515,-3.5738735,0.29929197,-0.62719202,-0.71906495,0
0.47020149,-0.96567869,-3.2762496,0.29929197,-0.62719202,-0.71906495,0
0.31433368,4.0362291,0.016371727,0.29416597,0.77755272,-0.55576801,0
-1.6265119,-0.7954824,-3.6229417,-0.75071031,0.31037441,-0.58318228,0
0.98401093,2.9372196,-1.3986962,0.35663617,0.77252108,-0.52537769,0
-0.86417508,1.2836908,-3.1667271,-0.36501956,0.62102342,-0.69360679,0
-3.2510195,1.7188095,1.5443103,-0.29929197,0.62719202,0.71906495,0
1.3445995,-0.53815651,-2.9844866,0.29929197,-0.62719202,-0.71906495,0
0.75441408,-4.4241924,-0.059405029,0.29929197,-0.62719202,-0.71906495,0
-2.1157963,-2.700732,-2.91207,0.29929197,-0.62719202,-0.71906495,0
-2.9402573,2.7466047,-0.31166053,-0.63624442,0.43042806,-0.64025354,0
2.0561161,0.95781302,3.1041174,0.88878238,-0.090905875,0.44922352,0
2.3027616,0.9015491,-3.4212587,0.45787436,0.75557661,-0.46846044,0
-3.2963989,1.6378341,1.2834873,-0.29929197,0.62719202,0.71906495,0
-0.896667,-1.4763033,-3.323863,0.29929197,-0.62719202,-0.71906495,0
0.38648891,1.7458234,-2.9176955,0.043946862,0.76187062,-0.64623678,0
3.057584,-1.4300244,-1.4263389,0.29929197,-0.62719202,-0.71906495,0
1.4044435,-1.614946,-2.2319186,0.29929197,-0.62719202,-0.71906495,0
1.2302461,0.89513326,3.9096344,-0.29929197,0.62719202,0.71906495,0
-0.53143871,3.8036447,0.55608463,-0.29929197,0.62719202,0.71906495,0
3.5743358,-0.74339414,-0.32604313,0.94560194,0.094250441,0.31137371,0
-2.5814853,1.3424451,-1.8301625,-0.74684954,0.31503111,-0.58563697,0
2.0311191,-2.7231593,1.1591707,0.49370325,-0.54309374,0.67919517,0
2.8526278,-0.30983102,-2.7833705,0.29929197,-0.62719202,-0.71906495,0
2.8390348,0.52794099,-3.3663294,0.60658514,0.70678937,-0.36400962,0
2.4195065,2.2885716,0.61245465,0.85151315,0.51559943,-0.095302582,0
3.492485,-0.11806095,-1.766505,0.88573825,0.46285936,-0.035055757,0
-1.5377442,3.7827458,0.047503471,-0.29929197,0.62719202,0.71906495,0
0.23439646,0.80314946,3.8131425,-0.29929197,0.62719202,0.71906495,0
-2.4880662,-1.6064579,1.6247981,-0.70966989,-0.65006673,0.2716279,0
-3.0567973,-0.63154602,-0.53744459,-0.9511708,-0.25573575,-0.17283881,0
-1.170557,2.7324631,-1.4622543,-0.28739589,0.65935576,-0.69473267,0
3.1738296,0.4677552,-2.4836957,0.73956209,0.62865239,-0.24050772,0
0.82919759,-2.5235012,-1.8335214,0.29929197,-0.62719202,-0.71906495,0
-3.906641,1.1236364,1.5698397,-0.29929197,0.62719202,0.71906495,0
3.303211,0.012956262,-2.1799021,0.84365284,0.52598876,-0.10763621,0
0.22840834,-4.2778721,0.16297895,-0.13271105,-0.77364701,0.61956275,0
0.36123976,2.9334638,1.7767421,-0.29929197,0.62719202,0.71906495,0
-3.1443603,1.8226531,1.3640471,-0.29929197,0.62719202,0.71906495,0
-0.76990032,-1.2300647,3.1868615,-0.069412827,-0.76592416,0.63917285,0
2.353009,2.9323299,1.3153155,0.87855095,0.47515216,-0.048769474,0
-1.8334885,0.017833471,3.6124282,-0.29929197,0.62719202,0.71906495,0
-2.4702861,3.2572062,0.040423632,-0.29929197,0.62719202,0.71906495,0
0.12939739,0.36387324,3.7120972,-0.29929197,0.62719202,0.71906495,0
0.15039873,0.25950313,-4.3438807,0.29929197,-0.62719202,-0.71906495,0
-0.67334557,-2.0952215,2.3994303,-0.17845356,-0.77710563,0.60354042,0
0.25761437,3.9629281,-0.13868618,0.25299299,0.77879882,-0.57399213,0
-2.2838902,1.9124407,-1.391191,-0.6498872,0.41778439,-0.63490373,0
0.98244405,2.989826,2.1369655,-0.29929197,0.62719202,0.71906495,0
3.7650666,-2.3437967,-0.31803846,0.83520365,-0.19218901,0.51526517,0
1.0536625,-1.3131497,2.8893545,0.48210561,-0.55093545,0.68120784,0
1.0307804,-2.1933262,-1.713115,0.29929197,-0.62719202,-0.71906495,0
1.3032722,-4.1062107,0.24792084,0.15552187,-0.71146542,0.68529534,0
2.5795388,2.2023325,1.8438175,0.94138527,0.3170085,0.11532176,0
3.7121921,-0.82393956,-1.0449491,0.9539727,0.21168312,0.21242917,0
-1.427711,-1.7198465,-3.2709293,0.29929197,-0.62719202,-0.71906495,0
2.001303,3.411901,1.9075871,0.87352246,0.48331785,-0.057984829,0
-0.92216182,0.037801027,3.9444799,-0.29929197,0.62719202,0.71906495,0
-3.7955453,1.2888017,1.5334632,-0.29929197,0.62719202,0.71906495,0
-0.51956654,-1.612134,2.9904063,-0.0086483955,-0.75536132,0.65525126,0
1.5381243,1.6836383,-2.4504035,0.32539463,0.77552372,-0.54100013,0
2.5603871,2.2712069,2.2731287,0.95040464,0.262766,0.16638803,0
0.068747044,-1.8096831,2.8095331,0.12308502,-0.72193468,0.68092597,0
2.2999949,-3.7196696,-0.12616444,0.29929197,-0.62719202,-0.71906495,0
1.4796534,1.3103286,-3.4209049,0.22358024,0.77872652,-0.58617133,0
2.0884333,2.5255399,0.096853733,0.78726053,0.58811939,-0.18530047,0
-3.6091909,-0.0090959668,1.2392232,-0.901362,-0.43305868,0.0025596619,0
-3.3328917,-0.72948092,1.1581864,-0.87491047,-0.48109725,0.055470228,0
0.54533648,-3.091028,1.3391855,0.078437924,-0.73488599,0.67363936,0
-0.70072198,-1.1657431,-3.4102407,0.29929197,-0.62719202,-0.71906495,0
3.0039978,-2.3381407,-0.92766547,0.29929197,-0.62719202,-0.71906495,0
-1.0045316,-3.6324623,-1.5305216,0.29929197,-0.62719202,-0.71906495,0
0.78658271,2.2436471,2.7206001,-0.29929197,0.62719202,0.71906495,0
2.6076429,0.57667232,1.6174667,0.94056427,0.067156106,0.33290958,0
0.406569,-4.3557262,-0.29092604,0.29929197,-0.62719202,-0.71906495,0
1.3312364,-2.3709855,2.0237856,0.32487184,-0.64159977,0.69484371,0
-1.1947193,-0.4951458,-4.4505882,0.29929197,-0.62719202,-0.71906495,0
3.1524329,1.2298746,0.64928246,0.94456679,0.30135667,0.13029814,0
-0.78262454,-3.4765017,-1.3245057,0.29929197,-0.62719202,-0.71906495,0
-1.5127671,2.4096119,1.3561007,-0.29929197,0.62719202,0.71906495,0
2.0203223,1.5360136,3.7061617,0.86659455,-0.13669327,0.47992569,0
0.35040557,3.3690262,1.1929713,-0.29929197,0.62719202,0.71906495,0
-1.2265942,-3.0163403,1.1155617,-0.4018389,-0.76637119,0.50119913,0
2.3813813,-2.7685235,-0.55442882,0.29929197,-0.62719202,-0.71906495,0
2.9125867,1.1714828,0.16539717,0.92543674,0.37432957,0.058686376,0
-3.1209617,2.4338038,0.99704337,-0.29929197,0.62719202,0.71906495,0
-3.1413226,-1.0619098,-0.61927509,-0.94965577,-0.26895258,-0.16068017,0
2.4493952,0.078910828,2.4903193,0.85343277,-0.16105387,0.49569553,0
-2.3782947,0.29548991,2.9529305,-0.29929197,0.62719202,0.71906495,0
0.41998315,-2.3136277,2.125509,0.072070837,-0.73659664,0.67248124,0
2.1685224,1.9351757,3.1830168,0.93518281,0.043259263,0.35151327,0
-0.60553169,-0.32327795,3.9833403,-0.29929197,0.62719202,0.71906495,0
0.36567307,0.88648582,3.4598317,-0.29929197,0.62719202,0.71906495,0
-0.44175577,-2.1100266,2.7458644,-0.080260992,-0.76748675,0.63602054,0
0.9502666,-0.28107285,-3.4187608,0.29929197,-0.62719202,-0.71906495,0
2.1192856,-2.6504245,-0.81862652,0.29929197,-0.62719202,-0.71906495,0
0.15258238,3.1462259,1.6821847,-0.29929197,0.62719202,0.71906495,0
1.4085286,-0.0039980412,3.525835,0.63580906,-0.43082529,0.64041889,0
1.9409821,0.30718088,-3.5886889,0.29929197,-0.62719202,-0.71906495,0
-2.1683023,0.39480031,-2.5512145,-0.78505492,0.2664682,-0.5591808,0
1.7385607,-3.0002503,1.0322368,0.35174125,-0.62801152,0.6941753,0
-0.54013562,-0.16676164,3.862484,-0.29929197,0.62719202,0.71906495,0
-1.7226942,0.48643422,3.2313807,-0.29929197,0.62719202,0.71906495,0
-0.95939553,3.7067642,0.68903983,-0.29929197,0.62719202,0.71906495,0
0.50967407,0.12603998,4.2333765,-0.29929197,0.62719202,0.71906495,0
-2.680969,-2.4137313,-0.63188648,-0.87669772,-0.47820091,0.052200079,0
0.044881821,1.6042982,-3.3701553,-0.1190896,0.72316223,-0.68033373,0
3.1978016,-2.2138295,-0.71242261,0.29929197,-0.62719202,-0.71906495,0
-1.9758234,2.5530853,0.98581648,-0.29929197,0.62719202,0.71906495,0
1.8834026,-1.167189,2.7219419,0.62967002,-0.43638682,0.64271462,0
0.88820672,-3.1354315,-1.0410098,0.29929197,-0.62719202,-0.71906495,0
-2.1690576,0.45433986,-2.8969364,-0.73912215,0.32419944,-0.59041762,0
2.2497349,2.3237724,0.015874147,0.78025544,0.59464383,-0.1939069,0
0.64402914,-0.35895491,3.8919036,0.38810855,-0.60842949,0.69223207,0
-1.740625,-1.4164264,-3.6775444,0.29929197,-0.62719202,-0.71906495,0
-0.89037657,0.98374641,2.9513288,-0.29929197,0.62719202,0.71906495,0
-1.4832613,-0.32773805,3.7060628,-0.29929197,0.62719202,0.71906495,0
2.3067377,0.76865721,2.8261905,0.86927551,-0.13150376,0.47651511,0
-2.4830766,-0.17597818,-2.415066,-0.87090957,0.12829939,-0.47440022,0
-3.380095,-0.24764484,-0.16424894,-0.95410776,-0.2047209,-0.21855807,0
-0.14115357,3.4384215,-0.97074997,0.040840983,0.76133919,-0.647066,0
1.9199486,2.5518527,-0.21842575,0.7016533,0.65537107,-0.27959126,0
-1.2476335,-1.0533717,3.6652803,-0.11176586,-0.77146548,0.62637788,0
-1.1369747,3.6178498,0.27309161,-0.29929197,0.62719202,0.71906495,0
-3.0219293,2.0915337,-0.70458555,-0.71376395,0.3529582,-0.60494739,0
1.1061252,3.8630474,0.9334147,0.63227361,0.69476479,-0.34282923,0
-3.3349755,2.7398436,0.051791906,-0.78277737,0.26953021,-0.56090355,0
2.8802807,-2.9454255,0.16932011,0.61502552,-0.44935977,0.64793468,0
-2.0476956,1.2531202,-2.1782331,-0.63145781,0.43477488,-0.64205265,0
-1.2830479,-0.04001236,3.4881222,-0.29929197,0.62719202,0.71906495,0
0.89293194,2.1025026,-2.3550003,0.16079152,0.77598411,-0.60991347,0
1.4763556,1.8100859,-2.5547867,0.29452634,0.77753466,-0.55560237,0
-0.26726437,-0.98160124,-3.5548432,0.29929197,-0.62719202,-0.71906495,0
1.0271733,2.7963455,2.0015378,-0.29929197,0.62719202,0.71906495,0
2.9519064,1.536818,-0.084090471,0.88048625,0.47191715,-0.045142174,0
2.8552234,0.96934927,0.82754159,0.94965398,0.26896816,0.16066587,0
3.3188033,0.40702078,-1.1516292,0.88358021,0.46663237,-0.039245009,0
-2.3177652,-2.8037419,-2.5374749,-0.94055921,-0.32072216,-0.11173868,0
-2.5860667,3.6169817,-0.024507761,-0.47606546,0.55495059,-0.6821959,0
2.6148801,-2.9450407,-0.35880399,0.29929197,-0.62719202,-0.71906495,0
1.4077179,-2.646594,1.481842,0.29118758,-0.65762115,0.69479787,0
0.21496964,0.56608772,-4.1463757,-0.20263052,0.69464082,-0.69022804,0
-0.31105542,3.3056431,-1.2461078,-0.0097278357,0.75156432,-0.65958798,0
2.6891038,-1.4623114,1.3162332,0.77218509,-0.2834751,0.56865811,0
2.8786893,-2.9678388,-0.25524306,0.29929197,-0.62719202,-0.71906495,0
-2.1150208,-2.1155953,-3.1435997,0.29929197,-0.62719202,-0.71906495,0
3.2028413,-2.9951129,0.04607749,0.29929197,-0.62719202,-0.71906495,0
-2.633719,-2.0181491,0.332021,-0.84394985,-0.5256055,0.10717833,0
-0.25617945,3.5614505,0.82827163,-0.29929197,0.62719202,0.71906495,0
-1.3364934,1.4073404,2.135046,-0.29929197,0.62719202,0.71906495,0
0.039852619,0.90264499,-3.6545091,-0.22874492,0.68446976,-0.69222599,0
0.073540926,1.3180976,3.1971333,-0.29929197,0.62719202,0.71906495,0
-1.8252039,1.5724028,2.187686,-0.29929197,0.62719202,0.71906495,0
-3.0011401,2.8445821,-0.29622197,-0.70158911,0.36610198,-0.61134428,0
-2.2460217,0.8322016,2.3765149,-0.29929197,0.62719202,0.71906495,0
-3.6679766,0.58965963,1.8263016,-0.92623061,-0.3719776,-0.061068177,0
2.8282955,-1.6181219,1.1028459,0.73683,-0.32688087,0.59180242,0
0.17869091,-1.6029357,3.1968627,0.22052264,-0.68773812,0.69165444,0
1.7788265,-0.74162412,-2.9512539,0.29929197,-0.62719202,-0.71906495,0
-2.6257226,2.897748,0.45874691,-0.29929197,0.62719202,0.71906495,0
0.64821267,-2.2656531,2.378134,0.22380567,-0.68644041,0.69188905,0
-1.5867178,-0.59408712,-3.7635674,-0.77524972,0.27948919,-0.56645691,0
1.7961359,-1.7981439,-1.753921,0.29929197,-0.62719202,-0.71906495,0
-0.98666549,2.3830729,1.9585642,-0.29929197,0.62719202,0.71906495,0
2.0533195,2.9117231,0.0025374889,0.71568292,0.6459716,-0.2655533,0
-0.29575574,-2.1478295,-2.2322078,0.29929197,-0.62719202,-0.71906495,0
-2.7516828,1.6717166,1.4720252,-0.29929197,0.62719202,0.71906495,0
-1.7151306,-0.22193241,3.6478248,-0.29929197,0.62719202,0.71906495,0
0.2201705,3.8117986,-0.23988044,0.22753727,0.77878201,-0.58457273,0
2.9862568,-2.8227868,0.38653255,0.64009476,-0.42689824,0.63877726,0
3.0060067,-1.6295018,1.0956321,0.76023579,-0.29865772,0.5769273,0
2.0817106,3.3260083,1.5313547,0.83830327,0.53276932,-0.11577702,0
2.4555998,-2.9705827,-0.78324103,0.29929197,-0.62719202,-0.71906495,0
0.66031659,-3.8818262,-0.38710171,0.29929197,-0.62719202,-0.71906495,0
1.6240499,-0.25254703,-3.2289686,0.29929197,-0.62719202,-0.71906495,0
-1.4138429,-0.06789732,3.8065898,-0.29929197,0.62719202,0.71906495,0
-2.3269649,0.40971839,-2.7267513,-0.76515245,0.29247808,-0.57358366,0
0.64900768,-2.0425854,-2.1590142,0.29929197,-0.62719202,-0.71906495,0
-3.828825,1.7154366,0.51764798,-0.90333414,0.056430042,-0.4252094,0
2.4644384,2.2109299,2.5228477,0.95408392,0.20632766,0.21714675,0
-2.4133325,1.6950724,-1.7540479,-0.6907531,0.37746796,-0.61674786,0
3.5358303,0.51463521,-0.97922206,0.9167707,0.39792064,0.034502506,0
0.49176967,1.5214703,3.2127934,-0.29929197,0.62719202,0.71906495,0
-0.28564906,-3.1880136,-1.408723,0.29929197,-0.62719202,-0.71906495,0
2.2916832,0.18655014,-3.3746827,0.29929197,-0.62719202,-0.71906495,0
-1.8852553,2.1407037,1.4364747,-0.29929197,0.62719202,0.71906495,0
1.1190261,2.9976952,1.9741063,-0.29929197,0.62719202,0.71906495,0
3.1732144,0.31080216,0.75728154,0.95321298,0.16294061,0.25462782,0
1.3032331,2.8145127,-0.9196353,0.46356618,0.75427127,-0.4649528,0
0.57187366,0.86420178,-3.8601403,-0.05402863,0.74126035,-0.66903955,0
-3.3717713,0.25047398,2.7675762,-0.29929197,0.62719202,0.71906495,0
-3.5571187,-0.14989197,1.3990436,-0.89394933,-0.44778627,0.018490791,0
-2.5751684,1.4881215,-1.2053499,-0.76862484,0.28805739,-0.57117301,0
0.78958321,-0.25347471,-3.5331035,0.29929197,-0.62719202,-0.71906495,0
-1.5093832,1.3740222,-2.8288369,-0.50665718,0.53412455,-0.67676365,0
-3.6988184,1.6312517,1.4483824,-0.29929197,0.62719202,0.71906495,0
0.2284255,-4.3552704,-0.34338772,0.29929197,-0.62719202,-0.71906495,0
-1.3474376,4.1423464,0.00024044514,-0.29929197,0.62719202,0.71906495,0
1.3579504,-1.3417895,-2.199223,0.29929197,-0.62719202,-0.71906495,0
-2.9064875,0.67173445,2.1180787,-0.29929197,0.62719202,0.71906495,0
-0.19218153,1.9165686,2.1449115,-0.29929197,0.62719202,0.71906495,0
3.4410372,-0.669312,-2.1548636,0.29929197,-0.62719202,-0.71906495,0
-0.21380591,3.1653919,-1.4703145,0.071912408,0.76629293,-0.63845414,0
-3.6273897,0.70746332,0.03024435,-0.94408333,-0.085411131,-0.31845152,0
1.1653409,-1.7410413,2.5931211,0.41806751,-0.59122187,0.68969268,0
3.9176092,-1.5845519,-0.56143498,0.93301916,0.034608185,0.35815835,0
-0.65719962,3.6726847,0.437006,-0.29929197,0.62719202,0.71906495,0
2.2775831,-0.57740951,-2.7376919,0.29929197,-0.62719202,-0.71906495,0
-0.56381011,4.1701322,-0.32161546,0.059034467,0.7643373,-0.64210844,0
0.71352494,4.1302361,0.7231437,-0.29929197,0.62719202,0.71906495,0
1.1250732,3.5598409,-0.046566486,0.50397146,0.74382293,-0.43902171,0
-2.1253476,0.62817347,2.8248875,-0.29929197,0.62719202,0.71906495,0
3.0333071,1.2173498,-0.41128778,0.91215485,0.40921471,0.022730231,0
1.7280319,2.0687721,3.3481083,-0.29929197,0.62719202,0.71906495,0
2.3540969,2.6542373,2.816668,0.95217156,0.24496643,0.18264878,0
1.9860435,-0.88902473,-2.3932817,0.29929197,-0.62719202,-0.71906495,0
1.2634966,2.22191,-1.9825237,0.30433643,0.77699643,-0.55104965,0
-1.0846133,-2.0117469,-2.7622032,0.29929197,-0.62719202,-0.71906495,0
2.3181834,2.3116713,1.3447144,0.92597812,0.37272942,0.060307264,0
-1.8560629,-3.0269823,-2.5465848,0.29929197,-0.62719202,-0.71906495,0
-0.72796392,-0.59560442,-3.8029277,0.29929197,-0.62719202,-0.71906495,0
1.0172465,0.5025661,4.208499,0.60455102,-0.45839378,0.65145469,0
0.18794656,-1.3427765,-2.711524,0.29929197,-0.62719202,-0.71906495,0
-2.4223452,2.4101403,1.2904124,-0.29929197,0.62719202,0.71906495,0
-2.7643688,0.47402525,2.5593436,-0.29929197,0.62719202,0.71906495,0
2.8813677,1.8588052,0.20692587,0.87996292,0.47279745,-0.046127796,0
-0.47908497,2.3842909,1.6875097,-0.29929197,0.62719202,0.71906495,0
0.37909734,1.6358964,2.7963769,-0.29929197,0.62719202,0.71906495,0
0.22963238,-2.0356207,-2.5496697,0.29929197,-0.62719202,-0.71906495,0
1.9772207,-3.5510738,-0.13047206,0.29929197,-0.62719202,-0.71906495,0
-1.8276315,-0.86970472,3.8527126,-0.34060377,-0.77418578,0.53350276,0
-3.4440663,-0.20456338,1.6863372,-0.88758492,-0.45957106,0.03141892,0
-3.0567527,0.86183953,1.9252189,-0.29929197,0.62719202,0.71906495,0
-1.7820296,-1.0649539,3.7611442,-0.27816391,-0.77822691,0.56301653,0
1.0291073,-1.4642669,-2.4978204,0.29929197,-0.62719202,-0.71906495,0
-1.6082995,-2.9879961,0.17007184,-0.61257887,-0.70409393,0.35916376,0
1.8798565,-4.0500588,0.16397941,0.25489271,-0.67366737,0.69368714,0
0.19103229,-1.6201628,-2.5405128,0.29929197,-0.62719202,-0.71906495,0
-1.7839997,3.9114716,0.025793672,-0.29929197,0.62719202,0.71906495,0
2.2949634,2.4894745,0.62673569,0.85598528,0.50944328,-0.088071585,0
0.92569971,0.73535037,4.172646,-0.29929197,0.62719202,0.71906495,0
-0.083341837,1.3121871,2.7379396,-0.29929197,0.62719202,0.71906495,0
-2.9623249,-0.43589962,-1.8291681,-0.91079116,0.036833853,-0.41122067,0
1.3755982,-3.7231319,-0.56720901,0.29929197,-0.62719202,-0.71906495,0
1.3635447,-0.99387407,-2.6403148,0.29929197,-0.62719202,-0.71906495,0
2.1560302,-1.9374895,-1.4686971,0.29929197,-0.62719202,-0.71906495,0
-2.4186521,-2.4793315,-2.0479043,-0.93062371,-0.35823447,-0.074883938,0
-2.0387564,-0.99224043,-3.4139438,-0.83226645,0.19696277,-0.51820654,0
-1.4398019,0.43780088,3.3784618,-0.29929197,0.62719202,0.71906495,0
2.5375135,1.5012534,-2.3383441,0.59437931,0.71207994,-0.37370455,0
-1.524349,1.275467,-2.4337559,-0.52337956,0.52220762,-0.67332971,0
2.7552905,-0.89354873,1.3745668,0.83311486,-0.19559026,0.51736253,0
-2.4482481,-2.4420214,-0.38299918,-0.86441487,-0.497307,0.073977351,0
-2.3646555,-0.85426795,-2.6761703,-0.89321399,0.080855668,-0.44230187,0
1.2227092,1.4837353,3.5048695,-0.29929197,0.62719202,0.71906495,0
0.88161111,3.8941767,0.88902307,-0.29929197,0.62719202,0.71906495,0
-2.4239414,-1.9049252,-1.5284286,-0.94346547,-0.30704895,-0.12487459,0
3.2939534,0.94183838,0.46961451,0.94960988,0.2693142,0.16034555,0
1.5479188,-0.674371,2.9544687,0.61987555,-0.44510829,0.64624506,0
0.61743569,0.48862863,4.0885811,-0.29929197,0.62719202,0.71906495,0
1.9897879,-0.91371059,-2.5060256,0.29929197,-0.62719202,-0.71906495,0
-2.3877168,-0.84012997,3.104959,-0.53645813,-0.73382872,0.41678268,0
1.2849317,2.1416607,3.0806847,-0.29929197,0.62719202,0.71906495,0
-3.1831269,-0.11334836,2.9011672,-0.29929197,0.62719202,0.71906495,0
2.9193196,1.5425547,1.5498493,0.95357865,0.22294784,0.20243967,0
-3.0752797,-1.122262,-0.21625519,-0.92513007,-0.3752284,-0.057774663,0
-0.73305404,1.2578485,2.6478205,-0.29929197,0.62719202,0.71906495,0
0.457793,-4.1565599,0.046131611,-0.094319344,-0.76936525,0.63180763,0
-2.6887226,2.4448771,0.79766071,-0.29929197,0.62719202,0.71906495,0
2.7503889,-0.25319088,1.6187794,0.85852647,-0.15183434,0.48977411,0
0.77855825,0.17632842,-3.9202766,0.29929197,-0.62719202,-0.71906495,0
2.3676271,-2.696137,0.68057442,0.56379735,-0.4917348,0.66357303,0
0.080677748,-0.31051946,-3.8121958,0.29929197,-0.62719202,-0.71906495,0
-1.4376404,-0.48669958,3.7588439,-0.29929197,0.62719202,0.71906495,0
-0.18992758,0.10883403,-4.2587261,0.29929197,-0.62719202,-0.71906495,0
-2.0558805,-2.7909362,-0.080005407,-0.73630965,-0.63111562,0.24401003,0
-1.5043144,-3.0719919,-2.3191669,0.29929197,-0.62719202,-0.71906495,0
-1.571573,1.7022363,-2.2836862,-0.45931798,0.56584251,-0.68472552,0
1.0132668,-1.7780702,-2.2681885,0.29929197,-0.62719202,-0.71906495,0
0.82575262,4.0843153,0.81737566,-0.29929197,0.62719202,0.71906495,0
2.083637,-2.3365479,1.4416462,0.58240074,-0.47685987,0.65834188,0
-0.6598649,3.1240845,-1.2438287,-0.022125602,0.74884462,-0.66237605,0
3.5992455,-0.25746536,-2.266048,0.86254388,0.50006407,-0.077160954,0
-0.89106858,-3.3192964,-1.7076374,0.29929197,-0.62719202,-0.71906495,0
1.4790232,1.4344735,3.6288674,-0.29929197,0.62719202,0.71906495,0
-1.1367197,-1.7246134,3.0223937,-0.22923744,-0.77880156,0.58388209,0
-1.4372102,-3.7151625,-1.0601919,-0.690391,-0.66253567,0.29052806,0
0.59182096,-3.1970882,1.4280407,0.030469656,-0.74694252,0.66418988,0
1.5426662,-2.0296202,-1.8443718,0.29929197,-0.62719202,-0.71906495,0
-0.94961929,0.1539712,-3.8798509,-0.58144295,0.4776395,-0.65862322,0
-1.3072891,3.2195101,0.63083982,-0.29929197,0.62719202,0.71906495,0
-3.3329167,-0.45625356,1.1143231,-0.9072535,-0.42044297,-0.010896444,0
0.63934207,3.87008,0.22550559,0.41537517,0.76409554,-0.49358016,0
1.0927267,-2.8767803,1.5277432,0.27471465,-0.66505772,0.69442791,0
-2.566092,0.23413157,-2.2332852,-0.83234078,0.19684282,-0.51813275,0
-2.4338441,-2.3632441,-2.3379779,-0.95262831,-0.2391198,-0.18793845,0
1.6089296,-2.026233,2.0362663,0.40450674,-0.5991345,0.69095004,0
-1.4704077,1.4714179,-2.2865646,-0.51407021,0.52888972,-0.67528319,0
2.7585223,-3.4117491,0.10410738,0.56486607,-0.49089533,0.66328573,0
3.0138516,0.62550282,-3.0885048,0.66666901,0.67660147,-0.31267047,0
-2.5366795,-0.90342546,3.1423936,-0.59460545,-0.7119844,0.37352717,0
-2.5606077,-0.95619655,2.897738,-0.53212899,-0.73524702,0.41982168,0
-0.89599401,2.1054096,1.6984082,-0.29929197,0.62719202,0.71906495,0
3.2671959,0.7587496,-0.42122817,0.91106659,0.41177121,0.020047307,0
-3.0258243,0.39067185,2.8496017,-0.29929197,0.62719202,0.71906495,0
-2.405611,0.11715269,3.190479,-0.29929197,0.62719202,0.71906495,0
-2.6906879,-1.4911387,0.34613442,-0.85281956,-0.51382023,0.093206882,0
-0.80482721,-3.6564808,0.53487158,-0.41875345,-0.76349533,0.49165046,0
2.2040477,-2.7280836,1.0775726,0.5537315,-0.49955398,0.66620368,0
-0.82199597,-0.011719227,-4.2348585,-0.55487537,0.49867323,-0.6659115,0
0.18603802,0.54498672,3.7351708,-0.29929197,0.62719202,0.71906495,0
-0.90029621,-1.0449631,-3.5637465,0.29929197,-0.62719202,-0.71906495,0
3.203342,0.34818137,-3.1929345,0.66432124,0.67792213,-0.31479961,0
2.2184064,-0.90840852,-2.7096195,0.29929197,-0.62719202,-0.71906495,0
0.20857239,-4.3237152,-0.36114818,0.29929197,-0.62719202,-0.71906495,0
-2.748138,1.3091512,-1.5202687,-0.7311691,0.33343142,-0.59515977,0
2.6512661,0.057547092,-2.8893335,0.29929197,-0.62719202,-0.71906495,0
0.79509759,0.039418697,-4.0201902,0.29929197,-0.62719202,-0.71906495,0
-2.0351179,1.7005682,1.5897452,-0.29929197,0.62719202,0.71906495,0
-2.8998575,2.6617453,-0.45526195,-0.65618116,0.41182029,-0.63232142,0
1.8117063,0.23702669,-3.4274967,0.29929197,-0.62719202,-0.71906495,0
-2.4780118,-2.0973382,-1.8882093,-0.94206667,-0.31384826,-0.11836183,0
3.2006924,-1.4567208,-1.4619355,0.29929197,-0.62719202,-0.71906495,0
-0.21431565,-0.18240571,-3.910553,0.29929197,-0.62719202,-0.71906495,0
1.4349778,-2.7778344,1.6823688,0.31704211,-0.64542305,0.69491959,0
2.886415,0.019167542,1.0008218,0.93271244,0.03341794,0.35906887,0
-1.702872,-2.9054608,0.77433753,-0.54584342,-0.73065937,0.41011196,0
1.134498,1.5385911,3.1214685,-0.29929197,0.62719202,0.71906495,0
2.6364763,-1.2768414,-1.7621142,0.29929197,-0.62719202,-0.71906495,0
0.47762728,-0.091860056,4.4222231,0.45778769,-0.56682044,0.68494153,0
0.23886299,3.6551983,0.81775558,-0.29929197,0.62719202,0.71906495,0
-0.37643194,1.7775886,-2.8537862,-0.15503037,0.71163082,-0.68523502,0
-1.704697,-3.6220813,-0.7320075,-0.73932832,-0.62883043,0.24076033,0
-0.52271247,-3.7610359,0.54879475,-0.30805039,-0.77676833,0.54930484,0
-1.3660319,-0.013910532,3.8119988,-0.29929197,0.62719202,0.71906495,0
-1.8079662,-0.61978865,-3.7802687,-0.76724613,0.28981826,-0.57213509,0
-0.58491319,-3.291286,-1.7492942,0.29929197,-0.62719202,-0.71906495,0
-3.9384491,0.42550421,1.2528479,-0.94167179,-0.31569076,-0.1165905,0
-0.52408457,0.33892131,3.8413436,-0.29929197,0.62719202,0.71906495,0
-1.8727176,-1.7627821,2.3230963,-0.43666416,-0.76009405,0.48122892,0
0.7416954,0.97989154,-3.7262197,-0.006065011,0.75234348,-0.65874302,0
1.867326,-0.70874608,2.7857025,0.64981914,-0.41784835,0.63493121,0
1.122962,3.3072944,-0.68603051,0.48978102,0.74773395,-0.4483394,0
0.84220171,-1.6885546,-2.5362339,0.29929197,-0.62719202,-0.71906495,0
-1.3785255,-2.0909607,2.4668272,-0.31697381,-0.77616501,0.54506445,0
-2.0072091,-0.63349223,3.8734915,-0.29929197,0.62719202,0.71906495,0
2.146945,2.856781,1.0298994,0.86907327,0.49027351,-0.065903425,0
3.2413802,-1.6860341,0.74507189,0.83905649,-0.18583059,0.51132286,0
-3.2663689,-0.91273487,0.25637054,-0.92942929,-0.36210233,-0.071013093,0
-3.7931602,2.1461849,0.5993824,-0.29929197,0.62719202,0.71906495,0
1.6231966,1.425372,-3.2558813,0.32299685,0.77571344,-0.54216373,0
0.44469321,-3.882417,-0.75247467,0.29929197,-0.62719202,-0.71906495,0
0.047337115,-2.5184758,-2.2264161,0.29929197,-0.62719202,-0.71906495,0
0.18623924,0.25605559,-4.160459,0.29929197,-0.62719202,-0.71906495,0
-2.1927214,-2.3954425,0.69085717,-0.74042469,-0.62799335,0.23957396,0
-0.60951382,-2.8894072,-1.6751541,0.29929197,-0.62719202,-0.71906495,0
1.791605,-2.7117481,-0.86145681,0.29929197,-0.62719202,-0.71906495,0
-0.59972966,-1.9833597,-2.7896054,0.29929197,-0.62719202,-0.71906495,0
-2.0414093,-0.7686255,3.6183038,-0.40307301,-0.76617223,0.50051194,0
-2.7295759,-0.92911994,-2.265352,-0.91824019,0.015508085,-0.39572012,0
-2.9617577,2.631443,0.8418889,-0.29929197,0.62719202,0.71906495,0
-3.242496,-0.84823048,0.61151981,-0.9000299,-0.43579352,0.0054994822,0
-2.3685236,-2.8507736,-1.7308686,-0.91397971,-0.40483975,-0.027305722,0
1.2548482,3.9208155,1.3923385,-0.29929197,0.62719202,0.71906495,0
-1.727308,-3.1431665,-1.9299519,0.29929197,-0.62719202,-0.71906495,0
0.35123277,0.90019464,3.6319602,-0.29929197,0.62719202,0.71906495,0
1.5552524,-2.2197359,-1.5142666,0.29929197,-0.62719202,-0.71906495,0
-2.3064258,-1.9505105,1.2136099,-0.64482766,-0.68842232,0.33207178,0
1.4710317,3.1169696,-0.44230223,0.58683598,0.71522021,-0.37958336,0
1.1454566,0.4121964,4.0839186,0.65557086,-0.41240221,0.63257498,0
0.52352202,-1.3313065,-2.6868386,0.29929197,-0.62719202,-0.71906495,0
3.8278823,-0.71861464,-1.7677639,0.29929197,-0.62719202,-0.71906495,0
0.21086669,1.62304,2.8779109,-0.29929197,0.62719202,0.71906495,0
2.5864754,1.4373523,1.7948701,0.95034587,0.12861601,0.28337359,0
3.2781694,-1.3805398,0.69185615,0.85098308,-0.16540104,0.49846774,0
-0.015074253,0.15242958,4.1674194,-0.29929197,0.62719202,0.71906495,0
2.6285763,2.2644145,-0.29600453,0.78825963,0.58717084,-0.1840573,0
1.2707534,-3.9990163,0.3395552,0.14633429,-0.71452224,0.68413746,0
-0.10051274,3.6495037,0.81024796,-0.29929197,0.62719202,0.71906495,0
2.7915254,-3.6511126,-0.027221441,0.29929197,-0.62719202,-0.71906495,0
-2.3335385,-2.37028,-2.0733228,-0.95003712,-0.26587522,-0.16352308,0
-3.1599643,1.6027567,1.3981857,-0.29929197,0.62719202,0.71906495,0
-0.32572013,-2.1165619,-2.4920864,0.29929197,-0.62719202,-0.71906495,0
1.7004627,-1.2892504,-2.6029463,0.29929197,-0.62719202,-0.71906495,0
3.1331091,-1.4632714,0.7694509,0.80559403,-0.23774335,0.5426749,0
-2.7517502,2.4836626,-0.65212464,-0.67375839,0.39470288,-0.62470704,0
-3.1724939,0.033467412,2.5727119,-0.29929197,0.62719202,0.71906495,0
1.0059671,-0.47409463,3.5071931,0.54069734,-0.50944865,0.66940892,0
-0.012718201,3.3388462,-1.2761137,0.096729994,0.76967072,-0.63107061,0
-2.5572689,-1.9921293,-0.76310706,-0.89854741,-0.43878928,0.0087294579,0
-3.4628839,1.3164942,0.064114571,-0.92377234,-0.0017865002,-0.38293779,0
-3.4541368,2.8783584,0.45003557,-0.29929197,0.62719202,0.71906495,0
-2.8902001,-1.1963793,-1.2114794,-0.95077878,-0.25943476,-0.16944933,0
-0.66293216,-0.99643993,-3.4816763,0.29929197,-0.62719202,-0.71906495,0
0.59722114,-2.0163612,-2.2825398,0.29929197,-0.62719202,-0.71906495,0
-1.3000382,-1.7914681,-3.411984,0.29929197,-0.62719202,-0.71906495,0
1.7212977,-0.58407021,-2.975811,0.29929197,-0.62719202,-0.71906495,0
-1.8710046,0.056267023,3.0677261,-0.29929197,0.62719202,0.71906495,0
-1.3210289,1.2115985,2.5557165,-0.29929197,0.62719202,0.71906495,0
3.4454732,-0.25320303,-1.711782,0.90152669,0.43271777,-0.0021936893,0
-0.9042089,-4.3401785,-0.6485467,-0.54583365,-0.7306627,0.41011894,0
-2.1126502,-2.3226893,0.24313807,-0.73984039,-0.6284399,0.24020672,0
-1.8306278,1.9477739,-1.9560907,-0.5609625,0.49395287,-0.66432786,0
-0.92674875,0.7889173,-3.6252027,-0.45898396,0.56605625,-0.68477285,0
3.1808181,-0.42655063,-2.2709184,0.29929197,-0.62719202,-0.71906495,0
-0.70022053,2.0445657,2.0480702,-0.29929197,0.62719202,0.71906495,0
-1.3882174,0.46018815,-3.2495627,-0.59880829,0.46326292,-0.65331137,0
2.5296774,-3.4246869,-0.22069311,0.29929197,-0.62719202,-0.71906495,0
2.9096251,-2.6464925,0.67885613,0.67033637,-0.3980903,0.62623727,0
-1.456965,0.9123199,-2.7960095,-0.54295194,0.50775528,-0.66887045,0
-0.45742846,3.205791,-1.4315722,-0.025130272,0.74816632,-0.66303504,0
-0.15553498,-4.0204945,-0.56585622,0.29929197,-0.62719202,-0.71906495,0
1.1693588,-2.8259602,-1.0490148,0.29929197,-0.62719202,-0.71906495,0
-2.0983233,-2.6549773,-2.7361166,-0.94855869,-0.2771239,-0.1530962,0
2.6367838,-1.7426326,-1.6899023,0.29929197,-0.62719202,-0.71906495,0
-2.5127254,-0.77915263,-2.8362856,-0.89973748,0.065367788,-0.43150806,0
2.8556709,1.1135259,1.0716813,0.95416081,0.19770432,0.22470021,0
2.5572209,-3.0360596,-0.22644162,0.29929197,-0.62719202,-0.71906495,0
-2.2378812,-2.367986,-2.576282,-0.95415717,-0.19444658,-0.22754025,0
-2.1817827,-1.8916025,1.0044339,-0.69209582,-0.66147208,0.2888909,0
0.58591175,1.5680099,-3.3384924,0.080379248,0.76750326,-0.63598567,0
-0.59100723,-3.3441713,0.52929556,-0.38863927,-0.76839441,0.50845778,0
2.9767489,-0.14869905,1.7327108,0.89689487,-0.072225004,0.43630612,0
-2.4072378,0.46565533,3.0192091,-0.29929197,0.62719202,0.71906495,0
-0.8798542,-0.84189558,-3.8600984,0.29929197,-0.62719202,-0.71906495,0
2.1628997,2.7250204,1.7807269,0.92609662,0.37237716,0.060663939,0
-1.2941735,-3.3791628,-1.6647599,0.29929197,-0.62719202,-0.71906495,0
0.55089802,3.3633409,1.3957613,-0.29929197,0.62719202,0.71906495,0
1.6914766,1.0121264,4.1031013,-0.29929197,0.62719202,0.71906495,0
-1.824527,-2.9290323,-0.63122892,-0.77137631,-0.60260904,0.20455015,0
-2.5230808,-1.8974346,-2.8548212,-0.94125879,-0.070557207,-0.33023214,0
3.150635,1.3031656,-0.17284632,0.91480339,0.4028275,0.029403687,0
0.34711981,0.47153425,3.7539327,-0.29929197,0.62719202,0.71906495,0
2.3447983,-3.5513744,0.41845953,0.49638039,-0.54125857,0.67870879,0
-1.826833,2.9647517,-1.3143872,-0.3965112,0.6037035,-0.69160736,0
-1.3822868,2.7957776,-1.2513978,-0.31921035,0.64437038,-0.69490385,0
-0.53526258,1.7662824,2.5799315,-0.29929197,0.62719202,0.71906495,0
1.534802,1.1406686,4.0064034,-0.29929197,0.62719202,0.71906495,0
1.9000652,2.251914,3.0154502,-0.29929197,0.62719202,0.71906495,0
-1.3126938,3.9965038,0.2694847,-0.29929197,0.62719202,0.71906495,0
-1.2965527,-3.9609928,-0.47846842,-0.58400619,-0.71637321,0.38176692,0
-0.99892479,-3.3915086,-1.4998821,0.29929197,-0.62719202,-0.71906495,0
