-0.43182254,-3.9245524,-2.9983752,-0.15306073,-0.98810899,-0.01459451,0
0.29379404,-4.2227178,-1.7238986,-0.15306073,-0.98810899,-0.01459451,0
2.5167217,3.6912522,-1.1961001,0.15306073,0.98810899,0.01459451,0
1.5695617,-4.4783792,0.88927507,-0.15306073,-0.98810899,-0.01459451,0
-0.0057042837,3.8820605,0.14677286,0.15306073,0.98810899,0.01459451,0
-2.686594,2.720567,1.2859604,-0.93119717,0.13926944,0.33686185,0
2.8194051,0.95322657,-2.0138407,0.760306,-0.10831358,-0.64047086,0
-0.75862229,2.328655,3.0731089,-0.31616995,0.034972616,0.94805777,0
-1.6332203,1.60192,2.7364926,-0.55186909,0.073216289,0.83071047,0
-0.75253725,-3.8038754,-2.7607598,-0.15306073,-0.98810899,-0.01459451,0
-1.7544467,0.089424923,2.9515476,-0.52713984,0.069145642,0.84696072,0
-0.92840964,4.068737,2.9520154,0.15306073,0.98810899,0.01459451,0
3.0401695,3.6351194,-0.5227406,0.15306073,0.98810899,0.01459451,0
3.6464372,3.6237216,-0.21873307,0.15306073,0.98810899,0.01459451,0
3.2001624,-1.1507066,0.29732227,0.98216665,-0.15373877,0.1082257,0
-1.2175205,4.049509,2.4397047,0.15306073,0.98810899,0.01459451,0
-1.704767,4.1705627,-0.70399594,0.15306073,0.98810899,0.01459451,0
-1.457715,-0.036192715,-2.7203698,-0.41520458,0.07770402,-0.90640342,0
-2.3020637,-1.9684193,2.8465862,-0.56352574,0.075140633,0.8226741,0
0.053010464,4.1829062,-2.3564384,0.15306073,0.98810899,0.01459451,0
0.26357675,-3.9351439,-2.3935599,-0.15306073,-0.98810899,-0.01459451,0
-2.8218112,-3.6734209,-2.0604553,-0.15306073,-0.98810899,-0.01459451,0
2.2375107,1.6249186,-2.3698146,0.64979529,-0.089506216,-0.754821,0
1.0402913,-4.0882101,1.8578193,-0.15306073,-0.98810899,-0.01459451,0
-2.7794271,2.4345517,-0.79927468,-0.95039833,0.15123366,-0.27179277,0
-1.0579143,-3.8558846,2.21719,-0.15306073,-0.98810899,-0.01459451,0
0.2843647,-3.9965086,-2.9735804,-0.15306073,-0.98810899,-0.01459451,0
2.1725307,-4.2546339,-1.0382066,-0.15306073,-0.98810899,-0.01459451,0
-2.3598661,-0.8584199,2.4518878,-0.6036557,0.08179459,0.79303807,0
-1.1216698,-3.7773657,-0.61779225,-0.15306073,-0.98810899,-0.01459451,0
-0.53593451,-3.7684038,-1.397953,-0.15306073,-0.98810899,-0.01459451,0
0.48249435,-4.1329875,2.1977572,-0.15306073,-0.98810899,-0.01459451,0
3.0768197,3.5881076,2.2405195,0.74653208,-0.12529132,0.65344614,0
2.5267477,1.5267777,2.2194285,0.68266231,-0.11640146,0.72140324,0
0.77619576,1.3213487,3.1895399,0.14028734,-0.036345106,0.98944354,0
3.0424178,3.5756159,0.20543778,0.15306073,0.98810899,0.01459451,0
3.3625467,3.6592698,1.3748828,0.15306073,0.98810899,0.01459451,0
0.99449325,-3.9744768,-2.165489,-0.15306073,-0.98810899,-0.01459451,0
0.60562426,3.9890218,0.51945394,0.15306073,0.98810899,0.01459451,0
-1.3942637,-3.6453409,0.26035923,-0.15306073,-0.98810899,-0.01459451,0
-2.3490014,-3.7362127,-0.18578875,-0.15306073,-0.98810899,-0.01459451,0
-2.3161891,0.055349112,-2.4738779,-0.63487971,0.10964066,-0.76479185,0
1.6265612,-4.1697903,-2.5337386,-0.15306073,-0.98810899,-0.01459451,0
1.9294351,-4.3691831,-0.010190725,-0.15306073,-0.98810899,-0.01459451,0
-2.847559,3.049264,0.89939952,-0.94740719,0.14252363,0.28654259,0
-2.729805,2.2078662,-0.72116327,-0.96237212,0.15239698,-0.22497833,0
1.0384928,4.0732231,-1.4399335,0.15306073,0.98810899,0.01459451,0
2.864208,-1.0241146,-0.90973949,0.93794131,-0.14060733,-0.31701022,0
1.2063119,-4.0610633,1.0020515,-0.15306073,-0.98810899,-0.01459451,0
-1.5424852,0.6299631,-2.7813766,-0.4862324,0.088159449,-0.86937082,0
-1.751676,4.3404837,-0.19443369,0.15306073,0.98810899,0.01459451,0
0.85905337,2.7892635,3.35852,0.15658695,-0.038832415,0.98690051,0
-3.0077293,0.41048849,0.94533992,-0.95128858,0.14332548,0.2729612,0
-0.13579983,4.1645036,0.67387688,0.15306073,0.98810899,0.01459451,0
-0.35069615,3.8948631,0.92963797,0.15306073,0.98810899,0.01459451,0
0.22919214,3.8180907,1.9693258,0.15306073,0.98810899,0.01459451,0
3.0043311,-0.75345582,-0.97436452,0.9432016,-0.141666,-0.30050182,0
0.028403044,-3.9062421,1.6817529,-0.15306073,-0.98810899,-0.01459451,0
1.3431505,3.7453415,-1.150804,0.15306073,0.98810899,0.01459451,0
1.4950616,-1.5676379,-2.7392724,0.56958181,-0.076141864,-0.81840026,0
-2.1085565,-1.9784126,2.482043,-0.58800924,0.079194717,0.80496788,0
0.54782385,-3.9356742,-1.32763,-0.15306073,-0.98810899,-0.01459451,0
1.3944578,3.6866493,2.736939,0.15306073,0.98810899,0.01459451,0
-1.7316675,4.2240639,0.67167974,0.15306073,0.98810899,0.01459451,0
-0.17278171,-3.9120958,2.1499434,-0.15306073,-0.98810899,-0.01459451,0
1.1764889,1.1172122,-3.2638512,0.30674577,-0.033466332,-0.95120299,0
-1.3913774,-3.7107515,-3.1555753,-0.15306073,-0.98810899,-0.01459451,0
-2.7059276,-3.5428734,-1.5263462,-0.15306073,-0.98810899,-0.01459451,0
1.0802553,3.791189,-2.9649446,0.15306073,0.98810899,0.01459451,0
-3.2552645,-1.562495,-1.3984642,-0.88362277,0.14345829,-0.44567961,0
0.30234051,4.10569,2.1864986,0.15306073,0.98810899,0.01459451,0
-0.22879219,-4.1655302,0.11510181,-0.15306073,-0.98810899,-0.01459451,0
0.37290096,3.9865808,3.0708113,0.15306073,0.98810899,0.01459451,0
-1.0409787,-3.78983,1.955296,-0.15306073,-0.98810899,-0.01459451,0
3.5734971,2.9431829,0.031075478,0.98789823,-0.15336959,0.023121357,0
2.2983522,-3.5360918,-1.2934504,0.91271317,-0.13568911,-0.38541287,0
-2.8768942,3.6233487,-0.3502574,-0.97952378,0.15365234,-0.1300922,0
-1.622848,4.4104147,0.70211709,0.15306073,0.98810899,0.01459451,0
2.4497423,3.7775803,0.40398943,0.15306073,0.98810899,0.01459451,0
-2.2418742,-3.6184683,-0.58213317,-0.15306073,-0.98810899,-0.01459451,0
-0.27220377,-4.0144453,-0.078134,-0.15306073,-0.98810899,-0.01459451,0
1.2688048,3.9047413,-1.4328725,0.15306073,0.98810899,0.01459451,0
1.729877,-4.2541113,-1.4484843,-0.15306073,-0.98810899,-0.01459451,0
-3.204057,-2.7256677,2.001081,-0.8064962,0.11636654,0.57967472,0
1.670125,3.9031835,-0.71452135,0.15306073,0.98810899,0.01459451,0
-1.7184238,-3.9276752,-3.0152607,-0.15306073,-0.98810899,-0.01459451,0
-1.6297908,-3.9072499,-2.4417799,-0.15306073,-0.98810899,-0.01459451,0
-1.6202282,0.55624026,2.6470037,-0.55168718,0.073186278,0.83083397,0
0.092929363,3.8541918,2.0799298,0.15306073,0.98810899,0.01459451,0
0.89626944,-4.2969851,0.034531832,-0.15306073,-0.98810899,-0.01459451,0
0.25697374,-0.53847718,-3.1336362,0.047634661,0.0073742494,-0.99883759,0
-2.9617333,-2.7535601,1.9400007,-0.7545622,0.10732161,0.64739323,0
0.80615222,-2.0420198,-3.0591934,0.38684031,-0.046319552,-0.92098272,0
1.1207924,-4.0522223,2.1936331,-0.15306073,-0.98810899,-0.01459451,0
1.0012233,3.715384,0.85752589,0.15306073,0.98810899,0.01459451,0
-1.0751317,1.9619305,-2.8597553,-0.43190449,0.080171913,-0.89834899,0
-1.941295,-3.6355853,-1.3025174,-0.15306073,-0.98810899,-0.01459451,0
-1.2721764,-3.982244,-0.68493617,-0.15306073,-0.98810899,-0.01459451,0
-2.1452031,-3.9167423,2.356333,-0.15306073,-0.98810899,-0.01459451,0
-2.9019825,-3.6869068,1.4618177,-0.15306073,-0.98810899,-0.01459451,0
0.3971144,3.9677651,-0.93700099,0.15306073,0.98810899,0.01459451,0
0.68598557,-2.1634698,-3.3034685,0.25919598,-0.025889914,-0.96547765,0
-0.53599358,-3.9597452,2.3109279,-0.15306073,-0.98810899,-0.01459451,0
-1.9061815,-1.1740263,2.7553258,-0.55759972,0.074161872,0.82679051,0
-1.0321585,-3.9536824,-0.31764874,-0.15306073,-0.98810899,-0.01459451,0
3.2059369,1.8322113,-1.3815018,0.88433719,-0.13036507,-0.44827741,0
1.4819298,3.8761578,-1.540041,0.15306073,0.98810899,0.01459451,0
1.8990512,-4.2737103,1.2587607,-0.15306073,-0.98810899,-0.01459451,0
-1.1566855,4.3576889,2.0273376,0.15306073,0.98810899,0.01459451,0
0.51311457,-4.2159247,-2.3350196,-0.15306073,-0.98810899,-0.01459451,0
-2.557158,2.373445,-1.6803317,-0.85238481,0.13948041,-0.50396949,0
-0.53000045,-3.8404722,-3.0596662,-0.15306073,-0.98810899,-0.01459451,0
3.5483129,1.4033003,-0.20947576,0.98786807,-0.15259773,-0.028820753,0
0.72667158,-4.297523,-1.295625,-0.15306073,-0.98810899,-0.01459451,0
1.8230289,3.6358812,-2.3489008,0.15306073,0.98810899,0.01459451,0
-1.3832498,1.6181358,2.9146147,-0.52894235,0.069441833,0.8458119,0
-3.2349191,-2.200058,1.2907953,-0.91818821,0.13673833,0.37179703,0
-1.3135865,0.65565836,2.9139864,-0.47500077,0.06061225,0.87789541,0
3.5906839,2.7034125,0.98377204,0.94772279,-0.15095711,0.28112894,0
1.8580441,2.2283723,3.0977407,0.41072977,-0.07704179,0.90849626,0
-2.2146432,-3.5428896,1.9598012,-0.15306073,-0.98810899,-0.01459451,0
-0.63520217,4.267282,-0.95390022,0.15306073,0.98810899,0.01459451,0
0.52265251,-2.2086899,-3.0631342,0.23410928,-0.021908119,-0.97196341,0
2.6118536,-0.44100434,-2.0149145,0.80989152,-0.11696449,-0.57480001,0
2.8877947,3.6344571,-0.21033919,0.15306073,0.98810899,0.01459451,0
-1.9005599,-0.76550728,2.6407676,-0.54870963,0.072695322,0.8328464,0
-0.16687894,-3.9090641,1.3053168,-0.15306073,-0.98810899,-0.01459451,0
1.2149038,-3.006783,2.8411651,0.54123777,-0.096177444,0.83535117,0
0.04843688,-4.1172371,1.9310436,-0.15306073,-0.98810899,-0.01459451,0
-1.6598234,-1.780776,-3.0703073,-0.40800309,0.076638028,-0.90975821,0
-1.0223091,-3.7673521,0.16516155,-0.15306073,-0.98810899,-0.01459451,0
-3.5602138,-2.9352429,0.24328732,-0.98632097,0.1518361,0.064160764,0
-2.1496644,-2.3582242,-2.770704,-0.58052647,0.1018571,-0.80784529,0
1.6093473,3.727952,2.7166107,0.15306073,0.98810899,0.01459451,0
-2.1451566,4.5211239,1.6985825,-0.84231097,0.12272435,0.52483428,0
3.4258273,0.2704469,-0.37053752,0.98337108,-0.15083282,-0.10114825,0
-1.0377045,-3.9172409,2.281651,-0.15306073,-0.98810899,-0.01459451,0
3.6037483,2.0206258,0.58238554,0.96486282,-0.15261896,0.21388632,0
-1.1505525,-3.8596399,3.2393727,-0.20439929,0.01720592,0.9787364,0
-2.0380349,-0.99016082,-2.6052866,-0.61603361,0.10695227,-0.78042531,0
2.3409977,-4.4160824,0.92019725,-0.15306073,-0.98810899,-0.01459451,0
-1.5387826,-3.8084407,2.7922244,-0.15306073,-0.98810899,-0.01459451,0
-1.2971318,-3.0898008,3.21872,-0.27908975,0.029054984,0.95982534,0
3.7250977,3.3525233,-0.027301788,0.15306073,0.98810899,0.01459451,0
-1.5551934,-3.6616955,0.53481519,-0.15306073,-0.98810899,-0.01459451,0
-2.1409059,-3.8655386,-1.2048669,-0.15306073,-0.98810899,-0.01459451,0
-0.12151074,-0.1242992,-3.263371,0.023565531,0.011114784,-0.99966049,0
-1.2696242,-3.7241826,3.3105798,-0.20782071,0.017746687,0.97800601,0
0.69006097,3.861105,2.082293,0.15306073,0.98810899,0.01459451,0
-0.8053782,4.364737,-2.1656034,0.15306073,0.98810899,0.01459451,0
-0.31295407,-3.8667612,-2.2064099,-0.15306073,-0.98810899,-0.01459451,0
0.20802832,1.9877059,3.3774889,-0.014389813,-0.012538426,0.99981785,0
2.2372949,3.5689754,-1.158247,0.15306073,0.98810899,0.01459451,0
-1.803709,4.5264134,-1.5105772,0.15306073,0.98810899,0.01459451,0
1.8054609,-3.6802194,-2.147274,0.77855754,-0.11147872,-0.61759257,0
2.7166088,-2.693336,-0.52977324,0.97616971,-0.14887933,-0.15788436,0
-0.064499378,-0.41576713,3.1068282,0.036177695,-0.020361438,0.99913794,0
2.1574249,-3.8816519,-1.548885,0.84911281,-0.12394591,-0.51346374,0
-0.72678721,1.6615072,3.1376393,-0.26202571,0.026339699,0.96470135,0
0.15885115,2.2535017,-3.2562215,-0.081389666,0.027323086,-0.99630773,0
0.84915012,-4.0257053,-1.4125412,-0.15306073,-0.98810899,-0.01459451,0
-2.5601518,-0.41241908,-2.2560039,-0.69198138,0.11770985,-0.71225429,0
1.0042772,3.9596305,0.095301203,0.15306073,0.98810899,0.01459451,0
2.2226977,1.3091284,-2.3702676,0.60783547,-0.082490377,-0.78976667,0
0.046992779,4.1219149,2.4173183,0.15306073,0.98810899,0.01459451,0
-1.8026288,2.7262397,-2.28894,-0.62997955,0.10894276,-0.76893246,0
-1.4692327,-3.8872995,-1.9966767,-0.15306073,-0.98810899,-0.01459451,0
-0.89699942,4.2075057,1.1712989,0.15306073,0.98810899,0.01459451,0
-2.3195028,-1.6307991,-2.3549066,-0.68079162,0.1161384,-0.72321129,0
0.33002257,-3.6409338,3.0432527,0.21103388,-0.047110442,0.9763428,0
-0.69497943,-3.9837213,3.3583591,0.0067002177,-0.01580584,0.9998526,0
1.5387326,3.6549425,-0.28483599,0.15306073,0.98810899,0.01459451,0
1.8310866,-4.1831975,2.3989248,0.69412559,-0.11801042,0.71011472,0
2.4691274,-3.96802,-1.5512166,0.87809122,-0.12921382,-0.46071661,0
-0.61776328,4.2767987,1.2439287,0.15306073,0.98810899,0.01459451,0
-1.2672168,-4.0018759,-0.01510036,-0.15306073,-0.98810899,-0.01459451,0
2.5925689,3.7907791,1.3040667,0.15306073,0.98810899,0.01459451,0
-0.97468448,-0.24267644,-2.9947155,-0.3292259,0.064911693,-0.9420175,0
-3.0348516,2.0001535,0.78843188,-0.95706052,0.14453974,0.25128335,0
-1.1079643,0.6661694,-3.1769667,-0.32012057,0.063548908,-0.945243,0
-3.3989935,-1.3479517,-0.40257144,-0.9784199,0.1536012,-0.1382069,0
2.5426085,1.4502282,2.4153168,0.67664623,-0.11555493,0.7271843,0
1.7976645,3.9073925,-0.16473776,0.15306073,0.98810899,0.01459451,0
-1.7859652,-2.0410454,-2.7708337,-0.45080322,0.082957759,-0.88875997,0
3.1939955,3.3964944,1.5770209,0.15306073,0.98810899,0.01459451,0
-2.2951694,4.2495289,-1.33059,0.15306073,0.98810899,0.01459451,0
-1.2076013,0.97622758,-2.9001875,-0.40607744,0.076352835,-0.91064334,0
2.2972224,-4.3452888,0.7354672,-0.15306073,-0.98810899,-0.01459451,0
1.1622598,-3.8954623,-2.9827433,0.49868777,-0.06448105,-0.86438,0
1.4730809,3.9595823,-0.37280655,0.15306073,0.98810899,0.01459451,0
2.0005207,-2.8433647,-2.2463982,0.71722293,-0.10091577,-0.68949783,0
-0.99374545,2.8099923,2.7721477,-0.47098365,0.059957393,0.88010204,0
1.8079195,3.7293591,3.0009863,0.36052638,-0.069584943,0.93014985,0
0.31911945,0.49940681,3.1995215,0.076198101,-0.026525274,0.9967398,0
1.8757746,-4.4488516,0.011700153,-0.15306073,-0.98810899,-0.01459451,0
1.2098066,3.7778339,-1.2865856,0.15306073,0.98810899,0.01459451,0
2.8425491,-2.0083842,-0.25495958,0.97957057,-0.14975566,-0.13421917,0
-2.8403869,-3.440496,-0.851547,-0.15306073,-0.98810899,-0.01459451,0
3.647944,2.587009,-0.059547663,0.98771298,-0.15249459,-0.034178257,0
2.790241,-0.052770376,1.9789351,0.78891212,-0.13107207,0.60036474,0
1.5247928,3.722723,-2.4123211,0.15306073,0.98810899,0.01459451,0
2.3508034,3.6459727,1.8827422,0.15306073,0.98810899,0.01459451,0
-2.6082809,3.5744519,-1.0641387,-0.93847722,0.14996733,-0.31107897,0
2.8178654,3.8196573,-1.9390314,0.15306073,0.98810899,0.01459451,0
-1.4758404,-4.0145283,1.77921,-0.15306073,-0.98810899,-0.01459451,0
0.51318645,3.9588962,0.81744134,0.15306073,0.98810899,0.01459451,0
2.1850667,3.3448896,2.8512912,0.5296945,-0.094500981,0.84290755,0
-0.74042976,4.1589966,0.66881073,0.15306073,0.98810899,0.01459451,0
2.0917556,3.660459,2.3301327,0.15306073,0.98810899,0.01459451,0
0.19068885,-4.0724893,1.7402874,-0.15306073,-0.98810899,-0.01459451,0
-0.11924064,-4.1104178,-1.9553483,-0.15306073,-0.98810899,-0.01459451,0
-1.7864501,-2.1205115,-3.0780532,-0.40702575,0.076493263,-0.91020811,0
-3.1794331,-3.6005416,1.4145668,-0.15306073,-0.98810899,-0.01459451,0
-2.979929,-3.6776409,-0.68253195,-0.15306073,-0.98810899,-0.01459451,0
1.5310276,-4.3837304,1.4411565,-0.15306073,-0.98810899,-0.01459451,0
-2.1705348,4.055625,2.1245189,-0.80414736,0.11595342,0.58301097,0
-2.0420775,-3.5858836,-1.1154083,-0.15306073,-0.98810899,-0.01459451,0
-3.1846592,0.35799018,0.49798536,-0.9781934,0.1493936,0.14428866,0
1.3156738,-2.0133905,-2.7749467,0.44749433,-0.056135371,-0.89252323,0
0.85400414,3.4177992,3.4571242,0.091856539,-0.028930318,0.99535185,0
3.3956892,0.60433638,-0.70301962,0.97537124,-0.14868116,-0.16292644,0
0.95914495,0.71466243,-3.0183802,0.23599356,-0.022206828,-0.97150087,0
-0.37007976,-3.9254718,3.0773458,0.074683607,-0.026292484,0.99686056,0
-2.2704654,-0.88124835,2.3312197,-0.66291368,0.091712028,0.74305749,0
-1.7274311,1.0131586,2.6675632,-0.51526344,0.067196175,0.85439342,0
0.92749989,3.8578463,0.81717455,0.15306073,0.98810899,0.01459451,0
1.0954731,-4.126071,1.2679461,-0.15306073,-0.98810899,-0.01459451,0
3.7089608,2.1916127,0.26607943,0.98500872,-0.15373625,0.078249991,0
-2.9554954,-0.88353908,1.4983236,-0.87488049,0.12862445,0.4669472,0
1.8085631,3.8975413,-2.9509699,0.15306073,0.98810899,0.01459451,0
0.7818327,4.1011271,-2.9213979,0.15306073,0.98810899,0.01459451,0
2.333159,-3.0635304,1.407578,0.8885541,-0.14407273,0.43556249,0
-2.6657035,-3.7503123,1.4920394,-0.15306073,-0.98810899,-0.01459451,0
-1.7085404,4.2127905,0.6636939,0.15306073,0.98810899,0.01459451,0
0.80072498,1.3220512,3.1518219,0.17562515,-0.041732326,0.98357207,0
1.7807028,-4.3263931,0.63426161,-0.15306073,-0.98810899,-0.01459451,0
1.8815441,-2.097949,2.5292559,0.62930995,-0.10884735,0.76949406,0
-3.5973957,-2.4008024,0.43897009,-0.97319698,0.14815287,0.17589247,0
1.6056421,-4.1878128,-2.5987892,0.63332367,-0.086745143,-0.76901001,0
-2.9858973,-0.087998748,1.7211167,-0.82409388,0.11947596,0.55370998,0
-2.1336012,4.3917017,1.7558931,0.15306073,0.98810899,0.01459451,0
-2.1982799,3.4225891,2.0412621,-0.80893505,0.11679595,0.57617956,0
-1.8457837,0.75421518,-2.4160423,-0.56831849,0.10009681,-0.8166973,0
-2.895232,2.5023351,-0.76840234,-0.96859783,0.15293384,-0.19603449,0
-2.0009906,-3.8002191,2.0225821,-0.15306073,-0.98810899,-0.01459451,0
2.4645591,0.235578,-2.086041,0.7468459,-0.10599189,-0.65649605,0
-0.59311265,-4.0452986,-1.1885144,-0.15306073,-0.98810899,-0.01459451,0
-3.6588814,-1.717983,-0.39049554,-0.98379612,0.15375477,-0.092221141,0
-1.5553286,-3.6887391,0.96764964,-0.15306073,-0.98810899,-0.01459451,0
-1.0269605,-3.7289526,1.6865194,-0.15306073,-0.98810899,-0.01459451,0
-2.6077719,3.7282708,-0.51739693,-0.98223162,0.15374008,-0.10763377,0
2.0776689,3.7548618,-1.2135702,0.15306073,0.98810899,0.01459451,0
1.7444739,-4.0304241,2.0726285,0.69088918,-0.11755671,0.71333897,0
-3.1692111,0.10071021,-0.82682705,-0.96923018,0.15298468,-0.19284385,0
-3.4664965,-3.5753717,-0.14226341,-0.15306073,-0.98810899,-0.01459451,0
-1.3545935,2.4063578,-2.8105948,-0.53768319,0.095661551,-0.83770257,0
-1.0214021,2.4090362,-2.9502671,-0.3663823,0.070457235,-0.92779297,0
1.1987578,-4.3484306,-1.6407388,-0.15306073,-0.98810899,-0.01459451,0
-1.6256409,-3.8930306,2.1178622,-0.15306073,-0.98810899,-0.01459451,0
-0.77972269,-3.9321573,1.4870605,-0.15306073,-0.98810899,-0.01459451,0
2.1555765,-1.7535028,-2.3013926,0.69796628,-0.097638264,-0.70944333,0
0.027953386,-1.579909,-3.3246136,0.062629759,0.0050394461,-0.99802417,0
-0.7568841,4.0680881,1.5630877,0.15306073,0.98810899,0.01459451,0
-3.0666456,-3.4906392,1.5221779,-0.15306073,-0.98810899,-0.01459451,0
-1.267598,-3.2804151,3.25106,-0.18385476,0.013962697,0.98285425,0
0.12572241,-4.0554757,1.4873091,-0.15306073,-0.98810899,-0.01459451,0
-2.321559,3.3014429,-1.2756352,-0.90299898,0.14584604,-0.40413076,0
0.60799259,-4.0074859,-1.6407361,-0.15306073,-0.98810899,-0.01459451,0
1.0150032,2.2700016,-3.032402,0.22963768,-0.021199457,-0.97304529,0
1.4465554,-3.1756096,2.7290642,0.52952677,-0.094476573,0.84301585,0
-3.0734947,-0.10146224,0.59321833,-0.96392721,0.14602809,0.22253114,0
0.88302302,4.0703568,-1.0635612,0.15306073,0.98810899,0.01459451,0
-2.6639342,3.0771132,-1.0873449,-0.93166482,0.14921021,-0.33126575,0
2.9712963,-0.40376931,1.1763792,0.89973468,-0.14544903,0.41148788,0
-0.97774613,-0.63549721,3.2484064,-0.2453438,0.023689974,0.96914661,0
0.79518104,3.7428412,2.3850446,0.15306073,0.98810899,0.01459451,0
3.1073406,3.7056341,2.0182905,0.15306073,0.98810899,0.01459451,0
0.23140836,-4.025816,2.2461028,-0.15306073,-0.98810899,-0.01459451,0
-2.8857245,-3.6884093,1.8406392,-0.15306073,-0.98810899,-0.01459451,0
-2.1341882,1.4847835,2.4661705,-0.70179909,0.098289311,0.7055617,0
-0.43836486,-4.0242205,-2.3915029,-0.15306073,-0.98810899,-0.01459451,0
-1.2242364,-0.42149138,3.0163431,-0.32633969,0.036599845,0.94454384,0
-0.85117054,-0.8672477,-3.2487223,-0.22899288,0.049830437,-0.97215176,0
1.1426808,3.8185594,-0.099424168,0.15306073,0.98810899,0.01459451,0
-0.53650761,4.0775294,-1.9724696,0.15306073,0.98810899,0.01459451,0
-0.49267352,-3.954561,1.5551391,-0.15306073,-0.98810899,-0.01459451,0
-0.99933958,2.7822161,-2.7450542,-0.4351505,0.080650926,-0.89673817,0
1.3158274,-4.2071185,2.3391261,-0.15306073,-0.98810899,-0.01459451,0
-3.5947299,-3.0086143,-0.10432863,-0.98806167,0.15275851,0.019966662,0
-0.46319425,3.9169426,2.9269814,0.15306073,0.98810899,0.01459451,0
2.6739566,-1.037375,1.3576705,0.88781047,-0.14398034,0.43710667,0
-2.3772035,2.9421024,-1.793251,-0.81201673,0.13417305,-0.56800193,0
1.5378249,1.0823915,2.9842925,0.39820212,-0.075185627,0.91421115,0
-1.0915234,-2.1657727,3.2317882,-0.18083918,0.013487205,0.98342013,0
3.0321076,-1.2102319,0.96326494,0.95535678,-0.1517318,0.25351691,0
-1.94945,-3.6861162,-1.1778882,-0.15306073,-0.98810899,-0.01459451,0
-2.0217414,-2.4005623,-2.8106201,-0.51408923,0.092229247,-0.85276371,0
-2.8538804,-3.6139398,-0.346246,-0.15306073,-0.98810899,-0.01459451,0
-1.7858346,1.3406739,-2.4509127,-0.63912678,0.11024488,-0.76115906,0
3.4850552,-0.16172862,-0.22850943,0.98361874,-0.15090895,-0.098592639,0
2.1541307,0.56139076,-2.1934559,0.65777606,-0.09084741,-0.74771476,0
0.17455077,-3.9852655,0.17610532,-0.15306073,-0.98810899,-0.01459451,0
2.8189321,-0.73874599,1.6995418,0.86346626,-0.1409068,0.48432571,0
0.58436882,-3.9648311,1.0162815,-0.15306073,-0.98810899,-0.01459451,0
2.6129591,1.4876447,2.459079,0.66978037,-0.11458711,0.73366487,0
-2.4512064,2.1008434,1.3882105,-0.88715219,0.13088606,0.44252658,0
-3.2381034,-3.4464254,1.3468004,-0.15306073,-0.98810899,-0.01459451,0
-1.7170357,-3.744169,2.6718192,-0.15306073,-0.98810899,-0.01459451,0
-2.7848125,-1.4383045,2.0715113,-0.75242257,0.10695257,0.64993954,0
2.1460972,3.8655481,0.23073971,0.15306073,0.98810899,0.01459451,0
-0.6229862,4.0151176,2.999001,-0.32867533,0.036973819,0.94371903,0
3.4477987,2.7597134,-0.61941195,0.974401,-0.14844352,-0.16884089,0
0.87211323,-2.1203079,2.941186,0.35701376,-0.069061421,0.93154258,0
3.5491207,3.7060547,-0.66414595,0.15306073,0.98810899,0.01459451,0
2.154511,3.5496826,-0.82367271,0.15306073,0.98810899,0.01459451,0
1.6318808,-1.3618305,-2.4045045,0.59642625,-0.080592409,-0.79861164,0
3.2643805,3.6626539,1.5040698,0.15306073,0.98810899,0.01459451,0
-0.22640717,4.1886029,-0.50789225,0.15306073,0.98810899,0.01459451,0
0.76465744,-4.1179514,-2.3626344,-0.15306073,-0.98810899,-0.01459451,0
-1.9030797,-3.6879268,0.77381837,-0.15306073,-0.98810899,-0.01459451,0
-0.91989708,4.3349862,-2.3046265,0.15306073,0.98810899,0.01459451,0
1.6788881,3.5468369,2.9828155,0.38723683,-0.07355839,0.91904128,0
2.4704134,-4.4259272,-1.1450772,0.92232066,-0.13753614,-0.36112088,0
-0.31589341,0.039980382,-3.1564147,-0.11520183,0.032509021,-0.99281001,0
2.5591142,-3.3721611,-0.84375501,0.96846998,-0.14704828,-0.20110309,0
-2.0916002,-0.3942734,-2.8290625,-0.57032323,0.10038614,-0.81526315,0
-1.0026349,4.0642304,-0.35110652,0.15306073,0.98810899,0.01459451,0
-1.1696643,-3.8324251,-0.075983331,-0.15306073,-0.98810899,-0.01459451,0
-1.1203675,3.2576575,2.819741,-0.50059688,0.064793438,0.86325234,0
0.91833377,-4.167707,2.0241299,-0.15306073,-0.98810899,-0.01459451,0
-0.23214769,4.0438061,3.1063104,0.15306073,0.98810899,0.01459451,0
1.3414314,3.6696177,3.1491234,0.15306073,0.98810899,0.01459451,0
-1.8926764,-3.8603282,1.2294017,-0.15306073,-0.98810899,-0.01459451,0
-1.4792502,-3.7322321,2.375016,-0.15306073,-0.98810899,-0.01459451,0
-0.45162749,1.1775901,-3.1810663,-0.23973358,0.051454652,-0.96947414,0
3.4440417,0.65179217,-0.4908011,0.97829461,-0.14941987,-0.14357281,0
0.47530484,-1.0251541,3.2974076,0.17171711,-0.041137505,0.98428702,0
-2.3591974,2.9256771,-1.5960462,-0.83714366,0.1374954,-0.52942002,0
-1.0133559,-3.9826627,-1.9689727,-0.15306073,-0.98810899,-0.01459451,0
-2.9072487,0.80702764,1.2508562,-0.91186887,0.13552806,0.38746262,0
-1.9670844,4.2333355,0.60454226,0.15306073,0.98810899,0.01459451,0
-2.6883006,-3.480082,-0.42758846,-0.15306073,-0.98810899,-0.01459451,0
1.4914225,-3.8175046,-2.6154013,0.63006842,-0.086200573,-0.77174038,0
-0.55328941,-1.9940305,-3.0678287,-0.036751091,0.020449921,-0.99911523,0
-0.98541617,4.3257561,1.4257698,0.15306073,0.98810899,0.01459451,0
-2.2488408,-3.9250455,2.6995463,-0.15306073,-0.98810899,-0.01459451,0
0.58545208,0.36961225,-3.1357212,0.15314656,-0.0091275238,-0.98816133,0
1.5498695,-4.1720057,1.7023648,-0.15306073,-0.98810899,-0.01459451,0
-3.6170633,-1.6663737,0.6005652,-0.97498387,0.1485859,0.16531414,0
-0.78422242,-3.9243367,0.29639086,-0.15306073,-0.98810899,-0.01459451,0
1.7838876,1.5893028,-2.6784511,0.45890659,-0.057990793,-0.88658988,0
-1.4923954,4.3770084,-1.1517681,0.15306073,0.98810899,0.01459451,0
0.52112728,3.8274903,-0.28463218,0.15306073,0.98810899,0.01459451,0
3.030947,0.81964314,-1.7160028,0.85317951,-0.12467875,-0.50649762,0
-1.6240811,4.3682213,-2.0672705,0.15306073,0.98810899,0.01459451,0
0.91061115,2.6235344,3.2379971,0.092823267,-0.029078674,0.99525785,0
1.5840588,-0.88109255,2.793129,0.51575106,-0.092471451,0.85173339,0
-3.2519925,0.6403296,-0.38261747,-0.98546779,0.1537191,-0.072274446,0
-2.9017262,0.30946663,-1.6680696,-0.83936304,0.137786,-0.52581793,0
1.5236299,-4.33741,-2.157382,-0.15306073,-0.98810899,-0.01459451,0
-2.669173,2.8955152,-1.0020223,-0.955585,0.15175425,-0.2526415,0
1.9295917,-4.4597416,1.7230093,-0.15306073,-0.98810899,-0.01459451,0
-1.5589936,-1.9994886,-3.1731491,-0.38299638,0.072928503,-0.92086655,0
-1.6739769,1.7029662,-2.5115979,-0.55421788,0.098058492,-0.8265754,0
-3.1187334,-0.54235899,-0.92209339,-0.94106412,0.15024905,-0.30302411,0
-1.6151239,-3.6303973,-0.35563463,-0.15306073,-0.98810899,-0.01459451,0
1.3543499,3.6068029,2.6030943,0.15306073,0.98810899,0.01459451,0
-2.7202969,-2.3107927,2.4654999,-0.65572554,0.090502605,0.74955535,0
-2.4342258,-0.60399687,2.0647087,-0.75704849,0.10775077,0.6444124,0
1.2014153,3.8098888,-0.87484342,0.15306073,0.98810899,0.01459451,0
-1.7666954,2.8099756,2.4182861,-0.66052645,0.091310166,0.7452296,0
2.4426024,3.5638752,2.2954633,0.15306073,0.98810899,0.01459451,0
-0.82143974,-1.0731097,-3.2616897,-0.19383109,0.044500083,-0.98002505,0
0.36965865,4.075654,-0.56873256,0.15306073,0.98810899,0.01459451,0
1.1662338,3.8362145,1.8789694,0.15306073,0.98810899,0.01459451,0
3.3129642,0.65872538,0.67438722,0.97242177,-0.15322781,0.17583209,0
-2.8767636,-3.7724938,1.160732,-0.15306073,-0.98810899,-0.01459451,0
2.151073,3.8225517,-1.5845218,0.15306073,0.98810899,0.01459451,0
-1.3210719,4.0557919,1.0883638,0.15306073,0.98810899,0.01459451,0
2.1249876,3.0884271,-2.9733458,0.45358562,-0.057125352,-0.88937998,0
-2.6357832,-3.750586,-0.95123506,-0.15306073,-0.98810899,-0.01459451,0
0.60685939,-3.9469364,-2.1342437,-0.15306073,-0.98810899,-0.01459451,0
1.4861908,-0.87481147,-2.841857,0.52965575,-0.06955906,-0.84535575,0
-0.9155879,-1.4493014,-3.3035064,-0.13849151,0.036070824,-0.98970652,0
2.0828536,-2.1887302,2.3264952,0.6671415,-0.11421464,0.73612297,0
-0.52569914,4.2673082,1.9917281,0.15306073,0.98810899,0.01459451,0
-1.9277263,-3.542645,-2.7249866,-0.15306073,-0.98810899,-0.01459451,0
1.4067299,-4.1537561,-2.0975418,-0.15306073,-0.98810899,-0.01459451,0
-0.33388662,-0.96295279,3.4624257,-0.023264825,-0.011161447,0.99966699,0
0.050621808,-3.9146924,-0.54950297,-0.15306073,-0.98810899,-0.01459451,0
-1.3598528,-3.7794981,-3.1825788,-0.15306073,-0.98810899,-0.01459451,0
2.9348474,-1.0387564,-0.68903828,0.95521832,-0.14414904,-0.2584163,0
2.5477192,3.5284543,-1.0282905,0.15306073,0.98810899,0.01459451,0
-2.1057107,-3.4043112,-2.7466383,-0.51595742,0.092501514,-0.8516053,0
0.25787687,4.0355864,-1.8266124,0.15306073,0.98810899,0.01459451,0
2.2274358,3.8122082,-2.4542069,0.15306073,0.98810899,0.01459451,0
1.3738124,3.7318392,2.0267463,0.15306073,0.98810899,0.01459451,0
1.7964427,0.28298235,2.8287137,0.50737667,-0.091250256,0.85687935,0
-2.7435129,2.2789533,-0.91600204,-0.95310408,0.15150797,-0.26198852,0
2.0510981,3.5396576,-0.25885856,0.15306073,0.98810899,0.01459451,0
2.7544098,-2.7460277,0.23047113,0.98665243,-0.1536324,0.053979099,0
-1.2754768,4.2803059,0.1695559,0.15306073,0.98810899,0.01459451,0
2.3421006,1.4398651,2.720798,0.57897413,-0.1016335,0.80898666,0
1.5400758,3.6200409,1.8075343,0.15306073,0.98810899,0.01459451,0
-0.98046803,1.3571261,-2.8439388,-0.33977169,0.066488236,-0.93815464,0
2.0432675,3.884531,1.0538465,0.15306073,0.98810899,0.01459451,0
3.5307684,2.9797001,-0.64191055,0.96136117,-0.14546533,-0.23371935,0
-3.3418884,-3.6815386,1.3707581,-0.15306073,-0.98810899,-0.01459451,0
0.095590711,4.1084971,1.9723535,0.15306073,0.98810899,0.01459451,0
0.98939741,3.7366247,-1.362211,0.15306073,0.98810899,0.01459451,0
-0.54565728,4.1335859,-1.1347162,0.15306073,0.98810899,0.01459451,0
-1.3040485,4.4222965,1.0194129,0.15306073,0.98810899,0.01459451,0
-1.2128457,-3.8476324,-0.62431997,-0.15306073,-0.98810899,-0.01459451,0
-0.3002491,-3.6534467,3.2999518,0.013443649,-0.016849175,0.99976766,0
-1.5795743,-3.7919838,2.1616044,-0.15306073,-0.98810899,-0.01459451,0
1.1104267,-3.6106339,2.7565451,0.45526856,-0.083614871,0.88641918,0
-3.0421162,-3.3862782,0.34372258,-0.15306073,-0.98810899,-0.01459451,0
2.801353,2.5811074,-1.8933654,0.77323449,-0.11055348,-0.62440884,0
1.227777,3.9059412,-2.908253,0.15306073,0.98810899,0.01459451,0
-3.1457877,-3.4985132,-1.2792472,-0.15306073,-0.98810899,-0.01459451,0
-0.15175617,4.2303081,2.5409122,0.15306073,0.98810899,0.01459451,0
2.7102981,3.5920835,2.3941631,0.65106702,-0.11194026,0.75072038,0
-1.0904335,-3.8935986,-1.6626337,-0.15306073,-0.98810899,-0.01459451,0
1.0562512,3.9063396,-1.0877091,0.15306073,0.98810899,0.01459451,0
0.27704597,3.9523737,-1.914005,0.15306073,0.98810899,0.01459451,0
3.3299263,2.5008001,1.8590684,0.8508442,-0.13928092,0.50662112,0
0.38654733,3.9679587,-0.020382494,0.15306073,0.98810899,0.01459451,0
0.1218338,2.6970804,3.259299,-0.1282292,0.0052150339,0.99173081,0
-1.2072253,1.8246721,2.8781557,-0.38594973,0.046175979,0.92136341,0
-1.5627141,4.3255882,1.7864518,0.15306073,0.98810899,0.01459451,0
-2.8370075,-2.234622,2.0291214,-0.79786831,0.1148511,0.59179008,0
3.3694637,1.9406359,1.2013428,0.94377089,-0.15054002,0.29433697,0
1.7255092,3.8512349,-1.374055,0.15306073,0.98810899,0.01459451,0
-0.27105069,0.99720502,-3.2857897,-0.098735094,0.029985636,-0.99466187,0
2.7042074,-3.4666088,0.18757057,0.98688221,-0.15360461,0.049688578,0
2.4980063,-4.2877407,-0.26252532,-0.15306073,-0.98810899,-0.01459451,0
-1.1486266,4.2974629,0.48263979,0.15306073,0.98810899,0.01459451,0
-2.0862496,-1.3684419,2.4815242,-0.62612873,0.085541949,0.77501321,0
-1.740658,-3.5039248,2.9152498,-0.41499773,0.050867062,0.9083994,0
-1.2930722,4.2055893,-1.077696,0.15306073,0.98810899,0.01459451,0
-0.38537312,-4.2026825,2.5455899,-0.15306073,-0.98810899,-0.01459451,0
2.194154,-4.2308788,-1.7651516,0.8445614,-0.12312794,-0.52111006,0
3.4499257,2.5224814,-0.6223309,0.95459992,-0.14401859,-0.26076311,0
1.3053153,1.1864913,3.2269168,0.28654295,-0.058510657,0.95627904,0
1.3700539,3.7186122,1.9502577,0.15306073,0.98810899,0.01459451,0
1.960184,3.6327748,0.061368585,0.15306073,0.98810899,0.01459451,0
3.6004889,2.0101185,0.64298129,0.97724622,-0.15353952,0.14634115,0
-1.8645008,3.2796209,-2.1630645,-0.74763769,0.12544346,-0.65215164,0
-2.9933069,-2.7661619,-2.3225141,-0.72287905,0.12202131,-0.68011504,0
-0.46128225,3.9509063,-1.8733999,0.15306073,0.98810899,0.01459451,0
-1.6409231,3.5255454,2.4389162,-0.71224225,0.10006645,0.69476444,0
0.61467195,-4.2260966,-2.9884119,-0.15306073,-0.98810899,-0.01459451,0
3.1839416,-0.14528012,0.46117687,0.9693892,-0.15299731,0.19203222,0
-2.8831241,-1.2301197,1.7067766,-0.81815374,0.11842345,0.5626725,0
1.4542403,3.9640017,2.2043402,0.15306073,0.98810899,0.01459451,0
3.6285686,2.4571574,0.08872056,0.98592693,-0.1536942,0.065771639,0
-0.4470582,0.54804951,-3.0952106,-0.14569855,0.037171308,-0.98863041,0
-1.5056491,-3.8437023,-1.3714926,-0.15306073,-0.98810899,-0.01459451,0
0.78025717,3.8158467,-0.97758543,0.15306073,0.98810899,0.01459451,0
-1.2758021,-1.2279497,2.9353237,-0.33075443,0.037306808,0.94297922,0
1.5944351,3.6451416,1.4010251,0.15306073,0.98810899,0.01459451,0
3.1717093,2.9036396,-1.9662626,0.77963018,-0.11166538,-0.6162042,0
-1.2038423,-3.9039559,2.668479,-0.15306073,-0.98810899,-0.01459451,0
-1.9464433,0.67183149,2.4390879,-0.60636413,0.082245395,0.79092234,0
-1.696099,0.076927409,2.8736911,-0.53748202,0.070846148,0.84029388,0
-2.7957568,-3.5010149,1.7599504,-0.15306073,-0.98810899,-0.01459451,0
-0.88805938,1.0230132,-3.1616607,-0.34122211,0.066704892,-0.93761289,0
-0.6344161,4.2014465,0.89482355,0.15306073,0.98810899,0.01459451,0
-2.3218992,2.8824027,-1.5337398,-0.83063996,0.13664104,-0.53978384,0
1.783257,3.7348952,-2.3571863,0.15306073,0.98810899,0.01459451,0
-0.99758744,-3.8673334,1.6540159,-0.15306073,-0.98810899,-0.01459451,0
2.4352338,2.5333984,2.4027948,0.6573047,-0.11282396,0.74513173,0
1.3131323,-1.1510366,-2.6715541,0.49313438,-0.063572854,-0.8676272,0
1.0874081,1.6677527,3.3441858,0.23190862,-0.050271563,0.97143769,0
2.7255926,-3.6407201,-0.72741556,0.96299344,-0.14582232,-0.22667015,0
0.16915345,4.0444155,0.18796659,0.15306073,0.98810899,0.01459451,0
0.35024953,0.26641569,-3.286849,0.05526036,0.0061873198,-0.99845278,0
-1.6797478,-3.6409359,-3.1060669,-0.15306073,-0.98810899,-0.01459451,0
1.5738785,3.8130159,2.5668087,0.15306073,0.98810899,0.01459451,0
-3.2355151,-3.6076107,1.0374132,-0.15306073,-0.98810899,-0.01459451,0
-1.0994937,2.1058264,-2.7949209,-0.4332974,0.080377489,-0.8976596,0
-3.6777472,-2.4546673,0.25347114,-0.98087585,0.15011038,0.12389278,0
-0.99274397,4.2785406,-1.5555552,0.15306073,0.98810899,0.01459451,0
0.34184909,-4.1925898,0.67141926,-0.15306073,-0.98810899,-0.01459451,0
0.053544283,4.0147123,-2.7995377,0.15306073,0.98810899,0.01459451,0
-2.4358773,4.5782738,-0.76092744,-0.94531566,0.15070421,-0.2892518,0
-1.2952192,-3.7782421,-1.5603633,-0.15306073,-0.98810899,-0.01459451,0
2.7446315,3.5047383,-0.53012681,0.15306073,0.98810899,0.01459451,0
-1.7641985,-3.6263614,-0.95891017,-0.15306073,-0.98810899,-0.01459451,0
0.49984527,-3.9957056,3.0665269,0.30765182,-0.061680313,0.9494977,0
1.3262713,2.2776721,2.9764066,0.25374818,-0.053571075,0.96578568,0
-1.2463939,-3.2021384,-3.3503642,-0.25801063,0.054214101,-0.96461987,0
0.77096963,3.8188696,2.1461139,0.15306073,0.98810899,0.01459451,0
1.8878853,-4.5183191,1.5045149,-0.15306073,-0.98810899,-0.01459451,0
1.1088068,2.2767377,3.1500969,0.25821203,-0.054244474,0.96456426,0
2.6618228,-0.77413678,2.1613693,0.76379609,-0.12765925,0.63270736,0
-0.48658586,-4.1280198,2.7177513,-0.15306073,-0.98810899,-0.01459451,0
1.8388804,3.8686566,0.3452065,0.15306073,0.98810899,0.01459451,0
0.35848379,0.068230011,-3.3046188,0.16415697,-0.010859456,-0.9863745,0
0.028716326,2.8048084,-3.0820389,-0.1707201,0.040985715,-0.98446679,0
3.2071991,-0.37956139,-0.15464878,0.98703653,-0.15213969,-0.051110387,0
0.1030674,3.9104295,2.9458649,0.15306073,0.98810899,0.01459451,0
0.29938316,0.83345485,3.2985651,0.02522552,-0.01867038,0.99950743,0
0.53517365,3.1070161,-3.22138,0.032092512,0.0097906142,-0.99943691,0
3.4997554,2.2924891,-0.60267377,0.97710109,-0.14911368,-0.15178442,0
-1.1868398,4.2103415,1.7099016,0.15306073,0.98810899,0.01459451,0
1.7706208,3.7733955,1.0478377,0.15306073,0.98810899,0.01459451,0
0.11205459,-3.9167206,1.7188883,-0.15306073,-0.98810899,-0.01459451,0
1.7342442,3.6723871,2.1399863,0.15306073,0.98810899,0.01459451,0
2.8334658,3.7459087,-0.21267009,0.15306073,0.98810899,0.01459451,0
2.5597849,3.6177082,-0.19455671,0.15306073,0.98810899,0.01459451,0
-2.7262034,-3.5026612,-1.008381,-0.15306073,-0.98810899,-0.01459451,0
0.37740254,-4.0305448,1.5889049,-0.15306073,-0.98810899,-0.01459451,0
0.32682997,-4.2160649,-0.91903603,-0.15306073,-0.98810899,-0.01459451,0
2.9100199,3.5999832,-0.57045639,0.15306073,0.98810899,0.01459451,0
0.26367176,-4.2631888,0.22634757,-0.15306073,-0.98810899,-0.01459451,0
1.6668611,3.9752636,0.6256057,0.15306073,0.98810899,0.01459451,0
-0.69768596,-4.1093779,2.663306,-0.15306073,-0.98810899,-0.01459451,0
0.97211754,3.9566727,-2.3443553,0.15306073,0.98810899,0.01459451,0
1.4212496,3.7216244,2.8341413,0.15306073,0.98810899,0.01459451,0
-1.6931313,-3.5699692,-1.4600774,-0.15306073,-0.98810899,-0.01459451,0
-2.7151062,0.9765712,1.7141247,-0.82087272,0.11890483,0.55859625,0
-1.0327208,4.1234674,0.33322346,0.15306073,0.98810899,0.01459451,0
1.4320441,-4.3605318,-1.4767885,-0.15306073,-0.98810899,-0.01459451,0
-0.1826055,3.8524864,3.1489971,0.15306073,0.98810899,0.01459451,0
-1.8593025,-1.2840004,2.4899182,-0.53192925,0.069932796,0.84389615,0
-3.4939468,-2.1796656,-1.584578,-0.87773079,0.14271879,-0.45740581,0
3.320914,0.69637299,-0.53256607,0.97395968,-0.14833647,-0.17146057,0
0.44841945,3.7462578,2.3577847,0.15306073,0.98810899,0.01459451,0
-1.6816404,4.2498713,-1.8141524,0.15306073,0.98810899,0.01459451,0
2.9769516,-0.68377644,0.77617526,0.94960445,-0.15115213,0.27459824,0
-1.8106406,-3.8960252,-1.0058445,-0.15306073,-0.98810899,-0.01459451,0
1.7290494,-2.2154832,2.422873,0.61618894,-0.10697446,0.78029978,0
3.6858273,2.9134057,0.47709966,0.98151934,-0.1537233,0.11396903,0
3.2592139,0.04334259,-0.51406264,0.98295194,-0.15070625,-0.10532349,0
-3.0448625,1.0555104,0.87702703,-0.96455991,0.14616823,0.21967936,0
-1.9007267,3.7123249,2.1234984,-0.74669611,0.10596611,0.65667033,0
1.4480219,-4.0717964,-2.0364008,-0.15306073,-0.98810899,-0.01459451,0
-0.77052706,-4.0431175,-0.47575611,-0.15306073,-0.98810899,-0.01459451,0
-0.63582754,-1.0321178,-3.0675445,-0.19434357,0.044577904,-0.97992003,0
1.6338959,-4.4971542,1.6691979,-0.15306073,-0.98810899,-0.01459451,0
-3.1936896,-0.90174854,0.73208284,-0.96726894,0.14677517,0.20699739,0
-3.3385921,-0.58311653,-0.60438371,-0.96059686,0.15223378,-0.23254764,0
2.3251827,3.6667478,-2.1448808,0.15306073,0.98810899,0.01459451,0
2.6908493,0.7938844,-2.2574952,0.71096015,-0.099848017,-0.6961078,0
-0.87713087,-3.8876805,-0.10975902,-0.15306073,-0.98810899,-0.01459451,0
-0.3669787,3.9757264,0.59730369,0.15306073,0.98810899,0.01459451,0
-3.0404353,-3.4258623,-1.8960705,-0.15306073,-0.98810899,-0.01459451,0
-0.20700353,4.2427673,1.1149693,0.15306073,0.98810899,0.01459451,0
-0.95196235,-4.0199604,2.1081069,-0.15306073,-0.98810899,-0.01459451,0
-1.7998468,4.3524599,1.5591456,0.15306073,0.98810899,0.01459451,0
-1.4311347,4.1883945,2.5448363,0.15306073,0.98810899,0.01459451,0
-0.10162187,-4.0292854,0.73304951,-0.15306073,-0.98810899,-0.01459451,0
0.48538375,3.8447413,-2.2794807,0.15306073,0.98810899,0.01459451,0
-0.45815584,4.0462785,0.91361135,0.15306073,0.98810899,0.01459451,0
3.2026753,0.47195697,-1.4322195,0.88731098,-0.13091549,-0.44219947,0
-1.3377917,-0.37665331,-2.9984219,-0.34736258,0.067621768,-0.9352895,0
0.034234524,3.8703184,3.1937249,0.15306073,0.98810899,0.01459451,0
1.9652331,1.9274957,3.0614498,0.44946718,-0.082761049,0.88945478,0
-3.8281479,-3.0146234,0.8326807,-0.94919872,0.14289242,0.28036296,0
-1.1774395,4.4520206,-1.7172173,0.15306073,0.98810899,0.01459451,0
-2.1545706,4.0903902,-1.9942274,-0.77311504,0.12893021,-0.6210233,0
-1.532805,-0.48722231,-2.7860138,-0.3956843,0.074812166,-0.91533446,0
2.5089848,3.5058599,2.0514872,0.15306073,0.98810899,0.01459451,0
0.55164337,3.724793,3.3454049,0.014355659,-0.016990215,0.99975258,0
1.5511832,2.1324477,3.1562319,0.30980623,-0.062003385,0.94877583,0
-1.5627751,1.037478,-2.5455174,-0.56637973,0.099816874,-0.81807733,0
-2.0948718,-3.77074,-2.2265835,-0.15306073,-0.98810899,-0.01459451,0
3.3060589,1.7806342,0.43140292,0.97836787,-0.15359861,0.1385774,0
0.83106971,4.0949082,-0.1270231,0.15306073,0.98810899,0.01459451,0
-2.5165651,-3.5252833,0.42811859,-0.15306073,-0.98810899,-0.01459451,0
-0.8191812,-0.97986412,3.1982501,-0.26767266,0.027237713,0.96312481,0
1.505015,3.8336298,-1.5928608,0.15306073,0.98810899,0.01459451,0
-1.2211641,-3.6626005,-0.57499182,-0.15306073,-0.98810899,-0.01459451,0
2.1101937,-0.18810833,-2.7509928,0.62499517,-0.085352547,-0.77594841,0
-2.2564211,-3.0053258,-2.5182269,-0.60423213,0.10526299,-0.78982484,0
2.6949172,1.9158864,2.1689641,0.76277888,-0.12752019,0.63396114,0
-2.1667407,-2.9705336,2.8391066,-0.52565593,0.068901867,0.84790236,0
0.54870629,-3.6443343,2.8170331,0.39058757,-0.07405588,0.91758215,0
-0.53194344,-3.8367991,-2.6054337,-0.15306073,-0.98810899,-0.01459451,0
-1.3636788,-3.6056225,3.2139874,-0.23498553,0.022047006,0.97174883,0
-2.6382582,-3.4611936,-2.6973648,-0.15306073,-0.98810899,-0.01459451,0
-2.9233851,1.5425459,0.65533972,-0.95614028,0.14434418,0.25487334,0
-3.1069469,-1.8603396,1.4691478,-0.86155975,0.12619512,0.49172103,0
-0.57777977,-1.2800156,-3.0884867,-0.1769585,0.041935213,-0.98332441,0
-1.1607661,-3.7294929,1.1448513,-0.15306073,-0.98810899,-0.01459451,0
-2.0190153,-3.6810133,1.4208639,-0.15306073,-0.98810899,-0.01459451,0
-1.6296387,-3.0843825,3.081147,-0.33940962,0.038693856,0.93984246,0
3.2154379,1.0446028,0.98405266,0.95033789,-0.15122749,0.27200693,0
0.84183884,-1.22908,-3.0116386,0.29357171,-0.03136332,-0.9554224,0
-0.79403377,-0.80689359,3.0868764,-0.17411017,0.012426741,0.98464775,0
-2.2435102,4.4787493,1.3790112,0.15306073,0.98810899,0.01459451,0
-2.8385897,0.79051208,1.5370494,-0.88786334,0.13101791,0.44105899,0
1.8270001,-4.2721472,-1.5144197,-0.15306073,-0.98810899,-0.01459451,0
-0.20500648,-3.9731374,-1.7597148,-0.15306073,-0.98810899,-0.01459451,0
-1.8985095,-3.7316332,0.24083817,-0.15306073,-0.98810899,-0.01459451,0
1.6871686,-2.449188,-2.6122663,0.60808152,-0.082531348,-0.78957301,0
-2.2416892,-0.80078244,-2.4502835,-0.6587593,0.11302984,-0.74381477,0
-1.4623222,-3.9138689,-0.75506967,-0.15306073,-0.98810899,-0.01459451,0
-2.5050251,1.2633114,-1.9437106,-0.78424573,0.13044108,-0.6065836,0
3.6038845,2.3907552,0.80109906,0.96820438,-0.15290183,0.19799346,0
-2.0656674,-0.058150709,-2.3943148,-0.63412821,0.10953368,-0.76543039,0
-1.0947276,-0.025835527,3.1348076,-0.36369962,0.042593796,0.93054199,0
-2.6715732,-3.5747385,1.2955426,-0.15306073,-0.98810899,-0.01459451,0
-3.6953602,-1.2810047,-0.19600534,-0.9873184,0.15353446,-0.040363193,0
-2.8478613,2.3891449,-0.3123641,-0.98252881,0.15374541,-0.10487831,0
1.4261487,3.7347264,1.5195801,0.15306073,0.98810899,0.01459451,0
1.3983138,3.782557,2.7334449,0.15306073,0.98810899,0.01459451,0
-1.7154474,4.2099695,0.44886255,0.15306073,0.98810899,0.01459451,0
-0.78629541,-2.2672091,3.4056237,-0.11524862,0.0031806678,0.99333155,0
-1.1918979,4.0508528,1.1935794,0.15306073,0.98810899,0.01459451,0
1.5820193,1.1563253,3.143703,0.4375779,-0.081009001,0.89552391,0
0.11129677,-4.0727396,0.49225545,-0.15306073,-0.98810899,-0.01459451,0
-0.90283394,-1.4267089,-3.2555473,-0.16872531,0.040681988,-0.98482323,0
2.8103323,-3.8678434,-0.34833765,0.97987258,-0.14983666,-0.13190329,0
-1.4386737,4.3407593,1.6681491,0.15306073,0.98810899,0.01459451,0
0.027424574,-3.9446015,2.1868567,-0.15306073,-0.98810899,-0.01459451,0
-1.5782607,1.2594583,2.5287023,-0.58062589,0.077970371,0.81042838,0
-2.0634067,4.5618901,-1.3708858,0.15306073,0.98810899,0.01459451,0
0.21760416,2.3036735,-3.0917149,-0.030223787,0.019442353,-0.999354,0
-1.2456851,4.2775407,0.10057354,0.15306073,0.98810899,0.01459451,0
-1.1425463,-3.8273339,2.2228112,-0.15306073,-0.98810899,-0.01459451,0
-1.2684603,-3.7914073,0.59014821,-0.15306073,-0.98810899,-0.01459451,0
-2.267004,-3.5495601,-1.7693493,-0.15306073,-0.98810899,-0.01459451,0
0.52315712,3.8122406,-2.1136248,0.15306073,0.98810899,0.01459451,0
1.7135584,3.8523118,-2.0213628,0.15306073,0.98810899,0.01459451,0
0.85372508,3.8673184,-2.5610135,0.15306073,0.98810899,0.01459451,0
-0.2781682,-0.67956841,3.2425222,-0.088436663,-0.0010131821,0.99608123,0
-2.0021811,1.783011,-2.4389849,-0.71293104,0.12063782,-0.69077921,0
2.6585307,-1.9571366,1.8762391,0.83042401,-0.13661259,0.54012305,0
1.0478843,4.0436382,1.933197,0.15306073,0.98810899,0.01459451,0
-2.2370577,2.583123,1.7292644,-0.84507453,0.12322006,0.52025568,0
0.70026755,-2.6449158,3.0877168,0.30609703,-0.061447125,0.95001519,0
1.5218761,3.2791843,3.2521935,0.30861253,-0.061824393,0.94917643,0
2.4982862,2.5428014,-2.5326898,0.66144729,-0.09146516,-0.74439347,0
0.79271102,4.0641365,-2.8836358,0.15306073,0.98810899,0.01459451,0
0.11211726,-4.0502877,-0.43910676,-0.15306073,-0.98810899,-0.01459451,0
1.5301447,-4.3596921,1.4262521,-0.15306073,-0.98810899,-0.01459451,0
-2.9167731,-0.58485413,-1.2769065,-0.89201659,0.14450154,-0.42828208,0
-3.1718009,-2.6842666,1.5600212,-0.85244036,0.12454542,0.50777328,0
-2.0822184,-3.6161666,0.57614481,-0.15306073,-0.98810899,-0.01459451,0
0.70243526,3.8919837,0.42990834,0.15306073,0.98810899,0.01459451,0
-3.0273404,-3.5427842,1.6854789,-0.15306073,-0.98810899,-0.01459451,0
-0.41145813,-4.010798,1.1934297,-0.15306073,-0.98810899,-0.01459451,0
0.92063427,-0.8038497,-3.0151896,0.27514505,-0.028426852,-0.96098238,0
-0.64732558,4.0015574,0.098087788,0.15306073,0.98810899,0.01459451,0
1.2650657,4.0062399,2.1499038,0.15306073,0.98810899,0.01459451,0
3.2454357,0.77969968,1.0616682,0.94946301,-0.15113758,0.27509528,0
-1.824319,-3.8517976,-2.0564928,-0.15306073,-0.98810899,-0.01459451,0
3.1899188,0.094747305,0.98364186,0.94026923,-0.15016285,0.30552399,0
-0.029435396,-3.9176836,-2.5906794,-0.15306073,-0.98810899,-0.01459451,0
-1.6616349,4.2196312,-0.95808101,0.15306073,0.98810899,0.01459451,0
1.6319273,-1.9868906,2.6817493,0.55698395,-0.098458737,0.8246665,0
-0.89937425,-3.8445702,1.5916214,-0.15306073,-0.98810899,-0.01459451,0
-0.22065753,-4.0801249,0.4525702,-0.15306073,-0.98810899,-0.01459451,0
-2.6316698,2.4146218,1.6238004,-0.87539136,0.12871812,0.46596301,0
-3.7188523,-3.6356478,0.028496027,-0.15306073,-0.98810899,-0.01459451,0
2.4649131,-1.6001076,-1.607792,0.85663843,-0.12530357,-0.50046945,0
-0.066254139,3.119179,3.2301235,-0.12500352,0.0047092363,0.99214518,0
2.9225833,3.016798,2.3047957,0.75110817,-0.12592059,0.64805901,0
1.155239,3.6991744,0.21499066,0.15306073,0.98810899,0.01459451,0
1.1748395,0.38867724,2.9278283,0.36878878,-0.070815504,0.92681181,0
2.4342396,-3.9485605,-0.7258029,0.95871109,-0.14489263,-0.24470204,0
2.7581363,-2.9115593,0.735533,0.96344852,-0.15249397,0.22025514,0
3.265543,0.44065297,-0.56130195,0.9676283,-0.14685662,-0.20525199,0
0.32480073,-4.2255507,0.84482658,-0.15306073,-0.98810899,-0.01459451,0
-2.4282627,-3.4720998,-0.31054354,-0.15306073,-0.98810899,-0.01459451,0
-0.6145618,-3.9729486,-2.1320183,-0.15306073,-0.98810899,-0.01459451,0
-0.026386142,4.2261248,-0.53188783,0.15306073,0.98810899,0.01459451,0
-0.10550904,3.1564567,-3.1727638,-0.14074987,0.036415748,-0.98937529,0
0.16173559,-3.8764696,-1.7336657,-0.15306073,-0.98810899,-0.01459451,0
2.4275441,-0.26800379,-2.3490162,0.7347616,-0.10391583,-0.6703186,0
-3.5007954,-2.310183,-1.3179338,-0.92789537,0.14878291,-0.34186822,0
0.019528866,3.9708514,2.828187,0.15306073,0.98810899,0.01459451,0
2.4906466,-3.7490678,1.2856176,0.89996856,-0.14547756,0.41096568,0
2.2930002,3.8118563,0.74231303,0.15306073,0.98810899,0.01459451,0
-0.0422225,3.8811479,2.9674377,0.15306073,0.98810899,0.01459451,0
-1.2007835,-3.7283964,-2.3482127,-0.15306073,-0.98810899,-0.01459451,0
0.084730864,1.6963576,-3.2141569,-0.012401938,0.016688045,-0.99978387,0
1.9066356,0.49113286,-2.7911737,0.56257188,-0.074983023,-0.82334101,0
-2.2472408,1.8844303,2.4611521,-0.73007822,0.10311326,0.67553931,0
-3.4017289,-3.387485,-0.1849966,-0.15306073,-0.98810899,-0.01459451,0
2.309305,-1.1489649,-1.9747275,0.80164814,-0.11551432,-0.58652925,0
0.84446049,-4.1979747,1.8037448,-0.15306073,-0.98810899,-0.01459451,0
2.5691168,1.4778024,-2.1928303,0.75233877,-0.10693812,-0.65003884,0
2.8366184,-2.4844766,-0.71585059,0.96487719,-0.14623871,-0.2182343,0
0.81250262,3.4444454,-3.1155021,0.05034548,0.0069524124,-0.99870765,0
-0.52649593,3.9492664,-0.88967824,0.15306073,0.98810899,0.01459451,0
1.2112077,-4.3680706,0.53688049,-0.15306073,-0.98810899,-0.01459451,0
1.7902626,1.5202752,-2.9889562,0.45365638,-0.057136856,-0.8893432,0
-2.692225,2.7901831,-0.89599013,-0.94027495,0.15016349,-0.30550569,0
2.1003225,-4.2156868,0.54982901,-0.15306073,-0.98810899,-0.01459451,0
1.2672436,-4.2284946,1.4535915,-0.15306073,-0.98810899,-0.01459451,0
-1.6498601,-0.088726342,-2.8525758,-0.50334281,0.090661407,-0.8593173,0
3.0688114,3.639802,0.086315155,0.15306073,0.98810899,0.01459451,0
1.1676381,3.7459288,2.0454502,0.15306073,0.98810899,0.01459451,0
-2.053802,-0.92025924,2.6523006,-0.59422344,0.080226414,0.80028886,0
2.6745956,-2.8344886,-1.3145742,0.91068417,-0.13530236,-0.39031714,0
-2.3516939,-3.4806209,-0.48745239,-0.15306073,-0.98810899,-0.01459451,0
-1.7050121,4.0937743,-1.9730606,-0.72399199,0.12217579,-0.67890239,0
