0.0033318996,2.4395399,3.2009051,0.22070414,0.85635769,0.46684164,0
-2.4159427,2.2740602,2.7484257,-0.48313332,-0.31980741,0.81504941,0
3.3780093,1.6099052,-0.28384471,0.48313332,0.31980741,-0.81504941,0
4.2295866,-0.31684923,-0.71075177,0.48313332,0.31980741,-0.81504941,0
2.3375933,3.5934308,-0.16344011,0.48313332,0.31980741,-0.81504941,0
-3.4290392,-2.1985004,-0.037475228,-0.48313332,-0.31980741,0.81504941,0
-0.51320672,0.79704571,2.8858891,-0.48313332,-0.31980741,0.81504941,0
1.8567907,-2.3790879,2.6517487,0.80837238,-0.52052498,0.2749328,0
2.1317804,-1.3811624,-2.4531937,0.48313332,0.31980741,-0.81504941,0
-2.9591184,-1.0361757,-1.7062538,-0.76685297,-0.2946642,-0.57018375,0
-2.5715387,2.1101081,-1.6420429,-0.82285541,0.48391622,-0.2978825,0
2.3599174,-0.57746172,-2.0625057,0.48313332,0.31980741,-0.81504941,0
1.2748077,-3.2703233,1.6597373,0.61349666,-0.78781188,0.05453974,0
-3.8545928,-1.2378299,0.11067343,-0.82662868,-0.14019266,-0.54500556,0
-0.16495728,2.3372045,-2.1181548,0.48313332,0.31980741,-0.81504941,0
-2.6878803,2.183923,2.3037667,-0.48313332,-0.31980741,0.81504941,0
-0.63533747,-2.268405,-3.2720237,-0.35589719,-0.77879304,-0.51654482,0
-0.22502196,0.66799664,3.1878669,-0.48313332,-0.31980741,0.81504941,0
-1.0175402,3.2028809,1.163635,-0.23506904,0.94410443,0.23110485,0
-2.9374802,-3.1620789,-0.14384444,-0.49326715,-0.66968811,-0.55516255,0
0.028029442,-3.8046892,0.92692995,0.24433929,-0.94316727,-0.22524202,0
2.5035264,1.441231,-1.1431186,0.48313332,0.31980741,-0.81504941,0
-2.7335651,1.4453547,2.2459643,-0.48313332,-0.31980741,0.81504941,0
2.4388399,-1.5429279,2.1185598,0.85855234,-0.35556903,0.36940295,0
-3.7424109,-2.1349866,0.16918409,-0.48313332,-0.31980741,0.81504941,0
2.7199671,0.11814904,-1.2346768,0.48313332,0.31980741,-0.81504941,0
-2.3907483,2.3603134,-1.5705175,-0.79030168,0.55995202,-0.24875087,0
-0.060577244,0.70219207,3.1943979,-0.48313332,-0.31980741,0.81504941,0
-0.46688461,-1.4760261,-3.7731731,0.48313332,0.31980741,-0.81504941,0
-1.3533434,0.79347563,2.5942283,-0.48313332,-0.31980741,0.81504941,0
2.6130438,-2.4417419,-0.57153702,0.62156558,-0.78090209,0.062034011,0
-1.0873511,-3.6423507,-0.69646454,-0.14227766,-0.88985294,-0.433496,0
3.7321782,0.12445402,-0.90133762,0.48313332,0.31980741,-0.81504941,0
-1.2590915,2.5496817,3.085746,-0.48313332,-0.31980741,0.81504941,0
3.0568285,-0.51349235,-1.2421174,0.48313332,0.31980741,-0.81504941,0
-0.087218761,2.1512098,-2.2850957,0.48313332,0.31980741,-0.81504941,0
3.7699153,0.22743034,0.61446476,0.86407769,-0.023977965,0.50278711,0
-0.7941916,3.2288785,0.77074718,-0.2229647,0.94515252,0.23869109,0
-0.26894093,-3.4875793,1.331199,-0.48313332,-0.31980741,0.81504941,0
0.9832809,-3.1374102,-1.7972823,0.13390702,-0.94694138,-0.29218337,0
-0.99837613,3.2446051,1.4730514,-0.18965,0.94702768,0.25917459,0
0.87298632,-3.5371811,2.1491177,0.60113025,-0.79798162,0.04321903,0
1.7646875,1.6389972,2.823432,0.63855016,0.50819886,0.57791656,0
-3.1756525,0.87708127,-1.4236989,-0.87397099,0.23198187,-0.42703539,0
-2.5224004,-0.35387105,-2.645256,-0.82971668,-0.12999797,-0.54283583,0
-1.7492645,2.9831746,-1.3063838,-0.62153339,0.78093004,-0.06200403,0
0.15305424,2.5362554,3.1883769,0.23896873,0.8473931,0.47415078,0
-0.46000886,3.3502531,0.37475586,-0.21966463,0.94540411,0.24074602,0
3.2487183,0.47240329,1.6067411,0.84920657,0.055457443,0.52514076,0
0.38691267,0.34069824,-2.5966547,0.48313332,0.31980741,-0.81504941,0
-1.9658974,-0.3545239,1.7237641,-0.48313332,-0.31980741,0.81504941,0
0.72778654,-3.3246312,-1.1790167,0.20679861,-0.94624591,-0.24870282,0
-1.8128774,-0.2930932,-3.3355775,-0.79866046,-0.22048961,-0.55993372,0
3.5751851,2.0731905,-0.3634212,0.48313332,0.31980741,-0.81504941,0
-2.8018486,1.5085697,2.0454478,-0.48313332,-0.31980741,0.81504941,0
0.094074249,1.9349866,-2.0718303,0.48313332,0.31980741,-0.81504941,0
-1.0831442,2.0164807,-3.0685313,0.48313332,0.31980741,-0.81504941,0
0.94230747,-0.33289337,-2.416265,0.48313332,0.31980741,-0.81504941,0
-2.3833327,-1.1501708,1.2108008,-0.48313332,-0.31980741,0.81504941,0
-1.1315646,-0.3595829,2.2387204,-0.48313332,-0.31980741,0.81504941,0
-3.76424,-1.1718225,-0.23639047,-0.83520168,-0.11098737,-0.53862786,0
0.17730716,-0.75352979,-3.4205461,0.48313332,0.31980741,-0.81504941,0
0.36141825,1.3065538,3.8998785,-0.48313332,-0.31980741,0.81504941,0
0.45027256,3.9259651,-1.0459849,0.48313332,0.31980741,-0.81504941,0
-2.9536607,2.0367961,0.51412892,-0.70946968,0.688501,-0.1503967,0
-0.63235652,1.8583839,3.5715706,-0.48313332,-0.31980741,0.81504941,0
3.603642,-0.052663565,0.97985828,0.86978078,-0.068649083,0.48863977,0
1.496649,3.822489,-0.17175543,0.14484286,0.88888264,0.43463573,0
-2.3475056,-1.910624,-1.7692502,-0.65638363,-0.48376954,-0.57890213,0
-2.09234,-3.3143497,0.56790257,-0.48313332,-0.31980741,0.81504941,0
-3.1594872,0.13917387,-1.6524583,-0.86652875,0.041389704,-0.49740806,0
1.1851326,0.27181768,-2.4796348,0.48313332,0.31980741,-0.81504941,0
-1.4907329,-1.6804982,-2.86693,-0.58120298,-0.57907259,-0.5717324,0
-2.3967638,-2.9471359,0.38988796,-0.48313332,-0.31980741,0.81504941,0
-2.8261161,-2.7551467,0.18046187,-0.48313332,-0.31980741,0.81504941,0
0.68814611,3.4564595,-1.160812,0.48313332,0.31980741,-0.81504941,0
0.028657436,-2.1918988,-3.1533692,-0.29718053,-0.81574059,-0.49623695,0
-1.7175715,-0.53753662,-3.5590491,-0.75651878,-0.31613651,-0.5724833,0
1.9908003,-1.9137247,2.9417419,0.8457275,-0.41134095,0.33991718,0
-0.079590797,4.0979509,-1.4039981,-0.38027549,0.91516203,0.13367504,0
-1.3257439,-4.096993,0.45413375,-0.039178848,-0.92207414,-0.38502535,0
-2.7726028,1.0538405,-2.3890867,-0.87432468,0.22539479,-0.42982972,0
2.6940746,1.5913737,1.5347291,0.73886442,0.35052308,0.57551092,0
-2.5818624,-3.0567708,0.52990258,-0.48313332,-0.31980741,0.81504941,0
-2.6300316,-1.3952341,-1.7531569,-0.71428055,-0.39439124,-0.57815135,0
0.93558908,3.0501976,1.9075136,0.25475109,0.83928061,0.48032281,0
0.76380205,-2.858079,2.3833957,-0.48313332,-0.31980741,0.81504941,0
0.24856538,-1.0261619,-3.1593957,0.48313332,0.31980741,-0.81504941,0
1.4777901,3.0989089,1.3649688,0.29594803,0.81646073,0.49578893,0
2.9555488,-0.49320793,1.4841905,0.87549484,-0.16631845,0.45370358,0
-0.0084650517,-1.9002039,-3.6624343,0.48313332,0.31980741,-0.81504941,0
1.9065098,-2.6455679,2.5262442,0.80368263,-0.53133607,0.26791096,0
0.24490166,2.9712512,2.2415445,0.14959127,0.88706446,0.436737,0
-2.2423646,-0.34904456,-2.8835011,-0.80975574,-0.19082475,-0.55487078,0
-0.060226679,2.3157947,3.5323997,0.29250598,0.81846023,0.49453312,0
1.9191135,-0.6778574,-2.0711517,0.48313332,0.31980741,-0.81504941,0
-1.3615832,-1.0566587,-3.5620034,-0.67619729,-0.45505562,-0.57938027,0
-0.32033491,-2.4740334,-2.7767942,-0.24938619,-0.84207672,-0.47823983,0
-0.31857935,-0.69294715,-3.4068799,0.48313332,0.31980741,-0.81504941,0
-2.5411806,1.3787174,2.0188518,-0.48313332,-0.31980741,0.81504941,0
2.8687332,1.2703705,-0.66195995,0.48313332,0.31980741,-0.81504941,0
1.7650871,1.3227168,3.0349681,0.67274058,0.46019262,0.5793469,0
0.89413118,-3.5427518,0.96563959,0.50326878,-0.86318624,-0.040374756,0
-1.059233,0.67106843,2.6247554,-0.48313332,-0.31980741,0.81504941,0
2.5163152,3.5905626,-0.2724117,0.48313332,0.31980741,-0.81504941,0
-0.46876788,2.9147973,2.1752748,-0.029716253,0.93635654,0.34979084,0
-1.5420599,3.082134,-2.6236327,0.48313332,0.31980741,-0.81504941,0
2.1169195,2.2249413,-1.0429935,0.48313332,0.31980741,-0.81504941,0
1.5980065,-2.5748637,3.0759866,-0.48313332,-0.31980741,0.81504941,0
-3.2313271,0.29406428,-1.0549555,-0.8750056,0.14363486,-0.46231407,0
-1.5900483,-3.1640675,0.88182729,-0.48313332,-0.31980741,0.81504941,0
1.9192333,-2.5640604,1.4346392,0.73087454,-0.65987593,0.17431659,0
-0.17263126,3.5342169,-1.6986765,0.48313332,0.31980741,-0.81504941,0
2.2397346,2.6999915,0.84705758,0.45488179,0.7037223,0.54576331,0
3.6594296,0.53043389,-0.79382432,0.48313332,0.31980741,-0.81504941,0
-3.0330055,1.0089239,-1.5615451,-0.8722952,0.25597134,-0.41662908,0
-0.7930007,2.8649502,-2.2840772,0.48313332,0.31980741,-0.81504941,0
-1.1332033,-1.5353518,-3.1475363,-0.5629009,-0.59955865,-0.5689218,0
0.52640826,1.2317002,3.7946825,-0.48313332,-0.31980741,0.81504941,0
-2.3272791,0.0092563629,1.5194732,-0.48313332,-0.31980741,0.81504941,0
-1.2064716,-0.20609856,2.2682152,-0.48313332,-0.31980741,0.81504941,0
-1.7834141,-0.74276531,-3.4760787,-0.73024207,-0.3663964,-0.57662827,0
2.3157823,3.4271774,0.22103941,0.39730364,0.7494626,0.52958047,0
-1.3546181,0.88675833,2.7350066,-0.48313332,-0.31980741,0.81504941,0
-1.2100368,-2.9083035,-1.8503001,-0.31286627,-0.80638027,-0.50186211,0
0.98981464,0.053754807,-2.4420533,0.48313332,0.31980741,-0.81504941,0
1.0111115,-2.9890907,-1.6999918,0.12840706,-0.94671875,-0.29535624,0
0.26374078,-2.6179824,-3.1410975,-0.20318907,-0.8645345,-0.45966774,0
-1.3764067,0.59932494,2.6125093,-0.48313332,-0.31980741,0.81504941,0
-2.6194255,-1.6616745,-1.8730272,-0.67445123,-0.45765755,-0.57936621,0
2.9765029,1.9710076,-0.37480292,0.48313332,0.31980741,-0.81504941,0
-2.6302228,2.4252887,0.21928668,-0.67758739,0.72611821,-0.11673784,0
3.8868942,0.1738584,0.44996858,0.86788583,-0.05205071,0.49402934,0
1.959585,0.66385674,3.2313979,0.72844756,0.36963096,0.57683367,0
1.5306669,1.8681772,-1.4939598,0.48313332,0.31980741,-0.81504941,0
-3.6582549,0.62427473,-0.51111627,-0.87121648,0.26807079,-0.41124207,0
-3.1719561,0.484797,-1.726133,-0.87534213,0.15630126,-0.45754355,0
2.1734397,-1.8506284,3.0172198,0.86229759,-0.33513594,0.3796404,0
1.9643079,1.1712937,2.8125782,0.6970104,0.42288065,0.57909286,0
0.94783664,-1.7757082,2.7236643,-0.48313332,-0.31980741,0.81504941,0
3.1510615,-1.9624622,-0.58056378,0.7291491,-0.66229856,0.17234331,0
4.0779123,-0.15369368,-0.61298561,0.87425256,-0.22680795,0.42923254,0
-1.1817265,1.0030165,2.975594,-0.48313332,-0.31980741,0.81504941,0
2.4638,-2.3009858,-2.6257591,0.48313332,0.31980741,-0.81504941,0
-3.9814341,-0.27698135,0.68160915,-0.48313332,-0.31980741,0.81504941,0
-2.7672172,-2.3197079,0.43458903,-0.48313332,-0.31980741,0.81504941,0
3.1174288,-0.2378248,1.1248312,0.87214041,-0.093749672,0.48018959,0
-0.90885389,0.1540091,2.7326026,-0.48313332,-0.31980741,0.81504941,0
-0.0030708537,-0.083603859,-2.9349165,0.48313332,0.31980741,-0.81504941,0
-2.1409223,-1.2991946,1.1940867,-0.48313332,-0.31980741,0.81504941,0
-2.9079461,0.93986034,1.9366708,-0.48313332,-0.31980741,0.81504941,0
2.3687305,-1.1174591,-2.302927,0.48313332,0.31980741,-0.81504941,0
-0.035561085,2.7045248,-2.1835985,0.48313332,0.31980741,-0.81504941,0
-2.1280777,-3.4520988,0.064720809,-0.25968486,-0.83667392,-0.48222458,0
-0.59876823,-3.7804201,1.1193694,-0.48313332,-0.31980741,0.81504941,0
-1.5147253,-2.2416039,1.4167987,-0.48313332,-0.31980741,0.81504941,0
-1.6631883,-2.3383722,0.95955622,-0.48313332,-0.31980741,0.81504941,0
2.2043915,0.63391119,3.0019515,0.7832548,0.25814062,0.56557524,0
-0.32757699,1.2051914,3.5688567,-0.48313332,-0.31980741,0.81504941,0
3.1668403,0.51371586,1.59711,0.84743094,0.063208371,0.52712953,0
3.3019888,0.089978456,-0.92369616,0.48313332,0.31980741,-0.81504941,0
1.1639864,-2.7082031,-2.5623288,0.11578727,-0.94606483,-0.30258015,0
-2.7937152,-1.5753617,-1.4608309,-0.69347721,-0.42850044,-0.57920349,0
-2.3840282,0.11404085,1.6147054,-0.48313332,-0.31980741,0.81504941,0
0.094422996,0.37962437,3.1890182,-0.48313332,-0.31980741,0.81504941,0
0.75436962,1.2541437,-2.3614297,0.48313332,0.31980741,-0.81504941,0
0.57220697,3.2938414,1.0371518,0.048523962,0.91969228,0.38963026,0
-1.2881205,1.1230333,-3.3814993,0.48313332,0.31980741,-0.81504941,0
-3.8133795,1.2229934,1.5148923,-0.48313332,-0.31980741,0.81504941,0
0.80371857,3.6359041,-1.3963214,0.48313332,0.31980741,-0.81504941,0
-1.4870481,0.54828489,-3.5055668,0.48313332,0.31980741,-0.81504941,0
2.8031495,2.1444802,0.69521588,0.63972199,0.50663197,0.57799637,0
-2.797621,1.0243113,-1.752414,-0.87243497,0.25425911,-0.41738379,0
1.8856568,1.6030744,2.4188728,0.60646707,0.5491789,0.57497847,0
-2.6233602,2.5847416,1.0379126,-0.57211542,0.81998897,-0.017384768,0
-0.21820122,0.81180072,-2.8468039,0.48313332,0.31980741,-0.81504941,0
-3.9293201,-1.5579071,-0.33961833,-0.80321133,-0.20861341,-0.5579713,0
0.97891378,-3.5716696,-0.062253475,0.3229757,-0.93034941,-0.17359966,0
2.6141863,-2.3811986,-2.5725994,0.43397099,-0.89597625,-0.094318151,0
0.66158718,-1.2717457,-3.2133286,0.48313332,0.31980741,-0.81504941,0
0.67121321,0.45444155,3.4447026,-0.48313332,-0.31980741,0.81504941,0
2.5331709,2.9110649,0.41956335,0.50582159,0.65788382,0.55797267,0
-4.0713058,-0.55576205,-0.25649405,-0.86511135,0.031071126,-0.50061667,0
3.8188,-1.040128,-1.0072093,0.81123102,-0.51370603,0.27930307,0
2.2609432,3.3060415,0.083227873,0.36920756,0.76967204,0.52085584,0
-0.35041761,3.854243,-1.6817374,-0.46748692,0.8813262,0.068702698,0
-1.4837539,-1.3653302,1.5419039,-0.48313332,-0.31980741,0.81504941,0
-0.073754191,-0.86123538,-3.5391772,0.48313332,0.31980741,-0.81504941,0
-1.5625421,1.7960446,-3.2510099,0.48313332,0.31980741,-0.81504941,0
-0.30570698,-3.5444803,1.5583203,-0.48313332,-0.31980741,0.81504941,0
0.13056445,-2.9505277,1.8869349,-0.48313332,-0.31980741,0.81504941,0
-1.8091173,-3.1110198,-0.81469619,-0.38398218,-0.75920928,-0.5255084,0
-2.8313298,0.27502543,-1.9472586,-0.86090177,0.0039689541,-0.50875568,0
2.7505524,1.6576817,1.4913992,0.7094965,0.40245977,0.57848144,0
-0.5322088,1.882828,3.4278893,-0.48313332,-0.31980741,0.81504941,0
1.0368102,-3.4047029,-0.64857435,0.31591624,-0.93186778,-0.17837995,0
0.96646523,3.2203567,-1.3350763,0.48313332,0.31980741,-0.81504941,0
3.0061944,1.109587,1.758059,0.78143758,0.26235238,0.56615067,0
-3.840436,-1.6559877,-0.27734065,-0.7973333,-0.22388288,-0.56047845,0
-1.3180853,-0.20619464,-3.8390081,0.48313332,0.31980741,-0.81504941,0
-0.16064376,0.89574218,3.4831409,-0.48313332,-0.31980741,0.81504941,0
-1.6706858,2.9389048,-1.9561315,-0.7364282,0.65192896,-0.18072683,0
-1.359844,0.257972,-3.5492687,0.48313332,0.31980741,-0.81504941,0
2.1926234,-2.6837163,0.038217068,0.65653795,-0.74821126,0.095591605,0
0.64528775,-3.7751861,0.58469176,0.38939041,-0.9122569,-0.12713212,0
2.2712703,-0.72678912,3.2919149,0.86604273,-0.037766546,0.49854162,0
-3.8350582,1.1285949,1.2637804,-0.48313332,-0.31980741,0.81504941,0
0.91856432,-2.7239871,-2.5962393,-0.0054956079,-0.92977726,-0.3680816,0
-2.7041149,-2.705436,0.62596208,-0.48313332,-0.31980741,0.81504941,0
-1.9902936,1.0870214,-3.3289399,-0.87263232,0.099991262,-0.47803208,0
0.81778073,3.5324433,0.98881817,0.11473846,0.89974886,0.42105454,0
0.5784409,2.0089035,-1.7731241,0.48313332,0.31980741,-0.81504941,0
-1.7575294,1.5508239,2.8725331,-0.48313332,-0.31980741,0.81504941,0
-0.79686296,0.15669203,2.5405836,-0.48313332,-0.31980741,0.81504941,0
1.8784933,0.44078982,3.2537436,0.77359921,0.2800326,0.56844163,0
-0.50428867,2.013238,3.4549494,-0.48313332,-0.31980741,0.81504941,0
-0.71099997,3.6783125,-1.5308573,-0.47353572,0.87844723,0.063987494,0
1.8852483,-2.863205,-0.84792113,0.47217834,-0.87909979,-0.065048218,0
-2.8393593,-2.4782586,-0.78994244,-0.61470026,-0.53900146,-0.57586545,0
1.8377892,0.42875171,-1.9538627,0.48313332,0.31980741,-0.81504941,0
0.92022812,2.0898926,2.8890147,0.41261405,0.73788416,0.53411287,0
3.6992102,-1.7863064,-1.3499916,0.70383936,-0.69554985,0.14429343,0
-1.5456622,2.6556084,-2.5008099,-0.75819063,0.61837137,-0.20679414,0
-3.1086333,0.69023287,-1.2705691,-0.87554502,0.17837659,-0.44900197,0
1.2564588,-2.5261064,-3.0130579,0.02165401,-0.93498307,-0.35403091,0
-2.160284,0.010521412,-2.9463565,-0.82283902,-0.15226407,-0.54749578,0
3.715487,-0.4727478,-0.022092581,0.86769927,-0.29924721,0.39692438,0
1.9921079,0.76940584,-1.3618537,0.48313332,0.31980741,-0.81504941,0
-1.6387219,-1.5538092,1.7076294,-0.48313332,-0.31980741,0.81504941,0
1.5605842,-2.7996514,-2.8985846,0.094450712,-0.94450796,-0.31461689,0
-1.0613642,-3.6167884,-0.19961965,-0.089824796,-0.90788651,-0.40947965,0
1.813985,-2.6370406,1.7593799,0.72453189,-0.66867787,0.16710323,0
-3.0946651,-2.8961504,0.28171915,-0.48313332,-0.31980741,0.81504941,0
-3.4467759,0.9059639,1.483514,-0.48313332,-0.31980741,0.81504941,0
-3.1124713,-0.48830497,-1.5256958,-0.83626443,-0.10715519,-0.53775418,0
1.1654501,3.1539068,1.3905864,0.24235743,0.84568,0.47548732,0
-0.77931607,-0.75683093,-4.0387502,0.48313332,0.31980741,-0.81504941,0
-3.02246,-0.32366419,0.94715929,-0.48313332,-0.31980741,0.81504941,0
4.0993004,0.28841019,-0.033789158,0.87093794,-0.08015269,0.48481196,0
0.086863041,-3.7812512,1.877522,-0.48313332,-0.31980741,0.81504941,0
-1.4120159,-1.2549543,1.6843894,-0.48313332,-0.31980741,0.81504941,0
1.8257346,-3.0272748,1.1168499,0.64940071,-0.75526834,0.088591874,0
0.38366616,1.7785622,-1.9678127,0.48313332,0.31980741,-0.81504941,0
3.3798225,-1.0373068,0.14308524,0.83735335,-0.44072196,0.32342482,0
3.4027271,2.3548799,-0.18940645,0.48313332,0.31980741,-0.81504941,0
0.44241405,3.1132917,-1.7176245,0.48313332,0.31980741,-0.81504941,0
0.73086995,0.55843663,-2.5715332,0.48313332,0.31980741,-0.81504941,0
3.4480987,-1.2759657,-0.018771172,0.80855507,-0.52009422,0.27521026,0
-3.8828182,-0.16373062,-0.57210422,-0.86901009,0.061614245,-0.49094322,0
-3.2639875,0.49008274,-1.2529888,-0.87538159,0.15835115,-0.45676261,0
-1.1481941,2.5994556,-2.6693876,0.48313332,0.31980741,-0.81504941,0
-2.827364,2.3488832,0.53437853,-0.67366803,0.73038405,-0.11274076,0
3.6636713,0.075958252,1.0884888,0.87231636,-0.095927954,0.47943914,0
0.62036371,-3.6078067,0.2555685,0.34681189,-0.92466086,-0.1572383,0
1.6318367,2.5334442,-1.0270771,0.48313332,0.31980741,-0.81504941,0
3.2171512,0.17623234,-0.89579737,0.48313332,0.31980741,-0.81504941,0
4.0012283,-0.37873793,-0.023411512,0.86876279,-0.29076385,0.4008835,0
1.9262298,1.9830458,2.1257071,0.59165537,0.56694114,0.5731681,0
2.3063071,-1.9960723,-2.5142016,0.48313332,0.31980741,-0.81504941,0
-2.3444867,-0.0035800934,1.5440004,-0.48313332,-0.31980741,0.81504941,0
1.8797601,-2.1918037,2.5137415,0.82989526,-0.46393937,0.30989385,0
-3.4056129,-0.11537921,-1.1736014,-0.86100644,0.0045920014,-0.50857317,0
1.2647755,-3.2374196,-1.5459765,0.22191143,-0.94523442,-0.23934758,0
-0.72863626,3.5267489,-1.6558681,-0.51337725,0.85755974,0.032175064,0
1.4476101,3.7359705,-0.71559858,0.48313332,0.31980741,-0.81504941,0
-0.060941696,2.9567153,1.7056521,0.082153797,0.91023767,0.40585506,0
-3.2792485,0.43525374,-1.1182348,-0.87546259,0.16353893,-0.45477504,0
1.4493963,-1.8831646,3.240977,-0.48313332,-0.31980741,0.81504941,0
1.8702602,0.50571489,3.4852777,0.78271562,0.259395,0.56574774,0
-3.208204,-1.8589448,-1.0909705,-0.69425744,-0.4272652,-0.57918131,0
3.4035668,0.38565755,-0.89834344,0.48313332,0.31980741,-0.81504941,0
-1.1010239,-0.70272684,2.1188726,-0.48313332,-0.31980741,0.81504941,0
-2.2412262,-2.5998986,-1.3104303,-0.4937644,-0.669227,-0.55527639,0
1.3671315,-1.5705359,3.4391112,-0.48313332,-0.31980741,0.81504941,0
0.84836709,-1.7346327,-3.2894621,0.48313332,0.31980741,-0.81504941,0
2.9905305,-0.53873014,-1.323855,0.48313332,0.31980741,-0.81504941,0
1.3940055,3.0629702,1.6262472,0.30255866,0.81257212,0.49818167,0
-1.0156558,2.8659058,-2.7451305,0.48313332,0.31980741,-0.81504941,0
-1.8808669,2.7998848,1.4067496,-0.36327308,0.920214,0.14573586,0
0.47614709,-0.33986092,3.0292714,-0.48313332,-0.31980741,0.81504941,0
1.974401,-0.74596548,-2.2557323,0.48313332,0.31980741,-0.81504941,0
2.3554602,3.3811588,-0.16706353,0.33438843,0.79293853,0.50934553,0
0.24600887,-3.2290678,2.053055,-0.48313332,-0.31980741,0.81504941,0
0.1957767,3.1301463,1.1781129,0.050656021,0.91913396,0.39067501,0
-3.924696,0.98411131,0.30649233,-0.82670194,0.47320896,-0.30436373,0
-2.9546688,0.18146336,-1.4933834,-0.86538637,0.033016294,-0.50001645,0
2.4542377,-0.72239047,2.5384715,0.87538749,-0.1586791,0.45663738,0
1.7103083,1.3431902,-1.4298437,0.48313332,0.31980741,-0.81504941,0
1.0297686,1.7544711,3.2841153,0.50246203,0.66107655,0.55723405,0
-0.50897062,-1.7757976,-3.4615812,-0.47038072,-0.69034171,-0.54970026,0
0.43443632,3.3548796,-1.7212037,0.48313332,0.31980741,-0.81504941,0
1.9564276,-2.6290886,-3.0027139,0.19481456,-0.94683284,-0.25603682,0
2.400661,3.0952988,0.55355918,0.45306003,0.70526397,0.54528838,0
2.2439079,2.5425601,0.8934027,0.52813554,0.63602543,0.5626229,0
-1.4922528,2.2672038,-3.0920172,0.48313332,0.31980741,-0.81504941,0
-0.19988346,3.5449367,-0.26587343,-0.27187371,0.93968403,0.20755374,0
-1.5062745,-3.690402,0.36341298,-0.095689476,-0.90604007,-0.4122315,0
2.373857,-0.079884917,2.8061976,0.84651279,0.067120105,0.52812016,0
2.1192257,-2.3807399,2.6424084,0.82942045,-0.46534106,0.30906242,0
3.3752658,2.4367445,-0.35531437,0.48313332,0.31980741,-0.81504941,0
0.044436216,-2.6762033,-2.5445561,-0.13651085,-0.89200413,-0.43092164,0
-0.17065483,-0.21891594,2.694984,-0.48313332,-0.31980741,0.81504941,0
1.4595745,-2.0525575,-3.0887229,0.48313332,0.31980741,-0.81504941,0
-2.5875261,-0.55681455,-2.2862074,-0.80367637,-0.20737793,-0.55776227,0
1.821756,1.9628842,2.3229747,0.60744011,0.5479877,0.5750879,0
0.15395844,1.6290463,-2.5564411,0.48313332,0.31980741,-0.81504941,0
2.1036639,3.2129223,0.43065286,0.35669822,0.77825224,0.51680738,0
-1.157191,-2.3747118,-2.3751693,-0.42988151,-0.72432709,-0.53902888,0
1.3368895,-3.3354211,2.1906667,0.68662727,-0.71599567,0.12606817,0
1.2625532,-3.2792964,-0.75361705,0.3026644,-0.9345172,-0.18727481,0
-1.9065878,-0.4371748,1.9563546,-0.48313332,-0.31980741,0.81504941,0
2.9436026,1.6690614,1.1611167,0.74046302,0.34751752,0.57527918,0
3.9273779,-0.57995605,-0.17560363,0.86683011,-0.30574507,0.39385951,0
-0.12399197,3.656728,-0.5470984,-0.29630727,0.9356963,0.19150573,0
0.61731607,0.10691166,3.3179815,-0.48313332,-0.31980741,0.81504941,0
2.2075233,-2.4989536,1.0674694,0.73707342,-0.65099043,0.18147761,0
0.85255086,-1.647819,-3.1828988,0.48313332,0.31980741,-0.81504941,0
1.0647154,-3.5214372,0.56032586,0.4743377,-0.87805992,-0.063360095,0
4.0197062,0.63123059,-0.62815082,0.48313332,0.31980741,-0.81504941,0
-0.066382885,-2.2852178,-3.6033411,-0.30094332,-0.81352812,-0.4975993,0
0.49323273,3.325171,1.119483,0.10027707,0.90456623,0.41437256,0
2.1087441,-2.6707947,-1.9743409,0.32247287,-0.93045998,-0.17394108,0
1.178853,-3.2481837,0.9053936,0.50238526,-0.86366713,-0.041087091,0
-3.4778547,1.8518682,0.77097845,-0.7405808,0.6458329,-0.18558031,0
-3.2171488,-0.90040958,-1.3220515,-0.8103658,-0.1891202,-0.55456364,0
-2.3313551,2.6917901,0.91572332,-0.48506612,0.87275141,0.054917812,0
-2.4288456,-2.8846381,-0.78266746,-0.47553992,-0.6857807,-0.55096889,0
-3.907701,-2.065933,-0.050337195,-0.738428,-0.35134012,-0.57557285,0
-0.0093583465,0.46056461,-2.9095218,0.48313332,0.31980741,-0.81504941,0
0.084471226,3.693918,0.3404243,-0.14454573,0.94726372,0.28600356,0
1.6617705,1.5529051,2.7128532,0.58648831,0.57297879,0.57247424,0
2.5261943,-0.12105799,-1.7741925,0.48313332,0.31980741,-0.81504941,0
-4.1269369,0.7042222,1.1085124,-0.48313332,-0.31980741,0.81504941,0
-2.4900687,-0.98469615,1.1163632,-0.48313332,-0.31980741,0.81504941,0
3.1229446,-0.88600206,-1.7532315,0.48313332,0.31980741,-0.81504941,0
-2.1702435,2.5408807,1.5272532,-0.44777238,0.89020514,0.083872676,0
0.53571332,1.0452583,3.8381181,-0.48313332,-0.31980741,0.81504941,0
0.98540688,-3.0022163,2.3969233,-0.48313332,-0.31980741,0.81504941,0
-2.5291445,0.37502316,-2.6137993,-0.85710454,-0.017304152,-0.51485181,0
0.21352506,0.85281646,-2.4872816,0.48313332,0.31980741,-0.81504941,0
0.032318592,3.3644547,1.5217166,0.062635779,0.91589344,0.3965047,0
-0.09200418,0.69443119,-2.614903,0.48313332,0.31980741,-0.81504941,0
2.5693719,-1.0390584,2.3303735,0.87483323,-0.2139053,0.43463933,0
-0.9934299,-2.7209206,-2.2285383,-0.3096776,-0.80831254,-0.50073016,0
2.385927,-2.7705064,-0.18116474,0.58628839,-0.8095513,0.029881537,0
0.6980145,3.4228585,-1.347561,0.48313332,0.31980741,-0.81504941,0
-0.80913568,2.4340348,-2.6682165,0.48313332,0.31980741,-0.81504941,0
2.9436123,1.4105191,-0.69004631,0.48313332,0.31980741,-0.81504941,0
3.8766718,-0.73528099,-0.60364056,0.8412053,-0.42771012,0.33081365,0
1.0268459,1.5741428,-1.9337037,0.48313332,0.31980741,-0.81504941,0
4.1366143,1.1280849,-0.0041823387,0.83588493,0.10852985,0.53806853,0
-1.8641008,1.7481191,2.7184222,-0.48313332,-0.31980741,0.81504941,0
0.96297324,-0.95878267,-2.8074551,0.48313332,0.31980741,-0.81504941,0
-3.5399976,-1.9601033,-0.02194345,-0.48313332,-0.31980741,0.81504941,0
-2.8488686,-2.5894134,0.56621128,-0.48313332,-0.31980741,0.81504941,0
-3.7229886,0.16436625,1.1165729,-0.48313332,-0.31980741,0.81504941,0
2.4119248,-2.2147045,2.1663809,0.82085276,-0.48930985,0.29457897,0
2.9041479,-1.9705808,-0.96215129,0.64908874,-0.7555722,0.088287592,0
-3.1134033,-2.2950191,0.42338139,-0.48313332,-0.31980741,0.81504941,0
0.67468321,1.882624,3.3892117,0.46114945,0.69836855,0.54737788,0
-1.2144204,1.623331,-3.3833449,0.48313332,0.31980741,-0.81504941,0
0.49070814,-0.3188169,-2.9757481,0.48313332,0.31980741,-0.81504941,0
-3.7408123,-0.57103872,-0.38146579,-0.86126149,0.0061190128,-0.50812519,0
0.44456744,-1.4634572,2.7111883,-0.48313332,-0.31980741,0.81504941,0
-2.0814407,-2.1304045,-1.8821971,-0.55067813,-0.61273146,-0.56684536,0
-1.7634897,3.1058183,-0.48786902,-0.57459915,0.81820136,-0.019558489,0
-0.82600117,3.5631173,-1.9610059,0.48313332,0.31980741,-0.81504941,0
1.0086517,3.4148202,0.66385019,0.14031428,0.89059019,0.43262136,0
-0.42299241,1.2270281,3.5264144,-0.48313332,-0.31980741,0.81504941,0
-2.2973843,-2.1289811,0.75593054,-0.48313332,-0.31980741,0.81504941,0
2.2571466,1.1253355,-1.3139813,0.48313332,0.31980741,-0.81504941,0
-2.3287635,2.6601641,1.1019292,-0.54701328,0.83711326,0.0042139888,0
1.0867739,-2.7378652,-3.0839081,-0.026901782,-0.9250415,-0.37891218,0
-1.8050656,2.891037,0.6528213,-0.40760231,0.90602911,0.11389309,0
0.88752794,2.3957152,-1.5470997,0.48313332,0.31980741,-0.81504941,0
2.2190323,1.3769987,-1.396601,0.48313332,0.31980741,-0.81504941,0
-0.9641881,-2.7431717,1.2777507,-0.48313332,-0.31980741,0.81504941,0
2.6048775,1.9339433,1.2530326,0.63226581,0.51651406,0.57745409,0
-1.8139224,2.6499834,1.6018925,-0.37914193,0.91551363,0.13448495,0
-2.3500481,-1.9269705,0.90202564,-0.48313332,-0.31980741,0.81504941,0
-0.14294112,0.95316863,-2.724669,0.48313332,0.31980741,-0.81504941,0
-1.7766564,-3.3632376,0.45858133,-0.48313332,-0.31980741,0.81504941,0
1.1961629,-3.0279942,-1.5262251,0.203345,-0.9464345,-0.25082409,0
3.7392488,-0.82297993,-1.3797363,0.48313332,0.31980741,-0.81504941,0
0.17025137,3.2073183,1.6109058,0.083713293,0.90976554,0.40659422,0
0.63529503,0.61697555,3.5567579,-0.48313332,-0.31980741,0.81504941,0
0.23110723,4.1867933,-1.1939065,-0.2669608,0.94038314,0.21074033,0
4.0847716,0.24650192,-0.57157314,0.48313332,0.31980741,-0.81504941,0
3.1025851,-0.93837571,1.25843,0.86333889,-0.32892311,0.38269538,0
-4.016881,0.53709579,0.5149951,-0.86672473,0.30650994,-0.39349699,0
-2.3305573,0.47971773,1.657387,-0.48313332,-0.31980741,0.81504941,0
-1.7533008,-1.0532687,-3.3976457,-0.68213439,-0.44609985,-0.57938552,0
-0.26264787,1.5799963,3.4391031,-0.48313332,-0.31980741,0.81504941,0
-3.8488154,0.315063,0.89397645,-0.48313332,-0.31980741,0.81504941,0
-1.1832695,-2.9386368,1.4200011,-0.48313332,-0.31980741,0.81504941,0
-0.65973639,3.2006896,-2.2508745,0.48313332,0.31980741,-0.81504941,0
0.58392596,3.5655339,-1.3559812,0.48313332,0.31980741,-0.81504941,0
-2.2281771,1.9021695,-2.6893115,-0.84732085,0.40524659,-0.34325296,0
-3.743758,0.88822222,0.61509371,-0.84012908,0.43142545,-0.32871777,0
1.2180662,-0.3734585,3.5847383,-0.48313332,-0.31980741,0.81504941,0
2.3172839,3.6508217,-0.090902209,0.30193025,0.81294453,0.49795529,0
1.8459568,2.793154,1.5325246,0.43990481,0.71620768,0.54178441,0
0.79896235,-2.154166,2.6295121,-0.48313332,-0.31980741,0.81504941,0
-1.1330435,0.53090882,2.8097785,-0.48313332,-0.31980741,0.81504941,0
-2.7442961,-0.66192198,1.2695481,-0.48313332,-0.31980741,0.81504941,0
1.1733956,-3.1286097,0.42635679,0.48703039,-0.87175339,-0.053361833,0
-2.7179368,2.2472796,-1.3007491,-0.79453921,0.55121708,-0.25469023,0
3.7548504,-1.7337544,-1.5861003,0.48313332,0.31980741,-0.81504941,0
-2.9106562,-2.9624829,0.14564466,-0.48313332,-0.31980741,0.81504941,0
-2.6787176,0.063083977,-2.2126431,-0.85889626,-0.0075679421,-0.51209366,0
-2.1981363,-0.863419,-2.6890805,-0.73440409,-0.35880437,-0.57611638,0
-0.35591054,-1.9646068,2.0727253,-0.48313332,-0.31980741,0.81504941,0
-0.44270498,0.91125751,-3.1655116,0.48313332,0.31980741,-0.81504941,0
-0.8495363,-1.182917,-3.8934259,-0.59473121,-0.56330872,-0.57356608,0
1.0638239,-2.7399387,-1.9111118,0.17203015,-0.94743115,-0.26977736,0
-0.66985273,1.2348493,-2.7863135,0.48313332,0.31980741,-0.81504941,0
-2.5132663,2.514518,1.3774598,-0.47604042,0.87723339,0.06202662,0
-1.6562967,3.1828032,-1.6581295,-0.6774891,0.72622621,-0.11663711,0
-0.93249154,2.8790002,-2.6348317,0.48313332,0.31980741,-0.81504941,0
0.56827736,2.7618592,-1.5854526,0.48313332,0.31980741,-0.81504941,0
-2.601016,-2.0694776,-1.2719783,-0.60381782,-0.55240667,-0.57467461,0
1.6302096,0.88399017,3.3238931,0.70201176,0.41480821,0.57888997,0
-1.902519,0.54282904,2.3545637,-0.48313332,-0.31980741,0.81504941,0
-2.4736223,-0.8772819,1.1283901,-0.48313332,-0.31980741,0.81504941,0
0.12063098,3.1133943,-1.8704197,0.48313332,0.31980741,-0.81504941,0
-2.9525998,0.9716413,1.890327,-0.48313332,-0.31980741,0.81504941,0
2.3576515,-0.19645984,2.6472738,0.84368658,0.078788042,0.53102309,0
1.6769567,-0.49067199,3.6915553,0.84578407,0.07018128,0.5288893,0
-0.57177436,-0.2664659,2.6338291,-0.48313332,-0.31980741,0.81504941,0
2.6219754,-1.1569303,2.2661805,0.8751871,-0.20308229,0.43909585,0
2.3214328,-2.4088478,-0.066222906,0.63224322,-0.77140886,0.072088361,0
-2.4787006,1.0790634,2.115346,-0.48313332,-0.31980741,0.81504941,0
1.4610054,2.8800504,1.3585597,0.39193064,0.75343001,0.52795225,0
-1.5888424,-0.062147141,-3.7898297,0.48313332,0.31980741,-0.81504941,0
-0.5858953,-1.5285847,2.0191267,-0.48313332,-0.31980741,0.81504941,0
1.638854,2.7300162,-1.0862033,0.48313332,0.31980741,-0.81504941,0
0.20334291,-3.5271647,-0.47738862,0.17116499,-0.94744068,-0.27029401,0
-3.7326427,0.80787706,1.3047928,-0.48313332,-0.31980741,0.81504941,0
-2.5261927,0.2076682,-2.7575829,-0.84878922,-0.057301939,-0.52561712,0
1.4526018,1.3354647,-1.7423481,0.48313332,0.31980741,-0.81504941,0
0.46026278,4.0281959,-0.30953908,-0.088758886,0.94399744,0.31779048,0
-0.34630156,-2.5127888,1.827925,-0.48313332,-0.31980741,0.81504941,0
2.1591082,-2.361244,-2.8472924,0.48313332,0.31980741,-0.81504941,0
-2.5197563,2.3351324,2.2234266,-0.41768044,0.90233445,0.10646951,0
0.58249187,1.6516136,3.9016106,0.45875043,0.70042682,0.54676348,0
-3.7797954,-0.99683452,0.38577366,-0.48313332,-0.31980741,0.81504941,0
-1.180366,-3.2828445,-0.94952601,-0.23271334,-0.85051429,-0.47166738,0
3.7401891,-0.65129352,-0.3358264,0.85207754,-0.3858335,0.35368973,0
-1.1070895,-3.5239563,0.85640574,-0.48313332,-0.31980741,0.81504941,0
-1.0300668,-1.2890167,2.1223977,-0.48313332,-0.31980741,0.81504941,0
-0.069298983,3.259311,1.0038146,-0.038090646,0.93769932,0.34535363,0
-1.6542573,-3.1857786,0.98948097,-0.48313332,-0.31980741,0.81504941,0
3.7201159,-1.4669814,-0.76431799,0.75977975,-0.61575371,0.20876324,0
-1.4892766,2.7497969,2.7898529,-0.12635559,0.94662607,0.29653591,0
-1.8151851,-0.38332427,-3.5034492,-0.77004439,-0.28780654,-0.56938475,0
-0.50966239,-2.7590971,1.8562752,-0.48313332,-0.31980741,0.81504941,0
-3.1131616,-2.8139005,-0.44832134,-0.56376147,-0.59861624,-0.56906211,0
2.909585,-2.0886197,-2.3581724,0.48313332,0.31980741,-0.81504941,0
-0.89676964,-1.5936334,-3.7753475,-0.53956938,-0.62436843,-0.56482655,0
0.77040434,-2.2925601,2.8166742,-0.48313332,-0.31980741,0.81504941,0
-2.5791965,-0.0040241778,-2.1677647,-0.84110236,-0.089009076,-0.53350174,0
1.3529282,-2.4703496,-3.0510831,0.083632708,-0.94350338,-0.32063523,0
-1.2996104,-2.9222462,1.0793428,-0.48313332,-0.31980741,0.81504941,0
0.70488781,0.84054065,-2.3316102,0.48313332,0.31980741,-0.81504941,0
-0.79816175,3.4000154,0.63081741,-0.28543288,0.93757701,0.1986897,0
-0.53070092,-2.4125857,-2.9606025,-0.38358545,-0.75949502,-0.52538526,0
3.7272358,-1.096411,-0.51150322,0.81576151,-0.50251311,0.28638041,0
0.81802058,-3.6430676,1.8947067,0.5143165,-0.85702509,-0.031408608,0
-1.8433249,2.0831933,-3.1735334,-0.85556877,0.37017143,-0.36190468,0
-3.1383059,-2.6087484,-0.46617693,-0.57861733,-0.58202416,-0.57135791,0
-2.8332672,0.89505053,1.8890725,-0.48313332,-0.31980741,0.81504941,0
-3.0037727,1.8773588,-0.23228335,-0.79042405,0.55970383,-0.24892086,0
3.1960859,-1.5309879,0.31302714,0.81575084,-0.50254023,0.28636342,0
-2.022469,1.2325563,2.5199964,-0.48313332,-0.31980741,0.81504941,0
1.427955,-2.2512152,3.2731142,-0.48313332,-0.31980741,0.81504941,0
3.3765838,1.4528341,0.97742021,0.7599777,0.30906925,0.57176059,0
1.8577776,-1.6839862,-2.4494216,0.48313332,0.31980741,-0.81504941,0
0.44406939,4.1130285,-0.77002645,-0.17487466,0.94739324,0.26807642,0
-2.3879786,-3.1423376,0.3888135,-0.48313332,-0.31980741,0.81504941,0
-1.4650638,3.0002747,-2.5193267,-0.72535157,0.66755623,-0.16802919,0
-1.6911411,2.0025249,2.9621844,-0.48313332,-0.31980741,0.81504941,0
-3.8279786,0.5789876,1.083162,-0.48313332,-0.31980741,0.81504941,0
-0.39161992,1.9900684,3.5381801,-0.48313332,-0.31980741,0.81504941,0
0.27194381,-3.6865454,0.39025044,0.25090355,-0.9424324,-0.2210626,0
-1.3671319,1.8722441,3.1894152,-0.48313332,-0.31980741,0.81504941,0
1.0066714,1.2120461,4.1855593,0.5908851,0.5678463,0.57306671,0
1.7402533,1.4450651,2.7443619,0.65728414,0.48250175,0.57893842,0
-1.5266993,2.8986113,-2.2221231,-0.75364089,0.62573195,-0.20120895,0
-3.0764861,1.7655332,-0.8244133,-0.82458103,0.47917169,-0.30076689,0
1.0219085,-1.1018798,3.4021544,-0.48313332,-0.31980741,0.81504941,0
-0.99102044,2.3582139,3.1365912,0.0098391771,0.92886138,0.37029696,0
-1.6958461,-2.5776567,1.2505456,-0.48313332,-0.31980741,0.81504941,0
2.7841632,-2.1880093,-2.0979242,0.48313332,0.31980741,-0.81504941,0
-0.033308506,3.1939735,-1.831421,0.48313332,0.31980741,-0.81504941,0
2.7755833,-0.71987724,-1.9055958,0.48313332,0.31980741,-0.81504941,0
1.2079833,-0.86619949,-2.5453503,0.48313332,0.31980741,-0.81504941,0
-1.5950205,1.9465556,-3.0907817,0.48313332,0.31980741,-0.81504941,0
-2.6898859,1.6613567,2.2329264,-0.48313332,-0.31980741,0.81504941,0
-0.61860871,-1.3852819,2.213124,-0.48313332,-0.31980741,0.81504941,0
-1.8224435,2.8382192,-1.9499776,-0.7387892,0.64847976,-0.18347961,0
-2.8711505,-2.3982892,-0.95033193,-0.59654951,-0.56114769,-0.57379603,0
-0.83282089,-3.059551,-1.7235022,-0.22528249,-0.85415292,-0.46869037,0
1.4879863,-0.63152337,3.8716195,-0.48313332,-0.31980741,0.81504941,0
0.29638338,-1.8395554,2.5340054,-0.48313332,-0.31980741,0.81504941,0
-1.9726479,-2.814513,-1.3494134,-0.47060955,-0.69014049,-0.549757,0
1.4131463,3.7379251,-0.33170974,0.079303026,0.91109288,0.40450078,0
2.1562326,2.7206428,0.95453393,0.43678224,0.71875709,0.54093391,0
3.1793609,1.5163267,-0.35186356,0.48313332,0.31980741,-0.81504941,0
0.56871533,3.7609539,0.45966733,0.054917574,0.91800123,0.39275658,0
-3.9371717,-0.7547183,0.0048079491,-0.85527122,-0.026791066,-0.51748765,0
-1.5956725,0.048829556,-3.6732275,-0.80798548,-0.1957245,-0.55574393,0
-1.279741,-4.0558686,0.93917263,-0.48313332,-0.31980741,0.81504941,0
-3.5618763,1.7850494,1.8029715,-0.48313332,-0.31980741,0.81504941,0
3.6893849,-1.0305083,-0.0011878014,0.82798243,-0.46953541,0.30656433,0
-2.3752584,-1.45594,1.1264604,-0.48313332,-0.31980741,0.81504941,0
-0.72200775,3.3126552,-2.2782977,0.48313332,0.31980741,-0.81504941,0
0.067996979,3.9826472,-1.3231726,-0.31151193,0.93277729,0.18134755,0
1.5392008,3.3828416,-1.0405769,0.48313332,0.31980741,-0.81504941,0
-0.75528407,2.3402033,-2.3548691,0.48313332,0.31980741,-0.81504941,0
-3.4183924,-1.1612101,0.56025875,-0.48313332,-0.31980741,0.81504941,0
3.1083918,2.352582,-0.083154649,0.48313332,0.31980741,-0.81504941,0
-0.20374703,1.9716864,-2.298656,0.48313332,0.31980741,-0.81504941,0
-0.55508852,2.6120322,-2.254849,0.48313332,0.31980741,-0.81504941,0
1.2652048,-2.0264447,-2.9409392,0.48313332,0.31980741,-0.81504941,0
-3.4951816,-1.2167034,-0.71236753,-0.79834914,-0.22128838,-0.56006253,0
-0.18226033,-0.808249,-3.2936203,0.48313332,0.31980741,-0.81504941,0
-0.7578826,3.5351045,-0.41936803,-0.41035688,0.90503711,0.11187112,0
1.3925252,2.2994294,-1.4485036,0.48313332,0.31980741,-0.81504941,0
-1.2946711,-4.1732268,0.89588189,-0.48313332,-0.31980741,0.81504941,0
-0.11500534,-0.065689564,3.1465061,-0.48313332,-0.31980741,0.81504941,0
-0.91359133,0.38285565,-3.5792656,0.48313332,0.31980741,-0.81504941,0
2.3385706,1.7266324,-0.87568009,0.48313332,0.31980741,-0.81504941,0
-0.31486082,3.6347027,-1.3375528,-0.40781903,0.9059515,0.11373413,0
-0.23416996,-0.9722991,-3.7592633,0.48313332,0.31980741,-0.81504941,0
-2.7853801,-0.41648129,-2.236927,-0.80878443,-0.19352163,-0.55535322,0
2.5310717,-1.738636,2.0002675,0.84292972,-0.42161912,0.33422571,0
0.88573557,-1.01686,3.0259461,-0.48313332,-0.31980741,0.81504941,0
1.748266,3.2464824,-0.75267541,0.48313332,0.31980741,-0.81504941,0
-1.1750722,0.51351655,-3.5828185,0.48313332,0.31980741,-0.81504941,0
-2.3770075,2.4741492,-0.062885046,-0.66162878,0.74304777,-0.10063529,0
-2.6327908,-1.4615314,-1.7702186,-0.69481689,-0.42637759,-0.57916468,0
-1.1869345,-0.53783941,2.1552558,-0.48313332,-0.31980741,0.81504941,0
-3.9449584,0.27422523,0.28856611,-0.86721927,0.30288008,-0.39521438,0
3.1404738,-0.020780802,1.8161833,0.85481465,0.02908662,0.51811767,0
-0.37855554,-2.629468,-2.2260222,-0.24136692,-0.84618235,-0.47509724,0
0.60070217,0.46617317,-2.5378127,0.48313332,0.31980741,-0.81504941,0
1.2456887,2.0986829,2.7106447,0.46833527,0.69213498,0.54919147,0
3.0658572,-1.1032805,-1.7411828,0.48313332,0.31980741,-0.81504941,0
-2.8162491,-1.487442,0.76321054,-0.48313332,-0.31980741,0.81504941,0
-0.64397168,1.1864464,-3.0897596,0.48313332,0.31980741,-0.81504941,0
1.7538977,1.1485262,-1.5319048,0.48313332,0.31980741,-0.81504941,0
2.0304413,2.7204566,-0.64409226,0.48313332,0.31980741,-0.81504941,0
2.003432,-0.88356102,3.868166,0.86414832,-0.024452358,0.50264287,0
-0.58299792,-1.6247423,2.1050518,-0.48313332,-0.31980741,0.81504941,0
1.0319616,0.72291088,3.9227436,-0.48313332,-0.31980741,0.81504941,0
1.2629484,-1.7342448,-2.8044705,0.48313332,0.31980741,-0.81504941,0
3.127111,-0.41382718,-1.3331076,0.48313332,0.31980741,-0.81504941,0
1.8111291,-2.6420484,2.244611,0.75356048,-0.62586033,0.20111102,0
2.6550641,-2.7023578,-0.030846357,0.65650064,-0.74824888,0.095554709,0
1.2011784,-0.99035764,3.3284526,-0.48313332,-0.31980741,0.81504941,0
-2.7804008,0.58905816,1.4644482,-0.48313332,-0.31980741,0.81504941,0
-3.6282094,1.6795759,1.4156919,-0.68230325,0.72088778,-0.12158555,0
0.95158327,-0.77394855,3.4930453,-0.48313332,-0.31980741,0.81504941,0
0.046052694,-3.0791156,1.7255026,-0.48313332,-0.31980741,0.81504941,0
-2.1109953,-2.5210114,-1.6061192,-0.51091826,-0.65299189,-0.55907434,0
-0.12057352,1.375495,3.5248377,-0.48313332,-0.31980741,0.81504941,0
3.3478632,-1.3483641,-1.6712577,0.48313332,0.31980741,-0.81504941,0
0.51607728,3.5186071,0.73360002,0.084201396,0.90961719,0.4068253,0
0.74771762,-2.1557927,2.8134348,-0.48313332,-0.31980741,0.81504941,0
-0.90210396,1.1462791,2.8073123,-0.48313332,-0.31980741,0.81504941,0
-0.15191853,-0.082724571,-3.1932325,0.48313332,0.31980741,-0.81504941,0
-0.082653761,3.5914087,0.97649324,-0.023793459,0.93535519,0.3529087,0
-0.82914972,-4.050539,0.56100166,0.085168123,-0.94365478,-0.31978449,0
2.0165815,-0.84075022,3.7475812,0.86342084,-0.019634277,0.50410211,0
-1.4823399,3.3468938,-0.62553859,-0.51145881,0.85864532,0.033738136,0
3.0672724,1.3274001,1.3663878,0.73451221,0.3586053,0.57610238,0
2.6021655,1.6378683,1.9847938,0.69071805,0.43284267,0.57927179,0
-2.1127176,-0.55113852,-2.8435404,-0.77032226,-0.28720424,-0.56931311,0
3.7982526,-1.6838329,-1.6895154,0.48313332,0.31980741,-0.81504941,0
0.23738444,-1.7490696,2.3342779,-0.48313332,-0.31980741,0.81504941,0
0.43443185,1.1567714,3.5449071,-0.48313332,-0.31980741,0.81504941,0
1.2577744,-3.4265728,0.3258214,0.48586273,-0.87234765,-0.054287195,0
-1.6048639,3.2620606,0.20625925,-0.4627015,0.88355172,0.07241255,0
-2.9072175,-0.63381791,1.1822592,-0.48313332,-0.31980741,0.81504941,0
0.20265281,0.38754606,3.3647754,-0.48313332,-0.31980741,0.81504941,0
-2.5891953,2.2282166,-1.4914272,-0.78262973,0.5750826,-0.23826641,0
-0.25441968,1.7412117,3.8119764,-0.48313332,-0.31980741,0.81504941,0
0.96278501,3.0997934,1.5267881,0.24594975,0.84384692,0.47689739,0
0.36257839,-3.6520295,0.88917732,0.31849134,-0.93132263,-0.17663968,0
3.5831339,2.2087147,0.4787699,0.7033608,0.41260663,0.57882583,0
3.8766127,-1.0282874,-0.9351449,0.48313332,0.31980741,-0.81504941,0
-1.0581353,2.5787888,-2.8491712,0.48313332,0.31980741,-0.81504941,0
3.4632454,-0.51469648,1.0344994,0.87551832,-0.16895011,0.45268488,0
-1.2178231,2.3501422,-2.7970059,0.48313332,0.31980741,-0.81504941,0
-1.3737246,2.3021953,-2.8739271,0.48313332,0.31980741,-0.81504941,0
1.0663743,3.8348131,0.21957564,0.036934078,0.92263037,0.38391301,0
0.21193135,-0.49823093,2.8892875,-0.48313332,-0.31980741,0.81504941,0
0.32474273,-0.29538345,-3.0396757,0.48313332,0.31980741,-0.81504941,0
1.438478,-1.737922,-2.7064264,0.48313332,0.31980741,-0.81504941,0
-0.029178143,1.0647936,-2.520349,0.48313332,0.31980741,-0.81504941,0
-1.38664,1.4081285,-3.1377954,0.48313332,0.31980741,-0.81504941,0
2.206017,-0.79839897,-2.0023587,0.48313332,0.31980741,-0.81504941,0
2.052357,-0.77949262,-2.3272181,0.48313332,0.31980741,-0.81504941,0
3.3528547,2.6066282,0.024980247,0.65086055,0.49147165,0.5786503,0
1.7583052,-1.177049,3.8065786,0.87488115,-0.14004382,0.46364939,0
-2.2678943,-1.928978,0.72797143,-0.48313332,-0.31980741,0.81504941,0
0.94212013,0.64793754,4.042963,-0.48313332,-0.31980741,0.81504941,0
3.186029,-0.28714323,1.7562089,0.87345147,-0.11168489,0.47392935,0
2.6911242,0.99475229,2.184988,0.76146597,0.30599216,0.57143539,0
-1.0368886,2.3943968,-2.7712641,0.48313332,0.31980741,-0.81504941,0
-1.2530472,0.10286188,-3.7151728,0.48313332,0.31980741,-0.81504941,0
-3.7309821,-0.71426487,-0.28473282,-0.8440069,-0.077492446,-0.53070462,0
3.4166112,0.290766,-1.0887984,0.48313332,0.31980741,-0.81504941,0
0.2710647,-0.57547045,3.1421502,-0.48313332,-0.31980741,0.81504941,0
-0.36907578,-4.0125446,0.61638689,0.15022975,-0.94737732,-0.28267881,0
0.78175855,-3.6546981,0.82336569,0.40596598,-0.90661222,-0.11509192,0
2.5561118,-1.7229018,2.3638794,0.85771036,-0.35982138,0.36723524,0
2.0596611,0.66300464,2.9242954,0.79218364,0.23676828,0.56248188,0
2.3994534,0.6593256,-1.5778954,0.48313332,0.31980741,-0.81504941,0
2.0035007,-1.6137936,2.8245482,0.87226892,-0.25628832,0.41648924,0
-1.4532564,-3.2373409,-0.71407807,-0.24648792,-0.84357083,-0.47710803,0
-2.0431912,1.6212629,-2.9763622,-0.86735338,0.3018764,-0.39568764,0
-1.8158724,2.6751275,1.8368552,-0.30133903,0.93476796,0.18815881,0
0.032587051,-2.2048197,-3.7507896,0.48313332,0.31980741,-0.81504941,0
-0.40206575,-3.7842057,1.3354516,-0.48313332,-0.31980741,0.81504941,0
0.59050179,-1.5804055,2.5840216,-0.48313332,-0.31980741,0.81504941,0
-0.30520463,-2.2923536,-2.738435,-0.26842403,-0.8319732,-0.48556045,0
0.28044689,-1.3366814,-3.4550617,0.48313332,0.31980741,-0.81504941,0
-0.93098712,-2.9336135,-1.999096,-0.31414717,-0.80559987,-0.50231516,0
-0.72919035,-2.0968692,-3.1444898,-0.3737672,-0.7664814,-0.52230668,0
-1.4283518,-1.7659997,1.687652,-0.48313332,-0.31980741,0.81504941,0
2.0021338,0.87047386,3.3696759,0.74142796,0.34569329,0.57513541,0
-2.4276996,2.6127944,0.68221068,-0.59475392,0.80303472,-0.037456691,0
0.73577261,-2.7036917,2.6112664,-0.48313332,-0.31980741,0.81504941,0
-2.9652812,1.058604,-1.1118712,-0.86436641,0.32251048,-0.38582075,0
-3.4778214,1.614696,1.1265287,-0.73900878,0.64815652,-0.18373674,0
-3.3664188,-0.90370679,-1.1116695,-0.80921322,-0.19233353,-0.55514115,0
-3.3379989,-1.7341342,0.26943356,-0.48313332,-0.31980741,0.81504941,0
-0.42543685,2.0241754,3.4891331,-0.48313332,-0.31980741,0.81504941,0
2.7850668,-1.5235605,-2.1063442,0.48313332,0.31980741,-0.81504941,0
1.9440079,2.9509292,0.5950985,0.38637912,0.75747764,0.52624977,0
-3.3670359,0.35201335,1.3120592,-0.48313332,-0.31980741,0.81504941,0
-4.0002499,0.8401525,0.97536492,-0.48313332,-0.31980741,0.81504941,0
-2.4799404,-1.7258391,0.98929358,-0.48313332,-0.31980741,0.81504941,0
-1.3690145,1.2878848,-3.4565072,0.48313332,0.31980741,-0.81504941,0
-3.9378285,-0.25870585,0.48731375,-0.48313332,-0.31980741,0.81504941,0
-3.0249832,1.99745,-0.5858326,-0.77106434,0.59641677,-0.22303975,0
-2.1768725,-0.22073185,-3.1913581,-0.80831611,-0.19481462,-0.55558294,0
1.6249403,-2.8579071,-2.1328559,0.27017146,-0.93993008,-0.20865947,0
-0.72158456,-3.13678,-1.1524105,-0.14065504,-0.89046252,-0.43277323,0
-1.2353222,2.7332129,-2.8219495,0.48313332,0.31980741,-0.81504941,0
-2.2186637,-3.1426976,-0.64912337,-0.43363655,-0.72130716,-0.54006982,0
-2.7498467,2.2376485,1.0104094,-0.62545753,0.77748895,-0.065680265,0
-0.22618419,0.59176302,-2.9613781,0.48313332,0.31980741,-0.81504941,0
1.8005896,-2.920917,-0.2817831,0.46785885,-0.88115138,-0.068413615,0
-2.1789222,1.4266152,2.1061511,-0.48313332,-0.31980741,0.81504941,0
-0.35582495,-3.7749574,1.1547397,-0.48313332,-0.31980741,0.81504941,0
-2.8232267,1.1355393,-1.5642009,-0.86141884,0.34018111,-0.37713993,0
2.230885,-2.6599336,-1.7691026,0.42627174,-0.89904147,-0.10008484,0
0.53891432,-1.7463198,-3.6173472,0.48313332,0.31980741,-0.81504941,0
2.8112578,-2.3732641,-0.57787395,0.64223695,-0.76214534,0.081646979,0
-0.12420082,2.7239923,-2.2055688,0.48313332,0.31980741,-0.81504941,0
3.0844765,-1.8778753,-0.84275222,0.67318082,-0.73090941,0.1122458,0
1.0215808,1.3539889,-1.9080465,0.48313332,0.31980741,-0.81504941,0
0.05396121,0.14670753,3.380559,-0.48313332,-0.31980741,0.81504941,0
-1.6963809,0.098768115,-3.7106864,-0.81182498,-0.1850096,-0.55381554,0
-0.66257572,-2.8010559,1.3391833,-0.48313332,-0.31980741,0.81504941,0
-0.88628316,-2.7152715,1.6020803,-0.48313332,-0.31980741,0.81504941,0
3.1267126,-2.0346236,-0.88532162,0.71258056,-0.68452483,0.1538009,0
-0.78393316,2.6483967,-2.4466088,0.48313332,0.31980741,-0.81504941,0
-2.771651,-2.6637306,0.15139394,-0.48313332,-0.31980741,0.81504941,0
3.9074318,1.094152,0.44403553,0.838202,0.10003129,0.53610742,0
1.7819592,2.4417491,1.7313809,0.51896495,0.64514828,0.56076646,0
2.4811585,1.1042912,-1.0550944,0.48313332,0.31980741,-0.81504941,0
-0.74251962,1.8318188,3.4229386,-0.48313332,-0.31980741,0.81504941,0
0.29885566,0.68427944,3.4447594,-0.48313332,-0.31980741,0.81504941,0
1.8559643,-2.4953411,3.0105085,0.83509821,-0.44799644,0.31923372,0
1.4646587,-3.398675,2.2682321,0.6911273,-0.71080339,0.13077301,0
1.7210228,0.051257968,3.7832103,0.78543526,0.25302768,0.56486148,0
-2.0050294,-0.53963417,-3.0187833,-0.75368178,-0.32184783,-0.57304263,0
2.7017293,0.1354299,2.5598843,0.83431321,0.11415195,0.53934288,0
-4.0995274,0.81702137,0.73453975,-0.48313332,-0.31980741,0.81504941,0
-1.1898065,-2.3075905,1.2439384,-0.48313332,-0.31980741,0.81504941,0
-3.1406674,-1.2769213,0.70649749,-0.48313332,-0.31980741,0.81504941,0
-2.1437275,1.7699172,-2.484803,-0.86114091,0.34174198,-0.37636268,0
-3.5826364,-0.92490292,0.44388378,-0.48313332,-0.31980741,0.81504941,0
-1.5252554,2.4992769,2.5093343,-0.16680825,0.9474737,0.27288958,0
-0.43595964,-0.2531631,-3.6296773,0.48313332,0.31980741,-0.81504941,0
2.8660431,1.8233964,-0.4700228,0.48313332,0.31980741,-0.81504941,0
-0.22324514,-3.9116626,0.80387139,0.19603521,-0.94678169,-0.25529319,0
0.38788176,4.1028175,-0.82920623,-0.17243665,0.94742638,0.26953459,0
0.39909863,-3.6756887,-0.28427577,0.17713737,-0.94735563,-0.26672041,0
0.49169904,-0.10794377,-2.6780715,0.48313332,0.31980741,-0.81504941,0
2.6085668,-0.064226866,-1.4860713,0.48313332,0.31980741,-0.81504941,0
1.1453531,-3.3787584,0.20915794,0.43687695,-0.89479083,-0.092130482,0
-2.3038142,-3.4307766,0.30593592,-0.48313332,-0.31980741,0.81504941,0
2.569134,3.5813718,-0.35744071,0.48313332,0.31980741,-0.81504941,0
0.39642048,3.9587069,-0.69546628,-0.1961031,0.94677877,0.25525182,0
1.6751828,-1.2331929,3.7251508,-0.48313332,-0.31980741,0.81504941,0
