-4.0020404,3.1887603,1.6745923,-0.51652616,0.85451555,0.054801181,0
-3.0667093,-1.884195,-0.82222366,-0.84461594,-0.49792719,-0.19670314,0
1.85816,-0.37286365,-3.3631258,0.28762043,0.233426,-0.92886305,0
0.42348719,-5.3865943,-2.4843667,0.51652616,-0.85451555,-0.054801181,0
-2.0872083,4.6537852,0.23485672,-0.51652616,0.85451555,0.054801181,0
-1.1113887,0.46601737,-3.3653228,-0.19047672,-0.052269012,-0.98029906,0
-2.4221845,-1.6950481,-1.5271938,-0.77582884,-0.43995947,-0.45224428,0
3.4846826,-3.6594858,-0.80490887,0.51652616,-0.85451555,-0.054801181,0
1.3877752,-5.2112365,1.5665275,0.51652616,-0.85451555,-0.054801181,0
-4.4602156,3.3504076,-1.2649024,-0.51652616,0.85451555,0.054801181,0
0.82111716,3.772501,-2.1085925,0.66141009,0.43880883,-0.60826272,0
-3.3575017,2.5784349,-2.9252481,-0.40901113,-0.1899945,-0.89253092,0
1.587926,-4.8408785,0.48285627,0.51652616,-0.85451555,-0.054801181,0
-1.6158974,4.1304336,-3.1385443,0.18789345,0.17554994,-0.96637368,0
1.7055211,-4.9077544,-1.4946048,0.51652616,-0.85451555,-0.054801181,0
-2.803798,3.8517184,1.9741693,-0.51652616,0.85451555,0.054801181,0
1.2358496,-5.1405969,1.2586851,0.51652616,-0.85451555,-0.054801181,0
0.36786556,-4.7493701,2.5756447,-0.53924739,-0.37433603,0.75437701,0
-4.4751301,3.1847324,-1.4016453,-0.51652616,0.85451555,0.054801181,0
-4.2893677,0.98112464,-1.0416787,-0.8219465,-0.47686532,-0.31145269,0
0.73901629,4.5435286,1.9995031,0.75916958,0.4274106,0.49089849,0
-0.71784782,5.625752,-0.095089436,-0.51652616,0.85451555,0.054801181,0
0.51385069,-5.2502728,-0.88345027,0.51652616,-0.85451555,-0.054801181,0
0.72597003,-3.3099606,-3.5940154,-0.33816576,-0.14477532,-0.92988372,0
-4.0507727,3.3707123,-1.4176003,-0.51652616,0.85451555,0.054801181,0
-0.037059009,5.8178129,-1.1683738,0.75137568,0.4830142,-0.44959062,0
2.431653,-4.6512585,2.4989648,0.51652616,-0.85451555,-0.054801181,0
1.6459434,-4.9025755,0.056201458,0.51652616,-0.85451555,-0.054801181,0
3.2316623,-0.63616991,2.4664493,0.6086849,0.32140917,0.7253952,0
-0.025684357,6.0753565,-0.94116092,-0.51652616,0.85451555,0.054801181,0
-4.534029,3.2068753,-2.1677527,-0.51652616,0.85451555,0.054801181,0
2.1010005,-4.910974,2.8137889,0.51652616,-0.85451555,-0.054801181,0
-1.8678808,2.8133669,-3.2497027,-0.034267068,0.043320015,-0.99847323,0
-1.4183578,4.9511089,1.8903947,-0.51652616,0.85451555,0.054801181,0
-0.47226512,5.5509057,1.5783226,-0.51652616,0.85451555,0.054801181,0
2.8694754,-3.9772973,-3.2098765,0.51652616,-0.85451555,-0.054801181,0
-4.9590044,3.0935106,-0.38155651,-0.51652616,0.85451555,0.054801181,0
-4.1138697,3.2946401,0.27290979,-0.51652616,0.85451555,0.054801181,0
-1.087502,-3.5605352,1.8035697,-0.70792478,-0.4621681,0.53408146,0
5.2219553,-2.7315207,-1.3439813,0.51652616,-0.85451555,-0.054801181,0
4.6168871,-2.973999,0.88369811,0.51652616,-0.85451555,-0.054801181,0
-0.574965,-0.71276069,-3.5579383,-0.19511491,-0.05514133,-0.97922885,0
4.573216,-3.2248712,0.15589249,0.51652616,-0.85451555,-0.054801181,0
-3.806335,1.1418588,-2.1145072,-0.69868982,-0.38360661,-0.60388571,0
0.69788927,5.9736857,-0.031488895,0.85412222,0.51870489,-0.037682533,0
-1.3701346,-4.5765762,0.85421467,-0.81805271,-0.51136708,0.26323634,0
-2.6801915,4.3901954,0.44987535,-0.51652616,0.85451555,0.054801181,0
-4.3820257,3.1980348,3.1478434,-0.51652616,0.85451555,0.054801181,0
-1.4573413,4.7268286,0.64539838,-0.51652616,0.85451555,0.054801181,0
-1.4963288,-4.3821669,-0.85679197,-0.83989477,-0.49315178,-0.22666663,0
2.621057,2.3641901,-0.75248981,0.83689272,0.51734024,-0.17880005,0
-1.325749,-4.3198385,0.789994,-0.8189249,-0.51168001,0.25989491,0
-0.80380893,-5.6188192,-0.095720291,-0.85535455,-0.51787603,0.013144135,0
-3.3733194,3.6898785,0.59804857,-0.51652616,0.85451555,0.054801181,0
2.7090232,-1.2434504,3.0045428,0.44573402,0.21368283,0.86928719,0
3.1129897,-3.7543883,-1.5319502,0.51652616,-0.85451555,-0.054801181,0
-4.3922048,3.5468988,-2.1139748,-0.51652616,0.85451555,0.054801181,0
-3.448184,3.8301611,-2.2170427,-0.51652616,0.85451555,0.054801181,0
-0.47824174,5.7337675,-0.71629572,-0.51652616,0.85451555,0.054801181,0
3.5929494,-3.5011868,0.43857643,0.51652616,-0.85451555,-0.054801181,0
2.5810475,-3.459403,-3.5363367,0.11975968,0.13546486,-0.98351753,0
-0.12545431,6.0908365,-1.3419209,-0.51652616,0.85451555,0.054801181,0
-0.23632383,-5.7667656,-1.6172957,0.51652616,-0.85451555,-0.054801181,0
-0.53363085,2.6017349,-3.0719719,0.1805203,0.1712328,-0.96855128,0
1.6501956,-2.4750369,3.1869109,0.023770094,-0.049665689,0.99848282,0
1.6441203,2.0325577,-2.7722032,0.52831459,0.36840615,-0.7649579,0
-3.8163152,3.4741707,1.4897975,-0.51652616,0.85451555,0.054801181,0
4.7973862,-2.5222383,1.7289612,0.72505075,0.40242675,0.55888611,0
4.9901876,-2.7040353,1.0176681,0.51652616,-0.85451555,-0.054801181,0
1.6261511,-4.9788842,1.1229663,0.51652616,-0.85451555,-0.054801181,0
-3.3078151,0.46585011,-2.0958815,-0.68588042,-0.37457997,-0.62390482,0
-2.1247354,4.534544,2.1537538,-0.51652616,0.85451555,0.054801181,0
-1.3181312,5.2042556,-2.6012664,0.39994079,0.29735035,-0.86696595,0
-2.3668509,-1.6231967,1.9321672,-0.6584878,-0.43731382,0.61249518,0
0.35201359,-4.1460495,2.7387276,-0.44869432,-0.32461911,0.83264387,0
-0.21967053,1.5712744,3.6908779,0.18324482,0.047794625,0.98190451,0
0.15578294,-2.040324,3.259984,-0.23874903,-0.20518629,0.94915611,0
2.0939512,-4.3044038,-3.937403,-0.13716406,-0.019398272,-0.99035811,0
-0.91548491,0.35544777,3.6914141,-0.072921455,-0.10766524,0.99150914,0
-0.11549568,-5.0503387,-2.1479261,-0.72537732,-0.40266228,-0.55829251,0
1.1913844,-4.9108286,-0.54493618,0.51652616,-0.85451555,-0.054801181,0
-1.7778586,4.6584277,-1.6013526,-0.51652616,0.85451555,0.054801181,0
0.66218472,1.7502402,-3.0573606,0.3761825,0.28395104,-0.88196278,0
3.9801285,-3.4804931,-1.4056246,0.51652616,-0.85451555,-0.054801181,0
-1.9714952,-3.2794831,0.68341541,-0.83477771,-0.51677775,0.18996513,0
2.067256,-4.487854,-1.9009438,0.51652616,-0.85451555,-0.054801181,0
-2.5399914,3.9775167,2.8303862,-0.51652616,0.85451555,0.054801181,0
-4.4247432,3.2817082,-0.39775264,-0.51652616,0.85451555,0.054801181,0
-1.2794819,-2.6854331,-2.5167654,-0.65950662,-0.35619819,-0.66194671,0
0.43953776,-4.7107997,-3.0386422,-0.549595,-0.28177398,-0.78647822,0
-2.0940278,4.5146322,-2.2575891,-0.51652616,0.85451555,0.054801181,0
-2.5415218,4.1662421,2.3253193,-0.51652616,0.85451555,0.054801181,0
2.7695858,-4.3536615,3.2090254,0.068423927,-0.022604495,0.9974001,0
-3.3815513,-0.83828616,-0.066379309,-0.85580492,-0.5130744,-0.065972924,0
1.6719499,4.2279739,-0.72983146,0.8262468,0.51419181,-0.23004973,0
-3.7570667,3.6399531,1.7479571,-0.51652616,0.85451555,0.054801181,0
-3.5990477,3.6832294,0.96486801,-0.51652616,0.85451555,0.054801181,0
1.8347669,3.4922504,-0.70104289,0.8344236,0.51668,-0.19177854,0
-1.6863015,0.60011554,3.4165835,-0.21582317,-0.19185697,0.95739806,0
1.5839669,-4.9017935,-2.0210423,0.51652616,-0.85451555,-0.054801181,0
1.8932713,-4.3101773,-2.8639121,0.51652616,-0.85451555,-0.054801181,0
3.0869143,-0.86646652,2.6754735,0.5772543,0.30023175,0.75936675,0
-1.7004521,0.66402328,3.4039874,-0.22270328,-0.19586249,0.95500833,0
1.0466206,-5.4046865,2.7055678,0.51652616,-0.85451555,-0.054801181,0
-3.6161828,2.9971232,3.6056402,-0.29848605,-0.23967116,0.92383093,0
3.4104509,-2.409966,3.0317264,0.43516487,0.20684648,0.87626797,0
4.386405,-3.385756,-0.011795521,0.51652616,-0.85451555,-0.054801181,0
-4.1192169,3.2415915,2.1412249,-0.51652616,0.85451555,0.054801181,0
-2.8519335,3.2405605,3.5608439,-0.15854365,-0.15833488,0.97457361,0
1.1451204,5.2439556,-0.35183716,0.84646481,0.51922208,-0.11792189,0
0.49210143,-5.7277246,0.025423765,0.51652616,-0.85451555,-0.054801181,0
0.46135473,-5.5126019,-2.2643318,0.51652616,-0.85451555,-0.054801181,0
-3.9174018,3.5912876,0.40909368,-0.51652616,0.85451555,0.054801181,0
0.5580942,-5.4044728,0.46700597,0.51652616,-0.85451555,-0.054801181,0
-1.7009211,5.0670609,-0.60263872,-0.51652616,0.85451555,0.054801181,0
-3.808121,1.9230955,3.0003934,-0.54509473,-0.37749854,0.7485764,0
-2.9775126,-1.5691885,-0.34659338,-0.85364789,-0.50888211,-0.11101305,0
-2.0987387,4.87712,-2.9846809,-0.51652616,0.85451555,0.054801181,0
0.44391608,-5.4386339,-1.4254179,0.51652616,-0.85451555,-0.054801181,0
3.6371956,-3.8733721,2.0692098,0.51652616,-0.85451555,-0.054801181,0
-2.2759721,4.1397724,2.6306562,-0.51652616,0.85451555,0.054801181,0
-4.5000257,1.8962688,2.3160734,-0.65749806,-0.43680686,0.6139186,0
4.2195163,-3.2903123,0.20246994,0.51652616,-0.85451555,-0.054801181,0
-2.5514209,3.1041293,-3.3162458,-0.14012104,-0.021214589,-0.98990691,0
-0.93044913,-5.202177,-0.29595852,-0.85590726,-0.5171141,-0.0039473772,0
-4.1718893,3.3318558,0.3355329,-0.51652616,0.85451555,0.054801181,0
1.8102937,-1.0380025,-3.4482193,0.17320549,0.16694482,-0.97063333,0
1.7633667,-4.6046219,0.56453121,0.51652616,-0.85451555,-0.054801181,0
-0.84836626,4.9751906,2.4168959,-0.51652616,0.85451555,0.054801181,0
1.4444671,4.297514,1.3705773,0.81661928,0.47234702,0.33169413,0
2.7533638,-4.1364565,1.7437043,0.51652616,-0.85451555,-0.054801181,0
2.3851199,-4.1425719,-0.73978639,0.51652616,-0.85451555,-0.054801181,0
3.0390742,-3.891221,1.5631405,0.51652616,-0.85451555,-0.054801181,0
3.5558019,-3.3187766,-2.7904098,0.51652616,-0.85451555,-0.054801181,0
-0.94687319,-0.17943364,-3.2627344,-0.24424714,-0.085693732,-0.96591902,0
0.43749475,0.40257335,3.4236119,0.17289776,0.041401431,0.98406899,0
2.4973073,-4.444849,2.863071,0.51652616,-0.85451555,-0.054801181,0
-2.8333583,-1.8138417,0.23151636,-0.85375237,-0.51885629,0.043529928,0
1.7645316,1.0587399,3.0509071,0.50309354,0.25106931,0.8269586,0
4.8226986,-3.1057448,0.46463478,0.51652616,-0.85451555,-0.054801181,0
3.7259374,-2.6000686,2.6869364,0.43515366,0.20683923,0.87627518,0
-0.33878356,5.6208868,-0.0026330948,-0.51652616,0.85451555,0.054801181,0
-0.26622772,-5.527297,1.0373127,-0.78254157,-0.49706346,0.37490869,0
0.13162541,-4.3987432,-3.0458109,-0.57475919,-0.29856011,-0.76191431,0
-0.38132375,5.7705002,-0.85309291,-0.51652616,0.85451555,0.054801181,0
3.730387,-0.1466608,-1.0549612,0.80682856,0.50713587,-0.30305248,0
-1.7131497,4.547368,1.1799915,-0.51652616,0.85451555,0.054801181,0
-1.6168466,5.2049456,-2.7067277,-0.51652616,0.85451555,0.054801181,0
2.0406742,-4.6732397,2.2549639,0.51652616,-0.85451555,-0.054801181,0
1.4845476,-4.6656618,-3.1739905,0.51652616,-0.85451555,-0.054801181,0
-4.5027976,2.9144254,-0.16780436,-0.51652616,0.85451555,0.054801181,0
-1.1230037,1.4837971,3.7968593,-0.017982602,-0.074810892,0.99703544,0
-3.3776078,3.8036227,0.79139727,-0.51652616,0.85451555,0.054801181,0
-1.0576217,5.1913328,-0.42791915,-0.51652616,0.85451555,0.054801181,0
-1.3625369,4.9159017,3.3362894,-0.51652616,0.85451555,0.054801181,0
4.2127757,-2.4971657,-2.8276768,0.55794513,0.38442561,-0.73546857,0
3.7324204,-3.5715413,-1.8294191,0.51652616,-0.85451555,-0.054801181,0
-1.0791146,4.826766,2.5862432,-0.51652616,0.85451555,0.054801181,0
0.72839069,-3.6476231,-3.481564,-0.30176121,-0.12176363,-0.94557565,0
3.2238827,0.9314515,1.6639903,0.78581995,0.44763419,0.42674381,0
3.0053177,-3.8644304,0.56745982,0.51652616,-0.85451555,-0.054801181,0
3.9870009,-3.5178328,-0.10235107,0.51652616,-0.85451555,-0.054801181,0
0.48499203,-5.2951593,-2.4489012,0.51652616,-0.85451555,-0.054801181,0
4.9300156,-2.4501281,-2.2393737,0.68828529,0.4524132,-0.56708533,0
-4.5215907,0.77156377,1.3506906,-0.81170344,-0.50901639,0.28642571,0
-1.6999385,2.2682688,-3.2200592,-0.096343994,0.0055951774,-0.99533224,0
-1.4016125,-1.2658272,-3.2529225,-0.45905441,-0.22232115,-0.86014056,0
-1.606251,-0.59385896,-2.9104886,-0.43582219,-0.2072711,-0.87584084,0
-3.6123633,3.6616445,2.9397435,-0.51652616,0.85451555,0.054801181,0
-3.2822959,3.3461013,-2.9794047,-0.2921713,-0.11572555,-0.94933826,0
-3.992311,3.1636853,1.9220731,-0.51652616,0.85451555,0.054801181,0
-2.5184236,4.253674,0.78359544,-0.51652616,0.85451555,0.054801181,0
0.71974826,-5.6692567,2.1310368,0.51652616,-0.85451555,-0.054801181,0
-2.8957076,4.1264091,-0.084346831,-0.51652616,0.85451555,0.054801181,0
0.25039461,6.0615296,-0.44387293,-0.51652616,0.85451555,0.054801181,0
-1.0546197,5.0430779,1.692152,-0.51652616,0.85451555,0.054801181,0
0.93980479,-5.4732127,1.4836676,0.51652616,-0.85451555,-0.054801181,0
4.5958819,-2.9540873,-0.77163899,0.51652616,-0.85451555,-0.054801181,0
0.48690075,4.959137,-1.6310123,0.71499175,0.46563354,-0.52150953,0
-2.966357,3.9315491,0.36568809,-0.51652616,0.85451555,0.054801181,0
3.3422732,-3.5763712,-0.78109491,0.51652616,-0.85451555,-0.054801181,0
-1.1713642,5.0500188,2.4841614,-0.51652616,0.85451555,0.054801181,0
2.8199785,-4.3418636,0.60075349,0.51652616,-0.85451555,-0.054801181,0
-1.079742,5.2209735,1.3599849,-0.51652616,0.85451555,0.054801181,0
-4.448215,3.1132822,-1.0355037,-0.51652616,0.85451555,0.054801181,0
2.970535,-4.2539902,0.3441537,0.51652616,-0.85451555,-0.054801181,0
1.9277214,2.571254,1.6184015,0.77511728,0.43941769,0.45398748,0
-0.34275526,-6.0001779,0.2719841,0.51652616,-0.85451555,-0.054801181,0
-2.7117672,4.3461108,-2.4160969,-0.51652616,0.85451555,0.054801181,0
-0.6802423,-5.7148404,0.82793403,-0.81303751,-0.50952017,0.28170723,0
-0.734478,3.8475661,3.5664649,0.33752567,0.14436951,0.93017912,0
0.39688319,-5.5047951,0.14830327,0.51652616,-0.85451555,-0.054801181,0
-3.3210282,3.9940743,-2.0854299,-0.51652616,0.85451555,0.054801181,0
1.6736397,1.0943666,-2.9696355,0.42323202,0.31041706,-0.85118496,0
-3.204567,4.0181255,0.91731125,-0.51652616,0.85451555,0.054801181,0
-3.3889728,4.1128454,-3.0445437,-0.51652616,0.85451555,0.054801181,0
-2.1427629,4.4902177,3.4316225,-0.51652616,0.85451555,0.054801181,0
5.3030291,-2.1452532,-1.2987826,0.79645085,0.50295717,-0.33570826,0
-4.1255627,1.6252222,-1.9213274,-0.72084665,-0.39940095,-0.56644362,0
-3.1893373,3.9176831,0.49302679,-0.51652616,0.85451555,0.054801181,0
2.9988542,1.4951525,-1.1561098,0.81729174,0.51109195,-0.26611847,0
-4.8300552,1.645895,0.84687746,-0.83071548,-0.51560205,0.20991945,0
0.16247237,5.8469105,1.273313,-0.51652616,0.85451555,0.054801181,0
1.6489971,-0.99944997,3.4757853,0.25470519,0.092227399,0.96261048,0
-1.7855878,4.9371061,-2.2631736,-0.51652616,0.85451555,0.054801181,0
2.6028497,-4.3963294,2.652405,0.51652616,-0.85451555,-0.054801181,0
2.3428912,-4.6374078,1.2704055,0.51652616,-0.85451555,-0.054801181,0
-0.55005288,5.6672568,0.33456945,-0.51652616,0.85451555,0.054801181,0
-1.6015153,3.0704076,3.8061378,0.13285667,0.016753778,0.99099356,0
3.0267096,-3.680789,-2.4922199,0.51652616,-0.85451555,-0.054801181,0
-0.9846189,-4.280612,-1.8298392,-0.76921213,-0.43494171,-0.46812171,0
0.99861681,-5.185092,-1.9699767,0.51652616,-0.85451555,-0.054801181,0
-2.2786317,-3.2726369,0.41879869,-0.84310794,-0.51872182,0.14176226,0
-3.2841704,3.9468594,1.032596,-0.51652616,0.85451555,0.054801181,0
3.1923001,-1.5050523,-3.2190669,0.44886258,0.32471263,-0.83251667,0
-2.8480797,-0.55696809,-2.3064027,-0.66763973,-0.36183971,-0.65063703,0
-3.3914733,3.8687983,-1.2224746,-0.51652616,0.85451555,0.054801181,0
3.0889359,0.71207011,1.556211,0.74918044,0.42000812,0.51217335,0
-1.7174404,5.0384383,-3.1065903,-0.51652616,0.85451555,0.054801181,0
-2.0018797,4.2841072,3.2838135,-0.51652616,0.85451555,0.054801181,0
1.612444,1.6865916,-2.6614616,0.53567028,0.3723982,-0.75787663,0
0.38528299,5.8057051,1.7282543,0.78487998,0.44690669,0.42922884,0
0.0070824623,1.6582309,-3.3506179,0.13973212,0.14725919,-0.97917789,0
2.6038315,1.9755074,1.2514074,0.80465364,0.46250916,0.37231374,0
3.8836608,-3.3615599,-0.29587489,0.51652616,-0.85451555,-0.054801181,0
1.1723087,-0.18407181,-3.3100631,0.16662019,0.16308011,-0.97244143,0
0.99790621,-2.7674613,-3.7455196,-0.17872161,-0.044998556,-0.98286986,0
-0.70474052,2.9767954,3.7998502,0.22366083,0.072863787,0.97193956,0
-0.84147716,5.359767,0.87406588,-0.51652616,0.85451555,0.054801181,0
2.3419657,-4.2881546,-3.6164734,0.51652616,-0.85451555,-0.054801181,0
4.9481859,-2.2167726,1.4106405,0.78489447,0.44691789,0.42919052,0
1.9146829,-1.7381442,3.3963213,0.24991578,0.08923389,0.96414667,0
1.4327378,-4.7321138,-1.8143067,0.51652616,-0.85451555,-0.054801181,0
3.8243413,-3.7250457,2.7125869,0.51652616,-0.85451555,-0.054801181,0
-3.7298346,3.7968249,-2.6360655,-0.51652616,0.85451555,0.054801181,0
-3.1266468,4.0782871,1.5862048,-0.51652616,0.85451555,0.054801181,0
1.4920602,-4.6431913,-3.5647213,0.51652616,-0.85451555,-0.054801181,0
-4.4627852,0.83621788,0.87063384,-0.83553821,-0.5169844,0.18601835,0
0.93252194,-5.3950038,-1.9016283,0.51652616,-0.85451555,-0.054801181,0
1.9659814,-4.4699702,0.63238585,0.51652616,-0.85451555,-0.054801181,0
-2.5548093,4.2328086,-0.54478562,-0.51652616,0.85451555,0.054801181,0
-2.6277711,-0.083434105,-2.5338593,-0.57488286,-0.29864302,-0.76178843,0
-4.0758438,2.0530415,-2.3339295,-0.56723475,-0.29352725,-0.76947123,0
0.11955237,3.9931865,2.829396,0.56391156,0.29130828,0.77275008,0
3.8118415,-3.4975801,-1.3760068,0.51652616,-0.85451555,-0.054801181,0
1.6642158,-5.117074,2.8012712,0.51652616,-0.85451555,-0.054801181,0
1.6794169,-4.6418204,-2.121995,0.51652616,-0.85451555,-0.054801181,0
-3.9055052,-0.26211154,1.1845516,-0.80972135,-0.50825894,0.29329842,0
1.4909167,-3.062597,3.3818805,-0.013668716,-0.072220013,0.99729496,0
-4.9994941,2.6124048,0.083488107,-0.51652616,0.85451555,0.054801181,0
-5.3734937,2.3218465,-1.0556681,-0.80055726,-0.45921946,-0.38500011,0
0.6550498,-5.4527769,-1.658505,0.51652616,-0.85451555,-0.054801181,0
3.8375378,-3.4718318,1.4047782,0.51652616,-0.85451555,-0.054801181,0
0.53472066,-5.2215128,-2.4123142,0.51652616,-0.85451555,-0.054801181,0
-0.055617929,-5.7276225,-0.65772867,0.51652616,-0.85451555,-0.054801181,0
-1.3874309,-4.1229897,0.85747242,-0.79321492,-0.50161284,0.34524542,0
-1.7943044,-3.5866656,-1.1822457,-0.82149243,-0.47647604,-0.31324172,0
4.4093409,-3.0347886,0.27736342,0.51652616,-0.85451555,-0.054801181,0
-4.8194313,1.6386838,1.474355,-0.78539157,-0.49829417,0.36723697,0
1.3802199,-1.5315068,3.4820099,0.098897755,-0.0040358752,0.99508929,0
1.6549332,0.080407023,3.3841803,0.35504591,0.15549554,0.92182595,0
-3.2176754,3.7413502,-0.16809447,-0.51652616,0.85451555,0.054801181,0
-1.4856546,-2.7527127,2.0795951,-0.61206031,-0.41321155,0.67426878,0
-2.7164149,2.7203121,-3.1590915,-0.29579931,-0.11800869,-0.94793272,0
1.7752467,-4.5525832,-0.60687137,0.51652616,-0.85451555,-0.054801181,0
-3.6562197,2.3999486,-2.8587995,-0.44046623,-0.21027355,-0.87279677,0
2.1309357,-4.7154942,2.1581686,0.51652616,-0.85451555,-0.054801181,0
-0.84622002,2.1475677,3.6792355,0.13071173,0.015437573,0.99129999,0
3.5900803,-3.5299749,-2.3005948,0.51652616,-0.85451555,-0.054801181,0
0.063983202,4.7274151,2.7913013,0.60643071,0.31988254,0.72795361,0
3.2731242,-3.797235,-3.1705208,0.51652616,-0.85451555,-0.054801181,0
-4.6621184,3.0248613,-1.751943,-0.51652616,0.85451555,0.054801181,0
-4.9264627,2.9469166,0.49963975,-0.51652616,0.85451555,0.054801181,0
-2.2905998,4.3186212,2.6585069,-0.51652616,0.85451555,0.054801181,0
-1.1182193,5.1212449,-1.4859155,-0.51652616,0.85451555,0.054801181,0
1.6602545,-4.4038572,-3.7168593,0.51652616,-0.85451555,-0.054801181,0
-3.8783107,3.4149866,0.094051868,-0.51652616,0.85451555,0.054801181,0
-2.4501045,-1.6603595,1.4295411,-0.75823498,-0.48618615,0.43439928,0
-2.554915,4.5550394,-1.7264396,-0.51652616,0.85451555,0.054801181,0
-3.6002696,3.9496059,-1.0747367,-0.51652616,0.85451555,0.054801181,0
2.1509023,1.9281836,2.231967,0.69627726,0.38190106,0.60774106,0
2.2050097,-4.714551,1.561635,0.51652616,-0.85451555,-0.054801181,0
2.760932,0.050406575,-2.7854838,0.54501855,0.37745741,-0.74865252,0
2.786417,-4.3591676,2.953577,0.51652616,-0.85451555,-0.054801181,0
-1.3043358,5.0682864,1.1893506,-0.51652616,0.85451555,0.054801181,0
-3.7264369,3.4084568,1.6245333,-0.51652616,0.85451555,0.054801181,0
-2.4711332,-0.12957835,-2.7105539,-0.52149791,-0.26317582,-0.81165141,0
-2.2661924,4.5693426,0.051589012,-0.51652616,0.85451555,0.054801181,0
1.3867347,2.1939993,-2.5001597,0.52966118,0.36913764,-0.76367283,0
-0.73930073,-4.3849769,2.16962,-0.64529723,-0.43053105,0.63105828,0
4.0527487,-3.1324067,-2.0992787,0.51652616,-0.85451555,-0.054801181,0
-3.6576726,3.7433314,-2.0817995,-0.51652616,0.85451555,0.054801181,0
5.0234051,-2.1759601,-1.9860374,0.72472864,0.47036502,-0.50351274,0
0.20238829,-5.7445693,-1.8671689,0.51652616,-0.85451555,-0.054801181,0
0.18763757,-0.8348248,3.3677673,-0.062350512,-0.1013642,0.99289352,0
2.3741477,2.0725651,-1.7664547,0.71226889,0.46430129,-0.52640027,0
-0.52226257,-0.62448001,3.2579949,-0.2017656,-0.18365861,0.96206021,0
-0.2732414,-6.0914402,-0.071402073,0.51652616,-0.85451555,-0.054801181,0
3.2155795,-0.9301095,-2.7854238,0.57221752,0.39208034,-0.72030556,0
-1.9881243,-2.5035806,1.8370823,-0.72106558,-0.46859121,0.51037908,0
0.74382365,-5.3689451,-0.43972898,0.51652616,-0.85451555,-0.054801181,0
1.0187809,-5.5224686,1.9146621,0.51652616,-0.85451555,-0.054801181,0
-3.1086829,3.9881048,2.7750356,-0.51652616,0.85451555,0.054801181,0
2.7950838,-4.3454747,3.1905673,0.51652616,-0.85451555,-0.054801181,0
2.0794373,2.9190402,-1.537612,0.76170278,0.48777443,-0.4264797,0
-4.3901033,3.2098808,2.541574,-0.51652616,0.85451555,0.054801181,0
-2.0889211,-2.3055875,1.5465605,-0.7533989,-0.48395383,0.44517264,0
-1.2548664,0.62817967,3.5027533,-0.11766881,-0.13422805,0.98393929,0
1.5122331,3.9482436,1.2530603,0.82760835,0.48179212,0.28799355,0
-0.26175928,5.8055272,-0.69285011,-0.51652616,0.85451555,0.054801181,0
-3.0502656,1.3318176,-2.6747909,-0.5365544,-0.27312404,-0.79844356,0
0.79985881,1.7862186,-3.1152258,0.37676084,0.28427806,-0.88161063,0
-1.0564539,-1.2442633,-3.2024343,-0.45437837,-0.21928588,-0.86339635,0
-0.55987191,2.5531502,-3.3887308,0.177715,0.16958889,-0.96935898,0
-3.7248406,-0.31205463,-0.82950497,-0.82462037,-0.47917402,-0.30065453,0
-3.8407431,3.3342872,1.9505943,-0.51652616,0.85451555,0.054801181,0
-0.93305123,-1.9669471,2.7098215,-0.44447225,-0.32227033,0.83581465,0
4.6496086,-1.3849463,-0.84065938,0.82557607,0.51397127,-0.23293287,0
-5.3364882,2.5932121,0.05940938,-0.51652616,0.85451555,0.054801181,0
-0.45987785,5.3127923,1.3311095,-0.51652616,0.85451555,0.054801181,0
-3.4479492,-0.76748341,1.1456219,-0.79375219,-0.50183725,0.34368116,0
0.066549718,5.8039184,0.59191513,-0.51652616,0.85451555,0.054801181,0
-0.67831755,5.3828044,-2.0935736,-0.51652616,0.85451555,0.054801181,0
4.7510586,-1.7686181,1.4064996,0.76911825,0.4348709,0.46834159,0
-4.8994551,2.708097,0.35303915,-0.51652616,0.85451555,0.054801181,0
-0.83036184,-1.4713839,-3.2149298,-0.42002285,-0.19707879,-0.88585562,0
3.6624544,-0.71933222,-2.1423707,0.67519569,0.44582102,-0.58766866,0
-1.3519351,-4.0758576,-1.3841863,-0.79744315,-0.45674074,-0.39429933,0
-3.2556174,2.6903191,-3.1494837,-0.33675033,-0.14387788,-0.93053639,0
2.8576484,-4.078949,0.92147613,0.51652616,-0.85451555,-0.054801181,0
-3.3536048,3.7351365,3.4966729,-0.51652616,0.85451555,0.054801181,0
-0.10632896,4.2246332,2.9353702,0.56053388,0.28905517,0.77604651,0
3.780735,0.27769876,-1.2674613,0.79590541,0.5027318,-0.33733535,0
0.68374705,-5.1542144,-2.1552973,0.51652616,-0.85451555,-0.054801181,0
2.4825602,-4.5192933,0.13780367,0.51652616,-0.85451555,-0.054801181,0
-1.5992727,4.6804457,-2.8935525,0.26817548,0.22221904,-0.93739021,0
-1.3473387,5.1915412,0.75564647,-0.51652616,0.85451555,0.054801181,0
-0.39778972,-5.1210203,-2.3037763,-0.71900022,-0.3980751,-0.56971413,0
-4.1376104,1.0350671,-1.1456378,-0.78854239,-0.44974846,-0.41943622,0
0.6270467,5.6092129,-0.61405396,0.8156808,0.51050329,-0.2721234,0
1.7372557,-4.8078423,-1.0494776,0.51652616,-0.85451555,-0.054801181,0
3.5933337,-0.96062994,-2.5026755,0.63400435,0.42468137,-0.64628482,0
-2.1579442,-0.47224534,-2.5770686,-0.54397053,-0.27803922,-0.79170048,0
-1.8618033,4.9070072,-1.5317056,-0.51652616,0.85451555,0.054801181,0
0.82398772,-5.1793571,-2.2428002,0.51652616,-0.85451555,-0.054801181,0
-3.2390609,1.3579848,3.1318235,-0.49560687,-0.35054064,0.79466665,0
4.8126545,-2.9387126,1.61349,0.51652616,-0.85451555,-0.054801181,0
2.0816545,-2.9257486,-3.5795305,0.072152376,0.1072071,-0.99161506,0
1.8261774,1.0447414,3.0457704,0.4948743,0.24568081,0.83351058,0
-2.970772,3.2442999,-3.2864599,-0.27711022,-0.10626213,-0.9549439,0
1.6230941,-4.8131132,-0.33092237,0.51652616,-0.85451555,-0.054801181,0
1.0499735,4.7942085,1.6909323,0.80167961,0.46011734,0.38157761,0
3.3014812,-3.8765025,-1.5841771,0.51652616,-0.85451555,-0.054801181,0
1.3144126,-3.9825997,3.0335753,-0.18082792,-0.17141299,0.96846193,0
-1.6522839,4.8375301,-3.0245738,0.22789967,0.19888473,-0.95315599,0
1.9008358,-4.8150396,1.4584858,0.51652616,-0.85451555,-0.054801181,0
3.8456709,-3.6022296,1.1713865,0.51652616,-0.85451555,-0.054801181,0
0.91263986,-4.3162413,-3.2630088,-0.41822851,-0.19592325,-0.88696015,0
3.3768888,-2.2669849,2.9774179,0.46177059,0.22408572,0.85822672,0
0.33976388,5.8534541,0.80670977,-0.51652616,0.85451555,0.054801181,0
-1.5101986,5.0531917,-1.1235776,-0.51652616,0.85451555,0.054801181,0
1.7108114,-0.44528633,-3.3815413,0.27916217,0.22855596,-0.93264705,0
0.16799355,-5.750237,-0.42762756,0.51652616,-0.85451555,-0.054801181,0
4.6579232,-3.1737862,1.122444,0.51652616,-0.85451555,-0.054801181,0
3.5502322,-0.16792464,1.975771,0.69962627,0.38426939,0.60237831,0
4.7224879,-3.2697616,1.3231989,0.51652616,-0.85451555,-0.054801181,0
3.3690476,-3.737833,1.1608988,0.51652616,-0.85451555,-0.054801181,0
-2.7822406,3.1233003,3.794467,-0.1254189,-0.13881047,0.98234493,0
1.2497411,-5.0156703,-1.1469116,0.51652616,-0.85451555,-0.054801181,0
-2.1483307,4.8035355,-2.4712567,-0.51652616,0.85451555,0.054801181,0
1.8532649,-4.639863,1.6023997,0.51652616,-0.85451555,-0.054801181,0
-2.9333701,4.4855447,-2.8218315,-0.51652616,0.85451555,0.054801181,0
-4.2036543,1.1292086,-1.9612486,-0.73037165,-0.40627134,-0.54909045,0
-2.0308146,4.4910207,-0.87331992,-0.51652616,0.85451555,0.054801181,0
-3.8593059,3.7234869,-0.017703325,-0.51652616,0.85451555,0.054801181,0
-5.0492244,2.7161727,0.80860156,-0.51652616,0.85451555,0.054801181,0
1.8063855,-0.25039995,2.9866488,0.40914851,0.1900827,0.8924492,0
-1.2200987,-3.9157023,-2.0909314,-0.75697654,-0.42577836,-0.49568021,0
3.2205269,-3.6300559,-2.9316278,0.51652616,-0.85451555,-0.054801181,0
-2.4538651,-0.69358796,2.3158975,-0.58858043,-0.40080297,0.70208967,0
-2.0813923,4.3501692,0.57202232,-0.51652616,0.85451555,0.054801181,0
1.1020813,0.35098493,3.4827137,0.28642762,0.1121138,0.95151937,0
-3.0294995,3.8460112,2.5288649,-0.51652616,0.85451555,0.054801181,0
4.3274002,-0.78061938,-0.6432395,0.84766209,0.51933718,-0.10843205,0
-4.1001978,1.4412422,1.9826871,-0.69378918,-0.45516425,0.55810571,0
-1.0926116,-4.1488857,1.8844306,-0.68789721,-0.45221874,0.56771088,0
5.5114436,-2.3947415,-0.095208883,0.51652616,-0.85451555,-0.054801181,0
-2.9975388,0.62750864,-2.3638034,-0.59899753,-0.31485721,-0.73625153,0
-1.1455812,-0.93914139,-3.0032568,-0.40846282,-0.18964213,-0.89285684,0
3.4039872,0.12699652,-1.5225317,0.75819981,0.48616999,-0.4344787,0
2.3031867,-4.4123187,-0.48919022,0.51652616,-0.85451555,-0.054801181,0
3.6902356,-3.8082352,0.22472622,0.51652616,-0.85451555,-0.054801181,0
-1.5235469,-2.360007,-2.3104002,-0.6757589,-0.36749488,-0.6389811,0
0.50262105,-5.7499881,-0.16480994,0.51652616,-0.85451555,-0.054801181,0
2.993958,-4.3117914,2.9739294,0.51652616,-0.85451555,-0.054801181,0
-1.6288812,-1.828913,-2.8999794,-0.58101493,-0.30275366,-0.75548744,0
1.0148799,-5.1408467,2.5902309,-0.40436846,-0.29983971,0.86404991,0
-2.1550958,4.3436689,0.19780111,-0.51652616,0.85451555,0.054801181,0
-2.7074597,4.0628462,1.2217567,-0.51652616,0.85451555,0.054801181,0
2.5337231,-3.4570751,3.3408909,0.098753154,-0.0041241795,0.99510324,0
-0.74258399,-3.3971887,2.5780306,-0.52052289,-0.3641668,0.77229428,0
2.421658,-4.3496981,2.0298016,0.51652616,-0.85451555,-0.054801181,0
-0.70182109,5.5535674,-2.4889941,-0.51652616,0.85451555,0.054801181,0
-5.4819474,2.2609167,0.27152491,-0.85627031,-0.51536953,-0.034572124,0
0.0043506622,-5.8088202,1.0600824,0.51652616,-0.85451555,-0.054801181,0
0.76615238,2.3511848,3.018393,0.4600758,0.22298463,0.85942286,0
-3.2983551,3.8462453,-1.0215641,-0.51652616,0.85451555,0.054801181,0
1.6984516,-4.97082,0.39726269,0.51652616,-0.85451555,-0.054801181,0
1.1967871,4.3871465,0.37921667,0.85616386,0.51641655,0.017241538,0
-5.3249068,2.6019206,-0.14341903,-0.51652616,0.85451555,0.054801181,0
-0.97541058,5.1330976,0.16843605,-0.51652616,0.85451555,0.054801181,0
-2.9267347,2.3436904,3.5265017,-0.32949245,-0.25742313,0.90838754,0
1.9591575,3.6820889,0.64212275,0.85014015,0.50413132,0.15202987,0
3.7245843,-3.28304,-2.2803724,0.51652616,-0.85451555,-0.054801181,0
-0.47769713,0.084088326,-3.4107537,-0.14559454,-0.02457878,-0.98903888,0
-4.0606675,2.0379889,2.7372804,-0.53863412,-0.37400401,0.75497967,0
-1.4761285,4.7289562,0.72715545,-0.51652616,0.85451555,0.054801181,0
0.48140764,-5.4928493,-1.764864,0.51652616,-0.85451555,-0.054801181,0
2.2249758,-4.3441896,-1.0477775,0.51652616,-0.85451555,-0.054801181,0
-0.0049860477,3.2598286,-3.0309877,0.36592424,0.27814433,-0.88810766,0
0.074964762,-3.5158303,-3.3880928,-0.41926986,-0.19659382,-0.88631988,0
2.3242698,-4.5967903,2.4582791,0.51652616,-0.85451555,-0.054801181,0
-1.3102781,5.0184903,-1.2237443,-0.51652616,0.85451555,0.054801181,0
1.2069123,4.5631905,0.44356394,0.85287559,0.50772905,0.12171352,0
1.0211051,3.5405602,2.426157,0.69082206,0.37805399,0.61631131,0
-0.82592618,5.2428813,2.3469052,-0.51652616,0.85451555,0.054801181,0
0.81279427,-5.5445914,0.2779386,0.51652616,-0.85451555,-0.054801181,0
1.6768794,1.7643516,-2.6283865,0.54301226,0.37637302,-0.75065374,0
-1.6946015,4.7225404,-3.1228375,0.25094146,0.21225409,-0.94444501,0
-1.2882946,1.9929388,-3.5213318,-0.076381207,0.017763779,-0.99692029,0
-1.8545181,-3.0930829,-1.7742922,-0.74495196,-0.41689834,-0.52080911,0
-3.8028717,3.2268276,2.4344075,-0.51652616,0.85451555,0.054801181,0
1.8498554,-4.6784225,1.9169409,0.51652616,-0.85451555,-0.054801181,0
-3.8720565,2.6000834,-2.7211385,-0.48218912,-0.23738578,-0.843292,0
2.8626645,-4.2544723,-0.30722243,0.51652616,-0.85451555,-0.054801181,0
-1.9106412,-3.6713419,-0.047781706,-0.85162699,-0.51932812,0.070919156,0
-3.6031694,-0.16970658,-1.1388183,-0.80414891,-0.46210191,-0.37390637,0
-1.8604394,-0.099244535,3.0877547,-0.40204722,-0.29853493,0.86558354,0
-1.3705935,-1.1421456,-3.053695,-0.43925291,-0.20948887,-0.87359649,0
-3.3634717,-0.89562303,1.390747,-0.7748183,-0.4936766,0.39489233,0
-1.1970592,-1.2308975,-3.0063066,-0.47154486,-0.23044467,-0.85119921,0
-0.062195003,-5.8977027,0.80448508,0.51652616,-0.85451555,-0.054801181,0
0.32638168,5.8498721,1.4765139,-0.51652616,0.85451555,0.054801181,0
3.9379747,0.021624327,0.74013448,0.83538717,0.48884672,0.25130999,0
-1.4873037,1.8756669,-3.4412439,-0.10780352,-0.0014062375,-0.99417108,0
-4.0511084,0.14294744,-1.0707524,-0.81980079,-0.47503322,-0.31979614,0
-0.5920105,0.12387808,3.5977116,-0.11958855,-0.13536361,0.98355222,0
0.47797322,2.7750669,2.985456,0.50023997,0.24919733,0.82925284,0
-3.257174,3.6171918,3.5636163,-0.16789317,-0.16382752,0.97209686,0
3.1830287,-4.118783,2.3781452,0.51652616,-0.85451555,-0.054801181,0
-2.1026766,2.7969885,3.6174595,-0.05424124,-0.096523896,0.99385142,0
-3.1519647,4.1563945,-0.52754158,-0.51652616,0.85451555,0.054801181,0
-2.4789371,-2.1310811,1.1131647,-0.79346716,-0.50171828,0.34451181,0
-0.87823451,5.4272828,1.847393,-0.51652616,0.85451555,0.054801181,0
0.83062959,-1.373054,-3.4690228,-0.017458141,0.053476766,-0.9984163,0
-4.6990795,2.3611674,-2.056252,-0.66961861,-0.36321586,-0.64783049,0
-1.3890873,-4.1415062,-1.4520173,-0.82079285,-0.47587806,-0.31597275,0
5.2767611,-2.4647584,-0.99341977,0.51652616,-0.85451555,-0.054801181,0
2.7621536,-2.2230074,-3.6566842,0.23665786,0.20397261,-0.94994104,0
-3.3531144,3.5786591,1.4616141,-0.51652616,0.85451555,0.054801181,0
-1.0691433,-4.415462,-1.6192708,-0.78753209,-0.44896257,-0.4221676,0
-1.2674987,-1.280279,-3.04898,-0.43266773,-0.2052335,-0.87788224,0
1.9625727,-4.368258,-2.5430455,0.51652616,-0.85451555,-0.054801181,0
-3.6824813,3.5991516,-0.1561885,-0.51652616,0.85451555,0.054801181,0
-3.1142225,3.9253554,-0.35452679,-0.51652616,0.85451555,0.054801181,0
-1.1029565,-0.28861618,-3.4346151,-0.26214921,-0.096884802,-0.96015137,0
-1.0137136,5.3203173,-1.1048924,-0.51652616,0.85451555,0.054801181,0
4.9277439,-2.2595482,1.7447219,0.70940793,0.39121643,0.58625025,0
0.70084572,-5.3860893,1.1994618,0.51652616,-0.85451555,-0.054801181,0
-1.9021487,0.39526463,3.3277819,-0.311939,-0.24738611,0.91732979,0
1.7428683,-4.9612379,1.110171,0.51652616,-0.85451555,-0.054801181,0
2.7896156,0.024477243,2.139209,0.64811903,0.34833634,0.67720252,0
-3.9541218,3.6459465,0.32748634,-0.51652616,0.85451555,0.054801181,0
4.7150345,-2.8813725,1.7334396,0.51652616,-0.85451555,-0.054801181,0
3.9235041,-3.2733421,-2.5080073,0.51652616,-0.85451555,-0.054801181,0
-4.865571,2.7705078,0.34892297,-0.51652616,0.85451555,0.054801181,0
5.3032165,-1.7131796,-0.1639812,0.85615766,0.51435691,0.049300313,0
2.2483139,1.9369969,1.7571285,0.74573302,0.41747177,0.51922941,0
-1.0306548,5.1672959,1.0891938,-0.51652616,0.85451555,0.054801181,0
-3.0662057,4.1931491,-1.1503263,-0.51652616,0.85451555,0.054801181,0
-0.72630262,5.3530183,2.7654905,-0.51652616,0.85451555,0.054801181,0
-2.2756126,-1.2647873,-2.5550156,-0.62524605,-0.33266523,-0.70597512,0
1.7709574,-4.4074407,-2.9458706,0.51652616,-0.85451555,-0.054801181,0
-2.9059434,-1.3546271,1.5961063,-0.76653063,-0.48996714,0.41516623,0
1.5883479,-3.1230397,3.2112656,0.00097888708,-0.063410386,0.99798691,0
3.4491324,-2.8770564,-3.5614884,0.32161731,0.25292429,-0.9124645,0
-3.8208189,3.5323701,-0.36326629,-0.51652616,0.85451555,0.054801181,0
2.5280468,2.3155103,-1.0218453,0.80129647,0.50493526,-0.32088041,0
-2.79074,-1.7262682,-0.63703179,-0.84975737,-0.50366676,-0.15566623,0
2.6979706,-0.88422394,-2.8820057,0.4556911,0.32850587,-0.82730258,0
0.89828902,4.2650127,-1.3598516,0.74423748,0.47967374,-0.46478346,0
-1.8403318,2.0662692,3.5848126,-0.050449312,-0.094258547,0.9942686,0
4.4967546,-0.76003957,0.027849197,0.85619587,0.51627088,0.019815981,0
4.5947909,-1.4585705,1.0915954,0.80240905,0.46070236,0.37933159,0
-4.4115829,2.7976036,3.0250058,-0.51652616,0.85451555,0.054801181,0
1.8602192,-2.240037,3.395129,0.12638092,0.012781322,0.99189925,0
-1.5477848,4.5166416,3.6975474,0.25150418,0.090226397,0.96364117,0
2.2481172,0.18935704,2.9174776,0.49800247,0.24773042,0.8310371,0
-2.5469084,2.4190445,-3.1656888,-0.293975,-0.11686049,-0.94864213,0
-1.90997,1.4212041,3.6940956,-0.14366847,-0.14957951,0.97825623,0
1.548373,-4.687922,-1.3372166,0.51652616,-0.85451555,-0.054801181,0
0.2001915,-2.0461235,3.3209343,-0.15958691,-0.15894818,0.97430354,0
2.1891646,3.3998413,-0.53819776,0.83918905,0.5179038,-0.16594362,0
2.490248,1.7104999,-1.7164593,0.75861943,0.48636276,-0.43352935,0
1.5023489,0.89515239,-2.8588684,0.42205027,0.3097558,-0.85201228,0
2.5164864,-0.65634561,-3.0908189,0.38746458,0.2903226,-0.87497658,0
2.2867653,-0.27858639,-3.1599026,0.4478994,0.32417709,-0.83324385,0
-2.7422435,-1.6422036,-1.0820265,-0.82173789,-0.47668636,-0.31227648,0
4.9801216,-2.2836881,1.3409324,0.75718898,0.42593637,0.49521977,0
4.3925319,-0.53411889,-1.0951914,0.81992042,0.51203394,-0.25603068,0
-3.9568641,3.5968933,-2.3246531,-0.51652616,0.85451555,0.054801181,0
-5.1681871,2.8807669,-0.13617063,-0.51652616,0.85451555,0.054801181,0
2.666245,-4.2235928,-0.90414596,0.51652616,-0.85451555,-0.054801181,0
1.2828021,-4.8656564,0.056805849,0.51652616,-0.85451555,-0.054801181,0
4.9477458,-2.2998233,1.2110109,0.79737103,0.45668361,0.39451098,0
0.084231436,6.1013832,0.37360525,-0.51652616,0.85451555,0.054801181,0
2.3443084,2.00261,-1.350181,0.77645099,0.49439853,-0.39076087,0
-4.3055186,2.4922185,2.6023507,-0.56729835,-0.38944682,0.72560573,0
1.0691624,5.2394691,-0.26546192,0.84378743,0.51884073,-0.13721126,0
3.2700562,-0.64496374,2.4030962,0.62625289,0.33335197,0.70475757,0
3.4031167,-2.3947959,-3.2823112,0.40889192,0.30238038,-0.86103046,0
-2.6530027,1.2375515,3.4056988,-0.32803118,-0.25658888,0.90915221,0
1.6049529,3.2646251,1.6544416,0.77234828,0.43731415,0.46068883,0
-1.080188,-0.81205684,3.2751594,-0.33961523,-0.26319578,0.90298909,0
-3.9012537,2.7832756,-2.6831257,-0.45381856,-0.21892267,-0.86378294,0
-3.9115624,3.3138876,1.2453564,-0.51652616,0.85451555,0.054801181,0
2.3611889,-1.647702,3.01386,0.33582675,0.14329243,0.9309603,0
-2.9663305,-0.67157888,-2.0324485,-0.70450991,-0.38773209,-0.59441483,0
1.2390094,2.1424103,-2.8459175,0.45977557,0.33077163,-0.82413375,0
-2.2614222,-1.3360701,-2.396781,-0.63499749,-0.33932772,-0.69399881,0
-5.2042713,2.5280256,-0.17197275,-0.51652616,0.85451555,0.054801181,0
-4.9806757,1.5902624,0.90550876,-0.83984828,-0.5180552,0.16209102,0
-2.281004,0.47392786,3.2682662,-0.41254324,-0.30442923,0.85856324,0
-5.3916845,2.1264262,0.10965991,-0.85466009,-0.51057315,-0.094184995,0
-1.5192659,-1.97454,-2.7636037,-0.60424989,-0.31840676,-0.73040992,0
-1.006165,5.1631322,3.2567694,-0.51652616,0.85451555,0.054801181,0
-0.88836861,1.7784456,3.5595827,0.064485133,-0.024998531,0.99760532,0
-2.563493,4.0020113,2.3079805,-0.51652616,0.85451555,0.054801181,0
0.8602556,-5.5507641,0.56758904,0.51652616,-0.85451555,-0.054801181,0
1.8654609,0.22467089,3.1080084,0.41345102,0.19284891,0.88986915,0
-0.29442465,5.7499933,0.55677915,-0.51652616,0.85451555,0.054801181,0
0.71270561,0.19586892,-3.3676674,0.19045389,0.17704798,-0.96559894,0
-0.21626997,5.529438,2.5859222,-0.51652616,0.85451555,0.054801181,0
5.6023912,-2.6139159,-0.14007068,0.51652616,-0.85451555,-0.054801181,0
2.2638795,-4.4395876,0.42902029,0.51652616,-0.85451555,-0.054801181,0
-2.6261251,1.8606403,-3.0934429,-0.31660622,-0.13112983,-0.93944931,0
-2.9039073,4.3078084,-2.9228745,-0.51652616,0.85451555,0.054801181,0
-2.2864656,4.6006103,-1.0671864,-0.51652616,0.85451555,0.054801181,0
-1.0359228,5.2892094,-2.0086539,-0.51652616,0.85451555,0.054801181,0
-3.1095824,0.58390999,-2.645056,-0.59758019,-0.31390047,-0.73781025,0
2.8241365,2.0153978,0.65792942,0.85045791,0.50452274,0.14892244,0
3.9766741,-3.6576204,1.976615,0.51652616,-0.85451555,-0.054801181,0
-4.8335776,2.8200998,0.87032986,-0.51652616,0.85451555,0.054801181,0
-0.22747731,5.4070354,2.2606483,-0.51652616,0.85451555,0.054801181,0
-3.2614367,-1.3568572,0.3034277,-0.84826851,-0.51937914,0.10337079,0
-5.3335505,2.582932,-0.54108429,-0.51652616,0.85451555,0.054801181,0
-2.2976949,4.2871075,-0.68835723,-0.51652616,0.85451555,0.054801181,0
4.5892239,-1.0933084,0.43286252,0.85221928,0.50680912,0.12987149,0
0.68213391,-5.3280983,1.6508985,0.51652616,-0.85451555,-0.054801181,0
-4.9127154,2.6995888,0.75849628,-0.51652616,0.85451555,0.054801181,0
2.5039802,-1.5846889,3.1808209,0.30605966,0.12447318,0.94383967,0
-0.88473368,-2.6037941,2.8702641,-0.44660652,-0.32345799,0.83421671,0
-0.29846287,-1.5762377,-3.5719104,-0.26252204,-0.097118109,-0.96002603,0
-1.1108658,5.073494,2.6021426,-0.51652616,0.85451555,0.054801181,0
-5.0511937,2.6231666,-0.5457809,-0.51652616,0.85451555,0.054801181,0
4.5679884,-3.0433941,-0.47951812,0.51652616,-0.85451555,-0.054801181,0
-0.46282172,2.0183711,-3.464026,0.13407695,0.14392331,-0.98046374,0
-3.8416085,3.3025966,1.9189501,-0.51652616,0.85451555,0.054801181,0
-4.5723858,1.8557744,-1.2294698,-0.77238816,-0.4373444,-0.46059293,0
2.5165904,2.7670875,0.41943669,0.85577339,0.51298535,0.06706512,0
-0.6672014,5.4009428,-1.5290776,-0.51652616,0.85451555,0.054801181,0
0.013721943,5.2984691,-1.8824317,0.69630438,0.45641711,-0.55393463,0
-0.86610627,-2.5851521,-2.9108934,-0.51994729,-0.2621536,-0.81297576,0
5.6339059,-2.4583831,-0.79097295,0.51652616,-0.85451555,-0.054801181,0
-4.0790062,3.1398611,-2.5216494,-0.49657291,-0.24679364,-0.83217031,0
-4.2528181,3.3818102,-1.6850954,-0.51652616,0.85451555,0.054801181,0
1.5724242,-0.70584989,3.0983965,0.28603274,0.1118657,0.95166743,0
-2.4558384,-2.2257767,0.7580719,-0.81542027,-0.51040733,0.27308244,0
0.91965616,-5.6484866,2.3029742,0.51652616,-0.85451555,-0.054801181,0
-3.0187979,4.3010335,-1.3466798,-0.51652616,0.85451555,0.054801181,0
0.81458366,-5.4266977,0.1120615,0.51652616,-0.85451555,-0.054801181,0
2.5224125,-4.2278719,0.12256885,0.51652616,-0.85451555,-0.054801181,0
4.1255131,-0.45314932,-1.6956234,0.76600206,0.48972815,-0.41642192,0
1.3146455,-5.1841731,-1.4914079,0.51652616,-0.85451555,-0.054801181,0
3.7393761,0.63313448,1.0005875,0.8289898,0.48301777,0.28190297,0
0.18143487,-4.938623,2.4012117,-0.57039869,-0.39110717,0.72227448,0
0.13550997,5.1419191,2.3060427,0.68495888,0.37393314,0.62530375,0
0.34680796,-5.6737509,0.44926476,0.51652616,-0.85451555,-0.054801181,0
3.2020338,1.299633,-0.61101913,0.84544051,0.51909423,-0.12558442,0
-2.2040606,4.3430481,2.7455401,-0.51652616,0.85451555,0.054801181,0
1.7679353,-0.37877631,3.4465065,0.31843424,0.13228489,0.9386692,0
1.6783053,-4.8687754,0.43428326,0.51652616,-0.85451555,-0.054801181,0
-5.0293264,2.8163733,-0.35883451,-0.51652616,0.85451555,0.054801181,0
-1.3928888,-3.2418313,1.9346867,-0.68718415,-0.45186132,0.56885773,0
-5.3622694,2.6797156,-1.1003444,-0.77802545,-0.44163626,-0.44680315,0
-1.8644652,2.8820398,3.852777,-0.011541963,-0.070942014,0.99741352,0
-1.7676961,-1.9629874,-2.6172831,-0.62300158,-0.33113545,-0.70867318,0
-5.0845966,2.8345776,1.6860616,-0.51652616,0.85451555,0.054801181,0
3.5276461,0.81861365,-0.23820996,0.84899968,0.51941276,-0.0970034,0
4.3365426,-2.2787285,2.1107957,0.61889076,0.32833722,0.71356028,0
2.0728703,-4.3683214,-3.7386849,0.51652616,-0.85451555,-0.054801181,0
-1.4693379,2.0518813,-3.2746501,-0.024463594,0.049246728,-0.99848682,0
-4.4178066,3.0325093,1.7749619,-0.51652616,0.85451555,0.054801181,0
1.634428,2.9139373,2.242085,0.70073277,0.38505298,0.60058904,0
1.8755748,-4.4814677,-3.4316723,0.51652616,-0.85451555,-0.054801181,0
0.66905856,5.116055,1.529809,0.8115086,0.46809882,0.34976673,0
1.2537873,-5.1191382,-0.69731617,0.51652616,-0.85451555,-0.054801181,0
1.2977567,-2.0240252,-3.7175815,0.017811775,0.074708402,-0.99704617,0
-1.8525984,4.6177893,-0.40358114,-0.51652616,0.85451555,0.054801181,0
2.2807143,2.8845506,0.63825536,0.84794086,0.50154698,0.17159963,0
-1.6668851,-3.4510403,1.1869419,-0.76151657,-0.48768938,0.42690939,0
0.54060239,-5.7226462,1.2550099,0.51652616,-0.85451555,-0.054801181,0
-3.5286424,2.4039454,3.3378563,-0.41018182,-0.30310434,0.86016196,0
0.82272744,-5.2658691,-2.9049714,0.51652616,-0.85451555,-0.054801181,0
-1.534355,0.10892975,3.1489513,-0.2646054,-0.22015722,0.9388901,0
1.5357119,-5.2310505,2.4060218,0.51652616,-0.85451555,-0.054801181,0
4.8741608,-1.3568535,-0.67752326,0.84020078,0.51813406,-0.1599983,0
3.5595412,-2.3132067,2.9696584,0.43600953,0.20739222,0.87571889,0
-3.417263,2.688858,3.3182988,-0.36945689,-0.28014541,0.88601363,0
4.210928,-0.11585259,-0.97891366,0.8264097,0.51424503,-0.22934455,0
1.5893464,-4.5869598,3.2839618,-0.23579985,-0.20347446,0.95026124,0
4.911026,-2.7426381,-1.0790554,0.51652616,-0.85451555,-0.054801181,0
1.9512408,1.0096363,2.6333437,0.60182977,0.31677043,0.73311448,0
-1.9084507,4.5522089,1.5225722,-0.51652616,0.85451555,0.054801181,0
3.3399925,-3.9693794,2.4401493,0.51652616,-0.85451555,-0.054801181,0
-1.1407049,3.8743227,3.6437728,0.25308305,0.091213256,0.96313488,0
-0.74016237,5.5000315,-1.7459977,-0.51652616,0.85451555,0.054801181,0
-0.031130672,-5.451736,1.6822716,-0.66815144,-0.44224635,0.59832418,0
-3.3440995,3.779213,-2.6709986,-0.51652616,0.85451555,0.054801181,0
-4.4319563,1.7065353,-1.8501036,-0.68414146,-0.37335977,-0.62654012,0
-0.36227918,5.4913902,2.2610972,-0.51652616,0.85451555,0.054801181,0
-0.60744286,-2.9331441,2.7581387,-0.48514485,-0.34478891,0.80358887,0
4.5353684,-3.0939102,-3.0204837,0.51652616,-0.85451555,-0.054801181,0
2.951432,-4.052433,1.5057894,0.51652616,-0.85451555,-0.054801181,0
2.7783077,-1.7792468,3.0643406,0.42592359,0.20088151,0.88217634,0
4.3950806,-2.8784761,2.274385,0.62525851,0.33267373,0.70595992,0
-1.0270041,5.0707774,2.0737021,-0.51652616,0.85451555,0.054801181,0
3.196547,-3.6514888,-3.2462304,0.51652616,-0.85451555,-0.054801181,0
2.6663976,-4.0610709,0.5023967,0.51652616,-0.85451555,-0.054801181,0
1.2725067,-4.8093143,-2.5963361,0.51652616,-0.85451555,-0.054801181,0
-1.789147,-3.3938994,-0.45734262,-0.8556028,-0.51253641,-0.072458029,0
3.5326719,0.53476226,0.91518927,0.83710146,0.49046075,0.24229944,0
0.55211645,5.7755847,-1.0183122,0.79944861,0.50418615,-0.32661611,0
-2.045814,1.7699611,3.4252543,-0.22101599,-0.19488059,0.95560104,0
0.80712509,4.8089266,1.5131454,0.78675818,0.44836169,0.42424381,0
-0.54905987,5.5347414,1.1141326,-0.51652616,0.85451555,0.054801181,0
-4.6607957,0.89056945,0.65678334,-0.84557426,-0.51911235,0.12460458,0
-4.726881,2.1279311,-1.9871225,-0.69884676,-0.38371769,-0.60363346,0
-2.5100811,2.5197082,-3.0888362,-0.24600506,-0.086791128,-0.96537477,0
3.1483397,-3.6958904,-2.7275584,0.51652616,-0.85451555,-0.054801181,0
0.52051258,5.2767963,1.62183,0.78785706,0.44921526,0.42129129,0
1.1170652,1.3858625,-3.043659,0.37350202,0.28243494,-0.88358742,0
-0.94030845,-2.7672195,2.8946218,-0.47771624,-0.34069443,0.809762,0
-3.5291514,3.6877275,-1.7860487,-0.51652616,0.85451555,0.054801181,0
-0.3319546,-6.0521092,-1.0815144,0.51652616,-0.85451555,-0.054801181,0
2.8421483,-4.089952,-2.8152947,0.51652616,-0.85451555,-0.054801181,0
-1.1163355,-2.1340094,2.6345181,-0.48553386,-0.34500307,0.80326188,0
-0.37602019,4.2579174,-2.5437887,0.43634742,0.31774348,-0.84180748,0
4.1420608,-3.1810465,-0.60833538,0.51652616,-0.85451555,-0.054801181,0
-1.353882,5.2486401,-1.9801728,-0.51652616,0.85451555,0.054801181,0
1.1144955,2.0808456,3.0904856,0.490224,0.24263698,0.83714235,0
-3.5110552,3.8846192,-0.4511736,-0.51652616,0.85451555,0.054801181,0
3.4432404,-3.5190873,-3.0371065,0.51652616,-0.85451555,-0.054801181,0
1.4760965,-4.9776354,2.3072877,0.51652616,-0.85451555,-0.054801181,0
0.084408283,5.7738795,-0.70685673,-0.51652616,0.85451555,0.054801181,0
-2.3794143,4.4404345,-0.62388253,-0.51652616,0.85451555,0.054801181,0
-1.5458245,-3.8486419,0.84984398,-0.80646539,-0.50699347,0.30425483,0
3.6773155,-3.6344337,-1.0778594,0.51652616,-0.85451555,-0.054801181,0
-2.2779341,4.7467732,-2.1824307,-0.51652616,0.85451555,0.054801181,0
-1.1630507,5.2741909,-0.94755161,-0.51652616,0.85451555,0.054801181,0
-1.4561049,5.1703482,-0.81327343,-0.51652616,0.85451555,0.054801181,0
0.26773763,-5.5205841,0.87593961,0.51652616,-0.85451555,-0.054801181,0
-4.0699859,3.4969487,1.8890536,-0.51652616,0.85451555,0.054801181,0
-3.8743098,2.4172139,-2.4875011,-0.56108987,-0.28942591,-0.77550638,0
3.4143562,-3.934691,-1.2188582,0.51652616,-0.85451555,-0.054801181,0
-4.8782763,2.2526207,-1.3680325,-0.78965116,-0.4506126,-0.416412,0
-2.2944698,4.5835438,-1.7241756,-0.51652616,0.85451555,0.054801181,0
-2.1247303,4.6950374,0.75062191,-0.51652616,0.85451555,0.054801181,0
1.4826005,0.46732491,3.3236849,0.37466317,0.1679956,0.9118138,0
-0.51290274,5.457099,0.32969832,-0.51652616,0.85451555,0.054801181,0
-3.1008363,3.9390125,-0.25003231,-0.51652616,0.85451555,0.054801181,0
-0.28930682,-5.7947869,-0.59330416,0.51652616,-0.85451555,-0.054801181,0
-1.2631211,-2.4829693,-2.9146671,-0.57891756,-0.30134684,-0.75765693,0
2.5874374,-4.2987156,-0.9406997,0.51652616,-0.85451555,-0.054801181,0
0.69533873,-5.3531904,0.78139162,0.51652616,-0.85451555,-0.054801181,0
-3.1490664,3.5106621,3.6495647,-0.51652616,0.85451555,0.054801181,0
3.2456291,0.5104934,-1.4677734,0.76282334,0.4882853,-0.42388445,0
4.061367,-3.6649318,2.5207767,0.51652616,-0.85451555,-0.054801181,0
4.6277108,-1.6109271,1.6276104,0.73413014,0.40899736,0.542009,0
4.6564274,-3.1751204,1.2275503,0.51652616,-0.85451555,-0.054801181,0
-2.6987567,4.0294504,0.16078448,-0.51652616,0.85451555,0.054801181,0
4.089983,-2.0829844,2.3257461,0.63569623,0.33980611,0.69312453,0
-0.3511346,5.7467422,0.61962342,-0.51652616,0.85451555,0.054801181,0
-3.5245793,3.9212179,-1.8728583,-0.51652616,0.85451555,0.054801181,0
2.3436179,1.1769469,1.960613,0.69494265,0.38095871,0.60985619,0
-2.6451015,4.145381,0.19877911,-0.51652616,0.85451555,0.054801181,0
2.301332,-1.5787382,-3.2718031,0.2596364,0.21728534,-0.94094414,0
