-0.76630259,-1.3016264,-3.6171207,0.33317229,0.12709624,-0.93426055,0
2.2883105,-2.7033749,-0.90464741,0.53569567,-0.84092605,0.076638557,0
-1.1176414,-1.1003432,2.7981651,-0.33317229,-0.12709624,0.93426055,0
1.218919,3.3169212,0.65064764,0.32133073,0.91624886,0.23923767,0
0.017878532,0.51503527,3.442683,-0.33317229,-0.12709624,0.93426055,0
3.4362197,0.62676096,1.0972028,0.92520845,0.14679658,0.34991425,0
0.54455304,-3.4094326,2.3691897,0.37025082,-0.92891455,0.0056684017,0
-3.4614177,1.5711694,0.70188451,-0.81401289,0.53879225,-0.21699309,0
-4.1216955,-0.10753298,1.4032173,-0.94263768,0.066706419,-0.32708502,0
0.0922575,-3.4196451,-1.1818875,-0.081533432,-0.9832778,-0.16284066,0
-1.279072,-3.6641459,1.8993517,-0.05646652,-0.9864049,-0.15432686,0
-1.342581,-2.3333898,-2.9260864,-0.5579977,-0.77214175,-0.30403262,0
2.6863284,2.2529268,0.42974448,0.70254803,0.62737966,0.33588827,0
-3.108762,-1.7668225,-0.48528934,-0.8020274,-0.4827683,-0.35169131,0
3.3005857,-2.0154471,-1.0481181,0.72008801,-0.67395216,0.16511087,0
1.3421717,-3.2146831,2.0676761,0.59273773,-0.79881966,0.10270884,0
-2.3899293,-1.2424214,-2.2957819,-0.83960497,-0.41087359,-0.35531163,0
2.4302144,-1.129526,3.5309319,0.9233104,-0.24474114,0.29597276,0
3.022001,-2.3222411,-1.5410941,0.62209535,-0.77422172,0.11652452,0
1.1852334,-3.4757247,0.90753394,0.39825159,-0.91711384,0.017259307,0
-3.1562953,1.9062641,1.6145838,-0.71262288,0.68276423,-0.16124991,0
0.16283704,-1.632934,2.9981461,-0.33317229,-0.12709624,0.93426055,0
-1.1249306,-2.898109,-1.6316546,-0.35155636,-0.90267372,-0.24816984,0
-0.88313377,-3.5923696,1.1451939,-0.037935436,-0.98826385,-0.14797121,0
2.8754425,-2.3722987,-2.0920215,0.59542483,-0.79665637,0.10396142,0
1.0793488,1.1032717,-2.6164253,0.33317229,0.12709624,-0.93426055,0
2.0063605,-2.4441833,-2.7914987,0.33317229,0.12709624,-0.93426055,0
-0.75969774,0.58471704,-3.5630217,0.33317229,0.12709624,-0.93426055,0
-0.4080317,1.3296297,3.0727966,-0.33317229,-0.12709624,0.93426055,0
-1.1786404,2.9826951,2.8873036,-0.057294309,0.99177104,0.11448786,0
-1.7026317,-3.1729457,0.17443442,-0.39026845,-0.88341677,-0.25935549,0
1.1251268,-3.3535662,1.4310914,0.41394436,-0.90999037,0.023824677,0
0.10209703,-3.3249147,-1.301345,-0.017935455,-0.98983955,-0.14105323,0
0.9088273,-3.3723946,2.5439692,0.45322126,-0.89047813,0.040485848,0
3.3626885,0.53875494,-1.8984885,0.33317229,0.12709624,-0.93426055,0
2.4415636,2.708302,0.28249955,0.60670745,0.72958475,0.31561387,0
0.51034963,-3.2935894,2.8665528,-0.33317229,-0.12709624,0.93426055,0
1.3570027,-3.0410221,2.5839667,0.57071155,-0.81592107,0.092527479,0
2.4222326,3.2158172,-1.0009279,0.51190358,0.80773485,0.29243678,0
-1.2273402,-3.2152681,2.1559491,-0.33317229,-0.12709624,0.93426055,0
-2.5204008,2.3708901,2.6461248,-0.33317229,-0.12709624,0.93426055,0
-2.80235,1.8518556,-1.3819376,-0.8443355,0.48121908,-0.23563886,0
-0.92290294,2.8852596,-3.0087667,0.33317229,0.12709624,-0.93426055,0
0.87688804,1.7087493,-2.4700511,0.33317229,0.12709624,-0.93426055,0
0.16994214,-0.74979007,-3.3430846,0.33317229,0.12709624,-0.93426055,0
-0.16814351,-3.5810945,0.074452043,0.0074583292,-0.99119735,-0.13218215,0
-1.8929341,1.1239405,2.6540437,-0.33317229,-0.12709624,0.93426055,0
-3.4861035,0.88043571,2.2638991,-0.33317229,-0.12709624,0.93426055,0
0.49172527,2.4361744,-2.5263724,0.33317229,0.12709624,-0.93426055,0
-0.19267428,-3.6578321,2.7246785,-0.33317229,-0.12709624,0.93426055,0
2.5609021,2.4213829,0.17419457,0.62803352,0.70914936,0.3204391,0
4.3042583,0.90979433,-1.6359935,0.33317229,0.12709624,-0.93426055,0
-2.7489805,-1.8858719,-1.7941523,-0.78572989,-0.51028669,-0.34962296,0
0.41760588,-3.3582933,-2.5747023,-0.069492579,-0.98486811,-0.15876302,0
-0.88459194,3.2703838,-2.7457867,-0.47824109,0.87673032,-0.051278561,0
-2.3300672,-2.3991368,2.0493579,-0.33317229,-0.12709624,0.93426055,0
-0.041259885,-3.4951892,2.8640382,-0.33317229,-0.12709624,0.93426055,0
-2.7127674,-1.5994661,-1.0006523,-0.79897815,-0.48806253,-0.35132414,0
-2.2668927,-0.15124154,2.5045342,-0.33317229,-0.12709624,0.93426055,0
0.50736427,2.9105754,3.1987641,0.40940118,0.87308967,0.26477367,0
-2.6002853,-0.61564469,2.0799186,-0.33317229,-0.12709624,0.93426055,0
-0.50766754,2.2114148,-3.0540533,0.33317229,0.12709624,-0.93426055,0
3.5550172,0.60495806,-1.9833833,0.33317229,0.12709624,-0.93426055,0
-2.8764782,-1.1345606,-1.4644814,-0.87818241,-0.31885329,-0.35655051,0
-0.39430624,0.59892035,-3.1996975,0.33317229,0.12709624,-0.93426055,0
1.3675063,-3.2774913,-1.821385,0.2485289,-0.96766901,-0.043011755,0
0.84840822,0.76779485,3.6915231,-0.33317229,-0.12709624,0.93426055,0
-2.7935147,2.1375325,0.45439529,-0.73233837,0.65898633,-0.17151551,0
-0.81982064,0.2877264,-3.5716739,0.33317229,0.12709624,-0.93426055,0
2.2749608,-1.431303,-2.538897,0.33317229,0.12709624,-0.93426055,0
-1.7300231,-1.470686,-3.6870892,-0.75711972,-0.55447859,-0.34543198,0
2.9181089,1.5292885,1.0129876,0.81331128,0.46253818,0.35296333,0
0.39744642,-2.065047,3.0960424,-0.33317229,-0.12709624,0.93426055,0
-1.8101993,2.0660224,-3.5927503,0.33317229,0.12709624,-0.93426055,0
-1.3208828,3.286303,-0.64542973,-0.38821608,0.92147541,-0.013087101,0
-3.3160441,0.080549479,-0.53723145,-0.94249272,0.017018348,-0.33379281,0
-1.8257371,-2.7408793,-1.0660408,-0.51944691,-0.80219644,-0.29437345,0
-2.0969412,2.0030737,-3.6043668,0.33317229,0.12709624,-0.93426055,0
3.6763635,-0.51889086,0.067391157,0.93901622,-0.134179,0.31661451,0
2.4794064,0.26265526,-2.3399143,0.33317229,0.12709624,-0.93426055,0
3.2885809,-1.6425458,-0.7021066,0.79067504,-0.57745755,0.20341042,0
-2.4601996,0.35313463,-3.7706783,-0.94111943,-0.015456647,-0.33772099,0
4.1162295,0.63247871,-0.84606194,0.93560404,0.07817775,0.34428668,0
0.025360584,2.8205326,3.4131136,-0.33317229,-0.12709624,0.93426055,0
-0.93258715,-3.8737864,2.114203,-0.044910014,-0.98760933,-0.15036935,0
-1.176144,-1.5600407,2.3657868,-0.33317229,-0.12709624,0.93426055,0
-1.3598974,-1.9260964,-3.5410485,-0.66914988,-0.66620314,-0.32925951,0
0.45697689,-3.010792,-2.7502842,-0.040148139,-0.98806202,-0.14873284,0
-0.72327256,1.6223505,-3.4030809,0.33317229,0.12709624,-0.93426055,0
-3.482662,1.7896277,0.44253612,-0.81897825,0.52999228,-0.21996093,0
2.8656216,2.2995951,-2.0370688,0.33317229,0.12709624,-0.93426055,0
-1.1695814,-3.5077624,1.2958305,-0.083887339,-0.98294783,-0.16363519,0
-0.43047237,-3.543222,-0.79839516,-0.10428339,-0.97982657,-0.17048413,0
-1.6465096,1.1700151,2.9167924,-0.33317229,-0.12709624,0.93426055,0
2.1638563,0.79549122,-2.1891422,0.33317229,0.12709624,-0.93426055,0
2.4659138,-1.0527108,-2.6322694,0.33317229,0.12709624,-0.93426055,0
0.11013889,-3.3847818,-2.0034883,-0.12779838,-0.97564155,-0.17830062,0
-0.062112778,2.234448,-3.0458694,0.33317229,0.12709624,-0.93426055,0
0.39600146,-0.70387423,3.1578412,-0.33317229,-0.12709624,0.93426055,0
0.67131126,-3.6837499,2.2871122,0.39829564,-0.91709435,0.017277643,0
1.941896,-0.5331552,-2.6440904,0.33317229,0.12709624,-0.93426055,0
-1.5725944,-3.1488302,-0.58651495,-0.42507398,-0.8642149,-0.26915556,0
0.52768761,-1.0279841,3.3066773,-0.33317229,-0.12709624,0.93426055,0
2.674813,-1.2340826,2.0531301,0.90259069,-0.32950217,0.27705303,0
-1.41084,-3.6784196,2.3739095,-0.33317229,-0.12709624,0.93426055,0
-2.285255,-0.48060626,-3.9316561,0.33317229,0.12709624,-0.93426055,0
-3.4620414,2.0084214,1.9787366,-0.71218443,0.68327487,-0.16102411,0
-2.2237744,-0.50333548,-4.1325812,0.33317229,0.12709624,-0.93426055,0
-0.4326621,-1.3414304,3.0449376,-0.33317229,-0.12709624,0.93426055,0
-1.5836972,0.21011972,2.5918074,-0.33317229,-0.12709624,0.93426055,0
-0.54307711,-2.8326051,2.5828753,-0.33317229,-0.12709624,0.93426055,0
0.65782225,0.55068707,-3.0062366,0.33317229,0.12709624,-0.93426055,0
-2.2180023,-0.69118875,-3.4084048,-0.90241718,-0.24412861,-0.35502756,0
2.1389019,2.4966838,1.1750057,0.63369954,0.70351833,0.3216936,0
2.676353,-1.9738255,1.2270359,0.83140904,-0.5069409,0.22752991,0
0.34275293,2.8006935,3.5520875,0.41366547,0.87071252,0.265971,0
0.72603488,-3.2477951,-1.9159651,0.0079595447,-0.99121702,-0.13200614,0
1.0049205,-2.9879289,2.9890227,-0.33317229,-0.12709624,0.93426055,0
-1.2811887,-1.6082053,2.7299557,-0.33317229,-0.12709624,0.93426055,0
-3.2936289,1.962079,1.5490518,-0.7474097,0.63964909,-0.17952083,0
-2.5339053,-0.96516538,2.2542624,-0.33317229,-0.12709624,0.93426055,0
-0.63860345,-1.0865195,-3.7429357,0.33317229,0.12709624,-0.93426055,0
0.072074056,3.4781251,-2.8827357,0.33317229,0.12709624,-0.93426055,0
-1.0740464,3.4046187,1.6678289,-0.14773214,0.98567146,0.081406504,0
-1.9877834,-0.17013836,2.6390698,-0.33317229,-0.12709624,0.93426055,0
-1.2031441,-3.2558954,-0.95512629,-0.35844576,-0.89940298,-0.25018179,0
-0.16374373,-0.041612864,2.9559889,-0.33317229,-0.12709624,0.93426055,0
-3.2223349,1.8706747,0.032494307,-0.82167333,0.52512199,-0.22158462,0
1.5631752,-1.3469809,3.4041762,-0.33317229,-0.12709624,0.93426055,0
3.1549516,0.0049877167,-2.1182325,0.33317229,0.12709624,-0.93426055,0
2.7293618,-0.25266591,3.121403,0.94279647,-0.032870412,0.33174461,0
-1.8862007,2.9576778,2.8884873,-0.33317229,-0.12709624,0.93426055,0
1.2186692,1.9349263,-2.5891581,0.33317229,0.12709624,-0.93426055,0
1.0466425,1.3891215,-2.5172353,0.33317229,0.12709624,-0.93426055,0
-0.5520407,-1.9130323,2.6420496,-0.33317229,-0.12709624,0.93426055,0
-1.8956978,3.1759431,2.0428548,-0.31916529,0.94757903,0.015088633,0
-2.2934489,0.72259593,2.4773426,-0.33317229,-0.12709624,0.93426055,0
-1.5174162,2.677762,3.2021265,-0.33317229,-0.12709624,0.93426055,0
-1.4645216,-1.5036354,-3.755501,0.33317229,0.12709624,-0.93426055,0
-0.065894783,-1.543273,3.1319509,-0.33317229,-0.12709624,0.93426055,0
3.055469,-2.2287478,-2.2396045,0.64180195,-0.75645357,0.1259694,0
-2.9904499,-2.1419146,1.7660106,-0.33317229,-0.12709624,0.93426055,0
-3.4088655,0.42717898,-0.4544878,-0.93642688,0.16020936,-0.31215006,0
2.1901786,-3.0407217,-1.0546232,0.50064629,-0.86349511,0.061069138,0
-0.32069182,-0.20788383,-3.21751,0.33317229,0.12709624,-0.93426055,0
-3.6825008,1.4186823,2.1489031,-0.33317229,-0.12709624,0.93426055,0
-1.2849538,-2.9226074,-1.7049508,-0.3953591,-0.8807227,-0.26080436,0
-0.43051893,-1.9015186,2.6931798,-0.33317229,-0.12709624,0.93426055,0
1.4777594,3.0100038,0.95842838,0.41026831,0.8726086,0.26501745,0
0.52886796,-1.7777101,3.1676803,-0.33317229,-0.12709624,0.93426055,0
3.1977203,-0.65319848,0.92126858,0.92565936,-0.23252809,0.29847199,0
3.3855159,1.2674799,-1.9289458,0.33317229,0.12709624,-0.93426055,0
-3.6909587,0.91119862,0.3328011,-0.89920783,0.34085739,-0.27430189,0
-3.3980222,-1.1534321,0.11974907,-0.8834933,-0.30397949,-0.35642105,0
1.4922392,2.9875746,-2.0646572,0.33317229,0.12709624,-0.93426055,0
0.6132217,-2.6415391,3.2536986,-0.33317229,-0.12709624,0.93426055,0
-3.2232933,-2.2365267,1.5984809,-0.33317229,-0.12709624,0.93426055,0
2.9718554,0.21067476,-2.0642045,0.33317229,0.12709624,-0.93426055,0
1.4982452,-2.5755556,3.4240546,0.72677058,-0.66586834,0.16859369,0
2.8311946,3.0262055,-1.6920383,0.33317229,0.12709624,-0.93426055,0
0.15030205,-0.64075065,3.1049521,-0.33317229,-0.12709624,0.93426055,0
3.4575293,-0.58324742,0.10096383,0.93218112,-0.19315258,0.30615437,0
-0.59223032,3.0860622,2.4538281,-0.0083872676,0.99123347,0.13185576,0
-1.8023634,2.9651475,-0.049260508,-0.44959348,0.89238441,-0.038932819,0
-3.6704726,-1.0504794,-0.30154347,-0.89608622,-0.26555246,-0.35568434,0
-3.5543485,0.18661141,1.8232851,-0.33317229,-0.12709624,0.93426055,0
-0.039291382,1.1319332,3.4526787,-0.33317229,-0.12709624,0.93426055,0
-4.0546331,-0.51056123,1.1177235,-0.94076687,-0.021271318,-0.33838624,0
-0.79321575,3.496726,1.0243986,-0.11078751,0.98928618,0.095073342,0
-1.996614,-1.2315143,-3.3227742,-0.83700848,-0.416298,-0.35512364,0
3.3485384,2.548665,-1.213794,0.68407655,0.6493265,0.33228666,0
3.4835649,-0.75693917,-0.1716392,0.92476058,-0.23729756,0.29750258,0
-0.19094825,-1.1649283,-3.2252431,0.33317229,0.12709624,-0.93426055,0
-2.7115927,-0.3790457,-2.8923793,-0.91107011,-0.21175662,-0.3537094,0
2.7168164,-2.192173,-0.84267318,0.67914867,-0.71967864,0.14429066,0
0.25970578,3.0455265,1.8179201,0.18460679,0.96290171,0.1968264,0
3.2601585,0.20513701,-2.153296,0.33317229,0.12709624,-0.93426055,0
3.7168913,-1.0604601,-0.98259711,0.87366539,-0.41421589,0.25521341,0
-1.8964324,1.8870308,-3.5960448,0.33317229,0.12709624,-0.93426055,0
2.4676504,-0.069098473,-2.2191589,0.33317229,0.12709624,-0.93426055,0
-3.76598,0.51973104,1.9943126,-0.33317229,-0.12709624,0.93426055,0
1.6687248,1.9283137,-2.4302559,0.33317229,0.12709624,-0.93426055,0
-1.5787842,-1.8378373,-3.8551557,0.33317229,0.12709624,-0.93426055,0
-4.1271629,0.69540739,1.9977512,-0.33317229,-0.12709624,0.93426055,0
0.25364685,3.5556836,-1.6398842,-0.15203243,0.98514867,0.079801828,0
0.52663463,-1.5809782,3.3419538,-0.33317229,-0.12709624,0.93426055,0
3.0962732,-0.55526233,-2.1595058,0.33317229,0.12709624,-0.93426055,0
-3.6052463,0.46771014,-0.57232475,-0.9321146,0.1936093,-0.30606848,0
-0.77316111,0.64825177,-3.3876894,0.33317229,0.12709624,-0.93426055,0
2.2967196,-2.3102825,-2.7812905,0.33317229,0.12709624,-0.93426055,0
0.79637432,-1.2688463,-3.1889095,0.33317229,0.12709624,-0.93426055,0
0.17296624,3.693325,-0.14061296,-0.027907312,0.99176836,0.12496734,0
1.7875977,-1.2599611,-2.8826275,0.33317229,0.12709624,-0.93426055,0
3.1027038,-1.3996532,-2.1996877,0.33317229,0.12709624,-0.93426055,0
1.6945317,1.6445276,4.2065291,0.7710678,0.53353429,0.34755683,0
-1.154707,-0.71768343,-3.638309,0.33317229,0.12709624,-0.93426055,0
-4.1777272,-0.11666107,0.74179387,-0.94285405,0.0498918,-0.32944959,0
-2.9966908,2.1050663,0.8424772,-0.69550478,0.70214981,-0.15250812,0
-2.9136944,1.4187381,-1.9473279,-0.88265538,0.39045867,-0.26165128,0
-2.9570348,1.1956633,-1.3041801,-0.91730684,0.27284253,-0.29000902,0
2.7277274,1.8188968,-1.9188575,0.33317229,0.12709624,-0.93426055,0
-2.7684736,-2.5831017,1.7973511,-0.33317229,-0.12709624,0.93426055,0
0.6475302,-0.52092147,-2.9443748,0.33317229,0.12709624,-0.93426055,0
1.2053139,-1.9568908,3.5702913,-0.33317229,-0.12709624,0.93426055,0
-4.0694327,1.46664,2.1276712,-0.33317229,-0.12709624,0.93426055,0
0.42958355,3.539793,0.80352855,0.11808264,0.97744715,0.17508149,0
-1.7588547,-2.5698175,-1.5867949,-0.52930403,-0.79479468,-0.29688174,0
1.1032782,1.2759721,-2.6188941,0.33317229,0.12709624,-0.93426055,0
1.2161306,2.8041112,-2.4976039,0.33317229,0.12709624,-0.93426055,0
-1.4676547,-2.5533028,-2.2417102,-0.58212447,-0.7517426,-0.3098616,0
1.345999,3.5221918,-0.5700345,0.28487003,0.93099672,0.2282415,0
0.09889698,-3.6118286,-0.58520865,0.056041002,-0.99179071,-0.11493751,0
-3.336205,0.60672259,2.1256528,-0.33317229,-0.12709624,0.93426055,0
-2.709806,0.65559769,2.1762187,-0.33317229,-0.12709624,0.93426055,0
-3.8511531,-0.23629475,1.9304127,-0.33317229,-0.12709624,0.93426055,0
3.5982523,1.9081516,-0.89027882,0.79146868,0.5008105,0.3503803,0
-1.6721482,-2.9535713,2.2848039,-0.33317229,-0.12709624,0.93426055,0
3.2490094,-2.1038115,-0.60164154,0.74402869,-0.64408046,0.1777122,0
0.50985432,-3.4183128,-1.3495178,0.0051905513,-0.99110538,-0.13297832,0
0.87218904,-3.2939947,-3.0859065,0.012661517,-0.99138683,-0.13035238,0
2.6385303,-2.9235005,-1.7727,0.51003683,-0.8576771,0.065209419,0
1.7707825,2.5311029,1.6544967,0.56623679,0.76531941,0.30604267,0
3.1641963,-1.3972499,1.0531044,0.87532353,-0.40997183,0.25638214,0
-0.078929305,0.91717291,-2.9820673,0.33317229,0.12709624,-0.93426055,0
0.2406466,-0.050262213,3.2380843,-0.33317229,-0.12709624,0.93426055,0
2.9398975,1.1535056,1.8683629,0.86703396,0.34803447,0.35654455,0
1.4686892,-1.8254668,3.4453149,-0.33317229,-0.12709624,0.93426055,0
-2.5308082,2.7050276,2.288348,-0.50523937,0.86066985,-0.063091464,0
-1.6783503,-0.81687117,2.5940847,-0.33317229,-0.12709624,0.93426055,0
-0.1705749,-0.64007413,-3.2621508,0.33317229,0.12709624,-0.93426055,0
-0.98918271,-2.8744421,2.4535549,-0.33317229,-0.12709624,0.93426055,0
-0.098079205,1.2408977,3.2647576,-0.33317229,-0.12709624,0.93426055,0
2.7839158,-0.25738758,2.4966433,0.94251347,-0.01780206,0.33369362,0
-0.076611042,-0.45529997,2.9127712,-0.33317229,-0.12709624,0.93426055,0
3.0740333,1.4223443,0.39429617,0.84438002,0.40068775,0.35562879,0
0.72215295,3.6243277,-0.36314452,0.066551805,0.9852317,0.15776378,0
2.1723785,-1.5325317,3.6025548,0.89413351,-0.3570253,0.27029282,0
3.5790269,1.2279222,-1.9317834,0.33317229,0.12709624,-0.93426055,0
-2.5920246,-1.917892,1.8233515,-0.33317229,-0.12709624,0.93426055,0
2.5860822,0.22255899,2.7405169,0.9298467,0.11980507,0.34789646,0
-4.0424871,1.289994,1.5876555,-0.86977059,0.42396179,-0.2524986,0
-2.0060983,-1.519489,-2.9907033,-0.76672328,-0.54017437,-0.34691077,0
-3.2799788,1.9614766,2.4405143,-0.33317229,-0.12709624,0.93426055,0
-0.59029591,-3.8081975,2.5569108,-0.33317229,-0.12709624,0.93426055,0
1.6910294,3.4008539,-2.025537,0.33317229,0.12709624,-0.93426055,0
3.4583645,1.150677,-0.35067654,0.8769536,0.32219872,0.35656738,0
-1.1764133,-0.35874104,2.8322129,-0.33317229,-0.12709624,0.93426055,0
-0.6012758,3.4122019,-2.265671,-0.3606444,0.93270183,-0.0017274022,0
-3.1965508,0.94177979,-1.4935224,-0.91596931,0.27861336,-0.28874689,0
2.7514896,-2.7785611,-2.3893657,0.50329274,-0.86187202,0.062233746,0
-3.5938618,0.70711756,0.34111285,-0.92696887,0.2253415,-0.29991663,0
-4.0953107,0.13871431,1.567705,-0.93699741,0.15501398,-0.31306028,0
3.0009422,-0.4405694,-2.2350645,0.33317229,0.12709624,-0.93426055,0
2.5039635,-0.79627281,2.9052389,0.92992651,-0.20788962,0.3033455,0
2.0699818,2.5363774,0.86937022,0.58244133,0.75146598,0.30993688,0
4.1517477,0.17999411,-1.8123412,0.94284809,-0.038810849,0.33095491,0
-1.5744511,2.8342931,-1.9761497,-0.59507042,0.79694259,-0.10379606,0
2.1709614,2.6588852,1.2685328,0.59629732,0.73914403,0.3132019,0
-3.1989677,1.80601,0.92373729,-0.75646853,0.62749529,-0.18440467,0
2.8354774,-0.56880653,1.7971218,0.93388975,-0.18088454,0.30843258,0
2.9214668,-1.7630769,0.76453507,0.81218517,-0.54197693,0.21590805,0
0.90208948,0.040692806,-3.0564399,0.33317229,0.12709624,-0.93426055,0
0.97294974,3.5795724,0.36805034,0.19231397,0.96088231,0.19930011,0
-2.7374666,0.95428586,2.1896489,-0.33317229,-0.12709624,0.93426055,0
1.6913302,0.29044485,3.6660304,-0.33317229,-0.12709624,0.93426055,0
-0.40177178,-1.7067698,-3.5343571,0.33317229,0.12709624,-0.93426055,0
3.6582489,1.9522724,-1.787549,0.33317229,0.12709624,-0.93426055,0
0.96680832,3.8096037,-1.0644377,0.067400396,0.98512769,0.1580523,0
-0.35596728,-2.4250796,2.7539649,-0.33317229,-0.12709624,0.93426055,0
-3.0877075,-2.0356085,1.8004076,-0.33317229,-0.12709624,0.93426055,0
0.82546353,3.6765466,-0.58914888,0.078909993,0.98363823,0.16195413,0
-1.5056994,-2.532454,-1.8351212,-0.53644872,-0.7893104,-0.29868364,0
-0.8543129,2.1845074,3.0752468,-0.33317229,-0.12709624,0.93426055,0
2.2494731,-2.7893498,-1.2787995,0.54287148,-0.83600944,0.079866461,0
3.40523,1.8129926,-1.5614824,0.33317229,0.12709624,-0.93426055,0
0.44722581,1.3823488,-3.0214653,0.33317229,0.12709624,-0.93426055,0
1.7051885,-2.0086415,3.3941348,-0.33317229,-0.12709624,0.93426055,0
0.19758582,1.6383809,-2.9588289,0.33317229,0.12709624,-0.93426055,0
0.58002758,3.5941966,-1.3117621,0.02603364,0.98925531,0.14386168,0
-0.70916128,2.8669267,3.3761575,-0.33317229,-0.12709624,0.93426055,0
-0.048858047,-0.59637237,2.9457173,-0.33317229,-0.12709624,0.93426055,0
2.5269175,0.99809599,-2.3771276,0.33317229,0.12709624,-0.93426055,0
-0.5392369,1.292331,-3.1446385,0.33317229,0.12709624,-0.93426055,0
1.6467123,-1.9841065,3.5266998,-0.33317229,-0.12709624,0.93426055,0
-0.090893984,-1.2623224,-3.3062844,0.33317229,0.12709624,-0.93426055,0
2.6530068,2.3925261,-0.015210867,0.64572102,0.69127703,0.32431543,0
1.9842368,2.0988617,2.374727,0.72033799,0.60503054,0.33919203,0
1.3625546,-2.851351,-3.153065,0.33317229,0.12709624,-0.93426055,0
-2.637176,1.3017827,-3.0704041,-0.92298388,0.24637622,-0.29563397,0
-2.6570883,2.3794966,-1.2535973,-0.77459097,0.60185945,-0.19435498,0
1.029098,1.7134413,3.8787827,-0.33317229,-0.12709624,0.93426055,0
0.2074635,3.7058353,-0.43721986,0.0064464211,0.99054289,0.13705179,0
2.9992986,1.9535775,0.080938101,0.74502087,0.5718118,0.34347528,0
-3.0083113,2.0674129,0.73375273,-0.69841862,0.69892758,-0.1539856,0
1.1169339,-0.64305711,-2.7655659,0.33317229,0.12709624,-0.93426055,0
-1.7468212,-2.8905325,2.1700079,-0.33317229,-0.12709624,0.93426055,0
-0.72292662,-2.3315699,-3.7500391,0.33317229,0.12709624,-0.93426055,0
3.5549021,0.36141324,-1.8667897,0.33317229,0.12709624,-0.93426055,0
-2.1387329,2.4891827,2.9049406,-0.33317229,-0.12709624,0.93426055,0
1.7816188,1.5877805,3.5335097,0.73613214,0.58409065,0.34197593,0
-1.1464219,1.4763843,2.9659739,-0.33317229,-0.12709624,0.93426055,0
2.3752556,-0.6290462,-2.5506091,0.33317229,0.12709624,-0.93426055,0
2.1346321,2.8493946,0.1759088,0.51517791,0.80534405,0.29327923,0
1.6937928,2.9241641,1.1642983,0.44741011,0.85089886,0.27530938,0
0.73857832,3.1026897,-2.5636575,0.33317229,0.12709624,-0.93426055,0
2.6851368,-0.80647838,2.5328944,0.94011462,-0.12042269,0.3188777,0
-3.832746,1.0530436,1.5025079,-0.8649326,0.4356603,-0.2491819,0
0.80701756,2.283803,3.9368305,-0.33317229,-0.12709624,0.93426055,0
-3.4169703,0.76291704,-0.052144527,-0.92577773,0.23188972,-0.29860109,0
-4.0490422,-1.0813513,1.6739614,-0.33317229,-0.12709624,0.93426055,0
3.6413755,-0.31633329,0.25599456,0.93402737,-0.17984653,0.3086229,0
-1.6267593,-1.6690655,2.2095339,-0.33317229,-0.12709624,0.93426055,0
0.034567356,2.302799,3.6919489,-0.33317229,-0.12709624,0.93426055,0
0.069263697,3.4735482,1.1930752,0.08325237,0.98303747,0.16342095,0
0.02587533,3.5525501,-0.91584611,-0.070355654,0.99146187,0.10978791,0
2.12184,-0.52711177,-2.4555416,0.33317229,0.12709624,-0.93426055,0
-0.44212902,2.0005884,-2.9982104,0.33317229,0.12709624,-0.93426055,0
-2.1746788,-1.8726473,2.0002835,-0.33317229,-0.12709624,0.93426055,0
-1.4251363,-0.90726364,-3.64994,0.33317229,0.12709624,-0.93426055,0
-0.40334249,-0.55366993,3.1352997,-0.33317229,-0.12709624,0.93426055,0
-2.1453643,-2.4056284,-1.390543,-0.66650939,-0.66911334,-0.32871372,0
-0.70989704,3.4644122,0.49538833,-0.17709863,0.98167276,0.070389986,0
0.89707017,1.04769,3.8617268,-0.33317229,-0.12709624,0.93426055,0
0.25487113,-1.2549437,-3.2353039,0.33317229,0.12709624,-0.93426055,0
-1.0169121,-2.9893479,2.4449604,-0.33317229,-0.12709624,0.93426055,0
1.898537,-3.0997601,0.76285523,0.5648073,-0.82031965,0.089823537,0
-1.6310246,1.2435749,2.811414,-0.33317229,-0.12709624,0.93426055,0
-2.2742574,1.297076,2.4368567,-0.33317229,-0.12709624,0.93426055,0
3.5274725,-1.801389,-2.317981,0.33317229,0.12709624,-0.93426055,0
2.038403,0.82462263,-2.3792183,0.33317229,0.12709624,-0.93426055,0
-2.603128,0.68814254,2.5555274,-0.33317229,-0.12709624,0.93426055,0
-0.25614285,-0.35712457,2.963264,-0.33317229,-0.12709624,0.93426055,0
-0.91841984,-0.87528908,-3.8414421,0.33317229,0.12709624,-0.93426055,0
-0.24324775,3.4971333,1.2810798,-0.025906742,0.99173295,0.12567598,0
1.5573101,2.7276642,-2.3457296,0.33317229,0.12709624,-0.93426055,0
-3.1607788,1.4380503,2.3390296,-0.33317229,-0.12709624,0.93426055,0
-3.4703693,-2.0268183,0.48241735,-0.79641932,-0.49245214,-0.35100871,0
2.3330085,-0.6117872,4.0428195,-0.33317229,-0.12709624,0.93426055,0
2.7381349,1.2935052,-1.8726988,0.33317229,0.12709624,-0.93426055,0
-3.0743728,1.1703132,-1.6663593,-0.9199993,0.26072201,-0.29261798,0
-2.1214168,-3.1620121,0.53595996,-0.50797158,-0.81057912,-0.29142147,0
-3.5204175,0.28822517,0.028548241,-0.94209206,0.085011631,-0.32440025,0
-0.96851039,-2.8483768,-1.8026029,-0.40824312,-0.87373054,-0.26444781,0
-2.3775339,-3.0330043,1.8489532,-0.33317229,-0.12709624,0.93426055,0
2.2892365,2.097261,1.3768411,0.71301425,0.61438292,0.33785254,0
-0.9760645,0.94347191,-3.4169548,0.33317229,0.12709624,-0.93426055,0
1.484756,-2.8740582,1.347114,0.54793,-0.83248067,0.082150444,0
-0.14893401,1.3058703,-3.2662089,0.33317229,0.12709624,-0.93426055,0
2.5344553,-1.7162864,2.615,0.86923468,-0.42527935,0.25212827,0
3.2048965,-0.38022888,1.978147,0.94282228,-0.054444194,0.32881898,0
-3.9969821,1.0074086,2.0794668,-0.33317229,-0.12709624,0.93426055,0
-0.15659881,-1.7144549,-3.4355958,0.33317229,0.12709624,-0.93426055,0
-0.44389343,-3.1521969,2.5200949,-0.33317229,-0.12709624,0.93426055,0
2.6548531,-2.6032157,-1.1404755,0.62693137,-0.76995897,0.11882903,0
-1.197242,-3.9490788,2.0397506,-0.083130479,-0.98305458,-0.16337982,0
-1.5118858,3.0836554,-0.84163427,-0.493119,0.86804193,-0.057766277,0
-3.7363806,-0.29858565,1.7813911,-0.33317229,-0.12709624,0.93426055,0
2.2151449,0.056761503,4.0985961,-0.33317229,-0.12709624,0.93426055,0
-2.1961842,-1.1835372,-3.5011945,-0.81284714,-0.46339121,-0.3529138,0
-3.053688,-0.16860747,2.2851799,-0.33317229,-0.12709624,0.93426055,0
-0.26070452,-2.7548711,-3.0828595,-0.33984959,-0.90807998,-0.24473041,0
-2.2507222,0.84264416,-3.5874324,-0.93763578,0.14888459,-0.31412178,0
0.18681908,-0.88602102,-3.2450099,0.33317229,0.12709624,-0.93426055,0
3.3882265,2.3581746,-1.8694909,0.33317229,0.12709624,-0.93426055,0
-1.2576075,-1.8000053,-3.8287311,0.33317229,0.12709624,-0.93426055,0
-0.39152622,1.7066053,3.2691102,-0.33317229,-0.12709624,0.93426055,0
1.4834886,2.9645939,1.6123278,0.46786577,0.83798921,0.28084803,0
-1.6439363,-3.5211816,1.2820476,-0.2796402,-0.93297023,-0.22664481,0
-1.1622522,-2.6384809,2.3294916,-0.33317229,-0.12709624,0.93426055,0
-2.0660434,-0.72376299,2.4201097,-0.33317229,-0.12709624,0.93426055,0
-0.06099987,0.51316798,3.1431108,-0.33317229,-0.12709624,0.93426055,0
-2.9917834,-0.29757982,-1.9320524,-0.93442011,-0.08782056,-0.34517622,0
1.1419621,-3.3672214,-1.4193157,0.20684814,-0.97658706,-0.059088916,0
1.660655,2.7348933,-2.2271509,0.33317229,0.12709624,-0.93426055,0
4.0675087,0.18583822,-1.5561775,0.94273323,-0.028273702,0.33234745,0
-4.0354629,-0.40105343,1.6110204,-0.33317229,-0.12709624,0.93426055,0
3.0898187,2.18292,-0.23882794,0.71028185,0.61781698,0.33734536,0
-2.5383511,2.7347755,2.67156,-0.33317229,-0.12709624,0.93426055,0
2.6107221,2.125566,-1.8730667,0.33317229,0.12709624,-0.93426055,0
-2.5902791,1.9195489,-2.6362467,-0.86779165,0.42879927,-0.25113481,0
-3.877007,-1.4625595,1.1117573,-0.87033349,-0.33965981,-0.35658199,0
3.5216613,-1.0062277,-2.2746038,0.33317229,0.12709624,-0.93426055,0
1.2814977,2.4909995,3.4128387,0.55770046,0.772385,0.30395973,0
-0.22508693,1.3852954,3.4788465,-0.33317229,-0.12709624,0.93426055,0
2.9221907,1.9475527,0.76936626,0.76636189,0.54072165,0.34685642,0
-0.70636725,-3.0416112,-1.8409712,-0.29382825,-0.92753452,-0.23096508,0
3.1994927,-0.14484978,-1.9259698,0.33317229,0.12709624,-0.93426055,0
-0.38020897,-1.7264049,-3.6432893,0.33317229,0.12709624,-0.93426055,0
1.2561597,1.3097596,-2.5189157,0.33317229,0.12709624,-0.93426055,0
2.4439173,0.98461223,2.4304085,0.85600716,0.37463492,0.35623097,0
0.12707877,1.5142336,3.314714,-0.33317229,-0.12709624,0.93426055,0
-0.13030291,-3.4316874,-0.92182314,-0.10036826,-0.98046231,-0.16917437,0
0.2224226,-3.5506859,0.94134337,0.16251475,-0.98378432,-0.075878084,0
2.8363113,-0.62586522,-2.4711616,0.33317229,0.12709624,-0.93426055,0
-3.8633835,-1.7726917,1.4485652,-0.33317229,-0.12709624,0.93426055,0
-1.7129068,-2.1367602,-2.8321524,-0.69693613,-0.63417757,-0.33481169,0
-3.2109685,2.0724177,2.1931653,-0.33317229,-0.12709624,0.93426055,0
-0.50851989,3.3658962,-1.4596522,-0.35139149,0.93622637,0.0020518005,0
-2.1577561,0.21223879,-4.0262618,0.33317229,0.12709624,-0.93426055,0
3.2190082,-1.964929,-0.2156831,0.81073177,-0.54448897,0.21504802,0
1.1660779,-0.45441461,-2.954695,0.33317229,0.12709624,-0.93426055,0
-2.7293561,-2.1601119,-1.0800006,-0.71823406,-0.60773963,-0.33881032,0
-1.33845,-3.1566658,-0.52002645,-0.40160912,-0.87736189,-0.26257604,0
2.431324,-0.86625838,2.9968386,0.93588924,-0.1648958,0.31132078,0
-1.4442984,-2.5687582,2.3427701,-0.33317229,-0.12709624,0.93426055,0
-1.2963066,0.1896174,-3.813282,0.33317229,0.12709624,-0.93426055,0
-0.17671561,-0.93762267,-3.575654,0.33317229,0.12709624,-0.93426055,0
1.036979,0.37621856,3.4341674,-0.33317229,-0.12709624,0.93426055,0
-2.7414579,0.77989167,-2.0942264,-0.93539739,0.16902497,-0.31058365,0
-1.4317557,-1.2557249,2.5362978,-0.33317229,-0.12709624,0.93426055,0
-0.043958902,3.7356396,-2.2160425,-0.24386477,0.96877277,0.044825166,0
0.74129891,3.5342402,-0.042916775,0.12747926,0.97570252,0.17819518,0
-3.211834,0.43452996,-1.6285876,-0.93943882,0.12915447,-0.31744885,0
1.8850678,-0.5454855,-2.756722,0.33317229,0.12709624,-0.93426055,0
-0.53602815,0.73614788,3.1456351,-0.33317229,-0.12709624,0.93426055,0
-1.2184446,-3.329062,2.4751933,-0.33317229,-0.12709624,0.93426055,0
-1.9152749,-1.1745319,2.2258747,-0.33317229,-0.12709624,0.93426055,0
-1.9246662,-0.87312299,-4.0655704,-0.86874771,-0.34371069,-0.3565675,0
-4.2316036,0.27455568,1.8637902,-0.33317229,-0.12709624,0.93426055,0
3.1628523,-1.3135378,0.62513649,0.87702119,-0.4055647,0.25758702,0
2.8025744,2.630446,-0.26172042,0.67245185,0.66253275,0.3299377,0
1.6674885,-0.55182958,-2.7260745,0.33317229,0.12709624,-0.93426055,0
-1.7903755,-2.4707994,2.1545308,-0.33317229,-0.12709624,0.93426055,0
2.7952435,1.6088418,1.0804946,0.84189445,0.40602478,0.35546839,0
-1.2500552,-0.037424564,2.8352334,-0.33317229,-0.12709624,0.93426055,0
2.753638,2.532588,-0.52403522,0.67522287,0.65942538,0.33050305,0
0.6427564,-1.7209212,3.293313,-0.33317229,-0.12709624,0.93426055,0
-0.1529727,3.7359858,-0.17982531,-0.06945318,0.99148929,0.11011353,0
2.2733049,0.86691546,3.1166472,0.88986248,0.28515783,0.35613191,0
1.7936203,-2.0684352,3.4711559,-0.33317229,-0.12709624,0.93426055,0
-0.9824549,-0.60713995,-3.7662559,0.33317229,0.12709624,-0.93426055,0
1.5942645,-1.2809331,-2.7510791,0.33317229,0.12709624,-0.93426055,0
-1.7927591,-0.95975924,2.5213537,-0.33317229,-0.12709624,0.93426055,0
1.6537168,-2.0394692,-2.7335439,0.33317229,0.12709624,-0.93426055,0
-0.5160321,0.66410959,-3.2439549,0.33317229,0.12709624,-0.93426055,0
0.7260977,0.46769953,3.4653158,-0.33317229,-0.12709624,0.93426055,0
-1.1949793,-0.30189085,2.6896029,-0.33317229,-0.12709624,0.93426055,0
1.7494943,2.6634872,-2.2074308,0.33317229,0.12709624,-0.93426055,0
1.0743191,-0.62126398,-2.8403466,0.33317229,0.12709624,-0.93426055,0
-0.5471617,-0.23742127,-3.5784135,0.33317229,0.12709624,-0.93426055,0
-0.98488736,-1.0575527,-3.80405,0.33317229,0.12709624,-0.93426055,0
-1.2207232,3.3592439,-0.89547098,-0.47849745,0.87658387,-0.051389933,0
-1.1357853,-2.0140617,-3.9074984,0.33317229,0.12709624,-0.93426055,0
-2.066793,3.0293725,1.852291,-0.37660122,0.92633843,-0.0082834661,0
3.1962345,2.9538286,-1.307873,0.63456804,0.70264757,0.32188493,0
2.1872675,-2.1793466,-2.7886434,0.33317229,0.12709624,-0.93426055,0
-1.3075593,3.3806658,0.49155873,-0.34933585,0.93699318,0.0028892457,0
-0.54892349,-2.2620039,-3.7729399,0.33317229,0.12709624,-0.93426055,0
-3.1364717,2.2311912,1.5211403,-0.6767571,0.72216499,-0.14309953,0
1.8435254,-1.2302113,-2.8250756,0.33317229,0.12709624,-0.93426055,0
2.8003964,-1.1132567,-2.4418764,0.33317229,0.12709624,-0.93426055,0
1.486554,-2.4061041,3.508146,-0.33317229,-0.12709624,0.93426055,0
-3.4503331,1.9589589,1.9171847,-0.73015648,0.66169941,-0.1703683,0
1.9688978,-1.221385,-2.5387661,0.33317229,0.12709624,-0.93426055,0
3.1855488,0.98193407,0.42205644,0.88269985,0.3062467,0.3564465,0
-0.90436292,3.3251479,-1.420205,-0.3542555,0.9351483,0.00088386238,0
-0.40240383,-3.6619148,1.6497955,0.11156499,-0.98922622,-0.094787866,0
-3.2932391,1.9226578,1.290148,-0.73510128,0.6555202,-0.17297231,0
2.5556984,2.4319787,0.48980665,0.61707407,0.71979767,0.31797928,0
-3.1628876,0.13918757,-1.4326158,-0.94270998,0.026878774,-0.33252895,0
-1.8584036,-3.1527591,0.078857422,-0.45069391,-0.84887338,-0.27620488,0
-1.1851566,2.5603783,-3.446048,0.33317229,0.12709624,-0.93426055,0
-1.9336674,1.9668068,2.8094888,-0.33317229,-0.12709624,0.93426055,0
-1.0929422,-3.2941065,-1.1818974,-0.32815474,-0.91329277,-0.24126905,0
3.7833369,-0.082383394,-0.55621219,0.94286573,-0.045733452,0.33001947,0
1.66945,-3.0664868,-0.29463738,0.47610843,-0.87794381,0.050352957,0
2.9370394,2.7892747,-0.5856421,0.62935913,0.70783973,0.32073361,0
0.98773724,-2.323216,3.3623629,-0.33317229,-0.12709624,0.93426055,0
2.660079,1.9115152,-2.0237174,0.33317229,0.12709624,-0.93426055,0
-1.9903567,-0.93174672,-3.9239502,0.33317229,0.12709624,-0.93426055,0
3.9268615,1.0386205,-1.6176605,0.33317229,0.12709624,-0.93426055,0
-2.4434333,2.3907394,2.7383068,-0.33317229,-0.12709624,0.93426055,0
-1.2042952,1.8708293,3.0166082,-0.33317229,-0.12709624,0.93426055,0
0.83542013,1.9606365,3.6251493,-0.33317229,-0.12709624,0.93426055,0
-1.4969902,3.0071793,0.6267342,-0.38459891,0.92301095,-0.01158829,0
-1.669709,2.6569884,-2.2821925,-0.68878949,0.70945948,-0.14911892,0
3.1101055,0.8501004,1.6249542,0.9060899,0.23088083,0.3545351,0
0.15875363,-3.7560768,2.3906002,0.33130091,-0.94347,-0.010201856,0
0.84899306,-3.4707065,-1.1123899,0.15146381,-0.98521894,-0.080014169,0
-0.4345572,3.4760466,-1.9416144,-0.296574,0.95470548,0.024114504,0
1.9953698,-2.1134791,3.3954482,0.84977877,-0.46977627,0.23913664,0
-1.6858263,0.86352468,2.5840049,-0.33317229,-0.12709624,0.93426055,0
-3.8253746,-1.3563623,1.8682663,-0.33317229,-0.12709624,0.93426055,0
-0.53612655,-0.57478023,2.8116426,-0.33317229,-0.12709624,0.93426055,0
0.3007977,3.5602629,-0.32133627,-0.022105217,0.99165368,0.12702093,0
-0.19038439,0.38456643,-3.1043694,0.33317229,0.12709624,-0.93426055,0
-1.1212828,3.2350569,1.6511438,-0.16458642,0.98349947,0.075100482,0
-1.1378653,3.5313036,-1.0651819,-0.38590693,0.92245793,-0.012129977,0
-3.3036466,1.4091425,-0.247352,-0.88153517,0.3935239,-0.26083481,0
0.61725664,-2.0326605,3.1284275,-0.33317229,-0.12709624,0.93426055,0
0.92537081,-1.4037739,3.4806662,-0.33317229,-0.12709624,0.93426055,0
0.92968917,-3.3536994,1.5269322,0.39201385,-0.91984242,0.014663599,0
-2.363277,1.7142429,-2.3217831,-0.87288356,0.41619685,-0.25466517,0
-0.5027647,3.2537539,3.0771346,0.14778459,0.97158659,0.18487638,0
-0.9871664,3.0690587,2.7902207,-0.053462505,0.99182558,0.11586171,0
1.0830179,-1.2486451,3.2190857,-0.33317229,-0.12709624,0.93426055,0
-0.69765365,-2.04075,2.6820302,-0.33317229,-0.12709624,0.93426055,0
-4.1599379,0.0022501945,1.8463167,-0.33317229,-0.12709624,0.93426055,0
3.5956345,1.1545463,-1.6198635,0.33317229,0.12709624,-0.93426055,0
-0.53724015,1.8929799,-3.3157086,0.33317229,0.12709624,-0.93426055,0
-1.4677217,2.2484183,3.1666944,-0.33317229,-0.12709624,0.93426055,0
2.9504201,-0.056936741,1.6890228,0.94253844,-0.018780202,0.33356947,0
-3.3511846,-0.05751276,2.1691232,-0.33317229,-0.12709624,0.93426055,0
-1.6373293,-3.4747984,0.1581049,-0.33056194,-0.91223508,-0.24198353,0
-0.1690948,-2.4734488,2.9050159,-0.33317229,-0.12709624,0.93426055,0
2.8135223,-1.3236482,-2.4258494,0.33317229,0.12709624,-0.93426055,0
0.16159582,1.4662735,3.4129691,-0.33317229,-0.12709624,0.93426055,0
-1.7625504,2.2098672,3.0353413,-0.33317229,-0.12709624,0.93426055,0
-3.1038904,-2.1705351,0.13392711,-0.78368843,-0.51360452,-0.34934628,0
2.8147655,-1.1389432,-2.4476168,0.33317229,0.12709624,-0.93426055,0
0.11317778,-3.1672821,-3.4596407,-0.19154602,-0.96108681,-0.199054,0
0.91487217,2.532747,3.8488324,0.53007913,0.79420453,0.29707783,0
-0.35584041,1.8077321,-3.3018258,0.33317229,0.12709624,-0.93426055,0
2.2076545,1.4555614,3.3345919,0.78605527,0.50975513,0.34966671,0
-2.810668,2.5139303,2.55585,-0.33317229,-0.12709624,0.93426055,0
0.62281984,-1.8514047,3.0891633,-0.33317229,-0.12709624,0.93426055,0
0.44839716,-3.3573117,0.79004759,0.23106611,-0.97166359,-0.049782664,0
0.58692503,-3.5635791,0.51504487,0.20554912,-0.9768312,-0.059585422,0
-3.4532514,-0.42923594,-1.1428878,-0.93624449,-0.07262966,-0.34376025,0
-3.7274389,0.61116505,2.1379199,-0.33317229,-0.12709624,0.93426055,0
2.6574757,0.69780475,2.4348946,0.91096199,0.21218771,0.35372955,0
1.326746,-0.74234021,3.5095613,-0.33317229,-0.12709624,0.93426055,0
2.0953231,3.5485067,-2.152698,0.33317229,0.12709624,-0.93426055,0
-2.1269722,-1.7136204,-3.4524565,-0.77716053,-0.52403522,-0.34843731,0
3.7513547,1.8728487,-1.6238356,0.33317229,0.12709624,-0.93426055,0
1.7361329,2.5537467,0.99636149,0.54564571,0.78209984,0.30098248,0
1.2418554,-3.2155626,-0.083422422,0.33976442,-0.94048619,-0.0067777485,0
-1.8905787,2.8809302,1.0436831,-0.41087639,0.91141248,-0.022537105,0
-2.4550745,-1.3045353,-2.3785594,-0.81614149,-0.45729718,-0.35325962,0
1.8482941,2.8294659,-2.0990295,0.33317229,0.12709624,-0.93426055,0
-1.0678459,2.033741,-3.4104879,0.33317229,0.12709624,-0.93426055,0
0.93339992,-2.3900113,-3.3776009,0.33317229,0.12709624,-0.93426055,0
-1.9953525,2.0467687,-2.606698,-0.8099339,0.54586059,-0.21457687,0
0.73975885,-3.4904563,2.3186359,0.48835671,-0.8708657,0.055683762,0
-4.3439713,-0.34672165,1.6161616,-0.33317229,-0.12709624,0.93426055,0
1.1387606,3.0166545,2.0491371,0.42360896,0.86506063,0.2687481,0
1.9258827,3.1791229,-0.80968618,0.40172201,0.87730074,0.26260799,0
1.0052671,-2.4212151,3.1250815,-0.33317229,-0.12709624,0.93426055,0
-0.31945944,0.81311893,-3.1566861,0.33317229,0.12709624,-0.93426055,0
1.4806691,0.94755197,-2.5583553,0.33317229,0.12709624,-0.93426055,0
2.8349912,0.97791123,-2.2490594,0.33317229,0.12709624,-0.93426055,0
-0.74777162,3.0097489,-2.8807139,0.33317229,0.12709624,-0.93426055,0
3.582478,1.7112708,-1.0190539,0.83324033,0.42403382,0.35483211,0
2.1654913,-2.8591845,-2.7473063,0.33317229,0.12709624,-0.93426055,0
-3.1953084,0.38113523,2.1193893,-0.33317229,-0.12709624,0.93426055,0
-0.35996294,2.7879419,3.4628575,-0.33317229,-0.12709624,0.93426055,0
0.51520151,-1.1219891,3.4383733,-0.33317229,-0.12709624,0.93426055,0
-1.9394336,2.9638393,2.7091658,-0.33317229,-0.12709624,0.93426055,0
1.0700245,-3.1555564,-3.3235736,0.067401648,-0.99154866,-0.11085314,0
-1.9728315,3.1570218,2.204282,-0.31831491,0.94785941,0.015430018,0
-0.36640692,-0.57224071,-3.3702202,0.33317229,0.12709624,-0.93426055,0
-1.7129078,3.089489,2.2298329,-0.24211437,0.96918005,0.045504808,0
3.5593996,-1.0795392,-0.25101066,0.90914911,-0.30591655,0.28260046,0
-0.69254375,3.4197977,1.1845579,-0.11917913,0.98860246,0.091987699,0
2.7141709,0.05694297,2.5400395,0.9337281,0.093142718,0.34565347,0
-2.4727826,-1.4644198,2.1608784,-0.33317229,-0.12709624,0.93426055,0
-1.5553825,3.1234279,0.39958939,-0.35443085,0.93508196,0.0008122623,0
2.1490369,3.0412378,-0.53448224,0.4990105,0.81695396,0.28909308,0
1.5645789,-0.46020818,-2.6192126,0.33317229,0.12709624,-0.93426055,0
2.0745935,-0.25492501,-2.5999742,0.33317229,0.12709624,-0.93426055,0
-0.81472516,-3.9895926,2.3664155,0.0083637238,-0.99123257,-0.13186404,0
0.18121147,2.9680552,2.5768967,0.27748168,0.93377465,0.22598451,0
-2.5207505,1.9156864,2.3623672,-0.33317229,-0.12709624,0.93426055,0
0.97115731,-3.3403187,2.8742561,0.58270741,-0.80674499,0.098053709,0
0.81183398,-0.96115446,3.3238873,-0.33317229,-0.12709624,0.93426055,0
-0.22930551,0.42157114,-3.0550404,0.33317229,0.12709624,-0.93426055,0
-2.2911973,2.4227488,-2.6632614,-0.79840267,0.56511348,-0.20784551,0
-0.25154877,-3.1477165,-1.8775362,-0.14785999,-0.97157037,-0.18490112,0
-1.9580021,-1.0893977,-3.9879618,-0.83230567,-0.42592841,-0.35475659,0
-0.5689944,-0.02298665,3.1278012,-0.33317229,-0.12709624,0.93426055,0
3.1209834,2.1321869,-0.74039221,0.75058079,0.56393802,0.34438694,0
-0.14811039,3.3568316,1.2435517,0.0043916702,0.99065328,0.136334,0
1.8354912,2.2879939,2.3482683,0.65596604,0.68051684,0.32650501,0
2.0881379,0.71507096,3.821486,0.89450765,0.27065054,0.35581487,0
-1.7648345,-1.1014333,2.5203991,-0.33317229,-0.12709624,0.93426055,0
1.8309352,-1.639353,3.6523316,-0.33317229,-0.12709624,0.93426055,0
-2.955519,2.219578,0.029425383,-0.76358533,0.61764646,-0.18828252,0
-2.7004666,1.5721526,2.5112157,-0.33317229,-0.12709624,0.93426055,0
2.5980892,2.87272,-1.8548658,0.33317229,0.12709624,-0.93426055,0
0.99262476,-3.172965,-2.4729872,0.10463691,-0.98973656,-0.097327918,0
1.3879523,1.0909797,3.7703371,-0.33317229,-0.12709624,0.93426055,0
2.619348,2.7388508,-0.3543539,0.57558191,0.75740188,0.30829829,0
-0.71030021,2.2430625,3.4594238,-0.33317229,-0.12709624,0.93426055,0
2.0578609,2.6851454,-2.0689187,0.33317229,0.12709624,-0.93426055,0
-0.86025727,-3.6738985,2.529984,-0.33317229,-0.12709624,0.93426055,0
2.7193305,-2.619544,-1.7526524,0.57978618,-0.80900955,0.096703887,0
-0.23657799,3.3683333,1.1043116,-0.022571921,0.99166423,0.12685591,0
-2.5500216,-2.9462905,0.75032353,-0.52924287,-0.79484105,-0.29686624,0
-0.38910246,3.3864632,-2.9537468,0.33317229,0.12709624,-0.93426055,0
3.3718057,-0.36272371,0.34825468,0.94112587,-0.10500029,0.32133639,0
-1.924733,0.37049985,2.3979897,-0.33317229,-0.12709624,0.93426055,0
-3.133184,1.8631709,-0.38048899,-0.82777745,0.51383442,-0.22529697,0
-1.2418916,-2.7586896,-1.588462,-0.4425416,-0.85386962,-0.27397734,0
-1.7668195,-3.7542086,1.7757484,-0.19243729,-0.96084946,-0.19933969,0
-3.254159,-1.8794577,0.17251086,-0.80164683,-0.48343289,-0.35164601,0
1.1954722,1.6329207,-2.420958,0.33317229,0.12709624,-0.93426055,0
2.3334031,1.8268404,1.9804077,0.79052502,0.50238407,0.35025787,0
-3.5665896,0.25113392,-0.3986907,-0.93735254,0.1516481,-0.31364483,0
1.0529249,0.12394834,-2.7874136,0.33317229,0.12709624,-0.93426055,0
-2.8076422,-1.5901052,-0.77625704,-0.79466301,-0.49543726,-0.35078847,0
0.75737154,-0.72997832,3.2776816,-0.33317229,-0.12709624,0.93426055,0
-2.2721622,-1.927587,2.1895142,-0.33317229,-0.12709624,0.93426055,0
-1.1483278,0.39919972,2.6922905,-0.33317229,-0.12709624,0.93426055,0
-2.0151224,1.671959,-3.4891934,0.33317229,0.12709624,-0.93426055,0
-3.1271634,-1.7451499,2.0589175,-0.33317229,-0.12709624,0.93426055,0
2.754756,1.6987823,1.6492159,0.81253755,0.46395916,0.3528806,0
-1.801452,2.3990691,-3.2556632,-0.7810452,0.5922665,-0.19796163,0
-0.78871161,1.560498,-3.4858618,0.33317229,0.12709624,-0.93426055,0
1.5952091,-1.8749471,-2.7681584,0.33317229,0.12709624,-0.93426055,0
0.23320651,2.5875223,-2.6643105,0.33317229,0.12709624,-0.93426055,0
0.41076112,3.1583209,2.5124507,0.27909195,0.93317497,0.22647727,0
-0.38024861,-0.59740734,2.8093028,-0.33317229,-0.12709624,0.93426055,0
0.90284824,-3.4733443,0.99139071,0.33678806,-0.94154668,-0.0079834014,0
2.9588718,1.0446208,-1.9438066,0.33317229,0.12709624,-0.93426055,0
1.5055771,-1.714973,3.3762972,-0.33317229,-0.12709624,0.93426055,0
1.9207361,2.6346858,1.7047958,0.61018765,0.72632939,0.31641209,0
1.1774802,-3.0527575,2.4422698,0.57653332,-0.8115083,0.095203921,0
2.4157898,-2.0648065,1.4739019,0.79610389,-0.56883043,0.20652002,0
3.4810226,0.97416306,-1.8091993,0.33317229,0.12709624,-0.93426055,0
3.1525044,2.4344139,-0.39444399,0.69971222,0.63082933,0.33534628,0
3.4246352,-0.93720031,0.27421236,0.91707599,-0.27384943,0.28978968,0
0.70907402,3.6750481,-0.77654886,0.09604454,0.98114407,0.16772529,0
-0.32603824,1.1452738,-3.1958864,0.33317229,0.12709624,-0.93426055,0
-2.123672,2.7695854,-0.019497335,-0.53846031,0.83904421,-0.077880494,0
-2.3303018,2.5340042,2.9021571,-0.33317229,-0.12709624,0.93426055,0
-1.1891786,-2.9514918,2.5754657,-0.33317229,-0.12709624,0.93426055,0
0.96330869,3.0017276,-2.4576914,0.33317229,0.12709624,-0.93426055,0
-0.749964,-0.29379249,2.7770944,-0.33317229,-0.12709624,0.93426055,0
-0.41820139,2.9235921,-2.930696,0.33317229,0.12709624,-0.93426055,0
3.5403914,-0.085076571,0.59546375,0.94151551,0.0081674755,0.33687067,0
-2.1632595,0.27708578,2.5582023,-0.33317229,-0.12709624,0.93426055,0
-0.17660618,3.0201361,3.1739538,0.23321784,0.94897425,0.21226716,0
2.9446156,1.3890451,0.88431454,0.83887541,0.41240567,0.35525984,0
0.064322785,-1.520034,2.8459883,-0.33317229,-0.12709624,0.93426055,0
0.43041432,-0.21666718,-3.1108375,0.33317229,0.12709624,-0.93426055,0
0.9402945,-2.933567,3.0708425,-0.33317229,-0.12709624,0.93426055,0
1.9018474,-1.2064192,-2.4912195,0.33317229,0.12709624,-0.93426055,0
3.5902038,1.385242,0.11523652,0.87811768,0.31903043,0.35655159,0
0.73533154,-0.11011815,-3.0380404,0.33317229,0.12709624,-0.93426055,0
-2.6709418,-2.8537092,0.59799361,-0.59281385,-0.74228454,-0.31238687,0
-0.87441134,-0.34303498,-3.556118,0.33317229,0.12709624,-0.93426055,0
-3.5464168,-1.4366894,0.68273807,-0.87623852,-0.32412982,-0.35657519,0
-0.16741228,2.9276905,2.7526023,0.15707785,0.96954393,0.18791264,0
-1.6468389,1.0664881,-3.4409964,0.33317229,0.12709624,-0.93426055,0
2.466835,-0.74777508,-2.3378506,0.33317229,0.12709624,-0.93426055,0
2.0205426,3.4858902,-1.1584673,0.41212034,0.87157714,0.2655375,0
3.5924454,1.5973208,-0.10032821,0.86676782,0.34870127,0.35654038,0
-0.47196972,-3.647948,2.0357709,0.089819968,-0.99064517,-0.10273549,0
-3.2247677,1.7473428,0.69034088,-0.77923393,0.59498477,-0.19694594,0
-2.4776571,2.0558233,2.5313742,-0.33317229,-0.12709624,0.93426055,0
0.66518879,-2.4548416,-3.1548655,0.33317229,0.12709624,-0.93426055,0
-3.3554063,1.4529526,1.059695,-0.82226217,0.52404904,-0.22194058,0
-1.3256152,1.0779135,2.9608619,-0.33317229,-0.12709624,0.93426055,0
0.6730597,2.9383526,2.8849306,0.41487533,0.87003309,0.26630992,0
0.31689644,-1.0735435,-3.4358642,0.33317229,0.12709624,-0.93426055,0
3.4983416,2.0045788,-1.7044582,0.33317229,0.12709624,-0.93426055,0
2.0614681,-2.9082775,-2.5103269,0.33595318,-0.94184196,-0.00832133,0
-3.2251377,1.892328,1.35072,-0.74514258,0.6426267,-0.17830721,0
2.995008,-1.9849555,-0.12369514,0.74322945,-0.64511991,0.17728584,0
1.5975111,2.7259338,1.2542849,0.46496063,0.83986539,0.28006721,0
0.20020533,0.49157476,-3.0716722,0.33317229,0.12709624,-0.93426055,0
-0.32147551,2.552057,-2.8161273,0.33317229,0.12709624,-0.93426055,0
-1.1351721,3.5655525,-0.87255633,-0.35771585,0.93383038,-0.00052949786,0
-0.15398014,-2.1155903,2.6648052,-0.33317229,-0.12709624,0.93426055,0
-0.45289469,3.3954277,-0.014272094,-0.2062934,0.9766916,0.059301019,0
-1.4247513,-1.6147078,-3.8508496,0.33317229,0.12709624,-0.93426055,0
-1.9483232,-1.3751171,-4.2000027,-0.80047309,-0.4854759,-0.35150534,0
-3.4530506,-0.83551323,-1.0416179,-0.91088295,-0.21250233,-0.35374409,0
0.45584774,-3.4328218,-1.8628066,-0.034104526,-0.98860019,-0.14665079,0
3.059546,0.57367969,-2.2253785,0.33317229,0.12709624,-0.93426055,0
1.0896428,3.6662872,-1.589468,0.060991347,0.98589265,0.15587074,0
-2.9673531,1.6181946,-1.0421053,-0.86788893,0.42856339,-0.25120157,0
1.6739795,3.1699719,-0.061788559,0.40249413,0.8768813,0.2628262,0
0.18383384,-0.54544795,3.0247383,-0.33317229,-0.12709624,0.93426055,0
-3.4076471,-2.2830613,0.79089952,-0.72207385,-0.60278165,-0.3395052,0
4.1816192,-0.033574343,-0.8535037,0.9405542,-0.11414471,0.31988853,0
-1.0407329,1.7312828,3.0236139,-0.33317229,-0.12709624,0.93426055,0
2.1519513,0.30006272,3.6495492,0.90518564,0.2342048,0.35466474,0
1.788543,-0.58415008,-2.7200422,0.33317229,0.12709624,-0.93426055,0
1.999622,2.6663573,-2.0113673,0.33317229,0.12709624,-0.93426055,0
-1.5143223,-1.3590822,-3.8657508,0.33317229,0.12709624,-0.93426055,0
-0.32269025,-1.5648289,-3.6742611,0.33317229,0.12709624,-0.93426055,0
3.4469216,0.59505367,-2.090971,0.33317229,0.12709624,-0.93426055,0
3.1122332,1.5287797,1.0241311,0.82988876,0.43078443,0.35455525,0
-3.8607776,-0.32090569,1.9718733,-0.33317229,-0.12709624,0.93426055,0
3.4133737,-0.85055709,-2.2969298,0.33317229,0.12709624,-0.93426055,0
2.123548,1.2064519,3.0894141,0.84895355,0.39066112,0.35589576,0
3.47087,0.50477862,0.33208036,0.93228114,0.10364944,0.34656686,0
-3.432447,-0.36858821,1.8957925,-0.33317229,-0.12709624,0.93426055,0
-1.6300659,2.4393787,-3.2823367,0.33317229,0.12709624,-0.93426055,0
-0.0018010139,-0.61423695,-3.5055077,0.33317229,0.12709624,-0.93426055,0
-2.4771454,0.28987098,2.3287294,-0.33317229,-0.12709624,0.93426055,0
0.16687989,-1.6422304,-3.4205441,0.33317229,0.12709624,-0.93426055,0
-3.3971496,-0.95979404,-0.11505008,-0.90819895,-0.22295842,-0.35420936,0
-3.5388169,-1.4472601,1.6355422,-0.33317229,-0.12709624,0.93426055,0
-3.5608573,0.57302547,1.9477179,-0.33317229,-0.12709624,0.93426055,0
-2.7959383,1.9960867,-1.2867016,-0.82180738,0.52487808,-0.22166556,0
2.336719,0.18914387,3.3320794,0.92274523,0.15965849,0.35078555,0
-0.92383015,1.4253311,-3.4724913,0.33317229,0.12709624,-0.93426055,0
3.1781976,0.31988668,-1.9712691,0.33317229,0.12709624,-0.93426055,0
3.3962564,0.75600982,-1.9838769,0.33317229,0.12709624,-0.93426055,0
