2.9459648,-1.4681356,1.895541,0.7322365,-0.36115721,0.57740396,0
1.1597869,-0.84747761,3.9879355,0.4534288,-0.56869602,0.68628526,0
-2.4044528,2.5005124,-1.7418253,-0.5405668,0.51636457,-0.6641953,0
1.5981746,-2.0142713,-1.6877805,0.22480404,-0.67212296,-0.70548838,0
0.77739835,-4.1357689,-0.29992378,0.22480404,-0.67212296,-0.70548838,0
0.16067421,1.712137,2.5339649,-0.22480404,0.67212296,0.70548838,0
-3.1858852,-2.4331737,-0.093828917,-0.87912798,-0.45215383,0.1506353,0
-0.58800745,-4.4162474,-0.2748062,0.22480404,-0.67212296,-0.70548838,0
-1.0586939,2.1622212,-3.0427456,-0.34118718,0.62388945,-0.70310265,0
-0.025949955,3.0204015,-2.1459651,0.001157999,0.72420418,-0.68958467,0
2.8590963,-2.5829101,-0.78970981,0.22480404,-0.67212296,-0.70548838,0
-1.2439047,-3.4626391,-1.0983788,0.22480404,-0.67212296,-0.70548838,0
2.0874028,-0.013559818,-3.7043738,0.22480404,-0.67212296,-0.70548838,0
2.7623205,1.5605615,-1.931432,0.71763086,0.60397142,-0.34673402,0
-1.5893128,1.5728582,2.2388082,-0.22480404,0.67212296,0.70548838,0
1.6360555,0.85760152,-4.1758447,0.24338728,0.73980296,-0.62725931,0
1.8546391,-0.97547257,-2.5082846,0.22480404,-0.67212296,-0.70548838,0
-0.95387411,-0.68325472,4.5247188,-0.22480404,0.67212296,0.70548838,0
3.3671851,1.9754766,1.9934607,0.97420853,0.16953754,0.14891231,0
-3.9233501,0.49682117,0.93132496,-0.97391999,-0.17780566,-0.14094335,0
-1.2811861,-0.25710237,4.3001223,-0.22480404,0.67212296,0.70548838,0
3.1182451,3.0109739,2.052206,0.95691991,0.28882289,0.029759407,0
-4.2846975,0.78677201,1.1758041,-0.97412825,-0.17224807,-0.14630437,0
0.60424805,1.13186,-4.2455835,0.071391821,0.73343569,-0.67599958,0
0.70891953,-4.1132522,1.1076819,0.092012763,-0.70614243,0.702066,0
3.8744154,-2.5635657,-0.49648762,0.22480404,-0.67212296,-0.70548838,0
4.0022144,-2.283649,-0.27822256,0.9034043,-0.12754381,0.40938169,0
-0.49780488,-3.4098787,1.5449299,-0.18226671,-0.74024677,0.64715821,0
2.2023411,3.1795344,-1.1509467,0.59306705,0.66884792,-0.44823456,0
2.476799,-3.3688524,-0.055382013,0.22480404,-0.67212296,-0.70548838,0
-2.7783275,-3.0758014,-0.22182918,-0.83576244,-0.50523734,0.2150268,0
2.3236606,-0.94936639,2.7079124,0.71270955,-0.38030118,0.58942026,0
-3.5751643,-1.1113186,1.543155,-0.84558576,-0.49434349,0.201518,0
-2.3717456,1.6279031,-2.4907813,-0.62788033,0.4537465,-0.63236117,0
-2.0942202,-2.3060102,2.557291,-0.47000659,-0.70902127,0.52572107,0
2.0252616,2.6591003,2.3182812,-0.22480404,0.67212296,0.70548838,0
1.3182585,-4.0062418,1.1998578,0.24792159,-0.66073918,0.70849037,0
1.9124601,2.1859131,-2.8246715,0.4373281,0.71659786,-0.54335237,0
-1.7651525,2.3017824,1.7438658,-0.22480404,0.67212296,0.70548838,0
3.1329761,2.4003,0.61077666,0.91395366,0.39649099,-0.086507857,0
-3.770956,0.82370627,0.10183549,-0.96096271,-0.033082247,-0.27469331,0
0.68705195,2.3187292,2.5204892,-0.22480404,0.67212296,0.70548838,0
-3.171483,-2.0462701,-0.97733402,-0.94009155,-0.34004778,0.024405241,0
3.8207636,0.71919346,-1.9435303,0.87484908,0.4580391,-0.15760583,0
-3.7436757,2.2363849,0.72205305,-0.22480404,0.67212296,0.70548838,0
0.21448326,0.052403092,-4.4265327,0.22480404,-0.67212296,-0.70548838,0
2.8400786,2.7880006,1.4048698,0.9200601,0.38483027,-0.073452771,0
2.9039974,0.58929586,-3.3231397,0.65867907,0.63836515,-0.3982861,0
1.8887395,-3.4261842,1.1100676,0.42530221,-0.58373141,0.69164705,0
-0.48182029,3.0789695,1.0442293,-0.22480404,0.67212296,0.70548838,0
2.7699988,-3.1867218,-0.17060947,0.22480404,-0.67212296,-0.70548838,0
3.225812,-1.1867144,1.5647843,0.84472811,-0.22646046,0.48492295,0
3.6403058,1.1192831,-1.1197593,0.87260675,0.46105701,-0.16119546,0
-0.5679698,-2.074852,3.4516814,-0.10228157,-0.73629761,0.66888303,0
-0.072861671,-0.60523736,4.6044984,-0.22480404,0.67212296,0.70548838,0
3.49984,-0.84511757,-2.0636148,0.22480404,-0.67212296,-0.70548838,0
-3.0326841,-0.93138564,-2.9401031,-0.90177906,0.1307714,-0.41193873,0
-1.2807029,-1.2113525,-3.7050529,0.22480404,-0.67212296,-0.70548838,0
2.3007936,3.6618919,0.22490406,0.74430346,0.58572114,-0.32084763,0
2.200285,1.1347991,3.8605878,-0.22480404,0.67212296,0.70548838,0
-1.4680003,-3.1795321,-1.822053,0.22480404,-0.67212296,-0.70548838,0
2.5523844,-2.93437,-0.88725257,0.22480404,-0.67212296,-0.70548838,0
-1.7569478,0.77710265,-3.5268385,-0.5639137,0.500714,-0.65672439,0
-2.7732553,0.092360497,3.0205836,-0.22480404,0.67212296,0.70548838,0
-0.47140211,-1.98311,-2.4938459,0.22480404,-0.67212296,-0.70548838,0
2.7519941,-0.061779976,-3.1309996,0.22480404,-0.67212296,-0.70548838,0
1.9262431,0.37372088,-3.7636867,0.22480404,-0.67212296,-0.70548838,0
3.8149288,0.041517019,-2.9147463,0.79678434,0.54356241,-0.26395971,0
-1.483022,-3.1205783,1.6505344,-0.43069762,-0.71799368,0.54679495,0
-2.1353946,2.5897784,0.86440301,-0.22480404,0.67212296,0.70548838,0
-0.27047944,2.7663097,-2.5355124,-0.051802754,0.71475279,-0.69745624,0
-0.047800779,-4.8385663,0.52716148,-0.17202568,-0.74002385,0.65020919,0
3.0410447,-0.86831188,-2.4736552,0.22480404,-0.67212296,-0.70548838,0
-3.5710876,-1.1960803,-0.13790464,-0.94665045,-0.32221824,0.0053288937,0
-0.51003098,4.5514297,-0.23178113,-0.22480404,0.67212296,0.70548838,0
-0.74766004,4.011642,-0.09089911,-0.22480404,0.67212296,0.70548838,0
-3.1142793,1.4059132,-1.8073933,-0.7601046,0.33205116,-0.55855453,0
2.260762,2.8289049,-1.0482889,0.6432929,0.64618254,-0.41063648,0
-1.609333,-4.2760429,0.018536031,-0.59418154,-0.66838902,0.44744211,0
3.664129,-1.8361616,-1.477957,0.22480404,-0.67212296,-0.70548838,0
3.4804306,-0.51766801,-2.5638855,0.22480404,-0.67212296,-0.70548838,0
3.2471848,-0.25327444,-3.0181627,0.22480404,-0.67212296,-0.70548838,0
-0.26898527,-3.2605629,-1.3346548,0.22480404,-0.67212296,-0.70548838,0
-0.69710362,-3.7270608,-1.0412135,0.22480404,-0.67212296,-0.70548838,0
0.61341929,1.9294271,2.5845735,-0.22480404,0.67212296,0.70548838,0
-2.4656899,-2.9116609,-2.0500607,0.22480404,-0.67212296,-0.70548838,0
-1.8786869,-2.8435552,-1.9434441,0.22480404,-0.67212296,-0.70548838,0
1.1540136,2.7798715,1.9499166,-0.22480404,0.67212296,0.70548838,0
3.8121934,0.30555081,-1.7792251,0.90551895,0.41149223,-0.10348731,0
-2.378032,-2.0909295,-2.8881912,0.22480404,-0.67212296,-0.70548838,0
-1.7847202,1.239537,2.4391615,-0.22480404,0.67212296,0.70548838,0
2.4022536,-1.1281866,2.3746886,0.70888835,-0.3839373,0.5916667,0
-4.2654414,1.4022377,1.6965253,-0.97123724,-0.21288657,-0.10666651,0
-3.6795597,3.2635374,-0.15062571,-0.77006859,0.32107735,-0.55127484,0
0.13589811,-1.5376822,3.9975228,0.11317903,-0.70110869,0.70401502,0
-1.8254609,-0.35866761,4.2422738,-0.22480404,0.67212296,0.70548838,0
0.85343266,-2.9142504,2.3082006,0.14913887,-0.69175595,0.70656317,0
-2.5319295,-1.9502292,1.7723924,-0.69431043,-0.61848032,0.36798781,0
2.7263906,2.8267064,2.7106228,-0.22480404,0.67212296,0.70548838,0
-3.2832453,2.0244162,-0.95949936,-0.82256138,0.25723016,-0.50717402,0
0.46685982,1.3741331,3.3605766,-0.22480404,0.67212296,0.70548838,0
-2.1592755,-2.8795991,0.75290132,-0.67806482,-0.62786967,0.3821097,0
2.340282,2.8960299,2.3443995,-0.22480404,0.67212296,0.70548838,0
1.331846,3.5945206,-1.0787843,0.45467788,0.71272171,-0.53413105,0
2.2139306,1.2157484,3.9861012,-0.22480404,0.67212296,0.70548838,0
-1.1567776,-2.4915395,2.6707144,-0.2662217,-0.73883975,0.6190654,0
3.0125079,2.5107393,0.63253689,0.92025167,0.38445199,-0.073031306,0
3.2552698,1.728538,0.45135641,0.92829615,0.36780959,-0.054612696,0
3.7610998,-1.9992716,0.52918673,0.87001967,-0.18757826,0.45593882,0
-3.30743,-2.0193861,-0.13530231,-0.90055597,-0.41980156,0.11298513,0
2.1639433,1.0621266,-3.5955968,0.41557491,0.72100431,-0.55448204,0
-0.4526087,1.5250734,2.530139,-0.22480404,0.67212296,0.70548838,0
0.82310975,3.1956315,1.4071877,-0.22480404,0.67212296,0.70548838,0
3.2952771,2.0102146,0.14682364,0.90273809,0.41619182,-0.10885084,0
-0.67197573,3.4958804,0.77469671,-0.22480404,0.67212296,0.70548838,0
-2.1812952,-2.4987841,-2.6808105,0.22480404,-0.67212296,-0.70548838,0
2.6684599,3.3190451,0.37189972,0.80465162,0.53638393,-0.25461379,0
-3.096571,-2.932236,-2.4989214,-0.97267592,-0.19789299,-0.12140954,0
0.23450708,4.1235094,-1.0398631,0.22339678,0.74028647,-0.63408989,0
-3.7223387,-0.050788641,2.0374455,-0.90278977,-0.41610551,0.10875201,0
0.34401655,-0.36716688,4.8977714,-0.22480404,0.67212296,0.70548838,0
0.73182893,4.7562118,0.090184763,-0.22480404,0.67212296,0.70548838,0
-0.21242118,-3.9832165,0.8663494,-0.21417731,-0.74039769,0.63713372,0
2.7009985,-1.9758676,-1.6780691,0.22480404,-0.67212296,-0.70548838,0
2.0083547,1.3441005,3.8627272,-0.22480404,0.67212296,0.70548838,0
1.3052406,4.6593404,0.36098763,-0.22480404,0.67212296,0.70548838,0
-1.4295424,-3.24895,-1.6683114,0.22480404,-0.67212296,-0.70548838,0
-1.9599698,-2.1153839,-3.1127052,0.22480404,-0.67212296,-0.70548838,0
-3.1428826,2.6972952,0.7355547,-0.22480404,0.67212296,0.70548838,0
-3.2821808,2.5152783,-0.38326812,-0.78994405,0.2981815,-0.53579515,0
-2.4851456,-3.9776762,-0.75729311,-0.77992928,-0.55812621,0.2832056,0
2.7351482,2.9822488,1.3814234,0.92242754,0.38010168,-0.068193495,0
2.0464735,-3.4231601,-0.18898129,0.22480404,-0.67212296,-0.70548838,0
3.6891823,-2.6026661,0.33220387,0.83485693,-0.24049802,0.49515116,0
1.0436199,-2.4363134,2.5761466,0.24738735,-0.66092849,0.70850062,0
-3.9004149,1.8077655,1.2644579,-0.22480404,0.67212296,0.70548838,0
2.4975891,2.2144749,2.7464042,-0.22480404,0.67212296,0.70548838,0
-1.8812113,-3.6400025,0.74204272,-0.54957515,-0.68533057,0.47779632,0
-4.0391598,0.0055761337,2.6818228,-0.87446189,-0.45856324,0.15822858,0
2.7666466,2.8857107,-0.13403177,0.80259752,0.53828299,-0.25707757,0
-0.35634446,0.53890371,3.4163318,-0.22480404,0.67212296,0.70548838,0
3.2488477,1.5285167,-2.1613927,0.75232631,0.57984966,-0.31269729,0
-1.2054114,4.4098778,-0.82986355,-0.11942625,0.69955659,-0.7045269,0
-3.52262,-1.753588,-0.55005765,-0.94545299,-0.32563543,0.0089660287,0
-4.3836532,1.4164448,1.5120814,-0.22480404,0.67212296,0.70548838,0
-2.5887914,3.4529719,-0.091946363,-0.22480404,0.67212296,0.70548838,0
-2.4605699,-0.49920568,-3.500658,-0.82641053,0.25207686,-0.50349098,0
0.24037933,-4.1540599,-0.26012403,0.22480404,-0.67212296,-0.70548838,0
2.8391635,-2.7373028,-0.71091008,0.22480404,-0.67212296,-0.70548838,0
-0.69565141,3.2196012,0.87264115,-0.22480404,0.67212296,0.70548838,0
1.0007353,-3.7659492,1.607613,0.16610646,-0.68698895,0.70742834,0
2.2318044,-2.3492439,1.9639976,0.55666673,-0.50565183,0.65911949,0
3.6657093,0.21286678,-1.8783171,0.88333285,0.44620085,-0.14362407,0
2.4481261,2.8710303,-0.81733537,0.70454627,0.61226779,-0.35880747,0
-0.1193738,0.82209843,-4.6060767,-0.23123544,0.66653967,-0.70869958,0
1.6197405,0.96879697,4.0369282,-0.22480404,0.67212296,0.70548838,0
-0.0082591176,2.3601239,1.8477559,-0.22480404,0.67212296,0.70548838,0
-3.6931803,2.0868335,-0.64427471,-0.83938402,0.23413078,-0.49052763,0
0.2661947,-2.7939229,-1.382272,0.22480404,-0.67212296,-0.70548838,0
2.9448235,1.930849,-1.6814365,0.70456004,0.61225927,-0.35879493,0
3.364346,1.4222279,1.6463695,0.97278798,0.11312675,0.2022025,0
3.2102783,2.5157335,0.7284205,0.92378789,0.37732726,-0.065116763,0
2.5937092,-2.2018414,-1.5694162,0.22480404,-0.67212296,-0.70548838,0
1.6028013,-2.6979246,-1.119812,0.22480404,-0.67212296,-0.70548838,0
-2.0438094,1.0289248,-2.976207,-0.60674769,0.46996889,-0.64108235,0
3.909451,-1.2400049,0.094826221,0.94241965,-0.034005612,0.33269954,0
2.6349294,3.5019193,1.7428148,0.91399455,0.39641532,-0.086422741,0
0.63547134,-4.5390325,0.42828643,0.22480404,-0.67212296,-0.70548838,0
1.2403949,-3.3481667,-0.74289513,0.22480404,-0.67212296,-0.70548838,0
1.0640366,1.3452375,3.4312446,-0.22480404,0.67212296,0.70548838,0
2.1747184,1.5786706,3.6154783,-0.22480404,0.67212296,0.70548838,0
2.8662148,-2.7971036,-0.57201672,0.22480404,-0.67212296,-0.70548838,0
2.9154427,-1.2283456,-2.0567205,0.22480404,-0.67212296,-0.70548838,0
2.34623,-3.2107773,-0.45174623,0.22480404,-0.67212296,-0.70548838,0
-3.1776986,-1.3810151,1.3374906,-0.82787061,-0.51359397,0.22550291,0
-4.1789451,2.2492943,0.85046053,-0.93422765,0.057087392,-0.35207933,0
-1.3686519,0.052927256,3.9540038,-0.22480404,0.67212296,0.70548838,0
2.6352057,-1.6890224,2.4403596,0.66241884,-0.42556554,0.61651868,0
-1.6000819,-2.9766891,1.7653096,-0.43659049,-0.71675539,0.54373753,0
2.8229918,-3.7349846,0.43440318,0.22480404,-0.67212296,-0.70548838,0
1.6670015,0.27930325,4.394815,-0.22480404,0.67212296,0.70548838,0
0.27193093,-0.5485431,-3.3754883,0.22480404,-0.67212296,-0.70548838,0
-2.6023076,0.4341875,-2.8983698,-0.74796331,0.3450067,-0.56702858,0
2.633657,3.4004288,0.91130257,0.86390603,0.4723675,-0.17474353,0
0.59147334,-4.1588292,0.80585408,0.0054444075,-0.72314274,0.69067723,0
1.4355831,-2.1284022,-1.8545033,0.22480404,-0.67212296,-0.70548838,0
2.1499717,-1.7792284,2.5011506,0.56231201,-0.50181162,0.65725976,0
0.95599651,1.9900416,-3.3148487,0.214625,0.74039394,-0.63698739,0
2.7770119,1.8405478,-1.9991189,0.67325288,0.63054478,-0.38619164,0
-3.0786934,-2.2807221,-2.6867862,-0.97064507,-0.090931684,-0.22266501,0
-0.9749856,4.0749621,0.18788481,-0.22480404,0.67212296,0.70548838,0
-2.1814191,3.9283543,-0.28756356,-0.22480404,0.67212296,0.70548838,0
-3.6005688,1.8370643,-0.86609793,-0.83718264,0.23724154,-0.49278975,0
1.240779,1.3586924,3.1116085,-0.22480404,0.67212296,0.70548838,0
0.00090265274,-4.5200243,0.91093552,-0.1441704,-0.73899472,0.65810478,0
0.76650047,4.2174363,0.50493467,-0.22480404,0.67212296,0.70548838,0
-2.6006241,1.8742363,-1.9231329,-0.68765539,0.40353045,-0.60356736,0
-1.5283008,1.0077987,3.0258601,-0.22480404,0.67212296,0.70548838,0
-2.7736511,3.5273349,-0.327456,-0.59469318,0.47890088,-0.6457507,0
2.0982981,4.0535927,1.3297274,-0.22480404,0.67212296,0.70548838,0
2.4356301,3.6000571,1.7131706,-0.22480404,0.67212296,0.70548838,0
1.2038133,3.2366025,-1.6696442,0.36843765,0.72890043,-0.57702512,0
-3.4611459,2.6662207,-0.36494303,-0.78826189,0.30017459,-0.53715789,0
0.84608722,2.0281816,-2.9187231,0.18850863,0.74034125,-0.64525926,0
-3.0075195,0.56417322,2.9265375,-0.22480404,0.67212296,0.70548838,0
-1.5419797,-2.1385634,-2.7350383,0.22480404,-0.67212296,-0.70548838,0
1.1341147,4.5422535,0.41383225,-0.22480404,0.67212296,0.70548838,0
-0.064579606,1.6393626,2.5229454,-0.22480404,0.67212296,0.70548838,0
0.040251732,-3.6545618,-0.86933827,0.22480404,-0.67212296,-0.70548838,0
0.80308628,-0.9737066,-2.794235,0.22480404,-0.67212296,-0.70548838,0
-2.2209389,-3.8385499,-0.70697761,-0.73841321,-0.58991522,0.32672024,0
-0.43751049,4.4507027,-0.79060972,0.060319066,0.7322309,-0.67838013,0
-0.027881622,-1.3587512,3.8483152,0.069027662,-0.71121645,0.69957584,0
-1.6612165,3.9175739,-0.9295249,-0.30646342,0.63850844,-0.70596546,0
-2.1422756,-3.0299459,1.0891734,-0.65521711,-0.64016259,0.40110165,0
1.6941185,0.23682475,4.3448052,0.66343898,-0.42469963,0.61601877,0
-2.9357769,-1.1672626,-2.578207,-0.93631613,0.051445425,-0.34736955,0
-1.7278991,0.12905192,3.6518431,-0.22480404,0.67212296,0.70548838,0
3.3822265,1.7084291,0.3292141,0.94177693,0.33566168,-0.0196895,0
-1.7529058,-1.3592482,3.823658,-0.29345632,-0.73710585,0.6087352,0
3.0420287,1.2527361,-2.7056999,0.68337971,0.62485951,-0.37754831,0
0.97948343,-1.8398764,-2.1436577,0.22480404,-0.67212296,-0.70548838,0
-3.0730336,-2.549407,-1.4081175,-0.94254363,-0.33362409,0.017503977,0
-2.2626162,2.7662356,-1.6361856,-0.53871512,0.51757431,-0.66475779,0
-1.2175643,3.1180129,0.77410293,-0.22480404,0.67212296,0.70548838,0
-2.7700245,-3.0716882,-1.436036,-0.92615694,-0.37239021,0.059658349,0
-1.6263642,1.565639,2.4682016,-0.22480404,0.67212296,0.70548838,0
-3.3659196,0.7885704,2.3032408,-0.22480404,0.67212296,0.70548838,0
0.31259179,-0.73267472,-3.206089,0.22480404,-0.67212296,-0.70548838,0
-1.2944525,4.4292631,-0.36658144,-0.22480404,0.67212296,0.70548838,0
-0.59777445,-3.2843869,-1.1596413,0.22480404,-0.67212296,-0.70548838,0
2.8459187,0.62292564,2.5388849,0.90051293,-0.13326001,0.41390622,0
3.6038992,0.17598152,-3.1946883,0.73546356,0.59197938,-0.32962662,0
-3.0242999,-2.2702775,-1.2714238,-0.95582277,-0.29282761,-0.025594473,0
-2.7679543,-1.6530854,1.8792355,-0.70168567,-0.61402804,0.36139604,0
-0.64307356,-2.4415984,3.0323808,-0.10067225,-0.73616672,0.66927111,0
-1.10321,1.4271641,-3.5988381,-0.34152806,0.62374055,-0.70306933,0
-1.1574022,-3.9485006,-0.87397671,0.22480404,-0.67212296,-0.70548838,0
-1.9187713,2.577003,-1.8251932,-0.48176461,0.55266827,-0.68004471,0
-3.8379555,1.7508023,1.6207886,-0.22480404,0.67212296,0.70548838,0
-1.3016353,-0.77407432,4.7199979,-0.22480404,0.67212296,0.70548838,0
-3.4360218,-0.51421642,3.1859143,-0.7451238,-0.58512932,0.3200224,0
1.1841867,0.10714185,-3.8039646,0.22480404,-0.67212296,-0.70548838,0
3.1786036,0.22456551,1.7756298,0.92395484,-0.082910538,0.37340778,0
1.9367503,1.6601218,3.0493722,-0.22480404,0.67212296,0.70548838,0
2.5350554,-3.7068603,-0.11908817,0.22480404,-0.67212296,-0.70548838,0
-3.4793077,1.0950679,-0.93394136,-0.88442177,0.16313988,-0.43724549,0
0.678092,-1.082761,-2.7282786,0.22480404,-0.67212296,-0.70548838,0
-0.77713728,-1.6012833,3.4156468,-0.14750314,-0.73915017,0.65719092,0
1.3731682,3.7360027,-1.1035168,0.46180981,0.71103275,-0.5302493,0
-1.3584013,-4.149106,0.40213889,-0.45899642,-0.71170568,0.53178692,0
1.4656249,2.8884916,1.9374064,-0.22480404,0.67212296,0.70548838,0
-0.073979616,1.0537025,3.2222931,-0.22480404,0.67212296,0.70548838,0
-0.37848854,4.1512599,0.30265164,-0.22480404,0.67212296,0.70548838,0
-1.7239056,-1.8703424,-2.9650812,0.22480404,-0.67212296,-0.70548838,0
1.7368615,-1.7962779,-1.7994275,0.22480404,-0.67212296,-0.70548838,0
-4.0933819,1.953886,0.80305529,-0.22480404,0.67212296,0.70548838,0
-3.9347811,-0.58673716,1.0057259,-0.9246304,-0.37558699,0.063190341,0
3.3922997,0.95413864,-2.0132117,0.80801558,0.53323513,-0.25054193,0
0.19546807,-1.9272943,-2.3224318,0.22480404,-0.67212296,-0.70548838,0
3.6268961,-0.6997807,-2.3565826,0.22480404,-0.67212296,-0.70548838,0
2.9469738,2.3562446,-0.73677635,0.77337092,0.56351453,-0.29042891,0
-1.211405,3.2143731,-1.9965308,-0.28640497,0.64646059,-0.70714992,0
-2.1737254,-2.5421927,1.6488831,-0.56162751,-0.68103254,0.46986103,0
3.1705706,1.75783,2.5456226,0.9623459,0.039595425,0.26892889,0
-0.18622923,3.0455599,-1.9889503,-0.063326478,0.71241218,-0.69889832,0
-2.6722567,-2.7216578,-2.4463072,0.22480404,-0.67212296,-0.70548838,0
3.8602662,-0.85219157,0.53405118,0.9342401,-0.05705446,0.35205185,0
-1.2164505,2.7865674,-2.5693955,-0.25013411,0.65995252,-0.70844597,0
1.6036611,1.019076,-4.2691174,0.26032531,0.73913085,-0.62122172,0
-4.1088524,0.44307184,1.141217,-0.96951967,-0.22669041,-0.092968285,0
2.2230096,0.17016101,-3.9480605,0.22480404,-0.67212296,-0.70548838,0
0.53553212,-1.5349046,-2.7821431,0.22480404,-0.67212296,-0.70548838,0
-2.4759729,3.1031532,0.78544664,-0.22480404,0.67212296,0.70548838,0
1.9471042,1.8683285,2.8663089,-0.22480404,0.67212296,0.70548838,0
-3.7212706,-0.71160603,-0.78044796,-0.97405702,-0.17433235,-0.14429593,0
-3.8837354,0.0094466209,1.3698118,-0.94742244,-0.31997219,0.0029430985,0
3.9744658,-0.12298131,-2.1310434,0.9159385,0.3927809,-0.082340777,0
2.8375411,-3.1607091,1.1200516,0.60434055,-0.47177076,0.64203203,0
0.67821407,2.0926409,-3.1319616,0.16116071,0.73969573,-0.6533587,0
1.075881,-2.7894404,-1.0207195,0.22480404,-0.67212296,-0.70548838,0
3.603909,0.46920907,0.83324528,0.97097296,0.093812853,0.2200247,0
1.6511024,1.0519178,3.8807878,-0.22480404,0.67212296,0.70548838,0
1.3988764,-1.0008378,3.7420537,0.49375951,-0.5456056,0.67713821,0
-2.3263912,1.0057397,2.5798998,-0.22480404,0.67212296,0.70548838,0
-2.2699099,-1.7187133,2.7807021,-0.54573071,-0.68665987,0.48028776,0
2.9496841,-0.95151949,-2.2626615,0.22480404,-0.67212296,-0.70548838,0
1.3743436,4.6107216,0.045025051,0.49111223,0.70348835,-0.51372457,0
-1.9073111,2.1091859,-2.3568187,-0.52770191,0.52467722,-0.66801536,0
2.3324225,-0.28126478,-3.241806,0.22480404,-0.67212296,-0.70548838,0
-0.23021412,2.3537655,-3.0860012,-0.10956919,0.70199186,-0.70370609,0
0.2866956,4.0972238,0.38383359,-0.22480404,0.67212296,0.70548838,0
-1.2119498,-3.4462035,1.7264745,-0.33474267,-0.7332266,0.59188354,0
-1.6004961,0.14138705,-4.3281474,-0.5336225,0.52087855,-0.66628295,0
0.96081495,-4.6785793,0.47948503,0.22480404,-0.67212296,-0.70548838,0
-0.35324407,-3.9915721,-0.46930221,0.22480404,-0.67212296,-0.70548838,0
2.2806315,-2.4769514,-1.3427402,0.22480404,-0.67212296,-0.70548838,0
0.58831245,-2.497086,-1.7907835,0.22480404,-0.67212296,-0.70548838,0
0.031066895,-0.8629021,4.6202374,0.19900006,-0.67709208,0.70848107,0
-0.18966091,2.3124368,1.7342216,-0.22480404,0.67212296,0.70548838,0
0.47690105,0.34077024,4.2659197,-0.22480404,0.67212296,0.70548838,0
2.5975654,-3.2247078,0.89361095,0.56957972,-0.49680191,0.65480286,0
2.2554483,0.72027171,3.9884067,0.76066506,-0.33144215,0.55815303,0
1.1953743,0.11692488,4.6607099,-0.22480404,0.67212296,0.70548838,0
-3.78511,1.2286165,-0.83875847,-0.90167117,0.13098437,-0.41210717,0
0.35590959,0.38121986,4.0258102,-0.22480404,0.67212296,0.70548838,0
-0.53916508,-2.5872796,-1.9114029,0.22480404,-0.67212296,-0.70548838,0
0.45464563,-4.4404478,0.01996243,0.22480404,-0.67212296,-0.70548838,0
-2.7918949,-3.1800773,-1.1212037,-0.89671206,-0.42600355,0.12011868,0
-0.40382528,-3.5108697,1.8918027,-0.1217103,-0.73771894,0.66404629,0
-1.8831481,-1.9733131,-2.7380681,0.22480404,-0.67212296,-0.70548838,0
-1.6850169,-1.8438311,-2.9214826,0.22480404,-0.67212296,-0.70548838,0
0.47979879,4.1611872,0.32571793,-0.22480404,0.67212296,0.70548838,0
2.9667997,2.3758836,-0.89515281,0.76576954,0.56957769,-0.29862753,0
1.0252513,3.1879363,1.6066527,-0.22480404,0.67212296,0.70548838,0
2.4836135,1.5827644,-2.9675565,0.57652801,0.67543739,-0.45978248,0
-1.9199979,1.6598103,2.2297897,-0.22480404,0.67212296,0.70548838,0
1.8346715,-4.3227987,0.40381336,0.22480404,-0.67212296,-0.70548838,0
1.490767,3.0531278,1.673192,-0.22480404,0.67212296,0.70548838,0
0.83716512,-2.9931922,-0.8577345,0.22480404,-0.67212296,-0.70548838,0
2.0759678,-2.9281726,1.9617276,0.47252047,-0.55799705,0.68217587,0
1.333141,2.3706045,2.4103627,-0.22480404,0.67212296,0.70548838,0
1.1427605,-1.7818999,3.120913,0.32660508,-0.63016236,0.70443219,0
-0.68805075,0.65116858,-4.1795793,-0.31292313,0.63587153,-0.70551163,0
-0.43032026,-2.0043168,-2.5410354,0.22480404,-0.67212296,-0.70548838,0
2.9216747,-1.5562688,1.4853501,0.77335531,-0.31738639,0.54880565,0
2.9891524,2.6931798,1.9774699,0.96242642,0.26633179,0.052941501,0
0.0086536407,3.5757318,-1.6571243,0.068329215,0.73311192,-0.67666698,0
0.32458913,1.7769494,2.4619768,-0.22480404,0.67212296,0.70548838,0
-2.8161795,3.0391221,0.1927104,-0.22480404,0.67212296,0.70548838,0
-2.1159532,-3.9672756,-0.30931365,-0.67676407,-0.6285975,0.38321757,0
0.76995069,-3.431272,-0.94954079,0.22480404,-0.67212296,-0.70548838,0
-0.40317035,-4.3590755,-0.42802015,0.22480404,-0.67212296,-0.70548838,0
-0.80758446,2.9903216,0.87007928,-0.22480404,0.67212296,0.70548838,0
-3.3141017,-2.2855914,0.12463999,-0.88085645,-0.44972783,0.14777339,0
0.76709735,-2.0144236,-2.0486381,0.22480404,-0.67212296,-0.70548838,0
-4.235003,1.060075,0.78156567,-0.96983504,-0.084305942,-0.22871935,0
1.4230433,3.560334,-0.7785601,0.47543055,0.70764852,-0.52268493,0
1.3738416,2.4972951,2.4214985,-0.22480404,0.67212296,0.70548838,0
2.8228867,-0.9538905,2.2183764,0.81438792,-0.26793304,0.51476628,0
4.3454294,-0.88291907,-1.4602296,0.96835411,0.23465768,0.085006416,0
1.8943713,2.8643146,2.2615724,-0.22480404,0.67212296,0.70548838,0
1.0274937,-4.6519728,0.23399746,0.22480404,-0.67212296,-0.70548838,0
-0.96667361,4.2245431,-0.86423111,-0.12185979,0.69894367,-0.70471847,0
-0.92571759,-0.09699893,-4.3310661,0.22480404,-0.67212296,-0.70548838,0
3.7133827,0.34476769,-0.71478677,0.95192254,0.30611581,0.011691868,0
-1.7952408,-3.8432951,-1.4092085,0.22480404,-0.67212296,-0.70548838,0
-2.8896146,-1.6537814,-3.1901844,-0.94792366,0.016792893,-0.3180548,0
1.5877254,-1.6417959,-2.0448864,0.22480404,-0.67212296,-0.70548838,0
-2.7251782,1.8592365,-2.0565271,-0.65690106,0.43021491,-0.61919004,0
2.9217172,2.323164,2.8451793,-0.22480404,0.67212296,0.70548838,0
-0.76579213,2.9418321,1.1854486,-0.22480404,0.67212296,0.70548838,0
2.0558884,-3.4070489,-0.23454213,0.22480404,-0.67212296,-0.70548838,0
2.9837165,2.7016239,-0.016052008,0.83224916,0.50899905,-0.21973014,0
0.3672592,2.9249766,1.8008418,-0.22480404,0.67212296,0.70548838,0
-1.9682648,2.1588402,1.5978589,-0.22480404,0.67212296,0.70548838,0
0.81403565,1.1035842,3.6941926,-0.22480404,0.67212296,0.70548838,0
0.044128895,1.6191717,-3.720829,-0.029582977,0.71897888,-0.6944021,0
1.906158,-3.4997883,-0.30589271,0.22480404,-0.67212296,-0.70548838,0
-1.4527612,0.70476049,-3.8294373,-0.53749156,0.51837128,-0.6651271,0
2.8301828,-1.1250026,2.4727404,0.72682631,-0.3665584,0.58082575,0
1.0950017,-4.568953,0.6910609,0.22480404,-0.67212296,-0.70548838,0
1.0870008,2.1419382,-3.0612016,0.1915673,0.74037611,-0.64431775,0
-3.9662771,0.88763285,0.88398433,-0.97371101,-0.18225712,-0.13663572,0
-2.8369558,-2.8808174,-0.7565186,-0.88525873,-0.44341522,0.14035648,0
-0.45410118,2.9602854,1.4986616,-0.22480404,0.67212296,0.70548838,0
3.3723316,0.77177787,-3.1491649,0.70540303,0.61173701,-0.35802871,0
1.4084241,-0.35891354,-3.4754679,0.22480404,-0.67212296,-0.70548838,0
-3.2017388,-1.4361514,-1.6188757,-0.97226298,-0.1067546,-0.20810604,0
-1.7452221,-1.3840644,3.5811663,-0.37379044,-0.72811401,0.57457018,0
3.1663723,-2.5448232,-0.70810175,0.22480404,-0.67212296,-0.70548838,0
-2.0896833,1.5288392,1.9057009,-0.22480404,0.67212296,0.70548838,0
-0.67539716,-4.181263,1.0329758,-0.28157741,-0.73794127,0.61331642,0
2.1180987,1.6401675,-3.1337795,0.43366498,0.71737474,-0.54525983,0
-3.0479915,-1.7486103,-2.0474741,-0.97244966,-0.10892031,-0.20610219,0
-0.31762791,0.33168709,-4.6777806,-0.23227304,0.66618586,-0.70869303,0
1.9189187,-2.0059426,2.493196,0.52775055,-0.52464616,0.66800129,0
3.1456189,1.7735862,2.4805274,0.96096385,0.033087611,0.27468854,0
0.41185069,-0.12120676,-4.0764265,0.22480404,-0.67212296,-0.70548838,0
-3.3878858,0.45732141,2.7636468,-0.22480404,0.67212296,0.70548838,0
-1.7959177,2.9043083,0.84439945,-0.22480404,0.67212296,0.70548838,0
-2.6119959,3.3812039,-0.5496552,-0.60229945,0.4732914,-0.64283025,0
0.65989399,-1.5669632,3.3617003,0.29736763,-0.64215845,0.70654446,0
2.8829913,3.5946953,2.0063658,-0.22480404,0.67212296,0.70548838,0
0.35312843,-2.2250333,-1.9500234,0.22480404,-0.67212296,-0.70548838,0
-1.1277922,3.269073,1.0596223,-0.22480404,0.67212296,0.70548838,0
-1.3380601,-1.4019439,3.592802,-0.26835257,-0.73872715,0.61827916,0
-3.2800031,-2.2298937,-2.0585179,-0.97193712,-0.20615986,-0.11329824,0
2.5009129,2.7451015,-1.3584476,0.64615452,0.64476168,-0.40837103,0
-1.3136005,1.6796613,-3.1806374,-0.40476352,0.59418511,-0.69506168,0
1.8416955,2.0613446,3.0477135,-0.22480404,0.67212296,0.70548838,0
0.26137972,0.98082078,-4.1673403,-0.097101808,0.70496386,-0.70256478,0
1.0229018,-2.3608506,-1.5135223,0.22480404,-0.67212296,-0.70548838,0
1.8854107,3.9229288,0.2557081,0.68981922,0.62113273,-0.37194592,0
-4.176981,2.1305006,0.65554237,-0.93562233,0.053336263,-0.34894997,0
-2.3785934,0.87317914,-2.9008067,-0.68115175,0.40933394,-0.60702395,0
1.7514364,-2.84762,-1.1873074,0.22480404,-0.67212296,-0.70548838,0
-2.8599899,-1.9724641,-3.442656,0.22480404,-0.67212296,-0.70548838,0
1.7342215,-0.19799829,-3.5258944,0.22480404,-0.67212296,-0.70548838,0
3.7815008,-0.62095273,-0.19527912,0.97036791,0.088592052,0.22480571,0
1.5843003,3.0188909,2.0297256,-0.22480404,0.67212296,0.70548838,0
-3.4344077,-1.001591,1.5413527,-0.83313298,-0.50805926,0.21855319,0
1.2033999,-3.0600064,1.7608892,0.26932788,-0.65295362,0.70789421,0
2.4822807,0.48981214,-4.0745454,0.46779436,0.7095716,-0.52695036,0
2.7916837,2.7670779,2.6950946,-0.22480404,0.67212296,0.70548838,0
-3.2199621,-1.4606903,-2.4201238,-0.96066725,-0.031734467,-0.2758832,0
-2.135745,2.215261,-2.0277264,-0.53442883,0.52035755,-0.66604358,0
0.61106181,-3.6949005,1.4646143,0.060012937,-0.71309555,0.6984936,0
-0.037346177,-2.8538113,-1.7013592,0.22480404,-0.67212296,-0.70548838,0
3.1325252,2.9254065,2.2234819,0.96282744,0.26449624,0.054817915,0
1.5662653,-0.31651568,-3.6565974,0.22480404,-0.67212296,-0.70548838,0
0.14200865,2.7659693,1.7386019,-0.22480404,0.67212296,0.70548838,0
3.2074175,-1.4910409,-1.8081244,0.22480404,-0.67212296,-0.70548838,0
3.3571522,1.9034483,2.1482701,0.97304893,0.11667719,0.1989032,0
2.3384805,1.5249285,3.6678438,-0.22480404,0.67212296,0.70548838,0
0.15216923,-0.094676018,4.5356441,-0.22480404,0.67212296,0.70548838,0
0.17138934,0.91574585,3.6903119,-0.22480404,0.67212296,0.70548838,0
-0.048567832,-2.1315737,-2.0263708,0.22480404,-0.67212296,-0.70548838,0
3.1045587,-2.7965679,0.88228965,0.73497832,-0.35839045,0.57564163,0
-0.15582347,1.1030915,3.2107551,-0.22480404,0.67212296,0.70548838,0
-0.058760643,4.0114245,-1.5007694,0.066656709,0.73293197,-0.67702854,0
-2.670429,-0.074272871,3.3445175,-0.22480404,0.67212296,0.70548838,0
2.0628333,3.6940124,1.4524431,-0.22480404,0.67212296,0.70548838,0
-2.0532899,-0.41137958,4.1390128,-0.22480404,0.67212296,0.70548838,0
3.2335756,0.48018146,-3.4182825,0.22480404,-0.67212296,-0.70548838,0
1.1386805,4.5771046,-0.018131137,-0.22480404,0.67212296,0.70548838,0
2.2453034,3.3644257,0.4283042,0.76470727,0.57040995,-0.29975891,0
-0.3647902,-2.6727848,2.5611048,-0.04359293,-0.73023283,0.68180627,0
3.4971783,-1.8437474,-1.3960969,0.22480404,-0.67212296,-0.70548838,0
4.0058079,-0.07760644,-2.1722686,0.89430177,0.42979556,-0.12449938,0
-4.0212507,0.73002243,0.73717308,-0.972857,-0.11403587,-0.20135832,0
2.9668307,2.1570315,2.0443532,0.97252792,0.19967458,0.11966497,0
1.5017238,4.3110743,0.85235536,-0.22480404,0.67212296,0.70548838,0
-0.11982155,1.2643358,2.8718853,-0.22480404,0.67212296,0.70548838,0
-1.7134284,2.3960609,1.5372685,-0.22480404,0.67212296,0.70548838,0
-3.7351992,-0.89139736,0.35673666,-0.93752539,-0.34649986,0.031369925,0
0.44650602,-0.73631907,-3.1731529,0.22480404,-0.67212296,-0.70548838,0
1.0861999,1.8574373,3.0886848,-0.22480404,0.67212296,0.70548838,0
1.9604633,2.5024104,-2.1644781,0.49578696,0.70219237,-0.51100028,0
0.70519829,0.77729535,-4.8957953,-0.0021487474,0.72367674,-0.69013584,0
3.3841276,0.25831842,-3.1369615,0.72131294,0.60156196,-0.34326515,0
-0.42729676,2.1077051,2.2064672,-0.22480404,0.67212296,0.70548838,0
-1.1497827,3.2849755,-1.8371128,-0.2492125,0.6602807,-0.70846498,0
1.1843798,-3.8507717,1.2299731,0.19165915,-0.67937648,0.70831817,0
3.1909699,-0.10031033,2.3208435,0.86783612,-0.1911231,0.45862031,0
-3.3556066,-0.86704445,-1.0169539,-0.97418714,-0.13975516,-0.17727935,0
0.91699624,4.5848789,-0.31573388,0.40894055,0.72225034,-0.55778319,0
0.26589751,0.65750444,3.9372835,-0.22480404,0.67212296,0.70548838,0
0.47837496,1.256958,-4.1437235,-0.041579247,0.71674407,-0.69609565,0
-2.5573075,2.4146204,-1.3376517,-0.63568878,0.44756243,-0.62895769,0
1.8651443,-0.20964207,3.8547935,0.61904848,-0.46061581,0.63609135,0
-1.3349962,0.877958,-4.046577,-0.46518475,0.56215626,-0.68380082,0
-1.9574413,1.9403112,-2.3397903,-0.54126048,0.51591015,-0.66398346,0
-2.1884344,2.4940858,1.2118808,-0.22480404,0.67212296,0.70548838,0
-1.6583139,-3.3055151,-1.5511534,0.22480404,-0.67212296,-0.70548838,0
-0.60718083,4.6791954,-0.16119802,-0.22480404,0.67212296,0.70548838,0
3.5553439,-2.5410309,0.46148229,0.82599705,-0.25263396,0.50389004,0
-3.5329838,3.3094575,0.083859921,-0.79756194,0.28901887,-0.52949321,0
-1.0546913,-1.5870354,3.6238594,-0.18748057,-0.74032784,0.64557403,0
2.0892515,2.0074692,-2.7063253,0.4507941,0.7136178,-0.5362224,0
3.6445253,0.12534952,1.3214152,0.95002592,-0.0097541511,0.31201881,0
0.15972435,-2.1264334,-2.2503219,0.22480404,-0.67212296,-0.70548838,0
1.9876658,0.30999249,3.9550705,0.7320075,-0.36138743,0.57755029,0
-0.32922316,-0.71162438,4.6959057,-0.22480404,0.67212296,0.70548838,0
-0.016474724,0.89886451,3.2029498,-0.22480404,0.67212296,0.70548838,0
3.8586061,-0.56097627,0.71195006,0.94019377,-0.040543377,0.33821887,0
-0.37840557,0.50817168,3.7947092,-0.22480404,0.67212296,0.70548838,0
-0.28378391,-0.20343137,-4.333065,0.22480404,-0.67212296,-0.70548838,0
0.89596808,3.3379021,1.5156099,-0.22480404,0.67212296,0.70548838,0
-0.47228599,-4.1995468,0.97845,-0.28212339,-0.73790556,0.61310834,0
0.9015137,1.4738951,3.3735209,-0.22480404,0.67212296,0.70548838,0
2.025614,4.2166624,0.49247909,0.65621108,0.6396488,-0.40029547,0
-2.8335404,-2.0413666,-3.4666295,-0.94719189,0.019177526,-0.32009339,0
-3.843673,-0.23942149,0.44667244,-0.95889628,-0.28125474,-0.037599385,0
-2.7988391,-0.53302479,3.6425228,-0.22480404,0.67212296,0.70548838,0
1.4939454,1.8691964,3.0541556,-0.22480404,0.67212296,0.70548838,0
-2.838434,-2.4508824,0.49134624,-0.7778995,-0.55980986,0.28545639,0
4.0016255,-2.3792033,-0.69203353,0.91593397,-0.10126913,0.38834226,0
1.6829931,0.74964458,3.9435077,-0.22480404,0.67212296,0.70548838,0
2.0508721,-3.0058331,-0.51924419,0.22480404,-0.67212296,-0.70548838,0
-1.3381429,3.2889037,0.65143037,-0.22480404,0.67212296,0.70548838,0
3.6178238,0.35637498,-1.9214822,0.88205081,0.44803441,-0.14577943,0
1.6219304,2.9872742,-1.3571206,0.52154684,0.69457495,-0.49553472,0
-3.078743,3.3923845,0.1905334,-0.22480404,0.67212296,0.70548838,0
-1.2985848,2.0130699,1.973929,-0.22480404,0.67212296,0.70548838,0
0.12432718,-0.28311443,4.3558311,-0.22480404,0.67212296,0.70548838,0
-2.3356726,0.13559294,-3.4541054,-0.74407119,0.34906808,-0.56965756,0
3.1306171,-2.5035076,-1.1158733,0.22480404,-0.67212296,-0.70548838,0
-1.6025184,-0.88447851,-3.902669,0.22480404,-0.67212296,-0.70548838,0
-2.4460857,1.5385178,2.1466866,-0.22480404,0.67212296,0.70548838,0
3.3606706,1.8819902,1.7446749,0.97377878,0.18089736,0.1379528,0
-1.0179421,-1.5202744,-2.8627954,0.22480404,-0.67212296,-0.70548838,0
-3.3538506,2.3102283,1.2187719,-0.22480404,0.67212296,0.70548838,0
0.21451545,-0.77148664,-3.6820598,0.22480404,-0.67212296,-0.70548838,0
0.81629848,-2.0562615,2.9810586,0.21292782,-0.67263752,0.70867527,0
-2.1240935,4.3680143,-0.30436945,-0.22480404,0.67212296,0.70548838,0
-2.5497265,-2.3633404,1.6536288,-0.65245879,-0.6415785,0.40332955,0
-3.8743682,1.1831164,1.9108407,-0.22480404,0.67212296,0.70548838,0
3.8520117,0.30433345,-2.386807,0.85163021,0.4873459,-0.19292521,0
-2.8010609,-2.4338565,1.1503891,-0.73541284,-0.59201473,0.32967657,0
-0.44784665,-4.4355989,0.68359631,-0.2785719,-0.73813313,0.61445689,0
-2.3655097,-0.8526758,-3.9781539,-0.82699996,0.25128096,-0.50292057,0
0.94050586,1.001298,3.5026836,-0.22480404,0.67212296,0.70548838,0
-3.007746,-2.0375557,1.5818359,-0.73433739,-0.59276134,0.33073059,0
2.6204827,-2.3139887,-1.0899332,0.22480404,-0.67212296,-0.70548838,0
3.7459354,0.85844433,-1.4324074,0.86786175,0.46730167,-0.16865683,0
-1.6796805,0.98921299,2.5837345,-0.22480404,0.67212296,0.70548838,0
-3.025888,-0.22406021,-2.4017537,-0.90895092,0.11623228,-0.40037256,0
-1.9017563,3.6124325,-1.2296937,-0.41815007,0.58742112,-0.69288313,0
-2.419282,0.32691073,3.1053953,-0.22480404,0.67212296,0.70548838,0
-2.5107648,-1.4565096,-3.616221,0.22480404,-0.67212296,-0.70548838,0
-2.5281458,2.6044827,-1.4912179,-0.64177942,0.44266483,-0.62623256,0
2.514955,0.20880489,3.5977068,0.75975466,-0.33243078,0.55880469,0
1.2145767,3.7177784,0.9805696,-0.22480404,0.67212296,0.70548838,0
1.1800879,1.6387098,3.0808704,-0.22480404,0.67212296,0.70548838,0
0.40872598,3.5637288,-1.862574,0.1360029,0.73857653,-0.6603089,0
0.072158098,1.1650348,3.1412606,-0.22480404,0.67212296,0.70548838,0
-0.4496119,-0.18325984,-4.4112196,0.22480404,-0.67212296,-0.70548838,0
-3.3892963,-1.011387,-0.13743567,-0.95322955,-0.30181253,-0.016208172,0
1.0998058,-2.2889609,-1.6547365,0.22480404,-0.67212296,-0.70548838,0
-2.7036304,0.10982087,-2.9689589,-0.79971009,0.28639358,-0.5276767,0
-1.4491282,0.67758518,-3.8121998,-0.55009782,0.51006508,-0.6612308,0
-3.8873746,0.96323609,0.5336771,-0.97030312,-0.088056028,-0.22529572,0
0.95630336,3.3812056,-1.7181329,0.30653822,0.73604214,-0.60355318,0
0.17732167,-0.15567172,-3.9952364,0.22480404,-0.67212296,-0.70548838,0
0.51718616,1.4897176,-3.9246206,0.074052453,0.73371112,-0.67541414,0
1.9652435,-4.2539272,0.58919644,0.22480404,-0.67212296,-0.70548838,0
-0.92078972,-1.3294909,4.1362238,-0.1431644,-0.73894602,0.6583789,0
0.22373962,2.7001526,1.7305441,-0.22480404,0.67212296,0.70548838,0
2.1392817,3.7754784,0.5567224,0.74266303,0.58689904,-0.32249257,0
2.0870507,-2.1223249,-1.4669852,0.22480404,-0.67212296,-0.70548838,0
-2.5351944,1.3560038,1.8702046,-0.22480404,0.67212296,0.70548838,0
-1.5749793,0.10164428,3.3804002,-0.22480404,0.67212296,0.70548838,0
3.2744875,-0.1025939,-2.9331787,0.22480404,-0.67212296,-0.70548838,0
1.2876956,-4.4982882,0.29858899,0.22480404,-0.67212296,-0.70548838,0
-2.2567563,-1.6174078,3.0131717,-0.47429919,-0.70793766,0.52332085,0
-3.7573848,0.64789748,2.5950141,-0.22480404,0.67212296,0.70548838,0
3.6446462,-0.81794679,0.65042043,0.94747525,-0.018258363,0.31930792,0
-2.2669201,2.6663165,1.1423901,-0.22480404,0.67212296,0.70548838,0
-2.6660922,-2.278352,1.2601923,-0.68313694,-0.62499839,0.37775803,0
2.0907297,-2.7662082,-0.98727775,0.22480404,-0.67212296,-0.70548838,0
0.058651805,3.5644546,1.0219361,-0.22480404,0.67212296,0.70548838,0
0.57107699,-3.641943,-0.62905747,0.22480404,-0.67212296,-0.70548838,0
0.394104,-0.18670833,-3.9190669,0.22480404,-0.67212296,-0.70548838,0
2.2371471,-2.8095279,1.5286117,0.55404598,-0.50741971,0.65996861,0
-1.1435878,-4.0073037,-0.52945793,0.22480404,-0.67212296,-0.70548838,0
0.29835129,3.7188382,0.95043516,-0.22480404,0.67212296,0.70548838,0
2.9958882,1.4182131,2.6001923,0.94735563,-0.018646866,0.31963992,0
-2.1760283,-1.1075032,-3.6556196,0.22480404,-0.67212296,-0.70548838,0
-3.2982283,-1.2934482,1.6226088,-0.8376106,-0.50323075,0.21252608,0
2.4515631,3.5793114,1.6670512,-0.22480404,0.67212296,0.70548838,0
-2.4512718,0.0014744848,-3.5181642,-0.76064265,0.33146662,-0.55816907,0
-2.7668161,3.5970473,-0.67159796,-0.58612978,0.48511016,-0.6489377,0
-1.0856695,-3.1651697,-1.7189003,0.22480404,-0.67212296,-0.70548838,0
-0.77315474,0.30514151,-4.5426393,0.22480404,-0.67212296,-0.70548838,0
-3.8838098,0.43340802,1.1945896,-0.96581054,-0.24964249,-0.069919765,0
-3.5392044,-0.63146782,3.0478127,-0.75444788,-0.57826537,0.31051189,0
-0.47557557,3.7891243,0.52813739,-0.22480404,0.67212296,0.70548838,0
-1.0565636,-4.3573895,0.078490347,-0.43509007,-0.71707416,0.54451931,0
0.64131546,-0.14994371,4.5763669,-0.22480404,0.67212296,0.70548838,0
-1.3921342,0.27983505,-4.566432,-0.51905662,0.53014362,-0.67046845,0
-3.3599234,-1.2062783,0.031986237,-0.94950539,-0.31372947,-0.0036681294,0
1.1232327,-3.0705254,-1.0653796,0.22480404,-0.67212296,-0.70548838,0
-0.52337408,0.82176673,-4.2840281,-0.29463845,0.64323938,-0.70670462,0
-1.3489578,-4.3972411,-0.23091447,0.22480404,-0.67212296,-0.70548838,0
-0.63012129,2.8000829,1.263949,-0.22480404,0.67212296,0.70548838,0
-1.5960808,3.2894115,0.88485479,-0.22480404,0.67212296,0.70548838,0
3.4217594,-0.077080488,-3.1676693,0.22480404,-0.67212296,-0.70548838,0
0.35346842,-1.0382849,4.2394195,0.21538925,-0.67183375,0.70869386,0
-2.1161678,1.3438637,-2.76966,-0.58124936,0.48859972,-0.65070707,0
-2.7208025,-3.3589847,-1.6341517,-0.90542054,-0.41166049,0.10367906,0
3.0132148,-1.3819592,1.6683137,0.78111738,-0.30852282,0.5428347,0
2.1414323,0.55369437,-3.9056392,0.22480404,-0.67212296,-0.70548838,0
-0.55217934,0.089998007,-4.3602333,0.22480404,-0.67212296,-0.70548838,0
0.04578495,3.4296317,0.77920651,-0.22480404,0.67212296,0.70548838,0
0.44299436,4.5989594,-0.40856194,0.33397472,0.73331285,-0.59221047,0
3.499711,-2.1626303,0.11242771,0.85224706,-0.21536806,0.47675115,0
-1.0718102,-2.5293019,2.6824839,-0.26047581,-0.73912382,0.62116706,0
0.031118393,0.21901035,-4.1741209,0.22480404,-0.67212296,-0.70548838,0
-3.2787867,2.6385567,0.79953074,-0.22480404,0.67212296,0.70548838,0
-4.331706,1.7275691,1.4087889,-0.22480404,0.67212296,0.70548838,0
-1.5758288,0.27989316,3.2761326,-0.22480404,0.67212296,0.70548838,0
-3.0123158,2.6940689,0.98575115,-0.22480404,0.67212296,0.70548838,0
-3.8609986,0.67170119,2.1424825,-0.22480404,0.67212296,0.70548838,0
-0.4020983,-4.2542973,-0.60809469,0.22480404,-0.67212296,-0.70548838,0
-2.9961355,-0.48028135,-2.6631691,-0.91427314,0.10490724,-0.3912791,0
-3.0117025,-2.3946285,0.42369509,-0.81285,-0.52862293,0.24460745,0
0.84875631,-4.2076616,-0.058436632,0.22480404,-0.67212296,-0.70548838,0
-1.3650179,-0.14533412,4.0458894,-0.22480404,0.67212296,0.70548838,0
1.5315151,-2.9776995,-0.78389454,0.22480404,-0.67212296,-0.70548838,0
1.6254745,-0.72244549,-3.092689,0.22480404,-0.67212296,-0.70548838,0
0.62551373,-2.0764141,-1.8862383,0.22480404,-0.67212296,-0.70548838,0
2.8678608,-0.44356084,-3.0646043,0.22480404,-0.67212296,-0.70548838,0
-3.4743149,-1.0492468,-0.98630047,-0.97433758,-0.14659563,-0.17081034,0
0.23722756,4.0938029,0.62281352,-0.22480404,0.67212296,0.70548838,0
0.78098023,3.9592919,0.7495392,-0.22480404,0.67212296,0.70548838,0
-0.8889817,-3.0784848,-1.7641298,0.22480404,-0.67212296,-0.70548838,0
-2.8503268,1.6646717,2.0326893,-0.22480404,0.67212296,0.70548838,0
-3.3950245,-1.5176803,0.50074124,-0.90915787,-0.40516472,0.096299589,0
1.9764757,-0.023754835,-3.3890004,0.22480404,-0.67212296,-0.70548838,0
-2.0712159,-0.12911242,-4.0985842,-0.68201673,0.40856731,-0.60656917,0
-3.0405419,-3.0127594,-1.7638931,-0.93413693,-0.35464302,0.040207624,0
1.5550386,-4.0946131,0.16604257,0.22480404,-0.67212296,-0.70548838,0
-1.6137956,0.82034624,2.881402,-0.22480404,0.67212296,0.70548838,0
0.93317795,-2.4981894,-1.7555563,0.22480404,-0.67212296,-0.70548838,0
0.56713986,-0.95145655,-3.380116,0.22480404,-0.67212296,-0.70548838,0
-3.889545,0.74345756,2.2691193,-0.22480404,0.67212296,0.70548838,0
-3.7281485,-0.4738059,1.2423573,-0.9249149,-0.37499565,0.062536359,0
-0.36286294,-4.0735688,-0.55089271,0.22480404,-0.67212296,-0.70548838,0
0.87501907,1.006626,-4.6024399,0.09638381,0.73580813,-0.67029601,0
-0.31051987,-3.33235,-1.2669936,0.22480404,-0.67212296,-0.70548838,0
-0.42342687,-0.88628441,-3.4943998,0.22480404,-0.67212296,-0.70548838,0
4.0541615,-0.35533321,0.073807716,0.96900833,0.07811749,0.23435163,0
-1.4006722,0.87868428,-3.9440565,-0.44159061,0.57512778,-0.68864059,0
2.0250406,-0.63912916,-3.1932182,0.22480404,-0.67212296,-0.70548838,0
1.4678333,1.8357989,-3.2459362,0.28420514,0.7377671,-0.61231303,0
2.7430937,-2.2370806,1.829082,0.66441905,-0.42386568,0.61553657,0
-2.672399,2.7252378,0.7515595,-0.22480404,0.67212296,0.70548838,0
-3.7467375,2.1392293,-0.26218796,-0.88542426,0.16136435,-0.43587339,0
1.8973509,0.75215769,4.1163611,-0.22480404,0.67212296,0.70548838,0
-1.9610848,3.264926,0.25985217,-0.22480404,0.67212296,0.70548838,0
4.0793781,-1.2719653,-0.10193729,0.94265389,-0.033304542,0.33210623,0
-2.7591751,-2.4967031,0.38114524,-0.78068072,-0.55749935,0.28236896,0
-0.76259851,-0.46104383,-3.9142215,0.22480404,-0.67212296,-0.70548838,0
1.8124111,-4.1660767,0.19998217,0.22480404,-0.67212296,-0.70548838,0
-1.7731094,-2.123898,-2.9564183,0.22480404,-0.67212296,-0.70548838,0
1.7644086,3.7986636,-0.28262746,0.57154083,0.6773454,-0.46318936,0
1.5479271,2.0123472,-3.1570101,0.34524488,0.73199236,-0.58736122,0
-3.1496477,-0.72416848,-2.0484433,-0.93746424,0.048277825,-0.34471762,0
-0.34418216,2.8423047,1.5858612,-0.22480404,0.67212296,0.70548838,0
0.84860945,-0.53559452,4.380815,0.33799714,-0.62527853,0.70340943,0
-1.3936372,4.3114157,-0.57794166,-0.22480404,0.67212296,0.70548838,0
3.5487754,0.42997712,1.5673876,0.9555757,0.010426134,0.29456133,0
-2.9697313,2.1401544,-1.4782381,-0.72369999,0.36964497,-0.58277005,0
1.1280718,-0.11691213,4.7704391,-0.22480404,0.67212296,0.70548838,0
-2.8834512,-1.8256176,-2.91278,-0.96372485,-0.046466649,-0.26282203,0
2.8488286,2.3881903,0.13467646,0.85826647,0.47938266,-0.18322396,0
-0.26562643,-4.7826014,0.1463334,-0.23989928,-0.73991144,0.62847412,0
1.2477736,1.2031361,-4.0835357,0.227305,0.74021804,-0.63277942,0
0.78725696,1.7411013,3.0986474,-0.22480404,0.67212296,0.70548838,0
-2.9041874,0.3555274,3.2563066,-0.22480404,0.67212296,0.70548838,0
1.2844558,-1.546954,-2.4204247,0.22480404,-0.67212296,-0.70548838,0
-0.30778787,2.651392,1.5101233,-0.22480404,0.67212296,0.70548838,0
1.2046589,-2.4628432,-1.7266275,0.22480404,-0.67212296,-0.70548838,0
-0.44917202,1.6815851,-3.7798374,-0.24467915,0.66188461,-0.70854843,0
-2.1040263,3.5009596,-1.1387992,-0.41834682,0.58732027,-0.69284981,0
2.8081553,-3.3352923,-0.33518243,0.22480404,-0.67212296,-0.70548838,0
-0.025208712,-0.62211657,-3.6095617,0.22480404,-0.67212296,-0.70548838,0
1.3807399,3.8702757,1.0387311,-0.22480404,0.67212296,0.70548838,0
-3.5689025,2.3572326,-0.63015056,-0.81086886,0.27244496,-0.51794356,0
-1.0899203,2.6084702,-2.3808198,-0.25588506,0.65788835,-0.70831198,0
1.0457566,0.17149103,4.6758599,-0.22480404,0.67212296,0.70548838,0
3.2794409,-1.319965,1.2717266,0.86290312,-0.1989907,0.46454388,0
1.1265564,2.0787692,-2.8635855,0.28047353,0.73801267,-0.61373615,0
-0.82713485,2.1527982,-2.9701686,-0.20867014,0.67401606,-0.70863193,0
2.7331681,2.197222,3.1224575,-0.22480404,0.67212296,0.70548838,0
0.15418208,-3.568433,-0.72741401,0.22480404,-0.67212296,-0.70548838,0
3.7406459,-1.3831244,0.15494561,0.93850011,-0.045377225,0.34228444,0
-2.7826977,3.0329838,-0.88932967,-0.58855808,0.48336068,-0.64804476,0
-3.7820644,0.91093349,-0.044909477,-0.96255583,-0.040615499,-0.26802391,0
0.71534693,-3.3323538,-0.61482114,0.22480404,-0.67212296,-0.70548838,0
-2.4843054,2.8633542,-1.3001606,-0.61332786,0.46499613,-0.63844156,0
-1.2980008,-4.3672643,-0.25626275,-0.55472249,-0.6835193,0.47443059,0
-3.098614,1.9112568,1.7093892,-0.22480404,0.67212296,0.70548838,0
3.3853841,-0.94706142,1.7146196,0.85699004,-0.20817831,0.47141284,0
-0.95086861,0.49529797,-4.725255,-0.38706028,0.60285205,-0.69767761,0
-3.2391651,-1.1181924,1.3340418,-0.85359687,-0.48501745,0.19008023,0
-3.5891504,-0.03006649,-0.31973457,-0.97146028,-0.098359168,-0.21584851,0
2.9283767,0.45863745,2.9231954,0.89390314,-0.14590758,0.4238494,0
3.7697902,0.78332496,-0.14378047,0.96659201,0.24531855,0.074288249,0
2.1694837,1.6151793,3.3572958,-0.22480404,0.67212296,0.70548838,0
3.2770648,0.76886058,-3.2601211,0.67598206,0.62903339,-0.38388202,0
2.8909731,2.5208869,0.062698603,0.8629303,0.4735983,-0.17622709,0
-2.8729267,-2.4931524,0.61319792,-0.7482546,-0.5828529,0.316856,0
0.48740005,4.567831,-0.38538522,0.27694923,0.73823345,-0.61506957,0
1.9158626,-3.4423714,-0.52136445,0.22480404,-0.67212296,-0.70548838,0
3.0834317,3.038393,1.8191783,0.94481176,0.32743314,-0.010883093,0
-0.92742825,-1.79686,-2.5910809,0.22480404,-0.67212296,-0.70548838,0
1.2502866,4.0989385,1.0063155,-0.22480404,0.67212296,0.70548838,0
2.1957998,-2.9067166,1.4403419,0.53122455,-0.52242249,0.66698986,0
1.8328581,0.43052393,4.4986606,0.64937145,-0.43646678,0.62274677,0
-1.2776461,4.1564937,0.0094397068,-0.22480404,0.67212296,0.70548838,0
2.4574223,-0.99808955,-2.3186264,0.22480404,-0.67212296,-0.70548838,0
0.82829762,1.9830457,-3.5113039,0.15237987,0.739362,-0.65583873,0
2.2582395,1.7795002,3.2975295,-0.22480404,0.67212296,0.70548838,0
-3.7150695,2.3686738,0.93863297,-0.22480404,0.67212296,0.70548838,0
-1.9565399,-3.6296151,-0.0017158985,-0.69124091,-0.62029797,0.37069756,0
-0.65409708,-0.9518804,4.1467476,-0.067900777,-0.73306602,0.67675978,0
-3.7683916,1.0717411,1.83057,-0.22480404,0.67212296,0.70548838,0
-0.81591892,-4.761106,0.13043553,0.22480404,-0.67212296,-0.70548838,0
-2.5041895,-0.777592,-3.6918795,-0.8532443,0.21386917,-0.47564089,0
-1.3310704,1.4412062,2.684587,-0.22480404,0.67212296,0.70548838,0
-0.77415991,-0.72580612,4.5183072,-0.22480404,0.67212296,0.70548838,0
1.5075753,2.6258802,-1.9693501,0.39566827,0.7246089,-0.56425941,0
1.4023861,-2.1475928,-1.6961139,0.22480404,-0.67212296,-0.70548838,0
1.9641817,2.2676983,2.872015,-0.22480404,0.67212296,0.70548838,0
-1.1376696,4.6926327,-0.4041934,-0.22480404,0.67212296,0.70548838,0
1.0522394,-0.84542793,4.0790577,0.39189756,-0.60051489,0.6969924,0
3.3837652,1.1943355,1.1423364,0.97397375,0.1334818,0.18318808,0
-0.39775324,1.2236326,-4.111392,-0.26487476,0.65460545,-0.70804894,0
