3.9179423,0.68934739,-1.0961857,0.42431742,-0.85882378,-0.28701293,0
-3.9389532,-0.29350257,0.055607319,-0.42431742,0.85882378,0.28701293,0
-2.8742287,0.27924085,-0.43283701,-0.42431742,0.85882378,0.28701293,0
-3.1344106,-0.30019748,-2.374723,-0.75009656,-0.15580904,-0.64271176,0
3.4120183,-0.15316451,0.72507048,0.42431742,-0.85882378,-0.28701293,0
1.248013,-0.16533577,-2.6565886,0.42431742,-0.85882378,-0.28701293,0
0.9092164,1.0909851,2.7958972,-0.42431742,0.85882378,0.28701293,0
-0.57940316,-2.8636181,2.2007899,0.42431742,-0.85882378,-0.28701293,0
-2.8038125,-2.5883977,0.50424337,-0.84617794,-0.48891729,0.21199644,0
0.48636329,-1.1632732,-1.6993542,0.42431742,-0.85882378,-0.28701293,0
-2.0950685,-0.0040474534,-3.1138766,-0.54197693,0.013046235,-0.84029192,0
3.7218447,0.089459062,-0.14964342,0.42431742,-0.85882378,-0.28701293,0
-2.5587442,-0.34039003,-2.4533973,-0.71957821,-0.12739179,-0.68262601,0
-0.19480392,-1.6759001,-0.33694899,0.42431742,-0.85882378,-0.28701293,0
0.22628872,-1.5646508,-0.39747894,0.42431742,-0.85882378,-0.28701293,0
0.2228933,2.0159564,-0.47125244,-0.42431742,0.85882378,0.28701293,0
2.4454002,-1.5832582,2.5254562,0.42431742,-0.85882378,-0.28701293,0
2.8297386,2.5956852,-0.31879091,0.86082888,0.48091909,-0.16640365,0
0.091203213,-1.7747511,3.3861139,-0.053983212,-0.34038958,0.93873346,0
-1.4535918,-2.9987073,1.9454429,-0.54126263,-0.49465892,0.67996103,0
-0.81512809,1.3576701,-0.0086795092,-0.42431742,0.85882378,0.28701293,0
0.4909277,2.7328277,-2.5166969,-0.42431742,0.85882378,0.28701293,0
-0.1155858,-2.1696692,1.6223402,0.42431742,-0.85882378,-0.28701293,0
-3.4643369,-0.80962276,-1.2279153,-0.8717075,-0.30161634,-0.38620365,0
1.3493345,-0.17981529,-3.3379803,0.42431742,-0.85882378,-0.28701293,0
2.6130884,2.2080526,-1.7455368,0.71608645,0.51225275,-0.47414887,0
-1.3448796,-0.25861207,-3.7208095,-0.40322936,0.10459277,-0.90910184,0
0.059223056,1.2803595,1.2418344,-0.42431742,0.85882378,0.28701293,0
2.4529591,0.14358902,-1.4422929,0.42431742,-0.85882378,-0.28701293,0
2.1907728,2.6369796,1.1340916,-0.42431742,0.85882378,0.28701293,0
-3.4721496,-1.5927716,-0.83190155,-0.90427262,-0.38530019,-0.18394196,0
3.1309192,-0.25167549,-0.046493769,0.42431742,-0.85882378,-0.28701293,0
0.23244715,-0.017283626,3.8983471,0.18443298,-0.22834939,0.95595014,0
-0.51391697,0.71628559,2.3459237,-0.42431742,0.85882378,0.28701293,0
2.7452998,3.0179713,-0.6877346,0.81604189,0.50005209,-0.28986776,0
-0.78785181,-0.44176114,3.803611,-0.049066901,-0.3383027,0.93975717,0
2.2364759,1.3590367,3.1168876,0.70625985,0.1155186,0.69846421,0
1.2978134,-1.6947912,1.3404977,0.42431742,-0.85882378,-0.28701293,0
-1.3167541,0.76370597,1.3486369,-0.42431742,0.85882378,0.28701293,0
-3.4636226,-0.89615989,-1.2193191,-0.88075966,-0.31783286,-0.35106188,0
0.84354687,1.0438533,3.566956,-0.42431742,0.85882378,0.28701293,0
-0.17969251,-0.65819836,-2.9410203,0.42431742,-0.85882378,-0.28701293,0
-1.0186957,1.4533476,-0.10447222,-0.42431742,0.85882378,0.28701293,0
3.0363986,1.6779929,0.86603403,0.90184897,0.37232411,0.2191869,0
3.1554737,1.3009601,1.2448311,0.88064504,0.31761396,0.35154736,0
2.7634082,-1.0730273,1.5620426,0.42431742,-0.85882378,-0.28701293,0
-3.3048816,-0.13823235,0.55677414,-0.42431742,0.85882378,0.28701293,0
-1.6640053,0.39880919,-3.3716929,-0.43381929,0.085415438,-0.8969419,0
2.3282654,0.75739074,2.8258238,0.69018918,0.10156247,0.71646613,0
3.9045591,-0.26243567,0.98403883,0.87332129,0.30436832,0.3803547,0
-2.7620645,-2.965796,-0.010799408,-0.88709879,-0.45785183,0.058542848,0
-2.357352,1.0188177,-1.9245242,-0.42431742,0.85882378,0.28701293,0
-2.0062923,0.26344633,2.0301676,-0.42431742,0.85882378,0.28701293,0
-3.8539884,-0.66423953,0.5090661,-0.8931939,-0.44906986,0.02325356,0
-0.37095737,0.37737244,4.0824394,-0.42431742,0.85882378,0.28701293,0
3.0881898,1.4162668,-2.0335114,0.72204751,0.51217568,-0.46510547,0
0.47131032,2.079025,-0.54734027,-0.42431742,0.85882378,0.28701293,0
-4.1052504,-0.50336301,1.259244,-0.42431742,0.85882378,0.28701293,0
-2.0189672,-2.6953583,2.1996276,-0.58782613,-0.50234509,0.63412106,0
-1.221468,1.5844734,-3.3844447,-0.22580755,0.20659211,-0.95201385,0
-1.0554326,-2.8658566,2.5714538,-0.37066656,-0.45392534,0.81028259,0
-0.81120396,-0.23187512,-3.6059232,-0.32602465,0.15080884,-0.93325472,0
0.87708282,-0.73663962,-1.6159272,0.42431742,-0.85882378,-0.28701293,0
2.4374611,-0.3484329,-0.052129984,0.42431742,-0.85882378,-0.28701293,0
-0.50926304,-0.87331754,-3.0333426,0.42431742,-0.85882378,-0.28701293,0
1.1093221,3.0546017,-2.3237934,0.46097118,0.47768664,-0.74787748,0
3.3214481,1.4015567,-0.9379034,0.84890926,0.48758918,-0.20398426,0
0.96214199,-1.655555,1.0146697,0.42431742,-0.85882378,-0.28701293,0
-1.7859099,-3.1651037,1.4547665,0.42431742,-0.85882378,-0.28701293,0
0.91789627,2.9358001,-2.2521486,-0.42431742,0.85882378,0.28701293,0
3.5420218,-0.068771839,1.5682845,0.82018089,0.23019145,0.52375072,0
1.5359306,3.0667315,-1.1649573,-0.42431742,0.85882378,0.28701293,0
-2.788728,-2.2191353,-0.91635394,-0.90368068,-0.38146868,-0.19453168,0
-3.0933573,-2.2311378,0.28432846,-0.88195109,-0.46380261,0.083959341,0
-3.2122965,0.82005179,-2.3046103,-0.6996367,-0.10971996,-0.70602381,0
-1.287322,-0.029130548,-3.6899858,-0.34677887,0.13867779,-0.92763817,0
-1.0707564,-2.8147202,2.3833144,-0.47187865,-0.48023975,0.73939174,0
-3.2820466,-2.1521919,-0.24255705,-0.90246665,-0.42706388,-0.056303382,0
-0.061016917,1.8812106,-0.57516903,-0.42431742,0.85882378,0.28701293,0
0.66206837,-0.61533678,-3.0869226,0.42431742,-0.85882378,-0.28701293,0
2.6047726,3.0316799,0.56284046,-0.42431742,0.85882378,0.28701293,0
2.831728,2.4207392,0.33970881,0.90034223,0.43396628,0.032508612,0
-1.1035663,0.70481265,1.3402505,-0.42431742,0.85882378,0.28701293,0
-1.6002647,1.3657537,-1.4698116,-0.42431742,0.85882378,0.28701293,0
-0.37397289,0.36980864,3.0674834,-0.42431742,0.85882378,0.28701293,0
2.0995233,2.4117751,-2.1876001,0.63169557,0.50784129,-0.58571124,0
-2.7715766,0.036751866,0.71628571,-0.42431742,0.85882378,0.28701293,0
-0.57732809,0.77014112,1.9674517,-0.42431742,0.85882378,0.28701293,0
-2.5466816,-3.0551085,-0.20256042,-0.87049639,-0.47416812,0.13191044,0
1.6978422,-0.79656827,-0.8841114,0.42431742,-0.85882378,-0.28701293,0
1.6906325,2.3193083,1.2626911,-0.42431742,0.85882378,0.28701293,0
1.2011296,2.8964674,-1.3488076,-0.42431742,0.85882378,0.28701293,0
1.4142214,-0.82493949,-1.0617696,0.42431742,-0.85882378,-0.28701293,0
0.67293596,0.97735262,3.4162402,-0.42431742,0.85882378,0.28701293,0
0.16729069,1.3323127,1.341614,-0.42431742,0.85882378,0.28701293,0
2.5760374,2.9142771,1.0107224,-0.42431742,0.85882378,0.28701293,0
2.833652,1.6839204,-1.677304,0.75631571,0.5104261,-0.4092083,0
-0.82380533,0.35908413,-3.5392756,-0.25042593,0.19330195,-0.9486416,0
-3.5523281,0.12077379,0.28517818,-0.42431742,0.85882378,0.28701293,0
-1.3366581,-2.7336173,1.3518414,0.42431742,-0.85882378,-0.28701293,0
-0.32908678,-2.7919412,2.5180531,0.42431742,-0.85882378,-0.28701293,0
-2.9455328,-1.9055259,-1.9284835,-0.86921877,-0.29747039,-0.39493024,0
-0.67252827,0.64789128,2.4406157,-0.42431742,0.85882378,0.28701293,0
1.8375227,2.7699277,-2.295001,0.59790361,0.50376815,-0.62348098,0
1.2285984,1.4680383,-3.2448959,0.31056309,0.43576086,-0.84478569,0
3.9899943,0.15290546,0.365767,0.89571398,0.35157901,0.27219206,0
0.53524256,-0.80851108,3.531409,0.17616057,-0.23261431,0.95648193,0
1.4705884,1.5928009,3.3192704,-0.42431742,0.85882378,0.28701293,0
-0.17466927,2.008214,-0.55855107,-0.42431742,0.85882378,0.28701293,0
0.16751373,2.4065289,-1.1494505,-0.42431742,0.85882378,0.28701293,0
-3.2707162,-0.79567873,2.202265,-0.7275762,-0.51204848,0.45655119,0
1.7921822,-0.45309305,-0.81035089,0.42431742,-0.85882378,-0.28701293,0
3.1288145,0.2339015,-1.4303398,0.42431742,-0.85882378,-0.28701293,0
1.2779996,-1.0936677,-0.020956635,0.42431742,-0.85882378,-0.28701293,0
-2.4049194,1.1962792,-1.3832371,-0.42431742,0.85882378,0.28701293,0
1.3372507,-1.6129856,1.9887315,0.42431742,-0.85882378,-0.28701293,0
0.14295244,-2.7644475,2.8251107,0.42431742,-0.85882378,-0.28701293,0
-1.8494945,-1.6139486,2.7152014,-0.51541346,-0.48967272,0.70325613,0
0.79617977,-2.1733935,2.8647037,0.42431742,-0.85882378,-0.28701293,0
-0.42033005,-2.5241992,2.0176084,0.42431742,-0.85882378,-0.28701293,0
3.6582029,0.91633958,-0.24051666,0.88699961,0.457977,-0.059063911,0
-1.9323678,1.4165335,-1.9180601,-0.42431742,0.85882378,0.28701293,0
-1.8557537,1.0880944,-3.0125582,-0.46165526,0.067500398,-0.88448739,0
0.23995638,0.56501824,3.7547598,-0.42431742,0.85882378,0.28701293,0
0.04364562,-2.477674,1.6781857,0.42431742,-0.85882378,-0.28701293,0
-1.5102582,1.5215108,-1.3426505,-0.42431742,0.85882378,0.28701293,0
-2.0757556,1.2938274,-1.3101733,-0.42431742,0.85882378,0.28701293,0
-1.6048453,-0.0064445734,2.2474122,-0.42431742,0.85882378,0.28701293,0
0.15704679,-0.41221359,-3.8729696,-0.15463674,0.24358,-0.95747375,0
-2.3685038,-1.4909469,2.3365536,-0.58752292,-0.5023008,0.63443696,0
-0.89760756,1.9178481,-2.0595682,-0.42431742,0.85882378,0.28701293,0
0.80261266,2.175658,-0.49407935,-0.42431742,0.85882378,0.28701293,0
-0.61821651,-0.30433273,3.8344431,-0.014631748,-0.32342294,0.9461413,0
-1.3545916,-1.8642124,-2.0545516,0.42431742,-0.85882378,-0.28701293,0
-1.5580573,0.17433053,-3.3348198,-0.41929972,0.094582692,-0.90290725,0
-1.2549052,0.87021583,-3.3052919,-0.28847516,0.17223936,-0.94186807,0
1.5622857,1.6413101,2.2222195,-0.42431742,0.85882378,0.28701293,0
-0.045096159,2.0568433,-1.2788291,-0.42431742,0.85882378,0.28701293,0
-2.3582704,-0.73758227,3.3529601,-0.42431742,0.85882378,0.28701293,0
3.3522253,-0.026014328,0.318923,0.42431742,-0.85882378,-0.28701293,0
0.6738596,2.6678286,-1.8582225,-0.42431742,0.85882378,0.28701293,0
1.6125624,-0.49497616,-1.0441691,0.42431742,-0.85882378,-0.28701293,0
-0.51254749,-0.052504439,-3.868536,-0.28575051,0.17376912,-0.94241744,0
1.5529907,0.28255004,-3.6441965,0.2562921,0.41790515,-0.87159026,0
2.85552,-0.51760125,1.1181793,0.42431742,-0.85882378,-0.28701293,0
-2.6689699,-2.5132575,1.3934948,-0.75962442,-0.51012462,0.40341473,0
2.8230195,2.070405,-1.5792658,0.75583708,0.51046759,-0.41004002,0
-0.15473759,1.8518778,-0.70214403,-0.42431742,0.85882378,0.28701293,0
-2.6355326,-2.2814951,-2.2484448,0.42431742,-0.85882378,-0.28701293,0
-2.7053552,0.45088494,-0.37400174,-0.42431742,0.85882378,0.28701293,0
-1.0093435,-2.1621552,-0.83951008,0.42431742,-0.85882378,-0.28701293,0
-2.6218781,-0.60534674,2.4765804,-0.42431742,0.85882378,0.28701293,0
-1.2777593,1.9175397,-2.4044251,-0.42431742,0.85882378,0.28701293,0
-2.8707423,0.035072923,0.55458498,-0.42431742,0.85882378,0.28701293,0
1.4549105,-1.7676942,2.5678496,0.42431742,-0.85882378,-0.28701293,0
1.8971241,0.64136434,2.9786,0.63302511,0.054694802,0.77219659,0
-0.14454079,2.2789047,-3.2666771,0.075062513,0.34923077,-0.93402541,0
-0.90369213,0.75186288,1.5125353,-0.42431742,0.85882378,0.28701293,0
1.6967657,1.8256726,1.7736719,-0.42431742,0.85882378,0.28701293,0
-0.76387978,0.021211863,3.7263479,-0.42431742,0.85882378,0.28701293,0
-0.05961895,-0.096070409,-3.8642685,-0.11948419,0.26108742,-0.95789176,0
-1.6243229,0.49017155,-3.2309761,-0.41555727,0.096926421,-0.90438765,0
1.6848063,-1.353267,1.7945054,0.42431742,-0.85882378,-0.28701293,0
3.3445635,1.4548134,0.67165184,0.90399575,0.38342166,0.18915379,0
0.23186234,1.7181255,-0.084007323,-0.42431742,0.85882378,0.28701293,0
1.6150782,2.0354376,1.6876987,-0.42431742,0.85882378,0.28701293,0
-2.8414254,-2.2188129,1.4530377,-0.78902608,-0.50618494,0.34815884,0
-1.3969163,-2.4501138,0.52776337,0.42431742,-0.85882378,-0.28701293,0
-2.0082858,-0.36835065,-3.3859532,-0.5404861,0.014097795,-0.84123468,0
-1.8874185,0.35103762,1.8959606,-0.42431742,0.85882378,0.28701293,0
2.2865598,2.8547852,0.7333281,-0.42431742,0.85882378,0.28701293,0
2.1469545,3.2805588,-0.79127026,-0.42431742,0.85882378,0.28701293,0
0.9091773,-0.69834232,-2.2811732,0.42431742,-0.85882378,-0.28701293,0
-2.2333872,1.4535646,-2.0138702,-0.42431742,0.85882378,0.28701293,0
-0.5756433,0.77914315,2.393616,-0.42431742,0.85882378,0.28701293,0
0.80883503,2.9785719,-2.33973,-0.42431742,0.85882378,0.28701293,0
-0.13887787,1.0502384,2.3769221,-0.42431742,0.85882378,0.28701293,0
2.4642339,2.9703398,0.24049568,-0.42431742,0.85882378,0.28701293,0
1.705873,1.9868586,1.1950498,-0.42431742,0.85882378,0.28701293,0
-1.6734352,-0.0023711324,-3.4338436,-0.50554585,0.038283527,-0.8619498,0
-3.0529661,0.97536933,-2.0326989,-0.42431742,0.85882378,0.28701293,0
1.4723489,-0.81243944,-0.85360122,0.42431742,-0.85882378,-0.28701293,0
-3.0706956,-0.99637425,1.7920327,-0.72815794,-0.51203185,0.45564127,0
-2.3903534,0.41938788,-2.8350432,-0.56851494,-0.005960837,-0.82265115,0
0.18187189,1.4901098,-3.4524155,0.11251009,0.36450839,-0.92437804,0
0.40286458,2.1543727,-1.1716384,-0.42431742,0.85882378,0.28701293,0
-1.9053633,-1.6640146,2.8247545,-0.45775801,-0.47692066,0.75033605,0
0.17208099,-2.3650346,2.5315189,0.42431742,-0.85882378,-0.28701293,0
-3.1455779,-0.69498056,2.1520219,-0.70582098,-0.51224631,0.48930597,0
2.5266685,1.0906725,-2.8133788,0.53771818,0.49400401,-0.68324143,0
-1.2175601,-1.2583106,3.0456247,-0.29843366,-0.4318862,0.85112357,0
2.8781614,0.84644419,2.5108933,0.74189579,0.14799175,0.65397918,0
2.4458852,2.8410869,0.63785672,-0.42431742,0.85882378,0.28701293,0
1.5581882,2.984787,-1.5318947,-0.42431742,0.85882378,0.28701293,0
1.9627553,2.166749,-2.4343462,0.54840112,0.49594918,-0.67326832,0
-3.7010455,-0.82246274,-0.55537796,-0.89679241,-0.35467875,-0.26451129,0
-1.8673143,1.6268374,-2.4299946,-0.42431742,0.85882378,0.28701293,0
2.294631,3.1595306,-0.2372489,-0.42431742,0.85882378,0.28701293,0
-2.0302284,-0.41923121,-3.0501711,-0.60218072,-0.030912206,-0.7977609,0
2.3911192,-1.4920356,2.3550963,0.42431742,-0.85882378,-0.28701293,0
-0.44833863,-2.1722331,0.65480947,0.42431742,-0.85882378,-0.28701293,0
0.31115389,-2.0934176,1.0625021,0.42431742,-0.85882378,-0.28701293,0
-1.7730645,-0.10800511,2.427947,-0.42431742,0.85882378,0.28701293,0
1.7183394,-0.40891641,-1.071431,0.42431742,-0.85882378,-0.28701293,0
0.65332723,1.1350452,-3.3321087,0.13981783,0.37529975,-0.91629732,0
-1.8000951,-2.2445359,-1.3510478,0.42431742,-0.85882378,-0.28701293,0
-0.189008,-0.96768618,-2.7737813,0.42431742,-0.85882378,-0.28701293,0
-1.6683924,-2.5350304,2.4357667,-0.53258616,-0.49303925,0.68794173,0
2.6605532,1.1471286,2.2277317,0.79170346,0.19801787,0.57792222,0
0.052165687,-1.7718989,0.19336385,0.42431742,-0.85882378,-0.28701293,0
1.5247676,1.7203729,-2.9679341,0.35428309,0.44914925,-0.82021219,0
-0.43389606,2.458324,-3.1884313,-0.42431742,0.85882378,0.28701293,0
1.8976338,2.0114067,2.5386181,-0.42431742,0.85882378,0.28701293,0
1.4835534,-0.25901109,-2.3309479,0.42431742,-0.85882378,-0.28701293,0
-3.9068158,-0.53408957,-0.14013577,-0.90363389,-0.42201492,-0.073136926,0
2.4639657,0.4089148,-3.0065489,0.42431742,-0.85882378,-0.28701293,0
-2.8229485,0.27986741,0.15090275,-0.42431742,0.85882378,0.28701293,0
-0.85352325,-0.30570856,3.7156763,-0.1299361,-0.37142903,0.9193241,0
-2.1999247,-0.23957163,3.316596,-0.42431742,0.85882378,0.28701293,0
-3.4998257,-1.4536901,0.8008008,-0.85328597,-0.4853161,0.19071221,0
0.063591063,1.3885283,0.96954894,-0.42431742,0.85882378,0.28701293,0
-0.62607169,-1.1697685,-2.1806335,0.42431742,-0.85882378,-0.28701293,0
1.0421575,1.7192622,1.2161601,-0.42431742,0.85882378,0.28701293,0
-0.4959569,0.40827024,-3.6518054,-0.19904363,0.22074789,-0.95480454,0
2.1764174,-0.83800793,0.41566205,0.42431742,-0.85882378,-0.28701293,0
-3.2300873,-0.22774827,1.5672061,-0.42431742,0.85882378,0.28701293,0
-2.2700922,0.59180546,0.21002889,-0.42431742,0.85882378,0.28701293,0
-1.8201494,1.4710331,-2.9884009,-0.37576938,0.12137745,-0.9187299,0
-0.33244604,-1.8447285,0.385602,0.42431742,-0.85882378,-0.28701293,0
3.4070354,0.9640246,1.8375707,0.84089482,0.2561323,0.47675145,0
-0.51218104,-3.0147676,2.7708893,-0.31578779,-0.43740875,0.8419925,0
-3.2734022,-1.2236905,1.1771388,-0.82118535,-0.49852997,0.27770901,0
1.8399525,0.041856527,-2.9244885,0.42431742,-0.85882378,-0.28701293,0
2.7060635,0.2599628,-2.419812,0.42431742,-0.85882378,-0.28701293,0
1.6138031,-0.52543837,-0.62946987,0.42431742,-0.85882378,-0.28701293,0
-1.1772797,0.046922147,3.5513721,-0.42431742,0.85882378,0.28701293,0
-1.2186654,0.4808647,2.3290777,-0.42431742,0.85882378,0.28701293,0
-0.49734712,-1.2352959,-2.308429,0.42431742,-0.85882378,-0.28701293,0
3.7992973,0.48651099,0.53605366,0.90367246,0.38141996,0.19466555,0
-0.16936541,0.63716292,-3.7999027,-0.083799243,0.27835828,-0.95681465,0
-1.3728304,2.3031268,-3.264159,-0.17980492,0.23073892,-0.95625806,0
2.2324319,3.0615468,-1.4787161,0.72765791,0.51204616,-0.45642352,0
-0.61929655,-2.3174226,3.0100031,-0.23564368,-0.41076848,0.88076162,0
-3.8276219,-0.44597125,0.79446936,-0.42431742,0.85882378,0.28701293,0
-1.4434854,1.375247,-1.2759018,-0.42431742,0.85882378,0.28701293,0
-3.3759382,0.39720356,-0.45453668,-0.42431742,0.85882378,0.28701293,0
0.17473841,2.3227673,-3.232542,0.15392017,0.3807559,-0.91177475,0
-2.5767298,-1.6008652,2.2003021,-0.67379099,-0.51120663,0.53354782,0
-0.37123203,-0.35058093,-3.8992453,-0.2607888,0.187629,-0.94698691,0
0.35979271,0.9649924,-3.646812,0.11664093,0.36615986,-0.92321259,0
-2.9655416,-0.53477454,-1.9611881,-0.79873562,-0.20566329,-0.56544131,0
-1.2808719,-1.7167355,3.1050727,-0.39144009,-0.45978433,0.79710287,0
0.57446367,-1.1835444,-0.6089229,0.42431742,-0.85882378,-0.28701293,0
0.70848328,-1.1416076,-1.4059932,0.42431742,-0.85882378,-0.28701293,0
-0.53053498,1.8587925,-1.0642365,-0.42431742,0.85882378,0.28701293,0
-1.7656889,0.32808393,1.7207521,-0.42431742,0.85882378,0.28701293,0
2.7876666,0.12391603,2.5250816,0.6730178,0.087056875,0.73448485,0
-3.3219471,0.33802474,-0.53965735,-0.42431742,0.85882378,0.28701293,0
-3.1178491,-1.0889978,-1.8635514,-0.82996249,-0.2421139,-0.50253624,0
0.87473571,-0.52808243,-2.1781483,0.42431742,-0.85882378,-0.28701293,0
2.3059647,-0.9018572,3.1672711,0.50803471,-0.036589041,0.86055893,0
-2.3402152,-0.92042863,-2.8553443,-0.70861381,-0.11759603,-0.69572794,0
2.3392098,1.8645036,-2.4128966,0.62253344,0.50684845,-0.59628552,0
-2.8766732,-0.36805511,1.6175787,-0.42431742,0.85882378,0.28701293,0
-3.4810829,-0.7940194,-0.87969828,-0.89890236,-0.36127031,-0.24790704,0
2.7079258,2.8716679,1.0925293,-0.42431742,0.85882378,0.28701293,0
-2.5421247,0.61782992,-0.98117197,-0.42431742,0.85882378,0.28701293,0
-0.29568148,-2.6816101,2.9804416,-0.17895722,-0.39024419,0.90315187,0
-2.64695,-2.8496809,-0.25086308,0.42431742,-0.85882378,-0.28701293,0
3.9603052,0.089159489,-0.098990917,0.42431742,-0.85882378,-0.28701293,0
0.30942917,-0.67898792,-3.4087884,0.42431742,-0.85882378,-0.28701293,0
-0.286309,-1.0529759,-3.0559278,0.42431742,-0.85882378,-0.28701293,0
1.0708666,-1.3071004,-0.16416848,0.42431742,-0.85882378,-0.28701293,0
1.536741,1.4598916,3.2266595,-0.42431742,0.85882378,0.28701293,0
1.4091532,-1.8985499,2.6411948,0.42431742,-0.85882378,-0.28701293,0
-0.61212623,-1.8886229,-0.39960849,0.42431742,-0.85882378,-0.28701293,0
3.7989471,0.51548934,-1.461473,0.42431742,-0.85882378,-0.28701293,0
0.51579237,-1.4758573,3.6450803,0.095245481,-0.27287313,0.95732355,0
2.5302773,0.17249972,3.0125155,0.62540734,0.048732653,0.77877504,0
-2.0006795,1.6675688,-3.1167119,-0.40424895,0.10396183,-0.90872133,0
-2.6748662,0.30969703,0.40290046,-0.42431742,0.85882378,0.28701293,0
3.7154808,1.0713983,-1.2945032,0.81916904,0.49914229,-0.2825222,0
-2.7672627,1.1623353,-1.6896577,-0.42431742,0.85882378,0.28701293,0
-1.8068056,1.5984889,-2.2543321,-0.42431742,0.85882378,0.28701293,0
-2.8175032,-2.47698,-1.9426491,-0.87210321,-0.30228627,-0.3847841,0
3.0867963,1.4704186,-1.4832454,0.79114145,0.50580263,-0.34388757,0
-1.2111309,1.6452382,-1.4163312,-0.42431742,0.85882378,0.28701293,0
0.58115053,-0.40809563,3.6420145,0.24186337,-0.19795404,0.94990319,0
-1.1698142,1.6445971,-1.2524339,-0.42431742,0.85882378,0.28701293,0
-1.4698753,1.1069436,-3.149754,-0.30916262,0.16051355,-0.93736529,0
-1.7180307,-0.89545703,3.4157538,-0.36649865,-0.45272315,0.81284708,0
-2.1950302,1.2162377,-2.3065429,-0.42431742,0.85882378,0.28701293,0
2.2029941,0.89048344,3.1977828,0.62980038,0.052163631,0.77500331,0
-2.0709691,-1.9965396,-2.7774749,0.42431742,-0.85882378,-0.28701293,0
1.5001523,-0.5185101,-1.8810852,0.42431742,-0.85882378,-0.28701293,0
-3.2017763,0.33166134,-2.4073935,-0.73882866,-0.14510399,-0.6580857,0
2.2591157,2.3140907,1.7425985,-0.42431742,0.85882378,0.28701293,0
0.77105212,0.93018425,-3.5172374,0.13621771,0.37389404,-0.91741359,0
1.5114375,-1.187604,1.0187634,0.42431742,-0.85882378,-0.28701293,0
-3.5346222,0.15032792,-0.28419256,-0.42431742,0.85882378,0.28701293,0
-3.1580131,-2.2597086,-0.44997549,-0.89898401,-0.43753195,-0.019831181,0
-0.57170349,1.6088037,-0.44891688,-0.42431742,0.85882378,0.28701293,0
-3.8998342,0.1923188,-1.0922394,-0.42431742,0.85882378,0.28701293,0
-3.00576,-0.83732295,-1.9534349,-0.809717,-0.21797551,-0.54483443,0
2.6251483,1.8622589,1.883646,0.85364455,0.27365205,0.44317651,0
-2.4597433,0.52558255,0.0332973,-0.42431742,0.85882378,0.28701293,0
0.099380493,-2.378973,3.1716316,-0.14439487,-0.37707937,0.91485578,0
2.276298,-0.9730829,0.95652914,0.42431742,-0.85882378,-0.28701293,0
-2.4962792,0.29564548,-0.012653112,-0.42431742,0.85882378,0.28701293,0
1.1738517,-2.0414052,2.4228804,0.42431742,-0.85882378,-0.28701293,0
1.4724132,-0.48433965,-1.0024195,0.42431742,-0.85882378,-0.28701293,0
3.892509,0.65628755,-0.98680019,0.42431742,-0.85882378,-0.28701293,0
2.1403856,-0.54147291,-0.33421206,0.42431742,-0.85882378,-0.28701293,0
1.1635878,-1.6952672,2.1795659,0.42431742,-0.85882378,-0.28701293,0
0.61571717,-2.440361,2.4987128,0.42431742,-0.85882378,-0.28701293,0
-2.3353789,-2.5824285,-1.487545,0.42431742,-0.85882378,-0.28701293,0
-3.8827851,-0.50564039,0.13256931,-0.90315974,-0.4242312,-0.065804005,0
0.76998758,2.6145477,-2.1542192,-0.42431742,0.85882378,0.28701293,0
-3.3568528,-2.0111778,-0.57662058,-0.90421045,-0.41885698,-0.083438635,0
-2.529254,0.13616347,1.5084486,-0.42431742,0.85882378,0.28701293,0
0.83544707,1.0582397,3.0102215,-0.42431742,0.85882378,0.28701293,0
2.2740169,-0.59485662,-0.38130355,0.42431742,-0.85882378,-0.28701293,0
1.0078678,-1.5092175,3.4862819,0.21126044,-0.21432361,0.95364255,0
1.7785127,-1.5307486,1.8420864,0.42431742,-0.85882378,-0.28701293,0
-1.7662089,-0.3428058,3.6718075,-0.23802704,-0.41160163,0.87973112,0
-1.4442499,-0.37593991,3.6751504,-0.18599272,-0.39286435,0.9005909,0
-0.88492918,0.76560736,1.3050375,-0.42431742,0.85882378,0.28701293,0
0.66470182,-1.0469348,-1.6493919,0.42431742,-0.85882378,-0.28701293,0
1.0135889,-0.51777828,-1.5891137,0.42431742,-0.85882378,-0.28701293,0
1.9933709,-1.2226927,0.96298683,0.42431742,-0.85882378,-0.28701293,0
-1.8524029,-3.0149908,1.993901,-0.57360327,-0.50018549,0.64868611,0
2.6150236,2.9218225,-0.27407694,-0.42431742,0.85882378,0.28701293,0
2.6547441,2.1519361,2.2405443,0.83555806,0.24918827,0.48964018,0
-2.3809519,-1.9549537,2.2071793,-0.60101247,-0.50418866,0.62014312,0
0.21959209,-2.1455872,0.92817974,0.42431742,-0.85882378,-0.28701293,0
-2.8451512,0.086683631,0.88618398,-0.42431742,0.85882378,0.28701293,0
0.15492392,-0.56378728,-3.6432552,0.42431742,-0.85882378,-0.28701293,0
-3.1782274,1.0075685,-1.9395827,-0.42431742,0.85882378,0.28701293,0
3.3242371,-0.026857853,2.0748096,0.79566509,0.20230354,0.57095528,0
-1.4276439,1.1155696,0.1069479,-0.42431742,0.85882378,0.28701293,0
0.94474363,-0.26506364,-3.5686681,0.42431742,-0.85882378,-0.28701293,0
-2.6925986,-2.7698369,0.59588671,-0.83631992,-0.49320707,0.23940659,0
0.36802459,-2.1992598,1.7755363,0.42431742,-0.85882378,-0.28701293,0
-3.1488628,-1.3900989,-1.5478914,-0.87550104,-0.30817312,-0.3721922,0
2.0952289,-0.78277254,0.71292448,0.42431742,-0.85882378,-0.28701293,0
-0.81900156,1.8848712,-1.1899397,-0.42431742,0.85882378,0.28701293,0
-2.7569392,-1.6070861,-1.8011596,-0.86146814,-0.28521276,-0.42015004,0
-2.8762078,-0.9932152,2.2588046,-0.67598945,-0.51132345,0.5306471,0
3.1492732,1.8477707,-0.55644226,0.86500812,0.47817555,-0.15201557,0
-0.21141291,-1.5381696,3.3838568,-0.04377532,-0.33604604,0.94082749,0
1.4500008,-1.0018306,3.5356853,0.35215223,-0.13550289,0.9260819,0
-2.0098891,-0.60134619,-3.0081711,-0.57816601,-0.013013601,-0.81581521,0
-0.70603728,2.3684325,-2.6284637,-0.42431742,0.85882378,0.28701293,0
1.3418331,-1.7367046,3.1491809,0.24271154,-0.1974947,0.94978237,0
-2.1052907,0.92370421,-3.1503046,-0.49153078,0.047747999,-0.86955023,0
-0.57681799,0.04429701,-3.5758963,-0.25236249,0.19224536,-0.94834304,0
-1.4277093,0.052967668,3.5972257,-0.42431742,0.85882378,0.28701293,0
2.3889961,-0.91963911,2.7879598,0.55809015,-0.0015716553,0.82977855,0
1.3360989,2.0958111,0.73678052,-0.42431742,0.85882378,0.28701293,0
-2.4146919,0.17593932,0.84976792,-0.42431742,0.85882378,0.28701293,0
-2.6793694,0.66906118,-0.32177925,-0.42431742,0.85882378,0.28701293,0
-1.0047688,-2.423449,1.0412979,0.42431742,-0.85882378,-0.28701293,0
-0.2653017,1.2745688,-3.4856532,-0.042874336,0.29755124,-0.95374244,0
-0.43062115,-2.4417753,1.6123887,0.42431742,-0.85882378,-0.28701293,0
-1.3625655,-2.7487006,1.224791,0.42431742,-0.85882378,-0.28701293,0
0.52665949,-2.2150643,2.5949683,0.42431742,-0.85882378,-0.28701293,0
-2.5956998,0.45512915,0.11505079,-0.42431742,0.85882378,0.28701293,0
-1.5267596,-0.71341348,-3.5365546,-0.47777581,0.056911901,-0.87663615,0
-3.4336572,-1.4826462,0.36703825,-0.88289261,-0.46278971,0.079536676,0
1.6879058,-1.9202924,2.6041303,0.42431742,-0.85882378,-0.28701293,0
0.2049475,-1.7211288,-0.13702765,0.42431742,-0.85882378,-0.28701293,0
0.8599447,-1.4886196,0.17426759,0.42431742,-0.85882378,-0.28701293,0
-0.43789637,-2.4000032,1.0214916,0.42431742,-0.85882378,-0.28701293,0
1.1539755,0.023968518,-3.7009244,0.42431742,-0.85882378,-0.28701293,0
-1.2306138,0.86828035,0.16674614,-0.42431742,0.85882378,0.28701293,0
3.9436803,0.64190674,-0.27802515,0.89275199,0.44979325,-0.026071429,0
1.4848588,2.0407808,-2.7172549,0.42937434,0.46988973,-0.77125943,0
-0.96969527,-1.7877281,-0.85033131,0.42431742,-0.85882378,-0.28701293,0
2.6970634,2.4279361,0.85308242,0.90519333,0.39386991,0.1596601,0
1.2078143,-0.67852634,-1.1964115,0.42431742,-0.85882378,-0.28701293,0
-2.7256086,-0.42385435,2.7121985,-0.42431742,0.85882378,0.28701293,0
-3.0951161,-0.20371509,0.64578724,-0.42431742,0.85882378,0.28701293,0
-0.0054507256,-0.60796213,-3.1871183,0.42431742,-0.85882378,-0.28701293,0
3.4778209,0.78998035,-1.7197342,0.79010904,0.50599104,-0.34597754,0
-1.1664662,1.7776797,-2.2296,-0.42431742,0.85882378,0.28701293,0
-3.1713781,-1.1639719,2.1030998,-0.71591794,-0.512254,0.47440177,0
2.4297848,-1.1498106,1.1923046,0.42431742,-0.85882378,-0.28701293,0
-2.135077,-2.0604696,-2.0503459,0.42431742,-0.85882378,-0.28701293,0
1.4012187,-0.20801073,-3.0094516,0.42431742,-0.85882378,-0.28701293,0
-3.7340097,-0.95029712,0.84810019,-0.853827,-0.48502186,0.18903196,0
3.0817733,0.9979775,-2.4428012,0.65015578,0.50956976,-0.56359184,0
2.4715769,0.14689076,2.9261141,0.66851419,0.083317041,0.73901749,0
3.4823713,0.70400578,1.4870887,0.87628305,0.30956441,0.36918515,0
-0.50842905,2.2691298,-2.7223029,-0.42431742,0.85882378,0.28701293,0
-1.5591012,-1.731925,-1.786759,0.42431742,-0.85882378,-0.28701293,0
-0.37471056,0.53793293,2.9533353,-0.42431742,0.85882378,0.28701293,0
1.9847836,0.31396505,3.2892091,0.59333926,0.024262786,0.80458659,0
-0.598423,1.6347404,-0.11644744,-0.42431742,0.85882378,0.28701293,0
3.8241436,0.74950016,0.088592052,0.90535647,0.40826923,0.11681449,0
-1.5432589,-2.8697076,2.0448623,-0.58207405,-0.50149256,0.64007401,0
-1.4267373,2.118753,-2.535778,-0.42431742,0.85882378,0.28701293,0
-0.57272816,1.2775822,-3.5143893,-0.097067833,0.2719951,-0.95739031,0
-1.6697397,-1.0061402,-3.2460914,-0.58215177,-0.015949279,-0.81292349,0
-1.3698163,0.82850647,0.7562294,-0.42431742,0.85882378,0.28701293,0
0.73478985,2.2279348,-3.0368128,0.26997864,0.42253289,-0.86520362,0
-1.2288017,-2.2832143,-0.67317855,0.42431742,-0.85882378,-0.28701293,0
-2.7830646,0.99233186,-2.5149789,-0.42431742,0.85882378,0.28701293,0
3.8065927,0.78599083,0.19050694,0.90474063,0.38900423,0.17355037,0
-2.4791417,-2.8672476,1.1806054,-0.76561022,-0.50951189,0.39273179,0
-0.64748049,2.1569686,-1.9293146,-0.42431742,0.85882378,0.28701293,0
-2.3310723,1.0045974,-2.7447686,-0.52901733,0.022132799,-0.84832221,0
2.7923884,-0.75373924,1.3262724,0.42431742,-0.85882378,-0.28701293,0
-2.1259646,0.50194287,1.1648672,-0.42431742,0.85882378,0.28701293,0
-3.0243392,0.17544508,0.68797541,-0.42431742,0.85882378,0.28701293,0
0.57285094,1.4273295,-3.2945385,0.19134343,0.39484334,-0.89860225,0
1.3858973,1.9127121,1.7062458,-0.42431742,0.85882378,0.28701293,0
-0.66068888,0.24352148,3.7081969,-0.42431742,0.85882378,0.28701293,0
-3.3837421,0.46972525,-2.0371099,-0.74262339,-0.14867967,-0.65299654,0
-2.781065,-3.0793715,0.4110918,-0.84269249,-0.49051982,0.22194445,0
-0.41991997,2.4581537,-3.1768527,0.031990528,0.33098122,-0.94309479,0
0.60615587,2.9191709,-1.9957575,-0.42431742,0.85882378,0.28701293,0
1.2221979,2.8851395,-1.3532724,-0.42431742,0.85882378,0.28701293,0
-1.0904179,0.3703219,-3.4672236,-0.33913422,0.14317043,-0.92977953,0
2.2805893,-0.20889461,2.8527036,0.56668156,0.0046298057,0.82392359,0
3.168263,0.4085089,-1.7000015,0.42431742,-0.85882378,-0.28701293,0
-0.44535494,-2.7739701,2.9956894,-0.2574538,-0.41830117,0.87105763,0
0.52549338,1.7454345,1.0441506,-0.42431742,0.85882378,0.28701293,0
0.44755709,-1.1888862,-0.64525825,0.42431742,-0.85882378,-0.28701293,0
-0.011507332,-1.5567054,-0.95584214,0.42431742,-0.85882378,-0.28701293,0
-2.6184807,-3.2114353,0.77552986,-0.80279934,-0.50341523,0.31950879,0
3.0354915,2.0681779,-1.0417976,0.81268978,0.50097585,-0.29758751,0
1.1327448,0.31091282,3.5959158,0.38908505,-0.11328787,0.91420913,0
-1.6030238,-0.087035477,2.9512844,-0.42431742,0.85882378,0.28701293,0
-0.0803743,-1.5328212,-0.99075592,0.42431742,-0.85882378,-0.28701293,0
-2.1796701,0.42214453,1.0824721,-0.42431742,0.85882378,0.28701293,0
-3.3815393,-1.6985403,-0.54658842,-0.90544945,-0.3986465,-0.14574575,0
-1.399792,-2.335171,2.9298899,-0.43447131,-0.4711867,0.76760513,0
2.5751462,3.0627074,-0.83675671,0.81363297,0.5007211,-0.2954309,0
-1.1970382,0.49592578,2.1629477,-0.42431742,0.85882378,0.28701293,0
-2.3068039,-0.47256541,-2.7818117,-0.68476164,-0.096934155,-0.72229141,0
-0.93085456,-1.5115602,-2.3111978,0.42431742,-0.85882378,-0.28701293,0
-2.9851935,0.41826415,-0.42323542,-0.42431742,0.85882378,0.28701293,0
3.309593,0.58547318,-2.4845424,0.65222055,0.50973946,-0.56104714,0
2.9590573,-0.4145354,-0.015984058,0.42431742,-0.85882378,-0.28701293,0
0.24474239,-0.36534855,-3.8431089,0.42431742,-0.85882378,-0.28701293,0
0.45133045,-1.4224447,0.08389695,0.42431742,-0.85882378,-0.28701293,0
0.39577436,-0.4681443,-3.1113131,0.42431742,-0.85882378,-0.28701293,0
3.8179691,0.79237127,0.27645826,0.90526915,0.39496794,0.15648639,0
1.1705616,1.669639,-3.2456131,0.33914024,0.44461629,-0.82903558,0
1.7534684,2.8861051,-1.0108912,-0.42431742,0.85882378,0.28701293,0
-3.3471839,-0.9993189,-1.3153136,-0.87196922,-0.30205902,-0.38526583,0
1.7576878,1.2506654,-2.9675539,0.41999394,0.46746442,-0.77787006,0
-1.8699536,-2.6781001,0.60889888,0.42431742,-0.85882378,-0.28701293,0
1.3928008,2.1983862,-2.5703583,0.42400533,0.46850759,-0.77506131,0
-2.1071444,-1.8720436,2.6040456,-0.52921319,-0.49239469,0.69099963,0
0.47202539,-0.61169428,3.5266931,0.16538513,-0.2381276,0.95704901,0
-1.3085208,1.5747844,-3.4149683,-0.18744898,0.22678751,-0.95573533,0
-0.096961975,2.919714,-3.1148279,-0.42431742,0.85882378,0.28701293,0
3.0325823,0.48694146,-1.6960955,0.42431742,-0.85882378,-0.28701293,0
2.9148159,2.4606688,-1.0304093,0.80077314,0.50386608,-0.32385337,0
-2.9791837,-2.3848016,-0.53206158,-0.90532374,-0.4088411,-0.11505497,0
2.2151825,2.3332658,-1.7335322,0.70200908,0.51220107,-0.49480599,0
-2.1880975,1.0124993,-0.42922139,-0.42431742,0.85882378,0.28701293,0
0.28984594,-0.73614067,3.6536331,0.089523315,-0.27562168,0.95708829,0
-1.115521,1.5046542,-0.48332667,-0.42431742,0.85882378,0.28701293,0
-1.5066428,1.7987539,-3.2310705,-0.23347378,0.20248151,-0.9510473,0
-3.1161129,0.80157936,-2.2535098,-0.42431742,0.85882378,0.28701293,0
0.95383811,-0.77527273,-1.1376846,0.42431742,-0.85882378,-0.28701293,0
-2.4973328,-0.3023935,-2.9692483,-0.62159324,-0.04576984,-0.78200173,0
0.72354603,-2.0005698,3.1955013,0.030599475,-0.30318105,0.95244139,0
3.7603915,0.86518246,0.48309803,0.90345114,0.38014275,0.19815993,0
-2.0165741,-2.9904375,0.30830622,0.42431742,-0.85882378,-0.28701293,0
-2.7678447,1.0331141,-2.2806644,-0.42431742,0.85882378,0.28701293,0
3.7811553,-0.22955203,1.3970459,0.42431742,-0.85882378,-0.28701293,0
-3.4041235,-0.33637226,0.83808994,-0.42431742,0.85882378,0.28701293,0
-2.3588698,-2.9880223,1.0060465,-0.77367967,-0.50854081,0.37789631,0
2.4879439,-0.54902756,-0.48842716,0.42431742,-0.85882378,-0.28701293,0
-1.5183108,-1.1208847,-3.3032045,-0.55151451,0.0062785,-0.83414137,0
-1.1598144,-0.26331162,-3.5654716,-0.43980002,0.08160454,-0.89438045,0
3.5428708,1.1436281,0.59649134,0.90550983,0.40155053,0.1371454,0
0.97398472,-2.0124376,3.0861526,0.09120369,-0.27481583,0.95716131,0
-0.16468461,1.5290425,0.16892511,-0.42431742,0.85882378,0.28701293,0
-3.2672539,-0.31435668,1.2780545,-0.42431742,0.85882378,0.28701293,0
0.67397308,-2.4921801,2.9965873,0.42431742,-0.85882378,-0.28701293,0
0.97081709,-2.0650141,1.7273066,0.42431742,-0.85882378,-0.28701293,0
-2.6211281,-1.6412184,-2.6034012,-0.76935363,-0.17476764,-0.61445171,0
0.5808239,-1.7001849,3.3846836,0.09667182,-0.27218601,0.95737624,0
-2.5929325,-1.6134403,2.3684628,-0.63682127,-0.50835848,0.57968116,0
-2.6871791,-2.8447118,-0.22898674,-0.89152747,-0.45171583,0.033634663,0
-1.5180948,1.4061116,-1.6619477,-0.42431742,0.85882378,0.28701293,0
2.4746997,-0.90915728,3.0604129,0.55560297,-0.0033560097,0.83144081,0
1.5247023,-0.52012479,-1.387624,0.42431742,-0.85882378,-0.28701293,0
1.1111646,-1.3052468,0.67424405,0.42431742,-0.85882378,-0.28701293,0
0.69447136,-2.3532543,2.5418599,0.42431742,-0.85882378,-0.28701293,0
0.0507195,1.2243098,1.6536012,-0.42431742,0.85882378,0.28701293,0
-3.3169684,0.60178208,-1.9492877,-0.42431742,0.85882378,0.28701293,0
0.95193291,-1.7891283,1.6601822,0.42431742,-0.85882378,-0.28701293,0
-1.2734492,-0.18966836,3.7617636,-0.1345011,-0.37322205,0.91794038,0
0.6155659,-1.8265043,1.0515078,0.42431742,-0.85882378,-0.28701293,0
3.5272226,-0.4444865,1.4966149,0.42431742,-0.85882378,-0.28701293,0
2.106137,-1.4253827,2.8833511,0.3920536,-0.11147173,0.9131636,0
-2.7148328,-2.1300178,-1.9049609,-0.87045002,-0.2995072,-0.39065582,0
3.3970463,0.75297332,-1.680481,0.79061604,0.50589895,-0.34495246,0
1.6449909,2.2006092,1.080289,-0.42431742,0.85882378,0.28701293,0
3.3560979,-0.26436722,0.068522215,0.42431742,-0.85882378,-0.28701293,0
0.5761863,1.8997253,0.82411093,-0.42431742,0.85882378,0.28701293,0
-2.5388479,-2.3913319,1.2515457,-0.78837073,-0.50630027,0.34947288,0
-2.3513136,-1.8733041,-2.4552946,0.42431742,-0.85882378,-0.28701293,0
1.2861123,-1.7613668,3.0859022,0.241961,-0.19790119,0.94988936,0
-0.064260483,0.18713616,-4.0795794,-0.14565229,0.24810174,-0.95772153,0
-1.7940402,0.095864892,2.3915396,-0.42431742,0.85882378,0.28701293,0
1.029417,1.6468502,1.6444384,-0.42431742,0.85882378,0.28701293,0
-1.9982822,-2.387742,-1.0059607,0.42431742,-0.85882378,-0.28701293,0
-2.9479995,-2.4586296,0.50452757,-0.85814786,-0.48255789,0.17527103,0
-1.6241096,-2.4653907,-0.12606573,0.42431742,-0.85882378,-0.28701293,0
-1.2471159,-2.8833783,2.6676989,-0.46439677,-0.47849631,0.74523598,0
-1.9292104,-0.20636415,3.13062,-0.42431742,0.85882378,0.28701293,0
-3.2958701,0.84098053,-2.0633032,-0.42431742,0.85882378,0.28701293,0
0.13008165,-0.27466294,3.9001865,0.094273686,-0.27334079,0.9572863,0
-1.8388321,-1.3181374,-3.0421867,-0.67376244,-0.087677822,-0.73372781,0
-3.5139942,0.68806255,-1.4467599,-0.42431742,0.85882378,0.28701293,0
0.11239815,-0.8200267,-2.0767994,0.42431742,-0.85882378,-0.28701293,0
-2.2041132,1.1309168,-2.8776221,-0.51014078,0.035151899,-0.85937214,0
-2.6167021,-2.3714411,-1.3283508,-0.89451456,-0.34829855,-0.28023505,0
-1.5977783,-2.7673225,2.3703508,-0.51221442,-0.48902258,0.70604038,0
1.0351865,1.5023777,1.9999487,-0.42431742,0.85882378,0.28701293,0
-2.7078021,-1.9716349,1.5273085,-0.72888774,-0.51201016,0.45449746,0
-2.3642263,-2.3248551,1.929086,-0.66025794,-0.51035237,0.55099869,0
-1.1763372,-1.7299552,-2.3034086,0.42431742,-0.85882378,-0.28701293,0
-1.6272198,0.75781918,0.96883523,-0.42431742,0.85882378,0.28701293,0
-0.36771059,2.2867975,-2.1047201,-0.42431742,0.85882378,0.28701293,0
-1.3664052,-2.152406,-1.243715,0.42431742,-0.85882378,-0.28701293,0
0.43061733,0.43994471,3.962522,0.22344947,-0.20785141,0.95229602,0
-1.4658134,-1.5403385,-2.2748585,0.42431742,-0.85882378,-0.28701293,0
2.349951,2.5227976,1.4054205,-0.42431742,0.85882378,0.28701293,0
-0.66792011,-1.1553745,-3.1444592,0.42431742,-0.85882378,-0.28701293,0
2.0330014,1.2279484,-2.9493401,0.44061106,0.47272933,-0.7631439,0
-0.72123647,0.69196296,2.0132506,-0.42431742,0.85882378,0.28701293,0
1.6008337,-1.0258987,0.31690001,0.42431742,-0.85882378,-0.28701293,0
0.74435019,1.186677,3.3694453,-0.42431742,0.85882378,0.28701293,0
-0.36020529,1.7680342,-0.4392091,-0.42431742,0.85882378,0.28701293,0
2.9850588,-0.1856873,2.197804,0.70707613,0.11623798,0.69751835,0
-2.5508349,-2.8665657,0.88673401,-0.80925924,-0.50186872,0.30533087,0
0.015782118,-1.2176068,-1.8393977,0.42431742,-0.85882378,-0.28701293,0
2.1613176,-0.36477673,3.2354937,0.50017762,-0.041924134,0.86490721,0
-1.4157324,-0.31915158,-3.4037371,-0.43682528,0.08350265,-0.89566219,0
1.0936325,1.2554028,2.8570049,-0.42431742,0.85882378,0.28701293,0
1.980881,-0.96151108,0.006378293,0.42431742,-0.85882378,-0.28701293,0
-0.38134298,-1.6940349,-0.6695928,0.42431742,-0.85882378,-0.28701293,0
-1.2800159,0.082703173,-3.5567956,-0.38551462,0.11546602,-0.91544843,0
-3.6577468,0.44635928,-1.3473744,-0.42431742,0.85882378,0.28701293,0
1.2152858,-0.052921325,3.709379,0.35142207,-0.13593513,0.92629576,0
2.0530365,0.49102962,3.0747943,0.59579611,0.026103452,0.80271113,0
-0.43899584,2.4602652,-3.1410482,-0.42431742,0.85882378,0.28701293,0
1.6885922,-1.7923369,2.0696123,0.42431742,-0.85882378,-0.28701293,0
0.022371292,-0.83355916,-2.4643574,0.42431742,-0.85882378,-0.28701293,0
-1.630594,-2.3168092,-1.1735836,0.42431742,-0.85882378,-0.28701293,0
-2.8452902,-2.683177,-1.2856882,0.42431742,-0.85882378,-0.28701293,0
0.10239744,0.7790938,3.7384579,-0.42431742,0.85882378,0.28701293,0
-1.4347267,-1.2826793,-3.7126486,-0.51080287,0.0346995,-0.85899729,0
1.4114592,1.1730975,3.2635961,-0.42431742,0.85882378,0.28701293,0
-0.91400075,-2.1959362,-0.24751079,0.42431742,-0.85882378,-0.28701293,0
-2.5020976,1.1091576,-2.0493073,-0.42431742,0.85882378,0.28701293,0
-2.0360575,-0.26139331,2.5569489,-0.42431742,0.85882378,0.28701293,0
-0.89543211,-2.4234581,1.3122451,0.42431742,-0.85882378,-0.28701293,0
-2.9100749,0.17372155,-0.046128273,-0.42431742,0.85882378,0.28701293,0
-0.17969501,1.0621088,1.3770905,-0.42431742,0.85882378,0.28701293,0
-1.7001243,1.6104581,-1.9061809,-0.42431742,0.85882378,0.28701293,0
1.1392788,2.8640804,-1.6818089,-0.42431742,0.85882378,0.28701293,0
-1.3388312,-2.7459872,1.1063166,0.42431742,-0.85882378,-0.28701293,0
-2.329602,0.30999541,0.89892793,-0.42431742,0.85882378,0.28701293,0
2.6031005,0.0030939579,-1.9059472,0.42431742,-0.85882378,-0.28701293,0
0.37044573,2.4056964,-1.9055531,-0.42431742,0.85882378,0.28701293,0
2.0460939,2.9407444,-0.15677547,-0.42431742,0.85882378,0.28701293,0
2.453438,-1.376194,1.9193612,0.42431742,-0.85882378,-0.28701293,0
0.24621725,0.89938098,-3.885159,0.019693375,0.32563895,-0.94528908,0
-1.3642095,1.0551524,-0.097498417,-0.42431742,0.85882378,0.28701293,0
-2.4662991,-0.10444689,2.4065402,-0.42431742,0.85882378,0.28701293,0
2.526453,0.057500362,2.5854173,0.67076796,0.085185409,0.73675877,0
1.9205137,2.2929544,0.68542218,-0.42431742,0.85882378,0.28701293,0
-3.0835946,-2.5828936,-0.48687315,-0.9021939,-0.42807841,-0.052864313,0
-2.7967019,-1.8043025,1.7808189,-0.74044591,-0.51153105,0.43597651,0
-3.0217369,-2.0789657,-0.094698906,-0.89705539,-0.44190046,-0.0039080381,0
3.5481994,0.48266804,1.3275044,0.87672937,0.31036502,0.3674494,0
1.2799773,3.1586885,-2.048882,-0.42431742,0.85882378,0.28701293,0
-3.0074809,-2.6074114,-1.3411691,-0.90055847,-0.36712369,-0.23284018,0
3.3361158,0.029171586,-0.55721641,0.42431742,-0.85882378,-0.28701293,0
-3.4968901,-0.78414601,1.4797802,-0.79950702,-0.50413984,0.32654452,0
0.46166396,-0.8381803,-2.2544763,0.42431742,-0.85882378,-0.28701293,0
-1.8067007,-2.6952634,-0.52225184,0.42431742,-0.85882378,-0.28701293,0
0.76833737,-1.8540351,1.0051899,0.42431742,-0.85882378,-0.28701293,0
-0.18860102,2.1725526,-1.5324992,-0.42431742,0.85882378,0.28701293,0
0.84079933,-2.0829928,2.8154113,0.42431742,-0.85882378,-0.28701293,0
3.5314977,-0.54180121,1.5632796,0.42431742,-0.85882378,-0.28701293,0
-1.7304997,1.73212,-2.1604321,-0.42431742,0.85882378,0.28701293,0
-1.8715658,1.3451548,-3.1624229,-0.3812778,0.11804213,-0.91689318,0
0.059699059,0.81141245,3.5305297,-0.42431742,0.85882378,0.28701293,0
-0.25412023,-1.8787725,0.63438034,0.42431742,-0.85882378,-0.28701293,0
1.1530662,2.186213,-3.0027628,0.39346159,0.46034244,-0.79578424,0
-0.29318619,0.80294877,-3.6436608,-0.15696132,0.24240477,-0.95739371,0
2.8963962,0.80374229,2.0446818,0.81580985,0.22502592,0.53274518,0
3.1058919,0.16743851,-1.3578157,0.42431742,-0.85882378,-0.28701293,0
-1.4687603,-1.9122915,-1.9907453,0.42431742,-0.85882378,-0.28701293,0
-1.6644511,1.8331993,-2.7273545,-0.42431742,0.85882378,0.28701293,0
-1.1815722,2.1141717,-2.4448667,-0.42431742,0.85882378,0.28701293,0
3.1545749,2.2491963,0.31863976,0.90313333,0.42434677,0.065419316,0
-1.2944169,-0.029401541,2.9922709,-0.42431742,0.85882378,0.28701293,0
-0.3069092,-2.2166631,1.2540601,0.42431742,-0.85882378,-0.28701293,0
3.8883204,0.6224792,0.041131496,0.90475297,0.41508749,0.095520139,0
-0.016840041,1.5944263,0.052246034,-0.42431742,0.85882378,0.28701293,0
2.3065088,2.5869706,1.4210494,-0.42431742,0.85882378,0.28701293,0
-2.6432416,-1.9448377,2.0621228,-0.67865163,-0.51145637,0.52710909,0
0.25373006,-2.2098165,1.765645,0.42431742,-0.85882378,-0.28701293,0
-1.4502938,0.62678713,1.5364774,-0.42431742,0.85882378,0.28701293,0
-3.8579383,-1.0886711,0.15490246,-0.89880073,-0.437978,-0.018225431,0
-2.0778234,0.69640511,-3.1461403,-0.46243036,0.066994935,-0.88412082,0
0.80268568,-0.8632834,-1.0066302,0.42431742,-0.85882378,-0.28701293,0
1.9062353,3.2396677,-1.2600696,0.7435925,0.5113548,-0.4307971,0
-0.25224942,1.1633691,0.72871327,-0.42431742,0.85882378,0.28701293,0
0.75755668,-0.91480577,-1.0729517,0.42431742,-0.85882378,-0.28701293,0
-2.3646963,-3.198458,0.1972537,0.42431742,-0.85882378,-0.28701293,0
0.056274414,-0.14136441,3.8346007,0.13308918,-0.25437027,0.95790547,0
-1.8389341,1.1428757,-1.5363339,-0.42431742,0.85882378,0.28701293,0
-0.55541325,-2.9619551,2.4679163,0.42431742,-0.85882378,-0.28701293,0
1.3047736,-1.1397012,0.28271109,0.42431742,-0.85882378,-0.28701293,0
-2.2051282,0.16892493,-3.2584324,-0.50663435,0.037542939,-0.86134303,0
-0.16847563,-0.65502405,-3.041827,0.42431742,-0.85882378,-0.28701293,0
-0.93260968,-2.4055223,0.59047019,0.42431742,-0.85882378,-0.28701293,0
-0.21712351,-0.30013168,-3.8156407,-0.19413066,0.22331387,-0.95521927,0
2.657855,0.39183402,-2.0553517,0.42431742,-0.85882378,-0.28701293,0
-0.55726719,-1.9868522,-0.76631492,0.42431742,-0.85882378,-0.28701293,0
1.9664168,-1.5205973,1.7145084,0.42431742,-0.85882378,-0.28701293,0
-2.5063386,-2.3337941,1.5651195,-0.69901568,-0.51214993,0.49907833,0
-0.27619195,-2.4878035,2.3290296,0.42431742,-0.85882378,-0.28701293,0
0.95839095,0.021062553,-3.3843086,0.42431742,-0.85882378,-0.28701293,0
-0.74479753,-1.8533686,-0.71400893,0.42431742,-0.85882378,-0.28701293,0
-2.4992344,-0.1038605,1.2573836,-0.42431742,0.85882378,0.28701293,0
2.2421484,0.48684204,-2.9643264,0.42431742,-0.85882378,-0.28701293,0
0.024950504,2.5418754,-1.9067904,-0.42431742,0.85882378,0.28701293,0
-3.4386911,-1.4927,-0.15922403,-0.90523386,-0.41018915,-0.11088824,0
3.036407,-0.034209013,2.5346947,0.72091913,0.12860379,0.68098199,0
2.968179,2.2846673,0.19812679,0.88671577,0.45833269,-0.060547829,0
2.7195241,0.92444229,-2.8758547,0.52448249,0.49147683,-0.69524699,0
-1.9738642,-2.607986,0.18339491,0.42431742,-0.85882378,-0.28701293,0
1.1329575,1.6523942,-3.1211729,0.34529424,0.44647205,-0.82549018,0
2.6244602,-0.0056779385,2.6179953,0.66107327,0.077193692,0.74633968,0
-0.32053661,-0.22697482,4.0147276,0.064332247,-0.28756928,0.95559669,0
0.55633247,-1.0968717,-1.453795,0.42431742,-0.85882378,-0.28701293,0
-3.121706,-1.4262493,1.0821137,-0.83993638,-0.49171877,0.22960663,0
2.4541111,-0.31548131,-1.2679434,0.42431742,-0.85882378,-0.28701293,0
-0.42260838,-0.087878197,-3.6034939,-0.20923436,0.21539339,-0.95384818,0
-3.7019536,0.23653185,-1.2496388,-0.42431742,0.85882378,0.28701293,0
2.3321157,-0.8628819,1.3159752,0.42431742,-0.85882378,-0.28701293,0
1.6146243,1.6684701,3.1194837,-0.42431742,0.85882378,0.28701293,0
2.3356185,-0.83583462,0.21222997,0.42431742,-0.85882378,-0.28701293,0
-3.80444,-0.13347793,-0.93845105,-0.87788272,-0.31245717,-0.36289412,0
0.057378292,-1.4016058,3.3942828,-0.02476573,-0.32784957,0.94440508,0
-1.9489148,1.6906924,-2.7318747,-0.42431742,0.85882378,0.28701293,0
3.7275777,-0.23675704,1.1312702,0.42431742,-0.85882378,-0.28701293,0
-3.3843927,0.85002422,-2.0595431,-0.42431742,0.85882378,0.28701293,0
-0.92854917,0.70105147,1.5562258,-0.42431742,0.85882378,0.28701293,0
0.036959648,0.77853882,-3.8760896,-0.052025437,0.29331616,-0.95459867,0
0.99646473,1.0266809,-3.5075381,0.23788095,0.41155064,-0.87979466,0
-1.608465,0.13830024,2.8863719,-0.42431742,0.85882378,0.28701293,0
-1.5521016,-1.6342132,-1.9622942,0.42431742,-0.85882378,-0.28701293,0
-1.4465826,-1.9449449,-1.7302799,0.42431742,-0.85882378,-0.28701293,0
-2.9193904,-2.2762167,-0.81066537,-0.9048478,-0.38999292,-0.17075026,0
-2.3526142,-0.65374911,3.1178732,-0.49183971,-0.4847191,0.72328466,0
3.275095,0.35595465,-1.2995718,0.42431742,-0.85882378,-0.28701293,0
1.9781929,-1.0683861,1.3134818,0.42431742,-0.85882378,-0.28701293,0
1.7512383,0.09979856,3.2357004,0.49350297,-0.046423838,0.86850393,0
-0.15847063,-0.50474167,-3.5966115,0.42431742,-0.85882378,-0.28701293,0
2.1301615,-1.3176715,2.8291371,0.48454154,-0.052419543,0.87319607,0
-0.99196851,0.4875105,2.2942293,-0.42431742,0.85882378,0.28701293,0
0.83424604,-1.0237602,-1.0067878,0.42431742,-0.85882378,-0.28701293,0
-1.3997483,-3.0149572,2.2591751,-0.48686504,-0.4836266,0.72737026,0
2.651387,1.9941416,-1.7314782,0.72168797,0.51218212,-0.46565628,0
-2.6048434,0.43621564,-0.19568276,-0.42431742,0.85882378,0.28701293,0
-3.3143599,-1.8522832,-0.42329884,-0.90466815,-0.41575509,-0.093397021,0
-0.64672518,-1.0586832,3.3990746,-0.12381446,-0.36901161,0.92114067,0
1.1062915,-0.019786239,-3.3625259,0.42431742,-0.85882378,-0.28701293,0
-2.4365876,-2.5226007,-1.4983039,0.42431742,-0.85882378,-0.28701293,0
-3.3455045,-1.9225103,-0.66937304,-0.90531874,-0.39578125,-0.15412617,0
-1.3306468,1.8949008,-2.8635597,-0.42431742,0.85882378,0.28701293,0
1.0981026,-1.2675763,0.47377607,0.42431742,-0.85882378,-0.28701293,0
1.2687614,0.21800297,-3.5846243,0.18182147,0.39131337,-0.9021166,0
0.24366701,-1.195769,-1.2485765,0.42431742,-0.85882378,-0.28701293,0
1.8163927,-1.7158265,1.9388082,0.42431742,-0.85882378,-0.28701293,0
2.82917,-1.3018548,2.3621142,0.42431742,-0.85882378,-0.28701293,0
3.3479283,-0.21499193,2.0065238,0.75052452,0.15622093,0.64211202,0
3.943126,0.5771302,-0.2703495,0.90101665,0.43198928,0.039421439,0
1.0636351,-1.0948216,-0.94456714,0.42431742,-0.85882378,-0.28701293,0
2.2376251,0.13483948,3.235662,0.60813522,0.035430998,0.7930423,0
-1.8001293,-2.7811427,2.0543029,-0.59452963,-0.50330186,0.62707388,0
-1.2178559,1.3211884,-3.3705974,-0.26192069,0.18700659,-0.94679767,0
-2.2702303,-0.99274868,2.6791041,-0.52390242,-0.49136317,0.69576454,0
