1.7503858,2.2029302,-2.3159781,0.34431309,0.57263678,-0.74399984,0
1.3576407,-3.3467779,-0.43543148,0.24316806,-0.95023191,-0.19475269,0
-5.0788021,0.95681334,1.2413816,-0.4992094,0.36004826,0.78813422,0
-0.62640333,0.30568051,4.0773201,-0.49413055,-0.0091157854,0.86934006,0
1.2958996,-0.41392934,-3.3569083,0.50146568,-0.073464304,-0.86205292,0
4.2697773,-0.036536455,-2.1138425,0.50424439,-0.12380359,-0.85464054,0
-0.91387868,0.37027836,-4.7086759,0.47385478,0.14899692,-0.86790657,0
-0.15617317,-2.5279961,-3.4616647,0.45495349,-0.60902977,-0.64969254,0
-3.3667607,-1.9829233,-0.35719126,-0.86255389,-0.11999005,-0.49153155,0
2.6141856,1.5259588,-2.6051903,0.4225806,0.36341852,-0.83027273,0
-0.66463375,3.384367,1.6336732,-0.32768992,0.87268066,0.36200547,0
3.8189557,-2.8047464,0.43834877,0.29999706,-0.90357459,-0.30586755,0
-4.3380594,2.0748305,-0.12390375,-0.86255389,-0.11999005,-0.49153155,0
-1.5150765,-3.4943166,-3.2969501,-0.86255389,-0.11999005,-0.49153155,0
1.0699582,-1.9163692,-3.4248562,0.4907583,-0.43479198,-0.75505793,0
-2.9349394,-2.1909618,-1.5859503,-0.86255389,-0.11999005,-0.49153155,0
-3.5588145,-2.2121243,1.3492486,-0.3621546,-0.53200024,0.76538867,0
-0.05489254,-1.591074,3.938612,-0.39125383,-0.45779538,0.79833829,0
-3.1395843,-1.9118841,-0.79260659,-0.86255389,-0.11999005,-0.49153155,0
-0.11810493,-3.2459157,2.2983799,-0.15150565,-0.86564553,0.47718352,0
-2.7428882,3.08968,-3.1851947,0.09309721,0.91724825,-0.38728362,0
1.6061354,0.48774445,-3.3380296,0.48490089,0.081351548,-0.87077731,0
0.3450973,-3.6008832,0.80136061,0.013337076,-0.97652727,0.21498051,0
-3.2703738,1.4121439,-1.9058614,-0.86255389,-0.11999005,-0.49153155,0
-2.2751393,0.51732779,-3.4088597,-0.86255389,-0.11999005,-0.49153155,0
4.4976459,2.7303245,-1.0666482,0.86255389,0.11999005,0.49153155,0
-2.420259,0.38859367,-3.2597179,-0.86255389,-0.11999005,-0.49153155,0
1.819896,3.8236022,0.22688258,0.0015121102,0.9708572,-0.23965412,0
2.5460258,1.7206426,2.5964744,0.86255389,0.11999005,0.49153155,0
2.285018,2.1144676,2.2049966,0.86255389,0.11999005,0.49153155,0
-3.9472494,-0.71563458,-0.064361334,-0.86255389,-0.11999005,-0.49153155,0
-0.2348572,-3.6596575,-2.2067611,0.32087165,-0.88085538,-0.34804499,0
-2.425158,0.90740752,-3.0263319,-0.86255389,-0.11999005,-0.49153155,0
-0.4474346,2.1257985,3.5986736,-0.48733234,0.45823315,0.74332356,0
-3.5321317,1.3443165,-1.3823956,-0.86255389,-0.11999005,-0.49153155,0
3.8552942,-1.8347389,-1.1133537,0.46549022,-0.56892037,-0.67797399,0
-2.5149412,-3.5145757,1.0575997,-0.1696564,-0.84664142,0.50439578,0
-0.27882028,-3.3712659,1.717591,-0.10329139,-0.90925431,0.40322131,0
-2.1039057,-1.7441425,2.5100818,-0.39392501,-0.45040691,0.80122215,0
2.0697212,2.6098666,2.753051,0.86255389,0.11999005,0.49153155,0
-0.16248894,-3.7231002,0.82964945,-0.015727997,-0.96464479,0.26308408,0
4.3274708,0.48263144,-0.23677206,0.86255389,0.11999005,0.49153155,0
4.8107667,-0.65963125,-1.0959706,0.86255389,0.11999005,0.49153155,0
4.2527122,1.724961,-0.62436223,0.86255389,0.11999005,0.49153155,0
3.7405932,-2.8203106,1.3655732,0.86255389,0.11999005,0.49153155,0
2.0869176,-2.1404538,3.657196,0.86255389,0.11999005,0.49153155,0
3.7297728,-1.4999578,1.1208282,0.86255389,0.11999005,0.49153155,0
4.4536376,-0.8197484,-0.45366287,0.86255389,0.11999005,0.49153155,0
0.00083208084,3.7780395,0.65040398,-0.18309635,0.97965634,0.082154036,0
-1.6976316,0.55915308,-4.461277,-0.86255389,-0.11999005,-0.49153155,0
-3.7244573,-0.76354766,-0.34117103,-0.86255389,-0.11999005,-0.49153155,0
-2.5692439,0.086466074,-2.4034042,-0.86255389,-0.11999005,-0.49153155,0
0.058516145,-1.7125849,-3.7747886,0.49149317,-0.42939204,-0.75766563,0
-0.87938833,-3.0058482,1.9041116,-0.1766901,-0.83887821,0.51484364,0
0.15939522,2.0528226,-3.3867321,0.32317531,0.61682546,-0.71769369,0
-1.3037448,-4.0798903,-0.58143973,0.10640734,-0.99276578,0.055621982,0
3.2276461,-2.0565779,2.2661614,0.86255389,0.11999005,0.49153155,0
0.76647544,0.7868681,-3.7119596,0.46442276,0.1977438,-0.86325485,0
-3.2876136,-3.780369,-0.7249639,-0.86255389,-0.11999005,-0.49153155,0
-3.9393902,-1.2963344,0.39906025,-0.86255389,-0.11999005,-0.49153155,0
-2.672292,-3.5175188,0.42478079,-0.14439154,-0.87269837,0.46642119,0
2.4641395,-3.036171,3.3915792,-0.13873291,-0.87815249,0.4578225,0
-2.0629892,0.14377594,-3.8155816,-0.86255389,-0.11999005,-0.49153155,0
4.1423397,0.78518736,-0.56075644,0.86255389,0.11999005,0.49153155,0
2.4197445,-3.3246315,0.60063076,0.18828183,-0.97782463,-0.091700852,0
0.30468941,2.3106203,-3.1635935,0.31043202,0.64162982,-0.70138663,0
2.1806211,3.961369,1.5744808,-0.12781179,0.99163908,-0.017785966,0
1.9986861,-1.9041624,4.0452976,0.86255389,0.11999005,0.49153155,0
-2.1038675,0.93057775,-3.6661925,-0.86255389,-0.11999005,-0.49153155,0
-1.2133238,0.098241329,-4.6716557,-0.86255389,-0.11999005,-0.49153155,0
-1.1361314,3.3399916,1.3738503,-0.33138049,0.86809057,0.36960232,0
-3.2515888,-2.2717426,-0.50458646,-0.86255389,-0.11999005,-0.49153155,0
-3.1127257,0.97296596,-2.263186,-0.86255389,-0.11999005,-0.49153155,0
-1.8311647,-0.87991762,-3.9661095,-0.86255389,-0.11999005,-0.49153155,0
-1.4977688,-1.0283546,-4.2024975,-0.86255389,-0.11999005,-0.49153155,0
3.2413588,-3.2288976,1.8089504,0.092251062,-0.99248505,0.080395639,0
-4.554512,-0.79957509,0.83054733,-0.86255389,-0.11999005,-0.49153155,0
1.3835788,-3.0411959,2.6344619,-0.10965407,-0.90405226,0.41311678,0
-2.3462625,-0.59215188,-2.700074,-0.86255389,-0.11999005,-0.49153155,0
-0.32001382,2.2439809,3.6401675,-0.47799116,0.51179492,0.7138561,0
2.4910915,2.5368338,1.7510548,0.86255389,0.11999005,0.49153155,0
3.2171249,0.94506097,1.1044447,0.86255389,0.11999005,0.49153155,0
-4.3845701,-0.73132443,0.58515787,-0.86255389,-0.11999005,-0.49153155,0
4.0921154,2.0585175,-0.44966364,0.86255389,0.11999005,0.49153155,0
-3.9272361,2.5197721,-0.54133129,-0.86255389,-0.11999005,-0.49153155,0
3.5179384,-1.5490458,-1.5639381,0.4794001,-0.50446099,-0.71811891,0
-0.42581034,1.9606171,-3.5323987,0.34302139,0.57545424,-0.74242091,0
1.0075912,-3.414531,2.2022877,-0.089355528,-0.92007792,0.38140839,0
-4.1352262,0.55619669,0.10721731,-0.86255389,-0.11999005,-0.49153155,0
4.2885118,-2.7377665,0.33529043,0.86255389,0.11999005,0.49153155,0
4.1983466,2.9288621,-0.95213675,0.28726196,0.68358088,-0.67096794,0
-1.4657614,1.1375399,-4.7610664,-0.86255389,-0.11999005,-0.49153155,0
4.1727219,1.2323388,-0.28774166,0.86255389,0.11999005,0.49153155,0
-3.665323,-0.047598124,-0.73447764,-0.86255389,-0.11999005,-0.49153155,0
1.018337,3.2071912,-1.9547133,0.18617409,0.82804877,-0.52884281,0
-3.6398048,-1.2638367,-0.49521136,-0.86255389,-0.11999005,-0.49153155,0
-3.3431752,0.62227583,-1.2323667,-0.86255389,-0.11999005,-0.49153155,0
-4.5178852,2.2589178,0.40923405,-0.42912015,0.68817562,0.58503878,0
-2.9042842,-2.5802631,-1.2989688,-0.86255389,-0.11999005,-0.49153155,0
-4.1440973,2.1918566,-0.47137785,-0.86255389,-0.11999005,-0.49153155,0
-3.1953564,-3.9000027,-0.016650744,-0.085048854,-0.92326587,0.37462926,0
0.77182865,-2.8037281,2.9129577,-0.19211268,-0.82105207,0.53755593,0
-2.1042185,-4.0344157,-0.048654795,-0.029485703,-0.95790112,0.28558034,0
1.9403269,3.0387108,-1.5033264,0.23832715,0.76059788,-0.60389662,0
-0.0095639825,2.3317623,3.770164,-0.46387726,0.57545799,0.67354763,0
-0.1002717,2.955153,-2.5767732,0.22294593,0.7819438,-0.58211613,0
1.3924134,1.7700136,-2.9891768,0.40222907,0.4267219,-0.81001246,0
-0.061914444,-2.7826815,2.8424284,-0.24567193,-0.74994761,0.61418557,0
-0.98608088,-3.8893931,-0.53295946,0.11059326,-0.99269354,0.04825902,0
-3.7396381,-2.2710636,0.36263084,-0.86255389,-0.11999005,-0.49153155,0
-2.4652803,-0.18058318,2.9295762,-0.49524465,0.0012992024,0.86875266,0
3.3375313,1.6622493,0.97178012,0.86255389,0.11999005,0.49153155,0
2.9656081,-0.58176661,1.9368467,0.86255389,0.11999005,0.49153155,0
-0.033383414,-2.7092071,-2.9303384,0.41955423,-0.71260506,-0.56228852,0
-2.5264449,-2.1763842,-2.2440858,-0.86255389,-0.11999005,-0.49153155,0
3.0821369,-2.5017066,2.706085,0.86255389,0.11999005,0.49153155,0
-0.035613179,-3.6256483,-1.1746435,0.2290324,-0.95883882,-0.1678459,0
-3.4245625,-1.0941727,-1.0586755,-0.86255389,-0.11999005,-0.49153155,0
-3.3803315,-2.004096,-0.34010053,-0.86255389,-0.11999005,-0.49153155,0
3.0895026,-2.8923206,2.5435712,0.86255389,0.11999005,0.49153155,0
-1.2098933,-1.6820612,-4.3949366,-0.86255389,-0.11999005,-0.49153155,0
-3.856797,2.9574373,-0.94103909,-0.86255389,-0.11999005,-0.49153155,0
-4.6120925,-2.0847921,1.4191074,-0.40851486,-0.40801993,0.81647754,0
0.77178097,0.23179102,-4.0241375,0.47759479,0.12764782,-0.86925805,0
0.49575949,-3.4332058,-0.61145091,0.21637815,-0.96563458,-0.14398092,0
-4.8745451,-1.1759096,1.3610332,-0.86255389,-0.11999005,-0.49153155,0
-1.2049415,2.12569,2.8879042,-0.46702176,0.56256109,0.6822139,0
-3.331851,2.9830048,-1.6217697,-0.86255389,-0.11999005,-0.49153155,0
1.7703406,4.0553741,0.6426096,-0.06394577,0.98953551,-0.12934643,0
4.069972,1.7396833,-0.29212999,0.86255389,0.11999005,0.49153155,0
2.9136782,0.32287225,-2.5820894,0.48884147,0.052966386,-0.8707633,0
-2.3063715,2.1166244,-3.9754763,-0.86255389,-0.11999005,-0.49153155,0
-3.2207437,-2.2887547,-0.88468683,-0.86255389,-0.11999005,-0.49153155,0
-2.3442855,0.85442924,-3.3909693,-0.86255389,-0.11999005,-0.49153155,0
0.58166981,-1.8268936,3.8601997,-0.36661941,-0.52129614,0.77061057,0
-0.4817872,2.9654105,-2.7115281,0.2109037,0.79778606,-0.56485134,0
0.091885693,-2.8526351,-2.998661,0.42074251,-0.70968527,-0.5650866,0
2.0149255,-3.3730035,1.4322419,0.062000036,-0.98921752,0.1326831,0
2.7574227,1.9750524,2.1116006,0.86255389,0.11999005,0.49153155,0
-2.9841359,1.9871542,-2.6395411,-0.86255389,-0.11999005,-0.49153155,0
-2.6977587,0.22805142,-2.263571,-0.86255389,-0.11999005,-0.49153155,0
-0.058926344,2.5052824,-2.8673413,0.25420552,0.73718804,-0.62604582,0
-2.4758463,-0.48894286,-2.3096449,-0.86255389,-0.11999005,-0.49153155,0
-4.4595194,0.49466944,0.37633085,-0.86255389,-0.11999005,-0.49153155,0
-2.8304334,1.5528195,-2.2392695,-0.86255389,-0.11999005,-0.49153155,0
1.0607293,-0.27322721,-3.6332879,0.50242388,-0.088384509,-0.86009222,0
4.5795436,-0.56884623,-0.98493242,0.86255389,0.11999005,0.49153155,0
0.7055614,-0.019894838,-3.8081069,0.49125209,0.033965498,-0.87035507,0
-3.6507401,0.021308184,-0.32885265,-0.86255389,-0.11999005,-0.49153155,0
-2.8924482,-2.6114092,-1.1354766,-0.86255389,-0.11999005,-0.49153155,0
2.7951579,3.6215568,1.2726088,0.86255389,0.11999005,0.49153155,0
2.9922421,-0.059028864,1.7756683,0.86255389,0.11999005,0.49153155,0
0.58403039,-1.0031521,4.4438281,-0.42006123,-0.371712,0.82787621,0
2.5378642,0.19984329,-2.7364798,0.49369445,0.013059676,-0.86953759,0
-2.1192577,-3.7289226,-2.546802,-0.86255389,-0.11999005,-0.49153155,0
3.4891205,-1.7122717,-1.8814416,0.47346115,-0.53399694,-0.7004869,0
3.0203071,0.14533257,1.7048156,0.86255389,0.11999005,0.49153155,0
1.3726239,-3.4854856,1.9973352,-0.032901525,-0.95611507,0.29113847,0
1.2489246,-2.365536,-2.4561143,0.44180608,-0.65208536,-0.61611044,0
1.1384143,-0.2557466,-3.7510927,0.49519011,-0.00077706575,-0.86878449,0
-2.3256583,-2.7429223,-2.1685469,-0.86255389,-0.11999005,-0.49153155,0
0.22055602,-2.6524332,-2.9954677,0.42695686,-0.69389129,-0.57984734,0
1.988384,3.6195145,2.8935227,0.86255389,0.11999005,0.49153155,0
-0.62745714,2.0772967,-3.5465829,0.32061684,0.62191045,-0.71444535,0
-4.4739113,-0.28912783,1.1193283,-0.86255389,-0.11999005,-0.49153155,0
-1.3745334,3.5673113,1.0815458,-0.29846856,0.90510905,0.30281079,0
3.2308092,-3.4381838,1.9140677,0.86255389,0.11999005,0.49153155,0
-2.9010358,-2.4951229,-1.5125054,-0.86255389,-0.11999005,-0.49153155,0
-2.1339524,-3.0522683,-2.3486428,-0.86255389,-0.11999005,-0.49153155,0
3.028286,3.2075319,-0.96766549,0.22826999,0.77469873,-0.58969039,0
4.2154617,2.0118928,-0.60160875,0.86255389,0.11999005,0.49153155,0
-0.35551357,-0.83540916,-4.4148741,0.5059433,-0.19547649,-0.84012538,0
4.0754862,-1.8101158,0.65147924,0.86255389,0.11999005,0.49153155,0
2.4297681,3.0395846,1.7329246,0.86255389,0.11999005,0.49153155,0
-2.6963577,-2.5346699,-1.5226723,-0.86255389,-0.11999005,-0.49153155,0
1.5164342,2.4487495,4.2141461,0.86255389,0.11999005,0.49153155,0
-1.9283185,-2.7753544,-2.9324689,-0.86255389,-0.11999005,-0.49153155,0
1.6519693,2.9819431,3.7164483,0.86255389,0.11999005,0.49153155,0
0.7698555,-1.5176897,4.2248545,-0.38859671,-0.46503955,0.79544389,0
1.8849857,3.4505062,-1.3704681,0.16377169,0.85296381,-0.4956125,0
-2.7529254,0.81438708,-2.6099935,-0.86255389,-0.11999005,-0.49153155,0
3.1256723,-2.5853813,2.1360736,0.86255389,0.11999005,0.49153155,0
-4.7519641,1.3433361,0.79584408,-0.86255389,-0.11999005,-0.49153155,0
2.601541,4.1559219,1.3950862,-0.090880692,0.99241513,-0.082783222,0
-2.615958,-0.38439202,-2.4077506,-0.86255389,-0.11999005,-0.49153155,0
2.7137079,-2.1099365,-2.0561161,0.45784503,-0.5985955,-0.6573137,0
-2.5429232,1.6476438,2.3925848,-0.49009603,0.43953666,0.75273752,0
3.1785336,3.7507379,0.36449701,0.086574495,0.92214501,-0.3770327,0
-4.1212611,2.7005801,0.19457626,-0.38388568,0.78803468,0.48128295,0
-2.0453491,-0.37762833,-3.4020498,-0.86255389,-0.11999005,-0.49153155,0
-3.5912499,2.4200509,0.91017866,-0.40519142,0.74562287,0.52902412,0
-0.76956367,1.2567146,-4.4056473,0.39534104,0.44644594,-0.80274022,0
-2.7171714,-1.4974108,-2.1796885,-0.86255389,-0.11999005,-0.49153155,0
1.301266,0.60887766,4.7657871,0.86255389,0.11999005,0.49153155,0
3.845017,2.8697572,-1.1339128,0.30994743,0.64254791,-0.70076019,0
-2.5480669,3.1771975,-2.5046797,0.009716332,0.96736562,-0.25319892,0
4.6920681,-1.0346303,-0.87463665,0.86255389,0.11999005,0.49153155,0
2.9246075,-2.0718534,2.4325891,0.86255389,0.11999005,0.49153155,0
-3.9725101,-2.0076075,0.62097239,-0.86255389,-0.11999005,-0.49153155,0
-3.6611333,2.3828058,-1.4201603,-0.86255389,-0.11999005,-0.49153155,0
-0.19911706,-1.8935614,-4.1563873,0.49004707,-0.43988299,-0.75256705,0
-0.58131886,-2.010241,3.3789873,-0.36969954,-0.51377738,0.77418035,0
0.47306791,-2.9605553,-2.9338129,0.42621496,-0.69582486,-0.57807326,0
2.9884701,-1.5191755,2.3939619,0.86255389,0.11999005,0.49153155,0
-4.2979188,-0.27342939,1.900466,-0.49629188,0.01158908,0.86807847,0
2.2986035,-3.3898664,1.0838149,0.099753261,-0.99273425,0.0672912,0
-1.3679392,-1.9465654,-3.8798146,-0.86255389,-0.11999005,-0.49153155,0
-1.5117431,0.52521324,-4.9006581,-0.86255389,-0.11999005,-0.49153155,0
1.4633684,2.897517,-2.1403043,0.2530911,0.73887825,-0.6245029,0
-2.7836616,-2.4721546,-1.66075,-0.86255389,-0.11999005,-0.49153155,0
1.5799953,1.0151112,4.0984173,0.86255389,0.11999005,0.49153155,0
-4.5388145,1.3038454,0.87469912,-0.86255389,-0.11999005,-0.49153155,0
0.068363667,3.3675857,-1.6139244,0.10344243,0.90913278,-0.40345657,0
2.1734779,-2.2325015,3.5219979,0.86255389,0.11999005,0.49153155,0
1.9423034,4.0972714,1.4701737,-0.12500262,0.99189496,-0.022778094,0
3.2797716,-0.1060698,1.3457707,0.86255389,0.11999005,0.49153155,0
-0.10217738,-1.0550706,3.8526354,-0.41578043,-0.38548762,0.82372695,0
3.1181335,-2.6793692,-1.0513101,0.39802313,-0.76068872,-0.51276731,0
4.3686886,1.5080578,-1.072041,0.86255389,0.11999005,0.49153155,0
-0.65912414,3.4714403,-1.4009633,0.0057898164,0.96906859,-0.24672422,0
0.03126955,2.9710724,-2.6973886,0.21883518,0.78743577,-0.57624316,0
-3.1000655,0.56661844,-2.0417829,-0.86255389,-0.11999005,-0.49153155,0
-1.2393146,2.8021049,1.9183073,-0.39357379,0.76961851,0.50277936,0
-0.76603746,-1.3744872,-4.8059483,0.50596428,-0.20652314,-0.83746564,0
-2.2798414,-1.956861,2.6433947,-0.37645262,-0.49689233,0.78190887,0
0.46368241,2.1921577,-2.9913046,0.32026809,0.62259936,-0.71400166,0
-1.879209,1.7092786,-3.9870663,-0.86255389,-0.11999005,-0.49153155,0
-1.4504781,0.37281704,-4.5126977,-0.86255389,-0.11999005,-0.49153155,0
4.252388,2.7504163,-1.0975368,0.86255389,0.11999005,0.49153155,0
3.1553576,3.9147463,0.68815094,0.86255389,0.11999005,0.49153155,0
3.2333121,1.2295966,1.4663152,0.86255389,0.11999005,0.49153155,0
0.51464677,-3.4226685,2.0096905,-0.1002847,-0.9116556,0.39853126,0
-0.067916393,3.7643957,0.62390971,-0.15938395,0.98645067,0.038884282,0
-2.2370455,-3.5129576,-2.2842407,-0.86255389,-0.11999005,-0.49153155,0
-4.367342,2.7484541,0.14794159,-0.37456962,0.80452496,0.46090937,0
4.1744485,1.2118274,-0.11846519,0.86255389,0.11999005,0.49153155,0
-3.8568556,2.8739223,-1.3916776,-0.86255389,-0.11999005,-0.49153155,0
-4.049438,2.378824,-0.3149271,-0.86255389,-0.11999005,-0.49153155,0
-0.29832458,-0.90417337,-4.506402,0.50469095,-0.13513538,-0.85265809,0
0.36747503,-3.7967899,0.27313995,0.091273367,-0.99243599,0.082099199,0
0.3249557,-0.011219978,4.5062504,-0.48783368,-0.060512424,0.87083679,0
-4.2666826,-1.2598584,1.6299231,-0.45818716,-0.22685567,0.85941923,0
-2.581059,2.2661529,-3.5165658,-0.86255389,-0.11999005,-0.49153155,0
-3.8919864,0.53278852,-0.58290434,-0.86255389,-0.11999005,-0.49153155,0
-4.3789144,-0.13333869,1.6997619,-0.50084555,0.064634919,0.86312002,0
-2.1479759,3.3624139,-0.96412587,-0.1295501,0.99146408,-0.014692783,0
-0.062713981,3.7295129,1.7564523,-0.29832199,0.9052552,0.30251801,0
-2.5982089,0.7106024,2.5166748,-0.50583923,0.22618863,0.83244544,0
2.467443,-1.1361485,-2.8084245,0.50444537,-0.27918503,-0.81706238,0
4.1277928,-2.4800673,-0.44494009,0.41035384,-0.73421484,-0.54086816,0
-2.0488095,-0.77927262,3.1433647,-0.46052539,-0.21618694,0.86091805,0
0.070621446,3.02632,2.8632579,-0.39827046,0.76018327,0.51332462,0
-0.83686233,0.68147182,-4.5356059,0.44850364,0.2683309,-0.85255098,0
1.2781416,3.5395377,3.2097681,-0.37760192,0.79928166,0.46751034,0
3.9288287,2.1952705,-0.47637951,0.86255389,0.11999005,0.49153155,0
1.4854169,0.03591156,4.2946725,0.86255389,0.11999005,0.49153155,0
-1.9753221,-2.189028,-3.0888534,-0.86255389,-0.11999005,-0.49153155,0
3.5999732,-2.5190182,1.3481021,0.86255389,0.11999005,0.49153155,0
-1.0747325,-1.0401332,-4.6917825,-0.86255389,-0.11999005,-0.49153155,0
-2.2034743,-3.8368959,-1.0459934,0.088210046,-0.99225748,0.087431192,0
2.5882299,3.0086744,-1.3683059,0.2511515,0.74180287,-0.62181318,0
3.7156799,-0.93673134,1.0639222,0.86255389,0.11999005,0.49153155,0
2.5979054,0.54588223,2.6567445,0.86255389,0.11999005,0.49153155,0
-3.1544549,-1.2258573,-1.605345,-0.86255389,-0.11999005,-0.49153155,0
-0.99058986,-2.7267897,2.237731,-0.27006799,-0.71232247,0.64781171,0
-3.744077,-3.2344913,0.15128857,-0.86255389,-0.11999005,-0.49153155,0
0.29229331,-0.6464963,4.2101707,-0.45903534,-0.2230182,0.85997069,0
2.5864956,-3.6711936,1.4371977,0.093872309,-0.99255788,0.077568173,0
-0.22169375,3.7271762,0.045435667,-0.12877488,0.99154359,-0.016072571,0
3.3089199,3.6439843,-0.40049544,0.14574808,0.87137043,-0.46847755,0
2.8705447,1.2505167,1.5297279,0.86255389,0.11999005,0.49153155,0
4.8449445,-0.65745115,-1.3758125,0.50257671,-0.315431,-0.80493498,0
-3.2748063,2.6321065,-2.2204213,-0.86255389,-0.11999005,-0.49153155,0
-3.42256,3.0052977,-1.7821512,-0.86255389,-0.11999005,-0.49153155,0
1.4552937,2.353405,3.995122,0.86255389,0.11999005,0.49153155,0
-4.6952305,-0.27570987,1.5276008,-0.5023182,0.086648345,0.86033052,0
-1.6488312,-3.8618612,-0.39428556,0.035229087,-0.98335785,0.17823118,0
-3.9967942,-2.9191606,0.64731216,-0.86255389,-0.11999005,-0.49153155,0
1.8422761,3.9400084,0.69809413,-0.080578566,0.99165106,-0.10067511,0
2.9788861,3.7989626,1.0692031,0.86255389,0.11999005,0.49153155,0
1.8037665,3.1985817,3.3128338,0.86255389,0.11999005,0.49153155,0
0.3197926,-2.2122607,-3.1843874,0.46050102,-0.58864957,-0.6644026,0
1.3906155,-0.92633724,4.7771921,0.86255389,0.11999005,0.49153155,0
2.7469823,1.148273,1.7436109,0.86255389,0.11999005,0.49153155,0
2.9065034,-0.31125331,2.225858,0.86255389,0.11999005,0.49153155,0
-0.48686075,-3.2174118,2.1593485,-0.17339218,-0.84254634,0.50995183,0
-2.5191782,3.303694,-1.8901532,-0.065802991,0.98982537,-0.12615806,0
1.4616666,-1.379149,4.6856894,-0.37283945,-0.50599623,0.77779096,0
-0.71313059,-3.051333,-3.6227186,0.4341045,-0.6745438,-0.59711313,0
-2.6626472,-2.4344673,-1.6856316,-0.86255389,-0.11999005,-0.49153155,0
4.3607302,-1.6785264,0.1998024,0.86255389,0.11999005,0.49153155,0
-3.5002303,-2.8905461,-0.62368661,-0.86255389,-0.11999005,-0.49153155,0
-2.832593,-3.9233031,-1.0425067,-0.86255389,-0.11999005,-0.49153155,0
-2.3395693,0.49362659,-3.5315087,-0.86255389,-0.11999005,-0.49153155,0
-1.9225005,3.2442682,0.56309366,-0.295553,0.90798938,0.29699135,0
3.810339,0.94637239,-1.9075794,0.46548662,0.19255447,-0.86385489,0
0.92964101,3.8352909,-0.21483588,-0.037771106,0.98403251,-0.17393509,0
0.56188822,1.4925604,-3.7085161,0.39165664,0.45668799,-0.79877484,0
3.4298506,-3.0419204,1.8458147,0.86255389,0.11999005,0.49153155,0
1.4496212,2.7428613,4.1110535,0.86255389,0.11999005,0.49153155,0
-3.6609762,-0.6650607,2.0520003,-0.48777962,-0.060911208,0.87083942,0
-3.7732973,-0.24998087,2.3307307,-0.49714553,0.020391524,0.86742759,0
-4.2608185,0.01296401,1.7909617,-0.50450605,0.13023645,0.85352939,0
-1.8994284,-1.1507633,-3.2443323,-0.86255389,-0.11999005,-0.49153155,0
-1.8522849,2.2764146,-4.0712438,-0.86255389,-0.11999005,-0.49153155,0
2.7118249,3.6450791,-0.74368876,0.17013007,0.84612578,-0.50510108,0
-3.9450588,-1.4296283,-0.25474954,-0.86255389,-0.11999005,-0.49153155,0
1.4784057,3.6056666,-1.2284973,0.12071258,0.89461726,-0.43021932,0
-1.4456067,-1.701014,-4.4135795,-0.86255389,-0.11999005,-0.49153155,0
-1.3021686,-2.1780853,-4.1101522,-0.86255389,-0.11999005,-0.49153155,0
-3.7738233,-0.38994145,-0.6153574,-0.86255389,-0.11999005,-0.49153155,0
-3.1948998,-3.6932404,-0.93741214,-0.86255389,-0.11999005,-0.49153155,0
-2.8374429,-2.3142083,2.1482592,-0.36879581,-0.51599485,0.77313578,0
0.114272,-1.4931476,-4.1892519,0.50398797,-0.28955919,-0.8137272,0
2.0255075,3.7563663,3.018538,0.86255389,0.11999005,0.49153155,0
-1.479467,-3.3534288,-3.5798059,-0.86255389,-0.11999005,-0.49153155,0
-1.7989228,-3.0194252,1.9144779,-0.22949183,-0.7730149,0.59142339,0
3.1504061,-2.2739758,1.8847433,0.86255389,0.11999005,0.49153155,0
-0.75080538,3.8335044,0.12256479,-0.167364,0.98444933,0.053376675,0
-1.1393201,-1.9103587,-4.8492432,0.49310762,-0.41697279,-0.76353037,0
3.0327964,-1.620506,2.1853774,0.86255389,0.11999005,0.49153155,0
2.4279699,3.6879587,2.2419281,0.86255389,0.11999005,0.49153155,0
-2.2201014,-1.0088147,2.7929907,-0.44197756,-0.29419231,0.84741193,0
2.5680203,-0.27070343,-2.7996786,0.50104165,-0.067367047,-0.86279732,0
-0.66962409,-3.9001842,0.13976455,0.056272984,-0.98819625,0.14248395,0
3.9091854,1.8131981,-0.54169559,0.86255389,0.11999005,0.49153155,0
2.8177419,-0.83001256,2.4948874,0.86255389,0.11999005,0.49153155,0
0.075003982,-3.2925501,-2.7997611,0.3966642,-0.76344919,-0.50970876,0
-3.756484,-1.0583279,-0.46432483,-0.86255389,-0.11999005,-0.49153155,0
-1.9544837,-4.1240335,-1.6465106,0.14700842,-0.98899686,-0.016545892,0
-0.88637984,0.2683382,3.7379553,-0.50176179,0.077890575,0.86149192,0
-2.7416971,-1.930717,-2.1531661,-0.86255389,-0.11999005,-0.49153155,0
2.5515449,1.4448268,2.0036435,0.86255389,0.11999005,0.49153155,0
4.7334948,-0.44502354,-1.1700602,0.86255389,0.11999005,0.49153155,0
-0.73339355,-3.516149,-2.9621758,0.37043703,-0.81148672,-0.45195782,0
0.2348032,1.9945281,4.0198178,-0.48436904,0.47661984,0.73363495,0
-4.1637111,-0.10346174,-0.18870068,-0.86255389,-0.11999005,-0.49153155,0
3.2462039,1.2995319,1.3628088,0.86255389,0.11999005,0.49153155,0
-2.9365416,-1.3742063,-1.8073049,-0.86255389,-0.11999005,-0.49153155,0
-3.4203079,2.3641038,1.3159175,-0.43031612,0.6849649,0.58792126,0
3.3501501,-1.9729102,1.818536,0.86255389,0.11999005,0.49153155,0
4.2725129,-2.6892307,0.46778727,0.86255389,0.11999005,0.49153155,0
4.4603305,-1.1694818,-0.13162422,0.86255389,0.11999005,0.49153155,0
0.6729188,0.58887672,-3.9320107,0.45100084,0.25801712,-0.8544153,0
3.3662667,-2.5037847,1.8399712,0.86255389,0.11999005,0.49153155,0
-4.185935,2.7907119,-0.66669989,-0.86255389,-0.11999005,-0.49153155,0
0.9333393,3.0590854,3.4591963,-0.41459852,0.72445792,0.55069876,0
-4.3416996,-2.5200391,1.0857568,-0.86255389,-0.11999005,-0.49153155,0
-1.7796873,0.053625107,3.3204145,-0.49898949,0.040973902,0.86563903,0
-4.4472589,-0.95576239,1.2491562,-0.86255389,-0.11999005,-0.49153155,0
4.1760864,-1.0383596,0.13463306,0.86255389,0.11999005,0.49153155,0
-3.7608058,2.4231968,-0.90892863,-0.86255389,-0.11999005,-0.49153155,0
3.4573827,1.9088566,0.40543795,0.86255389,0.11999005,0.49153155,0
-4.3940997,1.8669736,0.29519367,-0.86255389,-0.11999005,-0.49153155,0
-4.491787,-0.17405915,1.121295,-0.86255389,-0.11999005,-0.49153155,0
-2.1082971,2.7029638,1.5372124,-0.40734142,0.74093103,0.53394234,0
-2.811188,-1.2907565,-1.768141,-0.86255389,-0.11999005,-0.49153155,0
3.5176902,-3.1709168,1.5722203,0.86255389,0.11999005,0.49153155,0
-1.1892648,0.28475332,-4.8780928,0.47878855,0.12053487,-0.86961645,0
1.3658,3.5877721,2.5725002,-0.29153875,0.91185665,0.28900301,0
1.2813587,-2.9066339,3.31393,-0.18065804,-0.83439845,0.52071303,0
0.15910339,2.3824778,3.8426859,-0.47387114,0.53206664,0.70167756,0
1.016346,-2.1707323,-3.1873248,0.47928417,-0.50507277,-0.71776617,0
2.3250811,-0.54579598,-2.7222574,0.50595963,-0.2091663,-0.83681208,0
-2.4836259,0.88717985,-2.9922094,-0.86255389,-0.11999005,-0.49153155,0
2.6976042,-2.1353374,3.1048269,0.86255389,0.11999005,0.49153155,0
-3.4632084,-0.69948852,2.4183443,-0.48056123,-0.10967484,0.87007612,0
-3.6360137,-0.85887146,-0.48198867,-0.86255389,-0.11999005,-0.49153155,0
-2.3324063,3.4843988,-0.30230999,-0.19445741,0.97547662,0.10311121,0
-2.3349583,-4.1542406,-0.51693916,-0.006316781,-0.96884334,0.24759397,0
-1.659766,-1.8850086,-3.6325357,-0.86255389,-0.11999005,-0.49153155,0
1.6392887,2.9979653,-1.3771068,0.21152836,0.79698265,-0.56575143,0
-3.3118176,-2.0594332,-1.1943613,-0.86255389,-0.11999005,-0.49153155,0
2.5867569,-0.13736391,2.9375291,0.86255389,0.11999005,0.49153155,0
-3.2605629,-3.5682483,-0.73722726,-0.86255389,-0.11999005,-0.49153155,0
2.0890062,-1.101609,-2.8662794,0.50162554,-0.32976553,-0.79976654,0
1.9843044,-2.6377814,3.923656,-0.22387868,-0.78068519,0.58344591,0
3.0189509,-0.83294868,1.6623479,0.86255389,0.11999005,0.49153155,0
4.8523326,-0.59440279,-1.6066484,0.50550026,-0.24601069,-0.8270117,0
4.5014906,-1.9493127,-0.016376019,0.86255389,0.11999005,0.49153155,0
-4.2423964,2.491323,-0.57532167,-0.86255389,-0.11999005,-0.49153155,0
-3.1027832,-2.1461277,1.8992157,-0.34756088,-0.56548095,0.74795252,0
0.93345618,-3.4813702,1.7813258,-0.049667001,-0.94670129,0.31826109,0
-3.8109274,0.32817078,-0.814399,-0.86255389,-0.11999005,-0.49153155,0
4.4314046,-2.1192455,-0.17192316,0.86255389,0.11999005,0.49153155,0
2.7121139,1.5494113,2.1941774,0.86255389,0.11999005,0.49153155,0
2.5904846,2.1884527,1.6699498,0.86255389,0.11999005,0.49153155,0
-2.7636786,-3.3483534,-1.7142737,-0.86255389,-0.11999005,-0.49153155,0
-3.5788729,-1.7882913,1.8860264,-0.40746832,-0.41118252,0.81541312,0
1.503113,0.83584905,4.0416894,0.86255389,0.11999005,0.49153155,0
3.2717483,-1.9328438,-1.7474518,0.46230096,-0.58169687,-0.66925848,0
-0.060516834,-2.0487216,3.4463928,-0.34868634,-0.56297725,0.7493161,0
-2.9100318,0.85273957,-2.1204493,-0.86255389,-0.11999005,-0.49153155,0
-2.0964458,0.34259892,-3.6658456,-0.86255389,-0.11999005,-0.49153155,0
3.2758756,-2.0776768,-1.7033424,0.44773209,-0.63349384,-0.63104832,0
1.1214435,-0.51073086,-3.5328603,0.50236648,-0.08743766,-0.8602224,0
1.6231632,-0.68935537,4.3670344,0.86255389,0.11999005,0.49153155,0
-2.0634685,-2.8012433,-2.4226766,-0.86255389,-0.11999005,-0.49153155,0
0.025649071,-0.2325592,4.2922215,-0.46916604,-0.17403695,0.86579132,0
-1.6904716,-3.3431492,-3.1979423,-0.86255389,-0.11999005,-0.49153155,0
-2.9184229,0.13298723,2.8044529,-0.50306821,0.099572897,0.8584916,0
-3.3075354,-3.4406216,-0.81597561,-0.86255389,-0.11999005,-0.49153155,0
-3.078645,1.4669347,-2.4040165,-0.86255389,-0.11999005,-0.49153155,0
0.84161222,3.3436632,3.1204414,-0.37809497,0.79841793,0.46858644,0
-2.5419354,0.23106527,-3.0055342,-0.86255389,-0.11999005,-0.49153155,0
2.2443247,2.0233455,-2.2333589,0.36964047,0.51392269,-0.77411205,0
-0.37411773,-1.9496913,-4.1683078,0.48869121,-0.44924924,-0.7479012,0
1.8663557,-0.081316113,-3.2661719,0.49107134,0.035442173,-0.87039828,0
-0.77027798,-3.1997201,1.9017458,-0.17049372,-0.84572911,0.50564241,0
-2.5544105,-1.5913746,-2.2854159,-0.86255389,-0.11999005,-0.49153155,0
-1.0633121,-4.0098519,-1.0573533,0.1826582,-0.97980529,-0.081349015,0
2.9842672,2.0186737,-1.758155,0.37169313,0.50885093,-0.77647609,0
2.8059988,-0.33738661,2.5418334,0.86255389,0.11999005,0.49153155,0
4.2224903,2.4059734,-1.1987815,0.36381507,0.52804583,-0.7673372,0
-2.7871842,-2.0206652,-1.3672341,-0.86255389,-0.11999005,-0.49153155,0
2.570596,2.8682921,1.8618362,0.86255389,0.11999005,0.49153155,0
2.5720706,1.7089527,2.0895989,0.86255389,0.11999005,0.49153155,0
-0.51102495,3.4428754,-1.7268195,0.078359485,0.92807192,-0.36406362,0
-1.8440555,2.721457,2.0549049,-0.41318166,0.727754,0.54740763,0
-3.3134193,-2.8267043,1.0852762,-0.2975449,-0.66544044,0.68458462,0
-0.60858274,-3.5512753,1.1125813,-0.083324075,-0.92452204,0.37190923,0
0.6710434,3.5743439,-1.4018308,0.091657102,0.9183439,-0.38502401,0
-3.8270774,3.0589674,-1.2674835,-0.19499606,0.97526312,0.10410857,0
-4.0754642,-1.3815788,0.18006444,-0.86255389,-0.11999005,-0.49153155,0
-3.2766962,1.1267756,2.3983598,-0.50353509,0.29867494,0.81070709,0
1.8623827,2.9446831,2.9029484,0.86255389,0.11999005,0.49153155,0
1.0861809,1.4451433,-3.0947356,0.40611893,0.41523126,-0.81403357,0
-4.0893469,1.0693865,0.107481,-0.86255389,-0.11999005,-0.49153155,0
-4.6669073,-0.10010338,1.0013027,-0.86255389,-0.11999005,-0.49153155,0
-2.8740389,-3.0353041,-1.7019247,-0.86255389,-0.11999005,-0.49153155,0
2.2886264,0.9027909,-2.9283588,0.47054181,0.1668686,-0.86645567,0
-0.30655122,3.8881605,0.39686918,-0.16384023,0.98536813,0.046968699,0
1.615664,-0.85557985,4.1198587,0.86255389,0.11999005,0.49153155,0
4.3733206,1.0311439,-0.85883641,0.86255389,0.11999005,0.49153155,0
1.4408355,3.9074132,2.142087,-0.27795422,0.92412591,0.26216942,0
0.28209615,2.8104029,-2.6770184,0.24307007,0.75375503,-0.61054921,0
0.87862468,-2.4082735,-3.057044,0.45906702,-0.59406424,-0.6605643,0
-1.9276417,-1.4593189,2.8950644,-0.43088543,-0.33501989,0.83791363,0
-3.5862691,-0.25094104,-0.9182663,-0.86255389,-0.11999005,-0.49153155,0
2.8315706,1.4930127,2.0640135,0.86255389,0.11999005,0.49153155,0
-3.769062,-0.18795037,-0.68039966,-0.86255389,-0.11999005,-0.49153155,0
3.09167,-0.45326638,2.1512532,0.86255389,0.11999005,0.49153155,0
4.3289366,-0.59394383,-0.14901304,0.86255389,0.11999005,0.49153155,0
2.9566576,-0.71514153,1.9901787,0.86255389,0.11999005,0.49153155,0
-2.4407971,2.902787,-3.1318984,0.090794384,0.91899639,-0.38366944,0
0.75463629,3.6808577,-1.219255,0.072365522,0.93222886,-0.35456002,0
-1.8620559,-0.34229445,-3.6992486,-0.86255389,-0.11999005,-0.49153155,0
-1.1387715,3.0091779,-3.1396985,0.16633368,0.8502304,-0.49944115,0
3.615715,1.0565193,0.35049999,0.86255389,0.11999005,0.49153155,0
0.14583182,-1.3495297,-3.8423185,0.50140804,-0.33280656,-0.79864252,0
1.0007621,3.9340982,1.6222525,-0.21036983,0.96857107,0.13272059,0
-1.171,-3.7466202,0.2834568,0.010788441,-0.97561359,0.21922976,0
-4.6147838,-0.12818742,0.75640154,-0.86255389,-0.11999005,-0.49153155,0
0.91618824,1.4264539,-3.3560023,0.4241066,0.35832492,-0.83170718,0
-3.5314822,1.4588094,-1.0766132,-0.86255389,-0.11999005,-0.49153155,0
-4.3988533,0.13686824,0.28029585,-0.86255389,-0.11999005,-0.49153155,0
-3.0067961,0.53594422,-2.3737097,-0.86255389,-0.11999005,-0.49153155,0
4.1326585,0.18924713,-0.52375436,0.86255389,0.11999005,0.49153155,0
2.1621811,-0.60070688,-2.8027422,0.50518292,-0.15023538,-0.84983516,0
4.3062892,1.8277088,-1.8126693,0.42187256,0.36576352,-0.82960272,0
-1.7734663,1.3881693,-4.0253386,-0.86255389,-0.11999005,-0.49153155,0
2.9905443,-1.6758461,2.6122139,0.86255389,0.11999005,0.49153155,0
4.546001,-0.17258024,-1.0109539,0.86255389,0.11999005,0.49153155,0
4.6333408,1.0546499,-1.1952026,0.86255389,0.11999005,0.49153155,0
-3.0032134,1.9751937,-2.3385625,-0.86255389,-0.11999005,-0.49153155,0
2.3629875,4.0937567,0.49418545,-0.014314055,0.97687101,-0.21335006,0
-1.9088484,-2.7622142,-2.7626939,-0.86255389,-0.11999005,-0.49153155,0
-1.9734454,-2.1572895,2.4741211,-0.37623799,-0.49743775,0.78166544,0
-1.7996604,-3.7386475,-0.22472906,-0.012718499,-0.96602398,0.25813955,0
1.8310238,-3.2134964,-0.40537238,0.26419973,-0.93532521,-0.23529869,0
-2.5716231,3.2608755,0.54195881,-0.31799683,0.88418674,0.34218705,0
-3.0603135,-2.1445541,1.8297724,-0.37199682,-0.50809646,0.77682465,0
-3.9002388,1.1474488,-0.61885691,-0.86255389,-0.11999005,-0.49153155,0
-2.8317649,0.71396846,2.4424429,-0.50595129,0.19731703,0.83969009,0
2.056953,3.7312942,-0.45892894,0.067526579,0.93548197,-0.34686273,0
-4.612627,-1.0532656,1.5807045,-0.46991253,-0.17016494,0.86615604,0
-3.5799315,-2.9465523,-0.0090709329,-0.86255389,-0.11999005,-0.49153155,0
4.5983748,-1.7143245,-0.50102043,0.86255389,0.11999005,0.49153155,0
3.5193942,-2.5760159,-0.77714396,0.41023427,-0.73448491,-0.54059243,0
-1.0258474,0.84603024,-4.7729239,0.43344384,0.32591742,-0.84018123,0
2.2172542,1.7572818,2.8287418,0.86255389,0.11999005,0.49153155,0
1.8971019,2.5857921,2.8031642,0.86255389,0.11999005,0.49153155,0
0.21012211,2.6209419,-3.1741371,0.2792176,0.69726837,-0.66019285,0
0.24591208,3.689944,-1.0509658,0.027424276,0.95895743,-0.28222072,0
1.1588445,0.76103258,4.8151636,0.86255389,0.11999005,0.49153155,0
3.7476621,-2.4510775,-0.28960037,0.37764165,-0.7992121,-0.46759713,0
2.3724799,-0.56609058,3.0521317,0.86255389,0.11999005,0.49153155,0
2.6326206,1.2776582,2.3352246,0.86255389,0.11999005,0.49153155,0
-0.44505715,-2.9984536,1.987747,-0.16659331,-0.84995186,0.4998287,0
-4.3689365,1.5633285,0.30587053,-0.86255389,-0.11999005,-0.49153155,0
1.211197,-0.83772349,-3.663547,0.50580454,-0.22897679,-0.83170402,0
-2.3516362,2.7883489,1.1200037,-0.38331571,0.78907669,0.48002827,0
-3.1787865,-1.8801219,-1.3205016,-0.86255389,-0.11999005,-0.49153155,0
3.1646161,1.8877881,1.4202025,0.86255389,0.11999005,0.49153155,0
3.1533668,1.5605891,0.87298727,0.86255389,0.11999005,0.49153155,0
-2.1402919,-3.0794032,-2.9796629,-0.86255389,-0.11999005,-0.49153155,0
-3.5483475,-2.9461277,-0.11655277,-0.86255389,-0.11999005,-0.49153155,0
2.5864172,-0.26013827,2.3412826,0.86255389,0.11999005,0.49153155,0
-4.6876369,-1.2252731,1.8086121,-0.46242777,-0.20729253,0.86208498,0
1.2504005,-1.3184435,-3.4012721,0.5002836,-0.3474375,-0.79309762,0
-1.8767989,3.0154855,-2.6063263,0.093577087,0.91688132,-0.38803616,0
2.9405322,1.6394355,1.494427,0.86255389,0.11999005,0.49153155,0
3.9309912,1.5685197,-0.2246058,0.86255389,0.11999005,0.49153155,0
3.0985961,-2.1045384,2.2122397,0.86255389,0.11999005,0.49153155,0
1.636297,2.6285298,3.8319616,0.86255389,0.11999005,0.49153155,0
3.5887742,1.6454384,0.77193421,0.86255389,0.11999005,0.49153155,0
-4.8147783,1.2478667,1.1548724,-0.86255389,-0.11999005,-0.49153155,0
-1.9212945,3.4040766,-1.9745215,0.022955418,0.96119195,-0.2749241,0
-1.0849583,-3.9454694,-0.29205239,0.095570505,-0.99262315,0.074604034,0
2.9571168,2.9740591,1.6043969,0.86255389,0.11999005,0.49153155,0
-0.7442944,-4.0587196,-1.4289813,0.20929474,-0.96907723,-0.13071036,0
-0.30738211,2.0091641,-3.5055389,0.317375,0.628277,-0.7103107,0
2.2772965,-2.6895351,-1.3852873,0.40670362,-0.74233156,-0.53248131,0
-2.8926685,0.32060623,-1.9740022,-0.86255389,-0.11999005,-0.49153155,0
3.475359,-3.1414881,0.52869844,0.26125494,-0.93757015,-0.22958297,0
-3.1376052,1.8471591,-1.9659145,-0.86255389,-0.11999005,-0.49153155,0
1.802223,4.1736622,0.65599918,-0.051039696,0.9871521,-0.15141255,0
-0.47753668,-2.1905084,-3.9525366,0.48118243,-0.49485105,-0.72359252,0
-1.6906198,-1.6639953,-3.3542838,-0.86255389,-0.11999005,-0.49153155,0
0.8736515,-3.4748521,-1.3397882,0.28344446,-0.91931629,-0.27297789,0
-4.1954803,1.1042798,-0.047158718,-0.86255389,-0.11999005,-0.49153155,0
3.2652633,-3.3871419,1.3942115,0.1738745,-0.98260361,-0.065251946,0
-3.8006911,-0.56490088,-0.55329621,-0.86255389,-0.11999005,-0.49153155,0
3.5704429,-2.6367218,1.7716057,0.86255389,0.11999005,0.49153155,0
2.6048789,-1.6287904,3.2983947,0.86255389,0.11999005,0.49153155,0
-2.8811564,3.1550221,-0.22701216,-0.24216342,0.95088017,0.19283152,0
4.0483394,-0.45225167,-0.019564629,0.86255389,0.11999005,0.49153155,0
2.9512441,-3.3193936,0.43695116,0.25653666,-0.94105792,-0.22045183,0
-2.2750978,1.3390129,-3.3676376,-0.86255389,-0.11999005,-0.49153155,0
3.0156229,-0.092482805,2.1687899,0.86255389,0.11999005,0.49153155,0
1.0771414,3.5478058,2.996917,-0.33577415,0.86246955,0.37868464,0
3.2897763,3.1526611,0.48439074,0.86255389,0.11999005,0.49153155,0
2.8231287,1.7807441,2.1282566,0.86255389,0.11999005,0.49153155,0
4.2875128,-0.79735255,0.022310734,0.86255389,0.11999005,0.49153155,0
-2.3961353,-2.6545053,-2.4676471,-0.86255389,-0.11999005,-0.49153155,0
-3.5140932,-1.819087,2.0767775,-0.42214704,-0.36485603,0.82986271,0
2.2841492,-3.397403,2.0756614,-0.011306524,-0.96665919,0.25581694,0
3.6577353,-2.4012532,1.4840784,0.86255389,0.11999005,0.49153155,0
2.0171347,3.7177179,0.084540427,0.007598877,0.9682911,-0.24970901,0
-3.7591801,2.9913793,-1.1205451,-0.86255389,-0.11999005,-0.49153155,0
-4.0583358,-2.5051804,0.97608113,-0.33289289,-0.59700608,0.72990841,0
2.017334,-3.4647727,0.32191038,0.21019745,-0.96865261,-0.13239825,0
-1.8752801,0.071667194,-4.166225,-0.86255389,-0.11999005,-0.49153155,0
-1.9102017,-2.5662887,-3.5181427,-0.86255389,-0.11999005,-0.49153155,0
3.6767659,2.2337008,0.27101541,0.86255389,0.11999005,0.49153155,0
-2.0682864,1.18464,3.1406221,-0.50343108,0.30064082,0.81004471,0
-2.7280395,-0.24648309,2.8329809,-0.48596507,-0.073968321,0.87084258,0
-2.5362172,3.5994291,-1.4337091,-0.088672757,0.9922868,-0.086626351,0
-0.16155148,3.4576955,-1.9932072,0.13410336,0.88251299,-0.45076302,0
1.861218,-0.25443363,4.0329528,0.86255389,0.11999005,0.49153155,0
-3.449482,2.8705306,-1.4928365,-0.86255389,-0.11999005,-0.49153155,0
-0.13930577,-2.5812895,-3.6773036,0.46628147,-0.56565362,-0.68015993,0
1.9212737,-0.16499615,3.8940117,0.86255389,0.11999005,0.49153155,0
-2.0919487,-2.701803,-2.676084,-0.86255389,-0.11999005,-0.49153155,0
-0.57429022,1.9995027,3.6197169,-0.4868418,0.46138525,0.74169338,0
1.3963488,-1.6906279,-2.927278,0.49011359,-0.43941218,-0.75279856,0
-2.7745888,2.3355737,-2.7545264,-0.86255389,-0.11999005,-0.49153155,0
2.5634794,-0.45321888,-2.6461308,0.50499672,-0.14408094,-0.85101068,0
-0.6828354,2.199996,3.3143649,-0.46597725,0.56691468,0.67931831,0
2.2495832,1.7637239,3.1127925,0.86255389,0.11999005,0.49153155,0
-2.4346187,-1.5126445,-2.2121212,-0.86255389,-0.11999005,-0.49153155,0
-2.2591929,-4.116107,-1.8624843,-0.86255389,-0.11999005,-0.49153155,0
2.6827171,2.0791674,1.874112,0.86255389,0.11999005,0.49153155,0
4.4951191,-1.2549169,-0.41590786,0.86255389,0.11999005,0.49153155,0
4.2477832,-2.3417621,0.25490379,0.86255389,0.11999005,0.49153155,0
-4.5756288,0.71143413,0.85097599,-0.86255389,-0.11999005,-0.49153155,0
-1.5811197,1.0358813,3.322089,-0.5030359,0.30775699,0.80761403,0
-1.5550953,2.8110838,1.7416911,-0.38324851,0.78919935,0.47988045,0
-1.2316275,3.4524536,-2.009407,0.049015343,0.94708735,-0.31721163,0
-2.8159769,3.057857,-2.62427,0.038017511,0.95335662,-0.29944268,0
1.9416894,1.7313066,-2.7184696,0.41011834,0.40313461,-0.81809878,0
1.3898315,-0.069456577,4.5759993,0.86255389,0.11999005,0.49153155,0
-2.6271141,3.3877444,-2.6259058,0.024825513,0.96026611,-0.27797979,0
-1.307683,0.91429198,3.5908608,-0.50509155,0.26127142,0.82256919,0
4.3685508,-0.83450937,-0.6158371,0.86255389,0.11999005,0.49153155,0
1.3403769,-3.3906224,1.1903476,0.066490889,-0.98992926,0.12497622,0
1.3120853,-1.8473082,-3.1215842,0.48039392,-0.49915037,-0.72115946,0
-2.4089842,-1.5004902,-2.6745903,-0.86255389,-0.11999005,-0.49153155,0
4.7399054,-0.55264449,-1.1189547,0.86255389,0.11999005,0.49153155,0
3.6883874,1.4225454,-2.0581257,0.44760594,0.27197975,-0.85186625,0
-1.2425507,-3.838748,-0.7557354,0.11052293,-0.99269533,0.048382699,0
-0.030959845,3.5383649,-1.1974123,0.061076105,0.93967676,-0.33656725,0
-3.2532454,0.2591207,2.3851862,-0.50335014,0.10485375,0.85769719,0
3.8841786,-1.3566499,0.95016098,0.86255389,0.11999005,0.49153155,0
0.55055618,-3.7309101,-0.055081129,0.14927864,-0.98857993,-0.020631552,0
2.4423213,-3.1507952,3.1150258,-0.074401677,-0.93083245,0.35779226,0
-0.31284165,-1.4771273,3.8186469,-0.40248001,-0.42598855,0.81027389,0
-1.1585269,-1.2878218,3.5602059,-0.43342578,-0.32598233,0.84016538,0
1.3445866,2.4079819,4.0593786,0.86255389,0.11999005,0.49153155,0
3.9157219,-2.3144336,0.51142836,0.86255389,0.11999005,0.49153155,0
-4.1923437,-0.051299334,-0.052997828,-0.86255389,-0.11999005,-0.49153155,0
1.1143675,-2.4698243,3.6154995,-0.25469512,-0.73644322,0.62672311,0
1.7329419,-0.32726002,4.2729368,0.86255389,0.11999005,0.49153155,0
3.2425854,-2.4001386,-1.5364752,0.43520129,-0.67145312,-0.59979224,0
1.2377491,-2.868484,2.9742532,-0.15136689,-0.86578512,0.47697401,0
3.7543833,2.06601,0.096322894,0.86255389,0.11999005,0.49153155,0
0.97873974,-1.9918542,4.0018635,-0.34207684,-0.57750434,0.74126393,0
-2.4067273,2.1824763,-3.6556277,-0.86255389,-0.11999005,-0.49153155,0
-3.4406939,-2.3591447,1.7216579,-0.37772644,-0.49364358,0.78335112,0
-1.9459763,1.5625467,-3.9746156,-0.86255389,-0.11999005,-0.49153155,0
-3.0005643,1.150641,-1.7975278,-0.86255389,-0.11999005,-0.49153155,0
2.7692769,1.7051668,2.1321087,0.86255389,0.11999005,0.49153155,0
-1.1981609,-2.1642079,-4.1002145,-0.86255389,-0.11999005,-0.49153155,0
2.7218227,3.4147232,1.3605258,0.86255389,0.11999005,0.49153155,0
0.3981626,1.767325,-3.3290241,0.36931568,0.5147205,-0.77373695,0
-2.2877846,-3.2315826,1.0768749,-0.2013759,-0.80979985,0.55106449,0
-1.7191772,1.8756801,2.9220557,-0.48709056,0.45979246,0.74251854,0
2.3738792,1.9048049,2.6963983,0.86255389,0.11999005,0.49153155,0
-4.9295535,1.3089111,0.82378578,-0.86255389,-0.11999005,-0.49153155,0
1.7434839,-2.5869522,-1.8923364,0.43117711,-0.6826303,-0.59000194,0
-4.1267896,0.01307869,0.21410346,-0.86255389,-0.11999005,-0.49153155,0
-4.4254251,2.2594271,0.81387377,-0.4323785,0.67933977,0.59291351,0
-0.94125134,2.6152461,2.4960966,-0.44089738,0.65483069,0.61384583,0
1.79176,-3.3953106,0.11245704,0.20722848,-0.97003365,-0.12685102,0
-3.3908038,-1.3717868,-1.0768013,-0.86255389,-0.11999005,-0.49153155,0
0.68181396,3.6738429,1.8276534,-0.28688312,0.91620171,0.2797724,0
2.8550031,-1.3004909,2.5705018,0.86255389,0.11999005,0.49153155,0
-0.98216581,-2.8453465,-3.9652929,0.44959855,-0.62737328,-0.63581753,0
-3.9493947,-2.2672737,0.10469854,-0.86255389,-0.11999005,-0.49153155,0
-3.778039,-2.4882877,-0.00054836273,-0.86255389,-0.11999005,-0.49153155,0
-3.3083594,-0.10040998,-1.3822846,-0.86255389,-0.11999005,-0.49153155,0
-0.04792881,-1.5266149,3.7906108,-0.36808735,-0.51772672,0.77231526,0
-1.537406,-2.204361,2.6662326,-0.3423301,-0.57695568,0.74157435,0
-1.0700817,-2.9639125,1.7394103,-0.21450126,-0.79313123,0.57002819,0
1.4983685,2.7803483,-2.0740082,0.26105553,0.72663718,-0.63549072,0
-3.3941457,-3.2633874,0.74326456,-0.21912044,-0.78705752,0.57665139,0
-3.9625914,1.5705132,-0.28259706,-0.86255389,-0.11999005,-0.49153155,0
-3.6500814,3.0909898,-1.4278059,-0.86255389,-0.11999005,-0.49153155,0
-2.214344,-0.089223862,-3.5745983,-0.86255389,-0.11999005,-0.49153155,0
2.5781379,-2.430912,-1.2034039,0.40072656,-0.75510848,-0.51887357,0
1.7047651,0.86462617,3.7819715,0.86255389,0.11999005,0.49153155,0
-2.400619,-0.67871761,-2.5630505,-0.86255389,-0.11999005,-0.49153155,0
2.7649851,3.0372629,1.4216328,0.86255389,0.11999005,0.49153155,0
1.5081553,-1.9447334,4.1591935,-0.3005628,-0.65997469,0.68854606,0
2.4159768,-0.61188889,3.0345643,0.86255389,0.11999005,0.49153155,0
2.7144091,-1.5388528,-2.5225592,0.48517358,-0.47177696,-0.73622906,0
-3.729315,-3.1625564,0.33588326,-0.86255389,-0.11999005,-0.49153155,0
2.5787809,1.5018504,2.2247317,0.86255389,0.11999005,0.49153155,0
-1.1858172,3.6472988,-0.63051319,-0.090523243,0.99239564,-0.083405733,0
-3.1987762,-2.7415888,-0.66392791,-0.86255389,-0.11999005,-0.49153155,0
3.2494907,-2.0710976,1.7041076,0.86255389,0.11999005,0.49153155,0
4.039185,2.5759623,-1.259557,0.34065515,0.58057445,-0.73951852,0
-3.0125854,1.7557495,2.1933646,-0.47729504,0.5153386,0.71176946,0
-1.5034429,-3.6938672,0.039820313,-0.025693476,-0.95983189,0.2793968,0
-3.0172505,-1.7349517,1.9911478,-0.40801001,-0.40954792,0.8159647,0
2.6345506,-1.9490323,3.0634563,0.86255389,0.11999005,0.49153155,0
0.59954846,3.7436275,1.8190963,-0.26683748,0.93326926,0.24042928,0
-3.1701283,0.7892338,2.5104795,-0.50537133,0.25137639,0.82547563,0
-0.47593832,-2.090034,3.3980579,-0.33254188,-0.5977363,0.72947055,0
-2.8595054,2.642755,-2.4956665,-0.86255389,-0.11999005,-0.49153155,0
-2.3266444,3.4194443,0.29964924,-0.26998886,0.93075669,0.24657279,0
-0.99140775,0.27986383,3.7394798,-0.50249058,0.08949402,0.85993844,0
3.2390847,3.7931719,0.75783664,0.86255389,0.11999005,0.49153155,0
-0.47081041,-2.833586,2.5676785,-0.2365346,-0.76315147,0.60137451,0
2.5458536,3.1478009,-1.0548462,0.19859028,0.81322747,-0.54701298,0
-3.9826293,0.24267483,0.19977045,-0.86255389,-0.11999005,-0.49153155,0
0.78027844,2.2048225,-3.0897727,0.35088098,0.55805844,-0.75196642,0
4.289248,-2.1140227,0.075160503,0.86255389,0.11999005,0.49153155,0
0.90873599,1.3230315,-3.5782604,0.41811669,0.37801772,-0.82600319,0
3.8053124,3.1340733,-0.47781599,0.86255389,0.11999005,0.49153155,0
3.183567,2.2915945,0.94714236,0.86255389,0.11999005,0.49153155,0
1.9838555,2.5920386,-2.024241,0.31015366,0.64215755,-0.7010268,0
-4.456398,0.30924749,0.55630159,-0.86255389,-0.11999005,-0.49153155,0
-2.6727514,-4.0034676,-0.49159205,-0.034866452,-0.95506746,0.29433072,0
2.2909203,0.58692551,3.3199761,0.86255389,0.11999005,0.49153155,0
-1.9783576,3.696692,-1.4000001,-0.069425106,0.99035197,-0.11993045,0
1.793208,-0.87535077,-3.3728583,0.50579321,-0.17914511,-0.84384871,0
-3.622808,-1.7051213,-0.02249825,-0.86255389,-0.11999005,-0.49153155,0
-1.8639287,-2.9600711,-2.9684916,-0.86255389,-0.11999005,-0.49153155,0
-1.6107841,-1.9980705,-3.8678126,-0.86255389,-0.11999005,-0.49153155,0
-0.80761886,-3.9821258,-0.10743237,0.096149206,-0.9926427,0.073593438,0
3.9382255,2.650835,-0.17620087,0.86255389,0.11999005,0.49153155,0
-2.6069953,-2.4814231,-1.8893039,-0.86255389,-0.11999005,-0.49153155,0
1.8651395,-1.9656744,-2.424839,0.4675124,-0.56049138,-0.68358028,0
2.5959563,-1.6560086,-2.208168,0.48756647,-0.45671201,-0.7441057,0
2.1047535,2.8747554,2.4114492,0.86255389,0.11999005,0.49153155,0
3.9023342,-2.41114,-0.75974178,0.42426619,-0.70084041,-0.57342911,0
2.7144086,0.0030765533,2.7295508,0.86255389,0.11999005,0.49153155,0
-4.0479236,-2.3993812,1.3162262,-0.36132616,-0.53396171,0.76441377,0
-2.553735,1.399838,-2.6212676,-0.86255389,-0.11999005,-0.49153155,0
-3.6263134,-3.1324914,0.15914416,-0.86255389,-0.11999005,-0.49153155,0
4.0546217,-2.850348,0.81322813,0.27658463,-0.92529511,-0.25948036,0
3.0671751,2.6683669,-1.5987397,0.30467194,0.65242511,-0.693914,0
2.90801,3.866724,1.4255919,0.86255389,0.11999005,0.49153155,0
-4.6586595,1.5684578,0.7517395,-0.86255389,-0.11999005,-0.49153155,0
-0.12079167,-3.5263169,1.421257,-0.074979007,-0.93043369,0.35870802,0
-1.7332016,-1.776752,-3.4860227,-0.86255389,-0.11999005,-0.49153155,0
-2.251354,-2.5386508,-2.9429846,-0.86255389,-0.11999005,-0.49153155,0
2.1229532,3.2533956,-1.0072637,0.16339386,0.85336441,-0.49504718,0
-1.1648512,3.0733218,-2.8930984,0.18598974,0.82826322,-0.52857161,0
-1.8400919,2.0243292,2.3328266,-0.4669261,0.56296277,0.68194807,0
3.2893913,-3.3163834,2.2185066,0.055810571,-0.98810828,0.14327395,0
4.4187703,-1.6330106,0.10882807,0.86255389,0.11999005,0.49153155,0
1.9398689,3.0673871,3.2060633,0.86255389,0.11999005,0.49153155,0
0.82900989,3.259366,3.0530276,-0.37426019,0.80505359,0.46023715,0
-3.8098583,0.57728928,1.81317,-0.50397587,0.2898156,0.81364328,0
4.4835711,0.58039761,-0.52994251,0.86255389,0.11999005,0.49153155,0
-2.4307973,3.2882633,-2.7703474,0.037042558,0.95388997,-0.29786211,0
2.2902405,3.5431757,2.6341043,0.86255389,0.11999005,0.49153155,0
-4.5925393,0.66891229,1.476737,-0.50559479,0.24157543,0.82826048,0
