-0.039196014,3.4900556,3.6620016,-0.084685057,0.73160005,0.67645359,0
-0.59552062,1.4156628,5.7828298,-0.084685057,0.73160005,0.67645359,0
0.15601039,-1.1422055,4.1606627,0.090308249,-0.67046273,0.73642653,0
-3.7575257,4.5713205,1.0955212,-0.79579425,0.35888246,-0.48776507,0
3.5430312,3.5298452,2.8883264,0.99302453,0.11786443,-0.0031565428,0
-0.3854976,2.9575992,4.2471991,-0.084685057,0.73160005,0.67645359,0
0.89424992,1.5701779,-3.918426,0.19260615,0.67810732,-0.70927644,0
3.6179018,2.7184834,1.6651647,0.98559797,0.16123381,-0.050991297,0
-3.6521988,-2.8747444,-3.9472022,-0.97831225,0.067745835,-0.19574338,0
-2.5856292,5.7905769,0.88882995,-0.084685057,0.73160005,0.67645359,0
0.90001386,-1.6587281,-5.4264817,0.084685057,-0.73160005,-0.67645359,0
-2.9345007,0.71833754,4.9216604,-0.63777131,-0.5614028,0.5273276,0
-0.5229193,-2.1383524,-4.8610716,0.084685057,-0.73160005,-0.67645359,0
2.6030049,-3.6735616,-3.3265808,0.084685057,-0.73160005,-0.67645359,0
1.7723608,-5.905211,-0.58190286,0.084685057,-0.73160005,-0.67645359,0
2.7033126,2.1747308,5.1082168,-0.084685057,0.73160005,0.67645359,0
-2.7067881,1.724679,5.2525201,-0.084685057,0.73160005,0.67645359,0
4.023448,1.1736957,0.37208176,0.99126148,0.13076696,-0.0173316,0
3.132041,-0.05191493,3.2998402,0.77529937,-0.3780632,0.50594366,0
-1.4200106,-5.777205,-1.534611,0.084685057,-0.73160005,-0.67645359,0
-1.7936207,4.2965937,2.4350324,-0.084685057,0.73160005,0.67645359,0
-1.6207712,2.3402004,4.5538111,-0.084685057,0.73160005,0.67645359,0
1.7594163,-5.2952437,-1.5175128,0.084685057,-0.73160005,-0.67645359,0
3.7607248,-2.7603757,0.03845191,0.87501431,-0.27014494,0.40171087,0
-1.3424629,0.71343708,-4.15623,-0.42041969,0.58926582,-0.68993694,0
-0.946033,-3.1467171,2.3293633,-0.20377368,-0.67725992,0.70696187,0
1.5679365,1.9277663,5.6334639,-0.084685057,0.73160005,0.67645359,0
1.1554446,-2.924058,-4.1514063,0.084685057,-0.73160005,-0.67645359,0
2.5630708,3.3129215,4.0840034,-0.084685057,0.73160005,0.67645359,0
-2.1406596,2.7371154,4.449327,-0.084685057,0.73160005,0.67645359,0
-1.4460063,-5.0763083,0.096609354,-0.4156872,-0.64293182,0.64330584,0
-0.21798873,-0.5468421,4.9845467,0.055091441,-0.67441595,0.73629338,0
3.9631269,-1.3198581,-2.3489754,0.9668377,0.22449701,-0.12176049,0
-0.94767797,3.3436818,3.3754225,-0.084685057,0.73160005,0.67645359,0
2.9539323,-5.0516624,-1.5164509,0.084685057,-0.73160005,-0.67645359,0
-1.5286705,5.923408,0.85674477,-0.084685057,0.73160005,0.67645359,0
-1.9460082,-3.8229799,1.2415671,-0.48614186,-0.62294358,0.61286783,0
-0.30055809,-5.2955475,-1.9316177,0.084685057,-0.73160005,-0.67645359,0
3.2996767,-2.2888646,-4.4373264,0.084685057,-0.73160005,-0.67645359,0
-3.9544899,-0.69006568,-1.4649127,-0.98802567,0.026217282,-0.15204537,0
-3.1932387,-4.6633034,-2.9098666,0.084685057,-0.73160005,-0.67645359,0
-3.8097367,1.570282,3.8980131,-0.88715404,-0.36444163,0.2830894,0
0.41555786,1.5384927,-3.7442074,0.10511845,0.68166351,-0.72407514,0
-2.2299781,0.79831743,-3.8658261,-0.58842063,0.51115149,-0.62648648,0
3.2638252,3.6769266,0.46551991,0.86219019,0.3941026,-0.31829369,0
-0.38369989,-5.454453,0.54604959,-0.1239295,-0.68135434,0.72138584,0
0.54413795,4.1809945,3.1984177,-0.084685057,0.73160005,0.67645359,0
1.844689,-2.6357253,2.4101975,0.44395736,-0.5800761,0.68294477,0
1.68032,2.5436692,4.6776447,-0.084685057,0.73160005,0.67645359,0
-1.6577828,0.43867874,-4.4815054,-0.42299801,0.58828431,-0.6891982,0
-0.32237101,2.8297877,-2.8204055,-0.058240533,0.67409718,-0.73634285,0
-1.0834416,-2.5455146,-4.6166444,0.084685057,-0.73160005,-0.67645359,0
-1.779335,-3.9245708,1.1674917,-0.47027099,-0.62786895,0.62018168,0
-0.17129219,3.2638822,3.8640165,-0.084685057,0.73160005,0.67645359,0
0.098673344,-6.0954399,-0.94971037,0.084685057,-0.73160005,-0.67645359,0
3.4752936,-3.614809,-3.1112027,0.084685057,-0.73160005,-0.67645359,0
3.5399659,3.3014593,2.6041315,0.99458587,0.10309917,0.01300782,0
-2.5337183,-2.4615974,2.3085654,-0.5931201,-0.58252579,0.55576259,0
2.5926061,1.3713822,-3.2622056,0.60394889,0.5776577,-0.549142,0
-2.3149951,-3.9958861,-3.0652857,0.084685057,-0.73160005,-0.67645359,0
-0.0706563,-0.43768215,-5.7903357,-0.060916901,0.67382097,-0.73637915,0
-0.44055986,-5.4870081,-1.4892349,0.084685057,-0.73160005,-0.67645359,0
-2.8397465,5.4641352,0.63604617,-0.58249211,0.5144546,-0.62931657,0
-0.53038275,-3.2838707,-3.8392205,0.084685057,-0.73160005,-0.67645359,0
3.2915709,4.1334844,2.5253239,0.96191269,0.23711178,-0.13602024,0
-3.1896379,-1.0906875,-4.0027299,-0.85558927,0.29455602,-0.42568025,0
-4.2029185,1.7384477,2.586833,-0.97936571,-0.18613918,0.078707218,0
-1.4850621,5.7879038,0.9325645,-0.084685057,0.73160005,0.67645359,0
-1.1095476,6.2343616,0.51714247,-0.084685057,0.73160005,0.67645359,0
1.8610971,1.3426638,5.5848422,0.584997,-0.5130645,0.6281268,0
-1.3621298,4.2988935,2.7310717,-0.084685057,0.73160005,0.67645359,0
-2.8983676,-4.0537844,-3.4293351,0.084685057,-0.73160005,-0.67645359,0
-0.44909793,2.4514241,4.9486866,-0.084685057,0.73160005,0.67645359,0
-1.324419,5.6803117,1.3324444,-0.084685057,0.73160005,0.67645359,0
2.4852111,-2.3906374,1.9790946,0.65086645,-0.47342369,0.59350055,0
0.50294733,-0.53700113,-6.0663772,0.046918392,0.68106711,-0.73071611,0
1.1520241,-1.492166,-5.4207096,0.084685057,-0.73160005,-0.67645359,0
3.5425863,-3.2883124,-3.2947445,0.084685057,-0.73160005,-0.67645359,0
-3.3808827,3.0619256,-0.76966596,-0.78654116,0.36769542,-0.4961381,0
4.2582245,-1.3465936,-1.4596469,0.99410719,0.10814172,0.0074943304,0
3.0454993,-2.8214002,-3.9252102,0.084685057,-0.73160005,-0.67645359,0
0.78985524,-3.3764465,2.1299546,0.20492333,-0.65159178,0.73036593,0
-0.38934636,0.27399731,5.5509758,-0.045367241,-0.68101931,0.73085862,0
-1.555306,-1.9506531,-5.5553751,0.084685057,-0.73160005,-0.67645359,0
-0.23763371,-5.2959423,-1.7028954,0.084685057,-0.73160005,-0.67645359,0
0.59674525,-2.6328924,2.9580224,0.17091423,-0.65816474,0.73321712,0
-0.89618564,2.4970646,4.4120712,-0.084685057,0.73160005,0.67645359,0
1.2801142,4.2990046,-1.3211091,0.36354375,0.65477884,-0.66264653,0
1.0716014,5.9802647,1.0262189,-0.084685057,0.73160005,0.67645359,0
-2.7052298,-1.5547377,2.343343,-0.70473629,-0.52391142,0.47839648,0
-2.7470565,1.4775,5.1597996,-0.084685057,0.73160005,0.67645359,0
-1.1684437,1.6936245,5.2959518,-0.084685057,0.73160005,0.67645359,0
0.56757522,-2.092418,3.5133586,0.1446417,-0.66267526,0.73480624,0
1.6101444,2.1256618,5.4322577,-0.084685057,0.73160005,0.67645359,0
-3.6831975,-1.7412721,1.1613712,-0.87911701,-0.374423,0.29489064,0
3.1430798,-4.1643472,-2.7063479,0.084685057,-0.73160005,-0.67645359,0
-0.53906369,-3.7859306,-3.2965236,0.084685057,-0.73160005,-0.67645359,0
-2.4011045,-2.120173,2.3977084,-0.60953212,-0.57508588,0.54566151,0
-1.7752068,5.2279105,1.2420058,-0.084685057,0.73160005,0.67645359,0
4.0280857,-2.4417048,-4.3463616,0.084685057,-0.73160005,-0.67645359,0
3.83991,-0.36943603,-1.6781838,0.96188766,0.23717366,-0.13609034,0
-3.2071726,4.9441552,1.8425467,-0.084685057,0.73160005,0.67645359,0
3.6444654,0.91205025,-1.7832558,0.85467333,0.40232521,-0.32812762,0
3.4917946,1.6385244,-1.0715392,0.86668134,0.38904494,-0.31226146,0
-0.79321265,1.4608767,-3.9457741,-0.26692605,0.63742173,-0.72280282,0
-0.42014003,-2.8834052,-4.4847507,0.084685057,-0.73160005,-0.67645359,0
1.4101285,-3.9479661,-3.1083252,0.084685057,-0.73160005,-0.67645359,0
-1.0903592,-4.7848558,0.78032517,-0.34141779,-0.65910012,0.67009008,0
3.8357785,-0.086369395,0.46600008,0.99402851,0.015143901,0.10806376,0
3.6070812,2.999774,2.4273407,0.99474335,0.10129794,0.014975667,0
-1.9368958,-5.7111206,-1.4784238,0.084685057,-0.73160005,-0.67645359,0
0.54614943,-2.3856049,-4.7182522,0.084685057,-0.73160005,-0.67645359,0
-1.3554585,4.6740432,-1.0165961,-0.29302734,0.63058567,-0.71867704,0
4.2697482,-1.0458291,-1.1384132,0.99548393,0.091346771,0.025830746,0
3.7855685,-5.1247072,-1.4652661,0.81320184,-0.34156054,0.47121021,0
-3.9178975,-2.3795044,-1.5432425,-0.98506379,-0.16362131,0.053640246,0
-0.065705299,-3.0601907,2.4107831,-0.0062537193,-0.67926919,0.7338624,0
-2.6861918,-2.391242,-5.3442264,0.084685057,-0.73160005,-0.67645359,0
-3.4388499,0.15609454,-1.9305876,-0.92163628,0.20051154,-0.3322373,0
1.2255816,-0.89640617,-6.2861533,0.1925301,0.67811275,-0.70929188,0
-2.336453,-2.7997363,1.8268683,-0.63206488,-0.56426132,0.53113359,0
0.42364359,-6.1058969,-0.63356435,0.084685057,-0.73160005,-0.67645359,0
0.020480633,0.036269188,-5.4657989,-0.11839288,0.66669488,-0.7358675,0
3.025825,5.3369584,2.0835598,-0.084685057,0.73160005,0.67645359,0
1.692111,5.7093573,1.325361,-0.084685057,0.73160005,0.67645359,0
-3.961906,1.9985533,4.4912109,-0.85056818,-0.40669414,0.33336669,0
0.061954737,-2.083796,-5.2112551,0.084685057,-0.73160005,-0.67645359,0
-4.1390948,3.1781631,2.3944073,-0.99425495,-0.017442465,-0.10560614,0
2.7789354,-1.5083413,-5.1955309,0.084685057,-0.73160005,-0.67645359,0
-0.34997386,-1.9898338,-5.4851341,0.084685057,-0.73160005,-0.67645359,0
4.0225863,-0.7956903,-1.1482918,0.99595761,0.082553238,0.03540045,0
3.2908897,-3.2510881,0.68636215,0.76944989,-0.38331845,0.51089507,0
-0.15095472,5.2787681,1.8507118,-0.084685057,0.73160005,0.67645359,0
0.22521734,3.6870675,3.1734304,-0.084685057,0.73160005,0.67645359,0
-1.8583467,-2.0361352,-5.478323,0.084685057,-0.73160005,-0.67645359,0
3.8105073,3.1458027,2.3371713,0.98893368,0.14470825,-0.032700896,0
0.13737318,2.7782764,4.5367279,-0.084685057,0.73160005,0.67645359,0
2.2476268,-3.4790483,-3.4538403,0.084685057,-0.73160005,-0.67645359,0
0.73136711,-0.086526394,-5.7164025,0.061704278,0.68143982,-0.72926819,0
-1.3892977,3.6094532,3.3299234,-0.084685057,0.73160005,0.67645359,0
-0.03369841,2.3233547,5.1568356,-0.084685057,0.73160005,0.67645359,0
3.2646465,-4.4716034,-0.230147,0.73990476,-0.40852654,0.53445947,0
-3.8506041,1.3913713,3.3033891,-0.90723783,-0.33732945,0.25125265,0
3.3459301,1.498807,3.3080883,0.91889739,-0.20517787,0.33694124,0
0.3322382,5.4170732,-0.34541869,0.20591557,0.67708695,-0.70650667,0
-1.895505,-4.3045588,-2.778012,0.084685057,-0.73160005,-0.67645359,0
0.74726176,-0.47276378,4.817709,0.23044842,-0.64610511,0.7276274,0
-2.6872542,-4.8794284,-2.6132255,0.084685057,-0.73160005,-0.67645359,0
3.4104869,2.2698565,-0.40542269,0.90309179,0.34320986,-0.2581315,0
-1.308084,-0.48338842,4.8427014,-0.2652216,-0.67095119,0.69244623,0
-2.1968639,1.2576752,5.8733163,-0.084685057,0.73160005,0.67645359,0
4.0936441,-3.139194,-0.99022412,0.92884243,-0.18777357,0.31936312,0
2.0612099,-2.5023246,-4.6013451,0.084685057,-0.73160005,-0.67645359,0
-1.5200644,6.2831798,0.5930078,-0.084685057,0.73160005,0.67645359,0
2.3451357,-5.216979,-0.3073788,0.53723967,-0.5382328,0.64936817,0
1.8225607,-0.44845486,4.2927885,0.48621815,-0.56223631,0.66894114,0
3.7065182,2.5191522,0.9082408,0.97195125,0.21014261,-0.10559565,0
2.5414116,-4.8423958,-0.15917659,0.57693076,-0.51751214,0.63192725,0
2.7335703,4.6778564,2.7674468,-0.084685057,0.73160005,0.67645359,0
-3.7076473,1.3427759,-0.38328052,-0.9363209,0.17375809,-0.30514133,0
-2.9957972,-2.3148031,-5.1102839,0.084685057,-0.73160005,-0.67645359,0
3.798337,0.38309014,0.13612056,0.99516636,0.095977873,0.020782411,0
2.063313,-3.7824869,-2.9767604,0.084685057,-0.73160005,-0.67645359,0
-2.2338014,-4.0308027,-3.0956812,0.084685057,-0.73160005,-0.67645359,0
-2.5706389,3.7895894,-0.74254984,-0.5747813,0.51868343,-0.63292491,0
2.2129381,-1.1620307,-5.8845968,0.40268356,0.64611089,-0.64837199,0
2.0654306,3.5486283,3.8219903,-0.084685057,0.73160005,0.67645359,0
-2.7258384,4.1054926,2.3546147,-0.084685057,0.73160005,0.67645359,0
-3.0103583,4.6387663,2.0733235,-0.084685057,0.73160005,0.67645359,0
-2.3271122,-3.4273891,-4.2079644,0.084685057,-0.73160005,-0.67645359,0
1.0362177,5.9985662,0.97932577,-0.084685057,0.73160005,0.67645359,0
1.3932543,5.8559036,1.1915884,-0.084685057,0.73160005,0.67645359,0
-0.12233424,-1.2367492,-5.9372735,0.084685057,-0.73160005,-0.67645359,0
-2.7846041,1.1083703,-2.7386758,-0.71669018,0.42692074,-0.55144703,0
-0.76031113,-6.2503891,-0.99503088,0.084685057,-0.73160005,-0.67645359,0
0.24398518,5.9867392,1.087167,-0.084685057,0.73160005,0.67645359,0
3.6057272,2.3059042,0.11620808,0.92098552,0.3165732,-0.22708327,0
0.6305809,5.7604318,1.4873093,-0.084685057,0.73160005,0.67645359,0
-3.1870451,3.1438463,-0.6460892,-0.74668288,0.4029305,-0.52925575,0
-2.4768107,-0.1964097,4.1045814,-0.57408029,-0.5907129,0.56700069,0
3.929642,-1.8323569,-3.6958346,0.93516922,0.2926895,-0.19947678,0
-1.7645139,-1.3659101,-5.6237593,-0.56657982,0.52309954,-0.63667428,0
2.5793159,4.8171415,2.3191664,-0.084685057,0.73160005,0.67645359,0
3.8041894,0.54063749,2.3130677,0.9493984,-0.14682004,0.27764434,0
-2.439393,1.2323394,5.6721983,-0.084685057,0.73160005,0.67645359,0
0.9151246,-2.3182859,-4.5373497,0.084685057,-0.73160005,-0.67645359,0
-1.6596437,4.4636364,2.5859158,-0.084685057,0.73160005,0.67645359,0
-1.5390401,-5.666111,-1.600065,0.084685057,-0.73160005,-0.67645359,0
3.4571304,2.2943983,0.014554977,0.92670155,0.307289,-0.21632648,0
3.2506609,2.0485911,-1.096014,0.80116457,0.45363578,-0.39031994,0
-2.067173,5.5367594,0.20430413,-0.40990919,0.59320414,-0.69288045,0
-2.8470054,2.4065595,4.1933537,-0.084685057,0.73160005,0.67645359,0
-2.6255231,-3.3215842,-3.9462476,0.084685057,-0.73160005,-0.67645359,0
-1.850921,3.6325159,3.3680177,-0.084685057,0.73160005,0.67645359,0
-2.1167386,4.9944,-0.21275912,-0.46764377,0.5702951,-0.67533159,0
1.0999919,3.7607689,3.4266469,-0.084685057,0.73160005,0.67645359,0
-1.0047941,2.8518455,-2.625123,-0.22715217,0.64684063,-0.7280103,0
2.6767597,3.3756931,3.8060799,-0.084685057,0.73160005,0.67645359,0
2.7177269,-1.5611432,2.5577521,0.6661669,-0.46328765,0.58445364,0
2.4796977,-4.9124885,-1.575026,0.084685057,-0.73160005,-0.67645359,0
0.046442032,2.7460842,-2.7863681,0.052660346,0.68122971,-0.73017317,0
-1.7299666,5.5396228,1.0045156,-0.084685057,0.73160005,0.67645359,0
0.9356128,2.7018762,4.398735,-0.084685057,0.73160005,0.67645359,0
3.2900629,1.8643239,4.3949876,0.86269999,-0.28586385,0.41716963,0
3.0398951,-4.4574761,-2.29,0.084685057,-0.73160005,-0.67645359,0
0.44064555,-2.6363745,-4.5119748,0.084685057,-0.73160005,-0.67645359,0
-2.8206077,-4.0531354,-3.3677692,0.084685057,-0.73160005,-0.67645359,0
1.6392732,1.9731727,5.3307724,-0.084685057,0.73160005,0.67645359,0
-2.9628668,5.2420578,1.6155236,-0.084685057,0.73160005,0.67645359,0
-4.336647,1.1889,1.044781,-0.99639016,-0.058149278,-0.061848164,0
-4.192153,3.000391,1.524616,-0.97545719,0.07761246,-0.20605701,0
-3.52917,0.58003825,-1.7496929,-0.90739125,0.22386089,-0.35570687,0
3.5390887,-2.0989699,1.1019363,0.81048644,-0.34432998,0.47386551,0
0.6846323,3.8315413,-1.9503783,0.19710672,0.67777669,-0.70835543,0
0.0079183578,-1.7844336,3.9035296,0.047180295,-0.67518663,0.73613644,0
1.2482183,3.001061,4.370739,-0.084685057,0.73160005,0.67645359,0
2.7677789,5.2400084,1.2860742,0.7750299,0.47503573,-0.41673619,0
-2.3360331,-4.4286394,-3.1657071,0.084685057,-0.73160005,-0.67645359,0
3.2849903,-2.8737826,-4.1596184,0.084685057,-0.73160005,-0.67645359,0
-2.8783565,5.4374857,0.94968486,-0.084685057,0.73160005,0.67645359,0
0.29820538,-5.7878542,-1.0151066,0.084685057,-0.73160005,-0.67645359,0
3.7678668,-2.5655832,-3.8504715,0.084685057,-0.73160005,-0.67645359,0
0.72290838,3.4420638,3.8644905,-0.084685057,0.73160005,0.67645359,0
0.72784448,-5.1051059,-2.0170865,0.084685057,-0.73160005,-0.67645359,0
-3.4524817,4.8562393,1.44372,-0.084685057,0.73160005,0.67645359,0
-4.3416109,3.0532708,2.4345074,-0.99575645,-0.037598521,-0.083994925,0
-2.1114018,4.4934359,2.3973954,-0.084685057,0.73160005,0.67645359,0
-2.8967025,-4.8301287,-1.1167309,-0.76473296,-0.4829329,0.42656636,0
0.3854956,-2.0052953,-5.1076727,0.084685057,-0.73160005,-0.67645359,0
2.0070927,4.4745116,2.8092642,-0.084685057,0.73160005,0.67645359,0
-1.4143611,2.4602666,4.4051142,-0.084685057,0.73160005,0.67645359,0
0.25161505,3.8066602,3.0310688,-0.084685057,0.73160005,0.67645359,0
0.86642623,-3.9103231,1.6997758,0.13912737,-0.66355979,0.73507267,0
2.7796221,-4.3129015,-2.6719775,0.084685057,-0.73160005,-0.67645359,0
1.9281297,4.6821074,-0.35070157,0.56430548,0.59473825,-0.57257783,0
3.5703545,1.8808864,-0.2081871,0.93949199,0.28479001,-0.19039214,0
-0.72073221,-2.730231,2.8116844,-0.15395117,-0.68034708,0.71653801,0
0.12201524,-0.91679764,-6.3113093,-0.025745392,0.67705905,-0.7354781,0
0.38123345,-5.137888,-1.9314317,0.084685057,-0.73160005,-0.67645359,0
-4.4806757,2.3290992,3.4452071,-0.97503,-0.20071843,0.095017791,0
-1.6404247,-6.1415348,-1.0501671,0.084685057,-0.73160005,-0.67645359,0
-4.4151382,2.4862704,3.3096991,-0.9853158,-0.16250208,0.052398324,0
3.574204,-0.92645693,-3.6133885,0.84894812,0.40839574,-0.33540982,0
-3.6282649,-0.56484872,-1.7140338,-0.96779394,0.10113311,-0.23053581,0
-1.3592689,0.59328985,5.8720975,-0.26097202,-0.67147869,0.69354868,0
0.18320513,5.0503016,-0.59182692,0.080498695,0.68169653,-0.72719294,0
-1.6764255,-0.73684263,4.4151216,-0.40453595,-0.64566737,0.64766043,0
-3.6336591,-4.2159915,-3.2538915,-0.99191022,-0.12632823,0.012449861,0
0.24622869,-4.6828084,-2.1666489,0.084685057,-0.73160005,-0.67645359,0
-2.2719526,3.57373,3.2108736,-0.084685057,0.73160005,0.67645359,0
-3.7905128,2.3475242,4.2832179,-0.084685057,0.73160005,0.67645359,0
3.0738397,-5.4359598,-1.286309,0.084685057,-0.73160005,-0.67645359,0
0.49015278,-2.5196571,-4.7679129,0.084685057,-0.73160005,-0.67645359,0
3.6969094,1.4804777,2.6616936,0.97066981,-0.092733622,0.22181159,0
3.3989067,1.1814585,3.2737422,0.91556931,-0.21072932,0.34252858,0
-1.0506263,2.0674591,-3.559063,-0.23639506,0.64475763,-0.72691458,0
3.0393369,0.57277703,3.615015,0.83860332,-0.31431097,0.44491923,0
-1.8137056,4.3066249,2.2159905,-0.084685057,0.73160005,0.67645359,0
2.3162594,5.3526874,1.4421442,0.72794563,0.50899935,-0.4593631,0
1.4604272,1.7748876,5.7386446,-0.084685057,0.73160005,0.67645359,0
1.9411449,0.38865185,-4.5419874,0.37945992,0.65141451,-0.65701532,0
2.6371877,-2.5777864,-4.3823223,0.084685057,-0.73160005,-0.67645359,0
3.821625,-1.007921,1.0799267,0.91526222,-0.21123518,0.34303731,0
-2.5638151,5.0094986,1.9368446,-0.084685057,0.73160005,0.67645359,0
2.2907336,-0.55843496,-5.2407637,0.47107971,0.62762415,-0.61981559,0
-0.17872095,-5.4637995,0.37910962,-0.09247601,-0.68173289,0.7257328,0
2.2067254,-2.1703792,-4.8423014,0.084685057,-0.73160005,-0.67645359,0
1.6005216,-1.4553174,3.3922462,0.41573566,-0.59103334,0.69126213,0
-0.32271624,-4.9617572,-1.9975861,0.084685057,-0.73160005,-0.67645359,0
2.7763758,3.9585984,3.4707422,-0.084685057,0.73160005,0.67645359,0
0.30900115,1.522892,5.5761347,-0.084685057,0.73160005,0.67645359,0
-3.2342427,-3.0751646,-0.066800117,-0.84433329,-0.41317481,0.34115618,0
2.3521233,-2.9131756,-4.1229682,0.084685057,-0.73160005,-0.67645359,0
3.2482388,-2.0501747,-4.6420474,0.084685057,-0.73160005,-0.67645359,0
1.7009748,0.99610996,5.6886282,0.54119468,-0.53625178,0.64772081,0
-1.3354423,-2.1695971,-5.2056217,0.084685057,-0.73160005,-0.67645359,0
-3.6144974,3.692564,0.42578411,-0.82672161,0.32737207,-0.45755762,0
2.4895558,-1.8072944,-5.2065277,0.084685057,-0.73160005,-0.67645359,0
2.0662379,3.3619499,-1.7540474,0.48862571,0.62214947,-0.61169809,0
-0.031203985,-1.2367966,4.2868156,0.06204474,-0.67370307,0.73639286,0
-4.2149096,4.0280085,1.9764841,-0.9522469,0.14044762,-0.27110898,0
1.7061876,-1.2406454,-5.9883475,0.084685057,-0.73160005,-0.67645359,0
4.2982965,-2.9688611,-2.9025064,0.99495256,0.098764509,0.017741859,0
1.9152336,2.6269772,-2.0989094,0.47805804,0.62548417,-0.61662763,0
-2.4752016,2.8916073,4.1694021,-0.084685057,0.73160005,0.67645359,0
-2.2716784,-4.7628369,-2.7915094,0.084685057,-0.73160005,-0.67645359,0
-2.9803753,-0.60849833,3.1038198,-0.70444953,-0.5240888,0.47862417,0
2.7177939,-1.9106901,2.681596,0.64231443,-0.47892708,0.59838194,0
4.2171211,-0.60617304,-0.60374475,0.99640763,0.062358528,0.057297885,0
0.76196051,-5.3508711,0.69043356,0.12074971,-0.6663537,0.73579347,0
-0.43011117,-5.0140462,-1.7672863,0.084685057,-0.73160005,-0.67645359,0
0.5329237,5.1615639,-0.41852832,0.21210444,0.67656857,-0.70517129,0
3.4739242,-3.243329,-3.6264496,0.084685057,-0.73160005,-0.67645359,0
3.6871691,-4.8055959,-1.9780186,0.084685057,-0.73160005,-0.67645359,0
-0.59014416,-0.91825533,-5.8786116,-0.25606865,0.64011121,-0.72435236,0
0.29879236,4.4944067,2.7815166,-0.084685057,0.73160005,0.67645359,0
3.7521429,-1.7840534,0.76020885,0.88330364,-0.25903738,0.39073554,0
0.81439042,-1.8880346,3.5763783,0.25731248,-0.6398077,0.72417974,0
0.0044121742,-5.7310376,-1.4633871,0.084685057,-0.73160005,-0.67645359,0
0.55321312,0.052308083,5.3412089,0.25569928,-0.64020121,0.72440338,0
3.2276757,1.6055921,-1.4437487,0.82226205,0.43475133,-0.36725479,0
-0.25328636,-3.1380794,2.4148781,-0.11283386,-0.6815666,0.72300446,0
2.0305109,3.1088986,-1.8659453,0.50727874,0.61598027,-0.60269082,0
0.21100378,3.7723241,3.527164,-0.084685057,0.73160005,0.67645359,0
0.1816144,5.8200254,1.2568201,-0.084685057,0.73160005,0.67645359,0
1.6857424,0.636868,5.374527,0.52744198,-0.5430634,0.65336597,0
2.7215712,2.4975801,5.0461059,-0.084685057,0.73160005,0.67645359,0
-3.7476058,-2.3594627,-1.5477574,-0.98836362,-0.14776811,0.036081553,0
-1.4490361,-4.4956212,-2.9124403,0.084685057,-0.73160005,-0.67645359,0
-2.7192795,2.5302353,4.1602645,-0.084685057,0.73160005,0.67645359,0
1.9529562,0.82827759,-4.1836123,0.42291385,0.64109868,-0.64041847,0
3.7366679,2.4945493,3.2536304,0.97943723,-0.063643754,0.19144773,0
2.619314,-1.9643803,-5.1033373,0.084685057,-0.73160005,-0.67645359,0
0.0033049583,-5.8293819,-0.14425302,-0.11094534,-0.68159413,0.7232706,0
2.0819085,0.78976679,5.1245928,0.60450488,-0.50195765,0.61855668,0
-3.3528934,-3.1948395,0.14133024,-0.82952321,-0.42787409,0.35890788,0
3.1070092,3.4692385,3.8250313,-0.084685057,0.73160005,0.67645359,0
-2.7870028,-4.8074455,-1.5066469,-0.82402128,-0.43310386,0.36525279,0
-0.47887754,-0.74736905,4.6239562,-0.11242777,-0.68157268,0.7230618,0
0.97682345,1.1921864,5.9766436,0.33370781,-0.61886173,0.71109009,0
-3.9154522,-2.1737266,-0.71881962,-0.97044981,-0.21451078,0.11050797,0
-0.063451767,4.8964133,-0.86239445,0.097811878,0.68171716,-0.72504783,0
2.6366341,-5.7580905,-0.62992847,0.54028761,-0.53670776,0.64810038,0
2.9430165,5.3808184,1.7219486,-0.084685057,0.73160005,0.67645359,0
3.0349782,-2.0210295,-5.0553164,0.084685057,-0.73160005,-0.67645359,0
-0.78916609,1.1903849,5.7157798,-0.084685057,0.73160005,0.67645359,0
1.2001171,4.1464419,2.8457885,-0.084685057,0.73160005,0.67645359,0
4.0887547,-0.50476146,-1.4882433,0.97481412,0.20140167,-0.09578383,0
-2.5104356,-4.393837,-2.8881736,0.084685057,-0.73160005,-0.67645359,0
3.5335648,-1.9738046,0.72650814,0.88034791,-0.26304993,0.39470518,0
-1.0195115,-4.8200922,-2.2554116,0.084685057,-0.73160005,-0.67645359,0
-3.8823845,3.4278564,1.2438266,-0.91783667,0.20696126,-0.33873719,0
-0.62309408,5.5810957,1.0413352,-0.084685057,0.73160005,0.67645359,0
-1.5540349,-1.9282975,-5.5245233,0.084685057,-0.73160005,-0.67645359,0
0.019724369,2.579051,4.5877018,-0.084685057,0.73160005,0.67645359,0
4.2002997,-2.8592219,-3.6385121,0.9778831,0.19132277,-0.084498942,0
-1.7547789,-0.6206255,4.5462627,-0.35106462,-0.65726638,0.66689903,0
-2.8109841,-0.90712619,-3.9297771,-0.80229509,0.35253119,-0.48170987,0
-3.2178755,4.0422888,2.5314465,-0.084685057,0.73160005,0.67645359,0
1.6259544,-4.8863645,-2.1067889,0.084685057,-0.73160005,-0.67645359,0
0.82730842,-5.4329276,-1.3373179,0.084685057,-0.73160005,-0.67645359,0
0.30859709,5.1416917,1.7354947,-0.084685057,0.73160005,0.67645359,0
3.3352025,-3.1041698,-3.3737907,0.084685057,-0.73160005,-0.67645359,0
-3.5331166,-0.4718129,-2.1035805,-0.95494634,0.13420832,-0.26469898,0
-2.9201374,4.6222439,0.15607417,-0.67395967,0.45797697,-0.57968563,0
3.4962528,1.4215289,3.1544633,0.9521184,-0.14073968,0.2714088,0
2.2123892,3.5323701,-0.98832726,0.62738633,0.56656891,-0.53421509,0
1.6993856,-0.16875219,-5.3136654,0.36780351,0.65389955,-0.66116226,0
-0.42028904,5.1234355,1.6753852,-0.084685057,0.73160005,0.67645359,0
-2.5126963,2.8223386,-1.3599367,-0.63683677,0.48239306,-0.60144472,0
1.4282622,5.2276659,1.9257101,-0.084685057,0.73160005,0.67645359,0
2.4349818,3.6723366,3.9191856,-0.084685057,0.73160005,0.67645359,0
0.7474699,-2.3366928,3.3575833,0.17075211,-0.65819407,0.73322856,0
-2.9768698,-4.1545839,-3.1548009,0.084685057,-0.73160005,-0.67645359,0
-0.92424345,5.5422416,-0.49053019,-0.17094493,0.6581592,-0.73321497,0
-0.045227289,-2.9488664,-4.0915551,0.084685057,-0.73160005,-0.67645359,0
3.1121593,0.14480412,3.3966804,0.77196121,-0.38107362,0.50878161,0
3.1387742,2.9859452,4.6211281,-0.084685057,0.73160005,0.67645359,0
1.4534791,4.8031874,2.5491345,-0.084685057,0.73160005,0.67645359,0
3.4409766,1.7367388,-1.4984045,0.81437868,0.44199166,-0.37607229,0
-4.1907859,2.8808198,2.637279,-0.99488491,-0.024565667,-0.097981095,0
-2.5724604,-4.0202036,-3.3260641,0.084685057,-0.73160005,-0.67645359,0
0.26972771,-2.5554914,-4.6434212,0.084685057,-0.73160005,-0.67645359,0
-4.2765617,3.1139874,1.2463229,-0.95266795,0.13948777,-0.2701236,0
-0.74939108,-5.7568932,-0.31651378,-0.26275384,-0.67125911,0.69308817,0
0.30107665,2.1719394,-3.5981452,0.090409279,0.68173373,-0.72599244,0
-1.0550823,5.5770011,1.4812986,-0.084685057,0.73160005,0.67645359,0
-2.3716292,2.0016298,-2.6477592,-0.61849493,0.49367499,-0.61135018,0
-0.80364299,3.0467105,-2.5619681,-0.23915303,0.64412379,-0.72657436,0
-0.89785719,-5.8377419,-1.2235036,0.084685057,-0.73160005,-0.67645359,0
-3.5594349,-4.5011215,-2.7520854,0.084685057,-0.73160005,-0.67645359,0
0.49094009,-3.5344818,2.0760491,0.14440554,-0.66271353,0.73481816,0
-3.9459834,2.2707331,0.45981312,-0.94356936,0.15925908,-0.29036772,0
-0.53169,1.3264613,5.7017622,-0.084685057,0.73160005,0.67645359,0
0.88348651,1.4841039,-4.2730513,0.1353032,0.68104732,-0.71962994,0
1.655359,5.0485172,2.09849,-0.084685057,0.73160005,0.67645359,0
-0.41387248,3.1494961,4.1711721,-0.084685057,0.73160005,0.67645359,0
0.8519206,5.9577351,1.0661595,-0.084685057,0.73160005,0.67645359,0
2.4944272,0.74500942,4.5898752,0.73087549,-0.41581938,0.54121643,0
0.4341743,3.7883983,3.4414225,-0.084685057,0.73160005,0.67645359,0
-1.0325458,4.94911,1.6399691,-0.084685057,0.73160005,0.67645359,0
1.5823073,5.5628757,1.5623236,-0.084685057,0.73160005,0.67645359,0
-2.6698117,-2.1394548,2.254817,-0.61659861,-0.57176894,0.54118943,0
0.53262389,1.8719864,5.5780382,-0.084685057,0.73160005,0.67645359,0
1.2949686,3.4275017,-1.9940284,0.34033579,0.65930098,-0.6704427,0
2.551039,-4.1368065,0.84612203,0.58517945,-0.51296294,0.62803984,0
-3.6103075,2.1461217,-0.6288445,-0.86073291,0.2882953,-0.41955301,0
0.16824484,-4.8686895,-2.2117789,0.084685057,-0.73160005,-0.67645359,0
0.52128041,3.5517268,3.7083325,-0.084685057,0.73160005,0.67645359,0
-1.9990108,-1.6706536,3.4081848,-0.49717689,-0.61936677,0.60761791,0
-0.76907158,5.6896496,1.2515253,-0.084685057,0.73160005,0.67645359,0
-1.0828836,-3.0519767,-4.3796663,0.084685057,-0.73160005,-0.67645359,0
-3.1466198,5.3217049,1.475651,-0.084685057,0.73160005,0.67645359,0
-4.1487918,2.3513658,0.6526804,-0.95149159,0.14215794,-0.27286416,0
2.7979546,5.0363235,2.0568013,-0.084685057,0.73160005,0.67645359,0
-1.268445,2.7399526,4.3186736,-0.084685057,0.73160005,0.67645359,0
0.93652534,6.1632247,0.83719349,-0.084685057,0.73160005,0.67645359,0
-0.84129643,0.050165176,5.3223815,-0.16649526,-0.67973739,0.71430814,0
-3.3633351,-3.6418149,-4.0524979,0.084685057,-0.73160005,-0.67645359,0
3.5649023,0.10074615,-3.5005524,0.78571099,0.46653503,-0.40620548,0
-0.62706375,5.8627195,0.87495148,-0.084685057,0.73160005,0.67645359,0
-2.6305552,5.0203791,1.6527134,-0.084685057,0.73160005,0.67645359,0
-0.37907076,-6.2621498,-0.91016126,0.084685057,-0.73160005,-0.67645359,0
1.3392498,-2.8404512,2.6723051,0.35888684,-0.61093116,0.70566511,0
-3.1730626,1.9951389,-1.7724833,-0.76240361,0.38952804,-0.51672882,0
-2.487725,0.97157955,5.564889,-0.48270947,-0.62403047,0.61447304,0
-2.7786727,-4.9766874,-1.3966134,-0.79765916,-0.45662695,0.39399374,0
-0.11250305,3.1749129,-2.5640082,-0.059156418,0.67400324,-0.7363559,0
-1.2202554,-3.8851471,-3.3465779,0.084685057,-0.73160005,-0.67645359,0
-0.32989264,6.5589724,0.39395809,0.015654922,0.67978537,-0.73324382,0
3.68471,2.576582,1.0662978,0.95758712,0.24740946,-0.14769888,0
-0.69633311,-1.9176621,-5.557312,0.084685057,-0.73160005,-0.67645359,0
3.898242,-1.1073828,-3.1804295,0.89447761,0.3549394,-0.27189565,0
-3.7032347,-1.8120247,-3.0193083,-0.97107637,0.091508329,-0.2205373,0
-1.9576571,-1.785996,-5.8007183,0.084685057,-0.73160005,-0.67645359,0
-3.8928528,-2.0955322,-0.48002625,-0.96071231,-0.24003667,0.13933378,0
-0.6450237,-0.45941877,-5.7038121,-0.20164508,0.65226185,-0.73068023,0
2.2752347,-2.3327725,2.7076118,0.5242089,-0.54463369,0.65465957,0
-0.86119843,-1.6683979,3.8625925,-0.22592884,-0.67530888,0.7020781,0
3.3159704,0.59452605,-2.5069988,0.79506379,0.45881656,-0.39668685,0
1.0394071,3.7213707,3.5410271,-0.084685057,0.73160005,0.67645359,0
3.6777384,1.8838291,0.54474425,0.97737855,0.19303732,-0.086416602,0
0.33851719,3.1375051,3.891984,-0.084685057,0.73160005,0.67645359,0
3.6936963,-4.4415464,-0.99123096,0.83524871,-0.31805804,0.44855177,0
-4.2498207,1.4741466,1.4609449,-0.99405777,-0.10863,-0.0069600344,0
-0.83069134,1.2667575,-4.1057663,-0.25447839,0.64049768,-0.72457111,0
-0.97972608,1.1152177,-4.1505828,-0.24258083,0.64332807,-0.72614288,0
-1.5234214,-1.3430152,-5.7378368,-0.51780623,0.54770929,-0.65718436,0
-2.6525028,-0.24253845,3.8136787,-0.62716389,-0.56667787,0.53436071,0
-1.4859105,-3.1519403,-4.1286783,0.084685057,-0.73160005,-0.67645359,0
1.4925451,5.4475908,1.8883845,-0.084685057,0.73160005,0.67645359,0
3.830389,-4.2239461,-1.0992565,0.82983828,-0.32400191,0.45430291,0
0.21728468,0.72304654,-4.6719127,-0.036352515,0.67617178,-0.73584646,0
3.629709,-3.9081945,-2.834445,0.084685057,-0.73160005,-0.67645359,0
-2.7536533,3.4836745,-0.79909343,-0.6470241,0.47591043,-0.59570897,0
-1.7570195,5.1440048,-0.080401443,-0.35491753,0.61221641,-0.70655829,0
2.6791916,2.2175298,5.5198026,0.77931148,-0.37440428,0.50248885,0
-0.13521767,-6.3452024,-0.40869582,0.084685057,-0.73160005,-0.67645359,0
-3.724977,0.19712114,3.2633507,-0.84726059,-0.41015476,0.33752346,0
-2.8517828,-1.2721345,-4.0982018,-0.81035739,0.34446102,-0.47399104,0
-1.663656,-0.5958221,4.3179603,-0.31884551,-0.66309261,0.67723382,0
-2.2313259,5.5420914,0.35206154,-0.41929686,0.5896914,-0.6902566,0
-3.122705,-3.6645555,-3.893492,0.084685057,-0.73160005,-0.67645359,0
3.205318,-4.4273677,-2.0991211,0.084685057,-0.73160005,-0.67645359,0
2.2541132,1.8208899,5.8276291,-0.084685057,0.73160005,0.67645359,0
-2.7284722,-5.5444069,-1.8420396,0.084685057,-0.73160005,-0.67645359,0
-0.39500999,-5.9738197,-0.39343095,-0.23108721,-0.67480272,0.70088506,0
-2.8533688,-3.8698728,-3.7011869,0.084685057,-0.73160005,-0.67645359,0
2.5108962,4.8598738,0.97679782,0.74929285,0.49426335,-0.4407534,0
1.2166061,5.0259156,-0.6646142,0.33333349,0.66057777,-0.67270017,0
2.6942797,2.7576957,4.5345535,-0.084685057,0.73160005,0.67645359,0
-4.1286469,0.77995872,2.7022674,-0.92871857,-0.30390823,0.21241772,0
3.0965927,-5.3002415,-1.4961936,0.084685057,-0.73160005,-0.67645359,0
-1.1821272,4.9356146,2.0662303,-0.084685057,0.73160005,0.67645359,0
2.1537814,5.1557703,1.8123338,-0.084685057,0.73160005,0.67645359,0
-1.3439262,-0.79184818,-5.8310652,-0.41335505,0.59192401,-0.69192737,0
-1.9892373,-3.4155917,1.4641674,-0.55775398,-0.59737068,0.57624507,0
-1.8422647,0.09014082,-4.7565265,-0.47797787,0.56585455,-0.67182273,0
-0.17556763,1.398622,6.0673933,-0.084685057,0.73160005,0.67645359,0
-0.59538555,-5.7390256,-1.026083,0.084685057,-0.73160005,-0.67645359,0
-3.6622889,-0.96169364,1.6278698,-0.88297194,-0.36969095,0.28929025,0
3.7811017,-2.8365107,-0.30211616,0.88753569,-0.25318652,0.38493755,0
3.5394757,2.1562505,3.7687485,0.93135536,-0.18316093,0.31468898,0
3.1957145,-1.8811154,-4.6620235,0.084685057,-0.73160005,-0.67645359,0
1.062001,-4.4246421,-2.4930973,0.084685057,-0.73160005,-0.67645359,0
-1.8746289,-0.81543732,-5.1910048,-0.53691638,0.53839386,-0.64950192,0
-1.5345476,-1.6079838,3.8464391,-0.34940672,-0.65758693,0.66745329,0
-0.23418546,-3.5801191,-3.4678798,0.084685057,-0.73160005,-0.67645359,0
1.009166,-2.4737158,-4.5552225,0.084685057,-0.73160005,-0.67645359,0
0.34490156,-2.5699234,2.9740741,0.092081845,-0.67024094,0.73640877,0
3.0387454,-3.8361964,0.44251788,0.65454781,-0.47101939,0.59136111,0
2.9965477,-1.4367208,-5.2618694,0.084685057,-0.73160005,-0.67645359,0
-2.4214666,-0.4186182,4.5491004,-0.50233346,-0.61765164,0.60511762,0
-1.4663084,-1.2425003,-6.2456255,0.084685057,-0.73160005,-0.67645359,0
-3.4112413,3.0999539,-0.31678343,-0.83568966,0.31756821,-0.4480772,0
-2.0527949,-1.387516,-5.4910173,-0.63374382,0.48433018,-0.60315257,0
-0.84133291,-3.3810968,-4.0946422,0.084685057,-0.73160005,-0.67645359,0
3.8527026,-1.9452167,-4.5588555,0.8341524,0.42337966,-0.35346746,0
-2.9754748,-2.6215448,0.89337945,-0.75303519,-0.49157122,0.43737328,0
-4.0784621,0.19527984,0.83382607,-0.98304653,-0.17215005,0.063116908,0
2.1424108,5.0650182,2.4301076,-0.084685057,0.73160005,0.67645359,0
2.8113005,2.9725163,-0.4305079,0.78528303,0.46688196,-0.40663415,0
3.3429096,-0.69258738,-4.2328539,0.75350797,0.49122867,-0.43694371,0
-3.7921579,0.4877634,2.668608,-0.91785699,-0.32148129,0.2327832,0
-1.3777018,3.7442379,3.4479885,-0.084685057,0.73160005,0.67645359,0
3.5490999,-1.1735857,1.0501604,0.92589283,-0.19307172,0.3247239,0
-0.27769089,6.2904291,0.28021538,0.0040565729,0.67913985,-0.73399764,0
-4.2735581,1.16819,0.52345681,-0.98677957,0.032571107,-0.15876114,0
-3.0697994,-3.5606413,-0.081678391,-0.77335423,-0.4763405,0.41835719,0
-2.1770189,5.311141,-0.025271803,-0.49082604,0.56018269,-0.66729695,0
0.17278473,-2.7429786,-4.6349201,0.084685057,-0.73160005,-0.67645359,0
-4.046679,2.1144934,0.064834118,-0.93322432,0.17966817,-0.31114548,0
-0.95531034,-5.4169483,-1.5338963,0.084685057,-0.73160005,-0.67645359,0
2.1329465,-1.8584185,-5.2713041,0.084685057,-0.73160005,-0.67645359,0
3.5822761,1.1883024,3.2917991,0.90551764,-0.22677469,0.35862362,0
-1.8484863,-3.4242644,-4.1298928,0.084685057,-0.73160005,-0.67645359,0
-0.3537215,3.7240686,3.3721745,-0.084685057,0.73160005,0.67645359,0
-3.7067516,-1.6403544,-0.78622198,-0.98030561,-0.18273023,0.074902654,0
-1.5962305,-3.9876599,-3.2579956,0.084685057,-0.73160005,-0.67645359,0
2.8802218,1.9716029,-1.9464753,0.74623716,0.49643674,-0.44348645,0
0.99706864,-5.6593595,-1.2880075,0.084685057,-0.73160005,-0.67645359,0
-1.7026956,1.8464217,5.3970361,-0.084685057,0.73160005,0.67645359,0
2.2927058,0.0093796253,4.4305859,0.60840654,-0.49967492,0.61657631,0
-0.80064487,0.8223424,6.285326,-0.084685057,0.73160005,0.67645359,0
3.1033041,-4.2647505,-2.458988,0.084685057,-0.73160005,-0.67645359,0
-1.7957482,-0.54731274,4.1781101,-0.43865639,-0.6369381,0.63394797,0
-3.4151993,3.182714,3.5999284,-0.084685057,0.73160005,0.67645359,0
-3.2521954,-2.6738365,0.24783516,-0.86708212,-0.38858819,0.31171721,0
2.3783102,-0.10221529,-4.8666716,0.56308305,0.59523332,-0.57326633,0
-0.77816105,1.7133908,5.5931134,-0.084685057,0.73160005,0.67645359,0
-0.39143145,-3.3526092,-3.80247,0.084685057,-0.73160005,-0.67645359,0
-2.8890245,-3.7951255,-0.47942305,-0.81538242,-0.44108236,0.3749631,0
-3.6133876,-3.033787,-0.95355201,-0.94085777,-0.28222382,0.18744576,0
-1.2937576,0.91080332,6.0045547,-0.21832603,-0.67601907,0.70379806,0
4.0115976,-0.33127558,0.032420397,0.99566382,0.035905272,0.085814655,0
2.238374,-5.636847,-0.43600148,0.46257129,-0.5724358,0.67701179,0
2.0619514,0.32305312,4.8168602,0.5469445,-0.53333962,0.64529097,0
0.70124173,0.67486668,-4.5556822,0.10400301,0.68167412,-0.72422618,0
-0.01702261,5.8044558,-0.0062044859,0.069494128,0.68157578,-0.72843999,0
2.7040744,-4.785706,-1.9877108,0.084685057,-0.73160005,-0.67645359,0
0.52126157,3.4867878,3.6337779,-0.084685057,0.73160005,0.67645359,0
-4.1510515,4.3946314,2.0106614,-0.084685057,0.73160005,0.67645359,0
-2.0629554,5.2102365,1.7105148,-0.084685057,0.73160005,0.67645359,0
1.2472603,2.3100367,5.0881863,-0.084685057,0.73160005,0.67645359,0
3.231854,3.0581231,4.2380676,-0.084685057,0.73160005,0.67645359,0
-0.028536558,3.4141417,3.8055346,-0.084685057,0.73160005,0.67645359,0
-3.0783763,-0.61756921,2.8459272,-0.73538464,-0.50398052,0.453004,0
-1.5449843,5.1503196,1.8564185,-0.084685057,0.73160005,0.67645359,0
-0.56184006,5.642673,1.058624,-0.084685057,0.73160005,0.67645359,0
-1.3851745,0.25715923,5.3369784,-0.29623175,-0.66668141,0.68394625,0
3.1312597,3.5489717,0.89896297,0.89020091,0.36053789,-0.27848601,0
1.7086259,-1.3800085,3.6887524,0.46151486,-0.57287848,0.67735827,0
-1.4653399,2.9039383,4.3308063,-0.084685057,0.73160005,0.67645359,0
0.91738081,4.1913791,-1.2370857,0.29961026,0.66617095,-0.68297118,0
0.6208781,-1.2089434,-5.819171,0.084685057,-0.73160005,-0.67645359,0
-2.0475667,1.0179381,6.0845304,-0.084685057,0.73160005,0.67645359,0
-0.66169477,5.2818489,1.4788449,-0.084685057,0.73160005,0.67645359,0
2.6943362,4.2936735,3.1182666,-0.084685057,0.73160005,0.67645359,0
0.15933216,-1.3919473,-5.7043233,0.084685057,-0.73160005,-0.67645359,0
3.5825062,1.7385406,0.039142132,0.94486237,0.27448899,-0.17857897,0
-0.28452611,1.7662077,-3.9792156,-0.058304846,0.67409062,-0.7363438,0
-1.2789092,-5.3132868,-1.7709963,0.084685057,-0.73160005,-0.67645359,0
1.6734695,3.8645875,-1.0644271,0.4540987,0.63262945,-0.62735486,0
1.3598552,5.5400767,1.4358943,-0.084685057,0.73160005,0.67645359,0
2.574024,-3.4725866,-3.3040538,0.084685057,-0.73160005,-0.67645359,0
3.2382693,1.3603204,-1.4242783,0.8528198,0.40430811,-0.33050424,0
-2.7051871,-3.1020808,-4.0886307,0.084685057,-0.73160005,-0.67645359,0
-1.2293258,5.8418822,0.65795839,-0.084685057,0.73160005,0.67645359,0
2.8028345,2.4659395,5.3137684,0.81205863,-0.34272969,0.47233155,0
3.7824812,1.3844864,1.6924067,0.99259394,0.0025996566,0.12145114,0
0.80251837,6.1204243,1.0150166,-0.084685057,0.73160005,0.67645359,0
1.6484929,-1.3840775,3.598465,0.44123459,-0.58116579,0.68378234,0
1.6519481,-4.4022393,-2.4952519,0.084685057,-0.73160005,-0.67645359,0
4.0856209,-0.7396512,-0.86554098,0.99635726,0.055347204,0.064874589,0
3.5570164,-4.3817487,-2.2963376,0.084685057,-0.73160005,-0.67645359,0
2.8604617,3.4960229,4.0073943,-0.084685057,0.73160005,0.67645359,0
-3.3621848,-4.2377253,-3.4956534,0.084685057,-0.73160005,-0.67645359,0
-3.9677644,1.8801804,4.4349575,-0.8616522,-0.39470097,0.31900817,0
1.8278503,-3.1601291,-3.868926,0.084685057,-0.73160005,-0.67645359,0
-0.57646871,5.0316949,1.6149129,-0.084685057,0.73160005,0.67645359,0
1.3269715,4.2288485,2.7261286,-0.084685057,0.73160005,0.67645359,0
2.1856081,3.3114948,-1.1563511,0.60040253,0.57926929,-0.5513289,0
1.1721268,5.4159298,1.9331881,-0.084685057,0.73160005,0.67645359,0
-2.9802892,-3.3327081,-4.1395197,0.084685057,-0.73160005,-0.67645359,0
-1.8275168,-2.2766237,-4.9503732,0.084685057,-0.73160005,-0.67645359,0
2.8059509,-4.9046845,-1.5909162,0.084685057,-0.73160005,-0.67645359,0
-0.44599533,-5.7287788,-0.9809984,0.084685057,-0.73160005,-0.67645359,0
2.0471895,2.8520575,4.3573928,-0.084685057,0.73160005,0.67645359,0
3.6502709,0.0035559535,1.0516675,0.96611243,-0.10584536,0.23542166,0
2.2528353,2.3915753,5.0224762,-0.084685057,0.73160005,0.67645359,0
-3.8141246,-3.5668745,-3.1784875,-0.99621856,-0.048942745,-0.071783721,0
2.9665992,-3.9532156,-2.5304303,0.084685057,-0.73160005,-0.67645359,0
1.0217777,2.9092369,4.1511278,-0.084685057,0.73160005,0.67645359,0
-0.0127877,-1.5919747,-5.7750759,0.084685057,-0.73160005,-0.67645359,0
-1.4045911,4.8709307,1.8346257,-0.084685057,0.73160005,0.67645359,0
2.0290301,3.1017213,4.3875771,-0.084685057,0.73160005,0.67645359,0
-1.7397785,-5.3803225,-1.6434619,0.084685057,-0.73160005,-0.67645359,0
-2.479012,-0.94377708,3.8056507,-0.55580562,-0.59814358,0.57732487,0
-4.3091836,3.89959,2.0023129,-0.9534719,0.13764167,-0.26822764,0
0.19080615,0.026194572,-5.2254038,-0.028588653,0.67682874,-0.73558497,0
0.59830034,-2.5010691,-4.3784142,0.084685057,-0.73160005,-0.67645359,0
-1.9335058,-4.4757223,-3.0434537,0.084685057,-0.73160005,-0.67645359,0
-3.3257899,-1.4186153,1.9124722,-0.82007533,-0.43678281,0.3697257,0
3.8338161,2.3045318,1.9149675,0.9936865,0.11214823,0.0031085014,0
1.0421951,-0.82228279,4.3216543,0.2693181,-0.6368171,0.72244835,0
-1.1220393,-5.8642225,-0.37542129,-0.41189021,-0.64387596,0.64480233,0
-2.4033418,2.5803511,-1.8595519,-0.62781686,0.48800254,-0.60638231,0
-3.814456,-2.1309209,-2.311008,-0.99632651,-0.053505272,-0.066862643,0
3.0147803,-5.4241443,-1.0026639,0.62678707,-0.48863536,0.60693777,0
-1.9093051,4.9612956,-0.61616462,-0.38334709,0.60271561,-0.69984204,0
3.998214,-4.9015112,-1.749486,0.084685057,-0.73160005,-0.67645359,0
2.6427948,-4.2531338,-2.2707999,0.084685057,-0.73160005,-0.67645359,0
-1.3889613,-5.2214298,-1.9993552,0.084685057,-0.73160005,-0.67645359,0
1.4101508,-1.7871799,-5.3352294,0.084685057,-0.73160005,-0.67645359,0
1.657547,4.6891742,2.47575,-0.084685057,0.73160005,0.67645359,0
1.0332322,-5.6113334,0.055402756,0.14886129,-0.66198379,0.73458672,0
0.25403893,-3.5310087,-3.8131866,0.084685057,-0.73160005,-0.67645359,0
1.3929644,1.6725817,5.4885569,-0.084685057,0.73160005,0.67645359,0
-0.77472401,-5.4190211,-1.8653833,0.084685057,-0.73160005,-0.67645359,0
-1.6776705,1.3367333,5.7902355,-0.084685057,0.73160005,0.67645359,0
3.8718822,-0.65279841,-2.1031661,0.94964707,0.26479393,-0.16749465,0
-2.0944667,1.3024602,5.4443579,-0.084685057,0.73160005,0.67645359,0
-1.4162912,1.7906642,5.3949237,-0.084685057,0.73160005,0.67645359,0
-3.4316552,2.1083918,4.665225,-0.084685057,0.73160005,0.67645359,0
-1.0737343,5.8574953,0.36970222,-0.20155245,0.65228069,-0.73068893,0
-3.8563006,1.6251745,-0.41023469,-0.94427705,0.15778859,-0.28886586,0
-2.5523314,1.6991944,4.9534912,-0.084685057,0.73160005,0.67645359,0
-0.70621848,-2.1600404,-5.3223214,0.084685057,-0.73160005,-0.67645359,0
3.3048091,4.1177597,3.2207005,-0.084685057,0.73160005,0.67645359,0
-2.3789775,5.2103233,1.2075599,-0.084685057,0.73160005,0.67645359,0
3.4035864,4.4567232,1.783263,0.90431482,0.3414917,-0.25612015,0
-3.0254402,2.7310638,-1.3383573,-0.69605535,0.44234324,-0.56554353,0
-0.71526265,-4.3402696,-2.6569211,0.084685057,-0.73160005,-0.67645359,0
0.67991304,-6.2166305,-0.64739209,0.084685057,-0.73160005,-0.67645359,0
2.8582246,4.6254373,2.5858901,-0.084685057,0.73160005,0.67645359,0
-1.7787123,0.3923192,5.1602736,-0.3889069,-0.64931422,0.65356117,0
-2.6358075,4.3331032,-0.5090248,-0.61158568,0.49779949,-0.61494601,0
-1.1953342,4.9956613,1.9972591,-0.084685057,0.73160005,0.67645359,0
-2.6719551,-0.91410589,-4.3175182,-0.77112746,0.38182077,-0.5094853,0
4.1773539,-3.023797,-2.5345283,0.99591178,0.040730685,0.080626845,0
2.0157056,-2.2618871,-4.8569951,0.084685057,-0.73160005,-0.67645359,0
-0.44653416,-5.9153471,-0.84962881,0.084685057,-0.73160005,-0.67645359,0
-0.85793662,4.2888908,2.8849928,-0.084685057,0.73160005,0.67645359,0
-2.2463362,-3.7702785,-3.6790679,0.084685057,-0.73160005,-0.67645359,0
1.0632892,-5.8371673,0.13994563,0.17644441,-0.65715271,0.73281491,0
2.5181689,-1.3753757,2.6243737,0.67155874,-0.45962414,0.58116651,0
2.5525186,-4.3784952,-2.1005349,0.084685057,-0.73160005,-0.67645359,0
-0.16343787,-2.2912359,-4.9680686,0.084685057,-0.73160005,-0.67645359,0
2.2119427,4.9405913,2.0698843,-0.084685057,0.73160005,0.67645359,0
0.60709214,1.2741661,-4.0137887,0.10436308,0.68167078,-0.72417754,0
-4.3692889,3.8806667,2.7674592,-0.084685057,0.73160005,0.67645359,0
0.58424151,1.8801594,5.6040878,-0.084685057,0.73160005,0.67645359,0
3.6408274,-4.356389,-2.2276998,0.084685057,-0.73160005,-0.67645359,0
-2.158061,-5.1609597,-2.1024313,0.084685057,-0.73160005,-0.67645359,0
0.64312172,2.769191,-2.7721009,0.1983462,0.67768312,-0.70809901,0
0.41967916,-2.8780382,2.5907698,0.062385798,-0.67366725,0.73639679,0
2.695128,4.6112332,0.88192368,0.77824342,0.47251233,-0.41360486,0
0.69634503,-3.3689947,-3.5777049,0.084685057,-0.73160005,-0.67645359,0
0.82391167,1.2310696,-4.0928512,0.18134689,0.67887032,-0.71151114,0
-4.2559738,0.65423608,0.19748044,-0.9940747,-0.015603095,-0.10757291,0
0.33310437,-4.0153618,-2.7530961,0.084685057,-0.73160005,-0.67645359,0
-1.0105567,2.8763986,4.1503963,-0.084685057,0.73160005,0.67645359,0
-0.30793107,1.3583074,6.0648484,-0.084685057,0.73160005,0.67645359,0
-3.342088,-4.6689882,-2.47826,0.084685057,-0.73160005,-0.67645359,0
-0.45119047,-3.8126092,-3.6100993,0.084685057,-0.73160005,-0.67645359,0
-3.7179673,2.6221247,4.0147691,-0.084685057,0.73160005,0.67645359,0
-3.6104388,-2.7873271,-0.65637445,-0.94265223,-0.27879792,0.18351591,0
-3.1199,2.3825068,4.518651,-0.084685057,0.73160005,0.67645359,0
-2.2648904,-0.68110514,4.1770267,-0.54286551,-0.60316247,0.58437294,0
2.2873151,-5.4661446,-0.12739196,0.47117412,-0.56879008,0.67414588,0
-3.1131911,-3.7141826,-3.8551283,0.084685057,-0.73160005,-0.67645359,0
-2.2939892,-2.4158006,2.0953479,-0.57108039,-0.59196085,0.56872594,0
-1.1565452,-2.083029,3.4578271,-0.22983402,-0.67492747,0.70117682,0
-4.101038,2.8949394,2.0295689,-0.99116147,0.007722497,-0.13243544,0
1.3321443,5.9268312,1.0660992,-0.084685057,0.73160005,0.67645359,0
0.44582891,2.6681037,4.5065222,-0.084685057,0.73160005,0.67645359,0
0.87097645,5.8743348,0.3556366,0.31045073,0.66447222,-0.67977691,0
-0.99431419,-6.2764969,-0.68137097,0.084685057,-0.73160005,-0.67645359,0
2.6251025,-0.47176123,3.7302165,0.6754235,-0.45696789,0.57877755,0
0.10374737,-0.32302666,-5.906539,-0.098838866,0.66937613,-0.73631942,0
1.3215441,-3.6059875,-3.2680984,0.084685057,-0.73160005,-0.67645359,0
-1.3880014,5.1033463,1.6919053,-0.084685057,0.73160005,0.67645359,0
-2.8133821,-2.8568878,1.1503572,-0.73126477,-0.5067749,0.4565419,0
3.4986806,-4.4015684,-0.43779516,0.75395948,-0.39680234,0.52353901,0
2.2153459,-1.3251233,-5.4800167,0.084685057,-0.73160005,-0.67645359,0
1.2933698,-2.6834791,2.964222,0.30307347,-0.62781298,0.71693599,0
0.8096627,3.7205706,3.1944535,-0.084685057,0.73160005,0.67645359,0
-2.0286603,-2.79037,2.0984004,-0.48629528,-0.62289464,0.61279577,0
-2.9993846,2.5723963,4.1750956,-0.084685057,0.73160005,0.67645359,0
-1.6468514,4.8091054,2.2777512,-0.084685057,0.73160005,0.67645359,0
-3.5939667,2.2648101,4.2361174,-0.084685057,0.73160005,0.67645359,0
-2.0266085,-4.8537693,-2.2843156,0.084685057,-0.73160005,-0.67645359,0
1.0507851,6.1590166,0.65632796,-0.084685057,0.73160005,0.67645359,0
-3.0839207,-1.4715366,-4.2498093,-0.8702631,0.27631512,-0.40778926,0
0.82053471,-4.7204022,0.95157784,0.13788217,-0.66375661,0.73512954,0
-3.9845994,1.1694744,0.0057380199,-0.97505844,0.078934848,-0.20743722,0
2.0507431,5.224514,1.8361633,-0.084685057,0.73160005,0.67645359,0
-1.377682,-1.6105528,-5.730485,0.084685057,-0.73160005,-0.67645359,0
-1.438082,-1.9312406,-5.747262,0.084685057,-0.73160005,-0.67645359,0
1.1244251,3.8849621,3.548754,-0.084685057,0.73160005,0.67645359,0
3.5092723,-2.201273,-4.8365254,0.084685057,-0.73160005,-0.67645359,0
0.45019007,1.207304,-4.0819621,0.1026969,0.68168545,-0.72440195,0
-3.7751374,3.5743351,1.1178067,-0.91130561,0.21766207,-0.34949279,0
-3.8885186,-0.88907254,-0.99971342,-0.99386728,-0.013572842,-0.1097427,0
3.6677637,1.801808,-0.96751118,0.88128287,0.37177664,-0.2917574,0
-1.8873186,-5.0147786,-0.077517509,-0.51231724,-0.61425042,0.60018921,0
2.4696364,2.1374989,-2.382376,0.61546463,0.57230604,-0.54191232,0
-0.8911438,-6.0029387,-1.0975511,0.084685057,-0.73160005,-0.67645359,0
3.2281518,3.8786077,0.68800592,0.82596749,0.43126753,-0.36302316,0
2.001205,-3.4260802,-3.4511797,0.084685057,-0.73160005,-0.67645359,0
-3.1085699,2.8834786,-0.60102749,-0.77113295,0.38181594,-0.50948077,0
-0.50305128,-3.8639545,1.8846074,-0.14993972,-0.68051845,0.71722555,0
4.1112123,-1.9197373,-2.5404694,0.99231797,0.12336951,-0.0091987848,0
1.3297317,-0.073854923,-5.0194683,0.29706025,0.66655701,-0.68370795,0
-1.1110026,1.3702469,5.9945331,-0.084685057,0.73160005,0.67645359,0
-4.4167528,3.5539155,2.7078166,-0.084685057,0.73160005,0.67645359,0
1.8330255,-5.1763072,-1.4800658,0.084685057,-0.73160005,-0.67645359,0
-1.0319138,5.428328,-0.34915614,-0.16150278,0.65983689,-0.73384738,0
