2.0411108,1.8915279,2.2224772,-0.28892818,0.55072904,0.78308237,0
-2.235332,2.6026602,-1.941802,-0.57791221,0.55178595,-0.60129011,0
-3.5888343,2.7329082,-0.59400594,-0.74333668,0.38641053,-0.54601973,0
-1.6597718,-0.30726767,-2.9711165,0.28892818,-0.55072904,-0.78308237,0
-1.1137745,1.1297824,1.2284204,-0.28892818,0.55072904,0.78308237,0
1.6190813,-0.14028573,-1.9491515,0.28892818,-0.55072904,-0.78308237,0
0.95525002,-2.4859345,-0.58463633,0.28892818,-0.55072904,-0.78308237,0
-3.5659602,-0.88986325,-1.6875032,-0.95688999,-0.14075595,-0.25406536,0
-1.3007079,3.3977637,-1.7845267,-0.32604367,0.71246386,-0.62136209,0
-0.027281523,-2.5660205,-0.96575093,0.28892818,-0.55072904,-0.78308237,0
2.7713957,-1.9109012,-0.07896769,0.28892818,-0.55072904,-0.78308237,0
1.5211496,0.4702965,2.5424433,-0.28892818,0.55072904,0.78308237,0
-2.3167675,0.63820761,1.4990063,-0.28892818,0.55072904,0.78308237,0
-0.62499332,0.16001463,2.2381849,-0.28892818,0.55072904,0.78308237,0
1.2227868,-1.3614447,-1.041142,0.28892818,-0.55072904,-0.78308237,0
-2.2944028,-2.7947156,-1.3024807,0.28892818,-0.55072904,-0.78308237,0
1.8581666,3.7445111,-0.093379498,0.54873627,0.76553452,-0.33592474,0
0.58741355,1.8546946,-3.6028423,0.28892818,-0.55072904,-0.78308237,0
-1.5439982,-2.0181432,3.1778011,-0.28892818,0.55072904,0.78308237,0
-0.58900976,1.6620181,1.41909,-0.28892818,0.55072904,0.78308237,0
-0.31648144,3.3159633,-2.0893383,-0.079750828,0.80127919,-0.59295154,0
-2.6105609,-3.1089733,-0.029327631,-0.75726914,-0.63191378,0.16501057,0
4.1713457,-1.6855217,-0.057917476,0.28892818,-0.55072904,-0.78308237,0
1.5474844,1.8978357,-3.3419356,0.28892818,-0.55072904,-0.78308237,0
-1.2329593,-3.4309494,1.3933063,-0.36425501,-0.81968713,0.44207609,0
-3.6023161,-1.3295348,1.39467,-0.83499229,-0.54508913,0.075271308,0
1.2631259,-1.5591526,-1.1320915,0.28892818,-0.55072904,-0.78308237,0
2.7859588,-2.1802912,0.22019225,0.28892818,-0.55072904,-0.78308237,0
3.0407374,2.4089031,-0.096197128,0.82580024,0.55718517,-0.087169766,0
3.1160059,-0.21552259,-1.2669466,0.28892818,-0.55072904,-0.78308237,0
2.9935303,-0.95860338,2.2375026,0.80789346,-0.29859829,0.50808191,0
1.8984449,0.14107358,3.1967351,-0.28892818,0.55072904,0.78308237,0
-1.4951068,0.10735548,-3.2748904,0.28892818,-0.55072904,-0.78308237,0
1.7836797,-0.94447219,3.8434286,-0.28892818,0.55072904,0.78308237,0
-1.7136137,-2.6080368,2.7400894,-0.29946667,-0.8289113,0.47246778,0
2.3483849,3.5576339,0.23268223,0.67516065,0.69713247,-0.24117279,0
-2.6028285,2.3338029,-0.096532285,-0.28892818,0.55072904,0.78308237,0
1.6632658,1.9275419,-3.3042505,0.28892818,-0.55072904,-0.78308237,0
1.3944118,1.8924255,-3.5097468,0.28892818,-0.55072904,-0.78308237,0
2.2676377,1.1577083,-2.594337,0.28892818,-0.55072904,-0.78308237,0
1.8720315,3.5015445,-1.2595501,0.48241657,0.79028046,-0.37779754,0
2.0997412,-0.20055139,-1.4556465,0.28892818,-0.55072904,-0.78308237,0
-1.7186501,-3.9579597,0.051823854,-0.51078284,-0.78049725,0.36045116,0
2.3589604,-3.0138104,1.7262938,0.48243511,-0.6227591,0.61597681,0
0.70983255,-1.5991979,3.7098775,-0.28892818,0.55072904,0.78308237,0
0.57005894,4.2355938,-0.19077396,-0.28892818,0.55072904,0.78308237,0
-1.8847433,1.7794483,-3.2261009,-0.576518,0.55292821,-0.60157907,0
1.0118983,-4.0639749,0.43263853,0.28892818,-0.55072904,-0.78308237,0
-3.25647,-1.9304111,0.96026516,-0.81529003,-0.57030457,0.10027421,0
-1.5257001,-3.6699469,-0.63832724,0.28892818,-0.55072904,-0.78308237,0
3.9159999,0.98021442,0.065595627,0.94386733,0.30066758,0.13679722,0
0.10891384,-2.5251384,3.1816349,0.13320486,-0.78688538,0.60255122,0
2.2587759,-1.9697132,2.7375803,0.61300707,-0.52186394,0.59319514,0
-2.187835,-3.0460825,0.75930285,-0.61049449,-0.73606473,0.29241264,0
0.072205603,-3.1777453,-0.18189228,0.28892818,-0.55072904,-0.78308237,0
2.1185961,-1.7750955,-0.61084914,0.28892818,-0.55072904,-0.78308237,0
0.80833167,-4.0081453,1.2209342,0.10539994,-0.79469675,0.59778589,0
-1.6433687,1.7770407,-3.1687961,-0.49358428,0.61517906,-0.61475956,0
-3.9343891,-0.45086533,-0.44795823,-0.95552927,-0.2163274,-0.20041512,0
-3.4033017,-1.9337345,-2.5636823,-0.95717043,-0.18205343,-0.22512497,0
-0.50120521,-3.4262199,-0.49422193,0.28892818,-0.55072904,-0.78308237,0
1.4200032,-1.3541579,3.7828937,-0.28892818,0.55072904,0.78308237,0
-2.8831923,-2.2561219,1.7824967,-0.64294541,-0.7176773,0.26750791,0
0.11251748,1.8346863,-3.973805,0.28892818,-0.55072904,-0.78308237,0
3.8295054,1.1457496,1.2191665,0.95395911,0.23441282,0.18711661,0
1.8674164,-1.8841965,3.1366882,0.56749326,-0.56024063,0.60339195,0
-3.2260239,-2.1400154,1.3633449,-0.7721042,-0.61765808,0.14951122,0
-3.3516088,-2.2063935,1.239867,-0.76409239,-0.62546897,0.15796047,0
2.0914805,-3.377315,0.49318409,0.28892818,-0.55072904,-0.78308237,0
-0.11181736,1.4378295,-3.5044851,0.28892818,-0.55072904,-0.78308237,0
-2.9095614,-2.8385024,-0.11109328,-0.79525399,-0.59346908,0.12395805,0
-3.4378047,-1.9977078,1.9741395,-0.71656412,-0.66684151,0.2045933,0
-3.052073,-2.6297197,-0.78178644,-0.83430862,-0.54601014,0.076171219,0
0.89507389,0.902179,2.2418768,-0.28892818,0.55072904,0.78308237,0
-0.76994604,-3.4706488,-0.27814567,0.28892818,-0.55072904,-0.78308237,0
2.2716632,-2.5993633,1.9131689,0.53291065,-0.58700287,0.60945368,0
0.20977926,-3.0654802,2.559778,0.065121196,-0.80476749,0.59000719,0
-2.1479514,-3.8020763,-0.18502331,-0.65797341,-0.7083953,0.25543517,0
0.47011083,0.72804582,2.4263651,-0.28892818,0.55072904,0.78308237,0
-2.0903597,3.8437338,-0.85854006,-0.28892818,0.55072904,0.78308237,0
-1.004669,0.83909482,-3.5102522,0.28892818,-0.55072904,-0.78308237,0
-3.0415468,0.8475489,-2.4173226,-0.80515319,0.30273503,-0.50998014,0
2.7430806,0.69345152,-1.9255642,0.28892818,-0.55072904,-0.78308237,0
2.3862691,-3.3266218,1.4225031,0.48705977,-0.61963606,0.6154868,0
-3.1450381,-2.4145415,0.38115406,-0.81661344,-0.56869185,0.098651767,0
1.9113426,3.5371938,-0.18074226,0.62425888,0.72853059,-0.28203541,0
-2.260076,0.36551118,1.6128759,-0.28892818,0.55072904,0.78308237,0
0.88146484,0.82282436,-2.7857642,0.28892818,-0.55072904,-0.78308237,0
0.78070772,3.3576708,0.31551111,-0.28892818,0.55072904,0.78308237,0
4.2144403,-0.48501641,-0.25272965,0.94980705,0.062416643,0.30654675,0
3.8069696,-0.2127772,1.4645426,0.93033969,-0.03141056,0.36535117,0
-3.1761065,-1.0225269,-2.5973616,-0.93197352,0.025281727,-0.36164367,0
-0.7424109,4.0830402,-0.99200845,-0.069182612,0.80381846,-0.59083825,0
2.8952019,2.9733155,0.36008525,0.82404596,0.55942583,-0.089392781,0
1.7381952,-1.1622609,3.7698765,-0.28892818,0.55072904,0.78308237,0
-2.5675771,1.7038672,-2.7158005,-0.6326136,0.50410783,-0.58794165,0
-3.9545271,1.4400736,-0.049209893,-0.28892818,0.55072904,0.78308237,0
3.4322369,-1.6734941,1.5905607,0.81298774,-0.29079157,0.50447112,0
0.19325864,0.70990181,-3.1117156,0.28892818,-0.55072904,-0.78308237,0
3.9283485,-1.1878552,0.63449657,0.9104948,-0.094690859,0.40253314,0
-2.9760818,1.5851983,-1.9210653,-0.78047466,0.33819783,-0.52581507,0
1.0682769,-0.092081547,-1.8772786,0.28892818,-0.55072904,-0.78308237,0
0.78104615,-3.6597037,0.17340493,0.28892818,-0.55072904,-0.78308237,0
1.3230083,3.3713899,0.88164353,-0.28892818,0.55072904,0.78308237,0
1.7781188,-3.7263753,1.0245897,0.3033765,-0.72314084,0.62050778,0
3.5292852,-1.0698315,-0.36894917,0.28892818,-0.55072904,-0.78308237,0
0.68061697,-4.1832085,0.63151431,0.28892818,-0.55072904,-0.78308237,0
-1.4738289,1.8130054,0.54533756,-0.28892818,0.55072904,0.78308237,0
3.5505106,0.74314129,-1.8865672,0.28892818,-0.55072904,-0.78308237,0
-3.0662138,-2.9858041,-0.12476683,-0.77551872,-0.61424595,0.14585167,0
2.0189281,0.038500547,3.4048655,-0.28892818,0.55072904,0.78308237,0
3.0909834,2.5134158,-0.84006763,0.73891324,0.64837253,-0.18335837,0
-0.65690714,-1.653335,-1.3838251,0.28892818,-0.55072904,-0.78308237,0
2.8603528,0.078541219,-1.5506942,0.28892818,-0.55072904,-0.78308237,0
-0.64434683,-0.7620706,2.8173742,-0.28892818,0.55072904,0.78308237,0
-1.4030138,-2.706809,3.1142409,-0.26454106,-0.83204776,0.4875598,0
-0.89190489,-2.7049661,3.0822999,-0.12698743,-0.8327871,0.53883195,0
-0.22418112,-2.7486997,-0.49402642,0.28892818,-0.55072904,-0.78308237,0
1.3534834,2.6105065,1.0434299,-0.28892818,0.55072904,0.78308237,0
-1.0944629,-3.8383942,-0.12680268,0.28892818,-0.55072904,-0.78308237,0
0.25289309,2.4850533,-3.7243986,-0.062944353,0.80527014,-0.58955753,0
1.1362907,1.7647505,1.7204881,-0.28892818,0.55072904,0.78308237,0
-0.25148833,-3.2955844,-0.25061655,0.28892818,-0.55072904,-0.78308237,0
2.9017823,2.3553007,-1.2556562,0.70366937,0.6767891,-0.21634698,0
2.2873425,0.79668421,-2.1912425,0.28892818,-0.55072904,-0.78308237,0
-0.40686452,2.4986339,-3.0943081,-0.18292046,0.77114069,-0.6098215,0
-3.6383686,2.2114198,-0.16584741,-0.28892818,0.55072904,0.78308237,0
-3.1334791,1.9954965,-1.5390062,-0.71077734,0.42456424,-0.56083941,0
-0.25627083,3.5740328,-1.7274199,0.021401152,0.8214792,-0.5698368,0
-2.1987207,0.26282334,-3.5111547,0.28892818,-0.55072904,-0.78308237,0
-0.77572572,2.1457963,-3.5877142,-0.29220766,0.7282033,-0.61994731,0
4.2464108,0.74096823,-1.6203356,0.28892818,-0.55072904,-0.78308237,0
-0.003883779,-2.5861259,-0.94637918,0.28892818,-0.55072904,-0.78308237,0
2.3060141,3.3556063,-0.24401879,0.66369289,0.70472616,-0.25074446,0
-3.6541929,2.5068614,-0.8757565,-0.73561567,0.39577442,-0.54975647,0
0.5682857,-4.2031145,0.81520343,0.28892818,-0.55072904,-0.78308237,0
-0.27739912,-4.1919718,1.1152537,-0.12547708,-0.83269656,0.53932554,0
-1.183617,1.0744328,1.4357398,-0.28892818,0.55072904,0.78308237,0
-0.24094456,-2.8881922,-0.66094375,0.28892818,-0.55072904,-0.78308237,0
-4.0746589,-0.54566753,0.24943161,-0.9512167,-0.25759196,-0.16980322,0
2.9744291,-0.81234145,2.9571245,0.78818524,-0.32744572,0.5210982,0
-1.6890663,2.5192964,-2.4436686,-0.46130648,0.63665485,-0.6179539,0
-1.8978088,-3.3343368,-1.128459,0.28892818,-0.55072904,-0.78308237,0
3.4025464,1.7313263,-2.0418701,0.75100851,0.6376673,-0.17136693,0
-1.2315507,-3.8430142,-0.28433108,0.28892818,-0.55072904,-0.78308237,0
-3.2078502,-0.24570277,1.3764437,-0.28892818,0.55072904,0.78308237,0
3.632817,-1.7647266,1.1758941,0.81780964,-0.28325745,0.50095165,0
0.3866598,0.59717286,2.3928556,-0.28892818,0.55072904,0.78308237,0
0.043748617,-3.0983181,2.6357956,0.027244143,-0.81290686,0.58175617,0
0.70227349,-3.81655,0.39242435,0.28892818,-0.55072904,-0.78308237,0
3.2537675,-0.10093427,2.9623928,0.86848295,-0.19338495,0.45644233,0
-1.2756608,-2.5905085,-0.98279637,0.28892818,-0.55072904,-0.78308237,0
3.8504086,-1.5757773,0.42091554,0.88145471,-0.16615206,0.44207597,0
0.64864397,-1.938844,3.7782333,0.33394933,-0.70861089,0.6215694,0
0.070343137,-2.4335756,3.2209435,0.085890681,-0.7997576,0.59414697,0
3.1563704,-2.7219951,1.1877881,0.69929564,-0.43723792,0.56551629,0
1.3662958,-2.6157086,2.6962008,0.37936562,-0.6851424,0.62182128,0
0.33766443,2.7001531,0.585684,-0.28892818,0.55072904,0.78308237,0
-4.2116723,1.641423,-0.21372229,-0.28892818,0.55072904,0.78308237,0
0.86373371,3.4368393,-1.6119571,0.27279267,0.83141899,-0.48407304,0
-4.3199615,1.1939273,0.081743896,-0.28892818,0.55072904,0.78308237,0
2.531281,-2.7720015,0.40727234,0.28892818,-0.55072904,-0.78308237,0
-3.2550492,-2.2148254,1.2174377,-0.72887015,-0.65687364,0.19304258,0
-3.2873116,-1.8692871,1.1701462,-0.7937476,-0.59512204,0.12567633,0
-0.16651589,-2.3159239,-1.1311785,0.28892818,-0.55072904,-0.78308237,0
0.18074733,-2.6015306,3.059546,0.11632735,-0.79171109,0.59971797,0
-4.1288943,-0.62169379,0.50192332,-0.93393028,-0.34196517,-0.10408691,0
0.70843363,-1.8564427,4.1394053,0.27673161,-0.73500526,0.61902094,0
0.64747393,-0.6545974,-1.6409943,0.28892818,-0.55072904,-0.78308237,0
0.29755858,-4.318995,0.48593569,0.28892818,-0.55072904,-0.78308237,0
2.76949,-1.0520198,2.835135,0.7698921,-0.35251305,0.53197813,0
3.3515339,2.5344787,0.23153377,0.84912902,0.52520108,-0.05606842,0
-1.2300746,3.8114555,-1.2786158,-0.21068797,0.76133567,-0.61317092,0
-1.9090406,0.11631423,1.8550985,-0.28892818,0.55072904,0.78308237,0
0.85037625,4.4682217,-0.45483661,0.31423563,0.82720542,-0.46581888,0
0.18113238,-1.1662103,-1.819562,0.28892818,-0.55072904,-0.78308237,0
-3.241792,-1.978904,-0.77380395,-0.91056132,-0.41067722,-0.047140598,0
1.6915359,-2.8903937,2.4245141,0.39832273,-0.67465138,0.62143755,0
0.05349052,-0.24909711,2.6111271,-0.28892818,0.55072904,0.78308237,0
-3.8006482,0.50880194,-1.0092976,-0.92866707,0.037496641,-0.36901426,0
0.76619953,-4.0921879,1.1792231,0.07342755,-0.80281055,0.59169561,0
-1.0308021,0.44223511,1.8043928,-0.28892818,0.55072904,0.78308237,0
2.9011886,2.252682,2.2931135,-0.28892818,0.55072904,0.78308237,0
-3.0594814,-1.4937185,2.7222996,-0.28892818,0.55072904,0.78308237,0
1.4654489,-1.7158909,-0.91191584,0.28892818,-0.55072904,-0.78308237,0
0.41333449,0.19054294,2.4835844,-0.28892818,0.55072904,0.78308237,0
-2.0724542,1.2662842,0.77875805,-0.28892818,0.55072904,0.78308237,0
1.256507,0.74779475,-2.4739206,0.28892818,-0.55072904,-0.78308237,0
4.2718883,-1.0323262,-0.23388743,0.93167031,-0.026433647,0.36234197,0
-3.2654307,2.5939431,-0.67057014,-0.71999305,0.41410959,-0.55688703,0
2.4624417,-1.7029639,2.7412477,0.67485958,-0.46300539,0.57462215,0
0.55573702,3.1501718,0.69303429,-0.28892818,0.55072904,0.78308237,0
-1.4978782,-3.1763973,2.0242732,-0.33179301,-0.82487661,0.45770305,0
-3.8154855,2.050518,-0.35642004,-0.28892818,0.55072904,0.78308237,0
-0.47189248,1.8650414,-4.0746183,-0.25128305,0.74566227,-0.61712611,0
0.91047347,-1.6340284,4.2758765,-0.28892818,0.55072904,0.78308237,0
-2.3287609,-3.0210333,0.98357534,-0.62417608,-0.72857714,0.28209877,0
-0.28152359,-2.2594664,-1.1626869,0.28892818,-0.55072904,-0.78308237,0
3.0506546,0.79632151,2.8377626,0.92906308,-0.036072209,0.36815858,0
3.2844167,0.13896379,-1.2357074,0.28892818,-0.55072904,-0.78308237,0
0.075835884,-0.58113712,3.172966,-0.28892818,0.55072904,0.78308237,0
0.40212545,-0.10492527,-2.2524736,0.28892818,-0.55072904,-0.78308237,0
-0.53123438,-4.0507398,0.30643463,0.28892818,-0.55072904,-0.78308237,0
1.610481,-2.7883902,2.6761146,0.37416857,-0.6879456,0.62187517,0
0.32992542,-0.19563651,2.9811046,-0.28892818,0.55072904,0.78308237,0
-3.9995747,0.42935783,-1.0336301,-0.93979943,-0.0072534978,-0.34164968,0
-3.7759886,-1.6772065,-0.67277253,-0.93268436,-0.34640935,-0.10050175,0
-1.1803575,-4.0431209,0.028112888,0.28892818,-0.55072904,-0.78308237,0
-1.4518495,-0.36727023,2.1303849,-0.28892818,0.55072904,0.78308237,0
-0.023181081,3.803658,-1.8232312,0.068525016,0.82776701,-0.55687183,0
-0.54546106,-2.5873783,3.3725324,-0.02767235,-0.82243067,0.56819201,0
-2.0674973,-1.1747528,-2.3356769,0.28892818,-0.55072904,-0.78308237,0
-1.1461916,-2.9808738,2.5084555,-0.22972861,-0.8339529,0.50174421,0
2.9121163,-3.068018,0.42577982,0.28892818,-0.55072904,-0.78308237,0
3.5519478,-1.0195209,-0.64087272,0.28892818,-0.55072904,-0.78308237,0
-2.8400037,0.25526273,-3.3524656,-0.79215205,0.32180217,-0.51859277,0
-1.9913503,-1.5925345,3.0361257,-0.28892818,0.55072904,0.78308237,0
3.9033098,0.90223092,-0.74044061,0.92006588,0.38579062,0.068149716,0
-2.7786098,-3.3109736,-0.81831634,-0.82946891,-0.55243069,0.082472444,0
2.5259256,-2.4585257,2.2137043,0.61264515,-0.52218437,0.59328693,0
3.939362,0.66779637,0.4163245,0.95570534,0.21386038,0.20221512,0
0.16516185,3.9471219,-1.4287112,0.11112716,0.83173198,-0.5439418,0
-0.56296551,-2.5819623,3.5865736,-0.053663373,-0.82599878,0.56111163,0
1.5855911,4.0192232,0.067914486,-0.28892818,0.55072904,0.78308237,0
-1.2559798,0.86550301,-3.4602685,0.28892818,-0.55072904,-0.78308237,0
-0.96074784,-4.2147465,0.59140897,-0.38333756,-0.81608486,0.43250185,0
0.048859298,-2.3294988,-1.0581673,0.28892818,-0.55072904,-0.78308237,0
1.5863651,1.5031004,2.3283911,-0.28892818,0.55072904,0.78308237,0
2.0557373,-2.6283588,0.035032988,0.28892818,-0.55072904,-0.78308237,0
-2.7983468,2.0261934,0.15080313,-0.28892818,0.55072904,0.78308237,0
3.1897449,2.032959,-1.278028,0.72048861,0.66371447,-0.20094609,0
2.5149658,-1.8053768,2.3594053,0.67376816,-0.46412021,0.57500345,0
1.8533804,-2.9971962,0.48796022,0.28892818,-0.55072904,-0.78308237,0
-0.13306707,-2.1836071,3.8140445,-0.28892818,0.55072904,0.78308237,0
2.5581949,3.5728741,0.85644007,-0.28892818,0.55072904,0.78308237,0
-2.0240135,1.9983592,0.3982898,-0.28892818,0.55072904,0.78308237,0
1.8157024,1.4288199,2.0832229,-0.28892818,0.55072904,0.78308237,0
1.3893285,0.34943128,2.9092698,-0.28892818,0.55072904,0.78308237,0
2.9798808,2.421567,1.223309,0.9022302,0.43018568,0.030346781,0
3.6905065,0.67791855,-1.8385012,0.28892818,-0.55072904,-0.78308237,0
3.7414532,0.83528906,0.85812628,0.95729643,0.17491986,0.23018837,0
1.2627313,-0.63256776,3.7079258,-0.28892818,0.55072904,0.78308237,0
1.9700297,0.62038696,-2.3309069,0.28892818,-0.55072904,-0.78308237,0
-4.0832968,0.7618165,-0.37820768,-0.93401408,0.017345041,-0.35681486,0
2.0881047,0.87965918,-2.3269358,0.28892818,-0.55072904,-0.78308237,0
-1.7386626,0.43453914,1.6176351,-0.28892818,0.55072904,0.78308237,0
0.60708749,3.1838,-2.1842246,0.17038909,0.83449054,-0.52401632,0
-2.4016857,-1.2072473,-2.4803472,0.28892818,-0.55072904,-0.78308237,0
-2.6538179,-2.7605479,0.22337556,-0.76196569,-0.62749767,0.16017199,0
0.85111076,2.5438361,1.2139819,-0.28892818,0.55072904,0.78308237,0
2.8926592,2.6991665,-0.62398052,0.75330645,0.63557285,-0.16904604,0
-0.3630164,3.0420344,0.4869498,-0.28892818,0.55072904,0.78308237,0
2.9649999,-1.1166455,2.7382734,0.78847259,-0.32703951,0.52091855,0
-4.0634747,1.1054456,-0.54034626,-0.92626321,0.045941472,-0.37406647,0
-1.6472608,-1.1796505,2.7243919,-0.28892818,0.55072904,0.78308237,0
3.5059457,2.3582456,0.81589854,0.89982116,0.43550017,0.025720239,0
2.2964332,-1.8430212,2.5252814,0.65331399,-0.48447853,0.58177435,0
2.6721323,3.5339971,0.49525547,0.73491102,0.65180105,-0.18724632,0
-3.9461918,0.15201703,0.83868968,-0.28892818,0.55072904,0.78308237,0
-3.3567562,-0.7925545,-2.3788571,-0.94807887,-0.051034689,-0.31391385,0
-0.1708141,-0.60858577,2.9724164,-0.28892818,0.55072904,0.78308237,0
-1.0927103,-1.3773825,3.282198,-0.28892818,0.55072904,0.78308237,0
-1.8514954,0.76927251,1.2105815,-0.28892818,0.55072904,0.78308237,0
3.0739956,0.38645077,3.2994604,0.88655961,-0.15477207,0.43595612,0
-3.3553298,0.55438167,-2.1819322,-0.87483013,0.1803409,-0.44961047,0
1.8215506,2.5648956,1.5419847,-0.28892818,0.55072904,0.78308237,0
-3.080374,-0.54963887,1.8805009,-0.28892818,0.55072904,0.78308237,0
-3.7194541,-1.0005383,-0.70919007,-0.9516921,-0.25403059,-0.17248334,0
2.2841802,1.1351887,-2.5282471,0.28892818,-0.55072904,-0.78308237,0
3.2100337,0.5969137,-1.6560669,0.28892818,-0.55072904,-0.78308237,0
0.93711936,-2.4225032,3.0909743,0.35555249,-0.69773483,0.62189108,0
-2.046411,3.2896545,-0.49661577,-0.28892818,0.55072904,0.78308237,0
-2.3279688,1.6419274,0.30989948,-0.28892818,0.55072904,0.78308237,0
3.8513117,0.54111582,0.04296279,0.95096117,0.25944725,0.16840425,0
-3.4859254,1.8035473,-1.5971714,-0.80187339,0.30763093,-0.51221317,0
-1.0069257,-0.11516237,2.2616487,-0.28892818,0.55072904,0.78308237,0
1.7477386,-1.9555435,2.8171639,0.5102132,-0.60354441,0.6127125,0
-3.9293489,0.48746535,-1.0475409,-0.93301404,0.021276325,-0.35921064,0
-4.0364027,-0.15787548,-0.10812068,-0.95616353,-0.20672901,-0.20739955,0
2.6693008,1.0052598,-2.4530485,0.28892818,-0.55072904,-0.78308237,0
2.6163902,3.1856003,-0.29581928,0.69843984,0.68068588,-0.221017,0
2.4005108,1.6964036,2.4679422,-0.28892818,0.55072904,0.78308237,0
-0.54717314,-0.12268102,-2.4792807,0.28892818,-0.55072904,-0.78308237,0
-2.5207946,3.0772941,-1.3842124,-0.57463175,0.55446827,-0.60196614,0
3.8557587,0.49956214,0.40326726,0.95507812,0.22214308,0.19615857,0
-3.4262424,0.9672519,-1.885951,-0.85237873,0.22441418,-0.47232276,0
1.6797273,-1.9857336,3.1147697,0.49755841,-0.61243474,0.61429584,0
-1.7359496,-3.2675185,-0.84676826,0.28892818,-0.55072904,-0.78308237,0
1.9438612,0.28816617,3.1630032,-0.28892818,0.55072904,0.78308237,0
-0.77140987,1.6462477,-3.8545251,0.28892818,-0.55072904,-0.78308237,0
-2.1316533,-2.5846195,2.6402333,-0.43855017,-0.80323642,0.40309441,0
2.2140255,1.5624001,2.4331279,-0.28892818,0.55072904,0.78308237,0
0.74858141,-2.5547113,-0.68177605,0.28892818,-0.55072904,-0.78308237,0
-3.0173321,-2.5128722,-1.3272524,-0.89529735,-0.44513395,-0.0172759,0
1.714846,3.9070039,-0.47330832,0.54785472,0.76590782,-0.33651245,0
1.8178024,3.6095097,-0.26819921,0.55807739,0.76150215,-0.32964236,0
0.76310289,-3.385649,2.2185283,0.16524455,-0.77700233,0.60742211,0
-1.1695827,-0.1606791,-2.9656341,0.28892818,-0.55072904,-0.78308237,0
-3.2351115,-2.0399451,2.0675254,-0.70507568,-0.67572784,0.21508175,0
0.0096764266,-3.3690672,-0.30503893,0.28892818,-0.55072904,-0.78308237,0
2.4643908,-1.3705224,2.7879229,0.65683258,-0.48104677,0.58065909,0
-3.0356493,-2.9820523,-1.2849805,-0.88269699,-0.46991816,0.0048035383,0
0.92656225,-2.1325531,3.5303488,0.26428688,-0.74029803,0.61815155,0
-3.3814745,-2.3522019,-1.1321144,-0.92039937,-0.38485503,-0.068930805,0
3.2522736,2.2804461,-0.20128202,0.83488536,0.54523343,-0.075412214,0
-0.56996876,-3.2631018,-0.32848704,0.28892818,-0.55072904,-0.78308237,0
-0.15004033,2.7186875,0.78875744,-0.28892818,0.55072904,0.78308237,0
3.1585953,2.3082855,-1.9082162,0.6732949,0.69839001,-0.24274558,0
-3.5055614,2.5596306,-1.053859,-0.75572753,0.37093401,-0.53970712,0
-2.0638182,1.9372944,-3.071043,-0.557091,0.56849676,-0.60536027,0
2.0903962,1.1969522,2.5684121,-0.28892818,0.55072904,0.78308237,0
-3.3302093,0.61850047,-2.1870286,-0.85933489,0.21134697,-0.4656994,0
0.60188562,-0.47182518,-1.7727239,0.28892818,-0.55072904,-0.78308237,0
-1.6385398,0.35664517,1.5881093,-0.28892818,0.55072904,0.78308237,0
-3.4661777,-1.1697246,-2.4504657,-0.95448232,-0.10243988,-0.28012413,0
-3.2404404,-2.5480537,-0.55034697,-0.86965263,-0.49298733,0.02584058,0
1.4528503,-1.6953392,-0.92750061,0.28892818,-0.55072904,-0.78308237,0
-1.680815,0.29156065,1.5089259,-0.28892818,0.55072904,0.78308237,0
3.8975809,1.1748314,-1.1430721,0.87755692,0.47928834,-0.013289869,0
0.093814373,-1.8526747,-1.3239095,0.28892818,-0.55072904,-0.78308237,0
1.2645476,1.1910342,2.2755432,-0.28892818,0.55072904,0.78308237,0
3.7064149,0.2919569,1.9207872,0.933568,-0.019108295,0.35789037,0
-0.72725612,2.5097792,-2.9484041,-0.24896325,0.74660146,-0.61693084,0
3.5444067,-0.26481599,-0.9107703,0.28892818,-0.55072904,-0.78308237,0
-1.6150124,-3.7756231,1.0939479,-0.40708455,-0.81101054,0.4201715,0
0.96377897,1.8829533,1.8271384,-0.28892818,0.55072904,0.78308237,0
-0.056130648,-0.27149999,-2.3432906,0.28892818,-0.55072904,-0.78308237,0
4.2546916,-0.45743024,-0.40058005,0.95525616,0.11176831,0.2738491,0
-3.259254,-0.30532831,1.5694988,-0.28892818,0.55072904,0.78308237,0
-3.3838837,-1.7461016,2.062973,-0.73051602,-0.65550363,0.19147176,0
1.3529243,-1.6208788,-0.93144643,0.28892818,-0.55072904,-0.78308237,0
1.6767466,1.6159546,1.8963889,-0.28892818,0.55072904,0.78308237,0
-0.45069277,-2.6655664,3.3812087,-0.018261299,-0.82098967,0.57065094,0
-3.0416765,-2.5027289,-0.066249132,-0.80932963,-0.57743555,0.10748857,0
-2.5371976,-2.8321593,1.3272474,-0.63397092,-0.72298223,0.27454996,0
3.2734601,2.0223131,-1.2654109,0.74385023,0.64406645,-0.1785084,0
-3.4879882,-2.0751052,-1.4800549,-0.93170655,-0.34981167,-0.09774816,0
2.7111759,-1.1971216,-0.79462314,0.28892818,-0.55072904,-0.78308237,0
-1.4491161,2.1585529,0.26172888,-0.28892818,0.55072904,0.78308237,0
0.59965706,2.3617916,1.1693381,-0.28892818,0.55072904,0.78308237,0
1.581405,-0.63005078,3.4535227,-0.28892818,0.55072904,0.78308237,0
2.8738801,0.53121662,3.21912,-0.28892818,0.55072904,0.78308237,0
3.1084759,0.7785762,-2.130075,0.28892818,-0.55072904,-0.78308237,0
3.1445994,-0.079404235,2.8184569,0.87113261,-0.1880013,0.45363367,0
-1.4868926,-4.1308413,0.19304848,-0.48682269,-0.7888357,0.37515587,0
-2.647362,-2.3941262,1.6463125,-0.64371228,-0.71721601,0.26690048,0
-1.9395241,-1.7278334,3.0728598,-0.28892818,0.55072904,0.78308237,0
0.22891957,0.39306706,-2.5498316,0.28892818,-0.55072904,-0.78308237,0
-1.3268433,-2.5580027,-1.3079503,0.28892818,-0.55072904,-0.78308237,0
-2.7124627,0.34247571,1.2542329,-0.28892818,0.55072904,0.78308237,0
0.99063814,-4.1693816,1.2271094,0.12134189,-0.79030448,0.6005789,0
-3.3937979,-0.6873852,-1.9928141,-0.9471817,-0.045539856,-0.31744733,0
-0.76385415,1.6031739,0.9974432,-0.28892818,0.55072904,0.78308237,0
0.32608938,3.7494345,-1.8173208,0.12319601,0.83255577,-0.54006815,0
-1.7583661,1.9503931,0.71465576,-0.28892818,0.55072904,0.78308237,0
3.6148906,1.8067321,0.76194155,0.91316348,0.40417576,0.052673012,0
0.084007829,3.7806475,-0.24540746,-0.28892818,0.55072904,0.78308237,0
-3.834631,0.33859089,-0.83493549,-0.93557185,0.011051506,-0.35296345,0
0.007589519,2.9997249,-2.6936886,-0.033228442,0.81170636,-0.58311987,0
-3.3515859,1.8393836,-1.6489615,-0.74881643,0.37963629,-0.54327738,0
0.094004691,0.17025578,2.7019691,-0.28892818,0.55072904,0.78308237,0
3.5869346,0.097680569,1.9695652,0.93291408,-0.021664351,0.3594467,0
-3.0045679,2.1172714,0.072333291,-0.28892818,0.55072904,0.78308237,0
1.0585108,0.20086217,2.6118839,-0.28892818,0.55072904,0.78308237,0
3.1847587,2.4639528,-0.87561345,0.74671954,0.64152396,-0.17566168,0
1.7677817,-0.54840159,3.8331485,-0.28892818,0.55072904,0.78308237,0
-3.4047184,-0.26811135,-2.2969534,-0.92259091,0.058236748,-0.38135862,0
2.7614212,1.6568322,2.4403491,-0.28892818,0.55072904,0.78308237,0
-1.5336264,-0.16735947,-3.2022457,0.28892818,-0.55072904,-0.78308237,0
0.56150711,3.6588862,-1.6756227,0.15112959,0.83394998,-0.53074223,0
2.5577953,0.26912403,3.5357356,-0.28892818,0.55072904,0.78308237,0
-2.3789206,-0.92477244,2.2885065,-0.28892818,0.55072904,0.78308237,0
3.733449,1.3359063,-1.3355095,0.84922731,0.5250569,-0.055930793,0
-1.55871,0.6365276,1.4374957,-0.28892818,0.55072904,0.78308237,0
0.82428521,2.830235,0.72196549,-0.28892818,0.55072904,0.78308237,0
-0.32190806,1.207855,1.6340084,-0.28892818,0.55072904,0.78308237,0
-0.12947512,-2.8239937,2.9255731,-0.0046272874,-0.81876194,0.57411456,0
-1.8776838,-3.4737694,1.2317696,-0.48902148,-0.78810459,0.37383044,0
4.1767669,-1.5168612,-0.029925466,0.28892818,-0.55072904,-0.78308237,0
-1.6270897,-1.9587419,-1.7947621,0.28892818,-0.55072904,-0.78308237,0
2.2680042,1.4730551,-2.9218554,0.28892818,-0.55072904,-0.78308237,0
0.26804233,1.7659066,-3.6045103,0.28892818,-0.55072904,-0.78308237,0
1.3600271,1.759007,-3.0535181,0.28892818,-0.55072904,-0.78308237,0
2.8583505,-2.8516767,1.2144258,0.5900631,-0.54168379,0.59866869,0
-3.7667532,0.87276715,0.38621014,-0.28892818,0.55072904,0.78308237,0
3.9846261,0.72190428,-0.45641732,0.92844069,0.36068797,0.088894039,0
3.8843696,-0.88037425,1.3251201,0.90257186,-0.11602223,0.41461188,0
-0.49588487,-3.6023507,2.1063769,-0.12751633,-0.83281833,0.5386588,0
-0.67970675,0.34866762,-2.7982481,0.28892818,-0.55072904,-0.78308237,0
2.8460255,2.8825016,-1.1804047,0.63842028,0.72037381,-0.27107388,0
2.9226303,-1.3091084,2.3111084,0.78687572,-0.32929179,0.52191335,0
0.44008076,3.5473444,-1.7733006,0.17148551,0.83451086,-0.52362621,0
3.733454,0.72491169,1.5060812,0.95595157,0.12175971,0.26707885,0
-1.4167159,1.984174,-3.1367373,-0.44182533,0.64894164,-0.61940712,0
2.4343715,-3.3610442,0.71933103,0.28892818,-0.55072904,-0.78308237,0
-4.0602183,1.1153071,-0.21277907,-0.92139053,0.062113523,-0.38364223,0
-0.73297501,-1.6399791,3.2444758,-0.28892818,0.55072904,0.78308237,0
-0.36235404,2.181035,-3.8620591,-0.19858763,0.76569873,-0.6117748,0
2.6666315,3.0588493,0.066626787,0.75518703,0.6338439,-0.16713625,0
3.5436668,-0.44282752,1.388822,0.90588486,-0.10730651,0.40970469,0
-1.9028193,-3.5804462,1.1504974,-0.4708854,-0.79393494,0.38462222,0
-0.88452637,-3.2228181,1.8279691,-0.22598812,-0.83408678,0.50321835,0
-3.4375241,0.82095623,0.63517922,-0.28892818,0.55072904,0.78308237,0
0.74636775,1.9738274,-3.5832493,0.28892818,-0.55072904,-0.78308237,0
-2.7380681,0.25007617,-3.6801231,-0.81113905,0.29364246,-0.50579399,0
-1.635895,-1.5861205,-1.9977711,0.28892818,-0.55072904,-0.78308237,0
-0.51503569,2.6832528,0.70325291,-0.28892818,0.55072904,0.78308237,0
0.95359159,-2.065104,3.8238742,0.34688944,-0.70215791,0.62180555,0
-1.1999348,-3.8625693,1.019527,-0.36628893,-0.81932294,0.44106954,0
3.814558,-1.6998048,0.50126183,0.85232639,-0.22451083,0.47237143,0
4.3486319,-0.32604012,-0.27485919,0.95733285,0.17119716,0.23281991,0
2.3017483,-3.119313,1.5273182,0.48068392,-0.62393391,0.616157,0
-0.18426204,4.0952129,-1.5157642,0.047331583,0.8251853,-0.56287569,0
-0.95409358,3.798945,-0.32394028,-0.28892818,0.55072904,0.78308237,0
2.9498806,-2.0770357,1.430433,0.68910599,-0.44817525,0.56944871,0
1.7581192,1.7245716,-3.0613177,0.28892818,-0.55072904,-0.78308237,0
0.20031336,-1.1625521,-1.6650813,0.28892818,-0.55072904,-0.78308237,0
3.2414713,2.6554086,0.14471531,0.8443324,0.5321368,-0.062715948,0
2.8213882,-1.9171255,2.3768282,0.69859964,-0.43799406,0.56579125,0
2.2079992,-2.5542762,-0.13952276,0.28892818,-0.55072904,-0.78308237,0
2.4778986,-1.6869113,-0.70812017,0.28892818,-0.55072904,-0.78308237,0
3.5355692,-2.1961169,0.99059594,0.79489362,-0.3178556,0.51682872,0
1.0288568,2.4298515,-3.3201535,0.13601217,0.83328462,-0.53585202,0
-0.13223273,-3.3172379,-0.51641905,0.28892818,-0.55072904,-0.78308237,0
-3.4147792,-1.2668766,-2.5756788,-0.9548955,-0.10723832,-0.27690181,0
3.3667188,1.9470268,-0.32342601,0.85175526,0.52131629,-0.05236733,0
-3.940263,-0.79047263,0.36568987,-0.93607044,-0.33402109,-0.11046347,0
3.484931,2.2220659,2.0351992,0.94703376,0.28418052,0.14956063,0
-1.5357361,-3.1751218,2.0362391,-0.3276965,-0.82544953,0.45961738,0
1.1424062,-0.67746675,3.2532132,-0.28892818,0.55072904,0.78308237,0
-1.6784095,-3.4558663,1.5214314,-0.39420086,-0.81384617,0.42691934,0
-3.9582095,0.10805839,-0.45041531,-0.9483884,-0.052990854,-0.31265232,0
1.4421667,-3.979104,1.0382441,0.19338021,-0.76753336,0.61114377,0
-2.3525088,2.6977119,-0.052009523,-0.28892818,0.55072904,0.78308237,0
1.2120708,2.5813227,1.0364004,-0.28892818,0.55072904,0.78308237,0
3.0280623,0.73344803,3.0190372,-0.28892818,0.55072904,0.78308237,0
-2.2339535,-2.5312438,-1.404579,0.28892818,-0.55072904,-0.78308237,0
-2.9675417,-2.8293612,-0.67529917,-0.81519502,-0.57041991,0.10039043,0
-1.4984584,2.2308946,0.2104007,-0.28892818,0.55072904,0.78308237,0
-1.1075191,-2.3767457,3.3184614,-0.16482177,-0.83436978,0.52598554,0
-0.53730822,-3.4813447,1.8471985,-0.16302074,-0.83432454,0.52661824,0
-0.046174049,0.25149322,-2.4984808,0.28892818,-0.55072904,-0.78308237,0
-3.1423943,-2.740694,-0.21838999,-0.8368637,-0.54254961,0.072794855,0
1.6127917,2.2411175,-3.1555464,0.30335885,0.82848394,-0.47073114,0
-3.4000583,-0.55697358,-2.6726151,-0.93232632,0.023933023,-0.36082536,0
-0.63516808,-1.1099097,-2.0306687,0.28892818,-0.55072904,-0.78308237,0
-2.9341321,-2.5267622,1.0305183,-0.70620674,-0.67487019,0.21406132,0
-3.7894502,-1.3657794,-0.19100654,-0.92002296,-0.38591069,-0.068049461,0
-3.7496779,1.1855848,0.16711396,-0.28892818,0.55072904,0.78308237,0
0.29189128,-1.0622201,-1.5672877,0.28892818,-0.55072904,-0.78308237,0
-0.78260362,3.6498103,-1.7103249,-0.177945,0.77282029,-0.60916698,0
-3.2111664,1.2989643,-2.2871466,-0.75715518,0.3691138,-0.53895372,0
0.47429076,3.15832,-2.3308873,0.073551767,0.82832015,-0.55540615,0
-4.2455573,0.88190484,-0.40020582,-0.93160105,0.026696116,-0.36250097,0
-0.73527724,-4.3589854,0.5904336,-0.31308496,-0.82734662,0.46634263,0
-0.6808266,-0.46192694,-2.4098327,0.28892818,-0.55072904,-0.78308237,0
4.1032333,-0.35533306,0.5779531,0.9439373,0.027435005,0.32898307,0
-4.0526013,1.3673289,-0.016906261,-0.28892818,0.55072904,0.78308237,0
3.1985686,1.9901952,1.5549229,0.94024312,0.3171832,0.12384483,0
-4.261004,0.48459765,-0.61690402,-0.93844324,-0.0011648536,-0.34543139,0
1.9535818,-1.2804921,3.6408896,0.5659427,-0.56148291,0.60369349,0
2.4031286,3.67519,0.29588485,0.726722,0.65864843,-0.19508338,0
1.6532149,-0.70163494,-1.4365401,0.28892818,-0.55072904,-0.78308237,0
-0.22065344,1.5539384,1.6128619,-0.28892818,0.55072904,0.78308237,0
3.5829849,-1.8662778,0.10266608,0.28892818,-0.55072904,-0.78308237,0
-3.3192444,-0.28504086,-2.5833731,-0.92014217,0.066077143,-0.38596916,0
1.5665983,-1.9695919,-0.74535054,0.28892818,-0.55072904,-0.78308237,0
0.4696632,3.2457314,0.66634125,-0.28892818,0.55072904,0.78308237,0
-2.2580545,1.101565,0.75097197,-0.28892818,0.55072904,0.78308237,0
0.45977491,-2.0631564,-1.1655455,0.28892818,-0.55072904,-0.78308237,0
1.579124,0.82968336,-2.4236236,0.28892818,-0.55072904,-0.78308237,0
1.2062621,-3.0687377,2.1569648,0.32726496,-0.71187299,0.62139726,0
-2.3905978,0.3615011,-3.6550169,0.28892818,-0.55072904,-0.78308237,0
0.14649354,-3.9214437,1.5421281,0.012644321,-0.81570154,0.57833487,0
-3.5923886,-2.114063,-0.10951829,-0.88448781,-0.46655992,0.0017809272,0
3.6838131,-1.2306919,1.2644688,0.8490001,-0.23059292,0.47542161,0
1.7505391,3.0738516,0.88018775,-0.28892818,0.55072904,0.78308237,0
1.0623969,3.9875312,-0.99891067,0.37462354,0.81778157,-0.43691033,0
-3.0956335,1.8125089,-2.024543,-0.719724,0.41441852,-0.55700511,0
-0.050725281,-0.5168438,-1.9789174,0.28892818,-0.55072904,-0.78308237,0
0.5581032,3.041132,-2.4654763,0.09095718,0.83005941,-0.55020744,0
-1.7128159,-2.4073892,-1.2920903,0.28892818,-0.55072904,-0.78308237,0
1.1759157,-3.8257499,0.47813284,0.28892818,-0.55072904,-0.78308237,0
-0.92586184,1.3814981,1.3582598,-0.28892818,0.55072904,0.78308237,0
2.2733688,-1.6028674,2.8889461,0.62822765,-0.50814831,0.58916497,0
-2.5482619,1.1897066,-2.9354987,-0.73523116,0.39623535,-0.54993874,0
1.5604589,1.8583221,-3.3567786,0.28892818,-0.55072904,-0.78308237,0
-0.17081682,3.7921827,0.069617629,-0.28892818,0.55072904,0.78308237,0
-0.49857163,1.6844224,-4.1157322,0.28892818,-0.55072904,-0.78308237,0
0.82550979,3.3723536,0.25638914,-0.28892818,0.55072904,0.78308237,0
2.0911272,0.76734674,-2.2044954,0.28892818,-0.55072904,-0.78308237,0
-2.9993753,2.9864717,-0.68281621,-0.28892818,0.55072904,0.78308237,0
3.3882477,1.312728,2.4462762,0.95468402,0.1047357,0.27858385,0
0.55695367,1.5529884,-3.6141071,0.28892818,-0.55072904,-0.78308237,0
-2.6047273,-2.8220868,0.90145993,-0.69349408,-0.68430108,0.22538429,0
3.13836,-2.8248005,0.78683144,0.65885293,-0.47906333,0.58000958,0
-0.16797256,-2.2387469,3.8975661,-0.28892818,0.55072904,0.78308237,0
-2.1774664,2.6118414,-2.2233591,-0.49778306,0.61227894,-0.61426914,0
2.2499063,-3.1142156,0.69556767,0.28892818,-0.55072904,-0.78308237,0
1.6846597,-0.48864061,-1.8337379,0.28892818,-0.55072904,-0.78308237,0
3.3133469,-0.054922581,2.4702196,0.88911647,-0.14891216,0.43277827,0
1.7980283,-1.1472652,3.9984252,0.60168201,-0.53177166,0.59598452,0
-2.0246539,2.4987829,0.29305542,-0.28892818,0.55072904,0.78308237,0
0.30519891,1.3848441,-3.2963028,0.28892818,-0.55072904,-0.78308237,0
-3.0030439,2.1099739,-0.11152826,-0.28892818,0.55072904,0.78308237,0
-1.7045474,1.5731391,0.80023187,-0.28892818,0.55072904,0.78308237,0
0.7622453,1.1434437,-3.1906269,0.28892818,-0.55072904,-0.78308237,0
-2.1711094,-2.5530162,-1.4699445,0.28892818,-0.55072904,-0.78308237,0
-3.5505233,-1.485405,-0.61151457,-0.93443078,-0.3401438,-0.10555255,0
0.2321527,0.85239601,1.9841607,-0.28892818,0.55072904,0.78308237,0
1.1682525,3.316262,-2.2501445,0.28463697,0.83039558,-0.47898328,0
-1.8323729,-3.134244,1.1617806,-0.46412605,-0.79599321,0.38856381,0
2.0777297,3.2112458,-1.1547596,0.50901949,0.78113919,-0.36155331,0
2.6191404,0.1772337,3.3842239,-0.28892818,0.55072904,0.78308237,0
-1.7285953,-2.7336149,-1.2864001,0.28892818,-0.55072904,-0.78308237,0
0.95145565,2.7857137,-2.5545096,0.18503553,0.83466923,-0.51873803,0
1.1707489,-3.0964944,-0.093041301,0.28892818,-0.55072904,-0.78308237,0
3.2958503,-1.4414303,1.8967837,0.77681154,-0.34320921,0.52798796,0
3.0886779,3.0093186,0.98695827,0.86275423,0.50431508,-0.036352456,0
2.6351223,1.3014815,-2.3104002,0.28892818,-0.55072904,-0.78308237,0
2.3041334,-2.7727094,1.7802016,0.54417998,-0.57849485,0.60762811,0
-0.35193604,2.3709507,-3.3076563,-0.20556106,0.76320142,-0.61259145,0
-1.8905909,-2.4994178,-1.2496463,0.28892818,-0.55072904,-0.78308237,0
-3.3198409,-2.1814513,-1.7590816,-0.94558632,-0.29200628,-0.14352289,0
1.9824743,-3.3891883,1.1054949,0.39803106,-0.67481589,0.62144572,0
2.5425415,0.72888768,3.1250739,-0.28892818,0.55072904,0.78308237,0
-4.3347688,0.34093484,0.17417729,-0.95626479,-0.12707031,-0.26345953,0
-3.6031802,-0.47401375,1.5339434,-0.28892818,0.55072904,0.78308237,0
3.1964154,-2.6619136,0.89322782,0.69547081,-0.44137675,0.56701589,0
-3.5752773,0.37625518,0.87272394,-0.28892818,0.55072904,0.78308237,0
1.2341411,-0.58322656,-1.6246474,0.28892818,-0.55072904,-0.78308237,0
-0.28616869,2.0383976,-3.8547645,-0.14570056,0.78314388,-0.60453045,0
-3.3507504,-2.1039526,-0.2555846,-0.88985628,-0.45617917,-0.0075004101,0
2.2791264,0.36161283,-1.8558508,0.28892818,-0.55072904,-0.78308237,0
-1.2335764,2.9531164,-2.3862157,-0.2619732,0.74126482,-0.6179778,0
-3.5077801,-0.73112643,-1.7128903,-0.95319217,-0.089330018,-0.28886801,0
-2.6242743,3.2426815,-0.89402729,-0.28892818,0.55072904,0.78308237,0
2.3203225,-0.77928317,3.821862,0.71766388,-0.41677639,0.55790329,0
4.4703341,0.22189759,-1.0128609,0.93869907,0.32364708,0.11872926,0
0.44455647,1.1078717,-3.2218721,0.28892818,-0.55072904,-0.78308237,0
-1.5022364,-2.2939882,3.5154507,-0.28892818,0.55072904,0.78308237,0
-1.1238739,1.8372717,1.044283,-0.28892818,0.55072904,0.78308237,0
2.3114014,2.9146485,-2.0181596,0.51656884,0.7783584,-0.35681206,0
1.4011151,-3.6434343,0.49863243,0.28892818,-0.55072904,-0.78308237,0
2.5274985,3.335433,-0.46153212,0.69469821,0.68342704,-0.22432536,0
1.4893932,-2.1175933,-0.39739046,0.28892818,-0.55072904,-0.78308237,0
-3.1842871,-2.5624614,-1.5549991,-0.92734289,-0.36419058,-0.086025625,0
1.1337169,-1.1562815,3.8514967,-0.28892818,0.55072904,0.78308237,0
-1.410758,-1.6359135,-2.1314609,0.28892818,-0.55072904,-0.78308237,0
0.043140769,-0.52827054,2.739759,-0.28892818,0.55072904,0.78308237,0
-1.8310614,-0.38722405,1.9507587,-0.28892818,0.55072904,0.78308237,0
-2.0279572,-1.1583906,-2.5475831,0.28892818,-0.55072904,-0.78308237,0
3.6949139,0.50501156,1.0490909,0.95322472,0.08963263,0.2886672,0
-0.18865597,3.5442014,-1.8074856,-0.025045343,0.81333995,-0.58124948,0
1.1399136,4.2580838,-0.33800364,0.3743903,0.81782573,-0.43702745,0
3.1563811,0.62640643,2.7499208,0.92268723,-0.057922915,0.38117343,0
0.018794119,-0.78360367,-2.1780949,0.28892818,-0.55072904,-0.78308237,0
-2.1274271,0.36951321,1.6274986,-0.28892818,0.55072904,0.78308237,0
-4.1568141,-0.19897339,0.40604091,-0.94853663,-0.27541947,-0.15627664,0
-3.1223185,-0.095843434,-2.7219853,-0.89798939,0.12764584,-0.42109582,0
3.5830646,-0.80742854,1.2512248,0.89122099,-0.14400327,0.4301025,0
-1.2970963,-4.3336992,0.17893004,0.28892818,-0.55072904,-0.78308237,0
0.011202514,0.50613487,-2.9899142,0.28892818,-0.55072904,-0.78308237,0
-1.2285357,-3.6257083,1.7131271,-0.3013317,-0.82870847,0.47163701,0
1.9365299,-3.5791688,0.71118081,0.28892818,-0.55072904,-0.78308237,0
0.56847596,-3.2259157,-0.042709827,0.28892818,-0.55072904,-0.78308237,0
0.29035133,-4.1509495,0.42762876,0.28892818,-0.55072904,-0.78308237,0
1.754894,-0.19533587,3.4682152,-0.28892818,0.55072904,0.78308237,0
0.63196445,0.48580182,2.682673,-0.28892818,0.55072904,0.78308237,0
1.076879,-3.5999084,0.46721864,0.28892818,-0.55072904,-0.78308237,0
0.82258248,2.8140171,-2.7688262,0.19212884,0.83468306,-0.51613063,0
2.4884973,-2.6154315,0.24691063,0.28892818,-0.55072904,-0.78308237,0
-0.34088618,-0.042681217,2.6778181,-0.28892818,0.55072904,0.78308237,0
3.6312032,-1.6755898,1.2364829,0.84392887,-0.23967457,0.47993749,0
2.5391171,1.0329694,-2.4748702,0.28892818,-0.55072904,-0.78308237,0
0.39486271,-0.0045603514,2.8841755,-0.28892818,0.55072904,0.78308237,0
2.7052805,-2.9533634,0.50194657,0.28892818,-0.55072904,-0.78308237,0
-2.2355042,2.8499861,-1.5934639,-0.48759884,0.61927009,-0.61542833,0
-0.040504754,-2.4277363,-1.079643,0.28892818,-0.55072904,-0.78308237,0
0.13462186,1.6331553,-3.7205677,0.28892818,-0.55072904,-0.78308237,0
3.9498646,0.83178848,-1.1996617,0.90444684,0.42517358,0.034689486,0
2.0424318,-1.0883527,3.4877191,0.6538502,-0.48395735,0.58160567,0
2.7930467,1.5261636,-2.5977371,0.28892818,-0.55072904,-0.78308237,0
3.9875371,0.60737365,0.6813072,0.95649517,0.20063519,0.21180758,0
0.73494327,-1.3962938,-1.3104565,0.28892818,-0.55072904,-0.78308237,0
3.2331858,-1.2307304,-0.32312959,0.28892818,-0.55072904,-0.78308237,0
-3.8228877,1.8466674,-0.30295715,-0.84350258,0.24042799,-0.48031011,0
2.0478051,1.8804097,1.9789541,-0.28892818,0.55072904,0.78308237,0
-0.31651711,-1.4267827,-1.7609999,0.28892818,-0.55072904,-0.78308237,0
2.347173,0.63094759,-2.2993736,0.28892818,-0.55072904,-0.78308237,0
-3.2813439,2.6713617,-0.74062955,-0.28892818,0.55072904,0.78308237,0
-4.0453186,-0.075524867,0.28461266,-0.95484436,-0.22492608,-0.19411512,0
-0.51660109,-1.0145394,3.2403774,-0.28892818,0.55072904,0.78308237,0
-2.1050439,2.2072105,0.009398818,-0.28892818,0.55072904,0.78308237,0
-0.35257715,1.962148,0.92090976,-0.28892818,0.55072904,0.78308237,0
3.5099292,0.42609608,-1.5524,0.28892818,-0.55072904,-0.78308237,0
-1.0536271,0.29095721,-3.0605781,0.28892818,-0.55072904,-0.78308237,0
0.33505595,1.0504261,1.8401911,-0.28892818,0.55072904,0.78308237,0
-0.30220205,4.205368,-1.0809906,-0.019640483,0.81438607,-0.57999104,0
-3.3231056,-1.1947283,-2.1459208,-0.95130736,-0.073397011,-0.29937801,0
-2.4820557,2.0714695,-2.568927,-0.61694676,0.51835847,-0.59218341,0
-2.6498365,-2.9280591,-1.5899048,0.28892818,-0.55072904,-0.78308237,0
3.6588511,0.51262355,2.0247688,0.94244629,0.019849211,0.33376792,0
-3.3861282,0.74110782,0.68618727,-0.28892818,0.55072904,0.78308237,0
2.654212,-1.8219076,2.3232527,0.67386413,-0.46402222,0.57497001,0
-1.5991137,-2.4424157,2.8707049,-0.31806347,-0.82672584,0.46406919,0
4.4798326,-0.54789197,-0.14615548,0.95081854,0.069685698,0.30180779,0
-2.7631752,2.7367599,-1.1966592,-0.60839003,0.52593309,-0.59435344,0
3.949049,1.0515791,-0.26296282,0.9328689,0.34575868,0.10102746,0
-1.9423387,-1.6980438,-1.939589,0.28892818,-0.55072904,-0.78308237,0
0.70126772,0.85031289,-3.0605717,0.28892818,-0.55072904,-0.78308237,0
1.5381041,3.8201506,-0.80626035,0.42532328,0.80665368,-0.41037792,0
3.9877133,0.27279449,1.0828972,0.95489681,0.10725486,0.27689072,0
-1.4974343,-3.9144435,-0.42914701,0.28892818,-0.55072904,-0.78308237,0
3.9022284,1.157624,-0.62707877,0.89810705,0.43920174,0.022484601,0
2.5814893,-0.53692067,3.5329764,0.73784912,-0.393087,0.5486905,0
2.863975,1.6953262,2.3828697,-0.28892818,0.55072904,0.78308237,0
1.7103956,2.8064141,-2.4839721,0.35425898,0.82140946,-0.44697559,0
-3.1560311,-0.72596848,-3.0522304,0.28892818,-0.55072904,-0.78308237,0
0.045956254,3.687592,-0.04346025,-0.28892818,0.55072904,0.78308237,0
2.8908653,-1.48663,-0.2818462,0.28892818,-0.55072904,-0.78308237,0
2.1614718,2.1800432,-3.2010927,0.42822614,0.80592245,-0.40879261,0
-2.2219572,-2.3477588,-1.6046495,0.28892818,-0.55072904,-0.78308237,0
0.49724308,0.010055065,-2.2809217,0.28892818,-0.55072904,-0.78308237,0
-2.2970066,0.92833662,-3.3362129,-0.71237433,0.42277089,-0.56016749,0
1.5141259,3.5613143,0.5134244,-0.28892818,0.55072904,0.78308237,0
-1.0104196,-3.4517066,-0.50763404,0.28892818,-0.55072904,-0.78308237,0
4.2528749,0.61276197,-1.3310807,0.89403272,0.44775164,0.014968395,0
-2.4897394,-0.49542439,-3.2093165,0.28892818,-0.55072904,-0.78308237,0
1.4443755,1.19005,-3.0435791,0.28892818,-0.55072904,-0.78308237,0
2.4952908,-0.068241686,-1.393033,0.28892818,-0.55072904,-0.78308237,0
-3.7289276,0.96971667,-0.89108467,-0.89342654,0.13877191,-0.42723706,0
-2.5035079,-1.9413382,-1.9818287,0.28892818,-0.55072904,-0.78308237,0
-1.8168449,-3.4970684,-0.91065395,0.28892818,-0.55072904,-0.78308237,0
0.80155581,3.8889663,-1.4303923,0.23054715,0.83392185,-0.50142032,0
3.9993215,0.042227149,0.51696604,0.95529866,0.11232483,0.27347335,0
0.70088243,1.4108152,1.5856464,-0.28892818,0.55072904,0.78308237,0
1.612669,1.2432457,2.4537697,-0.28892818,0.55072904,0.78308237,0
-2.3218033,-2.029139,-1.8602872,0.28892818,-0.55072904,-0.78308237,0
-4.3888278,0.99130392,-0.11750031,-0.93838298,-0.00089919567,-0.34559593,0
-1.7919126,0.96467,1.1694083,-0.28892818,0.55072904,0.78308237,0
-1.2541696,1.0425783,-3.9304886,0.28892818,-0.55072904,-0.78308237,0
0.90638244,-1.9572406,3.8009911,0.38342103,-0.68293339,0.62176394,0
-4.0522084,-0.48396614,0.43827796,-0.94784409,-0.27954665,-0.15311852,0
-3.696784,1.9947395,-1.1572294,-0.81032884,0.29488537,-0.50636923,0
2.0951526,0.016449809,3.3556478,-0.28892818,0.55072904,0.78308237,0
3.601476,1.8061124,-1.9523129,0.73399103,0.65258145,-0.18813461,0
-2.0976005,-0.18297988,1.973055,-0.28892818,0.55072904,0.78308237,0
-0.62267935,-4.0747828,1.1690881,-0.24123704,-0.83345568,0.49714828,0
2.8140345,0.60833466,2.9554031,-0.28892818,0.55072904,0.78308237,0
-4.0244818,1.6715589,-0.73134124,-0.86939746,0.19153658,-0.4554798,0
0.55041057,-3.1342332,2.3914938,0.15677193,-0.77970845,0.60619915,0
-3.0197005,-2.1328604,2.5083764,-0.59607166,-0.74356252,0.30300713,0
-1.1511883,-0.31661087,2.1897092,-0.28892818,0.55072904,0.78308237,0
-4.1815715,1.7217133,-0.22573306,-0.87146366,0.18732253,-0.45327848,0
-1.5800469,2.7316232,-0.15954971,-0.28892818,0.55072904,0.78308237,0
3.9363582,-0.49494892,1.0578207,0.93877667,0.0026407838,0.34451634,0
2.1919887,-1.3770932,3.0375154,0.62805432,-0.5083071,0.58921272,0
-2.2353439,-3.4228168,-0.21091938,-0.69916904,-0.68014711,0.22036904,0
-0.41676039,3.6840053,-0.28390503,-0.28892818,0.55072904,0.78308237,0
3.4769855,-0.77973425,-0.63785356,0.28892818,-0.55072904,-0.78308237,0
1.8516153,-3.541677,1.3942621,0.40731069,-0.66952896,0.62115133,0
-2.5530181,-0.16633114,1.8764597,-0.28892818,0.55072904,0.78308237,0
0.047027349,-0.58854431,2.9350731,-0.28892818,0.55072904,0.78308237,0
1.5609218,-1.4126478,-0.94291461,0.28892818,-0.55072904,-0.78308237,0
2.3237753,2.2817798,2.0257492,-0.28892818,0.55072904,0.78308237,0
-3.6856847,-1.547084,1.5077164,-0.81171072,-0.57461238,0.10462451,0
-2.1288712,-2.9833107,1.6960931,-0.48939431,-0.78797996,0.37360519,0
-0.42296407,2.620997,0.56989002,-0.28892818,0.55072904,0.78308237,0
1.9816697,3.4974527,-0.78296137,0.52691555,0.7744084,-0.35021657,0
-0.74003869,0.020759344,2.5021539,-0.28892818,0.55072904,0.78308237,0
-1.7753897,0.085415244,-3.4401438,0.28892818,-0.55072904,-0.78308237,0
2.655108,-2.7233853,1.4499068,0.63716847,-0.49986881,0.58664095,0
1.1118548,1.6228349,-3.1290121,0.28892818,-0.55072904,-0.78308237,0
0.46876824,0.4290117,2.5842142,-0.28892818,0.55072904,0.78308237,0
1.0514385,-2.8265576,2.5130086,0.28703028,-0.7305063,0.61965656,0
-0.36475897,1.6573057,-4.1072783,0.28892818,-0.55072904,-0.78308237,0
2.0878251,3.3111649,-0.49480033,0.59504986,0.74407887,-0.30374736,0
4.0364866,-1.6218327,0.70036376,0.85169458,-0.22567406,0.47295636,0
-1.8949442,-2.1689653,-1.7557232,0.28892818,-0.55072904,-0.78308237,0
-0.43214834,-4.3262444,0.24464893,-0.25133198,-0.83291209,0.49304134,0
-0.48864651,2.8494477,-2.9245505,-0.14495876,0.78337002,-0.60441577,0
-2.7263906,-2.5351145,1.4201028,-0.64457536,-0.71669507,0.26621568,0
-2.4268839,1.5009272,0.80151761,-0.28892818,0.55072904,0.78308237,0
0.8448081,-1.0931507,3.7063112,-0.28892818,0.55072904,0.78308237,0
-1.0168635,2.6648567,-2.9474397,-0.25561494,0.74389404,-0.61748087,0
0.48959714,2.2356503,1.1575142,-0.28892818,0.55072904,0.78308237,0
-3.1003475,0.48491585,-2.743223,-0.8279295,0.26695642,-0.49322116,0
2.0313931,-3.4034963,0.41942453,0.28892818,-0.55072904,-0.78308237,0
1.6705445,-1.0520414,3.7940953,0.56257951,-0.56416333,0.60433769,0
2.632498,-3.2273054,0.82651407,0.28892818,-0.55072904,-0.78308237,0
0.78738523,-2.595139,-0.33837855,0.28892818,-0.55072904,-0.78308237,0
2.926281,0.20704544,2.9976692,0.86744213,-0.19547665,0.45752931,0
1.8842517,-1.3291392,-0.84813905,0.28892818,-0.55072904,-0.78308237,0
3.8620796,0.61098182,0.55911404,0.95495641,0.22360793,0.19508351,0
1.0859766,-0.62675035,-1.6607063,0.28892818,-0.55072904,-0.78308237,0
0.73178595,-0.21903229,-2.2798386,0.28892818,-0.55072904,-0.78308237,0
3.819386,1.3530078,0.65703797,0.93975455,0.3192614,0.12220305,0
-1.9716632,-1.5717828,2.8007858,-0.28892818,0.55072904,0.78308237,0
