-3.2968779,0.5546242,3.1051648,-0.30225578,0.87659681,0.37445891,0
2.7602649,-2.3967674,0.64305282,0.30225578,-0.87659681,-0.37445891,0
-2.9839847,0.64189994,-2.6924801,-0.66314274,0.088821575,-0.74320388,0
-3.6216128,-0.58672529,-1.7968144,-0.87929189,-0.10470711,-0.46463072,0
-3.5491016,0.57051319,-1.7407537,-0.82907891,-0.047903389,-0.5570755,0
2.234791,-2.0363326,2.9059908,0.42108238,-0.22964057,0.87747055,0
-2.595433,-3.6723075,0.49837399,-0.84877777,-0.4262898,0.31281459,0
-3.471251,1.2595272,0.41757941,-0.30225578,0.87659681,0.37445891,0
-3.4823236,1.6917189,-0.34050798,-0.30225578,0.87659681,0.37445891,0
0.10269785,1.8156291,2.7702026,-0.30225578,0.87659681,0.37445891,0
-1.4951434,-3.8541512,0.75344849,0.30225578,-0.87659681,-0.37445891,0
2.2544887,-0.58683431,3.0806551,0.60273081,-0.12858112,0.78751647,0
-0.83241558,0.69871819,3.9099932,-0.30225578,0.87659681,0.37445891,0
-1.780292,-3.985168,1.4166729,-0.63421249,-0.47820246,0.60753316,0
3.577909,1.5995251,0.9999032,0.95117587,0.25160468,0.1787715,0
0.47659647,-2.8242757,-0.12985224,0.30225578,-0.87659681,-0.37445891,0
0.98838186,3.1736579,-2.6091869,0.373559,0.47033972,-0.79952103,0
-1.4505653,0.62249649,4.4018583,-0.19042319,-0.44044152,0.87735397,0
-2.0276427,2.3541687,-0.29631591,-0.30225578,0.87659681,0.37445891,0
3.2753949,0.54426396,-2.4446435,0.73833472,0.46376091,-0.48968077,0
-2.2529476,0.03073895,-3.1655812,-0.61656284,0.11980496,-0.77813667,0
3.7368171,-2.376951,1.7406845,0.71547925,-0.050942034,0.69677413,0
-2.2144499,0.33051968,3.6715708,-0.30225578,0.87659681,0.37445891,0
-0.45673412,2.3002512,1.1069543,-0.30225578,0.87659681,0.37445891,0
-4.2220068,-0.1687865,0.57593536,-0.94191867,-0.33498886,0.023900509,0
1.3689897,-1.5356972,-2.4891207,0.30225578,-0.87659681,-0.37445891,0
-1.8161504,-3.2432594,-0.410671,0.30225578,-0.87659681,-0.37445891,0
-3.605643,-1.157307,0.6883626,-0.90883827,-0.38349351,0.16415036,0
2.8519738,-1.2646735,-1.1027923,0.30225578,-0.87659681,-0.37445891,0
2.2512026,0.124246,-3.7353339,0.41195703,0.47437865,-0.777982,0
-0.025813341,1.5411018,3.3891692,-0.30225578,0.87659681,0.37445891,0
0.30785346,2.3733807,0.8864457,-0.30225578,0.87659681,0.37445891,0
-3.3892665,-1.732908,0.32600164,-0.92258406,-0.36782494,0.11637521,0
2.6960027,1.6149586,3.2339299,0.76251262,-0.013391763,0.64683455,0
-3.2416317,1.608513,0.10135984,-0.30225578,0.87659681,0.37445891,0
-2.2776465,2.6886311,-2.7609649,-0.42541414,0.22749278,-0.87593913,0
-3.6069076,-1.4418751,-0.72423601,-0.95176077,-0.25575209,-0.16953444,0
1.1024342,2.793225,-2.6418734,0.38631403,0.47177452,-0.79258436,0
2.0331643,-1.396621,-1.6309454,0.30225578,-0.87659681,-0.37445891,0
0.40358639,3.593863,-1.0396029,-0.30225578,0.87659681,0.37445891,0
-3.3306317,-2.2525046,-0.39231348,-0.94858825,-0.31531107,-0.027547956,0
-0.9658165,0.20116353,4.4517388,-0.064848781,-0.41083255,0.90940142,0
-1.5059781,-2.1132655,3.0178297,-0.42789704,-0.47580302,0.7684499,0
-3.6365991,-1.2351578,0.020638466,-0.94509345,-0.3267926,0.0021506548,0
2.4331927,-2.875268,2.0487161,0.30225578,-0.87659681,-0.37445891,0
-1.4609333,2.1577535,0.1855607,-0.30225578,0.87659681,0.37445891,0
-0.00011944771,-2.3711073,-1.5293159,0.30225578,-0.87659681,-0.37445891,0
2.39995,0.061039567,-3.78408,0.43193197,0.47613931,-0.76598024,0
2.5170264,-1.7269483,3.0337343,0.51794058,-0.17875497,0.83653086,0
-2.2126265,-0.67049897,3.4881544,-0.4597252,-0.4781819,0.74832773,0
-0.44697046,-1.1307776,3.6497173,-0.066784501,-0.41134182,0.90903103,0
-4.2509604,1.5769029,-0.89780641,-0.30225578,0.87659681,0.37445891,0
1.1230404,1.8115356,3.5444124,-0.30225578,0.87659681,0.37445891,0
0.33187652,2.057806,2.3530192,-0.30225578,0.87659681,0.37445891,0
1.9956635,2.7486053,1.6273019,-0.30225578,0.87659681,0.37445891,0
-3.662436,2.2377255,-1.7380383,-0.71131063,0.054095954,-0.70079261,0
-2.1234672,1.7362412,1.3527535,-0.30225578,0.87659681,0.37445891,0
0.83056116,-0.71631384,-4.7337408,0.30225578,-0.87659681,-0.37445891,0
3.6521051,-0.062193155,-2.6764321,0.75825638,0.45916247,-0.46283549,0
0.22134113,1.7094129,3.1254077,-0.30225578,0.87659681,0.37445891,0
-2.8533065,-2.7248535,-2.0236635,-0.92589551,-0.17659369,-0.33396393,0
1.1443141,1.4751621,3.8981824,-0.30225578,0.87659681,0.37445891,0
-4.0991187,0.31890941,-1.052433,-0.90811372,-0.145383,-0.39267409,0
-3.7568874,0.34129953,2.7471986,-0.30225578,0.87659681,0.37445891,0
3.7608263,0.77665216,0.44593382,0.95303887,0.27010587,0.13696444,0
0.91344291,3.2379699,0.17401218,-0.30225578,0.87659681,0.37445891,0
4.1409235,-1.8328352,0.86029482,0.30225578,-0.87659681,-0.37445891,0
-1.4811958,-3.2099204,-0.87080717,0.30225578,-0.87659681,-0.37445891,0
1.5929819,-1.4693335,-2.2732468,0.30225578,-0.87659681,-0.37445891,0
2.8166311,3.5611327,-0.32250452,0.86447072,0.41760439,-0.27981544,0
-3.0715833,-2.5392663,-1.596664,-0.94391263,-0.22046027,-0.24581683,0
0.68084526,-2.1408017,-1.6321352,0.30225578,-0.87659681,-0.37445891,0
2.9936762,3.0133748,1.0399086,0.95015842,0.30855626,0.044628263,0
0.56461668,1.2587074,3.9506664,-0.30225578,0.87659681,0.37445891,0
-0.48760223,-0.37995541,4.1809502,-0.04028511,-0.40422904,0.91376996,0
0.043125391,-2.0822308,-1.3985457,0.30225578,-0.87659681,-0.37445891,0
0.85525531,3.2245245,-0.024647474,-0.30225578,0.87659681,0.37445891,0
1.1266658,3.7372832,-1.0798161,-0.30225578,0.87659681,0.37445891,0
1.3297687,-1.8189671,-1.5320144,0.30225578,-0.87659681,-0.37445891,0
-3.6136258,-1.9172761,0.15736675,-0.93500203,-0.34909147,0.062497377,0
2.0796678,-2.2703879,0.18752003,0.30225578,-0.87659681,-0.37445891,0
-2.8104393,0.85498381,2.6625781,-0.30225578,0.87659681,0.37445891,0
-0.46324259,-2.7205005,-0.34187818,0.30225578,-0.87659681,-0.37445891,0
-3.3106909,0.41758046,-2.4040337,-0.77471751,0.0029747784,-0.63230008,0
0.087315083,-0.81191933,-4.7669435,-0.13553441,0.34932056,-0.92714894,0
2.7782102,0.10790944,-3.7989919,0.49672139,0.48012462,-0.72301298,0
0.030977964,-2.2394071,-1.4128578,0.30225578,-0.87659681,-0.37445891,0
-2.6461349,0.99724507,1.6891451,-0.30225578,0.87659681,0.37445891,0
0.25005388,-1.9952046,3.7181506,0.018495202,-0.38736594,0.92174035,0
0.68379831,3.3356075,-0.96908796,-0.30225578,0.87659681,0.37445891,0
-3.1712551,-1.217626,2.4980066,-0.68820512,-0.47248703,0.5505718,0
2.798651,0.21260607,-3.4354677,0.55280584,0.48122358,-0.68031543,0
4.0168772,-0.78843522,1.386133,0.87104273,0.094423249,0.48204625,0
-3.2770977,1.0363094,-2.5488627,-0.70454133,0.059163854,-0.7071923,0
2.2991452,-3.0877354,1.9864129,0.30225578,-0.87659681,-0.37445891,0
-2.0397136,0.073372245,4.2195563,-0.31317532,-0.46234727,0.82955158,0
1.8855073,-2.0444109,-0.70640683,0.30225578,-0.87659681,-0.37445891,0
3.461946,-0.99537444,-1.8934782,0.30225578,-0.87659681,-0.37445891,0
0.096050739,1.3317189,-3.7780814,-0.0018604994,0.39228976,-0.91983962,0
-3.9519687,-1.0195982,0.79287863,-0.92450809,-0.36528277,0.10887122,0
1.5928967,-2.5093384,0.50465834,0.30225578,-0.87659681,-0.37445891,0
-0.53419662,-3.9062653,1.940497,0.30225578,-0.87659681,-0.37445891,0
3.7111244,1.1288222,-0.99437284,0.89869231,0.39302111,-0.19464374,0
-1.1627991,1.3609042,2.3930175,-0.30225578,0.87659681,0.37445891,0
0.39531159,2.5298913,1.5414408,-0.30225578,0.87659681,0.37445891,0
3.9044213,-1.2623899,-0.10884476,0.30225578,-0.87659681,-0.37445891,0
-0.84228778,2.6432557,-3.1932859,-0.11670482,0.35584703,-0.92722845,0
3.3621881,-0.43106106,1.9631634,0.82666713,0.04545866,0.56085175,0
-0.3637619,-0.5078119,-4.4923272,-0.27986097,0.29391462,-0.91394293,0
0.037665367,-3.5869422,1.4236894,0.30225578,-0.87659681,-0.37445891,0
2.9579661,-2.115885,0.77242398,0.30225578,-0.87659681,-0.37445891,0
-0.01926899,0.8651458,-3.9980702,-0.078834891,0.36849922,-0.92627907,0
0.87818909,-0.54968721,3.749182,0.28960788,-0.28981516,0.9122138,0
-3.9119141,-1.1627879,-0.51955128,-0.953192,-0.28129771,-0.11088836,0
-1.0628421,-3.7738459,2.139328,-0.42417115,-0.47548372,0.77070999,0
-0.22423267,-3.8591108,2.4198,0.30225578,-0.87659681,-0.37445891,0
-1.2372508,-1.7920635,-3.4890149,0.30225578,-0.87659681,-0.37445891,0
-1.4337702,-1.8983604,-2.8813646,0.30225578,-0.87659681,-0.37445891,0
0.82992983,-2.6791224,0.59154147,0.30225578,-0.87659681,-0.37445891,0
0.1217351,-3.2964311,3.0214565,-0.14180803,-0.42981237,0.89171261,0
-4.1527023,0.50046939,1.7404027,-0.90073466,-0.39121169,0.18875933,0
-0.095819607,2.7604668,0.60624027,-0.30225578,0.87659681,0.37445891,0
-3.1554818,1.3617034,0.51255989,-0.30225578,0.87659681,0.37445891,0
1.7106092,0.387169,3.9541323,0.52952254,-0.17223893,0.83062583,0
3.0669193,0.97711372,2.6807554,0.79345894,0.013667002,0.60846996,0
-3.8912866,1.0337505,-1.2804394,-0.88414276,-0.11098826,-0.45384216,0
-0.57493234,-2.5079145,2.997746,-0.1861918,-0.4395591,0.87870365,0
-0.036120057,-3.0833907,0.49057961,0.30225578,-0.87659681,-0.37445891,0
1.6023966,-2.8602586,1.6292325,0.30225578,-0.87659681,-0.37445891,0
-1.2020807,3.3621898,-2.4894903,-0.30225578,0.87659681,0.37445891,0
-1.1316719,-1.5860009,-3.5947685,0.30225578,-0.87659681,-0.37445891,0
3.2501607,1.981352,-0.4727726,0.90081835,0.39113659,-0.1885159,0
-0.88056612,-1.164794,3.9101942,-0.13118625,-0.42734846,0.89451838,0
-2.4757144,1.9497609,-2.8815718,-0.4901039,0.19401987,-0.84979647,0
0.19668818,2.6473982,-3.2884507,0.16168439,0.43428737,-0.88614464,0
-2.9028947,0.83422142,-2.7626748,-0.65793216,0.092404827,-0.7473864,0
1.1065093,-1.9310515,-0.92769301,0.30225578,-0.87659681,-0.37445891,0
-0.79543447,0.70795226,4.0293665,-0.30225578,0.87659681,0.37445891,0
-1.7067132,-2.6297107,-2.3578465,0.30225578,-0.87659681,-0.37445891,0
3.5126638,-1.0276573,1.8932605,0.80770278,0.026905999,0.58897543,0
3.2061281,-2.4384992,1.6083804,0.30225578,-0.87659681,-0.37445891,0
-2.6885009,0.12117743,3.6290693,-0.54640824,-0.48121864,0.68546802,0
4.3533096,-0.44377089,-1.2842884,0.91024989,0.38205022,-0.15963221,0
2.5948346,-1.6026073,3.0470672,0.53271157,-0.17042722,0.82895881,0
3.6314101,1.8827646,0.043738842,0.93310094,0.35238525,-0.071742535,0
-4.0400801,0.91688561,-1.2462113,-0.89010137,-0.11897309,-0.43995959,0
0.64201283,-1.1618201,-3.2160528,0.30225578,-0.87659681,-0.37445891,0
-0.81699955,2.6044154,-0.47548443,-0.30225578,0.87659681,0.37445891,0
2.2921436,0.12528658,-3.7339332,0.4521091,0.47767049,-0.75327808,0
3.7692003,1.0389661,-1.227479,0.8590427,0.42075327,-0.29156816,0
0.79629534,2.9657397,0.52797508,-0.30225578,0.87659681,0.37445891,0
2.0043259,-0.72775972,-3.7997866,0.30225578,-0.87659681,-0.37445891,0
-0.56200647,1.2748694,-3.78321,-0.12428093,0.35324001,-0.92724073,0
-3.7253258,-0.16688287,1.7139971,-0.85366648,-0.42371768,0.30284727,0
2.8494036,3.340167,-0.59092426,0.83800316,0.43158108,-0.33389831,0
0.6898886,-2.5067167,-0.17193255,0.30225578,-0.87659681,-0.37445891,0
3.3283091,-0.81759316,2.1289287,0.79119802,0.01161468,0.61144954,0
3.1918898,-1.9769286,2.371346,0.63068128,-0.11065461,0.76811218,0
3.5307865,2.1248534,-0.7998395,0.88469589,0.40423152,-0.23218453,0
-1.0406783,-3.2836347,0.26464152,0.30225578,-0.87659681,-0.37445891,0
-4.4094858,0.95442826,0.65588379,-0.94896936,-0.31380183,-0.03138876,0
-1.2476498,-3.7261643,1.5286946,0.30225578,-0.87659681,-0.37445891,0
-3.2666399,-0.73842752,-2.1596191,-0.8787896,-0.10406697,-0.46572375,0
1.4545478,-1.7439618,-1.9474349,0.30225578,-0.87659681,-0.37445891,0
2.4501894,1.1989944,3.3076408,0.74925333,-0.024371296,0.66183466,0
-3.3124957,-0.84550178,2.8017786,-0.69079298,-0.47212446,0.54763424,0
-0.21906137,1.6050608,3.1301332,-0.30225578,0.87659681,0.37445891,0
-2.9798853,1.4163649,0.68314195,-0.30225578,0.87659681,0.37445891,0
1.304075,-3.1386738,2.2096276,0.30225578,-0.87659681,-0.37445891,0
0.16770697,0.34803104,4.4835162,0.23424447,-0.31248245,0.92058897,0
-1.7652593,-0.9133029,-4.1735697,-0.55198103,0.1593136,-0.81849599,0
-0.84273219,-1.646952,-3.4420264,0.30225578,-0.87659681,-0.37445891,0
0.73290569,-2.7785347,-0.075198621,0.30225578,-0.87659681,-0.37445891,0
-1.1743884,-0.31776798,4.2205834,-0.17501825,-0.43718949,0.88217551,0
-0.34923744,1.8185818,2.5447772,-0.30225578,0.87659681,0.37445891,0
1.5071021,-1.4969893,-1.6085037,0.30225578,-0.87659681,-0.37445891,0
-0.52479839,-3.3595438,0.92776489,0.30225578,-0.87659681,-0.37445891,0
-3.5398612,0.8479985,-2.2144279,-0.76283652,0.013119206,-0.64645791,0
1.5171466,2.1210217,3.266968,-0.30225578,0.87659681,0.37445891,0
-2.3815293,-2.7685905,1.8944011,-0.66020918,-0.47587183,0.58109337,0
1.0046225,2.5972097,1.0802287,-0.30225578,0.87659681,0.37445891,0
-4.2984796,0.57682031,1.617126,-0.91608024,-0.37572071,0.14010882,0
1.793053,2.6384552,2.3289151,-0.30225578,0.87659681,0.37445891,0
-1.2590175,-2.6609287,2.9312067,-0.40840042,-0.47404027,0.78006065,0
4.2516465,-1.3164042,-0.62457323,0.30225578,-0.87659681,-0.37445891,0
-0.47019172,-1.4704089,-3.6659913,0.30225578,-0.87659681,-0.37445891,0
1.0062561,-3.6870284,2.4525561,0.30225578,-0.87659681,-0.37445891,0
0.48435593,1.6354102,-3.76315,0.096321225,0.41890922,-0.90290469,0
-1.2139298,-3.8330805,0.78347564,0.30225578,-0.87659681,-0.37445891,0
-3.5553575,-2.0030191,-0.21378231,-0.93712807,-0.34515449,0.051564932,0
-0.05435276,2.8252926,-3.1524916,0.038855195,0.40383655,-0.9140054,0
-2.956943,1.4434533,0.95152307,-0.30225578,0.87659681,0.37445891,0
-1.8449841,-2.0925772,2.9497991,-0.46704578,-0.47863832,0.7434873,0
-1.0132198,0.34176481,-3.9270756,-0.32841963,0.27301532,-0.90421391,0
-0.19785137,2.5238736,0.33928481,-0.30225578,0.87659681,0.37445891,0
-2.1391492,-3.5280561,1.572576,-0.68870002,-0.47241837,0.55001163,0
-0.7558322,-0.99483609,3.6881087,-0.1281426,-0.42663318,0.89530063,0
2.4455214,1.5852398,-2.8286512,0.59691942,0.48033369,-0.64262456,0
3.1674671,3.1357403,0.52641344,0.94291282,0.33258119,-0.017461777,0
-1.5473144,-2.7986937,-1.2292495,0.30225578,-0.87659681,-0.37445891,0
-4.3126726,1.1097648,0.082117558,-0.30225578,0.87659681,0.37445891,0
1.2168059,3.4377196,-2.4105926,0.4234972,0.47542506,-0.77111667,0
-2.7121689,-2.1095829,1.8544538,-0.72367716,-0.46670586,0.50840604,0
4.3857665,-1.4654965,0.80738306,0.89843744,0.13071842,0.41919291,0
-4.4039578,0.46731833,0.46559286,-0.94932908,-0.31230882,-0.035174251,0
-1.679471,-4.0654039,1.0103891,0.30225578,-0.87659681,-0.37445891,0
3.0384159,-1.6684922,-0.34191847,0.30225578,-0.87659681,-0.37445891,0
1.1848969,-1.3647391,3.5412812,0.27974713,-0.29396224,0.91396248,0
-0.76366568,2.3312776,-3.2915602,-0.098219872,0.3621015,-0.92694926,0
-0.72724223,3.2187407,-1.4028903,-0.30225578,0.87659681,0.37445891,0
2.0050404,4.1252398,-1.2525046,-0.30225578,0.87659681,0.37445891,0
3.3200366,2.9266505,0.64142466,0.94755566,0.31909037,0.017867327,0
3.1255803,-2.435281,1.7453688,0.30225578,-0.87659681,-0.37445891,0
0.63336658,-2.1043897,3.3100653,0.12496829,-0.35300219,0.92723888,0
-3.2108259,2.4105773,-1.6776116,-0.30225578,0.87659681,0.37445891,0
2.2296896,-0.71046734,-3.0698142,0.30225578,-0.87659681,-0.37445891,0
3.0470343,-0.42132545,-2.7263737,0.30225578,-0.87659681,-0.37445891,0
-4.6873779,1.467711,-0.051400661,-0.30225578,0.87659681,0.37445891,0
-2.6524668,-3.4219496,-0.49175215,0.30225578,-0.87659681,-0.37445891,0
1.4480386,-2.4684205,3.1701884,0.20635486,-0.32334548,0.92350692,0
-3.6914253,0.289285,-1.7296917,-0.84911984,-0.069086894,-0.52366215,0
-3.1617184,-0.0060679913,2.8614264,-0.68625712,-0.47275418,0.55276954,0
1.4515314,-0.94153816,3.7284307,0.35926414,-0.25910425,0.89654565,0
1.4171209,0.25433874,-4.2806149,0.17280942,0.43671429,-0.88284606,0
-0.90394711,3.4851537,-2.7688208,-0.012955666,0.38901889,-0.92113847,0
-0.1446557,-2.2625422,3.589684,-0.088689327,-0.41699046,0.90457326,0
-1.8804367,-3.9662333,1.4429407,-0.65799171,-0.47609985,0.58341712,0
2.5809126,-1.0982707,-2.0071926,0.30225578,-0.87659681,-0.37445891,0
-0.38562226,-1.8257349,-2.6828976,0.30225578,-0.87659681,-0.37445891,0
0.090724111,-3.1438351,0.5887239,0.30225578,-0.87659681,-0.37445891,0
1.1653918,3.2004926,0.58423018,-0.30225578,0.87659681,0.37445891,0
-2.7765193,-1.8587039,2.3474422,-0.66635418,-0.47521013,0.57458419,0
-3.1455514,1.8357147,-2.3685212,-0.62263262,0.11589549,-0.77388406,0
0.95923996,2.1493034,2.542737,-0.30225578,0.87659681,0.37445891,0
-0.033423424,1.1440375,3.629056,-0.30225578,0.87659681,0.37445891,0
0.15317616,2.7856021,0.25277638,-0.30225578,0.87659681,0.37445891,0
3.4349499,-1.1850749,2.2464905,0.72655827,-0.042431176,0.68579334,0
-1.1639221,-2.9258459,2.793684,-0.39225483,-0.47241151,0.78928018,0
3.2533236,-2.2926652,1.9142904,0.66413081,-0.088138536,0.74240255,0
1.1444201,-0.090822101,-4.1589041,0.1431818,0.43012738,-0.89134115,0
0.47515368,-2.9567251,0.57327431,0.30225578,-0.87659681,-0.37445891,0
-1.0659387,-2.960588,2.7542484,-0.35114545,-0.46760052,0.81120056,0
-2.7742884,-2.4298143,-2.4021342,-0.8936606,-0.12389971,-0.43129951,0
3.163579,-0.12930167,-3.341115,0.30225578,-0.87659681,-0.37445891,0
-1.7592058,0.89020061,2.8198299,-0.30225578,0.87659681,0.37445891,0
3.1379685,0.69180882,-2.5185978,0.73022342,0.46543396,-0.50014454,0
1.3567109,-2.3840435,-0.24650168,0.30225578,-0.87659681,-0.37445891,0
-4.1914501,0.53288698,0.12391043,-0.9532243,-0.27883351,-0.11668301,0
1.4662628,-2.2316034,-0.26968312,0.30225578,-0.87659681,-0.37445891,0
-2.4676869,1.6698645,1.1307633,-0.30225578,0.87659681,0.37445891,0
2.6396453,2.5731606,-1.7050157,0.69182169,0.47197789,-0.54646087,0
-3.1028001,-2.7263324,-2.2261415,-0.92169183,-0.16855472,-0.34938973,0
1.2589245,-3.4087,1.9469016,0.30225578,-0.87659681,-0.37445891,0
-3.3476303,-2.388272,0.84129572,-0.86359,-0.41812658,0.28174853,0
0.98377031,2.9974942,0.78912711,-0.30225578,0.87659681,0.37445891,0
-2.138653,-0.29740059,3.6758595,-0.38424796,-0.47154832,0.79372239,0
1.2839912,2.4746838,2.3650665,-0.30225578,0.87659681,0.37445891,0
-2.1982639,-0.13630211,-3.3835249,-0.5714004,0.14781359,-0.80724978,0
-3.4396503,0.47941959,2.6857538,-0.30225578,0.87659681,0.37445891,0
3.321867,-0.88742787,-2.0825663,0.30225578,-0.87659681,-0.37445891,0
4.0496311,-0.24224234,-1.6791062,0.88764858,0.40202188,-0.22462845,0
-0.41915894,3.4842706,-1.2885857,-0.30225578,0.87659681,0.37445891,0
-2.9107888,-3.5983136,0.20071077,-0.87421221,-0.41151512,0.25769734,0
4.4122381,-0.52891654,-1.1294527,0.92154145,0.36915967,-0.1203413,0
0.90431619,1.9416983,2.8026042,-0.30225578,0.87659681,0.37445891,0
2.6939654,-0.10742319,2.9258218,0.71987158,-0.047590509,0.69247365,0
0.36259991,2.757292,0.47134125,-0.30225578,0.87659681,0.37445891,0
0.62061167,-1.2360289,-3.0460372,0.30225578,-0.87659681,-0.37445891,0
0.29072529,2.9897017,0.02620554,-0.30225578,0.87659681,0.37445891,0
0.98404479,1.9230659,2.5708637,-0.30225578,0.87659681,0.37445891,0
4.1905565,0.070194826,-0.09423542,0.95322061,0.27655298,0.12201881,0
-0.24088335,-2.6775699,3.2547042,-0.14225888,-0.42991588,0.89159095,0
3.2408423,0.99608201,2.2941563,0.8422693,0.061660141,0.53551841,0
-0.51881456,-0.81048298,-4.426775,-0.31867576,0.2773056,-0.90639234,0
-1.6277163,-3.0205059,2.4030309,-0.46799219,-0.4786948,0.74285555,0
-1.9605495,-2.4085636,2.297369,-0.57821912,-0.48091418,0.659078,0
1.5319774,-2.7867537,0.94206607,0.30225578,-0.87659681,-0.37445891,0
-2.67906,0.22576743,-2.885905,-0.69941181,0.062960729,-0.71194017,0
-2.9282022,-2.5236642,0.82035685,-0.85682833,-0.42199218,0.29625583,0
4.1183548,-0.52577233,-2.4912953,0.30225578,-0.87659681,-0.37445891,0
0.46557546,2.3456481,-3.2216623,0.1402024,0.42944318,-0.89214426,0
1.6875088,2.8881938,-2.6036947,0.47684705,0.47919455,-0.73687792,0
1.5968848,-1.702021,-1.1959475,0.30225578,-0.87659681,-0.37445891,0
1.7762213,1.8877065,3.1809814,-0.30225578,0.87659681,0.37445891,0
3.3029587,2.6296124,0.52552319,0.94503373,0.32696211,-0.0025956631,0
2.3328938,3.812103,-0.12696409,-0.30225578,0.87659681,0.37445891,0
0.47509456,3.4003961,-0.78650355,-0.30225578,0.87659681,0.37445891,0
-0.39037895,-1.1951561,-4.606636,0.30225578,-0.87659681,-0.37445891,0
0.89708281,3.692359,-2.2432251,0.38759965,0.47191405,-0.79187334,0
-0.13719797,-0.78124344,-4.5936661,-0.21461618,0.32016566,-0.92273152,0
3.0645452,2.8533378,1.6560049,0.94626302,0.22852989,0.2288233,0
-3.6822853,-0.75216478,-1.9000945,-0.89520937,-0.1260836,-0.42743737,0
2.8437738,1.5368844,-2.3671868,0.68241334,0.47326699,-0.55707276,0
1.1463141,2.4383063,-2.8306518,0.33335167,0.46523303,-0.82002103,0
0.29685211,-1.6563742,-2.3863347,0.30225578,-0.87659681,-0.37445891,0
3.3982229,1.456197,-1.0599246,0.8829124,0.40553054,-0.23666513,0
-0.893336,2.7056301,-0.29639426,-0.30225578,0.87659681,0.37445891,0
-2.0912075,0.45706552,-3.3821545,-0.4944241,0.19168651,-0.84782118,0
0.81020546,1.455181,4.1183281,-0.30225578,0.87659681,0.37445891,0
0.48529053,-1.6273439,-2.1473699,0.30225578,-0.87659681,-0.37445891,0
3.8890684,0.7454415,0.84610415,0.94421625,0.22144471,0.24375725,0
0.69990993,-3.4096622,1.7579172,0.30225578,-0.87659681,-0.37445891,0
0.0090124607,2.0128515,1.6161423,-0.30225578,0.87659681,0.37445891,0
0.92754656,3.0786412,0.58758759,-0.30225578,0.87659681,0.37445891,0
-3.9622853,0.99728167,-1.2275867,-0.88952947,-0.11819278,-0.44132465,0
4.3711839,-0.18061043,-0.21752262,0.95071006,0.30574989,0.051643133,0
0.5004456,3.9249442,-1.7441427,-0.30225578,0.87659681,0.37445891,0
-0.74293482,2.5387659,0.48133993,-0.30225578,0.87659681,0.37445891,0
3.2077365,-1.1556705,2.3514798,0.71904117,-0.048226371,0.69329196,0
2.3234963,-3.3144932,2.4466588,0.30225578,-0.87659681,-0.37445891,0
1.7542121,-1.6820652,-1.5137089,0.30225578,-0.87659681,-0.37445891,0
2.0989153,-3.0959363,2.3691847,0.30225578,-0.87659681,-0.37445891,0
2.1899438,0.90686786,-3.6336899,0.44086123,0.47684813,-0.76043212,0
-2.742815,-2.8676927,-2.4149246,0.30225578,-0.87659681,-0.37445891,0
-1.7052619,2.3734818,-0.71715051,-0.30225578,0.87659681,0.37445891,0
-1.0402173,-2.4527116,-2.2749975,0.30225578,-0.87659681,-0.37445891,0
4.4787579,-0.97713864,0.61514139,0.92717665,0.17915155,0.32901019,0
1.0509088,3.1977234,-2.5264821,0.34356171,0.4666121,-0.81500804,0
-2.5283802,-3.5675323,-0.35315323,0.30225578,-0.87659681,-0.37445891,0
-0.31623393,-2.5200284,-1.0494781,0.30225578,-0.87659681,-0.37445891,0
-3.1663289,1.578739,-2.6467772,-0.66940862,0.08447063,-0.73807621,0
-1.1146908,-1.5858674,-4.1090274,0.30225578,-0.87659681,-0.37445891,0
3.7972767,0.62085301,0.47878027,0.95009762,0.24524148,0.19279718,0
2.5191042,1.8408207,3.3336539,0.7624144,-0.013474345,0.64694852,0
-2.7857823,-2.3622265,-2.8053062,-0.87767047,-0.10264777,-0.46814281,0
3.6793842,1.534656,0.17417145,0.95000648,0.30928093,0.042809129,0
1.6176414,0.72291684,4.066503,0.54454327,-0.16363753,0.82261473,0
0.79618454,1.8600342,3.4293509,-0.30225578,0.87659681,0.37445891,0
-0.125175,1.8957398,-3.376683,0.048294067,0.40641087,-0.91241312,0
2.5670626,-0.21842831,3.1606212,0.65669185,-0.093253136,0.74837112,0
-1.6594286,0.005197525,4.3687086,-0.25575089,-0.45300591,0.85403562,0
3.6779044,0.78274179,1.0216198,0.93908077,0.20640707,0.27481461,0
-0.38304043,-3.7582064,2.7565026,-0.2121737,-0.44484717,0.87011087,0
-2.9115827,2.0346599,-2.6707964,-0.57559699,0.14528728,-0.8047232,0
-2.5977092,1.5361118,1.1158481,-0.30225578,0.87659681,0.37445891,0
1.3823116,-2.244921,3.3164532,0.24421406,-0.30851012,0.91933703,0
-1.9652431,2.6626766,-1.5066167,-0.30225578,0.87659681,0.37445891,0
-1.4304286,2.3380222,0.19329625,-0.30225578,0.87659681,0.37445891,0
3.12147,1.679695,2.5857964,0.85983682,0.081147805,0.50407863,0
0.23325634,-2.4504025,3.3363345,-0.014238238,-0.39694098,0.91773343,0
4.3248072,-1.204448,-0.13666153,0.30225578,-0.87659681,-0.37445891,0
1.4582641,-2.3577466,3.1097095,0.30283475,-0.28417608,0.90968937,0
2.5018692,3.6067686,0.088674068,-0.30225578,0.87659681,0.37445891,0
1.591671,-2.084259,-0.61209077,0.30225578,-0.87659681,-0.37445891,0
3.6206746,1.337453,1.261241,0.94074148,0.210945,0.26553202,0
-2.409466,0.80654502,2.9591086,-0.30225578,0.87659681,0.37445891,0
4.1765718,-1.0595825,-1.0034933,0.30225578,-0.87659681,-0.37445891,0
-0.46012926,-2.7850683,2.9445045,-0.24999779,-0.45198071,0.85627925,0
0.89120507,3.0112185,-3.0061688,0.34018201,0.46616173,-0.8166818,0
-3.1464939,-1.4901582,1.9267297,-0.79002994,-0.45018014,0.41616136,0
1.0105278,1.717438,-3.6425462,0.25540012,0.45294386,-0.85417342,0
-2.3748384,1.2941616,1.8568012,-0.30225578,0.87659681,0.37445891,0
-4.3645172,1.5289307,-0.31125498,-0.30225578,0.87659681,0.37445891,0
1.3322911,-1.2549293,-2.8127103,0.30225578,-0.87659681,-0.37445891,0
0.73381376,-1.4134159,3.4490399,0.18240297,-0.33238593,0.9253369,0
0.93147755,0.44729936,-4.2976356,0.13137615,0.42739296,-0.8944692,0
-4.0737529,-0.36853796,1.243773,-0.91104329,-0.38122466,0.15705895,0
4.2405496,-1.6833208,0.92540622,0.86860096,0.091466635,0.48699677,0
-3.3523257,-1.6666468,-1.5237265,-0.93026084,-0.18555003,-0.31652105,0
-2.9129999,-0.85833669,-3.1170406,-0.76770651,0.0089967102,-0.64073825,0
2.9208283,3.1177988,2.1107955,-0.30225578,0.87659681,0.37445891,0
0.56552315,1.8389273,-3.4969702,0.1218189,0.42513385,-0.89689511,0
-0.78146005,1.4734797,2.5437346,-0.30225578,0.87659681,0.37445891,0
0.55247235,1.3939985,3.6119609,-0.30225578,0.87659681,0.37445891,0
4.710073,-1.0567164,-0.34054327,0.95218974,0.25933656,0.16148949,0
0.41641259,3.0089459,-2.7542634,0.19377607,0.44113493,-0.87627077,0
-0.7636255,2.6501541,-0.50117254,-0.30225578,0.87659681,0.37445891,0
-2.0525513,-3.8235917,0.51780629,0.30225578,-0.87659681,-0.37445891,0
3.0383801,0.91579193,2.4509947,0.83720696,0.056299955,0.54398018,0
0.5774231,-2.9607983,2.9134753,0.026881218,-0.38483831,0.92259228,0
1.3129752,2.5839603,1.2238877,-0.30225578,0.87659681,0.37445891,0
4.1831036,-0.97827256,0.64486408,0.92490113,0.17464522,0.33772272,0
0.011765003,-1.7509379,-2.1788304,0.30225578,-0.87659681,-0.37445891,0
-0.77460933,-4.0012293,1.6735548,0.30225578,-0.87659681,-0.37445891,0
-2.76173,2.0921552,-0.3458128,-0.30225578,0.87659681,0.37445891,0
1.6927392,-2.8649104,3.100266,0.29904473,-0.28580093,0.91043377,0
3.5346446,-2.1312859,1.8305044,0.75769919,-0.017416582,0.65237117,0
2.3731349,-2.6048179,2.6795044,0.42109215,-0.22963575,0.87746716,0
-0.91526723,-1.0840259,3.6781576,-0.16404021,-0.43480596,0.8854571,0
4.149539,-0.27763438,-2.1523232,0.84971416,0.42580587,-0.31092596,0
-3.1813681,-2.9028132,-0.52119207,-0.94039273,-0.33845997,0.033257961,0
1.0453813,-2.2545183,-0.73004287,0.30225578,-0.87659681,-0.37445891,0
-0.89903498,1.4561322,-3.6578465,-0.25909531,0.30249214,-0.917261,0
2.1925724,-0.83239281,-3.3758149,0.30225578,-0.87659681,-0.37445891,0
1.7360508,0.41702127,-3.9358625,0.33184332,0.46502462,-0.82075071,0
1.8997124,2.8558984,1.4803584,-0.30225578,0.87659681,0.37445891,0
-4.1137123,-0.071714669,0.94502449,-0.93311024,-0.35236949,0.07169795,0
0.58873034,-3.311558,1.6148233,0.30225578,-0.87659681,-0.37445891,0
-3.0878868,-1.3009645,-2.7682385,-0.84036678,-0.0596333,-0.53872746,0
-2.7859755,-3.2317977,0.56555557,-0.86025679,-0.42006296,0.28897214,0
-3.387238,0.73799825,2.5735521,-0.30225578,0.87659681,0.37445891,0
1.2791281,0.75787115,4.1284304,0.43174148,-0.22433522,0.87365472,0
1.2775207,-1.3881043,-2.2553048,0.30225578,-0.87659681,-0.37445891,0
-0.85124266,-3.0942426,-0.42128503,0.30225578,-0.87659681,-0.37445891,0
-2.2046833,-0.12166119,4.1600761,-0.338543,-0.46594113,0.81748831,0
-1.1911626,2.9911909,-2.7675917,-0.17376268,0.33558255,-0.92584586,0
-0.2441144,-2.3486123,3.5378878,-0.1357975,-0.42842433,0.89331478,0
2.8764939,-2.4031453,0.92602813,0.30225578,-0.87659681,-0.37445891,0
-2.2726176,-3.5056159,-0.59215808,0.30225578,-0.87659681,-0.37445891,0
0.078650236,-3.3075829,1.5231578,0.30225578,-0.87659681,-0.37445891,0
-0.16263533,2.0829077,-3.4495759,0.03565836,0.40295589,-0.9145242,0
2.9968934,1.948776,-1.4229841,0.79195774,0.44956094,-0.41315573,0
-3.4360576,1.2195253,0.92498541,-0.30225578,0.87659681,0.37445891,0
-4.4900312,0.66302091,0.8927536,-0.93631542,-0.3466939,0.055824518,0
-0.34943163,-2.628864,-0.53854859,0.30225578,-0.87659681,-0.37445891,0
0.54598856,2.5963638,1.2259597,-0.30225578,0.87659681,0.37445891,0
-1.4624865,2.8669367,-1.3558456,-0.30225578,0.87659681,0.37445891,0
-2.8102095,-0.51569676,-3.0219038,-0.76187062,0.013931185,-0.64757907,0
0.30741501,-0.63517451,-4.645401,0.30225578,-0.87659681,-0.37445891,0
0.6895234,3.5210757,-0.54671073,-0.30225578,0.87659681,0.37445891,0
-1.8691053,1.0704459,-3.2413743,-0.45506465,0.212483,-0.86473501,0
0.49244881,1.4673504,3.9580355,-0.30225578,0.87659681,0.37445891,0
-2.8697693,-3.3989086,0.84521532,-0.81846499,-0.44002864,0.36944461,0
-2.45784,-1.7454882,2.500463,-0.60080373,-0.48017371,0.63911492,0
-0.63609791,-1.8857479,-2.2509427,0.30225578,-0.87659681,-0.37445891,0
-2.235801,-2.2678776,2.2704041,-0.62875175,-0.47860029,0.6128723,0
2.4014974,-0.57065129,3.2097261,0.57866937,-0.14342813,0.80285096,0
-0.52465355,2.7876437,0.12997475,-0.30225578,0.87659681,0.37445891,0
-4.3862209,1.2705479,-0.18993092,-0.93175703,-0.18879241,-0.31013846,0
3.1955466,1.8788291,2.537338,0.88321304,0.10976984,0.45594406,0
-2.6487541,2.5655975,-0.9988867,-0.30225578,0.87659681,0.37445891,0
3.8238599,-1.5236754,1.7886546,0.80594116,0.02523841,0.59145713,0
-4.2435102,-0.18695654,0.016033173,-0.95300847,-0.28629872,-0.099032998,0
3.9094212,-1.353327,1.8652508,0.81717646,0.03603144,0.57525992,0
-2.7554209,-3.145632,0.31971407,-0.86680532,-0.41619855,0.27463984,0
0.85109353,-1.9408803,-1.6559466,0.30225578,-0.87659681,-0.37445891,0
-1.5284953,-1.1618617,3.5851791,-0.36147892,-0.46889746,0.80589563,0
-1.07619,-0.014151573,-3.8978868,-0.39761454,0.24108301,-0.88531423,0
-2.5850191,-3.7925384,0.40463734,0.30225578,-0.87659681,-0.37445891,0
2.0611334,0.46814632,3.5292544,0.63233936,-0.10956673,0.76690394,0
0.39927912,-3.8966851,2.2946041,0.30225578,-0.87659681,-0.37445891,0
1.3774302,-2.3305681,-0.57184201,0.30225578,-0.87659681,-0.37445891,0
-4.0357246,0.15456039,0.39102507,-0.94748473,-0.31933543,-0.017236471,0
2.9176099,-0.0087982416,2.7695174,0.71417534,-0.051931322,0.69803751,0
-2.1818969,-1.2164375,3.4235725,-0.47875714,-0.47929552,0.73557264,0
0.27751267,3.3220901,-0.83354366,-0.30225578,0.87659681,0.37445891,0
2.8224182,2.4537618,2.4791138,0.88349122,0.11013374,0.45531672,0
-1.1452134,3.1047225,-1.5499262,-0.30225578,0.87659681,0.37445891,0
3.5475557,2.0568759,-0.4236207,0.91651583,0.37522176,-0.13858914,0
2.150079,-1.102757,3.1556029,0.51250064,-0.18178141,0.83922476,0
-1.8017758,-2.8025517,-1.8406606,0.30225578,-0.87659681,-0.37445891,0
-0.39242363,-1.5965564,3.623878,-0.084106565,-0.41582605,0.90554649,0
-2.7266192,-2.1543446,1.9541235,-0.72302502,-0.46682888,0.50922024,0
-2.5266106,-3.3296907,-0.45202732,0.30225578,-0.87659681,-0.37445891,0
1.6745105,0.97889698,3.7485287,0.56331331,-0.15264033,0.81202132,0
1.5346546,-2.5194645,0.55436909,0.30225578,-0.87659681,-0.37445891,0
-3.888473,0.52001947,1.9520099,-0.30225578,0.87659681,0.37445891,0
-3.187978,-2.1937246,0.66396761,-0.87137866,-0.41334847,0.26427639,0
-0.31374049,-3.9477065,2.0637939,0.30225578,-0.87659681,-0.37445891,0
1.0192292,2.1491182,-3.0129271,0.27993089,0.45713896,-0.84419322,0
1.035289,2.7278881,0.94359744,-0.30225578,0.87659681,0.37445891,0
3.2451563,1.5499012,2.0164289,0.8911621,0.1204284,0.43740904,0
1.3387947,2.7799985,0.78827071,-0.30225578,0.87659681,0.37445891,0
0.20329285,-0.34701836,-4.2914686,-0.098618507,0.36196822,-0.92695904,0
-1.4758813,2.7508852,-0.58721709,-0.30225578,0.87659681,0.37445891,0
-2.3576639,-1.5664245,-3.3938317,-0.7560693,0.01876922,-0.65422201,0
0.82910109,4.0161266,-1.657442,-0.30225578,0.87659681,0.37445891,0
-0.57788205,-2.5417895,-0.84955204,0.30225578,-0.87659681,-0.37445891,0
4.1536098,0.46930829,0.4760251,0.9484278,0.23718962,0.2102983,0
-0.65247023,2.463644,-0.0068586096,-0.30225578,0.87659681,0.37445891,0
3.9743199,0.88689166,-0.41268826,0.94317985,0.33191186,-0.015679359,0
-3.076582,2.5237191,-1.3664644,-0.30225578,0.87659681,0.37445891,0
-0.40153885,-0.29330814,-4.3308287,-0.18397772,0.33179963,-0.92523563,0
-0.9162972,1.8182058,2.1696303,-0.30225578,0.87659681,0.37445891,0
3.7668631,-0.66819704,1.4061072,0.85998768,0.081321701,0.50379318,0
-2.3201442,0.71300161,-3.367769,-0.55828792,0.1556125,-0.81492263,0
-0.71756983,-1.4536535,-3.9865413,0.30225578,-0.87659681,-0.37445891,0
-1.9974732,0.3768934,4.0889702,-0.30225578,0.87659681,0.37445891,0
0.511446,1.3493296,3.4893279,-0.30225578,0.87659681,0.37445891,0
-3.0300469,1.8484795,-2.3746734,-0.63807458,0.10578202,-0.76267332,0
1.9476664,-2.1978071,-0.27873051,0.30225578,-0.87659681,-0.37445891,0
4.0307808,-1.7635322,1.0065985,0.85614282,0.076925471,0.51098114,0
-4.0695224,1.5359447,-0.95698261,-0.88762635,-0.11561823,-0.4458155,0
-0.10837293,-2.2867897,-1.4234542,0.30225578,-0.87659681,-0.37445891,0
1.7094288,-1.4839432,3.3356879,0.37824386,-0.25028831,0.89122784,0
2.9234743,3.6317773,-0.43863487,0.86573994,0.41684401,-0.2770108,0
1.7821615,3.4185565,0.38384509,-0.30225578,0.87659681,0.37445891,0
2.3380482,3.1743877,1.5543897,-0.30225578,0.87659681,0.37445891,0
0.83266187,-2.5027611,-0.63244301,0.30225578,-0.87659681,-0.37445891,0
4.6086531,-1.1510918,-0.70922852,0.30225578,-0.87659681,-0.37445891,0
1.1797225,-0.93799996,-3.6313133,0.30225578,-0.87659681,-0.37445891,0
0.6427958,3.4478955,-0.89424384,-0.30225578,0.87659681,0.37445891,0
-2.8997152,-3.1391633,-1.4935119,-0.95303881,-0.27010339,-0.13697028,0
4.0764985,-0.8148945,-1.1740022,0.30225578,-0.87659681,-0.37445891,0
-0.39441991,-2.3930588,-1.9063822,0.30225578,-0.87659681,-0.37445891,0
-0.49762094,-3.5707021,1.1239948,0.30225578,-0.87659681,-0.37445891,0
3.1592407,1.3731966,2.5471191,0.85185146,0.072107464,0.51879603,0
2.688494,4.0302343,-0.43881559,0.82771504,0.43619883,-0.35301256,0
-4.6392193,0.99745226,0.53932667,-0.95298636,-0.28670663,-0.098060369,0
-0.50110054,1.1914454,3.2428842,-0.30225578,0.87659681,0.37445891,0
3.4854314,-0.17209291,-2.8829629,0.70051414,0.47068244,-0.53641188,0
1.6564364,-0.27920318,3.5767665,0.4925077,-0.19272318,0.84870124,0
-1.8196611,0.99742377,3.1754346,-0.30225578,0.87659681,0.37445891,0
4.0156999,-1.0929453,1.0669377,0.87452072,0.098701596,0.4748382,0
1.7917342,-0.66767859,-3.1656606,0.30225578,-0.87659681,-0.37445891,0
-3.821569,-1.5166531,0.81614351,-0.91046643,-0.3818258,0.15893209,0
0.95809388,1.3669581,3.7718625,-0.30225578,0.87659681,0.37445891,0
2.8442941,1.3130175,-2.5953686,0.66640735,0.47520423,-0.57452756,0
-2.7193246,-1.987771,2.0304439,-0.67128026,-0.47464752,0.56929088,0
3.6548312,-1.884339,0.2197094,0.30225578,-0.87659681,-0.37445891,0
-1.3793277,3.155885,-1.3278407,-0.30225578,0.87659681,0.37445891,0
2.0802753,3.3706911,0.79235673,-0.30225578,0.87659681,0.37445891,0
0.93606687,1.7265618,2.9955294,-0.30225578,0.87659681,0.37445891,0
-2.830893,-3.7925429,-0.2398653,0.30225578,-0.87659681,-0.37445891,0
-4.4587955,1.2802112,-0.24721861,-0.93592805,-0.19841397,-0.29098141,0
0.36833572,-0.2606287,-4.5108252,-0.098759532,0.36192104,-0.92696238,0
3.363179,1.5554481,1.7887142,0.91649193,0.15924197,0.36699331,0
1.7528629,-1.859781,-0.43515134,0.30225578,-0.87659681,-0.37445891,0
-2.1213682,0.90825272,3.3341904,-0.30225578,0.87659681,0.37445891,0
-2.984813,-2.5731182,1.0636911,-0.83631843,-0.43236488,0.33709323,0
-1.7165825,0.64118624,4.2965531,-0.30225578,0.87659681,0.37445891,0
2.0230942,-1.0265467,-2.1905088,0.30225578,-0.87659681,-0.37445891,0
2.3924141,2.0620208,3.2775512,-0.30225578,0.87659681,0.37445891,0
3.2476213,0.32835376,2.629077,0.81076765,0.029828683,0.58460736,0
3.6480415,-1.4745908,1.9713404,0.77200127,-0.0053202957,0.63559854,0
3.2111316,-2.3958399,2.1047196,0.66300398,-0.088917375,0.74331629,0
2.2686877,3.8253891,-0.96853018,0.74018431,0.46336389,-0.48725843,0
1.1474769,-2.5165787,-0.34991816,0.30225578,-0.87659681,-0.37445891,0
-0.91562986,1.7524639,-3.4188075,-0.14602697,0.34561524,-0.92694438,0
-3.4459472,-0.067958415,-2.1806715,-0.80822945,-0.027406365,-0.58822924,0
-3.2226737,1.904291,-0.60919309,-0.30225578,0.87659681,0.37445891,0
-4.1369791,-0.57049513,0.59374809,-0.941387,-0.33622718,0.027228594,0
1.1312113,0.78358543,-3.8021684,0.24038857,0.45023277,-0.85994381,0
-1.7303069,-0.79344487,-3.7291825,-0.5407331,0.16583577,-0.82468522,0
0.75012207,-2.9914582,2.9224489,0.081405401,-0.3676604,0.92639017,0
1.8065093,4.1311598,-1.4390621,0.67788184,0.47384742,-0.56208926,0
3.0778737,2.7995994,-0.48144245,0.86028159,0.42004889,-0.28891921,0
0.20617604,-2.0489411,-1.2515528,0.30225578,-0.87659681,-0.37445891,0
-3.2255435,-1.4422328,-2.0053809,-0.89059603,-0.11965029,-0.43877357,0
3.753161,0.42075309,1.1994374,0.9159795,0.1583569,0.36865181,0
-3.509768,-0.82860428,-1.4068604,-0.92725939,-0.1793187,-0.3286857,0
3.1090736,3.2366338,-0.20986891,0.88091993,0.40695137,-0.24159944,0
-1.5038807,2.0205078,1.2453985,-0.30225578,0.87659681,0.37445891,0
-2.20748,-3.7898755,0.19724059,0.30225578,-0.87659681,-0.37445891,0
-4.3139052,0.51574326,-0.5834384,-0.93548572,-0.19734737,-0.29312128,0
2.3115456,3.5876086,-0.88287306,0.77303684,0.45525724,-0.44176298,0
3.6296458,1.312483,0.20306635,0.94888866,0.31412694,0.030562639,0
-0.92780089,1.3744709,2.399415,-0.30225578,0.87659681,0.37445891,0
-0.12641668,-1.8008205,-2.8318763,0.30225578,-0.87659681,-0.37445891,0
-2.7029366,1.0470245,1.9543216,-0.30225578,0.87659681,0.37445891,0
4.5364313,-0.86676079,-0.46238327,0.30225578,-0.87659681,-0.37445891,0
2.5230339,2.9015715,1.7120507,-0.30225578,0.87659681,0.37445891,0
1.4517854,4.1385279,-1.4780843,-0.30225578,0.87659681,0.37445891,0
-1.7914774,1.1624591,2.7522604,-0.30225578,0.87659681,0.37445891,0
-4.4128571,0.88527429,0.28600264,-0.95321524,-0.27987954,-0.11422694,0
-4.6117406,1.4826461,-0.44427347,-0.30225578,0.87659681,0.37445891,0
0.45907831,-1.991245,-1.8997231,0.30225578,-0.87659681,-0.37445891,0
3.8812065,-0.93516815,1.4770541,0.85546297,0.076156139,0.51223344,0
3.7496314,0.94373798,-0.9526062,0.89389646,0.39708295,-0.20802343,0
4.7238383,-0.73029989,-1.150959,0.94040829,0.33842564,-0.033165097,0
1.6630018,3.2604575,0.69585466,-0.30225578,0.87659681,0.37445891,0
0.70548439,-1.2968494,-3.2056069,0.30225578,-0.87659681,-0.37445891,0
0.14453316,0.83476514,-3.9364529,-0.062924504,0.37362763,-0.9254418,0
-3.7258463,2.0167263,-1.4236107,-0.30225578,0.87659681,0.37445891,0
1.9475819,3.0095856,0.84329462,-0.30225578,0.87659681,0.37445891,0
0.49829471,3.007453,-0.15305257,-0.30225578,0.87659681,0.37445891,0
1.9546216,2.0388429,3.4754655,-0.30225578,0.87659681,0.37445891,0
-3.1083224,1.3708148,-2.6181476,-0.69006389,0.069787368,-0.72037578,0
0.54692191,-2.2874002,-0.66678691,0.30225578,-0.87659681,-0.37445891,0
3.5879936,-1.2796608,-0.68087935,0.30225578,-0.87659681,-0.37445891,0
0.90648848,3.1623166,0.1326859,-0.30225578,0.87659681,0.37445891,0
1.2264671,1.0344919,4.1505342,0.49534559,-0.19118705,0.8473959,0
-0.32874537,-1.202076,-4.3951344,0.30225578,-0.87659681,-0.37445891,0
2.7005916,3.7773039,0.0053806305,0.89656484,0.39485419,-0.20065224,0
3.45293,-1.7810184,2.2754688,0.6867165,-0.072203681,0.7233302,0
0.65615535,-3.6119823,2.9700692,0.038639307,-0.38124305,0.92366678,0
-0.77844286,-1.7165594,-3.456327,0.30225578,-0.87659681,-0.37445891,0
-2.8957851,-1.31233,-2.6745808,-0.81112081,-0.030167326,-0.58409965,0
-0.30611277,-2.4141793,3.3501658,-0.11132622,-0.42260709,0.89944953,0
3.124227,3.4319458,0.29097509,0.91417515,0.3778584,-0.14665091,0
1.041996,2.6614373,1.4612712,-0.30225578,0.87659681,0.37445891,0
3.1169176,-0.37821293,2.3815024,0.78984141,0.010389417,0.61322272,0
0.48813796,-3.3588343,1.2749219,0.30225578,-0.87659681,-0.37445891,0
1.7092381,1.9581339,3.9307199,0.65357107,-0.095379978,0.75083101,0
1.5970545,2.620569,1.576347,-0.30225578,0.87659681,0.37445891,0
-3.3050632,0.57565486,2.597724,-0.30225578,0.87659681,0.37445891,0
-3.6166174,-0.50072879,-1.4628742,-0.91271043,-0.15283135,-0.37894821,0
3.6142404,1.6650875,1.2829804,0.94779646,0.23450279,0.21607864,0
-4.0914063,0.60327262,1.4982672,-0.30225578,0.87659681,0.37445891,0
-1.4093709,-3.3532176,-0.38038635,0.30225578,-0.87659681,-0.37445891,0
0.65239668,4.0349979,-2.2991226,-0.30225578,0.87659681,0.37445891,0
1.2540846,0.96670902,4.1315808,0.44538116,-0.21744514,0.8685348,0
-2.694037,1.3239354,0.99633241,-0.30225578,0.87659681,0.37445891,0
-2.1348705,-2.8597054,-2.197315,0.30225578,-0.87659681,-0.37445891,0
-2.165575,3.1851988,-2.0213675,-0.30225578,0.87659681,0.37445891,0
0.98305351,2.5853763,0.90301824,-0.30225578,0.87659681,0.37445891,0
-2.9025326,2.3117981,-2.5464897,-0.60281795,0.12852633,-0.7874586,0
2.5662327,0.030663848,-3.6454482,0.50742209,0.48051238,-0.71528339,0
1.7099698,2.6841636,-2.6032586,0.47183502,0.47891802,-0.74027634,0
-0.12945271,-0.29069185,4.4157333,0.081668496,-0.36757433,0.92640114,0
-0.045885861,-2.6040869,-1.0113578,0.30225578,-0.87659681,-0.37445891,0
-2.9225054,-3.6001675,0.15014839,-0.87868345,-0.40850961,0.24705255,0
0.36941075,1.8762712,2.4106498,-0.30225578,0.87659681,0.37445891,0
2.0933456,-2.7992136,2.0801032,0.30225578,-0.87659681,-0.37445891,0
0.44461536,1.2407868,4.0517054,-0.30225578,0.87659681,0.37445891,0
0.87042689,1.8073014,2.8598301,-0.30225578,0.87659681,0.37445891,0
-0.24371004,-1.4827677,-2.9231505,0.30225578,-0.87659681,-0.37445891,0
-0.17610955,-1.515142,-3.7075329,0.30225578,-0.87659681,-0.37445891,0
1.541954,1.6071696,-3.2705152,0.36008137,0.46872544,-0.80662107,0
1.9480683,4.0818944,-0.9104805,-0.30225578,0.87659681,0.37445891,0
-2.0693424,2.1170037,0.21513915,-0.30225578,0.87659681,0.37445891,0
3.8044205,0.45665568,0.68766165,0.94964296,0.24288094,0.19795597,0
0.39555931,-3.5532875,1.512143,0.30225578,-0.87659681,-0.37445891,0
-3.2399926,1.8350077,-2.3407688,-0.68910766,0.070479065,-0.72122312,0
-0.31069756,3.49614,-1.9050865,-0.30225578,0.87659681,0.37445891,0
2.4194961,3.2005808,0.7174263,-0.30225578,0.87659681,0.37445891,0
4.2969742,-0.39492178,-1.7808809,0.87388307,0.41173083,-0.25846803,0
-0.63275766,-3.815928,1.558437,0.30225578,-0.87659681,-0.37445891,0
2.9531326,2.1679487,2.7478237,0.87604994,0.10060865,0.47160816,0
-0.84110165,-3.1979952,0.30083179,0.30225578,-0.87659681,-0.37445891,0
2.3393846,2.0955257,-2.6215239,0.59296322,0.48048246,-0.64616621,0
-3.4967647,-2.3089049,-0.19050741,-0.9444977,-0.32845277,0.0065180063,0
4.2197247,-1.449734,1.0779076,0.86621433,0.088612229,0.49175239,0
-1.4731121,3.4834247,-2.7083578,-0.30225578,0.87659681,0.37445891,0
-2.1051359,1.0992702,2.8481035,-0.30225578,0.87659681,0.37445891,0
-0.1062932,-2.0519075,-2.1445417,0.30225578,-0.87659681,-0.37445891,0
-3.370852,-2.4846263,0.33293581,-0.90584123,-0.38645548,0.17350316,0
-0.6981225,2.4092469,-3.3087413,-0.077471614,0.36894301,-0.92621756,0
0.021326065,-3.1816297,1.2843721,0.30225578,-0.87659681,-0.37445891,0
0.52481079,1.6809469,2.7963586,-0.30225578,0.87659681,0.37445891,0
2.8773146,-0.555843,-2.6446991,0.30225578,-0.87659681,-0.37445891,0
-1.7332733,-3.6167607,0.89139795,0.30225578,-0.87659681,-0.37445891,0
3.2714014,-0.98071641,2.230593,0.77243853,-0.0049437732,0.63507003,0
4.1258621,-0.8040244,-1.3982596,0.30225578,-0.87659681,-0.37445891,0
0.33838642,-2.0491805,-1.8841499,0.30225578,-0.87659681,-0.37445891,0
-1.5684471,-2.7540958,-1.7290984,0.30225578,-0.87659681,-0.37445891,0
-1.3834476,-1.2869319,-4.4262733,-0.48507762,0.19671866,-0.85205698,0
0.34590268,3.7457857,-1.7865636,-0.30225578,0.87659681,0.37445891,0
-2.4753079,0.97180653,2.1976957,-0.30225578,0.87659681,0.37445891,0
4.0530343,-1.128384,0.97784114,0.9109562,0.14994706,0.38428414,0
-0.43028682,-2.9365258,0.27772188,0.30225578,-0.87659681,-0.37445891,0
-4.0689421,-0.40345153,-0.83205509,-0.94310069,-0.21789816,-0.25115919,0
-0.024345964,-2.4915929,-0.61871237,0.30225578,-0.87659681,-0.37445891,0
-0.40216875,-3.4249091,1.2028182,0.30225578,-0.87659681,-0.37445891,0
1.023376,1.2598451,4.2328362,-0.30225578,0.87659681,0.37445891,0
-1.5353539,-2.1518555,-3.2920809,0.30225578,-0.87659681,-0.37445891,0
-0.33556938,-1.5507458,3.7632308,-0.062640071,-0.41024953,0.90981936,0
-1.2384738,3.0421634,-1.2404261,-0.30225578,0.87659681,0.37445891,0
-2.5884318,-1.9013075,2.4557328,-0.61377746,-0.47953737,0.62715304,0
3.0750797,-0.99984384,-1.7516592,0.30225578,-0.87659681,-0.37445891,0
-3.9929571,1.6829108,-0.77003312,-0.30225578,0.87659681,0.37445891,0
0.28738761,3.4194033,-2.6011999,0.22467774,0.44728026,-0.86571354,0
0.89883089,-0.24531937,4.0740461,0.30044138,-0.28520301,0.9101615,0
-1.9825665,-3.6503375,1.7243419,-0.60954821,-0.47976232,0.63109338,0
0.66177404,3.1725917,-0.60291564,-0.30225578,0.87659681,0.37445891,0
0.48829317,-3.4711983,1.6492687,0.30225578,-0.87659681,-0.37445891,0
1.4314723,3.6174257,-0.53985691,-0.30225578,0.87659681,0.37445891,0
0.76451492,-1.7708204,3.4717185,0.19926476,-0.32604909,0.92411315,0
3.8326783,1.1654036,-0.56032228,0.93518019,0.34877262,-0.061607003,0
-0.11563873,-0.11140931,4.1349826,0.12072265,-0.35446757,0.9272424,0
-3.4738641,-2.0692694,-0.15241098,-0.94436193,-0.32882205,0.0074920654,0
2.6967022,-2.420783,2.7160101,0.52958906,-0.17220122,0.8305912,0
0.52530861,-0.83577752,-3.9756575,0.30225578,-0.87659681,-0.37445891,0
-2.1383533,-1.0594187,3.5451093,-0.46247357,-0.47835734,0.74651998,0
-3.3777223,-2.0465374,1.1204815,-0.83461654,-0.4331454,0.34029412,0
2.2655754,3.4998846,-1.270905,0.71759439,0.46782741,-0.51594144,0
3.5859437,-0.79203582,-1.5537038,0.30225578,-0.87659681,-0.37445891,0
0.46413088,3.4614201,-1.4752176,-0.30225578,0.87659681,0.37445891,0
3.7895684,-1.6953676,1.9849598,0.78040904,0.0019926727,0.62526572,0
0.65995121,1.492764,4.1760435,-0.30225578,0.87659681,0.37445891,0
-2.8624024,-3.0976286,-1.4302993,0.30225578,-0.87659681,-0.37445891,0
1.9646177,-3.4368646,2.6359537,0.30225578,-0.87659681,-0.37445891,0
-2.1875954,0.91787207,2.8832629,-0.30225578,0.87659681,0.37445891,0
-3.4158754,-1.7990686,-0.37871838,-0.94944441,-0.3118144,-0.036424756,0
3.1823101,-1.6878387,0.36089802,0.30225578,-0.87659681,-0.37445891,0
1.2095683,-0.70566905,-4.2176828,0.30225578,-0.87659681,-0.37445891,0
4.4022465,-1.4498302,0.85078049,0.89542538,0.1263901,0.42689413,0
2.5729227,-1.071732,-2.4819798,0.30225578,-0.87659681,-0.37445891,0
2.1706061,-1.2363136,-2.4463749,0.30225578,-0.87659681,-0.37445891,0
3.3340902,-1.5541543,2.0286281,0.72139531,-0.046420991,0.69096577,0
-0.10199213,1.4705024,2.7489142,-0.30225578,0.87659681,0.37445891,0
3.2206028,-0.28475749,-3.3345368,0.61870182,0.47925365,-0.62251395,0
3.6688719,1.8179646,1.258975,0.95096397,0.25024697,0.18177879,0
-2.3043981,-1.1163031,-3.2338078,-0.69988012,0.062615588,-0.71151018,0
-3.2565389,-0.49406284,2.393939,-0.7288419,-0.46570817,0.50190157,0
-1.8336154,1.3003252,2.2750473,-0.30225578,0.87659681,0.37445891,0
-0.27857828,1.1947247,-3.7807088,-0.094629169,0.36329898,-0.92685425,0
-2.4015257,1.0527769,-3.196161,-0.55771416,0.15595053,-0.81525087,0
2.5412211,3.9461365,-0.43532276,-0.30225578,0.87659681,0.37445891,0
1.6814649,2.0140429,3.0018275,-0.30225578,0.87659681,0.37445891,0
-3.5048332,1.5032334,0.80688763,-0.30225578,0.87659681,0.37445891,0
-2.5026317,-3.105442,1.3848376,-0.71170938,-0.46885908,0.52310663,0
4.4922824,-1.3420177,0.74425745,0.90618873,0.14236367,0.39818847,0
3.515749,-0.81946605,1.6784604,0.81418329,0.033118814,0.57966226,0
-2.3201635,-1.4683808,-3.2880664,-0.7644664,0.011744812,-0.64455616,0
-0.75988078,1.0839548,3.396168,-0.30225578,0.87659681,0.37445891,0
-1.6884463,2.1687603,-3.3566444,-0.29691279,0.28671178,-0.91084516,0
1.5797272,-1.8921622,-0.62575692,0.30225578,-0.87659681,-0.37445891,0
3.1333852,2.4619112,-0.4525013,0.89743567,0.39411008,-0.19820726,0
2.8776848,-1.4117672,2.6602125,0.66924095,-0.084587649,0.73821491,0
-1.5162473,0.80485225,3.6958518,-0.30225578,0.87659681,0.37445891,0
1.4602976,0.25902367,-3.9151876,0.26843929,0.45521039,-0.84895438,0
-1.8273988,-3.0962129,-1.3486843,0.30225578,-0.87659681,-0.37445891,0
-2.6158228,-3.2077339,-1.761256,0.30225578,-0.87659681,-0.37445891,0
0.088591933,-2.2094452,-1.4300116,0.30225578,-0.87659681,-0.37445891,0
1.7681227,2.2484865,-2.8533759,0.47549218,0.47912142,-0.73780042,0
1.4033751,-1.1470178,-2.9580343,0.30225578,-0.87659681,-0.37445891,0
1.8664862,3.4786816,-1.7676764,0.61530745,0.47945169,-0.62571758,0
3.69414,-0.66288841,-2.4438415,0.30225578,-0.87659681,-0.37445891,0
-1.9327662,-3.0968628,-0.49605775,0.30225578,-0.87659681,-0.37445891,0
