3.1082835,3.3338637,2.8498311,0.9223938,0.36275113,-0.1326699,0
1.7594807,-3.5617523,0.57371795,0.38117236,-0.91040081,0.16086626,0
-2.720351,-2.6390615,-3.7408586,0.010829926,-0.36763534,-0.92990696,0
1.9627073,-3.5316191,-0.98073363,0.33131427,-0.91962546,-0.21099728,0
-3.5056622,0.54518032,3.76054,-0.9223938,-0.36275113,0.1326699,0
0.86897278,4.0464172,2.2679484,-0.21048647,0.76007324,0.61480409,0
3.5084753,-2.5088966,1.5850996,0.38180125,-0.80431044,0.45531571,0
-2.1887326,-4.3840694,-1.642264,-0.9223938,-0.36275113,0.1326699,0
-3.4356217,-0.2054224,1.1334383,-0.9223938,-0.36275113,0.1326699,0
3.6598873,-0.64878941,-2.3943424,0.9223938,0.36275113,-0.1326699,0
4.2191768,-1.1738794,2.817399,0.31837848,-0.51957893,0.79288888,0
3.1747088,2.0357389,3.7743878,0.050874293,0.2263891,0.97270745,0
2.4148779,2.5707116,-1.313632,0.9223938,0.36275113,-0.1326699,0
4.3894472,-2.177001,-0.35075665,0.9223938,0.36275113,-0.1326699,0
1.7732906,4.5997014,-0.0068187714,0.9223938,0.36275113,-0.1326699,0
-2.847286,-3.0477853,-1.4849939,-0.9223938,-0.36275113,0.1326699,0
-3.175684,0.77312517,4.1386495,-0.076898098,0.50907063,0.85728288,0
-1.8299376,-2.6530859,4.4068189,0.25480846,-0.31334186,0.91481662,0
1.5357314,-1.5265877,-3.9715021,0.070777416,-0.49640346,-0.86520177,0
2.3979206,4.0539722,1.2542722,0.9223938,0.36275113,-0.1326699,0
-3.131176,-0.37611198,3.7176869,-0.9223938,-0.36275113,0.1326699,0
3.9758487,-0.28343534,-0.27026695,0.9223938,0.36275113,-0.1326699,0
-2.168525,-4.1330128,0.33665085,-0.9223938,-0.36275113,0.1326699,0
0.93798554,-2.7188692,3.4271157,0.33226392,-0.5700503,0.75142759,0
2.44906,3.2361908,0.64167255,0.9223938,0.36275113,-0.1326699,0
-0.20589209,4.0326433,-1.6421643,-0.38577873,0.84824002,-0.36285466,0
3.5269423,-0.091042519,-0.72758782,0.9223938,0.36275113,-0.1326699,0
3.2929723,1.6270831,3.5534792,0.093741626,0.12297017,0.98797303,0
2.7665138,3.4404683,3.1624594,0.9223938,0.36275113,-0.1326699,0
-2.3297944,0.42351103,4.508769,0.012945414,0.31425455,0.94925046,0
-3.2446322,-2.2228327,-1.8307356,-0.9223938,-0.36275113,0.1326699,0
4.6669936,-1.8799562,0.12608421,0.9223938,0.36275113,-0.1326699,0
-4.2514195,1.9017527,-2.1587324,-0.36269563,0.69533175,-0.62045604,0
2.8128464,2.6798587,0.97290623,0.9223938,0.36275113,-0.1326699,0
-2.8734937,-1.7198889,1.957371,-0.9223938,-0.36275113,0.1326699,0
-1.6100655,-4.471036,2.2749047,-0.9223938,-0.36275113,0.1326699,0
-2.8489854,-2.8829513,-3.3027847,0.040266931,-0.43191937,-0.9010129,0
-2.721633,3.278657,1.7054468,-0.28959739,0.87678576,0.38390109,0
-2.1338959,-2.5448174,-3.5851643,0.01318723,-0.37285715,-0.92779505,0
-3.345768,1.5084906,-2.8777781,-0.32869244,0.55678982,-0.76285404,0
2.7964742,1.0598149,-3.6603723,0.9223938,0.36275113,-0.1326699,0
-0.3617053,3.810003,1.8404328,-0.26365024,0.84232622,0.47007978,0
-2.0239561,2.4474971,3.0063877,-0.17447054,0.69774199,0.69477773,0
-3.1963658,-1.7502522,-0.64983773,-0.9223938,-0.36275113,0.1326699,0
-2.1008463,-4.6348433,-1.187757,-0.9223938,-0.36275113,0.1326699,0
-1.9735327,-4.2903275,-2.0177126,0.22579992,-0.78509456,-0.5767504,0
0.61265463,-1.2003375,4.0911136,0.22470427,-0.22458716,0.94819242,0
-1.9623952,-3.4276309,2.1608777,-0.9223938,-0.36275113,0.1326699,0
1.8982902,4.4533944,-2.1231544,0.9223938,0.36275113,-0.1326699,0
0.67184138,-3.6261759,2.1034746,0.38047498,-0.79414409,0.47389218,0
-2.7576616,-3.5763772,-3.1583409,0.074498236,-0.50411487,-0.86041743,0
-3.3463674,-2.0552082,-3.3292179,-0.9223938,-0.36275113,0.1326699,0
0.70733356,-1.7416459,-3.7239552,0.065815032,-0.48606664,-0.87143993,0
3.5307455,1.5039394,0.91728914,0.9223938,0.36275113,-0.1326699,0
2.7892323,3.1333654,1.4990847,0.9223938,0.36275113,-0.1326699,0
-1.0435369,3.7784286,-1.2722939,-0.38599646,0.87816745,-0.28253955,0
2.8881137,3.5696473,2.1300316,0.9223938,0.36275113,-0.1326699,0
-4.8391628,2.5937281,-0.66573536,-0.38614529,0.87406647,-0.29478735,0
-4.2448602,0.016014099,-1.8549333,-0.9223938,-0.36275113,0.1326699,0
-1.191906,-4.077724,-2.6185791,0.20101601,-0.7441346,-0.63706851,0
-2.5556486,-2.1813693,3.9491715,-0.9223938,-0.36275113,0.1326699,0
-2.6321819,3.5189898,-0.31780457,-0.37670994,0.92074847,-0.10154796,0
1.1590432,-0.11341543,3.9106376,0.16199899,-0.051517241,0.98544532,0
2.6500192,1.3454449,-3.6631112,0.9223938,0.36275113,-0.1326699,0
-2.2113037,-2.8845654,1.6863527,-0.9223938,-0.36275113,0.1326699,0
-4.7217121,2.5130615,1.4388354,-0.32883942,0.91769665,0.22292934,0
1.2471356,4.8797169,-1.1074995,-0.38129991,0.90998966,-0.16287747,0
2.3449247,-3.0327425,-2.3722944,0.24956959,-0.82188272,-0.51207787,0
-3.550755,-0.83264256,-0.61283118,-0.9223938,-0.36275113,0.1326699,0
1.7005001,-0.43019563,3.8317044,0.20016918,-0.15517706,0.96739465,0
-1.9281621,-4.0882368,-2.612215,0.16221458,-0.67553329,-0.71926439,0
2.0493927,2.8675716,-3.6206639,0.9223938,0.36275113,-0.1326699,0
3.2808704,-0.084606647,-4.4596119,-0.027330637,-0.28132367,-0.95922363,0
-4.4755793,0.38791418,-3.3060553,-0.9223938,-0.36275113,0.1326699,0
0.1677556,-4.4560332,-0.46732998,0.34491301,-0.92816526,-0.13980076,0
1.5817337,-2.1588168,-3.6914639,0.12564087,-0.60658622,-0.78502703,0
-4.7366619,1.9969654,-0.60527563,-0.9223938,-0.36275113,0.1326699,0
-2.8641498,-2.8408797,-2.4766412,-0.9223938,-0.36275113,0.1326699,0
-2.7762659,-1.3208585,4.3790679,-0.9223938,-0.36275113,0.1326699,0
-1.0887064,0.041790426,-4.0405192,-0.16491365,0.059264842,-0.98452586,0
0.81224012,4.866456,-1.1653262,-0.38207012,0.90729809,-0.17559195,0
0.41100684,-1.2412118,3.9640727,0.22910953,-0.23731109,0.94402981,0
-1.0939579,-4.4387321,2.2735989,0.37868112,-0.78163052,0.49563515,0
-0.80703962,-0.6724906,4.3892117,0.14810947,-0.014951192,0.98885798,0
-3.1952629,-1.9034176,-3.6959004,-0.056521535,-0.21301848,-0.97541195,0
-3.3148718,-1.0275052,-3.7109492,-0.13852647,-0.0099468008,-0.99030876,0
2.5614865,-3.3178315,1.1929018,0.38622332,-0.87030846,0.30560541,0
-2.0550623,2.6751986,2.566586,-0.2090981,0.75775826,0.61812651,0
2.1533983,4.1267667,-0.32525551,0.9223938,0.36275113,-0.1326699,0
3.2840786,1.562248,0.64207667,0.9223938,0.36275113,-0.1326699,0
-0.31706178,-0.18685472,4.3536816,0.14238702,-5.1744282e-05,0.98981106,0
3.7213905,-0.68745232,-2.5640898,0.9223938,0.36275113,-0.1326699,0
3.3444049,1.3010304,-0.70848775,0.9223938,0.36275113,-0.1326699,0
-2.5212145,2.0587571,3.6805227,-0.14292973,0.63965899,0.75525314,0
3.9752221,0.48476219,2.7515128,0.9223938,0.36275113,-0.1326699,0
-3.8624547,1.5509667,-2.9441133,-0.32744038,0.55218995,-0.76672608,0
-2.0715332,-3.0767348,2.6319747,-0.9223938,-0.36275113,0.1326699,0
-3.325007,-0.8890748,2.1912758,-0.9223938,-0.36275113,0.1326699,0
-2.4579551,1.4190388,-3.6015141,-0.28417629,0.40471339,-0.86916679,0
-4.0562716,0.83832598,0.90505064,-0.9223938,-0.36275113,0.1326699,0
0.93945384,-2.7886333,2.8813815,0.34415525,-0.61593246,0.70864969,0
1.425467,-0.19188654,4.2413516,0.19120882,-0.13039804,0.97284919,0
-1.4362259,4.072094,0.9389227,-0.33252633,0.9205327,0.2050502,0
1.5153029,-2.9421453,-2.6459627,0.21438003,-0.76652539,-0.60537577,0
0.58661747,3.8248017,-2.8963621,-0.35881567,0.6776033,-0.64195406,0
0.94462895,-3.648504,2.0822885,0.37867254,-0.7815727,0.49573299,0
3.1793191,1.3499146,-1.1046312,0.9223938,0.36275113,-0.1326699,0
3.2463422,1.4466376,-1.1167407,0.9223938,0.36275113,-0.1326699,0
4.2794771,-1.3970032,0.27565885,0.9223938,0.36275113,-0.1326699,0
0.19655514,0.75868559,4.0925016,0.06155625,0.20103429,0.9776482,0
-2.2615423,2.0879598,3.6325097,-0.13906848,0.63234502,0.76210201,0
3.7563863,0.30071115,-0.67416978,0.9223938,0.36275113,-0.1326699,0
0.42934704,-4.0487823,2.3522577,0.37923843,-0.78539419,0.48921791,0
3.2599316,1.0671399,0.23186761,0.9223938,0.36275113,-0.1326699,0
2.1025207,-3.1563687,1.4525735,0.38513178,-0.8376388,0.38734299,0
-2.1369543,1.7025292,-3.283967,-0.30045182,0.45799351,-0.83664244,0
4.6915007,-1.7712278,1.8708138,0.36683071,-0.7151773,0.59494269,0
2.0093145,4.7356548,-0.019199014,0.9223938,0.36275113,-0.1326699,0
-0.52529383,-4.3589516,-1.7153934,0.26957792,-0.85059148,-0.45146653,0
3.6224806,-0.29020572,3.522855,0.25415835,-0.31137753,0.91566777,0
-2.1544826,-3.8166089,0.59834683,-0.9223938,-0.36275113,0.1326699,0
-1.8715701,-4.673089,0.090138078,-0.9223938,-0.36275113,0.1326699,0
0.33111751,-0.20489246,4.4204063,0.14059889,0.0045846477,0.99005604,0
3.9495313,-1.1235509,-0.73740798,0.9223938,0.36275113,-0.1326699,0
1.1403689,4.8137164,0.9466688,-0.32022989,0.91025907,0.26245248,0
-3.5207648,-1.7563581,-2.1085768,-0.9223938,-0.36275113,0.1326699,0
3.3901181,0.9095068,3.7394106,0.14515755,-0.0072535053,0.98938197,0
1.3826252,-2.5616627,3.2228134,0.3324897,-0.57089579,0.75068539,0
-3.4178858,-2.1584234,-2.1996367,-0.9223938,-0.36275113,0.1326699,0
-3.3544512,1.1863358,-3.0649629,-0.30501056,0.47333446,-0.82639158,0
-2.5294416,3.3704977,0.84559053,-0.33795756,0.92427009,0.17750894,0
1.7335175,2.2400374,-4.5074315,-0.23294933,0.24847162,-0.94021088,0
-1.5547523,-5.1837335,0.78175914,0.37283415,-0.92592728,0.060441643,0
-0.7166639,0.28333175,4.2117529,0.065252662,0.19219694,0.97918451,0
-3.2299728,-0.11579037,4.443923,-0.9223938,-0.36275113,0.1326699,0
-2.2268476,-4.4411216,-0.046892762,-0.9223938,-0.36275113,0.1326699,0
1.3549471,4.9691353,-0.77788138,-0.37223327,0.92653102,-0.054613322,0
-0.56956553,3.8970716,-2.1138721,-0.3829608,0.81416088,-0.43644357,0
3.2481527,2.8661234,2.7792673,0.9223938,0.36275113,-0.1326699,0
2.6479533,2.7853861,3.5527678,-0.026941121,0.40306759,0.91477352,0
2.5071859,2.416522,-2.9030092,0.9223938,0.36275113,-0.1326699,0
-2.3251672,-4.1540685,-1.3400604,-0.9223938,-0.36275113,0.1326699,0
1.2219999,-3.2717605,-2.3581891,0.23465443,-0.79910696,-0.55350268,0
-1.2079828,2.6744068,-3.2657349,-0.33436462,0.57795227,-0.74442685,0
-3.1405091,0.87015581,4.2553964,-0.071068168,0.49700725,0.86483127,0
2.5545413,0.81674886,3.9095361,0.14356188,-0.0031030402,0.98963642,0
-0.81240153,3.3042231,-2.6197884,-0.36634612,0.71279204,-0.59809536,0
-2.5113454,-2.4596419,1.0322455,-0.9223938,-0.36275113,0.1326699,0
-0.57165527,-3.6332488,2.8228064,0.36546558,-0.70850134,0.60370588,0
-2.0178015,3.0614691,-2.5796208,-0.36437333,0.70325106,-0.61046708,0
1.5862459,-0.22977996,-4.1930866,-0.043789208,-0.24305725,-0.96902299,0
-1.5483533,-0.19786125,-3.9083273,-0.1510808,0.022725277,-0.98826015,0
4.5021248,-0.87294149,1.1353481,0.9223938,0.36275113,-0.1326699,0
2.6439269,2.6228702,0.33662677,0.9223938,0.36275113,-0.1326699,0
-0.97778988,-4.870769,1.9549091,0.38612425,-0.85720009,0.3407582,0
-1.9694607,3.5682278,-1.0495124,-0.38621658,0.87076932,-0.30429831,0
-1.5913243,-5.0015898,0.45280778,0.36802357,-0.92966503,0.016775936,0
3.6994796,0.18949461,-0.84673119,0.9223938,0.36275113,-0.1326699,0
3.2316444,-3.1766369,0.52186525,0.38118321,-0.910366,0.16103715,0
-2.2400208,-3.3642468,2.9000449,-0.9223938,-0.36275113,0.1326699,0
-3.4173596,0.83096361,3.8105843,-0.9223938,-0.36275113,0.1326699,0
-1.3150797,-4.9257207,-0.328408,0.3372252,-0.92379916,-0.18131289,0
-3.8064384,2.2867084,2.6443839,-0.25222141,0.82581532,0.50439411,0
0.26784027,-1.0883362,4.0334134,0.20801383,-0.17711303,0.96195692,0
-0.22492647,3.4864759,2.3087695,-0.23038495,0.79239398,0.56483138,0
3.7536926,-0.17275095,-0.18298283,0.9223938,0.36275113,-0.1326699,0
3.5115552,0.92412066,3.7495086,0.15765254,-0.040012315,0.98668367,0
1.531819,1.5192652,-4.6068611,-0.17905977,0.097248912,-0.97902,0
3.7174509,1.4095573,2.3500502,0.9223938,0.36275113,-0.1326699,0
-2.4629304,2.54831,2.7227011,-0.21318215,0.76454687,0.60829383,0
-3.3992283,-1.0928087,0.17004824,-0.9223938,-0.36275113,0.1326699,0
4.4539223,-2.327765,-0.62067902,0.9223938,0.36275113,-0.1326699,0
3.9911151,-0.64554834,0.73407888,0.9223938,0.36275113,-0.1326699,0
4.488658,-2.6838865,1.0054318,0.38624251,-0.86401117,0.32295728,0
2.8470929,1.2082319,-3.9025259,0.9223938,0.36275113,-0.1326699,0
2.9549792,0.38549662,-4.3795743,0.9223938,0.36275113,-0.1326699,0
-0.10979176,-4.7564554,0.4540801,0.36885029,-0.92918301,0.023841292,0
-0.69046497,-4.8268766,-0.43200719,0.33502418,-0.92232037,-0.1925717,0
1.238452,-3.9019718,0.1986618,0.37353379,-0.92516553,0.067388624,0
-2.4303236,1.1690438,-3.6109633,-0.28068471,0.39355403,-0.87540346,0
2.9546385,0.16812229,-4.6591249,0.9223938,0.36275113,-0.1326699,0
2.9497752,1.0786169,-2.8506866,0.9223938,0.36275113,-0.1326699,0
3.0806122,2.7465968,2.7035725,0.9223938,0.36275113,-0.1326699,0
-4.017128,0.49003839,-1.6569936,-0.9223938,-0.36275113,0.1326699,0
-2.0717373,3.8184226,-0.11581528,-0.3712821,0.9273982,-0.045629442,0
-2.6012678,-1.7173042,2.987792,-0.9223938,-0.36275113,0.1326699,0
-3.9810348,0.29250002,-0.6367119,-0.9223938,-0.36275113,0.1326699,0
2.8944213,0.81485748,-4.106432,0.9223938,0.36275113,-0.1326699,0
-3.1604815,-1.547066,0.15281361,-0.9223938,-0.36275113,0.1326699,0
-2.2411032,-3.6649563,0.8517288,-0.9223938,-0.36275113,0.1326699,0
-2.0481892,-4.6500106,-1.4074124,-0.9223938,-0.36275113,0.1326699,0
2.1916382,4.0731978,-0.97614825,0.9223938,0.36275113,-0.1326699,0
-4.2511978,1.8935413,1.0044647,-0.9223938,-0.36275113,0.1326699,0
-3.6210341,-0.28928709,-0.052486096,-0.9223938,-0.36275113,0.1326699,0
-2.9140666,-2.7152429,-2.3218098,-0.9223938,-0.36275113,0.1326699,0
1.5942957,3.3889489,-3.9821332,-0.30998498,0.49031124,-0.81455761,0
4.1455517,-1.3682032,0.18637693,0.9223938,0.36275113,-0.1326699,0
3.3878007,1.4435811,0.44765374,0.9223938,0.36275113,-0.1326699,0
-4.0693493,0.075605392,-0.58883703,-0.9223938,-0.36275113,0.1326699,0
1.8081532,4.6209569,-0.80935621,0.9223938,0.36275113,-0.1326699,0
-3.6927121,3.2472665,0.40684205,-0.36677462,0.93028784,-0.0063894987,0
-4.048562,1.8430133,-2.3757613,-0.36301899,0.69684553,-0.61856568,0
4.2921252,-1.4064536,0.044811964,0.9223938,0.36275113,-0.1326699,0
-4.2584467,-0.088510036,-2.3749893,-0.9223938,-0.36275113,0.1326699,0
-3.8190744,-0.64652419,-3.6187749,-0.19542176,0.14201264,-0.97038275,0
2.2179167,3.4887626,-2.0009794,0.9223938,0.36275113,-0.1326699,0
-3.4071307,-1.7118623,-2.3106537,-0.9223938,-0.36275113,0.1326699,0
3.1640813,0.76197529,-2.2675772,0.9223938,0.36275113,-0.1326699,0
-1.5971789,-1.6002027,-3.7319069,-0.035247326,-0.2629962,-0.96415281,0
-3.163132,-2.3631828,-1.28185,-0.9223938,-0.36275113,0.1326699,0
-1.1277943,-3.8146501,-2.782722,0.17975122,-0.7071622,-0.68382096,0
-3.0848236,-3.1798811,-3.0336227,-0.9223938,-0.36275113,0.1326699,0
1.398663,4.1963325,1.9676383,-0.22015685,0.77598625,0.59108067,0
-2.1640444,2.9308181,-2.1168253,-0.37455797,0.75617605,-0.53656685,0
2.4530036,3.1265364,-2.1178002,0.9223938,0.36275113,-0.1326699,0
2.0494118,-2.9711099,2.6769991,0.36135983,-0.68914151,0.62809473,0
3.3675909,2.5675473,3.2992558,0.9223938,0.36275113,-0.1326699,0
3.5965347,2.1278522,3.1729202,0.9223938,0.36275113,-0.1326699,0
-2.8709517,3.1715631,-1.5818928,-0.38363421,0.82049316,-0.42381105,0
-3.9943905,1.4752049,1.7616227,-0.9223938,-0.36275113,0.1326699,0
-4.6728988,2.1700525,-0.8623631,-0.9223938,-0.36275113,0.1326699,0
0.58914852,4.3609934,-1.7147571,-0.38618487,0.85978287,-0.33411768,0
-2.2804737,-4.3453813,-1.6308722,-0.9223938,-0.36275113,0.1326699,0
-3.5626507,-1.6751807,-3.3699682,-0.9223938,-0.36275113,0.1326699,0
3.2942302,-3.3044214,-0.031462312,0.37421942,-0.92435247,0.074378937,0
0.58447456,4.0213127,2.2717297,-0.2380777,0.80442911,0.54425442,0
0.77742577,3.6496258,-3.2266989,-0.35591531,0.66480744,-0.65677643,0
-1.948627,-4.4706802,-1.8071686,0.25143987,-0.82465988,-0.50666964,0
3.6513662,0.48210478,-0.30327773,0.9223938,0.36275113,-0.1326699,0
0.28527308,-0.40297747,-4.1307898,-0.079617143,-0.15754144,-0.98429763,0
0.53737259,0.1625067,-4.5552363,-0.1178042,-0.062907033,-0.99104232,0
-3.2022252,-2.3251889,-1.8037337,-0.9223938,-0.36275113,0.1326699,0
0.38147449,-2.5582314,-3.2980757,0.13911849,-0.63244033,-0.76201391,0
-2.5580831,-3.2692969,-0.35439169,-0.9223938,-0.36275113,0.1326699,0
2.3235307,3.1690397,-0.19561589,0.9223938,0.36275113,-0.1326699,0
1.1190891,3.9571228,2.1558933,-0.21032697,0.75980759,0.61518699,0
-3.8854322,1.7949786,2.8448005,-0.9223938,-0.36275113,0.1326699,0
-3.5315981,-1.8124709,-1.9384286,-0.9223938,-0.36275113,0.1326699,0
0.98076248,1.5618069,3.8681402,0.0088106394,0.3236317,0.94614208,0
4.2191267,-2.9562149,-0.51407778,0.36546588,-0.9308154,-0.0041523576,0
-0.77098083,-4.1060228,-2.0433512,0.23865539,-0.80532193,-0.54267865,0
0.19022322,2.8485754,-3.5332589,-0.31750953,0.51650989,-0.79523921,0
3.2571862,1.1371825,-0.28458878,0.9223938,0.36275113,-0.1326699,0
-3.2409835,0.41228557,-3.6861398,-0.24373291,0.28017831,-0.9284904,0
1.7156537,3.1316285,3.1207762,-0.11742407,0.59058011,0.79839003,0
3.315717,2.0240338,3.606941,0.9223938,0.36275113,-0.1326699,0
4.0443864,-0.90956974,0.24467427,0.9223938,0.36275113,-0.1326699,0
-2.3024445,-3.4102571,0.34836984,-0.9223938,-0.36275113,0.1326699,0
1.4409404,-3.5972314,-1.5860618,0.30126786,-0.89062917,-0.34061319,0
2.6972942,-0.13011837,-4.6170816,-0.03864634,-0.25508252,-0.96614659,0
1.8351128,-1.2071311,3.5773048,0.27538821,-0.37679029,0.88441539,0
1.7678871,3.9476814,-2.143362,0.9223938,0.36275113,-0.1326699,0
-3.1807716,2.5077248,-2.1622858,-0.37160981,0.73976558,-0.56093943,0
-3.0453358,3.5065968,-0.22185874,-0.37439495,0.92413312,-0.076198608,0
1.0643799,3.8550806,-3.2800479,-0.36145961,0.68960059,-0.62753308,0
-0.99944282,2.0549669,3.8481419,-0.088261962,0.53234529,0.84191346,0
2.1610584,-3.053683,2.2409763,0.37876469,-0.78218848,0.49469024,0
2.2824183,-0.14087915,-4.4274178,-0.05426535,-0.21836935,-0.97435623,0
1.0666175,4.863307,-1.6922466,-0.38618088,0.87264824,-0.29891336,0
-3.1997128,-0.24124861,-3.7170281,-0.20151336,0.15891942,-0.96650767,0
-0.29201984,4.4057913,-1.4844446,-0.38623428,0.86940664,-0.30814779,0
2.9962361,2.0847056,0.70434046,0.9223938,0.36275113,-0.1326699,0
-2.1755261,-3.4566021,3.2795525,-0.9223938,-0.36275113,0.1326699,0
-4.035162,0.28245783,-0.025228918,-0.9223938,-0.36275113,0.1326699,0
-2.4429109,-3.7247519,-0.82127124,-0.9223938,-0.36275113,0.1326699,0
3.703783,0.44343472,3.5322318,0.21971758,-0.21028399,0.9526304,0
1.1784573,-0.19680905,-4.2179894,-0.070412695,-0.17980556,-0.98117888,0
1.6088262,3.8915343,2.8827162,-0.16897529,0.68784285,0.70591748,0
-3.3688245,-0.74871302,0.85188925,-0.9223938,-0.36275113,0.1326699,0
4.4174461,-2.2843285,-2.0878222,0.9223938,0.36275113,-0.1326699,0
-2.6527052,1.4811524,-3.4742157,-0.31222278,0.49803463,-0.80899853,0
-2.8315489,-0.00092077255,-3.7444339,-0.20429632,0.16668892,-0.96461272,0
-4.6390076,1.6794977,-0.12337416,-0.9223938,-0.36275113,0.1326699,0
-2.2978272,-3.4001489,-3.2351415,0.093670845,-0.5433107,-0.83428961,0
-1.2769537,2.9794302,-2.9444809,-0.35553294,0.66314596,-0.65866053,0
1.8136837,3.557234,-3.3621855,0.9223938,0.36275113,-0.1326699,0
-0.029785156,4.0186114,-2.6414626,-0.37406886,0.75337052,-0.54083753,0
-3.6828146,2.8245454,-0.30716014,-0.38030881,0.91296488,-0.147852,0
3.8788216,-1.1158953,-3.5241451,0.9223938,0.36275113,-0.1326699,0
-3.0121183,0.017644405,-3.7493758,-0.20748134,0.17561662,-0.9623462,0
0.10120368,-2.7707884,3.4563289,0.32995543,-0.56145501,0.7588793,0
0.39947653,-4.2536063,1.5951463,0.38625056,-0.86580789,0.31809953,0
2.5408027,2.9718945,0.4208045,0.9223938,0.36275113,-0.1326699,0
3.0343471,1.6290472,-1.1096044,0.9223938,0.36275113,-0.1326699,0
-1.4565125,2.1905055,3.4661651,-0.14243752,0.63872874,0.75613296,0
3.2931583,0.19679976,-4.0285096,0.9223938,0.36275113,-0.1326699,0
-3.3714662,2.9358139,-1.3617132,-0.38498861,0.8356986,-0.39165223,0
-1.1033808,2.5807748,-3.2196381,-0.33630055,0.58530617,-0.7377795,0
-3.5168958,-1.2866533,-3.5605874,-0.12332396,-0.048914701,-0.99116027,0
-2.5727549,-1.8024175,4.0669761,-0.9223938,-0.36275113,0.1326699,0
-1.0178711,3.111913,2.7215905,-0.20612919,0.75278246,0.62516344,0
-3.4844637,-0.34826565,1.1173648,-0.9223938,-0.36275113,0.1326699,0
-3.7892437,-0.81648445,-3.6194565,-0.9223938,-0.36275113,0.1326699,0
0.066608906,-3.3957226,-2.3752017,0.21123677,-0.76132137,-0.6129998,0
2.8518612,1.6400602,-1.5487458,0.9223938,0.36275113,-0.1326699,0
-2.7002087,-2.3220904,0.21623689,-0.9223938,-0.36275113,0.1326699,0
4.101388,-0.69220638,-0.97894955,0.9223938,0.36275113,-0.1326699,0
2.0962276,3.8591659,-2.05987,0.9223938,0.36275113,-0.1326699,0
-2.2128544,-4.3035045,0.28663695,-0.9223938,-0.36275113,0.1326699,0
-4.6134152,0.94411659,-1.8041697,-0.9223938,-0.36275113,0.1326699,0
3.857286,-0.17140055,-0.033349246,0.9223938,0.36275113,-0.1326699,0
-2.925652,-2.1143849,0.84122699,-0.9223938,-0.36275113,0.1326699,0
2.5310166,-2.184051,-3.1243453,0.19229484,-0.72916329,-0.65676761,0
2.2940269,4.2033238,2.2123065,-0.18294734,0.71281916,0.67706645,0
2.6674633,1.3465679,-3.5234945,0.9223938,0.36275113,-0.1326699,0
-3.1345506,-0.88102722,-4.0164618,-0.14877304,0.016685128,-0.98873055,0
2.3248401,4.6933436,1.2493896,0.9223938,0.36275113,-0.1326699,0
1.7609973,-2.1588664,3.0925374,0.32200924,-0.53250819,0.78278029,0
2.0848262,-3.0283654,1.8481914,0.3797037,-0.78861809,0.48363876,0
0.61945629,-4.5300531,-0.25662434,0.34860504,-0.92975211,-0.11847101,0
0.89748037,-1.2012066,4.0444865,0.2295723,-0.23865269,0.94357908,0
-4.3382187,2.1327598,-1.8677486,-0.36964673,0.72941005,-0.57560593,0
-1.709537,-2.7756491,-3.5717094,0.06591785,-0.48628139,-0.87131238,0
-3.0079627,-2.8229046,-2.6516862,-0.9223938,-0.36275113,0.1326699,0
3.1386361,-0.35593605,-4.2776699,0.9223938,0.36275113,-0.1326699,0
1.4732733,-3.8647008,-0.26208282,0.36132866,-0.93176228,-0.035505891,0
-4.0579038,3.1139355,0.17960656,-0.37021971,0.92824966,-0.035914451,0
-3.5873446,-1.2416091,-3.385052,-0.9223938,-0.36275113,0.1326699,0
-2.8720975,-1.3690047,-3.7333446,-0.10585415,-0.092923239,-0.99003035,0
1.8379703,4.2955875,-2.8847728,0.9223938,0.36275113,-0.1326699,0
3.5093069,0.84547114,-0.23361306,0.9223938,0.36275113,-0.1326699,0
-2.8586712,-2.6809256,-0.07665211,-0.9223938,-0.36275113,0.1326699,0
3.1129675,2.0546277,3.7870564,0.073159039,0.17318431,0.9821685,0
-1.6254354,-4.6133389,1.5516527,-0.9223938,-0.36275113,0.1326699,0
2.11479,4.8154316,1.3649466,0.9223938,0.36275113,-0.1326699,0
-3.4317873,0.46260023,-3.4682906,-0.26054546,0.33077794,-0.90702915,0
4.4071007,-0.4216609,2.3903604,0.9223938,0.36275113,-0.1326699,0
2.3860209,-0.53098655,-4.1447887,0.0071166158,-0.35938388,-0.93316269,0
2.0773358,-1.9126757,3.274297,0.32276413,-0.53521854,0.78061801,0
-4.3044538,2.6765828,0.68227446,-0.3550275,0.93153727,0.078699142,0
4.2842078,-1.0699592,-0.87652647,0.9223938,0.36275113,-0.1326699,0
1.7030671,-3.1372449,2.4327974,0.3731764,-0.7483412,0.54838371,0
0.95365238,-3.2268577,2.476191,0.36425775,-0.70270002,0.61117023,0
3.7874432,-0.78602934,-3.1472092,0.9223938,0.36275113,-0.1326699,0
1.728498,3.4726372,-3.8240209,-0.3206389,0.52760804,-0.78665143,0
1.5392728,-3.5557938,2.2431493,0.37905502,-0.78414494,0.49135917,0
-0.064658165,3.0065379,2.932092,-0.15514117,0.66250372,0.73281646,0
1.9646845,4.5816555,-0.15533388,0.9223938,0.36275113,-0.1326699,0
-1.2318708,2.6690314,-3.3825312,-0.32837692,0.5556283,-0.76383626,0
-1.5823826,-2.9448745,4.202714,0.29475886,-0.43910515,0.8487072,0
-1.9360584,-1.2033372,4.7639022,0.15301636,-0.027803347,0.98783249,0
-3.3615837,-0.15336227,3.7988679,-0.9223938,-0.36275113,0.1326699,0
1.6999946,4.8529086,-1.3280013,0.9223938,0.36275113,-0.1326699,0
3.0627699,2.5482554,2.3108587,0.9223938,0.36275113,-0.1326699,0
-4.8205943,2.5009451,0.011541486,-0.9223938,-0.36275113,0.1326699,0
-3.7900214,0.12756968,0.23713735,-0.9223938,-0.36275113,0.1326699,0
-1.4364634,-5.0608177,0.50280011,0.3705321,-0.92801148,0.038737178,0
-0.81867981,-4.8099523,-0.6680063,0.32849115,-0.91741723,-0.22458629,0
-2.5393581,3.422533,0.49838394,-0.34619236,0.92875648,0.13252243,0
2.7763376,3.0499787,2.7428784,0.9223938,0.36275113,-0.1326699,0
0.73936462,1.1502886,4.0676699,0.062946856,0.19771345,0.97823673,0
-2.065762,-2.9604819,4.1606212,0.28884971,-0.41979176,0.86043054,0
1.3210211,-3.4691367,-2.0662506,0.2717216,-0.85352683,-0.44458884,0
1.0841017,-1.1583716,-4.2227268,-0.0014587641,-0.34020722,-0.9403494,0
2.2404418,4.3174858,0.21743667,0.9223938,0.36275113,-0.1326699,0
2.9512239,1.1360121,-1.4447693,0.9223938,0.36275113,-0.1326699,0
3.7889872,0.48812437,1.3947425,0.9223938,0.36275113,-0.1326699,0
-4.0265517,-0.18764734,-3.578712,-0.24235767,0.27610394,-0.93006963,0
-3.8065271,-0.42441988,-1.986521,-0.9223938,-0.36275113,0.1326699,0
3.5585916,0.41284037,-0.063705325,0.9223938,0.36275113,-0.1326699,0
-2.4515162,-3.1138172,1.7659352,-0.9223938,-0.36275113,0.1326699,0
-2.9083445,-2.9384658,-1.63416,-0.9223938,-0.36275113,0.1326699,0
2.4347303,2.4731567,-3.8494749,0.9223938,0.36275113,-0.1326699,0
2.1845737,2.9795077,-3.106971,0.9223938,0.36275113,-0.1326699,0
-3.6219521,1.83742,-2.5833192,-0.34832898,0.63280296,-0.69153988,0
-2.7006035,-1.5613911,3.2193861,-0.9223938,-0.36275113,0.1326699,0
-3.7896893,-0.87108874,-0.90521491,-0.9223938,-0.36275113,0.1326699,0
-3.4415743,2.6907275,2.0154603,-0.27759051,0.86141062,0.42534134,0
-4.8938198,1.7020726,-1.6850028,-0.9223938,-0.36275113,0.1326699,0
-2.3855896,-2.817661,2.8919084,-0.9223938,-0.36275113,0.1326699,0
-2.5544243,-1.8536637,4.5412335,-0.9223938,-0.36275113,0.1326699,0
0.33686423,1.486587,3.9692986,0.022065759,0.2934317,0.95572531,0
0.12625957,3.4958096,-2.9992061,-0.35895726,0.67823774,-0.64120448,0
0.36372042,-3.5884929,2.3284249,0.37813491,-0.77803087,0.50167918,0
4.0240498,-1.5830836,-2.8851011,0.9223938,0.36275113,-0.1326699,0
2.4388568,2.1781538,-4.2900839,0.9223938,0.36275113,-0.1326699,0
2.4787378,1.9844205,-4.505219,0.9223938,0.36275113,-0.1326699,0
-3.3472505,-0.9058032,1.6191008,-0.9223938,-0.36275113,0.1326699,0
-2.9071772,-2.6969385,-1.2138449,-0.9223938,-0.36275113,0.1326699,0
0.99236917,4.8833699,0.54408956,-0.33805543,0.92433232,0.1769979,0
-3.9077635,2.8193874,0.93572646,-0.35077643,0.93050516,0.10543239,0
4.2187943,-1.0746212,0.058526129,0.9223938,0.36275113,-0.1326699,0
-2.4859493,-1.9563961,2.5499954,-0.9223938,-0.36275113,0.1326699,0
-0.095285892,3.7481093,-2.3144014,-0.37443405,0.75546134,-0.53765917,0
3.0199368,2.553653,1.4472973,0.9223938,0.36275113,-0.1326699,0
3.6331534,0.31858635,1.0060833,0.9223938,0.36275113,-0.1326699,0
3.636843,0.70332098,1.8014665,0.9223938,0.36275113,-0.1326699,0
1.4516029,4.5626526,-2.5092874,0.9223938,0.36275113,-0.1326699,0
3.0374837,2.2459664,-0.07390511,0.9223938,0.36275113,-0.1326699,0
-4.4703951,1.2249827,-1.8439306,-0.9223938,-0.36275113,0.1326699,0
-2.9418557,3.4977663,1.0160707,-0.3321147,0.92022747,0.20707734,0
2.5781586,1.0650982,3.7308619,0.11424753,0.071879998,0.99084854,0
-3.1754746,2.3006005,3.2534862,-0.18682891,0.71964252,0.66873729,0
0.77372766,-2.3829775,3.4313071,0.31894869,-0.52159804,0.7913326,0
1.995738,3.8038588,-2.8304341,0.9223938,0.36275113,-0.1326699,0
3.3624172,1.8539248,2.8912902,0.9223938,0.36275113,-0.1326699,0
2.0802274,3.0393639,3.2377477,-0.095313609,0.54662645,0.83193433,0
3.983592,-0.15195322,0.92377299,0.9223938,0.36275113,-0.1326699,0
2.5048327,4.445847,1.7802101,0.9223938,0.36275113,-0.1326699,0
-1.9772103,2.8896916,2.8973188,-0.21208525,0.76272994,0.61095226,0
-1.2239265,0.68179601,-3.8815932,-0.22683111,0.23071972,-0.94621146,0
-4.0820937,1.7430773,1.8575401,-0.9223938,-0.36275113,0.1326699,0
4.1730366,0.0059781075,1.8228304,0.9223938,0.36275113,-0.1326699,0
0.19879389,2.9918485,3.2929463,-0.13627428,0.62702626,0.76698589,0
2.1700981,3.9496555,0.93386745,0.9223938,0.36275113,-0.1326699,0
4.2819419,-2.9372406,-0.14363074,0.37476081,-0.92366028,0.080035776,0
2.7731214,-0.14795685,-4.4201202,-0.039277911,-0.253609,-0.96650898,0
4.3903775,-0.86248016,1.5504216,0.9223938,0.36275113,-0.1326699,0
-2.4724865,-2.2290735,4.1528125,-0.9223938,-0.36275113,0.1326699,0
1.0778749,3.0942569,3.1697936,-0.09602803,0.54806644,0.83090419,0
-4.3443894,1.4280248,1.0823178,-0.9223938,-0.36275113,0.1326699,0
3.1623704,2.5569725,3.2854996,0.9223938,0.36275113,-0.1326699,0
-3.2244997,-1.5301869,-0.207277,-0.9223938,-0.36275113,0.1326699,0
3.5415068,1.999635,2.5501156,0.9223938,0.36275113,-0.1326699,0
1.0153806,-2.5616832,-3.1490688,0.14936239,-0.65174741,-0.74358332,0
4.5341244,-1.4537086,1.9003127,0.9223938,0.36275113,-0.1326699,0
3.1588032,1.6464324,-0.96127695,0.9223938,0.36275113,-0.1326699,0
0.34935522,4.2901082,-2.5858321,-0.37645477,0.76743788,-0.51896131,0
2.841188,1.2513287,-2.8734577,0.9223938,0.36275113,-0.1326699,0
-2.5851789,-3.5044055,-1.0464518,-0.9223938,-0.36275113,0.1326699,0
-4.30512,2.0450659,1.3393097,-0.9223938,-0.36275113,0.1326699,0
-4.0941658,1.4101157,2.8218877,-0.9223938,-0.36275113,0.1326699,0
1.9122839,4.7583265,1.0351739,0.9223938,0.36275113,-0.1326699,0
-3.4445748,-1.3445022,-3.6015625,-0.1196578,-0.058217436,-0.99110681,0
3.7478819,-0.077536106,-0.67221308,0.9223938,0.36275113,-0.1326699,0
-2.8338478,-2.7949255,-2.3090627,-0.9223938,-0.36275113,0.1326699,0
3.6124659,-1.4084616,-3.6371868,0.9223938,0.36275113,-0.1326699,0
3.9813442,-0.10774374,0.87710148,0.9223938,0.36275113,-0.1326699,0
-3.1749341,-2.858005,-2.0449507,-0.9223938,-0.36275113,0.1326699,0
-0.069370747,-3.704792,3.0464747,0.36177871,-0.69107211,0.62572789,0
-2.705631,-3.3742108,-0.34928858,-0.9223938,-0.36275113,0.1326699,0
-3.1078217,-0.040027142,3.6917851,-0.9223938,-0.36275113,0.1326699,0
1.8612555,3.1404233,-4.1749392,-0.30370939,0.46893513,-0.82937348,0
-3.6840091,0.091320515,0.36251083,-0.9223938,-0.36275113,0.1326699,0
2.4639566,3.4272249,1.2967757,0.9223938,0.36275113,-0.1326699,0
-1.9249711,-4.7290907,-1.0018245,-0.9223938,-0.36275113,0.1326699,0
2.9058313,3.030663,3.2816863,-0.048013449,0.44850063,0.89249188,0
-3.7999575,-0.89001894,-3.2873516,-0.9223938,-0.36275113,0.1326699,0
4.3313847,-1.6541815,-0.18647838,0.9223938,0.36275113,-0.1326699,0
-1.7154515,3.3138111,-2.2332735,-0.38042098,0.79374778,-0.47459906,0
1.552705,-2.934052,2.7551966,0.35284722,-0.65163106,0.67147279,0
0.73552299,-2.7708685,-3.1683526,0.14029622,-0.63467515,-0.75993711,0
3.0082862,2.7760096,2.3460889,0.9223938,0.36275113,-0.1326699,0
3.1244793,0.37289619,-2.7688143,0.9223938,0.36275113,-0.1326699,0
-1.5510836,0.82362759,-4.0862617,-0.22330186,0.22055405,-0.94946939,0
0.75211668,-4.0552769,-1.3593161,0.29908228,-0.88812762,-0.3489683,0
2.679121,-2.3237696,2.4597235,0.3628875,-0.69622892,0.61933672,0
0.21939224,-1.6702048,4.0389581,0.24060318,-0.27091914,0.93204772,0
2.1535807,4.7671404,1.0462743,0.9223938,0.36275113,-0.1326699,0
-0.022729874,1.6745278,-4.0362654,-0.24619539,0.28749746,-0.92559886,0
3.7071562,0.2841692,-1.0813472,0.9223938,0.36275113,-0.1326699,0
0.89718127,2.5375762,3.5691321,-0.061123729,0.47624022,0.87718821,0
2.9932952,1.517771,-1.7739182,0.9223938,0.36275113,-0.1326699,0
-0.73691684,-0.84734166,4.4165082,0.17944226,-0.0982849,0.97884655,0
-3.476418,0.42793322,2.5486052,-0.9223938,-0.36275113,0.1326699,0
2.0252197,-3.8838387,-0.27817667,0.36340189,-0.93141466,-0.020140499,0
3.2161641,0.81445932,-0.63496208,0.9223938,0.36275113,-0.1326699,0
1.3715971,0.47623032,4.0118132,0.12810855,0.036719345,0.99108022,0
-1.6936367,2.5685673,2.95614,-0.1779291,0.70392215,0.68762982,0
-3.2767684,-0.76887131,0.93599164,-0.9223938,-0.36275113,0.1326699,0
-3.9512181,3.0180111,-0.84336233,-0.38553035,0.88562703,-0.2589035,0
-0.26227272,0.21015584,-4.4089012,-0.16023995,0.046854191,-0.98596543,0
-3.0379493,-2.5600646,-2.602452,-0.9223938,-0.36275113,0.1326699,0
-4.4338913,1.2712212,-1.014812,-0.9223938,-0.36275113,0.1326699,0
-0.13136792,-1.9976969,3.9155025,0.26290709,-0.3380096,0.90367544,0
-3.9782991,1.0788717,0.96947718,-0.9223938,-0.36275113,0.1326699,0
2.5681303,2.0079288,-4.4494629,0.9223938,0.36275113,-0.1326699,0
1.8287821,4.7115684,0.18867743,0.9223938,0.36275113,-0.1326699,0
3.3807075,0.076274395,-3.291672,0.9223938,0.36275113,-0.1326699,0
2.2051857,1.6579143,3.8546786,0.038017571,0.2565484,0.96578342,0
2.9329038,1.8947461,-1.9539816,0.9223938,0.36275113,-0.1326699,0
1.5128095,-3.3460267,-2.28179,0.23811579,-0.80448812,-0.54415041,0
3.8214145,0.48702502,2.5627298,0.9223938,0.36275113,-0.1326699,0
-0.04942584,-3.1658249,3.1876471,0.33680114,-0.58721918,0.73602897,0
0.776021,-4.0647478,-1.0253038,0.31855136,-0.9086895,-0.26983017,0
3.000623,1.7039599,0.10462233,0.9223938,0.36275113,-0.1326699,0
-3.66816,-0.6841352,-0.77792805,-0.9223938,-0.36275113,0.1326699,0
-3.5145204,2.6975012,2.4892743,-0.25147301,0.82470906,0.50657284,0
2.0421982,4.5580492,-0.58826482,0.9223938,0.36275113,-0.1326699,0
-2.2770517,-2.7781415,3.0170498,-0.9223938,-0.36275113,0.1326699,0
1.4094629,-2.4756036,-3.3394041,0.12980932,-0.61463624,-0.77805638,0
-1.6512878,3.620286,1.0277997,-0.31617945,0.90641057,0.28008968,0
-1.7508705,3.1204209,-2.2905526,-0.37789792,0.77649492,-0.50423074,0
-1.943019,0.16905427,-4.0508146,-0.2011416,0.15788378,-0.96675479,0
0.82533026,3.4542177,2.9873433,-0.16147298,0.67417431,0.72070485,0
-1.6124616,-5.1790361,-0.33141923,0.33391809,-0.9215427,-0.19813581,0
-2.5127411,-0.851161,4.6866775,0.09806639,0.11228502,0.98882508,0
-3.0074415,-0.16673517,3.6280527,-0.9223938,-0.36275113,0.1326699,0
2.1036963,3.4714441,-3.2897048,0.9223938,0.36275113,-0.1326699,0
2.9368496,-0.58475351,-4.373559,0.023958623,-0.39655364,-0.91769892,0
2.8781466,-1.0048528,3.5396717,0.27558511,-0.37741014,0.88408959,0
1.4853982,0.35527959,4.0362263,0.16075122,-0.048208505,0.9858169,0
-3.0898666,-0.8977809,3.5321703,-0.9223938,-0.36275113,0.1326699,0
1.281342,4.775301,-1.3384372,-0.38438368,0.89581966,-0.223061,0
-1.8364997,-3.7400293,1.9121866,-0.9223938,-0.36275113,0.1326699,0
-1.3914518,-5.0973616,-0.76198673,0.3162598,-0.90648896,-0.27974525,0
4.203608,-1.4867249,-2.6268268,0.9223938,0.36275113,-0.1326699,0
1.6324406,4.3358312,2.4137547,-0.20503819,0.75094545,0.6277262,0
2.0634871,-2.8683629,2.4150643,0.36603886,-0.71128875,0.60006994,0
-3.8366396,3.0084245,-0.7727921,-0.38482773,0.89254087,-0.2351138,0
3.7517328,-0.10866976,-0.011878148,0.9223938,0.36275113,-0.1326699,0
-2.912853,3.2107635,-0.60996985,-0.38314235,0.90279222,-0.19536674,0
2.4758525,4.1923332,1.6602707,0.9223938,0.36275113,-0.1326699,0
3.935905,-0.40656376,0.66339839,0.9223938,0.36275113,-0.1326699,0
3.4171824,0.51796937,3.8667741,0.19732909,-0.14729178,0.96920913,0
-3.4800105,1.6520166,3.4155276,-0.16484612,0.68034148,0.71411574,0
-4.4475045,1.4490051,-1.2139933,-0.9223938,-0.36275113,0.1326699,0
-2.0761423,-4.2163858,1.2846377,-0.9223938,-0.36275113,0.1326699,0
3.0056424,1.9992511,0.10720205,0.9223938,0.36275113,-0.1326699,0
2.867671,-0.75796938,-4.3081388,0.034397542,-0.41926265,-0.90721309,0
-4.426373,2.7302728,0.21060658,-0.36939186,0.92883474,-0.028559148,0
2.3390007,2.4151597,-3.4001145,0.9223938,0.36275113,-0.1326699,0
-2.016046,0.51715612,-3.8442402,-0.23124851,0.24352002,-0.94192469,0
-2.1798973,2.8405697,-2.6839178,-0.36319953,0.69769305,-0.6175034,0
1.4767518,-3.895318,-0.58041704,0.35261858,-0.93102825,-0.094055325,0
4.1448612,-1.1844754,2.7524087,0.33284575,-0.57223111,0.74950999,0
-2.2233109,-0.20496297,-4.0854921,-0.16349947,0.055502489,-0.98498088,0
2.433609,2.1362135,-4.008553,0.9223938,0.36275113,-0.1326699,0
2.2209377,4.0429087,1.4004049,0.9223938,0.36275113,-0.1326699,0
-1.7750158,-4.7220764,-1.3798181,0.27675158,-0.86029792,-0.42813081,0
1.5336661,1.5621419,3.8778517,0.044517159,0.24135011,0.9694165,0
1.8892035,1.3781106,-4.7199659,-0.18130714,0.10334322,-0.97798157,0
-3.1549149,0.97920752,3.9006863,-0.087670684,0.53114223,0.84273469,0
-4.6140962,1.3373666,-1.3273971,-0.9223938,-0.36275113,0.1326699,0
3.5089526,0.54628134,0.25687158,0.9223938,0.36275113,-0.1326699,0
-0.36440849,4.3866806,1.0833905,-0.31731194,0.90750742,0.2752147,0
-1.5290346,-4.3835435,-1.8360661,0.25253332,-0.82627547,-0.50348347,0
1.9230082,0.38489723,-4.429059,-0.099959463,-0.10759273,-0.9891572,0
-4.1856418,0.96218777,-0.56115937,-0.9223938,-0.36275113,0.1326699,0
3.274502,1.1865757,0.67744333,0.9223938,0.36275113,-0.1326699,0
2.8360119,-3.6848669,0.25229692,0.37434345,-0.92419815,0.075662643,0
4.5260787,-2.1563139,-1.4955695,0.9223938,0.36275113,-0.1326699,0
-0.64195299,4.1007776,-1.3596417,-0.3847577,0.89309859,-0.23310181,0
4.0552292,-0.27443457,0.8248319,0.9223938,0.36275113,-0.1326699,0
1.1326203,1.2795864,4.0156188,0.062512904,0.19875023,0.9780544,0
-3.3283186,2.2356246,2.8491383,-0.20898527,0.75756955,0.61839575,0
-2.6915481,2.333782,-2.5368667,-0.36170718,0.69074184,-0.62613386,0
0.50575733,-1.8290346,-3.5921135,0.053106666,-0.45932561,-0.88667905,0
3.8124218,-0.097830772,0.20007354,0.9223938,0.36275113,-0.1326699,0
3.4080846,-3.2046502,-1.0546501,0.34179407,-0.92655414,-0.15708029,0
-3.3963749,2.1722443,-2.4696646,-0.36430991,0.70294863,-0.61085308,0
-1.6855643,2.0208304,3.47469,-0.14303392,0.63985556,0.75506699,0
-0.54499578,3.6772354,2.3352041,-0.24802524,0.81957531,0.51650739,0
4.1305676,-0.23877048,1.2667807,0.9223938,0.36275113,-0.1326699,0
3.3835845,-3.1564403,-0.79923815,0.35165322,-0.93076801,-0.10005537,0
4.1539321,0.46322107,3.6387131,0.9223938,0.36275113,-0.1326699,0
3.5138631,-0.82247591,-4.1761775,0.9223938,0.36275113,-0.1326699,0
-2.1793158,-3.3965855,2.371995,-0.9223938,-0.36275113,0.1326699,0
2.4235735,2.8275042,-2.4255631,0.9223938,0.36275113,-0.1326699,0
-2.975565,-1.4151289,2.7292473,-0.9223938,-0.36275113,0.1326699,0
-4.5655727,2.1115632,1.2751055,-0.9223938,-0.36275113,0.1326699,0
-4.0708899,2.4134593,2.2088418,-0.26599026,0.84561443,0.46280164,0
-2.4603238,-2.1539445,2.5954313,-0.9223938,-0.36275113,0.1326699,0
-2.2244949,-2.4579153,4.1957755,-0.9223938,-0.36275113,0.1326699,0
1.6619344,4.8661842,0.95509315,-0.30322576,0.89283192,0.33302417,0
-3.1546996,-2.4424076,-3.3107586,-0.9223938,-0.36275113,0.1326699,0
0.5637064,4.5040588,-1.9606308,-0.38614053,0.85782123,-0.33917281,0
-1.7127199,-1.6662405,4.4600458,0.19087094,-0.12946929,0.97303963,0
-1.1076205,1.8764685,3.7666335,-0.060816467,0.4755947,0.87755972,0
-0.58509398,-4.1868591,-1.9647578,0.24097896,-0.80889648,-0.53629792,0
4.0416956,0.11089611,1.1117787,0.9223938,0.36275113,-0.1326699,0
0.19576311,0.44110769,4.0803952,0.087510943,0.13828164,0.9865191,0
-0.63410139,3.7682509,1.5051892,-0.29064584,0.87807637,0.38014051,0
-4.3919268,2.6775684,1.3060143,-0.33150411,0.91976935,0.21007001,0
-1.0905609,3.5592978,2.1994274,-0.24251622,0.81124711,0.53203768,0
-3.522145,-1.1368546,-1.7071429,-0.9223938,-0.36275113,0.1326699,0
-3.7529151,1.3625307,3.3870027,-0.9223938,-0.36275113,0.1326699,0
3.4228945,0.023862362,-3.6814144,0.9223938,0.36275113,-0.1326699,0
-0.24381852,2.9406586,-3.1475914,-0.34405091,0.61551672,-0.70906132,0
3.2013173,2.2850513,3.3827422,0.029867887,0.27546591,0.96084666,0
-1.8658807,-4.153019,1.2728201,-0.9223938,-0.36275113,0.1326699,0
-3.0659118,-1.3391123,1.2798277,-0.9223938,-0.36275113,0.1326699,0
0.82723904,-3.8590994,1.5462778,0.38575006,-0.84766734,0.3642211,0
0.42164958,-0.041158319,4.133697,0.13620752,0.015932374,0.99055219,0
2.377188,3.8101759,-0.50090754,0.9223938,0.36275113,-0.1326699,0
0.0013456345,-1.1172076,-4.0701575,-0.049826473,-0.2288616,-0.97218287,0
2.6154566,3.0343137,0.497908,0.9223938,0.36275113,-0.1326699,0
-2.9449575,-1.5528452,2.1141622,-0.9223938,-0.36275113,0.1326699,0
-3.0761693,-1.1289625,1.6695552,-0.9223938,-0.36275113,0.1326699,0
2.3389196,1.7502632,-4.5036325,0.9223938,0.36275113,-0.1326699,0
0.96718431,-1.4949175,-3.9501009,0.023581207,-0.39572784,-0.91806501,0
-3.0784278,0.1093874,4.407548,-0.9223938,-0.36275113,0.1326699,0
-3.9376719,-1.0671864,-3.9113979,-0.15842927,0.042064101,-0.98647392,0
1.572722,4.9482708,-1.0125704,0.9223938,0.36275113,-0.1326699,0
2.3748255,2.7114103,-1.1108792,0.9223938,0.36275113,-0.1326699,0
2.5969167,2.30354,-1.418316,0.9223938,0.36275113,-0.1326699,0
-1.1640365,2.4385185,-3.5233037,-0.32368562,0.53853804,-0.77794874,0
-0.89317417,3.1670051,2.9212675,-0.19147974,0.72775012,0.65857053,0
2.6817803,1.5860553,-4.5352058,-0.15955758,0.04504782,-0.98616022,0
0.26345015,-1.4832536,4.1122456,0.22695792,-0.23108599,0.94609159,0
-0.5577538,1.0841928,4.0968246,-0.0087994933,0.36312747,0.93169785,0
3.5477629,-0.62936258,-3.7949457,0.9223938,0.36275113,-0.1326699,0
3.3662496,-0.42395067,3.5969543,0.252258,-0.30564836,0.91812038,0
2.8302109,-1.7317381,-3.5840714,0.12761706,-0.61040854,-0.78173858,0
2.8341913,2.0678806,-0.36348778,0.9223938,0.36275113,-0.1326699,0
-2.6540146,-2.7820313,0.38125014,-0.9223938,-0.36275113,0.1326699,0
2.7909989,-3.3538699,-1.5021406,0.32167894,-0.9115845,-0.25600028,0
-0.083711624,-3.0803516,-2.7401013,0.16161609,-0.67443681,-0.7204271,0
-0.17328644,-4.6228724,0.18086338,0.35862052,-0.93188167,-0.054659992,0
2.6099277,2.6889312,-0.35111129,0.9223938,0.36275113,-0.1326699,0
1.900948,3.4369545,-2.2688615,0.9223938,0.36275113,-0.1326699,0
4.4952478,-0.58336878,2.9251113,0.9223938,0.36275113,-0.1326699,0
1.3008938,-3.48862,-2.2278991,0.25513971,-0.83010006,-0.49582005,0
2.5658665,2.5382791,-2.4743268,0.9223938,0.36275113,-0.1326699,0
0.26790285,-1.2855971,-4.2391577,-0.012121797,-0.31612557,-0.94863987,0
1.6390386,4.4754653,1.9381547,-0.24772406,0.81912416,0.51736689,0
1.743737,4.0203629,-2.3763084,0.9223938,0.36275113,-0.1326699,0
-1.0131475,0.41019964,4.4409065,0.044785082,0.24072152,0.96956044,0
2.7502131,3.4080355,3.1657574,-0.060289264,0.47448683,0.87819552,0
-1.8470583,-4.7407613,-0.82456142,-0.9223938,-0.36275113,0.1326699,0
-3.2187304,-0.38505125,2.345799,-0.9223938,-0.36275113,0.1326699,0
2.5893128,3.651588,0.32343721,0.9223938,0.36275113,-0.1326699,0
-1.8690519,-4.6014924,0.36774743,-0.9223938,-0.36275113,0.1326699,0
2.7737412,-3.0542684,-1.5755662,0.29485595,-0.88316822,-0.36479273,0
-3.2478588,-0.35842896,1.8038609,-0.9223938,-0.36275113,0.1326699,0
-1.1297197,-4.8683481,-0.69456017,0.31709772,-0.90730113,-0.27614075,0
2.799221,0.001855135,4.0014429,0.20382644,-0.16537504,0.96493828,0
-3.2424681,-1.6392546,0.35793698,-0.9223938,-0.36275113,0.1326699,0
0.041045666,-2.1580033,4.0593705,0.27568462,-0.3777234,0.88392484,0
-3.9022202,0.67070007,2.3589711,-0.9223938,-0.36275113,0.1326699,0
3.2465644,0.39089108,-3.08513,0.9223938,0.36275113,-0.1326699,0
-0.067593575,2.2721121,-3.8400962,-0.28888196,0.41989663,-0.86036849,0
2.0756261,3.3085423,-1.6281633,0.9223938,0.36275113,-0.1326699,0
-2.1296873,-2.5605648,4.1208935,-0.9223938,-0.36275113,0.1326699,0
-3.5245461,-0.14558125,1.620844,-0.9223938,-0.36275113,0.1326699,0
-3.166111,2.8408489,-1.7525494,-0.38356924,0.81985813,-0.42509669,0
-2.6876078,-3.9121761,-2.8336031,-0.9223938,-0.36275113,0.1326699,0
-0.70252037,2.5985534,-3.1559205,-0.33519027,0.58107996,-0.74161553,0
4.242157,-0.66978741,2.4040866,0.9223938,0.36275113,-0.1326699,0
1.9192212,4.2530017,-1.9072831,0.9223938,0.36275113,-0.1326699,0
3.4643764,1.2200575,2.500309,0.9223938,0.36275113,-0.1326699,0
1.8352809,4.5727096,-0.72594261,0.9223938,0.36275113,-0.1326699,0
-2.9968843,-2.587301,-3.494081,-0.0088708401,-0.3234953,-0.94618821,0
-4.0591116,0.50803852,0.51992387,-0.9223938,-0.36275113,0.1326699,0
3.761867,-1.0185108,-3.3623364,0.9223938,0.36275113,-0.1326699,0
-2.1790819,-4.2403154,-0.49279499,-0.9223938,-0.36275113,0.1326699,0
-0.51167321,-3.9725814,2.8981781,0.36825168,-0.72227585,0.58541298,0
2.6300581,2.6933484,0.45502728,0.9223938,0.36275113,-0.1326699,0
-4.292079,1.8653469,2.9850857,-0.9223938,-0.36275113,0.1326699,0
-0.47355604,4.6142383,0.21822298,-0.35136449,0.93068403,0.10183334,0
3.7579269,-0.48807716,-2.1819122,0.9223938,0.36275113,-0.1326699,0
-1.5780141,-2.9105573,-3.3522251,0.073154807,-0.50133443,-0.86215556,0
3.2647705,-1.028029,3.1814466,0.28883082,-0.41973045,0.86046684,0
-1.8717334,-4.459754,2.4975395,-0.9223938,-0.36275113,0.1326699,0
4.7493901,-2.5461984,-0.88528192,0.9223938,0.36275113,-0.1326699,0
0.11715841,-3.2449977,3.3527946,0.34623078,-0.62426448,0.70029849,0
1.8552206,3.1376705,3.1742148,-0.086444378,0.52864408,0.84443045,0
0.39778662,-4.4537029,0.93649304,0.38291097,-0.90385652,0.19084683,0
0.8623786,-4.1764154,-0.54595673,0.34263736,-0.9270125,-0.15247059,0
-3.2548509,-0.068786621,2.3899093,-0.9223938,-0.36275113,0.1326699,0
2.0217175,3.0795524,-2.7727149,0.9223938,0.36275113,-0.1326699,0
2.6565909,3.768389,1.4866841,0.9223938,0.36275113,-0.1326699,0
-3.2214072,-0.9925108,1.5575511,-0.9223938,-0.36275113,0.1326699,0
-3.824872,1.1101465,3.6790957,-0.9223938,-0.36275113,0.1326699,0
-0.65177536,-3.0765419,-3.0661485,0.11935002,-0.59434807,-0.79530239,0
-2.4514308,3.4205029,1.6501949,-0.31172597,0.90194947,0.29885435,0
-3.114156,2.7262492,-2.2949333,-0.36875689,0.72483951,-0.58191586,0
-2.0636919,-4.0218182,1.8972785,-0.9223938,-0.36275113,0.1326699,0
2.6772702,2.4939361,0.46393612,0.9223938,0.36275113,-0.1326699,0
-4.7048645,1.3591409,-1.1089566,-0.9223938,-0.36275113,0.1326699,0
-2.6477902,2.2964647,2.9267364,-0.19134068,0.72750896,0.65887737,0
-2.5776494,-3.1857502,-0.2575022,-0.9223938,-0.36275113,0.1326699,0
-2.3543239,-2.9394927,0.48336661,-0.9223938,-0.36275113,0.1326699,0
-4.2243433,0.77697039,-2.2840126,-0.9223938,-0.36275113,0.1326699,0
0.50093746,2.0495229,3.7188106,-0.028510451,0.40648699,0.91321158,0
4.4488988,-2.2348371,-0.22371995,0.9223938,0.36275113,-0.1326699,0
-1.0637133,3.7593379,-1.3763407,-0.38616717,0.8732335,-0.29721716,0
-1.6533973,-2.5231297,-3.3126748,0.046268642,-0.44477829,-0.89444476,0
-4.049036,-0.33995676,-2.0605156,-0.9223938,-0.36275113,0.1326699,0
-3.6042101,0.45205927,1.8199286,-0.9223938,-0.36275113,0.1326699,0
-1.2938229,1.3385241,-3.8264003,-0.26443046,0.34269154,-0.901465,0
-3.986573,0.15658998,-0.67045861,-0.9223938,-0.36275113,0.1326699,0
2.3407297,3.5055742,3.2181172,-0.09556073,0.54712462,0.83157849,0
3.4178047,1.510143,0.34069824,0.9223938,0.36275113,-0.1326699,0
-1.2786665,-3.0609174,-2.9734888,0.11132783,-0.57858843,-0.80798602,0
0.17317724,3.6218696,2.3618858,-0.21511781,0.76774132,0.60357058,0
2.1932445,-1.2804719,3.3540475,0.27900642,-0.38822109,0.8783164,0
1.4784691,-3.6315575,1.3635424,0.38616109,-0.87347513,0.29651427,0
-3.075784,2.4474626,2.7440443,-0.2202372,0.77611697,0.59087884,0
3.2251098,-0.1049242,-4.5694923,-0.0030485392,-0.33663338,-0.94163084,0
2.5329053,-3.1269236,1.9278178,0.38056445,-0.79480076,0.47271803,0
-0.92263508,3.4642265,2.0433826,-0.24606013,0.81662214,0.52209437,0
3.5710075,2.1584697,3.4048314,0.9223938,0.36275113,-0.1326699,0
1.1900601,3.9823918,2.3393767,-0.21685344,0.77059299,0.5993005,0
-2.3768201,-0.11997986,-3.7738023,-0.1920308,0.13265917,-0.97238147,0
-0.093971252,-3.6969786,2.837059,0.36318922,-0.69764447,0.61756426,0
2.1674666,4.2953811,-0.66702628,0.9223938,0.36275113,-0.1326699,0
0.8074193,4.2234163,-2.2491994,-0.37883055,0.78262979,-0.49394128,0
-1.89077,-4.8560238,-1.0188711,-0.9223938,-0.36275113,0.1326699,0
2.9582629,2.1833761,0.099593282,0.9223938,0.36275113,-0.1326699,0
-1.0308394,-5.0217309,0.65630782,0.36983258,-0.92853135,0.03245303,0
-0.80075169,-4.8091311,-0.58219266,0.33021665,-0.91878241,-0.21632335,0
1.9880481,5.0951552,0.41476738,0.9223938,0.36275113,-0.1326699,0
-3.4867349,-0.64093971,0.029564828,-0.9223938,-0.36275113,0.1326699,0
-2.2054629,-4.081666,-0.8074019,-0.9223938,-0.36275113,0.1326699,0
-4.2727861,1.9996386,-1.9664562,-0.37337738,0.74946386,-0.54671133,0
3.7958212,-0.24252653,-1.4707974,0.9223938,0.36275113,-0.1326699,0
3.6951933,-0.68716407,3.2568641,0.28600225,-0.41058493,0.86580753,0
-1.9355826,3.1045198,2.1170621,-0.25599533,0.83134776,0.49328202,0
-2.8230686,-2.6074829,0.48911232,-0.9223938,-0.36275113,0.1326699,0
-3.9643412,2.9041204,0.68285781,-0.34950376,0.93008101,0.11312059,0
4.0443625,0.67073965,2.2789125,0.9223938,0.36275113,-0.1326699,0
-4.7562051,1.3843594,-1.6447725,-0.9223938,-0.36275113,0.1326699,0
4.3960576,-2.7211459,0.90448904,0.38624883,-0.86519653,0.31976041,0
2.9396143,1.1083584,-3.2453835,0.9223938,0.36275113,-0.1326699,0
2.5684381,4.1302667,1.891415,0.9223938,0.36275113,-0.1326699,0
1.8358526,4.674418,2.0321159,-0.23593217,0.80109996,0.55006796,0
4.0655346,-2.3087831,1.8174188,0.37879294,-0.78237659,0.49437115,0
-3.1119845,1.3733511,-3.2449121,-0.31596157,0.5110659,-0.79936212,0
3.1996491,1.6731675,0.19898805,0.9223938,0.36275113,-0.1326699,0
4.8511677,-2.0006795,0.54457766,0.9223938,0.36275113,-0.1326699,0
2.0469079,4.190299,-1.5312333,0.9223938,0.36275113,-0.1326699,0
