-0.7382648,1.6891201,4.0502901,-0.97477388,0.057206631,0.21573895,0
0.86312711,1.8797334,3.5313358,0.21854849,0.440842,0.87057161,0
-0.69511706,0.73180509,4.4682102,0.22268903,0.18424472,0.95732099,0
1.6559207,-2.2451138,1.5199609,0.97477388,-0.057206631,-0.21573895,0
-0.49872708,2.2361698,3.7511115,-0.97477388,0.057206631,0.21573895,0
0.54895151,2.4414971,3.2362051,0.2052619,0.60937989,0.7658484,0
-0.48524141,-2.3409574,3.4486847,0.1465857,-0.56482077,0.81208998,0
0.94726062,0.48206949,-2.6547344,0.97477388,-0.057206631,-0.21573895,0
1.6228414,-2.7649031,1.7773501,0.97477388,-0.057206631,-0.21573895,0
-0.16812992,3.1114867,-3.026387,-0.11241716,0.70919681,-0.69598997,0
-0.66614282,-3.1672592,-2.4658804,-0.17523122,-0.79482609,-0.58098662,0
-1.6567463,-3.161622,0.025653481,-0.97477388,0.057206631,0.21573895,0
1.8394083,2.0477514,3.3539414,0.21623294,0.48158306,0.84930617,0
0.082796335,4.1396322,0.95908666,0.10488224,0.97062993,0.21651143,0
-1.993608,-2.1987476,-0.64861202,-0.97477388,0.057206631,0.21573895,0
1.1212822,1.7531019,3.8356712,0.21948543,0.42118073,0.88001871,0
2.1543489,0.067759752,1.9086924,0.97477388,-0.057206631,-0.21573895,0
1.4681187,-2.6850438,1.2879473,0.97477388,-0.057206631,-0.21573895,0
-1.6006846,0.89086735,-0.08701992,-0.97477388,0.057206631,0.21573895,0
-2.0650711,1.2074556,-3.8281689,-0.19635576,0.23975378,-0.95076942,0
-1.8160734,0.73930883,-1.0890299,-0.97477388,0.057206631,0.21573895,0
0.12507713,-3.2912149,-2.6277263,-0.17577893,-0.79242027,-0.58409929,0
1.6398561,3.5500998,-0.069833279,0.97477388,-0.057206631,-0.21573895,0
-0.6683355,2.2936809,3.6271906,-0.97477388,0.057206631,0.21573895,0
1.8028989,2.5004623,0.33726442,0.97477388,-0.057206631,-0.21573895,0
2.1718011,0.92314649,1.7695494,0.97477388,-0.057206631,-0.21573895,0
0.20541716,-4.3519135,0.83797073,-0.014180839,-0.98051608,0.19592646,0
1.1844444,-3.3099833,-0.57885909,0.97477388,-0.057206631,-0.21573895,0
-0.96427488,1.9707901,2.8572636,-0.97477388,0.057206631,0.21573895,0
2.101265,3.649863,1.429143,0.97477388,-0.057206631,-0.21573895,0
-2.1394405,-1.54351,-2.1395679,-0.97477388,0.057206631,0.21573895,0
-1.9003127,1.8744706,-3.6582105,-0.16754001,0.45109165,-0.87661088,0
-1.1651397,2.9173512,-2.8966992,-0.11667186,0.69341546,-0.71102923,0
1.4841933,-1.5951301,3.7679625,0.18184674,-0.35689282,0.91627467,0
-1.2306125,0.95991659,1.1044478,-0.97477388,0.057206631,0.21573895,0
-1.2623143,1.2256289,0.78289783,-0.97477388,0.057206631,0.21573895,0
0.96042633,-3.0497558,2.9108126,0.12000847,-0.68064427,0.72271806,0
-0.8572787,-3.6997414,-2.0423024,-0.1550703,-0.86878526,-0.47028217,0
1.7536478,-2.1146915,2.3863339,0.97477388,-0.057206631,-0.21573895,0
-2.2378988,-1.5236235,-2.6110883,-0.97477388,0.057206631,0.21573895,0
1.6541102,-3.138052,1.7355107,0.97477388,-0.057206631,-0.21573895,0
1.9625652,2.0698669,1.8673191,0.97477388,-0.057206631,-0.21573895,0
-0.55799556,4.2124205,0.99977112,0.10118258,0.97482681,0.19868237,0
-2.1588306,-1.4660679,-1.8068624,-0.97477388,0.057206631,0.21573895,0
-2.2224646,-0.8026498,-2.3535962,-0.97477388,0.057206631,0.21573895,0
0.8436656,-4.1554523,-1.6271458,-0.12743008,-0.93621337,-0.32751513,0
-1.0454419,3.4990673,0.72466826,-0.97477388,0.057206631,0.21573895,0
0.12508261,3.2593493,2.9760761,0.19178799,0.70909631,0.67852771,0
-0.8569243,3.9481292,2.381382,0.15173745,0.87871337,0.45259076,0
-0.89260495,-2.758007,-3.2232611,-0.20092283,-0.64581549,-0.73658156,0
-0.46472561,1.0767443,4.2055821,-0.97477388,0.057206631,0.21573895,0
-0.92489028,4.3304777,1.3338056,-0.97477388,0.057206631,0.21573895,0
0.81558537,0.32301855,-3.7647331,0.97477388,-0.057206631,-0.21573895,0
2.2003427,-1.0569494,2.4599354,0.97477388,-0.057206631,-0.21573895,0
-2.1858637,-2.1482239,-2.5094478,-0.97477388,0.057206631,0.21573895,0
-0.73646545,4.129796,1.3227987,0.10480523,0.97072119,0.2161395,0
0.075176716,-2.5655077,3.5438557,0.13659555,-0.61153352,0.77933836,0
-1.0097013,-0.4785955,2.7472456,-0.97477388,0.057206631,0.21573895,0
-1.8266573,-2.6747351,-0.46848726,-0.97477388,0.057206631,0.21573895,0
-0.045182467,-3.8539619,-1.5372033,-0.13073552,-0.92976439,-0.34416044,0
1.5990751,3.6328421,-0.44905603,0.97477388,-0.057206631,-0.21573895,0
-1.4636011,3.6700144,-2.3359129,-0.085457802,0.79727566,-0.59753525,0
-0.028633595,3.4614322,-2.334965,-0.082080424,0.80697942,-0.58484793,0
2.2320361,-0.43880656,2.5828981,0.97477388,-0.057206631,-0.21573895,0
1.4220359,0.79227006,4.0293336,0.22190478,0.14462665,0.96428287,0
1.5232986,-0.20682847,0.50104213,0.97477388,-0.057206631,-0.21573895,0
-1.567273,1.5634565,0.24507809,-0.97477388,0.057206631,0.21573895,0
-1.5123456,2.6864064,-0.17384672,-0.97477388,0.057206631,0.21573895,0
-2.0831304,-2.896255,-1.120332,-0.97477388,0.057206631,0.21573895,0
-1.4315919,-3.5337431,-2.3498745,-0.16801658,-0.82435882,-0.54055786,0
-1.0223398,3.2208014,0.93166447,-0.97477388,0.057206631,0.21573895,0
0.74136877,0.66103315,-3.9644842,0.97477388,-0.057206631,-0.21573895,0
-0.68755484,0.66161585,-4.0139141,-0.20462674,0.15693098,-0.9661783,0
0.52313066,-1.3022636,-4.3705192,-0.22317421,-0.26293853,-0.93864614,0
-1.3519263,1.8766828,0.38824189,-0.97477388,0.057206631,0.21573895,0
-2.0983009,1.0645916,-3.3189983,-0.97477388,0.057206631,0.21573895,0
1.4178467,-2.3820348,0.68213141,0.97477388,-0.057206631,-0.21573895,0
1.121842,-3.070622,-1.3162744,0.97477388,-0.057206631,-0.21573895,0
-0.54635978,2.0534234,-3.4597173,-0.15536433,0.52005458,-0.83988404,0
-1.6667917,2.609776,-1.7285086,-0.97477388,0.057206631,0.21573895,0
-0.94223523,1.8024788,-3.6123803,-0.17329967,0.41513693,-0.89310056,0
1.2075926,3.9986985,1.4332323,0.12538385,0.9400124,0.31726235,0
1.0156398,-4.1098824,1.2286115,0.0079020262,-0.95714355,0.2895062,0
2.2228532,2.5319543,2.3056617,0.97477388,-0.057206631,-0.21573895,0
-1.6393769,-1.2758374,-0.14622915,-0.97477388,0.057206631,0.21573895,0
0.7008779,-2.9164045,-2.7169094,0.97477388,-0.057206631,-0.21573895,0
0.586043,1.6739578,4.0259333,0.2200762,0.40736967,0.8863501,0
-1.7668205,0.62164402,-1.8565187,-0.97477388,0.057206631,0.21573895,0
-1.9694984,-3.6072681,-1.7809272,-0.16198185,-0.84630692,-0.50747079,0
1.9104438,-2.5393257,1.6889541,0.97477388,-0.057206631,-0.21573895,0
2.0274081,-2.1702032,2.5236578,0.97477388,-0.057206631,-0.21573895,0
1.2509609,-1.132942,-1.0371543,0.97477388,-0.057206631,-0.21573895,0
1.2530782,2.5640597,-1.5242469,0.97477388,-0.057206631,-0.21573895,0
-0.59571695,-3.7904358,2.1195307,0.041889727,-0.90252727,0.42859051,0
-2.2594087,-3.0720978,-1.679576,-0.97477388,0.057206631,0.21573895,0
1.4596739,1.914623,3.4942427,0.21596211,0.48581919,0.84695923,0
1.6128266,3.4409697,0.08483541,0.97477388,-0.057206631,-0.21573895,0
-2.1378489,-2.2335186,-1.4199727,-0.97477388,0.057206631,0.21573895,0
0.51821208,1.6628034,-4.0707197,-0.16737181,0.45210662,-0.87612009,0
-1.0395089,-0.4415381,-3.9886317,-0.22031653,-0.091889888,-0.97109056,0
1.5173459,2.0793025,-0.22696459,0.97477388,-0.057206631,-0.21573895,0
0.90620661,-3.3137271,2.2752452,0.088321269,-0.78882933,0.60823321,0
1.5094447,-0.71449602,0.67161041,0.97477388,-0.057206631,-0.21573895,0
0.52389622,2.3865495,-3.4494522,-0.13803101,0.60507572,-0.7841115,0
0.6275208,4.4496331,-0.48740578,0.038844645,0.99532598,-0.088415146,0
1.9156935,-2.3945675,3.1918271,0.1537146,-0.52875811,0.83473754,0
-1.9640571,-1.0251584,-1.9257019,-0.97477388,0.057206631,0.21573895,0
1.3094473,-1.8396692,3.702497,0.17839855,-0.38116542,0.90713108,0
0.84263289,-2.4557838,-2.093909,0.97477388,-0.057206631,-0.21573895,0
1.6972139,4.0624304,-0.70472682,0.97477388,-0.057206631,-0.21573895,0
-0.17525673,-4.0744448,-1.0099728,-0.11433929,-0.95811754,-0.26255912,0
-1.5088706,-3.5950243,0.22804284,-0.97477388,0.057206631,0.21573895,0
-1.4544086,1.5278044,-0.80252695,-0.97477388,0.057206631,0.21573895,0
-0.65171051,1.4673971,3.6237631,-0.97477388,0.057206631,0.21573895,0
0.16746926,4.1436424,0.29248238,0.066545963,0.99712384,0.036271334,0
1.1351516,-0.6163466,4.0235362,0.2082479,-0.11466277,0.97133172,0
-1.8787721,-3.6362009,-0.1182332,-0.97477388,0.057206631,0.21573895,0
-0.90493971,2.118922,1.7490942,-0.97477388,0.057206631,0.21573895,0
-1.464617,-4.1065598,-0.60013866,-0.10749292,-0.96743661,-0.22915405,0
-2.0937848,-4.0275211,-1.0605917,-0.12639129,-0.93816012,-0.32230556,0
1.9751825,-2.0981507,3.2777288,0.15820152,-0.50475115,0.84864509,0
1.2005861,0.48482847,-2.4818003,0.97477388,-0.057206631,-0.21573895,0
-0.76350236,-1.7741821,3.6410127,-0.97477388,0.057206631,0.21573895,0
-1.5300491,3.4914052,-0.08784461,-0.97477388,0.057206631,0.21573895,0
-1.6832941,1.38753,-1.0754532,-0.97477388,0.057206631,0.21573895,0
-1.5237973,2.3629506,-3.0610554,-0.13767767,0.60667342,-0.78293824,0
1.2772739,-3.5564947,0.17381716,0.97477388,-0.057206631,-0.21573895,0
-0.23559642,-3.9642422,1.1649017,-0.0015624166,-0.96832037,0.2497063,0
1.6365275,-2.8946784,1.582509,0.97477388,-0.057206631,-0.21573895,0
0.3117069,0.074359894,-4.5358839,-0.2150237,0.01845032,-0.97643447,0
1.3792148,-2.4214001,3.1859589,0.1417374,-0.5880152,0.79633439,0
-1.9456074,-0.048221588,-1.9832754,-0.97477388,0.057206631,0.21573895,0
1.0369258,3.1697888,2.572473,0.1825183,0.76065159,0.62297368,0
0.59333682,4.0779324,0.76421881,0.10489774,0.97061151,0.21658641,0
0.13595915,-2.9945769,3.0882311,0.11520004,-0.69893765,0.70584351,0
-1.2634516,3.1212759,-0.2461884,-0.97477388,0.057206631,0.21573895,0
0.98421538,1.3440275,4.044827,0.22224596,0.33781233,0.91459799,0
2.2028337,2.0962303,2.4308293,0.97477388,-0.057206631,-0.21573895,0
-0.83862621,-0.51061344,2.5061452,-0.97477388,0.057206631,0.21573895,0
-1.8639457,1.5551904,-3.7523012,-0.17861724,0.37965962,-0.90771943,0
-0.12812829,2.0696685,-3.5930996,-0.16406566,0.47168028,-0.86637187,0
1.8361206,1.1044538,0.59160757,0.97477388,-0.057206631,-0.21573895,0
-0.75400078,1.8523303,2.9497342,-0.97477388,0.057206631,0.21573895,0
-2.0855327,1.7599025,-2.9777005,-0.97477388,0.057206631,0.21573895,0
-1.4243087,-3.1415114,0.50018239,-0.97477388,0.057206631,0.21573895,0
1.7989957,-0.54883456,1.6997695,0.97477388,-0.057206631,-0.21573895,0
1.5566977,2.8765583,0.081789374,0.97477388,-0.057206631,-0.21573895,0
-0.99543643,-1.7161019,2.012305,-0.97477388,0.057206631,0.21573895,0
-1.8702369,3.0878363,-1.9031769,-0.97477388,0.057206631,0.21573895,0
1.2232082,-3.4279194,-1.0224063,0.97477388,-0.057206631,-0.21573895,0
0.55662465,1.1762977,-4.2136469,0.97477388,-0.057206631,-0.21573895,0
-1.8021867,2.8184247,-1.9757822,-0.97477388,0.057206631,0.21573895,0
2.1031356,3.163363,1.1355402,0.97477388,-0.057206631,-0.21573895,0
1.5241134,0.51459944,0.017075181,0.97477388,-0.057206631,-0.21573895,0
1.3163168,-3.3730066,-0.14881992,0.97477388,-0.057206631,-0.21573895,0
-0.96880341,-3.364748,2.6028295,0.066483498,-0.84829593,0.52533233,0
-1.5126587,0.79066956,0.49899483,-0.97477388,0.057206631,0.21573895,0
-0.92268348,3.5690329,2.1560199,-0.97477388,0.057206631,0.21573895,0
-1.5916274,3.0009713,-1.5513377,-0.97477388,0.057206631,0.21573895,0
-1.4263006,1.7247901,-0.15054476,-0.97477388,0.057206631,0.21573895,0
-0.27773166,-4.1232548,-1.3393161,-0.12787759,-0.93536276,-0.32976305,0
-0.4614799,-0.77209663,4.3383756,0.1979447,-0.2250078,0.9540385,0
1.4032621,3.319335,-1.6509212,0.97477388,-0.057206631,-0.21573895,0
-1.3544626,2.9342279,0.62020969,-0.97477388,0.057206631,0.21573895,0
1.7475166,1.9584866,-0.44563985,0.97477388,-0.057206631,-0.21573895,0
-0.71233153,1.3621955,3.2214024,-0.97477388,0.057206631,0.21573895,0
-1.5920098,3.9168134,-1.6938645,-0.97477388,0.057206631,0.21573895,0
0.78686595,0.4488554,-3.4711061,0.97477388,-0.057206631,-0.21573895,0
-2.0433025,1.3977202,-3.3666732,-0.97477388,0.057206631,0.21573895,0
-1.5433877,-1.5611765,-3.8229933,-0.22185093,-0.35424894,-0.90845466,0
1.9901496,1.6241899,2.0486412,0.97477388,-0.057206631,-0.21573895,0
1.1533809,-3.098767,-0.16381693,0.97477388,-0.057206631,-0.21573895,0
-0.6062659,2.2757256,3.6585648,-0.97477388,0.057206631,0.21573895,0
-0.70294189,4.0570879,0.34018397,0.06341821,0.9977451,0.021974266,0
1.4003835,0.44885385,0.039871432,0.97477388,-0.057206631,-0.21573895,0
-1.637694,2.3934336,-0.25715506,-0.97477388,0.057206631,0.21573895,0
-1.3028455,0.8585273,1.7226267,-0.97477388,0.057206631,0.21573895,0
1.3000716,3.7123408,1.85449,0.15343904,0.87371516,0.46160406,0
-1.681608,-4.106637,0.88455117,-0.97477388,0.057206631,0.21573895,0
-1.4591289,-2.3610687,-3.2928953,-0.20887484,-0.57446289,-0.79143143,0
1.3096535,-1.3082427,3.8908644,0.18511248,-0.33281353,0.92464513,0
0.36614513,-3.597888,2.1909084,0.076720357,-0.82181627,0.56456357,0
-0.83040142,-1.6934187,3.1153705,-0.97477388,0.057206631,0.21573895,0
-1.3792474,2.0341339,-3.5068235,-0.16475725,0.4676438,-0.86842644,0
-1.7068899,2.7937546,-1.6364253,-0.97477388,0.057206631,0.21573895,0
0.54349303,-1.0370113,-3.8376825,0.97477388,-0.057206631,-0.21573895,0
-1.8545623,-1.3109884,-1.0726688,-0.97477388,0.057206631,0.21573895,0
-0.43053985,3.7820539,2.24436,0.1494768,0.88513458,0.44067371,0
-0.13645196,-4.1786423,-0.24186134,-0.062943459,-0.9978205,-0.019809425,0
-1.4193828,0.5766471,-3.9590001,-0.20975912,0.09549883,-0.97307813,0
-1.4728791,2.3174863,-0.19758129,-0.97477388,0.057206631,0.21573895,0
0.72872275,-0.23832726,-3.8451207,0.97477388,-0.057206631,-0.21573895,0
-0.055595875,-3.8458483,1.7952807,0.037773848,-0.91036773,0.41207254,0
1.8227217,-3.0870028,1.8973835,0.97477388,-0.057206631,-0.21573895,0
-0.60350329,1.7199026,3.3387275,-0.97477388,0.057206631,0.21573895,0
1.0556207,3.2337399,2.5865288,0.1865233,0.73963726,0.64664173,0
-0.75971603,0.21173024,3.5850601,-0.97477388,0.057206631,0.21573895,0
-1.1369014,4.2656474,-0.081208229,-0.97477388,0.057206631,0.21573895,0
0.657628,3.3173728,2.8450813,0.18207642,0.76286578,0.62039006,0
-0.81057811,-4.0836663,1.3076247,0.011575401,-0.95233685,0.30482879,0
1.9595872,-1.0171113,1.5693796,0.97477388,-0.057206631,-0.21573895,0
1.2596654,-1.6806395,-1.653105,0.97477388,-0.057206631,-0.21573895,0
-1.7225294,-4.0896387,-0.17477894,-0.97477388,0.057206631,0.21573895,0
0.43944073,3.5489883,-2.4274023,-0.067443848,0.84591293,-0.52903938,0
-1.9567533,-0.92196405,-2.0811527,-0.97477388,0.057206631,0.21573895,0
1.5801411,4.0013647,0.025147915,0.078689039,0.99261397,0.092333436,0
-0.43250942,-4.1132689,-1.1503699,-0.11929744,-0.95047688,-0.28698754,0
1.6245012,-3.6320994,2.244626,0.075738132,-0.8244614,0.5608272,0
-1.7103648,-1.4167163,-3.7311447,-0.22078806,-0.38871393,-0.89451325,0
-1.6832416,-2.1828961,0.0038334727,-0.97477388,0.057206631,0.21573895,0
1.8763185,3.5163372,2.2183089,0.16468602,0.8367579,0.52222115,0
2.3122354,0.86256754,3.8718441,0.97477388,-0.057206631,-0.21573895,0
-1.9385519,-1.1851926,-1.9972849,-0.97477388,0.057206631,0.21573895,0
-0.27831757,-3.685605,-2.381664,-0.1662195,-0.83113921,-0.53063989,0
2.1461966,1.2026675,1.6620134,0.97477388,-0.057206631,-0.21573895,0
1.8059065,1.5849419,3.6277516,0.22156712,0.36454266,0.90444279,0
1.8542085,1.2657533,1.4375935,0.97477388,-0.057206631,-0.21573895,0
-2.1171026,-2.1704357,-1.7276967,-0.97477388,0.057206631,0.21573895,0
-1.9559565,-3.6016324,-0.28209269,-0.97477388,0.057206631,0.21573895,0
-2.2364888,1.6116061,-3.3735893,-0.97477388,0.057206631,0.21573895,0
-2.5252547,-0.084333897,-3.6741967,-0.97477388,0.057206631,0.21573895,0
0.71027178,-1.4659147,-3.8005376,0.97477388,-0.057206631,-0.21573895,0
-1.7251594,-2.8722062,-2.9525545,-0.20218708,-0.63571858,-0.74497122,0
0.16974664,2.2025757,-3.5363564,-0.15146554,0.54040003,-0.827663,0
-0.52448952,-3.3333969,-2.3504217,-0.17396322,-0.80030274,-0.57380515,0
0.038299918,2.3499899,3.5180001,0.21336842,0.52249146,0.82551599,0
0.7556926,3.8727131,1.7563396,0.14730465,0.89107627,0.42928356,0
-1.8490036,0.9438926,-1.7144371,-0.97477388,0.057206631,0.21573895,0
-0.55320024,-3.875356,1.9173274,0.026789129,-0.92961967,0.36754543,0
-1.8810301,1.9164011,-2.588007,-0.97477388,0.057206631,0.21573895,0
-2.0623426,-2.2083688,-1.8870239,-0.97477388,0.057206631,0.21573895,0
-1.8614495,-1.9057826,-3.7055678,-0.21860012,-0.43981713,-0.87107682,0
-1.2117593,-3.6477828,-1.792008,-0.15048656,-0.88229704,-0.44598842,0
-1.0681518,-1.6315351,2.1741714,-0.97477388,0.057206631,0.21573895,0
2.0629058,1.8843126,2.0083976,0.97477388,-0.057206631,-0.21573895,0
-1.4322551,-2.1928144,1.3118607,-0.97477388,0.057206631,0.21573895,0
1.6104486,2.4215422,3.2372108,0.20942868,0.56864417,0.79547685,0
-2.1712954,1.5959311,-3.715137,-0.18154722,0.35904714,-0.91549212,0
-1.1769819,3.0884578,-2.5893753,-0.11305892,0.70685208,-0.69826782,0
1.8679941,2.2192917,1.7257671,0.97477388,-0.057206631,-0.21573895,0
-0.28758776,-2.404582,-3.343128,-0.20641771,-0.59873176,-0.77389413,0
-0.74453092,-4.2871037,0.48854733,-0.031737745,-0.9922998,0.1197238,0
-1.1991431,-1.5373896,1.9505976,-0.97477388,0.057206631,0.21573895,0
1.4785172,2.750093,-1.4429525,0.97477388,-0.057206631,-0.21573895,0
1.2111064,2.0548997,3.2252834,0.21485105,0.50232112,0.8375634,0
2.4484022,-0.25753194,3.5899413,0.97477388,-0.057206631,-0.21573895,0
0.70630336,-0.048271656,-3.8410385,0.97477388,-0.057206631,-0.21573895,0
-1.0414257,1.1432291,2.4961324,-0.97477388,0.057206631,0.21573895,0
-1.565165,3.6755414,-1.406803,-0.97477388,0.057206631,0.21573895,0
-1.6037143,-2.8584545,1.009745,-0.97477388,0.057206631,0.21573895,0
-0.73990941,-0.86208439,4.3510504,0.19280308,-0.27112636,0.94303632,0
-1.5796226,-0.65644455,0.70732492,-0.97477388,0.057206631,0.21573895,0
-1.9702911,2.1199722,-2.470201,-0.97477388,0.057206631,0.21573895,0
2.054884,2.3815529,3.260282,0.20798007,0.58357877,0.78497136,0
0.36694574,-4.4247227,-0.35508394,-0.070921242,-0.99588799,-0.056367815,0
-0.37507129,4.4021235,0.49793696,0.069077611,0.99646139,0.047885418,0
0.57016563,-4.0443902,1.0717058,0.0070142746,-0.95826578,0.28579271,0
1.7944096,0.8154875,0.69070423,0.97477388,-0.057206631,-0.21573895,0
1.0178857,0.93548626,3.9875436,0.22315547,0.23166208,0.94685495,0
-0.44029641,-0.49904704,4.5670133,0.20739639,-0.12503168,0.97023392,0
-1.2907761,-0.73442459,1.1630189,-0.97477388,0.057206631,0.21573895,0
2.0273266,3.6830983,1.1337099,0.13418561,0.92260832,0.36164647,0
0.63568187,-0.14681721,-3.691736,0.97477388,-0.057206631,-0.21573895,0
-1.0539088,4.1256089,0.21182775,-0.97477388,0.057206631,0.21573895,0
-1.6816654,2.6319263,-1.5237544,-0.97477388,0.057206631,0.21573895,0
0.62600708,-2.1837292,-2.9920712,0.97477388,-0.057206631,-0.21573895,0
0.52281928,-4.4066944,-0.34277344,-0.073826492,-0.99482715,-0.069775701,0
0.70782685,-3.6030364,1.9810672,0.053536713,-0.87844765,0.47483009,0
1.700519,3.2723417,-0.13988721,0.97477388,-0.057206631,-0.21573895,0
0.74664211,-3.6340125,-2.0578573,0.97477388,-0.057206631,-0.21573895,0
-0.26798272,0.35895443,4.4907675,0.21939397,0.067965925,0.97326607,0
2.0835927,-1.3415109,3.3751383,0.97477388,-0.057206631,-0.21573895,0
1.3966324,-2.5898564,-0.11441731,0.97477388,-0.057206631,-0.21573895,0
0.43536228,-2.5640156,-3.8393791,-0.21037157,-0.55840254,-0.8024528,0
0.45176983,-3.4927049,-2.6030357,-0.16859528,-0.82212949,-0.54376352,0
0.56221044,-0.4103694,-4.2128668,0.97477388,-0.057206631,-0.21573895,0
-2.0098753,-2.8195806,-0.59236932,-0.97477388,0.057206631,0.21573895,0
-1.8360027,1.5276346,-1.7633419,-0.97477388,0.057206631,0.21573895,0
-0.75564408,2.487987,3.6950064,-0.97477388,0.057206631,0.21573895,0
1.7363455,-1.6867416,1.3305099,0.97477388,-0.057206631,-0.21573895,0
0.60252547,-0.13097668,-4.0485835,0.97477388,-0.057206631,-0.21573895,0
0.23785236,-2.1118958,-4.0888681,-0.21702529,-0.46863085,-0.85632074,0
0.98381782,0.050712824,-3.2219203,0.97477388,-0.057206631,-0.21573895,0
-0.82026339,-2.3407071,3.4232626,-0.97477388,0.057206631,0.21573895,0
-1.1648135,2.9918408,-2.6425407,-0.10942149,0.7199803,-0.68531394,0
0.65442562,-2.1801372,3.7052379,0.15881664,-0.50137544,0.85052919,0
1.8577461,3.2457311,0.81611907,0.97477388,-0.057206631,-0.21573895,0
2.3265071,-0.90718949,3.7527184,0.97477388,-0.057206631,-0.21573895,0
-1.6465664,-3.4922619,1.198998,-0.97477388,0.057206631,0.21573895,0
2.388346,2.9692063,2.7302034,0.97477388,-0.057206631,-0.21573895,0
-0.33143902,2.0324473,-3.571485,-0.15139866,0.5407427,-0.82745147,0
0.76491857,0.91272449,-4.4368696,0.97477388,-0.057206631,-0.21573895,0
-0.82880062,2.317204,3.1902828,-0.97477388,0.057206631,0.21573895,0
-1.8797318,0.24956739,-0.69221061,-0.97477388,0.057206631,0.21573895,0
0.98913193,-3.4567575,-1.4740174,0.97477388,-0.057206631,-0.21573895,0
-1.6838814,-1.6052214,0.13553029,-0.97477388,0.057206631,0.21573895,0
1.2393665,3.1013021,-1.8771002,0.97477388,-0.057206631,-0.21573895,0
1.6694424,0.91853595,0.35999405,0.97477388,-0.057206631,-0.21573895,0
1.3933754,-0.60329652,-0.53122497,0.97477388,-0.057206631,-0.21573895,0
-0.76906049,-1.3174117,3.0448246,-0.97477388,0.057206631,0.21573895,0
1.6735966,4.0322757,0.1097331,0.086740315,0.98771107,0.13001138,0
-1.4592113,3.2471399,-0.0078613758,-0.97477388,0.057206631,0.21573895,0
1.3423626,4.0437078,-0.14574003,0.065346837,0.99738765,0.030783117,0
-0.1974262,-0.13935637,-4.3979917,-0.21551952,0.010052323,-0.97644782,0
1.651983,-2.6896381,1.7682706,0.97477388,-0.057206631,-0.21573895,0
-1.2866071,0.059333563,1.9637098,-0.97477388,0.057206631,0.21573895,0
-1.5890534,-1.6742393,-3.3901794,-0.21925868,-0.42616507,-0.87767255,0
1.8882902,2.2798364,0.93665779,0.97477388,-0.057206631,-0.21573895,0
-1.0699379,1.7275591,1.8373224,-0.97477388,0.057206631,0.21573895,0
-1.9622421,-3.9434938,-1.2366971,-0.12936771,-0.93248039,-0.33726013,0
1.8135366,-3.1243773,2.7327137,0.97477388,-0.057206631,-0.21573895,0
0.23137999,-3.8011749,-2.1807725,-0.15176213,-0.87864208,-0.45272106,0
1.2921443,-2.0878153,-0.67757189,0.97477388,-0.057206631,-0.21573895,0
1.6277719,-0.079502463,0.98259044,0.97477388,-0.057206631,-0.21573895,0
-1.7830732,3.0350704,-1.5860314,-0.97477388,0.057206631,0.21573895,0
-1.0230091,-0.79168487,3.1638045,-0.97477388,0.057206631,0.21573895,0
2.0604146,2.9838505,1.8401812,0.97477388,-0.057206631,-0.21573895,0
-1.1549659,0.90386128,1.4183371,-0.97477388,0.057206631,0.21573895,0
-1.8788742,0.95477891,-2.1022348,-0.97477388,0.057206631,0.21573895,0
-0.61775887,2.5776441,3.7795966,0.20563476,0.60599345,0.76843119,0
-1.0544055,-0.22226501,2.4052718,-0.97477388,0.057206631,0.21573895,0
0.17971563,1.1199725,4.1339064,0.22319442,0.24815646,0.94265717,0
-2.1756525,-1.2558981,-3.0729485,-0.97477388,0.057206631,0.21573895,0
0.90448225,-1.0142822,-2.253828,0.97477388,-0.057206631,-0.21573895,0
-0.75382233,-2.8383753,3.4030492,-0.97477388,0.057206631,0.21573895,0
-2.2262528,2.382699,-3.1584892,-0.97477388,0.057206631,0.21573895,0
-1.7344807,-1.7201188,-3.7903569,-0.22097042,-0.38347647,-0.89672619,0
1.305217,-1.8619928,-0.70222294,0.97477388,-0.057206631,-0.21573895,0
1.4871688,2.1117013,-0.75309074,0.97477388,-0.057206631,-0.21573895,0
-1.1654022,-0.39317328,-3.9748323,-0.21995172,-0.082036018,-0.97205526,0
-1.3484594,2.0723279,-0.25751221,-0.97477388,0.057206631,0.21573895,0
-0.29076695,-4.0126166,-1.7459884,-0.13506466,-0.92071342,-0.36612064,0
-2.0527837,1.9098026,-3.7242804,-0.16947961,0.43924916,-0.88223404,0
-1.0985938,-2.8759656,-2.6752675,-0.18970746,-0.72159946,-0.66581184,0
-1.8801308,-2.6938612,-0.81532109,-0.97477388,0.057206631,0.21573895,0
0.1724999,-1.0251647,-4.2134919,-0.22317183,-0.23595677,-0.94578993,0
-1.7502173,-0.47209549,-0.80895352,-0.97477388,0.057206631,0.21573895,0
1.8191907,-0.60634613,4.1043777,0.20694149,-0.13045537,0.96961671,0
-1.5225661,1.2674522,0.26933646,-0.97477388,0.057206631,0.21573895,0
1.2236605,-4.2117043,-0.027985096,0.97477388,-0.057206631,-0.21573895,0
-0.75979638,-4.0079165,-0.80231285,-0.10167944,-0.97428536,-0.20107073,0
0.15508351,-2.3365273,-3.7057462,-0.20863906,-0.57689798,-0.78972048,0
1.0932795,-0.42495346,-1.0809624,0.97477388,-0.057206631,-0.21573895,0
-2.4389491,0.85116154,-3.8427641,-0.20415628,0.16210195,-0.96542382,0
-1.3570524,-1.7978277,1.0500112,-0.97477388,0.057206631,0.21573895,0
1.7538819,4.0206327,0.17112112,0.97477388,-0.057206631,-0.21573895,0
-1.5085497,0.70566255,-0.1942088,-0.97477388,0.057206631,0.21573895,0
-1.5664177,4.0770149,-0.37729478,-0.97477388,0.057206631,0.21573895,0
2.1401145,2.5190523,2.1712892,0.97477388,-0.057206631,-0.21573895,0
0.254632,4.0830636,-1.4148678,-0.019678891,0.94080228,-0.33838421,0
1.9686432,-2.1824274,2.3588469,0.97477388,-0.057206631,-0.21573895,0
-1.4256546,-3.5370772,-2.1237807,-0.1643151,-0.838094,-0.52019131,0
0.77503419,1.8628376,-3.3628116,0.97477388,-0.057206631,-0.21573895,0
-1.4076661,-2.1387043,1.5238761,-0.97477388,0.057206631,0.21573895,0
1.5273187,-0.63718158,3.9998775,0.20787996,-0.11917856,0.97086686,0
-1.491277,-1.739993,1.2078192,-0.97477388,0.057206631,0.21573895,0
-1.10324,3.7552636,0.46288943,-0.97477388,0.057206631,0.21573895,0
-1.7222793,2.2914054,-2.1688533,-0.97477388,0.057206631,0.21573895,0
1.3589056,-3.2407217,0.73631072,0.97477388,-0.057206631,-0.21573895,0
2.4272494,-0.1178419,3.8388467,0.21451417,-0.02682361,0.97635245,0
1.1414658,0.39162576,-1.5596557,0.97477388,-0.057206631,-0.21573895,0
-1.8921107,-2.5115528,-1.6524143,-0.97477388,0.057206631,0.21573895,0
-0.81811482,0.53679729,3.7445495,-0.97477388,0.057206631,0.21573895,0
1.0794193,-2.8180842,-1.0460804,0.97477388,-0.057206631,-0.21573895,0
-0.66399336,-2.7205687,-3.4454079,-0.20211212,-0.6363281,-0.74447107,0
-1.942233,1.6394258,-1.8290507,-0.97477388,0.057206631,0.21573895,0
1.3947737,0.46406412,3.8646209,0.22144118,0.12695299,0.96687466,0
-1.5337722,-3.3817117,0.27808785,-0.97477388,0.057206631,0.21573895,0
-1.2633429,3.7240357,-1.6142675,-0.043143332,0.90007055,-0.43360299,0
0.94721514,-0.13286972,-2.1363158,0.97477388,-0.057206631,-0.21573895,0
-1.947358,-2.0446482,-0.48476952,-0.97477388,0.057206631,0.21573895,0
-1.3216424,3.419415,-0.10054231,-0.97477388,0.057206631,0.21573895,0
1.3521619,0.98312128,3.7750883,0.22318535,0.25871837,0.93981546,0
-1.7155182,2.0980628,-2.2066648,-0.97477388,0.057206631,0.21573895,0
1.8144696,1.8213441,1.4769795,0.97477388,-0.057206631,-0.21573895,0
2.0574086,-1.7581743,2.4834397,0.97477388,-0.057206631,-0.21573895,0
1.1529404,3.9629259,1.3015287,0.1236909,0.94304717,0.30880851,0
-2.2142248,-2.1883175,-2.3442094,-0.97477388,0.057206631,0.21573895,0
-1.2853627,2.1026287,-0.30698907,-0.97477388,0.057206631,0.21573895,0
-1.0325053,4.2881098,1.3095417,0.095317483,0.98071569,0.17062056,0
0.75145113,-1.7052279,-2.2129641,0.97477388,-0.057206631,-0.21573895,0
0.77803731,1.2649603,-3.4931107,0.97477388,-0.057206631,-0.21573895,0
1.8555589,-0.12634361,1.6151515,0.97477388,-0.057206631,-0.21573895,0
-0.72244132,-3.2221422,-2.9656322,-0.18865229,-0.727718,-0.65942162,0
-1.9763184,-3.0097384,-1.1330481,-0.97477388,0.057206631,0.21573895,0
0.79095531,0.91749477,-4.2069902,0.97477388,-0.057206631,-0.21573895,0
-0.33143973,-2.4225168,3.3621688,0.1337437,-0.62412596,0.7697919,0
-1.4775734,-0.47126055,1.0652871,-0.97477388,0.057206631,0.21573895,0
1.5167365,-0.24986565,0.77870339,0.97477388,-0.057206631,-0.21573895,0
-1.0315535,3.8987408,-0.98544431,-0.011095166,0.95298016,-0.30282953,0
-0.96487534,0.097428799,2.5945086,-0.97477388,0.057206631,0.21573895,0
-1.0182227,0.099266052,2.4542565,-0.97477388,0.057206631,0.21573895,0
-1.1272805,-3.9225073,1.9996623,0.031901777,-0.92095971,0.38834974,0
-1.1689677,3.8473427,0.014437914,-0.97477388,0.057206631,0.21573895,0
-1.2310369,2.9077172,-2.8839126,-0.11640561,0.6944195,-0.71009243,0
-1.1288778,2.4984195,1.348315,-0.97477388,0.057206631,0.21573895,0
1.7797776,1.3349099,3.8354783,0.2228497,0.30318758,0.92650712,0
-1.3146908,-3.1914423,2.7209959,-0.97477388,0.057206631,0.21573895,0
1.125108,-2.3132584,-1.9317437,0.97477388,-0.057206631,-0.21573895,0
-0.9457643,3.8854232,0.84269309,-0.97477388,0.057206631,0.21573895,0
2.3990488,0.67243361,3.6171684,0.97477388,-0.057206631,-0.21573895,0
0.61115062,-2.7985287,-2.5508652,0.97477388,-0.057206631,-0.21573895,0
2.0556133,1.6961863,1.2464981,0.97477388,-0.057206631,-0.21573895,0
1.8041098,-1.9112943,1.0069008,0.97477388,-0.057206631,-0.21573895,0
1.0492587,-0.082125902,-2.233793,0.97477388,-0.057206631,-0.21573895,0
-2.0155766,1.653579,-2.9951882,-0.97477388,0.057206631,0.21573895,0
0.11238861,-3.4922571,2.7361066,0.089458704,-0.78541774,0.61246729,0
2.2517591,1.4524131,3.673377,0.22277343,0.30873626,0.92469126,0
-0.45291352,-4.287313,0.27461481,-0.041748703,-0.99626821,0.075543344,0
-2.0795171,-1.7388468,-2.7686517,-0.97477388,0.057206631,0.21573895,0
-1.1730645,3.0745637,0.37633562,-0.97477388,0.057206631,0.21573895,0
-0.89283055,1.4813454,2.546001,-0.97477388,0.057206631,0.21573895,0
-1.3810802,-0.78389001,1.5662231,-0.97477388,0.057206631,0.21573895,0
0.19508171,3.2475257,2.5604467,0.18119664,0.76721668,0.61526126,0
-0.1764207,-2.0906246,-3.8506494,-0.21570843,-0.48970735,-0.84478199,0
1.7819912,-3.5577874,1.8781272,0.97477388,-0.057206631,-0.21573895,0
-1.9196498,2.7382221,-2.0130653,-0.97477388,0.057206631,0.21573895,0
-0.85366714,-3.5418296,-2.2673988,-0.16153193,-0.84785259,-0.50502825,0
-1.556396,-3.0805535,-0.032163739,-0.97477388,0.057206631,0.21573895,0
1.7921853,1.9281951,1.2482382,0.97477388,-0.057206631,-0.21573895,0
-1.1319562,-0.3139075,1.6138314,-0.97477388,0.057206631,0.21573895,0
-0.53601408,-1.6011565,4.0138645,0.17333275,-0.41492346,0.8931933,0
0.99011612,-2.842103,-1.6984956,0.97477388,-0.057206631,-0.21573895,0
1.1733059,1.5954163,3.5484383,0.22017932,0.40481883,0.88749242,0
-0.18458629,2.7054148,3.5365887,0.20212573,0.63621807,0.74456161,0
-1.5123162,1.8805544,-0.5375824,-0.97477388,0.057206631,0.21573895,0
0.98344302,-3.8837733,1.4756213,0.032629788,-0.91968429,0.39130044,0
-1.0288355,-2.1297727,-3.6188695,-0.21486139,-0.50217354,-0.83764923,0
1.1919754,-1.2184238,-1.4779749,0.97477388,-0.057206631,-0.21573895,0
-2.3333921,1.1991831,-3.2338872,-0.97477388,0.057206631,0.21573895,0
-1.5410439,1.4150921,-0.52150494,-0.97477388,0.057206631,0.21573895,0
-1.0268006,0.90191948,2.9579363,-0.97477388,0.057206631,0.21573895,0
0.45791063,-2.4426196,-3.7606144,-0.21432737,-0.50966507,-0.83324987,0
1.8744746,2.539479,1.423331,0.97477388,-0.057206631,-0.21573895,0
-1.1596071,2.5445619,0.32851529,-0.97477388,0.057206631,0.21573895,0
-1.3930256,1.1416743,-3.9353423,-0.1930297,0.26918611,-0.94354564,0
-0.73612392,2.0733068,2.2740591,-0.97477388,0.057206631,0.21573895,0
-0.13515091,-4.0315986,0.84376442,-0.0074388981,-0.97438508,0.22476259,0
-1.7726555,-1.568651,-0.055975258,-0.97477388,0.057206631,0.21573895,0
0.079916477,-2.8186021,-3.1742063,-0.19606867,-0.68132448,-0.70523334,0
-0.74150276,2.2648385,3.6076617,-0.97477388,0.057206631,0.21573895,0
1.3196328,2.7246933,-2.2881896,0.97477388,-0.057206631,-0.21573895,0
-1.7842755,1.8811841,-1.616833,-0.97477388,0.057206631,0.21573895,0
-1.6801009,-1.7732953,-0.33060688,-0.97477388,0.057206631,0.21573895,0
1.2185934,-3.8256774,1.604018,0.055912673,-0.87318575,0.48416981,0
1.2083113,-2.4095914,-0.9696734,0.97477388,-0.057206631,-0.21573895,0
1.3878314,-1.2298765,-0.48013651,0.97477388,-0.057206631,-0.21573895,0
0.57425356,-1.7442988,-3.3351402,0.97477388,-0.057206631,-0.21573895,0
1.2759383,1.6591597,-1.0077044,0.97477388,-0.057206631,-0.21573895,0
1.258379,-2.7447805,-0.71267343,0.97477388,-0.057206631,-0.21573895,0
1.9899553,3.5359061,1.8392755,0.16546863,0.83390903,0.52651298,0
-1.4113247,-2.0637469,1.3130995,-0.97477388,0.057206631,0.21573895,0
-0.83950758,-3.0877662,2.8680224,0.097246826,-0.7611649,0.64122611,0
-1.8854394,3.0666456,-2.8216245,-0.12388754,0.66534173,-0.73618764,0
-0.24077773,-2.188134,3.8542621,0.15830278,-0.50419647,0.84895587,0
1.2966127,-1.8262496,3.6795647,0.16757476,-0.45088208,0.87671208,0
-1.7901638,-1.7985363,-0.87556994,-0.97477388,0.057206631,0.21573895,0
1.7098513,-3.8497736,2.0172167,0.065800369,-0.84997863,0.52269173,0
-1.0865237,-2.1543775,-3.3596885,-0.20983309,-0.56430525,-0.79845464,0
1.4124657,3.2341256,2.4338975,0.18374947,0.75437605,0.63020074,0
1.3535563,-0.79209292,-1.0630023,0.97477388,-0.057206631,-0.21573895,0
0.47954345,-4.0788403,-1.2799609,-0.11325663,-0.95968449,-0.25725186,0
1.0485404,-3.7469239,-1.0833535,0.97477388,-0.057206631,-0.21573895,0
-1.1607803,-1.6773243,1.2961912,-0.97477388,0.057206631,0.21573895,0
1.3541993,2.9436133,2.9991832,0.20062923,0.64810532,0.73464781,0
-2.2229722,-0.71751738,-3.1365805,-0.97477388,0.057206631,0.21573895,0
0.74987817,-2.9442859,-2.9885612,0.97477388,-0.057206631,-0.21573895,0
1.8607078,3.4791837,1.7480309,0.15144387,0.87956142,0.4510392,0
-1.6476574,2.4545343,-0.94331551,-0.97477388,0.057206631,0.21573895,0
1.0879327,-0.19267488,-2.1853433,0.97477388,-0.057206631,-0.21573895,0
1.4935973,-1.9574186,3.5291123,0.16239762,-0.48129374,0.86138451,0
-2.1243081,-2.7189941,-2.343255,-0.97477388,0.057206631,0.21573895,0
-1.1453519,0.74702466,2.3066974,-0.97477388,0.057206631,0.21573895,0
-2.0425019,1.0988088,-2.3437698,-0.97477388,0.057206631,0.21573895,0
0.34733248,4.1337209,0.22366095,0.081924438,0.99083221,0.10742384,0
2.2098927,1.6152216,3.0512028,0.97477388,-0.057206631,-0.21573895,0
2.250088,-1.3853114,3.3811564,0.97477388,-0.057206631,-0.21573895,0
0.91550207,-0.81128716,4.073647,0.19998896,-0.20529813,0.95804858,0
1.5550623,2.6489244,-0.78166687,0.97477388,-0.057206631,-0.21573895,0
0.38812113,4.0247602,0.62782598,0.093699038,0.98218,0.16291976,0
-1.8647124,1.513904,-1.4540629,-0.97477388,0.057206631,0.21573895,0
1.2441344,-0.40232027,-1.42364,0.97477388,-0.057206631,-0.21573895,0
0.61424434,-0.089775324,-4.1007595,0.97477388,-0.057206631,-0.21573895,0
-0.66549009,-2.3650227,-3.5699911,-0.21138772,-0.54684436,-0.8101089,0
-1.0184863,-3.0868092,2.6270905,-0.97477388,0.057206631,0.21573895,0
1.0271587,1.2711161,4.1042457,0.22303087,0.28669667,0.93169862,0
0.076108217,0.86039841,4.1573768,0.22314319,0.22900148,0.94750482,0
1.6187609,2.8984897,0.33992898,0.97477388,-0.057206631,-0.21573895,0
-2.0544355,-0.94756293,-2.2912524,-0.97477388,0.057206631,0.21573895,0
-1.837357,2.27598,-3.4487681,-0.15258771,0.53462291,-0.83120108,0
-0.1002363,-3.1983709,-3.1833155,-0.18848358,-0.72868288,-0.65840352,0
1.6048307,0.65428364,-0.10483952,0.97477388,-0.057206631,-0.21573895,0
-0.81290942,0.84986544,3.175863,-0.97477388,0.057206631,0.21573895,0
-1.4418249,-3.1364913,-2.7297387,-0.18609482,-0.74197066,-0.64408696,0
-1.6642196,3.2242026,-0.56830573,-0.97477388,0.057206631,0.21573895,0
-1.0475791,-3.9192398,-0.99035525,-0.11601168,-0.95562631,-0.27077597,0
1.6502669,-0.30283713,1.220623,0.97477388,-0.057206631,-0.21573895,0
-0.61267269,3.5542223,2.5398211,0.16965023,0.8180052,0.54962361,0
0.13467383,-3.5413046,-2.4162726,-0.17026463,-0.8155669,-0.55304646,0
-1.6345026,-2.7055788,0.71007752,-0.97477388,0.057206631,0.21573895,0
2.4827633,1.3992842,3.0939879,0.97477388,-0.057206631,-0.21573895,0
0.48763338,2.6515629,3.4417198,0.20268953,0.63159454,0.74833506,0
0.61471814,-0.97149873,-3.1154714,0.97477388,-0.057206631,-0.21573895,0
-1.4508636,-3.9560428,1.3301343,0.0027106404,-0.96348947,0.26773247,0
0.77646661,1.7292492,-3.0708158,0.97477388,-0.057206631,-0.21573895,0
-0.70051146,-2.3573799,3.8236122,0.15090364,-0.54326999,0.82588494,0
-2.1294007,-2.6818295,-2.5262852,-0.97477388,0.057206631,0.21573895,0
-1.7142243,-3.8930678,0.26363373,-0.97477388,0.057206631,0.21573895,0
-2.4837003,-1.4430096,-3.24963,-0.97477388,0.057206631,0.21573895,0
2.3260431,1.5011986,3.3193803,0.97477388,-0.057206631,-0.21573895,0
1.3073568,0.49684989,-0.75777197,0.97477388,-0.057206631,-0.21573895,0
-1.8021536,-0.11514544,-0.51060873,-0.97477388,0.057206631,0.21573895,0
1.1497116,2.8300478,-2.7696936,0.97477388,-0.057206631,-0.21573895,0
-2.0448489,-0.29738739,-2.5569291,-0.97477388,0.057206631,0.21573895,0
-1.2047256,-1.3116951,1.5443244,-0.97477388,0.057206631,0.21573895,0
-0.80500019,1.7830549,3.2487006,-0.97477388,0.057206631,0.21573895,0
1.9542813,2.9553657,2.4258795,0.18249911,0.76074803,0.6228615,0
0.90859056,-3.2053094,-1.8538651,0.97477388,-0.057206631,-0.21573895,0
-1.2707901,-2.0280795,1.9862385,-0.97477388,0.057206631,0.21573895,0
-0.78543222,0.04127264,3.1688466,-0.97477388,0.057206631,0.21573895,0
0.96723962,-3.0083783,-1.3802109,0.97477388,-0.057206631,-0.21573895,0
2.0902731,-1.2852535,2.6015577,0.97477388,-0.057206631,-0.21573895,0
0.12654752,-2.7708738,-3.4929762,-0.19942662,-0.6572808,-0.72678137,0
1.3880703,2.9400549,-1.566215,0.97477388,-0.057206631,-0.21573895,0
1.0614228,3.1737728,-2.6207364,0.97477388,-0.057206631,-0.21573895,0
1.5799259,1.6716473,0.38895655,0.97477388,-0.057206631,-0.21573895,0
2.0865967,0.22603315,3.9600124,0.21839306,0.045048267,0.97482055,0
-1.2604294,3.408206,0.22759199,-0.97477388,0.057206631,0.21573895,0
0.76875389,1.2514036,-3.2858682,0.97477388,-0.057206631,-0.21573895,0
-1.7010972,-2.4094849,-3.1506016,-0.21044192,-0.55762053,-0.80297798,0
-0.58269823,-3.1646323,-2.8163927,-0.18188463,-0.76382065,-0.61927044,0
-1.1503793,1.6012146,1.9292742,-0.97477388,0.057206631,0.21573895,0
-1.2835298,4.4265347,-0.45006919,0.02254802,0.98689008,-0.1598112,0
-1.0997365,-4.0551271,0.35740256,-0.044728994,-0.99705565,0.062286258,0
0.37556225,-2.5704463,-3.7229152,-0.20565633,-0.6057964,-0.76858068,0
-1.2174292,-1.6777952,-3.8983161,-0.22078775,-0.38872221,-0.89450979,0
-0.3136766,4.4779873,0.4469893,0.074401617,0.9945941,0.072435975,0
-2.03866,-3.011699,-2.119951,-0.97477388,0.057206631,0.21573895,0
-2.0486832,-2.9855094,-1.8862108,-0.97477388,0.057206631,0.21573895,0
0.99714255,-2.5181248,-1.2958136,0.97477388,-0.057206631,-0.21573895,0
-0.32414532,-0.54002738,4.4719205,0.21013993,-0.09050104,0.97347355,0
1.3788086,-0.75762689,-1.020025,0.97477388,-0.057206631,-0.21573895,0
0.028637528,-3.5124471,-2.6890666,-0.18056226,-0.77030683,-0.61157554,0
-0.37112212,-2.99245,-3.0136261,-0.19771019,-0.66984522,-0.71569407,0
-0.54256725,4.0763216,-1.2506094,-0.0014641881,0.96493524,-0.26248378,0
1.6594514,-0.8836714,1.0159645,0.97477388,-0.057206631,-0.21573895,0
0.39998078,-0.475214,4.1137347,0.20427161,-0.16084012,0.96561044,0
1.0136902,-1.138344,-2.3260419,0.97477388,-0.057206631,-0.21573895,0
-1.4272864,-1.1965208,1.2686784,-0.97477388,0.057206631,0.21573895,0
0.6420989,-1.1316886,-3.9765561,0.97477388,-0.057206631,-0.21573895,0
1.8404555,0.66449416,0.98732018,0.97477388,-0.057206631,-0.21573895,0
0.7303139,-0.09598577,4.1638002,0.21733448,0.023240417,0.97582042,0
-0.95497429,-0.61596012,3.6537998,-0.97477388,0.057206631,0.21573895,0
1.3960282,1.2459922,-0.38554445,0.97477388,-0.057206631,-0.21573895,0
-1.4663138,2.8049102,-0.33315754,-0.97477388,0.057206631,0.21573895,0
-1.7612222,-2.0730724,-3.5452998,-0.21404457,-0.51352739,-0.830948,0
1.483986,-1.1417704,-0.70497847,0.97477388,-0.057206631,-0.21573895,0
1.4013197,-1.9744622,-0.49440205,0.97477388,-0.057206631,-0.21573895,0
1.666627,-0.059747696,0.77946675,0.97477388,-0.057206631,-0.21573895,0
-1.7242409,0.21575737,-0.047491193,-0.97477388,0.057206631,0.21573895,0
0.42422068,-0.51294541,-4.0973535,0.97477388,-0.057206631,-0.21573895,0
1.8389055,1.5331446,0.092032939,0.97477388,-0.057206631,-0.21573895,0
-0.76521254,0.40297592,-3.9577816,-0.21132705,0.074434072,-0.97457701,0
1.1390995,-2.664345,-0.62328959,0.97477388,-0.057206631,-0.21573895,0
2.3332815,2.4530799,2.2106135,0.97477388,-0.057206631,-0.21573895,0
0.59544754,-0.056688786,-4.482512,-0.21515781,0.016204149,-0.97644478,0
1.7097509,3.9021039,-0.78436089,0.030924678,0.99188888,-0.12328839,0
1.7708914,0.54318428,3.9563043,0.22086841,0.10804425,0.96930057,0
1.8008482,-1.6010499,1.7181349,0.97477388,-0.057206631,-0.21573895,0
-1.9900177,1.7198286,-2.5437775,-0.97477388,0.057206631,0.21573895,0
-1.1210058,0.092774391,2.5301754,-0.97477388,0.057206631,0.21573895,0
-1.0374861,2.9123571,1.9753273,-0.97477388,0.057206631,0.21573895,0
2.2726278,0.33329171,2.988184,0.97477388,-0.057206631,-0.21573895,0
-1.1036804,-1.7744746,2.0808043,-0.97477388,0.057206631,0.21573895,0
1.2108407,3.9902391,-1.3916785,0.0064905286,0.97345173,-0.22880012,0
-1.0125318,2.9745617,1.3381362,-0.97477388,0.057206631,0.21573895,0
1.3460443,-3.2460139,-0.44024086,0.97477388,-0.057206631,-0.21573895,0
1.7814034,3.1565442,-0.60425603,0.97477388,-0.057206631,-0.21573895,0
0.40272999,-3.8083699,2.1872933,0.066425502,-0.84843922,0.52510816,0
-1.2175786,3.5123341,0.5063436,-0.97477388,0.057206631,0.21573895,0
1.735922,3.6996486,-0.21717536,0.97477388,-0.057206631,-0.21573895,0
1.1199045,-4.2870569,-0.21870971,0.97477388,-0.057206631,-0.21573895,0
-1.8560683,-3.232904,-0.44838703,-0.97477388,0.057206631,0.21573895,0
-0.37538695,2.0194149,-3.7339349,-0.15823412,0.50457293,-0.84874511,0
1.7227829,-3.1158545,2.2972527,0.97477388,-0.057206631,-0.21573895,0
1.464457,-3.2133889,0.46752214,0.97477388,-0.057206631,-0.21573895,0
-1.6514027,2.5558863,-0.64102936,-0.97477388,0.057206631,0.21573895,0
0.51977682,-4.2655859,0.8334682,-0.013407946,-0.97985816,0.19924411,0
-1.2445669,3.9698915,-0.56130457,-0.97477388,0.057206631,0.21573895,0
0.339481,3.5910397,2.2403395,0.16770068,0.82556671,0.5388099,0
-1.7734768,-2.4934742,-0.36865127,-0.97477388,0.057206631,0.21573895,0
1.4874302,-1.5529947,1.0171268,0.97477388,-0.057206631,-0.21573895,0
-1.5206556,2.6168475,-3.3149991,-0.14022845,0.59502941,-0.79137594,0
1.341671,0.1059432,-0.73028421,0.97477388,-0.057206631,-0.21573895,0
-1.5466365,-1.6626133,0.49962586,-0.97477388,0.057206631,0.21573895,0
0.21247983,-0.17452645,-4.607872,-0.21632659,-0.0042115748,-0.97631198,0
2.3965139,1.6464516,3.0636225,0.97477388,-0.057206631,-0.21573895,0
-1.2655959,3.4239841,-0.55478883,-0.97477388,0.057206631,0.21573895,0
-1.0067739,4.2447529,0.45876551,0.059309542,0.99823421,0.003280282,0
-0.092636466,-0.3586489,-4.122365,-0.22030136,-0.091469347,-0.97113365,0
-0.86752677,3.5539579,2.4793804,-0.97477388,0.057206631,0.21573895,0
1.8838592,0.2807318,2.0331125,0.97477388,-0.057206631,-0.21573895,0
-1.9214909,-3.1006577,-1.6846709,-0.97477388,0.057206631,0.21573895,0
0.74939919,2.6613646,3.0473607,0.20162719,0.64023852,0.74124289,0
-1.6635003,-2.5666029,0.29932529,-0.97477388,0.057206631,0.21573895,0
0.50709474,-1.7551186,-3.4037113,0.97477388,-0.057206631,-0.21573895,0
1.7831259,1.9062798,3.3780551,0.21867603,0.4382998,0.8718223,0
-1.1834488,4.0400333,1.035511,-0.97477388,0.057206631,0.21573895,0
0.081683636,-4.1388798,0.9372803,-0.00071883202,-0.96739465,0.25327265,0
-0.16934013,1.0683771,-4.0824718,-0.19525552,0.24969563,-0.94843417,0
0.65923685,-1.3117653,-3.9297237,0.97477388,-0.057206631,-0.21573895,0
0.44063663,-3.893271,1.2104912,0.015945494,-0.94627595,0.32296681,0
1.819521,-0.78211391,3.6972008,0.20368856,-0.16717845,0.96465659,0
1.1814253,-2.7091465,-0.33227944,0.97477388,-0.057206631,-0.21573895,0
-1.5806832,-3.783006,0.96682,-0.97477388,0.057206631,0.21573895,0
0.58329993,-1.8101366,-3.4822941,0.97477388,-0.057206631,-0.21573895,0
1.7876308,1.1120377,1.6341128,0.97477388,-0.057206631,-0.21573895,0
0.22185063,-4.3190966,-0.17025971,-0.062784672,-0.99784458,-0.01908499,0
1.5198445,-4.2213573,0.76885033,-0.0081089139,-0.97503406,0.22190753,0
0.068678498,-0.44933939,-4.3487043,-0.22177687,-0.1394739,-0.96507102,0
1.7727934,-1.8567084,0.63602197,0.97477388,-0.057206631,-0.21573895,0
0.88030791,-2.6224599,3.4513035,0.14126801,-0.59020722,0.79479492,0
1.6205187,-2.2181311,1.2867697,0.97477388,-0.057206631,-0.21573895,0
-0.74598855,0.42211223,4.1309304,-0.97477388,0.057206631,0.21573895,0
-0.18699765,4.1832156,1.3723071,0.11798579,0.95257342,0.2805053,0
2.0150583,2.2854466,2.8548477,0.20964564,0.56632602,0.79707181,0
0.16119385,4.2043142,0.30301309,0.078545809,0.99268711,0.091666579,0
-0.77009881,0.92307484,2.5358801,-0.97477388,0.057206631,0.21573895,0
-1.1214546,1.3399371,1.7321346,-0.97477388,0.057206631,0.21573895,0
0.66629791,4.0262733,-1.232198,0.011505485,0.97818917,-0.20739728,0
0.050018311,-0.78325939,4.4543986,0.20140493,-0.19110849,0.96068394,0
-0.67848706,-0.89557236,-4.0468011,-0.22319454,-0.25128958,-0.94182676,0
1.1411577,1.8520254,-1.3709962,0.97477388,-0.057206631,-0.21573895,0
2.0902267,0.05528,3.8295166,0.2156828,-0.0072285235,0.97643679,0
1.2852334,1.9900875,-2.1191254,0.97477388,-0.057206631,-0.21573895,0
0.42878008,-4.1387038,-0.5504508,-0.079230964,-0.99233299,-0.094856143,0
1.9488757,-1.9209476,2.5666976,0.97477388,-0.057206631,-0.21573895,0
1.6910352,-1.3825494,0.67478746,0.97477388,-0.057206631,-0.21573895,0
-1.0420649,0.59329951,2.5868912,-0.97477388,0.057206631,0.21573895,0
1.3694119,1.8428326,-1.4290373,0.97477388,-0.057206631,-0.21573895,0
-1.2568634,3.8717971,-0.5297327,-0.97477388,0.057206631,0.21573895,0
-0.83994502,1.8666066,3.566226,-0.97477388,0.057206631,0.21573895,0
2.0576656,3.4561186,0.71538639,0.97477388,-0.057206631,-0.21573895,0
0.62216067,0.46112251,-3.6781454,0.97477388,-0.057206631,-0.21573895,0
1.2213795,0.67786634,-1.6572176,0.97477388,-0.057206631,-0.21573895,0
-1.6961504,-3.1892846,-2.5823908,-0.18846457,-0.72879088,-0.65828943,0
1.8813649,-0.66796386,2.0771112,0.97477388,-0.057206631,-0.21573895,0
-0.98866177,-1.153393,-3.9597483,-0.22317243,-0.23613995,-0.94574416,0
2.1083987,0.55632782,1.517378,0.97477388,-0.057206631,-0.21573895,0
-0.32187423,-2.0977414,-3.9638484,-0.21794255,-0.45242184,-0.86476326,0
1.5416408,-1.0331388,-0.48612392,0.97477388,-0.057206631,-0.21573895,0
-1.9196389,-3.5526776,-1.6001331,-0.14748055,-0.89060318,-0.4302038,0
1.2370269,-4.3810987,0.15713429,-0.040523827,-0.99589169,0.080978036,0
-2.3629558,1.1595724,-3.1402607,-0.97477388,0.057206631,0.21573895,0
1.2524587,3.8116457,1.1345685,0.1321997,0.92678159,0.35156691,0
2.3829112,0.28592756,3.0638924,0.97477388,-0.057206631,-0.21573895,0
1.9465772,3.1237972,2.1709933,0.18315507,0.75742579,0.62670606,0
-0.75525808,1.1575949,2.8374379,-0.97477388,0.057206631,0.21573895,0
1.6828775,-0.24692327,1.5125239,0.97477388,-0.057206631,-0.21573895,0
-2.3742206,-1.2903624,-3.1591148,-0.97477388,0.057206631,0.21573895,0
-1.0038455,3.4287136,1.2119112,-0.97477388,0.057206631,0.21573895,0
2.172966,-0.51652616,2.9971457,0.97477388,-0.057206631,-0.21573895,0
1.0441029,-2.5279133,3.3431928,0.14422798,-0.57622796,0.80446231,0
-2.0359612,-2.5830228,-3.0396023,-0.20126715,-0.6431042,-0.7388562,0
-1.2493615,-2.3314166,2.1121159,-0.97477388,0.057206631,0.21573895,0
2.1569848,-1.3816472,2.5594418,0.97477388,-0.057206631,-0.21573895,0
0.10843682,3.4999087,2.5414894,0.17222399,0.80760896,0.56400931,0
-1.0175701,2.3526711,0.99459541,-0.97477388,0.057206631,0.21573895,0
-1.0189171,3.4452841,-2.2005882,-0.084167182,0.80101699,-0.59269536,0
0.53225267,-3.66642,-2.5059412,-0.16540846,-0.83412969,-0.52618217,0
1.4618226,1.5931729,-0.59671384,0.97477388,-0.057206631,-0.21573895,0
-1.6900547,-1.9629736,0.28986442,-0.97477388,0.057206631,0.21573895,0
1.2375209,3.069109,-2.6386082,0.97477388,-0.057206631,-0.21573895,0
-1.3841255,0.025172353,-0.23354641,-0.97477388,0.057206631,0.21573895,0
1.1648332,-2.4666529,-1.0603453,0.97477388,-0.057206631,-0.21573895,0
-0.53869879,0.376019,4.0769944,-0.97477388,0.057206631,0.21573895,0
0.33388191,2.8964529,2.9481227,0.18778393,0.73264658,0.65419132,0
2.1194751,3.2893167,2.0097761,0.16478524,0.83639854,0.52276504,0
0.89331269,0.43805671,-3.2573895,0.97477388,-0.057206631,-0.21573895,0
1.9254035,3.7590706,0.98788393,0.97477388,-0.057206631,-0.21573895,0
-1.2030128,1.2812681,0.27051282,-0.97477388,0.057206631,0.21573895,0
0.84954619,-1.2918173,-2.0022161,0.97477388,-0.057206631,-0.21573895,0
1.6353512,-2.803827,0.58343494,0.97477388,-0.057206631,-0.21573895,0
2.1404173,2.859869,1.0648164,0.97477388,-0.057206631,-0.21573895,0
-1.5931884,0.20144832,-0.096185505,-0.97477388,0.057206631,0.21573895,0
-2.1524563,0.99865139,-3.342967,-0.97477388,0.057206631,0.21573895,0
-1.979321,-3.492671,-1.21768,-0.97477388,0.057206631,0.21573895,0
1.0704062,-1.5172009,-1.9795917,0.97477388,-0.057206631,-0.21573895,0
-1.7152671,0.2093935,-0.74104214,-0.97477388,0.057206631,0.21573895,0
-1.5518403,2.3280106,-3.497803,-0.1482439,0.55664778,-0.81741476,0
1.4073381,-1.6142942,-0.58999777,0.97477388,-0.057206631,-0.21573895,0
2.2548733,-1.473195,3.5840368,0.97477388,-0.057206631,-0.21573895,0
0.68729281,-0.60230982,4.0944133,0.20818448,-0.11544535,0.97125262,0
