1.4903549,-0.73904586,3.9780252,0.37380818,0.048999224,0.92621088,0
2.0535483,3.1027083,-2.6982362,-0.091390319,0.99568993,-0.015790779,0
0.91855282,3.0435734,2.3600452,-0.091390319,0.99568993,-0.015790779,0
3.9463284,1.7625875,1.1270232,0.96340001,0.092417248,0.25163385,0
-1.9047533,0.94611424,3.9405746,-0.44784722,-0.026932696,0.89370435,0
0.24505107,-2.9328578,0.57381558,0.091390319,-0.99568993,0.015790779,0
2.1428154,-1.0383519,-3.7178383,0.51484895,0.033670645,-0.85661942,0
-1.6842278,-1.8946924,3.706496,-0.44079825,-0.026229899,0.89722288,0
0.88839406,2.9168544,-2.4447076,-0.091390319,0.99568993,-0.015790779,0
-0.041732091,2.8777227,-0.17938548,-0.091390319,0.99568993,-0.015790779,0
-3.6365671,-1.890628,-2.038635,-0.84944934,-0.086223409,-0.52057797,0
-2.4532282,2.5831592,-0.49572554,-0.091390319,0.99568993,-0.015790779,0
1.9789023,-2.9172029,-0.92463487,0.091390319,-0.99568993,0.015790779,0
2.5401611,-2.8539224,-1.451895,0.091390319,-0.99568993,0.015790779,0
3.9671984,2.0086608,1.4432443,0.9478963,0.091841422,0.30505362,0
-0.88142282,-3.1618862,-3.3131878,0.091390319,-0.99568993,0.015790779,0
-4.0054688,-2.1744697,0.14686298,-0.9957099,-0.091138631,0.015985327,0
-0.25715396,-1.7972345,-4.4017067,-0.084133349,-0.023520757,-0.99617684,0
2.7281966,-0.79998952,-3.1673038,0.62803626,0.045324516,-0.77686304,0
1.3260549,-2.7434824,-1.9690131,0.091390319,-0.99568993,0.015790779,0
-1.0208081,-3.2966502,-2.3140731,0.091390319,-0.99568993,0.015790779,0
-3.4549296,0.84814709,-2.5658221,-0.77884245,-0.081349917,-0.62192166,0
-1.2982416,-2.446615,-3.9307899,-0.35066035,-0.047019072,-0.93532163,0
-1.9088942,-2.6966393,-3.8113148,-0.48666871,-0.058492579,-0.87162614,0
-2.1785531,-0.49877071,3.4951775,-0.55917245,-0.038190078,0.82817131,0
2.8593581,1.8135946,3.1143215,0.66041988,0.072470225,0.74739122,0
-4.2134371,-1.4289925,0.22362083,-0.99125397,-0.089444317,0.09703213,0
3.1979125,-0.25501594,2.8885877,0.75317335,0.079486758,0.65300214,0
1.9210336,2.3367074,3.5032651,0.51788157,0.061066356,0.85326988,0
-2.0872133,-1.8575499,-3.7778704,-0.49175423,-0.058913551,-0.86873877,0
-1.2346061,-3.2862372,1.8902386,0.091390319,-0.99568993,0.015790779,0
-1.7906103,-3.2123187,-1.4105002,0.091390319,-0.99568993,0.015790779,0
3.2524958,3.1784711,-2.3918209,-0.091390319,0.99568993,-0.015790779,0
-2.7792058,-0.72017694,2.9437399,-0.68676358,-0.051536545,0.72505158,0
-0.47755307,-2.9193807,-0.19281511,0.091390319,-0.99568993,0.015790779,0
-4.1925869,1.4581175,-0.32128537,-0.99510819,-0.091911346,-0.036219422,0
0.46486112,-2.1666217,4.1647692,0.058290768,0.021178875,0.99807501,0
2.4953494,0.71249986,3.3593948,0.63708758,0.070648305,0.76754689,0
2.9462323,-2.5821939,-1.4127395,0.091390319,-0.99568993,0.015790779,0
-1.9355612,-3.2304795,1.530256,0.091390319,-0.99568993,0.015790779,0
3.5469198,3.0046554,1.7435247,0.89231879,0.088920936,0.44256109,0
-3.6753626,0.86034524,2.2964647,-0.84137928,-0.06872537,0.53605759,0
-2.8086755,2.0589345,3.2406437,-0.61423427,-0.043882608,0.78790271,0
-2.9889257,-0.60390228,-2.7383876,-0.74765933,-0.079081431,-0.65935707,0
3.9177935,-1.5257225,2.3681133,0.84684467,0.086051814,0.52483255,0
-3.2654164,-1.1280553,2.2768621,-0.816948,-0.065898091,0.57293397,0
1.5810479,2.6804645,-3.7573311,0.47467515,0.029617812,-0.87966263,0
-1.4841074,2.9043596,2.4793363,-0.091390319,0.99568993,-0.015790779,0
-3.8783913,-1.4289815,1.3638643,-0.94657266,-0.081935458,0.31190827,0
4.1972032,-1.539201,-1.529989,0.922391,0.078665189,-0.37816206,0
1.0787466,2.3052292,-3.9041028,0.3480565,0.017081639,-0.93731797,0
-1.347232,-0.16069488,4.2119007,-0.30122486,-0.01252698,0.95347089,0
-3.4639144,2.8050086,-1.4517889,-0.091390319,0.99568993,-0.015790779,0
-3.8565428,2.4308817,1.8015572,-0.88330263,-0.073732466,0.46296865,0
3.8398807,3.2775095,-0.5575372,0.99006653,0.08914993,-0.10872239,0
1.8468717,3.1672776,1.6905383,-0.091390319,0.99568993,-0.015790779,0
2.8977823,-2.4108164,3.6066308,0.58547217,0.066551588,0.80795622,0
2.7406073,3.0653703,-3.195467,0.66082698,0.048776895,-0.74895161,0
0.81341809,3.0602298,2.1645231,-0.091390319,0.99568993,-0.015790779,0
-0.69589806,3.0606053,-1.9952706,-0.091390319,0.99568993,-0.015790779,0
4.4433789,-0.64680123,0.56187081,0.99268007,0.092348427,0.077833541,0
-2.0952344,0.54066843,-3.7567973,-0.43710285,-0.054357704,-0.89776742,0
2.9259899,1.3616883,3.0209603,0.72869343,0.077674687,0.68042082,0
0.42542303,2.9311247,0.47234875,-0.091390319,0.99568993,-0.015790779,0
1.4518156,3.2820778,0.054569568,-0.091390319,0.99568993,-0.015790779,0
-3.68399,2.852922,-0.31026465,-0.091390319,0.99568993,-0.015790779,0
0.048031993,-2.8801186,3.8966255,0.091390319,-0.99568993,0.015790779,0
-2.8580294,2.9127109,-0.80531424,-0.091390319,0.99568993,-0.015790779,0
3.5998709,3.0339556,-2.1391385,0.88600534,0.074063756,-0.45772162,0
-1.2618792,-1.5295005,-4.0962553,-0.34204006,-0.046278972,-0.93854511,0
-4.040102,0.80945957,1.3856603,-0.93289828,-0.080058329,0.35112882,0
-2.1947491,2.7496078,-1.6902839,-0.091390319,0.99568993,-0.015790779,0
-1.1393031,-3.2208619,3.679795,0.091390319,-0.99568993,0.015790779,0
-0.12449175,2.9267461,1.9977933,-0.091390319,0.99568993,-0.015790779,0
0.25438961,0.53323823,-4.4436922,0.079138398,-0.0085450206,-0.99682695,0
1.8404533,-2.8203294,4.0342212,0.36164829,0.047960345,0.93108022,0
-3.3923361,-1.0684221,-2.3640635,-0.83060342,-0.084965684,-0.55034429,0
-4.118814,-0.80177826,0.42136592,-0.9930917,-0.089956976,0.075342223,0
-3.7919254,2.674551,-0.85717952,-0.091390319,0.99568993,-0.015790779,0
2.5225277,3.4251087,0.19784707,-0.091390319,0.99568993,-0.015790779,0
2.1282926,-2.7574968,0.62443554,0.091390319,-0.99568993,0.015790779,0
-3.6099923,-0.82243425,1.6531672,-0.90676814,-0.076653302,0.41460326,0
-1.5491263,-2.2295783,-3.8123267,-0.37760594,-0.049323086,-0.9246518,0
0.51704055,3.0541096,1.6556244,-0.091390319,0.99568993,-0.015790779,0
-4.2937851,0.28846383,-1.1269971,-0.96190083,-0.092369862,-0.25732204,0
-1.3373986,2.7895122,2.9249294,-0.091390319,0.99568993,-0.015790779,0
-0.21624596,1.6201807,-4.0902143,-0.016770795,-0.017393824,-0.99970812,0
0.9638797,-0.44428697,4.3287139,0.21053807,0.034818254,0.97696543,0
-1.7038654,2.9796672,-3.5870378,-0.091390319,0.99568993,-0.015790779,0
1.352581,3.0851078,-1.1390024,-0.091390319,0.99568993,-0.015790779,0
3.4992342,-1.0848941,2.2892227,0.82102317,0.084312983,0.56463468,0
4.4870644,-0.8482542,-0.40287384,0.98907286,0.088918015,-0.11759505,0
-1.6476357,-2.0533741,4.0710735,-0.3858054,-0.020783899,0.922346,0
0.45930722,-3.1144359,-0.13961218,0.091390319,-0.99568993,0.015790779,0
0.42741162,-3.0404975,1.6500657,0.091390319,-0.99568993,0.015790779,0
3.7909875,3.2005615,1.1666714,0.95451516,0.092108369,0.28357866,0
-3.587038,-3.3593433,-1.5047392,-0.94020158,-0.091500625,-0.32809854,0
3.5230644,-1.0609481,2.406086,0.82635009,0.084676951,0.55675423,0
3.5894415,-2.8008425,-1.8581088,0.091390319,-0.99568993,0.015790779,0
1.757185,-2.9468524,-3.7874794,0.091390319,-0.99568993,0.015790779,0
4.0985589,-2.7309525,-0.94968033,0.091390319,-0.99568993,0.015790779,0
-4.1167083,-2.2494247,0.22307733,-0.99504161,-0.090682983,0.040850025,0
-0.47589606,2.7289145,-2.5954969,-0.091390319,0.99568993,-0.015790779,0
-1.3285066,-0.37031317,4.1611547,-0.29138684,-0.011575393,0.95653528,0
3.707701,-1.4253293,2.1445062,0.84006572,0.085601762,0.53568822,0
-3.6417508,-2.8731778,1.4517485,-0.94923288,-0.082311146,0.30361462,0
-3.6091745,-3.4147291,1.625181,0.091390319,-0.99568993,0.015790779,0
-0.78875756,2.8588765,3.262449,-0.091390319,0.99568993,-0.015790779,0
0.76554322,-3.0308249,2.8505042,0.091390319,-0.99568993,0.015790779,0
-2.1248348,-3.3717296,-1.9569962,0.091390319,-0.99568993,0.015790779,0
-3.9619379,-1.5305184,0.65620989,-0.98037374,-0.087180212,0.17682487,0
0.69212794,2.9682534,1.1382937,-0.091390319,0.99568993,-0.015790779,0
3.8728981,1.9087712,-0.74929506,0.98150319,0.087386765,-0.17033811,0
1.4078556,3.1431539,-1.3294556,-0.091390319,0.99568993,-0.015790779,0
-0.46180549,-3.0841117,-4.1728125,0.091390319,-0.99568993,0.015790779,0
0.83332765,-1.7285216,-4.3590312,0.18536787,0.0014298968,-0.98266816,0
1.4771147,3.1945596,3.4136069,-0.091390319,0.99568993,-0.015790779,0
2.1529703,-1.3666698,-3.5487304,0.45793796,0.027940705,-0.88854492,0
-2.8751464,2.8981979,2.5145106,-0.091390319,0.99568993,-0.015790779,0
2.751653,-2.6581116,-3.4596124,0.56809396,0.03910628,-0.82203406,0
4.1886168,-0.50162399,0.065189883,0.99579924,0.091466784,0.0041886754,0
-2.8322194,-0.99415451,3.0074747,-0.66430795,-0.049145725,0.74584156,0
-0.47174212,2.9754515,-2.4521155,-0.091390319,0.99568993,-0.015790779,0
4.2332416,-0.91339445,-0.1383187,0.99561667,0.091044068,-0.021408822,0
-1.8811144,2.704282,-1.4247926,-0.091390319,0.99568993,-0.015790779,0
1.3634368,3.1895571,1.1130736,-0.091390319,0.99568993,-0.015790779,0
1.7084436,3.2793152,-3.2106247,-0.091390319,0.99568993,-0.015790779,0
-0.53207558,-3.1690152,-3.3681958,0.091390319,-0.99568993,0.015790779,0
2.4811001,-2.718369,-3.4393091,0.091390319,-0.99568993,0.015790779,0
-0.85351044,2.6957715,4.1625943,-0.17698675,-0.00063613057,0.98421293,0
-3.9846022,-1.8991857,-1.3080713,-0.93937689,-0.091462426,-0.3304629,0
0.69370097,2.9748204,1.7747993,-0.091390319,0.99568993,-0.015790779,0
-0.60110831,2.8433027,-1.9617351,-0.091390319,0.99568993,-0.015790779,0
-3.1467409,2.9132044,1.1327521,-0.091390319,0.99568993,-0.015790779,0
1.3688779,3.1483245,-3.8815343,0.38572285,0.020775771,-0.92238075,0
-2.4299378,-3.0108078,1.9811901,0.091390319,-0.99568993,0.015790779,0
-4.2862716,2.0428472,-1.0677636,-0.97131193,-0.092626363,-0.21902834,0
0.025811799,2.7748351,-3.7067828,-0.091390319,0.99568993,-0.015790779,0
3.8081934,-2.4768553,0.27372459,0.091390319,-0.99568993,0.015790779,0
3.5492587,-2.7301364,-2.1560535,0.091390319,-0.99568993,0.015790779,0
-2.0949061,2.7029011,0.81180555,-0.091390319,0.99568993,-0.015790779,0
2.3631628,0.50580108,3.2905741,0.58700341,0.066674344,0.80683428,0
1.3457118,-2.8203361,0.80992901,0.091390319,-0.99568993,0.015790779,0
-1.3334761,-2.5640938,-3.9953547,-0.33224756,-0.04543649,-0.94209719,0
-4.03158,-0.30074611,0.87495375,-0.96498418,-0.084634468,0.24827927,0
2.0537996,2.0474572,3.712244,0.50976288,0.060399242,0.85819215,0
3.3794317,3.516227,0.6865955,-0.091390319,0.99568993,-0.015790779,0
-1.2696633,0.13394527,3.9533219,-0.28996116,-0.011437637,0.9569701,0
2.8763716,-0.13520858,-3.0229843,0.68467569,0.051313374,-0.72703928,0
-2.3842309,-3.0182729,2.9243412,0.091390319,-0.99568993,0.015790779,0
-3.2541778,2.749995,0.86262804,-0.091390319,0.99568993,-0.015790779,0
-0.85953701,-2.2812028,4.1025672,-0.22770916,-0.0054582404,0.97371387,0
1.9421716,1.3598423,3.9237905,0.47195229,0.057270836,0.87976199,0
-1.9328279,-0.30634308,3.5556972,-0.48676598,-0.030833432,0.87298805,0
-4.2993436,1.1875974,-0.10067482,-0.99428165,-0.092117831,-0.054023467,0
0.21133815,-0.66283017,4.2580838,0.047178894,0.020168599,0.9986828,0
-1.6113,-3.164361,-0.58333409,0.091390319,-0.99568993,0.015790779,0
2.444557,-2.9627545,-0.79990315,0.091390319,-0.99568993,0.015790779,0
-3.3500445,-3.3391995,0.6899581,0.091390319,-0.99568993,0.015790779,0
4.393218,0.56034398,0.49488521,0.98406506,0.092729382,0.15171427,0
2.2344027,-0.066407427,-3.6596017,0.55494535,0.037756771,-0.83102947,0
-4.0565515,2.564153,1.7925428,-0.88336039,-0.073739536,0.46285725,0
2.910094,3.4646904,-0.92740887,-0.091390319,0.99568993,-0.015790779,0
-3.834372,2.5975542,1.6261141,-0.091390319,0.99568993,-0.015790779,0
3.9906089,2.1382368,0.9159081,0.96669871,0.092513479,0.23860997,0
-4.2954712,2.5086637,-1.4732871,-0.92776525,-0.090895601,-0.36192483,0
-1.2628429,0.030526239,3.9212303,-0.31621265,-0.013980133,0.94858527,0
-3.419225,-3.3247724,0.421186,0.091390319,-0.99568993,0.015790779,0
3.830797,-2.7783833,1.150748,0.091390319,-0.99568993,0.015790779,0
1.1124709,-3.0077224,2.364573,0.091390319,-0.99568993,0.015790779,0
-1.440195,2.8569384,-0.28845078,-0.091390319,0.99568993,-0.015790779,0
3.419795,1.5435544,-2.1534264,0.87197489,0.07235644,-0.48417383,0
0.73884928,-2.7378387,2.2153935,0.091390319,-0.99568993,0.015790779,0
-1.9986203,0.51430809,3.965158,-0.44597772,-0.026746195,0.89464444,0
4.2591996,-2.3168662,-1.2484277,0.95368493,0.082949273,-0.28914434,0
1.7643224,-2.8116939,2.8660679,0.091390319,-0.99568993,0.015790779,0
-0.81140691,-3.2779071,-1.872488,0.091390319,-0.99568993,0.015790779,0
-4.1162376,2.4633706,0.99820358,-0.091390319,0.99568993,-0.015790779,0
4.1893959,0.71632802,-0.97123605,0.9754051,0.086311944,-0.20281792,0
-1.8475524,-2.8466525,3.6563854,-0.5217284,-0.034368694,0.85241914,0
-0.14387165,2.6326933,-4.2883773,-0.0061626532,-0.016422337,-0.9998461,0
-0.076613441,-2.9905555,-0.27478355,0.091390319,-0.99568993,0.015790779,0
3.1580274,3.0944266,-2.5547893,-0.091390319,0.99568993,-0.015790779,0
-1.4869738,1.9424156,4.0525699,-0.33824733,-0.016124185,0.94091904,0
-0.4122526,-3.1054647,0.64189637,0.091390319,-0.99568993,0.015790779,0
-3.6140425,2.6003804,0.58165139,-0.091390319,0.99568993,-0.015790779,0
3.8889246,-0.77727199,-1.7709154,0.92187411,0.078597561,-0.37943462,0
4.2798438,-2.2262874,0.49738419,0.98927897,0.092592888,0.1129319,0
2.5492702,3.1076884,-0.89173669,-0.091390319,0.99568993,-0.015790779,0
-1.271039,-1.2139205,4.0295229,-0.32892233,-0.015215702,0.94423437,0
-1.5629177,3.0632002,0.51120257,-0.091390319,0.99568993,-0.015790779,0
1.2100288,0.54610372,3.8832603,0.27830341,0.040763199,0.95962781,0
0.26225522,-2.0941098,-4.0730462,-0.023481283,-0.018007437,-0.99956208,0
-2.7352543,-3.2066078,2.069756,0.091390319,-0.99568993,0.015790779,0
1.0325584,-2.9438,2.4579821,0.091390319,-0.99568993,0.015790779,0
-2.9385273,2.675081,2.6608868,-0.091390319,0.99568993,-0.015790779,0
3.322474,-1.388646,2.8126857,0.76109529,0.08006604,0.6436795,0
-2.3579032,2.7009268,1.4304861,-0.091390319,0.99568993,-0.015790779,0
-3.86134,-2.8597803,-0.30160579,-0.99192029,-0.092422523,-0.086902723,0
-0.5726248,-0.21808133,4.2436361,-0.1356158,0.0032649096,0.99075609,0
1.1098692,-0.083067201,4.0457687,0.27126336,0.040149365,0.96166742,0
1.0804251,3.0418122,-3.950098,-0.091390319,0.99568993,-0.015790779,0
1.7171384,-2.9796653,3.8507664,0.091390319,-0.99568993,0.015790779,0
1.8142766,1.1234794,3.788265,0.4647789,0.056673467,0.88361114,0
3.4836643,2.9600718,2.2183173,0.82688153,0.084713101,0.55595922,0
-3.0047021,0.54773629,-3.260746,-0.64606047,-0.071351305,-0.75994396,0
1.0453912,0.93072212,3.8923197,0.25734359,0.038933072,0.96553534,0
-0.73271,3.0155373,1.2324587,-0.091390319,0.99568993,-0.015790779,0
2.0037434,3.1148083,-3.2449081,-0.091390319,0.99568993,-0.015790779,0
-1.6735717,2.7014747,4.0210805,-0.36025849,-0.018275265,0.93267351,0
-2.9111025,-2.7388635,2.75859,-0.74985176,-0.058374263,0.65902561,0
-0.31249464,-2.7930152,3.6856217,0.091390319,-0.99568993,0.015790779,0
-3.576534,-3.1308627,1.6778139,0.091390319,-0.99568993,0.015790779,0
3.8396108,0.26811519,2.0152051,0.85462201,0.086561903,0.51198465,0
-0.48849025,-3.2239571,-0.81413966,0.091390319,-0.99568993,0.015790779,0
0.83914214,-0.045093857,4.3768225,0.17604588,0.031761847,0.98386937,0
-4.183022,1.7207369,-1.2250882,-0.96113598,-0.09234488,-0.26017347,0
-1.6790965,2.5926657,4.0787482,-0.36678952,-0.018915351,0.93011159,0
0.8073861,3.2579572,4.0415125,-0.091390319,0.99568993,-0.015790779,0
2.4342582,-2.9722433,-0.83344585,0.091390319,-0.99568993,0.015790779,0
-1.8344575,-2.8870599,-3.6092041,-0.48084936,-0.058010075,-0.8748821,0
-2.792171,2.6234002,1.1649063,-0.091390319,0.99568993,-0.015790779,0
-3.7236018,-3.1849403,1.946476,-0.9021979,-0.076075912,0.42456028,0
-2.9207323,-0.67341769,3.1700945,-0.70742297,-0.053754855,0.70474333,0
-1.6166632,-3.1918275,2.3772159,0.091390319,-0.99568993,0.015790779,0
-0.095155656,3.0466697,3.0257232,-0.091390319,0.99568993,-0.015790779,0
3.4467475,2.2876139,2.5764072,0.8172605,0.084054388,0.57010531,0
2.4456234,-2.8459747,-1.1377081,0.091390319,-0.99568993,0.015790779,0
-2.596889,-3.2771425,3.0775487,0.091390319,-0.99568993,0.015790779,0
1.6266268,3.2141709,-3.7731495,-0.091390319,0.99568993,-0.015790779,0
0.45647815,-3.1122074,-3.5425262,0.091390319,-0.99568993,0.015790779,0
-3.1597245,-3.3656192,-2.1700432,-0.85386425,-0.086512506,-0.51325566,0
1.2044026,-2.7381234,-4.0509825,0.26395017,0.0089308592,-0.96449494,0
-1.1337218,-3.2055039,0.084178239,0.091390319,-0.99568993,0.015790779,0
1.0839289,-2.7724388,-2.0698829,0.091390319,-0.99568993,0.015790779,0
3.158221,3.5092361,1.4026687,-0.091390319,0.99568993,-0.015790779,0
-1.314165,2.9113181,0.32433367,-0.091390319,0.99568993,-0.015790779,0
-0.0020537223,-2.9980083,2.8538353,0.091390319,-0.99568993,0.015790779,0
1.0804273,-2.8297703,2.0521846,0.091390319,-0.99568993,0.015790779,0
-0.85347974,3.0170681,-0.94793904,-0.091390319,0.99568993,-0.015790779,0
0.54705703,3.2046707,-0.44962591,-0.091390319,0.99568993,-0.015790779,0
-3.6523888,-2.7617025,-1.1480689,-0.95001346,-0.091929719,-0.29836777,0
1.2508988,-1.2016262,-3.9668627,0.28111681,0.010583904,-0.95961517,0
0.37579679,2.9537232,-2.1966584,-0.091390319,0.99568993,-0.015790779,0
4.2622375,0.25374845,1.117092,0.97031063,0.092604287,0.22343157,0
-3.5077829,2.5440874,-2.5439172,-0.091390319,0.99568993,-0.015790779,0
0.51903856,-0.00053519942,4.2193537,0.1019557,0.025129549,0.99447143,0
4.3276911,1.7061121,-0.073746204,0.9956935,0.091615655,0.014188155,0
4.3775182,0.37455401,0.20943648,0.9941414,0.092144251,0.056501143,0
3.9248545,-0.071655408,-1.9890859,0.88652498,0.074127585,-0.45670402,0
4.1346292,0.77521217,0.4536342,0.98436409,0.092725895,0.14976439,0
2.8667545,2.4475422,2.5837588,0.74971324,0.079232611,0.65700251,0
4.2333241,-1.1627474,0.067543879,0.99548864,0.090942852,-0.027050305,0
4.0307341,-1.1562396,1.0964252,0.96078247,0.092333145,0.26147988,0
3.8585567,-2.5252445,-0.56415331,0.091390319,-0.99568993,0.015790779,0
-2.4397933,0.6601488,-3.4664054,-0.59380054,-0.067218378,-0.80179965,0
3.3510263,2.9561362,1.8424661,0.87464821,0.087840967,0.47673312,0
1.1476947,3.2853463,2.7567236,-0.091390319,0.99568993,-0.015790779,0
-3.8672614,-3.0624685,-0.87207228,-0.98057187,-0.092743963,-0.17285112,0
3.4618361,-2.5206146,-1.465853,0.091390319,-0.99568993,0.015790779,0
-3.5874481,1.015641,2.4925289,-0.82324606,-0.066621631,0.56376177,0
-2.8127735,-0.5497756,3.3361099,-0.63297796,-0.045842346,0.77281135,0
-0.69441688,0.5737803,4.2922964,-0.16745687,0.00026500598,0.98587936,0
4.6643229,-2.1149733,0.16597466,0.99452126,0.092068195,0.04950761,0
1.7488286,-2.6356127,2.0302181,0.091390319,-0.99568993,0.015790779,0
1.3204801,-2.5128405,4.3848372,0.21359687,0.035088323,0.9762916,0
-4.5236931,2.7495763,-0.91477275,-0.091390319,0.99568993,-0.015790779,0
-3.3910961,-3.3382702,0.7530213,0.091390319,-0.99568993,0.015790779,0
4.2709684,-2.3555763,-0.54252404,0.98395729,0.087850913,-0.15527467,0
-1.3155335,-3.1455653,-3.3783991,0.091390319,-0.99568993,0.015790779,0
-2.1912014,-3.3346426,0.2696844,0.091390319,-0.99568993,0.015790779,0
1.6478771,0.11897182,3.9449475,0.34394184,0.046442375,0.93784171,0
-3.4976301,-3.1832707,0.65302974,0.091390319,-0.99568993,0.015790779,0
1.8349345,-2.9333954,3.4391923,0.091390319,-0.99568993,0.015790779,0
3.9904063,-1.670207,-2.1911116,0.87479722,0.072697483,-0.47900406,0
-1.7123975,2.7349231,2.8984151,-0.091390319,0.99568993,-0.015790779,0
0.74092484,-3.1512353,-3.0625222,0.091390319,-0.99568993,0.015790779,0
3.2369113,3.1509845,0.46623534,-0.091390319,0.99568993,-0.015790779,0
1.6107236,-2.7922671,3.4446588,0.091390319,-0.99568993,0.015790779,0
-0.46526372,-3.1294937,-2.0412135,0.091390319,-0.99568993,0.015790779,0
1.7139723,-2.9759965,1.5572808,0.091390319,-0.99568993,0.015790779,0
2.188333,3.3540859,-3.5474849,-0.091390319,0.99568993,-0.015790779,0
-1.8786342,2.9449983,-3.6337309,-0.091390319,0.99568993,-0.015790779,0
1.4834361,3.2115741,1.9106511,-0.091390319,0.99568993,-0.015790779,0
3.7524393,-0.79613328,1.9851898,0.89072543,0.088825703,0.44577828,0
0.38871637,-3.0043287,2.5867515,0.091390319,-0.99568993,0.015790779,0
1.9463813,3.2445018,2.6103735,-0.091390319,0.99568993,-0.015790779,0
-3.5870616,-1.2977135,-2.2626696,-0.82685518,-0.084711313,-0.55599868,0
-2.7498503,1.9480774,3.6116557,-0.56172043,-0.038451519,0.82643312,0
-0.040658124,3.0281396,-3.6140451,-0.091390319,0.99568993,-0.015790779,0
2.9298522,3.2516017,-2.2930603,-0.091390319,0.99568993,-0.015790779,0
-0.13028295,-2.8163228,1.5475625,0.091390319,-0.99568993,0.015790779,0
-3.2588797,2.8867717,0.83561355,-0.091390319,0.99568993,-0.015790779,0
-2.229563,1.9850361,3.8659713,-0.46078029,-0.028225059,0.88706535,0
-0.68376428,2.8632116,1.4246252,-0.091390319,0.99568993,-0.015790779,0
3.1325929,-2.074018,2.8631167,0.71881723,0.076934829,0.690929,0
-2.8152723,1.8729728,3.3029258,-0.64811921,-0.04743433,0.76006007,0
3.5252473,0.99285603,2.3106339,0.82082891,0.084299669,0.56491899,0
-1.0537609,-3.1504807,-2.0481505,0.091390319,-0.99568993,0.015790779,0
-2.275665,2.9236941,2.8707283,-0.091390319,0.99568993,-0.015790779,0
-4.1257191,1.0682241,-1.2303127,-0.94319206,-0.091636546,-0.31936106,0
-3.5826123,-0.79947013,-2.2770331,-0.84491807,-0.085924402,-0.52794933,0
-4.0871725,-0.15023303,0.63212591,-0.990574,-0.089273125,0.10389166,0
-4.0090237,-2.2852991,1.284324,-0.94907063,-0.082288131,0.30412763,0
3.1802855,-2.5959713,-1.0903677,0.091390319,-0.99568993,0.015790779,0
-0.58704746,-3.1362813,-0.65027255,0.091390319,-0.99568993,0.015790779,0
-0.68578953,-2.9497037,1.7843544,0.091390319,-0.99568993,0.015790779,0
-2.3905625,2.791301,2.6300244,-0.091390319,0.99568993,-0.015790779,0
-4.1449013,-2.3419387,0.38023075,-0.99463177,-0.090497434,0.050177056,0
2.0940692,0.85341954,-3.4269199,0.54550314,0.036790643,-0.8373009,0
0.24645971,3.0190609,-3.4383593,-0.091390319,0.99568993,-0.015790779,0
-3.4325619,2.8652406,2.5063252,-0.091390319,0.99568993,-0.015790779,0
0.97419846,0.86345422,4.0989366,0.20195158,0.034059279,0.9788031,0
-1.8605828,2.8401289,0.10794412,-0.091390319,0.99568993,-0.015790779,0
-0.92515558,-1.1030841,4.0547137,-0.28299287,-0.010764877,0.95906162,0
2.1533012,3.0265179,-2.4035733,-0.091390319,0.99568993,-0.015790779,0
-3.3003311,0.78844303,2.9578459,-0.7292248,-0.056117136,0.68196923,0
3.7859569,-2.2147384,2.2833786,0.82399869,0.0845166,0.56025273,0
3.6311147,-2.8774824,-1.7100667,0.091390319,-0.99568993,0.015790779,0
-4.1198931,1.8247367,1.1170995,-0.95279747,-0.082821079,0.29209164,0
4.2989168,-2.4226131,-0.55806881,0.99041647,0.089234486,-0.10541599,0
-2.5727222,-2.3636396,3.487133,-0.62101668,-0.044590373,0.78252798,0
2.1635227,-2.7470267,2.2798412,0.091390319,-0.99568993,0.015790779,0
-1.9553252,-3.2833974,0.32832068,0.091390319,-0.99568993,0.015790779,0
0.23752886,2.9002614,0.34170294,-0.091390319,0.99568993,-0.015790779,0
-2.2288857,-3.0689752,-0.025055485,0.091390319,-0.99568993,0.015790779,0
-2.4527438,2.928905,3.1521504,-0.091390319,0.99568993,-0.015790779,0
3.7090466,-1.912858,2.1727576,0.83257562,0.085098989,0.54733539,0
3.221235,1.5611649,2.3449621,0.80506957,0.083208367,0.58731538,0
-1.2429959,2.7001734,-1.8650223,-0.091390319,0.99568993,-0.015790779,0
4.0417008,3.1544092,-0.10221525,0.99534518,0.090848602,-0.032162461,0
1.7319622,3.1781867,-0.64565939,-0.091390319,0.99568993,-0.015790779,0
1.3868264,-3.0503528,0.25531349,0.091390319,-0.99568993,0.015790779,0
-2.3854573,-0.0099251755,3.4085286,-0.55315167,-0.037573047,0.83223283,0
-2.9575644,1.7263416,-3.4569509,-0.63556409,-0.070528656,-0.76881981,0
-3.9791746,-0.50638163,-1.0164425,-0.96532524,-0.092474833,-0.24412198,0
-0.84487575,2.0514631,-4.4057879,-0.16423444,-0.030710613,-0.9859432,0
-3.8140123,2.8118637,0.95282966,-0.091390319,0.99568993,-0.015790779,0
0.6468336,2.8238673,-3.1891167,-0.091390319,0.99568993,-0.015790779,0
1.8264213,3.2873816,1.1238486,-0.091390319,0.99568993,-0.015790779,0
-0.61123192,-3.2422328,-3.469733,0.091390319,-0.99568993,0.015790779,0
3.8225529,2.0939541,-1.4662576,0.92139208,0.078534581,-0.38061649,0
-4.3001356,0.36604887,-0.21616283,-0.99473697,-0.092017598,-0.045068696,0
-0.95277023,1.414706,-4.2923164,-0.18623076,-0.032666441,-0.98196286,0
-4.0325432,2.6315117,0.67979175,-0.091390319,0.99568993,-0.015790779,0
3.892061,-1.594529,2.1216476,0.87193555,0.087670878,0.48170754,0
3.6590717,-1.5275337,2.6736383,0.79950386,0.082818188,0.59492409,0
3.9153433,1.391524,1.3406091,0.94815964,0.091852546,0.30423084,0
-2.9150875,-0.99339151,-3.0391672,-0.67544091,-0.07363227,-0.73372877,0
-2.0238574,2.3099513,-3.9695022,-0.4412201,-0.054703295,-0.89573002,0
1.1585865,-2.9291885,4.2140207,0.091390319,-0.99568993,0.015790779,0
-0.9720602,2.8361049,-2.0465269,-0.091390319,0.99568993,-0.015790779,0
-0.96422696,-3.2371576,2.1406472,0.091390319,-0.99568993,0.015790779,0
-4.1033769,-2.1693869,1.3748221,-0.95672053,-0.083391882,0.27880388,0
-4.0845084,0.83032984,-1.0728731,-0.95973343,-0.092297703,-0.26531649,0
-2.6845765,0.036383763,3.405345,-0.63938993,-0.046515517,0.76747429,0
-0.35764396,-3.1928661,1.7659495,0.091390319,-0.99568993,0.015790779,0
-1.6596662,-3.0083699,1.4825183,0.091390319,-0.99568993,0.015790779,0
3.8446615,-2.6040483,-0.0048631355,0.091390319,-0.99568993,0.015790779,0
-1.8473036,0.39035326,3.8136654,-0.4245739,-0.024616465,0.90505868,0
3.6811881,-0.058368117,-2.4703767,0.81542271,0.065723374,-0.57512277,0
-1.6935661,2.8639972,0.35097805,-0.091390319,0.99568993,-0.015790779,0
-0.4867813,0.38479483,4.2556372,-0.080706626,0.0083991047,0.99670261,0
3.1314926,2.6336193,-2.5667617,0.77179581,0.060801845,-0.6329568,0
-0.14938767,2.8950775,3.7154922,-0.091390319,0.99568993,-0.015790779,0
4.492393,-0.92896819,-0.48957986,0.99099755,0.089378841,-0.099676453,0
-1.8591217,-3.0741074,0.18371353,0.091390319,-0.99568993,0.015790779,0
0.84288257,3.3121245,1.6199763,-0.091390319,0.99568993,-0.015790779,0
-2.661186,1.0249634,3.5923939,-0.56538218,-0.038827561,0.82391465,0
-0.17434089,-3.1255214,-1.560106,0.091390319,-0.99568993,0.015790779,0
-1.5450898,2.9418721,-3.6551728,-0.091390319,0.99568993,-0.015790779,0
-0.45065901,-2.9888523,-3.336092,0.091390319,-0.99568993,0.015790779,0
-1.7856172,0.44837856,3.9545333,-0.4351016,-0.025662735,0.90001565,0
3.5250692,-0.70464993,-2.364156,0.82662588,0.067011364,-0.55874783,0
4.3465047,-1.6718618,1.0688969,0.9709633,0.092618838,0.22057204,0
1.9235758,-2.9655621,1.4583623,0.091390319,-0.99568993,0.015790779,0
2.8518915,3.2910786,-2.1464126,-0.091390319,0.99568993,-0.015790779,0
0.21039826,2.9924915,-1.1231022,-0.091390319,0.99568993,-0.015790779,0
-1.0750885,-3.2823076,-1.6931136,0.091390319,-0.99568993,0.015790779,0
-1.9502027,1.7290292,3.8024013,-0.41247678,-0.023417175,0.910667,0
-0.75645757,1.6296084,4.2604856,-0.17466354,-0.00041630678,0.98462808,0
4.1799769,0.5361439,0.11623656,0.99352837,0.092243016,0.066277064,0
3.0266633,2.0702491,-2.5312691,0.78801489,0.062615529,-0.61246371,0
0.0055105155,-2.414304,4.2172322,-0.05275951,0.010993507,0.99854678,0
3.2886369,3.3090715,-1.2813655,-0.091390319,0.99568993,-0.015790779,0
1.9070485,3.2726996,-3.6820979,-0.091390319,0.99568993,-0.015790779,0
1.1971626,-2.7401462,2.6789823,0.091390319,-0.99568993,0.015790779,0
3.710393,2.897779,0.89990348,0.97720635,0.092722431,0.19097199,0
3.2917066,-0.025830841,2.8840785,0.76085842,0.080048762,0.64396167,0
-2.8718915,-1.9308499,-2.8305945,-0.69943774,-0.075469591,-0.71069765,0
-1.8768767,-3.1941533,2.733295,0.091390319,-0.99568993,0.015790779,0
-1.0195954,2.7321613,0.054915644,-0.091390319,0.99568993,-0.015790779,0
-0.17922398,2.977587,-1.0231823,-0.091390319,0.99568993,-0.015790779,0
-3.7347264,-2.7600217,-1.1013722,-0.96913302,-0.092576526,-0.22849649,0
3.9416759,1.0168378,-0.58770955,0.98299122,0.087665431,-0.16137855,0
4.2751031,-2.3782663,-1.2392955,0.95434922,0.083045587,-0.28691626,0
4.4003038,-1.9358852,1.2990891,0.96055311,0.092325479,0.26232344,0
1.844084,2.9640603,-3.4596667,-0.091390319,0.99568993,-0.015790779,0
-0.26849413,-0.079725988,4.2118869,-0.088511139,0.0076723415,0.99604571,0
-0.96768343,-2.2098148,-4.0355515,-0.25148693,-0.03842029,-0.96709782,0
-1.9689122,-3.2288263,-2.5154827,0.091390319,-0.99568993,0.015790779,0
-0.77761573,-2.8305707,3.8568599,0.091390319,-0.99568993,0.015790779,0
1.2132461,-3.0787063,-0.18796393,0.091390319,-0.99568993,0.015790779,0
1.1208072,3.1797357,-2.0800147,-0.091390319,0.99568993,-0.015790779,0
1.7192227,0.26458135,-3.873282,0.44717208,0.026865337,-0.8940444,0
1.7482742,-2.2485802,-4.0823045,0.38380501,0.02058699,-0.92318457,0
-0.30879524,-2.9542489,2.8208232,0.091390319,-0.99568993,0.015790779,0
4.0058165,1.761687,-1.2279557,0.95622337,0.083318949,-0.2805258,0
-0.23528393,-2.8213227,3.5337379,0.091390319,-0.99568993,0.015790779,0
2.733912,3.1094484,-2.9004343,-0.091390319,0.99568993,-0.015790779,0
-0.82252866,2.8272519,-3.1583011,-0.091390319,0.99568993,-0.015790779,0
-1.3547897,-3.3486514,-1.0720676,0.091390319,-0.99568993,0.015790779,0
-3.5555143,2.7701654,2.559623,-0.091390319,0.99568993,-0.015790779,0
-1.6359808,-3.2737057,-3.7387958,-0.48945722,-0.05872348,-0.87004781,0
-1.2045999,-1.5958217,-3.9910548,-0.26587027,-0.039678533,-0.96319187,0
-2.2516646,-3.3393545,2.0381782,0.091390319,-0.99568993,0.015790779,0
4.1046162,1.6994879,0.59789705,0.98740917,0.092663489,0.12820557,0
-4.3450174,1.2573833,0.39482549,-0.98997378,-0.089127779,0.10958218,0
-3.9534092,-1.9445571,-1.4441632,-0.91932887,-0.090454735,-0.38295221,0
0.050497264,-2.0571809,4.2675881,-0.019780351,0.014038906,0.99970573,0
-3.9817848,-1.2121922,-1.617478,-0.90830135,-0.089848578,-0.40855354,0
0.63868177,-3.0290892,3.3709874,0.091390319,-0.99568993,0.015790779,0
-1.6076567,2.8298759,3.7936752,-0.32561421,-0.014893808,0.94538546,0
-3.7162225,-0.90417284,2.0017576,-0.86539721,-0.071565956,0.4959496,0
-1.0107511,3.030262,1.1867888,-0.091390319,0.99568993,-0.015790779,0
-3.4995248,2.7502069,1.1524656,-0.091390319,0.99568993,-0.015790779,0
2.7338109,1.8223686,3.1429369,0.68096268,0.074057177,0.7285639,0
1.8844231,0.72208279,3.924361,0.42930841,0.053702425,0.90156001,0
0.58748472,-3.0758872,-4.126761,0.091390319,-0.99568993,0.015790779,0
0.26282018,2.4924383,-4.1365786,0.13558155,-0.0032681273,-0.99076074,0
3.2073331,2.3863368,2.3578787,0.80710363,0.083350368,0.58449674,0
-0.57772994,-3.0571468,3.9598856,0.091390319,-0.99568993,0.015790779,0
2.0999801,-2.9808917,-1.2680957,0.091390319,-0.99568993,0.015790779,0
-3.2138641,2.3431346,3.1265922,-0.688932,-0.051768512,0.72297484,0
3.6319783,0.46928805,-1.9434707,0.88983083,0.074534774,-0.45016176,0
3.5629108,3.1095424,-1.9175365,-0.091390319,0.99568993,-0.015790779,0
-3.1145439,2.5685372,-1.516677,-0.091390319,0.99568993,-0.015790779,0
-4.3628898,1.0990696,0.67438745,-0.97543007,-0.086316168,0.20269594,0
4.0568733,2.8585153,0.23576196,0.99223393,0.092393816,0.083277732,0
-2.072804,2.6955752,0.33720878,-0.091390319,0.99568993,-0.015790779,0
2.4801226,0.27600074,3.5547464,0.58184129,0.066260234,0.81059873,0
2.5765374,3.3288496,-1.4463135,-0.091390319,0.99568993,-0.015790779,0
3.17466,0.34962901,2.9646831,0.75309086,0.079480708,0.65309805,0
2.9382491,-2.6230595,0.93643492,0.091390319,-0.99568993,0.015790779,0
1.1948401,3.0841818,2.4771452,-0.091390319,0.99568993,-0.015790779,0
1.0592715,-2.8367286,-1.3660885,0.091390319,-0.99568993,0.015790779,0
-3.9513471,2.7279227,1.9659671,-0.091390319,0.99568993,-0.015790779,0
1.2141099,3.3398561,1.2522876,-0.091390319,0.99568993,-0.015790779,0
-3.8468211,-0.93288517,-1.3297049,-0.95227844,-0.092021219,-0.29102877,0
-2.8139791,-3.126507,1.4050878,0.091390319,-0.99568993,0.015790779,0
2.8862832,3.4675972,-0.7039479,-0.091390319,0.99568993,-0.015790779,0
1.7501569,-2.84602,2.3502877,0.091390319,-0.99568993,0.015790779,0
-1.2667478,-2.9854689,-1.8115437,0.091390319,-0.99568993,0.015790779,0
3.6220176,2.8846185,-1.6506109,0.93407792,0.080217145,-0.34794199,0
-1.2587231,0.91796422,4.236423,-0.22994949,-0.0056722397,0.97318602,0
-1.2038971,-3.0371969,0.025582261,0.091390319,-0.99568993,0.015790779,0
1.8961638,3.2290723,-0.86535561,-0.091390319,0.99568993,-0.015790779,0
2.9141665,-0.94723779,-3.1547427,0.69321465,0.052227233,-0.71883637,0
2.017307,3.2753453,-3.4211135,-0.091390319,0.99568993,-0.015790779,0
-3.0824206,-3.1440129,-2.7834368,0.091390319,-0.99568993,0.015790779,0
1.4935503,-2.3292441,-4.0693893,0.25673753,0.0082378956,-0.9664461,0
-3.6902113,2.4899063,-1.3222439,-0.091390319,0.99568993,-0.015790779,0
4.3905501,-1.4421651,-1.1778786,0.95344627,0.082914747,-0.28994018,0
0.62655836,-2.9051526,-0.95781314,0.091390319,-0.99568993,0.015790779,0
1.4062736,-1.3478477,-3.9027205,0.30223799,0.012625081,-0.9531489,0
3.817337,1.9812679,-0.64018124,0.98159289,0.087403335,-0.16981193,0
0.52425617,1.1879693,4.1816826,0.1004416,0.024993077,0.99462903,0
0.2094171,3.089844,-4.2736607,-0.091390319,0.99568993,-0.015790779,0
0.76159686,3.1646338,-0.079809748,-0.091390319,0.99568993,-0.015790779,0
4.1288438,0.0066603851,0.3254002,0.98860371,0.092622004,0.11867583,0
0.23247606,1.606025,4.0827765,0.10351066,0.025269669,0.99430734,0
-2.9818628,-2.169771,-2.6959779,-0.77497756,-0.08107201,-0.62676722,0
0.14729495,-2.8942273,2.923564,0.091390319,-0.99568993,0.015790779,0
0.71397316,-2.8365998,-3.4860482,0.091390319,-0.99568993,0.015790779,0
1.5228363,3.2596076,-0.14290375,-0.091390319,0.99568993,-0.015790779,0
-0.28003958,1.4274172,-4.3930655,-0.023624176,-0.018020498,-0.99955857,0
0.73701102,-2.9248562,0.70046508,0.091390319,-0.99568993,0.015790779,0
0.62694246,-0.53739458,4.1892133,0.16436481,0.030722229,0.98592103,0
1.1464887,3.0386205,-2.1427193,-0.091390319,0.99568993,-0.015790779,0
2.638752,3.2412307,0.91493499,-0.091390319,0.99568993,-0.015790779,0
0.58027458,-3.1777329,-3.9595139,0.091390319,-0.99568993,0.015790779,0
4.0434518,-1.4358941,-1.3372813,0.92856973,0.079479933,-0.36254823,0
1.5252471,3.0614135,2.4352312,-0.091390319,0.99568993,-0.015790779,0
-4.2695174,-1.0808188,0.56010526,-0.98869085,-0.088831656,0.12082874,0
4.4369388,-0.4286536,-0.59261364,0.98826569,0.088737197,-0.12432452,0
-1.5893011,2.235702,3.9600019,-0.31494993,-0.013857543,0.94900715,0
-1.8361026,2.8450887,3.3190525,-0.091390319,0.99568993,-0.015790779,0
1.9837925,-2.7899354,1.5124491,0.091390319,-0.99568993,0.015790779,0
1.6966678,-2.2788963,4.0904107,0.36254784,0.048037302,0.93072635,0
3.9847622,-0.77465385,-1.6702468,0.9225508,0.078686103,-0.37776789,0
3.872412,3.2276766,-0.35263473,0.99197131,0.089634188,-0.089211509,0
0.71674031,3.2338645,1.6400772,-0.091390319,0.99568993,-0.015790779,0
0.33090898,-2.1265078,-4.3434792,0.015019436,-0.014477108,-0.99978244,0
4.2044168,1.4119651,0.30623785,0.9952988,0.091842011,0.030744649,0
-0.66899443,2.8031514,-2.0408757,-0.091390319,0.99568993,-0.015790779,0
-4.0481529,0.53525299,2.0081768,-0.88708454,-0.074196368,0.455605,0
-4.2034788,0.29556224,1.2091998,-0.96345055,-0.084399112,0.25424361,0
-2.0505974,1.7000674,3.7671022,-0.40365824,-0.022544878,0.91463202,0
0.97032523,3.2710929,-0.49097288,-0.091390319,0.99568993,-0.015790779,0
1.8059058,2.9831507,-2.2523036,-0.091390319,0.99568993,-0.015790779,0
-2.5412455,2.6438141,-1.583955,-0.091390319,0.99568993,-0.015790779,0
3.0929248,-2.7458575,3.1580734,0.71511179,0.076656029,0.69479424,0
3.5760548,-2.6393652,-1.4827994,0.091390319,-0.99568993,0.015790779,0
-0.53366601,2.1895757,4.1240826,-0.11060184,0.0056098895,0.99384886,0
-4.285686,0.7052182,-1.4243011,-0.94974089,-0.091918491,-0.2992377,0
-0.59795171,1.3588344,4.2957063,-0.095785111,0.0069940975,0.99537742,0
-4.2714844,1.9827775,-0.18453667,-0.99500656,-0.091943502,-0.038835797,0
-1.3520185,2.8068728,3.6429808,-0.091390319,0.99568993,-0.015790779,0
-2.5830235,-3.1841102,2.7646253,0.091390319,-0.99568993,0.015790779,0
3.8815217,-2.6834848,-1.217393,0.091390319,-0.99568993,0.015790779,0
2.3930781,-2.6402118,-0.041808609,0.091390319,-0.99568993,0.015790779,0
0.31345776,-2.8840206,4.2763829,0.091390319,-0.99568993,0.015790779,0
2.2196834,-2.7687635,-1.354977,0.091390319,-0.99568993,0.015790779,0
-2.8671403,-3.4302778,-2.4515016,0.091390319,-0.99568993,0.015790779,0
0.65888476,2.8415287,-2.6182775,-0.091390319,0.99568993,-0.015790779,0
-1.3680868,2.792294,-0.41157815,-0.091390319,0.99568993,-0.015790779,0
3.6244464,3.1720862,0.28242779,-0.091390319,0.99568993,-0.015790779,0
-0.1450292,-3.1479981,-0.43072793,0.091390319,-0.99568993,0.015790779,0
4.1157403,-0.073033042,-1.3591537,0.92587042,0.079122491,-0.36946395,0
2.5849969,1.1749824,3.2588642,0.63814235,0.070731089,0.76666254,0
-4.1408472,0.37920386,-1.0292188,-0.96050102,-0.092323728,-0.26251522,0
0.3208504,3.1065519,-3.8044841,-0.091390319,0.99568993,-0.015790779,0
-1.7094667,-3.031198,-0.088594325,0.091390319,-0.99568993,0.015790779,0
2.9733591,-2.9147003,-3.015835,0.091390319,-0.99568993,0.015790779,0
-0.20583309,-3.0395024,1.5823621,0.091390319,-0.99568993,0.015790779,0
-2.0102615,-3.2997549,-3.3866742,0.091390319,-0.99568993,0.015790779,0
3.7133245,1.5254275,-1.7841207,0.9255023,0.079073928,-0.37039548,0
-3.9211571,-3.1539893,-1.2359788,-0.93794811,-0.091395549,-0.33451489,0
-0.83469123,3.1249473,1.5386295,-0.091390319,0.99568993,-0.015790779,0
-2.506582,-0.92496192,3.3976173,-0.61163914,-0.043612193,0.78993392,0
0.81671512,0.6461885,4.2842369,0.18695885,0.032731041,0.98182231,0
-0.7969088,-1.0647303,-4.1841512,-0.16976894,-0.03120348,-0.9849897,0
-4.2008576,1.1335003,0.47074831,-0.99259138,-0.089808092,0.081834637,0
-3.5363028,-3.3114378,0.72884446,0.091390319,-0.99568993,0.015790779,0
-1.9089878,2.2834992,-4.0888391,-0.39914888,-0.051154617,-0.91545796,0
0.35431105,2.3969977,4.1457534,0.12612602,0.027303115,0.99163836,0
-1.519437,-3.2338731,1.4986088,0.091390319,-0.99568993,0.015790779,0
-3.292161,2.5125821,-3.089757,-0.091390319,0.99568993,-0.015790779,0
1.7774689,-2.950103,-0.93095362,0.091390319,-0.99568993,0.015790779,0
-1.6215605,0.98376739,4.1229444,-0.32405946,-0.014742596,0.94592184,0
-0.27934974,3.2351995,3.4396555,-0.091390319,0.99568993,-0.015790779,0
3.3646562,-1.4019004,2.6361964,0.78105581,0.081508622,0.61911881,0
-0.89113694,-1.3280376,-3.9467487,-0.27445102,-0.040427413,-0.96075088,0
1.1327136,3.0920265,2.0883262,-0.091390319,0.99568993,-0.015790779,0
-4.2806158,2.5614457,1.2248849,-0.94033664,-0.081069075,0.33044651,0
2.4419105,2.6735301,3.3123407,0.63844448,0.070754796,0.7664088,0
2.8003623,-1.922943,-3.1744177,0.63619882,0.046180315,-0.7701419,0
-1.3775383,-0.53375679,-3.8919532,-0.35797489,-0.04764593,-0.93251479,0
4.05335,3.2431867,0.90283382,0.96180081,0.092366621,0.25769657,0
3.0786126,3.4378581,-1.0173799,-0.091390319,0.99568993,-0.015790779,0
0.91027838,-2.9081891,-0.2771993,0.091390319,-0.99568993,0.015790779,0
-2.3586867,-1.0734403,-3.6590557,-0.52994108,-0.062054168,-0.845761,0
-2.3355918,2.8065076,1.2116785,-0.091390319,0.99568993,-0.015790779,0
-0.12642202,1.9179041,-4.1327109,0.0077937907,-0.01514147,-0.99985498,0
2.9574714,3.0725687,-2.4247751,-0.091390319,0.99568993,-0.015790779,0
2.1491227,-2.5962508,2.3643229,0.091390319,-0.99568993,0.015790779,0
2.846451,3.2381887,-1.3992624,-0.091390319,0.99568993,-0.015790779,0
2.8795042,3.4942191,2.1318121,-0.091390319,0.99568993,-0.015790779,0
2.3002524,-0.15522836,3.4800577,0.55957854,0.064465299,0.82626635,0
3.9201016,3.2889445,1.452615,-0.091390319,0.99568993,-0.015790779,0
0.22863242,-3.2136955,-3.2568834,0.091390319,-0.99568993,0.015790779,0
-2.9382424,2.5918515,1.2725414,-0.091390319,0.99568993,-0.015790779,0
-1.5421561,3.0870256,3.2659035,-0.091390319,0.99568993,-0.015790779,0
3.9072933,-1.2808594,-1.8685991,0.90671355,0.076646388,-0.41472375,0
2.449301,-0.9282583,3.6134026,0.54906535,0.063612759,0.83335507,0
-2.9881978,2.267961,-3.0588214,-0.68011892,-0.073992334,-0.72935814,0
2.3560836,3.3306329,-0.70507288,-0.091390319,0.99568993,-0.015790779,0
-3.5936968,2.523756,-0.41160229,-0.091390319,0.99568993,-0.015790779,0
-1.1385692,0.73247689,-4.0314827,-0.25978065,-0.039146267,-0.96487385,0
-0.69069666,-1.6237687,-4.0986557,-0.21589021,-0.035290699,-0.97577965,0
-2.6541979,-3.4165618,2.2662611,0.091390319,-0.99568993,0.015790779,0
-2.6299529,2.6214123,2.176445,-0.091390319,0.99568993,-0.015790779,0
0.40949681,-3.0822208,-3.9125688,0.091390319,-0.99568993,0.015790779,0
-3.200192,2.7240009,-0.023037164,-0.091390319,0.99568993,-0.015790779,0
2.8779266,3.0134234,-2.8348913,0.76211309,0.059727136,-0.64468318,0
3.2697465,-2.7802887,-0.60804862,0.091390319,-0.99568993,0.015790779,0
-1.4877573,2.8330171,1.8263364,-0.091390319,0.99568993,-0.015790779,0
3.694051,-2.5138497,1.3605881,0.091390319,-0.99568993,0.015790779,0
0.63182378,1.237133,4.3540454,0.14604501,0.029087182,0.98885024,0
2.1650643,3.0822716,-3.6069753,-0.091390319,0.99568993,-0.015790779,0
-1.8463712,0.43605745,-3.7609203,-0.43500423,-0.054181397,-0.8987968,0
2.0345435,-1.8996025,-3.9016001,0.41612312,0.023778338,-0.90899736,0
-3.7589617,2.6674664,0.15173593,-0.091390319,0.99568993,-0.015790779,0
4.1647444,0.25074923,0.16545035,0.99467301,0.092033282,0.046427365,0
0.43132392,2.5309458,4.0734067,0.14181456,0.028708823,0.9894768,0
-3.9653375,-2.4250383,-0.053245146,-0.99575865,-0.091542512,-0.0091984682,0
-3.1696839,1.6473159,-3.0670509,-0.70251346,-0.075703293,-0.7076326,0
0.46951202,-3.0133808,-2.4399679,0.091390319,-0.99568993,0.015790779,0
-3.2555108,-3.4565752,-0.12399035,0.091390319,-0.99568993,0.015790779,0
-3.6627262,2.9032018,1.9995177,-0.091390319,0.99568993,-0.015790779,0
-1.3149257,2.7385831,-3.0844245,-0.091390319,0.99568993,-0.015790779,0
-0.18019778,2.3067095,-4.212359,-0.03160603,-0.018749408,-0.99932444,0
0.61283958,3.0758531,-0.11252934,-0.091390319,0.99568993,-0.015790779,0
-0.52993548,-1.0821936,-4.2567563,-0.17343879,-0.031530015,-0.98433983,0
3.3051901,-2.687021,-2.7020936,0.091390319,-0.99568993,0.015790779,0
-1.1642797,1.2461926,-4.0729084,-0.21183833,-0.034933075,-0.97668016,0
-3.4725523,-3.3855596,1.4390712,0.091390319,-0.99568993,0.015790779,0
2.1399693,0.16984464,-3.7039728,0.53690475,0.035912983,-0.84287816,0
-2.1560864,-0.99509591,3.5821273,-0.56835061,-0.039132673,0.82185531,0
3.9528241,3.4555252,-0.27652577,0.99567467,0.09109956,-0.018245086,0
0.61891365,-2.7933996,3.0591347,0.091390319,-0.99568993,0.015790779,0
-3.7878306,-1.5521311,-1.4654324,-0.92058778,-0.090521887,-0.37989998,0
3.9412878,-1.8859178,-2.118573,0.8678509,0.07186015,-0.49160025,0
-1.652321,2.979444,1.5756744,-0.091390319,0.99568993,-0.015790779,0
3.2941959,3.3920763,2.2807133,-0.091390319,0.99568993,-0.015790779,0
0.32407695,-1.4567831,-4.0950193,0.074334025,-0.0089917956,-0.9971928,0
2.0888824,-0.027697485,3.5361581,0.48112023,0.058032542,0.87473178,0
-3.7493517,1.8632625,-2.3608911,-0.85047096,-0.086290501,-0.51889598,0
2.1492732,3.0628381,2.0704863,-0.091390319,0.99568993,-0.015790779,0
-0.84330016,2.9699299,1.6763014,-0.091390319,0.99568993,-0.015790779,0
0.88952744,0.37074873,-4.0644202,0.19265936,0.0021214318,-0.98126346,0
-0.74571133,-1.7369071,-4.028791,-0.17999928,-0.032113183,-0.98314238,0
-0.80985147,1.3374313,-4.0713434,-0.12980992,-0.027633561,-0.99115372,0
-2.0984263,2.6982896,1.3582703,-0.091390319,0.99568993,-0.015790779,0
-3.5454612,2.7047195,-1.6747106,-0.091390319,0.99568993,-0.015790779,0
4.2597232,-2.0495648,-0.90989387,0.96884525,0.085238524,-0.23253661,0
-3.4639022,-3.2674727,0.47896099,0.091390319,-0.99568993,0.015790779,0
-4.1888032,-1.9459403,0.59315532,-0.9827705,-0.087623589,0.16273995,0
-3.8481488,1.6415318,2.09852,-0.88732028,-0.074225381,0.45514086,0
-1.3257526,2.7140503,4.0592661,-0.23044728,-0.0057198019,0.97306806,0
0.22840522,3.0087986,-3.7404094,-0.091390319,0.99568993,-0.015790779,0
0.45418221,2.2588394,4.3530245,0.1606984,0.030395444,0.98653543,0
-1.7915188,2.9433992,-0.24027836,-0.091390319,0.99568993,-0.015790779,0
3.1384757,0.1439639,-2.9238727,0.75231004,0.058644809,-0.65619385,0
0.99138373,-2.9351089,-2.6795001,0.091390319,-0.99568993,0.015790779,0
-1.6630175,2.0941103,4.1778178,-0.29810992,-0.012225497,0.95445323,0
3.6769986,-2.6190662,0.071267352,0.091390319,-0.99568993,0.015790779,0
-0.32868096,-3.2087464,-2.6262026,0.091390319,-0.99568993,0.015790779,0
0.066870593,3.098788,3.1912844,-0.091390319,0.99568993,-0.015790779,0
1.1216298,3.0891356,-1.8165592,-0.091390319,0.99568993,-0.015790779,0
2.6344979,-2.6214666,-2.5667465,0.091390319,-0.99568993,0.015790779,0
-0.16587315,-2.8335371,2.8431041,0.091390319,-0.99568993,0.015790779,0
-0.10483927,-1.4766083,-4.0128956,-0.072805807,-0.022495568,-0.99709237,0
-0.82540661,3.1260805,0.71974212,-0.091390319,0.99568993,-0.015790779,0
2.730695,-1.439235,3.4802277,0.62436396,0.069646589,0.77802247,0
4.1733365,0.065082163,1.2640076,0.95617956,0.092170984,0.27789402,0
-1.9925284,-3.1876056,-3.0084901,0.091390319,-0.99568993,0.015790779,0
-0.060500327,-2.9409976,-0.022255039,0.091390319,-0.99568993,0.015790779,0
0.22708903,-3.1169374,-2.5796745,0.091390319,-0.99568993,0.015790779,0
2.0007546,-2.841104,2.5873272,0.091390319,-0.99568993,0.015790779,0
-1.9883839,2.9359317,1.1693132,-0.091390319,0.99568993,-0.015790779,0
-3.6768601,2.7927978,-0.97826487,-0.091390319,0.99568993,-0.015790779,0
-2.8812723,-0.91511548,-2.7721708,-0.72172409,-0.077153094,-0.68786758,0
-4.2300467,2.3676877,-0.99370199,-0.97617525,-0.092710391,-0.19618016,0
1.7814807,0.52547628,3.7736006,0.38417804,0.049882837,0.92191052,0
1.4847852,3.0268221,1.6676167,-0.091390319,0.99568993,-0.015790779,0
-0.12090432,2.1561859,-4.1376796,-0.013476711,-0.017092347,-0.99976307,0
4.1221504,0.069444001,1.4047339,0.92850929,0.090933405,0.36000225,0
1.9895455,-1.2322723,-3.9466667,0.3946926,0.021659693,-0.91855788,0
0.79088539,0.7876429,4.1188626,0.18038347,0.032147318,0.98307085,0
1.2773832,-3.0374146,1.6861373,0.091390319,-0.99568993,0.015790779,0
-3.4637964,-0.72872448,2.2408414,-0.85270554,-0.070056528,0.51767296,0
-3.584424,-3.262845,1.6195024,-0.91928864,-0.078260489,0.38572493,0
-0.89104056,2.9813237,-1.7856573,-0.091390319,0.99568993,-0.015790779,0
3.7510698,3.3888602,0.052061088,-0.091390319,0.99568993,-0.015790779,0
-0.07146237,-3.1243703,-3.6719964,0.091390319,-0.99568993,0.015790779,0
2.9592528,-1.4334841,-3.2910895,0.65659642,0.048329264,-0.75269216,0
0.51707536,-3.1188235,-3.1000032,0.091390319,-0.99568993,0.015790779,0
-3.8395991,1.6600642,-2.2911758,-0.81868422,-0.084152386,-0.56804442,0
3.3977818,0.63139266,2.6490219,0.77602655,0.081147537,0.62545806,0
4.095624,-0.22507295,-1.3385243,0.95906347,0.083738193,-0.27052766,0
-4.3841391,1.7151107,0.26428938,-0.99309731,-0.089958683,0.075267129,0
-3.5268111,-3.3483989,0.810058,0.091390319,-0.99568993,0.015790779,0
-2.6844206,0.58798498,3.1458774,-0.63180947,-0.045719828,0.77377415,0
4.0413671,-0.50992244,1.6367995,0.90804607,0.089834191,0.40912357,0
-2.2392607,2.9406803,-0.82041454,-0.091390319,0.99568993,-0.015790779,0
0.32918885,2.903692,-2.1220429,-0.091390319,0.99568993,-0.015790779,0
2.4476416,2.7298155,3.5475035,0.59657556,0.06744007,0.79971838,0
4.1226158,-0.65543664,-1.5532641,0.91247809,0.07738138,-0.40174106,0
-0.16441442,3.1553435,3.0024738,-0.091390319,0.99568993,-0.015790779,0
2.1464641,-1.7741539,3.7586846,0.47250727,0.057317004,0.87946105,0
1.1106097,2.6556768,4.2190948,0.29292047,0.042034812,0.95521235,0
3.453032,1.1727126,-2.0383513,0.85544235,0.070380352,-0.51309359,0
4.3864641,-2.3653538,0.6941812,0.98193973,0.092743464,0.16490312,0
1.312258,-3.0719657,-2.7102065,0.091390319,-0.99568993,0.015790779,0
-0.88637727,-1.8742387,-3.9992568,-0.26010701,-0.03917481,-0.9647848,0
4.0585432,0.48692399,1.6079361,0.93553102,0.091280468,0.34124711,0
-3.9828067,-0.62591404,1.2802788,-0.94818789,-0.082163103,0.30690211,0
-2.0144491,2.9511111,2.3536799,-0.091390319,0.99568993,-0.015790779,0
-1.2057052,-1.2817602,4.1658964,-0.27174112,-0.0096804257,0.9623217,0
3.2109425,3.4229133,2.3310149,0.84101933,0.08566536,0.53417963,0
-3.6437805,-3.2435856,1.3264989,0.091390319,-0.99568993,0.015790779,0
4.1096311,1.7574177,-0.85289532,0.97948849,0.087021016,-0.18174042,0
-0.55969989,-2.8926973,2.2579513,0.091390319,-0.99568993,0.015790779,0
0.0373316,-0.59968323,4.4353976,-0.04581207,0.011636501,0.99888229,0
1.9690045,-0.84656227,4.0435529,0.41219014,0.052258682,0.90959787,0
-3.1863298,-3.2434077,-1.6477882,0.091390319,-0.99568993,0.015790779,0
2.5431733,-2.724571,-1.8555911,0.091390319,-0.99568993,0.015790779,0
