-0.95471096,4.5435882,1.2795033,0.082615316,0.99465197,0.061984956,0
-4.510458,-2.1441884,-1.2473894,-0.7771244,0.025359631,0.6288358,0
-0.061124384,0.37366033,-4.2507825,0.7771244,-0.025359631,-0.6288358,0
2.2537322,-2.3754699,3.1530027,0.52809739,-0.5172286,0.67348921,0
3.65606,2.6057067,0.3726089,0.7771244,-0.025359631,-0.6288358,0
1.5006963,-4.6281953,-1.0216086,0.0091632009,-0.99862593,0.051596463,0
0.86715651,-2.5748014,-3.0538912,0.7771244,-0.025359631,-0.6288358,0
3.3866277,-1.7587314,2.5687394,0.58383632,-0.34400851,0.73538649,0
-3.7641134,3.3379149,-0.67666173,-0.7771244,0.025359631,0.6288358,0
2.1177542,3.3683836,1.7464763,0.41268796,0.77490765,0.4787553,0
2.1939023,-3.0630569,2.4216678,0.45309013,-0.67093158,0.58699262,0
-0.937379,-1.5784731,-4.6318479,-0.60202426,-0.32116961,-0.73103821,0
-1.0905619,-4.1250935,-1.6427,-0.26625431,-0.91861165,-0.29199532,0
-3.3336258,-0.9231956,-2.754102,-0.61517811,-0.24143665,-0.75050926,0
0.12690663,-4.2795062,-0.96744823,-0.12371236,-0.98584855,-0.11312842,0
0.24182725,1.9134014,3.9908693,-0.7771244,0.025359631,0.6288358,0
0.59364665,-1.5524275,4.7027249,0.58010644,-0.3585833,0.73136485,0
1.4270965,-4.2234154,0.81023359,0.19492882,-0.94035274,0.27881825,0
-0.6602295,2.7776608,-4.0273018,-0.48064199,0.62111354,-0.6190325,0
0.10729289,4.3325052,-1.8284659,-0.15275684,0.96170712,-0.22756267,0
4.7004313,0.67779738,1.7548814,0.7771244,-0.025359631,-0.6288358,0
-1.3125327,-0.68245327,2.3486331,-0.7771244,0.025359631,0.6288358,0
-2.3357995,3.9632857,1.1646931,-0.7771244,0.025359631,0.6288358,0
-1.8664358,-3.646924,-2.1814013,-0.39721113,-0.79479635,-0.45882684,0
-4.6637177,1.0405409,-2.2233462,-0.6122455,0.20088333,-0.764723,0
-0.99438,4.1464419,2.7615306,-0.7771244,0.025359631,0.6288358,0
-1.0931938,-4.443727,1.3583806,0.048579633,-0.99378937,0.10011286,0
-3.4733944,-2.044338,-2.1853533,-0.55297381,-0.50459862,-0.66302359,0
4.3032403,1.7019751,1.4288361,0.7771244,-0.025359631,-0.6288358,0
-4.6566668,-0.90417379,-1.671579,-0.7771244,0.025359631,0.6288358,0
-3.5805678,3.4001951,-0.7400229,-0.3851769,0.77102977,-0.50710124,0
3.946523,3.1163368,0.56990218,0.7771244,-0.025359631,-0.6288358,0
-2.4672151,-2.6735482,-2.8456004,-0.52780664,-0.57047868,-0.62926483,0
-3.6968243,-3.2158868,-1.3668063,-0.47495931,-0.67918593,-0.55957139,0
3.2932496,3.0725379,-0.070116282,0.7771244,-0.025359631,-0.6288358,0
-3.5252624,-2.6664395,-0.10156369,-0.7771244,0.025359631,0.6288358,0
-1.4492869,-0.88386774,-4.7832317,-0.62268531,-0.17597871,-0.76242667,0
-0.55036318,-3.6531844,3.5152731,0.33903056,-0.82494289,0.45224708,0
2.2877092,-4.4274578,-0.26013374,0.17567959,-0.95072758,0.25544822,0
1.0130643,-1.8634143,-2.3336892,0.7771244,-0.025359631,-0.6288358,0
-0.60009122,3.0270281,2.9653764,-0.7771244,0.025359631,0.6288358,0
-1.745798,1.7290106,1.8286629,-0.7771244,0.025359631,0.6288358,0
3.4910214,-1.1619287,0.64013278,0.7771244,-0.025359631,-0.6288358,0
3.988879,1.2458951,0.59974408,0.7771244,-0.025359631,-0.6288358,0
0.63262498,-0.36243796,4.8943057,-0.7771244,0.025359631,0.6288358,0
1.703048,0.57644916,-1.5851595,0.7771244,-0.025359631,-0.6288358,0
2.5121453,-3.5744815,1.3281369,0.33274546,-0.83155346,0.44474643,0
-2.4731486,0.72937077,-3.5251777,-0.61932123,0.14682414,-0.77128714,0
2.8050694,-3.9738395,-0.43406987,0.7771244,-0.025359631,-0.6288358,0
-2.8826025,1.2450751,0.10598597,-0.7771244,0.025359631,0.6288358,0
-4.2523127,1.2240976,-1.4261131,-0.7771244,0.025359631,0.6288358,0
-2.37622,3.8535411,1.1708616,-0.7771244,0.025359631,0.6288358,0
-4.7123027,-1.4080113,-1.7455631,-0.60710239,-0.29351187,-0.73842907,0
1.1896753,4.5546541,-0.23412728,0.10937363,0.98942518,0.095264077,0
-1.4586719,2.5710058,-3.6115842,-0.51101017,0.55780035,-0.65400863,0
-1.9112809,-0.33915186,1.4930778,-0.7771244,0.025359631,0.6288358,0
-4.5002279,-2.0038662,-1.7381012,-0.56869513,-0.45626819,-0.68440127,0
-1.1131575,4.6416268,1.7674638,0.10745686,0.98986191,0.092877686,0
2.5625186,2.4688437,-0.87320733,0.7771244,-0.025359631,-0.6288358,0
-1.7575614,-3.0246692,-2.6078029,-0.45103335,-0.71928912,-0.52838624,0
-0.1298995,-3.2356489,-3.8475075,0.7771244,-0.025359631,-0.6288358,0
-0.42408308,1.4014416,-4.377758,0.7771244,-0.025359631,-0.6288358,0
-3.4574027,2.2044477,-2.2802007,-0.53200817,0.50733387,-0.67792308,0
-3.0304847,-2.2398794,0.17488313,-0.7771244,0.025359631,0.6288358,0
1.3954376,-1.648988,-2.187866,0.7771244,-0.025359631,-0.6288358,0
3.5705242,-1.9965093,2.5109999,0.55935711,-0.43011129,0.70860702,0
3.1779919,2.3535385,-0.18234968,0.7771244,-0.025359631,-0.6288358,0
0.36927629,0.62794828,4.2393141,-0.7771244,0.025359631,0.6288358,0
1.671833,2.9275033,3.2991869,0.50415665,0.62315768,0.5979135,0
-0.77932304,-0.96343935,3.151866,-0.7771244,0.025359631,0.6288358,0
-2.167748,4.4035368,0.38971019,-0.12762034,0.9720785,-0.196917,0
0.20033193,4.2979298,0.6952374,0.13092595,0.98384148,0.12212396,0
1.6727624,-3.1033783,-1.6074773,0.7771244,-0.025359631,-0.6288358,0
1.3412417,-1.7508404,-2.2694092,0.7771244,-0.025359631,-0.6288358,0
-2.8442011,-3.1407895,-2.0413463,-0.46331733,-0.69928128,-0.54437363,0
-0.70300269,-4.196835,-1.8595214,-0.26398754,-0.92017043,-0.28913116,0
-1.302345,-1.6752257,2.2560215,-0.7771244,0.025359631,0.6288358,0
0.88896298,0.35668397,5.0907507,-0.7771244,0.025359631,0.6288358,0
1.9589173,1.4964118,3.6593816,0.59182537,0.36929655,0.71649337,0
0.024689049,-1.8643755,4.2386093,-0.7771244,0.025359631,0.6288358,0
0.23568702,4.2449999,1.9712359,0.22297937,0.94546604,0.23743248,0
-2.6112683,0.56728101,0.90142345,-0.7771244,0.025359631,0.6288358,0
0.34356228,-1.8753102,4.4064283,-0.7771244,0.025359631,0.6288358,0
2.3690755,0.16582227,-1.1107441,0.7771244,-0.025359631,-0.6288358,0
-1.0046716,-4.5377073,-0.1328845,-0.10230315,-0.99098843,-0.086463213,0
-4.2148452,-1.1924822,-1.4740453,-0.7771244,0.025359631,0.6288358,0
-1.6634436,4.4928503,0.06208849,-0.09781608,0.98217845,-0.16049165,0
3.2273469,-0.55290747,-0.24392207,0.7771244,-0.025359631,-0.6288358,0
-2.6022177,-2.4230247,1.0932033,-0.7771244,0.025359631,0.6288358,0
0.39646196,-4.2043457,-2.3139284,-0.23700917,-0.93741828,-0.25509518,0
-4.3014069,0.024289012,-2.2309017,-0.62910694,-0.058899105,-0.77508414,0
0.70259905,2.8266387,3.909008,0.49029231,0.65084898,0.57966298,0
-0.12175041,-0.27054834,3.7217174,-0.7771244,0.025359631,0.6288358,0
1.1909261,-4.1584339,-2.4472246,0.7771244,-0.025359631,-0.6288358,0
-1.8721275,3.7056489,-1.5300267,-0.3004812,0.86299473,-0.40614176,0
0.51986319,-0.12398124,-3.1408842,0.7771244,-0.025359631,-0.6288358,0
-0.47816306,-2.4826479,3.6721082,-0.7771244,0.025359631,0.6288358,0
2.1125004,-1.4363022,-1.270304,0.7771244,-0.025359631,-0.6288358,0
-3.8490524,1.4934107,-0.72569191,-0.7771244,0.025359631,0.6288358,0
-1.9971724,0.057608724,-4.3067884,-0.62904537,-0.00036804378,-0.77736849,0
0.92445099,-3.2412467,3.6339233,0.42606071,-0.71419626,0.55533397,0
-3.5364213,1.3023525,-0.44000915,-0.7771244,0.025359631,0.6288358,0
0.64059019,0.80890584,4.77707,-0.7771244,0.025359631,0.6288358,0
3.7941875,3.118361,0.72554946,0.7771244,-0.025359631,-0.6288358,0
1.8422991,3.8204815,-2.0537624,0.7771244,-0.025359631,-0.6288358,0
-0.7734831,-2.4183383,3.3510222,-0.7771244,0.025359631,0.6288358,0
1.0772026,-0.34676147,4.7236123,0.62680268,-0.05856739,0.77697372,0
0.11638117,-4.0304604,-3.1696165,-0.34312183,-0.85469592,-0.38956687,0
-2.1333559,1.8545423,1.2559898,-0.7771244,0.025359631,0.6288358,0
-2.0517187,-4.149775,1.6520958,-0.7771244,0.025359631,0.6288358,0
-0.92307615,2.5632186,-3.7518759,-0.48446995,0.61366367,-0.62346268,0
4.0743947,-1.5951002,1.168727,0.7771244,-0.025359631,-0.6288358,0
3.4096208,-0.89068437,2.9465377,0.61546266,-0.17810029,0.76777995,0
-2.1433268,0.42358935,-4.1845894,-0.62455732,0.091962181,-0.7755456,0
2.7559834,-1.3055408,-0.64739925,0.7771244,-0.025359631,-0.6288358,0
3.934339,1.5605173,2.4817891,0.60265404,0.31789869,0.73194838,0
0.9027456,2.9292264,-3.28057,0.7771244,-0.025359631,-0.6288358,0
2.6755223,3.2384644,-0.57615042,0.7771244,-0.025359631,-0.6288358,0
-1.6548631,1.4672787,2.081183,-0.7771244,0.025359631,0.6288358,0
0.63422513,-4.7022982,-0.91365075,-0.058995247,-0.99772346,-0.032671034,0
-1.3270185,0.97422576,2.3566165,-0.7771244,0.025359631,0.6288358,0
-0.37334383,1.831243,3.6887794,-0.7771244,0.025359631,0.6288358,0
1.7585887,-3.9413264,1.107851,0.28670156,-0.87521964,0.3896057,0
-0.2091434,-3.4151227,-3.9031224,-0.45068181,-0.71984488,-0.52792919,0
2.2978988,-1.7123671,3.4194207,0.58234692,-0.34990531,0.7337836,0
-3.8677804,-0.67469954,-2.7293975,-0.62786412,-0.099790573,-0.77189922,0
-2.4185054,-0.14215112,0.8736313,-0.7771244,0.025359631,0.6288358,0
-0.31110358,-4.39112,-0.21917701,-0.078150213,-0.99534279,-0.056439161,0
3.5940862,3.1976943,0.47038794,0.7771244,-0.025359631,-0.6288358,0
-0.71324205,-4.3547854,0.23386455,-0.050151229,-0.99850565,-0.021710038,0
-3.3059413,0.55107504,-2.8003969,-0.62098527,0.13143946,-0.77272314,0
0.025675178,0.31978679,-3.9725766,0.7771244,-0.025359631,-0.6288358,0
-3.9213736,0.41969085,-1.1973555,-0.7771244,0.025359631,0.6288358,0
-2.9859023,1.7798555,0.38275421,-0.7771244,0.025359631,0.6288358,0
-3.1250381,-1.9766834,0.023165226,-0.7771244,0.025359631,0.6288358,0
-2.225456,1.1897633,1.0761549,-0.7771244,0.025359631,0.6288358,0
-0.40838456,-3.6285434,-3.1028008,-0.37851787,-0.8170988,-0.43482599,0
1.7176285,4.4858332,-2.2468469,0.7771244,-0.025359631,-0.6288358,0
-0.85489666,-1.5625737,-4.6189461,-0.59883881,-0.33712089,-0.72645831,0
1.0767986,-4.4296045,-0.67195225,-0.020773947,-0.99967688,0.014642119,0
2.6807106,4.2340026,0.18685651,0.27577066,0.91187602,0.30402735,0
0.47452661,1.4227113,-3.6966605,0.7771244,-0.025359631,-0.6288358,0
-2.9914618,-1.8943381,0.15086722,-0.7771244,0.025359631,0.6288358,0
1.2876124,1.6297877,-2.6568418,0.7771244,-0.025359631,-0.6288358,0
1.40046,-3.9205987,1.3938923,0.27200693,-0.88750869,0.37194145,0
-0.44316104,1.2716783,-4.5712633,0.7771244,-0.025359631,-0.6288358,0
2.822181,-0.93017328,3.5094681,0.60887426,-0.22248517,0.76142794,0
3.3522823,-2.9490123,0.15326631,0.7771244,-0.025359631,-0.6288358,0
0.31490946,-4.4814024,-1.2560935,-0.10452586,-0.99051124,-0.089229524,0
-1.172242,4.5626817,-0.093778133,-0.059078336,0.99183607,-0.1130085,0
-1.0130434,3.271349,2.5661786,-0.7771244,0.025359631,0.6288358,0
1.0850823,-4.7283821,-1.3416879,-0.063045204,-0.99729848,-0.037693143,0
0.43038893,3.9277372,2.5074043,0.33310461,0.86432862,0.37679884,0
-1.804305,-0.39242864,2.0013585,-0.7771244,0.025359631,0.6288358,0
-0.4968437,-3.5454392,3.8124721,-0.7771244,0.025359631,0.6288358,0
-1.252383,3.9011495,2.1254141,-0.7771244,0.025359631,0.6288358,0
-3.4253378,-0.61930561,-0.38044602,-0.7771244,0.025359631,0.6288358,0
1.038504,3.4359627,-2.5398946,0.7771244,-0.025359631,-0.6288358,0
-4.5864797,0.58323848,-1.6096871,-0.7771244,0.025359631,0.6288358,0
-1.9000461,2.8835654,1.508248,-0.7771244,0.025359631,0.6288358,0
-2.4716146,4.1594286,0.62537622,-0.7771244,0.025359631,0.6288358,0
0.95159364,-3.9360659,1.9821348,0.27682835,-0.88355976,0.37774062,0
-0.79631114,-4.3613677,0.32002974,-0.052541912,-0.9983139,-0.02467221,0
-1.6374173,1.0159743,1.6818644,-0.7771244,0.025359631,0.6288358,0
1.1354553,1.2929993,-2.6908879,0.7771244,-0.025359631,-0.6288358,0
-4.3969331,0.73616707,-1.6065146,-0.7771244,0.025359631,0.6288358,0
-1.2056893,4.6089525,1.3103318,0.054089963,0.99818194,0.026590645,0
2.9880276,-2.9137323,1.9965181,0.45268947,-0.67161071,0.58652484,0
-3.1680741,1.0297863,0.11857419,-0.7771244,0.025359631,0.6288358,0
3.3190196,-3.8661764,0.66779876,0.36132702,-0.80012059,0.47880036,0
2.7905202,-1.674262,-0.7318359,0.7771244,-0.025359631,-0.6288358,0
1.9805515,-0.18880987,-1.3183683,0.7771244,-0.025359631,-0.6288358,0
1.4663994,2.7789116,-2.2124398,0.7771244,-0.025359631,-0.6288358,0
-0.37339497,3.8005147,3.3285358,0.36859447,0.82822591,0.42211369,0
3.7137022,-1.4407562,0.55861342,0.7771244,-0.025359631,-0.6288358,0
4.6750731,-1.070004,1.5683851,0.7771244,-0.025359631,-0.6288358,0
1.3576136,1.3936024,4.5284567,0.6001935,0.33045322,0.72840124,0
-2.1772738,0.55137229,1.0370905,-0.7771244,0.025359631,0.6288358,0
2.7575581,-0.53316259,-0.74849784,0.7771244,-0.025359631,-0.6288358,0
2.6776907,-3.1303771,-0.58289993,0.7771244,-0.025359631,-0.6288358,0
2.7942219,1.292298,-0.86399376,0.7771244,-0.025359631,-0.6288358,0
-3.066823,-2.320024,-2.6740062,-0.54403794,-0.5293833,-0.65098083,0
0.43977261,-3.1859224,-3.3299229,0.7771244,-0.025359631,-0.6288358,0
-3.7230232,-3.1764297,-1.1163714,-0.45546389,-0.7122075,-0.5341469,0
4.0635986,-1.9195901,1.2984726,0.7771244,-0.025359631,-0.6288358,0
-1.9867005,-2.166256,-3.6697259,-0.56455195,-0.46967256,-0.67874062,0
-1.9900336,1.4409258,-3.9775012,-0.58245534,0.3494792,-0.73390055,0
3.1135602,-2.4351568,0.10136187,0.7771244,-0.025359631,-0.6288358,0
0.83744645,0.92335653,-2.924119,0.7771244,-0.025359631,-0.6288358,0
1.8709167,-1.6767368,-1.5937033,0.7771244,-0.025359631,-0.6288358,0
-1.8736486,-2.9861426,-3.084821,-0.50686705,-0.61748987,-0.60149151,0
2.3244977,-0.39040828,3.941108,0.62183517,-0.12297803,0.77343225,0
1.8580165,4.30762,-0.60642028,0.11410618,0.98830503,0.10115784,0
-1.9473485,4.556046,1.2239987,-0.0073032379,0.99875712,-0.049303293,0
-2.6139061,-4.1244507,0.95785928,-0.7771244,0.025359631,0.6288358,0
-4.5622001,1.2098491,-1.4803283,-0.7771244,0.025359631,0.6288358,0
-0.67119724,-0.98395431,3.2742951,-0.7771244,0.025359631,0.6288358,0
2.5786676,-1.284606,3.4047182,0.59240186,-0.30783182,0.74451298,0
-4.0632677,-1.5441982,-1.8670946,-0.58804202,-0.38527763,-0.71117342,0
3.661417,-0.036727339,2.8034759,0.62926561,0.047380835,0.7757448,0
-2.4045708,3.7741959,0.8195765,-0.7771244,0.025359631,0.6288358,0
0.10906118,2.2741632,-3.8622053,0.7771244,-0.025359631,-0.6288358,0
1.1181307,1.0077608,-2.5770288,0.7771244,-0.025359631,-0.6288358,0
1.600515,0.23043251,4.5151606,0.62899137,0.064882442,0.77469999,0
3.2764697,0.029948056,3.0665507,0.62856108,-0.01864396,0.77753675,0
-1.1655688,1.7036066,2.3732862,-0.7771244,0.025359631,0.6288358,0
-0.82106614,3.998795,3.0973649,-0.7771244,0.025359631,0.6288358,0
-1.7735159,-2.7435904,-2.9318221,-0.51687121,-0.59577733,-0.61473042,0
-1.7814126,-4.1705675,-0.67269802,-0.26039273,-0.92260718,-0.28459033,0
2.7714243,-1.6939476,-0.3676908,0.7771244,-0.025359631,-0.6288358,0
-3.7636552,-2.2183175,-0.88411939,-0.7771244,0.025359631,0.6288358,0
-1.8867539,-3.1749845,1.5550337,-0.7771244,0.025359631,0.6288358,0
1.8128858,0.22778511,-1.5058333,0.7771244,-0.025359631,-0.6288358,0
-3.1107354,3.6283851,-0.74030566,-0.36693528,0.79352522,-0.48546511,0
1.9249907,3.9350641,-1.5200093,0.7771244,-0.025359631,-0.6288358,0
-3.9771066,0.8888458,-0.97904527,-0.7771244,0.025359631,0.6288358,0
4.3370924,0.073484361,2.4674201,0.62908059,0.0022320747,0.77733684,0
-0.6616962,-2.3812861,3.107374,-0.7771244,0.025359631,0.6288358,0
-0.35655975,-4.5399036,-1.0117011,-0.1531617,-0.97676754,-0.14988846,0
-1.3358212,1.4505453,-4.1170096,-0.5837512,0.34434837,-0.735295,0
0.84345746,4.3312168,-0.97661996,0.0067709684,0.99946684,-0.031938791,0
0.26288405,-2.0480175,4.3318553,-0.7771244,0.025359631,0.6288358,0
3.9963381,2.4205837,1.0289396,0.7771244,-0.025359631,-0.6288358,0
2.7715003,-2.0391006,3.043658,0.54421389,-0.47475433,0.69169319,0
-3.4050877,-1.5193048,-0.45019424,-0.7771244,0.025359631,0.6288358,0
1.8710902,-4.3970385,-1.2742722,0.0027456284,-0.99904162,0.043682337,0
-1.9639188,3.6789188,-1.6303842,-0.3370057,0.82709062,-0.44983125,0
-0.53057575,-3.0380137,3.6095366,-0.7771244,0.025359631,0.6288358,0
-0.36894274,-2.831145,3.3226349,-0.7771244,0.025359631,0.6288358,0
-3.929409,-1.6558356,-2.2965982,-0.59838033,-0.33934087,-0.72580218,0
-3.9312389,-1.3166387,-0.65744543,-0.7771244,0.025359631,0.6288358,0
0.78637075,0.5779109,4.7390547,-0.7771244,0.025359631,0.6288358,0
1.215631,3.9992938,1.3160346,0.27211958,0.91449702,0.29940954,0
1.3205839,-1.3664031,-2.0871747,0.7771244,-0.025359631,-0.6288358,0
1.9940805,3.9790006,1.0340247,0.29105657,0.9003948,0.32338092,0
3.7268102,1.3415012,2.3091342,0.60982287,0.27729243,0.74244523,0
-4.4194145,0.56836867,-2.1597264,-0.62272179,0.11361557,-0.77415049,0
-2.52472,-2.833993,-2.6226339,-0.51771152,-0.59389383,-0.61584485,0
4.5727768,-0.57841599,2.2326417,0.62474215,-0.089565203,0.77567732,0
-3.1243048,1.1461437,0.2220934,-0.7771244,0.025359631,0.6288358,0
1.598455,4.3634729,-1.2913754,-0.0054889917,0.99887669,-0.047065973,0
-0.41271028,-1.9091123,3.6731741,-0.7771244,0.025359631,0.6288358,0
-2.80071,-3.1846807,0.50291348,-0.7771244,0.025359631,0.6288358,0
3.2762702,-0.71553457,3.1745296,0.61531681,-0.17918798,0.76764369,0
-3.8511996,-1.8597369,-0.98421907,-0.7771244,0.025359631,0.6288358,0
4.1319141,-1.5906084,2.2190042,0.58055294,-0.35687193,0.73184752,0
-2.3870747,-2.7703233,1.3482406,-0.7771244,0.025359631,0.6288358,0
1.001323,-1.5966384,-2.9447241,0.7771244,-0.025359631,-0.6288358,0
-3.0659943,2.6354275,0.018999577,-0.7771244,0.025359631,0.6288358,0
1.5746621,-4.4246159,0.33043313,0.1627785,-0.95708811,0.23976141,0
0.36443365,-3.7293243,2.5083189,0.31852391,-0.84591502,0.42775035,0
2.2731218,3.7278547,-1.4255815,0.7771244,-0.025359631,-0.6288358,0
2.1951792,-4.4755831,-0.053315878,0.1496284,-0.96309185,0.2237525,0
0.27195215,3.5569198,3.541575,0.43231708,0.74764448,0.50411278,0
1.7901347,4.4995608,-0.56961942,0.090046346,0.99338782,0.071219444,0
-1.8993986,-0.42784929,1.535614,-0.7771244,0.025359631,0.6288358,0
2.2268655,-2.3746681,-1.2575482,0.7771244,-0.025359631,-0.6288358,0
-0.70590162,4.2990098,1.975455,0.17547482,0.96829438,0.17780507,0
1.8355396,3.5341291,1.9550637,0.40375006,0.78655756,0.46724004,0
0.53576517,3.727823,3.2878633,0.41639686,0.76993722,0.48353934,0
-3.1905284,3.3779547,0.17803836,-0.7771244,0.025359631,0.6288358,0
2.7003374,4.0944886,0.34466815,0.27466279,0.91267616,0.30262595,0
-0.14807636,0.34928584,-4.3326707,0.7771244,-0.025359631,-0.6288358,0
-0.6820401,-2.0085325,3.1389208,-0.7771244,0.025359631,0.6288358,0
-0.92921388,-0.47566772,-5.0597916,-0.62730253,-0.11168532,-0.77072549,0
3.8097878,-1.9584085,0.69771308,0.7771244,-0.025359631,-0.6288358,0
1.7243958,-2.3032057,3.67905,0.53876072,-0.48964459,0.68555462,0
0.51709801,-1.6160312,4.7970381,-0.7771244,0.025359631,0.6288358,0
0.8540777,3.207952,-2.9957876,0.7771244,-0.025359631,-0.6288358,0
3.8589404,-0.78904927,1.1352563,0.7771244,-0.025359631,-0.6288358,0
-1.5522302,2.9378407,1.6346018,-0.7771244,0.025359631,0.6288358,0
1.2247292,-0.77354336,-2.316534,0.7771244,-0.025359631,-0.6288358,0
2.0051968,-3.0387287,-1.6559008,0.7771244,-0.025359631,-0.6288358,0
-1.9441496,-0.91122186,-4.1473155,-0.6243577,-0.15663236,-0.76527357,0
4.3266468,1.9461658,1.1841397,0.7771244,-0.025359631,-0.6288358,0
0.59937096,-2.8078349,-3.4343057,0.7771244,-0.025359631,-0.6288358,0
4.0659475,1.1726985,0.90591985,0.7771244,-0.025359631,-0.6288358,0
1.1717161,-2.6803086,3.4820802,0.46239692,-0.65480679,0.59784371,0
-0.4698298,-1.8289196,-4.4942398,0.7771244,-0.025359631,-0.6288358,0
2.5766835,4.2262688,-0.91788816,0.12914717,0.98434943,0.11990529,0
0.505548,2.4546957,4.3402576,0.53703386,0.5476867,0.64158714,0
0.17927444,0.25585079,-3.7863102,0.7771244,-0.025359631,-0.6288358,0
-2.5025616,-0.088515282,0.72909051,-0.7771244,0.025359631,0.6288358,0
-1.199234,-1.1273017,-4.4773898,-0.61139154,-0.26739168,-0.74478316,0
-3.9313214,0.76742363,-1.0733209,-0.7771244,0.025359631,0.6288358,0
2.8963411,-4.1899347,0.3937242,0.25473303,-0.90100658,0.35113841,0
3.9114702,-1.7376705,1.0687698,0.7771244,-0.025359631,-0.6288358,0
-0.037122965,3.4277816,3.7855272,-0.7771244,0.025359631,0.6288358,0
4.0980825,0.11360228,1.3230635,0.7771244,-0.025359631,-0.6288358,0
0.26334786,-4.2702141,1.8681135,0.18559167,-0.94551885,0.26748765,0
3.6016102,0.063856125,0.21033472,0.7771244,-0.025359631,-0.6288358,0
3.6071115,-1.2385186,0.44903517,0.7771244,-0.025359631,-0.6288358,0
1.2197038,-1.208627,-2.3308806,0.7771244,-0.025359631,-0.6288358,0
0.10333693,3.5083647,-3.8768239,-0.37971234,0.77794051,-0.50062668,0
0.73494053,2.1640089,4.7360687,0.55799246,0.48988456,0.66981906,0
0.70709181,3.1692078,3.405818,0.4414717,0.73408049,0.51597321,0
1.2531319,-4.3078623,-0.091100216,0.063425243,-0.99094486,0.11834443,0
-1.4903187,3.215189,1.8216865,-0.7771244,0.025359631,0.6288358,0
-0.018914184,-1.4275625,3.9902327,-0.7771244,0.025359631,0.6288358,0
-1.9570668,1.9664516,-3.5695534,-0.5483318,0.46312043,-0.69631296,0
-0.49731785,2.6510396,-3.9656267,-0.47495109,0.63193619,-0.61243606,0
-0.085775018,-3.8665743,2.4264662,0.25186884,-0.90314847,0.34768522,0
-0.44506711,0.44689226,3.6447611,-0.7771244,0.025359631,0.6288358,0
-1.1873853,-1.054285,2.7274458,-0.7771244,0.025359631,0.6288358,0
0.69977939,3.4243283,-3.0656354,0.7771244,-0.025359631,-0.6288358,0
3.4517455,-2.0815959,2.2517879,0.55507112,-0.44328654,0.70384169,0
-2.2768831,-4.0020008,1.6113296,-0.7771244,0.025359631,0.6288358,0
-1.3559139,-1.1688116,2.1019959,-0.7771244,0.025359631,0.6288358,0
2.9558563,3.495764,0.99652624,0.41821039,0.76747704,0.48587969,0
-0.092908025,-3.3980322,3.7655659,0.38396105,-0.77258062,0.50566113,0
1.9354446,0.89460611,3.976532,0.62141353,0.18907103,0.7603271,0
-1.3266186,-3.8925941,2.7801831,-0.7771244,0.025359631,0.6288358,0
-1.0953459,2.9606686,-3.5279257,-0.46554354,0.64919913,-0.60150623,0
0.74192417,0.45356274,4.7832174,-0.7771244,0.025359631,0.6288358,0
0.53753757,1.8518841,4.4065223,-0.7771244,0.025359631,0.6288358,0
3.0894566,-3.3455491,0.13025343,0.7771244,-0.025359631,-0.6288358,0
-1.3799592,3.2133005,-2.7367194,-0.42102283,0.72172475,-0.54941183,0
1.3576272,-3.9953842,1.8771138,0.31100181,-0.85318708,0.41874772,0
3.8869295,0.62266111,0.90449739,0.7771244,-0.025359631,-0.6288358,0
1.5530667,-4.1569681,-1.7934825,0.7771244,-0.025359631,-0.6288358,0
2.6223345,2.0031991,2.8814919,0.57234955,0.44398883,0.68941259,0
2.7108285,-2.7592483,-0.7039656,0.7771244,-0.025359631,-0.6288358,0
-4.0854759,-2.36972,-0.78890359,-0.7771244,0.025359631,0.6288358,0
3.110954,0.38035071,-0.11114526,0.7771244,-0.025359631,-0.6288358,0
-2.0450902,-1.0284225,-4.0074573,-0.62254381,-0.17749576,-0.76219058,0
2.5263538,2.7576625,-0.75620723,0.7771244,-0.025359631,-0.6288358,0
-2.6704547,1.0478423,0.49098265,-0.7771244,0.025359631,0.6288358,0
2.3497479,1.4385411,-1.0863985,0.7771244,-0.025359631,-0.6288358,0
0.51198459,-4.2261968,1.7689846,0.20888877,-0.93215001,0.29573947,0
2.3474791,-2.700516,-0.75816423,0.7771244,-0.025359631,-0.6288358,0
-2.2432573,2.8935564,1.312207,-0.7771244,0.025359631,0.6288358,0
-1.8490644,-0.036842585,1.9337244,-0.7771244,0.025359631,0.6288358,0
-1.8076539,-4.0199251,1.6379108,-0.7771244,0.025359631,0.6288358,0
-1.082016,-2.5532694,2.7999787,-0.7771244,0.025359631,0.6288358,0
-2.7351596,-0.63076949,-3.6430349,-0.62308538,-0.17160015,-0.76309764,0
3.2084701,2.711417,2.2181697,0.5163213,0.59700459,0.61400145,0
-2.4952798,1.5630879,0.51997459,-0.7771244,0.025359631,0.6288358,0
0.6996612,1.8549219,-2.9462342,0.7771244,-0.025359631,-0.6288358,0
-2.285357,-0.69855428,-3.8584628,-0.62472737,-0.15192808,-0.7659201,0
4.6935315,0.92414224,1.555479,0.7771244,-0.025359631,-0.6288358,0
-0.56122828,4.287766,-0.7091341,-0.13150385,0.97058821,-0.2016561,0
3.3293741,-1.0310162,0.24840832,0.7771244,-0.025359631,-0.6288358,0
-2.3052702,-2.826993,1.290616,-0.7771244,0.025359631,0.6288358,0
1.6729331,-3.1334519,2.5701942,0.43317503,-0.7032904,0.56368613,0
0.8671236,-2.2222888,-2.7361543,0.7771244,-0.025359631,-0.6288358,0
2.7722085,-3.1039374,-0.7322408,0.7771244,-0.025359631,-0.6288358,0
-0.014864147,2.286983,-3.8136611,0.7771244,-0.025359631,-0.6288358,0
0.040031433,-2.7628527,-3.6224489,0.7771244,-0.025359631,-0.6288358,0
-2.0078356,-4.2711391,-0.20283747,-0.20487934,-0.95495355,-0.21468168,0
2.2561393,-3.2350271,-0.82358563,0.7771244,-0.025359631,-0.6288358,0
-2.8685055,3.2190309,-1.7509202,-0.41102219,0.73621142,-0.537637,0
-1.1775856,4.7075338,1.0585425,0.04530108,0.99884999,0.015702248,0
-1.4544005,-4.1700344,2.2494781,-0.7771244,0.025359631,0.6288358,0
-2.8330107,-2.476577,0.32954979,-0.7771244,0.025359631,0.6288358,0
1.375335,-4.1568079,-1.8054925,0.7771244,-0.025359631,-0.6288358,0
1.6446984,1.262418,-2.2968662,0.7771244,-0.025359631,-0.6288358,0
-2.6189137,3.1242237,0.42569554,-0.7771244,0.025359631,0.6288358,0
-3.5980403,-0.40623355,-0.74622953,-0.7771244,0.025359631,0.6288358,0
4.4650564,0.31817693,1.9761814,0.62678915,0.12118006,0.76970822,0
0.49993181,-3.531013,3.4449899,0.38991174,-0.76491916,0.5127061,0
1.886571,1.6924266,3.6866999,0.59549403,0.35292196,0.72168756,0
1.6792492,2.8729689,-2.0443504,0.7771244,-0.025359631,-0.6288358,0
0.29273331,2.6011958,-3.8156698,0.7771244,-0.025359631,-0.6288358,0
0.48262167,-0.17846036,4.7023473,-0.7771244,0.025359631,0.6288358,0
1.4492235,3.0381522,3.3740928,0.47276455,0.68306357,0.55670273,0
-1.6000456,2.3650033,-3.7947521,-0.52582258,0.52287316,-0.67090559,0
-1.242139,4.5913386,0.36690664,-0.041912496,0.99488413,-0.091917634,0
2.7197607,-1.8239173,-0.32538664,0.7771244,-0.025359631,-0.6288358,0
1.4622403,0.055859327,-1.9364619,0.7771244,-0.025359631,-0.6288358,0
2.3157187,3.6436791,-1.3722529,0.7771244,-0.025359631,-0.6288358,0
0.87128305,3.4394791,-3.2202463,0.7771244,-0.025359631,-0.6288358,0
0.72581863,4.6126223,-0.62902045,0.026553392,0.99961931,-0.0074975491,0
1.2060519,2.5925817,-2.4344416,0.7771244,-0.025359631,-0.6288358,0
3.9313705,-2.6770239,1.4978036,0.48119166,-0.62005234,0.61966902,0
-0.38322523,-0.93375134,3.2466564,-0.7771244,0.025359631,0.6288358,0
3.1123435,1.3971927,-0.39023232,0.7771244,-0.025359631,-0.6288358,0
3.6508942,-0.39600939,2.9823132,0.62292111,-0.11142576,0.7743085,0
-2.5654502,-3.7827854,1.0386481,-0.7771244,0.025359631,0.6288358,0
3.1420639,0.48315457,2.9601803,0.62772405,0.10294481,0.77159894,0
0.92280507,3.9797118,1.8852242,0.29938793,0.89378327,0.33394352,0
-1.5544609,1.4576452,-4.3087234,-0.58973056,0.31956428,-0.74168491,0
-0.11746135,0.85920858,-4.2210565,0.7771244,-0.025359631,-0.6288358,0
1.6692623,-1.9806024,3.8467782,0.5641048,-0.41495234,0.71386296,0
2.9255152,-2.8844824,-0.42861843,0.7771244,-0.025359631,-0.6288358,0
-3.703747,2.0074227,-0.66645896,-0.7771244,0.025359631,0.6288358,0
-1.0697625,-4.4377956,0.30800319,-0.095040143,-0.99245763,-0.077428222,0
-1.7065771,-4.3131714,-0.29932785,-0.22462177,-0.94455558,-0.23949891,0
-3.795423,-0.72457159,-0.62762135,-0.7771244,0.025359631,0.6288358,0
-2.9008932,4.0092564,-0.84229922,-0.32519081,0.83928376,-0.43572199,0
1.3942997,2.1555448,-2.0262213,0.7771244,-0.025359631,-0.6288358,0
1.899168,4.2144966,0.057124138,0.17892623,0.96685815,0.18212819,0
-0.91461456,0.35977101,-4.9347243,0.7771244,-0.025359631,-0.6288358,0
-0.32315618,-1.7370665,3.690239,-0.7771244,0.025359631,0.6288358,0
-0.15072531,2.975282,-3.8013465,-0.43392259,0.70212519,-0.56456304,0
0.13023591,-4.4822845,-2.0977354,-0.2191214,-0.94757181,-0.23257977,0
2.1010952,-1.7734468,-1.5419514,0.7771244,-0.025359631,-0.6288358,0
-0.74141437,1.9062502,-4.7990246,-0.55869418,0.43217945,-0.70787126,0
-0.84672892,-0.34494066,-4.9532161,-0.62760103,-0.10560457,-0.77133954,0
-3.451108,0.25840238,-2.9329004,-0.62874234,0.012506127,-0.77751315,0
2.630043,-1.6613768,3.431114,0.57900381,-0.3627736,0.73017114,0
-1.8077445,0.44307637,-4.1649456,-0.62272596,0.11357012,-0.77415383,0
-2.3585188,-4.0846195,1.4111743,-0.7771244,0.025359631,0.6288358,0
2.1959622,3.2791588,-1.6978841,0.7771244,-0.025359631,-0.6288358,0
-1.5463805,-1.5311422,-4.3658938,-0.59992218,-0.33180192,-0.72801161,0
4.6876278,0.66585571,1.8698437,0.62327182,0.16951106,0.76341224,0
-2.8116171,-1.452358,0.80622566,-0.7771244,0.025359631,0.6288358,0
-0.17319369,-1.575911,-4.2563415,0.7771244,-0.025359631,-0.6288358,0
-4.109818,0.13428748,-1.1361434,-0.7771244,0.025359631,0.6288358,0
2.0957921,4.1423974,0.057551146,0.23583585,0.93811506,0.25361711,0
4.0315146,2.5525632,1.7153214,0.54251528,0.53344136,0.64893556,0
-0.25561094,4.4019246,1.7522786,0.21645552,0.94900036,0.22922766,0
-0.92418885,1.6378655,-4.6276207,-0.56434596,0.41416547,-0.71412927,0
0.086375237,4.6606197,-0.56002808,-0.037299573,0.99557549,-0.086244822,0
3.1070311,0.21595693,-0.45245939,0.7771244,-0.025359631,-0.6288358,0
-0.31127763,3.4434221,3.2183831,-0.7771244,0.025359631,0.6288358,0
1.7011062,-4.5058908,-0.077775478,0.13463652,-0.96935642,0.20547783,0
-2.5008764,-1.2024463,0.76467276,-0.7771244,0.025359631,0.6288358,0
2.3189456,4.1509953,0.25376153,0.22702628,0.94320774,0.24252486,0
0.44547033,2.4605992,4.3685856,0.5271368,0.5720793,0.62837255,0
-2.4502139,-1.8512704,-3.0582807,-0.57863986,-0.42172807,-0.69808406,0
-4.3101687,0.3958143,-1.4859715,-0.7771244,0.025359631,0.6288358,0
1.1792881,2.3163729,4.1184082,0.56077719,0.48144662,0.67360085,0
-0.19600523,-0.95124102,-3.9303977,0.7771244,-0.025359631,-0.6288358,0
0.94324851,-4.1315465,-2.7629027,0.7771244,-0.025359631,-0.6288358,0
4.1598697,1.8560655,1.6978053,0.56396079,0.47154331,0.67793453,0
-2.6629286,3.2646465,0.28167462,-0.7771244,0.025359631,0.6288358,0
0.40725154,2.7104256,-3.4045348,0.7771244,-0.025359631,-0.6288358,0
1.3126678,-1.3304641,-2.0393147,0.7771244,-0.025359631,-0.6288358,0
1.0515594,-1.5489137,-2.8034453,0.7771244,-0.025359631,-0.6288358,0
1.9901559,-2.0513809,3.7314963,0.5577721,-0.43503752,0.70684695,0
-0.31498623,-4.1273904,-1.5078502,-0.21945357,-0.94739234,-0.2329976,0
1.1179101,-3.024471,3.5082312,0.47639173,-0.6292246,0.61410707,0
1.6355267,-2.5749881,3.1591251,0.49091917,-0.60078835,0.6309135,0
-3.2123363,0.30113351,-3.2136178,-0.62225491,0.11861998,-0.77377528,0
-2.0346918,0.1392386,1.3079461,-0.7771244,0.025359631,0.6288358,0
3.5945559,3.7647099,0.2359302,0.7771244,-0.025359631,-0.6288358,0
4.2867455,0.74653196,2.1890273,0.620188,0.20070425,0.75834334,0
-0.85722798,2.4048004,-4.040103,-0.50838685,0.56368148,-0.65100384,0
1.4593761,2.1000829,-2.3916411,0.7771244,-0.025359631,-0.6288358,0
1.7087045,-4.3483572,-1.5251305,-0.03291285,-0.99945819,-0.00036805868,0
3.1230192,-0.59878325,-0.27887392,0.7771244,-0.025359631,-0.6288358,0
4.6814485,0.050143957,2.0701981,0.62903386,-0.00021652877,0.7773779,0
-0.1229074,-4.2434254,-0.94351912,-0.14126849,-0.98071891,-0.13503122,0
-0.51470518,4.2680159,1.6941384,0.17169112,0.9698298,0.17306715,0
-2.6053591,-3.9537692,-0.29989481,-0.27906686,-0.90947008,-0.30819786,0
2.6247225,1.2990621,-0.92659712,0.7771244,-0.025359631,-0.6288358,0
2.0401227,2.6688008,-1.8250313,0.7771244,-0.025359631,-0.6288358,0
4.0094042,-0.11225051,2.5176473,0.62892246,-0.0053987652,0.77744925,0
0.74425429,-2.8355713,3.9507496,0.47389066,-0.63392055,0.61120558,0
-0.016159296,4.174314,-1.4560905,-0.17121643,0.95298117,-0.25002342,0
-2.5076208,3.0809929,-2.3724568,-0.45059997,0.67513323,-0.58408457,0
-2.8206608,3.3044393,-1.3308036,-0.39651552,0.75620043,-0.52051556,0
-3.3980768,-3.1769152,-0.17279911,-0.7771244,0.025359631,0.6288358,0
-2.1671033,0.093467712,1.5960221,-0.7771244,0.025359631,0.6288358,0
0.99282634,1.693866,-2.6158423,0.7771244,-0.025359631,-0.6288358,0
2.2182324,-1.4155086,3.6323633,0.58739376,-0.32947922,0.7391969,0
-0.77864718,-2.1858666,-4.4504623,-0.57177812,-0.44593877,-0.6886279,0
-2.2208614,-1.4354372,-3.6557264,-0.60869956,-0.28412563,-0.74078161,0
0.27978992,-3.5505035,-3.5330868,0.7771244,-0.025359631,-0.6288358,0
2.0256653,3.7931902,-1.8548348,0.7771244,-0.025359631,-0.6288358,0
0.41522047,-2.691138,4.5144458,0.50210154,-0.57743156,0.6437909,0
0.052228689,-2.5303891,-3.8904893,0.7771244,-0.025359631,-0.6288358,0
-4.0140982,1.9859303,-0.87703192,-0.7771244,0.025359631,0.6288358,0
-3.8804321,-0.94998962,-1.0601588,-0.7771244,0.025359631,0.6288358,0
0.91818857,1.118355,4.8503962,-0.7771244,0.025359631,0.6288358,0
0.87829036,0.83348107,-3.168889,0.7771244,-0.025359631,-0.6288358,0
-0.78850031,-3.8237014,-2.727778,-0.36927235,-0.82748091,-0.4229815,0
-0.60958743,2.9997838,-3.832341,-0.45317134,0.67079359,-0.58708739,0
3.2153823,-0.38136289,3.0574043,0.62263709,-0.1145363,0.77408302,0
2.0022197,1.5430785,3.8095636,0.59429216,0.35838991,0.71998167,0
2.3560102,-4.4606314,-0.1935339,0.17418191,-0.95149016,0.25362802,0
1.6232255,-3.2353971,3.1046407,0.43507826,-0.70031649,0.56591833,0
2.3571944,-0.85128367,3.5106471,0.60996705,-0.21570024,0.76250482,0
-0.46741462,3.3521824,3.491941,-0.7771244,0.025359631,0.6288358,0
-2.7149935,-0.3097617,-3.488158,-0.6281653,-0.092459783,-0.77256697,0
1.6736417,4.2657442,0.89064837,0.23575491,0.93816292,0.25351518,0
-2.8338127,0.47043121,0.19748361,-0.7771244,0.025359631,0.6288358,0
-0.50494099,3.338711,2.9531295,-0.7771244,0.025359631,0.6288358,0
2.147934,0.64753497,4.0323648,0.62765485,0.10445119,0.77145261,0
-0.18640649,2.2626696,3.4720826,-0.7771244,0.025359631,0.6288358,0
-0.14082739,-1.7105906,4.1383734,-0.7771244,0.025359631,0.6288358,0
-0.75832891,-4.4191761,0.30646539,-0.043590128,-0.99895716,-0.013583481,0
1.2310033,0.67105043,-2.177932,0.7771244,-0.025359631,-0.6288358,0
-2.7800808,2.1304741,-2.8842008,-0.55903947,0.43110371,-0.70825452,0
-0.37703943,4.5588789,-0.87661672,-0.12395778,0.97344697,-0.19244593,0
-3.9329195,1.7531359,-2.2307963,-0.57979572,0.35976955,-0.73102868,0
2.2210684,-2.4056571,3.1723599,0.53866851,-0.4898915,0.68545061,0
-0.93345821,3.9412947,-1.8593628,-0.26811236,0.89064002,-0.36725473,0
-0.20287275,2.7191074,3.4427104,-0.7771244,0.025359631,0.6288358,0
-3.8599026,2.1580417,-2.0627291,-0.56164259,0.42289126,-0.71114039,0
-0.70404673,-0.89654469,-4.8486562,0.7771244,-0.025359631,-0.6288358,0
3.0415807,2.9658535,2.0183094,0.49797499,0.63576519,0.58976561,0
0.78292608,4.2248859,-1.8019247,-0.11071795,0.978095,-0.17627144,0
-1.9901096,-1.3478614,1.3739357,-0.7771244,0.025359631,0.6288358,0
-0.15843439,-1.316196,-3.9771247,0.7771244,-0.025359631,-0.6288358,0
3.8155575,-1.4635394,1.019177,0.7771244,-0.025359631,-0.6288358,0
2.0063431,-0.0027246475,-1.2821245,0.7771244,-0.025359631,-0.6288358,0
2.4251986,1.4493175,3.333169,0.60614341,0.29897511,0.73702377,0
2.1243401,-1.570685,4.0262537,0.58755279,-0.328814,0.73936665,0
-1.0611525,0.0085549355,-4.9910622,0.7771244,-0.025359631,-0.6288358,0
1.1048348,-2.6947634,3.3486609,0.48289311,-0.61674935,0.62163848,0
0.17799041,-1.8395722,4.1356096,-0.7771244,0.025359631,0.6288358,0
2.0821898,-3.273139,2.3072646,0.4154014,-0.72994125,0.54279602,0
0.58482766,4.5645871,-0.62524295,0.040146947,0.99915028,0.0093204379,0
3.6879079,-0.86822748,2.4621892,0.61057913,-0.21181276,0.76310444,0
-3.8595054,1.1545731,-2.3806188,-0.60768539,0.2296557,-0.76024783,0
3.3653002,2.4512341,-0.13027239,0.7771244,-0.025359631,-0.6288358,0
1.6571312,4.2857981,-2.2376161,0.7771244,-0.025359631,-0.6288358,0
-2.9302111,-3.250998,0.42251873,-0.7771244,0.025359631,0.6288358,0
-0.15403119,-1.3989803,4.0815039,-0.7771244,0.025359631,0.6288358,0
-0.99318767,3.1878138,2.401756,-0.7771244,0.025359631,0.6288358,0
1.5787452,-1.9760435,3.9827003,0.56426662,-0.41442445,0.71404171,0
-1.8141907,0.63041186,1.4068142,-0.7771244,0.025359631,0.6288358,0
3.7979622,-2.7294788,0.81749296,0.7771244,-0.025359631,-0.6288358,0
-2.1196754,2.0468199,1.2044473,-0.7771244,0.025359631,0.6288358,0
1.6776638,-4.1240077,1.440443,0.29895502,-0.8643831,0.40431166,0
4.1819143,0.19376278,0.95987731,0.7771244,-0.025359631,-0.6288358,0
-0.15743625,2.635448,-4.4811525,0.7771244,-0.025359631,-0.6288358,0
-0.49279284,-3.349535,-3.3924782,-0.45561302,-0.71196651,-0.53434104,0
1.6490542,-0.71539974,-1.6460158,0.7771244,-0.025359631,-0.6288358,0
1.6945423,-1.235348,-2.0169411,0.7771244,-0.025359631,-0.6288358,0
-3.2997456,-0.033722758,-0.14673305,-0.7771244,0.025359631,0.6288358,0
3.8838263,-2.3475127,0.84813523,0.7771244,-0.025359631,-0.6288358,0
4.3218994,2.8266358,0.99476027,0.7771244,-0.025359631,-0.6288358,0
1.1883903,-1.8692989,4.0941443,0.55542761,-0.44220802,0.70423877,0
0.45727777,-4.2406287,-1.8575333,-0.1899597,-0.96203732,-0.19595808,0
0.25820792,3.0140004,-3.8668969,0.7771244,-0.025359631,-0.6288358,0
2.9585347,3.6549945,-0.32176018,0.7771244,-0.025359631,-0.6288358,0
3.6062019,-1.9732474,0.69394773,0.7771244,-0.025359631,-0.6288358,0
1.2073903,4.4410233,0.76800752,0.21826667,0.94803226,0.23150504,0
2.9431839,-0.73626542,-0.21073718,0.7771244,-0.025359631,-0.6288358,0
-0.48434961,2.1764314,3.1399693,-0.7771244,0.025359631,0.6288358,0
3.470108,3.4761295,1.2792881,0.44590604,0.72730267,0.52172643,0
0.92455399,-1.291877,-2.9069169,0.7771244,-0.025359631,-0.6288358,0
-2.6192386,-3.0669031,-2.2895107,-0.46326572,-0.6993677,-0.54430658,0
-0.88474393,-2.0937173,-4.288774,-0.55936885,-0.48573923,-0.67168725,0
2.9463401,3.0635946,-0.59116793,0.7771244,-0.025359631,-0.6288358,0
1.6941094,-1.796682,4.293787,0.57209569,-0.38792515,0.72264826,0
1.7882953,-0.28023148,4.0099421,0.62488014,-0.087742887,0.77577442,0
1.8568611,0.70564842,-2.0095792,0.7771244,-0.025359631,-0.6288358,0
3.9307661,2.4201796,1.5019071,0.53294027,0.55797338,0.63611341,0
-1.4242444,-3.4022064,-2.8780837,-0.45311838,-0.71597517,-0.53109646,0
-1.4744736,4.3950496,0.21620107,-0.096859366,0.98246384,-0.15932083,0
-2.0703049,3.4202828,-1.7542627,-0.36148229,0.79993993,-0.47898489,0
2.3513827,-3.6931028,1.6161582,0.38297227,-0.77383614,0.50448978,0
4.4014449,-1.3550702,1.7231451,0.7771244,-0.025359631,-0.6288358,0
1.1499614,2.7140272,-2.8277116,0.7771244,-0.025359631,-0.6288358,0
-0.22533011,4.3069515,-1.3037264,-0.13342664,0.96983522,-0.20400196,0
1.8106775,4.2618637,0.63877821,0.23883539,0.93632513,0.25739616,0
-3.1504345,1.3276775,-2.8720076,-0.59206951,0.30931613,-0.74416214,0
0.6633451,-1.8261509,-3.2207222,0.7771244,-0.025359631,-0.6288358,0
-1.6672411,-4.1994104,-0.096211672,-0.16781551,-0.97136056,-0.16821593,0
2.3448694,4.3213844,-0.1291821,0.20725513,0.95376468,0.21766549,0
1.4149857,4.082099,2.0161309,0.34761411,0.85023743,0.39529824,0
3.2897091,-2.696418,2.1668468,0.48781788,-0.60703158,0.62733269,0
0.91224974,-0.42652178,4.9310422,0.6260795,-0.070534185,0.77656257,0
-3.5240307,-3.5546947,-0.81902957,-0.40522903,-0.78466117,-0.4691442,0
4.7155972,0.7755602,2.1183631,0.62142384,0.18897006,0.76034385,0
3.2639794,3.6215749,0.36258078,0.34265769,0.85515159,0.38897493,0
1.9857136,1.9176617,3.6171794,0.57892078,0.4206976,0.69847286,0
-2.9911199,2.743293,0.27630055,-0.7771244,0.025359631,0.6288358,0
-3.2373507,-2.7509975,-1.8835406,-0.4956795,-0.640338,-0.58674449,0
-2.9738955,4.0889196,0.092822075,-0.7771244,0.025359631,0.6288358,0
0.073474646,-4.3793268,1.0457184,0.082100034,-0.98656428,0.1412465,0
-3.0986948,3.3357327,0.21466541,-0.7771244,0.025359631,0.6288358,0
1.052829,3.075983,-2.6990609,0.7771244,-0.025359631,-0.6288358,0
0.038686275,-0.51858902,3.7989964,-0.7771244,0.025359631,0.6288358,0
-3.5188968,3.2066665,-0.55405784,-0.7771244,0.025359631,0.6288358,0
1.8639429,-4.3626423,-0.4359107,0.12640241,-0.97253752,0.19543034,0
0.47521433,-0.38970113,-3.2183521,0.7771244,-0.025359631,-0.6288358,0
3.8643072,-0.71732759,2.4298606,0.61884153,-0.15101348,0.77086323,0
-0.61748183,-3.9265673,2.8558955,0.25154066,-0.90339202,0.3472895,0
-0.59903717,-4.2706957,0.95104694,0.031735241,-0.99633747,0.079399109,0
1.2716463,-4.1281085,0.49415445,0.13846481,-0.96781498,0.21014667,0
-1.4335679,-0.70664227,2.0501568,-0.7771244,0.025359631,0.6288358,0
3.2357931,0.045971274,0.2602196,0.7771244,-0.025359631,-0.6288358,0
2.4196191,-1.129791,-0.69781137,0.7771244,-0.025359631,-0.6288358,0
-0.035359621,-3.5928698,-3.2715235,-0.39779013,-0.79407632,-0.45957136,0
-2.6460559,1.6318257,-3.073669,-0.58028245,0.35790956,-0.73155516,0
-2.6012106,-2.5445132,0.77881813,-0.7771244,0.025359631,0.6288358,0
1.2960929,1.3215015,4.7032108,0.61170185,0.26538074,0.7452476,0
-2.7956409,-2.8077233,0.60368276,-0.7771244,0.025359631,0.6288358,0
-1.5450789,3.2015018,-3.0632572,-0.42474288,0.71618092,-0.55378544,0
-0.74105597,-3.3561344,-3.1187065,-0.43724823,-0.74040878,-0.51049852,0
-1.1426078,0.74103045,2.600522,-0.7771244,0.025359631,0.6288358,0
-1.5370849,-2.042464,1.9620094,-0.7771244,0.025359631,0.6288358,0
3.051708,4.2100992,0.21137357,0.29546422,0.89692861,0.32896778,0
-3.1231925,3.8411412,-0.50619817,-0.29241699,0.87023312,-0.3964678,0
-3.1833401,2.6209412,-0.15721464,-0.7771244,0.025359631,0.6288358,0
-1.1578596,-3.4531348,-2.8695526,-0.43533516,-0.74323505,-0.5080204,0
-3.5772176,3.297554,-0.5166651,-0.7771244,0.025359631,0.6288358,0
2.7196405,0.14535141,-0.82858652,0.7771244,-0.025359631,-0.6288358,0
-0.88810682,3.8504686,2.4410527,-0.7771244,0.025359631,0.6288358,0
-0.88531178,-2.1683395,2.8683019,-0.7771244,0.025359631,0.6288358,0
-2.2902012,-3.9881289,-1.4588573,-0.36484766,-0.83230466,-0.41731906,0
-0.48705602,2.1976175,3.2652602,-0.7771244,0.025359631,0.6288358,0
-4.3334746,2.1270366,-1.6430295,-0.55688864,0.43775564,-0.70586473,0
0.012604952,4.2707114,-1.5045142,-0.13041398,0.97101057,-0.20032626,0
-0.67957485,-0.4826932,-4.9011226,0.7771244,-0.025359631,-0.6288358,0
2.2537334,-3.7169263,-1.1097755,0.7771244,-0.025359631,-0.6288358,0
1.1168627,0.58596468,5.0048475,0.62898886,0.064998299,0.7746923,0
3.9521255,1.2212894,0.65356421,0.7771244,-0.025359631,-0.6288358,0
2.3158343,-1.1543446,-0.85171533,0.7771244,-0.025359631,-0.6288358,0
-3.2451699,-1.5221221,-2.9571888,-0.60478806,-0.30649567,-0.73504549,0
-1.2990272,4.7402906,1.57493,0.06887728,0.99661291,0.044928133,0
-1.8962524,-3.8395739,-1.925071,-0.3816306,-0.81350935,-0.43881744,0
0.83138549,-4.4980388,0.19362545,0.052563846,-0.99308127,0.10500795,0
-4.2716641,-2.2183404,-1.6712885,-0.56193733,-0.4778704,-0.67517871,0
-1.5098195,0.22675204,-4.5700979,-0.6244601,0.093205743,-0.77547556,0
2.3075931,0.63819432,-0.98980027,0.7771244,-0.025359631,-0.6288358,0
-0.56300044,4.3171325,2.9694796,0.27585804,0.91181272,0.30413795,0
-2.8726385,-0.23322862,-3.190675,-0.62930346,-0.043068692,-0.77596545,0
3.4597359,-1.2300308,2.8811154,0.60152787,-0.26385909,0.75401765,0
0.66070843,2.964577,-3.3002317,0.7771244,-0.025359631,-0.6288358,0
0.44019285,-1.4259691,4.8769522,-0.7771244,0.025359631,0.6288358,0
-3.61919,-3.1350918,-1.2409625,-0.4599669,-0.7048555,-0.54000843,0
-0.24056748,-0.74206185,3.9227438,-0.7771244,0.025359631,0.6288358,0
-0.63559723,4.5791993,-0.72814941,-0.11448279,0.97682071,-0.18087262,0
-1.5455085,-0.36971664,-4.7508001,-0.62891465,-0.068321303,-0.77446651,0
0.27181017,2.2091966,-3.8387427,0.7771244,-0.025359631,-0.6288358,0
-0.26355535,-1.4725851,3.6375983,-0.7771244,0.025359631,0.6288358,0
1.8526241,-4.0404472,-1.6397794,0.7771244,-0.025359631,-0.6288358,0
1.8761597,0.55239427,-1.4438598,0.7771244,-0.025359631,-0.6288358,0
-2.5794563,3.9809968,-0.32672191,-0.27393979,0.88593537,-0.37426662,0
-4.0055356,1.0764856,-2.2119641,-0.60549277,0.24235882,-0.75805056,0
-3.2184994,3.8926873,-0.79615879,-0.34979454,0.81323248,-0.46507704,0
0.77171493,1.9421837,4.640852,-0.7771244,0.025359631,0.6288358,0
-1.312824,3.9564428,-1.2882404,-0.25120553,0.90364063,-0.34688538,0
1.6996812,-2.2480254,-2.0969074,0.7771244,-0.025359631,-0.6288358,0
-0.27395904,0.86449122,3.4855776,-0.7771244,0.025359631,0.6288358,0
-0.63612509,-4.6053147,0.81835699,0.0043256283,-0.99894893,0.045631111,0
3.8167415,2.1416841,2.2633209,0.56893909,0.45546222,0.68473536,0
-0.164213,0.85325861,-3.936121,0.7771244,-0.025359631,-0.6288358,0
0.14858663,1.5294969,3.8725536,-0.7771244,0.025359631,0.6288358,0
1.5563278,0.71857119,4.3484569,0.62502885,0.14794676,0.76645327,0
-2.4236026,0.55271584,-3.7476246,-0.62356603,0.10409243,-0.77480972,0
3.1956441,-4.2689795,0.047458172,0.2730087,-0.88669491,0.37314665,0
-3.3937728,2.5166829,-0.51339722,-0.7771244,0.025359631,0.6288358,0
1.5210372,-1.4342209,4.5285807,0.59149826,-0.31185031,0.74355841,0
1.3596952,4.5315332,-1.5833855,-0.0037826896,0.99898154,-0.044961512,0
-3.4679637,-0.39222056,-2.8561375,-0.62658632,-0.12466426,-0.76931691,0
-3.0534992,-3.5683613,-0.85334969,-0.38123363,-0.81396973,-0.4383083,0
-1.8608692,2.7003512,-3.1519148,-0.4850412,0.61253989,-0.62412333,0
2.4073822,3.1452258,-1.1227977,0.7771244,-0.025359631,-0.6288358,0
-0.42656505,1.0411451,3.588932,-0.7771244,0.025359631,0.6288358,0
0.043435097,4.6817288,0.1802268,0.043583751,0.99895751,0.013575554,0
1.3798182,-2.1586637,-2.1203535,0.7771244,-0.025359631,-0.6288358,0
0.24889278,-3.0888028,-3.2707338,0.7771244,-0.025359631,-0.6288358,0
0.70272613,3.4795446,-3.1168272,0.7771244,-0.025359631,-0.6288358,0
2.2270389,3.2520187,1.8456959,0.42958313,0.75158697,0.50057507,0
-0.23543167,-1.0225606,-4.5387673,0.7771244,-0.025359631,-0.6288358,0
-1.0357451,-4.2775583,1.9397569,0.094453186,-0.98317093,0.15637589,0
1.6812106,0.96283984,4.4328303,0.62067181,0.19621393,0.75912225,0
-0.87273932,-0.89911318,2.6873713,-0.7771244,0.025359631,0.6288358,0
-3.5492237,-2.4792814,-1.5871872,-0.50777966,-0.61556154,-0.60269707,0
1.9322695,-4.1709766,0.42983484,0.18339756,-0.94669616,0.26482368,0
-1.8176589,1.9717009,1.6400609,-0.7771244,0.025359631,0.6288358,0
1.8501081,3.2880502,2.1678741,0.43784207,0.73952639,0.51126802,0
-0.50000381,-4.089798,2.8312061,0.22415787,-0.92250681,0.31422031,0
2.6950121,2.3473978,2.5121548,0.55235565,0.50636935,0.66218823,0
-3.0604906,3.375566,-1.2887433,-0.38523841,0.77095127,-0.50717407,0
-1.9977973,4.6052122,0.17668629,-0.13624266,0.96871448,-0.20743686,0
-1.7843087,-1.8489649,-4.008112,-0.59304488,-0.36395594,-0.71821582,0
1.1533368,-1.6303258,-2.7467632,0.7771244,-0.025359631,-0.6288358,0
-2.9838829,1.1665151,0.20792849,-0.7771244,0.025359631,0.6288358,0
-3.7022386,3.2881875,-0.6714797,-0.41742602,0.72700387,-0.54517961,0
2.2410054,0.076052666,3.9949665,0.62909746,0.059434816,0.77505088,0
1.5755965,-0.059399128,-1.7298367,0.7771244,-0.025359631,-0.6288358,0
3.7453871,0.55932641,2.7483637,0.62574553,0.13787697,0.76774514,0
-3.0484123,0.22715738,-3.1298506,-0.62732196,0.048878461,-0.77722466,0
3.8553171,2.4793248,1.3776292,0.53167343,0.56109917,0.63442183,0
0.54302716,-2.769002,3.7334189,0.46848935,-0.64387482,0.60493207,0
-2.0264852,4.3820076,1.00182,-0.040412843,0.99511486,-0.090073645,0
-1.6361063,-2.5336831,1.8517792,-0.7771244,0.025359631,0.6288358,0
-0.070356905,-0.0051820278,-3.9070876,0.7771244,-0.025359631,-0.6288358,0
0.33567023,-0.14230704,4.0955415,-0.7771244,0.025359631,0.6288358,0
-0.090803623,-3.1950114,-3.9821839,0.7771244,-0.025359631,-0.6288358,0
-0.93347442,4.4163704,-1.1079407,-0.19834644,0.93839794,-0.28296304,0
0.96894091,-1.3450587,-2.9501839,0.7771244,-0.025359631,-0.6288358,0
0.75369763,-4.4013577,0.99526763,0.16724837,-0.95493752,0.24519855,0
2.593828,2.3399484,3.0498648,0.54777825,0.51921618,0.65601343,0
-2.1840358,1.0017593,-3.9694779,-0.60254037,0.25853127,-0.75505412,0
-3.3763361,2.853456,-0.20226943,-0.7771244,0.025359631,0.6288358,0
2.8906875,-2.0449891,3.0586758,0.55734575,-0.43635178,0.70637298,0
1.3954792,0.74563265,-2.4587979,0.7771244,-0.025359631,-0.6288358,0
-2.0051832,4.3375154,0.91113377,-0.04700011,0.99405903,-0.098171711,0
0.44894731,-2.4453359,4.1565084,0.49959055,-0.58279598,0.64090413,0
1.8124049,3.9279726,1.1169605,0.2840426,0.90576589,0.31449625,0
-3.6571448,1.5836809,-2.3528745,-0.57611907,0.37349916,-0.72703868,0
1.6921786,0.51770091,-2.0128477,0.7771244,-0.025359631,-0.6288358,0
1.8234217,-1.4188142,-1.3605092,0.7771244,-0.025359631,-0.6288358,0
-2.4917128,3.390065,0.5983274,-0.7771244,0.025359631,0.6288358,0
-0.37427258,-3.3440876,-3.7742839,-0.46391356,-0.69827986,-0.54515088,0
2.9096918,0.66560006,-0.51078856,0.7771244,-0.025359631,-0.6288358,0
0.71101379,1.5008968,-3.1231804,0.7771244,-0.025359631,-0.6288358,0
-0.64020801,1.9994477,-4.5784035,-0.56027263,0.42723596,-0.70962244,0
-3.6937902,-2.3644009,-1.7672085,-0.55196512,-0.50748348,-0.66166079,0
2.2211683,-2.7906375,-1.4166642,0.7771244,-0.025359631,-0.6288358,0
4.0304489,-1.3026347,0.75567198,0.7771244,-0.025359631,-0.6288358,0
-0.19282921,2.0877681,-4.4362922,0.7771244,-0.025359631,-0.6288358,0
-4.5886087,-1.0553095,-1.7451514,-0.7771244,0.025359631,0.6288358,0
2.5353508,0.21908605,3.735368,0.62934685,0.030684605,0.77651852,0
1.0597939,-1.3367878,4.8584642,0.59376103,-0.30168554,0.7459448,0
4.2458129,-0.87571383,2.0505395,0.60971099,-0.2173074,0.76225322,0
-0.06632483,1.9527564,3.6632576,-0.7771244,0.025359631,0.6288358,0
3.2873564,3.0283098,-0.16415787,0.7771244,-0.025359631,-0.6288358,0
