1.763015,2.9794707,-3.4475212,0.60686332,-0.43143988,-0.66751516,0
-3.7399845,-1.5488169,-1.7923446,-0.79396951,-0.36759883,-0.48423487,0
2.1417167,-3.9040155,1.2066474,0.60686332,-0.43143988,-0.66751516,0
4.5102878,-0.029635966,1.1089761,0.60686332,-0.43143988,-0.66751516,0
-0.82303834,3.1327322,0.21739411,-0.60686332,0.43143988,0.66751516,0
-1.5053245,2.3719859,0.21441269,-0.60686332,0.43143988,0.66751516,0
0.27603102,3.0786798,1.1781445,-0.60686332,0.43143988,0.66751516,0
-0.54071343,-2.4248075,3.9060922,-0.60686332,0.43143988,0.66751516,0
-1.3225837,-3.6606007,-1.734678,0.60686332,-0.43143988,-0.66751516,0
4.2145162,2.0728705,0.80174327,0.76773584,0.53552115,0.35185039,0
-0.4847666,-2.6823616,4.1540508,0.11843789,-0.78138101,0.61271209,0
1.6006974,-1.0551996,-0.73312998,0.60686332,-0.43143988,-0.66751516,0
-3.2352188,2.8597682,-2.05932,-0.60686332,0.43143988,0.66751516,0
-2.5019879,-3.4297681,2.1961482,-0.3540619,-0.89865863,0.25894544,0
-3.3803005,-2.1094849,1.3979504,-0.60686332,0.43143988,0.66751516,0
3.2952406,-0.25937939,3.2129703,0.73359841,-0.019140959,0.67931354,0
1.8475831,2.1857615,-2.8975616,0.60686332,-0.43143988,-0.66751516,0
-1.5264668,2.8435178,-3.2172027,-0.34193671,0.61643094,-0.70928979,0
-4.3122282,-1.3913752,-1.3292208,-0.79253888,-0.39187086,-0.46724641,0
-1.8911548,-3.1940873,2.5638652,-0.21941626,-0.89815021,0.38102835,0
2.1482041,-0.18319273,4.2911463,0.66280377,-0.18879116,0.72460276,0
0.57439756,5.0276155,0.020098448,0.37388104,0.89608377,-0.23926285,0
0.27241659,2.6350837,1.8168998,-0.60686332,0.43143988,0.66751516,0
2.5014479,1.0477977,-1.5736464,0.60686332,-0.43143988,-0.66751516,0
3.3578486,2.2496388,-1.6775677,0.60686332,-0.43143988,-0.66751516,0
2.6774182,0.82471275,-1.2529646,0.60686332,-0.43143988,-0.66751516,0
-1.6227741,-0.67461979,2.0158505,-0.60686332,0.43143988,0.66751516,0
2.1926274,3.0211573,2.753319,0.77113146,0.52306265,0.36298993,0
-0.48904294,-0.069233179,2.5134966,-0.60686332,0.43143988,0.66751516,0
-0.01650703,-0.043428183,3.2541366,-0.60686332,0.43143988,0.66751516,0
-0.32309204,-0.50529647,-3.1002476,0.60686332,-0.43143988,-0.66751516,0
-1.0736296,-3.3823109,-2.0765831,0.60686332,-0.43143988,-0.66751516,0
-1.578228,0.88404417,-4.4885306,-0.54398674,0.38685247,-0.74459612,0
-4.0252323,-0.22138268,-2.2217338,-0.77660972,-0.14319757,-0.6134913,0
-3.2339783,1.998816,-2.6205926,-0.59517992,0.3099305,-0.74142015,0
3.4357502,1.7655287,1.8873487,0.78999126,0.41972837,0.44692487,0
0.32817936,0.28935122,3.1567993,-0.60686332,0.43143988,0.66751516,0
0.88486457,0.18309879,3.7259929,-0.60686332,0.43143988,0.66751516,0
-1.0467969,-1.4622484,3.146874,-0.60686332,0.43143988,0.66751516,0
-1.0550091,-4.2701211,0.56987238,-0.38715792,-0.89393574,0.22580403,0
-1.4224772,-1.955165,2.9652185,-0.60686332,0.43143988,0.66751516,0
-3.429471,-2.3339241,-1.8853956,-0.77347672,-0.51383889,-0.3710838,0
0.85895473,-1.5397866,-0.97573811,0.60686332,-0.43143988,-0.66751516,0
-3.5984602,-2.7221477,-1.1364262,-0.74262047,-0.60709441,-0.28275669,0
2.046663,-3.3286252,2.4747996,0.32148975,-0.63482928,0.70259213,0
-1.05154,2.7068758,0.54288721,-0.60686332,0.43143988,0.66751516,0
-2.2219737,1.6506401,-3.7157269,-0.52517128,0.41272527,-0.74421275,0
-3.8667567,-2.600251,0.44775516,-0.6663273,-0.7339949,-0.13137521,0
1.8734099,0.56321096,-1.9561032,0.60686332,-0.43143988,-0.66751516,0
-2.2331696,-3.8093824,-1.5424737,-0.68666965,-0.70753467,-0.16697142,0
-2.9436889,-0.91063762,-3.2568645,-0.77416945,-0.1307295,-0.61933136,0
3.6140862,2.9267721,0.45783824,0.71204317,0.66827464,0.21541458,0
1.1702294,-3.9626679,2.2378039,0.15358588,-0.76036102,0.63108027,0
2.7224278,-3.1645947,2.5951257,0.42686066,-0.53152686,0.73162079,0
-4.637814,0.079031765,-1.4542136,-0.77597314,-0.13987201,-0.61506212,0
-0.81281257,4.8899398,-0.68618774,-0.60686332,0.43143988,0.66751516,0
3.5985851,0.91269428,-0.59183884,0.60686332,-0.43143988,-0.66751516,0
0.93391335,0.5308001,-2.7146783,0.60686332,-0.43143988,-0.66751516,0
2.7303991,3.6240444,0.32614249,0.62645483,0.77651709,0.067641966,0
-0.96129668,1.1802046,1.218924,-0.60686332,0.43143988,0.66751516,0
0.729954,5.0429397,0.44475412,0.4159193,0.88806009,-0.19585824,0
1.2777225,-3.0586388,2.7809525,0.26953509,-0.67836654,0.68349802,0
-0.94768757,-1.3195858,2.8735149,-0.60686332,0.43143988,0.66751516,0
-4.4257455,-0.97707444,-1.2892642,-0.79473704,-0.3404687,-0.50246793,0
3.1931741,3.4905536,-0.34902832,0.57492757,0.8181814,-0.0061326325,0
1.996932,-2.5868864,0.74289727,0.60686332,-0.43143988,-0.66751516,0
-0.79137582,-1.7754432,3.2693446,-0.60686332,0.43143988,0.66751516,0
0.53916943,-0.024273157,-2.6591451,0.60686332,-0.43143988,-0.66751516,0
1.8558292,-0.8630718,-0.55436373,0.60686332,-0.43143988,-0.66751516,0
4.2247982,-0.20360973,2.1778846,0.76384854,0.084477186,0.63984287,0
-0.91223443,-0.0035207272,-3.6446424,0.60686332,-0.43143988,-0.66751516,0
-3.3137879,-1.1445318,0.42764866,-0.60686332,0.43143988,0.66751516,0
3.2031846,1.2101357,-0.8215878,0.60686332,-0.43143988,-0.66751516,0
-0.89123517,-1.6912937,3.2559669,-0.60686332,0.43143988,0.66751516,0
0.097835481,0.21982026,3.0402908,-0.60686332,0.43143988,0.66751516,0
-1.6067736,3.655303,-2.4957714,-0.21909782,0.71649778,-0.66228932,0
1.6711528,3.4224691,-2.6056917,0.17907351,0.89247251,-0.41403568,0
-4.4702964,-0.76001418,-1.110873,-0.79442674,-0.35520953,-0.4926582,0
-2.3801017,-2.3932295,-3.4274302,0.60686332,-0.43143988,-0.66751516,0
3.622952,1.4934196,-0.50622016,0.60686332,-0.43143988,-0.66751516,0
-4.5006256,-2.0481195,-0.2434864,-0.74939054,-0.59042573,-0.29968521,0
1.2518864,-2.8641522,-0.10515165,0.60686332,-0.43143988,-0.66751516,0
-0.725811,-2.8475094,4.1597528,0.10194758,-0.79065526,0.60371417,0
1.9199886,0.13011789,-1.0928777,0.60686332,-0.43143988,-0.66751516,0
-1.2129374,-4.44204,-1.4081334,-0.58005518,-0.81457675,-0.00085885823,0
-2.307066,-1.169416,-3.9949374,-0.77347761,-0.12732449,-0.62090319,0
-1.6328368,-1.7372918,-3.3342881,0.60686332,-0.43143988,-0.66751516,0
-0.23786986,-1.3874445,-2.437901,0.60686332,-0.43143988,-0.66751516,0
-0.45877016,1.4472156,-4.546176,0.60686332,-0.43143988,-0.66751516,0
3.1488464,1.0638292,-0.85956967,0.60686332,-0.43143988,-0.66751516,0
1.3518252,4.5294285,1.1383584,0.56013477,0.82799578,-0.025924742,0
3.9461129,1.6092821,1.0449305,0.78177881,0.47545519,0.40344039,0
2.500005,-0.43881273,-0.49947643,0.60686332,-0.43143988,-0.66751516,0
-0.76088142,1.2862787,1.3460877,-0.60686332,0.43143988,0.66751516,0
-1.708329,-4.0523582,-2.124867,0.60686332,-0.43143988,-0.66751516,0
2.5415211,0.21737456,3.6378844,0.73119551,-0.026160419,0.68166602,0
1.2409148,-3.0416906,0.33890271,0.60686332,-0.43143988,-0.66751516,0
1.6331236,2.4541707,-3.2527685,0.60686332,-0.43143988,-0.66751516,0
-0.4858439,4.2149081,-1.3278027,0.054337859,0.8604027,-0.50670969,0
-3.5814915,2.624685,-2.1599517,-0.53801417,0.39519191,-0.74455631,0
-2.3681152,-3.3396509,-3.0036807,-0.76910067,-0.53062999,-0.35625264,0
-3.4949789,0.63414961,-0.65707493,-0.60686332,0.43143988,0.66751516,0
1.8805625,-0.23782289,-0.86093736,0.60686332,-0.43143988,-0.66751516,0
1.0931025,4.0100245,-1.9190419,0.19256103,0.89463544,-0.40317172,0
1.1216805,-1.5884621,4.3608761,0.46350786,-0.49014077,0.73818874,0
-1.3879774,-4.0840306,1.5677335,-0.26896077,-0.90177315,0.33832711,0
2.5081587,-0.64434278,-0.28696418,0.60686332,-0.43143988,-0.66751516,0
-0.14136243,2.9912598,1.0005023,-0.60686332,0.43143988,0.66751516,0
-2.6964979,-0.22232223,-3.3915739,-0.73903453,0.0027503371,-0.67366189,0
-2.9934626,1.9169463,-3.0961194,-0.54459143,0.3860015,-0.74459577,0
-0.76424468,2.178196,-3.907974,-0.36208525,0.59756178,-0.71541178,0
3.7551763,1.6886355,-0.51464605,0.60686332,-0.43143988,-0.66751516,0
-4.3882442,-2.0568275,0.012799144,-0.74387431,-0.60411704,-0.2858209,0
-1.8444767,-0.70088243,-4.1398258,0.60686332,-0.43143988,-0.66751516,0
-2.747169,-3.510814,1.0383219,-0.48140156,-0.86779457,0.12322754,0
-0.80351615,4.6392155,-1.1293097,0.05681926,0.8612473,-0.50499958,0
4.1382074,-1.5682273,1.7806783,0.60686332,-0.43143988,-0.66751516,0
2.9640958,-0.38803148,3.583003,0.70765871,-0.089055747,0.70091927,0
-2.7555189,-3.3260193,-2.4061484,-0.75241601,-0.58246315,-0.30758229,0
-2.0979981,-0.72919226,-4.4553938,-0.72171074,0.052684903,-0.69018686,0
0.3768546,2.1813254,-3.8702908,0.60686332,-0.43143988,-0.66751516,0
0.41712344,-3.0331402,3.3197417,0.18217367,-0.74198341,0.64519244,0
-1.7981834,-2.9229374,3.3112311,-0.60686332,0.43143988,0.66751516,0
-0.87626368,-0.81545925,2.4746294,-0.60686332,0.43143988,0.66751516,0
-3.7565327,-1.3215357,-2.32582,-0.79477018,-0.32140762,-0.51481795,0
2.0346813,1.0581917,-1.7397722,0.60686332,-0.43143988,-0.66751516,0
1.14193,0.89327502,3.5535955,-0.60686332,0.43143988,0.66751516,0
-4.6129866,-0.7434299,-1.2631428,-0.79447609,-0.30508178,-0.5251025,0
0.021439359,-1.2121346,3.9433887,-0.60686332,0.43143988,0.66751516,0
0.1392324,-1.4312515,-1.6528575,0.60686332,-0.43143988,-0.66751516,0
2.7802415,2.3909752,3.0316093,0.79060662,0.41390052,0.45125109,0
-0.23257256,-4.8893304,-0.075123787,-0.34100413,-0.89995539,0.27165484,0
-3.9409647,0.087113857,-2.4482765,-0.75067466,-0.035169721,-0.6597352,0
-1.0893946,-0.97929716,-3.0553503,0.60686332,-0.43143988,-0.66751516,0
-0.46637964,4.5419273,-0.6596148,-0.60686332,0.43143988,0.66751516,0
-1.8163471,-3.968997,1.5191994,-0.3495506,-0.89914191,0.26335922,0
3.8312488,0.075317621,2.524915,0.77095473,0.11533293,0.62636012,0
2.7316906,-0.82736552,0.038208723,0.60686332,-0.43143988,-0.66751516,0
-1.5283327,-3.1956248,-2.4773748,0.60686332,-0.43143988,-0.66751516,0
2.4929974,1.9339285,-1.9435558,0.60686332,-0.43143988,-0.66751516,0
-0.76780397,1.7250051,-4.362998,-0.39926806,0.56070405,-0.72539365,0
-2.8643107,-3.2384448,0.49378133,-0.59073448,-0.80671424,-0.015649676,0
1.4546876,1.2208513,-2.1976221,0.60686332,-0.43143988,-0.66751516,0
0.28835893,-2.4710093,-0.93029016,0.60686332,-0.43143988,-0.66751516,0
-1.7601906,-3.3427706,3.3032932,-0.60686332,0.43143988,0.66751516,0
0.88523525,0.83456898,-2.9703627,0.60686332,-0.43143988,-0.66751516,0
2.2632399,-3.8866529,1.8178148,0.60686332,-0.43143988,-0.66751516,0
1.765753,4.1835103,-0.44987512,0.4495405,0.87892491,-0.15938753,0
3.3842273,2.3046575,1.5731664,0.76280981,0.55205381,0.3366864,0
-3.0944653,2.5002446,-1.3442001,-0.60686332,0.43143988,0.66751516,0
0.61620283,-2.6649148,3.5391459,0.24691838,-0.69595122,0.67430192,0
1.2423294,-1.15264,-1.1455427,0.60686332,-0.43143988,-0.66751516,0
1.3903631,1.4746486,-2.6652164,0.60686332,-0.43143988,-0.66751516,0
1.6024647,-0.63897705,-1.3186488,0.60686332,-0.43143988,-0.66751516,0
0.43012166,-4.1680727,1.3567524,-0.054103792,-0.86032254,0.50687057,0
2.986496,3.2824175,0.79790151,0.6778686,0.71945274,0.15126699,0
0.21911836,-3.3423662,-0.44522035,0.60686332,-0.43143988,-0.66751516,0
-2.0794473,0.04523921,-4.4169378,-0.65883231,0.19671652,-0.72611451,0
-2.0093427,-0.42570078,1.2775574,-0.60686332,0.43143988,0.66751516,0
-0.99406803,1.0301583,-4.3198633,0.60686332,-0.43143988,-0.66751516,0
-3.2380481,-2.5798469,-1.4502714,-0.75722724,-0.56903368,-0.32063627,0
1.0033462,2.7817872,2.3234899,-0.60686332,0.43143988,0.66751516,0
2.2841334,2.0656309,3.5292029,-0.60686332,0.43143988,0.66751516,0
2.1457756,3.8801615,-1.0603698,0.4369843,0.88263583,-0.17320132,0
-3.2993178,-3.1663129,-0.34360489,-0.6642198,-0.73652804,-0.12782191,0
-2.588866,-3.3017969,-1.5112358,-0.71445024,-0.66409951,-0.22030146,0
0.27932882,1.6311553,2.1761749,-0.60686332,0.43143988,0.66751516,0
-3.5975652,-0.49908721,0.19026017,-0.60686332,0.43143988,0.66751516,0
1.8627043,4.2121062,1.8643556,0.66475844,0.73588401,0.12872784,0
1.4400846,-0.28730631,4.4040747,-0.60686332,0.43143988,0.66751516,0
1.69526,4.158977,-0.40084445,0.43702865,0.88262331,-0.17315304,0
-2.8949027,0.16864729,0.40193462,-0.60686332,0.43143988,0.66751516,0
-3.4128084,1.7284858,-2.5224853,-0.62925673,0.25225329,-0.73512167,0
3.7439075,0.34981084,-0.047606945,0.60686332,-0.43143988,-0.66751516,0
1.1316011,1.9061917,-3.0553174,0.60686332,-0.43143988,-0.66751516,0
-1.3588594,3.005569,-0.22749448,-0.60686332,0.43143988,0.66751516,0
-1.0249501,-7.7009201e-05,1.9275364,-0.60686332,0.43143988,0.66751516,0
3.0252676,0.83778304,-0.70014954,0.60686332,-0.43143988,-0.66751516,0
-2.9612985,-1.6707802,-3.4169238,-0.7922501,-0.26105964,-0.55153197,0
1.844155,-3.3580508,2.4441552,0.31001881,-0.644831,0.69862807,0
0.95690858,2.0329919,2.4949377,-0.60686332,0.43143988,0.66751516,0
3.2677739,3.1113873,0.0031919777,0.62637228,0.77659464,0.067516796,0
-0.088132858,1.7018933,2.0036223,-0.60686332,0.43143988,0.66751516,0
-0.75101507,-2.1703691,3.6858361,-0.60686332,0.43143988,0.66751516,0
1.3644156,1.2952211,-2.5078812,0.60686332,-0.43143988,-0.66751516,0
3.4407735,-0.79213071,0.85680079,0.60686332,-0.43143988,-0.66751516,0
-0.99715692,-0.83523583,2.6309357,-0.60686332,0.43143988,0.66751516,0
-1.9120939,-0.020902395,1.3729463,-0.60686332,0.43143988,0.66751516,0
-2.1756444,1.7420435,-3.4792533,-0.52854216,0.40817484,-0.74433625,0
-4.2749,-1.9351212,-0.44790912,-0.75531399,-0.57449484,-0.31536725,0
-2.3435884,-0.93639588,1.2671019,-0.60686332,0.43143988,0.66751516,0
2.8247652,-0.18337178,-0.49339938,0.60686332,-0.43143988,-0.66751516,0
-2.5323377,-1.7335951,-3.8848627,-0.7823655,-0.17625055,-0.59736085,0
-1.1779225,1.7521615,0.69473779,-0.60686332,0.43143988,0.66751516,0
0.5551641,3.290858,-3.2559128,0.014956176,0.8458966,-0.53313708,0
-0.69391435,1.4178104,-4.5934267,0.60686332,-0.43143988,-0.66751516,0
-2.3370583,0.16236901,-4.2450838,-0.6746918,0.16429952,-0.71958077,0
1.1793358,4.3641162,0.17699373,0.43457144,0.88330734,-0.17582902,0
1.0563073,0.43793774,-2.4737298,0.60686332,-0.43143988,-0.66751516,0
1.9049481,-2.685539,0.51682401,0.60686332,-0.43143988,-0.66751516,0
-2.3454385,-2.1592097,-3.4284039,-0.79476333,-0.32068044,-0.51528162,0
0.14185071,4.5693202,-1.2501447,0.18664002,0.89371836,-0.40796196,0
-2.3650172,-3.8139858,1.050182,-0.44117117,-0.88143897,0.16862139,0
-2.0129089,-1.9739926,-3.7490289,0.60686332,-0.43143988,-0.66751516,0
1.3401487,4.4738841,0.65824521,0.52994335,0.84555948,-0.064724877,0
2.1761158,-1.6817172,3.471601,0.51468259,-0.42665869,0.74368274,0
0.57204092,0.82670927,3.1618352,-0.60686332,0.43143988,0.66751516,0
3.776999,-1.7848123,1.6833262,0.60686332,-0.43143988,-0.66751516,0
2.0195057,-0.5058676,-0.69228572,0.60686332,-0.43143988,-0.66751516,0
-0.54997277,1.5070264,-4.5017133,-0.39939046,0.56057817,-0.72542346,0
1.843986,-2.3824754,3.1851454,0.4521094,-0.50335228,0.73636508,0
2.2999003,-2.2071972,0.68010545,0.60686332,-0.43143988,-0.66751516,0
2.5649652,1.6380959,3.7004001,0.78992712,0.23448345,0.56659728,0
1.3093555,4.4080844,-0.78194904,0.33991927,0.90004915,-0.2727018,0
2.3636703,-2.1417303,0.28012562,0.60686332,-0.43143988,-0.66751516,0
0.93354988,4.7882404,0.90165412,-0.60686332,0.43143988,0.66751516,0
-3.5101593,-2.1140494,1.28406,-0.60686332,0.43143988,0.66751516,0
1.0959952,-3.7184589,0.58980036,0.60686332,-0.43143988,-0.66751516,0
3.2426758,-2.2002892,1.335619,0.60686332,-0.43143988,-0.66751516,0
-3.2205207,1.9336493,-1.1258836,-0.60686332,0.43143988,0.66751516,0
-1.9423175,-3.5759747,1.545087,-0.3461864,-0.89947802,0.26663494,0
-0.75636148,3.6422081,-0.015523911,-0.60686332,0.43143988,0.66751516,0
-1.3418677,3.7121589,-0.77965212,-0.60686332,0.43143988,0.66751516,0
-0.41436887,-1.3236954,-2.6463454,0.60686332,-0.43143988,-0.66751516,0
-0.51178336,3.7917471,-2.4060855,-0.042467773,0.82104528,-0.5692811,0
-2.5409896,0.57246625,0.31339169,-0.60686332,0.43143988,0.66751516,0
-4.0263901,-2.0568066,-0.52450311,-0.74396694,-0.60389495,-0.28604877,0
2.7552176,3.6383178,0.064001292,0.6087544,0.79227972,0.041361779,0
2.2316842,3.8237557,-1.2439532,0.44284773,0.88094854,-0.16678017,0
0.8211298,3.9496334,-2.2499588,0.16091782,0.88914824,-0.42839307,0
1.3397152,2.7557645,-3.6899648,0.60686332,-0.43143988,-0.66751516,0
-1.9546933,-2.7991533,-2.9095526,0.60686332,-0.43143988,-0.66751516,0
-2.9728851,-2.9115684,-2.1187074,-0.77092159,-0.52386177,-0.36228269,0
4.4643154,0.16834879,1.8209352,0.78060091,0.16545859,0.60273176,0
-2.9816875,2.8245909,-2.4987683,-0.46922645,0.48339176,-0.73902559,0
1.2569757,1.4581032,3.0409474,-0.60686332,0.43143988,0.66751516,0
1.3374697,-0.87285972,-1.3289953,0.60686332,-0.43143988,-0.66751516,0
2.0634649,3.8316779,-0.59812653,0.48971805,0.86446023,-0.11351153,0
0.11520308,0.19233227,-3.1327252,0.60686332,-0.43143988,-0.66751516,0
-3.0828724,-2.2285259,1.839828,-0.60686332,0.43143988,0.66751516,0
0.39269906,-2.1111164,4.4977374,-0.60686332,0.43143988,0.66751516,0
2.0280418,-3.9791055,1.2499504,0.60686332,-0.43143988,-0.66751516,0
-1.3107264,-3.9414835,2.0664103,-0.22562367,-0.89881015,0.3758114,0
0.67057669,2.1944623,2.3033566,-0.60686332,0.43143988,0.66751516,0
1.0744687,-0.64822197,4.602787,-0.60686332,0.43143988,0.66751516,0
1.8101996,-0.011110067,4.4600258,0.6619755,-0.19045407,0.72492456,0
-2.0808311,-2.419415,2.8156738,-0.60686332,0.43143988,0.66751516,0
2.6169024,3.2849936,-2.6653008,0.60686332,-0.43143988,-0.66751516,0
-2.2578778,-0.0098325014,0.8976599,-0.60686332,0.43143988,0.66751516,0
0.5412302,0.049770832,-2.6298647,0.60686332,-0.43143988,-0.66751516,0
1.3447354,3.2473547,2.2206845,-0.60686332,0.43143988,0.66751516,0
-1.604913,1.1786435,1.0394753,-0.60686332,0.43143988,0.66751516,0
-2.4259756,-0.31140876,-3.9176087,-0.71044433,0.082089305,-0.69894916,0
0.38723105,-0.69615126,3.5443101,-0.60686332,0.43143988,0.66751516,0
-0.74142528,-4.8803864,-0.32970285,-0.39940065,-0.89164352,0.21319211,0
0.2745378,-3.3404675,-0.76787162,0.60686332,-0.43143988,-0.66751516,0
-2.6075444,-3.490567,1.0159225,-0.47710502,-0.86944544,0.12820074,0
2.4325743,-1.2949769,0.15773249,0.60686332,-0.43143988,-0.66751516,0
-4.1439943,-2.3687215,0.46989614,-0.68272448,-0.71297175,-0.15987051,0
2.7283626,3.2474582,1.7873724,0.71842647,0.65699971,0.2285054,0
3.7409182,-1.0093584,0.82572293,0.60686332,-0.43143988,-0.66751516,0
-2.0400436,1.1639589,-3.6765223,-0.56201756,0.360919,-0.74422681,0
2.9008946,-3.2323165,2.0750175,0.38969231,-0.57045776,0.72299206,0
2.7947989,-1.3473394,0.6422255,0.60686332,-0.43143988,-0.66751516,0
-0.54121643,0.12103891,-3.5734258,0.60686332,-0.43143988,-0.66751516,0
3.6488152,2.5910904,0.22881866,0.70942563,0.67271554,0.21016461,0
-1.1867952,-1.8900555,3.1622043,-0.60686332,0.43143988,0.66751516,0
3.2935932,1.2853091,-1.063176,0.60686332,-0.43143988,-0.66751516,0
-1.5131001,-1.4685934,2.7451711,-0.60686332,0.43143988,0.66751516,0
4.3262267,-0.8230744,1.6960778,0.73237228,-0.022739232,0.68052459,0
-1.2140038,-3.7875512,2.2091229,-0.19967252,-0.89566958,0.39737463,0
-1.2425634,3.1628704,0.070974588,-0.60686332,0.43143988,0.66751516,0
2.9954762,0.9749338,-0.78731501,0.60686332,-0.43143988,-0.66751516,0
-2.0357044,1.9403907,0.082169771,-0.60686332,0.43143988,0.66751516,0
2.8299599,2.84815,2.4148638,0.7691282,0.5305298,0.35634238,0
2.2112629,4.1100969,0.70891023,0.57524776,0.81795937,-0.0056980401,0
2.1470473,-0.9823606,3.8668594,0.61926448,-0.26979464,0.73737508,0
0.29007113,-1.3029041,-1.8426082,0.60686332,-0.43143988,-0.66751516,0
-1.8841258,-1.4254845,1.9780816,-0.60686332,0.43143988,0.66751516,0
0.84220791,3.3278418,-3.1381285,0.020056188,0.84789163,-0.52978998,0
-2.0480971,-3.797049,-0.83031118,-0.62063819,-0.7818827,-0.058885805,0
-1.6639589,0.48313522,-4.4134097,-0.62197447,0.26509243,-0.73679966,0
3.989337,1.6892978,1.7145381,0.79065549,0.4134188,0.45160687,0
-0.92989063,-3.0253816,-1.9769578,0.60686332,-0.43143988,-0.66751516,0
-2.0409756,1.3730584,-3.9721527,-0.53242654,0.40288597,-0.74444938,0
1.9847627,-3.3856502,2.3545461,0.3013424,-0.65224695,0.69553316,0
-2.1886871,-0.29871655,-4.4278612,-0.71894681,0.060093462,-0.69246238,0
-3.5213928,-2.6726456,-0.33711088,-0.71275496,-0.66704929,-0.21685374,0
3.4002643,2.7176251,-1.8646245,0.60686332,-0.43143988,-0.66751516,0
-0.65611756,-0.75390029,-3.0923438,0.60686332,-0.43143988,-0.66751516,0
3.3163471,3.2721453,-1.9794276,0.46723545,0.87305701,-0.13950768,0
0.55803251,4.7505918,-0.31637788,0.30749047,0.90189385,-0.30337632,0
3.4541869,2.3882663,1.6477853,0.75925833,0.5630455,0.32635319,0
-2.2244575,-2.1116335,-3.4507914,0.60686332,-0.43143988,-0.66751516,0
2.9288971,3.1652975,0.81210577,0.68771791,0.70606309,0.16887552,0
-1.10672,-3.7367079,-1.3503678,0.60686332,-0.43143988,-0.66751516,0
2.8282616,3.3489697,-0.43675402,0.57586324,0.81753153,-0.0048619509,0
-1.2688819,2.5849428,0.04796052,-0.60686332,0.43143988,0.66751516,0
3.7701485,0.64458907,2.247427,0.78941709,0.2295512,0.56932145,0
-2.9049015,1.3906698,-0.34852815,-0.60686332,0.43143988,0.66751516,0
2.5771272,3.2607775,-2.6504936,0.60686332,-0.43143988,-0.66751516,0
-0.61470306,-1.2211094,-2.5660024,0.60686332,-0.43143988,-0.66751516,0
2.517746,1.8022377,3.7643294,0.79182088,0.25546035,0.55476069,0
-2.7465265,-3.0128064,-1.7867393,-0.75155663,-0.58476043,-0.30531615,0
-0.95059037,0.58573246,1.5485146,-0.60686332,0.43143988,0.66751516,0
-0.59868962,0.57864308,2.2770386,-0.60686332,0.43143988,0.66751516,0
-3.7361586,-1.4536369,0.74939102,-0.60686332,0.43143988,0.66751516,0
-0.51312089,3.222043,-3.1081495,-0.19999042,0.72993577,-0.65360349,0
0.96117914,0.15416956,-2.515852,0.60686332,-0.43143988,-0.66751516,0
-3.7971547,-2.218797,0.75526822,-0.60686332,0.43143988,0.66751516,0
1.2802246,4.1079345,1.8009906,-0.60686332,0.43143988,0.66751516,0
2.3849125,2.4244804,-2.6514425,0.60686332,-0.43143988,-0.66751516,0
1.2557068,2.2606187,2.8536015,-0.60686332,0.43143988,0.66751516,0
-1.4518596,0.89129114,1.0710425,-0.60686332,0.43143988,0.66751516,0
1.1528027,0.029602766,3.9770203,-0.60686332,0.43143988,0.66751516,0
-2.8153524,0.58164418,-3.4330378,-0.66348779,0.1874136,-0.72433418,0
1.5891656,0.21355093,-1.5802755,0.60686332,-0.43143988,-0.66751516,0
-0.97446036,-1.3945693,2.7493303,-0.60686332,0.43143988,0.66751516,0
2.0046201,-1.1094569,3.7219913,0.57126427,-0.34715229,0.74373543,0
-1.324615,2.3046947,-3.9301772,-0.37921029,0.5809238,-0.72022712,0
-0.60348845,1.569211,-4.3231568,-0.38988781,0.57026052,-0.72304237,0
2.9177368,-0.95828974,0.22689438,0.60686332,-0.43143988,-0.66751516,0
0.5866034,-3.8091216,-0.044992447,0.60686332,-0.43143988,-0.66751516,0
-2.3642726,-3.7487583,0.09584558,-0.52943492,-0.84582895,0.06536147,0
3.366353,2.1291676,2.2098947,0.78413212,0.46217462,0.41416353,0
1.5708139,-0.98305249,4.3163719,0.54826373,-0.38080564,0.74457622,0
-3.1153173,-0.096022606,0.45348167,-0.60686332,0.43143988,0.66751516,0
-4.128231,-0.084441751,-0.9811101,-0.60686332,0.43143988,0.66751516,0
-1.7435923,-3.721983,1.8857915,-0.29402989,-0.90212977,0.31576633,0
-2.9873025,-2.6710835,-1.6311859,-0.75947112,-0.56240624,-0.32695982,0
-2.6893172,0.40639949,0.11891842,-0.60686332,0.43143988,0.66751516,0
1.5796692,1.4069337,-2.7597084,0.60686332,-0.43143988,-0.66751516,0
-3.1339097,2.2207129,-1.09269,-0.60686332,0.43143988,0.66751516,0
-2.2612612,-1.2179492,-4.2915044,-0.75190991,-0.039462388,-0.65808374,0
-2.7480655,-3.0084889,-1.9260304,-0.7581349,-0.56638288,-0.3231748,0
-0.49102449,4.0208082,-0.073461771,-0.60686332,0.43143988,0.66751516,0
-1.9809763,-0.60832763,1.7692854,-0.60686332,0.43143988,0.66751516,0
0.45938802,4.3422275,-1.4706597,0.21335703,0.89745051,-0.38608468,0
3.0395875,2.6197221,-1.8949296,0.60686332,-0.43143988,-0.66751516,0
-3.0932283,-2.9391127,1.8329307,-0.60686332,0.43143988,0.66751516,0
-1.0796187,-4.8368416,-0.56729054,-0.44489658,-0.88034016,0.16452438,0
-1.2729721,0.77432299,1.2436966,-0.60686332,0.43143988,0.66751516,0
-1.4663764,0.52227616,1.4715589,-0.60686332,0.43143988,0.66751516,0
-1.3623701,1.9029918,-3.7737646,-0.43924487,0.51789063,-0.73406613,0
-3.0645835,2.3352139,-1.0026703,-0.60686332,0.43143988,0.66751516,0
-0.12522936,-4.9130354,0.30265355,-0.24894112,-0.90076631,0.35587692,0
-0.37141344,0.026919603,2.4478166,-0.60686332,0.43143988,0.66751516,0
-3.275681,-2.9185162,1.6506267,-0.60686332,0.43143988,0.66751516,0
-1.3011667,-2.4713273,3.4142184,-0.60686332,0.43143988,0.66751516,0
1.4179446,-2.6355574,0.27120543,0.60686332,-0.43143988,-0.66751516,0
-0.28798676,0.47806072,2.1395321,-0.60686332,0.43143988,0.66751516,0
1.4034139,-1.6391073,4.0934019,0.46576044,-0.487492,0.73852468,0
-1.5288677,3.4156525,-2.5414433,-0.26210231,0.6842345,-0.68053323,0
1.7554638,3.7691259,-1.4136312,0.3833676,0.89458448,-0.22966927,0
4.1511955,-0.63016927,1.351613,0.60686332,-0.43143988,-0.66751516,0
-0.10129881,-3.4636812,-0.72692323,0.60686332,-0.43143988,-0.66751516,0
0.1966393,1.9831297,1.8297212,-0.60686332,0.43143988,0.66751516,0
-0.19833612,-4.9964066,0.13136697,-0.3231073,-0.90123451,0.28875226,0
-2.7411823,-2.5492256,1.8944199,-0.60686332,0.43143988,0.66751516,0
-3.6753373,-0.33252966,-2.8437529,-0.76259577,-0.079403281,-0.64198333,0
-1.0347126,-2.9934528,-1.8823545,0.60686332,-0.43143988,-0.66751516,0
1.8341043,-0.15405822,-0.98693001,0.60686332,-0.43143988,-0.66751516,0
-2.3490636,-3.8582253,0.32180822,-0.53218722,-0.84435999,0.061909735,0
-4.3393254,-0.6468454,-1.4185662,-0.79387546,-0.28840166,-0.53533745,0
1.7900167,3.9216244,-0.91815507,0.38492137,0.89432204,-0.22808698,0
-0.17258447,2.307374,-4.3997059,-0.24865082,0.69463253,-0.67502469,0
2.4152927,-1.5993969,3.5591621,0.54626375,-0.38364121,0.74459064,0
0.60609162,1.7846396,2.5030847,-0.60686332,0.43143988,0.66751516,0
-0.80241084,3.0944598,0.14185476,-0.60686332,0.43143988,0.66751516,0
3.8838356,-1.8252628,1.6955299,0.60686332,-0.43143988,-0.66751516,0
-4.0518107,-2.5645049,-0.6731602,-0.73050302,-0.63369668,-0.25454617,0
-1.7136037,-4.4044919,-0.41049242,-0.5021255,-0.8591336,0.098788798,0
-1.2417501,2.1576569,0.30819464,-0.60686332,0.43143988,0.66751516,0
-2.1208289,-3.7565722,1.0738021,-0.42028356,-0.88701642,0.19121596,0
-0.31654644,-4.7439175,-0.36409092,0.60686332,-0.43143988,-0.66751516,0
-1.0021176,4.2665105,-0.68211699,-0.60686332,0.43143988,0.66751516,0
0.67919093,1.1043266,-2.8239441,0.60686332,-0.43143988,-0.66751516,0
-0.26034918,0.27717185,-3.1336045,0.60686332,-0.43143988,-0.66751516,0
0.95303655,2.5529592,2.1557107,-0.60686332,0.43143988,0.66751516,0
0.7607255,-4.0356593,0.5288682,0.60686332,-0.43143988,-0.66751516,0
-1.8841261,-3.5594158,1.8323926,-0.29946524,-0.90207094,0.31078684,0
2.3497961,3.9019766,1.2351502,0.67368394,0.72486103,0.14396697,0
-0.02896452,-0.65998006,-2.3320317,0.60686332,-0.43143988,-0.66751516,0
-0.17362809,-3.4687972,-1.017132,0.60686332,-0.43143988,-0.66751516,0
0.98142493,-2.0799336,-0.59383214,0.60686332,-0.43143988,-0.66751516,0
3.2686126,2.3169324,1.5296909,0.77063775,0.52493608,0.36133027,0
-1.4653683,0.48385024,-4.496314,-0.61315483,0.28025207,-0.73857951,0
3.1983044,-1.6872232,1.1676712,0.60686332,-0.43143988,-0.66751516,0
-0.041601181,4.1838851,0.026082277,-0.60686332,0.43143988,0.66751516,0
-2.6700182,1.3088632,-3.1318765,-0.6052683,0.29346693,-0.7399509,0
-3.9875503,2.270421,-2.0639744,-0.61310005,0.2803449,-0.73858976,0
3.187479,3.025063,-1.1822113,0.52893758,0.84609175,-0.065983266,0
1.9445094,-3.3374629,0.95896578,0.60686332,-0.43143988,-0.66751516,0
-0.69399899,-1.3997004,3.1037216,-0.60686332,0.43143988,0.66751516,0
-0.17207098,4.8799448,-0.41880703,-0.60686332,0.43143988,0.66751516,0
2.0932553,-1.3751116,0.037686586,0.60686332,-0.43143988,-0.66751516,0
-2.1902385,0.78971672,-4.0207891,-0.63589656,0.24027786,-0.73341817,0
3.3368735,2.5985014,1.8572832,0.77541721,0.50575638,0.37807196,0
0.027814865,-4.8210783,0.51375628,-0.23789227,-0.89994299,0.36538982,0
1.1454915,-0.46632862,-1.7840202,0.60686332,-0.43143988,-0.66751516,0
0.93925881,-3.4484022,2.5058146,0.17877465,-0.74422956,0.64355403,0
0.017518282,-3.7004328,2.5416083,0.051131368,-0.8169145,0.57448763,0
-1.3789558,0.1683867,-4.4786954,0.60686332,-0.43143988,-0.66751516,0
-1.6579252,1.9845335,0.39400077,-0.60686332,0.43143988,0.66751516,0
3.0563657,2.0295246,-1.8222972,0.60686332,-0.43143988,-0.66751516,0
-0.9579711,3.3480239,0.050871611,-0.60686332,0.43143988,0.66751516,0
-3.5550528,-0.56466883,0.17013073,-0.60686332,0.43143988,0.66751516,0
-2.0297089,-3.6556866,-2.4458563,0.60686332,-0.43143988,-0.66751516,0
-4.2388783,-1.5381601,-1.3407414,-0.78822529,-0.43454391,-0.43574348,0
-1.7620525,3.1988184,-2.953454,-0.30277419,0.65103197,-0.69604969,0
0.33764029,-4.4389663,1.8281331,-0.042813957,-0.856372,0.5145812,0
-2.3394616,3.9607749,-1.6196327,-0.26402169,0.68272758,-0.68130428,0
0.76751339,-1.5130336,-1.440578,0.60686332,-0.43143988,-0.66751516,0
-2.474457,2.1785119,-0.89507842,-0.60686332,0.43143988,0.66751516,0
-0.44456428,-0.69846535,3.2986102,-0.60686332,0.43143988,0.66751516,0
1.8898021,2.0779467,3.4971647,-0.60686332,0.43143988,0.66751516,0
1.2056719,3.271544,-3.6232116,0.025659978,0.85004389,-0.52608639,0
0.88887328,0.1355381,-2.1475492,0.60686332,-0.43143988,-0.66751516,0
-4.2575674,-2.1508224,0.65240002,-0.60686332,0.43143988,0.66751516,0
0.65037489,-3.9435549,0.27121019,0.60686332,-0.43143988,-0.66751516,0
-2.361037,-2.8406303,-3.3297944,-0.78997302,-0.41989535,-0.44680038,0
-3.0026724,-1.6089308,1.5005445,-0.60686332,0.43143988,0.66751516,0
3.634439,-1.9611251,2.3470941,0.60408288,-0.29542649,0.7401396,0
-0.8507005,-1.4492927,-2.5471916,0.60686332,-0.43143988,-0.66751516,0
-4.2955565,0.19881153,-1.0994129,-0.60686332,0.43143988,0.66751516,0
0.95678073,2.0011523,-3.124794,0.60686332,-0.43143988,-0.66751516,0
-0.43434799,-0.74701571,-2.9440904,0.60686332,-0.43143988,-0.66751516,0
-1.4529471,-4.4753819,-1.5382366,0.60686332,-0.43143988,-0.66751516,0
0.48474777,2.6420035,-4.0845642,-0.12182546,0.77942979,-0.61453056,0
4.0418406,-1.4661999,2.1451468,0.67156124,-0.17086586,0.72097868,0
-1.4174919,4.551692,-1.0275736,-0.60686332,0.43143988,0.66751516,0
2.1719759,3.4030271,-2.4265518,0.26367688,0.90156877,-0.34299874,0
-3.4978459,-0.76071274,-2.7473359,-0.78437543,-0.18948084,-0.59063691,0
1.3330221,3.2743859,2.315985,-0.60686332,0.43143988,0.66751516,0
-4.0581341,-0.80234259,-1.9488149,-0.78719175,-0.2102901,-0.57974762,0
3.2128565,-2.6218379,2.4049397,0.51314765,-0.42866954,0.74358702,0
1.0187476,0.59284616,-2.2763083,0.60686332,-0.43143988,-0.66751516,0
-3.4999599,-2.8884232,0.14943373,-0.66690797,-0.73329067,-0.13235819,0
-1.2268412,0.35170388,-4.1825275,0.60686332,-0.43143988,-0.66751516,0
-3.4817305,-1.0596215,-2.6602585,-0.7896592,-0.23186311,-0.56804723,0
0.0005261898,-3.457129,-0.51078641,0.60686332,-0.43143988,-0.66751516,0
-1.149913,2.0984731,-3.7961297,-0.39283717,0.56727505,-0.7237941,0
-4.2738419,-1.9585983,0.013270497,-0.7416116,-0.60945612,-0.28031293,0
3.1281662,-3.0321393,1.9140253,0.60686332,-0.43143988,-0.66751516,0
-0.29545701,0.47750378,-3.5799327,0.60686332,-0.43143988,-0.66751516,0
0.44981337,2.6432819,-4.1797285,0.60686332,-0.43143988,-0.66751516,0
-1.300559,-0.67733741,2.3038948,-0.60686332,0.43143988,0.66751516,0
2.3738494,3.0315387,-3.0736976,0.60686332,-0.43143988,-0.66751516,0
-2.2137799,-2.6392322,-3.3198795,0.60686332,-0.43143988,-0.66751516,0
-1.1881249,-4.3544655,-0.072523117,-0.42121398,-0.88678861,0.19022292,0
-1.2481675,1.9031409,0.87150955,-0.60686332,0.43143988,0.66751516,0
2.5544877,1.0023401,-1.390058,0.60686332,-0.43143988,-0.66751516,0
-1.3772993,4.1376023,-1.1865902,-0.60686332,0.43143988,0.66751516,0
1.1548463,-0.98310423,4.5988922,-0.60686332,0.43143988,0.66751516,0
-0.62786639,-1.440237,-2.4062583,0.60686332,-0.43143988,-0.66751516,0
-0.91426301,-3.2040606,-2.0071733,0.60686332,-0.43143988,-0.66751516,0
0.2372793,-2.1503212,4.307518,-0.60686332,0.43143988,0.66751516,0
3.28092,-1.3561525,0.84440613,0.60686332,-0.43143988,-0.66751516,0
3.3902836,-1.0776597,2.5867634,0.65478647,-0.20466727,0.7275753,0
0.76717138,-4.5755115,1.0396948,-0.04950875,-0.8587352,0.5100221,0
-0.93837559,2.1056728,0.91839325,-0.60686332,0.43143988,0.66751516,0
-3.636018,-2.6595547,0.45313048,-0.64176822,-0.76144379,-0.091306388,0
0.38440824,2.4537241,1.9261768,-0.60686332,0.43143988,0.66751516,0
-3.2381597,0.34463108,-0.25689864,-0.60686332,0.43143988,0.66751516,0
0.70723367,-3.714169,0.057853222,0.60686332,-0.43143988,-0.66751516,0
-3.5834808,0.36210304,-0.52226543,-0.60686332,0.43143988,0.66751516,0
0.70653176,-2.4628308,3.8632326,0.2980414,-0.65503514,0.69433427,0
0.059495211,0.35057092,2.5374277,-0.60686332,0.43143988,0.66751516,0
1.2568506,2.8690605,-3.8689106,0.60686332,-0.43143988,-0.66751516,0
1.4260452,-1.7258593,4.1174002,0.48347825,-0.46620885,0.74087644,0
1.7457926,3.9819036,-0.60912645,0.42229468,0.88652158,-0.18906778,0
-0.2761569,-4.583909,-0.48770595,0.60686332,-0.43143988,-0.66751516,0
3.4372251,2.7746143,-1.3864188,0.60686332,-0.43143988,-0.66751516,0
-1.4368582,-4.0883441,0.90990329,-0.35070068,-0.89902234,0.2622363,0
1.7303121,2.4163771,-3.1925664,0.60686332,-0.43143988,-0.66751516,0
-2.4996824,-2.7276409,2.6823153,-0.60686332,0.43143988,0.66751516,0
3.4906321,-1.4060855,2.3864579,0.63649344,-0.23918809,0.73325634,0
4.0224319,0.086552203,0.77424908,0.60686332,-0.43143988,-0.66751516,0
3.5820673,-0.5767076,2.6125202,0.71144611,-0.079556286,0.69822276,0
0.41963822,0.23707151,3.4567022,-0.60686332,0.43143988,0.66751516,0
-0.19411349,3.9408937,-2.5397215,-0.030898988,0.82640493,-0.56222779,0
-3.3760414,-3.1948059,1.5880702,-0.49274445,-0.86320031,0.10994586,0
-1.2641394,-4.1528196,1.6678407,-0.28031874,-0.9020611,0.32818729,0
-1.3171997,-0.63056278,-3.8209882,0.60686332,-0.43143988,-0.66751516,0
0.65219021,-0.20508122,3.5250213,-0.60686332,0.43143988,0.66751516,0
-0.38776445,-3.953742,2.1153414,-0.12822676,-0.88199043,0.4534874,0
-2.1020062,4.1651959,-1.3781672,-0.60686332,0.43143988,0.66751516,0
2.3369763,3.8561661,1.0548315,0.66170198,0.73950791,0.12360682,0
0.20605516,4.9145885,-0.12132597,0.27182865,0.90186542,-0.33577943,0
3.0693359,-0.11935508,-0.15024352,0.60686332,-0.43143988,-0.66751516,0
1.1011735,1.1649144,-2.8087564,0.60686332,-0.43143988,-0.66751516,0
-0.25894815,1.893981,-4.3639841,0.60686332,-0.43143988,-0.66751516,0
0.69225061,-2.6100445,3.5645506,0.28290454,-0.66758919,0.68868697,0
2.0466499,-2.9786606,2.7725754,0.3384161,-0.61965185,0.70817077,0
-1.5349814,0.36579752,-4.6938601,0.60686332,-0.43143988,-0.66751516,0
3.6678939,-0.19191563,0.37621546,0.60686332,-0.43143988,-0.66751516,0
1.2222307,-0.22829533,-1.9211977,0.60686332,-0.43143988,-0.66751516,0
-1.1915481,-0.54057217,-3.6055844,0.60686332,-0.43143988,-0.66751516,0
1.5895262,2.9114316,-3.3216832,0.60686332,-0.43143988,-0.66751516,0
-2.0707927,-2.0725927,-3.7665896,0.60686332,-0.43143988,-0.66751516,0
2.9949946,-2.109458,2.6374187,0.56415701,-0.35776305,0.74413204,0
-0.15126938,-0.21433687,-3.2784972,0.60686332,-0.43143988,-0.66751516,0
0.010455132,0.80184031,2.7028561,-0.60686332,0.43143988,0.66751516,0
2.5662622,-0.21556413,-0.62017393,0.60686332,-0.43143988,-0.66751516,0
-0.85228896,-4.1302233,1.5502717,-0.24912399,-0.90077829,0.35571843,0
0.2870183,2.4904919,-4.0971289,-0.22068685,0.71535569,-0.66299576,0
-2.9649339,-0.021779537,0.35292733,-0.60686332,0.43143988,0.66751516,0
2.1302686,-3.9702499,2.0603709,0.23929623,-0.70169783,0.67108661,0
-0.46013546,-2.2550182,3.9362864,-0.60686332,0.43143988,0.66751516,0
-2.3303359,-0.40366805,1.2059755,-0.60686332,0.43143988,0.66751516,0
-1.3749887,-3.0856912,3.2711039,-0.10705185,-0.87656295,0.46923041,0
-0.47059637,-2.3770628,4.2319951,-0.60686332,0.43143988,0.66751516,0
-2.6447105,-0.019269586,0.56679761,-0.60686332,0.43143988,0.66751516,0
2.3104043,-0.53900015,-0.52331138,0.60686332,-0.43143988,-0.66751516,0
-1.52543,1.2115382,0.98549694,-0.60686332,0.43143988,0.66751516,0
-0.81574202,-0.20315599,-3.4521222,0.60686332,-0.43143988,-0.66751516,0
-3.641258,-1.7544284,-1.7883792,-0.78559744,-0.45307809,-0.42137513,0
1.5893098,0.89304161,4.0310187,-0.60686332,0.43143988,0.66751516,0
-1.7073307,4.109612,-1.5076957,-0.15619844,0.7587297,-0.63240117,0
-0.17933917,-3.5167677,-0.96295679,0.60686332,-0.43143988,-0.66751516,0
-2.2601488,3.5941639,-2.3307686,-0.32407451,0.63254428,-0.70346522,0
1.3477653,-0.36801624,4.4637175,-0.60686332,0.43143988,0.66751516,0
-4.146204,0.72762674,-1.5149641,-0.60686332,0.43143988,0.66751516,0
-2.6956935,-2.1659212,-3.0931752,-0.79470521,-0.31598803,-0.51826179,0
-0.66770911,1.3541843,1.2924056,-0.60686332,0.43143988,0.66751516,0
-2.9994581,-3.4741156,0.38850772,-0.58086044,-0.81400073,-0.0019632578,0
1.9206134,-0.34033298,4.1255689,0.65390098,-0.20639133,0.72788453,0
-0.79133129,1.5216682,-4.4892602,-0.41853261,0.54050517,-0.72985244,0
-1.3634927,-2.5691383,-2.6933889,0.60686332,-0.43143988,-0.66751516,0
-3.8173027,-2.433167,-0.19041038,-0.72101712,-0.65223074,-0.23394288,0
-2.876219,-3.0619612,-2.366818,-0.76800692,-0.5345614,-0.35271722,0
3.9909649,1.3057275,1.4064732,0.79211056,0.39741322,0.46327484,0
-2.83673,-2.8199556,-2.1672611,-0.75778902,-0.56739748,-0.32220456,0
-4.0331702,-2.3186758,-0.87390506,-0.7508502,-0.58662724,-0.3034673,0
1.0070903,-1.0886788,4.5982852,0.49243438,-0.45513615,0.74186218,0
0.31584787,1.5426984,2.3886433,-0.60686332,0.43143988,0.66751516,0
0.23311806,-4.323648,1.5822787,-0.045513749,-0.85733223,0.51274741,0
1.4752489,3.6006401,-2.6805849,0.15861011,0.88869226,-0.43019634,0
3.2009192,-2.2756815,2.377717,0.52053732,-0.41892287,0.74400556,0
2.8869028,-0.87701082,0.047761917,0.60686332,-0.43143988,-0.66751516,0
3.7665224,-0.48358577,1.0023699,0.60686332,-0.43143988,-0.66751516,0
-0.56800979,-0.56680751,-2.8594184,0.60686332,-0.43143988,-0.66751516,0
-0.67618108,-1.094718,3.1405706,-0.60686332,0.43143988,0.66751516,0
-4.0069952,-0.42007256,-0.29759955,-0.60686332,0.43143988,0.66751516,0
2.0796106,-0.91848087,3.8138573,0.59132051,-0.31610423,0.74190176,0
3.7932868,0.87574458,0.13417411,0.60686332,-0.43143988,-0.66751516,0
0.087365985,0.67731023,-3.5046141,0.60686332,-0.43143988,-0.66751516,0
-1.0122585,-2.7264912,-2.434237,0.60686332,-0.43143988,-0.66751516,0
0.72856033,2.0009587,-3.4437044,0.60686332,-0.43143988,-0.66751516,0
-1.0301287,3.9596255,-0.63932133,-0.60686332,0.43143988,0.66751516,0
0.82426476,-4.2811489,1.5596728,0.038941681,-0.82269782,0.5671435,0
3.049201,-2.6190653,2.6521935,0.49508882,-0.45181233,0.74212706,0
2.6656506,1.1838012,3.4365268,0.78212106,0.17471376,0.59813184,0
3.6549263,0.73150259,-0.10524249,0.60686332,-0.43143988,-0.66751516,0
-2.6332345,3.0554059,-1.3397374,-0.60686332,0.43143988,0.66751516,0
4.1400123,-1.5178283,1.7252173,0.60686332,-0.43143988,-0.66751516,0
-3.7945888,-1.1846883,-2.0177476,-0.79405439,-0.29258826,-0.53279424,0
-0.55853146,0.19128656,2.3952863,-0.60686332,0.43143988,0.66751516,0
3.7454588,-0.43947047,0.83745456,0.60686332,-0.43143988,-0.66751516,0
-0.81388605,-2.8877933,3.6666071,0.046860874,-0.81896317,0.5719294,0
0.63028455,4.5732541,0.3812716,-0.60686332,0.43143988,0.66751516,0
-0.78367591,0.50738239,-3.8795648,0.60686332,-0.43143988,-0.66751516,0
3.3194044,2.2786965,2.007596,0.77370274,0.51291996,0.37188321,0
-2.3002169,-2.3438246,-3.3692465,0.60686332,-0.43143988,-0.66751516,0
3.4827652,1.4753489,-0.61520469,0.60686332,-0.43143988,-0.66751516,0
-3.567246,1.6831326,-1.6297541,-0.60686332,0.43143988,0.66751516,0
-0.055593967,-0.088756323,-3.1344619,0.60686332,-0.43143988,-0.66751516,0
3.1537986,2.2734499,2.2730758,0.77819133,0.49335873,0.38860703,0
-3.960326,0.5902617,-2.1013389,-0.73335761,0.019850314,-0.67955327,0
2.070101,1.2320104,-1.6943831,0.60686332,-0.43143988,-0.66751516,0
-0.41214132,-2.6532919,-1.7717226,0.60686332,-0.43143988,-0.66751516,0
-1.0588229,-1.8826144,3.4446614,-0.60686332,0.43143988,0.66751516,0
-3.1921563,-1.7518368,-3.0341709,-0.79446793,-0.30477878,-0.52529103,0
0.52832305,1.7309477,2.3830476,-0.60686332,0.43143988,0.66751516,0
-3.8466311,1.7351507,-1.9447579,-0.65861821,0.19714054,-0.7261939,0
0.76520252,-0.31874609,-2.3703153,0.60686332,-0.43143988,-0.66751516,0
3.9961722,2.354691,-0.86810762,0.60686332,-0.43143988,-0.66751516,0
1.8471677,-0.2023983,4.2845387,0.63673258,-0.23875089,0.73319125,0
-3.0248899,2.9436953,-2.3150864,-0.46271098,0.49107462,-0.73806775,0
4.2093968,0.37505966,1.8990712,0.78040576,0.16430572,0.60329956,0
-0.71753955,3.9767985,-2.0452137,-0.070834637,0.80714595,-0.58608681,0
2.2478888,-2.4888754,2.8203874,0.46128863,-0.49273771,0.73784959,0
2.3231664,4.0414848,1.4148321,0.65537935,0.74677449,0.11316203,0
1.1225712,-1.2755666,-1.2395316,0.60686332,-0.43143988,-0.66751516,0
1.900511,0.35632467,4.2526064,-0.60686332,0.43143988,0.66751516,0
-0.91841108,1.8589313,-4.4497733,-0.39261532,0.56750023,-0.72373796,0
-0.18822497,-2.2549114,4.5665536,-0.60686332,0.43143988,0.66751516,0
-1.6567767,-2.5874724,-2.9791996,0.60686332,-0.43143988,-0.66751516,0
-1.0053306,0.20411038,2.2204573,-0.60686332,0.43143988,0.66751516,0
-3.6499693,-2.4410119,-0.66471684,-0.7341888,-0.62598819,-0.26287943,0
0.94243264,-3.6741536,2.5478926,0.10801414,-0.78728664,0.60705233,0
2.0561194,2.5337903,-2.6530354,0.60686332,-0.43143988,-0.66751516,0
-0.34220672,-3.4766459,2.5847654,-0.011086345,-0.84435964,0.53566206,0
0.68516803,-4.3935413,1.4722362,-0.040314794,-0.85547447,0.51627326,0
-3.8041043,-2.9650736,1.2018677,-0.56633973,-0.82398212,0.017689452,0
1.7187905,-2.5658379,0.47772002,0.60686332,-0.43143988,-0.66751516,0
2.3921118,-3.2148492,1.1855378,0.60686332,-0.43143988,-0.66751516,0
0.25675225,-4.5575414,0.28494,0.60686332,-0.43143988,-0.66751516,0
-0.68569064,2.5520759,0.46242738,-0.60686332,0.43143988,0.66751516,0
2.4933929,-2.6723187,0.98587132,0.60686332,-0.43143988,-0.66751516,0
-0.67259455,-2.3887038,3.7259846,-0.60686332,0.43143988,0.66751516,0
-3.0181246,0.75349772,-3.2468128,-0.67485797,0.16394851,-0.71950489,0
-3.0893233,2.4291186,-1.3339896,-0.60686332,0.43143988,0.66751516,0
-2.5679126,1.1184705,-0.20084596,-0.60686332,0.43143988,0.66751516,0
1.1604655,-3.4482036,0.53811526,0.60686332,-0.43143988,-0.66751516,0
-1.9310907,4.0537682,-1.5789852,-0.18757898,0.73837703,-0.64777571,0
-3.8984127,-2.1046174,1.1022263,-0.60686332,0.43143988,0.66751516,0
1.6825311,1.969892,3.1841841,-0.60686332,0.43143988,0.66751516,0
2.871145,-1.1121647,3.258738,0.61940002,-0.26956069,0.73734707,0
-0.78925514,-3.2485967,-1.5835485,0.60686332,-0.43143988,-0.66751516,0
1.7669395,1.0614047,-2.0970192,0.60686332,-0.43143988,-0.66751516,0
-3.3966582,-3.1459181,-0.55068839,-0.6804235,-0.71607113,-0.15577541,0
-4.2056994,-0.3599841,-1.7052412,-0.78834885,-0.2199055,-0.57458466,0
1.7687652,1.8004384,-2.3926055,0.60686332,-0.43143988,-0.66751516,0
-1.7861342,-3.9889531,-1.3289719,-0.64104629,-0.76218712,-0.090169534,0
1.9199831,0.22238827,-1.513443,0.60686332,-0.43143988,-0.66751516,0
0.65236479,-0.01905036,3.6272039,-0.60686332,0.43143988,0.66751516,0
2.6152844,3.4814401,-1.6954652,0.43708569,0.88260728,-0.17309085,0
3.1972055,2.492702,-1.4391016,0.60686332,-0.43143988,-0.66751516,0
1.3071306,-1.098007,4.738574,0.52748168,-0.40961033,0.74430001,0
-3.1396267,-2.102107,-2.4440694,-0.78785676,-0.43735728,-0.43359008,0
1.2370565,-4.6337996,1.3559971,0.050559223,-0.81719041,0.57414585,0
3.1652837,1.9505706,2.7452016,0.79426765,0.36010841,0.48934734,0
2.2139482,0.14863729,4.2856874,0.69672793,-0.11537904,0.70799547,0
-2.1418734,2.681586,-0.94399762,-0.60686332,0.43143988,0.66751516,0
2.5120382,0.68743443,-1.1691221,0.60686332,-0.43143988,-0.66751516,0
-1.7934206,0.74631417,1.0424212,-0.60686332,0.43143988,0.66751516,0
-2.1697664,-1.0061207,-4.1443386,-0.74882287,-0.028841108,-0.6621421,0
1.1240489,4.4229898,1.0295832,-0.60686332,0.43143988,0.66751516,0
1.7776581,-1.0644186,-0.66609395,0.60686332,-0.43143988,-0.66751516,0
2.493731,2.1657093,-2.1426973,0.60686332,-0.43143988,-0.66751516,0
-4.3465147,-1.9419241,0.34165049,-0.60686332,0.43143988,0.66751516,0
1.0657611,-3.2381151,-0.043279648,0.60686332,-0.43143988,-0.66751516,0
-3.0906949,0.22003865,-3.5097513,-0.71580338,0.068360269,-0.69494772,0
2.9760101,-2.8075373,1.6936483,0.60686332,-0.43143988,-0.66751516,0
-1.3197871,2.9855366,0.041677713,-0.60686332,0.43143988,0.66751516,0
-3.791172,-2.8301287,0.067775607,-0.69265777,-0.69896972,-0.17795119,0
0.62947822,-1.0612192,4.4389677,-0.60686332,0.43143988,0.66751516,0
2.2397771,2.2334528,-2.117445,0.60686332,-0.43143988,-0.66751516,0
-3.8073025,1.097605,-0.9618783,-0.60686332,0.43143988,0.66751516,0
-1.2419488,3.5567985,-0.22290826,-0.60686332,0.43143988,0.66751516,0
-0.54001534,-3.0282066,3.7483127,0.1136618,-0.78410542,0.61013073,0
-2.5059621,-3.9672036,-0.16819781,-0.58265698,-0.81270599,-0.0044334829,0
-4.1974783,-0.59365374,-0.55129862,-0.60686332,0.43143988,0.66751516,0
-1.3597398,0.568187,1.6816412,-0.60686332,0.43143988,0.66751516,0
-2.1298313,-3.8514314,-2.1469145,-0.69643801,-0.69335645,-0.18501608,0
0.94443321,3.5617902,-2.5616758,0.089314401,0.87154472,-0.48211265,0
1.803979,3.6861813,-2.1205225,0.30276573,0.90201128,-0.3077476,0
2.8818281,1.2556846,-1.1835712,0.60686332,-0.43143988,-0.66751516,0
3.8547747,2.1150408,1.1761315,0.76722664,0.53730857,0.35023224,0
-4.5946321,0.58301657,-1.8721728,-0.75710869,-0.058214754,-0.65068978,0
-2.7525973,-0.20914185,0.36847222,-0.60686332,0.43143988,0.66751516,0
2.4097564,3.1060739,2.6956923,0.75958312,0.56206894,0.32727969,0
-0.62404072,-2.1247208,3.9288471,-0.60686332,0.43143988,0.66751516,0
-1.790781,3.1574099,-0.95312977,-0.60686332,0.43143988,0.66751516,0
-4.3517752,-0.93377942,-1.3380618,-0.79462242,-0.34740177,-0.49788266,0
-0.75813973,-1.7127438,3.592175,-0.60686332,0.43143988,0.66751516,0
-0.068989396,-2.2742128,4.2044787,0.21857521,-0.71687251,0.66205639,0
1.3936318,1.9251227,-3.1366942,0.60686332,-0.43143988,-0.66751516,0
3.7882438,-0.71168602,2.7359858,0.7225107,-0.050515264,0.68951172,0
3.2059886,-2.0212507,1.3750458,0.60686332,-0.43143988,-0.66751516,0
-3.4903486,1.8182384,-1.2554803,-0.60686332,0.43143988,0.66751516,0
0.5388155,2.8946383,1.6148623,-0.60686332,0.43143988,0.66751516,0
-0.60022843,1.1294177,-4.3280888,0.60686332,-0.43143988,-0.66751516,0
-0.061771631,1.8579655,2.0156775,-0.60686332,0.43143988,0.66751516,0
-1.6313555,-4.5616798,-0.82856888,-0.54003435,-0.84003621,0.051981032,0
1.4281726,-0.55382526,-1.184291,0.60686332,-0.43143988,-0.66751516,0
0.72311807,0.91647887,-3.06039,0.60686332,-0.43143988,-0.66751516,0
-0.63638186,-3.5464559,-1.3454584,0.60686332,-0.43143988,-0.66751516,0
-0.53522813,0.44532537,2.0686374,-0.60686332,0.43143988,0.66751516,0
3.4879398,3.0724242,-0.20870683,0.65768135,0.74416393,0.11694214,0
2.5065465,2.5271966,2.9485283,0.79136711,0.40603715,0.45702487,0
-2.4464064,-3.6416078,-0.44763261,-0.59159338,-0.80606031,-0.016853191,0
2.0431054,3.1425281,2.8814726,-0.60686332,0.43143988,0.66751516,0
1.8755457,1.0625224,3.9349597,-0.60686332,0.43143988,0.66751516,0
1.4785284,3.5557783,-2.7731419,0.18280196,0.89309675,-0.41104937,0
-3.3111763,-2.6369047,-2.1898222,-0.77665567,-0.50035483,-0.38268921,0
-2.5212898,-3.5065093,-0.99015421,-0.652327,-0.75017631,-0.10818835,0
-0.86774373,-3.8331842,-1.3389865,0.60686332,-0.43143988,-0.66751516,0
-3.3616588,1.7479458,-1.1670032,-0.60686332,0.43143988,0.66751516,0
-0.36296719,0.97194242,1.9362447,-0.60686332,0.43143988,0.66751516,0
-0.63508886,1.1714191,1.632211,-0.60686332,0.43143988,0.66751516,0
-1.0834693,3.6397352,-2.6048617,-0.18510529,0.74003267,-0.64659691,0
-4.7680588,-0.37384599,-0.93331242,-0.60686332,0.43143988,0.66751516,0
0.013077259,-0.19408298,-2.7383385,0.60686332,-0.43143988,-0.66751516,0
-2.5793073,3.0771246,-1.5199189,-0.60686332,0.43143988,0.66751516,0
1.675925,4.4354372,1.0918106,0.5574224,0.82970506,-0.029495507,0
3.9525678,2.2709355,0.79920459,0.76509178,0.54459858,0.34357956,0
-2.9102626,-3.2877383,-0.9186573,-0.67614007,-0.72170633,-0.14823881,0
-2.7012429,0.72218406,-3.6447902,-0.66340959,0.18757129,-0.72436506,0
-1.3175094,-1.973408,-3.0023177,0.60686332,-0.43143988,-0.66751516,0
-2.1321459,3.6797793,-1.3603063,-0.60686332,0.43143988,0.66751516,0
4.1342764,-0.39871401,0.77704,0.60686332,-0.43143988,-0.66751516,0
0.0037294626,1.3899262,2.1031332,-0.60686332,0.43143988,0.66751516,0
2.3376181,-1.6510692,0.3365314,0.60686332,-0.43143988,-0.66751516,0
0.40407205,3.4706464,-3.1555769,-0.01830703,0.83203602,-0.5544194,0
-2.9440813,-3.3953252,0.56818163,-0.53785622,-0.8412568,0.054750025,0
-2.0651968,-2.8311586,-3.1947732,0.60686332,-0.43143988,-0.66751516,0
