3.7113099,3.1763983,2.0827987,0.9245882,-0.10441422,0.36638051,0
-2.3729951,0.79826498,-4.5464897,-0.9245882,0.10441422,-0.36638051,0
-3.9629834,2.1319025,-0.46536815,-0.9245882,0.10441422,-0.36638051,0
-0.16424131,4.3288836,1.555583,-0.041919053,0.92798561,0.37025097,0
-1.3728062,-1.5372763,-4.9055824,0.29897225,-0.39718932,-0.86767292,0
1.1822948,3.3378279,3.1810899,-0.13673121,0.80668491,0.57494718,0
-1.8668618,3.2243981,2.5890861,-0.17551416,0.73682106,0.65290844,0
1.0892291,-2.8458154,-3.2438231,0.21261334,-0.65658575,-0.72366476,0
-1.9667233,0.89899015,-5.28934,-0.9245882,0.10441422,-0.36638051,0
1.9707072,2.2256479,4.6366696,-0.24518293,0.57298535,0.78203142,0
-3.3395131,4.0547175,-1.5702206,-0.9245882,0.10441422,-0.36638051,0
1.3097365,-3.5222352,4.1464548,-0.32800981,-0.70732772,0.62617671,0
4.4115734,-1.8920038,-0.88065386,0.9245882,-0.10441422,0.36638051,0
1.0975759,-0.80753231,5.3204937,-0.37472802,-0.075901754,0.92402273,0
-0.18467927,-3.7039819,2.5854511,-0.29121643,-0.8137489,0.50299698,0
-4.5815907,0.44028807,0.40726864,-0.9245882,0.10441422,-0.36638051,0
4.4858141,0.75550985,0.29441369,0.9245882,-0.10441422,0.36638051,0
-4.7489614,-2.3438773,0.01196754,-0.9245882,0.10441422,-0.36638051,0
3.4171081,-3.2241158,1.5601501,0.9245882,-0.10441422,0.36638051,0
2.4975982,-4.8983803,0.38470697,-0.045922518,-0.98524189,-0.16489366,0
-4.1161032,0.047163486,-0.834544,-0.9245882,0.10441422,-0.36638051,0
4.9725599,2.51092,-0.37272334,0.9245882,-0.10441422,0.36638051,0
3.0925903,-0.77105236,2.8539169,0.9245882,-0.10441422,0.36638051,0
5.2965164,-0.59330463,-2.1883214,0.9245882,-0.10441422,0.36638051,0
-2.4149463,0.29750681,-5.1960659,-0.9245882,0.10441422,-0.36638051,0
-4.6719217,2.5337894,1.5555868,-0.9245882,0.10441422,-0.36638051,0
4.9291592,-0.093943119,-2.9666414,0.37112099,0.029610781,-0.92811233,0
-2.6074336,-4.3829088,-0.85753286,-0.12009495,-0.99255699,0.020201176,0
-1.2023549,-3.9041193,1.6791002,-0.24905407,-0.89340591,0.37389591,0
-1.8093138,-4.2993584,-1.4509983,-0.027403414,-0.97744495,-0.20940617,0
-4.8653784,-2.5555196,0.88156176,-0.9245882,0.10441422,-0.36638051,0
3.5967007,-3.6810431,1.2580401,0.9245882,-0.10441422,0.36638051,0
-4.8977318,2.1319571,1.8018527,-0.9245882,0.10441422,-0.36638051,0
5.2285709,-0.37877464,-2.6958196,0.9245882,-0.10441422,0.36638051,0
4.6582127,1.6192355,-0.70334035,0.9245882,-0.10441422,0.36638051,0
0.90372694,1.7278821,-4.2101583,0.38005376,0.31940246,-0.86806756,0
3.5891118,2.1275368,2.4421458,0.9245882,-0.10441422,0.36638051,0
2.5928712,-3.7483053,-1.7802713,0.12527949,-0.82489032,-0.55123615,0
-3.692451,3.4444036,1.8670578,-0.1962254,0.69380414,0.69291538,0
4.0049729,-0.0005698204,0.34783912,0.9245882,-0.10441422,0.36638051,0
-3.1952114,4.7528038,-1.5919425,-0.9245882,0.10441422,-0.36638051,0
-3.1195166,-4.0763693,-1.5467168,-0.087755382,-0.99421811,-0.061883569,0
2.2992082,-2.4006639,4.2966523,0.9245882,-0.10441422,0.36638051,0
-2.3707504,2.4817483,-3.9209824,-0.9245882,0.10441422,-0.36638051,0
2.5398586,-1.7688959,3.9186063,0.9245882,-0.10441422,0.36638051,0
3.7847342,-0.65925884,1.3201215,0.9245882,-0.10441422,0.36638051,0
3.6879706,1.2206845,2.0946229,0.9245882,-0.10441422,0.36638051,0
-3.4365921,-1.2208803,3.1989217,-0.37888879,-0.35237387,0.85573125,0
-3.7004108,-1.2922044,-2.0348728,-0.9245882,0.10441422,-0.36638051,0
3.0675392,-4.4066024,2.201776,0.9245882,-0.10441422,0.36638051,0
0.82177973,-4.6689129,-0.31921673,-0.039351165,-0.98273915,-0.18076384,0
-0.40957165,4.3020549,1.2714598,-0.024020553,0.94381708,0.32959455,0
5.0389171,-0.1408689,-2.302259,0.9245882,-0.10441422,0.36638051,0
-1.8601253,1.6452022,-5.2220659,0.38022083,0.31313038,-0.87027675,0
-0.86420774,4.6074033,-1.472151,0.17820597,0.9685421,-0.17369261,0
-2.3709118,1.8602322,3.4980767,-0.29714164,0.40421212,0.86505455,0
-3.8456619,0.15344238,3.4130933,-0.36734205,0.01056591,0.93002594,0
3.7576251,4.1064882,1.0995692,0.14323562,0.986422,-0.080346614,0
-5.3276548,0.85149479,2.7621541,-0.36263233,0.05355623,0.93039221,0
-5.2495179,-1.5977063,1.7886095,-0.9245882,0.10441422,-0.36638051,0
-2.134573,3.5212409,-4.3010378,0.33955234,0.66193473,-0.6682415,0
3.5982726,-1.2534765,-3.2176418,0.33693182,-0.22472616,-0.91431671,0
2.8414874,-1.5797629,3.3802483,0.9245882,-0.10441422,0.36638051,0
2.5326002,-1.3938031,4.063674,0.9245882,-0.10441422,0.36638051,0
4.3364482,-0.53523397,0.11195096,0.9245882,-0.10441422,0.36638051,0
2.8438907,2.4284639,4.4838767,0.9245882,-0.10441422,0.36638051,0
3.1951776,4.3646421,0.59412766,0.13899696,0.98786962,-0.069237441,0
-4.3484187,-3.6268466,0.89798081,-0.27127248,-0.85567427,0.4407188,0
-3.3412814,-4.2755098,-1.7863953,-0.058006287,-0.989079,-0.13549283,0
-2.5860817,3.501883,-3.5411968,-0.9245882,0.10441422,-0.36638051,0
-4.7373543,-3.3133931,0.82027471,-0.29459569,-0.80573893,0.51380777,0
0.69820404,-3.6893406,-2.4610541,0.14026034,-0.80086082,-0.58219349,0
-2.3764803,1.1140592,-5.127882,-0.9245882,0.10441422,-0.36638051,0
-3.4761345,-0.09405756,-2.5813649,-0.9245882,0.10441422,-0.36638051,0
0.7655009,-2.134798,4.8815284,-0.37706971,-0.38804871,0.84097368,0
0.92324686,-2.9031959,-3.6418164,0.22243464,-0.6328066,-0.74167281,0
3.1710525,-0.85890627,2.4888704,0.9245882,-0.10441422,0.36638051,0
3.1145,2.8174767,3.6802683,0.9245882,-0.10441422,0.36638051,0
5.2842855,2.011373,-2.0788035,0.35998124,0.55424106,-0.75048685,0
1.5734143,-2.7975163,4.8025093,-0.36106426,-0.54695559,0.75529617,0
-1.3788853,0.18948054,-5.5174131,0.36579537,-0.025394775,-0.93034875,0
3.8752668,-3.6717803,-1.3828276,0.15902102,-0.76814538,-0.62021387,0
3.5910199,0.27514839,1.9061154,0.9245882,-0.10441422,0.36638051,0
1.689537,3.1174674,-2.5472784,0.31718385,0.74368548,-0.58849514,0
-1.7502768,3.01859,-4.561367,0.35238594,0.59987301,-0.71831506,0
-2.4230244,4.0925541,-3.1168101,-0.9245882,0.10441422,-0.36638051,0
-0.61746693,-3.2917836,-3.3916683,0.16102779,-0.76446569,-0.62422955,0
-4.559926,0.42901945,0.56124216,-0.9245882,0.10441422,-0.36638051,0
-0.21021795,4.0455627,1.544902,-0.044391155,0.92562973,0.37581807,0
-2.2523744,-2.6229432,3.0582387,-0.35394549,-0.5911777,0.72472858,0
-5.1360717,-1.8492794,1.4398662,-0.9245882,0.10441422,-0.36638051,0
-4.7019353,0.32295942,0.66609037,-0.9245882,0.10441422,-0.36638051,0
4.7124743,-2.6463697,-1.5707238,0.9245882,-0.10441422,0.36638051,0
-3.4271092,4.2573295,0.9771198,-0.087602258,0.87766767,0.47119588,0
4.5119796,2.2921395,0.51356924,0.9245882,-0.10441422,0.36638051,0
1.7751541,-4.0675669,-1.3515884,0.089821935,-0.87484956,-0.47599426,0
-0.037230253,4.0655417,-2.3020887,0.26629031,0.86488199,-0.42552182,0
5.1491933,0.96322346,-2.6929657,0.38064134,0.29303274,-0.87706554,0
1.782975,4.3387747,0.53106248,0.11591005,0.99321491,-0.0094526708,0
1.6589537,1.2613152,-4.2285275,0.38068044,0.29060549,-0.8778559,0
-4.645999,-1.160095,2.6313632,-0.37861729,-0.35852355,0.85329354,0
4.553019,-0.39467311,-2.8360429,0.3645829,-0.036504362,-0.93045509,0
-2.1471095,4.055016,-3.5691781,0.28789639,0.821343,-0.4924545,0
3.9580078,2.4421306,-2.4182343,0.34932256,0.61611861,-0.70595455,0
1.8689622,2.0379727,5.0128756,-0.25981766,0.53053224,0.8068645,0
1.9775451,3.2414248,-2.2087183,0.30844197,0.76963586,-0.55903864,0
4.489502,1.560832,-0.50581366,0.9245882,-0.10441422,0.36638051,0
-3.895206,-2.5318913,-1.3154858,-0.9245882,0.10441422,-0.36638051,0
-1.3408573,-3.4730046,-3.5864577,0.15324229,-0.77854365,-0.608594,0
3.7031133,4.1291356,1.868801,0.07431674,0.99266547,0.095354438,0
-3.7303693,0.69621527,3.3229575,-0.35014224,0.14606866,0.92523748,0
5.128839,-0.49188924,-2.2150536,0.9245882,-0.10441422,0.36638051,0
3.8742218,3.0900991,-1.6644659,0.32064506,0.73261559,-0.60038424,0
2.9177623,-1.4381227,2.7332363,0.9245882,-0.10441422,0.36638051,0
0.033672333,4.335855,-0.65690565,0.15260261,0.98268896,-0.10504889,0
2.0607314,-2.1107216,5.0005388,0.9245882,-0.10441422,0.36638051,0
4.0792851,-1.6412022,-0.28333318,0.9245882,-0.10441422,0.36638051,0
4.4336739,-0.23733258,-3.0537968,0.37220982,0.04254958,-0.92717272,0
2.6366389,2.5779619,4.4731846,0.9245882,-0.10441422,0.36638051,0
5.2875795,-1.8965111,-2.4213078,0.9245882,-0.10441422,0.36638051,0
2.671442,1.3299599,4.181129,0.9245882,-0.10441422,0.36638051,0
-2.9650927,3.6609232,-2.1638541,-0.9245882,0.10441422,-0.36638051,0
2.2801647,-2.3143394,4.4649677,0.9245882,-0.10441422,0.36638051,0
2.3376825,-3.0917835,3.8647039,0.9245882,-0.10441422,0.36638051,0
2.4986644,-1.3247099,4.2268705,0.9245882,-0.10441422,0.36638051,0
3.1258345,-2.4866228,2.2702792,0.9245882,-0.10441422,0.36638051,0
-3.6653399,2.9093215,-0.95860946,-0.9245882,0.10441422,-0.36638051,0
4.8826504,1.5020623,-1.0551984,0.9245882,-0.10441422,0.36638051,0
3.06498,2.5638638,4.421463,0.9245882,-0.10441422,0.36638051,0
3.7110035,3.3999166,-1.0846643,0.29320315,0.80907494,-0.50934267,0
3.5618565,1.0019503,1.9626782,0.9245882,-0.10441422,0.36638051,0
-5.03508,-1.5862727,1.0048293,-0.9245882,0.10441422,-0.36638051,0
-4.6695147,3.2360332,1.3098328,-0.9245882,0.10441422,-0.36638051,0
3.4012184,-3.2272682,1.4010098,0.9245882,-0.10441422,0.36638051,0
-1.8769898,3.571681,2.1838675,-0.15388596,0.77739972,0.60989273,0
4.7115774,2.7571902,-0.38962436,0.9245882,-0.10441422,0.36638051,0
-3.6313205,-0.77698803,-1.6663071,-0.9245882,0.10441422,-0.36638051,0
-2.7426856,-2.7528481,2.809268,-0.34626281,-0.63136494,0.69388801,0
-3.5139594,-1.7905402,-3.06252,-0.9245882,0.10441422,-0.36638051,0
4.1723533,-3.521497,-2.0830212,0.20556641,-0.67295378,-0.71054602,0
2.1136613,-4.3431125,-0.79627395,0.053515911,-0.91657537,-0.39626488,0
-0.50327659,-1.0278606,-4.9345899,0.32357708,-0.29237983,-0.89989549,0
4.9453216,-0.89629292,-2.128932,0.9245882,-0.10441422,0.36638051,0
-3.1251945,-2.4842465,2.7223253,-0.35251036,-0.59919083,0.71882319,0
5.1717763,-1.8811231,-2.3056183,0.9245882,-0.10441422,0.36638051,0
1.0968275,-3.5541356,3.7636127,-0.31346968,-0.75504577,0.57588434,0
-0.12440968,-4.5515718,-0.070818186,-0.085894763,-0.99407989,-0.066539675,0
-4.2918458,-3.2957349,-0.84354901,-0.9245882,0.10441422,-0.36638051,0
-1.6787628,1.8039134,3.5420074,-0.29870734,0.39821136,0.86729568,0
2.2384324,-2.358892,4.1009912,0.9245882,-0.10441422,0.36638051,0
-3.3712566,3.7477112,-1.5268086,-0.9245882,0.10441422,-0.36638051,0
-4.3796415,2.2830346,0.85826802,-0.9245882,0.10441422,-0.36638051,0
3.1066403,-0.59921628,-3.5760121,0.35500515,-0.11281481,-0.92803246,0
-2.8862839,2.3349493,-2.6129868,-0.9245882,0.10441422,-0.36638051,0
-1.7068329,-1.2797856,-4.9474564,0.30770382,-0.36235821,-0.87978125,0
-2.9328904,2.79494,-2.2767572,-0.9245882,0.10441422,-0.36638051,0
3.4250882,-3.2762215,1.3115638,0.9245882,-0.10441422,0.36638051,0
-0.86117941,-1.2810545,-4.7684188,0.31270102,-0.34133717,-0.88640118,0
1.7342267,-3.2327747,-2.6449242,0.17992693,-0.72801083,-0.66153347,0
-1.1849793,-1.0855422,4.2411747,-0.38096812,-0.25463256,0.88883382,0
-2.7732949,4.0566072,-3.2657013,-0.9245882,0.10441422,-0.36638051,0
3.7542686,4.141408,1.0006454,0.14402145,0.98613721,-0.082411051,0
-3.4095349,-0.0897789,3.6013653,-0.37445906,-0.072057828,0.92443931,0
2.302784,2.5515907,-2.8314209,0.3456229,0.63444155,-0.69139624,0
-3.0337236,4.1623135,-1.7827255,-0.9245882,0.10441422,-0.36638051,0
0.44384766,-1.2348869,5.0271335,-0.37974969,-0.17573206,0.90824473,0
5.0223546,1.4523401,-1.7335255,0.9245882,-0.10441422,0.36638051,0
0.10190129,3.5589023,-3.282721,0.31404084,0.75333196,-0.5778144,0
0.67240334,-4.449892,-0.90557575,-0.017299235,-0.97222316,-0.23341638,0
-2.5856686,-3.710218,-2.7437663,0.037102699,-0.93245709,-0.3593708,0
2.3461461,0.25585413,4.6247053,0.9245882,-0.10441422,0.36638051,0
-0.27911907,-1.441572,4.6228013,-0.38022757,-0.31286329,0.87036979,0
-0.79028893,2.9087555,-4.3371234,0.35376263,0.59221298,-0.7239722,0
-3.1008859,2.5406098,2.6570125,-0.26199007,0.52393311,0.81046617,0
-3.5064957,3.3444071,-1.529979,-0.9245882,0.10441422,-0.36638051,0
-2.234421,3.7052245,-3.8095961,-0.9245882,0.10441422,-0.36638051,0
2.1854594,-0.55182719,5.0013227,0.9245882,-0.10441422,0.36638051,0
4.4650831,2.029942,0.045822799,0.9245882,-0.10441422,0.36638051,0
2.4686713,4.1859922,1.3464826,0.085511744,0.99404842,0.067497015,0
-2.1794572,-0.27021646,-5.3283887,-0.9245882,0.10441422,-0.36638051,0
-4.6722298,-2.3172922,2.234344,-0.35669941,-0.57502657,0.73628134,0
-1.8846674,3.3238068,2.5231593,-0.166888,0.75351405,0.63589692,0
0.580832,-0.44245291,5.0550685,-0.3742387,-0.068965852,0.92476439,0
-1.8097724,1.4970571,3.7327068,-0.31000951,0.35276434,0.88286549,0
2.7167866,-2.6278868,3.4016485,0.9245882,-0.10441422,0.36638051,0
1.5238161,-4.6532269,0.34720778,-0.079375267,-0.99340034,-0.082798213,0
-2.5331464,2.3482258,-3.6237421,-0.9245882,0.10441422,-0.36638051,0
-3.9820509,-3.6626201,-1.4906772,-0.9245882,0.10441422,-0.36638051,0
-4.5995264,1.0456681,2.7902422,-0.34424669,0.18297365,0.92087722,0
0.90106034,2.3550081,4.2371645,-0.23792046,0.59284991,0.76936531,0
2.0722289,-4.8171744,2.299351,-0.1992743,-0.95220274,0.23151657,0
-1.9433906,2.6854036,2.9562106,-0.24286002,0.57942164,0.77800369,0
3.182101,1.2218385,3.0782719,0.9245882,-0.10441422,0.36638051,0
3.080471,3.7502682,-0.93571901,0.26011199,0.87567812,-0.40685356,0
-3.324302,2.4748597,-1.5086052,-0.9245882,0.10441422,-0.36638051,0
4.7218995,0.15367937,-0.87641954,0.9245882,-0.10441422,0.36638051,0
2.8549557,-3.1262984,3.3147039,0.9245882,-0.10441422,0.36638051,0
3.9570174,-1.0735168,0.72547269,0.9245882,-0.10441422,0.36638051,0
1.0514736,-4.5535688,1.5640662,-0.19977164,-0.95176166,0.23289743,0
-3.0896111,5.0757699,-1.4606922,-0.9245882,0.10441422,-0.36638051,0
5.077879,1.4491618,-2.1992927,0.37308577,0.44278648,-0.81532031,0
5.1769304,1.0015531,-2.3208296,0.9245882,-0.10441422,0.36638051,0
5.2524724,-1.3612845,-2.3601031,0.9245882,-0.10441422,0.36638051,0
4.0392771,2.8493357,1.9366488,0.9245882,-0.10441422,0.36638051,0
-3.2465825,2.0705273,-2.6477866,-0.9245882,0.10441422,-0.36638051,0
-4.81598,-2.5038028,0.52093899,-0.9245882,0.10441422,-0.36638051,0
3.3919268,-4.0257668,1.5297874,0.9245882,-0.10441422,0.36638051,0
3.3435073,-4.6151209,1.5676444,0.9245882,-0.10441422,0.36638051,0
0.69910765,-3.5176041,3.702213,-0.31966904,-0.7357865,0.59701765,0
-3.8542156,-2.1911702,-1.3236345,-0.9245882,0.10441422,-0.36638051,0
-2.9926767,1.0837984,-3.4997048,-0.9245882,0.10441422,-0.36638051,0
-2.9443185,-2.8912249,-4.0743122,-0.9245882,0.10441422,-0.36638051,0
1.254221,-0.81443119,5.2153888,-0.37850222,-0.14251481,0.91456312,0
4.8047228,1.3111882,-0.70893544,0.9245882,-0.10441422,0.36638051,0
-2.6812372,3.2886541,-3.4574671,-0.9245882,0.10441422,-0.36638051,0
1.4826251,-0.77963948,-4.1961098,0.34645551,-0.1695303,-0.92262024,0
4.2060194,-0.089066982,0.14509004,0.9245882,-0.10441422,0.36638051,0
2.5577776,1.1530371,5.0915198,0.9245882,-0.10441422,0.36638051,0
2.3111942,4.1884627,-0.41621423,0.18117666,0.96650672,-0.18176937,0
2.9181833,3.0442567,-2.1612349,0.32477868,0.71873015,-0.61477304,0
3.0071282,-4.0538278,1.6964732,0.9245882,-0.10441422,0.36638051,0
3.1828775,-4.444891,1.790494,0.9245882,-0.10441422,0.36638051,0
3.9099832,-2.3779898,-0.1175884,0.9245882,-0.10441422,0.36638051,0
-2.7105353,1.706547,-4.1095052,-0.9245882,0.10441422,-0.36638051,0
-3.7545097,0.36155367,-1.5348326,-0.9245882,0.10441422,-0.36638051,0
3.1523471,-2.3809795,-2.8913805,0.26249421,-0.52239013,-0.81129867,0
2.9659667,1.4987001,4.2725368,0.9245882,-0.10441422,0.36638051,0
4.4092493,-3.1774368,-1.6341196,0.9245882,-0.10441422,0.36638051,0
5.1820245,2.6282206,-0.93578601,0.9245882,-0.10441422,0.36638051,0
-4.8249793,1.849829,1.7717855,-0.9245882,0.10441422,-0.36638051,0
-3.2540402,-2.3089046,-3.8564296,-0.9245882,0.10441422,-0.36638051,0
4.2109795,1.8973832,1.0203074,0.9245882,-0.10441422,0.36638051,0
-3.1158872,4.6774054,-1.7957416,-0.9245882,0.10441422,-0.36638051,0
-4.719471,-3.0909705,0.84603596,-0.28715783,-0.82299674,0.49011925,0
3.4603133,-3.4496355,1.3183376,0.9245882,-0.10441422,0.36638051,0
-0.45677304,-2.5199378,-4.130178,0.23089117,-0.61137748,-0.75690627,0
2.1961622,3.3435283,-2.183188,0.31821764,0.74042952,-0.59203184,0
4.9447794,-2.1704223,-2.7687352,0.30401748,-0.377343,-0.87474895,0
-1.5203508,-3.4021578,2.7066498,-0.30862001,-0.76913381,0.55963123,0
-3.5534365,-4.1969762,-0.99865973,-0.13517624,-0.98904806,0.059259862,0
-2.0268226,-3.8941345,1.1033431,-0.22622609,-0.92426747,0.30749261,0
-2.7942576,4.4911666,-3.0416811,-0.9245882,0.10441422,-0.36638051,0
3.913203,1.1953015,1.8559053,0.9245882,-0.10441422,0.36638051,0
4.1696501,0.24907064,0.16145217,0.9245882,-0.10441422,0.36638051,0
-1.8229989,-3.0347369,-4.2194157,0.18587452,-0.71583718,-0.67307341,0
3.8305705,2.7065363,2.2604508,0.9245882,-0.10441422,0.36638051,0
1.7717965,2.3288512,-3.3389478,0.36195332,0.5407967,-0.75929487,0
-3.5687361,-3.1310377,-3.2932878,-0.9245882,0.10441422,-0.36638051,0
3.3519373,-4.9432817,0.67977071,-0.056891203,-0.98876661,-0.13821808,0
-0.1826179,-3.5938449,-3.0823355,0.14628673,-0.79067749,-0.59449941,0
-4.6165881,-2.3462391,0.10709834,-0.9245882,0.10441422,-0.36638051,0
-1.0536338,1.694828,3.9593673,-0.30745113,0.36339906,0.87944013,0
-5.0072832,0.24221325,1.2622769,-0.9245882,0.10441422,-0.36638051,0
-3.973547,-0.36032987,2.9894786,-0.37834322,-0.138955,0.91517645,0
-2.3638515,4.4040241,1.2554116,-0.056801021,0.91317683,0.40358633,0
-4.106998,-3.7260284,-2.0705879,-0.9245882,0.10441422,-0.36638051,0
2.9652209,-0.026246071,3.5739477,0.9245882,-0.10441422,0.36638051,0
5.045022,-1.3115442,-1.6744199,0.9245882,-0.10441422,0.36638051,0
-2.319526,-4.2436733,-0.50918865,-0.14162034,-0.98699117,0.076108277,0
-0.87468028,2.2849982,3.7362211,-0.26795638,0.50538337,0.82023603,0
1.888355,-2.4635224,4.8110137,-0.37288439,-0.44509637,0.81415391,0
-1.5704579,-2.6020939,3.4631467,-0.36366022,-0.52847755,0.76711327,0
1.2137951,2.0997016,4.5345125,-0.24922943,0.56158191,0.7889933,0
3.094178,-0.67235708,3.2853348,0.9245882,-0.10441422,0.36638051,0
-2.4926689,2.7263145,-3.5960681,-0.9245882,0.10441422,-0.36638051,0
3.5563009,-0.28496885,2.0543311,0.9245882,-0.10441422,0.36638051,0
-2.7668595,4.6273708,-0.99192882,0.092894793,0.9944703,0.04898563,0
3.4385591,-2.7974954,1.179491,0.9245882,-0.10441422,0.36638051,0
4.4839153,1.5443721,-0.14607602,0.9245882,-0.10441422,0.36638051,0
-4.931531,-1.4749703,1.4258776,-0.9245882,0.10441422,-0.36638051,0
-3.9906218,3.5417995,0.37182498,-0.9245882,0.10441422,-0.36638051,0
-3.7660232,3.3149316,-0.51365173,-0.9245882,0.10441422,-0.36638051,0
4.4881024,2.9923277,0.042685032,0.9245882,-0.10441422,0.36638051,0
1.887588,-4.1794934,-1.6422729,0.10656601,-0.85243326,-0.51186091,0
2.5153117,3.8964202,3.0010395,-0.067773342,0.90128762,0.42788747,0
0.99396777,3.959888,-2.321295,0.28406584,0.82978278,-0.4803825,0
-3.0785723,-3.6461143,-2.9606173,0.04047209,-0.92934537,-0.36698702,0
-0.33492517,0.21670318,4.964005,-0.36088723,0.068062663,0.93012255,0
-4.5592871,0.93570185,1.2104796,-0.9245882,0.10441422,-0.36638051,0
2.7272186,-5.0153565,1.4125185,-0.12280244,-0.99205905,0.027175784,0
2.3701735,-0.42828339,-3.9832172,0.35658365,-0.10135288,-0.92874956,0
-0.67449105,-1.9207737,-4.4718122,0.2688365,-0.50259238,-0.82166171,0
2.7161808,0.33286405,-3.5636823,0.37678337,0.10846557,-0.91992909,0
-0.84566355,1.0808728,-5.3104439,0.37991649,0.18128867,-0.90708202,0
3.5791788,0.50184059,2.485153,0.9245882,-0.10441422,0.36638051,0
-4.369586,2.8651834,2.0953314,-0.23604316,0.59786379,0.76605654,0
3.0801115,3.0411525,3.6016302,0.9245882,-0.10441422,0.36638051,0
-0.076766253,-2.9787335,-3.5471144,0.21219939,-0.65756309,-0.72289872,0
4.4145145,1.0502238,-0.45407531,0.9245882,-0.10441422,0.36638051,0
-4.7280211,3.2915173,1.8657373,-0.9245882,0.10441422,-0.36638051,0
2.26372,-0.82907867,5.0771117,0.9245882,-0.10441422,0.36638051,0
2.6583056,1.3483865,-3.3938153,0.37903959,0.34877664,-0.85713696,0
1.4620848,-0.22446859,-4.4187217,0.36437976,-0.038325507,-0.93046147,0
0.3701911,2.2290087,-4.0416484,0.37280118,0.44604173,-0.81367439,0
4.0600758,-1.27724,-0.024508953,0.9245882,-0.10441422,0.36638051,0
-2.4904864,3.0425413,-4.2364068,-0.9245882,0.10441422,-0.36638051,0
-3.179709,0.27404261,-3.2659342,-0.9245882,0.10441422,-0.36638051,0
-3.1529889,-0.39780283,-2.7234325,-0.9245882,0.10441422,-0.36638051,0
-1.5332298,2.8712943,3.3464546,-0.23383838,0.60369045,0.76215327,0
1.7496529,-4.854434,0.70582557,-0.10762423,-0.99412268,-0.01171571,0
-2.5806923,0.18989515,-4.2549777,-0.9245882,0.10441422,-0.36638051,0
-2.7541046,-4.26896,-1.9878947,-0.027184069,-0.97733873,-0.20992932,0
-4.3555846,-3.8796797,-1.0664935,-0.9245882,0.10441422,-0.36638051,0
-4.3626347,2.2289155,0.79614311,-0.9245882,0.10441422,-0.36638051,0
-0.67619014,-4.2921124,-1.3439111,-0.029507875,-0.97844672,-0.2043806,0
2.7069969,1.5849996,4.1931481,0.9245882,-0.10441422,0.36638051,0
-4.4166417,-3.9036865,-1.1885386,-0.9245882,0.10441422,-0.36638051,0
3.3439214,1.7377456,-2.9739649,0.37491098,0.42019379,-0.82636493,0
3.4338713,-2.4240687,1.6479695,0.9245882,-0.10441422,0.36638051,0
-2.7142072,4.627625,-1.8905203,0.16187823,0.97824728,-0.12972236,0
3.5974493,1.2099739,-3.2693629,0.3791016,0.34725603,-0.85772687,0
1.2941694,-2.843595,-3.1078901,0.21818584,-0.64323568,-0.7339229,0
-1.6890085,-4.2866249,-0.26552284,-0.14335525,-0.98637897,0.080660909,0
2.7479982,0.28941631,3.9786234,0.9245882,-0.10441422,0.36638051,0
-5.5742702,-0.68717766,2.5972188,-0.9245882,0.10441422,-0.36638051,0
3.4200497,3.8958669,1.1966294,0.11345804,0.9935379,-0.0031727254,0
-0.28105617,4.017817,-2.3498662,0.26831341,0.8611986,-0.43167698,0
5.2876968,-0.63887739,-2.6032004,0.36414587,-0.040409055,-0.93046492,0
0.69063026,-0.49443257,-4.6060843,0.3485539,-0.15634347,-0.92415744,0
3.131541,-2.8532977,2.2977104,0.9245882,-0.10441422,0.36638051,0
2.0089879,-0.22607422,5.6062417,-0.36206248,0.058365364,0.93032479,0
0.38946486,-2.3646634,-3.9947674,0.24844843,-0.56380224,-0.78765506,0
1.2706406,4.0733032,2.5470088,-0.062209606,0.9074201,0.41559476,0
-2.8813763,0.97925472,-2.9590771,-0.9245882,0.10441422,-0.36638051,0
2.5150919,-4.5207858,-0.17777908,0.014653027,-0.95124996,-0.3080731,0
-0.91321898,2.4805212,3.6394279,-0.24183196,0.58224499,0.77621394,0
-2.7557518,1.2537453,-3.5246956,-0.9245882,0.10441422,-0.36638051,0
-5.0191531,-0.58334446,1.8696268,-0.9245882,0.10441422,-0.36638051,0
3.3508534,-4.7927628,1.0606055,0.9245882,-0.10441422,0.36638051,0
-3.5934796,2.1821918,-0.87679195,-0.9245882,0.10441422,-0.36638051,0
-1.3872466,4.3496866,-3.0562921,0.27153569,0.85517484,-0.44152522,0
-1.2486806,-3.6673861,-3.2112021,0.11314726,-0.84305221,-0.52579558,0
-2.8531108,1.3064084,-3.806354,-0.9245882,0.10441422,-0.36638051,0
-3.7363422,-2.5017805,-2.4415345,-0.9245882,0.10441422,-0.36638051,0
2.1448987,-1.5807471,4.8663945,0.9245882,-0.10441422,0.36638051,0
2.2026749,2.0071235,4.971395,-0.25555915,0.54323792,0.79973888,0
-2.9063463,-2.0720429,2.8703449,-0.36258593,-0.53630948,0.76217031,0
-2.8697903,4.0331669,-2.9365597,-0.9245882,0.10441422,-0.36638051,0
-2.3836756,-0.14609385,-4.8023615,-0.9245882,0.10441422,-0.36638051,0
2.9540353,-3.2453392,-2.4976358,0.21267885,-0.65643114,-0.72378588,0
3.2389579,3.0996642,3.9445138,0.9245882,-0.10441422,0.36638051,0
-4.0975208,1.0196757,2.9388022,-0.34426045,0.1828914,0.92088842,0
-4.8936687,2.2378628,2.2441368,-0.29409578,0.41569722,0.86064136,0
-3.1494052,0.71883059,-2.9361548,-0.9245882,0.10441422,-0.36638051,0
0.78063571,0.24972081,5.061183,-0.36063939,0.070070684,0.93006951,0
4.4335418,1.9669385,0.41910103,0.9245882,-0.10441422,0.36638051,0
4.206152,-0.93172932,0.47842011,0.9245882,-0.10441422,0.36638051,0
3.9329364,-3.4308486,-1.7735074,0.19875515,-0.68824989,-0.69771671,0
-2.0338974,2.9255471,3.2263024,-0.23175949,0.60912466,0.75845557,0
-2.5792115,-3.6344879,-3.5788658,0.10760337,-0.85097623,-0.51406336,0
5.3209028,0.31654787,-2.7672482,0.9245882,-0.10441422,0.36638051,0
3.009352,-1.8344052,2.4945314,0.9245882,-0.10441422,0.36638051,0
-1.2055333,-3.4994004,-3.221735,0.14423668,-0.79417574,-0.59032261,0
4.826633,-1.6027946,-1.4043319,0.9245882,-0.10441422,0.36638051,0
1.3385563,-3.4643211,-2.2479637,0.15804714,-0.7699182,-0.61826134,0
0.41968977,0.16448057,-4.5723562,0.36555234,-0.027655575,-0.93037981,0
-3.8143008,0.96839881,-0.62179625,-0.9245882,0.10441422,-0.36638051,0
2.9971385,4.1459451,0.14154637,0.17626321,0.96982729,-0.16842365,0
2.1128926,-4.0958242,-1.8715756,0.12187678,-0.83009928,-0.54413366,0
5.0260057,0.0088324547,-1.8283207,0.9245882,-0.10441422,0.36638051,0
4.1791778,4.1226554,1.6952695,0.9245882,-0.10441422,0.36638051,0
0.5027976,-4.3401799,1.8203456,-0.2182399,-0.93343604,0.28472584,0
2.1296148,-0.4715929,5.5071535,-0.37166634,-0.035999253,0.92766809,0
-4.6235409,-2.8931794,0.12411797,-0.9245882,0.10441422,-0.36638051,0
-0.53962994,-3.5150819,-3.1041665,0.1391049,-0.80277896,-0.57982409,0
2.826441,2.4231212,-2.9205894,0.36250988,0.53685379,-0.7618233,0
4.0303493,-0.15487909,1.1593158,0.9245882,-0.10441422,0.36638051,0
0.30505896,-4.3139048,2.3126211,-0.2528016,-0.88761723,0.38500276,0
4.9893098,0.014779806,-2.8749077,0.3761462,0.097667985,-0.9213984,0
2.2108321,0.27041626,5.4273925,0.9245882,-0.10441422,0.36638051,0
4.3741698,3.2488275,0.76668096,0.9245882,-0.10441422,0.36638051,0
-1.6976771,3.6981473,2.1987062,-0.1354869,0.80871421,0.57238525,0
2.867027,-0.48650885,3.7836716,0.9245882,-0.10441422,0.36638051,0
3.2445617,1.8680396,3.6494429,0.9245882,-0.10441422,0.36638051,0
-4.7449775,0.67937064,1.3676149,-0.9245882,0.10441422,-0.36638051,0
-3.4434614,-0.66540718,-2.746208,-0.9245882,0.10441422,-0.36638051,0
-4.1413546,2.9009678,0.14479876,-0.9245882,0.10441422,-0.36638051,0
3.6327603,-0.39351797,1.6093025,0.9245882,-0.10441422,0.36638051,0
2.8360062,1.8285036,4.6671667,0.9245882,-0.10441422,0.36638051,0
-3.0858707,2.1367228,-2.882091,-0.9245882,0.10441422,-0.36638051,0
-3.7541156,2.0290627,-1.1560578,-0.9245882,0.10441422,-0.36638051,0
-4.6788936,0.6923964,0.82940304,-0.9245882,0.10441422,-0.36638051,0
-2.6902254,2.8230634,-3.8454759,-0.9245882,0.10441422,-0.36638051,0
3.4635024,-3.3792672,1.4336737,0.9245882,-0.10441422,0.36638051,0
4.0563354,-1.749459,0.72221297,0.9245882,-0.10441422,0.36638051,0
2.7753913,2.5292759,4.6126809,0.9245882,-0.10441422,0.36638051,0
0.31762141,1.7116367,-4.5236788,0.37859729,0.35896119,-0.85311836,0
-3.3524923,1.1339666,3.5174789,-0.34616494,0.17132342,0.92239803,0
-1.4292321,4.7417126,-0.86769319,0.1076138,0.99412358,0.011742592,0
-1.7202955,-1.8059685,-4.9008241,0.27389526,-0.48626602,-0.82977515,0
-3.9744587,-3.8395023,-2.2095456,-0.9245882,0.10441422,-0.36638051,0
5.1491189,-1.6496768,-2.1959858,0.9245882,-0.10441422,0.36638051,0
-2.8963516,-3.1228204,-3.9833524,-0.9245882,0.10441422,-0.36638051,0
3.7524674,3.5550642,2.5877819,0.9245882,-0.10441422,0.36638051,0
1.8628874,3.2379661,-2.7119691,0.32575658,0.71533191,-0.6182096,0
2.8981893,3.1111751,3.9880672,0.9245882,-0.10441422,0.36638051,0
0.018754482,-4.1309853,-2.2534292,0.082740366,-0.88371682,-0.4606503,0
-4.5847559,-0.83750582,0.17920393,-0.9245882,0.10441422,-0.36638051,0
-3.3984017,-4.2586317,-1.3045781,-0.10980541,-0.99393415,-0.0061576664,0
-4.7490835,2.2003512,1.7972324,-0.9245882,0.10441422,-0.36638051,0
2.7933419,-1.2460632,3.6416121,0.9245882,-0.10441422,0.36638051,0
2.2498107,3.7582276,-0.87804747,0.23076439,0.91869855,-0.32053244,0
-1.4035755,-3.50211,2.3664608,-0.30765718,-0.77183646,0.55643117,0
-3.4252377,0.34912109,-2.3672674,-0.9245882,0.10441422,-0.36638051,0
-4.6102753,2.9713755,1.0584021,-0.9245882,0.10441422,-0.36638051,0
3.3532121,-2.5865328,-2.8143308,0.27030456,-0.49790475,-0.82403064,0
-0.45994091,2.7904749,3.3457761,-0.22251695,0.63260245,0.74182236,0
-4.3914146,-1.9937396,-0.83295649,-0.9245882,0.10441422,-0.36638051,0
-2.6820695,-1.1955757,-4.320003,-0.9245882,0.10441422,-0.36638051,0
-4.1668062,1.7092531,0.1825099,-0.9245882,0.10441422,-0.36638051,0
-2.9617126,-1.1506538,-3.6176431,-0.9245882,0.10441422,-0.36638051,0
2.0560648,2.0136974,-3.3870058,0.37357506,0.43703622,-0.81819379,0
-0.21257782,4.5399098,-0.71188927,0.16254389,0.97789937,-0.13150129,0
2.3565447,1.8201795,5.1329498,0.9245882,-0.10441422,0.36638051,0
-3.0255933,-0.32839632,-3.891927,-0.9245882,0.10441422,-0.36638051,0
-4.2306533,2.0778465,2.5079889,-0.29677114,0.40562248,0.8645215,0
-4.7349176,-1.3529096,0.99179989,-0.9245882,0.10441422,-0.36638051,0
4.9540491,0.74592638,-2.7317927,0.38091642,0.26926661,-0.88453275,0
-3.384059,3.7994208,-1.6152354,-0.9245882,0.10441422,-0.36638051,0
4.0223007,-3.0489855,-2.163043,0.21454424,-0.65200138,-0.72723103,0
2.6742527,3.0766587,4.0786891,-0.14844632,0.78695416,0.59888822,0
-4.6660023,-1.8034487,0.1941179,-0.9245882,0.10441422,-0.36638051,0
1.2926471,2.4641531,-3.5529182,0.35901859,0.56052965,-0.74626541,0
4.3164611,2.9311924,1.4052399,0.9245882,-0.10441422,0.36638051,0
4.297955,-3.4430201,-0.69842321,0.9245882,-0.10441422,0.36638051,0
3.4762783,1.4372292,2.075865,0.9245882,-0.10441422,0.36638051,0
3.5960665,3.4115138,2.3195174,0.9245882,-0.10441422,0.36638051,0
-0.43336892,-4.1967506,-1.0997977,-0.011125684,-0.9686985,-0.24799152,0
2.6129413,2.9014583,-2.625813,0.34036332,0.65842664,-0.67128789,0
3.9271693,0.77714348,1.1675954,0.9245882,-0.10441422,0.36638051,0
3.5276575,0.28420258,2.3484576,0.9245882,-0.10441422,0.36638051,0
-1.8026701,-2.9967599,3.1333804,-0.34269986,-0.64804524,0.68014294,0
2.1602857,-3.981529,-1.3495784,0.091759562,-0.87236029,-0.48017478,0
2.1368964,2.4495325,4.4172468,-0.21521109,0.65040815,0.72845972,0
0.47916031,4.3385625,1.5867026,-0.015570998,0.95054728,0.31018969,0
-4.8958101,0.66275859,3.1402752,-0.36293587,0.050963379,0.93041939,0
-4.6978626,-1.9550123,0.85639876,-0.9245882,0.10441422,-0.36638051,0
3.417505,-3.3314009,-2.1187193,0.18826127,-0.71085352,-0.6776762,0
2.2018387,1.3989882,5.3074322,0.9245882,-0.10441422,0.36638051,0
4.8515263,-1.8707387,-2.6709228,0.31154016,-0.34629655,-0.88488501,0
3.4875131,-3.5987549,1.1197411,0.9245882,-0.10441422,0.36638051,0
1.2142456,-3.2407296,3.9635034,-0.34050718,-0.65779912,0.67182982,0
4.1076317,-3.5201809,-0.53579879,0.9245882,-0.10441422,0.36638051,0
3.7628808,-0.89625895,-3.1810822,0.34456733,-0.18104872,-0.92113775,0
-1.117501,2.5230901,-4.6039162,0.36970854,0.47800305,-0.79676139,0
0.74851882,-1.5292513,5.063189,-0.38094106,-0.26491889,0.88583398,0
-1.5290363,-4.4112821,-0.18043959,-0.12188077,-0.99223506,0.024799466,0
5.2685509,2.038723,-2.0190792,0.9245882,-0.10441422,0.36638051,0
-2.5312705,4.6728573,0.34082174,-0.011964619,0.95327538,0.30186617,0
2.4537201,0.12990612,-3.8648448,0.37370557,0.061684772,-0.92549407,0
3.4593587,-4.5158315,0.9112711,0.9245882,-0.10441422,0.36638051,0
2.3810854,4.1564426,0.25574493,0.13667548,0.98859972,-0.063171178,0
2.8749452,-4.1346049,2.6413355,0.9245882,-0.10441422,0.36638051,0
1.0414536,0.99783641,-4.5623283,0.38059616,0.21065445,-0.90042841,0
1.5018467,-0.14834723,-4.3503027,0.36646307,-0.019089129,-0.93023676,0
-2.8530536,-1.4213501,3.3443537,-0.37923434,-0.34390908,0.8590157,0
-4.3828497,3.3306694,0.57705379,-0.9245882,0.10441422,-0.36638051,0
-2.9296513,0.09763813,-3.7718785,-0.9245882,0.10441422,-0.36638051,0
-4.3948326,0.58516145,-0.084893137,-0.9245882,0.10441422,-0.36638051,0
0.86307001,-4.1704655,2.9166408,-0.26781309,-0.86211652,0.43015286,0
1.2455642,2.9690366,3.9231362,-0.18263382,0.72251338,0.66679794,0
-1.2999589,-4.2552457,0.75306737,-0.1856795,-0.96325731,0.19405875,0
-4.4596472,0.34822607,0.4065479,-0.9245882,0.10441422,-0.36638051,0
-4.3335147,-3.3279963,-0.73300993,-0.9245882,0.10441422,-0.36638051,0
1.8217896,-1.3929106,-3.9461851,0.31799367,-0.31810167,-0.89313567,0
3.6144357,-2.8011143,0.51733005,0.9245882,-0.10441422,0.36638051,0
2.7655499,-0.54189402,-3.6276243,0.35692894,-0.098796964,-0.92889231,0
-2.0265706,3.1099575,2.9687049,-0.22362781,0.62983787,0.74383807,0
2.9335155,-1.9777148,2.5336118,0.9245882,-0.10441422,0.36638051,0
-3.5298333,-0.95317364,-2.7171712,-0.9245882,0.10441422,-0.36638051,0
-1.1708531,-3.1199515,-4.0141549,0.18424016,-0.71921718,-0.66991216,0
-1.7286575,-2.5740585,3.3700562,-0.35949373,-0.55744755,0.74834263,0
-3.6689878,3.9087052,-1.0369705,-0.9245882,0.10441422,-0.36638051,0
2.4511933,-0.44628429,4.8163447,0.9245882,-0.10441422,0.36638051,0
4.5841236,2.5004072,0.43757904,0.9245882,-0.10441422,0.36638051,0
-3.5561583,0.82476664,-1.8365674,-0.9245882,0.10441422,-0.36638051,0
-4.6423655,-1.3337007,0.073008657,-0.9245882,0.10441422,-0.36638051,0
-3.6872337,-3.9106543,-0.11059141,-0.2021746,-0.94959337,0.23957926,0
-2.9713259,1.0137639,-3.6218121,-0.9245882,0.10441422,-0.36638051,0
-3.8969104,-3.9504659,-0.22148252,-0.19546717,-0.95549166,0.22097173,0
-2.8616824,4.3907981,-2.7633214,-0.9245882,0.10441422,-0.36638051,0
4.6920824,-0.52379942,-0.63269794,0.9245882,-0.10441422,0.36638051,0
-3.0497308,-1.234024,-3.6186774,-0.9245882,0.10441422,-0.36638051,0
-4.0446906,4.0373559,0.68851209,-0.9245882,0.10441422,-0.36638051,0
1.5794317,2.3529973,-3.7004561,0.36633205,0.50768095,-0.77978265,0
-3.8581581,-4.202353,-2.2114778,-0.052199066,-0.98735911,-0.14965776,0
-2.5953691,3.0449033,-3.2397232,-0.9245882,0.10441422,-0.36638051,0
-0.65247536,0.77165508,4.4004993,-0.34812719,0.15905958,0.92385471,0
-1.1972785,4.4675999,-1.9448025,0.22077411,0.93061173,-0.29192612,0
4.7884951,-2.9588943,-1.6246833,0.9245882,-0.10441422,0.36638051,0
1.6123791,1.0256412,5.3843179,-0.31864807,0.31515393,0.89394712,0
-3.8249803,3.0802431,2.0574882,-0.21720469,0.64561307,0.73212427,0
-1.175522,-1.285174,4.3664851,-0.38094875,-0.24361512,0.89192474,0
0.37903157,0.16003311,-4.5449309,0.37180492,0.03765101,-0.92754704,0
-3.4082322,1.045615,-1.7116647,-0.9245882,0.10441422,-0.36638051,0
-4.9855456,0.91541481,2.2353742,-0.9245882,0.10441422,-0.36638051,0
-4.3222203,0.77157593,0.42719442,-0.9245882,0.10441422,-0.36638051,0
4.5463271,0.48477316,-0.28689879,0.9245882,-0.10441422,0.36638051,0
-4.6610966,-2.1421781,0.7489028,-0.9245882,0.10441422,-0.36638051,0
-0.78239584,3.9712789,-3.0311477,0.28904653,0.81874233,-0.4960981,0
4.7568078,3.0395923,-0.76171839,0.9245882,-0.10441422,0.36638051,0
5.1673341,2.2055178,-2.0325189,0.9245882,-0.10441422,0.36638051,0
-1.2602594,-1.889925,-4.5809994,0.26752752,-0.50673795,-0.8195399,0
-3.1656613,-0.56561041,-3.4870374,-0.9245882,0.10441422,-0.36638051,0
0.39306045,3.5550294,2.9409409,-0.13299412,0.81274158,0.56724232,0
4.4076076,3.4249091,0.26434529,0.9245882,-0.10441422,0.36638051,0
1.0252061,-2.4966919,-3.5237775,0.23995507,-0.58736074,-0.77293539,0
-4.025578,3.4355245,0.23820937,-0.9245882,0.10441422,-0.36638051,0
-4.0837345,3.5621686,0.43575668,-0.9245882,0.10441422,-0.36638051,0
1.7236896,3.8298149,2.5919287,-0.051887751,0.9182325,0.39262843,0
-2.9465206,-0.21656752,-3.3380773,-0.9245882,0.10441422,-0.36638051,0
1.5455555,-2.1001356,5.276907,-0.37910503,-0.3471719,0.85775936,0
-1.7821612,-4.4241199,-0.94538343,-0.083855569,-0.9939,-0.071634412,0
-3.6148672,4.6113811,-0.86075425,-0.9245882,0.10441422,-0.36638051,0
-2.482182,1.9554689,-4.2170596,-0.9245882,0.10441422,-0.36638051,0
3.9018216,1.143856,1.5255959,0.9245882,-0.10441422,0.36638051,0
-3.7497325,-4.0077033,-0.10152495,-0.20030636,-0.95128453,0.23438281,0
4.2909832,-2.5435357,-1.1228917,0.9245882,-0.10441422,0.36638051,0
-0.27043164,-1.0728958,4.8353395,-0.38075924,-0.22140066,0.89777738,0
4.4008112,2.7994609,0.24759233,0.9245882,-0.10441422,0.36638051,0
-1.6576934,2.2920585,3.5200899,-0.25547647,0.54348141,0.79959977,0
-2.0535636,4.4021044,-2.5218389,0.2317642,0.91743553,-0.32341555,0
-3.1885698,-1.3988609,-3.3196578,-0.9245882,0.10441422,-0.36638051,0
-3.8827772,1.5996699,-0.72478426,-0.9245882,0.10441422,-0.36638051,0
-0.87596631,2.7053902,3.6096182,-0.23776728,0.593261,0.76909566,0
-2.2311029,0.17960739,-5.5879793,-0.9245882,0.10441422,-0.36638051,0
-0.66556889,-1.9584184,3.9786079,-0.37577733,-0.40817469,0.83197653,0
-3.6358256,-0.28411317,3.3105733,-0.37591985,-0.094001994,0.92187196,0
0.1883502,-3.9203882,-2.3142977,0.10884678,-0.84921908,-0.51670051,0
-4.7421589,1.0553682,1.04345,-0.9245882,0.10441422,-0.36638051,0
1.6422811,4.2347693,0.93679798,0.059476972,0.98947775,0.13189518,0
3.7232699,0.77739859,1.2133322,0.9245882,-0.10441422,0.36638051,0
-4.7073431,-0.60636663,0.48088002,-0.9245882,0.10441422,-0.36638051,0
5.1282148,-0.63198543,-2.7071316,0.36283958,-0.051788244,-0.9304114,0
-2.941004,0.023180962,-3.3071587,-0.9245882,0.10441422,-0.36638051,0
-0.99218696,-0.2961781,-5.0717611,0.34790811,-0.16044703,-0.92369729,0
3.1497333,-2.3640943,2.7027249,0.9245882,-0.10441422,0.36638051,0
2.5344491,-2.3680563,-3.0412598,0.25938159,-0.53184718,-0.80613887,0
2.5792663,-1.4564731,4.2548695,0.9245882,-0.10441422,0.36638051,0
0.012900114,1.1598985,-4.5623646,0.3809377,0.24116638,-0.8925947,0
-0.16171455,0.11765659,4.6834874,-0.3660917,0.022613656,0.93030399,0
3.001209,-0.45703447,-3.623703,0.35832202,-0.088290758,-0.92941386,0
-2.2163622,-1.0862055,-5.4722066,-0.9245882,0.10441422,-0.36638051,0
-0.74244595,3.8969438,-2.8796067,0.28852999,0.81991404,-0.49446088,0
4.0412087,2.9494963,-1.9323874,0.33170807,0.69362813,-0.63941371,0
-3.1494799,2.2877138,-2.4924173,-0.9245882,0.10441422,-0.36638051,0
1.0847669,3.6790898,3.162302,-0.11340404,0.8426795,0.52633721,0
-4.6609983,-1.7198491,0.79589605,-0.9245882,0.10441422,-0.36638051,0
-0.68742132,-1.9990602,-4.6723638,0.27332938,-0.48811695,-0.82887459,0
-3.2206647,-4.0651531,0.30624378,-0.20896125,-0.9431268,0.25854862,0
3.125618,0.83194828,2.8049564,0.9245882,-0.10441422,0.36638051,0
3.1034327,-4.9095087,1.5508862,0.9245882,-0.10441422,0.36638051,0
-4.4550424,-3.8392234,-1.1723454,-0.9245882,0.10441422,-0.36638051,0
-4.0332789,0.49007225,-0.51188934,-0.9245882,0.10441422,-0.36638051,0
4.0427227,-2.6257999,-0.47629011,0.9245882,-0.10441422,0.36638051,0
-4.5937862,-1.0791993,0.54356873,-0.9245882,0.10441422,-0.36638051,0
0.91381121,-3.3473015,-3.0275965,0.19337463,-0.69998223,-0.687482,0
1.2520308,4.5496106,0.59122741,0.086801887,0.99415034,0.064270228,0
-2.752182,-1.7150464,3.5283389,-0.37756842,-0.37934414,0.84471309,0
3.6926978,2.4290247,2.2271662,0.9245882,-0.10441422,0.36638051,0
2.8568413,2.1572533,4.5090556,0.9245882,-0.10441422,0.36638051,0
0.5067144,0.64801908,4.8022838,-0.34133112,0.20009331,0.9183985,0
-3.9821954,-3.2422197,1.0337527,-0.28744423,-0.82235676,0.49102467,0
5.3143435,0.98459148,-2.5132132,0.9245882,-0.10441422,0.36638051,0
-1.8735763,-2.9689486,-4.1133361,0.18543726,-0.7167443,-0.67222828,0
-3.311389,-2.0963998,-3.5153866,-0.9245882,0.10441422,-0.36638051,0
-4.4941659,0.78344488,1.010904,-0.9245882,0.10441422,-0.36638051,0
-3.0423598,1.8930566,-2.94802,-0.9245882,0.10441422,-0.36638051,0
-0.99555302,-3.9930587,-2.6890635,0.095829904,-0.86704272,-0.48893106,0
-3.9790878,1.3047631,-0.89477462,-0.9245882,0.10441422,-0.36638051,0
2.898757,2.849751,4.226779,0.9245882,-0.10441422,0.36638051,0
1.4914656,-1.8762016,-3.8106525,0.28194451,-0.45923421,-0.84238434,0
-0.40689588,-1.762187,-4.4544377,0.2860477,-0.44492,-0.84865957,0
2.0783734,-4.5902262,2.5545313,-0.21193904,-0.9401257,0.26691881,0
-4.7371225,-2.0177245,0.5436641,-0.9245882,0.10441422,-0.36638051,0
-2.2899158,0.90894771,-5.3486123,-0.9245882,0.10441422,-0.36638051,0
3.4145827,-2.9114146,1.2164849,0.9245882,-0.10441422,0.36638051,0
-0.093596458,-3.9572866,-2.3393738,0.090753615,-0.87365615,-0.47800535,0
-0.065905809,-1.9907991,-4.0772715,0.27250671,-0.4907966,-0.82756203,0
-1.1809847,3.0488007,3.0394559,-0.21245772,0.65695339,0.72337687,0
-2.3166046,1.0392141,-4.356133,-0.9245882,0.10441422,-0.36638051,0
0.062923908,2.3333855,3.8942521,-0.24738103,0.56682152,0.78582191,0
-2.334727,-4.2012615,-0.85008883,-0.10330242,-0.99439114,-0.0226987,0
-2.7805834,3.3907709,2.1573751,-0.17236179,0.74300194,0.64671469,0
-3.0391715,-0.98273087,3.2962999,-0.38052496,-0.29950306,0.87492782,0
-3.1051679,4.667582,-0.96290779,0.07500571,0.99277616,0.093647152,0
-3.4180763,-0.1882987,-2.5908999,-0.9245882,0.10441422,-0.36638051,0
-4.3385997,1.5111333,3.1317852,-0.32812992,0.27037245,0.90511298,0
3.3343639,-3.5149701,1.4321305,0.9245882,-0.10441422,0.36638051,0
-2.2645016,4.5302534,-2.4472585,0.20258492,0.94921672,-0.24072215,0
4.6968756,3.7256017,0.3803196,0.9245882,-0.10441422,0.36638051,0
2.8722713,0.66050982,-3.7233338,0.38033843,0.19770166,-0.90346932,0
-0.0065338612,-1.6900542,4.3503947,-0.37770128,-0.37691373,0.84574097,0
2.7278872,-2.7139699,3.7138977,0.9245882,-0.10441422,0.36638051,0
-1.9380896,2.7113562,2.915061,-0.23486835,0.60097682,0.76397902,0
-0.5104506,-4.4479399,0.96331978,-0.17618275,-0.96987987,0.16820541,0
2.5825088,-3.7307451,-1.9636008,0.16486967,-0.75732088,-0.63188851,0
2.8934944,-3.1574335,2.3998666,0.9245882,-0.10441422,0.36638051,0
-2.120867,2.5479434,-5.1668396,-0.9245882,0.10441422,-0.36638051,0
3.0667543,3.961849,1.9658782,0.029678762,0.97852683,0.20397249,0
0.43762946,-3.3232191,-2.7998669,0.1452682,-0.79241991,-0.59242547,0
-2.0595615,0.71231264,4.0873675,-0.34666979,0.16820298,0.9227826,0
-3.3322837,-2.6448526,-3.566999,-0.9245882,0.10441422,-0.36638051,0
4.5853968,3.0136886,0.03672719,0.9245882,-0.10441422,0.36638051,0
-2.210381,2.4324894,-4.6657476,-0.9245882,0.10441422,-0.36638051,0
-0.15642846,-1.8251406,4.6440649,-0.37916631,-0.34564021,0.85835057,0
-4.4811692,-3.7876701,-0.49714828,-0.9245882,0.10441422,-0.36638051,0
-3.6241956,-3.2811513,-2.5412798,-0.9245882,0.10441422,-0.36638051,0
2.490634,3.3604593,-1.633067,0.28605819,0.82543528,-0.4866493,0
-4.6565723,2.8729873,1.8308687,-0.9245882,0.10441422,-0.36638051,0
-3.3279667,4.8025002,-1.6820405,-0.9245882,0.10441422,-0.36638051,0
-2.0523555,2.8798242,-4.4778118,-0.9245882,0.10441422,-0.36638051,0
4.6996927,-1.5288954,-1.0351074,0.9245882,-0.10441422,0.36638051,0
-2.4816988,1.6183398,-4.690289,-0.9245882,0.10441422,-0.36638051,0
0.44894195,3.9150252,2.4667988,-0.085491717,0.88031441,0.46662408,0
2.2352324,-0.21377489,-3.6884389,0.3638683,-0.042862445,-0.93046367,0
-3.4046547,2.6952796,2.8523464,-0.25227576,0.55283213,0.79418743,0
-2.300153,0.74329108,3.9899516,-0.34792185,0.16036013,0.92370725,0
-0.40730941,-1.4040589,-4.6267595,0.29900548,-0.39706105,-0.86772025,0
2.5627544,-3.5205266,3.0229659,0.9245882,-0.10441422,0.36638051,0
3.0871527,3.7499921,-1.00125,0.25592577,0.88262182,-0.39431059,0
3.8598111,-1.1184392,1.3324242,0.9245882,-0.10441422,0.36638051,0
0.32524872,-3.9356754,-2.3858211,0.10430002,-0.85558796,-0.50704145,0
-2.3572872,-0.040017128,-4.7253208,-0.9245882,0.10441422,-0.36638051,0
-2.4740973,-1.2239213,-5.3611994,-0.9245882,0.10441422,-0.36638051,0
2.6983042,2.0679698,4.5526257,0.9245882,-0.10441422,0.36638051,0
2.8915622,2.0338812,3.9759655,0.9245882,-0.10441422,0.36638051,0
-2.9105692,4.6879215,-1.9586122,-0.9245882,0.10441422,-0.36638051,0
-4.4296584,-0.98956299,0.45414224,-0.9245882,0.10441422,-0.36638051,0
3.6076145,1.7126884,2.6320086,0.9245882,-0.10441422,0.36638051,0
-3.6269913,4.489152,0.81824553,-0.063316524,0.9062171,0.41804537,0
1.866731,2.5147841,-3.3186324,0.36072654,0.54925174,-0.7537896,0
3.137311,-1.271874,2.1649692,0.9245882,-0.10441422,0.36638051,0
4.9393363,1.0254188,-1.3848873,0.9245882,-0.10441422,0.36638051,0
-2.2667923,-3.9541838,0.99655163,-0.24423504,-0.90053493,0.35970315,0
2.4839535,-2.0152376,3.7370415,0.9245882,-0.10441422,0.36638051,0
1.5716524,0.080561161,5.4433527,-0.35276455,0.12849662,0.92684722,0
-4.8174591,2.8077831,1.7030693,-0.9245882,0.10441422,-0.36638051,0
-0.64600754,-3.0518379,3.5363979,-0.34296712,-0.64683074,0.68116349,0
-2.1299424,4.8041835,-1.4592886,0.13445818,0.9892562,-0.057388633,0
0.38201618,3.1802979,3.283447,-0.16162789,0.76335847,0.6254282,0
-2.974452,3.2709742,-2.2479682,-0.9245882,0.10441422,-0.36638051,0
2.2755194,4.230659,-0.65523624,0.19705772,0.95413643,-0.22537154,0
1.5319769,-3.8529603,3.6194651,-0.30756423,-0.77209586,0.55612266,0
-4.88625,-3.0296512,1.0459974,-0.9245882,0.10441422,-0.36638051,0
-2.2763767,4.8492804,-0.41944957,0.066196084,0.9911105,0.11540455,0
-3.7113221,2.1176383,-1.3052268,-0.9245882,0.10441422,-0.36638051,0
-2.1128936,4.702919,-2.051966,0.18479967,0.9639079,-0.19165289,0
3.0495863,-4.6341677,2.0319726,0.9245882,-0.10441422,0.36638051,0
-1.7719064,-3.7260079,-2.6663229,0.080780029,-0.88610822,-0.45638481,0
0.86826968,3.9752674,1.9149848,-0.025610209,0.94249779,0.33323026,0
2.2557938,3.4548838,-2.1267438,0.30723968,0.77299899,-0.5550462,0
4.168972,-0.78745174,-3.2314842,0.35897776,-0.08323352,-0.92962742,0
1.9744306,-3.1028342,-2.9141474,0.20233434,-0.6802752,-0.70447612,0
1.3357139,-1.503371,-4.0746922,0.30978164,-0.35372019,-0.88256299,0
3.0093262,2.1647902,3.6385469,0.9245882,-0.10441422,0.36638051,0
2.8437316,3.2682297,-2.142498,0.31204721,0.75926256,-0.5710929,0
-1.9995644,-1.3831035,3.8471622,-0.37942922,-0.33874604,0.86097884,0
4.5701847,0.25448799,-1.0878377,0.9245882,-0.10441422,0.36638051,0
-3.0257144,-0.04735136,-2.918895,-0.9245882,0.10441422,-0.36638051,0
2.2272673,-1.4224045,4.6095142,0.9245882,-0.10441422,0.36638051,0
2.6569324,-4.8056955,2.2812507,-0.18794233,-0.96154839,0.20025629,0
3.4324718,-1.1906619,1.6183068,0.9245882,-0.10441422,0.36638051,0
2.7817171,2.4242935,4.7694507,0.9245882,-0.10441422,0.36638051,0
-1.4145713,4.6707029,0.15705109,0.041676283,0.98365796,0.17515805,0
-2.4705615,3.6049664,-3.9403298,-0.9245882,0.10441422,-0.36638051,0
0.60847902,1.159718,4.7319999,-0.31487718,0.33191031,0.88920635,0
0.57730722,4.6257544,-0.14400291,0.12474304,0.99166715,-0.032184571,0
2.8445075,2.3069134,-2.8587976,0.35666436,0.57523924,-0.73613214,0
-1.3495512,-0.66043591,-4.99576,0.33614889,-0.22897264,-0.91355103,0
4.4051795,-1.5534482,-0.83379716,0.9245882,-0.10441422,0.36638051,0
3.7421069,0.58255911,1.2294098,0.9245882,-0.10441422,0.36638051,0
3.8749676,2.8369789,-2.0678256,0.33377048,0.68566203,-0.64688855,0
-1.0244614,-2.7995651,3.333818,-0.35541821,-0.58267426,0.73086858,0
3.2029879,1.2858148,3.4411523,0.9245882,-0.10441422,0.36638051,0
-4.4032698,-0.47460747,-0.42465535,-0.9245882,0.10441422,-0.36638051,0
4.1046686,-2.6768167,0.031435966,0.9245882,-0.10441422,0.36638051,0
0.27111185,-0.15756559,5.0757394,-0.36250666,0.05462262,0.93037903,0
-2.480772,-3.7758133,0.93016803,-0.24320692,-0.90201133,0.35668769,0
-4.0295682,3.6412668,-0.11879647,-0.9245882,0.10441422,-0.36638051,0
2.3733997,-2.4511523,-2.9708629,0.26583838,-0.51204151,-0.81678855,0
-3.5329719,1.5485132,-1.5013003,-0.9245882,0.10441422,-0.36638051,0
-4.0333095,0.57400727,-0.52622831,-0.9245882,0.10441422,-0.36638051,0
-4.2645764,-3.5570545,-1.0180883,-0.9245882,0.10441422,-0.36638051,0
3.0235953,3.4502912,-1.849129,0.29526645,0.80411428,-0.5159632,0
4.7464447,-2.9233766,-1.4460571,0.9245882,-0.10441422,0.36638051,0
3.1234665,1.3256192,3.9356751,0.9245882,-0.10441422,0.36638051,0
0.86182547,-4.6940908,1.3909054,-0.17205369,-0.97248942,0.15704191,0
-2.6310649,-2.8773379,-4.3989296,0.19740099,-0.69123143,-0.69514894,0
-1.9302998,4.3897963,0.25896299,0.015549242,0.97124964,0.23755522,0
-4.8199372,-0.91259098,1.2694669,-0.9245882,0.10441422,-0.36638051,0
4.3587046,1.2221246,0.69727993,0.9245882,-0.10441422,0.36638051,0
-4.1274433,-1.033937,2.8790934,-0.38068774,-0.29013342,0.87800884,0
-4.6004386,1.1587865,0.64615226,-0.9245882,0.10441422,-0.36638051,0
3.9160559,3.1948071,1.779162,0.9245882,-0.10441422,0.36638051,0
-4.6581841,-1.0776532,2.6013083,-0.37915581,-0.34590346,0.85824919,0
4.8075809,0.84410024,-2.9332266,0.38094535,0.26398474,-0.88611102,0
-4.6351361,-2.1077418,0.40650868,-0.9245882,0.10441422,-0.36638051,0
2.1369286,-1.411005,5.2817574,0.9245882,-0.10441422,0.36638051,0
-1.291393,-4.0552187,-2.2628901,0.024413526,-0.94349253,-0.33049375,0
3.0746937,-0.42425609,2.6137769,0.9245882,-0.10441422,0.36638051,0
-2.8775516,-3.128144,2.1991987,-0.32998559,-0.70009917,0.63322264,0
3.3681936,-2.3894956,1.2631088,0.9245882,-0.10441422,0.36638051,0
3.2767849,-1.8045423,2.5448899,0.9245882,-0.10441422,0.36638051,0
4.3957009,-2.1840005,-1.0846869,0.9245882,-0.10441422,0.36638051,0
1.7614982,4.4254041,0.50670004,0.12548161,0.99151015,-0.034093142,0
-5.0740614,0.27863765,1.9354169,-0.9245882,0.10441422,-0.36638051,0
-4.2933955,-3.526531,0.90742719,-0.2717362,-0.85479331,0.44214016,0
