1.1711004,-0.46387875,4.2658129,0.22941327,-0.080356687,0.97000617,0
0.60960197,-2.6420112,3.7557535,0.40353346,-0.43548703,0.80468088,0
-2.2807624,-1.3715422,3.4909005,-0.85442519,-0.49394858,0.16115829,0
1.9676033,-0.06968689,-4.8781958,-0.034938514,-0.25484982,-0.96634918,0
3.8648767,0.43879461,2.5379503,0.85442519,0.49394858,-0.16115829,0
4.5647831,-2.5083785,-1.7331961,0.45488995,-0.86103821,-0.22735029,0
3.1986055,0.76062036,-0.08062923,0.85442519,0.49394858,-0.16115829,0
0.58877468,4.9890308,1.6855793,-0.37624496,0.80212063,0.46372634,0
-1.4613431,-2.0297241,4.4185848,-0.85442519,-0.49394858,0.16115829,0
-3.0453825,-0.82260442,0.67715389,-0.85442519,-0.49394858,0.16115829,0
-3.1407869,-1.1432152,-1.4272606,-0.85442519,-0.49394858,0.16115829,0
2.5259688,3.1584759,3.3246579,0.85442519,0.49394858,-0.16115829,0
3.3946173,-2.1369989,2.4577265,0.48333919,-0.64183354,0.59534228,0
1.2687492,2.9639764,-3.3859317,0.85442519,0.49394858,-0.16115829,0
-2.7707953,-1.2907689,0.25144696,-0.85442519,-0.49394858,0.16115829,0
-4.3634162,1.3207183,0.48518044,-0.85442519,-0.49394858,0.16115829,0
4.1385193,-0.6583128,0.1913946,0.85442519,0.49394858,-0.16115829,0
-2.3816042,-2.165267,-0.095906019,-0.85442519,-0.49394858,0.16115829,0
1.8063955,3.7829206,3.0737755,0.85442519,0.49394858,-0.16115829,0
0.52872872,0.2938776,4.4465504,0.12179887,0.11111423,0.98631555,0
-0.83833933,-3.7717142,1.8295628,-0.85442519,-0.49394858,0.16115829,0
-2.5060525,2.8762431,2.6361837,-0.32837269,0.75374073,0.56925064,0
-2.7650511,0.26073408,4.4038343,-0.055246532,0.39478573,0.91711068,0
-2.8240709,-2.4678392,-3.6637774,-0.054600835,-0.22309503,-0.9732663,0
3.0612571,-1.9864194,2.8537195,0.45676661,-0.56626284,0.68608332,0
3.3819509,-2.1521101,-3.3033409,0.27919871,-0.69807559,-0.65934694,0
2.2492378,2.2400222,0.13414538,0.85442519,0.49394858,-0.16115829,0
1.7577511,-1.9147837,-4.1102772,0.15975565,-0.54490423,-0.82313877,0
2.1102145,-3.8372312,0.077564001,0.50095141,-0.86546898,0.0032772422,0
2.9916136,-0.038622618,-3.4539704,0.85442519,0.49394858,-0.16115829,0
3.9659545,-0.11640358,1.6607835,0.85442519,0.49394858,-0.16115829,0
-2.7804401,-0.70844674,1.5638061,-0.85442519,-0.49394858,0.16115829,0
-4.7511644,1.8491597,-0.97414738,-0.85442519,-0.49394858,0.16115829,0
-3.517961,0.18562126,-3.6708734,-0.35464561,0.32776001,-0.87567091,0
-3.7676358,3.1491146,0.70643091,-0.48600268,0.86948609,0.088289738,0
3.3206592,0.050385714,-1.7760615,0.85442519,0.49394858,-0.16115829,0
0.20262909,-5.1440721,1.6362495,0.51955539,-0.81489331,0.25692558,0
1.2640872,-1.0302629,-4.2875104,0.029392689,-0.35562837,-0.93416512,0
-1.4015037,-3.6261289,-0.24452639,-0.85442519,-0.49394858,0.16115829,0
-3.166147,-2.0061741,-3.4502187,-0.85442519,-0.49394858,0.16115829,0
-1.9046004,-0.07825613,-4.2083611,-0.24023253,0.10054359,-0.96549416,0
3.2195749,-2.8536806,1.9167491,0.50718486,-0.72558463,0.46507001,0
2.061013,1.9727244,4.181088,0.062839985,0.20965481,0.97575402,0
-2.0211635,4.2428536,-0.36046457,-0.50961924,0.85714781,-0.074736357,0
2.9328337,1.9250324,1.7021877,0.85442519,0.49394858,-0.16115829,0
0.63741159,-4.5642543,2.1360972,0.51273596,-0.75143743,0.41526258,0
-2.4346242,-2.2573409,-0.67674851,-0.85442519,-0.49394858,0.16115829,0
-1.4558325,-3.9825008,-3.1668248,0.20127049,-0.60061532,-0.77379024,0
-1.2840905,-2.24196,4.3357182,-0.85442519,-0.49394858,0.16115829,0
1.5488443,-4.118865,1.9570709,0.5157578,-0.7687934,0.37808758,0
-4.0690446,0.23401165,-2.4554431,-0.85442519,-0.49394858,0.16115829,0
3.9972517,-1.7582927,-3.0988314,0.85442519,0.49394858,-0.16115829,0
-0.19223988,-2.787667,-3.4924617,0.13342471,-0.50836378,-0.85074317,0
-1.796517,1.971159,3.7585452,-0.15942627,0.54445279,0.82350123,0
2.6183724,1.1245098,-2.1655238,0.85442519,0.49394858,-0.16115829,0
-1.7756832,-3.6156394,-3.4511626,0.10931447,-0.47412953,-0.87364268,0
-1.891023,-1.8459401,2.5814004,-0.85442519,-0.49394858,0.16115829,0
-3.1266789,-1.463625,-3.6786225,-0.85442519,-0.49394858,0.16115829,0
2.9113474,2.0738063,3.6681581,0.85442519,0.49394858,-0.16115829,0
-0.7206552,4.5676751,1.2643945,-0.43587601,0.85025215,0.2950986,0
2.9192791,1.2615588,1.0906181,0.85442519,0.49394858,-0.16115829,0
-1.4760606,-1.6914488,4.8294392,-0.85442519,-0.49394858,0.16115829,0
-2.6459088,-0.2311058,2.8931835,-0.85442519,-0.49394858,0.16115829,0
0.58842659,-4.3078613,2.0312994,0.51325637,-0.75418442,0.40960154,0
-2.7432446,-0.2676003,3.3174422,-0.85442519,-0.49394858,0.16115829,0
2.2850127,-3.3436053,-2.3839231,0.37799761,-0.80375659,-0.45944864,0
-2.2835617,-1.0405855,4.2025566,-0.85442519,-0.49394858,0.16115829,0
1.5932113,-3.872813,-2.0273626,0.37260729,-0.79869086,-0.47250029,0
-3.9842024,1.8116496,-2.5759034,-0.47207773,0.60847127,-0.63789117,0
-1.3806932,-4.1693544,-2.6701798,-0.85442519,-0.49394858,0.16115829,0
-3.7332089,1.2741916,1.6256528,-0.85442519,-0.49394858,0.16115829,0
-2.7237048,-1.190706,1.4262639,-0.85442519,-0.49394858,0.16115829,0
0.88636422,-4.6038027,-0.31163311,0.47427541,-0.86813247,-0.14631635,0
-0.85891342,-3.5263176,2.8882844,-0.85442519,-0.49394858,0.16115829,0
3.9159787,-2.555418,-1.7558771,0.41601723,-0.83620632,-0.35733509,0
1.6562586,3.842133,0.81358147,0.85442519,0.49394858,-0.16115829,0
4.5901194,-2.614006,-0.64187539,0.49596089,-0.86781353,-0.030367136,0
-0.83234692,3.5055923,-3.2698901,-0.4651413,0.58897513,-0.66087174,0
1.0668975,-1.4272397,-4.024446,0.081566259,-0.43384558,-0.89728749,0
-1.0098369,-1.2239213,-4.410078,-0.091603816,-0.16210446,-0.98251247,0
2.5421772,2.8285234,3.3758042,0.85442519,0.49394858,-0.16115829,0
0.18734074,0.98239696,-4.6959801,-0.22730964,0.076453507,-0.97081661,0
4.0578346,-2.8117204,-1.1027147,0.46380764,-0.86490059,-0.19190931,0
3.6156428,-0.11692429,0.62423474,0.85442519,0.49394858,-0.16115829,0
4.7317491,-2.2507701,0.55782723,0.85442519,0.49394858,-0.16115829,0
-1.9933161,3.4303288,1.76178,-0.41151896,0.83270991,0.37046742,0
4.0443859,-2.5903375,-2.2572961,0.39630947,-0.82016122,-0.41264284,0
4.0213528,-1.8194611,-2.6403503,0.85442519,0.49394858,-0.16115829,0
2.000896,3.5373399,2.632545,0.85442519,0.49394858,-0.16115829,0
0.74360549,-3.9651091,-2.312572,0.34495121,-0.77123642,-0.5349791,0
3.6795256,-2.8642828,1.4189813,0.5170126,-0.77751815,0.35799867,0
-1.7075155,-3.2858682,-0.30439663,-0.85442519,-0.49394858,0.16115829,0
1.9923868,0.58432126,-4.8314176,-0.066999495,-0.2028392,-0.97691721,0
2.203455,1.3117902,4.0575404,0.15461594,0.054400206,0.98647577,0
-3.3778968,-1.0037389,-2.8148692,-0.85442519,-0.49394858,0.16115829,0
-0.37898159,-3.7974811,3.6945133,0.45183718,-0.55325323,0.69982392,0
-2.6842318,-0.66562223,-4.126699,-0.20605981,0.037409514,-0.97782397,0
1.3379483,-1.616166,3.9775937,0.36839014,-0.35719898,0.85831082,0
1.4514124,3.7756476,-0.12554765,0.85442519,0.49394858,-0.16115829,0
-0.9674356,-0.54002833,-4.4736576,-0.12975186,-0.097496361,-0.98674154,0
-0.31089449,4.3739533,-2.8613901,-0.4921546,0.6699875,-0.55578786,0
3.380887,0.27908945,0.27468836,0.85442519,0.49394858,-0.16115829,0
-0.40975618,5.0494642,0.68289733,-0.4530648,0.86014223,0.23428047,0
4.3530507,-2.2552598,-1.8175609,0.85442519,0.49394858,-0.16115829,0
-0.87748504,3.895427,2.1688442,-0.34431288,0.77057624,0.53634024,0
3.2732041,0.31796145,-0.59007168,0.85442519,0.49394858,-0.16115829,0
-0.50630856,-4.4588556,1.7033494,-0.85442519,-0.49394858,0.16115829,0
-0.70412302,5.0639124,-0.60636234,-0.50779682,0.85953903,-0.057746112,0
-2.3506713,-3.0574851,-2.6948419,-0.85442519,-0.49394858,0.16115829,0
-3.9132509,0.90592265,0.62599099,-0.85442519,-0.49394858,0.16115829,0
3.6457362,-2.4987628,1.6934364,0.50812435,-0.72962749,0.45766014,0
-2.773751,-0.35291481,3.6499114,-0.85442519,-0.49394858,0.16115829,0
3.9707606,-1.7946968,-2.4654331,0.85442519,0.49394858,-0.16115829,0
-4.459374,2.0310574,1.6852136,-0.85442519,-0.49394858,0.16115829,0
3.7408779,0.044491291,0.69897103,0.85442519,0.49394858,-0.16115829,0
2.8758779,1.780982,4.0719128,0.11060107,0.13015461,0.98530561,0
0.073001146,-4.4221692,-1.5209935,0.40152925,-0.82458735,-0.39853454,0
2.0035813,-3.5843496,-1.642499,0.40310928,-0.82590318,-0.39419109,0
4.581624,-0.99932241,1.8010775,0.85442519,0.49394858,-0.16115829,0
0.75243354,4.3447609,2.3281021,-0.29139832,0.71236247,0.63845646,0
-0.57608271,4.4995041,-1.9096167,-0.51848024,0.79045737,-0.32612115,0
2.5556662,2.8893135,3.6464944,0.85442519,0.49394858,-0.16115829,0
-3.2952142,3.088768,1.6313559,-0.4296304,0.84610045,0.31548607,0
-2.196167,3.4162016,-2.0337703,-0.50944531,0.73550332,-0.44665417,0
3.709954,-0.98650575,-1.1662716,0.85442519,0.49394858,-0.16115829,0
-3.3097794,0.23680186,1.0444238,-0.85442519,-0.49394858,0.16115829,0
-1.3492789,3.9485836,-2.5030584,-0.50174296,0.70384711,-0.50284445,0
-1.8522015,-2.058234,3.4877896,-0.85442519,-0.49394858,0.16115829,0
1.4582725,-1.2345502,3.9542875,0.33682984,-0.29042205,0.89565635,0
2.0852563,2.4021711,-0.043545008,0.85442519,0.49394858,-0.16115829,0
-3.1911874,0.50148797,3.3574433,-0.85442519,-0.49394858,0.16115829,0
-2.4137669,-2.229126,-1.764529,-0.85442519,-0.49394858,0.16115829,0
-1.9007918,-3.3967109,-3.0467513,-0.85442519,-0.49394858,0.16115829,0
1.0108185,-4.0408745,2.4595456,0.50845134,-0.73105979,0.4550038,0
2.5873446,2.482465,3.2385509,0.85442519,0.49394858,-0.16115829,0
0.30123115,5.0763173,0.8827498,-0.43789703,0.85153735,0.28832293,0
1.9533843,-0.78953373,-4.472949,0.072360799,-0.42027721,-0.90450591,0
1.9909861,-4.0119743,0.0078570843,0.5020591,-0.86475909,0.0113253,0
3.4823065,-2.1688542,-2.7133648,0.34074083,-0.76686144,-0.54389256,0
-0.6216898,4.625659,-1.9787326,-0.51795638,0.78529733,-0.33915916,0
-3.987638,1.813179,-2.6770532,-0.47259164,0.6099444,-0.63610107,0
2.9217525,-1.9779606,3.1385827,0.44551897,-0.53691465,0.7164042,0
2.4900746,2.0512426,4.180985,0.085380018,0.1724768,0.98130625,0
-2.1944292,4.0886407,0.24531913,-0.4882229,0.86938506,0.076209545,0
-1.3667135,2.0612438,-3.9955251,-0.37316829,0.36757493,-0.85184133,0
-2.5657713,0.41113091,-3.9538572,-0.31221765,0.24018371,-0.91914731,0
-0.3970294,-4.5707159,-2.2447224,0.31123051,-0.73493612,-0.60249853,0
1.9912243,-4.2361774,0.52979016,0.51046365,-0.85587192,0.083124399,0
-3.8508911,2.8724039,1.387684,-0.44838464,0.8576985,0.25160336,0
-2.7854879,-2.4236078,-2.8982599,-0.85442519,-0.49394858,0.16115829,0
0.48829126,3.3969369,-4.2342381,-0.39423335,0.41429436,-0.82032901,0
-1.042545,-2.5871389,-4.0230999,0.058939874,-0.40031606,-0.91447973,0
2.5546453,-1.5498412,3.4236476,0.41172516,-0.45448261,0.78989077,0
-3.2039304,0.01651454,2.3120728,-0.85442519,-0.49394858,0.16115829,0
-1.7727315,4.1171451,0.25298166,-0.49044919,0.86914146,0.06365931,0
3.7519627,0.38022709,3.1289163,0.85442519,0.49394858,-0.16115829,0
3.7223928,-2.5504863,1.8495394,0.50969595,-0.73664701,0.44447792,0
-1.3974156,-3.5932035,0.93497729,-0.85442519,-0.49394858,0.16115829,0
-1.3483613,1.4309988,4.2684879,-0.073783249,0.42238045,0.90341067,0
-0.9860642,4.4260936,1.244791,-0.43625522,0.85049558,0.29383409,0
-3.0332201,-1.6411471,-1.7512348,-0.85442519,-0.49394858,0.16115829,0
1.9421678,1.8898695,-1.5408223,0.85442519,0.49394858,-0.16115829,0
1.5393591,-3.0310023,3.1469653,0.47223341,-0.60891736,0.6373499,0
4.5246572,-1.2868266,0.70190012,0.85442519,0.49394858,-0.16115829,0
3.0659916,-0.12914991,-3.1990392,0.85442519,0.49394858,-0.16115829,0
3.0551333,1.0715387,1.1625767,0.85442519,0.49394858,-0.16115829,0
-2.2450724,-0.01922667,4.7864475,0.032357752,0.25898445,0.9653393,0
-1.7671543,-3.9975309,-2.9030104,-0.85442519,-0.49394858,0.16115829,0
-0.64001894,3.5271659,-2.88307,-0.48507726,0.64721733,-0.58805561,0
-2.1254463,-1.442996,2.0151851,-0.85442519,-0.49394858,0.16115829,0
-3.1284409,2.7241089,2.364862,-0.37540132,0.80132926,0.46577376,0
2.0314996,-2.993361,-2.6703739,0.33542126,-0.76126641,-0.55494696,0
-0.97202802,-4.9887137,-1.5028265,-0.85442519,-0.49394858,0.16115829,0
3.163558,0.36281133,-0.23065069,0.85442519,0.49394858,-0.16115829,0
-3.9570425,-0.43540525,-2.840538,-0.85442519,-0.49394858,0.16115829,0
2.8793821,2.2439952,3.2702029,0.85442519,0.49394858,-0.16115829,0
3.0068874,-2.7026107,-2.2581086,0.38539174,-0.81053627,-0.44102585,0
-3.5801578,-0.88427687,-2.7713432,-0.85442519,-0.49394858,0.16115829,0
0.47682714,-3.3864746,3.5661979,0.45816743,-0.57000649,0.68203706,0
0.47439861,5.2129874,1.1014979,0.85442519,0.49394858,-0.16115829,0
-3.2114952,0.83531857,-3.4434087,-0.3817361,0.38637733,-0.83963668,0
0.0089492798,3.26226,-3.6919887,-0.43046796,0.49928585,-0.75193793,0
3.0197484,1.0913923,-0.20470774,0.85442519,0.49394858,-0.16115829,0
4.2680202,-2.2182148,-2.2509913,0.40593413,-0.82822728,-0.38633764,0
-3.4503131,-1.0637136,-3.9032023,-0.85442519,-0.49394858,0.16115829,0
-4.3811159,0.74981785,-2.3498759,-0.85442519,-0.49394858,0.16115829,0
-3.0017111,2.5371897,2.9731393,-0.32562435,0.75077283,0.57472503,0
-1.7454486,-3.5690696,-2.0289869,-0.85442519,-0.49394858,0.16115829,0
3.3751001,1.6105967,3.7062519,0.85442519,0.49394858,-0.16115829,0
-1.9599208,-1.4748636,2.5743866,-0.85442519,-0.49394858,0.16115829,0
-4.0436983,1.6501424,3.2972324,-0.85442519,-0.49394858,0.16115829,0
1.8432033,2.674022,-0.17019629,0.85442519,0.49394858,-0.16115829,0
-3.9527853,0.47431231,-2.0139182,-0.85442519,-0.49394858,0.16115829,0
-2.2359252,-3.0360739,-3.7050927,0.063180029,-0.40664542,-0.91139877,0
-4.6699829,1.5541196,-1.249276,-0.85442519,-0.49394858,0.16115829,0
-4.2439494,1.8720627,2.5905361,-0.85442519,-0.49394858,0.16115829,0
1.4079444,3.5028596,-1.2789323,0.85442519,0.49394858,-0.16115829,0
1.0731781,4.145587,-0.69842052,0.85442519,0.49394858,-0.16115829,0
2.1517997,-3.8939097,-0.023437262,0.49348104,-0.86855102,-0.045774877,0
0.39879751,4.3978748,-2.7223349,0.85442519,0.49394858,-0.16115829,0
-2.8210034,2.4855223,-2.4374585,-0.48197269,0.63765031,-0.60091925,0
-4.710516,1.7085114,-0.027699232,-0.85442519,-0.49394858,0.16115829,0
1.729457,3.4730549,1.0867841,0.85442519,0.49394858,-0.16115829,0
-0.12083101,-4.4388227,3.1767473,0.4811821,-0.63524854,0.60408837,0
0.91999626,3.8405099,-2.1615682,0.85442519,0.49394858,-0.16115829,0
-2.8505373,-2.0508425,-1.9436806,-0.85442519,-0.49394858,0.16115829,0
2.001677,0.18759346,4.0536466,0.24451542,-0.10858792,0.9635458,0
1.2499607,3.3207393,-0.98391438,0.85442519,0.49394858,-0.16115829,0
2.0718217,3.7822385,2.9767845,0.85442519,0.49394858,-0.16115829,0
2.8429027,-0.01172328,-4.5537786,0.85442519,0.49394858,-0.16115829,0
2.926033,1.4414294,1.7703549,0.85442519,0.49394858,-0.16115829,0
2.7555368,-3.756824,0.40781641,0.51437724,-0.8479203,0.12824506,0
2.543133,2.0388014,1.0462898,0.85442519,0.49394858,-0.16115829,0
-2.6306832,-1.6388948,-0.57069623,-0.85442519,-0.49394858,0.16115829,0
-3.1506956,0.084173679,3.1476512,-0.85442519,-0.49394858,0.16115829,0
-0.8149991,-4.1039629,1.3588343,-0.85442519,-0.49394858,0.16115829,0
1.9503884,2.6611469,-0.65455079,0.85442519,0.49394858,-0.16115829,0
1.3275191,-3.6452694,-2.2326548,0.35694137,-0.78342354,-0.50876343,0
-4.1490693,2.6079113,-0.73407495,-0.51882273,0.82778609,-0.2135247,0
-0.20407248,4.7613058,-1.9100406,-0.51853359,0.79103827,-0.32462424,0
-2.1302507,-2.2692521,1.5142956,-0.85442519,-0.49394858,0.16115829,0
1.7582877,3.643543,0.93120193,0.85442519,0.49394858,-0.16115829,0
-0.68094563,2.5808678,3.6976318,-0.18793234,0.58297974,0.79045296,0
-1.788523,3.698452,1.3901923,-0.4269416,0.84423399,0.3240211,0
2.6260617,-3.3502765,-1.1344674,0.45733154,-0.86218351,-0.21791583,0
-3.864758,0.61120462,-3.3761194,-0.38564688,0.39504835,-0.83379424,0
-0.91774797,-3.9714401,1.6484213,-0.85442519,-0.49394858,0.16115829,0
-2.204967,-1.9558241,1.9242121,-0.85442519,-0.49394858,0.16115829,0
0.70356488,4.2562752,2.4185097,-0.30183625,0.72434759,0.61985099,0
0.23459148,-4.4971747,-2.1026981,0.35278848,-0.77924931,-0.51798707,0
1.7788569,4.0109973,2.1934118,0.85442519,0.49394858,-0.16115829,0
-1.8634518,-2.2240636,1.605015,-0.85442519,-0.49394858,0.16115829,0
-4.26439,1.8184438,1.3940263,-0.85442519,-0.49394858,0.16115829,0
1.4781456,3.5902703,-0.683604,0.85442519,0.49394858,-0.16115829,0
-0.18220735,0.058122396,-4.325716,-0.157821,-0.048786283,-0.98626179,0
4.5581779,-1.7417524,-0.85530305,0.85442519,0.49394858,-0.16115829,0
2.8748293,-0.80908155,3.4924233,0.38308376,-0.38935912,0.83764303,0
-0.59005213,2.8153324,-3.5915496,-0.41616666,0.46492118,-0.78144306,0
0.88448,3.3868635,-2.7837453,0.85442519,0.49394858,-0.16115829,0
2.5565484,-3.7377775,-0.69273973,0.48263204,-0.86939824,-0.10589069,0
-2.0453565,-2.9128993,-0.90855908,-0.85442519,-0.49394858,0.16115829,0
3.3314183,-0.49485731,3.7896845,0.33341396,-0.28336066,0.89918935,0
1.9696414,2.2047985,-1.7348285,0.85442519,0.49394858,-0.16115829,0
0.48741055,5.0407648,-0.21603918,0.85442519,0.49394858,-0.16115829,0
-1.1730833,2.4482975,-3.7310948,-0.40488791,0.43860579,-0.80230314,0
1.3046023,-1.1286916,-4.2751598,0.065175623,-0.40961695,-0.90992635,0
4.9379425,-2.3214829,-0.2156558,0.50183332,-0.86491013,0.0096660256,0
3.6592717,-0.91904473,-1.0158341,0.85442519,0.49394858,-0.16115829,0
-0.75623703,-0.25112998,-4.2946835,-0.16835248,-0.030243129,-0.98526275,0
2.9258449,-1.2503073,3.3900404,0.39220172,-0.40971401,0.82359695,0
0.78759098,3.9291072,-3.4741721,0.85442519,0.49394858,-0.16115829,0
-0.24416277,-3.0225208,-3.3960791,0.18227181,-0.57541871,-0.79728937,0
2.5811841,0.90953994,-1.8577042,0.85442519,0.49394858,-0.16115829,0
0.11553097,0.38330722,4.4701271,0.10946876,0.13207132,0.98517692,0
-3.3548758,2.2770164,-2.6147277,-0.48082852,0.63417941,-0.60549128,0
-1.4590271,-2.7299354,-3.5545287,0.05745852,-0.39809984,-0.91554087,0
-0.68859243,3.8693933,-3.0003254,-0.48675287,0.65247965,-0.58081096,0
-3.1177108,-1.1895261,-1.3134506,-0.85442519,-0.49394858,0.16115829,0
0.054264069,-4.7033463,2.2819779,0.51672924,-0.77542299,0.36291817,0
-4.044342,1.3477051,1.5925785,-0.85442519,-0.49394858,0.16115829,0
-1.2893023,-2.0947974,4.136291,-0.85442519,-0.49394858,0.16115829,0
-2.5595264,-1.8171961,-4.2767911,-0.11421555,-0.12402564,-0.98568368,0
-3.7543821,0.7058599,1.0550189,-0.85442519,-0.49394858,0.16115829,0
-3.36269,-0.47905922,-0.67735302,-0.85442519,-0.49394858,0.16115829,0
-3.0662448,-0.97514105,-1.3298696,-0.85442519,-0.49394858,0.16115829,0
-0.53218889,-0.44052768,4.5841851,0.15055656,0.061490893,0.98668706,0
0.91095471,-0.052698582,-4.7483454,-0.098667085,-0.1502766,-0.98370808,0
-3.1242731,0.43719983,3.1141706,-0.85442519,-0.49394858,0.16115829,0
2.017395,2.9727108,0.63283253,0.85442519,0.49394858,-0.16115829,0
-0.90347248,2.2654259,3.7317517,-0.14070103,0.51855135,0.84339058,0
-3.2567384,0.1209693,-3.5865393,-0.33066583,0.27770108,-0.90196556,0
0.39255142,1.0195695,-4.6074462,-0.22437376,0.071017742,-0.97191179,0
-0.28892183,-2.7320027,4.1159182,0.38768154,-0.39958274,0.83068413,0
-4.5414553,2.2926908,0.71738672,-0.85442519,-0.49394858,0.16115829,0
1.5907947,3.3613439,0.77348685,0.85442519,0.49394858,-0.16115829,0
3.8738561,0.4317708,2.7046998,0.85442519,0.49394858,-0.16115829,0
0.48970699,4.8796644,-1.2134793,0.85442519,0.49394858,-0.16115829,0
3.2313612,-0.39385724,-1.635469,0.85442519,0.49394858,-0.16115829,0
1.3511416,3.0457394,3.5263541,-0.090531886,0.44696331,0.88995934,0
-0.828794,2.4482653,3.9087083,-0.16596605,0.55338967,0.81621999,0
-4.5711536,1.3358498,-0.57478756,-0.85442519,-0.49394858,0.16115829,0
3.3181183,-0.66586423,-3.267524,0.85442519,0.49394858,-0.16115829,0
2.572237,-3.1400099,-2.3746884,0.38479421,-0.80999589,-0.4425379,0
2.4529743,1.5535452,-1.3988646,0.85442519,0.49394858,-0.16115829,0
-0.68476284,3.7848527,2.2514472,-0.33522573,0.76105928,0.55534887,0
-0.042556763,-3.6604624,3.8127863,0.43292189,-0.50531,0.74648505,0
4.3440952,-2.1246114,-1.7046143,0.85442519,0.49394858,-0.16115829,0
2.5524712,2.1673009,1.3752126,0.85442519,0.49394858,-0.16115829,0
1.3047513,3.9231384,3.1594706,-0.17514871,0.56584036,0.80569708,0
0.94759274,-0.50544375,-4.6284394,-0.060932696,-0.21277308,-0.97519982,0
-0.23192203,3.8409803,2.4889865,-0.28699297,0.70723724,0.64610398,0
3.5292149,1.4073081,3.3824081,0.85442519,0.49394858,-0.16115829,0
-2.83307,-0.4280951,2.4072571,-0.85442519,-0.49394858,0.16115829,0
3.1607964,-0.89908409,-3.6935894,0.85442519,0.49394858,-0.16115829,0
1.552057,-0.39797342,-4.7421827,-0.00048470497,-0.3094157,-0.95092672,0
1.2655506,-3.228441,3.2044761,0.45905805,-0.57239705,0.67943126,0
-3.4511013,2.2543228,2.6563158,-0.33573711,0.76160073,0.55429673,0
-2.766839,-2.3758078,-2.6891973,-0.85442519,-0.49394858,0.16115829,0
0.39942789,4.2077255,-3.3183746,0.85442519,0.49394858,-0.16115829,0
-0.22785941,3.1277549,3.225059,-0.21254277,0.61531645,0.75908577,0
1.2648894,-3.6084144,-2.3894801,0.3415848,-0.76774234,-0.54211748,0
0.50116253,4.8574209,-1.4284074,0.85442519,0.49394858,-0.16115829,0
-1.2138824,-1.2934537,-4.2153292,-0.098543048,-0.15048489,-0.98368865,0
-2.028821,-2.1252131,0.76325786,-0.85442519,-0.49394858,0.16115829,0
2.6346745,-0.2725358,-4.350853,0.85442519,0.49394858,-0.16115829,0
-0.45362103,1.9353408,4.1660109,-0.060598433,0.4027943,0.91328228,0
3.0974522,0.87415147,-0.22510833,0.85442519,0.49394858,-0.16115829,0
2.8235528,-3.5068038,-1.2650211,0.46293074,-0.8645618,-0.19551927,0
3.7080593,0.36289215,1.2315736,0.85442519,0.49394858,-0.16115829,0
4.2719254,-2.6204002,-0.43973601,0.4954679,-0.86798012,-0.033491194,0
-1.9559605,-2.6480889,-0.88424993,-0.85442519,-0.49394858,0.16115829,0
-3.4240239,1.150136,-3.0035639,-0.41783595,0.46887213,-0.77818477,0
0.76204777,4.3161631,-0.80698872,0.85442519,0.49394858,-0.16115829,0
-2.5298729,1.1030519,-3.5936241,-0.38469404,0.39293057,-0.83523381,0
1.3868641,4.1993842,1.415261,0.85442519,0.49394858,-0.16115829,0
-0.16283894,-1.2069111,4.7770367,0.24213403,-0.10411131,0.96464074,0
3.4233,-1.9546151,-3.0119629,0.3180196,-0.74246591,-0.5895828,0
2.0827112,3.178339,2.8597846,0.85442519,0.49394858,-0.16115829,0
4.1416173,-0.51280165,0.75462955,0.85442519,0.49394858,-0.16115829,0
-1.4313977,-4.1574464,-2.2094271,-0.85442519,-0.49394858,0.16115829,0
2.7680943,1.3602116,1.1482322,0.85442519,0.49394858,-0.16115829,0
-3.08392,-0.94973207,-0.0046377778,-0.85442519,-0.49394858,0.16115829,0
-3.9500093,0.37264538,-2.3880117,-0.85442519,-0.49394858,0.16115829,0
0.83818746,0.1768854,-4.550858,-0.11203402,-0.12772673,-0.98546141,0
4.2455549,-0.66834545,2.1527429,0.85442519,0.49394858,-0.16115829,0
-3.7007868,0.87310243,2.893117,-0.85442519,-0.49394858,0.16115829,0
3.0063446,0.22436857,3.9461801,0.26650333,-0.15037918,0.95203042,0
-2.7620404,-2.1962311,-1.9746989,-0.85442519,-0.49394858,0.16115829,0
2.4982047,-2.4393153,-2.9015231,0.29235846,-0.71347433,-0.63677377,0
-1.4782264,-2.9914246,1.163375,-0.85442519,-0.49394858,0.16115829,0
1.4572148,3.4806015,-1.223879,0.85442519,0.49394858,-0.16115829,0
1.1125553,1.0461729,-4.8345394,-0.16420823,-0.037557811,-0.98571032,0
0.62536716,4.0941472,-3.2252622,0.85442519,0.49394858,-0.16115829,0
-4.0442629,1.7450142,1.670432,-0.85442519,-0.49394858,0.16115829,0
0.46598101,4.9705482,-0.72470665,0.85442519,0.49394858,-0.16115829,0
-3.2355359,-1.7289228,-3.22346,-0.85442519,-0.49394858,0.16115829,0
3.1169028,-0.39724064,3.6043124,0.34823442,-0.31422162,0.88317454,0
1.9758348,1.0665736,4.0644341,0.13100827,0.095337749,0.98678643,0
-2.6116099,-2.3997147,-2.0020618,-0.85442519,-0.49394858,0.16115829,0
-0.32854033,-3.6311316,3.9023654,0.42312932,-0.4815014,0.76753992,0
-2.2577834,3.5033526,2.2143064,-0.38369423,0.80899769,0.44531035,0
-2.1321909,-2.2531164,-0.26796496,-0.85442519,-0.49394858,0.16115829,0
1.4787745,2.1124239,-4.3185663,0.85442519,0.49394858,-0.16115829,0
1.7392716,-3.9607975,1.1339025,0.51957279,-0.81159073,0.26714069,0
-2.3166354,-1.986491,-0.45004594,-0.85442519,-0.49394858,0.16115829,0
-2.6563499,3.5832007,-0.74522305,-0.518336,0.83174855,-0.19880038,0
1.8698403,3.439255,1.5670037,0.85442519,0.49394858,-0.16115829,0
-3.0373626,-1.7829304,-2.2322762,-0.85442519,-0.49394858,0.16115829,0
-1.9738231,2.8219862,-2.9019675,-0.46456075,0.58737367,-0.66270274,0
1.6330057,3.3761146,0.10183764,0.85442519,0.49394858,-0.16115829,0
-0.87628937,-0.02414453,-4.4923277,-0.18157876,-0.0067414641,-0.98335326,0
3.5363173,-3.0790894,-1.3953518,0.45168161,-0.85944146,-0.23946559,0
0.40347373,1.8666737,4.160213,-0.02490899,0.34875879,0.93688142,0
-3.0738626,3.2005701,1.2394221,-0.44980311,0.85846055,0.24641883,0
-0.37780857,3.8231552,2.9035094,-0.28871837,0.70924926,0.64312291,0
0.58666229,4.0049734,-2.3060756,0.85442519,0.49394858,-0.16115829,0
1.3969169,1.6907319,-4.9911628,0.85442519,0.49394858,-0.16115829,0
1.6184387,-4.4770079,-0.20401883,0.48904723,-0.86931223,-0.071615696,0
-4.0883121,0.27658606,-1.2969756,-0.85442519,-0.49394858,0.16115829,0
-3.6741483,0.51838851,-0.22814409,-0.85442519,-0.49394858,0.16115829,0
-2.2725132,-2.5145285,-3.9071765,-0.0037661493,-0.3042776,-0.95257592,0
-2.3247149,0.82436299,-4.0027008,-0.34355533,0.30441463,-0.88842618,0
2.5764441,-3.2880139,1.932137,0.51292735,-0.75243902,0.41320765,0
4.341898,-0.82432079,2.0402913,0.85442519,0.49394858,-0.16115829,0
-3.563921,1.9289389,-2.4901979,-0.47445285,0.61531484,-0.62950897,0
-2.5761313,-1.9759223,-3.924721,-0.087137043,-0.16955334,-0.9816612,0
-0.23669958,4.8724146,1.1184409,-0.42734087,0.84451395,0.32276249,0
3.7661173,-0.17698145,-0.0049715787,0.85442519,0.49394858,-0.16115829,0
0.74087238,4.6400161,-0.10906792,0.85442519,0.49394858,-0.16115829,0
1.1134288,4.4737167,0.80926442,0.85442519,0.49394858,-0.16115829,0
1.3079201,4.5878534,2.4391735,0.85442519,0.49394858,-0.16115829,0
-1.4691958,2.9121599,2.9707828,-0.27994543,0.69895846,0.65809393,0
3.4864466,0.39044619,1.2277709,0.85442519,0.49394858,-0.16115829,0
1.5603998,3.7701595,3.1254582,-0.16877414,0.55720931,0.81303942,0
1.3552358,2.544143,-3.257226,0.85442519,0.49394858,-0.16115829,0
0.86933661,-3.4153576,3.3566232,0.47106194,-0.60557282,0.64139038,0
3.801847,-2.4892473,1.3784182,0.51357055,-0.75588334,0.40606052,0
2.0655856,-3.4209836,2.1438804,0.50831217,-0.73044813,0.45614019,0
3.2605543,-0.54442239,-3.799279,0.85442519,0.49394858,-0.16115829,0
-2.4892359,-0.67344761,2.2727406,-0.85442519,-0.49394858,0.16115829,0
1.9143304,3.2703619,1.4399276,0.85442519,0.49394858,-0.16115829,0
0.035783485,-3.1628175,-3.4881988,0.17615771,-0.56720138,-0.80451912,0
3.6684785,-0.13326406,1.2878486,0.85442519,0.49394858,-0.16115829,0
-4.8296609,1.7928686,-0.55976355,-0.85442519,-0.49394858,0.16115829,0
4.3366928,-0.74628544,1.8839624,0.85442519,0.49394858,-0.16115829,0
4.1119165,-2.0454412,-2.8062952,0.85442519,0.49394858,-0.16115829,0
0.71628547,0.75619662,-4.7208123,-0.15242136,-0.058236241,-0.98659825,0
-0.16717434,3.7001843,-3.6121428,-0.45699084,0.5668608,-0.68543988,0
0.98565078,4.342907,2.9380338,-0.2624287,0.67797381,0.68664587,0
2.4894061,2.0347536,0.22039557,0.85442519,0.49394858,-0.16115829,0
1.8197335,-3.3888981,-2.3863063,0.36164135,-0.78808528,-0.49813351,0
-1.8856593,-3.2485662,-2.0395887,-0.85442519,-0.49394858,0.16115829,0
-3.7542381,0.68584657,-0.42034936,-0.85442519,-0.49394858,0.16115829,0
-0.09058094,-5.134409,0.78969932,0.51278377,-0.85165197,0.10835838,0
-0.84135008,-4.9119201,-1.9277956,0.35058495,-0.77701402,-0.52281868,0
-1.7872542,-3.596812,-1.0300667,-0.85442519,-0.49394858,0.16115829,0
-3.1568244,-1.0343938,-1.40832,-0.85442519,-0.49394858,0.16115829,0
0.61248255,4.5813379,-2.0538058,0.85442519,0.49394858,-0.16115829,0
-3.3889179,-0.46770382,-3.9931762,-0.26562512,0.14869389,-0.95254028,0
2.4358923,2.8223045,3.8334615,0.85442519,0.49394858,-0.16115829,0
0.14733541,-4.008296,-2.2385409,0.31724969,-0.7416172,-0.5910638,0
0.15857792,-3.2308156,-3.1640735,0.24230719,-0.65319341,-0.71737409,0
0.92534924,-1.7775066,4.0820026,0.34387219,-0.30507663,0.88807648,0
4.6095128,-1.6951656,1.7878489,0.50354075,-0.71075928,0.49118984,0
0.91669321,3.4414544,-3.0925868,0.85442519,0.49394858,-0.16115829,0
-3.7050095,-1.152277,-3.7361677,-0.85442519,-0.49394858,0.16115829,0
-0.73352671,-4.9457331,0.029993773,-0.85442519,-0.49394858,0.16115829,0
-3.8123975,0.43181467,-0.45273125,-0.85442519,-0.49394858,0.16115829,0
-0.14718863,2.7456918,3.6543453,-0.1345906,0.51000071,0.84957904,0
1.6312826,2.4103844,-3.0478971,0.85442519,0.49394858,-0.16115829,0
1.7857893,-3.3227856,-2.467875,0.34098741,-0.76711905,-0.54337454,0
-3.844456,0.74740767,-0.098411322,-0.85442519,-0.49394858,0.16115829,0
-1.469254,-3.7929275,0.12812233,-0.85442519,-0.49394858,0.16115829,0
4.3323908,-2.1341856,-1.4070024,0.85442519,0.49394858,-0.16115829,0
2.426985,-3.3003631,-1.7958393,0.41214636,-0.83320379,-0.36865491,0
-3.6620677,1.4498882,2.5244784,-0.85442519,-0.49394858,0.16115829,0
-4.0499616,1.483707,2.1884542,-0.85442519,-0.49394858,0.16115829,0
-2.6396191,0.11170769,4.6662316,-0.85442519,-0.49394858,0.16115829,0
-0.49615407,3.8522577,2.5262127,-0.30681658,0.729985,0.61072534,0
-3.8564315,2.9239211,0.19775105,-0.50682658,0.86064118,-0.049224079,0
4.2061162,-1.9524622,-1.5616065,0.85442519,0.49394858,-0.16115829,0
1.1065527,4.4864779,1.5518661,0.85442519,0.49394858,-0.16115829,0
-0.45043421,-2.1902008,4.3878908,0.3139329,-0.24363869,0.91765249,0
3.2043259,-0.14312768,-0.96834219,0.85442519,0.49394858,-0.16115829,0
0.20432138,1.3426,4.3279543,0.02955693,0.26346281,0.96421659,0
1.1561246,-2.5834026,3.359149,0.42851079,-0.49450982,0.75619984,0
-1.9898651,-3.1622603,-0.49369121,-0.85442519,-0.49394858,0.16115829,0
1.0764298,4.0772486,-1.6274409,0.85442519,0.49394858,-0.16115829,0
-2.6103156,-0.61337614,2.897634,-0.85442519,-0.49394858,0.16115829,0
-0.48271191,1.881233,4.1885023,-0.077369079,0.42767167,0.90061694,0
1.1519861,-4.5889578,1.2631233,0.51884669,-0.82755607,0.2143566,0
4.2354059,-2.6223993,-0.40756512,0.49990141,-0.86607224,-0.0041381121,0
-0.82457519,4.1841373,2.2241061,-0.35052735,0.77695537,0.52294427,0
-2.1040535,-2.6160398,-3.8175287,-0.01218912,-0.29103211,-0.95663559,0
-1.48844,4.3577085,-0.055137396,-0.50376797,0.86349827,-0.024250627,0
4.0958838,-0.34337139,3.2077732,0.37316173,-0.36756063,0.85185039,0
-2.4116006,-3.4837267,-3.7632432,0.062632114,-0.40582865,-0.9118005,0
-3.9515517,1.2325754,2.0975978,-0.85442519,-0.49394858,0.16115829,0
-3.9737265,0.13524103,-1.6731069,-0.85442519,-0.49394858,0.16115829,0
-0.10173893,4.057641,-3.363317,-0.4757477,0.61908531,-0.62481773,0
1.1259563,4.3328395,-0.044878483,0.85442519,0.49394858,-0.16115829,0
2.6057777,-3.5410128,0.53792024,0.5131402,-0.85088748,0.1125924,0
2.3248222,2.6408188,3.8859792,-0.017668337,0.33761626,0.94111794,0
-3.9998951,0.88367867,0.23221028,-0.85442519,-0.49394858,0.16115829,0
-3.5273178,-1.434485,-3.76282,-0.20100355,0.0282197,-0.97918385,0
3.9420109,-2.3941638,-2.3317862,0.3976506,-0.82130969,-0.40905291,0
3.3924079,-2.0976849,-3.1232476,0.29743734,-0.71932423,-0.6277768,0
-0.98889995,-1.3117877,-4.1717806,-0.045497417,-0.23785287,-0.97023499,0
-4.277658,2.6096444,-0.85953689,-0.51920122,0.82345235,-0.22881427,0
-4.3418446,0.83409309,-3.1012926,-0.41633129,0.46531034,-0.78112358,0
-1.6578822,1.6547006,-4.0008597,-0.37915307,0.38068134,-0.84340048,0
-2.4618261,0.94881272,-3.8490689,-0.35407037,0.32654038,-0.87635905,0
-2.2983608,-0.70841455,4.4226127,-0.85442519,-0.49394858,0.16115829,0
-1.1659317,2.2713203,-4.0172644,-0.39355481,0.41276264,-0.82142633,0
-2.2060816,-0.9025197,3.1528466,-0.85442519,-0.49394858,0.16115829,0
-0.8269465,1.1193227,4.4010229,-0.011851788,0.32862151,0.94438732,0
2.1802635,3.1437874,3.2369494,0.85442519,0.49394858,-0.16115829,0
3.2132497,-1.3514534,-3.9031374,0.20000534,-0.59895366,-0.77540469,0
2.2086062,0.6638813,-4.1218734,0.85442519,0.49394858,-0.16115829,0
-1.9288907,0.86974669,-3.9326909,-0.32461548,0.26530725,-0.90787482,0
0.94638944,-1.067518,-4.4953699,0.015417516,-0.33414021,-0.94239724,0
1.340549,-3.5911937,-2.2579041,0.35627005,-0.78275228,-0.51026511,0
-0.66398811,-4.6552248,1.904851,-0.85442519,-0.49394858,0.16115829,0
2.7524304,-1.4848523,3.374382,0.40214372,-0.43229586,0.80709386,0
2.9061778,0.10876846,-3.6070127,0.85442519,0.49394858,-0.16115829,0
2.4906118,0.95524859,-1.8182917,0.85442519,0.49394858,-0.16115829,0
3.6612964,0.0077033043,-0.011441611,0.85442519,0.49394858,-0.16115829,0
-1.5548414,-3.1137376,0.69555902,-0.85442519,-0.49394858,0.16115829,0
-1.7627137,-1.957023,4.0222459,-0.85442519,-0.49394858,0.16115829,0
4.4976125,-1.639864,-0.35217953,0.85442519,0.49394858,-0.16115829,0
0.010103703,-5.0315361,1.8849766,0.51915091,-0.79910493,0.30317217,0
-3.3138123,-0.35862136,0.19433582,-0.85442519,-0.49394858,0.16115829,0
-2.0905509,-0.6728369,4.9116364,0.058341384,0.2170029,0.97442597,0
1.1180639,3.7335074,-1.9851081,0.85442519,0.49394858,-0.16115829,0
0.83720368,2.1397116,3.8799338,-0.038589209,0.36964601,0.92837095,0
3.8659124,-0.20943356,1.2885373,0.85442519,0.49394858,-0.16115829,0
-2.9269917,0.0072183609,-3.7031288,-0.30593073,0.22757754,-0.92445362,0
2.4183338,-2.9958818,-2.8254266,0.31852171,-0.74301851,-0.5886147,0
-4.7551775,1.625288,-1.7817676,-0.85442519,-0.49394858,0.16115829,0
-2.3814235,-0.31257224,3.7942953,-0.85442519,-0.49394858,0.16115829,0
0.44641352,4.6892371,2.0036106,-0.33581144,0.76167929,0.55414367,0
-1.7637486,2.2158978,-3.6605315,-0.40199137,0.43194649,-0.80735666,0
0.62415719,4.8945265,1.3891721,-0.38608146,0.81115818,0.43927598,0
3.126559,-0.28747582,-3.5183365,0.85442519,0.49394858,-0.16115829,0
-1.1653969,-3.7882218,0.82051373,-0.85442519,-0.49394858,0.16115829,0
3.8218949,-2.8005252,0.21564603,0.5122484,-0.85273433,0.10220295,0
-0.91331196,-3.5939236,3.4538524,-0.85442519,-0.49394858,0.16115829,0
-2.336663,-2.1110544,-3.8723879,-0.07051605,-0.19706118,-0.97785187,0
-4.1507359,3.0122671,0.14621139,-0.50761169,0.85975778,-0.056093991,0
2.4311748,2.3510292,0.45513213,0.85442519,0.49394858,-0.16115829,0
-1.1755776,-3.2237039,3.2561321,-0.85442519,-0.49394858,0.16115829,0
-2.3547378,1.2729931,-3.6367388,-0.3672561,0.35474771,-0.85981202,0
-2.0390491,-1.4145197,4.0874214,-0.85442519,-0.49394858,0.16115829,0
0.40379965,4.0514393,2.6611123,-0.26848879,0.68529773,0.67696428,0
0.37977886,0.99365151,-4.8083272,-0.2052899,0.036007732,-0.97803843,0
0.071513891,4.7698421,1.287122,-0.40516835,0.8276009,0.38847792,0
0.46833801,4.1063623,-2.8854554,0.85442519,0.49394858,-0.16115829,0
1.6721649,-4.1241651,-0.69748926,0.4696489,-0.86690086,-0.16707027,0
3.7055233,0.38235998,2.8089628,0.85442519,0.49394858,-0.16115829,0
2.7056978,2.6084049,3.237936,0.85442519,0.49394858,-0.16115829,0
3.2235503,0.5671916,0.12040627,0.85442519,0.49394858,-0.16115829,0
0.24671733,4.3785014,2.4733026,-0.30793285,0.73124123,0.60865724,0
0.0079011917,5.3860111,-0.17190409,-0.48827368,0.86938107,0.075927675,0
-3.3246512,-0.1674726,1.2071903,-0.85442519,-0.49394858,0.16115829,0
-2.4873614,1.269686,-3.5347354,-0.39923567,0.42564633,-0.81205642,0
-2.2986095,-3.0277081,-3.4980483,0.031774104,-0.35926762,-0.93269348,0
3.5750432,-1.0351779,-1.7166026,0.85442519,0.49394858,-0.16115829,0
0.018747687,-2.0876961,-3.9994442,0.08550173,-0.43961552,-0.89410722,0
2.3943801,1.29953,-2.2707157,0.85442519,0.49394858,-0.16115829,0
-0.11003399,-5.0652118,1.5608151,0.51945668,-0.81869769,0.24474192,0
-3.6786938,0.39140892,0.89442331,-0.85442519,-0.49394858,0.16115829,0
-3.2500272,-0.37437558,0.68505073,-0.85442519,-0.49394858,0.16115829,0
-1.4385087,2.5027506,3.4623172,-0.21007195,0.61211026,0.76235867,0
1.608554,4.2494087,2.5800431,0.85442519,0.49394858,-0.16115829,0
1.4491482,1.6164513,-4.9602056,0.85442519,0.49394858,-0.16115829,0
-4.1628618,0.75698709,-0.052128851,-0.85442519,-0.49394858,0.16115829,0
-3.655823,2.959043,-0.26188207,-0.51314729,0.85087222,-0.11267638,0
0.63948059,-3.1630363,3.571348,0.42849386,-0.49446905,0.75623596,0
-1.7090921,4.020792,-1.399648,-0.51841277,0.78974104,-0.32795885,0
2.750653,-1.7655129,-3.4596837,0.22230479,-0.62789273,-0.74587613,0
-0.0052495003,-5.0702496,1.811794,0.51957011,-0.81105214,0.26877683,0
-4.3228912,1.8861384,1.1398071,-0.85442519,-0.49394858,0.16115829,0
-3.1500154,-0.090452194,2.3422956,-0.85442519,-0.49394858,0.16115829,0
-3.3536522,2.7070036,-1.2936838,-0.5178228,0.78410012,-0.3421202,0
-1.6276679,-2.8872643,2.0364747,-0.85442519,-0.49394858,0.16115829,0
-1.8298082,3.8665261,-0.52312875,-0.51343137,0.85023606,-0.1161316,0
-2.7419004,0.88456547,4.2451382,-0.1154457,0.48290408,0.86802995,0
-2.0643868,-0.054951668,-4.3284035,-0.24356538,0.10680097,-0.96398604,0
0.58468008,-3.2815685,3.5753314,0.45410824,-0.55921644,0.69358665,0
-4.1012878,1.3487043,1.8758774,-0.85442519,-0.49394858,0.16115829,0
1.8671007,0.34913898,4.1119199,0.21259934,-0.049351662,0.97589231,0
4.0642085,-1.3142571,2.9024882,0.45769274,-0.5687356,0.68341541,0
0.88279223,4.610137,-0.1777091,0.85442519,0.49394858,-0.16115829,0
-0.92901993,-4.2904468,0.45740461,-0.85442519,-0.49394858,0.16115829,0
-0.28020477,-4.9659028,0.7105999,-0.85442519,-0.49394858,0.16115829,0
2.0247369,-3.3596847,-2.4283664,0.366184,-0.79252589,-0.48765951,0
-3.8594544,0.79716039,-0.16611773,-0.85442519,-0.49394858,0.16115829,0
-0.22101307,-2.4119155,4.1371212,0.36468667,-0.34920835,0.86316681,0
-3.5287375,2.8917365,0.77755165,-0.48201579,0.86935318,0.10902047,0
2.5663018,0.63433099,-2.4108062,0.85442519,0.49394858,-0.16115829,0
2.1874025,2.2626486,0.65616214,0.85442519,0.49394858,-0.16115829,0
-0.92138386,4.7973337,-0.38730717,-0.50767535,0.85968322,-0.056659222,0
-0.050565243,5.1034384,-1.2679226,-0.51558417,0.84441304,-0.14539367,0
-0.3599472,2.8099031,-4.02178,-0.40071845,0.42903209,-0.80954051,0
1.275966,1.4014263,4.2750053,0.059189379,0.21561968,0.97468185,0
-2.0757258,-2.2318017,1.638768,-0.85442519,-0.49394858,0.16115829,0
-1.8198669,-3.6980398,-2.009876,-0.85442519,-0.49394858,0.16115829,0
-3.9516695,1.7127118,2.1234674,-0.85442519,-0.49394858,0.16115829,0
3.2372022,-3.0238028,-0.96475792,0.47218043,-0.86761665,-0.15584213,0
1.5590361,-2.8010645,-3.4379535,0.24347514,-0.65465063,-0.71564817,0
2.9034469,-1.5534818,3.4696145,0.40978742,-0.44995946,0.79347986,0
-2.6220007,3.3891125,-0.92863512,-0.51904041,0.82550657,-0.22166547,0
2.0717292,3.5924375,3.3055022,0.85442519,0.49394858,-0.16115829,0
-0.14087677,-3.9086421,3.3907435,0.46391797,-0.58560497,0.66471541,0
-0.074964523,1.6457644,-4.5161967,-0.30399483,0.22371322,-0.92603409,0
0.069109917,1.6323297,4.2033591,-0.03463766,0.36363482,0.9308973,0
-0.04164505,-5.1236238,0.72053099,0.50754189,-0.85983932,0.055473268,0
1.4876451,1.1565204,-4.8672624,-0.18926567,0.0070291162,-0.98190069,0
1.3805497,4.3595114,0.85296535,0.85442519,0.49394858,-0.16115829,0
-2.9395525,0.42959833,3.956697,-0.85442519,-0.49394858,0.16115829,0
2.4693608,0.44540477,-4.0954857,0.85442519,0.49394858,-0.16115829,0
1.1089323,-4.1569366,-1.334177,0.43368924,-0.84882867,-0.30232966,0
3.2221534,-3.4146705,-0.56054521,0.4922871,-0.86882162,-0.052934527,0
-3.7462339,2.5307448,-1.5182588,-0.51424879,0.75966376,-0.39806893,0
0.5322876,0.9936347,-4.6814694,-0.20988995,0.044396132,-0.9767164,0
-2.1053195,-3.1365726,-3.6650383,0.034455299,-0.36335707,-0.93101257,0
0.95813394,0.51265234,-4.8331032,-0.15210938,-0.058781058,-0.98661411,0
-1.7644728,-2.7292235,1.3169862,-0.85442519,-0.49394858,0.16115829,0
-2.5962987,3.4418817,1.5278754,-0.43856275,0.85195422,0.2860707,0
3.0270832,1.2737331,1.645654,0.85442519,0.49394858,-0.16115829,0
-0.085937738,4.5037293,2.181531,-0.34338665,0.76961631,0.53830862,0
0.56072044,5.4286823,0.21569633,0.85442519,0.49394858,-0.16115829,0
-1.4566991,-4.0929441,-3.2124751,0.19692856,-0.59490269,-0.77930093,0
2.6397481,0.54199219,-1.8937805,0.85442519,0.49394858,-0.16115829,0
0.72534609,4.757906,1.0041153,0.85442519,0.49394858,-0.16115829,0
-2.6695375,3.7794168,0.29109001,-0.49946827,0.86630249,0.007140398,0
-1.7324692,-2.9084246,-0.079738617,-0.85442519,-0.49394858,0.16115829,0
-0.5989607,2.4923525,3.90165,-0.15479623,0.53809124,0.82855046,0
-3.7025738,-0.66543341,-2.5801418,-0.85442519,-0.49394858,0.16115829,0
2.9711776,0.78872466,-1.3863562,0.85442519,0.49394858,-0.16115829,0
-0.24279308,5.2087121,-0.24805403,-0.49089766,0.86907375,0.061074197,0
2.1119514,-3.7943377,1.8263232,0.51470494,-0.76230806,0.39238334,0
-1.2310908,-2.7405434,3.1344168,-0.85442519,-0.49394858,0.16115829,0
-2.0310864,2.2133608,-3.5380917,-0.42601907,0.48846513,-0.76151752,0
0.9857111,5.1349664,1.5867853,0.85442519,0.49394858,-0.16115829,0
-0.34769678,-4.0281248,-2.9467728,0.26517132,-0.68129665,-0.6822896,0
0.56974411,-4.559413,0.39512825,0.5045377,-0.86285782,0.030294538,0
2.5357561,0.32724786,-3.041965,0.85442519,0.49394858,-0.16115829,0
-0.45788741,1.6642802,4.3025117,-0.038028568,0.36879426,0.92873275,0
0.39148712,-3.1749449,3.7318399,0.42955947,-0.49706566,0.75392592,0
2.9093671,0.61674738,-0.53339481,0.85442519,0.49394858,-0.16115829,0
-2.9190733,3.3669829,0.04537034,-0.50061333,0.86567032,-0.00086778402,0
1.3527237,3.5368946,0.41033316,0.85442519,0.49394858,-0.16115829,0
1.4559209,3.9716802,2.1092103,0.85442519,0.49394858,-0.16115829,0
3.6650143,-1.113044,-3.2778883,0.85442519,0.49394858,-0.16115829,0
-0.34081221,4.7627544,-2.3619947,-0.51248848,0.75015712,-0.4178749,0
-2.5218806,-2.7642655,-2.4181986,-0.85442519,-0.49394858,0.16115829,0
1.4390434,3.540719,0.70261765,0.85442519,0.49394858,-0.16115829,0
3.7127445,-0.20684385,-0.12760712,0.85442519,0.49394858,-0.16115829,0
1.1967206,-3.4762852,-2.6602743,0.3138082,-0.73780733,-0.59763235,0
-1.5332782,-0.38296938,4.7910638,0.067481995,0.20204717,0.9770481,0
-2.415781,-1.2758005,2.350266,-0.85442519,-0.49394858,0.16115829,0
-2.5460114,-0.33163238,4.6845403,-0.85442519,-0.49394858,0.16115829,0
-2.1580465,2.8133872,3.0733862,-0.30515209,0.72810686,0.61379349,0
-3.642159,-0.14825583,-2.3717539,-0.85442519,-0.49394858,0.16115829,0
4.624404,-2.6955032,-0.15102792,0.50662106,-0.86086148,0.047458529,0
3.8429177,-0.21785307,1.170501,0.85442519,0.49394858,-0.16115829,0
-2.6657357,3.2544494,1.6571116,-0.42862177,0.84540558,0.31870443,0
-0.8104291,-4.866117,-1.6778607,-0.85442519,-0.49394858,0.16115829,0
-2.546469,-2.0517602,-0.43090379,-0.85442519,-0.49394858,0.16115829,0
1.2144965,4.7133098,1.9335296,0.85442519,0.49394858,-0.16115829,0
0.9395088,1.7013881,4.0666695,0.023714334,0.27277613,0.96178514,0
-1.4448006,2.5398726,3.6574304,-0.20791423,0.60930288,0.76519382,0
0.1659863,-3.8363037,-2.620522,0.29538667,-0.7169686,-0.63142914,0
1.8652143,-1.4168262,3.6976607,0.37914425,-0.38066208,0.84341311,0
1.3223143,2.654669,3.8211637,-0.067073852,0.41243917,0.90851247,0
-0.79358649,0.41783467,4.5753846,0.029637754,0.2633338,0.96424925,0
0.76363468,2.9871416,-4.5265107,-0.36754328,0.35536796,-0.859433,0
0.27644837,4.2624192,2.2875037,-0.32139242,0.74616706,0.58304501,0
1.5248408,-2.3742681,3.7723105,0.40944564,-0.44916368,0.79410702,0
-0.82005405,-3.0771871,4.0913668,-0.85442519,-0.49394858,0.16115829,0
3.8872128,-0.83998132,-0.16945392,0.85442519,0.49394858,-0.16115829,0
-2.5721636,-0.59365749,2.3764157,-0.85442519,-0.49394858,0.16115829,0
1.1863694,2.1467552,-4.8028421,0.85442519,0.49394858,-0.16115829,0
-3.1554692,-1.1579337,-2.2849267,-0.85442519,-0.49394858,0.16115829,0
1.095681,0.7543509,4.3506055,0.13770074,0.083805472,0.98692203,0
-0.67134142,-4.9163575,-1.2111492,-0.85442519,-0.49394858,0.16115829,0
-2.308084,-0.49137664,3.6368084,-0.85442519,-0.49394858,0.16115829,0
3.8403838,-1.4656246,-1.6579759,0.85442519,0.49394858,-0.16115829,0
-2.7570992,-1.4505997,-0.49591219,-0.85442519,-0.49394858,0.16115829,0
-1.9861765,-3.2647803,-1.1306336,-0.85442519,-0.49394858,0.16115829,0
-2.7708721,3.4028542,-0.69726682,-0.5185675,0.83001029,-0.20535433,0
1.2792979,4.353581,2.2747183,0.85442519,0.49394858,-0.16115829,0
-1.6223958,-1.1356778,-4.2022691,-0.12456173,-0.1063925,-0.9864912,0
-0.72356057,-5.376308,-0.60781431,-0.85442519,-0.49394858,0.16115829,0
-0.87523746,-3.7441773,3.7061079,-0.85442519,-0.49394858,0.16115829,0
-2.354321,-0.88306212,2.8432245,-0.85442519,-0.49394858,0.16115829,0
-2.0589128,3.9094324,1.0489361,-0.44828093,0.85764199,0.25198078,0
1.8538077,3.6940482,1.516489,0.85442519,0.49394858,-0.16115829,0
3.8544254,-3.0014844,-1.108515,0.46142089,-0.86395627,-0.20166826,0
-2.1030025,-2.568579,-1.157865,-0.85442519,-0.49394858,0.16115829,0
1.5644114,-4.0163059,-1.5053835,0.41643545,-0.83652598,-0.35609776,0
0.92129278,3.4482446,-3.5441422,0.85442519,0.49394858,-0.16115829,0
-0.045043707,4.8875227,0.98919249,-0.44093585,0.85341281,0.27796018,0
1.8008819,1.8184204,-4.249486,0.85442519,0.49394858,-0.16115829,0
2.9427128,-1.1179733,3.3296275,0.38665611,-0.39729553,0.83225763,0
3.6034055,-0.30850577,-1.621401,0.85442519,0.49394858,-0.16115829,0
-1.7377856,-3.697221,-2.9544017,-0.85442519,-0.49394858,0.16115829,0
3.7404029,0.28020811,2.6371727,0.85442519,0.49394858,-0.16115829,0
-0.71973157,-4.7683921,-2.2150252,0.3266418,-0.75187373,-0.57270491,0
1.1228395,2.472259,-4.0260139,0.85442519,0.49394858,-0.16115829,0
-1.6961672,4.2165356,0.37772965,-0.48061454,0.86922014,0.11604142,0
-2.916327,-1.1787519,-1.5081522,-0.85442519,-0.49394858,0.16115829,0
-3.9290066,1.5657036,2.1907825,-0.85442519,-0.49394858,0.16115829,0
2.9221385,1.7798028,2.5667727,0.85442519,0.49394858,-0.16115829,0
-4.2703862,0.84899044,-2.3554471,-0.85442519,-0.49394858,0.16115829,0
-0.72657251,-4.3647904,1.4005365,-0.85442519,-0.49394858,0.16115829,0
2.5465512,2.3506999,3.2439971,0.85442519,0.49394858,-0.16115829,0
-3.4238229,0.4190259,1.8436097,-0.85442519,-0.49394858,0.16115829,0
2.2084796,-1.5820174,-4.0185618,0.16367558,-0.55026615,-0.81879026,0
0.17981577,-5.0334697,0.098769903,0.49745983,-0.86724067,-0.020664692,0
1.5863485,2.0802379,-3.4830232,0.85442519,0.49394858,-0.16115829,0
3.4522247,0.60412741,1.2790062,0.85442519,0.49394858,-0.16115829,0
-2.807476,-1.6793168,-2.2399025,-0.85442519,-0.49394858,0.16115829,0
-4.3352294,1.3463881,-0.14493614,-0.85442519,-0.49394858,0.16115829,0
-2.993772,-0.12057924,2.0553548,-0.85442519,-0.49394858,0.16115829,0
-2.0174465,-2.7110054,0.36228216,-0.85442519,-0.49394858,0.16115829,0
1.8777966,-3.9143372,0.9165833,0.51843554,-0.83102882,0.20153266,0
1.6114049,2.233326,-2.6193101,0.85442519,0.49394858,-0.16115829,0
-1.7645555,-1.4088826,3.9231424,-0.85442519,-0.49394858,0.16115829,0
-2.8980348,0.36206865,3.4366693,-0.85442519,-0.49394858,0.16115829,0
-0.75458086,-3.674789,-2.9389226,0.23332255,-0.64190847,-0.73042047,0
-2.0323153,-2.314101,-0.40294576,-0.85442519,-0.49394858,0.16115829,0
-1.3866053,3.2065685,-2.8529689,-0.48330534,0.64172965,-0.59548175,0
-4.7651696,1.4170537,-1.2774392,-0.85442519,-0.49394858,0.16115829,0
-2.9711721,-1.6713243,-2.7592809,-0.85442519,-0.49394858,0.16115829,0
-3.4321334,-1.1399536,-2.3681207,-0.85442519,-0.49394858,0.16115829,0
-2.9542644,2.7455659,2.380852,-0.35794294,0.78442264,0.50651538,0
-2.6762996,0.0399158,3.5631278,-0.85442519,-0.49394858,0.16115829,0
1.2015877,2.4148231,-3.6539671,0.85442519,0.49394858,-0.16115829,0
-4.0637875,1.8302667,1.9000976,-0.85442519,-0.49394858,0.16115829,0
0.81478691,3.8970811,-1.6702803,0.85442519,0.49394858,-0.16115829,0
-2.1497738,3.5525713,-1.0639372,-0.51920295,0.82342798,-0.22889808,0
-0.5861249,-0.35417974,-4.6787624,-0.1446538,-0.071763247,-0.98687649,0
-2.3467569,-1.4669981,2.4245088,-0.85442519,-0.49394858,0.16115829,0
0.49880123,-4.8468671,0.61530328,0.50653726,-0.86094993,0.046743095,0
1.0226462,4.1596241,0.67054629,0.85442519,0.49394858,-0.16115829,0
-4.7512293,2.4075637,0.26469803,-0.85442519,-0.49394858,0.16115829,0
1.9868412,-3.8206222,1.628225,0.517506,-0.78140438,0.34870368,0
1.8179955,-2.6542282,3.1618314,0.45547044,-0.56281841,0.68976939,0
3.3295264,-0.62676716,3.5832329,0.36556166,-0.3510924,0.86203158,0
-1.6680857,-3.624809,-0.30354166,-0.85442519,-0.49394858,0.16115829,0
-1.2900302,2.9579358,2.9843464,-0.28269869,0.70220429,0.65344512,0
-0.44478011,3.8199186,2.7743092,-0.27835584,0.69707787,0.66075754,0
-2.5236418,2.3805227,3.4112504,-0.25874794,0.67349327,0.69242787,0
3.6871202,-0.26430178,0.048024729,0.85442519,0.49394858,-0.16115829,0
3.828979,0.12166023,1.4481559,0.85442519,0.49394858,-0.16115829,0
-3.5261903,-1.459003,-3.6545672,-0.85442519,-0.49394858,0.16115829,0
2.6634402,-3.5312583,1.2443743,0.51932526,-0.80229872,0.29430836,0
-4.2267127,1.7312438,0.5699755,-0.85442519,-0.49394858,0.16115829,0
4.0952988,-1.3408499,0.092445374,0.85442519,0.49394858,-0.16115829,0
