0.76887274,0.38929826,-1.1057456,-0.035070434,-0.11897981,-0.99227709,0
0.13380697,-4.3806672,-0.29601812,-0.035070434,-0.11897981,-0.99227709,0
0.30484322,-2.0581455,-0.57897139,-0.035070434,-0.11897981,-0.99227709,0
-3.8402686,-0.71282196,-0.65702999,-0.035070434,-0.11897981,-0.99227709,0
-0.84940183,-0.6367026,-0.9684788,-0.035070434,-0.11897981,-0.99227709,0
-3.7092483,1.1715286,1.1921132,0.035070434,0.11897981,0.99227709,0
0.11156502,3.6702929,0.67600441,0.035070434,0.11897981,0.99227709,0
-2.37762,-3.4445691,-0.53893447,-0.035070434,-0.11897981,-0.99227709,0
-4.2551131,0.53486025,0.58064395,-0.99302548,0.1159806,0.021190152,0
3.444633,1.225215,0.81239927,0.035070434,0.11897981,0.99227709,0
1.8636534,2.0226095,-1.248727,-0.035070434,-0.11897981,-0.99227709,0
3.8984797,-2.1316371,-0.92562258,-0.035070434,-0.11897981,-0.99227709,0
0.53433406,1.0567056,0.90568405,0.035070434,0.11897981,0.99227709,0
-3.5414989,-1.9330198,-0.80256927,-0.035070434,-0.11897981,-0.99227709,0
-0.42788571,-3.0169163,1.4411266,0.035070434,0.11897981,0.99227709,0
2.5384302,0.50029618,-1.0138391,-0.035070434,-0.11897981,-0.99227709,0
3.9933453,1.844285,-1.0546687,0.89965343,0.42860627,-0.083189204,0
1.0804061,-4.2380042,-0.1756351,0.29175368,-0.95085526,0.10370159,0
0.62314433,-1.1601251,-0.97050971,-0.035070434,-0.11897981,-0.99227709,0
-3.3113456,2.8640213,0.52074885,-0.75502783,0.65365201,-0.051691413,0
-3.7294071,-2.4959426,1.3282814,-0.83292186,-0.54520822,0.094811887,0
-1.0765967,-0.42125988,-1.0950236,-0.035070434,-0.11897981,-0.99227709,0
4.3606029,0.76700032,0.25615805,0.9906646,0.1267385,-0.050210129,0
3.4407163,0.41301382,0.88174152,0.035070434,0.11897981,0.99227709,0
2.1922591,1.3546128,0.94611186,0.035070434,0.11897981,0.99227709,0
1.6602796,-4.0960445,-0.48512816,-0.035070434,-0.11897981,-0.99227709,0
0.23767202,-1.3080814,1.3136756,0.035070434,0.11897981,0.99227709,0
1.633293,-1.2103237,-0.8577435,-0.035070434,-0.11897981,-0.99227709,0
3.9493072,1.5678214,0.83604294,0.035070434,0.11897981,0.99227709,0
1.4835677,-4.2399201,-0.34056807,0.33929384,-0.93533283,0.10016006,0
-3.4601498,-0.64718699,-0.97692174,-0.035070434,-0.11897981,-0.99227709,0
0.92649919,-3.157325,-0.84989834,-0.035070434,-0.11897981,-0.99227709,0
-1.9826225,3.8073082,-1.3051629,-0.44963294,0.88860083,-0.090656817,0
0.4359459,2.1841581,0.83708537,0.035070434,0.11897981,0.99227709,0
3.4112005,2.5019712,-1.3339875,0.80901086,0.57955217,-0.098084867,0
-3.2031007,-1.909232,1.477138,0.035070434,0.11897981,0.99227709,0
-3.0963519,3.0347452,-0.68352175,-0.7222898,0.68922812,-0.057114244,0
-0.11791138,4.1433659,0.46208191,0.035070434,0.11897981,0.99227709,0
0.85969186,4.1703343,-0.24254823,0.2128318,0.96922219,-0.12373751,0
-1.4824356,4.4601927,0.72045445,0.035070434,0.11897981,0.99227709,0
-1.3521576,-0.28116482,-1.0658795,-0.035070434,-0.11897981,-0.99227709,0
4.4063606,-0.15460774,0.17014641,0.99922138,-0.022134751,-0.032661781,0
-2.1298807,3.8347373,0.81570268,0.035070434,0.11897981,0.99227709,0
-1.3010676,0.79477984,-0.90856057,-0.035070434,-0.11897981,-0.99227709,0
0.86927885,4.3500261,0.47187519,0.035070434,0.11897981,0.99227709,0
0.9373641,-4.3793159,0.082842827,0.17138107,-0.97889566,0.11131811,0
-3.7396741,0.15526175,1.2172058,0.035070434,0.11897981,0.99227709,0
0.45663729,1.305037,0.69171989,0.035070434,0.11897981,0.99227709,0
-0.07501848,2.7464161,0.48690915,0.035070434,0.11897981,0.99227709,0
4.4595451,0.15532421,0.40651047,0.99880314,0.029698923,-0.038862161,0
4.109199,-1.4495713,0.15912771,0.93127275,-0.36416402,0.010751069,0
4.456028,-0.70272952,0.87430179,0.035070434,0.11897981,0.99227709,0
4.0531397,-1.7132208,-0.39556491,0.93352938,-0.35836217,0.0099755824,0
4.2740602,-1.1284809,-0.31972802,0.97180516,-0.23570667,-0.0060842633,0
-2.8500528,-1.0696595,1.4293883,0.035070434,0.11897981,0.99227709,0
0.35276747,-0.52203196,0.94407278,0.035070434,0.11897981,0.99227709,0
0.57428908,-0.64764822,-1.0809859,-0.035070434,-0.11897981,-0.99227709,0
4.4883161,0.43272161,0.29521355,0.99713725,0.062386073,-0.042722661,0
2.6831856,-2.7477906,1.0983312,0.035070434,0.11897981,0.99227709,0
-1.8027027,0.28829622,1.0601476,0.035070434,0.11897981,0.99227709,0
0.38950688,-0.34154505,-0.99046326,-0.035070434,-0.11897981,-0.99227709,0
-0.59848976,-0.6948598,1.0984911,0.035070434,0.11897981,0.99227709,0
0.20242448,-0.67772377,-1.1329324,-0.035070434,-0.11897981,-0.99227709,0
2.3401608,3.3129296,-1.6029317,-0.035070434,-0.11897981,-0.99227709,0
3.8984389,1.8291657,0.81989712,0.035070434,0.11897981,0.99227709,0
0.16581288,-0.14803261,1.0462629,0.035070434,0.11897981,0.99227709,0
-3.6802289,2.3269417,0.65639687,-0.84495151,0.53375244,-0.034136593,0
-3.1483407,-1.5129592,1.1806781,0.035070434,0.11897981,0.99227709,0
-4.5297828,1.2565806,0.6120615,-0.97109586,0.23862153,0.0057097077,0
1.6968973,-4.0797515,-0.41241288,0.35569933,-0.92935663,0.098863661,0
-3.1993663,-3.0456038,0.20332956,-0.75203204,-0.65077215,0.10461071,0
3.9355793,-0.39135081,0.73693526,0.035070434,0.11897981,0.99227709,0
-0.72270256,2.0710044,-1.1432853,-0.035070434,-0.11897981,-0.99227709,0
0.80932653,-0.11534035,-1.2157224,-0.035070434,-0.11897981,-0.99227709,0
-1.3596735,-4.1066213,1.1081264,-0.30008531,-0.9458167,0.12401491,0
2.5244317,-1.4098198,1.2274899,0.035070434,0.11897981,0.99227709,0
4.4561887,1.3652687,-0.20843506,0.95308429,0.29473025,-0.069025099,0
2.5656095,0.85783195,0.97335362,0.035070434,0.11897981,0.99227709,0
1.6524745,1.8572586,-1.4780695,-0.035070434,-0.11897981,-0.99227709,0
1.1463289,-2.5141659,-0.55099189,-0.035070434,-0.11897981,-0.99227709,0
-2.3209052,-3.8655972,1.6238229,0.035070434,0.11897981,0.99227709,0
-1.0375987,-2.896081,-0.58230722,-0.035070434,-0.11897981,-0.99227709,0
-3.6740212,-0.38263226,1.2280374,0.035070434,0.11897981,0.99227709,0
-0.0072077066,1.8167815,0.63923204,0.035070434,0.11897981,0.99227709,0
0.16270733,4.5790043,0.21086812,0.061575785,0.99074417,-0.12097234,0
-4.4525318,0.62297571,-0.76739657,-0.035070434,-0.11897981,-0.99227709,0
-1.6062343,1.9852321,0.85973299,0.035070434,0.11897981,0.99227709,0
3.9930882,1.5736152,-0.97404248,0.93174934,0.3551625,-0.075517222,0
-2.930011,-3.4028153,1.3544681,-0.64202952,-0.7582162,0.11360604,0
3.0480206,0.23585844,-0.96481192,-0.035070434,-0.11897981,-0.99227709,0
-2.3000793,-3.1089339,-0.37181067,-0.035070434,-0.11897981,-0.99227709,0
0.91688913,0.10261679,-1.1042194,-0.035070434,-0.11897981,-0.99227709,0
0.00045740604,-4.4063916,-0.072707891,-0.0073091462,-0.99283081,0.11930454,0
2.2795272,0.48947972,1.0517399,0.035070434,0.11897981,0.99227709,0
-1.9726535,2.5418954,0.62865305,0.035070434,0.11897981,0.99227709,0
1.0598019,2.9549768,-1.2667978,-0.035070434,-0.11897981,-0.99227709,0
1.4904329,3.8149371,0.64064336,0.035070434,0.11897981,0.99227709,0
1.0714581,-4.357338,-0.43269825,0.21886027,-0.96970087,0.1085375,0
-1.2071718,-0.16820496,-1.0071089,-0.035070434,-0.11897981,-0.99227709,0
3.1597648,-1.777305,-0.93456185,-0.035070434,-0.11897981,-0.99227709,0
2.9929137,1.1768886,-1.3495646,-0.035070434,-0.11897981,-0.99227709,0
3.8906033,1.6719661,0.76818871,0.035070434,0.11897981,0.99227709,0
1.3972592,0.64204448,-1.3050051,-0.035070434,-0.11897981,-0.99227709,0
4.4814444,0.72471851,0.31425181,0.99243474,0.11274707,-0.048595041,0
-1.9923444,-3.9389215,1.1186302,-0.44672087,-0.8863076,0.12206209,0
-0.76375109,2.4121933,-1.1238883,-0.035070434,-0.11897981,-0.99227709,0
2.5094304,-1.3270541,-0.99051452,-0.035070434,-0.11897981,-0.99227709,0
2.9242387,1.6677309,0.64918482,0.035070434,0.11897981,0.99227709,0
1.2043018,2.2854331,0.80599248,0.035070434,0.11897981,0.99227709,0
-3.5139863,-0.53300965,-0.67789519,-0.035070434,-0.11897981,-0.99227709,0
3.581145,-0.67687392,-1.1167758,-0.035070434,-0.11897981,-0.99227709,0
1.1368809,-4.232554,1.6059327,0.035070434,0.11897981,0.99227709,0
-4.146894,1.3933868,-1.2032607,-0.035070434,-0.11897981,-0.99227709,0
-4.015738,-1.6951156,0.40944535,-0.90639222,-0.41445526,0.081730574,0
2.8525343,-3.5351462,-0.74918771,0.6397208,-0.76548803,0.069176555,0
2.0634565,-3.8294396,0.57617736,0.48064488,-0.87252557,0.087633252,0
3.9465218,-2.0750039,-0.76676631,-0.035070434,-0.11897981,-0.99227709,0
4.134253,-1.4719723,-0.32075608,0.93795294,-0.34666047,0.0084161758,0
-2.8668141,-0.46559396,-0.69623786,-0.035070434,-0.11897981,-0.99227709,0
-2.7552271,-3.5619762,0.17988181,-0.61837602,-0.77741206,0.11507171,0
3.2362268,2.0663621,0.82613432,0.035070434,0.11897981,0.99227709,0
4.0563951,0.72401929,0.80480474,0.035070434,0.11897981,0.99227709,0
-0.56681675,-2.7140975,-0.55296135,-0.035070434,-0.11897981,-0.99227709,0
0.52977884,-2.9593291,-0.79417944,-0.035070434,-0.11897981,-0.99227709,0
2.3002303,-3.925595,0.62926698,0.53016251,-0.84387791,0.082448125,0
1.4634352,0.76266843,0.68822271,0.035070434,0.11897981,0.99227709,0
1.5907103,0.15055853,1.0170203,0.035070434,0.11897981,0.99227709,0
0.0070861578,4.4597921,-1.3252583,0.019448958,0.99261856,-0.11970812,0
-4.2815061,1.1517825,0.4382894,-0.96775746,0.25185198,0.0040053129,0
-1.5942794,-3.2844663,-0.48589063,-0.035070434,-0.11897981,-0.99227709,0
2.6174865,2.1655307,-1.3003216,-0.035070434,-0.11897981,-0.99227709,0
-0.85350931,1.7162544,-1.0519478,-0.035070434,-0.11897981,-0.99227709,0
2.1685574,-2.3747387,1.02876,0.035070434,0.11897981,0.99227709,0
-3.1780419,3.2629626,-0.50430179,-0.67526495,0.73477256,-0.064237416,0
3.259007,-2.9507732,0.65228486,0.70406044,-0.70760411,0.059961975,0
-2.1590645,2.6348791,0.60044599,0.035070434,0.11897981,0.99227709,0
0.92203254,2.7321374,-1.4603143,-0.035070434,-0.11897981,-0.99227709,0
3.771642,-2.2127857,-0.79105198,0.88793051,-0.4593668,0.023698211,0
-3.4315562,2.9231293,0.097972631,-0.75474679,0.65397263,-0.051739872,0
-1.6049953,2.1184132,-1.1489685,-0.035070434,-0.11897981,-0.99227709,0
1.2821321,0.62841237,-1.0681373,-0.035070434,-0.11897981,-0.99227709,0
-1.8126476,-3.8790736,1.266844,-0.41457838,-0.901694,0.12277091,0
-3.7374172,2.7069206,-0.13466883,-0.82110047,0.56943202,-0.039257765,0
-0.59323251,0.13812274,-0.88581663,-0.035070434,-0.11897981,-0.99227709,0
-0.17025104,3.6467032,0.56718087,0.035070434,0.11897981,0.99227709,0
2.6796567,0.13473642,-1.1477032,-0.035070434,-0.11897981,-0.99227709,0
-2.3525779,3.681246,0.24014997,-0.56931251,0.81841153,-0.078010917,0
-2.7588491,3.4573605,-1.156497,-0.60590655,0.79212713,-0.073565841,0
1.6711893,-0.076553106,0.92477012,0.035070434,0.11897981,0.99227709,0
-0.88435692,-0.44857693,-0.80372,-0.035070434,-0.11897981,-0.99227709,0
-1.6883379,-4.4309425,0.17746615,-0.34366801,-0.93089956,0.12376666,0
-1.6494439,-2.9179003,-0.61792517,-0.035070434,-0.11897981,-0.99227709,0
1.6485286,-2.5439219,1.1631088,0.035070434,0.11897981,0.99227709,0
-1.7339265,-4.3261833,0.67279935,-0.37616199,-0.9182992,0.12340426,0
2.660641,-1.4525152,-1.0897675,-0.035070434,-0.11897981,-0.99227709,0
-1.0820346,1.5679361,0.85573161,0.035070434,0.11897981,0.99227709,0
-1.011529,-3.1733613,1.4431365,0.035070434,0.11897981,0.99227709,0
-4.4780045,-0.28038281,0.043353885,-0.9944877,-0.094017237,0.046421774,0
-1.165677,-4.083066,1.5818319,0.035070434,0.11897981,0.99227709,0
-4.497704,1.1165249,1.0312552,-0.97216922,0.2341956,0.0062783659,0
1.8246429,3.9631441,-1.1949475,0.41774148,0.90024143,-0.12270862,0
-0.5809741,3.6887791,0.62035966,0.035070434,0.11897981,0.99227709,0
-1.6235335,-2.7800465,1.5601089,0.035070434,0.11897981,0.99227709,0
-0.92384636,-4.5862031,0.19263506,-0.1770574,-0.97644156,0.12333882,0
2.8865032,-2.9745321,1.1314557,0.035070434,0.11897981,0.99227709,0
2.9159172,3.3474205,0.40174532,0.035070434,0.11897981,0.99227709,0
3.1836255,-2.7413464,-0.85837841,-0.035070434,-0.11897981,-0.99227709,0
-1.6994607,-2.045131,1.2652642,0.035070434,0.11897981,0.99227709,0
0.30058673,-0.80502123,-0.86976755,-0.035070434,-0.11897981,-0.99227709,0
1.7846458,1.0304902,0.8946209,0.035070434,0.11897981,0.99227709,0
-0.22997583,4.5432358,0.2338295,-0.047809549,0.99195081,-0.11725092,0
2.2906938,-0.80312288,0.91703713,0.035070434,0.11897981,0.99227709,0
-3.0429142,-2.3732891,-0.81177127,-0.035070434,-0.11897981,-0.99227709,0
-3.1991973,-3.0196671,1.3376687,0.035070434,0.11897981,0.99227709,0
-0.60966873,-3.8531938,-0.49521971,-0.035070434,-0.11897981,-0.99227709,0
-1.4033902,-3.9766967,0.93881536,-0.32895711,-0.93618417,0.12388039,0
1.3994608,-1.8805909,1.2791637,0.035070434,0.11897981,0.99227709,0
-0.70480037,-3.7099309,1.6366124,0.035070434,0.11897981,0.99227709,0
1.1820405,-1.9582322,1.2374315,0.035070434,0.11897981,0.99227709,0
-4.4186597,-0.56933856,-0.1853445,-0.98530209,-0.1619781,0.054246031,0
-0.94324243,1.9731991,0.7522887,0.035070434,0.11897981,0.99227709,0
0.37753075,-2.1218286,1.0779402,0.035070434,0.11897981,0.99227709,0
-2.7701557,3.5723791,0.30477309,-0.60556233,0.79238617,-0.073609114,0
-0.3947798,-1.6422622,1.1347393,0.035070434,0.11897981,0.99227709,0
-4.3545275,0.16045454,-0.90107304,-0.035070434,-0.11897981,-0.99227709,0
1.5536884,-0.10328931,0.7911675,0.035070434,0.11897981,0.99227709,0
-1.6502523,4.2136898,0.56849551,0.035070434,0.11897981,0.99227709,0
3.7876616,1.6277174,0.47900215,0.035070434,0.11897981,0.99227709,0
-1.52795,-0.39538664,-0.81462705,-0.035070434,-0.11897981,-0.99227709,0
3.3812261,2.4819446,0.66044641,0.035070434,0.11897981,0.99227709,0
1.8056872,2.8004379,-1.5150316,-0.035070434,-0.11897981,-0.99227709,0
3.2759926,2.1111822,0.73617506,0.035070434,0.11897981,0.99227709,0
-1.0387475,-1.0580642,1.3533027,0.035070434,0.11897981,0.99227709,0
3.4628928,2.3378839,0.62438685,0.035070434,0.11897981,0.99227709,0
-1.2507873,3.5490055,-1.4132159,-0.035070434,-0.11897981,-0.99227709,0
-3.9194543,-0.7755217,1.3349285,0.035070434,0.11897981,0.99227709,0
-1.7453278,-2.480391,-0.77205265,-0.035070434,-0.11897981,-0.99227709,0
-0.8753776,-2.9174211,-0.59749639,-0.035070434,-0.11897981,-0.99227709,0
-2.6783333,-2.8044562,1.2688868,0.035070434,0.11897981,0.99227709,0
-4.2425394,-1.156648,1.2717869,0.035070434,0.11897981,0.99227709,0
-4.1386275,-0.28138444,-0.91548169,-0.035070434,-0.11897981,-0.99227709,0
1.9062169,-3.0954876,1.2123895,0.035070434,0.11897981,0.99227709,0
-3.8222046,-1.3235787,1.4583101,0.035070434,0.11897981,0.99227709,0
3.0437276,3.2387714,-1.1669009,0.70638323,0.69941318,-0.10882968,0
4.3869677,0.10937905,0.20550811,0.99938452,-0.0034677237,-0.034905829,0
2.3044631,-0.45248696,1.0026567,0.035070434,0.11897981,0.99227709,0
0.90917796,3.637362,-1.2963533,-0.035070434,-0.11897981,-0.99227709,0
-4.3419223,-0.75754237,0.82612813,-0.98774225,-0.14698736,0.052534796,0
1.5865628,-1.6512264,0.97269678,0.035070434,0.11897981,0.99227709,0
3.5632267,-0.12790883,0.71683282,0.035070434,0.11897981,0.99227709,0
1.9186943,-3.9480691,-0.24949026,0.41999358,-0.90270841,0.093396008,0
-0.65075284,1.2530556,-1.0734627,-0.035070434,-0.11897981,-0.99227709,0
-3.9102507,1.622409,0.98758811,0.035070434,0.11897981,0.99227709,0
0.43188235,-3.2059469,1.261848,0.035070434,0.11897981,0.99227709,0
0.026308477,-0.12793225,-1.0698291,-0.035070434,-0.11897981,-0.99227709,0
0.77529776,-4.2965879,-0.68402576,-0.035070434,-0.11897981,-0.99227709,0
-0.56278396,3.0777116,0.80397487,0.035070434,0.11897981,0.99227709,0
-0.91296268,-4.5927186,-0.051766634,-0.21342304,-0.96909148,0.12374276,0
1.6645453,1.8610755,-1.1775278,-0.035070434,-0.11897981,-0.99227709,0
-2.5549302,1.9366877,0.9134742,0.035070434,0.11897981,0.99227709,0
-3.8198822,-2.6222069,-0.042934895,-0.83862478,-0.53654194,0.093974322,0
-0.49248439,-2.5812857,-0.8674345,-0.035070434,-0.11897981,-0.99227709,0
-4.462513,0.37120432,0.10482919,-0.99161667,0.12769884,0.019735232,0
-3.7014437,-2.0942588,0.87478161,-0.85052443,-0.51780009,0.092147648,0
-2.1757021,-1.1929646,-0.80644488,-0.035070434,-0.11897981,-0.99227709,0
-0.12017897,2.028224,0.58042347,0.035070434,0.11897981,0.99227709,0
-0.40897167,-3.4193978,1.5218124,0.035070434,0.11897981,0.99227709,0
-2.4887836,2.6140466,0.90941477,0.035070434,0.11897981,0.99227709,0
-4.1638231,2.1202345,-0.65979171,-0.87903261,0.47605145,-0.026013315,0
-0.88314873,-3.874949,1.4483616,0.035070434,0.11897981,0.99227709,0
-3.5495229,-2.8486996,0.7735374,-0.75870365,-0.64309281,0.10392576,0
2.8635197,0.21629369,-1.1396426,-0.035070434,-0.11897981,-0.99227709,0
-0.33606777,4.5410671,-0.83311987,-0.058201119,0.9914459,-0.11682308,0
-2.985328,0.10652743,-0.77673036,-0.035070434,-0.11897981,-0.99227709,0
-1.591002,1.1778295,-1.1380193,-0.035070434,-0.11897981,-0.99227709,0
1.8762447,-2.1481733,1.3511055,0.035070434,0.11897981,0.99227709,0
-1.196093,3.7500439,0.46873236,0.035070434,0.11897981,0.99227709,0
-1.7321851,-2.6989794,1.3862534,0.035070434,0.11897981,0.99227709,0
0.20096259,-4.4992929,-0.1161294,0.035900943,-0.99239701,0.11772537,0
0.95924926,4.1516266,-1.4329882,-0.035070434,-0.11897981,-0.99227709,0
-1.5261383,-1.1589355,1.3063211,0.035070434,0.11897981,0.99227709,0
-2.7127385,-3.3728101,-0.62246168,-0.035070434,-0.11897981,-0.99227709,0
3.9829156,-2.2150888,-0.35673785,0.87111533,-0.49027944,0.027999222,0
3.9549747,2.2491894,-0.57778001,0.84032124,0.53392577,-0.093720585,0
-0.13514709,3.852541,-1.6664605,-0.035070434,-0.11897981,-0.99227709,0
3.7870734,-1.8713868,0.94803381,0.035070434,0.11897981,0.99227709,0
2.9104533,-0.918432,-0.88773513,-0.035070434,-0.11897981,-0.99227709,0
-3.2890425,1.5523415,-1.1907731,-0.035070434,-0.11897981,-0.99227709,0
-0.37675095,-3.1947873,-0.79845583,-0.035070434,-0.11897981,-0.99227709,0
2.0990148,-2.2843318,-0.6278528,-0.035070434,-0.11897981,-0.99227709,0
-2.8705838,-0.84266782,1.2710309,0.035070434,0.11897981,0.99227709,0
0.13326985,2.155544,0.59795415,0.035070434,0.11897981,0.99227709,0
-1.4136699,-0.20758975,0.95185757,0.035070434,0.11897981,0.99227709,0
-2.0918901,1.5283017,0.79728889,0.035070434,0.11897981,0.99227709,0
3.3470545,-2.8516898,-0.7108779,-0.035070434,-0.11897981,-0.99227709,0
-1.5209248,-0.58570999,1.0636617,0.035070434,0.11897981,0.99227709,0
-0.15105516,3.4827807,-1.2342827,-0.035070434,-0.11897981,-0.99227709,0
4.3477826,0.86565733,0.26316029,0.97968853,0.19205801,-0.057654388,0
3.329443,1.2444904,-1.3405046,-0.035070434,-0.11897981,-0.99227709,0
1.296605,1.180107,0.74374855,0.035070434,0.11897981,0.99227709,0
-2.2160068,-3.956012,-0.021357059,-0.46955773,-0.87450802,0.12145442,0
-2.6256549,-2.5379703,-0.66482568,-0.035070434,-0.11897981,-0.99227709,0
1.9208643,-4.033442,0.047112942,0.42764097,-0.89918262,0.092702925,0
-3.3662331,-2.7627783,0.61943388,-0.76809919,-0.63200414,0.10292822,0
-1.0372264,-4.3995733,-0.20312524,-0.17711481,-0.97643107,0.12333959,0
2.918324,3.3395257,-0.83085203,0.67919803,0.72551316,-0.11099839,0
1.60297,0.9084565,-1.3550057,-0.035070434,-0.11897981,-0.99227709,0
3.986661,1.5385609,0.52911729,0.035070434,0.11897981,0.99227709,0
-4.6129503,-0.30900475,-0.69060594,-0.99745864,-0.057448037,0.042141926,0
3.91907,-1.7555261,-1.0323187,-0.035070434,-0.11897981,-0.99227709,0
3.3171577,-2.9715004,1.1487021,0.74920595,-0.66023821,0.05268693,0
0.81244558,-4.2938938,1.5806942,0.16273691,-0.98031569,0.11179394,0
1.0987101,1.8961205,0.66038972,0.035070434,0.11897981,0.99227709,0
-2.7160568,1.8200593,0.7687639,0.035070434,0.11897981,0.99227709,0
-0.72047484,2.0869501,-1.1758037,-0.035070434,-0.11897981,-0.99227709,0
-3.0280843,3.3578148,-1.3527057,-0.67742115,0.7328124,-0.063926101,0
-1.9478295,-0.64802086,1.3378427,0.035070434,0.11897981,0.99227709,0
-0.21259338,3.0773983,-1.2451832,-0.035070434,-0.11897981,-0.99227709,0
-1.1975038,-1.9503918,-0.87372023,-0.035070434,-0.11897981,-0.99227709,0
4.1577778,-1.9236341,0.50575209,0.89061165,-0.45418364,0.022982061,0
3.6261797,0.54515123,-1.3729386,-0.035070434,-0.11897981,-0.99227709,0
-1.8814132,-2.3038588,1.3793341,0.035070434,0.11897981,0.99227709,0
-4.4175792,-0.5441789,0.047070697,-0.98869985,-0.14067119,0.051811293,0
-3.810802,-2.2830579,0.30480194,-0.87064511,-0.4838329,0.088785917,0
3.0199132,-1.392956,-1.0118128,-0.035070434,-0.11897981,-0.99227709,0
0.80564559,-2.2861021,1.3183503,0.035070434,0.11897981,0.99227709,0
1.3209376,3.851666,0.58374763,0.035070434,0.11897981,0.99227709,0
-0.68388879,4.3632421,-0.3166604,-0.15902287,0.9809019,-0.11199552,0
2.300014,3.9490452,0.028001785,0.4626289,0.87816644,-0.12164813,0
-1.2444965,3.1956604,0.78206301,0.035070434,0.11897981,0.99227709,0
-0.76025361,-3.7489586,1.3622015,0.035070434,0.11897981,0.99227709,0
-1.1914008,4.2984529,-1.2210155,-0.2847358,0.95292616,-0.10419792,0
0.80082405,-4.0339499,-0.52065444,-0.035070434,-0.11897981,-0.99227709,0
-2.6719334,3.7997947,0.30719829,-0.58979535,0.80400991,-0.075560093,0
-2.9362054,1.9820048,-1.1037321,-0.035070434,-0.11897981,-0.99227709,0
2.1270349,-3.1214345,-0.6905694,-0.035070434,-0.11897981,-0.99227709,0
-3.005466,-3.4262311,-0.03196311,-0.62700272,-0.77054852,0.11455369,0
-2.6656437,0.41694301,-0.83309215,-0.035070434,-0.11897981,-0.99227709,0
2.7044954,-3.8000176,0.67098451,0.56818432,-0.81918275,0.07814312,0
-3.5392749,-2.2652178,1.2700227,0.035070434,0.11897981,0.99227709,0
-2.1621363,-0.14855969,-1.0506661,-0.035070434,-0.11897981,-0.99227709,0
0.18414766,0.25013536,1.0689323,0.035070434,0.11897981,0.99227709,0
-1.0924466,3.8673961,-1.5144243,-0.035070434,-0.11897981,-0.99227709,0
2.7963557,-0.48761761,-1.1063689,-0.035070434,-0.11897981,-0.99227709,0
3.7871172,-0.88136613,-0.94628686,-0.035070434,-0.11897981,-0.99227709,0
-0.013086021,-4.6639843,-0.37844539,0.041455209,-0.99220645,0.11750621,0
0.10356201,-0.64306462,1.1385505,0.035070434,0.11897981,0.99227709,0
-1.8860085,2.3834832,-1.2835181,-0.035070434,-0.11897981,-0.99227709,0
-2.4227991,-2.1234491,-0.85553837,-0.035070434,-0.11897981,-0.99227709,0
2.4280367,-2.6434183,1.3947468,0.035070434,0.11897981,0.99227709,0
-0.48087528,2.4252293,-1.4743683,-0.035070434,-0.11897981,-0.99227709,0
-1.191528,-0.71164978,0.99981308,0.035070434,0.11897981,0.99227709,0
2.6283939,3.0244012,-1.501096,-0.035070434,-0.11897981,-0.99227709,0
-1.6550584,-0.775473,-1.0309539,-0.035070434,-0.11897981,-0.99227709,0
-0.34119892,3.1821537,-1.3791165,-0.035070434,-0.11897981,-0.99227709,0
3.2243109,-1.7759453,-0.82549274,-0.035070434,-0.11897981,-0.99227709,0
-0.82914853,-3.3291028,-0.52356172,-0.035070434,-0.11897981,-0.99227709,0
-1.3202223,-1.0371969,1.2584953,0.035070434,0.11897981,0.99227709,0
0.40856203,-2.3097162,-0.90704215,-0.035070434,-0.11897981,-0.99227709,0
-1.6392143,4.2843943,0.14558625,-0.37767756,0.92083549,-0.097065091,0
2.7802207,-1.006442,1.1328795,0.035070434,0.11897981,0.99227709,0
2.534451,0.38869339,-1.1948484,-0.035070434,-0.11897981,-0.99227709,0
-0.68114412,-2.4888268,1.3802805,0.035070434,0.11897981,0.99227709,0
0.61227721,3.4621944,0.43248057,0.035070434,0.11897981,0.99227709,0
-3.2620771,0.86593527,-0.9364121,-0.035070434,-0.11897981,-0.99227709,0
-1.1439724,1.3446038,-1.1085182,-0.035070434,-0.11897981,-0.99227709,0
0.4669275,0.61612415,-0.93605578,-0.035070434,-0.11897981,-0.99227709,0
3.0480034,0.099429518,0.87468523,0.035070434,0.11897981,0.99227709,0
-0.40985686,1.436182,0.74640882,0.035070434,0.11897981,0.99227709,0
-1.6000186,4.1157122,-1.4726715,-0.035070434,-0.11897981,-0.99227709,0
3.7525907,-2.1140761,0.40201855,0.87650943,-0.48064613,0.026653469,0
-2.8400273,1.5293589,-1.1517972,-0.035070434,-0.11897981,-0.99227709,0
-4.6582508,0.15137541,-0.86030978,-0.99663222,0.07780458,0.025895134,0
-0.60648525,-0.77891922,0.98792225,0.035070434,0.11897981,0.99227709,0
-2.6490939,1.6363072,0.82340097,0.035070434,0.11897981,0.99227709,0
-4.4510007,-0.9550041,-0.18589096,-0.98467028,-0.16563934,0.054662708,0
-1.4859595,3.2305775,-1.4524651,-0.035070434,-0.11897981,-0.99227709,0
-0.18564707,1.2588366,-1.2846302,-0.035070434,-0.11897981,-0.99227709,0
1.1181644,3.8835759,0.60788155,0.035070434,0.11897981,0.99227709,0
1.8640289,-3.1061592,1.134021,0.035070434,0.11897981,0.99227709,0
-1.8619128,-3.6042652,-0.3676796,-0.035070434,-0.11897981,-0.99227709,0
0.87124825,4.4752769,-1.4108655,0.16606137,0.97839111,-0.12318403,0
-2.7835445,-3.1500695,1.4246981,0.035070434,0.11897981,0.99227709,0
-4.4632206,-0.80805844,-0.66914201,-0.97994769,-0.1907755,0.057509765,0
0.038719684,-3.8795524,-0.61455631,-0.035070434,-0.11897981,-0.99227709,0
-4.0262008,-2.2335486,-0.23792911,-0.87507415,-0.47592252,0.087993979,0
-2.65679,-0.78779191,1.3700771,0.035070434,0.11897981,0.99227709,0
2.5040507,-3.6641741,1.1782689,0.035070434,0.11897981,0.99227709,0
-2.4430804,1.8992875,0.97126496,0.035070434,0.11897981,0.99227709,0
4.3426142,0.18919331,0.59185809,0.99824685,0.043198794,-0.040461212,0
-2.1386924,3.9534452,0.44046354,0.035070434,0.11897981,0.99227709,0
-3.5982735,-2.6855712,-0.36417758,-0.035070434,-0.11897981,-0.99227709,0
-3.1971614,1.3449147,1.1412871,0.035070434,0.11897981,0.99227709,0
1.4207323,-3.9338984,1.4045489,0.28160512,-0.95383203,0.10441709,0
-3.886065,-0.96576667,1.3916703,0.035070434,0.11897981,0.99227709,0
-3.1101754,-0.25052774,1.1934185,0.035070434,0.11897981,0.99227709,0
1.5962905,3.4919703,-1.5444562,-0.035070434,-0.11897981,-0.99227709,0
0.44079515,-2.9297256,1.4581673,0.035070434,0.11897981,0.99227709,0
2.1219211,-1.7470319,1.1248407,0.035070434,0.11897981,0.99227709,0
0.095554397,-4.3546996,-0.61136985,-0.035070434,-0.11897981,-0.99227709,0
4.1394014,-1.5781294,-0.63429511,0.92987669,-0.36769998,0.011224389,0
1.7641389,2.4576676,-1.5525305,-0.035070434,-0.11897981,-0.99227709,0
2.1146419,-1.0347776,-1.02917,-0.035070434,-0.11897981,-0.99227709,0
-2.8225725,3.4041417,-0.74655437,-0.65458345,0.75300109,-0.06715399,0
-3.2974138,3.010006,-0.77952576,-0.72354579,0.68792605,-0.056913793,0
1.1330509,1.9449039,-1.3025153,-0.035070434,-0.11897981,-0.99227709,0
1.0861267,3.8650393,0.33420229,0.035070434,0.11897981,0.99227709,0
0.88840312,4.3166757,-1.1944094,0.17532822,0.97675651,-0.12331545,0
3.5865486,-0.52032578,-1.0931761,-0.035070434,-0.11897981,-0.99227709,0
-2.4221067,-2.7480338,1.3131597,0.035070434,0.11897981,0.99227709,0
-0.76675397,4.3824387,-0.023005486,-0.21733981,0.97003233,-0.10863113,0
-2.3452632,-0.59756154,-0.92242187,-0.035070434,-0.11897981,-0.99227709,0
4.3552451,-1.0575265,0.92547023,0.035070434,0.11897981,0.99227709,0
1.981304,1.7472953,0.85487139,0.035070434,0.11897981,0.99227709,0
-3.9653664,-0.94539225,1.2605802,0.035070434,0.11897981,0.99227709,0
0.54809451,-4.2146664,0.83159137,0.10202503,-0.98812675,0.11487621,0
1.9094613,-3.7591455,-0.71510839,-0.035070434,-0.11897981,-0.99227709,0
-2.7332528,-2.2684231,-0.50610399,-0.035070434,-0.11897981,-0.99227709,0
-3.5301614,0.5216794,-0.8665458,-0.035070434,-0.11897981,-0.99227709,0
-1.151159,-3.4301155,-0.42303944,-0.035070434,-0.11897981,-0.99227709,0
3.0197237,3.2815287,0.41406262,0.68878031,0.71653616,-0.11026067,0
-3.3521712,2.9373746,-1.3896818,-0.035070434,-0.11897981,-0.99227709,0
-1.735931,1.4687921,-1.1095359,-0.035070434,-0.11897981,-0.99227709,0
-0.92438567,-2.5826132,-0.73654234,-0.035070434,-0.11897981,-0.99227709,0
4.0561233,2.0210803,-0.62645388,0.89674014,0.4345513,-0.083799034,0
-4.4662519,-0.86970013,1.2483871,0.035070434,0.11897981,0.99227709,0
-0.50918621,-3.5779581,-0.53973508,-0.035070434,-0.11897981,-0.99227709,0
3.9873374,2.0923944,0.66562498,0.035070434,0.11897981,0.99227709,0
1.1805432,4.2324505,-1.5087364,-0.035070434,-0.11897981,-0.99227709,0
-3.461967,3.0320163,0.65817618,0.035070434,0.11897981,0.99227709,0
-2.4298651,0.43127656,1.1557987,0.035070434,0.11897981,0.99227709,0
2.7871304,-2.7721937,1.3044298,0.035070434,0.11897981,0.99227709,0
3.4585242,-1.2881216,1.1943645,0.035070434,0.11897981,0.99227709,0
0.83310837,-1.2672707,-0.85523784,-0.035070434,-0.11897981,-0.99227709,0
3.6391187,2.3452747,0.57072699,0.035070434,0.11897981,0.99227709,0
-0.15305251,-4.1945219,0.85164595,-0.064206816,-0.99056846,0.12104422,0
0.22573221,3.5829523,-1.5076199,-0.035070434,-0.11897981,-0.99227709,0
-0.58520389,-1.4540117,1.3500888,0.035070434,0.11897981,0.99227709,0
3.389853,2.1039019,-1.2004024,-0.035070434,-0.11897981,-0.99227709,0
3.1471701,2.0866323,-1.1747899,-0.035070434,-0.11897981,-0.99227709,0
-4.206398,-1.7252018,0.76797891,-0.90944058,-0.40785915,0.081047401,0
2.6302054,-3.668849,0.98485112,0.59842169,-0.79771006,0.074499786,0
2.0673037,-2.99087,-0.6111002,-0.035070434,-0.11897981,-0.99227709,0
-0.40356582,0.37317282,-0.88129687,-0.035070434,-0.11897981,-0.99227709,0
3.0894868,2.7884965,-1.4295332,0.7177915,0.68785483,-0.10784698,0
3.5177553,1.000047,0.69635332,0.035070434,0.11897981,0.99227709,0
0.17696109,1.3895643,-1.3127785,-0.035070434,-0.11897981,-0.99227709,0
2.6403553,2.794476,-1.333657,-0.035070434,-0.11897981,-0.99227709,0
-2.2327213,2.5439904,-1.3811562,-0.035070434,-0.11897981,-0.99227709,0
-2.8211923,1.6294236,0.78488839,0.035070434,0.11897981,0.99227709,0
-3.6619189,-0.038192451,-0.98688006,-0.035070434,-0.11897981,-0.99227709,0
-0.99276185,-2.4845233,-0.74626005,-0.035070434,-0.11897981,-0.99227709,0
-1.9595953,-0.31414425,0.98157787,0.035070434,0.11897981,0.99227709,0
-1.1597342,1.1698085,1.0403249,0.035070434,0.11897981,0.99227709,0
1.5155587,2.7415991,-1.563859,-0.035070434,-0.11897981,-0.99227709,0
-1.9439311,2.5201762,-1.4027317,-0.035070434,-0.11897981,-0.99227709,0
-4.3983746,0.66536665,-1.0861764,-0.035070434,-0.11897981,-0.99227709,0
-2.5292261,-1.2029836,1.0641195,0.035070434,0.11897981,0.99227709,0
1.8873848,-1.9113406,-0.74202633,-0.035070434,-0.11897981,-0.99227709,0
-2.8922269,-1.3115133,-0.56870514,-0.035070434,-0.11897981,-0.99227709,0
0.45465815,4.0783634,-1.4752131,-0.035070434,-0.11897981,-0.99227709,0
-4.4236994,-0.28510079,-0.60501635,-0.99860281,-0.035099462,0.039502628,0
2.374815,2.017134,0.80561036,0.035070434,0.11897981,0.99227709,0
1.9658459,-0.72875315,1.0868187,0.035070434,0.11897981,0.99227709,0
-0.19999768,-1.1524973,-0.77032942,-0.035070434,-0.11897981,-0.99227709,0
-2.8811593,2.0952022,-1.0198183,-0.035070434,-0.11897981,-0.99227709,0
2.25354,-3.418335,1.1712556,0.035070434,0.11897981,0.99227709,0
2.2099979,-0.080050826,-1.0082556,-0.035070434,-0.11897981,-0.99227709,0
0.40894017,1.1310176,-1.1312811,-0.035070434,-0.11897981,-0.99227709,0
0.27116019,4.5450697,-0.60965681,0.030498415,0.99229807,-0.12006027,0
0.37354392,-4.530138,1.058465,0.027000189,-0.99263823,0.11806887,0
0.79698718,0.10337567,-1.2197261,-0.035070434,-0.11897981,-0.99227709,0
-0.59861481,-1.4085214,1.0362465,0.035070434,0.11897981,0.99227709,0
-4.0030465,-1.5287305,1.087019,-0.92573225,-0.37023449,0.077111781,0
-3.1232028,-2.1353724,-0.46011937,-0.035070434,-0.11897981,-0.99227709,0
-2.7331152,0.58936357,-0.90157557,-0.035070434,-0.11897981,-0.99227709,0
3.0353277,-3.2413063,0.79985499,0.69852924,-0.71299338,0.060803711,0
1.4481796,1.5891955,0.80706358,0.035070434,0.11897981,0.99227709,0
-4.3274331,-0.38687223,-0.80919731,-0.035070434,-0.11897981,-0.99227709,0
-0.75167549,-2.8236854,-0.68873429,-0.035070434,-0.11897981,-0.99227709,0
-0.6409148,3.8346148,0.48618007,0.035070434,0.11897981,0.99227709,0
-0.81987059,-4.5445795,-0.23038149,-0.17324165,-0.97713238,0.12328678,0
-3.0893924,1.7830334,0.84874976,0.035070434,0.11897981,0.99227709,0
-0.94347519,-2.3358898,-0.71160448,-0.035070434,-0.11897981,-0.99227709,0
-2.6338699,-1.0508001,-0.627877,-0.035070434,-0.11897981,-0.99227709,0
3.5912187,-2.6084564,-0.78375769,-0.035070434,-0.11897981,-0.99227709,0
2.9140909,1.5985241,-1.1368566,-0.035070434,-0.11897981,-0.99227709,0
-2.5390854,3.6358383,0.57373333,0.035070434,0.11897981,0.99227709,0
-2.3990927,1.5338402,-1.0661446,-0.035070434,-0.11897981,-0.99227709,0
-2.8160617,1.0769451,-1.1655428,-0.035070434,-0.11897981,-0.99227709,0
-1.2814217,-4.135499,0.77377009,-0.25235662,-0.95965779,0.12398773,0
1.5914049,-0.46000922,-1.1599001,-0.035070434,-0.11897981,-0.99227709,0
1.0778613,-1.853738,-0.69674277,-0.035070434,-0.11897981,-0.99227709,0
1.0273747,-3.812705,1.234215,0.035070434,0.11897981,0.99227709,0
0.31253189,3.8794103,-1.4288843,-0.035070434,-0.11897981,-0.99227709,0
1.5570288,3.2950606,-1.5773056,-0.035070434,-0.11897981,-0.99227709,0
0.33988532,1.2536311,0.65468919,0.035070434,0.11897981,0.99227709,0
0.15177004,-4.0249624,-0.41471267,-0.035070434,-0.11897981,-0.99227709,0
-4.652801,-0.1345197,-0.068088174,-0.9993549,-0.0035079569,0.035741225,0
-2.2441158,0.36090839,-1.0762104,-0.035070434,-0.11897981,-0.99227709,0
2.0173664,-2.1606965,-0.85006428,-0.035070434,-0.11897981,-0.99227709,0
3.92275,-2.4921918,0.36904812,0.82946616,-0.55729628,0.037506878,0
-3.0722933,0.69984525,-0.97592211,-0.035070434,-0.11897981,-0.99227709,0
0.73173594,-2.081224,1.0805883,0.035070434,0.11897981,0.99227709,0
-1.9510064,-3.4759085,1.6274917,0.035070434,0.11897981,0.99227709,0
-1.3650881,1.2294475,-1.0974323,-0.035070434,-0.11897981,-0.99227709,0
-3.1735399,-1.559104,1.3070335,0.035070434,0.11897981,0.99227709,0
-1.0986226,3.8168383,-1.5532393,-0.035070434,-0.11897981,-0.99227709,0
-0.64393955,-4.0937572,1.6797554,0.035070434,0.11897981,0.99227709,0
1.5908874,-0.70085663,0.90758538,0.035070434,0.11897981,0.99227709,0
3.0729725,1.1776508,0.70191884,0.035070434,0.11897981,0.99227709,0
0.65234041,-4.1755123,1.1130376,0.15311067,-0.98180604,0.11231273,0
1.838201,-2.5932779,-0.6318996,-0.035070434,-0.11897981,-0.99227709,0
0.39619255,-0.25860453,1.0627463,0.035070434,0.11897981,0.99227709,0
-3.2479587,-2.1377249,1.177509,0.035070434,0.11897981,0.99227709,0
-3.2140753,-2.5810018,-0.62406766,-0.035070434,-0.11897981,-0.99227709,0
-1.5728621,0.42161644,-0.86184162,-0.035070434,-0.11897981,-0.99227709,0
-0.065480113,-1.1398978,1.1449629,0.035070434,0.11897981,0.99227709,0
3.565366,-0.24152046,0.83836257,0.035070434,0.11897981,0.99227709,0
-2.2251549,-1.8988781,-0.88555068,-0.035070434,-0.11897981,-0.99227709,0
-0.50040501,1.5724577,-1.081007,-0.035070434,-0.11897981,-0.99227709,0
2.5692637,-3.480993,0.85192895,0.56014657,-0.82461041,0.079078078,0
0.95166516,-0.68062013,0.93104231,0.035070434,0.11897981,0.99227709,0
-1.5068944,4.26789,0.48075652,0.035070434,0.11897981,0.99227709,0
0.66320914,3.9472401,-1.4101386,-0.035070434,-0.11897981,-0.99227709,0
-1.2953267,-2.6527629,1.4892163,0.035070434,0.11897981,0.99227709,0
2.3615382,2.481102,-1.5680687,-0.035070434,-0.11897981,-0.99227709,0
-0.38630664,1.541571,-1.1974437,-0.035070434,-0.11897981,-0.99227709,0
-0.99524409,-0.72814816,1.3311994,0.035070434,0.11897981,0.99227709,0
4.221478,-1.8646593,1.1422489,0.035070434,0.11897981,0.99227709,0
-4.3553429,-1.1635787,-0.78531563,-0.035070434,-0.11897981,-0.99227709,0
0.32566398,-0.74862468,-1.0606308,-0.035070434,-0.11897981,-0.99227709,0
-3.2623525,-0.67385632,-0.75254506,-0.035070434,-0.11897981,-0.99227709,0
-3.1005311,-0.80127895,-0.76857257,-0.035070434,-0.11897981,-0.99227709,0
-0.67656273,0.77195764,-1.2600229,-0.035070434,-0.11897981,-0.99227709,0
-0.96796077,2.2408714,0.6734339,0.035070434,0.11897981,0.99227709,0
0.65043777,4.3059702,-1.6572447,0.15481414,0.98025566,-0.12300998,0
-2.6890399,-0.023887336,-0.97450536,-0.035070434,-0.11897981,-0.99227709,0
1.5042187,3.8637753,-1.413059,-0.035070434,-0.11897981,-0.99227709,0
0.58453619,-1.0287001,1.3077689,0.035070434,0.11897981,0.99227709,0
-0.68170381,-1.3119638,1.2551008,0.035070434,0.11897981,0.99227709,0
3.8561189,0.94281483,-1.1658273,-0.035070434,-0.11897981,-0.99227709,0
-0.58160174,-3.9264588,-0.41590977,-0.035070434,-0.11897981,-0.99227709,0
-1.2860039,2.3395615,0.72741175,0.035070434,0.11897981,0.99227709,0
-0.48433015,0.67038369,-0.88386583,-0.035070434,-0.11897981,-0.99227709,0
-2.6112149,-2.1198826,1.4844745,0.035070434,0.11897981,0.99227709,0
3.3271267,-3.2638717,-0.78630495,0.70971262,-0.70200884,0.05909121,0
4.3947906,0.85495424,0.28191021,0.98536408,0.16161565,-0.054204769,0
0.378694,-4.4056358,-0.41208649,0.12502125,-0.98561049,0.11376172,0
-2.0797753,-0.97026187,1.0992625,0.035070434,0.11897981,0.99227709,0
3.0616024,-2.8670688,1.1409416,0.035070434,0.11897981,0.99227709,0
4.4070644,-0.62384218,0.96885455,0.035070434,0.11897981,0.99227709,0
1.4288217,3.8118086,-1.3181303,-0.035070434,-0.11897981,-0.99227709,0
0.38974285,1.2304935,0.92091447,0.035070434,0.11897981,0.99227709,0
1.7969987,3.3817949,-1.6248391,-0.035070434,-0.11897981,-0.99227709,0
1.5221059,-2.6095808,-0.58199406,-0.035070434,-0.11897981,-0.99227709,0
3.9775143,1.6868907,-0.11741567,0.93616736,0.34361586,-0.07428886,0
-3.0538177,-1.7212605,-0.63605237,-0.035070434,-0.11897981,-0.99227709,0
-0.60778111,-0.48958141,-0.75911969,-0.035070434,-0.11897981,-0.99227709,0
-3.3026276,1.4868075,1.0575423,0.035070434,0.11897981,0.99227709,0
0.70071793,-3.8109887,-0.67904806,-0.035070434,-0.11897981,-0.99227709,0
-1.1042006,-3.6326404,1.5191557,0.035070434,0.11897981,0.99227709,0
2.1412675,-1.5492296,0.98948836,0.035070434,0.11897981,0.99227709,0
-3.5298457,1.4077779,-0.98453844,-0.035070434,-0.11897981,-0.99227709,0
0.89352173,-0.62052357,1.1740153,0.035070434,0.11897981,0.99227709,0
-0.18213046,-4.1132917,1.4324143,0.035070434,0.11897981,0.99227709,0
1.46206,0.0014885068,0.89738256,0.035070434,0.11897981,0.99227709,0
2.0606587,3.7058077,0.59736633,0.035070434,0.11897981,0.99227709,0
3.3884134,0.84800506,-1.331938,-0.035070434,-0.11897981,-0.99227709,0
0.1890204,0.40431482,0.80020487,0.035070434,0.11897981,0.99227709,0
1.8788149,2.4530964,-1.2868397,-0.035070434,-0.11897981,-0.99227709,0
-2.806952,0.28556585,1.2217343,0.035070434,0.11897981,0.99227709,0
-1.2095497,3.6662407,0.49891067,0.035070434,0.11897981,0.99227709,0
0.28934434,-4.4603281,1.5610404,0.035070434,0.11897981,0.99227709,0
-1.6175038,0.42040393,-0.95809209,-0.035070434,-0.11897981,-0.99227709,0
3.0555983,-1.0250573,1.2158202,0.035070434,0.11897981,0.99227709,0
1.2133309,-1.3400128,-0.80261517,-0.035070434,-0.11897981,-0.99227709,0
-1.3046029,-0.038145244,0.92993206,0.035070434,0.11897981,0.99227709,0
-4.419239,0.78045261,-0.87740898,-0.035070434,-0.11897981,-0.99227709,0
3.3727679,2.0725431,0.80964792,0.035070434,0.11897981,0.99227709,0
3.7000368,2.2412786,0.70876408,0.035070434,0.11897981,0.99227709,0
-2.135654,-3.9914968,0.95656276,-0.49529916,-0.86030209,0.12066084,0
0.46115279,4.6408982,0.47787809,0.10113983,0.98736769,-0.12196577,0
-1.6413934,2.9164422,-1.3675916,-0.035070434,-0.11897981,-0.99227709,0
4.348546,1.4069843,-0.51964432,0.94255829,0.32609835,-0.072414294,0
-2.3271298,-4.0021014,-0.59475923,-0.035070434,-0.11897981,-0.99227709,0
-1.4121366,0.52252424,1.1838454,0.035070434,0.11897981,0.99227709,0
2.4311666,3.9116931,-0.14722157,0.50285196,0.85594535,-0.12040532,0
0.78447181,-2.7157609,1.130425,0.035070434,0.11897981,0.99227709,0
4.0137086,1.8272058,0.50879347,0.92278582,0.3773641,-0.077862531,0
0.47953925,-2.1718874,-0.85078812,-0.035070434,-0.11897981,-0.99227709,0
-0.42370263,-0.8486464,-0.80866688,-0.035070434,-0.11897981,-0.99227709,0
-0.49401489,-4.6476283,-0.06415391,-0.10284173,-0.98718715,0.12200421,0
3.935493,1.3139396,0.75180697,0.035070434,0.11897981,0.99227709,0
0.43450791,-0.63820547,1.0048285,0.035070434,0.11897981,0.99227709,0
-1.9686347,2.2698116,0.82370877,0.035070434,0.11897981,0.99227709,0
-0.47389165,1.3020426,-1.0963631,-0.035070434,-0.11897981,-0.99227709,0
-2.1710787,3.4686606,-1.3827074,-0.035070434,-0.11897981,-0.99227709,0
-3.2919331,-1.082316,1.3587415,0.035070434,0.11897981,0.99227709,0
4.1322765,1.746841,-1.4695847,-0.035070434,-0.11897981,-0.99227709,0
-3.3485379,0.697896,1.151949,0.035070434,0.11897981,0.99227709,0
2.7695336,2.0490746,0.77452666,0.035070434,0.11897981,0.99227709,0
1.7994493,1.0502062,0.8481679,0.035070434,0.11897981,0.99227709,0
-3.1022403,-1.5215951,-0.55138159,-0.035070434,-0.11897981,-0.99227709,0
-3.7396228,-2.5987501,-0.62543905,-0.035070434,-0.11897981,-0.99227709,0
-3.6894376,0.85282946,0.85685706,0.035070434,0.11897981,0.99227709,0
-2.9876111,1.1142957,-1.2215941,-0.035070434,-0.11897981,-0.99227709,0
2.7249568,-0.76507103,-0.99408329,-0.035070434,-0.11897981,-0.99227709,0
3.0856559,2.0493884,0.79457057,0.035070434,0.11897981,0.99227709,0
-0.34634441,-4.079741,-0.60744786,-0.035070434,-0.11897981,-0.99227709,0
1.2211843,-1.2626214,1.2927552,0.035070434,0.11897981,0.99227709,0
-2.2074921,0.14160848,0.93458128,0.035070434,0.11897981,0.99227709,0
2.6029074,1.3872917,-1.2764928,-0.035070434,-0.11897981,-0.99227709,0
-0.46955481,0.47294295,1.0899466,0.035070434,0.11897981,0.99227709,0
-3.8747609,1.5370448,-0.90873218,-0.035070434,-0.11897981,-0.99227709,0
1.0978507,-3.8998065,-0.48310041,-0.035070434,-0.11897981,-0.99227709,0
-3.0283518,-2.257617,1.5048853,0.035070434,0.11897981,0.99227709,0
-2.0248051,-2.6618273,-0.74455643,-0.035070434,-0.11897981,-0.99227709,0
-0.31226727,1.0169041,-1.1652524,-0.035070434,-0.11897981,-0.99227709,0
-3.8549106,-1.7998605,1.204445,-0.89986676,-0.42816681,0.083144024,0
-2.3129809,-1.0435153,-0.90355134,-0.035070434,-0.11897981,-0.99227709,0
1.3451159,-3.1416545,1.3451624,0.035070434,0.11897981,0.99227709,0
-0.91992474,0.1366446,0.90598202,0.035070434,0.11897981,0.99227709,0
2.9102528,3.1085985,0.69231856,0.035070434,0.11897981,0.99227709,0
-3.1894963,-2.6889322,1.4784228,0.035070434,0.11897981,0.99227709,0
0.67016655,-2.0405078,-0.84299493,-0.035070434,-0.11897981,-0.99227709,0
-0.35154837,1.9848653,-1.1818796,-0.035070434,-0.11897981,-0.99227709,0
0.60238463,2.7462373,-1.4332991,-0.035070434,-0.11897981,-0.99227709,0
-0.2471239,-4.703126,-0.47110677,-0.092561923,-0.98823339,0.12176639,0
-2.554728,0.095842957,1.2075906,0.035070434,0.11897981,0.99227709,0
0.85178745,0.26740837,-1.2347932,-0.035070434,-0.11897981,-0.99227709,0
-1.1403613,0.51620561,0.84536982,0.035070434,0.11897981,0.99227709,0
-1.6564246,-4.0097027,-0.32705069,-0.035070434,-0.11897981,-0.99227709,0
-1.3086195,-4.0510292,0.8071692,-0.28719586,-0.94980693,0.1240378,0
-3.8902676,-1.915946,-0.82531875,-0.035070434,-0.11897981,-0.99227709,0
-2.519213,-1.0687004,-0.69117731,-0.035070434,-0.11897981,-0.99227709,0
1.0511429,1.3380331,-1.25256,-0.035070434,-0.11897981,-0.99227709,0
3.9634404,0.53852689,0.94811773,0.035070434,0.11897981,0.99227709,0
1.7760928,1.1908221,0.85672456,0.035070434,0.11897981,0.99227709,0
3.9176843,-2.289803,-0.60308886,0.88508844,-0.46478018,0.024447799,0
2.5739884,1.2202997,0.91442001,0.035070434,0.11897981,0.99227709,0
-2.4360497,1.3095484,-1.2079175,-0.035070434,-0.11897981,-0.99227709,0
4.4823112,-0.1663487,-0.76829737,0.99742949,-0.066246569,-0.027309179,0
0.72610331,3.1649714,0.50621247,0.035070434,0.11897981,0.99227709,0
-4.5849032,-0.31913993,-0.36564204,-0.99539632,-0.084460236,0.045307938,0
1.430532,0.23547196,-1.2708383,-0.035070434,-0.11897981,-0.99227709,0
3.9415874,-0.95790273,0.90691674,0.035070434,0.11897981,0.99227709,0
3.8641739,1.1136054,0.71725714,0.035070434,0.11897981,0.99227709,0
2.0810854,3.4507532,-1.4209569,-0.035070434,-0.11897981,-0.99227709,0
-0.98737866,-0.53804541,1.2645479,0.035070434,0.11897981,0.99227709,0
0.86906707,-0.17683542,0.826545,0.035070434,0.11897981,0.99227709,0
3.5853939,-1.2682626,0.98621058,0.035070434,0.11897981,0.99227709,0
-1.2227378,3.7822547,0.39895654,0.035070434,0.11897981,0.99227709,0
-1.6779654,3.9529614,-0.86364388,-0.36898172,0.92427832,-0.097785294,0
-0.97005969,1.1584309,-1.0847842,-0.035070434,-0.11897981,-0.99227709,0
-3.7036176,2.4923329,0.73147655,-0.82887042,0.55817336,-0.037633181,0
-2.6942983,-3.4399228,1.3246803,0.035070434,0.11897981,0.99227709,0
-0.038628608,0.083183348,0.91890371,0.035070434,0.11897981,0.99227709,0
-1.8874503,2.8905106,-1.0979679,-0.035070434,-0.11897981,-0.99227709,0
-1.9841266,1.0166434,0.89399433,0.035070434,0.11897981,0.99227709,0
1.7627655,1.8977785,-1.1692052,-0.035070434,-0.11897981,-0.99227709,0
3.1484103,3.256376,-0.87158632,0.70917934,0.6966148,-0.10859299,0
-3.2507577,-2.8764479,1.3022528,0.035070434,0.11897981,0.99227709,0
2.1613481,-1.2844617,0.98269725,0.035070434,0.11897981,0.99227709,0
-0.94230932,2.3471048,-1.2093866,-0.035070434,-0.11897981,-0.99227709,0
3.9095066,-0.43211061,1.0508035,0.035070434,0.11897981,0.99227709,0
-0.86526823,-0.36690372,1.0899432,0.035070434,0.11897981,0.99227709,0
-1.6202806,0.79562104,0.92458695,0.035070434,0.11897981,0.99227709,0
-3.7614713,-0.36799195,-0.89259082,-0.035070434,-0.11897981,-0.99227709,0
2.8574502,-1.9523685,1.2298789,0.035070434,0.11897981,0.99227709,0
3.0602608,3.1490135,-1.5765395,0.70165521,0.70409524,-0.10922402,0
-0.95922697,4.5970721,0.31174374,-0.2495915,0.96246761,-0.10658407,0
1.8068981,-0.40481323,1.0097283,0.035070434,0.11897981,0.99227709,0
2.9894302,0.93490219,0.83366066,0.035070434,0.11897981,0.99227709,0
-2.4711449,-0.85111308,-0.81217515,-0.035070434,-0.11897981,-0.99227709,0
-0.4949168,-0.98089874,-1.0188748,-0.035070434,-0.11897981,-0.99227709,0
2.9487963,3.3214786,-0.26272297,0.6597811,0.74300271,-0.11240929,0
-4.3498945,-0.31659105,0.12719354,-0.99385011,-0.10019766,0.047140315,0
2.0532467,-2.2379239,-0.90255594,-0.035070434,-0.11897981,-0.99227709,0
-0.42775431,-1.137081,1.0105036,0.035070434,0.11897981,0.99227709,0
-1.5742866,3.927851,-0.99886608,-0.35767835,0.9286139,-0.098704576,0
0.15621899,0.56294549,1.0545168,0.035070434,0.11897981,0.99227709,0
2.5550823,-3.5933814,-0.46728587,0.58579576,-0.8068831,0.07604599,0
1.7961063,3.3011732,-1.5935626,-0.035070434,-0.11897981,-0.99227709,0
0.74585944,4.033926,0.58121634,0.035070434,0.11897981,0.99227709,0
4.5070066,-0.89865887,-0.78750879,0.97918409,-0.20271231,-0.010301322,0
-3.4131315,-0.43305072,-0.91447288,-0.035070434,-0.11897981,-0.99227709,0
-3.658365,-2.5404255,-0.5512017,-0.035070434,-0.11897981,-0.99227709,0
4.4696484,0.90401661,-0.71971631,0.97193408,0.22705185,-0.061576284,0
0.082107998,-0.94286925,-0.94526726,-0.035070434,-0.11897981,-0.99227709,0
-0.27712768,-3.8868449,-0.48973179,-0.035070434,-0.11897981,-0.99227709,0
-2.3611655,3.9522493,0.17610621,-0.55520999,0.82788783,-0.079645634,0
-3.340668,-2.8789091,-0.72616577,-0.035070434,-0.11897981,-0.99227709,0
-2.7842922,-1.9916985,1.1633368,0.035070434,0.11897981,0.99227709,0
-3.1634173,-2.306612,1.520627,0.035070434,0.11897981,0.99227709,0
-2.0362184,0.96004963,-1.1470951,-0.035070434,-0.11897981,-0.99227709,0
3.6182504,2.6701083,0.45203876,0.035070434,0.11897981,0.99227709,0
-2.0175331,-1.5084602,-0.92153829,-0.035070434,-0.11897981,-0.99227709,0
-2.0845561,-1.3301984,-0.58363616,-0.035070434,-0.11897981,-0.99227709,0
-3.5400739,-2.7368879,1.2397271,-0.78969222,-0.60521901,0.10047966,0
-4.0712047,-1.3896806,-0.82633007,-0.035070434,-0.11897981,-0.99227709,0
2.6291668,3.6491351,-0.95240283,0.5901655,0.79881138,-0.11664057,0
-0.77767062,0.9168908,-1.141179,-0.035070434,-0.11897981,-0.99227709,0
-3.0447257,-1.1952283,-0.8439188,-0.035070434,-0.11897981,-0.99227709,0
0.40244788,-2.8531632,-0.68678725,-0.035070434,-0.11897981,-0.99227709,0
-1.7065872,-2.3055139,-0.58126187,-0.035070434,-0.11897981,-0.99227709,0
3.2030573,2.9206665,-0.73141003,0.72447807,0.68090308,-0.10724974,0
0.53414214,-2.5654044,1.4597499,0.035070434,0.11897981,0.99227709,0
-2.6038067,-1.0883067,-0.98046833,-0.035070434,-0.11897981,-0.99227709,0
0.63863337,4.3543673,0.35394287,0.035070434,0.11897981,0.99227709,0
1.2141938,-3.6231222,1.3611624,0.035070434,0.11897981,0.99227709,0
2.5590987,3.2379718,-1.4565256,-0.035070434,-0.11897981,-0.99227709,0
-2.7308257,1.0426176,1.1634213,0.035070434,0.11897981,0.99227709,0
-2.62887,2.7458031,-1.0522287,-0.035070434,-0.11897981,-0.99227709,0
3.7098589,1.5447586,0.5279724,0.035070434,0.11897981,0.99227709,0
-0.64194274,4.2310472,-1.1291897,-0.13259734,0.98466372,-0.11338055,0
-1.5054164,-1.8971457,-0.59157693,-0.035070434,-0.11897981,-0.99227709,0
3.0229435,2.547152,-1.3126553,-0.035070434,-0.11897981,-0.99227709,0
2.4529915,0.96364099,-1.2314765,-0.035070434,-0.11897981,-0.99227709,0
-4.2736893,-1.7227273,-0.44006327,-0.9456712,-0.31717521,0.071454376,0
-2.4652724,-2.0859084,-0.85808188,-0.035070434,-0.11897981,-0.99227709,0
4.0278797,1.6765813,0.73271978,0.035070434,0.11897981,0.99227709,0
-0.17431241,1.0564761,0.75766581,0.035070434,0.11897981,0.99227709,0
-1.4701142,3.9926729,0.56874084,0.035070434,0.11897981,0.99227709,0
-1.0455191,-2.8741431,1.3658276,0.035070434,0.11897981,0.99227709,0
-0.6523816,-2.4624791,1.2301536,0.035070434,0.11897981,0.99227709,0
-1.5578346,4.0459914,-0.70879507,-0.35062999,0.931238,-0.099268377,0
