-0.6370101,-0.080550909,-4.2622781,-0.7927593,-0.60946739,0.0090708435,0
-1.1271689,0.42188498,3.5351181,-0.7927593,-0.60946739,0.0090708435,0
1.8012911,-2.7690678,-3.2156749,0.42194086,-0.5594539,-0.71342635,0
-0.27376968,1.3817425,1.8968439,0.7927593,0.60946739,-0.0090708435,0
2.8620443,-3.0984051,1.6593392,0.7927593,0.60946739,-0.0090708435,0
-2.3177481,1.908309,0.36783266,-0.7927593,-0.60946739,0.0090708435,0
-1.8523164,1.8299963,2.3677635,-0.7927593,-0.60946739,0.0090708435,0
-2.9120462,3.0281482,-0.019225359,-0.7927593,-0.60946739,0.0090708435,0
2.351665,-3.875031,-0.50875998,0.60083628,-0.7838645,-0.15669167,0
0.87572706,-0.37407827,-2.9182265,0.7927593,0.60946739,-0.0090708435,0
0.30089355,-0.99343634,1.1516887,-0.7927593,-0.60946739,0.0090708435,0
0.21480072,0.8335439,2.3676503,0.7927593,0.60946739,-0.0090708435,0
-0.3068372,0.91508323,-0.15286386,0.7927593,0.60946739,-0.0090708435,0
0.69380045,0.21569371,3.2747765,0.7927593,0.60946739,-0.0090708435,0
-1.2889475,2.7994573,0.016006947,0.7927593,0.60946739,-0.0090708435,0
1.867208,-1.4214902,-3.3426735,0.7927593,0.60946739,-0.0090708435,0
1.7466527,-2.5683961,-3.3964796,0.38893843,-0.51725435,-0.76234823,0
-0.57762647,0.12689841,3.6621311,-0.7927593,-0.60946739,0.0090708435,0
-1.1107574,1.5098568,4.1197572,-0.25922024,0.35057259,0.89994657,0
-1.9539756,1.8762314,3.7008698,-0.35745162,0.47690302,0.8029893,0
1.6269811,-1.0821846,-2.3403161,0.7927593,0.60946739,-0.0090708435,0
0.051530361,1.0218768,3.557831,0.7927593,0.60946739,-0.0090708435,0
0.87878633,-2.2065654,-1.5675859,-0.7927593,-0.60946739,0.0090708435,0
2.2328157,-2.2199118,0.54314661,0.7927593,0.60946739,-0.0090708435,0
-0.56393951,-0.1139359,1.0239198,-0.7927593,-0.60946739,0.0090708435,0
2.8372047,-3.2863493,-0.41986537,0.60737526,-0.79111457,-0.072339416,0
0.21865153,0.47499204,3.9347796,0.7927593,0.60946739,-0.0090708435,0
-2.8166881,2.5971208,2.4484015,-0.7927593,-0.60946739,0.0090708435,0
0.13086987,-0.62640965,4.0662236,-0.7927593,-0.60946739,0.0090708435,0
2.3518536,-3.8785672,-0.55949116,-0.7927593,-0.60946739,0.0090708435,0
2.0539508,-3.2723742,-2.2600212,-0.7927593,-0.60946739,0.0090708435,0
2.2114382,-2.5608234,2.7790763,0.48633009,-0.62347823,0.61217487,0
-0.51153034,1.2899302,2.0296605,0.7927593,0.60946739,-0.0090708435,0
2.0269556,-1.6797831,0.89604473,0.7927593,0.60946739,-0.0090708435,0
1.4317464,-2.4858928,-3.1772761,0.39882386,-0.52990556,-0.74842477,0
-0.37325835,1.1576202,3.785717,0.7927593,0.60946739,-0.0090708435,0
0.45197767,0.0079122186,0.66573089,0.7927593,0.60946739,-0.0090708435,0
-0.96221828,0.76661336,-4.2874308,-0.17848206,0.21787819,-0.9595173,0
-0.84005493,2.2031298,0.24282861,0.7927593,0.60946739,-0.0090708435,0
-2.2759099,2.4100261,1.2700446,-0.7927593,-0.60946739,0.0090708435,0
-0.18121719,-0.41667712,4.3122048,-0.7927593,-0.60946739,0.0090708435,0
1.1097813,-0.62561524,-0.58835226,0.7927593,0.60946739,-0.0090708435,0
1.1271091,-0.67230749,-4.1244802,0.7927593,0.60946739,-0.0090708435,0
-1.6652927,1.2326626,1.5867124,-0.7927593,-0.60946739,0.0090708435,0
1.2845749,-1.1572695,-0.23329806,0.7927593,0.60946739,-0.0090708435,0
-1.4329427,2.5657721,1.5436295,0.7927593,0.60946739,-0.0090708435,0
-0.96151251,0.58433694,1.2281249,-0.7927593,-0.60946739,0.0090708435,0
2.6758327,-3.1751356,1.4195015,0.5835318,-0.75455534,0.30022842,0
-1.9965069,3.1668482,0.96301579,0.7927593,0.60946739,-0.0090708435,0
3.0771041,-3.038409,0.90032864,0.59994149,-0.77756584,0.18831283,0
1.0657172,-0.61996472,4.1277533,0.7927593,0.60946739,-0.0090708435,0
-0.6694293,1.5811657,-3.1705425,0.7927593,0.60946739,-0.0090708435,0
-2.2076614,1.7786981,2.6113849,-0.7927593,-0.60946739,0.0090708435,0
0.59742844,-1.3255892,-0.7852779,-0.7927593,-0.60946739,0.0090708435,0
-0.92058587,0.042010903,-2.7690625,-0.7927593,-0.60946739,0.0090708435,0
1.8620164,-3.010998,0.90279102,-0.7927593,-0.60946739,0.0090708435,0
-2.9080992,2.9315917,0.58922315,-0.7927593,-0.60946739,0.0090708435,0
2.2233837,-2.0491755,-2.08918,0.7927593,0.60946739,-0.0090708435,0
-0.17198849,-0.59835726,4.60566,-0.7927593,-0.60946739,0.0090708435,0
2.1012843,-2.0260253,2.0333719,0.7927593,0.60946739,-0.0090708435,0
2.0292478,-2.4541566,3.1150661,0.45479769,-0.58153486,0.67451942,0
-0.24082685,-0.615201,2.9697957,-0.7927593,-0.60946739,0.0090708435,0
2.2129858,-3.3702328,-1.5719836,0.56045568,-0.73469675,-0.38224345,0
-3.0082293,3.3251915,1.0233114,-0.7927593,-0.60946739,0.0090708435,0
2.6246457,-2.6009977,0.92326021,0.7927593,0.60946739,-0.0090708435,0
1.2710252,-2.2148881,3.8601325,0.34004867,-0.42986673,0.83640987,0
1.3415847,-2.3903458,3.7133977,0.35995173,-0.45609066,0.81388956,0
1.1652293,-0.59024704,2.5915954,0.7927593,0.60946739,-0.0090708435,0
2.5813944,-3.49102,1.522845,0.58088088,-0.75089908,0.3142103,0
-0.10049653,-1.0748975,-4.1836519,-0.7927593,-0.60946739,0.0090708435,0
-2.7717352,2.9001222,-1.5963566,-0.7927593,-0.60946739,0.0090708435,0
-1.7515584,3.1553931,2.696691,0.7927593,0.60946739,-0.0090708435,0
1.2488936,-2.7695312,-0.11735058,-0.7927593,-0.60946739,0.0090708435,0
-3.0229011,3.1390948,0.87313414,-0.7927593,-0.60946739,0.0090708435,0
-0.88628495,0.16919778,1.2906253,-0.7927593,-0.60946739,0.0090708435,0
-0.34834623,1.1191927,4.546814,-0.12418413,0.17606515,0.97651386,0
-1.1021816,2.4996898,0.16282725,0.7927593,0.60946739,-0.0090708435,0
0.99922764,-1.8306671,-0.28271949,-0.7927593,-0.60946739,0.0090708435,0
-1.8495936,1.313228,-3.7522337,-0.7927593,-0.60946739,0.0090708435,0
1.6417512,-3.0777416,0.47856808,-0.7927593,-0.60946739,0.0090708435,0
0.16633105,-0.8757205,-2.723213,-0.7927593,-0.60946739,0.0090708435,0
-0.33884978,0.0056673288,4.0902729,-0.7927593,-0.60946739,0.0090708435,0
-2.0005467,1.6673492,-2.9206038,-0.7927593,-0.60946739,0.0090708435,0
2.4613943,-2.2320437,-0.99208665,0.7927593,0.60946739,-0.0090708435,0
-0.46311569,-0.54654956,-0.30671296,-0.7927593,-0.60946739,0.0090708435,0
-0.5989933,-0.2266953,-3.9133971,-0.7927593,-0.60946739,0.0090708435,0
-0.66484022,1.8247004,4.3623891,-0.22647691,0.30833882,0.92392391,0
1.565526,-1.1020572,-2.2804229,0.7927593,0.60946739,-0.0090708435,0
-1.7742271,1.3841833,-0.11059749,-0.7927593,-0.60946739,0.0090708435,0
-0.4088943,1.1876588,-0.62898219,0.7927593,0.60946739,-0.0090708435,0
-1.6914046,1.2487538,-0.1503253,-0.7927593,-0.60946739,0.0090708435,0
-2.3072445,1.8272047,-2.8011689,-0.7927593,-0.60946739,0.0090708435,0
1.1157541,-1.963439,-1.3037337,-0.7927593,-0.60946739,0.0090708435,0
-0.92300761,0.39030758,2.1165199,-0.7927593,-0.60946739,0.0090708435,0
0.48822594,-1.380965,0.36505449,-0.7927593,-0.60946739,0.0090708435,0
-1.4933107,0.9556036,-1.155583,-0.7927593,-0.60946739,0.0090708435,0
-0.91213799,0.21546113,-3.2480078,-0.7927593,-0.60946739,0.0090708435,0
-1.166347,0.87471676,1.6377339,-0.7927593,-0.60946739,0.0090708435,0
0.57274294,-0.25258875,4.5004954,0.084329486,-0.094928086,0.99190593,0
2.3506598,-3.4826636,-1.316102,0.57991648,-0.75873661,-0.29667443,0
-2.8790166,3.1742392,-1.2102263,-0.7927593,-0.60946739,0.0090708435,0
1.7744384,-1.4932575,0.22236133,0.7927593,0.60946739,-0.0090708435,0
0.34683537,0.57591486,4.0685506,0.7927593,0.60946739,-0.0090708435,0
0.31831789,0.38096571,-3.3815985,0.7927593,0.60946739,-0.0090708435,0
-0.6843617,1.8162179,-1.2425265,0.7927593,0.60946739,-0.0090708435,0
0.50917,0.33384758,-0.68498373,0.7927593,0.60946739,-0.0090708435,0
-1.317572,0.92423236,0.18059361,-0.7927593,-0.60946739,0.0090708435,0
-2.8865004,3.0892944,1.5576887,-0.7927593,-0.60946739,0.0090708435,0
1.0993383,-0.67108953,-1.7494719,0.7927593,0.60946739,-0.0090708435,0
-0.6460197,0.23670888,-3.9704835,-0.7927593,-0.60946739,0.0090708435,0
0.39619613,0.5035162,3.512861,0.7927593,0.60946739,-0.0090708435,0
-0.88710105,0.15748644,-1.1750368,-0.7927593,-0.60946739,0.0090708435,0
0.92592245,-1.9792063,-1.3710207,-0.7927593,-0.60946739,0.0090708435,0
-3.0529654,3.1424241,-1.1152973,-0.7927593,-0.60946739,0.0090708435,0
0.50849748,0.28887874,0.65392601,0.7927593,0.60946739,-0.0090708435,0
0.35643625,0.069355845,-4.349185,0.013322294,-0.032203078,-0.99939257,0
0.068626761,-0.7193414,1.6727053,-0.7927593,-0.60946739,0.0090708435,0
-0.98850727,2.0009394,-2.4009566,0.7927593,0.60946739,-0.0090708435,0
1.3394703,-0.71962291,-1.6197807,0.7927593,0.60946739,-0.0090708435,0
-0.24865818,1.4091216,2.7433863,0.7927593,0.60946739,-0.0090708435,0
2.0700309,-3.1867416,0.59111595,-0.7927593,-0.60946739,0.0090708435,0
2.3802314,-3.626832,0.42545891,-0.7927593,-0.60946739,0.0090708435,0
-1.6817995,2.7160485,2.3999295,0.7927593,0.60946739,-0.0090708435,0
2.3277326,-2.3850644,2.4188554,0.7927593,0.60946739,-0.0090708435,0
-1.9146535,1.4952523,1.9620764,-0.7927593,-0.60946739,0.0090708435,0
-1.5300012,1.345916,-3.1362491,-0.7927593,-0.60946739,0.0090708435,0
0.70172417,-0.21384239,1.2382661,0.7927593,0.60946739,-0.0090708435,0
-0.87308979,0.25804991,4.2596121,-0.7927593,-0.60946739,0.0090708435,0
-1.1084577,0.83469152,1.8947594,-0.7927593,-0.60946739,0.0090708435,0
-1.5323536,2.9233403,-1.8584156,0.7927593,0.60946739,-0.0090708435,0
0.064700961,0.49102658,1.9993291,0.7927593,0.60946739,-0.0090708435,0
-1.1242489,0.87467569,3.4310265,-0.7927593,-0.60946739,0.0090708435,0
-2.9720483,2.958169,-1.1500363,-0.7927593,-0.60946739,0.0090708435,0
-0.62752628,1.8373469,4.0984015,0.7927593,0.60946739,-0.0090708435,0
-0.64672279,1.6373812,-1.5286845,0.7927593,0.60946739,-0.0090708435,0
0.8173852,-0.4351325,4.1568742,0.7927593,0.60946739,-0.0090708435,0
1.2430694,-0.99329692,-4.1905241,0.7927593,0.60946739,-0.0090708435,0
1.1192131,-0.87746477,2.3752968,0.7927593,0.60946739,-0.0090708435,0
2.1804771,-3.6572447,0.8723743,-0.7927593,-0.60946739,0.0090708435,0
-0.16531843,-0.72984684,0.5672797,-0.7927593,-0.60946739,0.0090708435,0
0.051512957,0.8333596,3.2044797,0.7927593,0.60946739,-0.0090708435,0
2.0125003,-3.1183686,0.89730811,-0.7927593,-0.60946739,0.0090708435,0
-0.094439626,-0.81200922,0.73859805,-0.7927593,-0.60946739,0.0090708435,0
-0.68248892,1.5898468,-1.2259237,0.7927593,0.60946739,-0.0090708435,0
1.3149118,-2.8437316,-2.4664092,-0.7927593,-0.60946739,0.0090708435,0
-0.047483645,-0.59043813,-0.4479256,-0.7927593,-0.60946739,0.0090708435,0
-0.82377338,0.0075232983,-1.9927605,-0.7927593,-0.60946739,0.0090708435,0
-0.62034464,1.6489152,-4.1125894,0.7927593,0.60946739,-0.0090708435,0
0.044190109,1.0171895,1.5566239,0.7927593,0.60946739,-0.0090708435,0
-1.3120447,2.5015588,-0.27573037,0.7927593,0.60946739,-0.0090708435,0
0.31031847,-0.43721437,4.4550285,0.094076991,-0.10763946,0.98972893,0
-2.8644371,2.8572199,-0.071794033,-0.7927593,-0.60946739,0.0090708435,0
-1.4169724,0.98961413,1.1613288,-0.7927593,-0.60946739,0.0090708435,0
1.6990242,-3.2983916,1.4840934,-0.7927593,-0.60946739,0.0090708435,0
-2.164005,2.8177743,2.7004268,-0.48037386,0.63386405,0.60618263,0
-0.27179718,-0.56972742,4.0197778,-0.7927593,-0.60946739,0.0090708435,0
-1.9175198,1.9505103,0.27346206,-0.7927593,-0.60946739,0.0090708435,0
-1.3961368,1.0465975,0.17468405,-0.7927593,-0.60946739,0.0090708435,0
-1.3591816,2.6486776,-1.6749856,0.7927593,0.60946739,-0.0090708435,0
-1.1907115,2.3361146,3.6854692,-0.36668527,0.48874459,0.79162526,0
1.5204055,-3.0787559,2.3934832,-0.7927593,-0.60946739,0.0090708435,0
0.20208073,0.6413756,-3.7324781,0.7927593,0.60946739,-0.0090708435,0
0.53252006,0.19705337,-3.7251818,0.7927593,0.60946739,-0.0090708435,0
-0.1092515,0.70289576,-4.4990444,0.7927593,0.60946739,-0.0090708435,0
-0.68774748,1.6329433,-3.9994698,-0.22518981,0.27902007,-0.93350816,0
1.5705059,-1.0085111,-1.939743,0.7927593,0.60946739,-0.0090708435,0
-0.21593618,1.2554448,-1.6960936,0.7927593,0.60946739,-0.0090708435,0
-1.9234746,3.4432707,-1.9754612,0.7927593,0.60946739,-0.0090708435,0
-2.997045,3.1515365,1.6428831,-0.56869096,0.74491167,0.34885138,0
-0.77175951,0.548967,3.3650274,-0.7927593,-0.60946739,0.0090708435,0
1.2809105,-0.54724014,-0.28013861,0.7927593,0.60946739,-0.0090708435,0
0.81508958,-0.069072187,0.37155002,0.7927593,0.60946739,-0.0090708435,0
1.5609999,-1.0719365,1.8540477,0.7927593,0.60946739,-0.0090708435,0
-0.55513406,1.6920319,1.191349,0.7927593,0.60946739,-0.0090708435,0
0.29183739,-1.3483815,-1.9230796,-0.7927593,-0.60946739,0.0090708435,0
0.65957952,-0.24450326,3.9979146,0.7927593,0.60946739,-0.0090708435,0
0.49554539,0.35534334,4.545856,0.7927593,0.60946739,-0.0090708435,0
0.65699315,-2.0420885,-3.7892005,-0.7927593,-0.60946739,0.0090708435,0
0.23487639,-0.97200572,-1.8546056,-0.7927593,-0.60946739,0.0090708435,0
-0.65667963,0.10777932,2.4987266,-0.7927593,-0.60946739,0.0090708435,0
-1.5154203,1.2831128,-0.072987199,-0.7927593,-0.60946739,0.0090708435,0
1.6613606,-2.1115944,-3.88816,0.33702961,-0.4506909,-0.82661283,0
-1.139516,0.56604743,-1.1155055,-0.7927593,-0.60946739,0.0090708435,0
1.1555493,-0.32665753,3.3651536,0.7927593,0.60946739,-0.0090708435,0
-0.74540877,-0.014812782,2.422719,-0.7927593,-0.60946739,0.0090708435,0
-1.6912128,2.7351279,0.41444111,0.7927593,0.60946739,-0.0090708435,0
1.8807776,-1.5875316,2.1945398,0.7927593,0.60946739,-0.0090708435,0
-0.28203845,1.2035985,-1.9402102,0.7927593,0.60946739,-0.0090708435,0
-0.37071115,0.98617184,-0.037194014,0.7927593,0.60946739,-0.0090708435,0
1.648415,-1.3481991,-2.0015275,0.7927593,0.60946739,-0.0090708435,0
-0.14325762,1.2718394,1.2869737,0.7927593,0.60946739,-0.0090708435,0
-1.0566092,1.9110181,-1.8285971,0.7927593,0.60946739,-0.0090708435,0
0.76517892,0.058883011,-3.2268448,0.7927593,0.60946739,-0.0090708435,0
-1.4070652,1.0224558,-2.0348935,-0.7927593,-0.60946739,0.0090708435,0
2.5425413,-2.297904,1.9492214,0.7927593,0.60946739,-0.0090708435,0
1.5928923,-0.99057245,0.79556704,0.7927593,0.60946739,-0.0090708435,0
-0.26541758,1.2112337,3.470072,0.7927593,0.60946739,-0.0090708435,0
1.4451199,-1.299997,-2.8641536,0.7927593,0.60946739,-0.0090708435,0
-0.27654839,0.048855662,4.4348345,-0.028962851,0.052529544,0.99819934,0
2.6913295,-2.7271719,1.9668005,0.7927593,0.60946739,-0.0090708435,0
-0.28172964,-0.13346112,-0.34788173,-0.7927593,-0.60946739,0.0090708435,0
0.55424523,0.21209228,2.286576,0.7927593,0.60946739,-0.0090708435,0
-0.88609701,0.27790153,-0.92829096,-0.7927593,-0.60946739,0.0090708435,0
-0.54043466,-0.43799108,-0.32025343,-0.7927593,-0.60946739,0.0090708435,0
-1.1329259,0.91277194,1.48181,-0.7927593,-0.60946739,0.0090708435,0
-0.59003401,-0.12381172,-1.4474444,-0.7927593,-0.60946739,0.0090708435,0
0.42396808,0.45875311,-2.6358778,0.7927593,0.60946739,-0.0090708435,0
0.64916515,-0.18411219,2.5726376,0.7927593,0.60946739,-0.0090708435,0
2.4413838,-2.5817277,1.6395655,0.7927593,0.60946739,-0.0090708435,0
1.6044917,-2.9254413,0.49422574,-0.7927593,-0.60946739,0.0090708435,0
1.571775,-1.3749889,-3.0189216,0.7927593,0.60946739,-0.0090708435,0
-0.4888711,-0.44355202,-3.7075827,-0.7927593,-0.60946739,0.0090708435,0
-2.3828492,2.5959816,-0.50275612,-0.7927593,-0.60946739,0.0090708435,0
-3.134033,2.9475453,-1.2468753,-0.7927593,-0.60946739,0.0090708435,0
-0.26047575,-0.13630129,1.7359819,-0.7927593,-0.60946739,0.0090708435,0
-2.5357623,2.7382493,-0.099808455,-0.7927593,-0.60946739,0.0090708435,0
-1.9644153,1.7648346,-0.18382978,-0.7927593,-0.60946739,0.0090708435,0
-0.54665446,-0.29228592,4.0989761,-0.7927593,-0.60946739,0.0090708435,0
-1.3156321,0.90893257,3.832756,-0.7927593,-0.60946739,0.0090708435,0
-1.6209509,1.437296,-1.2750024,-0.7927593,-0.60946739,0.0090708435,0
-0.96035445,2.3240986,1.6220111,0.7927593,0.60946739,-0.0090708435,0
-0.85829717,2.2460432,0.9956001,0.7927593,0.60946739,-0.0090708435,0
-2.2558064,2.1775889,1.998909,-0.7927593,-0.60946739,0.0090708435,0
-2.2845073,3.5652175,-1.4026568,-0.57857555,0.74772781,-0.32581222,0
2.0732379,-3.2113624,1.6373286,-0.7927593,-0.60946739,0.0090708435,0
-2.2294469,3.5566907,-1.1010644,0.7927593,0.60946739,-0.0090708435,0
-0.44343913,-0.37447131,-2.2353947,-0.7927593,-0.60946739,0.0090708435,0
1.1000788,-0.62581271,0.31811988,0.7927593,0.60946739,-0.0090708435,0
-1.4835539,1.3405849,1.7007329,-0.7927593,-0.60946739,0.0090708435,0
-1.1549835,0.71609217,0.49231333,-0.7927593,-0.60946739,0.0090708435,0
2.9179873,-2.8460989,-0.89249873,0.7927593,0.60946739,-0.0090708435,0
-2.1278048,1.6043603,-1.0104419,-0.7927593,-0.60946739,0.0090708435,0
-1.0511779,1.9286033,2.3062687,0.7927593,0.60946739,-0.0090708435,0
0.093480349,0.52011204,2.5411029,0.7927593,0.60946739,-0.0090708435,0
-0.15476215,-0.65269446,-2.1585984,-0.7927593,-0.60946739,0.0090708435,0
-0.40107512,-0.2706452,3.9397769,-0.7927593,-0.60946739,0.0090708435,0
1.0346024,-0.3254385,2.1955011,0.7927593,0.60946739,-0.0090708435,0
0.10496712,-0.75631452,-3.594835,-0.7927593,-0.60946739,0.0090708435,0
-1.4763713,1.412782,-4.0321703,-0.28223729,0.35384607,-0.89170355,0
0.15812206,-1.2426476,1.8713686,-0.7927593,-0.60946739,0.0090708435,0
-0.4259119,0.01486659,-4.657968,-0.036940992,0.033185661,-0.9987663,0
1.3814479,-0.78801084,-2.1731496,0.7927593,0.60946739,-0.0090708435,0
0.44056416,0.57129943,2.321507,0.7927593,0.60946739,-0.0090708435,0
0.28873467,0.66806471,-2.2538021,0.7927593,0.60946739,-0.0090708435,0
1.6194606,-1.0921339,2.5183258,0.7927593,0.60946739,-0.0090708435,0
0.39091754,0.22773671,3.5138288,0.7927593,0.60946739,-0.0090708435,0
-0.31196976,1.2694101,-2.8193741,0.7927593,0.60946739,-0.0090708435,0
0.28505707,-0.76312172,4.3830929,0.1313622,-0.15629852,0.97893548,0
-2.0354629,1.6792724,2.0970678,-0.7927593,-0.60946739,0.0090708435,0
2.0519094,-1.8832501,2.6261585,0.7927593,0.60946739,-0.0090708435,0
0.84589207,-0.56625199,0.85420573,0.7927593,0.60946739,-0.0090708435,0
-0.057722807,-0.63105488,-4.3706484,0.068188787,-0.10346451,-0.992293,0
2.0155988,-3.3527086,2.0434687,-0.7927593,-0.60946739,0.0090708435,0
2.462486,-2.2355154,-0.17365193,0.7927593,0.60946739,-0.0090708435,0
0.43193489,-1.4438963,-1.0514193,-0.7927593,-0.60946739,0.0090708435,0
1.4381826,-2.4546785,-2.6517472,-0.7927593,-0.60946739,0.0090708435,0
1.436722,-1.1177094,0.10266614,0.7927593,0.60946739,-0.0090708435,0
-1.8126971,3.2978039,0.16161013,0.7927593,0.60946739,-0.0090708435,0
-0.52707195,1.4549955,2.7547359,0.7927593,0.60946739,-0.0090708435,0
0.46234894,0.33827806,4.2440014,0.7927593,0.60946739,-0.0090708435,0
0.86740446,-0.18725538,-3.1774817,0.7927593,0.60946739,-0.0090708435,0
0.76268542,-0.046610735,-1.8204098,0.7927593,0.60946739,-0.0090708435,0
3.111989,-3.2153883,-0.045433998,0.7927593,0.60946739,-0.0090708435,0
-0.73302507,0.34857827,3.8832245,-0.7927593,-0.60946739,0.0090708435,0
-3.121078,3.0880117,0.21902847,-0.7927593,-0.60946739,0.0090708435,0
0.11888301,0.78173184,0.013047814,0.7927593,0.60946739,-0.0090708435,0
2.3028734,-2.427443,1.5843904,0.7927593,0.60946739,-0.0090708435,0
1.9870683,-1.7479832,-2.7891779,0.7927593,0.60946739,-0.0090708435,0
-2.3497632,2.8730817,-2.5557997,-0.48634744,0.62350148,-0.61213744,0
0.15628874,0.73405182,2.4024947,0.7927593,0.60946739,-0.0090708435,0
-0.85485554,0.91330957,-4.1812572,-0.15569711,0.18808889,-0.96973234,0
-0.19982553,0.88034612,-1.2212325,0.7927593,0.60946739,-0.0090708435,0
-1.004854,0.67142653,-3.8799164,-0.7927593,-0.60946739,0.0090708435,0
-1.2369248,0.50377709,0.46940851,-0.7927593,-0.60946739,0.0090708435,0
0.53729606,0.097775489,-2.7536404,0.7927593,0.60946739,-0.0090708435,0
-0.1417464,-0.68007356,-1.3003777,-0.7927593,-0.60946739,0.0090708435,0
0.75808811,-1.7748854,3.6412671,-0.7927593,-0.60946739,0.0090708435,0
-0.247154,1.4806527,4.2615499,0.7927593,0.60946739,-0.0090708435,0
1.9322996,-3.3299296,0.77659655,-0.7927593,-0.60946739,0.0090708435,0
1.8401057,-1.3900421,-1.3403344,0.7927593,0.60946739,-0.0090708435,0
-0.002982378,0.89364558,-2.42381,0.7927593,0.60946739,-0.0090708435,0
2.5028932,-2.9559402,-2.2092414,0.52154911,-0.68595219,-0.50740135,0
0.11748347,-0.81306207,-1.0261757,-0.7927593,-0.60946739,0.0090708435,0
-1.6341567,2.928257,-1.617836,0.7927593,0.60946739,-0.0090708435,0
-1.4996521,1.2560858,-3.1244841,-0.7927593,-0.60946739,0.0090708435,0
2.5303066,-2.1456573,1.7192307,0.7927593,0.60946739,-0.0090708435,0
-2.6191211,3.6997781,0.58225012,-0.60439837,0.78791952,0.11783713,0
-0.97475386,2.2806602,-3.8328159,0.7927593,0.60946739,-0.0090708435,0
1.0915449,-0.77588159,1.9979758,0.7927593,0.60946739,-0.0090708435,0
1.3538636,-0.62919319,1.0429269,0.7927593,0.60946739,-0.0090708435,0
-0.47749031,-0.020597398,-1.2345656,-0.7927593,-0.60946739,0.0090708435,0
-1.9647744,1.8064922,-2.7546999,-0.7927593,-0.60946739,0.0090708435,0
0.61263043,-0.19438186,-1.1772212,0.7927593,0.60946739,-0.0090708435,0
-2.0231616,3.3519387,1.279846,0.7927593,0.60946739,-0.0090708435,0
-0.6678493,0.13048485,0.53853393,-0.7927593,-0.60946739,0.0090708435,0
0.44800878,0.56213295,1.6985602,0.7927593,0.60946739,-0.0090708435,0
2.2050445,-3.568872,1.6216028,0.5761022,-0.74433291,0.33775014,0
0.68388414,-0.13883424,1.8852007,0.7927593,0.60946739,-0.0090708435,0
0.001337789,0.84657741,0.55084956,0.7927593,0.60946739,-0.0090708435,0
-1.6261548,1.5689464,2.0413673,-0.7927593,-0.60946739,0.0090708435,0
-0.56577861,-0.26949829,-0.65625912,-0.7927593,-0.60946739,0.0090708435,0
2.2333961,-1.9129405,-1.2903885,0.7927593,0.60946739,-0.0090708435,0
1.1914315,-0.64490938,-3.9483719,0.7927593,0.60946739,-0.0090708435,0
3.0644372,-3.1198444,0.23287129,0.7927593,0.60946739,-0.0090708435,0
1.2512827,-1.018801,-0.18601644,0.7927593,0.60946739,-0.0090708435,0
-1.3925416,0.95179105,-1.3446161,-0.7927593,-0.60946739,0.0090708435,0
-0.77767599,0.2273597,1.4639103,-0.7927593,-0.60946739,0.0090708435,0
-0.74554861,0.41250801,-1.9370216,-0.7927593,-0.60946739,0.0090708435,0
-2.9028366,3.271775,0.25706816,-0.6092751,0.792768,0.01739645,0
0.87455511,-1.8589665,3.5260913,-0.7927593,-0.60946739,0.0090708435,0
-3.0189006,2.8773084,-0.28494287,-0.7927593,-0.60946739,0.0090708435,0
-2.9873767,3.0392246,-1.7549801,-0.55545557,0.71621573,-0.42249757,0
-1.6852481,2.9253716,-2.2813907,0.7927593,0.60946739,-0.0090708435,0
-1.7494305,1.4487672,-0.58565402,-0.7927593,-0.60946739,0.0090708435,0
-0.4874348,1.2210054,2.0938342,0.7927593,0.60946739,-0.0090708435,0
1.6836025,-2.5158372,-3.2942054,0.40263736,-0.53478366,-0.74289274,0
0.6247617,-1.3894832,-1.3633349,-0.7927593,-0.60946739,0.0090708435,0
-0.018871069,0.68942714,4.2859888,0.7927593,0.60946739,-0.0090708435,0
-1.1342556,1.9743018,-1.8490187,0.7927593,0.60946739,-0.0090708435,0
-0.82172275,1.9421887,-0.41460061,0.7927593,0.60946739,-0.0090708435,0
-1.3045094,2.4211495,-2.7130804,0.7927593,0.60946739,-0.0090708435,0
-0.5618825,-0.36485362,-4.0253959,-0.7927593,-0.60946739,0.0090708435,0
-0.73146808,1.9507786,2.8376467,0.7927593,0.60946739,-0.0090708435,0
0.88718104,-1.823875,1.692364,-0.7927593,-0.60946739,0.0090708435,0
-1.6064972,2.805542,1.4475963,0.7927593,0.60946739,-0.0090708435,0
-0.23829985,-0.71452373,4.5647736,0.081547976,-0.091301471,0.99247873,0
2.3158462,-1.9730327,-2.5735071,0.7927593,0.60946739,-0.0090708435,0
0.68137896,-0.41195491,-2.2029302,0.7927593,0.60946739,-0.0090708435,0
-1.5269938,2.4303877,-3.4398546,-0.39639217,0.50418437,-0.76724935,0
0.45802677,-1.3910547,-0.22730887,-0.7927593,-0.60946739,0.0090708435,0
1.1562916,-0.85172588,-1.3512259,0.7927593,0.60946739,-0.0090708435,0
-2.1430235,1.7034856,1.8036164,-0.7927593,-0.60946739,0.0090708435,0
-1.3093647,1.107564,3.7011476,-0.7927593,-0.60946739,0.0090708435,0
0.25665331,-1.4047728,-2.1168783,-0.7927593,-0.60946739,0.0090708435,0
-0.82991695,1.6309496,-1.7855583,0.7927593,0.60946739,-0.0090708435,0
1.3301151,-1.1232222,-1.2366908,0.7927593,0.60946739,-0.0090708435,0
0.50816178,0.10556027,-2.7623959,0.7927593,0.60946739,-0.0090708435,0
0.40314305,-1.6297996,-3.3347838,-0.7927593,-0.60946739,0.0090708435,0
-1.7980907,1.257696,-2.498636,-0.7927593,-0.60946739,0.0090708435,0
2.0910077,-1.6488963,1.7160348,0.7927593,0.60946739,-0.0090708435,0
-0.31464475,-0.36422133,0.86812025,-0.7927593,-0.60946739,0.0090708435,0
2.4627542,-2.6001546,-2.2965469,0.7927593,0.60946739,-0.0090708435,0
1.5330684,-1.3244363,0.48082185,0.7927593,0.60946739,-0.0090708435,0
0.5151155,-0.30329585,-4.2977524,0.073756635,-0.11068937,-0.9911145,0
2.9501629,-2.8831196,-0.95836806,0.7927593,0.60946739,-0.0090708435,0
1.5473447,-3.0294745,2.2629073,-0.7927593,-0.60946739,0.0090708435,0
-0.28944585,-0.7472114,-0.41080853,-0.7927593,-0.60946739,0.0090708435,0
-1.8403177,2.4299302,-3.4433827,-0.39890289,0.50750232,-0.76375258,0
2.7862887,-3.6488097,0.30401754,0.6090371,-0.79142284,0.05218935,0
1.4811007,-2.9310374,0.51782489,-0.7927593,-0.60946739,0.0090708435,0
-1.9589763,1.7128592,-2.1133273,-0.7927593,-0.60946739,0.0090708435,0
-0.22388101,-0.66973573,3.4261773,-0.7927593,-0.60946739,0.0090708435,0
-1.7161434,1.6090541,3.2986681,-0.7927593,-0.60946739,0.0090708435,0
-0.72357309,0.25158352,1.0950792,-0.7927593,-0.60946739,0.0090708435,0
2.3583381,-2.1409559,-1.8120685,0.7927593,0.60946739,-0.0090708435,0
2.0376792,-3.6673779,-0.29799032,-0.7927593,-0.60946739,0.0090708435,0
-2.5816855,2.2901301,0.82297683,-0.7927593,-0.60946739,0.0090708435,0
-0.060964584,-0.6096012,4.3565421,0.077150047,-0.08556816,0.99334085,0
0.28469658,0.46988451,2.5666647,0.7927593,0.60946739,-0.0090708435,0
0.46508473,0.037182655,-1.3389645,0.7927593,0.60946739,-0.0090708435,0
0.86364555,-1.6805142,3.0087495,-0.7927593,-0.60946739,0.0090708435,0
0.33548141,-0.96966571,1.1353899,-0.7927593,-0.60946739,0.0090708435,0
-0.2162025,-0.32375127,3.5544567,-0.7927593,-0.60946739,0.0090708435,0
-1.0131693,0.16949511,-4.3208714,-0.7927593,-0.60946739,0.0090708435,0
-1.9015715,1.6383522,1.1313941,-0.7927593,-0.60946739,0.0090708435,0
3.1137941,-2.9771788,-1.6848896,0.7927593,0.60946739,-0.0090708435,0
-2.1005206,2.2569919,2.3543262,-0.7927593,-0.60946739,0.0090708435,0
0.32772213,-1.3948512,-1.6607606,-0.7927593,-0.60946739,0.0090708435,0
-0.632092,-0.048980772,4.205267,-0.7927593,-0.60946739,0.0090708435,0
0.40328228,0.24895637,-1.2436335,0.7927593,0.60946739,-0.0090708435,0
-1.3468974,1.0311996,-0.82638705,-0.7927593,-0.60946739,0.0090708435,0
-2.443068,2.061383,0.04855442,-0.7927593,-0.60946739,0.0090708435,0
-0.18900394,0.9253006,4.4111814,0.7927593,0.60946739,-0.0090708435,0
0.033581614,0.74290937,1.093384,0.7927593,0.60946739,-0.0090708435,0
-2.3649344,3.0212569,2.0254052,-0.5416382,0.71120065,0.44813138,0
0.56609648,0.29398185,-1.2379889,0.7927593,0.60946739,-0.0090708435,0
0.025531888,-1.0059208,-1.8926009,-0.7927593,-0.60946739,0.0090708435,0
-2.3372653,2.4381521,-1.3225989,-0.7927593,-0.60946739,0.0090708435,0
0.31129146,0.20265532,3.122901,0.7927593,0.60946739,-0.0090708435,0
-0.69518149,1.9618244,-0.60289145,0.7927593,0.60946739,-0.0090708435,0
-1.6050333,1.0120568,3.2446265,-0.7927593,-0.60946739,0.0090708435,0
-2.5321405,2.4347186,2.0620036,-0.7927593,-0.60946739,0.0090708435,0
0.25504708,0.64626384,3.3406725,0.7927593,0.60946739,-0.0090708435,0
0.83083749,-0.095822215,2.2236071,0.7927593,0.60946739,-0.0090708435,0
-1.0934072,0.45479867,1.5083712,-0.7927593,-0.60946739,0.0090708435,0
-0.27653718,-0.3382141,-1.5812538,-0.7927593,-0.60946739,0.0090708435,0
-0.33717442,-0.31441128,3.7542076,-0.7927593,-0.60946739,0.0090708435,0
1.518139,-1.3880374,-4.0033212,0.25311586,-0.3427031,-0.90470272,0
1.8073311,-3.4938059,-1.7138469,-0.7927593,-0.60946739,0.0090708435,0
-1.1944346,1.8209386,3.7796459,-0.30508581,0.4096331,0.85972285,0
2.2372577,-2.062655,-2.0261722,0.7927593,0.60946739,-0.0090708435,0
2.6060085,-2.819123,-0.6079576,0.7927593,0.60946739,-0.0090708435,0
2.337831,-2.130873,-0.96535611,0.7927593,0.60946739,-0.0090708435,0
-0.84273911,1.840578,3.8462644,-0.28556192,0.3845073,0.87784314,0
0.5788033,-1.3056641,1.0433609,-0.7927593,-0.60946739,0.0090708435,0
1.4105229,-0.70760357,0.0041596889,0.7927593,0.60946739,-0.0090708435,0
-1.3354805,2.5156538,-2.6566048,0.7927593,0.60946739,-0.0090708435,0
-0.2599349,-0.13003129,2.7957454,-0.7927593,-0.60946739,0.0090708435,0
-1.1100655,2.3211036,1.2382156,0.7927593,0.60946739,-0.0090708435,0
2.4909728,-2.2448874,-0.92928004,0.7927593,0.60946739,-0.0090708435,0
-0.12478495,-0.33970916,-4.4437265,0.040757716,-0.067851871,-0.99686259,0
-0.37648746,-0.40056974,-0.72069097,-0.7927593,-0.60946739,0.0090708435,0
-1.063351,2.540962,1.1595337,0.7927593,0.60946739,-0.0090708435,0
-1.1435311,2.0500124,-2.4399214,0.7927593,0.60946739,-0.0090708435,0
1.5895962,-1.14487,-2.0771532,0.7927593,0.60946739,-0.0090708435,0
-1.1892202,2.6528022,-0.88930655,0.7927593,0.60946739,-0.0090708435,0
0.068342209,-1.1259925,4.4535542,0.10729647,-0.12488472,0.98635256,0
-0.59120286,1.4811989,1.0484867,0.7927593,0.60946739,-0.0090708435,0
2.5020068,-3.7998524,0.85572624,0.59822637,-0.77511203,0.20328957,0
-2.7971022,2.9883113,2.361197,-0.52279425,0.6875208,0.5039854,0
-2.4701076,2.2773879,-1.2983625,-0.7927593,-0.60946739,0.0090708435,0
0.95167828,-0.57841456,3.4725587,0.7927593,0.60946739,-0.0090708435,0
0.88103843,-0.64155388,-3.8335891,0.7927593,0.60946739,-0.0090708435,0
0.41083264,0.2120347,3.4909325,0.7927593,0.60946739,-0.0090708435,0
0.20597506,-1.1536537,-4.2106996,-0.7927593,-0.60946739,0.0090708435,0
-1.9975061,2.008491,0.56437993,-0.7927593,-0.60946739,0.0090708435,0
0.22659779,0.64010882,4.5379725,-0.054589927,0.085813373,0.99481457,0
0.11159515,0.69940054,3.296514,0.7927593,0.60946739,-0.0090708435,0
0.3466903,0.53716755,0.89978778,0.7927593,0.60946739,-0.0090708435,0
-0.16466379,-0.75040543,4.0338302,-0.7927593,-0.60946739,0.0090708435,0
-1.8666453,1.8621545,-1.4015422,-0.7927593,-0.60946739,0.0090708435,0
-1.0293994,2.3480096,0.40095949,0.7927593,0.60946739,-0.0090708435,0
-2.6201596,3.4471648,0.13582277,-0.60884529,0.79248238,0.035768211,0
-1.4966384,3.0728259,0.20176244,0.7927593,0.60946739,-0.0090708435,0
1.63836,-2.1412082,3.4238029,0.38432294,-0.48824316,0.78352702,0
0.68843842,-0.34138906,3.3073235,0.7927593,0.60946739,-0.0090708435,0
2.173049,-3.2868826,1.7794471,0.5605157,-0.72307718,0.40371013,0
0.55327719,-1.4551629,-1.3390738,-0.7927593,-0.60946739,0.0090708435,0
-1.6097078,2.895766,2.1568556,0.7927593,0.60946739,-0.0090708435,0
-0.27214909,-0.77697468,-3.8877192,-0.7927593,-0.60946739,0.0090708435,0
0.87714386,-0.26547921,1.1392016,0.7927593,0.60946739,-0.0090708435,0
-1.5464416,1.1763846,-2.8064394,-0.7927593,-0.60946739,0.0090708435,0
1.1093833,-0.97027731,-3.2414253,0.7927593,0.60946739,-0.0090708435,0
-0.4581925,1.7189929,0.65384758,0.7927593,0.60946739,-0.0090708435,0
-1.6107185,1.0042024,-0.82594335,-0.7927593,-0.60946739,0.0090708435,0
-0.91983557,2.2525496,-1.2493467,0.7927593,0.60946739,-0.0090708435,0
-2.2978926,3.7884448,0.056860924,-0.60953492,0.79267037,-0.011869311,0
0.45383376,0.35331711,-0.3153308,0.7927593,0.60946739,-0.0090708435,0
-1.7714128,1.3460265,-3.8120985,-0.7927593,-0.60946739,0.0090708435,0
1.9481874,-1.9942735,-1.9676915,0.7927593,0.60946739,-0.0090708435,0
-2.5902777,2.8249807,1.6415884,-0.7927593,-0.60946739,0.0090708435,0
-2.1517467,1.7192714,3.1577051,-0.7927593,-0.60946739,0.0090708435,0
-0.96300972,0.11006236,-1.3262296,-0.7927593,-0.60946739,0.0090708435,0
-1.4555593,1.229851,-4.0833759,-0.7927593,-0.60946739,0.0090708435,0
-2.7494826,3.6185212,1.1580915,-0.58990961,0.7708956,0.24026346,0
-2.2403445,1.766132,-1.9277806,-0.7927593,-0.60946739,0.0090708435,0
1.3246784,-2.3702269,3.4683409,-0.7927593,-0.60946739,0.0090708435,0
-1.1778507,0.91467559,1.412353,-0.7927593,-0.60946739,0.0090708435,0
-1.6980972,1.2884978,-0.68747354,-0.7927593,-0.60946739,0.0090708435,0
-1.5623021,2.609803,3.5765679,-0.38086426,0.50691491,0.77329141,0
-1.2290159,2.6102843,0.74861598,0.7927593,0.60946739,-0.0090708435,0
-0.62660563,-0.11187243,-1.3437628,-0.7927593,-0.60946739,0.0090708435,0
2.2078855,-3.5395296,0.067966461,-0.7927593,-0.60946739,0.0090708435,0
0.42216325,-0.010892332,-0.23356283,0.7927593,0.60946739,-0.0090708435,0
-1.082203,0.44457936,1.2359465,-0.7927593,-0.60946739,0.0090708435,0
0.38511622,0.4238151,-1.2885927,0.7927593,0.60946739,-0.0090708435,0
-1.8250847,1.4216669,2.4781644,-0.7927593,-0.60946739,0.0090708435,0
-0.10899091,-0.63733816,3.6817672,-0.7927593,-0.60946739,0.0090708435,0
-2.2816226,3.7662396,-1.5369935,-0.5824582,0.75307322,-0.30597931,0
1.5177431,-2.6324434,0.8487277,-0.7927593,-0.60946739,0.0090708435,0
-0.93434286,0.68018514,1.3334405,-0.7927593,-0.60946739,0.0090708435,0
-1.2324357,2.3218887,2.7884059,0.7927593,0.60946739,-0.0090708435,0
2.2987454,-2.1152563,0.6987052,0.7927593,0.60946739,-0.0090708435,0
1.9407737,-1.7028522,-0.27425599,0.7927593,0.60946739,-0.0090708435,0
-1.4421543,2.894424,1.4530807,0.7927593,0.60946739,-0.0090708435,0
-0.35112047,0.16486835,-4.3152494,-0.037607551,0.034053653,-0.99871224,0
0.49519503,0.30994266,-2.1997039,0.7927593,0.60946739,-0.0090708435,0
-1.9583888,1.8474411,-0.047913074,-0.7927593,-0.60946739,0.0090708435,0
-0.28165531,0.74069953,-4.4703279,-0.097283244,0.11182141,-0.98895502,0
1.7122917,-2.9061368,-2.681756,-0.7927593,-0.60946739,0.0090708435,0
0.84066272,-0.56178319,-2.2231896,0.7927593,0.60946739,-0.0090708435,0
1.4268363,-2.6923258,-2.2453384,-0.7927593,-0.60946739,0.0090708435,0
0.078697577,0.61465943,0.61115032,0.7927593,0.60946739,-0.0090708435,0
-2.4235067,2.3122015,1.7103268,-0.7927593,-0.60946739,0.0090708435,0
0.16472931,-1.1631994,-1.0232779,-0.7927593,-0.60946739,0.0090708435,0
0.2416234,-0.71478873,4.2540116,0.093322515,-0.10665542,0.98990685,0
-1.7218986,2.7594771,-3.0139074,0.7927593,0.60946739,-0.0090708435,0
-1.2364271,0.77701044,3.7363806,-0.7927593,-0.60946739,0.0090708435,0
-2.3816783,3.3322523,-1.6946616,-0.55821258,0.7199524,-0.41239214,0
1.2813525,-2.4749901,1.5666969,-0.7927593,-0.60946739,0.0090708435,0
-0.86998874,0.098609984,-0.096318662,-0.7927593,-0.60946739,0.0090708435,0
-1.3735003,2.4774308,-3.4278007,0.7927593,0.60946739,-0.0090708435,0
1.7400607,-2.861403,0.27941632,-0.7927593,-0.60946739,0.0090708435,0
-1.7127149,3.3222978,-2.0710394,0.7927593,0.60946739,-0.0090708435,0
0.12641311,0.30486065,-3.0827022,0.7927593,0.60946739,-0.0090708435,0
0.51955813,0.0046590865,-0.30379024,0.7927593,0.60946739,-0.0090708435,0
-0.085302353,-0.16068113,-4.3192873,0.024200082,-0.046340883,-0.99863255,0
2.0033741,-3.299952,1.548188,-0.7927593,-0.60946739,0.0090708435,0
0.043394256,-0.85639167,-0.47405249,-0.7927593,-0.60946739,0.0090708435,0
-0.16205961,0.71007478,-0.32438272,0.7927593,0.60946739,-0.0090708435,0
-1.5947223,1.5411339,4.0631018,-0.30044895,0.4036679,0.8641659,0
2.3171709,-2.3454332,1.9645922,0.7927593,0.60946739,-0.0090708435,0
-0.59836721,0.50213861,-4.5682774,-0.11463737,0.13446438,-0.98426503,0
-0.66383737,1.5055532,-0.028083444,0.7927593,0.60946739,-0.0090708435,0
-0.24834657,0.9862504,4.3087215,-0.091496229,0.13369951,0.98678923,0
3.0394695,-2.8234901,1.6439474,0.7927593,0.60946739,-0.0090708435,0
-0.42202878,1.3601221,3.7113476,0.7927593,0.60946739,-0.0090708435,0
0.75462931,-0.15060121,0.7672559,0.7927593,0.60946739,-0.0090708435,0
2.8436182,-3.3526802,-0.93469548,0.59910327,-0.781847,-0.17260021,0
1.2605792,-2.4753637,-1.6821651,-0.7927593,-0.60946739,0.0090708435,0
0.49078727,-0.22535098,-4.3608608,0.04204613,-0.069525212,-0.99669373,0
2.6403308,-2.7889383,2.2452598,0.7927593,0.60946739,-0.0090708435,0
-0.55361176,1.1673338,-4.1444516,0.7927593,0.60946739,-0.0090708435,0
-1.1391785,0.81883633,3.766562,-0.7927593,-0.60946739,0.0090708435,0
0.79985523,-2.0386338,-0.66367888,-0.7927593,-0.60946739,0.0090708435,0
2.1159739,-1.6965607,2.4440179,0.7927593,0.60946739,-0.0090708435,0
0.13213229,0.35403857,-1.4163308,0.7927593,0.60946739,-0.0090708435,0
-1.7349466,1.3017353,3.8240764,-0.7927593,-0.60946739,0.0090708435,0
-0.44460535,-0.023970842,-4.5414009,-0.059575796,0.062665224,-0.99625486,0
-2.7064586,2.5982716,-1.944175,-0.7927593,-0.60946739,0.0090708435,0
-0.48745131,-0.45161045,-2.5189633,-0.7927593,-0.60946739,0.0090708435,0
0.94733465,-1.827433,-1.4990445,-0.7927593,-0.60946739,0.0090708435,0
1.742094,-3.4313624,-1.8457181,-0.7927593,-0.60946739,0.0090708435,0
2.0823216,-3.4896722,0.32205486,-0.7927593,-0.60946739,0.0090708435,0
-0.31484413,-0.31205928,-2.3461356,-0.7927593,-0.60946739,0.0090708435,0
-2.5202007,2.2252052,-0.45671868,-0.7927593,-0.60946739,0.0090708435,0
-2.0514307,2.0928106,-0.64892912,-0.7927593,-0.60946739,0.0090708435,0
2.3134418,-2.4792006,0.70306087,0.7927593,0.60946739,-0.0090708435,0
0.41372955,-1.1154742,0.14150858,-0.7927593,-0.60946739,0.0090708435,0
2.5506973,-2.3704515,-0.42882347,0.7927593,0.60946739,-0.0090708435,0
-0.045372725,0.96063709,2.7763901,0.7927593,0.60946739,-0.0090708435,0
1.7802508,-1.2210636,3.3523893,0.7927593,0.60946739,-0.0090708435,0
1.8896991,-1.6644036,0.98928988,0.7927593,0.60946739,-0.0090708435,0
2.9595487,-2.8013873,0.74312377,0.7927593,0.60946739,-0.0090708435,0
-0.17346835,-0.71599984,2.124054,-0.7927593,-0.60946739,0.0090708435,0
-0.041947126,0.83943212,2.6225035,0.7927593,0.60946739,-0.0090708435,0
-0.069519043,0.97976935,-4.0827751,0.7927593,0.60946739,-0.0090708435,0
-0.39708519,1.0645174,-2.8031449,0.7927593,0.60946739,-0.0090708435,0
-0.44228756,-0.019489288,-1.4765422,-0.7927593,-0.60946739,0.0090708435,0
-0.92965281,0.36828554,-1.3252867,-0.7927593,-0.60946739,0.0090708435,0
1.9409809,-1.3348022,2.8689435,0.7927593,0.60946739,-0.0090708435,0
1.5851626,-1.1633985,-1.1064057,0.7927593,0.60946739,-0.0090708435,0
-1.5344899,1.5124946,1.9827962,-0.7927593,-0.60946739,0.0090708435,0
-1.1397448,2.5236254,2.879636,0.7927593,0.60946739,-0.0090708435,0
-2.2098901,3.9927835,1.1973743,-0.57878643,0.75735146,0.30236608,0
1.4514759,-2.4771116,-0.80513072,-0.7927593,-0.60946739,0.0090708435,0
2.664793,-2.4114804,-2.0528851,0.7927593,0.60946739,-0.0090708435,0
1.3719578,-2.4287784,-2.518744,-0.7927593,-0.60946739,0.0090708435,0
1.5283291,-2.5925131,-1.4511065,-0.7927593,-0.60946739,0.0090708435,0
-0.32583466,1.2894273,0.72582084,0.7927593,0.60946739,-0.0090708435,0
-1.0042491,2.2863021,1.248309,0.7927593,0.60946739,-0.0090708435,0
-2.4209654,2.5625494,-1.6228185,-0.7927593,-0.60946739,0.0090708435,0
-0.41285673,-0.057848305,0.21904798,-0.7927593,-0.60946739,0.0090708435,0
1.2527342,-0.6421572,0.77894896,0.7927593,0.60946739,-0.0090708435,0
0.65847588,0.065432191,0.8869884,0.7927593,0.60946739,-0.0090708435,0
0.75033164,0.12332389,-2.5560277,0.7927593,0.60946739,-0.0090708435,0
-0.37150112,-0.50402874,0.049767196,-0.7927593,-0.60946739,0.0090708435,0
-1.7645719,1.3318826,3.5717185,-0.7927593,-0.60946739,0.0090708435,0
0.77672029,-1.967458,-2.2661018,-0.7927593,-0.60946739,0.0090708435,0
0.43311167,-1.6631241,-4.0244408,-0.7927593,-0.60946739,0.0090708435,0
1.2613904,-2.4062884,-3.0902121,-0.7927593,-0.60946739,0.0090708435,0
0.85622966,-0.1525957,-0.50915331,0.7927593,0.60946739,-0.0090708435,0
0.13167548,-0.85711765,-4.3424182,-0.7927593,-0.60946739,0.0090708435,0
2.6011779,-2.2679539,-0.88685346,0.7927593,0.60946739,-0.0090708435,0
-1.4956131,2.4259789,-2.6502042,0.7927593,0.60946739,-0.0090708435,0
2.1173067,-3.257565,0.47006536,-0.7927593,-0.60946739,0.0090708435,0
-1.1342751,2.4976983,0.9383111,0.7927593,0.60946739,-0.0090708435,0
2.4618521,-2.2837815,-0.43849635,0.7927593,0.60946739,-0.0090708435,0
-1.4434786,1.045936,-2.5860028,-0.7927593,-0.60946739,0.0090708435,0
-1.2913948,1.0605624,0.010964036,-0.7927593,-0.60946739,0.0090708435,0
-1.5890617,2.066977,-3.547421,-0.35831207,0.45392916,-0.81581926,0
-0.50716662,1.2852983,2.6527252,0.7927593,0.60946739,-0.0090708435,0
-0.80603886,1.553777,-3.7037852,0.7927593,0.60946739,-0.0090708435,0
2.349544,-2.5022326,2.8272634,0.46412045,-0.59391987,0.65715414,0
-0.91618752,0.14414555,1.8077991,-0.7927593,-0.60946739,0.0090708435,0
1.3447793,-0.68341899,-1.7857901,0.7927593,0.60946739,-0.0090708435,0
-1.8354142,1.2048026,-2.6965587,-0.7927593,-0.60946739,0.0090708435,0
-1.494993,2.6792419,0.029822826,0.7927593,0.60946739,-0.0090708435,0
-1.4518449,1.1378269,0.79471314,-0.7927593,-0.60946739,0.0090708435,0
0.64010382,-0.22720876,-2.2135286,0.7927593,0.60946739,-0.0090708435,0
1.1480801,-0.55126899,-1.9972841,0.7927593,0.60946739,-0.0090708435,0
-2.3235872,3.0479846,-2.3163981,-0.5099808,0.65505534,-0.55751425,0
0.68771803,-0.18959078,-2.6336176,0.7927593,0.60946739,-0.0090708435,0
-0.23085451,1.1730587,3.0977695,0.7927593,0.60946739,-0.0090708435,0
-1.6355145,1.4044895,2.3875666,-0.7927593,-0.60946739,0.0090708435,0
1.8351249,-3.2195024,-1.0688708,-0.7927593,-0.60946739,0.0090708435,0
-1.6616833,1.3576331,-2.3183041,-0.7927593,-0.60946739,0.0090708435,0
-1.0470912,2.2834144,-2.5991826,0.7927593,0.60946739,-0.0090708435,0
1.2065697,-0.65041828,4.0083351,0.7927593,0.60946739,-0.0090708435,0
0.092892885,0.67304122,-3.4604404,0.7927593,0.60946739,-0.0090708435,0
-0.7168051,2.0188954,3.0439286,0.7927593,0.60946739,-0.0090708435,0
-2.0404706,1.7715418,2.055887,-0.7927593,-0.60946739,0.0090708435,0
2.3532047,-2.5007701,-0.4641788,0.7927593,0.60946739,-0.0090708435,0
-2.2565844,1.8694947,0.66089487,-0.7927593,-0.60946739,0.0090708435,0
0.12356484,-1.1247817,1.2507789,-0.7927593,-0.60946739,0.0090708435,0
0.5347625,-0.080005124,-0.83079064,0.7927593,0.60946739,-0.0090708435,0
1.2635791,-0.85326606,-2.8552737,0.7927593,0.60946739,-0.0090708435,0
-1.3586695,0.99541116,2.6697588,-0.7927593,-0.60946739,0.0090708435,0
0.75416327,-0.13118374,2.2849832,0.7927593,0.60946739,-0.0090708435,0
-0.26633811,0.90175992,-2.4117141,0.7927593,0.60946739,-0.0090708435,0
2.3638582,-2.3254113,-2.8577209,0.45606604,-0.60296559,-0.65455043,0
1.8475201,-1.3605511,-3.174943,0.7927593,0.60946739,-0.0090708435,0
-1.5008861,2.581048,-0.11136079,0.7927593,0.60946739,-0.0090708435,0
2.5596316,-2.3179626,0.48151278,0.7927593,0.60946739,-0.0090708435,0
-0.26882517,1.3424425,2.1811361,0.7927593,0.60946739,-0.0090708435,0
0.75115991,0.034030437,-2.8619037,0.7927593,0.60946739,-0.0090708435,0
-0.21547222,1.1201041,-3.0423806,0.7927593,0.60946739,-0.0090708435,0
1.4819379,-2.7477636,-1.3148632,-0.7927593,-0.60946739,0.0090708435,0
2.2813096,-3.4972644,0.98984194,0.59118789,-0.7651884,0.25491917,0
-1.1602552,0.8807404,-3.2986867,-0.7927593,-0.60946739,0.0090708435,0
0.14498144,0.72353345,-0.57310188,0.7927593,0.60946739,-0.0090708435,0
-1.6006962,1.2972627,0.23220706,-0.7927593,-0.60946739,0.0090708435,0
-1.6437063,1.2203563,-4.0271635,-0.7927593,-0.60946739,0.0090708435,0
2.5749564,-2.8325005,1.621103,0.7927593,0.60946739,-0.0090708435,0
1.5783312,-2.5581112,1.4180169,-0.7927593,-0.60946739,0.0090708435,0
-2.9698942,3.3974631,0.79593277,-0.60213524,0.78536046,0.14367324,0
-0.68683767,1.9476826,-0.82731736,0.7927593,0.60946739,-0.0090708435,0
-2.4223466,2.3472838,2.1618228,-0.7927593,-0.60946739,0.0090708435,0
0.90819573,-0.45381141,1.9068656,0.7927593,0.60946739,-0.0090708435,0
1.2537888,-2.2991078,0.87353516,-0.7927593,-0.60946739,0.0090708435,0
0.23562336,0.78952223,0.59459448,0.7927593,0.60946739,-0.0090708435,0
-1.7393339,3.085422,-0.92381382,0.7927593,0.60946739,-0.0090708435,0
1.2556405,-2.7799206,-0.51358581,-0.7927593,-0.60946739,0.0090708435,0
0.093042135,-0.64609838,1.2226639,-0.7927593,-0.60946739,0.0090708435,0
-1.7354004,3.3598099,-1.1912508,0.7927593,0.60946739,-0.0090708435,0
1.2859023,-2.5977209,-1.5423691,-0.7927593,-0.60946739,0.0090708435,0
1.5061557,-0.90354252,3.6497419,0.7927593,0.60946739,-0.0090708435,0
2.067765,-2.3624589,-3.4898095,0.40295193,-0.53518593,-0.7424323,0
2.8478894,-2.8554881,-2.0024188,0.53476435,-0.70257729,-0.46948093,0
-0.28506136,1.3985015,-3.0889189,0.7927593,0.60946739,-0.0090708435,0
-0.18919009,0.95930159,1.0607188,0.7927593,0.60946739,-0.0090708435,0
-0.87612295,1.5195472,4.2878819,-0.23793438,0.32312343,0.91595769,0
0.29687658,0.42921114,0.18591163,0.7927593,0.60946739,-0.0090708435,0
-0.67274368,-0.052459478,0.97868013,-0.7927593,-0.60946739,0.0090708435,0
0.52109957,-1.2676718,4.1302161,-0.7927593,-0.60946739,0.0090708435,0
-0.62212563,0.029990315,3.6739759,-0.7927593,-0.60946739,0.0090708435,0
-2.090368,2.0262623,-2.8250988,-0.7927593,-0.60946739,0.0090708435,0
0.11228494,-0.95589614,-0.58923179,-0.7927593,-0.60946739,0.0090708435,0
1.4200246,-1.242757,-0.25446677,0.7927593,0.60946739,-0.0090708435,0
-1.0693154,2.2099612,-3.1245732,0.7927593,0.60946739,-0.0090708435,0
-0.37183452,1.425668,1.9677143,0.7927593,0.60946739,-0.0090708435,0
-2.374867,2.0806966,1.9556077,-0.7927593,-0.60946739,0.0090708435,0
0.67670214,-0.33572382,1.7948881,0.7927593,0.60946739,-0.0090708435,0
0.67598474,-1.7352769,1.0084611,-0.7927593,-0.60946739,0.0090708435,0
-1.2840073,1.0836592,3.8662686,-0.7927593,-0.60946739,0.0090708435,0
-2.1404617,1.8797495,-2.6628027,-0.7927593,-0.60946739,0.0090708435,0
-1.6756201,1.0624021,-2.7425401,-0.7927593,-0.60946739,0.0090708435,0
-0.78881001,1.9567491,-2.5049195,0.7927593,0.60946739,-0.0090708435,0
1.202173,-0.8251493,2.9238367,0.7927593,0.60946739,-0.0090708435,0
-0.32679081,-0.45876139,2.0020497,-0.7927593,-0.60946739,0.0090708435,0
-1.4695971,1.0363661,3.9448657,-0.7927593,-0.60946739,0.0090708435,0
0.32271194,0.37306052,-4.386991,-0.0069969296,-0.0057814419,-0.99995875,0
-2.443619,2.1295152,-1.3509808,-0.7927593,-0.60946739,0.0090708435,0
-1.8304126,1.2590189,-2.4662817,-0.7927593,-0.60946739,0.0090708435,0
-1.7795341,1.5804331,-0.20022583,-0.7927593,-0.60946739,0.0090708435,0
-1.0499954,1.9163218,-1.944122,0.7927593,0.60946739,-0.0090708435,0
1.0239204,-2.2483783,-1.877853,-0.7927593,-0.60946739,0.0090708435,0
0.70385015,-1.9536369,-3.7324171,-0.7927593,-0.60946739,0.0090708435,0
-2.6036994,2.3881676,-1.4413323,-0.7927593,-0.60946739,0.0090708435,0
2.2300844,-1.7512693,1.5525646,0.7927593,0.60946739,-0.0090708435,0
-2.3764617,2.0836504,-0.51874399,-0.7927593,-0.60946739,0.0090708435,0
-2.3082604,2.3080225,2.1460571,-0.7927593,-0.60946739,0.0090708435,0
2.177753,-1.7401128,-2.6894758,0.7927593,0.60946739,-0.0090708435,0
-0.65391374,0.0061983019,2.4423425,-0.7927593,-0.60946739,0.0090708435,0
-2.2642066,1.8261439,0.19807887,-0.7927593,-0.60946739,0.0090708435,0
-1.1951647,2.5914617,-0.81862521,0.7927593,0.60946739,-0.0090708435,0
-0.80135298,2.0630102,-1.8149778,0.7927593,0.60946739,-0.0090708435,0
0.41770768,0.42204219,-2.4856906,0.7927593,0.60946739,-0.0090708435,0
-1.1666129,2.1048849,-0.63068938,0.7927593,0.60946739,-0.0090708435,0
0.99351835,-2.0271969,3.4703813,-0.7927593,-0.60946739,0.0090708435,0
-1.3717813,1.3059123,2.2101667,-0.7927593,-0.60946739,0.0090708435,0
1.3640349,-2.5504401,1.4218922,-0.7927593,-0.60946739,0.0090708435,0
-0.014243603,0.67439008,3.6992352,0.7927593,0.60946739,-0.0090708435,0
0.11313748,0.41571635,-3.4372921,0.7927593,0.60946739,-0.0090708435,0
1.9799802,-3.477598,-2.2364008,-0.7927593,-0.60946739,0.0090708435,0
1.8071308,-3.1989255,-0.44019222,-0.7927593,-0.60946739,0.0090708435,0
-1.169137,2.0481679,-4.0741644,-0.30507588,0.38385329,-0.87154192,0
0.69574088,-1.586324,-2.4673603,-0.7927593,-0.60946739,0.0090708435,0
-0.50625336,1.193772,1.7365875,0.7927593,0.60946739,-0.0090708435,0
0.98931175,-0.66172153,-1.4850836,0.7927593,0.60946739,-0.0090708435,0
0.39266348,-1.3686528,0.93702316,-0.7927593,-0.60946739,0.0090708435,0
-1.5336676,1.5308961,-3.8106997,-0.27692544,0.34687144,-0.89609843,0
-1.660953,1.463084,-3.1764305,-0.7927593,-0.60946739,0.0090708435,0
1.5423523,-1.3741899,-0.29898202,0.7927593,0.60946739,-0.0090708435,0
0.061012864,-0.78619492,0.29563957,-0.7927593,-0.60946739,0.0090708435,0
-1.2880776,2.4691975,-1.2445736,0.7927593,0.60946739,-0.0090708435,0
-1.5561253,2.3981719,3.4526162,-0.40545511,0.53838706,0.73874593,0
0.50844085,-1.708445,-2.6507149,-0.7927593,-0.60946739,0.0090708435,0
-0.9571048,0.31891751,2.5978718,-0.7927593,-0.60946739,0.0090708435,0
1.1685536,-0.68531156,2.7166059,0.7927593,0.60946739,-0.0090708435,0
0.40954167,0.52897233,0.18400493,0.7927593,0.60946739,-0.0090708435,0
-0.84838605,0.27361405,-3.3546338,-0.7927593,-0.60946739,0.0090708435,0
-0.60699177,1.3318082,-2.5084972,0.7927593,0.60946739,-0.0090708435,0
1.4269896,-2.7428184,2.7354221,-0.7927593,-0.60946739,0.0090708435,0
0.11334538,-1.0043775,-3.4437625,-0.7927593,-0.60946739,0.0090708435,0
1.2238897,-0.43918395,0.30722296,0.7927593,0.60946739,-0.0090708435,0
2.109385,-3.4826326,1.2584803,-0.7927593,-0.60946739,0.0090708435,0
-0.10662222,-0.68937302,-3.5097475,-0.7927593,-0.60946739,0.0090708435,0
