-1.0156721,-5.4847326,-3.3871214,0.43229291,-0.90104324,0.035266876,0
-0.46469218,4.2672095,-1.3180954,-0.106508,0.94622278,-0.30548078,0
-0.40256429,1.8918762,6.2039509,0.58156455,0.30847931,0.75274366,0
-1.5972054,-3.8816123,1.9029737,-0.24836574,-0.81380641,0.52538878,0
-4.3986664,-1.0546477,-2.8955562,-0.58156455,-0.30847931,-0.75274366,0
-1.5608041,3.0229127,-4.6600218,0.11284201,0.88577956,-0.4501791,0
-5.1260133,-1.4663813,0.50024498,-0.75902474,-0.12715143,0.63852465,0
-2.2540786,3.7266703,2.156858,-0.66650409,0.71121812,0.22347456,0
2.6270859,-3.2284577,-2.5920568,0.7404511,-0.58395529,-0.33275858,0
1.1911486,-0.78225327,6.0039787,0.58156455,0.30847931,0.75274366,0
-4.1981921,2.7083724,-1.6838057,-0.58930635,0.79763848,0.12841648,0
0.066420555,5.0654521,1.9673362,-0.40638605,0.91175091,-0.059670508,0
1.4320683,3.0395703,4.4331713,0.58156455,0.30847931,0.75274366,0
6.2981138,0.19606376,0.91237783,0.81290948,-0.25562549,-0.52329117,0
2.6579299,-2.2346146,-3.6623635,0.80665958,-0.33842024,-0.48453274,0
-4.5130796,1.0462751,-3.429044,-0.58156455,-0.30847931,-0.75274366,0
5.7374883,-1.3548428,2.9886181,0.58156455,0.30847931,0.75274366,0
-1.3094079,3.6575234,4.2846351,-0.76260644,0.52888173,0.37244523,0
-2.6451831,1.6281745,-5.2373104,-0.58156455,-0.30847931,-0.75274366,0
5.7636366,-0.6313765,2.4860315,0.58156455,0.30847931,0.75274366,0
3.6634617,-2.8785691,2.7062516,0.42595145,-0.90380287,0.041297317,0
2.1433265,4.7341681,0.19981575,0.10172755,0.89047444,-0.44351619,0
3.2727714,-3.1958036,0.88947868,0.51466227,-0.8561157,-0.046782553,0
-1.6845207,-3.9306362,1.4522495,-0.25995642,-0.8063283,0.53127903,0
-0.26752782,0.87899542,6.3655624,0.58156455,0.30847931,0.75274366,0
1.2932708,2.5400093,-3.6468368,0.45545664,0.64322758,-0.61548144,0
-0.98778915,-5.5583711,-2.2011347,0.26826978,-0.94627756,0.18052733,0
5.0069327,-2.2831385,3.5018959,0.58156455,0.30847931,0.75274366,0
4.6460576,1.2524767,2.7639494,0.58156455,0.30847931,0.75274366,0
-1.4145515,-0.039721966,-5.3007612,-0.58156455,-0.30847931,-0.75274366,0
4.1596107,3.7184494,2.1278062,0.58156455,0.30847931,0.75274366,0
-2.4686832,3.961628,0.87942338,-0.56492627,0.81895578,0.10084468,0
1.2915139,4.3883896,3.7477813,0.58156455,0.30847931,0.75274366,0
1.7053614,2.5883186,-3.3871961,0.48955771,0.60629284,-0.62669158,0
-5.5902858,-1.6204209,-1.8811901,-0.58156455,-0.30847931,-0.75274366,0
5.6315703,-0.81445384,2.778285,0.58156455,0.30847931,0.75274366,0
-5.7026391,-1.4186316,-1.3985239,-0.58156455,-0.30847931,-0.75274366,0
0.27603689,-4.0470309,1.6770611,0.065968782,-0.9401505,0.33431274,0
-0.12857246,-5.100297,-3.5146775,0.53967756,-0.8386786,-0.073255241,0
3.7199223,-2.9845252,-0.38501573,0.68252945,-0.68851268,-0.24516052,0
1.2531016,-3.6472366,-4.607234,0.7585994,-0.53981143,-0.3648704,0
3.2112539,4.4672437,2.4551032,0.58156455,0.30847931,0.75274366,0
3.0734019,-2.6328321,5.2452488,0.58156455,0.30847931,0.75274366,0
0.44694519,-3.7996082,-5.4240313,-0.58156455,-0.30847931,-0.75274366,0
0.77855444,5.6022568,3.4121466,-0.44830048,0.89366192,-0.019874513,0
4.4526744,0.31766438,2.8096852,0.58156455,0.30847931,0.75274366,0
-1.8089881,-2.820869,-3.9730573,-0.58156455,-0.30847931,-0.75274366,0
3.0300417,4.7836556,0.31909716,0.23441151,0.82252133,-0.5181793,0
0.94615567,-0.099910736,6.1028433,0.58156455,0.30847931,0.75274366,0
-1.0939178,-2.7568049,-4.8117943,-0.58156455,-0.30847931,-0.75274366,0
-0.71767151,-5.2846327,-1.9275253,0.26311284,-0.94690639,0.18476927,0
0.2114981,3.3791523,-2.9409506,0.17575017,0.85581899,-0.48650354,0
-4.343358,0.25330663,-3.2483909,-0.58156455,-0.30847931,-0.75274366,0
1.7985688,-1.2438896,5.8247919,0.58156455,0.30847931,0.75274366,0
-0.49093533,0.6510644,-6.5710249,-0.58156455,-0.30847931,-0.75274366,0
-3.6963825,-2.17362,-2.8956342,-0.58156455,-0.30847931,-0.75274366,0
-3.0964122,-5.5687914,-1.8230493,-0.060722202,-0.90627235,0.41830981,0
-4.5439925,-1.1378114,1.4754732,-0.76980126,-0.090508446,0.63183403,0
0.6825695,1.8370618,-4.7126441,0.48744258,0.60867286,-0.62603271,0
-0.50969458,-0.53954077,-5.7744675,-0.58156455,-0.30847931,-0.75274366,0
-4.2897987,-5.0321984,-1.4406717,-0.58156455,-0.30847931,-0.75274366,0
-1.000733,-2.6909885,-4.9068618,-0.58156455,-0.30847931,-0.75274366,0
0.79543674,1.0981646,5.8364873,0.58156455,0.30847931,0.75274366,0
-0.63272798,-5.3647761,-2.0719216,0.29200292,-0.94280815,0.16076952,0
0.48832464,5.1029449,1.6699411,-0.28839129,0.94339776,-0.16380143,0
4.3009825,-2.5369051,1.8259525,0.57202721,-0.81298989,-0.10877556,0
-0.6698581,-1.5493917,-5.4060645,-0.58156455,-0.30847931,-0.75274366,0
-5.3796673,-0.57423139,0.58599019,-0.79895133,0.042368174,0.59990138,0
0.81454706,-3.3319016,3.1689308,-0.078720696,-0.8996321,0.42949408,0
4.9463816,-1.5244675,0.3278656,0.76727962,-0.51545703,-0.38155714,0
-1.8542153,4.0035243,1.2983587,-0.58487284,0.80169415,0.1233291,0
0.09052062,3.6059427,4.9124956,0.58156455,0.30847931,0.75274366,0
-5.2254829,1.6072358,-3.1089735,-0.58156455,-0.30847931,-0.75274366,0
2.4130349,-2.1460061,-3.6636724,0.80843282,-0.32227442,-0.49251941,0
-2.7545538,-1.577106,-3.9406316,-0.58156455,-0.30847931,-0.75274366,0
-0.42335153,2.2600975,5.8678575,0.58156455,0.30847931,0.75274366,0
-3.8110018,0.78946364,2.344219,-0.81331009,0.20046842,0.54620433,0
4.1189885,3.8496001,-0.31374907,0.44868916,0.65020764,-0.6131134,0
4.9736609,-0.85810065,-0.22200489,0.80669707,-0.338103,-0.48469174,0
-0.91546369,-0.93215799,-5.6291952,-0.58156455,-0.30847931,-0.75274366,0
5.6309285,2.0907133,1.6604481,0.58156455,0.30847931,0.75274366,0
-3.6102257,2.4936414,0.93855071,-0.73987973,0.5852257,0.33179653,0
1.5829459,-0.64353204,5.7982798,0.58156455,0.30847931,0.75274366,0
0.77076375,5.6670737,3.0987549,-0.38806531,0.91844571,-0.076568425,0
-2.5256536,-1.0015168,-4.4768777,-0.58156455,-0.30847931,-0.75274366,0
-6.0488424,-0.60525382,-0.23349357,-0.80880356,0.11996916,0.57571185,0
-3.5739517,1.8517035,2.2239127,-0.79895645,0.39077318,0.45712671,0
-5.5716352,-2.9768848,-1.3394285,-0.58156455,-0.30847931,-0.75274366,0
3.7533078,3.852314,2.4188843,0.58156455,0.30847931,0.75274366,0
-5.0237484,1.970404,-3.3821871,-0.58156455,-0.30847931,-0.75274366,0
0.043917656,-0.49572039,-6.4269304,-0.58156455,-0.30847931,-0.75274366,0
-1.8015832,-0.7042141,4.5783887,-0.68108743,-0.32137439,0.65790468,0
3.0180256,-3.2139356,-0.51092315,0.64665759,-0.73671693,-0.1976918,0
0.9099195,-2.1622391,-6.3195038,-0.58156455,-0.30847931,-0.75274366,0
2.8909922,1.6520741,-2.7053375,0.6383642,0.40051281,-0.65732843,0
0.40607619,-4.9905825,-2.6439266,0.51914907,-0.85313225,-0.05147177,0
-1.2953786,-3.9829459,2.0008061,-0.20098141,-0.84214729,0.50039423,0
-4.6491518,0.19177079,-2.9217875,-0.58156455,-0.30847931,-0.75274366,0
-0.10424232,-3.3900762,-5.0296502,-0.58156455,-0.30847931,-0.75274366,0
-3.2643387,-1.0289414,-3.8456783,-0.58156455,-0.30847931,-0.75274366,0
-4.3132496,-3.7487884,0.093449414,-0.50565964,-0.5877645,0.63153875,0
-1.1340743,-5.0005846,-0.50847602,0.10871466,-0.94648588,0.30388391,0
5.8658991,1.2799194,1.6071377,0.58156455,0.30847931,0.75274366,0
4.2848711,4.0853844,1.7236469,0.58156455,0.30847931,0.75274366,0
-0.58516669,4.5985646,4.1853876,-0.6445024,0.73932981,0.19495589,0
1.0032099,5.3031588,3.5984769,0.58156455,0.30847931,0.75274366,0
-0.99556983,-4.9997439,-0.52369452,0.093628794,-0.94454724,0.31474465,0
-1.5006394,-0.050517559,5.4090056,-0.72051942,-0.23425648,0.65266806,0
-1.5455883,-1.7866912,3.9155512,-0.56358814,-0.51449591,0.64626801,0
-1.048584,-4.8590755,-3.669313,-0.58156455,-0.30847931,-0.75274366,0
6.1367655,1.2742127,0.53992295,0.79365021,-0.011986762,-0.60825628,0
4.684052,-2.6995745,4.1433325,0.58156455,0.30847931,0.75274366,0
1.4949045,-4.3304958,-0.46032286,0.44977379,-0.89295191,0.018445492,0
-2.7459269,-5.0525799,-2.6121187,-0.58156455,-0.30847931,-0.75274366,0
-4.0484633,1.0989335,1.6702163,-0.81248975,0.26636183,0.51856703,0
2.8642216,2.6740341,3.150867,0.58156455,0.30847931,0.75274366,0
0.24078465,-1.4524813,-6.0263543,-0.58156455,-0.30847931,-0.75274366,0
4.4999113,4.3276491,1.2848102,0.58156455,0.30847931,0.75274366,0
-1.8169322,-2.5309935,-4.3861418,-0.58156455,-0.30847931,-0.75274366,0
0.52150249,-4.4140749,-4.5930948,0.70821607,-0.64726961,-0.28190747,0
6.5611234,1.4343073,1.0051264,0.58156455,0.30847931,0.75274366,0
4.2941709,-2.1462507,3.9872332,0.58156455,0.30847931,0.75274366,0
-2.3038127,-1.3445885,3.999521,-0.63632268,-0.40399373,0.65717769,0
-6.3270378,-1.2973182,-1.1085275,-0.58156455,-0.30847931,-0.75274366,0
-2.7221851,3.6286795,-0.090887308,-0.55107474,0.83005416,0.085594893,0
3.1121395,3.857249,-1.0517956,0.43332872,0.66564435,-0.60757208,0
-4.1849298,0.67894673,-3.6319516,-0.58156455,-0.30847931,-0.75274366,0
2.3778181,0.045722008,4.9860907,0.58156455,0.30847931,0.75274366,0
-1.6346509,3.8809481,-1.6776524,-0.21389282,0.95074111,-0.22436786,0
5.0559268,-1.1283851,3.2400362,0.58156455,0.30847931,0.75274366,0
-4.8684721,-0.015059233,-2.8505182,-0.58156455,-0.30847931,-0.75274366,0
-4.5346985,-0.13141274,-3.0991457,-0.58156455,-0.30847931,-0.75274366,0
2.5617614,5.1637249,2.5528598,0.58156455,0.30847931,0.75274366,0
1.6705976,-2.5992322,-4.9375277,0.80994242,-0.30601081,-0.50035059,0
-4.6564341,-3.3340321,-1.6380186,-0.58156455,-0.30847931,-0.75274366,0
3.4595594,0.074313998,-2.9086795,0.78891635,0.011893928,-0.61438543,0
1.507951,0.17197895,-5.2098627,0.73343861,0.20146984,-0.64921319,0
-0.025232077,-5.1468573,-2.1605778,0.38582212,-0.91921723,0.078617692,0
-1.5414915,-0.62574768,-5.0090852,-0.58156455,-0.30847931,-0.75274366,0
3.3409367,-0.067620516,-3.3430886,0.79111665,0.0011054873,-0.61166418,0
-3.8333468,-3.5240629,-2.3304255,-0.58156455,-0.30847931,-0.75274366,0
1.2519439,1.1562219,5.4146194,0.58156455,0.30847931,0.75274366,0
3.6534448,4.8707972,1.9275006,0.58156455,0.30847931,0.75274366,0
0.14211941,2.3759451,5.4555569,0.58156455,0.30847931,0.75274366,0
3.9841032,-1.0127578,-1.9108047,0.81223059,-0.27186313,-0.51611233,0
-5.4573727,-1.1347766,-2.1410384,-0.58156455,-0.30847931,-0.75274366,0
-0.44238782,4.5145235,0.039122581,-0.23412885,0.94963324,-0.20827955,0
3.0959804,1.7625437,3.5596583,0.58156455,0.30847931,0.75274366,0
1.1011444,2.3064623,4.9267049,0.58156455,0.30847931,0.75274366,0
3.3778784,4.5409274,0.19973052,0.30551669,0.77475905,-0.55354124,0
2.8458767,1.8165333,3.4356558,0.58156455,0.30847931,0.75274366,0
-1.9498889,-3.7428217,-3.5246148,-0.58156455,-0.30847931,-0.75274366,0
0.89204836,-3.196938,-5.707972,0.7926743,-0.42291561,-0.43910104,0
-2.0069866,3.5230329,2.6383545,-0.69118059,0.67535007,0.25723842,0
1.7235879,-0.96729636,5.4446507,0.58156455,0.30847931,0.75274366,0
0.44239235,-1.5644693,6.1369066,-0.47618428,-0.62113845,0.6224432,0
3.1396122,-2.9985297,4.3663158,0.12986809,-0.9486531,0.28842902,0
-1.559104,-5.5194407,-1.4386998,0.094499111,-0.94466794,0.31412166,0
1.1678194,1.6800063,4.7918611,0.58156455,0.30847931,0.75274366,0
4.4785099,2.1776206,-1.0320565,0.69915229,0.28352839,-0.65635186,0
-3.5824187,2.5672131,1.1534696,-0.72404611,0.61811763,0.30608431,0
-1.7607414,-0.47759676,-4.8990898,-0.58156455,-0.30847931,-0.75274366,0
-3.3091795,-3.6637003,-2.3914666,-0.58156455,-0.30847931,-0.75274366,0
5.2427464,-0.43117809,2.9250205,0.58156455,0.30847931,0.75274366,0
-0.94394135,0.48286724,5.7637501,-0.75986791,-0.12442531,0.63805884,0
3.6576161,1.2990909,-2.5598116,0.70875394,0.26206368,-0.65497375,0
3.3559408,-3.1190128,4.4310398,0.20341714,-0.95106339,0.23259336,0
1.9858748,2.3623343,4.3099985,0.58156455,0.30847931,0.75274366,0
-1.7190771,-2.6522582,3.2714455,-0.45205933,-0.64674556,0.61429834,0
3.8656011,-0.34678543,-2.1709986,0.8078053,-0.10968798,-0.57915378,0
-0.53527021,-0.77248549,6.174376,-0.62133133,-0.42883953,0.65577739,0
-3.7229886,-0.24314237,-3.6048427,-0.58156455,-0.30847931,-0.75274366,0
-1.1965346,0.77722192,-6.2224116,-0.58156455,-0.30847931,-0.75274366,0
4.7927933,3.0148146,1.5973685,0.58156455,0.30847931,0.75274366,0
3.9040899,-2.734838,4.0587769,0.2884883,-0.94338232,0.16372007,0
-4.2666693,-4.0297832,-1.5033778,-0.58156455,-0.30847931,-0.75274366,0
4.6903386,4.7340527,1.2039895,0.42391405,0.67483521,-0.60406482,0
3.8272398,-1.90434,4.7101703,0.58156455,0.30847931,0.75274366,0
0.88290024,-0.36773348,6.3563123,0.58156455,0.30847931,0.75274366,0
3.2370028,-1.569864,4.6849761,0.58156455,0.30847931,0.75274366,0
3.8627131,-2.2045574,-0.5483129,0.73025441,-0.6057201,-0.31596127,0
-4.0208716,1.0249143,-3.7130446,-0.58156455,-0.30847931,-0.75274366,0
4.2591534,-2.2846937,-0.0057840347,0.72301638,-0.62011755,-0.30446911,0
-1.7305846,4.0879946,1.1233916,-0.54801917,0.8324101,0.082268775,0
-3.3580382,-1.3281736,-3.364109,-0.58156455,-0.30847931,-0.75274366,0
-3.519392,2.9657357,-3.502573,-0.27091947,0.9459371,-0.17834073,0
-0.24963988,-3.5735536,2.5997939,-0.13135037,-0.87756598,0.46111256,0
0.70454025,-1.2088459,6.6995182,0.58156455,0.30847931,0.75274366,0
5.0540323,-1.508473,0.30466461,0.75498211,-0.54926658,-0.35820091,0
2.1308513,-3.8680401,1.164753,0.38147867,-0.92068201,0.082573831,0
-1.157678,-5.2261076,-3.5519245,-0.58156455,-0.30847931,-0.75274366,0
-6.4983587,-0.95662248,-1.0063636,-0.81172967,0.159033,0.56196386,0
-2.8608575,-2.3114331,-3.6921365,-0.58156455,-0.30847931,-0.75274366,0
5.6749835,-1.7739842,2.0964289,0.70787323,-0.64786613,-0.28139815,0
-5.1291089,-1.5210555,-2.120019,-0.58156455,-0.30847931,-0.75274366,0
4.3407502,1.4592638,-1.5853097,0.74045932,0.18247943,-0.64685488,0
-0.56954515,-0.81926394,-5.9082017,-0.58156455,-0.30847931,-0.75274366,0
-0.77287149,-0.38153672,5.6312652,-0.66589671,-0.35100764,0.65831226,0
3.3284965,0.65091228,-3.2509308,0.74321187,0.17477609,-0.64582461,0
-3.6187484,0.89821231,2.4895053,-0.81348318,0.21452004,0.54057956,0
2.471801,-3.6403267,-1.9406645,0.6821956,-0.68900728,-0.24469993,0
-3.2143412,-4.41535,-2.1660066,-0.58156455,-0.30847931,-0.75274366,0
2.5641165,2.1478736,-3.0663602,0.60754174,0.45065749,-0.65406483,0
-2.4687216,1.8422208,-5.2936363,-0.58156455,-0.30847931,-0.75274366,0
-5.25912,0.90969485,0.30516601,-0.80434281,0.3564952,0.47533551,0
-3.3346176,-2.6429889,-3.2245877,-0.58156455,-0.30847931,-0.75274366,0
4.1519318,-2.0989029,-0.95727134,0.75796986,-0.54148424,-0.36369839,0
-4.8362246,1.6456015,-3.680372,-0.58156455,-0.30847931,-0.75274366,0
-4.1280136,-2.495091,-2.3445036,-0.58156455,-0.30847931,-0.75274366,0
5.1293683,-1.925128,1.2566366,0.72273791,-0.62065566,-0.3040334,0
-4.6515799,2.3723567,-0.81696987,-0.69297689,0.67252964,0.25978205,0
-5.2493205,-1.2472944,-2.1203749,-0.58156455,-0.30847931,-0.75274366,0
0.48893905,-1.4088409,6.328546,-0.45148012,-0.64734256,0.61409557,0
4.8372493,-1.700106,3.5345376,0.58156455,0.30847931,0.75274366,0
-4.1505175,1.2486267,-4.0436726,-0.58156455,-0.30847931,-0.75274366,0
-2.327538,-3.4383144,-3.6600671,-0.58156455,-0.30847931,-0.75274366,0
0.10728669,-3.7569094,-5.4387431,-0.58156455,-0.30847931,-0.75274366,0
-1.3054801,-5.153707,-0.99143529,0.10563982,-0.94611722,0.30610842,0
-0.57317019,-2.8934026,3.4125264,-0.30258974,-0.77689409,0.5521549,0
0.4486886,3.4815412,-3.1892052,0.21061248,0.83667189,-0.50559127,0
-2.1419854,3.7360406,-2.096489,-0.27886739,0.9448458,-0.17175299,0
3.2090094,-0.6656183,-3.004555,0.80270916,-0.067389548,-0.59255081,0
1.5968611,-3.4462423,-4.5847011,0.77535754,-0.49020338,-0.39814717,0
0.95507216,-2.4724307,-5.6286588,0.81349599,-0.21753374,-0.5393545,0
0.71955127,-3.5240123,2.7775352,-0.043807097,-0.91209656,0.40762812,0
-2.580682,-3.4332607,-3.4062963,-0.58156455,-0.30847931,-0.75274366,0
2.3674827,0.60031986,4.8025703,0.58156455,0.30847931,0.75274366,0
-4.1213551,-1.6378083,-2.9783685,-0.58156455,-0.30847931,-0.75274366,0
-1.7676702,2.9479318,4.3317447,-0.79598486,0.40675956,0.44827962,0
-2.0374563,-3.9564602,1.6582751,-0.31542405,-0.76742011,0.55818814,0
5.2406206,3.1056213,-0.090998501,0.63031191,0.41410396,-0.65667701,0
3.347059,5.3785353,2.1119511,0.58156455,0.30847931,0.75274366,0
-4.567337,-4.176115,-1.2111232,-0.58156455,-0.30847931,-0.75274366,0
-3.3480754,1.4671586,2.5270476,-0.80986869,0.30687872,0.49993798,0
0.8845557,-0.77663827,6.1852789,0.58156455,0.30847931,0.75274366,0
0.62621111,-3.418813,3.6735425,-0.15421535,-0.86673045,0.47433746,0
-4.2693987,2.9554615,-1.3724394,-0.5727464,0.81237489,0.10958332,0
1.9996641,4.0465946,-1.4453325,0.23646261,0.82125998,-0.519247,0
2.2428067,0.34785271,-4.1565161,0.7304154,0.20937827,-0.65011835,0
2.8734355,2.6104167,3.1482344,0.58156455,0.30847931,0.75274366,0
-1.1691704,0.76025844,-6.1995745,-0.58156455,-0.30847931,-0.75274366,0
3.3797355,4.6938901,2.061497,0.58156455,0.30847931,0.75274366,0
2.7001367,5.5726843,2.010725,0.58156455,0.30847931,0.75274366,0
0.78753293,1.5203319,5.6045389,0.58156455,0.30847931,0.75274366,0
2.8346257,3.3336396,3.2282662,0.58156455,0.30847931,0.75274366,0
2.144031,3.0231771,3.6011591,0.58156455,0.30847931,0.75274366,0
-2.8675141,-1.5367239,3.0548449,-0.64435011,-0.39016393,0.65771198,0
-3.7811189,-4.0317397,-2.151907,-0.58156455,-0.30847931,-0.75274366,0
3.9527359,0.74033856,3.397553,0.58156455,0.30847931,0.75274366,0
-1.0260222,-2.0312605,-5.0247703,-0.58156455,-0.30847931,-0.75274366,0
4.8540387,2.8671296,1.6737161,0.58156455,0.30847931,0.75274366,0
4.0170016,2.2677684,2.4821677,0.58156455,0.30847931,0.75274366,0
-5.0046368,-1.5402696,-2.2218611,-0.58156455,-0.30847931,-0.75274366,0
4.1928263,1.9313023,2.4222846,0.58156455,0.30847931,0.75274366,0
-2.1230068,-1.1096435,-4.6518817,-0.58156455,-0.30847931,-0.75274366,0
-2.3307776,-4.2548294,1.0072434,-0.28010029,-0.79280412,0.5412997,0
1.3480147,5.4070101,1.0701091,-0.13575795,0.94914114,-0.2840786,0
-2.2210708,2.0209806,4.4341669,-0.81162226,0.28285775,0.51113671,0
-4.8019886,-1.5874796,-2.2354796,-0.58156455,-0.30847931,-0.75274366,0
3.6608799,-1.3201075,4.5128746,0.58156455,0.30847931,0.75274366,0
-1.2877713,-2.61796,-4.753089,-0.58156455,-0.30847931,-0.75274366,0
-2.7705112,1.2281618,-4.9658422,-0.58156455,-0.30847931,-0.75274366,0
4.9024687,4.0113297,0.48469734,0.51739001,0.57379401,-0.63487637,0
-5.6618929,0.0023490191,-0.055159807,-0.81349599,0.21750724,0.53936529,0
-4.319294,2.3362637,-0.94935155,-0.66409862,0.71445453,0.22028977,0
5.4600482,3.1675715,1.1829615,0.58156455,0.30847931,0.75274366,0
4.8827887,-1.9242618,0.48884439,0.74718714,-0.56847525,-0.34430668,0
-2.1672726,3.0776372,-3.9691627,-0.036930203,0.93437201,-0.35437959,0
1.9989793,1.730818,4.1750383,0.58156455,0.30847931,0.75274366,0
0.60679889,-4.4026046,0.37015295,0.20937069,-0.95090109,0.22792715,0
-5.4837294,0.52057147,-2.4888313,-0.58156455,-0.30847931,-0.75274366,0
2.1171112,0.22371387,4.8534169,0.58156455,0.30847931,0.75274366,0
-3.2503095,-3.7542202,0.91579747,-0.45699948,-0.64162076,0.6160149,0
1.0791129,5.0836616,1.2557408,-0.14085728,0.94952291,-0.28029525,0
-2.4185841,3.5035429,-1.9504094,-0.32082912,0.93728763,-0.13623625,0
-0.33775306,-1.7776264,5.2358446,-0.50772387,-0.58533561,0.63213819,0
-2.4668403,3.3684192,1.1955914,-0.6448251,0.73894048,0.19536483,0
-1.9153192,2.2878966,-5.5418177,0.17906572,0.8540774,-0.4883514,0
-3.3647671,-1.8389435,-3.0462284,-0.58156455,-0.30847931,-0.75274366,0
5.5191035,1.7711625,1.5366164,0.58156455,0.30847931,0.75274366,0
-2.30615,4.0074062,-1.1348329,-0.38301343,0.92016882,-0.081177711,0
2.8247073,-2.631187,5.3260775,0.023548484,-0.93131059,0.36346376,0
-0.93397063,2.959084,-4.2062392,0.17975509,0.85371327,-0.48873472,0
-2.4895713,-2.0406995,3.2369521,-0.56573582,-0.51155829,0.64672339,0
5.0325255,-2.3050275,2.075927,0.64960563,-0.73309547,-0.20145351,0
1.0472724,-4.2616968,-3.0382519,0.61126727,-0.77626842,-0.15414089,0
-0.29058957,-2.4599566,-5.3932352,-0.58156455,-0.30847931,-0.75274366,0
-5.1847095,0.29451084,-2.67015,-0.58156455,-0.30847931,-0.75274366,0
1.8698368,2.9056995,-2.9944983,0.47126099,0.62648451,-0.6208303,0
3.644527,2.3626163,2.6578364,0.58156455,0.30847931,0.75274366,0
-0.98072481,3.5634758,4.6924014,-0.76170707,0.53137898,0.37072703,0
-4.2667027,0.4853276,1.7254962,-0.81300354,0.18806499,0.55105054,0
1.0415937,3.3202915,4.3248367,0.58156455,0.30847931,0.75274366,0
3.4993663,5.3605189,1.647939,0.58156455,0.30847931,0.75274366,0
-4.4424534,-0.44567215,1.343401,-0.78805608,-0.015981764,0.61539596,0
0.25104713,-3.0577135,-5.3227868,-0.58156455,-0.30847931,-0.75274366,0
3.4343195,-2.8522549,-1.1635349,0.71543074,-0.63438994,-0.2927596,0
3.4714794,0.033997059,3.86994,0.58156455,0.30847931,0.75274366,0
-1.9182394,-5.8170681,-2.559736,-0.58156455,-0.30847931,-0.75274366,0
-2.068584,-1.1836474,-4.396296,-0.58156455,-0.30847931,-0.75274366,0
-4.2665529,2.3559151,-4.0801978,-0.58156455,-0.30847931,-0.75274366,0
-1.4488956,-0.53174257,5.1650109,-0.6938926,-0.29486978,0.65693599,0
4.8941317,1.1403532,2.5259924,0.58156455,0.30847931,0.75274366,0
6.4573226,0.6451664,1.1972668,0.58156455,0.30847931,0.75274366,0
0.081262827,-4.6204643,-4.665658,-0.58156455,-0.30847931,-0.75274366,0
0.94179225,-1.2631149,-5.954186,0.79434419,-0.015714705,-0.60726464,0
-4.8693399,-2.3369839,-1.7273625,-0.58156455,-0.30847931,-0.75274366,0
3.7160621,3.6437337,2.4596963,0.58156455,0.30847931,0.75274366,0
-4.8719997,2.3621354,-3.6693969,-0.58156455,-0.30847931,-0.75274366,0
-6.0482178,0.73154688,-2.4300063,-0.58156455,-0.30847931,-0.75274366,0
0.24649918,-4.3466101,1.4037285,0.081514612,-0.94275528,0.32336956,0
-1.7431321,-5.3370576,-2.864774,-0.58156455,-0.30847931,-0.75274366,0
6.1762438,1.1358283,1.6586783,0.58156455,0.30847931,0.75274366,0
-0.089337349,-2.5888584,4.8324757,-0.36412868,-0.7287339,0.57996309,0
3.3559837,-0.064622164,3.9942937,0.58156455,0.30847931,0.75274366,0
-4.1366158,-0.14473939,-3.3342667,-0.58156455,-0.30847931,-0.75274366,0
-0.56179142,2.8961768,5.8287439,0.58156455,0.30847931,0.75274366,0
2.1661043,2.8627238,-2.5437369,0.47685415,0.62040615,-0.62266058,0
4.4112849,-2.8061421,2.0649571,0.5541144,-0.82767791,-0.088917077,0
1.4835382,-1.6012263,-5.5829587,0.80871952,-0.11906356,-0.57601792,0
4.2834749,4.5348864,1.7024062,0.58156455,0.30847931,0.75274366,0
1.2769825,-0.014161587,-5.6732883,0.72475743,0.22378272,-0.65165013,0
-2.8979998,-4.2613893,-2.7032518,-0.58156455,-0.30847931,-0.75274366,0
1.5324351,0.27769923,-4.8443079,0.70071495,0.28010371,-0.65615571,0
1.737354,4.6519861,3.5479941,0.58156455,0.30847931,0.75274366,0
3.7855878,-3.1981463,2.1249242,0.49974886,-0.8656019,-0.031373203,0
-3.7756729,-1.658386,-3.0711205,-0.58156455,-0.30847931,-0.75274366,0
5.0637083,0.63729,2.6220608,0.58156455,0.30847931,0.75274366,0
-1.8865905,1.2324631,-5.6427975,-0.58156455,-0.30847931,-0.75274366,0
0.58454061,1.6552014,5.5394254,0.58156455,0.30847931,0.75274366,0
-1.8959668,0.29630685,-5.0577974,-0.58156455,-0.30847931,-0.75274366,0
-4.8530374,1.1981597,-3.4962766,-0.58156455,-0.30847931,-0.75274366,0
-1.3131313,-3.3909957,-4.4447799,-0.58156455,-0.30847931,-0.75274366,0
3.4316535,1.168654,3.5102887,0.58156455,0.30847931,0.75274366,0
-1.8120838,-3.3743789,2.3528211,-0.34367019,-0.74552435,0.57103789,0
-2.0534587,-4.136857,-3.1249647,-0.58156455,-0.30847931,-0.75274366,0
3.4474506,0.32138169,-2.6228647,0.76857656,0.094886705,-0.63268197,0
0.17888141,-2.3098221,4.9226513,-0.36227289,-0.73029017,0.57916719,0
-0.43517053,4.5182924,-1.1466851,-0.14818548,0.9500047,-0.274831,0
-1.6325526,4.0573425,2.9123001,-0.66743511,0.70995414,0.22471189,0
2.9106755,2.4590607,-2.4873195,0.54090762,0.54450303,-0.64104229,0
0.84578013,1.6610374,5.325706,0.58156455,0.30847931,0.75274366,0
3.2875967,-2.0932577,-1.9440725,0.77854693,-0.47937417,-0.40504926,0
-3.5782633,-1.1808945,2.3375988,-0.73817259,-0.1887652,0.64766419,0
-0.76402318,0.10027647,-6.1826496,-0.58156455,-0.30847931,-0.75274366,0
-0.17362738,2.1187353,5.9737206,0.58156455,0.30847931,0.75274366,0
-3.0420508,-2.7362676,2.1447997,-0.53975272,-0.54598337,0.64075667,0
5.5681477,-0.15875721,0.012874126,0.8118552,-0.27889901,-0.51293892,0
-4.8573799,1.2161686,-0.13539433,-0.78365314,0.46078348,0.4166128,0
3.6871352,0.99849963,3.1485031,0.58156455,0.30847931,0.75274366,0
-4.9681358,-2.1587436,-1.7282932,-0.58156455,-0.30847931,-0.75274366,0
2.1443284,4.3827972,3.4187427,0.58156455,0.30847931,0.75274366,0
-1.878371,1.8887305,-6.1168518,-0.58156455,-0.30847931,-0.75274366,0
2.297164,1.074218,4.536891,0.58156455,0.30847931,0.75274366,0
-3.1014047,2.0128026,-4.9720249,-0.58156455,-0.30847931,-0.75274366,0
-1.0645897,1.1074913,-6.4418383,-0.58156455,-0.30847931,-0.75274366,0
-5.9717121,-0.91363573,-1.6004173,-0.58156455,-0.30847931,-0.75274366,0
-3.0596609,3.2462354,-4.2526751,-0.17011389,0.95097291,-0.25828606,0
2.5792747,3.0577102,3.2051806,0.58156455,0.30847931,0.75274366,0
6.0225348,0.71682763,1.7132356,0.58156455,0.30847931,0.75274366,0
0.8439486,-0.68406105,-6.2176681,0.74511331,0.16936316,-0.64507544,0
-4.3551378,-4.0246038,-0.15936112,-0.43530628,-0.663688,0.60829818,0
5.5442891,0.42631757,0.12541783,0.8112067,-0.1504721,-0.56506807,0
-5.0091057,2.0965457,-0.62108707,-0.72561955,0.61503178,0.30856457,0
2.8385963,2.1232636,3.7188356,0.58156455,0.30847931,0.75274366,0
-4.9773488,0.4133215,-2.7049074,-0.58156455,-0.30847931,-0.75274366,0
-0.85954797,-5.5640907,-3.5861664,0.44842374,-0.89360267,0.019755185,0
3.0309834,-3.0550787,4.5340405,0.13080999,-0.94873464,0.28773475,0
-0.43377513,1.8963189,-5.4810181,0.40912566,0.68887138,-0.59839153,0
-6.1992593,0.63514507,-1.9487708,-0.58156455,-0.30847931,-0.75274366,0
-0.99226916,-4.6256094,1.0042901,-0.032783031,-0.915676,0.4005779,0
1.5066159,-4.2055807,0.65067196,0.33187166,-0.93478012,0.12667722,0
-2.7579517,0.74975705,-4.9882302,-0.58156455,-0.30847931,-0.75274366,0
0.71714246,0.94696617,5.8716707,0.58156455,0.30847931,0.75274366,0
0.54503286,-3.9875026,1.6953149,0.080654189,-0.94262004,0.32397884,0
4.595674,-0.829961,-1.1103448,0.80825496,-0.32401514,-0.49166864,0
1.6711868,5.5380011,1.9918209,-0.20168205,0.95110041,-0.23394901,0
-3.9996252,0.14188933,-3.8140414,-0.58156455,-0.30847931,-0.75274366,0
0.047854662,0.56445169,-6.5769844,0.58123475,0.48983073,-0.64979374,0
-3.9610953,1.2173235,-4.0026054,-0.58156455,-0.30847931,-0.75274366,0
-5.271276,1.7042993,-3.32443,-0.58156455,-0.30847931,-0.75274366,0
-0.70038366,3.2978222,-3.3569498,0.086180076,0.89674556,-0.43407416,0
-2.3706617,-0.79231071,-4.6503649,-0.58156455,-0.30847931,-0.75274366,0
2.1591315,-0.71525073,5.0654459,0.58156455,0.30847931,0.75274366,0
-1.7637492,0.040257454,-5.1871347,-0.58156455,-0.30847931,-0.75274366,0
0.0025045723,3.94524,-2.5602062,0.085871138,0.89686662,-0.43388522,0
5.6671095,0.085337877,2.3789144,0.58156455,0.30847931,0.75274366,0
0.099120378,-1.8526635,5.3243904,-0.46738705,-0.630647,0.61954314,0
0.9633137,5.2576456,3.6926785,0.58156455,0.30847931,0.75274366,0
1.7890283,3.5509613,3.884037,0.58156455,0.30847931,0.75274366,0
-3.9148493,-0.17959499,-3.6495154,-0.58156455,-0.30847931,-0.75274366,0
-3.2938528,0.20436788,-4.0684261,-0.58156455,-0.30847931,-0.75274366,0
1.8942115,-3.5778759,2.4008667,0.18431032,-0.95121706,0.24741805,0
3.7865968,-1.6374006,4.2341833,0.58156455,0.30847931,0.75274366,0
-3.4165494,1.6649191,2.1847286,-0.80533028,0.34912476,0.47911891,0
-4.091917,-5.1101513,-1.2359875,-0.58156455,-0.30847931,-0.75274366,0
-1.9469656,0.72476745,4.5834918,-0.77981383,-0.052120298,0.62383789,0
1.0441102,-4.5596557,-1.2880478,0.44210327,-0.89659113,0.025862992,0
-0.65539163,1.7819636,-5.8677111,0.42529178,0.67350274,-0.6045832,0
-2.2176132,-5.1958489,-1.4104811,0.0084981173,-0.9275679,0.37355787,0
1.1744404,-2.7564259,-5.5930882,0.80668771,-0.33818239,-0.48465192,0
4.0371561,-2.6335807,4.4815316,0.58156455,0.30847931,0.75274366,0
5.128912,-2.0064306,1.2294743,0.70397151,-0.6545577,-0.27564144,0
-4.4548473,-1.6363909,-2.7333369,-0.58156455,-0.30847931,-0.75274366,0
-3.3610892,0.57412195,-4.1794691,-0.58156455,-0.30847931,-0.75274366,0
-3.2267199,-0.16417623,-3.9923568,-0.58156455,-0.30847931,-0.75274366,0
5.3279481,-2.0419002,3.2608449,0.58156455,0.30847931,0.75274366,0
-0.7343353,-3.930757,2.3911643,-0.19017336,-0.84812206,0.49449259,0
-2.2930205,-2.9892769,2.7563076,-0.46066102,-0.63778329,0.61727118,0
-0.66754282,-2.0775516,4.9422369,-0.47046554,-0.62734234,0.62056732,0
3.0919948,5.2197018,2.0620825,0.58156455,0.30847931,0.75274366,0
5.2575326,-0.76711839,-0.0038893223,0.80440503,-0.35604319,-0.47556883,0
0.36045408,-4.7514052,-1.3566251,0.37212467,-0.92370719,0.091040313,0
5.099514,-1.7832464,0.75434065,0.72263098,-0.62086201,-0.30386645,0
2.5707388,-2.8798976,-2.5750332,0.75311697,-0.55400187,-0.35481933,0
-0.99826545,1.206888,-6.5218439,-0.58156455,-0.30847931,-0.75274366,0
5.1702194,2.4233038,1.5365355,0.58156455,0.30847931,0.75274366,0
-3.058794,-2.9147828,-3.1775932,-0.58156455,-0.30847931,-0.75274366,0
-1.1241833,4.5453825,-0.14264107,-0.34545341,0.93138838,-0.11479402,0
6.2144322,1.2836199,1.4902439,0.58156455,0.30847931,0.75274366,0
1.4129021,-0.8419106,-5.3766379,0.77576327,0.068257183,-0.62732148,0
-2.2648811,4.111115,-0.18711829,-0.43848222,0.89826053,-0.029344857,0
-1.9101336,3.0261054,-4.181428,-0.030508533,0.93293422,-0.35875183,0
-4.8716125,-4.4552917,-0.90786225,-0.58156455,-0.30847931,-0.75274366,0
4.3053894,-0.52401853,3.3530099,0.58156455,0.30847931,0.75274366,0
0.96910787,5.4395628,1.8916328,-0.27426142,0.94549119,-0.17557603,0
-1.5612514,4.0565581,2.4454727,-0.60623729,0.78135926,0.14816856,0
-0.23925376,-3.7734005,-4.6612949,-0.58156455,-0.30847931,-0.75274366,0
2.8770962,-2.8917766,-1.4371959,0.70183295,-0.65815306,-0.2725158,0
5.0450215,-2.1086502,3.5869241,0.58156455,0.30847931,0.75274366,0
-5.1927481,-0.31295633,-2.6217861,-0.58156455,-0.30847931,-0.75274366,0
-2.4165807,1.9802337,-5.7131071,-0.58156455,-0.30847931,-0.75274366,0
1.8107989,4.0557451,3.7010059,0.58156455,0.30847931,0.75274366,0
1.9873949,0.96950853,-4.1846657,0.65852982,0.36474976,-0.6582523,0
1.2305984,-2.3998027,5.0930758,-0.21701854,-0.83295035,0.50901538,0
-3.6936605,-0.49734569,-3.6753354,-0.58156455,-0.30847931,-0.75274366,0
2.0727441,2.1399262,4.371151,0.58156455,0.30847931,0.75274366,0
0.92937422,-1.0100527,-6.3591681,0.76442438,0.10930026,-0.63538086,0
-0.8969419,1.0503259,5.9235563,-0.77731407,-0.062186331,0.6260317,0
-2.2315006,-1.7454903,-4.3580003,-0.58156455,-0.30847931,-0.75274366,0
4.055315,1.1680262,-1.8450067,0.75709444,0.1333141,-0.63955879,0
4.0726671,2.5289087,2.3034663,0.58156455,0.30847931,0.75274366,0
-6.2036939,-0.95349979,-0.87327719,-0.81052947,0.14071569,0.56854308,0
4.798655,-0.58762383,3.1697247,0.58156455,0.30847931,0.75274366,0
-0.58970058,0.056181908,-5.981914,-0.58156455,-0.30847931,-0.75274366,0
2.4646502,5.0880232,0.86895204,0.03294386,0.91562504,-0.40068132,0
3.8887916,0.46619821,3.4186854,0.58156455,0.30847931,0.75274366,0
-0.61211944,-4.8312578,-4.3950758,-0.58156455,-0.30847931,-0.75274366,0
-0.55668342,1.3548269,-5.8596592,0.45801055,0.64056444,-0.61636317,0
-3.0492845,-0.23285306,3.275841,-0.75970131,-0.12496559,0.63815159,0
4.8695006,-0.079057887,-0.76865935,0.81014192,-0.1356276,-0.57032889,0
-5.6100335,1.2772361,-3.0566947,-0.58156455,-0.30847931,-0.75274366,0
-3.2747996,-3.0636325,-3.0247784,-0.58156455,-0.30847931,-0.75274366,0
-1.3314176,3.8867967,-2.1523108,-0.14544871,0.94983399,-0.27687556,0
1.5378594,1.1236365,-4.7122889,0.61782169,0.43448272,-0.65537852,0
-0.86167693,4.3509512,3.5131445,-0.67067307,0.70550692,0.22903597,0
-1.8692586,0.26369238,-5.5102301,-0.58156455,-0.30847931,-0.75274366,0
0.52599561,-0.35199165,6.197248,0.58156455,0.30847931,0.75274366,0
6.3113103,0.041069269,1.8520043,0.58156455,0.30847931,0.75274366,0
-1.772579,-3.0817208,2.8781009,-0.39632183,-0.70064068,0.59332252,0
6.1056066,1.0983697,0.20249486,0.79110229,0.0011776686,-0.61168265,0
-2.2358079,3.1488338,-4.7127037,-0.0020700544,0.9258728,-0.37782937,0
-0.59423268,-3.3810785,-4.5649199,-0.58156455,-0.30847931,-0.75274366,0
-1.5202789,-0.60455894,-5.2791018,-0.58156455,-0.30847931,-0.75274366,0
-4.5723577,0.77113938,-3.6187956,-0.58156455,-0.30847931,-0.75274366,0
0.91016883,-1.683954,6.1911144,-0.3853673,-0.71043646,0.58887345,0
-0.89721835,-4.4636312,-4.1630602,-0.58156455,-0.30847931,-0.75274366,0
-0.51330072,-2.8037574,3.9379714,-0.36661351,-0.72663951,0.58102459,0
3.9319251,2.7744184,2.4562447,0.58156455,0.30847931,0.75274366,0
2.899935,3.9315417,2.9410508,0.58156455,0.30847931,0.75274366,0
-2.0736721,-0.16496062,4.7737851,-0.74810141,-0.16069765,0.6438328,0
-1.4299295,2.2726891,5.1304216,-0.81348968,0.22524154,0.53619093,0
-1.0220127,0.29929686,-6.1007071,-0.58156455,-0.30847931,-0.75274366,0
-0.70217192,4.601613,1.5217868,-0.43447685,0.90007156,-0.033181489,0
-2.1386864,-1.068959,-4.3788815,-0.58156455,-0.30847931,-0.75274366,0
-3.5990787,1.1361034,2.7385828,-0.81349134,0.21618873,0.53990209,0
2.548944,1.9601834,-2.9062045,0.59325325,0.47231099,-0.65189934,0
5.6041579,1.0565755,1.8763709,0.58156455,0.30847931,0.75274366,0
-1.4255798,2.0234835,5.3589768,-0.81347662,0.22757465,0.53522474,0
-4.0362005,-5.0484653,-1.6084177,-0.58156455,-0.30847931,-0.75274366,0
4.6828766,3.5704474,1.696557,0.58156455,0.30847931,0.75274366,0
1.2267948,0.20915127,5.4040012,0.58156455,0.30847931,0.75274366,0
-1.3872492,-5.5755758,-2.3153288,0.23653805,-0.94945812,0.20634645,0
-0.027350605,-2.5579796,4.5772777,-0.32862779,-0.75736648,0.56426924,0
5.4844861,-1.5371072,1.2021928,0.74412739,-0.5756256,-0.33901247,0
-2.3402443,-1.3565319,-4.4831271,-0.58156455,-0.30847931,-0.75274366,0
-2.4905615,3.4213138,-3.0542388,-0.2043588,0.95104146,-0.23185676,0
-4.4495821,2.7050409,-2.2077591,-0.55926704,0.8235746,0.094579637,0
2.6415896,0.49260449,-3.5248225,0.72818708,0.21511117,-0.65074617,0
-1.645027,1.4156842,-6.0825663,-0.58156455,-0.30847931,-0.75274366,0
-5.4519601,-2.0095274,-1.6431899,-0.58156455,-0.30847931,-0.75274366,0
2.8521116,-3.4043312,0.4159081,0.51143634,-0.85822302,-0.043426752,0
1.3766702,-4.1946607,-1.9524548,0.5617938,-0.821527,-0.097370803,0
5.5563812,-0.43316293,2.3470609,0.58156455,0.30847931,0.75274366,0
-5.2356429,-0.72394431,0.40833843,-0.79200566,0.003401041,0.61050421,0
-2.4762642,3.5869389,-2.7884498,-0.23332816,0.94968933,-0.20892107,0
3.0969515,3.6146414,-1.480711,0.44397372,0.65500581,-0.61143661,0
-4.6766768,-0.54259992,-2.7018647,-0.58156455,-0.30847931,-0.75274366,0
-0.78270006,3.858515,4.5431056,-0.72963971,0.6069746,0.31497234,0
1.8841054,3.7013454,-1.6534562,0.29694375,0.78097022,-0.54946321,0
5.7796974,0.76724398,0.24590421,0.80253214,-0.066122562,-0.59293324,0
-2.9070351,2.2719431,-5.5799727,-0.58156455,-0.30847931,-0.75274366,0
2.6816907,1.8116827,4.0477896,0.58156455,0.30847931,0.75274366,0
-2.6678567,3.7176106,0.44679332,-0.58905602,0.79786974,0.12812829,0
0.46813285,2.5286641,-4.4466295,0.39152288,0.70496261,-0.59138608,0
-0.012734175,-5.233912,-1.5841644,0.34666517,-0.93106884,0.11372709,0
-0.21721029,-1.1180525,-6.0925794,-0.58156455,-0.30847931,-0.75274366,0
-6.328723,-0.0049884319,-1.7934668,-0.58156455,-0.30847931,-0.75274366,0
3.6657627,1.1038406,-2.2482419,0.73901492,0.18646151,-0.64737082,0
3.709682,1.3793323,-2.1940465,0.70903134,0.26142785,-0.65492743,0
4.3966751,-2.3064597,4.4312224,0.58156455,0.30847931,0.75274366,0
0.96611083,4.4245248,4.0146713,0.58156455,0.30847931,0.75274366,0
3.1575127,2.3030992,3.2942529,0.58156455,0.30847931,0.75274366,0
1.7722367,-0.54596114,-5.1141505,0.77476794,0.072088301,-0.62812251,0
-1.0080657,-4.2173467,-4.0839262,-0.58156455,-0.30847931,-0.75274366,0
4.0320883,3.6078711,-0.52792454,0.48557812,0.61076069,-0.62544799,0
3.2425842,-0.29016614,4.3099642,0.58156455,0.30847931,0.75274366,0
-2.6175709,-1.1268003,-4.1033616,-0.58156455,-0.30847931,-0.75274366,0
2.5051146,-3.6567547,0.80983472,0.43075076,-0.90172279,0.036736846,0
0.60730183,3.1069751,-3.3372808,0.30205145,0.7772851,-0.55189919,0
5.9734058,3.3079772,0.68720239,0.6620748,0.35818538,-0.65830094,0
-4.7560215,-3.3430424,0.15070185,-0.59689379,-0.46688163,0.65248704,0
5.1032653,0.72253686,-1.0126009,0.78547257,0.027863145,-0.61826909,0
-5.6210666,-2.4216964,-1.4893072,-0.58156455,-0.30847931,-0.75274366,0
3.5780563,0.63603163,-2.8323388,0.76939785,0.091957182,-0.63211608,0
-5.8732839,-1.180326,-1.6962154,-0.58156455,-0.30847931,-0.75274366,0
-4.3779469,2.4711413,-4.1390262,-0.58156455,-0.30847931,-0.75274366,0
1.0205203,1.1908805,-4.8032184,0.5917874,0.47448069,-0.65165609,0
-2.1496463,-4.3033881,-3.3633699,-0.58156455,-0.30847931,-0.75274366,0
5.018929,-1.9341496,0.96139264,0.71960938,-0.62662554,-0.2991699,0
-4.9983945,-2.3030281,0.73395467,-0.69960147,-0.28254655,0.65629655,0
1.1068497,1.4362626,5.2383246,0.58156455,0.30847931,0.75274366,0
-4.484158,2.5914459,-2.4461765,-0.53187448,0.8443318,0.064909756,0
1.1611534,-4.5417786,-0.84529734,0.45835626,-0.88871133,0.01007688,0
5.0533395,1.2183173,-0.75017661,0.78146923,0.045248777,-0.62230086,0
3.4261656,3.0881,-1.6069022,0.54507256,0.53912759,-0.64205718,0
-1.1646565,-5.3348494,-0.72782946,0.12641641,-0.94834375,0.29096895,0
2.1418469,1.2175841,4.7259684,0.58156455,0.30847931,0.75274366,0
4.0259666,3.5678201,1.9625133,0.58156455,0.30847931,0.75274366,0
-2.4461908,-0.17751622,4.2826376,-0.74142349,-0.17979828,0.64650106,0
1.7780489,-1.5341542,5.8640985,0.58156455,0.30847931,0.75274366,0
-0.003800869,-1.0800214,-6.3181276,-0.58156455,-0.30847931,-0.75274366,0
1.6677141,-1.4634857,5.7253141,0.58156455,0.30847931,0.75274366,0
4.8615227,1.6641223,1.9455678,0.58156455,0.30847931,0.75274366,0
0.049309731,0.47957706,6.1941366,0.58156455,0.30847931,0.75274366,0
-3.1507373,3.0778687,1.3030608,-0.69095898,0.6756959,0.25692546,0
-3.2570622,-2.4920332,-2.8934734,-0.58156455,-0.30847931,-0.75274366,0
-2.7763536,3.3458183,-3.2919664,-0.20150952,0.95110393,-0.23408371,0
1.5417632,5.4399037,1.5100489,-0.12927613,0.94860125,-0.28886515,0
4.3425579,4.149704,1.7363753,0.58156455,0.30847931,0.75274366,0
-2.6879401,-1.4663179,3.6204348,-0.67004466,-0.34309581,0.65827465,0
0.15213299,-2.3545506,4.7436733,-0.33262023,-0.75426412,0.56608236,0
-4.5544004,0.59310669,1.4673648,-0.81345415,0.23036665,0.53406322,0
-3.6074915,1.9354868,-4.7661557,-0.58156455,-0.30847931,-0.75274366,0
-4.318924,-4.0708647,-1.597659,-0.58156455,-0.30847931,-0.75274366,0
4.0426006,0.18569231,3.651463,0.58156455,0.30847931,0.75274366,0
-3.7993517,-2.1766944,-2.5583582,-0.58156455,-0.30847931,-0.75274366,0
1.130625,5.5446005,3.2340531,-0.34890082,0.93047237,-0.11175531,0
5.2203627,2.395143,1.8223422,0.58156455,0.30847931,0.75274366,0
-2.1648781,-4.309598,-3.3197799,-0.58156455,-0.30847931,-0.75274366,0
-0.39775562,-4.7270622,-4.2594509,-0.58156455,-0.30847931,-0.75274366,0
-1.934082,-4.8204522,-2.9669714,-0.58156455,-0.30847931,-0.75274366,0
5.7917871,3.0308647,0.72663331,0.58156455,0.30847931,0.75274366,0
1.4469439,0.41080284,-5.1826186,0.68470967,0.31402776,-0.65769243,0
-5.1582861,-0.48309535,0.63950884,-0.80149812,0.058915406,0.59508789,0
-0.60852861,-1.9594932,4.8644271,-0.49056351,-0.60515672,0.62700301,0
-4.6356812,2.1377883,-1.0501552,-0.68690348,0.68194276,0.25123221,0
-4.6539888,-4.2661858,-1.1684685,-0.58156455,-0.30847931,-0.75274366,0
-1.3588405,-2.8167307,-4.3265238,-0.58156455,-0.30847931,-0.75274366,0
-3.1765246,1.2575781,3.2889872,-0.81335926,0.20326927,0.54509461,0
-1.1923431,-2.2139082,-4.8911648,-0.58156455,-0.30847931,-0.75274366,0
-3.7243142,1.2279851,-4.1467886,-0.58156455,-0.30847931,-0.75274366,0
-2.2346108,-3.7414393,1.6952775,-0.33872864,-0.74946082,0.56883323,0
0.8790164,5.2756729,4.0469728,0.58156455,0.30847931,0.75274366,0
-3.5059986,-3.379992,-2.5611625,-0.58156455,-0.30847931,-0.75274366,0
3.1550546,3.4065084,-0.9701637,0.44466195,0.6543088,-0.61168265,0
0.37876415,-2.6855564,-5.7850909,-0.58156455,-0.30847931,-0.75274366,0
3.2518697,2.0554056,3.5209768,0.58156455,0.30847931,0.75274366,0
3.233453,-2.0007086,4.918951,0.58156455,0.30847931,0.75274366,0
-2.4165568,-2.2020164,3.121206,-0.56583518,-0.51142192,0.64674431,0
0.96463072,1.6521602,5.1672339,0.58156455,0.30847931,0.75274366,0
-2.2006218,-0.023499966,-4.786725,-0.58156455,-0.30847931,-0.75274366,0
-3.362618,0.76511884,2.6267037,-0.81096256,0.14681,0.5663802,0
1.4332726,5.3520346,1.9162364,-0.16618389,0.95085192,-0.26127279,0
-3.1565909,-1.5340104,2.5486746,-0.66659176,-0.34969091,0.65830976,0
0.051600218,-0.21033621,6.7808437,0.58156455,0.30847931,0.75274366,0
4.0613999,-2.6999855,0.98192072,0.61851329,-0.76871741,-0.16283363,0
-4.2446232,-4.0743246,-0.11431479,-0.48004702,-0.61689961,0.62369037,0
1.5037811,4.1680241,3.6949136,0.58156455,0.30847931,0.75274366,0
1.1473539,-3.0646987,-5.2941818,0.80551457,-0.34769952,-0.47984529,0
-1.4442867,-0.87676001,-5.2398663,-0.58156455,-0.30847931,-0.75274366,0
-5.8651605,-1.7007012,-0.011728525,-0.7700491,-0.089614838,0.63165921,0
4.8003855,1.4596355,-0.92612535,0.74211681,0.17785917,-0.64624202,0
0.38180518,0.98137665,6.0302567,0.58156455,0.30847931,0.75274366,0
5.3329697,-0.86155295,2.9689162,0.58156455,0.30847931,0.75274366,0
-0.84912598,0.66828489,-6.5133877,-0.58156455,-0.30847931,-0.75274366,0
-5.0049238,1.1278458,-3.2481122,-0.58156455,-0.30847931,-0.75274366,0
6.2402697,0.30260968,0.79340196,0.81322122,-0.19622311,-0.54787552,0
6.213964,-0.80234504,2.1381989,0.58156455,0.30847931,0.75274366,0
2.0125124,-3.09672,4.1312747,0.017507412,-0.92984641,0.36753106,0
-3.8253441,-1.7923932,-2.7030439,-0.58156455,-0.30847931,-0.75274366,0
-5.5281296,-0.99189162,-1.8332759,-0.58156455,-0.30847931,-0.75274366,0
-0.50872731,1.7139087,6.0963612,0.58156455,0.30847931,0.75274366,0
0.73592329,5.5743637,3.5782547,-0.4656983,0.8849389,-0.0028584003,0
4.4060907,0.80682135,3.1047049,0.58156455,0.30847931,0.75274366,0
-5.6254344,-2.5682192,-1.1811297,-0.58156455,-0.30847931,-0.75274366,0
0.20479226,-0.34223461,-6.5056138,-0.58156455,-0.30847931,-0.75274366,0
4.4521575,4.643199,0.45661354,0.40830895,0.68963253,-0.59807253,0
-1.5061073,-2.0321116,-4.8550272,-0.58156455,-0.30847931,-0.75274366,0
4.8646965,-0.72693801,2.9334524,0.58156455,0.30847931,0.75274366,0
4.1829004,-1.9264796,-0.79988074,0.75251985,-0.55549848,-0.35374463,0
6.2686977,-0.096911669,1.8701112,0.58156455,0.30847931,0.75274366,0
-0.29929483,1.6032474,-5.5141525,0.45801789,0.64055669,-0.61636567,0
3.8145308,-2.1812987,-1.1423842,0.77475536,-0.49218848,-0.39686856,0
-2.7590346,-4.7489386,-2.686733,-0.58156455,-0.30847931,-0.75274366,0
0.63427591,5.0588989,4.3286548,0.58156455,0.30847931,0.75274366,0
-3.8957472,-4.4851847,-2.0295384,-0.58156455,-0.30847931,-0.75274366,0
1.1960795,-3.4442239,3.2697718,-0.026373662,-0.91767877,0.39644682,0
3.5320313,-3.3780484,2.0684218,0.43903214,-0.89800906,0.02881676,0
1.1362712,-3.0892301,-5.377779,0.79166293,-0.42756581,-0.436414,0
-5.3710384,1.0565406,-2.9239669,-0.58156455,-0.30847931,-0.75274366,0
-5.9047213,0.97767019,-2.7464712,-0.58156455,-0.30847931,-0.75274366,0
-0.96031779,3.8181372,-2.6913772,-0.0022628382,0.92592448,-0.37770164,0
-0.82227564,-5.1982889,-3.7591014,-0.58156455,-0.30847931,-0.75274366,0
-4.3210597,-0.92636704,-3.1205993,-0.58156455,-0.30847931,-0.75274366,0
1.7183832,5.6168971,1.3842698,-0.12474844,0.94818813,-0.29219383,0
4.4782467,-0.1530211,3.3228211,0.58156455,0.30847931,0.75274366,0
1.1143382,-2.938262,4.9251013,-0.18505745,-0.85088825,0.49167359,0
4.0549874,-0.34111595,3.9077649,0.58156455,0.30847931,0.75274366,0
-1.9719443,-5.7422552,-2.9269934,-0.58156455,-0.30847931,-0.75274366,0
1.3442454,3.5924757,3.9294953,0.58156455,0.30847931,0.75274366,0
1.4605606,4.655025,3.5277114,0.58156455,0.30847931,0.75274366,0
0.83985567,-2.3758049,-6.2455144,0.81201303,-0.1642006,-0.56006503,0
1.2844744,-4.4857812,-0.70276546,0.44336683,-0.89600128,0.02464503,0
4.6458836,4.7429271,0.80761063,0.38460073,0.71111262,-0.58855844,0
3.8599706,-1.063103,4.2294955,0.58156455,0.30847931,0.75274366,0
3.187156,-1.838675,5.0017061,0.58156455,0.30847931,0.75274366,0
4.3243914,3.6799531,2.0368772,0.58156455,0.30847931,0.75274366,0
3.68031,3.2236176,2.3968928,0.58156455,0.30847931,0.75274366,0
-3.6925802,-1.0425264,2.3995688,-0.74605626,-0.16664991,0.644692,0
1.2739906,3.4420793,-2.8753448,0.32101843,0.76319885,-0.56078041,0
3.1537633,4.7696009,2.1135368,0.58156455,0.30847931,0.75274366,0
-1.8582052,-0.49021626,-5.0574532,-0.58156455,-0.30847931,-0.75274366,0
-4.9857054,-2.0094895,-1.7639959,-0.58156455,-0.30847931,-0.75274366,0
1.383104,5.2432666,1.2759386,-0.11484924,0.94718081,-0.29942912,0
1.4701152,0.012443542,5.6600156,0.58156455,0.30847931,0.75274366,0
-1.5697647,-0.21931934,-5.2291508,-0.58156455,-0.30847931,-0.75274366,0
3.3635874,-0.69513738,-3.2185209,0.80841184,-0.11581674,-0.57711077,0
3.6487391,3.962754,-0.81193888,0.44659448,0.6523456,-0.61237121,0
-2.2557135,4.0778661,-0.61144066,-0.42571664,0.90390337,-0.041519821,0
3.4446762,4.2412987,-0.43958235,0.38038874,0.71480691,-0.5868181,0
-2.7889578,3.4515936,-3.0483418,-0.25716886,0.947577,-0.18963635,0
2.3561895,0.46970987,4.6726384,0.58156455,0.30847931,0.75274366,0
3.5723553,4.5355167,1.9551966,0.58156455,0.30847931,0.75274366,0
0.89913392,5.2399912,1.7908969,-0.25777525,0.94751132,-0.18914092,0
5.3794847,0.90422845,2.34727,0.58156455,0.30847931,0.75274366,0
0.41220185,-2.8621683,4.4155817,-0.29577574,-0.78180659,0.5489037,0
5.701591,-0.76706195,2.6859932,0.58156455,0.30847931,0.75274366,0
0.56361938,-4.5971708,0.70563412,0.1794831,-0.95116806,0.25112754,0
-5.5026097,-1.9726703,-1.4621973,-0.58156455,-0.30847931,-0.75274366,0
2.9579248,0.80229616,3.8218052,0.58156455,0.30847931,0.75274366,0
3.6859832,3.4989254,2.595608,0.58156455,0.30847931,0.75274366,0
6.1526995,-0.82073212,1.9675517,0.58156455,0.30847931,0.75274366,0
5.3758798,-0.54687452,2.4542999,0.58156455,0.30847931,0.75274366,0
0.3300072,1.0621994,-5.9882884,0.57265711,0.50197172,-0.64814216,0
-3.1378183,-4.8077831,-2.369873,-0.58156455,-0.30847931,-0.75274366,0
5.7794476,-0.16296148,2.1698902,0.58156455,0.30847931,0.75274366,0
-5.0841789,-4.102488,-0.58080763,-0.50947785,-0.58326191,0.63264352,0
2.2572141,-1.6154864,5.3844633,0.58156455,0.30847931,0.75274366,0
3.5254745,0.82597041,3.5266681,0.58156455,0.30847931,0.75274366,0
1.649828,2.5360026,-3.2187638,0.46611324,0.63200724,-0.61911654,0
1.5579383,5.069253,3.5611134,0.58156455,0.30847931,0.75274366,0
2.3089252,-3.7175417,1.4211144,0.36066246,-0.92717707,0.10131782,0
2.7752426,-3.4337325,2.3461185,0.31164855,-0.93920493,0.14411479,0
-2.8757401,0.29337358,-4.5140657,-0.58156455,-0.30847931,-0.75274366,0
-4.4011765,1.0312343,-3.7221954,-0.58156455,-0.30847931,-0.75274366,0
0.92919135,-4.7277422,-0.92150354,0.41942978,-0.90654618,0.047460139,0
-3.5975409,-0.83211303,-3.5399184,-0.58156455,-0.30847931,-0.75274366,0
5.5131307,2.5140638,1.5863993,0.58156455,0.30847931,0.75274366,0
-0.59580737,-4.5781956,1.1033456,-0.036694072,-0.91442567,0.40308708,0
0.24126607,3.744926,-2.448832,0.083775535,0.89768469,-0.43260133,0
2.0815427,-1.3354924,-4.6542716,0.80424291,-0.07882303,-0.58905017,0
3.9648304,0.081394315,-2.4001842,0.79985136,-0.048040271,-0.59827232,0
-2.2814498,-0.035047054,-4.9467835,-0.58156455,-0.30847931,-0.75274366,0
-0.31529808,2.3301935,6.051043,0.58156455,0.30847931,0.75274366,0
-4.4513063,-0.94774723,-2.6551204,-0.58156455,-0.30847931,-0.75274366,0
-5.8011012,0.28087354,-2.2456231,-0.58156455,-0.30847931,-0.75274366,0
3.6079316,3.1235633,2.5577362,0.58156455,0.30847931,0.75274366,0
5.6310091,1.3771145,1.6538132,0.58156455,0.30847931,0.75274366,0
-2.8824632,-1.2773999,3.3426414,-0.67706394,-0.32940325,0.65808648,0
-5.5457106,1.6627913,-3.0782633,-0.58156455,-0.30847931,-0.75274366,0
-1.684654,1.9782333,5.2879634,-0.81349498,0.21718228,0.53949773,0
0.89963138,0.13081694,5.7689548,0.58156455,0.30847931,0.75274366,0
1.7027754,1.2325186,-4.3691969,0.61540383,0.43833414,-0.65508878,0
-1.449441,2.0114944,-6.3368626,0.30450082,0.77550173,-0.55306083,0
-0.0828439,-2.1947973,4.8483973,-0.38365984,-0.711941,0.58817089,0
2.8283768,-0.1755271,-3.8420002,0.78188622,0.043490022,-0.62190223,0
1.6143758,0.20226479,-5.1616759,0.71709585,0.24253355,-0.65341496,0
0.41601276,2.9215145,5.3520427,0.58156455,0.30847931,0.75274366,0
-0.80109715,-1.9574814,-4.990643,-0.58156455,-0.30847931,-0.75274366,0
0.90024877,-1.6762381,-5.8294983,0.80730802,-0.10489956,-0.58073199,0
-5.3453388,-2.6324756,-0.042452127,-0.66373509,-0.35508025,0.65831125,0
