4.6306205,-1.2519253,-0.0050919056,0.30593899,0.43756628,0.84553957,0
-1.1485996,4.5396729,-0.79039288,-0.33880198,0.88002354,-0.33282402,0
1.4624799,-0.86495131,-1.4313107,-0.30593899,-0.43756628,-0.84553957,0
2.799917,-3.6825242,0.19958401,0.6587581,-0.73848289,0.14380814,0
-3.9406886,-1.6548111,2.0590084,-0.8137151,-0.34087023,0.47082418,0
-1.382268,2.4536247,0.46984759,0.30593899,0.43756628,0.84553957,0
-3.8570566,2.7122579,-0.37459493,-0.79876018,0.60124254,-0.022129878,0
0.502105,-0.36933374,-0.93906891,-0.30593899,-0.43756628,-0.84553957,0
-3.4532366,0.89010251,-0.31690419,-0.30593899,-0.43756628,-0.84553957,0
3.0949135,-3.7067466,0.48444557,0.63419038,-0.75605929,0.1617932,0
-3.6299105,-0.48653144,2.8191803,0.30593899,0.43756628,0.84553957,0
4.3954892,-1.7446879,0.65360177,0.30593899,0.43756628,0.84553957,0
3.3703701,2.4888682,-1.5439014,0.30593899,0.43756628,0.84553957,0
-4.8293138,0.42973495,0.45218015,-0.95204908,0.14245009,0.27075911,0
3.7886496,2.3722992,-1.3400621,0.30593899,0.43756628,0.84553957,0
-4.0663953,2.5626504,-0.51265007,-0.83178902,0.55492061,0.013792455,0
0.22791433,-4.0207849,0.80077636,-0.30593899,-0.43756628,-0.84553957,0
0.60480785,-3.7941875,0.61973286,-0.30593899,-0.43756628,-0.84553957,0
-0.49784994,-0.69875413,1.7928634,0.30593899,0.43756628,0.84553957,0
3.0092599,1.9915568,-2.9732795,0.69577533,0.50344914,-0.51228493,0
1.6033682,-1.4244955,1.5573376,0.30593899,0.43756628,0.84553957,0
-2.6764107,-1.3688786,2.8074963,0.30593899,0.43756628,0.84553957,0
-1.9746206,4.1170006,-1.3089724,-0.40381831,0.8639164,-0.300964,0
3.2350645,2.7215476,-1.5999389,0.30593899,0.43756628,0.84553957,0
-3.7557492,-1.1848867,2.5075877,-0.82718265,-0.31753147,0.46361923,0
0.73391175,0.83017051,0.46108559,0.30593899,0.43756628,0.84553957,0
4.7980323,0.11960554,-0.58795524,0.95098454,-0.098424584,-0.29315704,0
3.8916295,-0.12932396,-0.030195236,0.30593899,0.43756628,0.84553957,0
-2.5809078,-2.4793169,0.98030567,-0.30593899,-0.43756628,-0.84553957,0
0.77722836,-4.0009475,0.69278216,-0.30593899,-0.43756628,-0.84553957,0
2.2210855,3.51526,-1.5864208,0.30593899,0.43756628,0.84553957,0
3.7052405,-2.3005385,-1.5226103,-0.30593899,-0.43756628,-0.84553957,0
-2.729424,3.7752843,-0.2584734,-0.63325381,0.75670016,-0.16246369,0
-3.9146183,-1.1709349,1.0402999,-0.30593899,-0.43756628,-0.84553957,0
-3.9471917,2.4514947,-0.69015515,-0.80568421,0.59215724,-0.014922902,0
4.349534,-2.0753236,-0.44945502,0.90379703,-0.41264299,-0.11347547,0
-4.0633669,-1.4172313,0.83027244,-0.30593899,-0.43756628,-0.84553957,0
-4.3139672,-0.90896344,0.7294755,-0.30593899,-0.43756628,-0.84553957,0
4.5820756,0.61746264,-1.6781449,0.91108382,0.12316361,-0.39339173,0
1.2656467,-4.3244066,1.2565922,0.2903617,-0.88869542,0.35483879,0
-3.2220316,3.2220736,0.50617933,0.30593899,0.43756628,0.84553957,0
-1.1499062,3.6982338,-0.39767849,0.30593899,0.43756628,0.84553957,0
-4.4347649,0.74268758,1.5902493,-0.95205045,0.13955197,0.27225935,0
-0.15874994,0.51744664,0.88257033,0.30593899,0.43756628,0.84553957,0
-0.050524235,2.7667778,-0.19775426,0.30593899,0.43756628,0.84553957,0
1.539078,1.5284116,-2.3949821,-0.30593899,-0.43756628,-0.84553957,0
4.0271635,1.2320893,-1.0494206,0.30593899,0.43756628,0.84553957,0
-2.5921142,3.1875689,0.48619646,0.30593899,0.43756628,0.84553957,0
-3.3399391,-1.6995152,0.91710305,-0.30593899,-0.43756628,-0.84553957,0
-4.2786627,1.3671434,1.2492753,-0.94579512,0.24133292,0.21732447,0
1.5180814,1.3202003,-2.4486818,-0.30593899,-0.43756628,-0.84553957,0
-4.2527246,1.8607702,-0.46062875,-0.86420906,0.50024635,0.053816855,0
0.051093578,-3.7426667,3.1374803,0.30593899,0.43756628,0.84553957,0
-1.7522404,0.048888445,-0.53620911,-0.30593899,-0.43756628,-0.84553957,0
1.7985051,1.5656502,-2.6664643,-0.30593899,-0.43756628,-0.84553957,0
-2.3307085,0.52464533,-0.76202869,-0.30593899,-0.43756628,-0.84553957,0
-2.8850691,-3.0767498,1.674346,-0.30593899,-0.43756628,-0.84553957,0
1.1458428,-0.045191642,-1.5024246,-0.30593899,-0.43756628,-0.84553957,0
0.86037874,-2.0777485,2.1428814,0.30593899,0.43756628,0.84553957,0
4.498342,-1.6189258,-0.76468062,0.91713119,-0.3737818,-0.13841084,0
-3.6620989,-1.6922208,0.93750381,-0.30593899,-0.43756628,-0.84553957,0
-4.565033,-1.0769219,0.95675635,-0.91753531,-0.10145819,0.38449353,0
-0.5379498,-2.6300683,0.57060468,-0.30593899,-0.43756628,-0.84553957,0
4.3294034,-1.5515665,-0.42449796,0.92618608,-0.34240144,-0.15792638,0
2.0184288,-2.6803436,-0.58601952,-0.30593899,-0.43756628,-0.84553957,0
-0.79735839,2.557889,-0.0033603311,0.30593899,0.43756628,0.84553957,0
-1.0195462,-0.19379669,1.4441789,0.30593899,0.43756628,0.84553957,0
-0.62542427,3.0012634,0.080212116,0.30593899,0.43756628,0.84553957,0
1.2192166,2.5821176,-2.7399302,-0.30593899,-0.43756628,-0.84553957,0
2.3395927,0.69087243,-0.096461415,0.30593899,0.43756628,0.84553957,0
2.2560072,-2.1644473,-0.96522349,-0.30593899,-0.43756628,-0.84553957,0
-3.2929306,2.0132365,1.2279135,0.30593899,0.43756628,0.84553957,0
4.7642241,0.8986845,-1.0232356,0.30593899,0.43756628,0.84553957,0
-1.0465536,2.6571922,-2.368186,-0.30593899,-0.43756628,-0.84553957,0
2.2626231,1.5475904,-0.60560822,0.30593899,0.43756628,0.84553957,0
3.2316337,-2.083775,-1.46208,-0.30593899,-0.43756628,-0.84553957,0
-2.0623722,-3.0486042,1.2951548,-0.30593899,-0.43756628,-0.84553957,0
2.3457456,0.67262566,-0.096529603,0.30593899,0.43756628,0.84553957,0
0.48754835,-3.7235985,2.8673921,0.30593899,0.43756628,0.84553957,0
0.94879967,-0.49207336,-1.1661041,-0.30593899,-0.43756628,-0.84553957,0
2.6571145,-1.2766293,0.83889186,0.30593899,0.43756628,0.84553957,0
-2.5427723,-2.1616292,1.0443859,-0.30593899,-0.43756628,-0.84553957,0
-3.6050544,3.0163283,-1.1132716,-0.73494816,0.67309797,-0.082403883,0
0.81514323,-0.21039832,0.7655127,0.30593899,0.43756628,0.84553957,0
-2.3718686,2.2516913,0.80921793,0.30593899,0.43756628,0.84553957,0
-1.2853265,-3.9724944,2.2636633,-0.23751676,-0.82496244,0.5128575,0
0.2423768,-1.8155208,1.8999624,0.30593899,0.43756628,0.84553957,0
-1.1310408,0.64553219,-1.0323471,-0.30593899,-0.43756628,-0.84553957,0
4.3128233,0.0070979595,-0.38179207,0.30593899,0.43756628,0.84553957,0
-1.072129,3.4976132,-0.46385127,0.30593899,0.43756628,0.84553957,0
-0.44244137,-1.5367665,-0.24816543,-0.30593899,-0.43756628,-0.84553957,0
1.26834,2.0239363,-0.43288708,0.30593899,0.43756628,0.84553957,0
0.96511036,-1.3776288,-0.8860954,-0.30593899,-0.43756628,-0.84553957,0
-3.056644,-1.9072018,3.1703374,0.30593899,0.43756628,0.84553957,0
-2.3308613,-2.4041612,3.0655315,0.30593899,0.43756628,0.84553957,0
-0.071026921,-0.38392007,-1.1909243,-0.30593899,-0.43756628,-0.84553957,0
-1.600963,-0.74512082,2.0673642,0.30593899,0.43756628,0.84553957,0
-1.8303339,3.0572374,-1.9797318,-0.30593899,-0.43756628,-0.84553957,0
-2.5008121,3.4820611,0.34787196,0.30593899,0.43756628,0.84553957,0
-0.97382975,3.7624145,-2.8216987,-0.13744718,0.89911985,-0.41556206,0
3.1412532,1.5851896,-2.917418,-0.30593899,-0.43756628,-0.84553957,0
2.8711567,-0.5874716,0.33127761,0.30593899,0.43756628,0.84553957,0
0.59148586,0.0008110404,-1.3867768,-0.30593899,-0.43756628,-0.84553957,0
3.7016065,-2.2299054,-1.2122079,-0.30593899,-0.43756628,-0.84553957,0
-1.2782745,0.5739249,1.1916959,0.30593899,0.43756628,0.84553957,0
0.86982268,2.4962428,-0.6223321,0.30593899,0.43756628,0.84553957,0
0.4392181,0.61004078,-1.7041183,-0.30593899,-0.43756628,-0.84553957,0
3.8950896,0.77140284,-2.3299448,0.89492774,0.1708321,-0.4122144,0
3.7316651,-0.96679056,-2.0438843,-0.30593899,-0.43756628,-0.84553957,0
1.0505126,3.1055291,-3.2765234,-0.30593899,-0.43756628,-0.84553957,0
4.3938251,-1.2568188,0.29046452,0.30593899,0.43756628,0.84553957,0
-0.87137866,-3.6151061,2.9083943,-0.20725083,-0.83621597,0.50773031,0
-0.30575734,0.94161975,0.94815266,0.30593899,0.43756628,0.84553957,0
3.131619,2.7632287,-2.3793001,0.66311258,0.53933465,-0.51903743,0
3.4665689,-0.39617288,0.24580979,0.30593899,0.43756628,0.84553957,0
2.1261985,4.0060291,-2.0889461,0.38309601,0.75646913,-0.53008682,0
0.27046651,-1.6436266,-0.54517496,-0.30593899,-0.43756628,-0.84553957,0
-0.53006959,0.6279006,-1.1890841,-0.30593899,-0.43756628,-0.84553957,0
1.9143949,-2.3362207,-0.86816984,-0.30593899,-0.43756628,-0.84553957,0
-1.4069276,-1.2826996,-0.073621631,-0.30593899,-0.43756628,-0.84553957,0
-4.2735939,0.77255166,-0.15779257,-0.30593899,-0.43756628,-0.84553957,0
3.0857606,1.0169439,-2.9013906,-0.30593899,-0.43756628,-0.84553957,0
-2.9123919,0.81439507,-0.42508489,-0.30593899,-0.43756628,-0.84553957,0
0.26090497,1.4207268,0.57937402,0.30593899,0.43756628,0.84553957,0
-1.0291636,3.4672728,-2.771843,-0.30593899,-0.43756628,-0.84553957,0
-2.9009328,0.18979371,2.082521,0.30593899,0.43756628,0.84553957,0
2.4942536,0.1531595,-2.1081243,-0.30593899,-0.43756628,-0.84553957,0
-2.8060937,2.7556388,-1.8030179,-0.30593899,-0.43756628,-0.84553957,0
-0.85927057,-4.5241027,1.7459943,-0.1543678,-0.85357296,0.49757797,0
1.5461943,-2.7270176,2.0199316,0.30593899,0.43756628,0.84553957,0
-1.6598952,-3.4123373,0.96381092,-0.30593899,-0.43756628,-0.84553957,0
3.387387,0.20054424,-0.28268313,0.30593899,0.43756628,0.84553957,0
4.0009155,-2.7885101,1.0698762,0.75740391,-0.64996684,0.062308438,0
-2.2045386,-1.9834176,2.8840187,0.30593899,0.43756628,0.84553957,0
-3.5402758,2.722106,-1.3033946,-0.30593899,-0.43756628,-0.84553957,0
1.150907,-3.8175673,2.4675417,0.20154023,-0.89776218,0.39166886,0
2.7408259,-3.7881861,-0.31043646,-0.30593899,-0.43756628,-0.84553957,0
-4.4184189,-1.1097326,1.0870788,-0.30593899,-0.43756628,-0.84553957,0
-0.8888613,-2.8815694,0.74713385,-0.30593899,-0.43756628,-0.84553957,0
2.100636,-3.9590516,0.14151245,-0.30593899,-0.43756628,-0.84553957,0
-2.4171181,3.0950508,0.44208527,0.30593899,0.43756628,0.84553957,0
3.8089542,-2.3235328,-1.3991351,0.90788203,-0.40146273,-0.12073934,0
-0.44696188,-4.2649918,1.3611364,-0.30593899,-0.43756628,-0.84553957,0
-1.1497197,1.4318985,1.0405411,0.30593899,0.43756628,0.84553957,0
-0.95526266,0.77910119,-1.2897483,-0.30593899,-0.43756628,-0.84553957,0
2.8909016,2.4955575,-2.4226706,0.64043307,0.56255955,-0.52285022,0
0.17044044,-2.1142633,-0.033622324,-0.30593899,-0.43756628,-0.84553957,0
0.96625352,-3.8931367,0.63884449,-0.30593899,-0.43756628,-0.84553957,0
-0.21176958,-2.665143,2.7623119,0.30593899,0.43756628,0.84553957,0
-3.1681173,-2.7858834,1.3818648,-0.30593899,-0.43756628,-0.84553957,0
-4.2981701,1.1592212,1.9636073,0.30593899,0.43756628,0.84553957,0
-0.28293526,1.9901559,0.32706654,0.30593899,0.43756628,0.84553957,0
1.6622691,-0.57602447,-1.6022832,-0.30593899,-0.43756628,-0.84553957,0
1.7684503,1.5854201,-0.45585144,0.30593899,0.43756628,0.84553957,0
-3.7484465,-0.25559068,2.6533303,0.30593899,0.43756628,0.84553957,0
1.0358163,2.520828,-0.46213913,0.30593899,0.43756628,0.84553957,0
0.5811429,0.67539227,0.59353715,0.30593899,0.43756628,0.84553957,0
4.6519856,0.03572917,-0.83508134,0.94368351,-0.021884382,-0.33012497,0
0.17034912,-1.6976849,-0.25858265,-0.30593899,-0.43756628,-0.84553957,0
0.79629993,-3.8507185,2.9306614,0.30593899,0.43756628,0.84553957,0
-1.0344012,-3.4613094,0.90547848,-0.30593899,-0.43756628,-0.84553957,0
1.2973349,-4.2873712,1.3506885,0.31051075,-0.88541996,0.34585327,0
1.3448116,2.5096533,-3.0688126,-0.30593899,-0.43756628,-0.84553957,0
2.8452592,0.00041389465,-0.082384467,0.30593899,0.43756628,0.84553957,0
-2.1496432,-0.35394096,-0.053589463,-0.30593899,-0.43756628,-0.84553957,0
2.8291211,-1.074609,0.67625374,0.30593899,0.43756628,0.84553957,0
-3.1348059,-1.5835832,0.91098905,-0.30593899,-0.43756628,-0.84553957,0
3.4106028,-1.4449136,-1.8704765,-0.30593899,-0.43756628,-0.84553957,0
1.7787917,-0.40734541,-1.7657868,-0.30593899,-0.43756628,-0.84553957,0
-3.5312369,-0.063336134,0.085441113,-0.30593899,-0.43756628,-0.84553957,0
0.37368107,3.6883888,-0.91056001,0.30593899,0.43756628,0.84553957,0
-1.029213,4.453722,-1.1067686,-0.29066467,0.88864964,-0.35470545,0
1.7425065,-4.0196834,1.2133069,0.42714387,-0.85680616,0.2888447,0
-0.81943285,-1.4419384,-0.29093534,-0.30593899,-0.43756628,-0.84553957,0
0.43252063,-4.3289318,0.72770452,-0.30593899,-0.43756628,-0.84553957,0
-2.1013737,1.786324,1.1952715,0.30593899,0.43756628,0.84553957,0
0.39730096,-3.0779786,2.615011,0.30593899,0.43756628,0.84553957,0
2.1277435,1.7693833,-2.9633749,-0.30593899,-0.43756628,-0.84553957,0
1.9084089,2.9444783,-3.4550722,0.49927378,0.68246353,-0.53382528,0
-3.5787551,1.4882983,1.8695087,0.30593899,0.43756628,0.84553957,0
-1.8376701,2.3542714,0.63084203,0.30593899,0.43756628,0.84553957,0
-4.1519494,-0.54800367,2.4666836,-0.89742017,-0.16397974,0.40957022,0
-1.6071432,-0.80903059,0.019321799,-0.30593899,-0.43756628,-0.84553957,0
1.7326821,-2.4109163,-0.41048506,-0.30593899,-0.43756628,-0.84553957,0
1.1108482,-3.7297306,2.753576,0.30593899,0.43756628,0.84553957,0
0.038609743,3.3760309,-0.49922442,0.30593899,0.43756628,0.84553957,0
-2.089077,0.3280136,1.61452,0.30593899,0.43756628,0.84553957,0
-3.2806077,0.50238127,2.2205462,0.30593899,0.43756628,0.84553957,0
1.9322766,1.0111883,-2.4196026,-0.30593899,-0.43756628,-0.84553957,0
-0.71974361,-2.8871014,0.53544784,-0.30593899,-0.43756628,-0.84553957,0
-1.1643748,-4.012116,1.0885546,-0.30593899,-0.43756628,-0.84553957,0
2.689079,0.75082123,0.020491242,0.30593899,0.43756628,0.84553957,0
1.8340869,-0.10344887,-1.7633911,-0.30593899,-0.43756628,-0.84553957,0
4.0379138,-1.7902702,-1.8135484,-0.30593899,-0.43756628,-0.84553957,0
-1.1933067,1.0486655,-1.4481663,-0.30593899,-0.43756628,-0.84553957,0
3.5525894,0.295959,-0.23312807,0.30593899,0.43756628,0.84553957,0
-2.7953687,1.8313574,-1.2652141,-0.30593899,-0.43756628,-0.84553957,0
-3.037333,-1.0097734,0.38442206,-0.30593899,-0.43756628,-0.84553957,0
0.96300924,2.1732895,-2.7857227,-0.30593899,-0.43756628,-0.84553957,0
2.66731,-1.9668798,1.4707384,0.30593899,0.43756628,0.84553957,0
-3.1458671,-2.4575968,1.3479929,-0.30593899,-0.43756628,-0.84553957,0
0.24902892,-2.2862344,2.3072944,0.30593899,0.43756628,0.84553957,0
-0.11801484,-0.5380491,-1.0057858,-0.30593899,-0.43756628,-0.84553957,0
1.0340372,0.0074211359,0.89206982,0.30593899,0.43756628,0.84553957,0
-0.84343886,3.9202433,-0.48661506,0.30593899,0.43756628,0.84553957,0
-2.4493363,4.2081199,-0.93812233,-0.51436579,0.82331634,-0.23995441,0
1.1116623,1.956866,-0.31254959,0.30593899,0.43756628,0.84553957,0
-0.069722444,-0.41768172,-0.83290732,-0.30593899,-0.43756628,-0.84553957,0
3.8030589,-2.2701294,-1.3424495,-0.30593899,-0.43756628,-0.84553957,0
-0.065198183,-0.60012162,1.6829003,0.30593899,0.43756628,0.84553957,0
-2.7917249,2.5783558,-1.5824381,-0.30593899,-0.43756628,-0.84553957,0
2.7666192,3.1214027,-1.6042821,0.30593899,0.43756628,0.84553957,0
-0.1469419,2.2124741,-0.045731425,0.30593899,0.43756628,0.84553957,0
-3.455076,0.51341832,2.0046105,0.30593899,0.43756628,0.84553957,0
2.839581,1.1104679,-2.6984646,-0.30593899,-0.43756628,-0.84553957,0
3.9691453,1.2339458,-0.74015665,0.30593899,0.43756628,0.84553957,0
0.78612661,-2.1139102,-0.34087169,-0.30593899,-0.43756628,-0.84553957,0
0.4315865,-0.62649262,1.4449894,0.30593899,0.43756628,0.84553957,0
-0.80051768,1.2735381,-1.4636415,-0.30593899,-0.43756628,-0.84553957,0
1.5482795,-1.9452696,1.5194923,0.30593899,0.43756628,0.84553957,0
0.93475246,4.252739,-2.1831682,0.20527583,0.83691651,-0.50737816,0
4.1296339,1.4709997,-0.84115386,0.30593899,0.43756628,0.84553957,0
-1.9905443,-2.1199102,0.48790765,-0.30593899,-0.43756628,-0.84553957,0
3.9584885,0.97959948,-0.79878664,0.30593899,0.43756628,0.84553957,0
-2.1945331,4.0288033,-0.33577597,0.30593899,0.43756628,0.84553957,0
-2.7091961,2.3695216,-1.5107982,-0.30593899,-0.43756628,-0.84553957,0
-0.64158595,1.3792229,-1.6316251,-0.30593899,-0.43756628,-0.84553957,0
-0.89073038,4.3625884,-0.55513763,0.30593899,0.43756628,0.84553957,0
3.1302946,-0.98437607,0.7313264,0.30593899,0.43756628,0.84553957,0
1.4599708,1.7567295,-0.10880983,0.30593899,0.43756628,0.84553957,0
-4.4139519,1.7122742,0.27578759,-0.91706175,0.3740038,0.1382708,0
-2.0859113,-0.18597364,-0.27859092,-0.30593899,-0.43756628,-0.84553957,0
-1.8583398,4.0610399,-1.7933815,-0.38299853,0.86965537,-0.31146705,0
1.6206728,3.9088717,-1.5787163,0.30593899,0.43756628,0.84553957,0
-3.3159668,0.15776509,2.5163236,0.30593899,0.43756628,0.84553957,0
-0.54305816,-4.5357318,1.5817261,-0.30593899,-0.43756628,-0.84553957,0
0.62848949,-3.911725,0.55624855,-0.30593899,-0.43756628,-0.84553957,0
-0.5702827,-1.0439906,-0.27285928,-0.30593899,-0.43756628,-0.84553957,0
2.7988243,-3.162539,-0.40806383,-0.30593899,-0.43756628,-0.84553957,0
-3.6006665,-1.2522953,2.690654,-0.80944175,-0.34800145,0.47296834,0
3.4729657,-2.4130926,-1.4052074,-0.30593899,-0.43756628,-0.84553957,0
2.2873216,-0.73499572,-1.7709095,-0.30593899,-0.43756628,-0.84553957,0
1.6193964,-4.1900682,0.26129854,-0.30593899,-0.43756628,-0.84553957,0
3.3091292,-3.0445669,-1.0139744,-0.30593899,-0.43756628,-0.84553957,0
4.3751841,-1.7883291,-0.10271823,0.90534806,-0.40846369,-0.11619949,0
0.45940089,-1.5893419,1.7559273,0.30593899,0.43756628,0.84553957,0
3.6434152,-2.9766054,1.2913082,0.71805632,-0.68921274,0.096855178,0
1.6161885,3.7901905,-2.389329,0.30789554,0.7949239,-0.52277762,0
-3.8552692,2.730037,-0.027639031,-0.81013048,0.58616072,-0.010210901,0
-0.080408812,4.4247208,-1.2317657,0.30593899,0.43756628,0.84553957,0
-3.6616771,-2.6286559,2.0571427,-0.71494102,-0.48089147,0.50754601,0
-1.3762932,-3.6544225,1.0655899,-0.30593899,-0.43756628,-0.84553957,0
4.4918327,-1.088279,0.28809285,0.30593899,0.43756628,0.84553957,0
-1.5440114,-3.2257113,3.4324458,0.30593899,0.43756628,0.84553957,0
-2.9023237,3.4500809,-0.5911473,-0.66011143,0.73747039,-0.14279455,0
1.0026226,2.5943942,-2.7266784,-0.30593899,-0.43756628,-0.84553957,0
1.7988181,-2.9339292,-0.079309121,-0.30593899,-0.43756628,-0.84553957,0
1.9816247,0.33641481,0.23511624,0.30593899,0.43756628,0.84553957,0
-3.8160911,3.0880437,0.43119413,-0.80224073,0.59671313,-0.018526495,0
1.0128937,3.6978309,-2.7576599,0.26665211,0.81319547,-0.51731014,0
1.176125,-1.270447,-0.86384702,-0.30593899,-0.43756628,-0.84553957,0
3.3991754,-0.81520724,-1.7674028,-0.30593899,-0.43756628,-0.84553957,0
1.8514308,0.45623553,0.20371985,0.30593899,0.43756628,0.84553957,0
3.740855,-2.7744639,0.95005852,0.7165029,-0.69064373,0.098157808,0
1.8699088,-1.3479018,0.98111188,0.30593899,0.43756628,0.84553957,0
4.0843692,-2.3012683,1.01703,0.80653322,-0.59102219,0.014028281,0
-0.49740547,2.0368025,0.41352987,0.30593899,0.43756628,0.84553957,0
1.6912038,1.2385532,-2.5426736,-0.30593899,-0.43756628,-0.84553957,0
0.96722174,-0.97725743,1.1873562,0.30593899,0.43756628,0.84553957,0
2.498116,1.4270954,-2.660198,-0.30593899,-0.43756628,-0.84553957,0
-2.1226668,-2.9460506,3.4571116,0.30593899,0.43756628,0.84553957,0
-2.618372,0.13298175,2.0939367,0.30593899,0.43756628,0.84553957,0
0.62252635,2.1710825,0.054076433,0.30593899,0.43756628,0.84553957,0
-0.6153971,2.8433464,0.11611354,0.30593899,0.43756628,0.84553957,0
-1.767982,3.4394052,-2.3277326,-0.30593899,-0.43756628,-0.84553957,0
-4.7462578,0.86596334,0.0084455013,-0.30593899,-0.43756628,-0.84553957,0
0.18532991,4.3467712,-1.6104889,0.0081314445,0.88689077,-0.46190771,0
-0.40986681,2.9002471,-2.6928363,-0.30593899,-0.43756628,-0.84553957,0
-3.7695925,2.8203347,0.5962593,-0.82211041,0.5693211,0.0028382242,0
0.1894989,3.0525012,-0.57184756,0.30593899,0.43756628,0.84553957,0
-2.5718377,-1.8670783,3.3035517,0.30593899,0.43756628,0.84553957,0
0.022322655,-3.8772523,0.9739809,-0.30593899,-0.43756628,-0.84553957,0
0.50387311,0.98469555,-2.0944898,-0.30593899,-0.43756628,-0.84553957,0
-2.1649017,2.5407634,-1.5087897,-0.30593899,-0.43756628,-0.84553957,0
0.60611629,-4.0421238,2.788271,0.04340291,-0.89361107,0.44673896,0
-2.4165044,-1.8094982,0.4340651,-0.30593899,-0.43756628,-0.84553957,0
-1.6778877,-2.1492217,2.9309151,0.30593899,0.43756628,0.84553957,0
-0.84670091,-3.4938169,2.8854313,-0.23311508,-0.82665986,0.51214349,0
-3.12516,3.3712106,0.39462891,0.30593899,0.43756628,0.84553957,0
0.043650389,1.8000476,-2.2323356,-0.30593899,-0.43756628,-0.84553957,0
2.0859175,-0.64091867,-1.5239058,-0.30593899,-0.43756628,-0.84553957,0
-0.22835553,1.1233209,-1.5692492,-0.30593899,-0.43756628,-0.84553957,0
-0.94844365,-1.0399232,-0.45010704,-0.30593899,-0.43756628,-0.84553957,0
1.3423276,-0.001799643,-1.4828107,-0.30593899,-0.43756628,-0.84553957,0
2.137614,1.1852829,-0.070595384,0.30593899,0.43756628,0.84553957,0
-2.5978997,-3.7323132,1.6937318,-0.30593899,-0.43756628,-0.84553957,0
-0.032872677,4.1257071,-0.89495134,0.30593899,0.43756628,0.84553957,0
-0.56394577,-2.2456846,2.7450151,0.30593899,0.43756628,0.84553957,0
2.4711642,1.2441345,-2.8432283,-0.30593899,-0.43756628,-0.84553957,0
-4.5643082,-0.21032643,0.50305104,-0.30593899,-0.43756628,-0.84553957,0
0.22097445,-4.6479182,1.3331003,0.062384486,-0.89542907,0.44081175,0
-2.7113879,3.9229059,0.16853604,0.30593899,0.43756628,0.84553957,0
-0.60270011,-0.46803588,1.4690447,0.30593899,0.43756628,0.84553957,0
-3.3613935,-1.7863988,1.0477095,-0.30593899,-0.43756628,-0.84553957,0
2.7320104,-1.618607,0.8121919,0.30593899,0.43756628,0.84553957,0
2.5408289,-0.00080502033,0.20189095,0.30593899,0.43756628,0.84553957,0
2.3723302,1.4356173,-2.9511318,-0.30593899,-0.43756628,-0.84553957,0
0.16940951,1.3432472,-2.0596111,-0.30593899,-0.43756628,-0.84553957,0
-3.4191484,3.2154636,0.87150973,0.30593899,0.43756628,0.84553957,0
-3.0666773,1.7949865,-1.1242403,-0.30593899,-0.43756628,-0.84553957,0
-3.8623526,2.5522323,-1.1494113,-0.77701509,0.62795472,-0.043821275,0
1.9134243,-1.9573499,-0.66222233,-0.30593899,-0.43756628,-0.84553957,0
3.9654734,-1.3547626,-1.9224838,-0.30593899,-0.43756628,-0.84553957,0
-4.6469979,1.5019935,-0.19202471,-0.90490562,0.40966415,0.11541814,0
1.4256678,-3.5942917,2.5810432,0.30593899,0.43756628,0.84553957,0
0.60789275,-2.4653797,2.2851169,0.30593899,0.43756628,0.84553957,0
3.6705377,0.56389713,-0.57239056,0.30593899,0.43756628,0.84553957,0
3.5659866,1.6778277,-1.0357299,0.30593899,0.43756628,0.84553957,0
1.9552835,-1.4335015,-1.3456686,-0.30593899,-0.43756628,-0.84553957,0
1.7637641,-3.9082894,2.2619553,0.3065033,-0.88610864,0.34765965,0
-3.1532664,3.23456,0.59682745,0.30593899,0.43756628,0.84553957,0
-1.3007848,-3.2945962,3.295043,-0.31834358,-0.78998637,0.52400279,0
-1.4756259,-2.2083373,2.7452202,0.30593899,0.43756628,0.84553957,0
-2.3052719,-0.19877672,1.9620646,0.30593899,0.43756628,0.84553957,0
-0.46626222,-1.8476441,-0.27049196,-0.30593899,-0.43756628,-0.84553957,0
3.1358871,-1.1026812,0.61791986,0.30593899,0.43756628,0.84553957,0
0.99653405,1.0276845,0.19426113,0.30593899,0.43756628,0.84553957,0
-2.0671663,-0.82549953,2.1570415,0.30593899,0.43756628,0.84553957,0
-1.7803109,1.8275107,-1.5028099,-0.30593899,-0.43756628,-0.84553957,0
3.8953259,-1.7706213,0.76982486,0.30593899,0.43756628,0.84553957,0
1.1264538,3.1724648,-0.72801542,0.30593899,0.43756628,0.84553957,0
2.0451117,-2.0150735,1.5693517,0.30593899,0.43756628,0.84553957,0
-3.1092579,3.1369269,-1.6151264,-0.60167104,0.77714956,-0.18447371,0
-0.076877356,-3.0841846,2.8952894,0.30593899,0.43756628,0.84553957,0
-2.9902449,-2.2567558,0.89848018,-0.30593899,-0.43756628,-0.84553957,0
-2.9306374,-2.9659283,2.6070726,-0.60303819,-0.59818125,0.52775395,0
2.2898896,-0.092721313,-1.7877239,-0.30593899,-0.43756628,-0.84553957,0
-1.6988924,-1.869691,2.7050214,0.30593899,0.43756628,0.84553957,0
-3.2094014,0.17130208,2.1483958,0.30593899,0.43756628,0.84553957,0
0.61773205,-3.0435462,0.19289732,-0.30593899,-0.43756628,-0.84553957,0
2.8899488,3.6061049,-2.0398452,0.53261304,0.65747893,-0.53295875,0
3.7328477,-1.1291479,0.32276046,0.30593899,0.43756628,0.84553957,0
2.3676467,2.3869534,-0.88918853,0.30593899,0.43756628,0.84553957,0
-4.1147642,-0.10156071,2.6582303,0.30593899,0.43756628,0.84553957,0
-2.458509,0.53855324,1.9392109,0.30593899,0.43756628,0.84553957,0
4.0813751,-2.1209421,0.93410248,0.30593899,0.43756628,0.84553957,0
-1.9703364,-3.846868,2.2487438,-0.35223913,-0.77307987,0.52751797,0
-0.84982717,1.2756261,-1.6093262,-0.30593899,-0.43756628,-0.84553957,0
-2.9070563,1.6269841,-1.1316415,-0.30593899,-0.43756628,-0.84553957,0
-3.3513153,0.39404356,-0.39418221,-0.30593899,-0.43756628,-0.84553957,0
-3.5612557,-0.72135347,2.9080818,0.30593899,0.43756628,0.84553957,0
2.3368862,-3.4956083,2.0774527,0.30593899,0.43756628,0.84553957,0
4.2584071,-1.0758038,0.36739612,0.30593899,0.43756628,0.84553957,0
-3.3368132,-0.47224462,2.8708832,0.30593899,0.43756628,0.84553957,0
-0.8666842,-4.0569787,2.3013513,-0.2157613,-0.83315015,0.50922304,0
-0.21637022,0.99651903,0.5929305,0.30593899,0.43756628,0.84553957,0
-3.1697569,3.3010459,0.63368672,0.30593899,0.43756628,0.84553957,0
-0.47640085,-0.021712363,-1.1139956,-0.30593899,-0.43756628,-0.84553957,0
-1.3731074,-3.2193131,1.1023545,-0.30593899,-0.43756628,-0.84553957,0
2.2361674,3.491215,-2.0627649,0.45004979,0.71615922,-0.53345215,0
0.94371992,-0.34234422,1.185518,0.30593899,0.43756628,0.84553957,0
-2.3563905,-3.9335761,1.7860754,-0.44827279,-0.71730864,0.53340399,0
4.5270395,-0.1292243,-0.38084531,0.30593899,0.43756628,0.84553957,0
-0.18494642,-3.1623271,0.30617511,-0.30593899,-0.43756628,-0.84553957,0
2.1313841,-3.2671642,-0.26596057,-0.30593899,-0.43756628,-0.84553957,0
-0.4229455,1.9835787,-2.0994024,-0.30593899,-0.43756628,-0.84553957,0
-4.2093282,1.3948691,1.9893944,-0.94750214,0.2266545,0.22553813,0
1.9436479,-3.5119753,2.2525237,0.30593899,0.43756628,0.84553957,0
0.82838154,-1.5494318,1.5277681,0.30593899,0.43756628,0.84553957,0
3.2177382,2.0425363,-1.0117209,0.30593899,0.43756628,0.84553957,0
2.7718534,1.9851012,-0.93677187,0.30593899,0.43756628,0.84553957,0
-0.29415607,3.1602211,-2.7736816,-0.30593899,-0.43756628,-0.84553957,0
-1.0964968,0.79020953,1.3066156,0.30593899,0.43756628,0.84553957,0
0.7663939,-4.3856812,1.4036154,0.16548979,-0.89904541,0.40537691,0
-1.6713327,-2.6431298,0.57212114,-0.30593899,-0.43756628,-0.84553957,0
2.8954558,1.2945513,-2.9540999,-0.30593899,-0.43756628,-0.84553957,0
2.2178667,0.39167997,-2.0094955,-0.30593899,-0.43756628,-0.84553957,0
-0.74872398,2.0047245,-1.7326965,-0.30593899,-0.43756628,-0.84553957,0
1.0607569,-2.9483685,2.1753078,0.30593899,0.43756628,0.84553957,0
-1.8490167,2.1479671,-1.7563897,-0.30593899,-0.43756628,-0.84553957,0
-2.3360338,1.1433301,1.2646931,0.30593899,0.43756628,0.84553957,0
0.1683321,4.1582093,-0.86028504,0.30593899,0.43756628,0.84553957,0
-3.8208752,1.6226718,-0.83072138,-0.30593899,-0.43756628,-0.84553957,0
-3.4144323,-0.14699465,2.5091772,0.30593899,0.43756628,0.84553957,0
-2.4497664,4.1514444,-0.17571843,-0.5689863,0.79609966,-0.20610666,0
-0.92107654,-3.1791131,0.95179033,-0.30593899,-0.43756628,-0.84553957,0
-2.5981288,-1.4989439,0.68851781,-0.30593899,-0.43756628,-0.84553957,0
0.54627645,-2.9623275,-0.026407242,-0.30593899,-0.43756628,-0.84553957,0
-0.19205201,-0.66156715,1.4611003,0.30593899,0.43756628,0.84553957,0
-4.0022926,0.66985679,-0.015620232,-0.30593899,-0.43756628,-0.84553957,0
-0.17576241,1.0081769,-1.6067173,-0.30593899,-0.43756628,-0.84553957,0
2.9551291,0.91557121,-0.32798362,0.30593899,0.43756628,0.84553957,0
4.1547351,-0.49485672,-2.2108965,0.93974394,0.0035483241,-0.34186083,0
1.2556993,1.6409789,-2.3166871,-0.30593899,-0.43756628,-0.84553957,0
3.467396,0.93444932,-0.69587755,0.30593899,0.43756628,0.84553957,0
2.2024333,-2.6337979,1.6576304,0.30593899,0.43756628,0.84553957,0
0.14837003,4.5695691,-1.2032452,0.30593899,0.43756628,0.84553957,0
3.155535,-3.6692595,-0.25670549,-0.30593899,-0.43756628,-0.84553957,0
1.6111901,3.8918335,-2.5032299,0.3453238,0.77664113,-0.52685887,0
1.9108386,-2.8352032,1.7862507,0.30593899,0.43756628,0.84553957,0
3.1908293,2.5070627,-1.4789321,0.30593899,0.43756628,0.84553957,0
0.43875206,2.6398671,-0.40143764,0.30593899,0.43756628,0.84553957,0
-1.3790425,-2.3284092,0.30152547,-0.30593899,-0.43756628,-0.84553957,0
-4.6932206,-0.49021697,0.63752007,-0.93847167,-0.010862559,0.34518558,0
-0.58753943,-3.8668361,2.4591289,-0.12681872,-0.86147928,0.49170151,0
0.81885099,3.8959517,-1.3316314,0.30593899,0.43756628,0.84553957,0
0.38236356,2.0217109,-2.1733894,-0.30593899,-0.43756628,-0.84553957,0
1.0671687,4.0915451,-1.9069083,0.20607883,0.83663219,-0.50752157,0
1.2747976,-1.4174018,-0.7063846,-0.30593899,-0.43756628,-0.84553957,0
2.7471302,3.3319063,-1.4239242,0.30593899,0.43756628,0.84553957,0
3.9270954,-1.5938985,0.50767374,0.30593899,0.43756628,0.84553957,0
0.17196846,3.4393039,-3.0310185,-0.30593899,-0.43756628,-0.84553957,0
0.26744869,-1.0139207,-0.52536106,-0.30593899,-0.43756628,-0.84553957,0
-2.3438301,-0.17783302,1.9783213,0.30593899,0.43756628,0.84553957,0
-0.25055826,-0.4352752,1.2994701,0.30593899,0.43756628,0.84553957,0
2.3731024,-1.376277,-1.386587,-0.30593899,-0.43756628,-0.84553957,0
0.10975945,-2.9927053,0.24904132,-0.30593899,-0.43756628,-0.84553957,0
1.5447432,1.9331793,-2.9531364,-0.30593899,-0.43756628,-0.84553957,0
-4.5283871,0.016865969,0.2597239,-0.30593899,-0.43756628,-0.84553957,0
-1.7987081,1.3819536,-1.3823161,-0.30593899,-0.43756628,-0.84553957,0
-0.29317594,0.53104782,-1.3123509,-0.30593899,-0.43756628,-0.84553957,0
-1.3230294,-2.5536609,0.59225965,-0.30593899,-0.43756628,-0.84553957,0
4.5555282,-0.96231818,-1.5852072,0.95043063,-0.19216818,-0.2444444,0
3.7115939,-1.3969026,0.46818507,0.30593899,0.43756628,0.84553957,0
-2.7935615,-2.2401681,3.1717098,-0.6357767,-0.56717026,0.5235514,0
-3.2152605,-2.6267374,1.2637393,-0.30593899,-0.43756628,-0.84553957,0
1.2560341,2.9013345,-0.91890025,0.30593899,0.43756628,0.84553957,0
4.4813905,-1.7539778,0.34966314,0.87407482,-0.48110837,-0.067290395,0
3.76214,-2.0542655,-1.4751705,-0.30593899,-0.43756628,-0.84553957,0
-0.30766797,4.5917754,-0.97778535,0.30593899,0.43756628,0.84553957,0
2.9289799,-1.1447533,-1.6452513,-0.30593899,-0.43756628,-0.84553957,0
4.5506868,-0.36858273,-0.12092996,0.30593899,0.43756628,0.84553957,0
-2.4412777,0.29016614,-0.57897973,-0.30593899,-0.43756628,-0.84553957,0
-2.3588195,2.6190767,-1.4888335,-0.30593899,-0.43756628,-0.84553957,0
-1.3554485,-2.410352,2.7521336,0.30593899,0.43756628,0.84553957,0
-2.9684708,-3.3498089,2.0785716,-0.5873993,-0.61217844,0.5293389,0
3.2309999,-2.604177,-0.79611659,-0.30593899,-0.43756628,-0.84553957,0
3.57394,0.63203532,-2.7933369,-0.30593899,-0.43756628,-0.84553957,0
0.019895673,-0.67724317,1.5892855,0.30593899,0.43756628,0.84553957,0
3.2745285,-0.014293015,-2.2203658,-0.30593899,-0.43756628,-0.84553957,0
-0.89408076,-1.520946,2.3220804,0.30593899,0.43756628,0.84553957,0
4.5074897,1.2178922,-1.0315421,0.30593899,0.43756628,0.84553957,0
-3.6952276,2.3214281,-1.0161808,-0.30593899,-0.43756628,-0.84553957,0
-1.0645394,4.631434,-0.91301155,0.30593899,0.43756628,0.84553957,0
-2.6413157,-3.5462983,1.6579199,-0.30593899,-0.43756628,-0.84553957,0
2.5685196,-1.8640996,-1.3687203,-0.30593899,-0.43756628,-0.84553957,0
0.3980546,-3.5157666,0.37836778,-0.30593899,-0.43756628,-0.84553957,0
-0.90067172,-1.6647606,-0.13852835,-0.30593899,-0.43756628,-0.84553957,0
-0.14370561,3.9854403,-0.89466667,0.30593899,0.43756628,0.84553957,0
3.3208079,0.8820979,-2.8205957,-0.30593899,-0.43756628,-0.84553957,0
2.3633869,-3.8867583,1.0357752,0.52928358,-0.81639969,0.23097745,0
-4.0956583,2.3765521,-0.30520976,-0.82679164,0.56245017,0.0080877244,0
3.9761789,0.39985585,-2.4964788,0.9068622,0.13643396,-0.39873159,0
-0.070792198,-4.1447959,1.0400631,-0.30593899,-0.43756628,-0.84553957,0
-1.6475801,3.6521401,-2.492188,-0.30593899,-0.43756628,-0.84553957,0
-2.7404101,-0.20440388,2.2099829,0.30593899,0.43756628,0.84553957,0
2.4817069,2.8811116,-1.3533936,0.30593899,0.43756628,0.84553957,0
-0.38786101,3.0771313,-0.22766185,0.30593899,0.43756628,0.84553957,0
-2.9777648,0.44703257,-0.18143559,-0.30593899,-0.43756628,-0.84553957,0
-1.870218,-3.7152877,1.6336396,-0.30593899,-0.43756628,-0.84553957,0
-3.3822694,-0.12895405,0.096626282,-0.30593899,-0.43756628,-0.84553957,0
4.5753813,-1.2704959,-1.1630933,0.94152462,-0.27075922,-0.20055112,0
-4.5863438,-0.21306205,0.75535727,-0.94157022,0.0076426268,0.3367303,0
-0.63564563,2.6688843,-2.2717657,-0.30593899,-0.43756628,-0.84553957,0
0.50266719,3.7537401,-1.0917499,0.30593899,0.43756628,0.84553957,0
-0.29634309,-2.6775014,0.10633957,-0.30593899,-0.43756628,-0.84553957,0
4.3388491,1.5817944,-1.5004025,0.86837482,0.23583141,-0.43624389,0
0.26127374,-1.5011967,-0.70119983,-0.30593899,-0.43756628,-0.84553957,0
0.54419494,-2.5012221,0.14252305,-0.30593899,-0.43756628,-0.84553957,0
-3.7004473,-0.23380446,0.32627654,-0.30593899,-0.43756628,-0.84553957,0
-1.3692349,1.060583,-1.1243838,-0.30593899,-0.43756628,-0.84553957,0
-1.8898306,-2.1922522,3.0391369,0.30593899,0.43756628,0.84553957,0
4.49614,0.50287724,-0.70100212,0.30593899,0.43756628,0.84553957,0
-4.050127,2.3385463,-0.64374661,-0.80976868,0.58665359,-0.010596886,0
2.1392934,2.9821022,-1.3531253,0.30593899,0.43756628,0.84553957,0
4.316494,-1.6381828,-1.1038983,0.93227029,-0.31778908,-0.17286474,0
-3.4169471,-0.61852431,0.26989913,-0.30593899,-0.43756628,-0.84553957,0
-1.9030766,4.0399809,-2.1612651,-0.34792399,0.87808025,-0.32851785,0
3.6202953,-0.90508652,0.1308049,0.30593899,0.43756628,0.84553957,0
-0.076377869,1.0817846,-1.7019215,-0.30593899,-0.43756628,-0.84553957,0
-0.55161476,-1.8768367,2.5862422,0.30593899,0.43756628,0.84553957,0
4.3134136,-0.7860806,-1.0713813,0.9495213,-0.2049389,-0.23750654,0
-1.6066939,0.55497646,-1.0852398,-0.30593899,-0.43756628,-0.84553957,0
3.2788229,-1.694904,-1.6399493,-0.30593899,-0.43756628,-0.84553957,0
1.4724067,4.1201215,-1.6119814,0.30593899,0.43756628,0.84553957,0
0.21535826,-3.359776,2.7654777,0.30593899,0.43756628,0.84553957,0
-0.95569915,1.8111753,0.55919361,0.30593899,0.43756628,0.84553957,0
0.52626276,-2.8760071,0.23686767,-0.30593899,-0.43756628,-0.84553957,0
-0.065650225,-1.3866662,2.0197198,0.30593899,0.43756628,0.84553957,0
-2.8758898,0.12673014,2.0381076,0.30593899,0.43756628,0.84553957,0
2.2629735,-2.7056258,1.5632114,0.30593899,0.43756628,0.84553957,0
-2.9920757,-3.327729,1.569371,-0.30593899,-0.43756628,-0.84553957,0
-4.5052185,-0.61747646,1.1691658,-0.93357152,-0.036254585,0.35655296,0
0.45475459,3.872498,-1.0627913,0.30593899,0.43756628,0.84553957,0
0.29798388,-3.9505072,2.3933311,0.06001848,-0.89522183,0.4415606,0
1.3934751,3.7614274,-1.0735574,0.30593899,0.43756628,0.84553957,0
-1.125253,-3.9824009,1.1664968,-0.30593899,-0.43756628,-0.84553957,0
0.47241521,-4.073072,0.58750403,-0.30593899,-0.43756628,-0.84553957,0
2.3226361,-1.4133404,1.2992363,0.30593899,0.43756628,0.84553957,0
4.1209431,-1.0203688,-1.9292552,0.95180887,-0.12053815,-0.28201157,0
2.5410073,-2.4959917,1.7210926,0.30593899,0.43756628,0.84553957,0
2.498131,-3.7705257,0.57841837,0.58767539,-0.78552604,0.19387259,0
-1.5608187,-1.675952,0.022880077,-0.30593899,-0.43756628,-0.84553957,0
3.34058,1.3694916,-0.87653756,0.30593899,0.43756628,0.84553957,0
-0.98833227,1.0066068,0.83500558,0.30593899,0.43756628,0.84553957,0
-0.85921693,-2.3537114,2.5359707,0.30593899,0.43756628,0.84553957,0
-2.2196248,4.3166633,-0.92392433,-0.45602185,0.8469649,-0.27330297,0
-2.7210741,-1.9854202,0.9410224,-0.30593899,-0.43756628,-0.84553957,0
-3.7152369,-0.041924953,0.3450191,-0.30593899,-0.43756628,-0.84553957,0
-3.2975407,1.2163941,1.5628994,0.30593899,0.43756628,0.84553957,0
3.9443789,-1.5462296,0.40034807,0.30593899,0.43756628,0.84553957,0
-1.7011921,1.8626539,-1.4598845,-0.30593899,-0.43756628,-0.84553957,0
-4.2703061,1.5898856,-0.6257472,-0.30593899,-0.43756628,-0.84553957,0
-4.836606,1.2184234,0.07109499,-0.92647171,0.34132048,0.15858912,0
-3.3605752,-1.7440157,0.88399386,-0.30593899,-0.43756628,-0.84553957,0
-2.8532925,2.5660686,0.99479961,0.30593899,0.43756628,0.84553957,0
2.16574,2.532269,-3.2370095,0.52985722,0.6596145,-0.53306669,0
1.5875225,0.58650994,0.27431375,0.30593899,0.43756628,0.84553957,0
2.5836287,0.05151552,-1.9743825,-0.30593899,-0.43756628,-0.84553957,0
-4.4455004,1.751601,-0.38008952,-0.30593899,-0.43756628,-0.84553957,0
3.198494,-1.4775016,-1.6780555,-0.30593899,-0.43756628,-0.84553957,0
1.7354006,2.5386515,-3.2461205,-0.30593899,-0.43756628,-0.84553957,0
0.20114541,2.7660127,-2.6784143,-0.30593899,-0.43756628,-0.84553957,0
-4.3876925,0.81596601,2.2406962,0.30593899,0.43756628,0.84553957,0
-2.3918545,-2.7207589,1.2731464,-0.30593899,-0.43756628,-0.84553957,0
0.15190673,-1.5545182,2.0756547,0.30593899,0.43756628,0.84553957,0
-1.7301226,-2.8314385,3.2930377,0.30593899,0.43756628,0.84553957,0
-2.0700507,1.1371777,-0.80490142,-0.30593899,-0.43756628,-0.84553957,0
3.9430203,0.37515235,-0.50782323,0.30593899,0.43756628,0.84553957,0
0.094026566,2.5503359,-2.7340193,-0.30593899,-0.43756628,-0.84553957,0
0.015483379,3.0269976,-2.9502983,-0.30593899,-0.43756628,-0.84553957,0
-3.4682071,-2.2676091,2.5316389,-0.69080913,-0.50910503,0.51341486,0
-0.2679677,3.1563163,-0.58306181,0.30593899,0.43756628,0.84553957,0
-2.7360497,-0.67431742,2.5183408,0.30593899,0.43756628,0.84553957,0
-2.2844312,-2.5757141,0.75680208,-0.30593899,-0.43756628,-0.84553957,0
-1.6394951,4.1568866,-1.6629441,-0.33465511,0.8808738,-0.3347646,0
-3.0159771,3.8073294,0.020916186,-0.67230612,0.72812748,-0.13354716,0
1.9668529,-3.1590323,-0.2422754,-0.30593899,-0.43756628,-0.84553957,0
-2.2375402,0.87192243,1.3263304,0.30593899,0.43756628,0.84553957,0
0.63523662,-0.28949112,1.224246,0.30593899,0.43756628,0.84553957,0
-4.6228147,0.82188654,-0.096550226,-0.30593899,-0.43756628,-0.84553957,0
0.17422915,4.8368392,-1.1984541,-0.040005267,0.8932482,-0.44778046,0
1.1694785,-0.91326028,1.3195417,0.30593899,0.43756628,0.84553957,0
-3.1241424,-2.4902506,1.0710979,-0.30593899,-0.43756628,-0.84553957,0
-0.78027499,-1.919028,-0.13699901,-0.30593899,-0.43756628,-0.84553957,0
3.0949955,0.073066473,-0.18827367,0.30593899,0.43756628,0.84553957,0
1.1972895,-3.0094414,2.5022683,0.30593899,0.43756628,0.84553957,0
-2.1436415,0.067579508,1.7647146,0.30593899,0.43756628,0.84553957,0
-0.55188978,-2.3599098,0.080462694,-0.30593899,-0.43756628,-0.84553957,0
3.2035542,1.3982452,-0.52560902,0.30593899,0.43756628,0.84553957,0
1.3390017,-4.5225229,1.4362115,0.27377236,-0.89104593,0.36205769,0
-4.1261826,-1.0939333,2.4489541,-0.85435414,-0.26570618,0.44663101,0
2.8766127,1.1405027,-0.28802848,0.30593899,0.43756628,0.84553957,0
-3.3759446,-2.4624419,2.3062921,-0.66628176,-0.53598356,0.51844984,0
-0.8943733,0.70545256,-1.3862988,-0.30593899,-0.43756628,-0.84553957,0
-1.2152107,-0.069363348,1.7805495,0.30593899,0.43756628,0.84553957,0
2.0693941,3.2392187,-2.9877474,0.44388598,0.72012693,-0.53327525,0
0.2267406,2.1811509,-2.4704964,-0.30593899,-0.43756628,-0.84553957,0
0.36888433,2.2401106,-2.2577269,-0.30593899,-0.43756628,-0.84553957,0
0.14024282,-3.0736501,2.8096075,0.30593899,0.43756628,0.84553957,0
2.4666851,-2.7482195,-0.66836798,-0.30593899,-0.43756628,-0.84553957,0
2.8814843,3.1544447,-2.1162267,0.61015439,0.59164238,-0.52694488,0
-2.2846718,1.6684275,1.100739,0.30593899,0.43756628,0.84553957,0
-0.66876698,-1.9882787,0.0070058107,-0.30593899,-0.43756628,-0.84553957,0
2.5209718,-3.6702905,-0.36568367,-0.30593899,-0.43756628,-0.84553957,0
1.1805936,-2.2001295,-0.35743889,-0.30593899,-0.43756628,-0.84553957,0
3.1729286,2.0452237,-3.05215,0.68849874,0.51171094,-0.51392746,0
-1.0794308,-0.36745268,1.5485437,0.30593899,0.43756628,0.84553957,0
2.3671346,3.2745562,-2.5781457,0.50866961,0.67560685,-0.53367651,0
-1.1529377,-2.9258542,3.259609,0.30593899,0.43756628,0.84553957,0
-4.6897964,0.68629265,-0.065656185,-0.30593899,-0.43756628,-0.84553957,0
-0.16233255,0.73244107,0.70722455,0.30593899,0.43756628,0.84553957,0
-0.91519237,-4.2398462,1.3547132,-0.30593899,-0.43756628,-0.84553957,0
-2.0663137,-0.35739946,1.9049803,0.30593899,0.43756628,0.84553957,0
1.4510046,-0.82177699,1.2461464,0.30593899,0.43756628,0.84553957,0
2.1403079,1.8246568,-2.6694293,-0.30593899,-0.43756628,-0.84553957,0
0.25966311,-3.832418,0.7869513,-0.30593899,-0.43756628,-0.84553957,0
1.5660901,-2.6685905,2.1666763,0.30593899,0.43756628,0.84553957,0
-1.0983235,-2.2423387,2.6339135,0.30593899,0.43756628,0.84553957,0
1.4910009,-2.2050147,-0.4627336,-0.30593899,-0.43756628,-0.84553957,0
0.37463164,-4.6984558,1.3470459,0.14372623,-0.89917266,0.41331735,0
-0.84871477,0.13623419,1.3162737,0.30593899,0.43756628,0.84553957,0
-2.5712032,2.2458274,-1.5207248,-0.30593899,-0.43756628,-0.84553957,0
0.026607275,-0.2546019,1.109762,0.30593899,0.43756628,0.84553957,0
3.5281773,-1.205014,-2.0077853,-0.30593899,-0.43756628,-0.84553957,0
2.6076572,1.2163491,-2.8135583,-0.30593899,-0.43756628,-0.84553957,0
-1.9227154,-1.5760684,2.7179065,0.30593899,0.43756628,0.84553957,0
3.0490165,-3.7859895,-0.066912264,0.6917057,-0.71240878,0.1183935,0
-1.5074066,-1.0493168,2.3010201,0.30593899,0.43756628,0.84553957,0
-0.61237955,-2.3354852,2.5790272,0.30593899,0.43756628,0.84553957,0
0.88751781,1.2014418,0.39927405,0.30593899,0.43756628,0.84553957,0
3.0156813,-3.7593937,-0.51623744,-0.30593899,-0.43756628,-0.84553957,0
-3.2402329,-1.0533229,2.9459062,0.30593899,0.43756628,0.84553957,0
-3.8794785,1.6567054,1.736529,0.30593899,0.43756628,0.84553957,0
2.1183059,-4.376349,0.72507203,0.47117209,-0.8413229,0.26490146,0
0.091060162,-2.0628228,2.3229516,0.30593899,0.43756628,0.84553957,0
0.24550366,-1.7376066,1.8856761,0.30593899,0.43756628,0.84553957,0
-0.52723932,3.1431379,-2.5462551,-0.30593899,-0.43756628,-0.84553957,0
-2.6308236,-0.23485613,2.0503178,0.30593899,0.43756628,0.84553957,0
2.0841873,1.9218303,-2.897244,-0.30593899,-0.43756628,-0.84553957,0
-2.2026846,1.7300998,1.1805795,0.30593899,0.43756628,0.84553957,0
2.771481,0.20770597,-2.4457393,-0.30593899,-0.43756628,-0.84553957,0
3.7619183,2.233882,-1.7772434,0.78234017,0.39056093,-0.48518676,0
4.2234802,1.0087295,-1.9708793,0.89097905,0.1813781,-0.41624326,0
3.5802822,0.43114227,-2.9009218,-0.30593899,-0.43756628,-0.84553957,0
0.68457294,-2.0967231,2.1776738,0.30593899,0.43756628,0.84553957,0
-0.18105626,-4.0085664,0.80505896,-0.30593899,-0.43756628,-0.84553957,0
-3.3679349,-1.621466,3.3048012,-0.73436344,-0.45675361,0.50208217,0
0.73241353,-3.8736935,2.4640493,0.13695681,-0.89911407,0.41573641,0
0.098619312,0.47166437,0.95185995,0.30593899,0.43756628,0.84553957,0
3.6215627,1.4425762,-2.6459804,0.79016042,0.37872094,-0.48188907,0
3.4281867,-0.6507802,0.09436357,0.30593899,0.43756628,0.84553957,0
3.7096128,1.151521,-2.9464152,-0.30593899,-0.43756628,-0.84553957,0
-2.871417,-3.0273538,2.3128507,-0.61217785,-0.58976328,0.52670455,0
4.1989331,-1.796911,-0.43374836,0.90923297,-0.39763698,-0.12320799,0
-1.4661584,3.195914,-2.1937811,-0.30593899,-0.43756628,-0.84553957,0
-4.0619431,-1.1787686,2.5815933,-0.84225416,-0.28965926,0.45464873,0
2.0997353,-0.34581316,0.66339159,0.30593899,0.43756628,0.84553957,0
3.5884535,-1.6843586,0.95027053,0.30593899,0.43756628,0.84553957,0
-3.0401654,0.54848194,-0.41119206,-0.30593899,-0.43756628,-0.84553957,0
-4.4034762,0.99147594,1.3975601,-0.95191532,0.15559232,0.26390958,0
-1.3293197,1.7061739,0.71652907,0.30593899,0.43756628,0.84553957,0
0.66792154,3.8024645,-1.1454897,0.30593899,0.43756628,0.84553957,0
1.8470869,3.1245642,-0.92555308,0.30593899,0.43756628,0.84553957,0
1.5064589,0.79801422,-2.1462202,-0.30593899,-0.43756628,-0.84553957,0
-3.0234866,-2.4433622,1.0944724,-0.30593899,-0.43756628,-0.84553957,0
2.0418162,1.5562923,-2.5662863,-0.30593899,-0.43756628,-0.84553957,0
-0.24108911,-4.4297047,2.1454833,-0.039153516,-0.88159007,0.47038922,0
4.708714,-0.1048162,-0.78444266,0.9513371,-0.10611397,-0.28930539,0
2.6707218,3.2280457,-1.5397086,0.30593899,0.43756628,0.84553957,0
-4.1336017,1.5529327,-0.40290511,-0.30593899,-0.43756628,-0.84553957,0
1.77528,-2.7625675,2.0735292,0.30593899,0.43756628,0.84553957,0
-1.8206908,-1.7171698,0.27319789,-0.30593899,-0.43756628,-0.84553957,0
2.6739478,-0.93848604,-1.7414503,-0.30593899,-0.43756628,-0.84553957,0
0.57010543,-0.27823907,1.0465137,0.30593899,0.43756628,0.84553957,0
1.9088163,3.0335622,-3.0461333,0.48528093,0.69241589,-0.53391266,0
3.0327663,-0.11321008,-2.1897063,-0.30593899,-0.43756628,-0.84553957,0
-2.5600853,-1.4127043,0.56567359,-0.30593899,-0.43756628,-0.84553957,0
-1.7476523,1.1688056,1.0773387,0.30593899,0.43756628,0.84553957,0
0.97704577,3.5059459,-0.9522078,0.30593899,0.43756628,0.84553957,0
0.81389403,-1.1909478,1.2683694,0.30593899,0.43756628,0.84553957,0
2.944237,1.4282306,-0.71657634,0.30593899,0.43756628,0.84553957,0
-0.37824845,3.7844899,-2.8327582,-0.30593899,-0.43756628,-0.84553957,0
4.4119797,0.522228,-1.2055147,0.93075597,0.049325943,-0.36229867,0
-0.64700794,-4.0779724,0.95615292,-0.30593899,-0.43756628,-0.84553957,0
-0.92786825,0.22085585,1.4322435,0.30593899,0.43756628,0.84553957,0
0.012303829,-3.2708364,2.7222409,0.30593899,0.43756628,0.84553957,0
0.62495017,-4.183702,0.56063616,-0.30593899,-0.43756628,-0.84553957,0
-3.6865091,-0.66277254,0.42858911,-0.30593899,-0.43756628,-0.84553957,0
-1.4235523,3.6829238,-0.30177993,0.30593899,0.43756628,0.84553957,0
-1.3337265,1.5603386,-1.5854362,-0.30593899,-0.43756628,-0.84553957,0
-2.5535851,2.2891836,1.0635964,0.30593899,0.43756628,0.84553957,0
4.7451882,-1.6033076,-0.0087480545,0.91613859,-0.37693456,-0.1364201,0
2.0765517,0.058648556,-1.7877693,-0.30593899,-0.43756628,-0.84553957,0
-0.77227253,-2.5705895,0.23581624,-0.30593899,-0.43756628,-0.84553957,0
4.0483904,-2.7232356,-0.39798498,0.84342057,-0.53654927,-0.027508259,0
-0.2392242,-2.8044112,0.47477913,-0.30593899,-0.43756628,-0.84553957,0
4.1806769,0.75927281,-2.2356129,0.88663375,0.19258037,-0.42046815,0
0.67730546,-4.0057197,0.63796771,-0.30593899,-0.43756628,-0.84553957,0
-0.0064022541,-0.42790133,1.3525951,0.30593899,0.43756628,0.84553957,0
-1.2766693,3.4262547,-2.4480686,-0.30593899,-0.43756628,-0.84553957,0
-2.3935966,-3.2201712,2.5663755,-0.52275282,-0.66506034,0.53331441,0
1.4720523,2.3079803,-3.0082495,-0.30593899,-0.43756628,-0.84553957,0
2.451771,-2.8283713,1.7157216,0.30593899,0.43756628,0.84553957,0
-2.1330292,2.3570175,-1.4029018,-0.30593899,-0.43756628,-0.84553957,0
1.9202209,2.2069235,-2.9467838,-0.30593899,-0.43756628,-0.84553957,0
-2.1489389,-0.96919608,0.2343092,-0.30593899,-0.43756628,-0.84553957,0
-2.9238801,0.92923927,-0.56738037,-0.30593899,-0.43756628,-0.84553957,0
-3.5309029,2.5874977,1.2488638,0.30593899,0.43756628,0.84553957,0
1.4158921,-0.33044106,-1.5095947,-0.30593899,-0.43756628,-0.84553957,0
0.34589815,-1.9590063,-0.073159575,-0.30593899,-0.43756628,-0.84553957,0
-2.3775706,-1.4788737,2.9530926,0.30593899,0.43756628,0.84553957,0
2.6543238,-3.3748724,-0.27702269,-0.30593899,-0.43756628,-0.84553957,0
0.77374983,1.73908,0.17486608,0.30593899,0.43756628,0.84553957,0
2.8926821,-3.8382156,0.36725301,0.62822729,-0.76010501,0.16604443,0
1.0711462,-4.085557,0.64333165,-0.30593899,-0.43756628,-0.84553957,0
-0.6750536,2.9418173,-2.4736705,-0.30593899,-0.43756628,-0.84553957,0
4.0061026,-2.1171415,-1.4504964,-0.30593899,-0.43756628,-0.84553957,0
-1.1581849,-1.107765,0.018095613,-0.30593899,-0.43756628,-0.84553957,0
-2.7760282,-3.6997457,1.6639562,-0.50236797,-0.6802212,0.53378433,0
-3.0575824,2.889926,-1.4892286,-0.30593899,-0.43756628,-0.84553957,0
4.2780504,0.19864202,-0.37908912,0.30593899,0.43756628,0.84553957,0
0.92013836,-2.3307469,-0.17542359,-0.30593899,-0.43756628,-0.84553957,0
-3.4753861,3.4371791,-0.071370274,-0.7174952,0.6897307,-0.097326264,0
3.2141743,-3.197217,-0.58758748,-0.30593899,-0.43756628,-0.84553957,0
-2.9733744,1.5113595,-0.66956365,-0.30593899,-0.43756628,-0.84553957,0
4.7427468,0.89015985,-1.2489412,0.92101192,0.088902503,-0.37925386,0
-0.15375423,4.3526788,-0.93879879,0.30593899,0.43756628,0.84553957,0
-0.42601633,-4.2055693,1.1580629,-0.30593899,-0.43756628,-0.84553957,0
-3.9721403,-1.5766914,0.96857834,-0.30593899,-0.43756628,-0.84553957,0
0.81626725,-3.0295448,2.4443274,0.30593899,0.43756628,0.84553957,0
0.86131752,1.0792695,-2.2475793,-0.30593899,-0.43756628,-0.84553957,0
-2.4543707,0.64280331,1.506891,0.30593899,0.43756628,0.84553957,0
-0.99296874,-0.4972856,-0.71148729,-0.30593899,-0.43756628,-0.84553957,0
3.5885618,1.2147957,-0.84751201,0.30593899,0.43756628,0.84553957,0
-2.174552,-1.7557566,0.59295821,-0.30593899,-0.43756628,-0.84553957,0
-4.2217426,0.96063864,0.0097444057,-0.30593899,-0.43756628,-0.84553957,0
