-3.121846,-2.1330678,3.2010484,-0.7202841,-0.47558165,0.50498784,0
0.91398668,3.5288405,-3.4039536,-0.42350408,-0.275078,-0.86312002,0
-4.5847001,-2.0724354,1.3507528,-0.7881608,-0.3578245,0.5007633,0
1.3294837,-2.0731883,-1.9265914,-0.42350408,-0.275078,-0.86312002,0
0.084050655,5.0129366,-0.050460577,0.42350408,0.275078,0.86312002,0
2.2523167,-0.50504649,0.99844766,0.42350408,0.275078,0.86312002,0
-1.3813748,-3.5960245,3.2356725,-0.40018243,-0.79796678,0.45066944,0
-1.8381853,-4.5949965,1.1353847,-0.30212957,-0.85534096,0.42084348,0
1.8372877,2.8019686,-0.16670614,0.42350408,0.275078,0.86312002,0
2.14256,-1.2644391,-2.3578255,-0.42350408,-0.275078,-0.86312002,0
-0.51775801,0.53412974,-1.5942407,-0.42350408,-0.275078,-0.86312002,0
1.7966856,-0.29123259,-2.5047507,-0.42350408,-0.275078,-0.86312002,0
-2.2851551,0.22718287,2.8185873,0.42350408,0.275078,0.86312002,0
-2.7714798,-0.47131783,-0.13000822,-0.42350408,-0.275078,-0.86312002,0
-2.8446019,-2.0815532,3.7388339,0.42350408,0.275078,0.86312002,0
-3.3838441,2.8631482,-1.2001519,-0.42350408,-0.275078,-0.86312002,0
-0.017317533,5.094316,-0.15587211,-0.11581784,0.96140468,-0.24957341,0
-2.0387547,4.5883255,0.79482937,-0.48280513,0.87472558,-0.041880369,0
-3.5684462,-2.9316933,0.85207188,-0.42350408,-0.275078,-0.86312002,0
-2.253747,2.2093458,2.0732739,0.42350408,0.275078,0.86312002,0
-3.9508462,0.34899569,3.6304915,-0.89204812,-0.039312482,0.45022696,0
4.5283275,-1.1113956,-1.6610146,0.89913964,-0.24377176,-0.36348706,0
3.5294142,-2.9668536,-1.8114367,0.81048846,-0.54066342,-0.2253691,0
-0.5458045,3.5872381,-2.7215631,-0.42350408,-0.275078,-0.86312002,0
4.5243835,0.54497129,-0.74067426,0.42350408,0.275078,0.86312002,0
1.8550107,-4.7556391,-0.94865847,0.46966654,-0.8814007,0.050454378,0
-0.20170927,2.731971,-2.5845699,-0.42350408,-0.275078,-0.86312002,0
-5.257247,0.81571233,0.72438574,-0.89957309,0.24005881,0.36488301,0
-1.4310684,-0.83708525,2.8245833,0.42350408,0.275078,0.86312002,0
2.7533925,4.2049527,-1.0882381,0.42350408,0.275078,0.86312002,0
1.7170918,-2.5906503,-1.6274669,-0.42350408,-0.275078,-0.86312002,0
1.5075415,2.0986588,0.51722431,0.42350408,0.275078,0.86312002,0
-0.072098494,-5.1366601,-0.20289493,-0.42350408,-0.275078,-0.86312002,0
-2.8760016,2.6599941,2.2963951,0.42350408,0.275078,0.86312002,0
-4.1639977,-0.62447858,2.7327158,-0.86999947,-0.14204302,0.47214881,0
2.2138491,-4.2732401,1.8072128,0.36110315,-0.92507529,0.11764193,0
3.8064318,-0.29198861,-3.3392572,0.89594746,0.013617426,-0.44395113,0
5.121376,-0.66426253,-0.98288202,0.90488094,-0.17350364,-0.3886987,0
-0.14281797,3.8821011,-2.9956236,-0.42350408,-0.275078,-0.86312002,0
-1.2432809,-2.5999854,-0.28840679,-0.42350408,-0.275078,-0.86312002,0
-0.55217803,-2.0369215,-0.86132473,-0.42350408,-0.275078,-0.86312002,0
1.8100357,3.7664592,-2.9676118,0.41469425,0.78822029,-0.45468363,0
-0.4002099,4.9895697,-0.76359725,-0.09071821,0.96087092,-0.26171887,0
-3.4910316,1.0486386,2.9705167,0.42350408,0.275078,0.86312002,0
-3.7767167,0.16028285,3.5028715,-0.89679354,-0.0074071288,0.44238704,0
1.876431,0.28352213,-2.5790148,-0.42350408,-0.275078,-0.86312002,0
0.15309584,-4.0546813,-0.3087213,-0.42350408,-0.275078,-0.86312002,0
-1.8009174,-4.5668287,0.67664182,-0.42350408,-0.275078,-0.86312002,0
-2.2509596,-0.63227201,3.0757761,0.42350408,0.275078,0.86312002,0
-5.2820544,0.11655903,0.69137001,-0.90536946,0.096103132,0.41360611,0
2.6988912,-4.2471409,1.5402565,0.42513263,-0.90169644,0.078773975,0
0.54189789,-1.2539858,-1.5397643,-0.42350408,-0.275078,-0.86312002,0
-2.8846929,-1.6591797,3.9126992,0.42350408,0.275078,0.86312002,0
3.6800687,3.2028084,-1.2317462,0.42350408,0.275078,0.86312002,0
-2.2704928,4.0500107,1.4379683,0.42350408,0.275078,0.86312002,0
4.5633845,-2.6540108,-0.12800026,0.79889071,-0.56261873,-0.21268117,0
1.3488686,1.1146595,0.79511505,0.42350408,0.275078,0.86312002,0
1.8937881,-0.49257612,-2.5828347,-0.42350408,-0.275078,-0.86312002,0
2.4161417,1.0286025,0.34404254,0.42350408,0.275078,0.86312002,0
-0.91019523,-0.012758017,2.2254834,0.42350408,0.275078,0.86312002,0
-3.7363877,-2.5066803,0.99532735,-0.42350408,-0.275078,-0.86312002,0
-2.1782384,-4.4338288,0.8197906,-0.42350408,-0.275078,-0.86312002,0
-3.3080974,-1.0606818,0.0020184517,-0.42350408,-0.275078,-0.86312002,0
-2.309,-3.0383415,3.133786,-0.54693758,-0.68188816,0.48568279,0
-2.8594644,-4.1148596,0.96688879,-0.42350408,-0.275078,-0.86312002,0
-1.2617328,4.8143826,0.88427353,0.42350408,0.275078,0.86312002,0
-0.62581873,-2.0548327,-0.84818047,-0.42350408,-0.275078,-0.86312002,0
-3.9319339,-2.8475378,1.7560465,-0.70897031,-0.49246392,0.50481689,0
4.4465275,0.19708198,-0.52235818,0.42350408,0.275078,0.86312002,0
-0.058035672,-2.198401,-0.92581856,-0.42350408,-0.275078,-0.86312002,0
3.3490853,-3.1834292,-1.4777007,0.76296449,-0.62198192,-0.17613423,0
0.11079359,4.1399765,0.15833831,0.42350408,0.275078,0.86312002,0
-1.84771,4.5348077,0.81585264,-0.46986985,0.88129997,-0.050322413,0
-3.7631431,2.3405724,-0.4200964,-0.42350408,-0.275078,-0.86312002,0
-1.5252835,1.6126902,-1.3081582,-0.42350408,-0.275078,-0.86312002,0
-2.0650258,2.2740374,-1.3501735,-0.42350408,-0.275078,-0.86312002,0
-3.863178,3.3593888,-0.84135199,-0.66533625,0.74106467,0.09027946,0
1.2815666,5.032814,-0.96310568,0.14214945,0.92080021,-0.36320862,0
-0.073370337,-2.4639058,-0.68757033,-0.42350408,-0.275078,-0.86312002,0
-0.45191336,-2.9289396,2.7488708,0.42350408,0.275078,0.86312002,0
2.4353938,-3.553812,-2.0107226,-0.42350408,-0.275078,-0.86312002,0
4.5138469,0.33534187,-0.50314116,0.42350408,0.275078,0.86312002,0
-1.851472,-2.9526281,0.18105495,-0.42350408,-0.275078,-0.86312002,0
-2.723485,-1.6838214,0.32957339,-0.42350408,-0.275078,-0.86312002,0
4.3216724,-1.7095968,-0.0051670074,0.42350408,0.275078,0.86312002,0
-3.5141761,-0.75429296,3.7724426,0.42350408,0.275078,0.86312002,0
-2.1290033,0.43252659,-0.60001826,-0.42350408,-0.275078,-0.86312002,0
-3.4321213,0.56889689,-0.32505012,-0.42350408,-0.275078,-0.86312002,0
-3.7349989,-2.9604924,1.0190058,-0.42350408,-0.275078,-0.86312002,0
2.0127227,-4.1510649,2.1388001,0.42350408,0.275078,0.86312002,0
-2.4155021,2.1175463,2.443233,0.42350408,0.275078,0.86312002,0
-3.4059021,0.41182303,3.3219607,0.42350408,0.275078,0.86312002,0
3.2528028,-3.7916787,-1.0005116,0.66795629,-0.73844165,-0.092401028,0
0.6037271,-1.1188562,1.6552668,0.42350408,0.275078,0.86312002,0
-0.41163495,-1.2954644,-1.2873069,-0.42350408,-0.275078,-0.86312002,0
1.857561,-1.4250131,-2.2066159,-0.42350408,-0.275078,-0.86312002,0
2.0002017,0.76185781,0.52422667,0.42350408,0.275078,0.86312002,0
3.7259376,-0.036694199,-0.18848491,0.42350408,0.275078,0.86312002,0
-1.930333,4.045579,1.47613,0.42350408,0.275078,0.86312002,0
-0.82065338,-0.4196682,-1.3979014,-0.42350408,-0.275078,-0.86312002,0
-4.1549692,-1.0720105,2.5332632,-0.85629308,-0.18939084,0.48051336,0
3.5412834,0.24419798,-0.058417559,0.42350408,0.275078,0.86312002,0
3.5352747,-1.9086981,-2.7258074,-0.42350408,-0.275078,-0.86312002,0
3.1243658,2.2785287,-2.9941351,0.69522631,0.51214737,-0.50434637,0
-0.97598076,-1.7054391,2.9838545,0.42350408,0.275078,0.86312002,0
3.6063895,-1.123965,0.49987173,0.42350408,0.275078,0.86312002,0
-2.1768999,4.4939537,-0.17907619,-0.44872254,0.89138258,-0.063912153,0
4.1613021,-0.077108383,-2.6937935,0.89902037,-0.010473877,-0.43778092,0
-3.3246944,2.2071095,2.7964642,0.42350408,0.275078,0.86312002,0
-1.5593457,-2.0987701,-0.086327627,-0.42350408,-0.275078,-0.86312002,0
-0.29982835,0.014486194,-1.4705125,-0.42350408,-0.275078,-0.86312002,0
-1.624933,4.4809527,-1.6364603,-0.26116383,0.94940329,-0.17443216,0
-4.656446,1.5532929,0.80741787,-0.87688494,0.36366445,0.3143574,0
-3.433593,-3.5352035,1.4303793,-0.58503145,-0.64440155,0.49242711,0
-1.6887571,2.4679923,1.6239073,0.42350408,0.275078,0.86312002,0
-2.3863935,-2.965826,3.1704199,-0.5640043,-0.66553056,0.48884356,0
-3.9007735,1.7402132,3.1789231,0.42350408,0.275078,0.86312002,0
0.99214697,-3.9797893,2.7355771,0.42350408,0.275078,0.86312002,0
0.71100718,0.24267292,1.4475608,0.42350408,0.275078,0.86312002,0
0.07232821,-0.44775641,-1.8163421,-0.42350408,-0.275078,-0.86312002,0
1.1649871,-4.2644472,-0.97253299,-0.42350408,-0.275078,-0.86312002,0
2.9302547,-3.4325285,1.5143108,0.42350408,0.275078,0.86312002,0
-4.6882863,-1.6109333,1.6927018,-0.83993673,-0.2376669,0.48787349,0
-2.8584521,-1.3018825,0.14725351,-0.42350408,-0.275078,-0.86312002,0
0.088920832,0.91483021,-2.1157653,-0.42350408,-0.275078,-0.86312002,0
-1.6646553,4.5421076,1.2671313,0.42350408,0.275078,0.86312002,0
4.0309725,-3.0879824,-0.90257788,0.78097332,-0.59367257,-0.19399285,0
-0.61468029,-4.9748611,0.1018579,-0.42350408,-0.275078,-0.86312002,0
4.1752634,-2.0155056,0.4388423,0.42350408,0.275078,0.86312002,0
1.7120132,4.4999328,-0.71213937,0.42350408,0.275078,0.86312002,0
-4.2234712,-0.74613553,0.34543538,-0.42350408,-0.275078,-0.86312002,0
-3.237124,1.3702201,-0.81478333,-0.42350408,-0.275078,-0.86312002,0
1.5076642,2.9386849,-3.2645319,-0.42350408,-0.275078,-0.86312002,0
-4.1438684,0.6197238,2.9050705,-0.90384704,0.064292282,0.4229973,0
3.031713,-3.9840217,1.5979199,0.48027039,-0.87603879,0.043542624,0
1.768463,3.1405923,-0.11122626,0.42350408,0.275078,0.86312002,0
3.4451454,-1.7768738,-2.6749821,-0.42350408,-0.275078,-0.86312002,0
4.3922548,1.1638765,-2.0393291,0.85931516,0.17959863,-0.47887534,0
1.4149781,-2.2904971,1.9103057,0.42350408,0.275078,0.86312002,0
-2.965487,3.9042397,1.4158506,-0.706599,0.69653654,0.12471688,0
-3.2159226,1.189229,-0.52283096,-0.42350408,-0.275078,-0.86312002,0
0.9836598,-3.4207497,-1.2426257,-0.42350408,-0.275078,-0.86312002,0
-1.6678679,-0.74353337,2.7343278,0.42350408,0.275078,0.86312002,0
-0.41242647,-3.0927086,2.8377042,0.42350408,0.275078,0.86312002,0
4.5423937,0.99922085,-2.2575912,0.85749757,0.18552607,-0.47987264,0
3.5480032,-1.779855,0.60958672,0.42350408,0.275078,0.86312002,0
-0.39861366,1.3775547,1.3763517,0.42350408,0.275078,0.86312002,0
-0.43081379,-1.6251284,2.5831487,0.42350408,0.275078,0.86312002,0
-1.6760629,0.10891008,2.6302767,0.42350408,0.275078,0.86312002,0
4.4478149,-2.5882604,0.088581085,0.77025187,-0.61084139,-0.18326044,0
0.09637332,-5.0938549,0.00058269501,-0.42350408,-0.275078,-0.86312002,0
1.2605805,4.5699496,-1.8964005,0.2595005,0.87601602,-0.40651602,0
1.2093058,4.4829655,-0.41462326,0.42350408,0.275078,0.86312002,0
1.9991481,0.74790049,-2.7969368,-0.42350408,-0.275078,-0.86312002,0
1.5969396,-3.7921362,2.2265458,0.42350408,0.275078,0.86312002,0
-4.091939,-0.4951306,0.65100813,-0.42350408,-0.275078,-0.86312002,0
3.3999491,-1.1547464,0.33791685,0.42350408,0.275078,0.86312002,0
-4.2877178,-0.86505568,2.2880321,-0.86446869,-0.16210866,0.47582993,0
-2.541302,-3.847852,2.1860118,-0.49721879,-0.72585386,0.47529936,0
3.8088231,-3.356884,-0.76617527,0.73900187,-0.65597278,-0.15354371,0
3.9625208,-3.2623024,-0.16884041,0.73082387,-0.66674727,-0.14609718,0
4.8762317,0.46964192,-1.4076359,0.89757174,0.0014355183,-0.44086576,0
-3.1484947,3.6984551,1.7341518,-0.74591529,0.64655203,0.15993834,0
4.3130999,-0.4854846,-2.2717941,0.90551472,-0.10097352,-0.41212511,0
0.24091792,-2.6846797,2.2999587,0.42350408,0.275078,0.86312002,0
3.0495934,2.457911,-0.36849332,0.42350408,0.275078,0.86312002,0
-1.9564476,-3.2119081,3.847858,0.42350408,0.275078,0.86312002,0
2.7934465,-0.38312966,0.31391144,0.42350408,0.275078,0.86312002,0
2.7129097,-1.6959809,1.0945706,0.42350408,0.275078,0.86312002,0
-2.128808,4.5880456,-1.3416452,-0.3395488,0.93152308,-0.13027281,0
4.2148733,1.8271596,-1.9978508,0.8190003,0.29092202,-0.49457318,0
1.2026081,4.8332806,-0.64046121,0.15523553,0.9166522,-0.36830744,0
0.85816294,2.9093583,0.52039468,0.42350408,0.275078,0.86312002,0
-3.1875038,2.3572397,-0.93129206,-0.42350408,-0.275078,-0.86312002,0
-2.5880961,-4.3180652,1.3006872,-0.38655943,-0.80680782,0.44680277,0
2.9780364,0.208812,-3.095865,-0.42350408,-0.275078,-0.86312002,0
0.84684443,0.031384945,1.4011252,0.42350408,0.275078,0.86312002,0
0.17673278,0.85761058,-2.1014719,-0.42350408,-0.275078,-0.86312002,0
3.2536814,-3.4527612,-1.8268933,0.77446294,-0.604213,-0.1874392,0
2.1087854,-3.828099,-1.6487494,-0.42350408,-0.275078,-0.86312002,0
-1.2259102,4.3990121,-2.461796,-0.098812521,0.9611246,-0.257828,0
3.0779908,-3.7490003,0.055840492,0.61903679,-0.78350043,-0.054037571,0
4.4365811,2.5105529,-1.3290083,0.74473071,0.43674737,-0.50460643,0
2.8634012,0.88600528,0.21022534,0.42350408,0.275078,0.86312002,0
3.9842548,2.4929976,-0.8037765,0.42350408,0.275078,0.86312002,0
1.4579558,5.05828,-0.59906816,0.13406122,0.92326057,-0.36002403,0
0.78175259,-2.326865,-1.4119036,-0.42350408,-0.275078,-0.86312002,0
-2.9344571,-1.8415725,0.21893895,-0.42350408,-0.275078,-0.86312002,0
5.2133656,-0.26743883,-0.71100855,0.90561509,-0.10491544,-0.41091806,0
-3.9229059,-2.1497803,2.0915434,-0.76906002,-0.39434433,0.50302994,0
-1.8258859,4.3901739,-1.0241957,-0.34213775,0.93078482,-0.12876725,0
1.7940443,0.50693941,0.90045029,0.42350408,0.275078,0.86312002,0
-1.3531348,0.15504491,-0.91911483,-0.42350408,-0.275078,-0.86312002,0
0.23157072,-4.612627,1.7015898,-0.002412796,-0.95243645,0.30472702,0
-0.12656641,2.1178217,-2.5761881,-0.42350408,-0.275078,-0.86312002,0
0.93729317,-0.25882602,-2.1800079,-0.42350408,-0.275078,-0.86312002,0
-1.2066749,3.2193508,1.252254,0.42350408,0.275078,0.86312002,0
-1.5045764,-0.16801411,-0.93125677,-0.42350408,-0.275078,-0.86312002,0
-0.20329106,0.12867451,1.607965,0.42350408,0.275078,0.86312002,0
-2.0528197,-3.8435216,2.045819,-0.43843341,-0.77152181,0.4610098,0
-0.8963092,2.2039654,1.5408865,0.42350408,0.275078,0.86312002,0
2.9377904,2.2944751,-0.47651255,0.42350408,0.275078,0.86312002,0
3.0047979,1.7751473,-0.39797544,0.42350408,0.275078,0.86312002,0
-4.1421962,-1.0878804,0.63844347,-0.42350408,-0.275078,-0.86312002,0
-3.1346672,2.571723,2.5171418,0.42350408,0.275078,0.86312002,0
0.467219,-1.0821755,1.701997,0.42350408,0.275078,0.86312002,0
-3.8089619,-1.8380464,0.70730305,-0.42350408,-0.275078,-0.86312002,0
2.7217357,-1.4548609,0.75139618,0.42350408,0.275078,0.86312002,0
-4.4835391,-1.156965,2.1717951,-0.84847552,-0.21336544,0.48431835,0
4.2409773,1.9713964,-1.6323065,0.77821755,0.37723157,-0.50206941,0
-0.49085802,-2.5486448,-0.76747441,-0.42350408,-0.275078,-0.86312002,0
-1.2071171,-1.0728306,2.6003814,0.42350408,0.275078,0.86312002,0
1.8595092,-3.3772523,1.9904199,0.42350408,0.275078,0.86312002,0
1.7880237,-1.9070934,1.3274868,0.42350408,0.275078,0.86312002,0
-3.364305,3.4087751,0.51336336,-0.70048511,0.70359635,0.11946714,0
-3.8939342,3.3457565,0.28639555,-0.71321666,0.68869501,0.130463,0
2.8715436,3.4941471,-2.0079935,0.55899423,0.67040378,-0.48793846,0
-3.8263898,2.3228719,2.9849732,-0.87589282,0.36751142,0.31264448,0
-2.3931799,-1.4828919,-0.16850543,-0.42350408,-0.275078,-0.86312002,0
-1.3112164,-4.2789764,0.12918329,-0.42350408,-0.275078,-0.86312002,0
3.5791483,0.10375619,-3.5286126,-0.42350408,-0.275078,-0.86312002,0
-4.3423257,0.25141644,0.33696079,-0.42350408,-0.275078,-0.86312002,0
-1.1093718,-0.022650003,2.4513261,0.42350408,0.275078,0.86312002,0
-3.9448397,-1.3632822,0.42721057,-0.42350408,-0.275078,-0.86312002,0
2.2187474,-0.43716329,0.82986236,0.42350408,0.275078,0.86312002,0
-3.9439774,1.1671236,-0.051594734,-0.42350408,-0.275078,-0.86312002,0
-4.01966,1.5594583,2.5517802,-0.8968426,0.2616649,0.35665727,0
2.0619268,-3.4112034,1.7082245,0.42350408,0.275078,0.86312002,0
-3.0973337,-1.9952593,3.2868705,-0.71313137,-0.48632908,0.50490344,0
-2.769351,3.988255,1.7928672,0.42350408,0.275078,0.86312002,0
4.3875084,-2.3943801,-0.84434032,0.81588292,-0.52987051,-0.23145556,0
4.3189883,-0.4556534,-0.16714716,0.42350408,0.275078,0.86312002,0
3.8868637,-1.4968717,-3.1679897,0.90056586,-0.23102885,-0.36824799,0
-1.6664104,-2.5213754,-0.16766366,-0.42350408,-0.275078,-0.86312002,0
-0.92742825,-2.6184964,2.9450903,0.42350408,0.275078,0.86312002,0
3.436456,-3.624496,0.98500586,0.42350408,0.275078,0.86312002,0
0.40960646,3.4375389,0.3362112,0.42350408,0.275078,0.86312002,0
0.85798216,-2.7290483,2.1391726,0.42350408,0.275078,0.86312002,0
-3.1360986,-0.88133425,0.29694343,-0.42350408,-0.275078,-0.86312002,0
4.8364353,-1.2748985,-1.0327892,0.89551461,-0.27094167,-0.35304934,0
2.8594706,-3.8796456,-0.74709272,0.61954856,-0.78306884,-0.054426074,0
-0.80448854,3.2228761,1.3055532,0.42350408,0.275078,0.86312002,0
1.4740839,-4.4744048,-1.0009379,-0.42350408,-0.275078,-0.86312002,0
-1.8104424,-4.7427683,0.78271234,-0.22899008,-0.88933337,0.39578983,0
3.6623096,0.61670756,-3.2905953,0.85259002,0.20097563,-0.48238844,0
4.3231044,-0.45417237,-2.3939047,0.90235645,-0.043976218,-0.42874062,0
2.0287142,3.678757,-0.33218372,0.42350408,0.275078,0.86312002,0
-3.8395076,3.5615368,0.31534481,-0.71495157,0.68660378,0.13198078,0
-1.1581519,4.0506792,0.82131696,0.42350408,0.275078,0.86312002,0
1.670167,-0.99762583,1.2537806,0.42350408,0.275078,0.86312002,0
2.5044878,2.9159741,-3.2492778,0.55451947,0.6747058,-0.48711398,0
-0.99765837,-3.5387886,-0.045781136,-0.42350408,-0.275078,-0.86312002,0
0.98392296,-4.8987103,0.08306551,0.29465979,-0.94280046,0.15589249,0
3.759151,-0.3803477,0.067094088,0.42350408,0.275078,0.86312002,0
-3.163048,2.7050133,2.2337227,0.42350408,0.275078,0.86312002,0
-3.4263363,-1.6536348,3.4634449,-0.77952522,-0.37473011,0.50191391,0
1.9046628,-4.0740457,-1.2364469,-0.42350408,-0.275078,-0.86312002,0
-0.64900279,3.5401409,-2.3944476,-0.42350408,-0.275078,-0.86312002,0
-0.87667292,-1.9234538,-0.59197086,-0.42350408,-0.275078,-0.86312002,0
-1.858353,-0.0081174374,2.6106725,0.42350408,0.275078,0.86312002,0
4.1555233,-2.2966626,0.30181265,0.42350408,0.275078,0.86312002,0
-1.0384822,1.5071123,-1.8956802,-0.42350408,-0.275078,-0.86312002,0
-1.6704307,-0.52813792,2.8978982,0.42350408,0.275078,0.86312002,0
3.8156056,-2.49122,-1.9629459,0.84005845,-0.47583735,-0.26053822,0
1.5924468,1.3229201,-2.9964871,-0.42350408,-0.275078,-0.86312002,0
2.0898857,4.4698739,-0.90147018,0.33830106,0.83582675,-0.43237233,0
-0.8578701,3.8803439,-2.6326089,-0.42350408,-0.275078,-0.86312002,0
-1.501101,3.8106751,-2.0457249,-0.42350408,-0.275078,-0.86312002,0
4.7447433,-1.6839935,-0.93360186,0.867755,-0.39673319,-0.29933858,0
-2.1476643,2.0222616,2.1429493,0.42350408,0.275078,0.86312002,0
-0.0068532228,-0.18049586,-1.6064675,-0.42350408,-0.275078,-0.86312002,0
-2.2251079,-4.1228642,1.4973023,-0.3865121,-0.80683815,0.44678909,0
0.88978732,-1.259831,-1.5489162,-0.42350408,-0.275078,-0.86312002,0
1.8611612,-2.1625609,-1.7434809,-0.42350408,-0.275078,-0.86312002,0
-3.742414,-1.321589,3.2327013,-0.82293797,-0.28148389,0.49349731,0
3.7362609,0.99899131,-0.63294888,0.42350408,0.275078,0.86312002,0
-3.3296118,2.2556148,2.5348756,0.42350408,0.275078,0.86312002,0
-3.0321455,3.9251595,-1.2235746,-0.53449386,0.84514236,-0.0070902109,0
-0.77850652,4.5030265,-2.6125112,-0.085573852,0.96066964,-0.26417887,0
-3.0540195,0.9465487,3.1634047,0.42350408,0.275078,0.86312002,0
1.1701388,-4.0267401,2.2231815,0.42350408,0.275078,0.86312002,0
2.4182482,1.1850882,-3.4668531,-0.42350408,-0.275078,-0.86312002,0
-1.7123599,0.29285896,-0.77112257,-0.42350408,-0.275078,-0.86312002,0
-1.071116,-2.0078709,2.7884679,0.42350408,0.275078,0.86312002,0
-1.6593771,1.5927488,-1.4336903,-0.42350408,-0.275078,-0.86312002,0
-4.4864144,-0.85122228,0.76696992,-0.42350408,-0.275078,-0.86312002,0
0.33784866,1.7159402,0.81044078,0.42350408,0.275078,0.86312002,0
-4.7156854,0.21732986,1.8054926,-0.90381002,0.063712239,0.42316395,0
-0.7575497,0.32062125,-1.4114294,-0.42350408,-0.275078,-0.86312002,0
-2.458756,3.9409857,-1.9417977,-0.42350408,-0.275078,-0.86312002,0
-1.7421513,-2.5028739,3.3057427,0.42350408,0.275078,0.86312002,0
3.3576064,-3.7548711,-1.046803,0.67973977,-0.72631943,-0.10204613,0
3.2887785,-3.6700435,-1.3210812,0.73228544,-0.6648497,-0.1474191,0
0.57523638,-0.89728534,-1.916931,-0.42350408,-0.275078,-0.86312002,0
2.7521133,-2.9519262,1.3523059,0.42350408,0.275078,0.86312002,0
-4.7589345,-1.5774336,1.0272276,-0.42350408,-0.275078,-0.86312002,0
-1.3617706,2.7702885,1.4250066,0.42350408,0.275078,0.86312002,0
2.537329,3.889962,-1.753432,0.45027977,0.76282644,-0.46405122,0
-1.2422307,-4.7033429,1.7044106,-0.21249396,-0.89603448,0.38983124,0
0.84071779,0.57980442,-2.1520669,-0.42350408,-0.275078,-0.86312002,0
3.3253965,-0.7191155,-3.1672437,-0.42350408,-0.275078,-0.86312002,0
-4.9056053,0.61278033,0.97940922,-0.90545303,0.15826058,0.39383739,0
0.85797548,4.3557291,-1.888714,0.17046678,0.91156244,-0.37415886,0
-1.8473537,4.3964896,-1.9316521,-0.30084625,0.94141412,-0.15241522,0
-1.3740603,-0.21409607,-0.83359343,-0.42350408,-0.275078,-0.86312002,0
3.9452953,-0.10971141,-3.0102062,0.89569581,0.015412897,-0.44439983,0
-0.92730045,-0.6747036,2.2316725,0.42350408,0.275078,0.86312002,0
0.56740332,4.9672961,-0.62862706,0.041003525,0.94598508,-0.3216061,0
4.2583942,-0.73474264,-2.6768875,0.9040485,-0.067548722,-0.42205822,0
3.065392,-0.029716969,-3.3992579,-0.42350408,-0.275078,-0.86312002,0
-1.8509786,-0.075817347,2.4768722,0.42350408,0.275078,0.86312002,0
3.5216532,-3.3484797,-0.68512344,0.74363989,-0.64968538,-0.1578232,0
2.6260943,-3.6567144,-1.7403402,-0.42350408,-0.275078,-0.86312002,0
1.4667566,-2.6375554,-1.4044919,-0.42350408,-0.275078,-0.86312002,0
2.3560946,3.447876,-2.6525657,0.51145202,0.71379983,-0.47844154,0
-0.31308317,-2.6178205,-0.57174027,-0.42350408,-0.275078,-0.86312002,0
0.60388994,3.7960062,-3.3090167,-0.42350408,-0.275078,-0.86312002,0
-0.86937952,0.28062594,1.8687004,0.42350408,0.275078,0.86312002,0
-0.2457037,-0.15741944,-1.7479115,-0.42350408,-0.275078,-0.86312002,0
0.68928528,3.4405241,-3.3105576,-0.42350408,-0.275078,-0.86312002,0
0.2220546,-0.51069069,1.572156,0.42350408,0.275078,0.86312002,0
-1.9898837,2.8234191,1.841743,0.42350408,0.275078,0.86312002,0
-4.2846732,-0.33351654,0.62286949,-0.42350408,-0.275078,-0.86312002,0
-4.8870897,-0.27440619,1.2795441,-0.89422607,-0.025486469,0.44688916,0
-1.6372662,3.7746143,-2.1038797,-0.42350408,-0.275078,-0.86312002,0
-4.5233712,0.11628938,2.2684464,-0.89647114,-0.0098046958,0.44299299,0
3.4727447,-0.40445065,0.09880352,0.42350408,0.275078,0.86312002,0
1.7376888,-3.4415753,1.9517536,0.42350408,0.275078,0.86312002,0
-0.91874295,-0.14985263,-1.1362468,-0.42350408,-0.275078,-0.86312002,0
0.75999475,-3.3049972,2.5825009,0.42350408,0.275078,0.86312002,0
-5.0528784,-0.45145017,0.81130028,-0.42350408,-0.275078,-0.86312002,0
-2.0264125,-2.9661975,0.07555306,-0.42350408,-0.275078,-0.86312002,0
1.2484062,-4.5166464,1.4006953,0.21648699,-0.95590794,0.1984266,0
-0.33506298,-1.387175,2.4093652,0.42350408,0.275078,0.86312002,0
-1.4397026,0.48721546,-1.1389613,-0.42350408,-0.275078,-0.86312002,0
2.1111319,4.1653347,-2.1791565,0.38123047,0.81018656,-0.44526476,0
-4.4126582,2.5580554,0.81843805,-0.8117106,0.53825241,0.22673714,0
4.8114614,0.28716445,-0.81230283,0.42350408,0.275078,0.86312002,0
-0.64908749,-0.38558555,-1.1879046,-0.42350408,-0.275078,-0.86312002,0
-0.42141318,3.1516573,1.1642666,0.42350408,0.275078,0.86312002,0
2.2631497,-4.1265583,-1.3194404,-0.42350408,-0.275078,-0.86312002,0
1.4291546,1.3367029,0.67100751,0.42350408,0.275078,0.86312002,0
1.2557247,-2.7138703,-1.5755088,-0.42350408,-0.275078,-0.86312002,0
-2.8695111,0.0026188195,-0.31970239,-0.42350408,-0.275078,-0.86312002,0
-3.1030045,1.0544155,-0.68375778,-0.42350408,-0.275078,-0.86312002,0
-1.8311297,-3.1721458,0.088355601,-0.42350408,-0.275078,-0.86312002,0
3.4885454,0.54008985,-3.5841694,-0.42350408,-0.275078,-0.86312002,0
-1.3609734,4.6594,-1.2262869,-0.23555186,0.9534477,-0.18828803,0
-0.043433547,3.8419895,0.57760763,0.42350408,0.275078,0.86312002,0
1.2001699,-0.89533877,1.6289852,0.42350408,0.275078,0.86312002,0
-1.8641651,-4.1857743,2.2713714,-0.387012,-0.80651879,0.44693264,0
4.4177828,-1.2896528,-2.3594923,0.9018833,-0.21758705,-0.37317848,0
1.0576909,-3.7406011,2.2339191,0.42350408,0.275078,0.86312002,0
0.47183174,-0.023427606,1.3511153,0.42350408,0.275078,0.86312002,0
2.6074383,3.9925444,-0.64228058,0.42350408,0.275078,0.86312002,0
0.038365602,-0.51338172,1.7766542,0.42350408,0.275078,0.86312002,0
2.530632,3.6548691,-1.9362292,0.47662753,0.74258322,-0.47052759,0
1.93839,-3.6524332,1.7842546,0.42350408,0.275078,0.86312002,0
2.3847275,0.25791842,0.42409229,0.42350408,0.275078,0.86312002,0
-1.9317064,3.2160645,-1.6379387,-0.42350408,-0.275078,-0.86312002,0
-4.8764114,0.5670861,1.6395454,-0.90588605,0.13262632,0.40221947,0
-1.8009014,3.1349461,1.6274538,0.42350408,0.275078,0.86312002,0
3.4214575,2.9356506,-2.1880505,0.64820349,0.57356954,-0.50084925,0
-3.9606996,1.8731508,2.4837718,-0.8874709,0.31715879,0.33437294,0
1.6712955,-3.051899,-1.5593164,-0.42350408,-0.275078,-0.86312002,0
0.46770716,0.0019054413,-1.9054281,-0.42350408,-0.275078,-0.86312002,0
3.2320209,3.5440869,-0.88309622,0.42350408,0.275078,0.86312002,0
1.9339486,-3.2077537,1.8342314,0.42350408,0.275078,0.86312002,0
-4.2438669,2.9149835,0.62862873,-0.79548031,0.56878024,0.20904422,0
0.79559398,2.913182,-3.0637884,-0.42350408,-0.275078,-0.86312002,0
-1.612632,-3.9546049,2.3099179,-0.32622337,-0.8425495,0.42858881,0
-1.5722207,0.73780298,2.2905917,0.42350408,0.275078,0.86312002,0
0.30661201,0.42257905,-1.897192,-0.42350408,-0.275078,-0.86312002,0
-2.1293685,1.1298199,-0.91812515,-0.42350408,-0.275078,-0.86312002,0
-2.5868602,3.7053304,-1.5403976,-0.42350408,-0.275078,-0.86312002,0
2.4689329,0.069878906,0.55741262,0.42350408,0.275078,0.86312002,0
3.2142396,-0.87810224,0.63878679,0.42350408,0.275078,0.86312002,0
-1.2012767,3.1415319,1.4664111,0.42350408,0.275078,0.86312002,0
1.0828412,-4.7093649,1.5588307,0.21638942,-0.95591927,0.1984781,0
3.3540199,-2.4895136,0.95938206,0.42350408,0.275078,0.86312002,0
3.3363004,-3.5432835,1.0965071,0.42350408,0.275078,0.86312002,0
0.15009916,-1.515095,-1.2167983,-0.42350408,-0.275078,-0.86312002,0
4.8902197,-1.953081,-0.42268229,0.8505249,-0.44873124,-0.2743125,0
3.40449,0.88017797,-0.20956421,0.42350408,0.275078,0.86312002,0
0.50600815,4.0643077,-2.8838391,0.19412518,0.90309167,-0.38306749,0
-4.4244342,-1.931699,1.5450504,-0.81125951,-0.30881613,0.49647793,0
4.1352654,-2.4356143,-1.8207664,0.84323621,-0.46789265,-0.26462948,0
4.6461282,-1.8131452,-0.61390924,0.85452485,-0.43758896,-0.27982616,0
-4.8429236,1.9021373,0.10571003,-0.42350408,-0.275078,-0.86312002,0
0.6512388,-3.0842559,-1.1639564,-0.42350408,-0.275078,-0.86312002,0
-3.3109374,-2.5956869,0.51727456,-0.42350408,-0.275078,-0.86312002,0
0.33330822,1.2269888,-2.3801651,-0.42350408,-0.275078,-0.86312002,0
-4.4769516,0.63019347,2.0885451,-0.90551096,0.15625027,0.39450651,0
-0.90853882,-3.0859134,3.367038,0.42350408,0.275078,0.86312002,0
-4.1559744,0.58654952,2.921159,-0.90253258,0.046117395,0.42814457,0
1.9137667,3.1215689,-0.10398,0.42350408,0.275078,0.86312002,0
-1.5272939,1.8044069,1.7182724,0.42350408,0.275078,0.86312002,0
2.1304488,1.3794084,-3.2950943,-0.42350408,-0.275078,-0.86312002,0
2.7897949,0.043812279,0.16233563,0.42350408,0.275078,0.86312002,0
-2.9907017,1.5125344,-0.82340384,-0.42350408,-0.275078,-0.86312002,0
-4.5211191,-1.750592,1.5851893,-0.83605349,-0.24816564,0.48931408,0
2.4126992,-0.15119287,0.72141027,0.42350408,0.275078,0.86312002,0
-0.29235983,3.5226395,-2.9107471,-0.42350408,-0.275078,-0.86312002,0
-1.3393378,-3.836035,0.15833569,-0.42350408,-0.275078,-0.86312002,0
-4.8484364,1.6007717,0.51436281,-0.86353213,0.410537,0.2928673,0
3.5081265,2.24301,-0.87517738,0.42350408,0.275078,0.86312002,0
-1.7741988,3.3135259,-1.818732,-0.42350408,-0.275078,-0.86312002,0
-0.70729399,5.3624773,0.54596138,0.42350408,0.275078,0.86312002,0
1.3912576,-5.0099964,-0.65241671,-0.42350408,-0.275078,-0.86312002,0
2.795403,-0.69369102,-3.0927715,-0.42350408,-0.275078,-0.86312002,0
1.8279538,0.045797884,0.7032479,0.42350408,0.275078,0.86312002,0
-2.1958358,-0.1487155,-0.60791242,-0.42350408,-0.275078,-0.86312002,0
0.94569921,1.2905101,-2.7855487,-0.42350408,-0.275078,-0.86312002,0
0.27696037,4.6876383,-1.0542579,0.0083912015,0.95155025,-0.30737799,0
-0.80388141,-1.0295042,2.3046474,0.42350408,0.275078,0.86312002,0
1.3447037,3.0348477,0.2360518,0.42350408,0.275078,0.86312002,0
2.6369219,1.5438764,-0.2731961,0.42350408,0.275078,0.86312002,0
1.9918681,-1.3918357,-2.116044,-0.42350408,-0.275078,-0.86312002,0
-1.1001925,-3.3708434,3.5018625,0.42350408,0.275078,0.86312002,0
-4.1948915,-1.9675881,1.151847,-0.42350408,-0.275078,-0.86312002,0
3.0476367,-1.9006028,-2.4525771,-0.42350408,-0.275078,-0.86312002,0
-1.5366813,2.1565359,1.9980884,0.42350408,0.275078,0.86312002,0
0.2944932,5.2328176,-0.33088803,-0.057759345,0.95904315,-0.27730805,0
2.9822061,1.717674,-3.5765023,0.74351704,0.43875813,-0.50465178,0
0.56095982,2.2935302,-2.7036467,-0.42350408,-0.275078,-0.86312002,0
-0.16452479,-0.42495167,1.8536103,0.42350408,0.275078,0.86312002,0
-1.2019594,-0.78034329,-0.9484998,-0.42350408,-0.275078,-0.86312002,0
4.096014,0.15901655,-0.14321089,0.42350408,0.275078,0.86312002,0
-0.13139576,2.0072789,1.2654289,0.42350408,0.275078,0.86312002,0
-1.8377974,-1.8009806,-0.10649428,-0.42350408,-0.275078,-0.86312002,0
1.3696797,1.9365616,-3.0857203,-0.42350408,-0.275078,-0.86312002,0
0.95855558,-2.5518255,-1.2223673,-0.42350408,-0.275078,-0.86312002,0
-4.6933374,2.4870882,0.22980309,-0.81305933,0.53556895,0.22825408,0
-1.4668891,0.14527225,2.3744688,0.42350408,0.275078,0.86312002,0
-3.0560648,-0.021223128,-0.36332989,-0.42350408,-0.275078,-0.86312002,0
-5.1720967,-0.44391,1.276057,-0.89659458,-0.0088924468,0.44276279,0
-2.0014672,-2.0707543,0.091359407,-0.42350408,-0.275078,-0.86312002,0
-1.2168589,4.4017572,0.87356329,0.42350408,0.275078,0.86312002,0
-2.2991168,-1.9405155,-0.081297696,-0.42350408,-0.275078,-0.86312002,0
2.6575155,1.1927843,-3.576992,-0.42350408,-0.275078,-0.86312002,0
1.128413,-4.963098,0.1078043,0.27735648,-0.94639999,0.16552979,0
-4.5046148,-0.25295663,2.337115,-0.88316828,-0.086702317,0.46097308,0
-3.2165008,-1.3354182,3.8625951,0.42350408,0.275078,0.86312002,0
-2.9571288,0.43998098,-0.48139906,-0.42350408,-0.275078,-0.86312002,0
-4.8359709,1.7377977,0.019364357,-0.42350408,-0.275078,-0.86312002,0
1.4337963,3.5717316,0.061768293,0.42350408,0.275078,0.86312002,0
3.3594441,1.0630343,-3.8303339,-0.42350408,-0.275078,-0.86312002,0
1.0290431,-4.8144922,-0.48257589,-0.42350408,-0.275078,-0.86312002,0
-1.5277603,-4.5337706,1.1804205,-0.2607004,-0.87546742,0.40692991,0
-3.2013402,0.36197901,3.1663787,0.42350408,0.275078,0.86312002,0
-3.9556949,-2.5665474,1.7269802,-0.69523662,-0.512133,0.50434685,0
0.7426877,1.6336221,-2.4256237,-0.42350408,-0.275078,-0.86312002,0
-3.0911953,-4.0773764,1.0625904,-0.42350408,-0.275078,-0.86312002,0
-3.1034355,-0.77476382,3.5676148,0.42350408,0.275078,0.86312002,0
-3.2893519,-0.27218473,-0.041228056,-0.42350408,-0.275078,-0.86312002,0
-2.703265,0.31413668,-0.56482029,-0.42350408,-0.275078,-0.86312002,0
2.4896622,-4.2766957,1.8251405,0.35162699,-0.92799479,0.12322199,0
-0.95648623,4.1713476,0.72781706,0.42350408,0.275078,0.86312002,0
-3.2211115,-1.2680597,0.083120108,-0.42350408,-0.275078,-0.86312002,0
4.1656408,-1.724115,0.11998367,0.42350408,0.275078,0.86312002,0
0.58921278,-3.3675342,-0.73381567,-0.42350408,-0.275078,-0.86312002,0
1.6027476,-4.5528841,0.80520582,0.3328585,-0.93338573,0.13414925,0
3.3394496,3.5568092,-1.1676725,0.42350408,0.275078,0.86312002,0
0.91617799,-3.070159,2.1891489,0.42350408,0.275078,0.86312002,0
-2.3672166,-2.9231334,0.33883023,-0.42350408,-0.275078,-0.86312002,0
-3.1720338,-3.7304587,0.95482552,-0.42350408,-0.275078,-0.86312002,0
-0.26311293,-1.6791887,-1.0451686,-0.42350408,-0.275078,-0.86312002,0
-3.4563658,2.3426297,-0.86967278,-0.42350408,-0.275078,-0.86312002,0
3.2219441,-2.0428979,-2.8990815,-0.42350408,-0.275078,-0.86312002,0
-1.5448644,-2.2223868,3.3856003,0.42350408,0.275078,0.86312002,0
0.84174228,-4.8806305,0.49279785,0.23502094,-0.95352256,0.18857241,0
3.8828642,-2.231694,-2.68573,0.87380391,-0.3753908,-0.3091085,0
1.8614843,1.5655304,-3.0957661,-0.42350408,-0.275078,-0.86312002,0
2.6120067,0.60962629,-3.1465266,-0.42350408,-0.275078,-0.86312002,0
-3.5794339,0.46227992,0.035153389,-0.42350408,-0.275078,-0.86312002,0
-1.0052257,-1.482821,-0.95498449,-0.42350408,-0.275078,-0.86312002,0
4.4512253,1.7848217,-1.7035642,0.80054784,0.33229139,-0.49870369,0
2.9773915,-2.7807374,-2.0835276,-0.42350408,-0.275078,-0.86312002,0
3.2562912,-2.4079716,-2.7520278,-0.42350408,-0.275078,-0.86312002,0
1.4969466,-4.0907807,-1.0549545,-0.42350408,-0.275078,-0.86312002,0
-1.6330831,-0.31891814,-0.67724305,-0.42350408,-0.275078,-0.86312002,0
-1.2417748,4.7879314,-1.6906047,-0.18646854,0.95884997,-0.21409333,0
-2.7147429,2.024416,2.3497286,0.42350408,0.275078,0.86312002,0
-0.90233135,1.6555612,1.4309717,0.42350408,0.275078,0.86312002,0
4.938333,0.41852951,-1.2081277,0.8886193,0.059035242,-0.45483023,0
1.3936939,1.2417703,0.51442182,0.42350408,0.275078,0.86312002,0
-0.31244445,-0.86521804,2.0762448,0.42350408,0.275078,0.86312002,0
1.9010079,4.202621,-1.8294024,0.35190719,0.82799882,-0.43655366,0
1.1232173,3.0569575,-3.085469,-0.42350408,-0.275078,-0.86312002,0
0.85579407,-1.5449076,1.701979,0.42350408,0.275078,0.86312002,0
-3.0547452,1.4825332,-0.56656766,-0.42350408,-0.275078,-0.86312002,0
1.6728125,3.1017351,-3.6237431,-0.42350408,-0.275078,-0.86312002,0
-2.3263891,3.9016674,1.6142783,0.42350408,0.275078,0.86312002,0
5.0477228,-0.058687925,-1.032166,0.90412676,-0.06886223,-0.42167807,0
4.1823568,-0.98150438,-0.00034332275,0.42350408,0.275078,0.86312002,0
-1.2149584,2.7642817,-1.8977451,-0.42350408,-0.275078,-0.86312002,0
-2.9014316,3.0140405,-1.3502784,-0.42350408,-0.275078,-0.86312002,0
0.29349422,-2.7202826,2.6835024,0.42350408,0.275078,0.86312002,0
0.91941977,-2.911864,2.2075336,0.42350408,0.275078,0.86312002,0
-2.6493018,2.3920951,-1.2921,-0.42350408,-0.275078,-0.86312002,0
2.7141519,-0.40096164,-2.9685359,-0.42350408,-0.275078,-0.86312002,0
2.1929026,0.0592089,0.62012482,0.42350408,0.275078,0.86312002,0
-0.062639475,-1.9608798,2.3957343,0.42350408,0.275078,0.86312002,0
-3.5571275,0.99776554,3.2249885,0.42350408,0.275078,0.86312002,0
-2.59987,-1.2004466,0.14405632,-0.42350408,-0.275078,-0.86312002,0
0.42943347,-4.3083105,-0.60212684,-0.42350408,-0.275078,-0.86312002,0
2.7423778,-2.3153927,-2.1306601,-0.42350408,-0.275078,-0.86312002,0
0.14381313,4.7393255,-1.0716524,-0.01364094,0.95461082,-0.29754299,0
-1.1839684,3.5912373,1.1978698,0.42350408,0.275078,0.86312002,0
-1.7329429,-3.7643404,0.49228275,-0.42350408,-0.275078,-0.86312002,0
-1.143363,4.6352692,-1.7570832,-0.20728731,0.95692968,-0.2032662,0
-4.4765635,-1.1731739,0.85635996,-0.42350408,-0.275078,-0.86312002,0
-3.4799891,2.4769144,2.7515626,0.42350408,0.275078,0.86312002,0
-0.042927742,-4.7805562,1.7739711,-0.046195447,-0.94498503,0.32383484,0
3.5602617,-3.1088829,-1.8811855,0.80288255,-0.55524248,-0.21699071,0
-3.8730814,-0.55814171,3.487396,-0.85639763,-0.18905729,0.48045832,0
-3.8656042,0.33008581,-0.070230246,-0.42350408,-0.275078,-0.86312002,0
1.6697054,1.4400424,0.31969973,0.42350408,0.275078,0.86312002,0
1.4547851,0.54285812,0.82836318,0.42350408,0.275078,0.86312002,0
-0.46466881,2.8347299,1.17061,0.42350408,0.275078,0.86312002,0
2.4257364,0.24447799,-2.8458438,-0.42350408,-0.275078,-0.86312002,0
1.2875965,-0.92000961,-1.9811602,-0.42350408,-0.275078,-0.86312002,0
1.1503444,4.2153349,-2.4332399,0.29049987,0.8612259,-0.41701269,0
0.30634761,-1.9338133,2.2169278,0.42350408,0.275078,0.86312002,0
-1.2018567,0.37269902,2.2704196,0.42350408,0.275078,0.86312002,0
-1.7349266,1.4391935,-1.4653888,-0.42350408,-0.275078,-0.86312002,0
-2.4899745,-3.2865736,3.3021293,-0.54127324,-0.6871677,0.48458609,0
0.0042865276,4.662725,0.13949037,0.42350408,0.275078,0.86312002,0
-3.3795257,-1.017465,0.13711143,-0.42350408,-0.275078,-0.86312002,0
1.8911345,3.1155849,-3.5093975,0.5279184,0.6993317,-0.48190996,0
-1.1625817,4.8843241,-1.1916943,-0.22453529,0.95492595,-0.19416463,0
-4.4426889,-0.71234334,0.64329839,-0.42350408,-0.275078,-0.86312002,0
4.1847763,1.5314744,-2.2436404,0.81490791,0.30048648,-0.49561346,0
0.53028965,3.7507732,0.17688251,0.42350408,0.275078,0.86312002,0
2.7591317,1.3430545,-0.26666796,0.42350408,0.275078,0.86312002,0
2.9660506,-3.3436511,1.2121382,0.42350408,0.275078,0.86312002,0
3.983933,-1.4481721,0.4334116,0.42350408,0.275078,0.86312002,0
0.092023849,-5.0993757,0.19711447,0.097382545,-0.96108538,0.25851727,0
1.0170164,-3.852227,2.3207006,0.42350408,0.275078,0.86312002,0
-1.0930301,3.7179921,1.2655189,0.42350408,0.275078,0.86312002,0
-0.53583312,4.1491461,0.52040625,0.42350408,0.275078,0.86312002,0
0.41784668,-0.28824532,1.7749132,0.42350408,0.275078,0.86312002,0
0.83637619,3.0588202,-3.0475252,-0.42350408,-0.275078,-0.86312002,0
-1.0189698,-2.0223913,2.8586111,0.42350408,0.275078,0.86312002,0
-2.7735767,-4.17523,1.0140413,-0.45247918,-0.76118493,0.46460724,0
-4.0171332,3.1765361,0.59771347,-0.75560915,0.63282698,0.16906893,0
-3.7361026,3.2922611,0.3239584,-0.71684515,0.68430412,0.13364279,0
4.3686533,-0.0094784498,-0.48178864,0.42350408,0.275078,0.86312002,0
-0.23538423,-4.0557804,-0.37122321,-0.42350408,-0.275078,-0.86312002,0
3.8372247,-1.5564525,0.37246323,0.42350408,0.275078,0.86312002,0
-3.974719,-1.9179754,2.4178433,-0.79840386,-0.33682758,0.49909744,0
-2.8036494,-3.9905558,1.154084,-0.46993053,-0.74784964,0.46892008,0
-4.2545485,-1.4916348,1.0298932,-0.42350408,-0.275078,-0.86312002,0
-1.8558633,-2.4359379,3.6205878,0.42350408,0.275078,0.86312002,0
-1.6236749,-1.2624482,2.902092,0.42350408,0.275078,0.86312002,0
-4.6848402,-1.5543537,1.1776683,-0.42350408,-0.275078,-0.86312002,0
4.2820706,0.052401483,-0.34211612,0.42350408,0.275078,0.86312002,0
-1.9317515,-2.2429755,3.2544155,0.42350408,0.275078,0.86312002,0
-2.4967771,3.676625,-1.6910224,-0.42350408,-0.275078,-0.86312002,0
1.7144132,0.55307627,-2.5368557,-0.42350408,-0.275078,-0.86312002,0
-2.4378743,-1.557018,-0.2176466,-0.42350408,-0.275078,-0.86312002,0
0.18767214,1.5580488,-2.4872785,-0.42350408,-0.275078,-0.86312002,0
2.9259436,1.3027596,-3.6392643,-0.42350408,-0.275078,-0.86312002,0
0.095343113,5.1063032,0.14890671,0.42350408,0.275078,0.86312002,0
-3.2423241,0.98604465,3.0020268,0.42350408,0.275078,0.86312002,0
-4.8941021,-0.55077624,1.6287293,-0.88283598,-0.088274688,0.4613111,0
-5.1260414,-0.51677549,0.99359226,-0.89521784,-0.01876384,0.44523335,0
1.6969728,-3.6127563,-1.6504362,-0.42350408,-0.275078,-0.86312002,0
1.2937927,4.017849,-2.8112397,0.31283468,0.84975839,-0.42431688,0
0.023802638,-4.0600481,-0.44478464,-0.42350408,-0.275078,-0.86312002,0
-0.043566465,-5.094852,0.15626216,0.086311877,-0.96070051,0.26382655,0
2.1117101,-4.1476836,-1.6223612,-0.42350408,-0.275078,-0.86312002,0
-2.781821,-3.4841349,2.3314471,-0.52303374,-0.7036835,0.48090011,0
-4.089623,-2.3594136,2.0572376,-0.758641,-0.41301411,0.50386786,0
2.9987845,-4.0867467,0.082084179,0.55947679,-0.82878077,-0.010382533,0
4.4856791,-0.94996351,-0.39073849,0.42350408,0.275078,0.86312002,0
1.1340257,-3.5897443,-1.2005155,-0.42350408,-0.275078,-0.86312002,0
-4.2221737,0.45672941,-0.032471657,-0.42350408,-0.275078,-0.86312002,0
4.4362011,-2.5663564,0.33592129,0.42350408,0.275078,0.86312002,0
1.0492262,0.99140865,0.90627676,0.42350408,0.275078,0.86312002,0
-0.3903389,2.461153,1.2820809,0.42350408,0.275078,0.86312002,0
2.2907002,3.747581,-0.4442994,0.42350408,0.275078,0.86312002,0
-3.2030315,3.757143,-1.2001657,-0.42350408,-0.275078,-0.86312002,0
-2.3874173,-2.1354549,3.5463295,0.42350408,0.275078,0.86312002,0
-2.0470145,3.8445199,1.3961372,0.42350408,0.275078,0.86312002,0
1.9400487,-0.21434903,-2.4841244,-0.42350408,-0.275078,-0.86312002,0
0.58318114,-3.2840192,2.6031146,0.42350408,0.275078,0.86312002,0
1.9055107,-4.5013142,2.0460882,0.26066276,-0.94949067,0.17470586,0
-1.4622866,-0.83093917,-0.54892933,-0.42350408,-0.275078,-0.86312002,0
-1.3512176,4.9651108,0.88650894,0.42350408,0.275078,0.86312002,0
0.72100031,-0.16237688,-2.1538615,-0.42350408,-0.275078,-0.86312002,0
-0.16600387,1.9678978,1.3476444,0.42350408,0.275078,0.86312002,0
-1.337606,-1.4544009,-0.77076578,-0.42350408,-0.275078,-0.86312002,0
-2.4711776,0.040294543,-0.36792493,-0.42350408,-0.275078,-0.86312002,0
3.2422848,-3.987339,1.2328091,0.50183374,-0.86446822,0.029274583,0
5.0223041,0.59030348,-0.68955159,0.42350408,0.275078,0.86312002,0
-4.3185635,2.0317788,1.2538652,-0.86776948,0.39668447,0.29936123,0
-4.7903385,0.63880599,0.4124403,-0.42350408,-0.275078,-0.86312002,0
0.17258716,-3.5709138,-0.64274311,-0.42350408,-0.275078,-0.86312002,0
-3.4939084,1.2969508,2.9046049,0.42350408,0.275078,0.86312002,0
4.9220166,0.8088764,-1.2505503,0.88229126,0.090827346,-0.46185738,0
0.42477965,4.5987821,-1.8623171,0.088211656,0.93573225,-0.34150198,0
-4.203023,2.4913218,0.87645864,-0.81595665,0.52972054,0.23153961,0
3.4852972,-3.5925775,-1.1361766,0.71804869,-0.6828329,-0.13470232,0
3.3717532,3.1615362,-0.80204904,0.42350408,0.275078,0.86312002,0
-1.7240701,-3.0795765,3.5658088,0.42350408,0.275078,0.86312002,0
-1.659633,2.1639614,-1.6609614,-0.42350408,-0.275078,-0.86312002,0
3.9964375,0.093924522,-3.1322331,0.87845129,0.10803661,-0.46545786,0
1.2265491,3.1486173,-0.026250601,0.42350408,0.275078,0.86312002,0
3.48509,1.5236049,-3.2800565,0.79903448,0.33549854,-0.49898332,0
-0.52691269,4.9146013,-0.70586634,-0.1345197,0.96131533,-0.2403686,0
1.702019,1.5995873,0.5960229,0.42350408,0.275078,0.86312002,0
2.0855165,1.858687,-0.075796783,0.42350408,0.275078,0.86312002,0
-2.8374395,3.9086699,-1.6934505,-0.42350408,-0.275078,-0.86312002,0
2.2396257,-2.088896,-2.3484693,-0.42350408,-0.275078,-0.86312002,0
-4.0510173,2.9888,-0.7032032,-0.42350408,-0.275078,-0.86312002,0
-3.989172,2.3697405,1.656796,-0.85462093,0.43731558,0.27996051,0
-2.2008572,4.1180382,-1.5496664,-0.36610064,0.92348152,-0.11468196,0
-1.550606,-0.10300714,-0.96140498,-0.42350408,-0.275078,-0.86312002,0
4.106739,-1.431936,0.29589033,0.42350408,0.275078,0.86312002,0
1.9421244,3.2890086,-3.4970689,0.50581467,0.71862328,-0.4772127,0
4.4168482,-0.087002158,-0.56905556,0.42350408,0.275078,0.86312002,0
4.4836612,-0.24356347,-0.36265278,0.42350408,0.275078,0.86312002,0
-0.60846585,-2.8195615,-0.47882116,-0.42350408,-0.275078,-0.86312002,0
1.4437391,1.6493689,0.4626506,0.42350408,0.275078,0.86312002,0
1.4878864,-1.5259943,1.462312,0.42350408,0.275078,0.86312002,0
-3.257056,2.631803,-0.82860899,-0.42350408,-0.275078,-0.86312002,0
0.42255926,1.8064773,-2.6118679,-0.42350408,-0.275078,-0.86312002,0
1.1363096,-0.99318218,-1.9534185,-0.42350408,-0.275078,-0.86312002,0
1.5033703,1.3067951,-2.9794559,-0.42350408,-0.275078,-0.86312002,0
3.6738811,-2.8232298,-1.9572077,0.81860948,-0.52426118,-0.23458123,0
-4.5262232,-1.0495044,1.9251325,-0.86796767,-0.14958736,0.47355622,0
1.6655865,-3.5500958,-1.3403463,-0.42350408,-0.275078,-0.86312002,0
-3.0020931,1.2117534,-0.47522664,-0.42350408,-0.275078,-0.86312002,0
-4.0467019,1.8570206,2.4298067,-0.88892603,0.30973485,0.33745307,0
-3.9939845,0.18344712,3.2199779,-0.88965118,-0.053323895,0.4535163,0
0.38488388,4.3094912,0.2616365,0.42350408,0.275078,0.86312002,0
3.7309794,-3.5755267,0.37668943,0.67280608,-0.73351759,-0.096349955,0
-0.89809006,1.3903555,1.7894672,0.42350408,0.275078,0.86312002,0
-1.8513008,0.5350225,-0.84087837,-0.42350408,-0.275078,-0.86312002,0
0.86834705,-2.1796541,-1.4639306,-0.42350408,-0.275078,-0.86312002,0
1.9938431,-4.4923849,-1.2486305,-0.42350408,-0.275078,-0.86312002,0
4.1392984,-2.3826797,-1.4962296,0.85589868,-0.43364775,-0.28175628,0
-5.048708,0.79538077,0.58646202,-0.89487553,0.27518633,0.35138291,0
3.845048,-2.3405514,0.4869833,0.42350408,0.275078,0.86312002,0
-3.5035183,3.4539938,0.4043088,-0.7108072,0.69157463,0.12836313,0
-3.2693007,2.5722063,-0.98735189,-0.42350408,-0.275078,-0.86312002,0
1.0556979,2.0356827,-2.843653,-0.42350408,-0.275078,-0.86312002,0
-2.530611,1.6603048,-0.79666615,-0.42350408,-0.275078,-0.86312002,0
4.598031,-1.4048629,-1.0030394,0.87986636,-0.3516528,-0.31964844,0
-5.0359316,0.04790616,1.068346,-0.90525442,0.092708796,0.41463149,0
4.827733,-0.38929212,-1.8249288,0.90585679,-0.11995211,-0.4062444,0
-1.6673268,2.7825797,-1.849915,-0.42350408,-0.275078,-0.86312002,0
1.0551982,-3.6340449,2.5252936,0.42350408,0.275078,0.86312002,0
-3.168797,3.9027567,1.0730844,-0.65607864,0.75013113,0.082847595,0
1.586875,2.0860214,-3.0664759,-0.42350408,-0.275078,-0.86312002,0
-3.5084941,3.4780412,-0.27535629,-0.64295429,0.76246744,0.072476387,0
4.3472853,-1.931811,-1.0591993,0.85248119,-0.44334179,-0.27698994,0
1.6059228,-4.6155739,0.1485672,0.37958327,-0.91899133,0.10663545,0
3.921145,0.16656837,-0.34903741,0.42350408,0.275078,0.86312002,0
-4.2967358,0.049469471,2.4965525,-0.89565206,-0.015722662,0.44447702,0
1.8131278,-3.6782794,-1.2732608,-0.42350408,-0.275078,-0.86312002,0
0.1784761,-1.857869,2.3656878,0.42350408,0.275078,0.86312002,0
0.13185358,-5.0530319,0.30571032,0.10407543,-0.96124792,0.25528502,0
4.7341871,0.43457484,-1.5948305,0.88637078,0.070914119,-0.45751262,0
3.4053874,-3.4132736,-0.69247389,0.72730875,-0.67126119,-0.14293385,0
-2.1510799,-0.34972668,2.9989483,0.42350408,0.275078,0.86312002,0
1.0003331,-3.1298983,2.049962,0.42350408,0.275078,0.86312002,0
1.7697608,-4.2489262,2.2576821,0.42350408,0.275078,0.86312002,0
-0.13607323,0.29206431,-1.9252526,-0.42350408,-0.275078,-0.86312002,0
5.2108331,-0.92460358,-0.41374207,0.42350408,0.275078,0.86312002,0
0.004986763,-0.081049442,-1.7786949,-0.42350408,-0.275078,-0.86312002,0
4.8559237,1.125345,-1.1068349,0.42350408,0.275078,0.86312002,0
0.70182467,3.2228627,-2.93261,-0.42350408,-0.275078,-0.86312002,0
-3.0020404,0.56935835,3.0849423,0.42350408,0.275078,0.86312002,0
-2.1826248,4.5940409,0.015226364,-0.47201121,0.88023341,-0.048931837,0
3.5919747,-1.7164259,-2.8145232,-0.42350408,-0.275078,-0.86312002,0
-2.2381849,-0.017189562,-0.80091643,-0.42350408,-0.275078,-0.86312002,0
-1.9535439,0.37681627,2.7899196,0.42350408,0.275078,0.86312002,0
-1.8816469,-2.3246322,3.5305328,0.42350408,0.275078,0.86312002,0
3.1892743,-3.6782546,-1.1640773,0.72048318,-0.6798346,-0.13685238,0
4.1958046,-2.7035704,-0.67139959,0.80074608,-0.55921292,-0.2146771,0
-3.6234059,-1.0631866,3.3008158,-0.82896471,-0.26655507,0.49169666,0
1.7016848,-1.9457135,-1.8899519,-0.42350408,-0.275078,-0.86312002,0
3.415267,0.78802991,-0.23699665,0.42350408,0.275078,0.86312002,0
0.13721156,2.8382006,0.67124295,0.42350408,0.275078,0.86312002,0
-2.2019162,-1.2235457,-0.21357501,-0.42350408,-0.275078,-0.86312002,0
1.5241326,-2.6621127,1.9612343,0.42350408,0.275078,0.86312002,0
4.1068273,0.010086805,-0.071046829,0.42350408,0.275078,0.86312002,0
1.4434271,-1.9884881,1.7877812,0.42350408,0.275078,0.86312002,0
-3.1562951,2.9715316,-1.1919169,-0.42350408,-0.275078,-0.86312002,0
1.3256254,-2.5179179,-1.5638745,-0.42350408,-0.275078,-0.86312002,0
1.2171211,-2.741971,-1.3669925,-0.42350408,-0.275078,-0.86312002,0
2.6130092,3.4246798,-0.43147323,0.42350408,0.275078,0.86312002,0
4.445312,-0.90130168,-0.026963234,0.42350408,0.275078,0.86312002,0
-0.92248821,-3.0152564,2.9934216,0.42350408,0.275078,0.86312002,0
-0.16418624,3.6421041,-2.6307969,-0.42350408,-0.275078,-0.86312002,0
0.099870563,-2.5781801,-0.81041694,-0.42350408,-0.275078,-0.86312002,0
1.9930148,-4.5611467,0.40352154,0.43714091,-0.89656639,0.071246862,0
-1.8745863,0.83931315,-1.0205359,-0.42350408,-0.275078,-0.86312002,0
-4.9154167,1.7417673,0.59097385,-0.87058389,0.38700396,0.30382746,0
-0.36774009,2.9246895,0.89501143,0.42350408,0.275078,0.86312002,0
0.77239978,0.37064803,-2.0341387,-0.42350408,-0.275078,-0.86312002,0
1.7564025,3.7699289,-0.54235816,0.42350408,0.275078,0.86312002,0
-2.2134066,4.3408318,-1.8432097,-0.29169345,0.94344646,-0.15755385,0
-1.1339338,-4.8556991,0.54222965,-0.42350408,-0.275078,-0.86312002,0
-0.17050171,-4.6682444,1.9895611,-0.081978023,-0.93723577,0.3389225,0
-1.9164035,4.0895953,-1.900939,-0.42350408,-0.275078,-0.86312002,0
2.5624075,2.0848556,-3.4563293,-0.42350408,-0.275078,-0.86312002,0
0.93445039,-4.89008,0.44231606,0.19646007,-0.95799589,0.20891857,0
1.863614,-4.1499839,-1.5309334,-0.42350408,-0.275078,-0.86312002,0
3.4680846,0.80759668,-3.7822719,0.84994733,0.20898882,-0.48364562,0
-1.6417122,1.070864,-1.1388435,-0.42350408,-0.275078,-0.86312002,0
