5.6935725,-2.5510757,-0.57508588,0.63091409,-0.19188732,-0.7517491,0
3.5794001,-4.294333,-2.0998526,0.63091409,-0.19188732,-0.7517491,0
-1.5143628,-3.4998105,5.6418629,0.23981047,-0.87325495,0.42416596,0
-4.9229636,2.4797022,-0.98731399,-0.65135437,0.3954275,-0.64759135,0
-4.043478,0.93373799,-2.8696718,-0.73589265,0.1589455,-0.65817803,0
-3.4297044,4.3602629,2.1463065,-0.63091409,0.19188732,0.7517491,0
-5.9648323,-2.1893482,1.2854304,-0.63091409,0.19188732,0.7517491,0
-3.0330009,4.1229568,2.1809194,-0.63091409,0.19188732,0.7517491,0
-2.6565139,-0.98447323,4.0052929,-0.63091409,0.19188732,0.7517491,0
-5.3139982,1.8917323,1.2049575,-0.63091409,0.19188732,0.7517491,0
0.66862965,-2.1046405,-5.0116234,0.63091409,-0.19188732,-0.7517491,0
-2.4612129,4.5013485,-1.208675,-0.31455368,0.82246339,-0.47393033,0
1.4697847,-3.5345509,3.0468071,0.39799464,-0.75168902,0.52589357,0
-4.5172,3.6875217,1.4686612,-0.63091409,0.19188732,0.7517491,0
4.5981302,2.3941522,-2.600328,0.63091409,-0.19188732,-0.7517491,0
1.7123415,2.2078695,-5.285068,0.63091409,-0.19188732,-0.7517491,0
5.3513966,-3.3206928,0.0081731081,0.59715885,-0.49849343,0.62841523,0
5.1904421,-1.0284581,1.3727977,0.74432445,-0.12370858,0.65626001,0
-2.0861607,-4.4139438,-2.0612612,-0.54819018,-0.79591644,-0.25691366,0
0.95670128,1.9733677,-5.5031004,0.63091409,-0.19188732,-0.7517491,0
-3.7346635,5.1282578,1.6996665,-0.63091409,0.19188732,0.7517491,0
0.80500364,1.9347901,6.2910156,-0.63091409,0.19188732,0.7517491,0
3.5401857,-0.44588161,-2.8869073,0.63091409,-0.19188732,-0.7517491,0
-1.5377219,4.8007689,-0.84384441,-0.15712982,0.91725153,-0.36600554,0
1.4841557,-5.6805949,-1.2831533,-0.082956582,-0.98006248,0.18054307,0
2.6466718,-4.661047,-2.7699246,0.63091409,-0.19188732,-0.7517491,0
-4.078784,1.1395469,2.374896,-0.63091409,0.19188732,0.7517491,0
4.2177658,-3.9426205,-1.626205,0.63091409,-0.19188732,-0.7517491,0
2.4127433,0.87469721,4.8883157,0.77414715,0.091485351,0.62635982,0
-5.9891405,-2.1760116,0.47302675,-0.69890201,-0.56127179,-0.44329447,0
3.0141497,0.30503297,4.2227306,0.76730222,0.010866016,0.64119375,0
-0.87552762,-0.11238718,5.2632837,-0.63091409,0.19188732,0.7517491,0
-3.8055632,5.1219926,1.1001215,-0.2099545,0.89055431,-0.40352464,0
3.4012239,-0.35289097,-3.0727742,0.63091409,-0.19188732,-0.7517491,0
-6.4575071,-0.030227304,0.083531857,-0.77578342,-0.14307529,-0.61456466,0
-4.9301295,3.2857087,-0.48629045,-0.55757093,0.56162363,-0.61130476,0
3.3317809,2.7328796,-3.660825,0.63091409,-0.19188732,-0.7517491,0
4.2451944,0.23794234,2.4929745,0.77314883,0.074673206,0.62981337,0
-2.6117351,-3.7897272,4.5762711,-0.63091409,0.19188732,0.7517491,0
4.5448194,-3.720067,-1.1809641,0.63091409,-0.19188732,-0.7517491,0
0.35600877,-4.9323397,-4.5997081,0.63091409,-0.19188732,-0.7517491,0
2.2587123,3.1616495,-5.0116124,0.63091409,-0.19188732,-0.7517491,0
-2.0377071,0.018654823,-5.3120198,-0.7556324,0.067794055,-0.65147805,0
4.790072,0.31664872,-2.2369509,0.63091409,-0.19188732,-0.7517491,0
-4.2723393,4.0807009,-0.73431671,-0.46159559,0.6859535,-0.56249207,0
-1.3836033,0.94087791,4.4479036,-0.63091409,0.19188732,0.7517491,0
5.7861109,0.76799893,-1.2643504,0.63091409,-0.19188732,-0.7517491,0
-5.1815982,2.2329786,1.0916475,-0.63091409,0.19188732,0.7517491,0
-4.3556166,-1.6634471,-2.1274858,-0.76012272,-0.3469972,-0.54936922,0
-2.7752054,2.7992549,2.8167608,-0.63091409,0.19188732,0.7517491,0
-2.682049,-4.3270912,3.0532579,-0.15096569,-0.98077559,0.12364763,0
-1.6665564,0.23167133,4.2867236,-0.63091409,0.19188732,0.7517491,0
-2.1366525,4.1098247,-2.3142505,-0.34201771,0.80091876,-0.49148047,0
-0.77753735,3.4086082,-3.9657958,-0.39407706,0.75538099,-0.52354813,0
6.2843523,0.50735748,-1.0176616,0.63091409,-0.19188732,-0.7517491,0
-3.6439061,3.442018,2.0869296,-0.63091409,0.19188732,0.7517491,0
-3.4243846,-1.5214176,-3.5137978,-0.76848388,-0.28778383,-0.57150078,0
-5.001832,-2.9133482,2.3095279,-0.63091409,0.19188732,0.7517491,0
4.6505294,-4.5013466,-1.1896785,0.63091409,-0.19188732,-0.7517491,0
-2.4592807,1.5175297,3.2894847,-0.63091409,0.19188732,0.7517491,0
1.6853945,0.6214447,-4.7327962,0.63091409,-0.19188732,-0.7517491,0
0.57120037,4.3038392,-3.0971382,-0.14488322,0.92274928,-0.35713077,0
-5.4870071,-2.3938692,0.1278491,-0.68282676,-0.59737182,-0.42058849,0
5.7815747,2.4375243,-1.368062,0.63625586,0.68244481,0.35978794,0
3.0759032,3.0075066,2.3437338,0.68882155,0.58442098,0.42892528,0
-5.9446425,-0.37086129,-0.78743696,-0.77485198,-0.20503649,-0.59796697,0
3.9614296,3.8383574,-2.7981272,0.30869216,0.95102203,0.016320825,0
0.95603597,3.933063,4.6594882,0.64006221,0.67633533,0.36454189,0
3.7050922,-5.382658,-1.667134,0.63091409,-0.19188732,-0.7517491,0
-1.2987074,4.1276736,4.036942,-0.63091409,0.19188732,0.7517491,0
-1.0978053,0.1871748,5.251997,-0.63091409,0.19188732,0.7517491,0
2.284266,-0.13049173,5.0856194,0.74376076,-0.1262044,0.65642405,0
2.1493521,4.1348119,2.2856526,0.54953718,0.79450363,0.25840485,0
3.6468523,3.1839736,-3.6142743,0.63091409,-0.19188732,-0.7517491,0
-2.8150454,2.6515341,3.1196887,-0.63091409,0.19188732,0.7517491,0
2.5706503,2.9254594,-4.4723091,0.63091409,-0.19188732,-0.7517491,0
-3.7278736,0.41979361,-2.9786477,-0.75508785,0.070803404,-0.65178919,0
-4.0741153,-2.9460306,-1.1356258,-0.68107569,-0.60105044,-0.41817987,0
-1.9510159,2.0973165,3.7332602,-0.63091409,0.19188732,0.7517491,0
-0.10107398,4.3046927,4.6555147,-0.63091409,0.19188732,0.7517491,0
-5.5207338,-2.0611734,1.8975749,-0.63091409,0.19188732,0.7517491,0
-3.3687079,3.8844121,1.9574174,-0.63091409,0.19188732,0.7517491,0
2.1500344,-4.707087,-3.169415,0.63091409,-0.19188732,-0.7517491,0
1.5360632,-4.9759994,0.071668386,0.056010842,-0.95513952,0.2908113,0
-1.0697389,5.6348972,1.894037,0.1908806,0.97754085,-0.089322925,0
5.6447797,-2.8803906,-0.48720503,0.63091409,-0.19188732,-0.7517491,0
2.5694399,-2.3459346,-3.2372179,0.63091409,-0.19188732,-0.7517491,0
-0.060451269,-2.7630196,-5.3384809,0.63091409,-0.19188732,-0.7517491,0
1.5972614,-2.823797,4.0632405,0.49643266,-0.64477813,0.58121932,0
5.2953291,-2.07605,0.92551327,0.6979481,-0.28279823,0.65794659,0
2.9683719,-3.4732907,-2.4517236,0.63091409,-0.19188732,-0.7517491,0
6.1078911,1.4187127,-0.60861492,0.73940706,0.44219208,0.50768441,0
3.3981287,-3.1728354,-2.2474203,0.63091409,-0.19188732,-0.7517491,0
1.9159663,-2.7788699,-3.9237084,0.63091409,-0.19188732,-0.7517491,0
-3.0635498,1.6873146,-3.5990906,-0.65258712,0.39279312,-0.64795351,0
3.2653008,3.8717539,-4.0476503,0.63091409,-0.19188732,-0.7517491,0
-5.4405088,-0.81135547,-1.1927829,-0.7728014,-0.2412751,-0.58699596,0
-3.8049774,2.2254143,-2.3381457,-0.65350854,0.39081383,-0.64822155,0
-3.3119397,5.1120114,1.7181463,-0.63091409,0.19188732,0.7517491,0
-0.88820744,2.7017632,4.706213,-0.63091409,0.19188732,0.7517491,0
-1.6951632,0.86562777,-5.4293051,-0.70185959,0.27179825,-0.65842146,0
1.5333896,3.9732008,4.1726227,0.65226841,0.6558457,0.38001621,0
-2.5477207,-3.5259356,-2.3347368,-0.62752938,-0.69598937,-0.34900701,0
-3.3288741,-0.65758228,-3.6783383,-0.77519858,-0.1161277,-0.62095219,0
0.58462143,4.9132767,3.8796294,0.54049367,0.80383289,0.24843347,0
-5.228898,3.3342192,0.61805212,-0.63091409,0.19188732,0.7517491,0
-0.85848451,-0.5797348,5.2600923,-0.63091409,0.19188732,0.7517491,0
-1.0001817,-1.774838,5.817224,-0.63091409,0.19188732,0.7517491,0
3.6034684,3.0732081,-3.5189912,0.63091409,-0.19188732,-0.7517491,0
1.6021404,4.7416849,0.23065281,0.35314858,0.93376553,0.058036089,0
3.8678172,1.5529507,2.9632998,0.76877809,0.28516868,0.57241535,0
1.2605729,-3.519089,-4.2341948,0.63091409,-0.19188732,-0.7517491,0
2.6928208,-5.5417151,-0.82295942,0.1115343,-0.93643653,0.33263618,0
-1.6026216,2.0395694,-5.038271,-0.61075449,0.47469801,-0.63375151,0
-4.7618113,-1.4189621,-1.8235607,-0.76591903,-0.30859649,-0.56403583,0
-4.3821926,1.9679098,1.8480717,-0.63091409,0.19188732,0.7517491,0
-4.2023888,1.8045213,2.2607412,-0.63091409,0.19188732,0.7517491,0
-2.9893911,-1.2407839,3.9362032,-0.63091409,0.19188732,0.7517491,0
-1.3641047,4.7661486,3.3762221,-0.63091409,0.19188732,0.7517491,0
2.5376883,-5.5277286,-2.2443254,0.63091409,-0.19188732,-0.7517491,0
1.4097402,4.7442007,-1.8795419,0.091976255,0.98059845,-0.17311007,0
-0.69384068,5.3751798,1.5871282,0.22083715,0.97326803,-0.063090801,0
3.9356391,-3.6722672,-1.7244971,0.63091409,-0.19188732,-0.7517491,0
-2.6166201,3.7276316,2.7763846,-0.63091409,0.19188732,0.7517491,0
4.5881753,3.6989462,-1.6963072,0.44926968,0.88031,0.15235174,0
0.0038571358,0.59522533,-6.3260441,0.63091409,-0.19188732,-0.7517491,0
-4.0305185,-1.9624252,3.2032542,-0.63091409,0.19188732,0.7517491,0
-5.3713031,2.6537001,1.0565308,-0.63091409,0.19188732,0.7517491,0
1.3348931,-5.3935513,-3.4218915,-0.31039494,-0.95043921,-0.017898679,0
-3.2089338,-4.0985994,-0.43668938,-0.5166142,-0.82679474,-0.22253144,0
2.113693,3.8938179,2.5363336,0.60263598,0.73145729,0.3190614,0
6.4501734,-1.7613883,-0.23966503,0.63091409,-0.19188732,-0.7517491,0
3.1504376,-0.91731024,3.7075627,0.71241713,-0.24044439,0.65927875,0
0.54132247,-3.3476756,-4.8614864,0.63091409,-0.19188732,-0.7517491,0
3.1780684,-2.1790113,3.0015752,0.63454002,-0.42991897,0.64228386,0
3.9710116,1.9620231,2.5550499,0.75873423,0.35501224,0.54615813,0
0.90979064,-5.1857023,-0.53397918,-0.043790996,-0.97619551,0.21242607,0
-1.0477357,-4.0472798,3.5719936,0.11151397,-0.9364444,0.33262098,0
1.270362,-4.1102667,-3.8855424,0.63091409,-0.19188732,-0.7517491,0
-6.5403047,-0.050538301,0.5591774,-0.63091409,0.19188732,0.7517491,0
-2.1772292,-2.2815259,-4.7597551,-0.75808012,-0.35866797,-0.54467589,0
-0.17570305,-3.3578281,4.5206103,0.34037733,-0.80225182,0.49044397,0
0.69317245,3.3466697,5.7245517,-0.63091409,0.19188732,0.7517491,0
-2.6897464,0.25148582,3.8532102,-0.63091409,0.19188732,0.7517491,0
-2.0489421,3.4766612,-3.0733309,-0.43148834,0.71848279,-0.54552752,0
-2.4963996,0.94480276,3.6584544,-0.63091409,0.19188732,0.7517491,0
0.29474592,-4.3188486,2.8410444,0.22011769,-0.88484889,0.41059807,0
3.6776085,-1.6837271,3.2650254,0.67737877,-0.3362,0.65431458,0
0.63358951,-3.8186455,-4.4749575,0.63091409,-0.19188732,-0.7517491,0
2.3165433,4.4232726,-1.1847043,0.29655975,0.95500064,0.0051230192,0
-3.77531,3.9111857,-1.1223235,-0.44933677,0.69952172,-0.55566716,0
1.9391748,3.0265038,4.545341,0.71495801,0.52007699,0.46728486,0
1.5661716,3.300781,4.9549584,0.72520554,0.49019673,0.48351216,0
-0.93540716,3.3445787,-3.9280396,-0.38837779,0.76068366,-0.52011853,0
-0.14138937,-2.3247852,6.2006884,-0.63091409,0.19188732,0.7517491,0
3.4209585,2.7021298,2.2244902,0.70864064,0.53700459,0.45766205,0
-2.0531409,4.5217848,3.2740896,-0.63091409,0.19188732,0.7517491,0
5.3593793,-2.0845761,-1.1128461,0.63091409,-0.19188732,-0.7517491,0
-1.5595684,-4.4542027,2.0928063,-0.085003793,-0.980196,0.17885894,0
-0.89161038,2.4604025,4.5455251,-0.63091409,0.19188732,0.7517491,0
4.9893723,-1.107612,-1.344533,0.63091409,-0.19188732,-0.7517491,0
1.7417686,4.4561377,-1.8591199,0.14054251,0.9811691,-0.13249582,0
-3.4624012,5.4156375,1.709017,-0.63091409,0.19188732,0.7517491,0
-4.2065401,2.9023788,1.939045,-0.63091409,0.19188732,0.7517491,0
1.8807225,2.1579216,-4.9638777,0.63091409,-0.19188732,-0.7517491,0
-4.8053775,1.3346978,1.4692056,-0.63091409,0.19188732,0.7517491,0
0.2500186,-0.15714312,6.4066987,-0.63091409,0.19188732,0.7517491,0
1.7798607,-3.2982059,-3.6025186,0.63091409,-0.19188732,-0.7517491,0
1.1080847,1.7762842,-5.3304138,0.63091409,-0.19188732,-0.7517491,0
1.4087629,-4.7154245,0.77979374,0.14423192,-0.92303467,0.35665697,0
-3.2190831,1.4256487,-3.6114869,-0.69980669,0.27760974,-0.65818202,0
-5.1742249,-0.34146971,-1.3402433,-0.77584285,-0.16091534,-0.61006081,0
2.3427234,2.6898413,4.386096,0.73467052,0.45923972,0.4993577,0
-4.105197,-2.5377164,-1.1568747,-0.68534815,-0.59199369,-0.42407733,0
1.4344006,4.7093954,1.1515918,0.39102533,0.91551745,0.094482541,0
1.9977452,-3.8188527,-3.511965,0.63091409,-0.19188732,-0.7517491,0
1.6919494,-2.2756619,4.8310986,0.57588857,-0.53346431,0.61949033,0
2.3612714,1.8479018,-4.4989352,0.63091409,-0.19188732,-0.7517491,0
-4.9096775,0.9321593,-1.8728471,-0.73437798,0.16485673,-0.65841568,0
1.6806827,-0.8665638,5.2657518,0.68793213,-0.30966333,0.65639794,0
1.4868165,4.8785434,1.0733795,0.39844394,0.91153395,0.10172558,0
0.44689298,2.7980585,5.5451336,-0.63091409,0.19188732,0.7517491,0
-3.9071927,0.3455925,2.6883941,-0.63091409,0.19188732,0.7517491,0
0.29172373,-1.8469706,-5.0718718,0.63091409,-0.19188732,-0.7517491,0
0.2737236,-0.28758669,-5.5406265,0.63091409,-0.19188732,-0.7517491,0
3.3004003,-2.6238801,-2.5396318,0.63091409,-0.19188732,-0.7517491,0
-1.9837537,-3.7570891,4.8138709,0.1101203,-0.93697584,0.33158702,0
1.7200696,4.6495733,1.628829,0.45537707,0.87606525,0.15856099,0
-4.0799131,-0.76230323,-2.9920557,-0.77555102,-0.12896144,-0.61797208,0
-1.3990883,-3.8952789,-3.8196542,-0.64200139,-0.67317331,-0.36697662,0
-2.3343847,-1.8056202,4.4005556,-0.63091409,0.19188732,0.7517491,0
-5.9818463,-0.64795816,1.0539541,-0.63091409,0.19188732,0.7517491,0
-3.085896,0.59057832,-3.891655,-0.73816502,0.14985761,-0.65776533,0
4.1980228,-4.635148,-1.2101364,0.63091409,-0.19188732,-0.7517491,0
4.0197024,0.26103616,-2.6974523,0.63091409,-0.19188732,-0.7517491,0
-1.3847375,-2.9312587,5.4540429,-0.63091409,0.19188732,0.7517491,0
-1.5843465,3.3360152,3.8729293,-0.63091409,0.19188732,0.7517491,0
-4.9198456,1.158585,-1.8632085,-0.74773747,0.10808966,-0.65513766,0
-2.5644844,-0.30110526,-4.6149702,-0.76104283,0.035352141,-0.6477378,0
-1.4301772,4.2052555,-2.0518279,-0.28218037,0.84582269,-0.45272318,0
-0.36579967,5.2817731,1.6937747,0.27130443,0.96232629,-0.017942667,0
4.6209793,-4.3833332,-0.60706663,0.39010978,-0.75908077,0.52116287,0
-2.5431042,-3.1058502,-3.3648591,-0.70444864,-0.54770297,-0.45141315,0
-2.7594738,3.9483216,2.4093733,-0.63091409,0.19188732,0.7517491,0
-1.0298769,-4.3596783,-3.3268647,-0.54263008,-0.80166173,-0.25078082,0
0.36807179,-0.74993229,-5.5258236,0.63091409,-0.19188732,-0.7517491,0
4.2094421,-2.3848593,-1.8587991,0.63091409,-0.19188732,-0.7517491,0
-1.4281406,5.5346513,2.0995224,0.1415976,0.98113757,-0.13160229,0
3.0361369,-0.73234224,-3.4336743,0.63091409,-0.19188732,-0.7517491,0
5.3947587,3.0228491,-2.3523984,0.63091409,-0.19188732,-0.7517491,0
3.9382107,0.92528152,-2.8361382,0.63091409,-0.19188732,-0.7517491,0
-1.282919,2.5703077,4.1760221,-0.63091409,0.19188732,0.7517491,0
2.5391998,1.3835442,-4.1572104,0.63091409,-0.19188732,-0.7517491,0
3.5985723,-0.42222476,-3.0477366,0.63091409,-0.19188732,-0.7517491,0
2.9231274,-0.15572476,-3.2679636,0.63091409,-0.19188732,-0.7517491,0
-2.3630939,-0.91618204,-4.8681254,-0.77351677,-0.080438524,-0.62865061,0
-0.077807188,4.3967104,4.6063037,-0.63091409,0.19188732,0.7517491,0
1.6335816,0.48240614,-4.5062699,0.63091409,-0.19188732,-0.7517491,0
2.877634,3.639343,1.4168525,0.5841127,0.7552042,0.29745412,0
5.1282125,3.1676793,-0.95431185,0.60281628,0.73121572,0.31927443,0
0.78555274,-5.4847822,-0.94384098,-0.11503261,-0.98135912,0.15395385,0
2.0361032,0.16461086,-4.2318106,0.63091409,-0.19188732,-0.7517491,0
-1.7327806,4.08564,3.5425849,-0.63091409,0.19188732,0.7517491,0
-4.0977068,-1.4158558,-2.7402306,-0.7693646,-0.27978095,-0.57428277,0
-2.2060409,3.0918999,-3.5594983,-0.52604103,0.60641265,-0.59627557,0
-2.2415493,-0.13957262,-5.2604222,-0.76047146,0.03903085,-0.64819729,0
-6.1750693,0.28863603,-0.47332811,-0.76941919,-0.030226469,-0.63802856,0
-3.064631,4.8697562,0.29793847,-0.24464369,0.87029922,-0.42746788,0
1.2149704,-4.3829927,2.1155493,0.22182012,-0.88387489,0.41177809,0
-1.9015012,-1.6033797,4.9739857,-0.63091409,0.19188732,0.7517491,0
-1.5165381,-2.2261605,5.3038688,-0.63091409,0.19188732,0.7517491,0
5.1139321,2.0142231,0.44224358,0.71146327,0.52956712,0.4619295,0
-5.589839,-2.0211797,0.022358894,-0.71366447,-0.52362716,-0.46529305,0
3.9821787,-3.3407125,1.2876941,0.53953463,-0.58777726,0.6028434,0
-5.3997798,-2.3840828,-0.017265797,-0.69787323,-0.56371999,-0.4418062,0
2.5793371,4.5457616,-1.2865829,0.27361679,0.96170837,-0.015844345,0
-2.2388005,5.1855607,0.5156045,-0.12437272,0.93138814,-0.3421222,0
4.6458445,-1.0864336,-2.0548205,0.63091409,-0.19188732,-0.7517491,0
-1.9015527,1.9393561,-4.8072238,-0.63647765,0.42607403,-0.6429286,0
-0.66292572,-2.4579134,-5.6884637,0.63091409,-0.19188732,-0.7517491,0
-4.5502954,-3.6685977,3.3064084,-0.63091409,0.19188732,0.7517491,0
4.532496,-3.3892481,1.134178,0.57614708,-0.53305447,0.61960262,0
0.64215517,-0.35609722,-5.4715738,0.63091409,-0.19188732,-0.7517491,0
-2.0969939,5.4251313,1.6599209,0.04651618,0.97654516,-0.2102282,0
1.9990047,-3.5698051,-3.3527684,0.63091409,-0.19188732,-0.7517491,0
5.0795794,2.7719221,0.11714458,0.67684269,0.60975975,0.41240418,0
-3.5157046,1.9389579,2.5421824,-0.63091409,0.19188732,0.7517491,0
-1.7073412,1.1968467,-5.0951319,-0.68464279,0.31811565,-0.6557948,0
-2.0955458,4.5590153,3.0941744,-0.63091409,0.19188732,0.7517491,0
-6.3901935,0.4216876,0.13240623,-0.77241969,-0.064301312,-0.63184905,0
-3.5710769,1.5584831,2.5340369,-0.63091409,0.19188732,0.7517491,0
-2.4040909,-0.832973,-5.1151285,-0.77403975,-0.089474976,-0.62678289,0
-1.4444443,2.0121722,4.317358,-0.63091409,0.19188732,0.7517491,0
-5.4720912,0.41032737,-1.5299184,-0.76860178,-0.022422284,-0.63933456,0
-2.7157638,-4.0685134,3.8817472,-0.07063508,-0.97911507,0.19064218,0
5.3987274,-1.0438287,1.5717402,0.74289536,-0.12999225,0.65666473,0
-1.1547093,2.4522514,-4.6721382,-0.53173923,0.59863615,-0.59907293,0
1.4664674,-4.5332618,1.3124044,0.18189156,-0.90534675,0.38374835,0
-0.18212426,5.3768106,1.3293991,0.24260762,0.96913689,-0.043765306,0
-2.7796497,-0.42896843,3.5761793,-0.63091409,0.19188732,0.7517491,0
3.2589955,-5.3072677,-0.68398452,0.16490901,-0.91362578,0.37160888,0
2.919081,-2.133235,-3.2245979,0.63091409,-0.19188732,-0.7517491,0
1.9200206,-5.7033877,-1.8870471,-0.11308855,-0.98132896,0.15557778,0
-4.7162218,-3.1019821,0.098776817,-0.61714256,-0.71132785,-0.3363744,0
5.0049868,1.1971509,-1.9688153,0.63091409,-0.19188732,-0.7517491,0
3.0001671,-3.3973107,-2.8073454,0.63091409,-0.19188732,-0.7517491,0
-2.4938753,-4.5250168,0.79357815,-0.34963498,-0.93528789,-0.054698825,0
6.5259342,0.80770862,-0.46608829,0.76257062,0.33188832,0.55528021,0
6.5818758,-1.1036081,-0.077551365,0.63091409,-0.19188732,-0.7517491,0
1.4750538,-0.37240601,6.1035566,0.72913671,-0.18449691,0.65903008,0
1.0332978,-4.6075945,1.5343451,0.1450597,-0.92267203,0.35725915,0
-3.2248549,-0.57641721,-3.7667012,-0.77529556,-0.11921626,-0.62024528,0
4.7097349,-2.1693473,-1.534027,0.63091409,-0.19188732,-0.7517491,0
-3.8964975,-2.0766892,-2.3106623,-0.73709786,-0.45065141,-0.50358713,0
4.5636635,-0.60221076,-2.1016166,0.63091409,-0.19188732,-0.7517491,0
-3.8501832,-3.1793425,3.4472308,-0.63091409,0.19188732,0.7517491,0
0.47558498,1.1298246,6.1410871,-0.63091409,0.19188732,0.7517491,0
0.929281,-3.991631,3.013289,0.298334,-0.83443511,0.4633736,0
-0.013003826,-4.3717718,2.9455564,0.1670754,-0.91259754,0.37316453,0
-4.4400063,4.6991539,0.50370079,-0.38190806,0.7666052,-0.51620018,0
-3.72263,4.8873434,1.4261177,-0.63091409,0.19188732,0.7517491,0
1.7543986,4.4472027,1.6637592,0.50337863,0.83855253,0.20842206,0
-0.87020683,3.0239084,-4.3428068,-0.42773354,0.7223562,-0.543365,0
-5.1420097,-0.36241576,-1.5382051,-0.77527893,-0.19318041,-0.60135168,0
4.5530305,-1.4121046,-1.7040607,0.63091409,-0.19188732,-0.7517491,0
-3.2837429,3.760118,-1.7176049,-0.48338276,0.66067541,-0.57432497,0
2.2993441,1.2944176,4.8943825,0.77563596,0.13309273,0.6169889,0
-5.3779345,1.2941542,-1.0533459,-0.73917818,0.14571494,-0.6575582,0
-3.0006008,-3.0106988,-2.6540546,-0.68663514,-0.58921015,-0.42586797,0
-1.8570142,-4.6046357,-2.0946617,-0.5186007,-0.82497257,-0.22466373,0
5.570817,-0.26150298,-1.2969668,0.63091409,-0.19188732,-0.7517491,0
-5.2937284,3.2343395,-0.21798897,-0.6037336,0.48713621,-0.63103408,0
0.39454174,1.974431,-6.2629037,0.63091409,-0.19188732,-0.7517491,0
-4.5296712,2.0819776,-1.8405355,-0.68228388,0.32407364,-0.65533584,0
-1.7377663,4.8853893,-0.22254181,-0.13096881,0.92868721,-0.34696865,0
-0.92365289,-3.1274061,-5.9207687,0.63091409,-0.19188732,-0.7517491,0
3.0399742,3.9595542,-4.2597189,0.63091409,-0.19188732,-0.7517491,0
-5.4570622,3.1461205,-0.19596326,-0.62142283,0.45514286,-0.63771361,0
1.7063463,0.72107744,5.5811033,0.76871121,0.023440868,0.63916641,0
0.75599933,-3.5434663,-4.2501755,0.63091409,-0.19188732,-0.7517491,0
-0.64945149,4.453167,4.3823099,-0.63091409,0.19188732,0.7517491,0
1.8249698,-0.8399086,5.1968575,0.70821309,-0.25324088,0.65901691,0
-2.6251619,2.7832563,-3.1488485,-0.56873316,0.54466701,-0.61634457,0
3.7765994,-4.9303617,-0.19986808,0.29735285,-0.83514178,0.46273047,0
4.6986904,-1.372046,-1.8633372,0.63091409,-0.19188732,-0.7517491,0
1.5929314,-5.1897726,-0.20124435,0.030471921,-0.9620567,0.2711432,0
-2.3953223,-1.0042348,4.3990183,-0.63091409,0.19188732,0.7517491,0
4.7245016,-1.506762,-1.8175812,0.63091409,-0.19188732,-0.7517491,0
0.67888069,-3.2618327,4.3944612,0.4025405,-0.74735564,0.52860272,0
-2.5522337,3.9752996,2.7646174,-0.63091409,0.19188732,0.7517491,0
-1.6130409,-4.7299657,-1.4438925,-0.45135111,-0.87887591,-0.1544646,0
4.0069127,4.1913266,-2.4266772,0.34090438,0.93895042,0.046436787,0
-0.48253822,0.42928934,-6.2681165,0.63091409,-0.19188732,-0.7517491,0
1.7280624,1.8126025,5.6321115,0.77529424,0.19268435,0.60149121,0
1.9895896,-2.2742608,-3.5184226,0.63091409,-0.19188732,-0.7517491,0
4.8388286,1.8602097,1.1531315,0.74471694,0.42151439,0.51741886,0
3.4549775,-4.5584011,-1.9257572,0.63091409,-0.19188732,-0.7517491,0
2.0428889,0.63337851,-4.5788703,0.63091409,-0.19188732,-0.7517491,0
3.6636901,3.6452384,0.41153336,0.5699321,0.77205926,0.28125048,0
-0.22260404,5.1389236,3.0979245,0.40170974,0.90973622,0.10492539,0
2.7990501,2.2864196,-4.4227042,0.63091409,-0.19188732,-0.7517491,0
-2.7253039,3.194803,3.0967617,-0.63091409,0.19188732,0.7517491,0
-4.7955008,-3.4922237,1.2028408,-0.53939414,-0.80494249,-0.24722767,0
-2.6508713,-1.4129312,-4.4479079,-0.77582246,-0.16458651,-0.60910648,0
1.839216,2.6175802,-4.8498058,0.63091409,-0.19188732,-0.7517491,0
-1.8110448,-3.9225564,-3.0059462,-0.5940339,-0.74274272,-0.30896151,0
4.0294509,-4.3850551,-1.5016885,0.63091409,-0.19188732,-0.7517491,0
-0.58337212,-1.2009883,-6.4002819,0.63091409,-0.19188732,-0.7517491,0
3.5973339,0.56941819,3.5663509,0.77512032,0.11380261,0.62148005,0
0.1755892,-4.7217841,-4.447258,0.63091409,-0.19188732,-0.7517491,0
-1.1213832,-4.7564673,-2.8976951,-0.50357789,-0.83838028,-0.20863318,0
-4.4611006,2.0275145,1.5961217,-0.63091409,0.19188732,0.7517491,0
-0.54439926,-3.2591982,4.8906827,0.35583991,-0.78944635,0.50015253,0
2.030724,-4.6240673,1.4053169,0.23307371,-0.87730193,0.41954499,0
-5.4476061,2.7935884,-0.80710936,-0.64669633,0.40524617,-0.64618838,0
6.2090445,-0.038881063,-0.75300455,0.63091409,-0.19188732,-0.7517491,0
-1.7577374,3.5693555,-2.8420274,-0.3781563,0.76999223,-0.51391602,0
-2.4071631,-4.1672587,-2.0577154,-0.55685198,-0.78668451,-0.26653969,0
0.34005928,-2.3912945,-5.23283,0.63091409,-0.19188732,-0.7517491,0
2.2959313,-0.77085447,-4.0981708,0.63091409,-0.19188732,-0.7517491,0
1.7810044,0.28277159,-4.827035,0.63091409,-0.19188732,-0.7517491,0
-1.1824622,1.492856,4.84763,-0.63091409,0.19188732,0.7517491,0
1.0029616,-3.3954468,3.6673088,0.41512269,-0.73508191,0.53602952,0
-0.91491842,-0.74920368,5.6446285,-0.63091409,0.19188732,0.7517491,0
-3.6398513,1.8711731,-3.0820794,-0.66016638,0.37624747,-0.65009105,0
-1.9184971,1.9792082,-4.8454227,-0.62551326,0.44742286,-0.63917601,0
3.4791143,2.4409952,2.5193114,0.73493189,0.45832914,0.4998095,0
2.7078028,2.4918313,-4.1823554,0.63091409,-0.19188732,-0.7517491,0
-2.939971,-3.4004092,4.1957779,-0.63091409,0.19188732,0.7517491,0
-3.2856109,-4.1950336,0.67010641,-0.40589637,-0.90739143,-0.10903764,0
0.19934273,-0.53795385,6.3066502,-0.63091409,0.19188732,0.7517491,0
1.1122837,-2.2849672,4.7469697,0.54586285,-0.57876879,0.60585511,0
4.9742918,-1.7170473,-1.2488194,0.63091409,-0.19188732,-0.7517491,0
4.8472075,-0.65627086,2.0032618,0.75750011,-0.057150275,0.65032864,0
-1.7521861,-2.1259735,4.9723053,-0.63091409,0.19188732,0.7517491,0
-0.97125673,5.0345383,0.44143867,0.061688304,0.97827202,-0.1979357,0
-1.0410066,-4.0671711,3.8528042,0.16383284,-0.91413343,0.3708353,0
0.97154856,0.38513565,-5.1091738,0.63091409,-0.19188732,-0.7517491,0
5.1442728,0.87170285,1.2992229,0.76875544,0.28537148,0.57234448,0
-0.15096474,5.1844664,0.70718241,0.16162723,0.98018128,-0.11454809,0
0.97586727,4.5304694,3.8422985,0.57874817,0.76170844,0.29129159,0
3.7415373,-1.1970251,-2.4951379,0.63091409,-0.19188732,-0.7517491,0
-6.2225547,-0.7077167,0.91711903,-0.63091409,0.19188732,0.7517491,0
3.6805756,3.8561597,-0.08668232,0.50983846,0.83289623,0.21528733,0
-5.0016308,0.73211312,-1.7724106,-0.75031352,0.095653832,-0.65412539,0
2.2385287,-0.21933222,-4.0961905,0.63091409,-0.19188732,-0.7517491,0
0.098805904,-4.9637594,0.5823946,-0.066499829,-0.97874153,0.19401741,0
0.79954386,4.4854808,-3.1096578,-0.096459091,0.94201517,-0.32140809,0
5.7865081,2.2159913,-1.6688776,0.63091409,-0.19188732,-0.7517491,0
1.5397789,0.66403437,-4.9309516,0.63091409,-0.19188732,-0.7517491,0
-3.1762068,-4.1965241,2.2551708,-0.2968359,-0.95491338,-0.0053770542,0
1.026441,-2.8495789,-4.4541464,0.63091409,-0.19188732,-0.7517491,0
-0.42686176,-5.0597372,-0.14308739,-0.21975285,-0.97345096,0.064047575,0
0.012320042,0.82714748,5.6821022,-0.63091409,0.19188732,0.7517491,0
4.9882774,0.6863215,-1.9544368,0.63091409,-0.19188732,-0.7517491,0
-4.0153174,-1.9605851,3.329829,-0.63091409,0.19188732,0.7517491,0
6.2892656,1.5925808,-1.2868843,0.63091409,-0.19188732,-0.7517491,0
-5.9296489,-0.82139337,-0.29035759,-0.76827419,-0.28961402,-0.5708577,0
0.55354071,1.215476,6.082201,-0.63091409,0.19188732,0.7517491,0
4.0012388,-1.7664711,2.758976,0.68933451,-0.30600616,0.65664142,0
-0.98180008,3.5952258,-3.4718509,-0.34407562,0.79923803,-0.49277848,0
-2.0645204,5.1846137,2.8140278,-0.63091409,0.19188732,0.7517491,0
2.7264831,-2.4603593,3.089138,0.59381557,-0.50416517,0.62705708,0
-1.4135852,3.7654481,3.870961,-0.63091409,0.19188732,0.7517491,0
-3.4120517,4.0928144,2.3224192,-0.63091409,0.19188732,0.7517491,0
3.5435791,-2.7662506,-2.1425016,0.63091409,-0.19188732,-0.7517491,0
-0.34616709,1.0075297,-6.7745867,0.63091409,-0.19188732,-0.7517491,0
4.4831715,-3.619566,-1.3549293,0.63091409,-0.19188732,-0.7517491,0
-2.2851138,0.031056881,3.7973921,-0.63091409,0.19188732,0.7517491,0
-6.2219753,1.2938594,0.54355431,-0.63091409,0.19188732,0.7517491,0
0.42718387,-4.95824,0.33558798,-0.012460172,-0.97131371,0.23747486,0
-0.90028381,-2.99193,5.5159101,0.33459795,-0.80690098,0.48678029,0
3.4098072,0.50277686,3.6063051,0.77310789,0.074056327,0.62993664,0
-4.4141645,0.8073473,2.3192692,-0.63091409,0.19188732,0.7517491,0
1.5963593,3.2393401,-5.5070715,0.63091409,-0.19188732,-0.7517491,0
-4.6333313,-0.95421791,2.5507331,-0.63091409,0.19188732,0.7517491,0
-0.14499968,-5.2921743,-1.308073,-0.2844587,-0.95866978,0.0059694052,0
-4.2094216,0.18138599,2.3381865,-0.63091409,0.19188732,0.7517491,0
1.6464992,-0.85020399,5.7838326,0.69190919,-0.299207,0.65706676,0
-4.2087193,-2.6436017,-1.5798159,-0.71317101,-0.52496994,-0.46453613,0
4.3177567,-4.1880817,-1.0302575,0.63091409,-0.19188732,-0.7517491,0
5.253932,-3.9388404,-0.7191965,0.63091409,-0.19188732,-0.7517491,0
0.51793861,0.28823471,6.391634,-0.63091409,0.19188732,0.7517491,0
3.1109869,0.56496429,3.9076543,0.77216971,0.06100145,0.63248146,0
-3.0067835,-1.1286616,3.6291318,-0.63091409,0.19188732,0.7517491,0
2.7604148,-3.1408377,2.9220066,0.52542657,-0.60724336,0.59597194,0
4.4835868,-3.118536,-1.4440081,0.63091409,-0.19188732,-0.7517491,0
4.484354,3.1303606,0.13543558,0.61061537,0.72056305,0.32853913,0
-3.6927469,-3.5398436,3.6679144,-0.63091409,0.19188732,0.7517491,0
-3.8605669,0.14622664,2.526439,-0.63091409,0.19188732,0.7517491,0
-1.4516306,-5.0215721,0.36689949,-0.24600148,-0.96841323,0.040732265,0
-0.48209476,-1.7825332,-5.7439938,0.63091409,-0.19188732,-0.7517491,0
1.734767,-4.2742586,-3.6735744,0.63091409,-0.19188732,-0.7517491,0
-0.24487829,3.7748594,5.0407729,-0.63091409,0.19188732,0.7517491,0
-2.7237887,-2.0954537,4.3209119,-0.63091409,0.19188732,0.7517491,0
4.7236037,0.29208732,-2.02672,0.63091409,-0.19188732,-0.7517491,0
0.79459047,-0.15908432,6.4639997,-0.63091409,0.19188732,0.7517491,0
1.4992753,4.8216209,0.1512804,0.32187474,0.94635093,0.028576851,0
-3.2479544,1.8686469,2.5772929,-0.63091409,0.19188732,0.7517491,0
-3.5619581,-3.4582498,3.9961257,-0.63091409,0.19188732,0.7517491,0
-0.065275669,3.538065,5.1247458,-0.63091409,0.19188732,0.7517491,0
-3.1009214,4.5227165,2.0597072,-0.63091409,0.19188732,0.7517491,0
-4.1512761,0.8652122,2.111743,-0.63091409,0.19188732,0.7517491,0
-2.0188119,4.4425936,-1.741122,-0.31801939,0.81983411,-0.47616777,0
1.7026944,3.4135125,4.3590469,0.70810086,0.53840494,0.4568516,0
0.72985172,-5.0860686,0.33212304,-0.02883327,-0.97406244,0.22443515,0
0.23218799,-4.9122305,0.32868481,-0.070223212,-0.97907913,0.19097865,0
-1.4090471,-0.95601463,-6.3114958,-0.77119571,-0.049100548,-0.63470173,0
4.1321216,4.0325899,-2.939209,0.32050717,0.94685256,0.027300954,0
-2.3296547,-2.8714938,-3.6398442,-0.70198649,-0.55380505,-0.44778907,0
-2.5237365,-2.0816386,-4.3535919,-0.75658894,-0.36674029,-0.54136401,0
-4.8229752,3.7814507,-0.19509333,-0.53499258,0.59413552,-0.60065454,0
1.062675,1.0771298,-5.2963209,0.63091409,-0.19188732,-0.7517491,0
5.1193361,-1.7751293,1.2533453,0.693102,-0.29601854,0.65725398,0
0.62418604,-1.693223,-4.8860474,0.63091409,-0.19188732,-0.7517491,0
3.0467706,-3.5375428,1.9196498,0.47448599,-0.67118311,0.56954038,0
6.0136929,-1.7078289,0.2298255,0.72181219,-0.21011677,0.65942246,0
0.82811832,-1.2626514,6.186337,0.65115893,-0.39584398,0.6475336,0
0.42581689,-5.1058989,-0.14907312,-0.10723847,-0.98120034,0.16045457,0
-2.2876465,2.5327306,-3.5415635,-0.55157822,0.57047856,-0.60853571,0
-2.0355477,1.2615561,4.1864038,-0.63091409,0.19188732,0.7517491,0
-4.7900052,3.3762066,1.1734416,-0.63091409,0.19188732,0.7517491,0
4.448719,-3.8039296,0.60971344,0.49635732,-0.64487159,0.58117992,0
-1.1626997,-0.988976,-6.2688289,-0.77216589,-0.060951382,-0.63249099,0
5.0480032,-2.4729495,-1.2837391,0.63091409,-0.19188732,-0.7517491,0
-1.2502213,2.6833248,-4.8796387,-0.51573282,0.6201486,-0.59113055,0
2.2883708,1.3759847,-4.5244269,0.63091409,-0.19188732,-0.7517491,0
1.2413573,-4.0585041,2.6173534,0.30713832,-0.82800448,0.46912125,0
-4.0073376,-3.7334769,1.1619339,-0.48110661,-0.85691017,-0.18504417,0
2.8350139,2.8646708,3.4617207,0.72481555,0.49139673,0.48287868,0
4.8212314,-3.8142378,-1.0706557,0.63091409,-0.19188732,-0.7517491,0
-0.017566681,2.2250638,-6.3366585,-0.52721012,0.60482806,-0.59685224,0
-4.3658223,0.077957988,-2.4069922,-0.76839602,-0.020528138,-0.63964534,0
-3.7791224,4.6818719,0.16616529,-0.33206046,0.80891907,-0.48516577,0
-3.2481973,0.41516852,2.9214909,-0.63091409,0.19188732,0.7517491,0
-0.30842686,-1.0666976,6.1829729,-0.63091409,0.19188732,0.7517491,0
0.6725831,4.9167204,0.040457249,0.23676521,0.97033185,-0.04897356,0
1.6992639,4.7927189,-1.5162764,0.15687424,0.9804703,-0.11861086,0
3.8157644,1.9490798,-3.1867836,0.63091409,-0.19188732,-0.7517491,0
-4.3926859,-0.36111784,2.2983615,-0.63091409,0.19188732,0.7517491,0
-2.5284507,-4.4225893,-0.82456732,-0.48509085,-0.85375208,-0.1891942,0
-3.44449,-0.72979927,3.1052728,-0.63091409,0.19188732,0.7517491,0
0.19876242,4.0874419,-3.7923088,-0.23932308,0.87355053,-0.42383227,0
-4.8770218,2.6371763,-1.0016015,-0.63748509,0.42406213,-0.64326054,0
5.1084433,-2.4223037,0.96921003,0.64102918,-0.41691387,0.64441025,0
-2.2446859,-4.2534952,-2.1141286,-0.54517007,-0.79905427,-0.25357819,0
-0.80582523,-1.9609804,5.8119359,-0.63091409,0.19188732,0.7517491,0
3.9900341,3.7302821,-1.3676434,0.45430383,0.87681931,0.15746772,0
5.2452431,-0.74546647,-1.3092523,0.63091409,-0.19188732,-0.7517491,0
3.109041,1.1672769,-3.9290662,0.63091409,-0.19188732,-0.7517491,0
-2.923527,-2.288729,-3.3367832,-0.73766416,-0.44860402,-0.50458503,0
-3.7691603,-3.95439,3.2878938,-0.22973138,-0.97168612,0.055222511,0
3.153882,-3.77601,-2.479876,0.63091409,-0.19188732,-0.7517491,0
4.9701934,0.56804872,-1.887809,0.63091409,-0.19188732,-0.7517491,0
-0.35311365,-4.6161361,-3.7717948,-0.54146111,-0.80285233,-0.24949574,0
5.2956676,0.73849702,-1.5005994,0.63091409,-0.19188732,-0.7517491,0
4.5032034,-2.4868577,1.5313406,0.63306803,-0.43281895,0.64178866,0
-1.6514529,-4.7585106,-0.55047655,-0.37585238,-0.92323923,-0.079777598,0
5.576684,-1.4459991,-0.71545124,0.63091409,-0.19188732,-0.7517491,0
0.70743608,4.5671277,-2.0917718,0.01206243,0.97124165,-0.23779029,0
5.703959,-1.2817812,-0.73772693,0.63091409,-0.19188732,-0.7517491,0
1.3349935,-2.0062785,-4.4892092,0.63091409,-0.19188732,-0.7517491,0
-0.10393763,4.3289309,-3.0379772,-0.16376299,0.91416639,-0.37078509,0
-0.64688277,5.2617302,3.5617349,0.38974428,0.91619134,0.093235493,0
4.4743071,3.8161948,-3.0027871,0.35286915,0.93388748,0.057770491,0
4.7482514,-4.03759,-0.15430436,0.47881138,-0.66610706,0.57187486,0
-3.6960595,0.389117,2.58304,-0.63091409,0.19188732,0.7517491,0
5.6988487,0.40021753,-1.3633471,0.63091409,-0.19188732,-0.7517491,0
-0.61288667,3.7315373,4.7039924,-0.63091409,0.19188732,0.7517491,0
-4.4332991,-2.6541893,-0.84116411,-0.68505782,-0.59261787,-0.42367429,0
1.9726937,4.5813141,0.086401939,0.34162307,0.93865544,0.047115207,0
1.43451,-5.5036654,-1.6734099,-0.12364423,-0.98141694,0.14674121,0
-0.59700918,-2.7787704,5.9499712,0.43469942,-0.71513897,0.54736894,0
-2.4621301,-3.2518833,-3.2025723,-0.68962479,-0.58264202,-0.43005359,0
1.2163014,-3.5812395,-4.155715,0.63091409,-0.19188732,-0.7517491,0
-2.8173332,5.5393953,1.065084,-0.091659307,0.94371271,-0.31781304,0
1.0423093,-4.0079355,2.7777784,0.3072142,-0.82794845,0.46917057,0
-4.9338064,-3.526593,2.4569926,-0.44460994,-0.88347411,-0.14763331,0
4.6772399,1.442584,1.5128684,0.76270372,0.33102638,0.55561203,0
-3.0889671,-2.6647146,-3.2344508,-0.72521603,-0.49016428,-0.48352933,0
-5.2633133,-1.4385291,1.6969275,-0.63091409,0.19188732,0.7517491,0
-5.3259087,-2.8608809,1.0271912,-0.60204369,-0.73224926,-0.31836224,0
2.9159749,-0.35247087,-3.475203,0.63091409,-0.19188732,-0.7517491,0
-1.9591033,4.6828079,3.0744987,-0.63091409,0.19188732,0.7517491,0
3.6227376,3.7120266,0.83432722,0.57050312,0.77140135,0.28189778,0
-2.8411555,-3.8469241,4.3658962,-0.63091409,0.19188732,0.7517491,0
-1.3158774,-2.246861,5.4754124,-0.63091409,0.19188732,0.7517491,0
2.242573,-3.0546429,3.2923985,0.51759636,-0.61769634,0.59206861,0
1.1260474,4.6718082,-0.15589952,0.2530967,0.96683013,-0.034373403,0
4.3076324,-0.41500092,-2.3603969,0.63091409,-0.19188732,-0.7517491,0
2.4524019,-3.3068542,-3.0049136,0.63091409,-0.19188732,-0.7517491,0
5.0093789,-2.2348566,1.4344344,0.68459535,-0.31823602,0.65578574,0
0.76137257,4.8271732,-1.996542,0.0024545193,0.96942163,-0.24538916,0
-3.0349202,-0.056618929,3.2256203,-0.63091409,0.19188732,0.7517491,0
-4.1657147,-3.334353,-0.6256628,-0.62014711,-0.70697433,-0.34000731,0
4.5237818,0.29980755,-2.4194014,0.63091409,-0.19188732,-0.7517491,0
1.4018648,3.9986625,3.8730021,0.62205696,0.70417213,0.34232533,0
-1.9218705,3.7497003,3.5163264,-0.63091409,0.19188732,0.7517491,0
3.5016279,-3.3139672,-2.0063469,0.63091409,-0.19188732,-0.7517491,0
-3.2284815,-2.9223757,-2.3863034,-0.69108105,-0.57938862,-0.43210632,0
-3.7417223,-3.1116078,3.73579,-0.63091409,0.19188732,0.7517491,0
6.0442924,0.84483385,0.5426321,0.76795888,0.29231855,0.56990272,0
-0.87291837,-4.7811694,-1.932745,-0.41679022,-0.90107477,-0.11979258,0
-1.9422133,-1.3397551,4.8292532,-0.63091409,0.19188732,0.7517491,0
1.8107562,3.7231178,-4.8623457,-0.18571734,0.90341216,-0.38646537,0
-1.3907704,0.49527311,4.4651356,-0.63091409,0.19188732,0.7517491,0
-1.0267272,4.7393947,-1.8053722,-0.19667202,0.89773017,-0.39420897,0
-0.97739661,2.2437534,4.3289227,-0.63091409,0.19188732,0.7517491,0
-1.0542018,-4.6291022,2.9376099,0.04244256,-0.95894575,0.28039551,0
2.0163827,3.4922209,-5.242866,0.63091409,-0.19188732,-0.7517491,0
3.3863537,0.99959302,-3.2314272,0.63091409,-0.19188732,-0.7517491,0
0.73363352,0.80195475,-5.765913,0.63091409,-0.19188732,-0.7517491,0
0.49644566,-1.4618416,6.4167376,0.60855281,-0.478634,0.63290846,0
-2.9017138,0.21618176,3.2335312,-0.63091409,0.19188732,0.7517491,0
-0.85557699,-2.6093874,6.0318537,-0.63091409,0.19188732,0.7517491,0
-4.9311466,-0.12338758,1.6358452,-0.63091409,0.19188732,0.7517491,0
1.8836876,-4.0423603,-3.1441391,0.63091409,-0.19188732,-0.7517491,0
0.79326391,1.7750096,-6.0145121,0.63091409,-0.19188732,-0.7517491,0
-0.23825955,5.185133,-0.5835681,0.022859514,0.97310966,-0.22920555,0
2.6647587,-2.0454209,-2.9627995,0.63091409,-0.19188732,-0.7517491,0
0.57791322,-5.104322,-1.2605877,-0.18027356,-0.97867084,0.098513365,0
3.2952807,-4.3978529,-2.034893,0.63091409,-0.19188732,-0.7517491,0
2.6305692,0.14042234,-4.0416431,0.63091409,-0.19188732,-0.7517491,0
-2.4087791,-3.8996303,-1.6713333,-0.55530775,-0.78835613,-0.264817,0
0.34297633,-3.7520478,-4.6886129,0.63091409,-0.19188732,-0.7517491,0
1.6035385,-2.2095985,4.8250737,0.56806988,-0.54569179,0.61604959,0
4.9205556,0.91548634,-2.0491238,0.63091409,-0.19188732,-0.7517491,0
0.12900496,1.3626766,5.953403,-0.63091409,0.19188732,0.7517491,0
4.497797,-3.3459976,-1.2782538,0.63091409,-0.19188732,-0.7517491,0
-3.5892787,2.9618297,2.0493307,-0.63091409,0.19188732,0.7517491,0
2.1115987,-2.6102123,3.9961615,0.56972414,-0.54313135,0.61678433,0
1.0981373,4.6755409,-0.95595884,0.17321977,0.97931314,-0.10459733,0
-3.780314,-4.0668464,0.72685528,-0.4859556,-0.85305953,-0.19009662,0
-5.7402673,2.6710372,0.40103698,-0.63091409,0.19188732,0.7517491,0
-1.2477734,4.8935018,-1.3289325,-0.13615328,0.92651308,-0.35076475,0
0.78561211,4.8157516,2.2095261,0.45873904,0.87368041,0.16199124,0
-4.405014,-0.23232019,-2.559788,-0.77430052,-0.094467759,-0.6257273,0
6.4960079,-0.14375043,-0.27020645,0.77553582,0.12828633,0.61813188,0
2.27069,4.7154856,-0.43098974,0.33638459,0.94077981,0.042176485,0
5.3295636,-4.1995616,-0.66916376,0.63091409,-0.19188732,-0.7517491,0
-4.2827525,2.8817,-1.4129024,-0.59410197,0.50368214,-0.62717396,0
3.5091438,-0.45603418,-2.8532374,0.63091409,-0.19188732,-0.7517491,0
5.7524843,-1.7854509,-0.55100608,0.63091409,-0.19188732,-0.7517491,0
1.4573138,-3.7800887,2.6527896,0.37481391,-0.77298099,0.51187384,0
-5.6173863,3.3256922,0.44396448,-0.63091409,0.19188732,0.7517491,0
1.8123912,-2.4587083,-3.9054897,0.63091409,-0.19188732,-0.7517491,0
0.72442245,0.32323694,6.501905,-0.63091409,0.19188732,0.7517491,0
5.0224862,-1.6008635,-1.1909449,0.63091409,-0.19188732,-0.7517491,0
0.66950333,-4.7731309,-4.1559691,0.63091409,-0.19188732,-0.7517491,0
4.3178988,2.7198851,-3.1458402,0.63091409,-0.19188732,-0.7517491,0
-6.237237,-2.0278742,0.93354273,-0.70452577,-0.54750949,-0.45152706,0
-2.9195406,-3.9633892,-0.46120596,-0.51661611,-0.82679319,-0.22253346,0
4.543932,-0.53195882,2.4803636,0.7615118,-0.032278121,0.64734674,0
4.7452278,3.4746792,-2.7557878,0.63091409,-0.19188732,-0.7517491,0
1.3840592,-5.3711729,-1.2810879,-0.10096467,-0.98099953,0.16566873,0
2.3667512,0.98414755,-4.2659373,0.63091409,-0.19188732,-0.7517491,0
2.6077466,1.2152889,-3.9524531,0.63091409,-0.19188732,-0.7517491,0
1.8655114,0.94745445,5.794189,0.77095914,0.046402037,0.63519204,0
0.1503973,3.6256082,-4.1533446,-0.27092147,0.85345161,-0.44522136,0
2.2851467,-1.545224,-3.8849821,0.63091409,-0.19188732,-0.7517491,0
3.7858062,3.6187561,-3.9875875,0.63091409,-0.19188732,-0.7517491,0
-1.4041209,2.8383019,-4.5927877,-0.50169176,0.63820243,-0.58395463,0
3.9107814,-0.6500684,3.1102889,0.75441241,-0.074482173,0.65216124,0
3.3871524,4.092742,-2.2890425,0.27530193,0.96125126,-0.01431334,0
1.1254921,2.7822013,5.5553179,0.74318337,0.42767724,0.51455867,0
-1.6675892,3.6821465,3.3968797,-0.63091409,0.19188732,0.7517491,0
3.7735581,0.7742126,3.4002535,0.77585095,0.15395176,0.61184496,0
-5.5723729,-0.61171269,1.6016216,-0.63091409,0.19188732,0.7517491,0
0.070876598,3.7776599,-4.3268065,-0.31007105,0.82582682,-0.47102678,0
-1.1415792,3.5606706,4.0187078,-0.63091409,0.19188732,0.7517491,0
3.7989817,2.2058263,2.4156666,0.74073881,0.43717444,0.5100829,0
2.4593694,-5.2479687,-2.6024003,0.63091409,-0.19188732,-0.7517491,0
-6.0686674,0.64075547,-0.72647047,-0.76948893,-0.030914277,-0.63791156,0
1.2680794,-5.6107225,-3.4725275,-0.34269488,-0.93821323,-0.048127532,0
3.5238168,4.1477222,-3.2634401,0.25074887,0.96736461,-0.036480188,0
-0.081036568,2.1064644,5.510004,-0.63091409,0.19188732,0.7517491,0
-0.43140984,3.1401975,-4.6920109,-0.41734511,0.73287052,-0.53733015,0
0.51423669,3.5635417,5.3398495,-0.63091409,0.19188732,0.7517491,0
6.4597526,-2.0664122,-0.10345817,0.71951222,-0.21778283,0.65944898,0
1.6897035,-4.8283658,-3.0721464,0.63091409,-0.19188732,-0.7517491,0
3.0027907,-0.42907143,-3.3445048,0.63091409,-0.19188732,-0.7517491,0
1.4376938,-1.5486593,-4.1429405,0.63091409,-0.19188732,-0.7517491,0
-1.5506887,5.4716029,2.9688489,0.24122196,0.96942604,-0.045001984,0
0.54114389,-3.4622564,3.733892,0.323771,-0.81541419,0.47986665,0
-0.88931894,-1.7428694,5.8767176,-0.63091409,0.19188732,0.7517491,0
-3.4714832,4.4461169,-0.54776818,-0.37669897,0.77129877,-0.51302642,0
3.3530631,0.149225,-3.0648341,0.63091409,-0.19188732,-0.7517491,0
6.3389349,-0.13625908,-0.85959244,0.63091409,-0.19188732,-0.7517491,0
-0.90610528,5.3358274,0.52217197,0.059837878,0.97808135,-0.19943994,0
3.1617105,-0.58613014,3.9528959,0.72735822,-0.1908997,0.65917182,0
5.6480136,0.031855881,1.3137903,0.77492857,0.1085774,0.62265295,0
4.0586023,-2.4486659,-2.218751,0.63091409,-0.19188732,-0.7517491,0
-2.565053,2.163835,3.2028813,-0.63091409,0.19188732,0.7517491,0
-0.59283209,1.0363045,-6.5842996,-0.65687048,0.38351765,-0.64918071,0
-1.3969314,5.113162,0.047262907,-0.019868553,0.96461892,-0.26289821,0
0.98681998,0.55529165,-5.0490451,0.63091409,-0.19188732,-0.7517491,0
4.8952441,0.1696896,2.0224576,0.77212489,0.060421765,0.63259184,0
-3.5479481,-2.3480227,-2.2641706,-0.72830701,-0.48045528,-0.4886018,0
5.8512182,-2.7972736,-0.53978539,0.63091409,-0.19188732,-0.7517491,0
-1.5171306,5.6201758,3.3399134,-0.63091409,0.19188732,0.7517491,0
2.4841523,-5.5375028,-0.71068263,0.10006571,-0.94071472,0.32410294,0
5.8185596,-0.70181078,0.93676901,0.75869119,-0.050077528,0.64952278,0
-4.5959539,0.41824007,1.9640412,-0.63091409,0.19188732,0.7517491,0
1.4276843,-3.5335155,3.276509,0.41879052,-0.73142523,0.53817433,0
0.61496603,-5.0665913,-4.3308926,0.63091409,-0.19188732,-0.7517491,0
-1.7202165,2.815151,3.9628015,-0.63091409,0.19188732,0.7517491,0
0.86353505,4.6672292,3.2720888,0.51358092,0.82954788,0.21928287,0
-3.4697149,-0.038493872,2.9428394,-0.63091409,0.19188732,0.7517491,0
-3.154434,2.8157933,-2.56687,-0.5528931,0.56855017,-0.60914695,0
4.9441171,3.5452316,-1.7124853,0.52777594,0.81635302,0.2345643,0
1.3213303,4.7388077,-1.3994689,0.10788044,0.98121727,-0.15992022,0
5.450748,-3.8826404,-0.43904275,0.63091409,-0.19188732,-0.7517491,0
-4.4915867,-2.2889273,-1.6485724,-0.71778673,-0.5121507,-0.47168213,0
6.2878423,-2.1014462,-0.16193795,0.63091409,-0.19188732,-0.7517491,0
0.22732449,-0.62870789,6.5735569,-0.63091409,0.19188732,0.7517491,0
0.77777815,-2.3776624,-4.659996,0.63091409,-0.19188732,-0.7517491,0
6.0160475,-1.8935549,-0.66605473,0.63091409,-0.19188732,-0.7517491,0
0.3049264,-3.9516561,-4.5687246,0.63091409,-0.19188732,-0.7517491,0
1.080868,4.8697457,-0.5970974,0.20954847,0.97506773,-0.073024392,0
-4.1812854,-0.21971822,2.4607577,-0.63091409,0.19188732,0.7517491,0
-2.7646782,4.019372,-1.5110002,-0.37786829,0.77025086,-0.51374042,0
0.32530141,2.5149598,5.4189658,-0.63091409,0.19188732,0.7517491,0
-1.7606306,-1.1276641,4.6397467,-0.63091409,0.19188732,0.7517491,0
0.098845482,1.6334281,5.6915646,-0.63091409,0.19188732,0.7517491,0
0.1812644,2.6589799,5.6173096,-0.63091409,0.19188732,0.7517491,0
-0.81145632,-4.8114333,-0.20769119,-0.23130262,-0.97139168,0.053828716,0
3.6748292,-0.54631019,-2.921474,0.63091409,-0.19188732,-0.7517491,0
2.9038,0.12733746,4.5057821,0.76033723,-0.039885461,0.64830279,0
0.79438639,2.8660536,-5.8505335,0.63091409,-0.19188732,-0.7517491,0
-5.0586071,0.0010044575,-1.7795672,-0.77490872,-0.10806686,-0.62276655,0
-0.42029762,-4.9234314,1.105916,-0.10031793,-0.98097515,0.16620529,0
-2.7877831,-4.3031135,2.5657206,-0.21566769,-0.97412086,0.067647099,0
-5.4755435,-1.8853601,1.8525591,-0.63091409,0.19188732,0.7517491,0
-4.9660492,-3.7746947,2.1128788,-0.47437859,-0.86212373,-0.17806673,0
2.98577,-2.1544437,3.4632878,0.62413681,-0.45003504,0.63868761,0
0.14640856,-2.4552877,5.4909563,0.51020211,-0.62734812,0.58832651,0
1.8270686,-5.0060549,-2.9870455,0.63091409,-0.19188732,-0.7517491,0
-5.8657842,3.4527845,0.3969574,-0.63091409,0.19188732,0.7517491,0
-0.84834719,-1.8332195,-6.1183252,0.63091409,-0.19188732,-0.7517491,0
-2.7822914,4.757349,-0.55406618,-0.27918494,0.84787685,-0.45073357,0
-1.7028418,-4.349072,-2.4788566,-0.54697067,-0.79718852,-0.25556564,0
-0.15523624,4.3573227,-2.087491,-0.097397506,0.94167888,-0.32210976,0
3.2629468,3.8915973,-3.8019371,0.14274561,0.98110121,-0.1306296,0
2.2612436,4.5054903,0.52959728,0.44444931,0.883582,0.14747083,0
-1.6892314,4.7821145,3.3018949,-0.63091409,0.19188732,0.7517491,0
5.2289152,2.1515918,0.39494753,0.71325558,0.52474028,0.46466571,0
-3.524375,-3.6522903,-1.1610508,-0.59505826,-0.74142277,-0.31015801,0
-2.387872,-2.5850625,4.7532196,-0.63091409,0.19188732,0.7517491,0
-3.1527569,3.5982227,-1.6407666,-0.45792323,0.69006598,-0.56045991,0
0.40830803,-5.4240999,-1.3227906,-0.22418386,-0.97268987,0.060134411,0
0.55923033,2.7345219,-6.2409654,0.63091409,-0.19188732,-0.7517491,0
-0.71142471,4.4602304,4.0627832,-0.63091409,0.19188732,0.7517491,0
-1.2218487,-4.7526913,0.41567612,-0.21672231,-0.9739508,0.066718578,0
2.2338727,-1.2460063,4.6479959,0.68007267,-0.32958287,0.65488642,0
3.1759269,0.70326948,4.058929,0.77543521,0.12417585,0.61909664,0
3.9406362,-4.0015163,0.89538884,0.46114475,-0.68646061,0.56224322,0
-5.5200558,2.9002817,0.48209083,-0.63091409,0.19188732,0.7517491,0
4.1213322,1.8602545,-3.1757896,0.63091409,-0.19188732,-0.7517491,0
-3.0332186,-1.1523542,-4.0061569,-0.77542043,-0.18829468,-0.60271746,0
2.2222548,3.6532867,-5.2030516,0.63091409,-0.19188732,-0.7517491,0
-1.0737267,2.7693841,-4.6628985,-0.49057025,0.6519925,-0.57814074,0
-2.388155,-4.6743526,1.5678983,-0.23153764,-0.97134709,0.053619981,0
0.62801027,-0.22225523,-5.4479456,0.63091409,-0.19188732,-0.7517491,0
-2.6297154,5.6168542,2.2176592,-0.63091409,0.19188732,0.7517491,0
-1.1070403,5.0070162,-0.26136851,-0.040441871,0.95948184,-0.2788533,0
-2.3099501,3.9621706,-1.7867434,-0.36115068,0.78492248,-0.50345486,0
-3.9422379,-1.1407399,2.7366467,-0.63091409,0.19188732,0.7517491,0
-0.52026963,-4.130372,-5.1059518,-0.65892571,-0.64404583,-0.38861549,0
2.5103052,-3.6939144,2.3300886,0.41431975,-0.73587769,0.53555876,0
2.4898443,1.3496075,4.8495207,0.77575219,0.17161971,0.60725224,0
2.7106259,-1.6422222,-3.2440615,0.63091409,-0.19188732,-0.7517491,0
2.7764609,-1.0894864,4.1111231,0.70469511,-0.26362664,0.65871537,0
3.0210543,-1.8562703,-3.2408309,0.63091409,-0.19188732,-0.7517491,0
5.27565,-3.4440753,0.081135392,0.55533946,-0.56494069,0.61027873,0
2.805325,-3.7174325,-2.4385803,0.63091409,-0.19188732,-0.7517491,0
4.6572781,-1.7737216,1.8458567,0.68495882,-0.31731069,0.65585464,0
1.046386,4.9938784,-0.14716244,0.23900035,0.96988213,-0.046982884,0
-0.95091224,4.5046663,-1.8403027,-0.18490911,0.90382302,-0.385892,0
1.0557561,-3.0063186,4.6405797,0.47364581,-0.67216206,0.56908506,0
2.1472459,0.68687582,-4.4478035,0.63091409,-0.19188732,-0.7517491,0
1.074734,4.4856491,4.0064359,0.59880918,0.73653477,0.31455374,0
-3.3771281,4.0590167,-1.1846919,-0.40529799,0.74470109,-0.5302394,0
-2.9454415,-2.3191338,4.1594501,-0.63091409,0.19188732,0.7517491,0
1.0858948,-5.3985777,-1.1350191,-0.077109218,-0.97964382,0.18534368,0
-0.61536574,-4.2473841,-4.1608334,-0.5951134,-0.74135154,-0.31022251,0
-6.4933271,1.9615481,0.1040504,-0.63091409,0.19188732,0.7517491,0
0.94716454,0.0071268082,6.5642366,-0.63091409,0.19188732,0.7517491,0
-3.0914788,-3.6343887,4.3508883,-0.63091409,0.19188732,0.7517491,0
