1.0727401,0.13352561,-4.9380035,0.095484257,0.062960476,-0.99343777,0
-2.3228462,3.9350829,2.9370096,0.034918904,0.76012206,0.64884114,0
4.1076241,-3.0245576,-3.2653215,0.98890746,-0.12006742,0.087439537,0
2.718183,3.8282027,-2.3529696,0.14829315,0.83148992,-0.53538167,0
3.3072238,-3.8111846,2.5952229,0.98890746,-0.12006742,0.087439537,0
2.1261168,1.40973,5.081542,-0.046038389,0.31192216,0.94899154,0
3.7501931,-4.4692645,-1.3435931,0.98890746,-0.12006742,0.087439537,0
2.5063994,-4.763134,2.2654972,-0.14631812,-0.88874173,0.43442953,0
3.3674819,-0.73737818,4.9350271,0.98890746,-0.12006742,0.087439537,0
4.2464519,3.854274,-1.8918443,0.14739001,0.86611122,-0.47762692,0
0.36687756,-2.8352373,4.2045984,-0.13805324,-0.52579951,0.83933073,0
3.852598,-0.46291852,3.3289793,0.98890746,-0.12006742,0.087439537,0
-1.9220095,-4.6884766,-0.58999634,-0.10824037,-0.98567706,-0.12932289,0
0.9800539,0.60606718,4.8685288,-0.066714883,0.16690961,0.98371232,0
3.7170439,-1.9000804,-0.46469495,0.98890746,-0.12006742,0.087439537,0
-3.9727073,1.7022305,0.66964072,-0.98890746,0.12006742,-0.087439537,0
3.3165605,-2.948482,3.5623295,0.98890746,-0.12006742,0.087439537,0
-4.6526175,-2.664135,3.2973483,-0.14547786,-0.66418368,0.73327768,0
1.8869832,-2.3981624,4.8086967,-0.13258159,-0.44815046,0.88407189,0
3.7504485,-3.850399,-3.375144,0.98890746,-0.12006742,0.087439537,0
3.6436744,-1.0314596,1.8312598,0.98890746,-0.12006742,0.087439537,0
2.0936072,-2.2854805,4.7673135,-0.12932724,-0.40650719,0.90444803,0
-3.5006132,-1.4196284,-5.0045519,0.039392233,-0.3556025,-0.93380654,0
-0.93810117,3.8007162,-3.4074759,0.1480878,0.75149691,-0.64290142,0
-3.4981942,2.9263742,-3.0125687,-0.98890746,0.12006742,-0.087439537,0
3.5783803,-0.84790325,2.2007675,0.98890746,-0.12006742,0.087439537,0
-3.9932537,-0.85725331,-1.9566073,-0.98890746,0.12006742,-0.087439537,0
-4.0796728,-0.17082977,0.1094718,-0.98890746,0.12006742,-0.087439537,0
-3.7712045,2.3041673,-1.8950357,-0.98890746,0.12006742,-0.087439537,0
1.4549131,4.7056885,1.708077,0.082440078,0.93337762,0.3492986,0
1.1270509,-1.8399129,-4.6813846,0.046728611,-0.30730802,-0.95046198,0
-4.315196,-1.0633941,1.7640479,-0.98890746,0.12006742,-0.087439537,0
-4.3335214,-0.1616869,4.2844176,-0.98890746,0.12006742,-0.087439537,0
-1.8294005,5.1051626,-0.55204701,0.12384009,0.99153292,-0.039063573,0
2.9547439,-5.0609641,-1.569715,-0.082468033,-0.93345416,-0.34908777,0
-3.9215581,-1.2009323,-2.433785,-0.98890746,0.12006742,-0.087439537,0
-4.5748835,-1.6377254,4.0134153,-0.13198411,-0.44029737,0.88809818,0
-4.600276,-1.774322,2.8609247,-0.98890746,0.12006742,-0.087439537,0
-2.5339994,-0.89918059,-5.0992479,0.055534005,-0.24711454,-0.96739346,0
-4.07622,2.2170775,1.9476007,-0.98890746,0.12006742,-0.087439537,0
4.1168976,-1.9465594,-2.1383278,0.98890746,-0.12006742,0.087439537,0
4.2389412,4.6132927,-0.4861083,0.13475847,0.97283828,-0.18821687,0
4.4364982,4.1140375,1.5455499,0.98890746,-0.12006742,0.087439537,0
4.5018201,3.5053463,-2.7031164,0.14852312,0.80583787,-0.5732069,0
-4.5118117,-3.684741,1.0359077,-0.98890746,0.12006742,-0.087439537,0
-0.52210522,0.43350315,4.916832,-0.074341416,0.10954663,0.99119759,0
4.2078667,-0.61270189,-1.3081839,0.98890746,-0.12006742,0.087439537,0
-3.6472039,2.6690378,3.9222682,-0.018472433,0.48470169,0.87448424,0
3.6275034,-1.899729,0.84707099,0.98890746,-0.12006742,0.087439537,0
-3.5275226,4.7442007,-1.3337377,-0.98890746,0.12006742,-0.087439537,0
0.44602132,4.4607277,-1.8666735,0.14532427,0.90381414,-0.40249324,0
-3.8322554,1.1944585,-2.0684667,-0.98890746,0.12006742,-0.087439537,0
-3.5812743,2.7685106,0.59984314,-0.98890746,0.12006742,-0.087439537,0
3.9484882,4.7190475,0.032099724,0.12652707,0.98930967,-0.072505772,0
2.9631519,-2.7822759,4.6453123,-0.13658053,-0.5037089,0.85300827,0
-0.17497349,3.9286768,3.1010301,0.041721463,0.78953195,0.61228955,0
-4.1536999,-1.3890741,-2.5954685,-0.98890746,0.12006742,-0.087439537,0
0.18183231,-2.023015,4.4511833,-0.12828523,-0.39370769,0.91023999,0
3.3237472,-5.438005,-0.65446997,0.98890746,-0.12006742,0.087439537,0
4.1174717,-2.8983307,-2.5512006,0.98890746,-0.12006742,0.087439537,0
-0.86566067,0.63020492,4.9676905,-0.069632888,0.14522925,0.9869445,0
-1.6949403,4.8788767,-1.5218718,0.13921662,0.95445621,-0.26387864,0
-3.7837462,2.5674007,2.0357771,-0.98890746,0.12006742,-0.087439537,0
-4.3423185,-2.6685998,-1.1103349,-0.98890746,0.12006742,-0.087439537,0
-1.8037977,1.957092,4.3163972,-0.035195708,0.38250282,0.92328364,0
-4.6736927,-3.9485726,1.7353616,-0.14641324,-0.88707113,0.43779892,0
0.41668725,4.9772058,1.2591538,0.098790228,0.97128516,0.21643788,0
-4.4965606,-4.0231161,-1.5472779,-0.98890746,0.12006742,-0.087439537,0
0.15331054,-3.1901739,3.7723012,-0.14459378,-0.64353085,0.75163859,0
2.5869508,4.1103935,2.1764221,0.075629532,0.91369605,0.39929861,0
2.9260182,1.9333203,4.9218292,-0.025365591,0.44352594,0.8959024,0
3.0519934,-4.8157277,2.8596945,-0.14724013,-0.86991704,0.47070652,0
3.0895109,-0.29994965,-4.7924776,0.09215349,0.034276485,-0.99515468,0
4.2619534,1.272773,-1.2835753,0.98890746,-0.12006742,0.087439537,0
-4.3035541,-1.7873702,1.8956113,-0.98890746,0.12006742,-0.087439537,0
3.6547928,-1.6046181,4.2047338,0.98890746,-0.12006742,0.087439537,0
3.775604,-1.2056746,0.18980801,0.98890746,-0.12006742,0.087439537,0
-4.2015796,0.9356513,1.4090064,-0.98890746,0.12006742,-0.087439537,0
3.6684833,-1.0791562,3.1770883,0.98890746,-0.12006742,0.087439537,0
-0.76824474,2.9761758,4.0961328,0.0035924911,0.6078518,0.79404211,0
-3.0278511,0.8441062,4.6156726,-0.071960926,0.12769711,0.98919904,0
-3.8763003,-1.4469701,-2.4826849,-0.98890746,0.12006742,-0.087439537,0
-3.0818648,4.2860847,-3.1426406,-0.98890746,0.12006742,-0.087439537,0
-4.1285791,-1.4137297,1.0484018,-0.98890746,0.12006742,-0.087439537,0
-4.241972,1.622293,3.2085915,-0.98890746,0.12006742,-0.087439537,0
-2.4598742,4.6574016,1.7126057,0.071377516,0.90041107,0.42914426,0
0.70610499,2.3816299,-4.3840513,0.13175988,0.43737578,-0.88957381,0
-3.9236305,-1.0618887,-0.75088406,-0.98890746,0.12006742,-0.087439537,0
-4.4945016,-3.310904,0.96785593,-0.98890746,0.12006742,-0.087439537,0
-3.5716293,4.6236062,1.2854871,-0.98890746,0.12006742,-0.087439537,0
-3.277967,0.3920188,4.6517248,-0.082571507,0.044946343,0.99557102,0
0.74881458,-5.0677342,1.1221418,-0.13580523,-0.96931779,0.20488995,0
-1.1730843,-2.595865,-4.2991519,0.0016824007,-0.57959777,-0.81490082,0
4.5488257,3.6617913,-0.060723782,0.98890746,-0.12006742,0.087439537,0
-0.24793589,4.2278819,-2.8477018,0.14839897,0.82360119,-0.54741096,0
-3.9171038,2.1530352,3.4540627,-0.98890746,0.12006742,-0.087439537,0
-3.1741517,4.6828508,-1.1889285,-0.98890746,0.12006742,-0.087439537,0
-3.8685515,1.4318633,1.0754337,-0.98890746,0.12006742,-0.087439537,0
-4.2195973,1.9322109,2.8652489,-0.98890746,0.12006742,-0.087439537,0
-3.4641929,-4.4757495,-0.88301992,-0.10855865,-0.98604351,-0.12622625,0
3.4828932,-3.6199729,1.4867926,0.98890746,-0.12006742,0.087439537,0
3.3478289,-2.3089035,4.6861291,0.98890746,-0.12006742,0.087439537,0
-0.47063959,4.5216055,-2.0019851,0.14479509,0.91050202,-0.38732445,0
-2.4810963,3.6114345,3.6419976,0.011574507,0.6491937,0.76053488,0
3.6046209,-4.5009375,0.33122897,0.98890746,-0.12006742,0.087439537,0
-3.9453251,-2.8276739,3.6285288,-0.14429078,-0.63688862,0.7573328,0
-3.5037494,1.1812037,-4.6272001,-0.98890746,0.12006742,-0.087439537,0
-2.6005845,-1.9865965,-4.5453663,0.018582344,-0.48405552,-0.8748399,0
4.3581638,0.20440245,-2.244638,0.98890746,-0.12006742,0.087439537,0
4.3799825,3.2891762,-0.86695051,0.98890746,-0.12006742,0.087439537,0
-0.54568195,-4.0743895,-2.932559,-0.045706153,-0.80611372,-0.58999264,0
-1.4389052,2.8067033,4.2302451,-0.007021904,0.55023992,0.83497691,0
3.9176834,-2.623137,-2.1777022,0.98890746,-0.12006742,0.087439537,0
-3.2476726,4.7069883,-2.9295156,-0.98890746,0.12006742,-0.087439537,0
-3.0012639,0.98535728,-5.1316075,0.10138786,0.1154533,-0.98812491,0
-3.6696713,2.1775424,0.91680306,-0.98890746,0.12006742,-0.087439537,0
2.5723906,2.2025566,-4.0914836,0.13595182,0.49457926,-0.8584336,0
-4.1670671,0.86791277,1.2159318,-0.98890746,0.12006742,-0.087439537,0
-0.088988185,-3.5263035,3.5529532,-0.14764695,-0.730452,0.66681337,0
-4.069521,-3.9945257,-2.8978577,-0.060111642,-0.86184371,-0.50359875,0
4.4017515,-0.13450956,-4.1534643,0.98890746,-0.12006742,0.087439537,0
-1.2025332,-4.0716677,2.9947917,-0.14851438,-0.80841303,0.56957161,0
2.706419,0.75933647,-4.7779131,0.10943097,0.19089857,-0.97549093,0
4.3490047,1.6559517,-0.81720066,0.98890746,-0.12006742,0.087439537,0
4.4089737,4.5245428,-0.40975332,0.1304943,0.9834913,-0.12536287,0
-1.6884027,-2.1873081,-4.5228195,0.024222136,-0.45044726,-0.89247423,0
-4.5155239,-2.4732213,1.2051892,-0.98890746,0.12006742,-0.087439537,0
4.3646708,1.8964684,1.2629726,0.98890746,-0.12006742,0.087439537,0
-0.59768248,-3.7404795,-3.6130352,-0.028723001,-0.73216379,-0.68052256,0
1.0003176,4.1435051,2.3875778,0.06023705,0.86229807,0.50280541,0
3.1787741,-3.624377,3.1316664,0.98890746,-0.12006742,0.087439537,0
-1.2007931,3.0831914,-4.1274652,0.13908908,0.54201555,-0.82877827,0
3.5489476,0.4678309,5.070889,0.98890746,-0.12006742,0.087439537,0
4.553144,3.7530935,1.6604528,0.98890746,-0.12006742,0.087439537,0
0.25296497,4.8304119,0.58057451,0.11035728,0.9879514,0.10850418,0
-2.4357152,-1.7582136,-4.8675804,0.025822878,-0.4407481,-0.89725918,0
-3.7388656,2.5174513,0.82064152,-0.98890746,0.12006742,-0.087439537,0
3.3368833,-4.9028859,-0.86084545,0.98890746,-0.12006742,0.087439537,0
-3.4093816,0.21936202,-5.2609949,-0.98890746,0.12006742,-0.087439537,0
-3.811244,0.71222186,-3.5699642,-0.98890746,0.12006742,-0.087439537,0
1.8518147,2.5975165,4.2495265,-0.0080618858,0.54443389,0.83876485,0
4.0097585,-0.35218334,1.8052024,0.98890746,-0.12006742,0.087439537,0
2.0235186,-2.8927,-3.8314674,0.0069869757,-0.55043525,-0.83484852,0
2.8427718,-5.3930144,0.59015799,-0.12413913,-0.99134547,0.042703152,0
-4.5961714,-3.681715,2.3823452,-0.14852171,-0.80633003,0.57251477,0
-2.7941689,-1.5786099,4.4019327,-0.12636983,-0.37075666,0.92009246,0
4.0872135,1.642895,-0.040341139,0.98890746,-0.12006742,0.087439537,0
2.479959,4.2869515,-2.1790571,0.14766085,0.85837412,-0.49131465,0
1.0775886,4.6713214,0.69803667,0.10707587,0.98426574,0.14055419,0
-2.396431,-1.8514979,-4.5718765,0.025751352,-0.44118327,-0.89704734,0
-3.1569519,4.3845696,-2.4685919,-0.98890746,0.12006742,-0.087439537,0
-2.8137817,3.1814678,3.9563708,-0.0018992424,0.57841986,0.81573689,0
1.6994194,-4.709012,2.3217566,-0.14527567,-0.90446067,0.40105575,0
-1.6319118,0.15466261,4.8370485,-0.08389765,0.034252673,0.99588537,0
-4.1472583,2.7496362,3.7135942,-0.98890746,0.12006742,-0.087439537,0
1.0002041,-2.3520019,-4.1826277,0.019453406,-0.47892207,-0.87764174,0
-2.6386681,4.7759047,-3.0008912,0.14799772,0.84641111,-0.5115515,0
-0.72508073,-4.4728017,2.1169074,-0.14687145,-0.87823993,0.45510787,0
-2.8334789,5.5038509,0.49826074,0.10670519,0.98379338,0.14409804,0
3.757894,0.98880053,2.4421191,0.98890746,-0.12006742,0.087439537,0
-2.5896189,5.2578263,-1.4849586,0.13765487,0.96198303,-0.23588032,0
-3.9891505,2.7566497,2.2045941,-0.98890746,0.12006742,-0.087439537,0
1.8577847,-0.85042357,-4.8364601,0.07625699,-0.094771713,-0.99257392,0
-4.0634832,-1.1221499,-1.2730658,-0.98890746,0.12006742,-0.087439537,0
-4.291357,-2.8673666,-1.6092138,-0.98890746,0.12006742,-0.087439537,0
-4.2128835,-1.7445385,0.70124054,-0.98890746,0.12006742,-0.087439537,0
1.6615152,4.6967621,0.5992651,0.10732889,0.98458171,0.13812673,0
-3.6467979,3.1748521,-0.46108714,-0.98890746,0.12006742,-0.087439537,0
-4.3577671,-3.7364769,-2.8999977,-0.98890746,0.12006742,-0.087439537,0
0.97985291,3.8326137,-2.8087521,0.14852285,0.79274279,-0.59118485,0
4.3051085,1.1302598,0.45952845,0.98890746,-0.12006742,0.087439537,0
-4.3524041,-1.4830527,3.988622,-0.12959361,-0.40981817,0.90291446,0
-2.6226759,-0.77700555,-5.1826038,0.063210964,-0.19252273,-0.97925436,0
-4.1324368,0.9360671,2.8973277,-0.98890746,0.12006742,-0.087439537,0
3.3039742,-4.7225399,1.4959197,0.98890746,-0.12006742,0.087439537,0
1.1793808,-5.003624,0.63952374,-0.12652674,-0.98931015,0.072500706,0
0.736763,0.18214321,-5.0785336,0.0971542,0.077586502,-0.99224055,0
-3.1906013,4.036593,3.0892754,0.024204135,0.71108627,0.70268774,0
-4.649085,-1.0268784,3.5816207,-0.98890746,0.12006742,-0.087439537,0
3.8291709,-1.3916552,-0.95872843,0.98890746,-0.12006742,0.087439537,0
4.6323771,1.7933125,-2.6965997,0.98890746,-0.12006742,0.087439537,0
-4.2453976,-3.5236988,-1.3921614,-0.98890746,0.12006742,-0.087439537,0
0.91147661,1.4350308,4.6159525,-0.041620255,0.3411085,0.93910199,0
-0.041366577,2.2184362,-4.6786766,0.13041109,0.42008144,-0.89806706,0
-2.2260013,2.4197035,4.1312537,-0.023009658,0.45774648,0.88878477,0
4.1450768,1.9890888,3.4593794,0.98890746,-0.12006742,0.087439537,0
-0.46704602,4.7617989,-2.1099141,0.14460129,0.9127748,-0.38201123,0
0.9329164,5.0298319,0.14928961,0.11738843,0.99246275,0.035178483,0
-1.9925019,-3.7493806,2.7382305,-0.14846906,-0.78189367,0.60547417,0
-1.0380113,5.1312065,1.1975479,0.092925131,0.95937014,0.26640856,0
4.534225,2.354424,-0.35551023,0.98890746,-0.12006742,0.087439537,0
2.7717807,-4.6412106,2.9722412,-0.14783336,-0.85266936,0.50109893,0
-1.2254906,-4.387938,-2.5131536,-0.067298532,-0.88699341,-0.45685178,0
1.7180052,-4.0244346,3.1003938,-0.1484296,-0.77696538,0.61179519,0
3.9195826,1.1400663,4.7642794,0.98890746,-0.12006742,0.087439537,0
-1.5279541,-1.4460707,4.6008525,-0.12046826,-0.30399027,0.94502759,0
-4.4247618,-2.2252984,0.071322918,-0.98890746,0.12006742,-0.087439537,0
3.8817425,-0.18935084,1.5346221,0.98890746,-0.12006742,0.087439537,0
-2.3637648,4.4142303,2.6800737,0.04716742,0.81207132,0.58164859,0
2.0172999,4.79531,1.2479792,0.096093714,0.96606374,0.2397638,0
-2.441273,2.7968981,-4.4863024,0.13721806,0.51314366,-0.8472631,0
2.2344775,4.8318715,0.84845495,0.10578978,0.9825806,0.15278625,0
4.1010432,2.0753608,0.86520839,0.98890746,-0.12006742,0.087439537,0
-4.4530706,-2.5906782,-0.93626213,-0.98890746,0.12006742,-0.087439537,0
4.3547859,3.6431646,0.65584898,0.98890746,-0.12006742,0.087439537,0
-3.6482317,4.0409145,1.9297066,-0.98890746,0.12006742,-0.087439537,0
-3.5576518,3.7172718,-0.87689817,-0.98890746,0.12006742,-0.087439537,0
-1.399878,3.7858307,-3.8625093,0.14584261,0.67339534,-0.7247541,0
3.3661985,2.0415714,-4.0402312,0.13667578,0.50510705,-0.8521657,0
-4.7587156,-3.5783763,2.4766111,-0.14832979,-0.82902664,0.53917819,0
3.6786196,-4.5242329,-2.342767,0.98890746,-0.12006742,0.087439537,0
2.1035976,1.3195343,5.0798712,-0.043354511,0.32972261,0.9430818,0
3.5791099,-1.6045377,2.8792698,0.98890746,-0.12006742,0.087439537,0
4.5462356,2.607883,-3.0489292,0.98890746,-0.12006742,0.087439537,0
-2.064569,-2.9846361,-4.0680561,-0.01028347,-0.64262205,-0.76611412,0
-1.8949177,-3.8963096,2.443501,-0.148252,-0.8340258,0.53143412,0
0.22335911,2.490109,4.4197865,-0.018581033,0.48406321,0.87483555,0
-4.6048489,-3.403157,0.87036467,-0.98890746,0.12006742,-0.087439537,0
-4.5716891,-2.2129319,1.6636724,-0.98890746,0.12006742,-0.087439537,0
3.8073788,-0.49998736,1.2915188,0.98890746,-0.12006742,0.087439537,0
3.7532225,-3.1150126,-0.24912038,0.98890746,-0.12006742,0.087439537,0
-4.1580677,-3.6194668,-2.5173554,-0.98890746,0.12006742,-0.087439537,0
-1.4756427,-4.0268536,-3.0791376,-0.044331074,-0.80044591,-0.59776312,0
4.2050457,3.5228772,-2.8354278,0.14821403,0.75917053,-0.63379222,0
-3.7734091,-0.53529048,-2.2431149,-0.98890746,0.12006742,-0.087439537,0
-4.6717873,-3.2961125,2.870131,-0.14793676,-0.74352866,0.65213478,0
4.264976,1.8835697,1.9123278,0.98890746,-0.12006742,0.087439537,0
3.3820739,-5.0691466,-0.91401076,0.98890746,-0.12006742,0.087439537,0
-4.559299,-2.9240868,0.50943995,-0.98890746,0.12006742,-0.087439537,0
-2.5309129,0.17773771,4.947742,-0.087427497,0.0053774118,0.99615633,0
-3.5952044,4.3947225,0.13041449,-0.98890746,0.12006742,-0.087439537,0
-3.6155009,1.8387287,-2.5285366,-0.98890746,0.12006742,-0.087439537,0
-3.5317268,0.35521293,-4.953054,-0.98890746,0.12006742,-0.087439537,0
4.3302546,1.6253223,-4.2086554,0.13074034,0.42426014,-0.89605254,0
-3.2606921,-2.7124403,-4.4637313,0.00021934509,-0.58750892,-0.80921745,0
3.9498217,2.1535156,2.3084292,0.98890746,-0.12006742,0.087439537,0
-3.9281368,-2.5587327,3.8544347,-0.14057142,-0.56640875,0.81204724,0
1.6864548,-2.8718071,-4.0702744,0.010941625,-0.52820319,-0.84904736,0
-2.0747745,5.3552432,-0.56701517,0.12820977,0.98724699,-0.094368994,0
4.8426452,3.1443384,-2.568151,0.98890746,-0.12006742,0.087439537,0
-3.2983217,4.9099374,0.35583973,-0.98890746,0.12006742,-0.087439537,0
1.3928304,-1.3022687,4.9819212,-0.11103928,-0.20661488,0.97210097,0
1.2469101,-1.9208682,-4.634932,0.037743449,-0.36623386,-0.92975688,0
0.098392963,4.3570905,2.7200103,0.055668831,0.84538615,0.53124654,0
2.9547863,-1.562957,4.9665918,-0.11502469,-0.24660158,0.96226645,0
4.1333904,1.1385458,1.9170334,0.98890746,-0.12006742,0.087439537,0
-0.94352269,1.2342098,-4.9889779,0.10885727,0.1853483,-0.97662479,0
-4.0756845,3.5744858,3.430228,-0.98890746,0.12006742,-0.087439537,0
1.3997264,-5.2831602,0.78757954,-0.12947249,-0.98531675,0.11129999,0
4.0358648,0.17663145,-4.534461,0.10174155,0.11867034,-0.98770738,0
-4.0690475,-3.4620056,-3.1430752,-0.98890746,0.12006742,-0.087439537,0
-1.2752271,-1.0472833,-5.0523219,0.059416056,-0.21976361,-0.97374201,0
2.3156207,-4.9076486,1.9907637,-0.14450341,-0.91388911,0.37937474,0
3.4026537,-5.3610449,1.20786,0.98890746,-0.12006742,0.087439537,0
-4.4201679,-3.9331446,0.0052261353,-0.98890746,0.12006742,-0.087439537,0
1.1301987,3.1640463,-3.7045622,0.14356938,0.62177962,-0.76992071,0
-4.5437031,-1.7733426,1.6543806,-0.98890746,0.12006742,-0.087439537,0
4.5136247,1.6024289,-2.4866099,0.98890746,-0.12006742,0.087439537,0
3.2440279,-3.5025752,2.9663651,0.98890746,-0.12006742,0.087439537,0
2.197885,4.591701,-0.80138016,0.13317803,0.97742069,-0.1640501,0
4.7000256,4.3073015,0.55751848,0.98890746,-0.12006742,0.087439537,0
4.0898542,-1.1733408,-0.37994766,0.98890746,-0.12006742,0.087439537,0
2.0846484,-5.1636109,1.4171045,-0.13917615,-0.95466936,0.26312804,0
-4.1214085,3.2541885,3.2619052,-0.98890746,0.12006742,-0.087439537,0
-4.4911041,-0.17914009,4.2466583,-0.98890746,0.12006742,-0.087439537,0
3.4347363,-3.3174264,2.7369833,0.98890746,-0.12006742,0.087439537,0
-4.2975764,-3.7948709,-1.4182844,-0.98890746,0.12006742,-0.087439537,0
-0.50299644,4.5835319,1.8858807,0.076638341,0.91673875,0.39206684,0
-0.83427739,5.1403847,0.14776182,0.11854732,0.99269581,0.022392273,0
-1.15516,-3.5319591,-3.4177079,-0.028177857,-0.72965145,-0.68323833,0
0.38265061,-2.076072,4.8322043,-0.12748134,-0.38398668,0.91449583,0
3.4341192,-2.3715074,3.9180179,0.98890746,-0.12006742,0.087439537,0
3.4430149,-1.9194992,2.9046097,0.98890746,-0.12006742,0.087439537,0
-3.3835671,4.1570168,3.1331673,0.03240478,0.74890989,0.66187888,0
-3.5218492,-0.61365038,-5.3163214,0.062452435,-0.19800818,-0.97820866,0
2.3557713,3.3290784,-3.3885887,0.14650419,0.69153053,-0.7073344,0
-3.4384351,3.8904073,0.40812874,-0.98890746,0.12006742,-0.087439537,0
-4.227057,-2.2410367,-0.78015375,-0.98890746,0.12006742,-0.087439537,0
4.065135,3.2486739,3.7259791,0.029901266,0.73756534,0.67461324,0
-4.3287067,2.0663657,3.7654355,-0.98890746,0.12006742,-0.087439537,0
3.8874807,-0.39497733,3.0381866,0.98890746,-0.12006742,0.087439537,0
2.2494857,-1.7225118,5.1503067,-0.11632419,-0.25998995,0.95857906,0
-4.3281469,-3.2897699,0.51416445,-0.98890746,0.12006742,-0.087439537,0
-3.8829308,3.7705901,1.3150517,-0.98890746,0.12006742,-0.087439537,0
-2.4980779,-2.8991191,-4.1332092,-0.0059148073,-0.62005597,-0.78453499,0
-1.5773618,4.9629059,1.4558778,0.089789033,0.95218909,0.29201633,0
0.26091099,-3.0172198,4.0939045,-0.13950947,-0.54878002,0.82424366,0
-3.4930351,3.9533687,-0.89718819,-0.98890746,0.12006742,-0.087439537,0
-3.8062809,-1.6537001,-4.4107513,-0.98890746,0.12006742,-0.087439537,0
-2.9948084,-4.6950808,0.26838636,-0.13074267,-0.9830097,0.12883329,0
4.2956219,2.821414,2.7446649,0.98890746,-0.12006742,0.087439537,0
2.5714774,-4.8209071,2.0992851,-0.14349446,-0.92429686,0.35367286,0
-4.6342001,-1.9570928,3.4206376,-0.98890746,0.12006742,-0.087439537,0
4.1190786,1.6502943,2.6298165,0.98890746,-0.12006742,0.087439537,0
3.4621687,-2.7551973,0.77163041,0.98890746,-0.12006742,0.087439537,0
1.3359489,-3.0748744,4.47576,-0.13926396,-0.54481596,0.8269105,0
-3.4568849,-4.3021803,-2.1306543,-0.074313581,-0.90966332,-0.4086439,0
-2.1293573,1.3456776,4.5792131,-0.058055401,0.22940892,0.97159708,0
-3.5710344,4.9959335,-0.5975709,-0.98890746,0.12006742,-0.087439537,0
-1.2506459,5.0980964,1.0814641,0.096030474,0.96593583,0.2403037,0
2.0821276,-5.0884876,-1.1808009,-0.093312621,-0.96021986,-0.26319259,0
-2.5201995,5.1648474,-1.9875813,0.14217164,0.93558729,-0.32320815,0
3.7235246,4.4597416,-0.14937878,0.1287317,0.98649096,-0.1013093,0
3.9220903,-3.8075473,-1.8503718,0.98890746,-0.12006742,0.087439537,0
-3.4561493,2.6792791,-3.0140698,-0.98890746,0.12006742,-0.087439537,0
-3.7070251,-2.3551667,-4.4621348,0.0067696571,-0.55164367,-0.83405221,0
3.6231308,-1.4008892,1.1217995,0.98890746,-0.12006742,0.087439537,0
-2.5846319,1.692876,-5.0396833,0.11558688,0.25237122,-0.960702,0
-1.1587348,-2.8492827,-4.028513,0.00086140633,-0.58404434,-0.81172115,0
-3.811491,-0.048572063,-0.63951278,-0.98890746,0.12006742,-0.087439537,0
3.7524393,-2.6655955,1.8731017,0.98890746,-0.12006742,0.087439537,0
-1.2464552,3.6112251,3.4839201,0.012360573,0.65317214,0.75710839,0
-3.3293121,5.1213841,0.70247316,0.096381664,0.96664262,0.23730212,0
3.826071,1.884887,4.529552,0.98890746,-0.12006742,0.087439537,0
-0.49264812,-0.050353289,5.1419177,-0.086773753,0.010771573,0.99616975,0
-3.9336336,2.9771287,0.62700629,-0.98890746,0.12006742,-0.087439537,0
1.9692159,3.0314407,4.1013346,0.011497855,0.64880395,0.76086855,0
-1.7938137,5.1276016,0.17731118,0.11117166,0.98872161,0.10035062,0
-3.905097,1.5712981,2.293884,-0.98890746,0.12006742,-0.087439537,0
-4.5564508,-1.1978106,3.0221903,-0.98890746,0.12006742,-0.087439537,0
-4.162405,-1.4030128,0.91549301,-0.98890746,0.12006742,-0.087439537,0
-2.1812987,-4.8487277,-1.1439409,-0.10388136,-0.97984636,-0.17061484,0
-0.63714075,1.473328,4.6091256,-0.054802299,0.25221238,0.96611881,0
3.2060518,4.6118112,0.86433029,0.11214626,0.98956329,0.090484083,0
0.20004463,-4.8780069,-1.5046937,-0.083951771,-0.93746221,-0.33781111,0
-2.549763,0.10806704,4.9839721,-0.090910494,-0.023732543,0.99557614,0
3.953732,0.12788486,3.1731532,0.98890746,-0.12006742,0.087439537,0
3.6160669,-0.97415721,4.2487192,0.98890746,-0.12006742,0.087439537,0
1.9186764,1.182291,-4.7616172,0.11728656,0.27002478,-0.95568317,0
-1.5986466,-0.1315434,4.9085236,-0.092251778,-0.035114765,0.99511623,0
4.635097,1.2844634,-3.5249829,0.98890746,-0.12006742,0.087439537,0
0.60394001,-0.85100788,4.9368811,-0.10769498,-0.17418692,0.97880572,0
3.5704861,-2.9495296,2.9913316,0.98890746,-0.12006742,0.087439537,0
4.2376156,3.2995498,2.6449585,0.98890746,-0.12006742,0.087439537,0
-3.7686021,3.0326543,1.308423,-0.98890746,0.12006742,-0.087439537,0
3.9548647,-1.9486141,-3.6930842,0.98890746,-0.12006742,0.087439537,0
-3.0458381,0.96711445,4.7943568,-0.073672056,0.11467355,0.99066758,0
3.6991801,4.4562082,0.37082005,0.1192221,0.99275655,0.014843822,0
3.1999645,2.7797077,3.9836514,0.013210297,0.65745389,0.75337875,0
3.9310198,0.078482866,3.6647542,0.98890746,-0.12006742,0.087439537,0
4.2000594,0.93820143,-0.37598062,0.98890746,-0.12006742,0.087439537,0
-4.6020432,-1.7866583,3.1986179,-0.98890746,0.12006742,-0.087439537,0
3.559536,-4.61692,0.51062,0.98890746,-0.12006742,0.087439537,0
3.7596767,2.2507296,4.5238137,0.98890746,-0.12006742,0.087439537,0
-2.6530018,-4.2101488,-2.4532413,-0.065013707,-0.87920153,-0.47199309,0
4.3498249,3.7983181,-0.095061779,0.98890746,-0.12006742,0.087439537,0
-2.8235574,2.1075258,-4.880178,0.12279701,0.32969582,-0.93606699,0
3.6212065,-2.2367473,3.9294631,0.98890746,-0.12006742,0.087439537,0
-4.1364317,-0.17433643,-0.35863519,-0.98890746,0.12006742,-0.087439537,0
-0.82402229,4.2638998,2.8660817,0.048912525,0.81909978,0.57156175,0
-1.1647544,-4.2420506,2.6260557,-0.14788236,-0.85090184,0.50408018,0
-4.744174,-3.8606019,1.5173569,-0.98890746,0.12006742,-0.087439537,0
3.4136198,-4.054121,-0.29187882,0.98890746,-0.12006742,0.087439537,0
3.9464424,0.18484163,1.9702154,0.98890746,-0.12006742,0.087439537,0
-1.9670715,-4.4298668,-2.0560513,-0.077745557,-0.92002827,-0.38406175,0
1.5345728,-4.7893524,1.8228164,-0.14096276,-0.9441855,0.29772985,0
2.352649,-1.6770582,5.1695194,-0.11728907,-0.27005142,0.95567536,0
-4.1831026,-4.2000356,-2.3659244,-0.079962492,-0.92645496,-0.36781389,0
-1.5840502,3.0197246,4.2291217,-0.0081626177,0.54386973,0.83912981,0
-3.5930679,0.55408239,-4.0715942,-0.98890746,0.12006742,-0.087439537,0
-1.125308,-5.0156627,-0.60881996,-0.10623628,-0.9831804,-0.14855897,0
1.9898367,1.7540863,4.7448244,-0.026378155,0.43736666,0.89889622,0
-3.1679516,-3.2962625,3.2118726,-0.14789347,-0.74142045,0.65454048,0
-0.91685748,4.3711176,-3.2004633,0.14852896,0.80322903,-0.5768553,0
2.6952503,-4.9586668,-1.4884398,-0.076869726,-0.91743046,-0.39040005,0
-1.5293851,4.169682,-3.5309539,0.14797278,0.74533653,-0.65005958,0
1.2215705,2.554496,4.4688444,-0.011057258,0.52754676,0.84945387,0
-3.8300028,-0.22099757,-1.9228234,-0.98890746,0.12006742,-0.087439537,0
-1.8212214,4.2732391,2.4890938,0.05525738,0.84382772,0.53376126,0
2.4209585,-2.2202675,4.7212906,-0.12914908,-0.40430209,0.90546131,0
-3.7435141,3.7346182,1.5267166,-0.98890746,0.12006742,-0.087439537,0
4.1708374,0.035706043,-0.093857765,0.98890746,-0.12006742,0.087439537,0
-3.0637052,4.1506443,-3.5450785,0.14753351,0.72586566,-0.67182791,0
1.9529278,-2.795125,4.3854694,-0.13693917,-0.50899303,0.84980798,0
-3.9349051,-2.1275806,-2.0901606,-0.98890746,0.12006742,-0.087439537,0
-2.6178675,-2.6783106,3.9611204,-0.13908544,-0.5419572,0.82881701,0
4.0924273,0.70170188,1.5178783,0.98890746,-0.12006742,0.087439537,0
0.98373032,-3.8725781,-3.3476093,-0.026794672,-0.72323889,-0.69007766,0
-1.7447259,2.2187035,-4.8563805,0.12662858,0.37381598,-0.91881806,0
-3.3901591,4.444263,0.29432714,-0.98890746,0.12006742,-0.087439537,0
-4.4196992,-2.965029,-0.79270649,-0.98890746,0.12006742,-0.087439537,0
-1.5936179,1.9239843,4.4679804,-0.043407798,0.32937124,0.94320214,0
4.6215258,2.1354799,-3.5302632,0.98890746,-0.12006742,0.087439537,0
-3.4266572,3.5071933,-1.0973487,-0.98890746,0.12006742,-0.087439537,0
4.5939236,4.3130312,0.42385721,0.98890746,-0.12006742,0.087439537,0
-3.6804528,3.4727216,1.1636009,-0.98890746,0.12006742,-0.087439537,0
4.0984383,4.2415705,1.5249887,0.094200134,0.96213365,0.25578338,0
-3.3925416,-2.7071328,-4.0817561,-0.009532094,-0.63877767,-0.76933217,0
-2.4724176,4.3578639,-3.1168389,0.14846699,0.78160226,-0.60585088,0
-1.0211501,3.8688307,3.0006223,0.036595106,0.76749581,0.64000827,0
4.0158181,-2.3037126,-2.0709202,0.98890746,-0.12006742,0.087439537,0
-1.353621,4.9401879,1.4107046,0.088807404,0.94983315,0.29988337,0
4.1924973,-2.3254118,-3.4283772,0.98890746,-0.12006742,0.087439537,0
-3.7317069,0.026266456,-4.2934875,-0.98890746,0.12006742,-0.087439537,0
-2.5487666,4.9254546,-1.9954598,0.14137854,0.94138539,-0.30627692,0
-4.593595,-4.2107468,-0.64842796,-0.98890746,0.12006742,-0.087439537,0
-2.8682919,-2.3248141,3.9203615,-0.13845274,-0.53198081,0.83536041,0
-0.55002999,5.0065484,0.84254289,0.098032892,0.96986437,0.2230525,0
1.6055083,-2.0534282,-4.6076198,0.035298705,-0.38184842,-0.92355055,0
-4.1548195,-3.5767109,-2.6556978,-0.98890746,0.12006742,-0.087439537,0
-3.0136161,5.4954424,-1.0818276,0.1346997,0.97302389,-0.18729746,0
3.975769,-1.0867794,1.127665,0.98890746,-0.12006742,0.087439537,0
-3.165864,2.8371761,-4.2723341,-0.98890746,0.12006742,-0.087439537,0
-3.7735426,1.5068851,-2.0232983,-0.98890746,0.12006742,-0.087439537,0
3.9167981,-1.453661,-2.813211,0.98890746,-0.12006742,0.087439537,0
4.1981888,0.7979424,-0.76674676,0.98890746,-0.12006742,0.087439537,0
4.037405,-2.5349379,-3.2755799,0.98890746,-0.12006742,0.087439537,0
-3.972259,-0.01479435,-0.1594677,-0.98890746,0.12006742,-0.087439537,0
-3.5450368,-4.0776563,2.4302988,-0.14796396,-0.84777862,0.50929165,0
4.7013059,2.6945324,-2.8071547,0.98890746,-0.12006742,0.087439537,0
-0.84708047,-3.0155766,4.0356779,-0.14139032,-0.58060658,0.80181336,0
-3.4111104,3.4541864,3.526756,0.0056684017,0.61876863,0.78555274,0
-3.655901,2.3776228,0.3625755,-0.98890746,0.12006742,-0.087439537,0
3.5558419,-2.3313637,2.1071224,0.98890746,-0.12006742,0.087439537,0
3.195652,-4.6575489,-2.5098376,-0.056223691,-0.84747821,-0.52784389,0
-0.71502292,5.2342806,-1.1180317,0.13339978,0.97682649,-0.16737443,0
3.5673385,-3.6386321,0.5503158,0.98890746,-0.12006742,0.087439537,0
-3.4177804,3.5139523,-2.5460708,-0.98890746,0.12006742,-0.087439537,0
3.6951725,-2.9225614,-0.39502952,0.98890746,-0.12006742,0.087439537,0
-3.3378987,-3.9132204,1.8854456,-0.14670873,-0.88153851,0.44873857,0
4.513485,1.2687378,-1.3589671,0.98890746,-0.12006742,0.087439537,0
-4.1058321,0.18936205,0.63368034,-0.98890746,0.12006742,-0.087439537,0
-2.2980957,-1.9278967,4.2890062,-0.13375127,-0.46383113,0.87576884,0
3.8105087,-2.057981,1.6255761,0.98890746,-0.12006742,0.087439537,0
3.8556905,-0.6040566,0.35873926,0.98890746,-0.12006742,0.087439537,0
4.547823,3.779618,-1.3561049,0.98890746,-0.12006742,0.087439537,0
2.6420393,-0.32354194,5.2957726,-0.091574371,-0.029352903,0.9953655,0
2.2702305,-3.7030432,3.8180118,-0.145531,-0.66549706,0.73207533,0
-3.7053893,1.1526413,-3.8256946,-0.98890746,0.12006742,-0.087439537,0
-1.0787857,2.7384682,-4.3711042,0.13918835,0.54360265,-0.82772136,0
4.1499562,-1.0823326,-2.9817443,0.98890746,-0.12006742,0.087439537,0
3.2816777,-2.557688,4.6907988,0.98890746,-0.12006742,0.087439537,0
-2.8985987,-2.5463989,-4.3719654,-0.0015698671,-0.59710628,-0.80216038,0
-4.1507225,-0.82667756,-2.1785607,-0.98890746,0.12006742,-0.087439537,0
-3.9825783,-2.3222001,-4.276474,-0.98890746,0.12006742,-0.087439537,0
-2.1314952,-1.833467,4.5453782,-0.12621176,-0.36889377,0.92086256,0
3.9845872,1.6506567,3.2686808,0.98890746,-0.12006742,0.087439537,0
4.2328615,4.4112959,1.7636247,0.087872803,0.94754398,0.30730873,0
1.7216954,-4.0405989,3.6469324,-0.1477934,-0.73677337,0.65978944,0
-4.1080809,-2.3644555,-1.6786911,-0.98890746,0.12006742,-0.087439537,0
-3.763731,1.9571669,-1.1794878,-0.98890746,0.12006742,-0.087439537,0
4.6259232,2.7553122,-0.68938637,0.98890746,-0.12006742,0.087439537,0
0.10794449,4.0422616,2.7905595,0.047745824,0.81441158,0.57831991,0
-3.4050958,4.1660299,-1.334064,-0.98890746,0.12006742,-0.087439537,0
0.98482752,4.9440718,1.0678592,0.10249013,0.9776845,0.18338031,0
3.3860233,4.1676378,-2.0679646,0.14736451,0.86677855,-0.47642261,0
-1.5019863,-4.2099724,2.2018914,-0.1476932,-0.85735822,0.49307555,0
-3.5773065,2.6689472,-0.27361089,-0.98890746,0.12006742,-0.087439537,0
-3.2042928,-4.5520372,0.087598801,-0.1280216,-0.98750567,0.091884732,0
1.427403,-4.2116098,3.0035753,-0.14849058,-0.81309837,0.56286895,0
-3.2569261,2.9987087,-3.9801121,-0.98890746,0.12006742,-0.087439537,0
-2.9532907,-2.9117417,3.462769,-0.14499208,-0.65257937,0.74371862,0
0.23497868,2.8347304,-4.3250318,0.13789326,0.52334762,-0.84088802,0
2.0847144,2.3983448,-3.9792089,0.13796914,0.52450788,-0.84015226,0
3.8779571,-1.7471402,-1.8185152,0.98890746,-0.12006742,0.087439537,0
-2.2677236,4.4664855,2.3914413,0.057922423,0.8538186,0.5173378,0
-4.3558197,-0.92410994,4.2406282,-0.98890746,0.12006742,-0.087439537,0
-3.6441832,0.53910589,-3.9066136,-0.98890746,0.12006742,-0.087439537,0
1.8246107,0.73523676,5.1487298,-0.057079196,0.23628861,0.9700048,0
-3.6967013,3.7619848,0.2296207,-0.98890746,0.12006742,-0.087439537,0
1.2269192,-2.4547596,-4.3242788,0.021479368,-0.46690178,-0.8840481,0
3.8963726,-3.6261899,-1.3259859,0.98890746,-0.12006742,0.087439537,0
-0.50444102,5.0460243,1.0508387,0.097000957,0.96787071,0.23198479,0
3.3201704,-3.0202141,2.3019946,0.98890746,-0.12006742,0.087439537,0
-0.075780392,-2.419734,-4.3817677,0.020424247,-0.47317553,-0.88073134,0
3.8095503,1.1545329,-4.5046482,0.11987472,0.29755712,-0.9471482,0
3.1833723,-4.193284,3.1236501,0.98890746,-0.12006742,0.087439537,0
-0.97258615,1.2526175,-4.8399806,0.11335689,0.22967717,-0.96664298,0
-2.2319746,-4.5076075,-1.5911522,-0.091092288,-0.95523834,-0.28146338,0
-1.5347452,5.3147879,-0.58690691,0.12781587,0.98778015,-0.089181662,0
-4.4725046,0.00065565109,4.4978852,-0.98890746,0.12006742,-0.087439537,0
-1.248948,-4.2784038,2.1436749,-0.14533643,-0.90365213,0.40285248,0
-3.9568925,-0.092587233,0.0027885437,-0.98890746,0.12006742,-0.087439537,0
-4.0603223,-1.3945045,-1.3667834,-0.98890746,0.12006742,-0.087439537,0
1.1704742,-3.1398206,3.90078,-0.14262986,-0.60332227,0.78463936,0
-3.3527889,5.299562,-0.15215397,0.11887243,0.99273217,0.018764973,0
-3.7797503,2.2698083,0.89887655,-0.98890746,0.12006742,-0.087439537,0
3.3685768,-3.8825927,-3.3838601,-0.0141927,-0.66238046,-0.74903297,0
1.3123424,1.6995039,-4.6122203,0.12773615,0.38705385,-0.91316628,0
-2.8228378,5.3737111,0.49387074,0.10213345,0.9771083,0.18662298,0
-0.23580885,5.0379276,0.79303932,0.10760647,0.98492253,0.13545567,0
0.70545506,-2.675355,4.245821,-0.13684303,-0.50757176,0.85067308,0
4.3916965,-1.1510186,-3.7633903,0.98890746,-0.12006742,0.087439537,0
-3.8018656,0.6591208,-2.8451533,-0.98890746,0.12006742,-0.087439537,0
4.4465389,0.64276505,-3.3551674,0.98890746,-0.12006742,0.087439537,0
4.3089633,0.42759275,-3.5143762,0.98890746,-0.12006742,0.087439537,0
-3.3891253,4.2925653,3.0014343,0.033372521,0.75324774,0.6568895,0
-3.3185735,3.9170074,-0.62013316,-0.98890746,0.12006742,-0.087439537,0
-1.5587316,-0.33918858,4.9744129,-0.097557247,-0.081142038,0.99191654,0
0.1841712,1.9875349,-4.3989835,0.12985253,0.41305181,-0.90140247,0
0.61721617,-4.9152064,1.8168747,-0.14403558,-0.91894668,0.36713827,0
3.5484273,0.35522461,-4.619647,0.10589248,0.15709499,-0.98188984,0
4.395865,2.3564911,1.0178437,0.98890746,-0.12006742,0.087439537,0
4.2320428,2.5335829,0.36082697,0.98890746,-0.12006742,0.087439537,0
2.2176361,-5.1539359,1.7416971,-0.14093842,-0.94434464,0.2972365,0
-4.0228844,2.2276073,3.3867207,-0.98890746,0.12006742,-0.087439537,0
1.5713317,4.2144642,-1.8502002,0.14561591,0.89977896,-0.41133159,0
4.2758827,2.4893875,1.9568851,0.98890746,-0.12006742,0.087439537,0
0.1520195,-1.0713115,-4.8700895,0.059088469,-0.22209233,-0.97323346,0
-4.3113551,-1.4938815,1.0334482,-0.98890746,0.12006742,-0.087439537,0
-4.2640662,1.0562606,3.6182375,-0.98890746,0.12006742,-0.087439537,0
-3.1384668,-1.0662729,-4.9369078,0.053556442,-0.26085258,-0.96389192,0
-3.6607304,2.4659197,-2.4809642,-0.98890746,0.12006742,-0.087439537,0
0.16800022,1.7791739,4.6944494,-0.03837204,0.36219084,0.93131375,0
-4.2741036,-3.1576133,-0.069883823,-0.98890746,0.12006742,-0.087439537,0
4.5028186,1.4318197,-1.0811341,0.98890746,-0.12006742,0.087439537,0
-4.0252953,-1.5123692,-1.5392802,-0.98890746,0.12006742,-0.087439537,0
4.5444946,3.7754581,-1.5058007,0.98890746,-0.12006742,0.087439537,0
1.8423042,4.4157243,-2.084384,0.14699134,0.87567401,-0.45998734,0
-4.3942289,1.100071,4.4448199,-0.98890746,0.12006742,-0.087439537,0
2.3289175,4.0107422,2.7886684,0.052643657,0.83379996,0.54955065,0
1.086637,-1.6029521,4.8529053,-0.1199249,-0.29809961,0.94697124,0
1.5779798,-2.7021136,4.6347723,-0.13248771,-0.44690984,0.88471371,0
-4.247551,-4.5682325,0.11242771,-0.12490827,-0.99079621,0.052156687,0
1.7879372,4.7134824,1.6468129,0.085079074,0.94043767,0.32914752,0
4.3650041,-0.86839008,-2.6969099,0.98890746,-0.12006742,0.087439537,0
-1.6933298,5.4379053,-0.085050583,0.12102601,0.99263275,-0.0057268739,0
-3.9434738,-2.6938758,3.4959781,-0.14333704,-0.61709923,0.77372026,0
-0.50873131,4.8707018,-1.7062206,0.14014105,0.94929659,-0.28141874,0
0.39492464,-3.9325938,-2.9717646,-0.045331717,-0.80457586,-0.59211683,0
3.8494787,0.45608449,4.7085414,0.98890746,-0.12006742,0.087439537,0
4.1853709,1.2586975,1.4189172,0.98890746,-0.12006742,0.087439537,0
2.6123466,3.2032423,3.7283044,0.029434323,0.73542869,0.67696232,0
-4.5092721,-3.8479352,1.6312604,-0.98890746,0.12006742,-0.087439537,0
-3.9413824,2.9012108,3.1106133,-0.98890746,0.12006742,-0.087439537,0
-3.6320419,5.3471565,0.69256926,-0.98890746,0.12006742,-0.087439537,0
-3.7496524,1.3387041,0.0007879734,-0.98890746,0.12006742,-0.087439537,0
-4.1435165,-2.4795492,-1.1212411,-0.98890746,0.12006742,-0.087439537,0
-2.1503253,4.5970025,-2.8748765,0.14848191,0.81443644,-0.56093335,0
-3.2403691,5.3198023,-0.96870661,-0.98890746,0.12006742,-0.087439537,0
3.3749676,1.8288931,4.7378254,-0.022638798,0.45997083,0.88764513,0
1.2708405,3.142067,-3.8550532,0.14348644,0.62009937,-0.77128994,0
3.4920645,-3.1928391,1.2364544,0.98890746,-0.12006742,0.087439537,0
-4.4865789,-2.4697001,0.9682765,-0.98890746,0.12006742,-0.087439537,0
-3.8688583,-4.4255762,0.11915636,-0.12735534,-0.98836374,0.083171725,0
-2.7463806,2.8189778,-4.7358727,0.13410693,0.46868402,-0.87312692,0
4.4404759,3.0370228,0.13511753,0.98890746,-0.12006742,0.087439537,0
-2.6173823,-3.4517386,3.1064909,-0.14836054,-0.77017653,0.62033629,0
3.3908606,-3.1850107,4.1710224,0.98890746,-0.12006742,0.087439537,0
-0.45046866,4.6526208,-1.9405611,0.14513117,0.90634334,-0.39683592,0
-4.3337684,-4.2344851,-1.4454947,-0.98890746,0.12006742,-0.087439537,0
0.72828627,4.1074171,2.8327208,0.046650529,0.80997163,0.58461046,0
3.5387733,-2.5983601,3.7075605,0.98890746,-0.12006742,0.087439537,0
-1.7540302,4.9980669,-1.4261212,0.1396853,0.9519127,-0.272672,0
-2.0609033,5.204936,0.93178129,0.092509866,0.95845032,0.26984197,0
3.6498191,-3.4336069,-3.5643191,-0.0080457926,-0.63112777,-0.77563691,0
1.9607728,-4.8919683,-1.2473776,-0.090344191,-0.95349902,-0.28753674,0
-4.4281859,1.3704162,4.0161514,-0.98890746,0.12006742,-0.087439537,0
-0.32007253,-4.4729404,2.5330269,-0.14707518,-0.87380368,0.46350396,0
-0.58008575,-4.7465734,-1.7727706,-0.078294516,-0.9216398,-0.3800655,0
0.75554895,4.7992125,-0.92923403,0.13561764,0.9699797,-0.20185876,0
-0.5607419,2.7187812,4.1316147,-0.0062590837,0.55448055,0.83217293,0
-3.309556,4.6542835,-0.97549427,-0.98890746,0.12006742,-0.087439537,0
-3.951941,-1.1314958,-3.4734888,-0.98890746,0.12006742,-0.087439537,0
0.65337896,2.726474,4.2751036,-0.0087577105,0.54053187,0.84127778,0
2.8019712,4.6510944,-0.37365627,0.1317752,0.98083913,-0.14349115,0
3.990916,-2.2112155,-3.1467786,0.98890746,-0.12006742,0.087439537,0
-4.0282249,2.8382757,2.6085758,-0.98890746,0.12006742,-0.087439537,0
2.6300223,4.7302222,0.44518995,0.11572897,0.99185944,0.053118348,0
-2.9561343,2.2386739,4.5291777,-0.03773129,0.36631221,0.92972654,0
-2.03303,2.3440638,4.3470449,-0.023382425,0.45550686,0.889925,0
2.6596427,4.8669682,-0.1841197,0.12623549,0.9896121,-0.068791986,0
-3.4404411,4.8289604,1.6910007,0.071863472,0.90196645,0.42578405,0
3.8089976,-0.49270797,1.3261266,0.98890746,-0.12006742,0.087439537,0
3.7238173,2.1180048,-4.166678,0.13687837,0.50809407,-0.85035563,0
-3.8317285,-0.066626072,-0.38995242,-0.98890746,0.12006742,-0.087439537,0
-3.5185108,2.1866131,-1.0773625,-0.98890746,0.12006742,-0.087439537,0
0.56428057,-4.0378766,3.043829,-0.14849082,-0.81306452,0.56291789,0
3.6323082,4.4518366,-0.8601203,0.13682392,0.96546865,-0.22169662,0
-3.8997669,0.47490573,-1.7037368,-0.98890746,0.12006742,-0.087439537,0
1.8639669,-2.3101687,-4.3855047,0.030321717,-0.41310376,-0.9101789,0
4.2542677,0.70486259,-2.6847937,0.98890746,-0.12006742,0.087439537,0
1.5449772,1.5836315,-4.3998289,0.12651378,0.37245682,-0.91938573,0
-3.7552662,2.0177937,0.77593267,-0.98890746,0.12006742,-0.087439537,0
-4.2372198,-0.65421009,0.29408193,-0.98890746,0.12006742,-0.087439537,0
-1.6177471,4.1097822,-3.2651501,0.1485306,0.79666835,-0.58588231,0
4.4522281,4.1688647,-0.7422142,0.98890746,-0.12006742,0.087439537,0
-4.0623245,-4.5823598,-1.5020761,-0.095716953,-0.96529871,-0.24297434,0
4.306077,4.5881596,1.1979403,0.10198611,0.97686744,0.18795913,0
-4.3620176,-3.5745735,-0.24339008,-0.98890746,0.12006742,-0.087439537,0
1.2611188,-5.1894569,0.78350019,-0.1323055,-0.97961318,0.15117258,0
4.2112784,-0.26446724,-0.085036755,0.98890746,-0.12006742,0.087439537,0
4.2845774,0.96852064,-0.40966296,0.98890746,-0.12006742,0.087439537,0
1.4581311,-5.123158,-0.050977707,-0.11623627,-0.9920764,-0.047679543,0
0.074635506,0.5481931,4.8660631,-0.070701003,0.13721344,0.98801506,0
-3.4056091,4.4700384,-0.30192733,-0.98890746,0.12006742,-0.087439537,0
-4.359993,0.64436674,4.3179884,-0.98890746,0.12006742,-0.087439537,0
3.6641917,1.2235681,4.2764878,0.98890746,-0.12006742,0.087439537,0
-3.9158597,2.9407642,2.8333442,-0.98890746,0.12006742,-0.087439537,0
3.6410911,-0.19406009,2.226074,0.98890746,-0.12006742,0.087439537,0
3.6213746,0.037213683,4.2330184,0.98890746,-0.12006742,0.087439537,0
0.2307415,-4.3165274,-2.6139951,-0.053452194,-0.83692592,-0.54469967,0
-4.229197,-3.7768402,-0.99150991,-0.98890746,0.12006742,-0.087439537,0
0.38836122,2.5891831,-4.1384592,0.13641131,0.50123477,-0.85449135,0
-1.7144561,-2.5644991,-4.107492,0.0004491806,-0.58626962,-0.81011569,0
-1.8632948,5.1704388,0.97422481,0.092366457,0.95813048,0.27102423,0
-3.1368191,3.5403688,3.4785583,0.0148561,0.66569293,0.74607778,0
-0.91196561,-4.5019865,-1.9686022,-0.076026797,-0.91489953,-0.39645761,0
4.257051,0.73161077,-0.64987969,0.98890746,-0.12006742,0.087439537,0
1.6737247,-1.0751667,-4.6753654,0.066902876,-0.16552225,-0.98393404,0
3.4540315,-3.0003886,1.2249231,0.98890746,-0.12006742,0.087439537,0
3.7891192,0.16901004,4.0109754,0.98890746,-0.12006742,0.087439537,0
4.1212921,-1.9247346,-2.289377,0.98890746,-0.12006742,0.087439537,0
-3.2031293,4.4939384,-3.1236899,0.14808492,0.84263474,-0.51772338,0
0.88952732,4.7822766,0.47070026,0.11047274,0.98806417,0.10735333,0
3.412801,-3.2013023,4.3252583,0.98890746,-0.12006742,0.087439537,0
3.3751018,-1.600173,-4.6369572,0.054965019,-0.25108019,-0.96640444,0
3.7043476,-2.9268594,-2.1104541,0.98890746,-0.12006742,0.087439537,0
3.4110789,-0.95973706,4.0330005,0.98890746,-0.12006742,0.087439537,0
-1.0425923,-4.6586342,-0.69053364,-0.1064027,-0.98339999,-0.14697862,0
3.6170399,-2.5848417,-4.2663126,0.026792407,-0.43483835,-0.90010977,0
-1.5449665,4.6242094,-2.8028867,0.14819013,0.83748132,-0.52598906,0
3.5508428,4.4655237,0.84382343,0.11110497,0.98866075,0.10102171,0
-3.8778205,-0.69302344,-4.8079214,-0.98890746,0.12006742,-0.087439537,0
3.9438281,2.4964252,-3.8109689,0.14211363,0.5936625,-0.79206592,0
2.8785412,-4.2780237,3.3997748,-0.14810367,-0.75239998,0.64184064,0
2.8596616,3.4387112,3.5983896,0.037997842,0.77360296,0.63253009,0
-3.3197832,5.0311809,-2.3265877,-0.98890746,0.12006742,-0.087439537,0
1.5528588,-2.6034021,-4.3668461,0.019258499,-0.48007256,-0.87701726,0
-3.4807653,3.8073392,-2.3313153,-0.98890746,0.12006742,-0.087439537,0
-1.0557241,-5.0399318,-0.23008156,-0.11595273,-0.99195856,-0.050723732,0
2.2325015,-1.3928165,-4.6794567,0.054393888,-0.25504956,-0.96539664,0
3.8115857,-2.5588007,-3.0057931,0.98890746,-0.12006742,0.087439537,0
-3.6247318,0.3737607,-5.2050319,0.08798933,-0.00072398782,-0.99612117,0
-3.7537065,-0.48657107,-2.8836856,-0.98890746,0.12006742,-0.087439537,0
3.9479179,4.4804244,0.91010714,0.11216712,0.98958039,0.090272367,0
4.3622856,4.4598241,0.45306826,0.98890746,-0.12006742,0.087439537,0
-1.2750692,-4.85921,-0.87596512,-0.10351253,-0.97928667,-0.17401838,0
-2.8634338,4.4159842,2.5646834,0.051344216,0.82873088,0.55728686,0
-2.6322608,-2.1330931,-4.7039542,0.016216159,-0.49789655,-0.86708468,0
-3.1998973,5.1987281,0.54192281,0.10461348,0.98092782,0.16381842,0
1.8921514,1.0393333,-4.6354241,0.11135799,0.20975611,-0.97139156,0
-3.9907308,1.126704,0.57090986,-0.98890746,0.12006742,-0.087439537,0
-1.1287454,-4.3977385,2.2466633,-0.14585564,-0.89624029,0.41890246,0
-4.5766068,-0.47484159,3.6571751,-0.98890746,0.12006742,-0.087439537,0
-3.6627185,0.42713499,-1.9707081,-0.98890746,0.12006742,-0.087439537,0
1.5076214,-5.3367081,0.8905735,-0.13027856,-0.98389733,0.12236559,0
-3.0244584,-2.119123,-4.8535266,0.02225399,-0.46227548,-0.88645697,0
-2.0437975,2.9206233,-4.4323716,0.13835451,0.53045279,-0.83634794,0
-3.5445533,2.9659536,-2.1411018,-0.98890746,0.12006742,-0.087439537,0
-3.0237834,5.1278615,1.4325385,0.085167706,0.94066912,0.3284629,0
-3.4722562,2.1813655,-2.9050848,-0.98890746,0.12006742,-0.087439537,0
-1.8972797,-3.9892235,-3.0260618,-0.046993732,-0.81136662,-0.5826453,0
-2.9471421,-3.1091416,-3.9666615,-0.024283171,-0.71145993,-0.70230675,0
3.9791355,1.3631527,1.5483663,0.98890746,-0.12006742,0.087439537,0
-0.13116455,4.7760735,1.9123821,0.073083282,0.9058286,0.41729248,0
3.4420214,-5.0714755,0.25080848,0.98890746,-0.12006742,0.087439537,0
4.2664909,0.60236359,-1.8486226,0.98890746,-0.12006742,0.087439537,0
3.5216532,-2.6089687,4.3309546,0.98890746,-0.12006742,0.087439537,0
-0.71102333,-4.9461913,0.092680454,-0.12428513,-0.99124873,0.044487298,0
-4.2217584,-2.4144275,-1.2072434,-0.98890746,0.12006742,-0.087439537,0
0.46362197,3.8549116,-2.8189683,0.14853185,0.80061424,-0.58047819,0
-4.2501469,0.51474142,1.7776213,-0.98890746,0.12006742,-0.087439537,0
-1.9159524,5.1591229,0.69547725,0.099706531,0.97295499,0.20836788,0
-2.2796745,4.0062361,3.0419827,0.032102942,0.74755216,0.66342664,0
-4.4265671,-3.3047869,1.7866707,-0.98890746,0.12006742,-0.087439537,0
4.4384818,-1.503974,-4.3418994,0.98890746,-0.12006742,0.087439537,0
4.1341915,2.6881895,1.2792988,0.98890746,-0.12006742,0.087439537,0
3.6465611,2.8013766,4.0585556,0.0096857548,0.63956541,0.76867545,0
-3.7853115,-0.037557721,-4.2407727,-0.98890746,0.12006742,-0.087439537,0
2.3626666,-0.41001749,-4.8952723,0.084375918,-0.030376017,-0.99597073,0
-4.392725,-3.6736877,-1.5840101,-0.98890746,0.12006742,-0.087439537,0
4.1522026,-0.010085106,-1.7023896,0.98890746,-0.12006742,0.087439537,0
-3.7428207,3.3462296,1.5463303,-0.98890746,0.12006742,-0.087439537,0
-4.717979,-4.3310585,1.1899271,-0.98890746,0.12006742,-0.087439537,0
1.5498042,-3.8398743,-3.1494594,-0.025414109,-0.71678609,-0.69682962,0
-3.4112511,4.6341791,1.3937949,-0.98890746,0.12006742,-0.087439537,0
-1.1536715,-4.0500889,2.8845792,-0.1485295,-0.79583818,0.58700973,0
1.2087054,-4.9467983,-0.63409162,-0.10207862,-0.97701877,-0.1871202,0
4.1682053,-0.38580513,-3.0744612,0.98890746,-0.12006742,0.087439537,0
-3.2156637,5.395906,0.82373238,0.09993279,0.97335887,0.20636314,0
4.2236018,-0.086883068,-1.7417067,0.98890746,-0.12006742,0.087439537,0
4.5922055,1.3077884,-2.6659062,0.98890746,-0.12006742,0.087439537,0
2.6617718,1.5191171,-4.4325275,0.1238327,0.34138462,-0.93173051,0
2.9564815,3.9714601,2.5637302,0.064646065,0.87792969,0.47440475,0
-3.312501,3.2400365,-4.0674458,-0.98890746,0.12006742,-0.087439537,0
-0.71337795,-4.7276917,-0.77165079,-0.10199291,-0.97687858,-0.18789715,0
3.4793019,4.3951812,2.0548339,0.083614051,0.9365589,0.34039062,0
-2.5323339,4.6542006,-2.4776313,0.14682801,0.87914073,-0.45337945,0
3.880444,2.7828195,3.7686527,0.98890746,-0.12006742,0.087439537,0
4.3278027,-0.89844036,-2.2019184,0.98890746,-0.12006742,0.087439537,0
3.3777521,-4.8327475,-2.5356231,-0.054970384,-0.84273797,-0.53550971,0
-4.2942514,-1.8315866,-1.3613651,-0.98890746,0.12006742,-0.087439537,0
4.4843621,4.0674987,0.36861181,0.98890746,-0.12006742,0.087439537,0
-4.400723,-1.0232115,2.7336731,-0.98890746,0.12006742,-0.087439537,0
-1.2354174,5.0246124,-0.73316836,0.1302968,0.98386359,-0.12261778,0
-3.4767389,-1.7922984,-4.9195323,0.025137663,-0.44490862,-0.8952229,0
0.78008437,-5.0524607,-1.4984958,-0.090278506,-0.95334506,-0.28806704,0
3.7563646,-1.3965595,2.6996617,0.98890746,-0.12006742,0.087439537,0
1.1214342,-5.086607,-0.056974173,-0.11539567,-0.99170154,-0.056671381,0
-0.56793165,4.6470284,1.543258,0.081629276,0.93114281,0.35540032,0
2.6749244,3.163306,-3.4746642,0.14497983,0.65229458,-0.74397075,0
2.0354049,-1.6776712,4.9508862,-0.11646295,-0.26143035,0.95817029,0
1.9240403,1.6928017,4.8154039,-0.02830255,0.42558199,0.90447706,0
4.3703976,4.2191615,0.66053963,0.98890746,-0.12006742,0.087439537,0
-3.8154147,2.488544,4.3666449,-0.026051044,0.43935907,0.89793348,0
-3.3458555,1.2050886,-4.9659567,-0.98890746,0.12006742,-0.087439537,0
3.4017155,-4.5235977,2.7019403,0.98890746,-0.12006742,0.087439537,0
