0.094928086,2.6684446,0.41036069,0.598014,0.75610137,-0.26587468,0
2.8249798,-2.0554202,-3.8055179,0.39460441,-0.56649137,-0.72344649,0
-0.74420357,0.59673321,4.8462353,-0.0025553703,0.33352429,0.942738,0
-1.2850952,2.4504311,-3.0080318,0.598014,0.75610137,-0.26587468,0
3.2730215,-1.3387153,-4.0211711,0.598014,0.75610137,-0.26587468,0
0.83343124,-0.30460829,4.9834666,0.30686092,0.090456903,0.94744581,0
-0.58612955,3.5507572,1.2189837,0.598014,0.75610137,-0.26587468,0
0.8840068,2.4769175,1.8785825,0.598014,0.75610137,-0.26587468,0
-2.7096004,-1.064677,-1.0508676,-0.598014,-0.75610137,0.26587468,0
-0.64127839,-1.6488737,1.3494117,-0.598014,-0.75610137,0.26587468,0
-1.5660784,-1.0316737,1.1683445,-0.598014,-0.75610137,0.26587468,0
-4.7042603,1.0251667,-2.1987579,-0.75932109,0.4282957,-0.48989135,0
-2.5495162,0.23155451,2.5892785,-0.598014,-0.75610137,0.26587468,0
2.9706182,-4.6770983,0.84295559,0.79246426,-0.60743308,0.055001616,0
-4.3565197,2.5372071,-1.310205,-0.79816979,0.53167546,-0.28327668,0
-2.6279294,1.0833957,4.6182179,-0.27785653,0.50673348,0.81609863,0
0.66190219,1.3342612,4.7176695,0.15369797,0.21738525,0.96390891,0
-1.4415638,2.8763599,-2.0753183,0.598014,0.75610137,-0.26587468,0
1.4460998,-2.4872022,3.6530459,-0.598014,-0.75610137,0.26587468,0
0.14802361,-1.186744,4.7645078,-0.598014,-0.75610137,0.26587468,0
-2.2070823,-2.066555,-3.5422397,-0.598014,-0.75610137,0.26587468,0
1.7387066,1.5995367,0.89003521,0.598014,0.75610137,-0.26587468,0
2.0866055,-0.99497336,4.6283579,0.49342644,-0.085904241,0.86553466,0
2.9143586,1.2834125,3.0726311,0.598014,0.75610137,-0.26587468,0
-2.1971045,4.3483453,1.4244418,-0.6453895,0.65097505,0.39962941,0
0.2364119,3.2435374,1.5940216,0.598014,0.75610137,-0.26587468,0
-2.5638738,1.252903,-4.2909632,-0.58521271,0.18525973,-0.789433,0
2.0309582,2.0631952,3.4345975,0.598014,0.75610137,-0.26587468,0
-0.81186569,3.3357768,0.36328816,0.598014,0.75610137,-0.26587468,0
-3.1592155,0.45301795,1.305166,-0.598014,-0.75610137,0.26587468,0
-1.4144342,2.2941852,4.2688494,-0.23091789,0.48020002,0.84621799,0
-3.2567525,2.1729228,3.5010569,-0.50899947,0.61452013,0.60273087,0
0.11431596,3.0006635,0.8563832,0.598014,0.75610137,-0.26587468,0
-4.1673226,2.8101361,0.52695966,-0.770428,0.63374066,0.069376767,0
-2.9220719,3.6973689,1.7409937,-0.63756144,0.64979076,0.41386878,0
-1.5068808,1.4277,-4.6449804,-0.48147619,0.073702753,-0.87335443,0
-3.4342244,0.81816363,2.4191618,-0.598014,-0.75610137,0.26587468,0
-1.1249367,4.0259204,1.1851017,0.598014,0.75610137,-0.26587468,0
-2.8448889,-0.7647655,-1.5697844,-0.598014,-0.75610137,0.26587468,0
-4.8595991,1.6045864,1.4068162,-0.598014,-0.75610137,0.26587468,0
-3.4033403,2.3146827,3.0860643,-0.54394591,0.62650836,0.55822045,0
-2.0059791,3.905175,-1.4636362,0.598014,0.75610137,-0.26587468,0
-1.9146993,4.6185493,1.8854809,-0.61122996,0.64481032,0.45893085,0
1.4576986,-2.5426559,-4.1283092,0.27704394,-0.50628561,-0.8166526,0
4.2259173,-0.8342278,-0.89387512,0.598014,0.75610137,-0.26587468,0
3.7539985,-0.14730668,0.76627088,0.598014,0.75610137,-0.26587468,0
1.6759139,-0.25339425,-4.3431053,0.598014,0.75610137,-0.26587468,0
-2.2787046,4.2290039,1.7485921,-0.63452435,0.64929247,0.41928262,0
-0.071148157,1.8063405,-2.1009519,0.598014,0.75610137,-0.26587468,0
-1.7122902,2.5855052,3.9404795,-0.34690619,0.54322547,0.76456666,0
0.85944164,-3.1839962,0.011482239,-0.598014,-0.75610137,0.26587468,0
0.58591032,-1.8332522,3.9384394,-0.598014,-0.75610137,0.26587468,0
4.0377893,-2.7908261,0.75910211,0.80038846,-0.58072913,0.14876676,0
-1.590076,-0.40260482,-4.7636356,-0.31291729,-0.085143059,-0.94595617,0
1.6725074,-1.7167301,-4.4620547,0.19931442,-0.46160012,-0.86440676,0
5.3720036,-1.3449769,0.58438969,0.8010174,-0.55248845,0.23049307,0
-4.9012647,1.4715035,1.2743571,-0.598014,-0.75610137,0.26587468,0
-2.090723,-0.2559495,2.0152867,-0.598014,-0.75610137,0.26587468,0
-3.8309,3.2490985,-1.2528477,-0.80129087,0.55670637,-0.21911299,0
-4.9537711,1.6514449,-0.099996328,-0.79926234,0.58727694,-0.12761283,0
2.6832101,-1.2090313,-4.4033365,0.33440968,-0.53685814,-0.77456665,0
1.4808459,-0.38825116,4.9377694,0.38445234,0.020463556,0.92291784,0
2.7853098,1.5373557,3.7949598,0.598014,0.75610137,-0.26587468,0
2.4105773,-4.0435672,-1.8189027,0.61096251,-0.6447525,-0.45936787,0
1.1206483,1.8564649,0.94707918,0.598014,0.75610137,-0.26587468,0
-0.10458535,2.7159097,0.25699139,0.598014,0.75610137,-0.26587468,0
-0.57298994,2.0865612,-3.555249,0.598014,0.75610137,-0.26587468,0
0.15222883,-1.8708588,-4.5362282,0.016619802,-0.34335434,-0.9390589,0
-3.9749672,0.188941,-1.1879245,-0.598014,-0.75610137,0.26587468,0
-0.086257875,3.0588126,0.59610033,0.598014,0.75610137,-0.26587468,0
0.053941369,3.6515985,3.7298696,-0.20646518,0.465859,0.86043441,0
-0.38826489,2.3730679,-2.2630696,0.598014,0.75610137,-0.26587468,0
2.6358192,1.8995774,3.1897392,0.598014,0.75610137,-0.26587468,0
3.2077897,0.41508484,0.34651136,0.598014,0.75610137,-0.26587468,0
1.6777761,2.5748661,3.2622724,0.598014,0.75610137,-0.26587468,0
-3.3671088,3.3564992,-1.7357645,-0.79908645,0.53681654,-0.27071804,0
-4.5831995,1.4131913,1.3420255,-0.598014,-0.75610137,0.26587468,0
-3.445446,0.73873627,-3.4542801,-0.61909282,0.22508931,-0.75236857,0
-1.6262357,-0.92717242,0.92421198,-0.598014,-0.75610137,0.26587468,0
-0.74116516,2.0467231,-3.0613184,0.598014,0.75610137,-0.26587468,0
-3.0949967,-0.57571101,-1.4255838,-0.598014,-0.75610137,0.26587468,0
2.3936958,0.37474155,4.3630929,0.44001645,-0.032455266,0.8974027,0
2.5670059,1.4600313,1.9926403,0.598014,0.75610137,-0.26587468,0
-2.878566,-0.76126003,-1.536145,-0.598014,-0.75610137,0.26587468,0
0.90975511,-3.9520516,-2.000735,-0.598014,-0.75610137,0.26587468,0
-3.5938497,-0.65220976,-3.7880526,-0.51481938,0.10812779,-0.85045218,0
0.54248828,2.4508235,0.72269201,0.598014,0.75610137,-0.26587468,0
1.0917943,0.9109385,-3.023747,0.598014,0.75610137,-0.26587468,0
2.4957972,-2.7599232,3.6377013,0.67233998,-0.29267746,0.67992526,0
-0.86567211,-2.3402085,-4.3786206,-0.027137816,-0.31243527,-0.94955134,0
1.3349345,1.5575601,4.5903692,0.1775701,0.19849491,0.96388197,0
-2.4228625,-1.6661062,-2.1738963,-0.598014,-0.75610137,0.26587468,0
-5.0090055,1.2145238,-0.23291636,-0.598014,-0.75610137,0.26587468,0
2.6793141,-3.1963403,3.5905981,0.71179485,-0.34853798,0.60981047,0
3.9263618,-3.0145392,0.28950787,0.78819501,-0.61495697,0.02400285,0
-1.8367282,0.41021693,3.9086752,-0.598014,-0.75610137,0.26587468,0
-3.5886455,3.5038991,-1.6187341,-0.7985025,0.53345925,-0.27895224,0
-2.5724068,4.2862239,0.92063379,-0.71419561,0.65325654,0.25135684,0
0.62392163,-1.972149,2.8718948,-0.598014,-0.75610137,0.26587468,0
-0.65561342,-2.1163731,0.088187933,-0.598014,-0.75610137,0.26587468,0
4.6460676,-1.4756259,-1.1167104,0.598014,0.75610137,-0.26587468,0
-1.9161582,-0.93629551,0.35418701,-0.598014,-0.75610137,0.26587468,0
-2.4093094,0.78356904,-4.1821012,-0.53164721,0.12597598,-0.83754456,0
3.7345643,0.056267738,3.8098421,0.56982744,-0.16781166,0.80444729,0
0.93498862,1.2989578,-1.023139,0.598014,0.75610137,-0.26587468,0
5.1403646,-0.65473652,1.4433441,0.598014,0.75610137,-0.26587468,0
2.7686987,-1.8770206,-4.1944323,0.36996895,-0.55468535,-0.74528319,0
-2.4604912,3.6283638,-2.4706216,0.598014,0.75610137,-0.26587468,0
-3.8738914,3.2728028,0.63519526,-0.75716639,0.64173776,0.12194771,0
2.8411312,-3.8363822,-1.6501582,0.66366017,-0.65312922,-0.36466032,0
-2.936347,-0.54402423,-0.88479394,-0.598014,-0.75610137,0.26587468,0
-0.17357039,-1.7100351,2.7907801,-0.598014,-0.75610137,0.26587468,0
-2.4719324,1.9415919,-3.7866111,-0.62858021,0.23663627,-0.74087077,0
0.16624856,-2.2674048,1.8936896,-0.598014,-0.75610137,0.26587468,0
-2.1573825,-1.9443443,-2.4508369,-0.598014,-0.75610137,0.26587468,0
4.728796,-0.69812584,1.0434225,0.598014,0.75610137,-0.26587468,0
-4.6585627,-0.00816679,-2.4900622,-0.70769721,0.34242085,-0.61799026,0
-0.90254068,1.7814015,-4.0122714,0.598014,0.75610137,-0.26587468,0
2.8959203,-3.5870881,2.7086949,0.77151871,-0.45319802,0.44650844,0
0.086646125,-3.1100469,-1.5417994,-0.598014,-0.75610137,0.26587468,0
2.1211355,1.3222466,1.2301531,0.598014,0.75610137,-0.26587468,0
3.0989079,-3.9741578,-1.4216018,0.68199569,-0.6543026,-0.32675642,0
2.0945532,1.8946266,3.1023912,0.598014,0.75610137,-0.26587468,0
0.60134888,1.1603544,-2.5735722,0.598014,0.75610137,-0.26587468,0
2.251271,-0.03762269,-2.8968503,0.598014,0.75610137,-0.26587468,0
-2.6804056,0.2138176,2.0343521,-0.598014,-0.75610137,0.26587468,0
-2.7006617,0.65089333,-4.3714747,-0.51912761,0.11266533,-0.8472383,0
4.8039079,-0.81597161,1.0582299,0.598014,0.75610137,-0.26587468,0
1.763036,1.5008085,0.44474244,0.598014,0.75610137,-0.26587468,0
-2.5106165,-1.8988616,-3.236764,-0.598014,-0.75610137,0.26587468,0
0.040406704,-2.5565901,-4.3839369,0.12806275,-0.41760653,-0.89955801,0
3.0948935,-0.98684573,-3.6968234,0.598014,0.75610137,-0.26587468,0
0.61380517,3.3067997,2.8272586,0.598014,0.75610137,-0.26587468,0
0.3728137,3.3204465,2.5592113,0.598014,0.75610137,-0.26587468,0
-1.7625787,1.6551468,4.4065213,-0.21126851,0.46870333,0.85771948,0
-4.2709785,1.1961771,-2.3835361,-0.74739408,0.40627748,-0.52568054,0
1.5282775,-1.5016218,-4.8979206,0.16547459,-0.44105494,-0.88209337,0
4.7703466,-0.68664742,1.8303006,0.598014,0.75610137,-0.26587468,0
0.71537352,2.9400527,2.5496669,0.598014,0.75610137,-0.26587468,0
3.7174554,0.052431107,3.4568529,0.58164346,-0.18117896,0.79300994,0
0.82679272,0.0798316,-4.7069893,0.598014,0.75610137,-0.26587468,0
3.6885154,0.23793125,0.89182019,0.598014,0.75610137,-0.26587468,0
-1.9629328,4.0033412,-0.2403121,0.598014,0.75610137,-0.26587468,0
-4.8937788,0.84062743,-2.0014527,-0.7504974,0.41183287,-0.51686227,0
1.4582767,-4.0270581,-0.064161777,-0.598014,-0.75610137,0.26587468,0
-3.8412056,0.11560941,-3.4440598,-0.62038434,0.22665033,-0.75083452,0
-4.3480711,2.2749083,1.3544493,-0.73508257,0.64961892,0.19403213,0
3.1822867,-0.90498245,-2.5784311,0.598014,0.75610137,-0.26587468,0
-1.2622631,4.1675696,2.1021357,0.598014,0.75610137,-0.26587468,0
-3.3055582,3.2698832,1.27195,-0.70349407,0.65412152,0.27788663,0
-1.5085855,-0.84481275,1.295773,-0.598014,-0.75610137,0.26587468,0
2.7742844,-1.4294395,4.0418367,0.61020219,-0.21443412,0.7626735,0
-2.2575586,-1.5819554,-1.5587186,-0.598014,-0.75610137,0.26587468,0
-2.0787604,3.9423532,-1.2196159,0.598014,0.75610137,-0.26587468,0
-0.9272278,-2.2187078,-1.3556814,-0.598014,-0.75610137,0.26587468,0
-1.1575181,3.9933763,1.7038109,0.598014,0.75610137,-0.26587468,0
2.7036121,-4.2446175,-0.58409309,0.73247349,-0.6502403,-0.20166785,0
3.1322348,0.97554135,2.8571472,0.598014,0.75610137,-0.26587468,0
3.0119634,-2.7451675,2.8473275,0.75154972,-0.41374204,0.51379955,0
2.9363878,-0.064477921,-1.0840425,0.598014,0.75610137,-0.26587468,0
3.0942807,-2.8400168,-3.0156975,0.54620522,-0.62723112,-0.55519438,0
-3.1812949,-0.13653421,-3.8281739,-0.54769456,0.14332147,-0.82431132,0
-0.89433312,2.9807451,-1.2199981,0.598014,0.75610137,-0.26587468,0
2.4232931,-0.44966638,4.4086013,0.50726378,-0.10022111,0.85594314,0
-0.25917196,-1.8498621,2.0332344,-0.598014,-0.75610137,0.26587468,0
-4.2603569,2.5296562,0.66420603,-0.75727147,0.64168638,0.1215654,0
-0.84060574,-2.8278542,-4.2949233,-0.0088658929,-0.32546645,-0.94551194,0
4.043673,-2.8096404,1.1457913,0.79953891,-0.53967738,0.26360011,0
3.8926582,0.45540953,3.1815381,0.598014,0.75610137,-0.26587468,0
1.28239,1.7454433,0.19772106,0.598014,0.75610137,-0.26587468,0
-0.77682066,2.3375657,4.2410884,-0.1519725,0.43268019,0.88864625,0
2.8163381,0.097450972,-0.2587558,0.598014,0.75610137,-0.26587468,0
-1.1216648,3.3132038,3.8254659,-0.32097733,0.52989423,0.78497493,0
2.222661,-3.9429522,-2.6629272,0.52135891,-0.61892706,-0.58746409,0
2.0661902,0.8429203,-1.0683212,0.598014,0.75610137,-0.26587468,0
-0.74312353,1.6925335,-4.6794896,0.598014,0.75610137,-0.26587468,0
1.6424949,0.3765105,-2.6716316,0.598014,0.75610137,-0.26587468,0
-2.0499294,3.9538178,-0.90771246,0.598014,0.75610137,-0.26587468,0
2.2288525,0.74771571,-0.3393909,0.598014,0.75610137,-0.26587468,0
2.9645839,-0.46650696,3.8317564,0.57905507,-0.17823239,0.79556763,0
-0.93817294,4.0382748,1.775948,0.598014,0.75610137,-0.26587468,0
2.2928269,-4.2622895,-1.9728,0.59967554,-0.64219147,-0.47747171,0
0.35160005,2.1875081,-0.74634671,0.598014,0.75610137,-0.26587468,0
4.9583769,-1.1016953,-0.18210149,0.598014,0.75610137,-0.26587468,0
-4.9172935,1.7934704,1.2300277,-0.74004734,0.64828044,0.17905891,0
0.49742919,-3.6531062,-1.0928438,-0.598014,-0.75610137,0.26587468,0
2.3123517,-0.27048814,-2.3595231,0.598014,0.75610137,-0.26587468,0
-3.5514188,2.9939685,-1.5563438,-0.79678196,0.52495527,-0.29926598,0
3.688499,-2.1816261,-2.4971361,0.63450867,-0.64928985,-0.41931057,0
-3.0215287,3.6922808,1.8221779,-0.67089242,0.6537205,0.35007513,0
-1.7422113,-0.60051727,1.5093988,-0.598014,-0.75610137,0.26587468,0
3.4698336,-1.0637596,-3.4062293,0.598014,0.75610137,-0.26587468,0
-0.23232675,3.0078912,0.58836174,0.598014,0.75610137,-0.26587468,0
-0.4643209,-3.4045064,-2.8472233,-0.598014,-0.75610137,0.26587468,0
-2.9508328,0.9918099,-4.0586252,-0.59280264,0.19400658,-0.78163022,0
2.9503064,-4.1066756,-0.23330784,0.7452234,-0.64664471,-0.16276485,0
2.5759573,-1.4272567,4.18297,0.59861612,-0.20077175,0.77546692,0
3.3733413,-0.83549762,-2.7176571,0.598014,0.75610137,-0.26587468,0
3.690552,0.17810678,1.4342897,0.598014,0.75610137,-0.26587468,0
1.2184374,2.1357121,1.9906037,0.598014,0.75610137,-0.26587468,0
0.46323538,-0.89871889,-4.9531655,-0.043023944,-0.30096516,-0.95266402,0
3.8618708,-0.52321744,0.40179038,0.598014,0.75610137,-0.26587468,0
2.6658087,-0.39626431,-3.2068498,0.598014,0.75610137,-0.26587468,0
0.1586647,-1.3794849,3.8343759,-0.598014,-0.75610137,0.26587468,0
-1.1552653,1.4026334,-5.1729097,-0.44279474,0.035169452,-0.89593279,0
-2.1398351,-1.9504151,-3.1273975,-0.598014,-0.75610137,0.26587468,0
2.3181109,-1.9162328,4.0719657,0.61019826,-0.21442953,0.76267779,0
0.7077719,1.4996533,-1.557356,0.598014,0.75610137,-0.26587468,0
-4.699893,1.9385176,0.57320333,-0.77839625,0.62694967,0.03214246,0
-0.73036003,2.2659492,-3.4701548,0.598014,0.75610137,-0.26587468,0
-1.1076298,0.022484958,-5.0798798,-0.31470394,-0.083570719,-0.94550347,0
1.8937135,-0.35064185,4.789093,0.39651835,0.0091842413,0.91798067,0
1.7391324,-2.7483814,3.4644642,-0.598014,-0.75610137,0.26587468,0
-5.0060563,0.85715485,-1.1808326,-0.598014,-0.75610137,0.26587468,0
1.8660902,0.45044756,-1.3754702,0.598014,0.75610137,-0.26587468,0
-2.4455328,2.6180007,-3.8089657,-0.68589109,0.31116837,-0.65781999,0
3.1953444,0.39870262,0.38623321,0.598014,0.75610137,-0.26587468,0
-1.414556,0.71159458,5.1453371,-0.093740523,0.39543286,0.91369873,0
4.6273475,-1.9418982,-1.3263981,0.72974032,-0.6508348,-0.20950603,0
-0.81280828,-1.1377379,2.944557,-0.598014,-0.75610137,0.26587468,0
-4.1597285,0.27572608,-0.74940407,-0.598014,-0.75610137,0.26587468,0
-0.73777437,2.1233578,-3.7332487,0.598014,0.75610137,-0.26587468,0
-0.2733314,-0.84394628,3.8340769,-0.598014,-0.75610137,0.26587468,0
0.75715393,1.8830452,-0.74885184,0.598014,0.75610137,-0.26587468,0
-0.84089255,-0.39164853,4.5407166,-0.598014,-0.75610137,0.26587468,0
-1.4081061,-2.7633185,-3.4949038,-0.598014,-0.75610137,0.26587468,0
-1.9461398,2.3467712,-4.1212363,-0.62651229,0.23410323,-0.74342293,0
0.7375747,1.884867,-0.57479328,0.598014,0.75610137,-0.26587468,0
0.91714728,-3.5366135,0.062038183,-0.598014,-0.75610137,0.26587468,0
2.6613159,-2.702265,-3.0258102,0.52127099,-0.61889637,-0.58757448,0
-1.4471622,3.1404941,-1.4956145,0.598014,0.75610137,-0.26587468,0
-0.32683253,3.9927592,3.6116972,-0.29740378,0.51738149,0.80241346,0
-3.371278,3.1591139,-1.4924178,-0.79867494,0.53441721,-0.27661556,0
0.47394824,-0.87686515,-5.1325235,-0.041539371,-0.3020426,-0.95238888,0
2.0713167,2.1309886,3.5323803,0.598014,0.75610137,-0.26587468,0
-0.55490589,1.2561601,4.6286092,-0.040162683,0.35958034,0.93224937,0
1.9318409,-1.2154495,-4.8259468,0.21829829,-0.47284213,-0.85367799,0
-3.8371778,0.49498773,0.89943373,-0.598014,-0.75610137,0.26587468,0
0.076205254,-1.7726014,1.9112549,-0.598014,-0.75610137,0.26587468,0
-0.98244643,0.40703616,5.2276525,0.010041893,0.32463288,0.94578671,0
0.94397068,1.0536907,4.5744343,0.17225391,0.202729,0.96396548,0
-0.095684767,-1.8347198,1.9600281,-0.598014,-0.75610137,0.26587468,0
-1.582841,-0.20848548,3.5284948,-0.598014,-0.75610137,0.26587468,0
-0.3704344,-3.6445274,-3.3735309,-0.598014,-0.75610137,0.26587468,0
-1.0309896,1.6884694,-4.5526309,0.598014,0.75610137,-0.26587468,0
0.57684737,2.4858732,1.4251072,0.598014,0.75610137,-0.26587468,0
2.0909061,-1.0386076,-4.8798637,0.18620452,-0.45371681,-0.8714751,0
1.3188539,2.214165,1.0675631,0.598014,0.75610137,-0.26587468,0
2.2139826,-1.8744664,-4.3363037,0.3047162,-0.52130187,-0.79711509,0
-4.1214867,2.8827698,0.18933249,-0.78698009,0.61676729,-0.016121805,0
-4.2901006,1.523751,1.5095654,-0.598014,-0.75610137,0.26587468,0
2.9494934,-2.8346825,-3.1500385,0.53308082,-0.62294036,-0.57251197,0
1.4904518,-3.85566,-3.0024698,0.44771284,-0.59028333,-0.67165375,0
-4.2949934,2.6743803,0.73116493,-0.77197146,0.63256943,0.062574744,0
-2.0862608,3.480222,-2.9161999,0.598014,0.75610137,-0.26587468,0
-0.37076449,-3.2127268,-4.2315731,0.12530079,-0.41584542,-0.90076202,0
-4.774344,2.197731,0.76705289,-0.76927638,0.63457596,0.074342847,0
-1.5908675,3.0960712,-1.9008441,0.598014,0.75610137,-0.26587468,0
1.3549552,2.6596181,3.2945523,0.598014,0.75610137,-0.26587468,0
-0.72560883,0.58553767,-5.2026095,-0.29711306,-0.098959446,-0.94970024,0
1.7511454,-3.5323918,1.1892016,-0.598014,-0.75610137,0.26587468,0
-3.2620091,2.0206456,-3.361783,-0.70319289,0.33579305,-0.62670732,0
-1.460382,2.523406,-4.1213622,0.598014,0.75610137,-0.26587468,0
0.13649821,-1.4225152,-4.7214189,0.014446437,-0.34184194,-0.9396463,0
-1.3868513,-1.076297,-4.8169365,-0.25011426,-0.13911015,-0.95817065,0
-0.2770339,-2.8191886,-1.0227422,-0.598014,-0.75610137,0.26587468,0
-2.5778828,4.1707411,-1.9768882,0.598014,0.75610137,-0.26587468,0
-3.1925035,3.9311683,0.59315205,-0.74225444,0.64761472,0.17220145,0
4.5210152,-1.6192145,-2.1148386,0.598014,0.75610137,-0.26587468,0
-0.97440696,4.0077333,1.3821771,0.598014,0.75610137,-0.26587468,0
-0.87481797,-1.5837529,1.7588328,-0.598014,-0.75610137,0.26587468,0
4.0647707,-1.4678056,2.2058513,0.75666893,-0.42323336,0.49832231,0
-1.0278754,-0.18461382,5.2166877,-0.598014,-0.75610137,0.26587468,0
-3.2265043,1.7902024,-3.5257993,-0.68716568,0.3129411,-0.65564525,0
-3.5582151,-0.85882592,-3.6090441,-0.49916971,0.091821194,-0.86162531,0
2.5864875,-4.583735,-0.20654583,0.75983441,-0.64038086,-0.11208785,0
-0.37876272,-3.1162696,-2.2728901,-0.598014,-0.75610137,0.26587468,0
1.8029664,2.1364474,3.2164221,0.598014,0.75610137,-0.26587468,0
2.0411391,-3.0210009,3.5374069,-0.598014,-0.75610137,0.26587468,0
0.53535795,-1.7684689,2.9600127,-0.598014,-0.75610137,0.26587468,0
-2.0036225,-0.37531328,1.5616324,-0.598014,-0.75610137,0.26587468,0
-1.0343254,3.9771481,3.2538874,-0.36667684,0.55307311,0.74810308,0
-2.1568274,2.8603642,-3.8061986,-0.65625596,0.27148932,-0.70400369,0
3.5498478,0.1741817,1.1545737,0.598014,0.75610137,-0.26587468,0
-2.642745,0.83346069,4.4402246,-0.598014,-0.75610137,0.26587468,0
-1.7473452,3.6485989,-0.46023917,0.598014,0.75610137,-0.26587468,0
-3.2255592,3.2765715,1.3691065,-0.70501792,0.65403318,0.27420783,0
1.1765244,-2.7654309,1.9273574,-0.598014,-0.75610137,0.26587468,0
-1.7636104,-0.049530506,-4.8397179,-0.38469613,-0.02023676,-0.92282122,0
4.6810589,-1.7420127,-1.7074256,0.71980709,-0.6525563,-0.23674381,0
-1.1450727,-2.0375631,-0.413122,-0.598014,-0.75610137,0.26587468,0
-0.81451082,-3.1049135,-3.6254733,-0.598014,-0.75610137,0.26587468,0
-1.3042912,2.4441772,-3.7913487,0.598014,0.75610137,-0.26587468,0
1.6121361,0.21289814,-2.7129357,0.598014,0.75610137,-0.26587468,0
1.9969467,0.88565493,-0.51481974,0.598014,0.75610137,-0.26587468,0
-1.1849058,-2.478755,-2.6837873,-0.598014,-0.75610137,0.26587468,0
-4.7193594,1.3167622,-1.3615613,-0.79193413,0.50636899,-0.34121853,0
-3.2913079,3.2969413,1.8909824,-0.6710456,0.65373135,0.34976131,0
-3.2843022,2.0988588,-3.1945641,-0.72514981,0.36912885,-0.58129239,0
-3.3518376,3.5710053,-1.3424397,-0.80148154,0.56515872,-0.19550496,0
2.7010775,-0.10627198,-1.0807596,0.598014,0.75610137,-0.26587468,0
-0.3915813,1.7379422,-2.9973531,0.598014,0.75610137,-0.26587468,0
0.38053334,-3.2472577,-0.1683805,-0.598014,-0.75610137,0.26587468,0
0.14015305,-2.9953635,-0.19630289,-0.598014,-0.75610137,0.26587468,0
0.68626285,-3.4144309,0.053906441,-0.598014,-0.75610137,0.26587468,0
-3.0550382,4.2414236,0.90442657,-0.7108041,0.65359437,0.25994545,0
0.65157056,1.078287,-2.3857584,0.598014,0.75610137,-0.26587468,0
-2.8808343,2.7415295,2.9633121,-0.55086946,0.6287021,0.54888642,0
2.9944475,1.5451086,3.2204514,0.598014,0.75610137,-0.26587468,0
-1.7131603,-0.15220642,3.6434872,-0.598014,-0.75610137,0.26587468,0
-2.9320741,2.5357587,-3.6893046,-0.68536717,0.31044146,-0.65870881,0
3.4691243,-3.3087964,2.0029373,0.79266214,-0.50885415,0.33578819,0
2.1488545,-0.59473169,-3.6373899,0.598014,0.75610137,-0.26587468,0
0.7958231,-4.3982058,-2.4857614,-0.598014,-0.75610137,0.26587468,0
3.5181587,-0.10488057,-0.50605941,0.598014,0.75610137,-0.26587468,0
-1.9086456,3.2115312,-3.1077628,0.598014,0.75610137,-0.26587468,0
-2.1652372,1.7724583,4.2411928,-0.33385217,0.5365715,0.77500558,0
0.50632954,0.58317316,-4.1756644,0.598014,0.75610137,-0.26587468,0
3.9327981,-1.777163,-3.3732829,0.55766952,-0.63079381,-0.53954023,0
1.3702157,1.0465913,-1.198658,0.598014,0.75610137,-0.26587468,0
3.8807201,-2.9101009,-1.0831373,0.72399306,-0.65191042,-0.22549176,0
-0.90742564,3.4660611,-0.084655285,0.598014,0.75610137,-0.26587468,0
-4.1314464,2.5502846,-1.4746952,-0.79934514,0.53841883,-0.26674318,0
-0.26084328,-2.881269,-4.4003477,0.071086049,-0.38045618,-0.92206275,0
-0.36524856,-2.6468456,-0.62621558,-0.598014,-0.75610137,0.26587468,0
3.535913,-0.51866007,3.5386133,0.62795639,-0.23587115,0.74164349,0
0.99573016,0.3820529,-3.5691385,0.598014,0.75610137,-0.26587468,0
3.2434168,1.3765831,3.6137056,0.598014,0.75610137,-0.26587468,0
-2.3584843,-0.92976069,-4.5645733,-0.34931326,-0.052688211,-0.93552327,0
0.077410936,-2.3082242,0.62954354,-0.598014,-0.75610137,0.26587468,0
3.4669342,-2.5923798,2.2664256,0.76749527,-0.44464579,0.46177989,0
3.6264865,-0.632406,-1.2679949,0.598014,0.75610137,-0.26587468,0
2.2227545,0.70512676,4.6033697,0.33068311,0.069414079,0.94118541,0
0.17426896,-3.9122996,-3.1010332,-0.598014,-0.75610137,0.26587468,0
0.14337444,-1.2329937,3.8841298,-0.598014,-0.75610137,0.26587468,0
3.9207211,-2.3586478,-2.4670374,0.61913997,-0.64645743,-0.44582325,0
-3.6175339,0.37143755,0.56829083,-0.598014,-0.75610137,0.26587468,0
-2.907855,-1.6914568,-3.3274937,-0.598014,-0.75610137,0.26587468,0
-0.068674803,-3.5920167,-4.1037745,0.19133541,-0.45681369,-0.86874157,0
3.2167137,-0.37439442,-2.0462375,0.598014,0.75610137,-0.26587468,0
-0.034261942,-0.96919274,3.9368711,-0.598014,-0.75610137,0.26587468,0
-4.1097107,3.0798464,0.91771388,-0.74552596,0.64654082,0.16178906,0
-0.39097142,-3.7490094,-3.7678473,-0.598014,-0.75610137,0.26587468,0
-4.4659996,0.088652849,-2.2873802,-0.598014,-0.75610137,0.26587468,0
1.8563089,0.24269223,-2.172051,0.598014,0.75610137,-0.26587468,0
-0.85126936,-1.1775831,2.0630291,-0.598014,-0.75610137,0.26587468,0
1.0688314,-1.2296547,5.1425881,0.39081877,0.014526248,0.92035282,0
1.161407,-1.2594428,5.0514488,0.4304961,-0.023205429,0.9022938,0
2.8114614,-1.1718872,3.7346032,0.60260296,-0.20544557,0.77114284,0
-0.096383214,-2.3977261,1.1034447,-0.598014,-0.75610137,0.26587468,0
1.056747,-3.2912269,-3.5759742,0.34247383,-0.5409795,-0.76814896,0
-1.4641392,3.3884292,-0.73412871,0.598014,0.75610137,-0.26587468,0
-0.8757596,1.750021,-4.5563159,0.598014,0.75610137,-0.26587468,0
1.8894519,-0.78589165,-4.9029689,0.18215024,-0.45125926,-0.87360531,0
1.345582,-2.2048581,4.3622727,-0.598014,-0.75610137,0.26587468,0
3.8427711,-0.16259766,3.4199977,0.60484278,-0.20808384,0.76867801,0
-3.7613389,1.085495,2.165467,-0.598014,-0.75610137,0.26587468,0
3.3790965,0.50913668,1.9216474,0.598014,0.75610137,-0.26587468,0
1.8085172,-3.4378896,-3.016948,0.45543075,-0.59353733,-0.66354823,0
-2.6024904,-1.5117705,-2.2578273,-0.598014,-0.75610137,0.26587468,0
0.49003553,-0.0056173056,4.950242,0.25223702,0.13732597,0.95787144,0
0.62502688,-3.7599287,-1.3786857,-0.598014,-0.75610137,0.26587468,0
-2.3267326,4.4738245,-0.78465509,0.598014,0.75610137,-0.26587468,0
-1.0103726,3.359931,-0.65030527,0.598014,0.75610137,-0.26587468,0
4.3107357,-1.8757973,1.5486975,0.79393399,-0.51340693,0.32570189,0
-4.0842762,0.32936478,-0.054706335,-0.598014,-0.75610137,0.26587468,0
-1.5885391,3.2081902,-2.5739141,0.598014,0.75610137,-0.26587468,0
-2.0720053,-1.4205573,-1.46545,-0.598014,-0.75610137,0.26587468,0
2.3096538,1.7954566,4.345346,0.29052955,0.10466707,0.95112407,0
0.60620689,0.73112929,-4.3654814,0.598014,0.75610137,-0.26587468,0
4.7554455,-0.67847633,0.83206606,0.598014,0.75610137,-0.26587468,0
3.083894,-3.843158,0.57621527,0.7915166,-0.60929215,0.047583401,0
3.8649025,-0.90983021,3.0530651,0.66769516,-0.28647935,0.68710411,0
-0.41142535,-1.3331181,3.1657121,-0.598014,-0.75610137,0.26587468,0
2.9379787,1.7048898,4.1099272,0.36097878,0.042090535,0.93162352,0
-2.8626699,0.27192426,1.2393036,-0.598014,-0.75610137,0.26587468,0
-4.453372,2.2599034,-0.74803519,-0.80131817,0.55725896,-0.21760309,0
2.2856817,0.0080866814,-2.7219119,0.598014,0.75610137,-0.26587468,0
-3.8595529,0.90213394,1.3353977,-0.598014,-0.75610137,0.26587468,0
0.54463243,-1.8377472,3.2359941,-0.598014,-0.75610137,0.26587468,0
-2.2591043,-2.049155,-3.8806107,-0.598014,-0.75610137,0.26587468,0
2.6110349,0.95015907,0.74571401,0.598014,0.75610137,-0.26587468,0
0.88331807,-3.4148097,-0.1074338,-0.598014,-0.75610137,0.26587468,0
3.6633487,-2.7354953,-2.4369733,0.607265,-0.64393938,-0.46537215,0
-2.0088205,4.85005,1.6694198,-0.61488736,0.64558715,0.45291352,0
2.1662707,-3.5468874,2.0383019,-0.598014,-0.75610137,0.26587468,0
-0.55546045,-0.097164989,-4.994051,-0.22324139,-0.16146383,-0.96129733,0
1.6336999,-3.6302326,1.4894423,-0.598014,-0.75610137,0.26587468,0
0.95133543,-0.32500333,5.0079708,0.31061727,0.087163955,0.94653004,0
0.14067703,3.4377251,2.1296391,0.598014,0.75610137,-0.26587468,0
3.1227608,-1.7632219,-3.5976074,0.47232199,-0.60046446,-0.64525521,0
-3.852278,-0.13212729,-0.84693253,-0.598014,-0.75610137,0.26587468,0
1.9774508,-2.8679712,4.059763,-0.598014,-0.75610137,0.26587468,0
4.485796,-1.8959676,-2.2349927,0.68763018,-0.65443319,-0.31445444,0
0.76080036,0.80182385,-3.5180316,0.598014,0.75610137,-0.26587468,0
-0.14002806,2.9693708,0.83054686,0.598014,0.75610137,-0.26587468,0
-2.1426542,-2.4032295,-3.6926513,-0.598014,-0.75610137,0.26587468,0
-3.9070137,0.26986337,-0.3648169,-0.598014,-0.75610137,0.26587468,0
-4.4814157,0.91698837,-0.64448094,-0.598014,-0.75610137,0.26587468,0
2.6359782,1.2315638,1.3364229,0.598014,0.75610137,-0.26587468,0
-4.4815493,0.58109069,-0.21590996,-0.598014,-0.75610137,0.26587468,0
-1.3726863,-2.037627,-2.049319,-0.598014,-0.75610137,0.26587468,0
2.0824237,0.76482582,-1.2189019,0.598014,0.75610137,-0.26587468,0
-1.6094038,3.6931901,-1.3679554,0.598014,0.75610137,-0.26587468,0
1.4772654,-0.37473011,-5.1397042,0.598014,0.75610137,-0.26587468,0
-2.8726227,-1.5884752,-2.709878,-0.598014,-0.75610137,0.26587468,0
-1.2374859,2.1992414,-4.2257862,0.598014,0.75610137,-0.26587468,0
4.1679602,0.44313455,3.1009305,0.598014,0.75610137,-0.26587468,0
2.585366,0.051718235,-1.9192424,0.598014,0.75610137,-0.26587468,0
-0.45198607,-1.478495,-4.4876919,-0.061159134,-0.28771114,-0.95576239,0
2.6004434,-3.9145563,1.8832889,-0.598014,-0.75610137,0.26587468,0
1.6145444,-2.3966887,4.0325618,-0.598014,-0.75610137,0.26587468,0
-4.0076132,-0.63281393,-3.0832505,-0.598014,-0.75610137,0.26587468,0
-4.3863263,1.3646792,1.3599575,-0.598014,-0.75610137,0.26587468,0
-1.0636568,3.5422735,3.5172327,-0.32589146,0.53245604,0.78120744,0
2.8617091,-4.2570014,1.2944393,-0.598014,-0.75610137,0.26587468,0
-1.2270628,4.1761389,2.0633578,0.598014,0.75610137,-0.26587468,0
-4.2090569,2.8199158,1.0275133,-0.75153708,0.64426881,0.14180732,0
-3.6730342,0.90785182,-3.1005721,-0.67645258,0.29822299,-0.67340499,0
-2.5380921,4.1602201,-2.0390122,0.598014,0.75610137,-0.26587468,0
-0.72962427,1.5053146,-4.9829168,0.598014,0.75610137,-0.26587468,0
-1.9089175,-1.5602422,-0.45990011,-0.598014,-0.75610137,0.26587468,0
0.2125392,-3.1196284,-4.2524867,0.18720093,-0.45431942,-0.87094754,0
3.0308282,0.22481203,-0.37364471,0.598014,0.75610137,-0.26587468,0
-2.976192,-1.6599114,-3.855983,-0.598014,-0.75610137,0.26587468,0
-3.0443163,1.1042264,-3.7843421,-0.621773,0.22833237,-0.74917442,0
2.9591551,-1.5006232,-4.0074253,0.39271855,-0.56560409,-0.72516489,0
-2.9675469,-1.1498146,-2.8547831,-0.598014,-0.75610137,0.26587468,0
1.5641153,-2.9253638,2.3425562,-0.598014,-0.75610137,0.26587468,0
-3.9979789,0.059937716,-0.77149713,-0.598014,-0.75610137,0.26587468,0
-0.55666041,-1.0513914,2.7273061,-0.598014,-0.75610137,0.26587468,0
-2.9084089,4.4184389,0.752491,-0.73119521,0.65052533,0.20535344,0
-2.7531307,2.2590518,3.4219937,-0.46444678,0.5972687,0.65388006,0
3.2093101,-3.492856,-1.038424,0.71834046,-0.65275711,-0.24061364,0
0.23690057,3.2645462,3.9607763,-0.1565083,0.43550467,0.88647664,0
3.6854541,-3.3182945,0.17357349,0.78754085,-0.61594677,0.019716442,0
-0.64752626,2.5665922,-1.0644575,0.598014,0.75610137,-0.26587468,0
-2.9283028,3.6298904,1.7797141,-0.66111273,0.65288377,0.36969244,0
2.3742633,0.74651814,-0.58058941,0.598014,0.75610137,-0.26587468,0
-1.805881,0.072454572,-4.8508959,-0.37343645,-0.030663997,-0.9271487,0
2.171102,-0.8957113,4.270771,0.52959383,-0.12378006,0.83917111,0
-1.6943119,3.4086633,-1.4194179,0.598014,0.75610137,-0.26587468,0
-4.6081223,2.4305227,0.98447657,-0.75060791,0.64464724,0.1449734,0
2.5772629,-0.4454453,-2.2911253,0.598014,0.75610137,-0.26587468,0
-1.6031508,2.1830606,4.2237759,-0.25151467,0.49200711,0.83346826,0
3.1954613,-0.087152958,3.9676902,0.56025994,-0.15714057,0.81327444,0
2.5372589,-4.3956633,-1.0526142,0.68499851,-0.65438676,-0.32024163,0
-4.3721805,1.5518951,2.5501571,-0.598014,-0.75610137,0.26587468,0
3.2660828,1.4171448,3.5854244,0.598014,0.75610137,-0.26587468,0
-0.61153889,0.69391906,-5.0921111,-0.28982121,-0.10527965,-0.95127267,0
3.3708739,-2.0985589,2.8775868,0.72520387,-0.36921415,0.58117104,0
-1.0561211,3.5522904,0.4643054,0.598014,0.75610137,-0.26587468,0
-1.6495296,4.4168773,1.5354841,0.598014,0.75610137,-0.26587468,0
1.3025486,0.88978446,-1.3574067,0.598014,0.75610137,-0.26587468,0
-1.8190393,0.25185275,4.1505661,-0.598014,-0.75610137,0.26587468,0
1.3585706,1.0457697,-2.2007787,0.598014,0.75610137,-0.26587468,0
3.6760898,-1.1231753,-2.2355106,0.598014,0.75610137,-0.26587468,0
0.58765078,-1.6647429,3.6874104,-0.598014,-0.75610137,0.26587468,0
0.79294038,0.36215639,-4.2025685,0.598014,0.75610137,-0.26587468,0
3.1144824,0.16369176,-0.62943274,0.598014,0.75610137,-0.26587468,0
-2.0693452,4.4487071,1.676955,-0.61246502,0.6450755,0.45690715,0
-0.48811564,-2.2658701,-0.33591259,-0.598014,-0.75610137,0.26587468,0
3.0080647,-0.31165981,-1.7810299,0.598014,0.75610137,-0.26587468,0
0.23199153,-2.2525196,1.3072425,-0.598014,-0.75610137,0.26587468,0
0.69557869,-3.8188546,-3.7232146,0.30145696,-0.51955879,-0.79948878,0
-2.8063188,-0.86847615,-1.6130676,-0.598014,-0.75610137,0.26587468,0
-1.1820087,-0.38148499,3.7850523,-0.598014,-0.75610137,0.26587468,0
-3.9758296,2.3982062,2.4361956,-0.63635176,0.64959484,0.41603237,0
2.8638904,-3.333194,-2.2270532,0.61685121,-0.64599347,-0.44965202,0
2.0651953,0.92120481,-0.92832375,0.598014,0.75610137,-0.26587468,0
-5.0300174,1.7683554,0.90427423,-0.76551962,0.63709342,0.089951813,0
4.0590162,-0.6678853,0.37492418,0.598014,0.75610137,-0.26587468,0
1.3011348,0.61966193,-2.4595029,0.598014,0.75610137,-0.26587468,0
3.649339,-0.58088231,-1.2856675,0.598014,0.75610137,-0.26587468,0
0.2608273,-3.4628692,-3.7103674,0.25832766,-0.49585664,-0.82909167,0
-3.3748543,3.9026542,0.16456032,-0.77658045,0.62867391,0.041129649,0
0.29945564,0.98067558,-4.712851,0.598014,0.75610137,-0.26587468,0
1.5160069,-2.530581,3.9076395,-0.598014,-0.75610137,0.26587468,0
1.3800433,-4.5441923,-2.6511614,-0.598014,-0.75610137,0.26587468,0
-1.3588915,3.7873459,-0.34461045,0.598014,0.75610137,-0.26587468,0
-4.505445,2.10077,1.4718146,-0.73866475,0.64867467,0.18328941,0
-4.0010738,1.5709788,3.1312337,-0.598014,-0.75610137,0.26587468,0
-1.2479852,-1.5759757,0.75091326,-0.598014,-0.75610137,0.26587468,0
3.7593122,-0.88881791,-1.2049263,0.598014,0.75610137,-0.26587468,0
1.4583036,-4.4144402,-1.3149941,-0.598014,-0.75610137,0.26587468,0
1.2018766,-1.8117079,4.7484641,0.50000715,-0.092686921,0.86104685,0
2.2903574,0.59706855,-0.78582275,0.598014,0.75610137,-0.26587468,0
2.1434698,-1.3198247,4.5136318,0.51710594,-0.11053351,0.84875387,0
-0.90195823,-2.9158533,-2.5559235,-0.598014,-0.75610137,0.26587468,0
-4.2951746,0.11301661,-2.221014,-0.598014,-0.75610137,0.26587468,0
1.5076001,-0.36369276,-5.0075736,0.598014,0.75610137,-0.26587468,0
1.2930312,-3.0027866,2.2000027,-0.598014,-0.75610137,0.26587468,0
0.66074324,-2.0655649,2.9353814,-0.598014,-0.75610137,0.26587468,0
-3.6158566,2.0977581,-2.4353843,-0.76259714,0.43470278,-0.4790391,0
-2.3449004,-0.27036357,0.93476808,-0.598014,-0.75610137,0.26587468,0
-0.6414907,1.8379693,-3.2129624,0.598014,0.75610137,-0.26587468,0
3.368896,-4.0967255,1.0681477,0.79885525,-0.58915257,0.12136334,0
-0.10986471,1.8746567,-2.8238585,0.598014,0.75610137,-0.26587468,0
-0.29959992,-2.7925982,-0.90686905,-0.598014,-0.75610137,0.26587468,0
-1.0002751,0.39666718,5.1271772,-0.023085892,0.34783939,0.93726975,0
-3.3733981,3.798913,0.89212418,-0.7281357,0.65115827,0.21403503,0
1.0302663,-4.5252132,-2.5559585,0.48253012,-0.60451627,-0.63381743,0
-2.0978613,-0.47002506,1.1907721,-0.598014,-0.75610137,0.26587468,0
-2.3232708,2.2094636,-3.9663684,-0.62353754,0.2304756,-0.74704844,0
-1.9281133,1.1603723,4.8277683,-0.2122409,0.46927753,0.85716522,0
1.4740657,2.0633893,1.281498,0.598014,0.75610137,-0.26587468,0
1.2759414,2.1273327,4.4297233,0.08989501,0.26635858,0.95967275,0
0.98477191,-4.4199915,-3.0691204,0.40092933,-0.56944686,-0.71762514,0
-4.2210631,1.8255858,2.5130157,-0.61988437,0.64660597,0.4445715,0
-0.37398577,1.0661066,-4.6907101,0.598014,0.75610137,-0.26587468,0
2.5322008,-2.0004296,4.1908255,0.62131119,-0.22777268,0.74972761,0
-3.1713698,-0.14920926,-0.53407979,-0.598014,-0.75610137,0.26587468,0
-0.87320042,-1.1968473,-4.8681593,-0.14988261,-0.22037539,-0.96383071,0
1.8155601,-0.30474162,-3.8201547,0.598014,0.75610137,-0.26587468,0
-3.3223553,2.4480567,-2.9403012,-0.73238492,0.38076571,-0.56447268,0
2.5599103,-0.44026601,-2.3759787,0.598014,0.75610137,-0.26587468,0
-4.2860494,2.2515624,-1.3907537,-0.79780054,0.52978474,-0.28782296,0
2.8827467,-4.0861177,1.1275423,0.79871732,-0.58974916,0.11935651,0
1.5076033,-0.12353122,-3.7565961,0.598014,0.75610137,-0.26587468,0
4.2325621,-1.1389698,-1.1905434,0.598014,0.75610137,-0.26587468,0
1.2670465,0.74254692,-3.1120703,0.598014,0.75610137,-0.26587468,0
1.9367013,-3.7169096,1.6930015,-0.598014,-0.75610137,0.26587468,0
-3.9191751,1.7594721,-2.6463284,-0.75230408,0.41511938,-0.51157957,0
-0.35030463,-2.6859496,-1.0875493,-0.598014,-0.75610137,0.26587468,0
-3.1795177,3.4790273,-1.5483546,-0.80015534,0.5441125,-0.25237364,0
-0.35565662,3.548934,4.085506,-0.22899765,0.47908643,0.84737021,0
2.155179,-4.1127186,0.48660517,-0.598014,-0.75610137,0.26587468,0
-2.0906472,3.7970026,-1.1492038,0.598014,0.75610137,-0.26587468,0
-3.7646532,-0.58612466,-3.4879606,-0.56320846,0.16041519,-0.81059408,0
-3.7370663,-0.092126369,-0.60252357,-0.598014,-0.75610137,0.26587468,0
3.1395903,-0.80274761,-2.1585717,0.598014,0.75610137,-0.26587468,0
1.1824543,2.527983,1.8808496,0.598014,0.75610137,-0.26587468,0
-2.0647907,-0.7395103,1.297858,-0.598014,-0.75610137,0.26587468,0
0.44682693,1.0445691,-3.9732318,0.598014,0.75610137,-0.26587468,0
-0.66387546,-2.9491494,-2.4025545,-0.598014,-0.75610137,0.26587468,0
-1.3991995,3.0916815,-1.1791778,0.598014,0.75610137,-0.26587468,0
1.7614934,2.0117426,1.9651963,0.598014,0.75610137,-0.26587468,0
4.5024948,-1.0556159,-0.51747441,0.598014,0.75610137,-0.26587468,0
0.92513657,-1.8635465,4.8007441,-0.598014,-0.75610137,0.26587468,0
1.4795344,-1.7792528,-4.6234937,0.21066102,-0.46834433,-0.85806495,0
-4.441226,-0.29073548,-2.9856832,-0.65584785,0.2709614,-0.7045871,0
3.4225597,-0.18811655,3.931596,0.58919239,-0.18983401,0.78537565,0
-1.2708144,-0.38161027,-4.8253536,-0.26623815,-0.12548998,-0.9557035,0
-0.88993067,3.8162241,2.0697682,0.598014,0.75610137,-0.26587468,0
-4.0135746,2.638751,-0.90818787,-0.80128205,0.57147908,-0.17708236,0
-4.1711254,0.75465941,1.0052657,-0.598014,-0.75610137,0.26587468,0
-1.9242094,-2.526006,-4.2536793,-0.598014,-0.75610137,0.26587468,0
-0.4252038,-1.9952381,1.225467,-0.598014,-0.75610137,0.26587468,0
-3.8861635,3.1219974,0.37906981,-0.77714747,0.62814802,0.038358748,0
-3.7280219,-0.53443098,-2.7688222,-0.598014,-0.75610137,0.26587468,0
3.5110862,-0.5907042,-0.96765518,0.598014,0.75610137,-0.26587468,0
-3.3305168,1.5348558,3.7614589,-0.45822528,0.59470201,0.66057479,0
-2.095489,-1.7374537,-1.4233932,-0.598014,-0.75610137,0.26587468,0
-1.3623364,0.11302245,4.870492,-0.598014,-0.75610137,0.26587468,0
0.13054466,-1.0318844,4.6839747,-0.598014,-0.75610137,0.26587468,0
2.3600574,1.0110919,0.249292,0.598014,0.75610137,-0.26587468,0
-3.5172806,-1.1656287,-3.7868652,-0.598014,-0.75610137,0.26587468,0
-2.0848446,3.756011,2.7012591,-0.53283381,0.62285757,0.57283211,0
1.7420168,-4.1904211,-2.4932525,0.5287407,-0.62147379,-0.5781033,0
3.1620431,-0.4854486,-1.8886753,0.598014,0.75610137,-0.26587468,0
2.1738825,1.0896599,4.3065567,0.33716059,0.063626021,0.93929446,0
1.7152112,1.7213476,0.82762623,0.598014,0.75610137,-0.26587468,0
1.1410232,-1.6227992,4.8143477,-0.598014,-0.75610137,0.26587468,0
2.6571991,-3.2919636,-2.847156,0.5568229,-0.63053685,-0.54071385,0
-2.4209678,4.6962962,0.84012938,-0.69210601,0.65445113,0.30443853,0
-3.5727654,-0.88505173,-3.752568,-0.598014,-0.75610137,0.26587468,0
-4.6041074,1.2956011,1.3128893,-0.598014,-0.75610137,0.26587468,0
-3.2480373,-1.4758031,-3.37988,-0.598014,-0.75610137,0.26587468,0
0.8885138,0.82390523,-3.8955231,0.598014,0.75610137,-0.26587468,0
-1.5130038,-2.2907062,-2.6140563,-0.598014,-0.75610137,0.26587468,0
-2.1509862,1.3047783,4.7427506,-0.25485978,0.49390066,0.83132946,0
3.2785692,-1.2914872,-3.5677528,0.598014,0.75610137,-0.26587468,0
1.2903839,-3.6361127,-0.61880803,-0.598014,-0.75610137,0.26587468,0
-0.54567099,-1.7364129,1.2597955,-0.598014,-0.75610137,0.26587468,0
2.9427581,-4.2865596,1.0954971,0.7990461,-0.58829623,0.12422782,0
0.061959743,-3.4309468,-4.1399837,0.18509477,-0.45304507,-0.87206084,0
1.7507838,0.65281558,-1.8730127,0.598014,0.75610137,-0.26587468,0
-1.6989859,-0.25625217,2.8810048,-0.598014,-0.75610137,0.26587468,0
-1.8705397,-2.4891329,-3.1080592,-0.598014,-0.75610137,0.26587468,0
0.71240139,-1.6142541,4.7127709,-0.598014,-0.75610137,0.26587468,0
-1.3627994,-0.97371304,1.3607268,-0.598014,-0.75610137,0.26587468,0
3.9546323,-0.71847987,-0.92248857,0.598014,0.75610137,-0.26587468,0
2.5728204,-4.3277612,-0.59751415,0.73035145,-0.65070677,-0.20776701,0
-0.91342211,-0.83691323,2.9639099,-0.598014,-0.75610137,0.26587468,0
4.7482719,-0.87683129,0.58910489,0.598014,0.75610137,-0.26587468,0
-1.7808828,3.1343949,-2.3074548,0.598014,0.75610137,-0.26587468,0
-5.1909971,1.2232206,0.031217575,-0.598014,-0.75610137,0.26587468,0
-1.5208936,3.4676948,-1.6716442,0.598014,0.75610137,-0.26587468,0
0.61737168,-3.8923845,-1.7306023,-0.598014,-0.75610137,0.26587468,0
-2.026401,-1.0168154,-4.6276903,-0.32606637,-0.073522031,-0.94248343,0
1.5584681,1.3121271,-0.22416069,0.598014,0.75610137,-0.26587468,0
-0.016453981,1.5278395,-3.668565,0.598014,0.75610137,-0.26587468,0
-3.8939219,2.9546413,-0.67352414,-0.80081022,0.57728761,-0.1595028,0
-0.15702003,-2.5943127,-0.078333497,-0.598014,-0.75610137,0.26587468,0
2.2833362,-2.8865223,-3.37064,0.45898366,-0.5950169,-0.65976417,0
-2.7293906,1.4024446,-3.8741212,-0.59036338,0.19118521,-0.78416747,0
-3.2879963,0.81924582,-3.8238628,-0.62002003,0.22620979,-0.75126809,0
-1.9037752,1.5708139,-4.6746778,-0.5405333,0.13554005,-0.8303327,0
1.7668797,-2.8695223,-3.7732005,0.35906079,-0.54931295,-0.75453997,0
-0.75335455,0.10955954,5.3461385,0.080186307,0.27362114,0.95848912,0
-3.4428425,-0.99092865,-3.6742189,-0.598014,-0.75610137,0.26587468,0
4.1940088,0.22401953,2.3027306,0.598014,0.75610137,-0.26587468,0
2.0183458,-3.7683411,0.90547895,-0.598014,-0.75610137,0.26587468,0
-1.5228933,4.5764809,1.5485842,0.598014,0.75610137,-0.26587468,0
-0.59505558,-0.53345299,4.9062052,-0.598014,-0.75610137,0.26587468,0
2.8054962,-1.6380746,4.0716519,0.614465,-0.21952394,0.75778711,0
0.49010646,-3.265703,-0.90573525,-0.598014,-0.75610137,0.26587468,0
-1.9656656,-0.10054386,2.6543663,-0.598014,-0.75610137,0.26587468,0
-2.8090448,2.817059,3.0627987,-0.49451289,0.60913736,0.6200068,0
0.032822609,-1.1768782,4.3881669,-0.598014,-0.75610137,0.26587468,0
0.11285949,2.5814834,0.079236746,0.598014,0.75610137,-0.26587468,0
2.2516031,-3.6504822,-2.8903575,0.4941951,-0.60901678,-0.62037867,0
-3.1564314,-0.10083485,0.48836017,-0.598014,-0.75610137,0.26587468,0
-4.3825617,0.52624059,-0.3803854,-0.598014,-0.75610137,0.26587468,0
3.9740605,-2.487859,1.3143694,0.79794788,-0.53052932,0.28603703,0
-0.38823497,-3.6316874,-3.3112035,-0.598014,-0.75610137,0.26587468,0
1.9499332,-3.7158895,-3.0571539,0.46412712,-0.59713775,-0.65422666,0
-0.62631106,-2.7815363,-2.11692,-0.598014,-0.75610137,0.26587468,0
3.0788081,-0.54963994,-1.4098617,0.598014,0.75610137,-0.26587468,0
2.3520143,1.0784304,0.25166017,0.598014,0.75610137,-0.26587468,0
1.2436503,1.9099131,0.93687046,0.598014,0.75610137,-0.26587468,0
-2.3457971,-1.0754726,-1.1481607,-0.598014,-0.75610137,0.26587468,0
-3.4011703,-0.74824238,-4.1432223,-0.49651337,0.089080125,-0.86344588,0
-4.9155035,1.5765911,1.5290534,-0.598014,-0.75610137,0.26587468,0
-4.7286043,0.96408033,-0.92884111,-0.598014,-0.75610137,0.26587468,0
-4.1539187,2.1790893,-1.9837162,-0.78011882,0.47302663,-0.40946293,0
4.9190664,-1.4344075,-0.11217594,0.598014,0.75610137,-0.26587468,0
2.6175649,1.6360412,2.5800169,0.598014,0.75610137,-0.26587468,0
-4.046742,-0.28065944,-3.1769371,-0.63023973,0.23867573,-0.7388038,0
-0.44611096,-1.4755901,-4.7560787,-0.048063934,-0.29729885,-0.95357382,0
-3.2909899,-1.4968674,-3.9665465,-0.598014,-0.75610137,0.26587468,0
1.3122828,1.2833018,-0.22899944,0.598014,0.75610137,-0.26587468,0
0.69880795,-1.0118235,-5.0869083,0.039829075,-0.35935247,-0.93235153,0
1.1257563,-2.6910329,2.9264154,-0.598014,-0.75610137,0.26587468,0
-1.386938,3.9293451,1.0043869,0.598014,0.75610137,-0.26587468,0
1.4397099,2.8530278,3.8808885,0.598014,0.75610137,-0.26587468,0
1.2485695,2.5484538,1.8319515,0.598014,0.75610137,-0.26587468,0
1.5591785,0.48194873,-3.0520966,0.598014,0.75610137,-0.26587468,0
-2.5699239,4.2358818,-1.7456219,0.598014,0.75610137,-0.26587468,0
-4.8546028,1.9619718,-0.55884528,-0.80043566,0.58038515,-0.1498512,0
-2.0711665,3.0871348,-2.9934764,0.598014,0.75610137,-0.26587468,0
0.029107191,-2.9860241,-1.5331825,-0.598014,-0.75610137,0.26587468,0
2.130254,0.20494938,-1.6634731,0.598014,0.75610137,-0.26587468,0
1.3072666,0.98512161,-2.0773535,0.598014,0.75610137,-0.26587468,0
2.1375172,-4.6512041,-1.2707589,-0.598014,-0.75610137,0.26587468,0
-2.5483067,0.59151435,3.1434598,-0.598014,-0.75610137,0.26587468,0
-1.222147,1.9050401,-4.9496017,-0.46195388,0.054078132,-0.88525337,0
4.1358604,0.5012219,2.6179996,0.598014,0.75610137,-0.26587468,0
2.8459058,0.36323977,-0.42674047,0.598014,0.75610137,-0.26587468,0
1.3970349,0.73752165,-2.8037667,0.598014,0.75610137,-0.26587468,0
-3.6841178,0.66882062,-3.23228,-0.66055918,0.27708435,-0.69777167,0
-1.3508614,4.672533,2.2363679,0.598014,0.75610137,-0.26587468,0
1.3318983,-2.5422525,-3.9545829,0.30639577,-0.52219743,-0.79588395,0
2.9023757,-2.9937618,-2.5814166,0.58778226,-0.63924921,-0.49585503,0
-2.4691935,-0.14093637,-4.5713959,-0.45340598,0.045600295,-0.8901366,0
-1.2584467,3.318223,3.6279812,-0.32651055,0.53277767,0.78072953,0
-3.0460253,1.5242101,-3.5718997,-0.6393708,0.25000656,-0.72711837,0
2.9392042,-2.1441326,3.4913478,0.68536192,-0.31043416,0.65871775,0
3.0510907,0.10189104,-0.048568726,0.598014,0.75610137,-0.26587468,0
-0.25994492,-0.94166088,4.1714072,-0.598014,-0.75610137,0.26587468,0
-2.7560825,2.6353781,-3.5771241,-0.69670004,0.32640475,-0.63880229,0
-4.1596518,2.5497048,-1.6570513,-0.79116833,0.50383472,-0.34670275,0
1.162426,-0.53765893,-5.2175102,0.021918237,-0.34703112,-0.93759739,0
-1.4584638,0.020129204,4.1312399,-0.598014,-0.75610137,0.26587468,0
-2.5679815,-1.6927531,-2.6067371,-0.598014,-0.75610137,0.26587468,0
4.4060683,-0.57603383,0.58625221,0.598014,0.75610137,-0.26587468,0
-3.0117702,3.4187367,1.642771,-0.6485846,0.65141535,0.39369506,0
1.8909049,1.8839307,2.6680179,0.598014,0.75610137,-0.26587468,0
-2.931536,1.3826902,4.3699417,-0.37123498,0.55530322,0.74419278,0
-1.9663661,0.086895704,3.7863631,-0.598014,-0.75610137,0.26587468,0
3.4714818,-0.95105886,3.5188699,0.62572241,-0.23313831,0.74439055,0
2.0522575,-3.5588982,1.7445936,-0.598014,-0.75610137,0.26587468,0
-4.4083376,2.4499464,-0.17628121,-0.79028028,0.61153996,-0.038410664,0
-1.8882785,1.4719622,-4.7433281,-0.50568926,0.098581299,-0.8570646,0
-4.3544378,2.1304085,-0.49349976,-0.80080241,0.57736182,-0.15927398,0
2.9992361,0.26774573,0.27544236,0.598014,0.75610137,-0.26587468,0
0.84407234,-1.7314385,4.2491021,-0.598014,-0.75610137,0.26587468,0
1.4616146,0.0023672581,-4.1539288,0.598014,0.75610137,-0.26587468,0
0.23900723,0.99693453,-4.0345674,0.598014,0.75610137,-0.26587468,0
0.90588498,3.2230942,3.6643884,0.598014,0.75610137,-0.26587468,0
1.3777976,2.9682617,3.443511,0.598014,0.75610137,-0.26587468,0
-2.4030075,2.508775,3.4162512,-0.42654443,0.58108532,0.69310856,0
1.0455709,1.1661808,-1.9715333,0.598014,0.75610137,-0.26587468,0
3.2062292,0.7103343,1.7218535,0.598014,0.75610137,-0.26587468,0
-2.3483958,-1.3313422,-1.876943,-0.598014,-0.75610137,0.26587468,0
0.58043957,-0.51699215,5.3402176,0.27345228,0.11934441,0.95445299,0
-1.5903502,-1.8283615,-1.4389842,-0.598014,-0.75610137,0.26587468,0
2.3340993,-0.78053474,-4.6709547,0.598014,0.75610137,-0.26587468,0
0.3091417,3.1433408,1.6157943,0.598014,0.75610137,-0.26587468,0
-1.9935369,1.5904005,-4.6252594,-0.51251149,0.10570586,-0.85214877,0
-1.3385096,-1.425617,1.1043065,-0.598014,-0.75610137,0.26587468,0
-0.23187834,-2.4150596,0.11766148,-0.598014,-0.75610137,0.26587468,0
1.7016186,-4.2854362,-2.3615563,0.56088191,-0.63175976,-0.5350616,0
-1.2854805,4.1350899,1.2216656,0.598014,0.75610137,-0.26587468,0
-3.3518143,-0.31677747,-1.1502168,-0.598014,-0.75610137,0.26587468,0
2.0341763,2.0470901,2.4998069,0.598014,0.75610137,-0.26587468,0
1.4226135,0.88552213,-1.8156565,0.598014,0.75610137,-0.26587468,0
0.65073109,0.37851262,-5.2266579,0.598014,0.75610137,-0.26587468,0
3.9277337,-0.318187,1.0894483,0.598014,0.75610137,-0.26587468,0
1.008301,2.3702068,0.87539774,0.598014,0.75610137,-0.26587468,0
2.4203975,1.280473,2.0096285,0.598014,0.75610137,-0.26587468,0
-1.7272733,-1.8503358,-1.9854848,-0.598014,-0.75610137,0.26587468,0
-4.9672952,1.1422353,-0.91170692,-0.598014,-0.75610137,0.26587468,0
-3.4300628,0.51293063,-3.8102217,-0.61460972,0.21969719,-0.75761968,0
4.3637781,-0.79738069,2.6217895,0.72870469,-0.37479946,0.57316172,0
2.7749176,0.050839901,-1.8823681,0.598014,0.75610137,-0.26587468,0
-4.699729,0.82222557,-2.0689716,-0.74204087,0.39693832,-0.5401988,0
2.3717682,-4.5171809,-0.64418793,-0.598014,-0.75610137,0.26587468,0
4.8755569,-1.0425847,1.8429074,0.77801359,-0.46793789,0.41919959,0
3.0427084,-1.6739165,-4.0748529,0.37305981,-0.55619168,-0.74261498,0
0.48575163,-1.5739169,3.7349343,-0.598014,-0.75610137,0.26587468,0
-4.4375234,1.9401791,-1.5287404,-0.79394937,0.51346374,-0.32557476,0
-2.7149489,-0.42830539,-0.30414712,-0.598014,-0.75610137,0.26587468,0
