-4.8014889,-0.41868412,-2.230062,-0.37683421,-0.68839979,-0.61975944,0
3.4757056,4.5617356,-1.6009564,0.44318143,0.45353687,-0.77323639,0
-2.6969371,3.44454,-2.0199456,-0.58757758,0.6948899,-0.41458473,0
-2.589395,-2.1174664,-2.0066152,-0.37683421,-0.68839979,-0.61975944,0
-4.4517202,1.9202819,-2.128247,-0.75054264,0.61904031,-0.23124632,0
-4.6585269,-0.46998477,-2.3808837,-0.37683421,-0.68839979,-0.61975944,0
3.1973376,-4.1980724,-0.38364929,0.80019528,-0.57895279,0.15652853,0
-3.108258,-1.9992449,3.4227147,-0.58072013,-0.34568381,0.73706639,0
-0.00079339743,-5.0072231,-0.2105819,-0.37683421,-0.68839979,-0.61975944,0
4.53859,0.28029108,-1.8773594,0.88245499,-0.063436046,-0.46609989,0
2.1622488,-2.6919887,3.8854771,0.3129701,-0.72436053,0.61428964,0
0.98306692,0.1646158,-5.8811927,0.42494798,0.4660368,-0.77603424,0
3.1530497,-2.8170083,2.683846,0.56474888,-0.7010901,0.43535206,0
1.5647585,5.4316397,-1.4577777,0.058438987,0.65008205,-0.75761348,0
3.6530581,0.65881634,-3.3876066,0.75395036,0.16073537,-0.63696396,0
3.4480364,0.57280529,-3.423593,0.73238689,0.18820247,-0.65436184,0
-0.21570492,-2.6306157,-2.5979719,-0.37683421,-0.68839979,-0.61975944,0
2.316473,-4.0727715,1.9711094,0.52497631,-0.70997304,0.4694019,0
1.263971,5.3164124,-1.9522774,-0.0069197714,0.67115736,-0.7412827,0
-2.6156116,-1.033803,-3.2126067,-0.37683421,-0.68839979,-0.61975944,0
5.2898588,-0.6741327,1.5216893,0.87763911,-0.47932047,-0.001226753,0
-0.5228619,2.3393898,3.2561388,0.37683421,0.68839979,0.61975944,0
-4.5871253,2.1837637,-0.94272149,-0.84081048,0.53493762,-0.082943149,0
0.08950907,-1.8934112,-3.3818166,-0.37683421,-0.68839979,-0.61975944,0
5.547236,-0.10068059,2.2786818,0.37683421,0.68839979,0.61975944,0
2.6457253,-5.3681221,-0.973593,0.77496457,-0.60079986,0.19613631,0
-2.0841801,3.5281196,2.7693195,0.37683421,0.68839979,0.61975944,0
2.0363069,4.4447389,-0.68825865,0.37683421,0.68839979,0.61975944,0
-0.42512119,-0.047219694,-5.1487694,-0.37683421,-0.68839979,-0.61975944,0
5.7165775,0.45196223,0.97945344,0.92241645,-0.33994234,-0.18326765,0
4.9626269,2.1979167,-1.1287848,0.7949546,0.10307413,-0.59784853,0
-2.5573015,1.1035204,-5.029325,-0.37683421,-0.68839979,-0.61975944,0
-0.57547474,0.045859933,-5.5895243,-0.37683421,-0.68839979,-0.61975944,0
2.3963318,-0.83891904,-5.0066085,0.70294803,0.22318332,-0.67531711,0
-2.9892311,1.3810921,4.9302459,-0.79543179,-0.10235287,0.59733754,0
4.0299387,-0.87590945,-2.9975343,0.87557131,-0.046382159,-0.48085707,0
1.0178696,-3.5611,-2.2708652,-0.37683421,-0.68839979,-0.61975944,0
-1.656502,2.8114226,3.8270843,0.37683421,0.68839979,0.61975944,0
1.5535291,3.0723433,1.5469341,0.37683421,0.68839979,0.61975944,0
-2.9965184,-5.1127367,1.7019813,-0.37683421,-0.68839979,-0.61975944,0
-3.0719883,-4.8174696,1.630029,-0.37683421,-0.68839979,-0.61975944,0
2.5848188,1.415656,2.2073162,0.37683421,0.68839979,0.61975944,0
-1.9531617,3.1297574,3.6387491,0.37683421,0.68839979,0.61975944,0
2.6619802,-1.7778792,-5.01686,0.77425987,0.13317285,-0.6186977,0
4.1871252,-2.0640199,2.9200191,0.65164644,-0.67253244,0.35079503,0
-2.9708831,0.51038569,-4.3347855,-0.37683421,-0.68839979,-0.61975944,0
2.0142939,-2.6433578,-4.154181,-0.37683421,-0.68839979,-0.61975944,0
2.7028131,4.2674184,-2.353611,0.36495703,0.50461751,-0.78241134,0
4.0312953,0.096318364,3.3793952,0.37683421,0.68839979,0.61975944,0
4.0193901,1.6001483,-2.7107828,0.73631871,0.18331929,-0.65132844,0
-2.7447762,4.7445493,0.36742508,-0.76548374,0.60818613,-0.21010524,0
3.8245821,1.0664834,1.8615736,0.37683421,0.68839979,0.61975944,0
-1.3568735,2.2064414,-4.7509384,-0.14381698,0.70445263,-0.69502753,0
4.5190849,3.6857285,-1.5785379,0.63243699,0.29763931,-0.7151463,0
-0.70175749,5.0033875,0.43464512,0.37683421,0.68839979,0.61975944,0
4.1300554,0.31076527,2.6134219,0.37683421,0.68839979,0.61975944,0
-1.5991144,4.7408724,1.0913272,0.37683421,0.68839979,0.61975944,0
2.4396117,-1.9807148,-4.8772397,-0.37683421,-0.68839979,-0.61975944,0
0.70788908,0.28338486,-6.0807972,0.40148064,0.48158234,-0.77903259,0
-2.7694097,1.7301037,4.8734717,-0.79604626,-0.10142215,0.5966773,0
-4.7185721,1.2847892,-1.2082272,-0.86594456,0.4993484,-0.028130002,0
-0.78103888,-1.7941692,-2.8897395,-0.37683421,-0.68839979,-0.61975944,0
-4.0581636,0.72649139,2.686816,-0.87666267,0.049009085,0.47860289,0
2.743845,-3.6678967,-3.2083275,-0.37683421,-0.68839979,-0.61975944,0
-0.39894426,2.0232453,3.7376149,0.37683421,0.68839979,0.61975944,0
3.4576659,-1.000555,4.7109313,0.37683421,0.68839979,0.61975944,0
-1.8098614,-4.4511428,0.36495304,-0.37683421,-0.68839979,-0.61975944,0
1.2906232,-5.4009156,-0.72950655,-0.37683421,-0.68839979,-0.61975944,0
3.2774301,1.1876917,-3.4667368,0.65113455,0.27900609,-0.70581818,0
3.0858126,4.4584832,-2.3363225,0.39017832,0.48885852,-0.78024244,0
-2.1386845,-3.6897855,3.1286039,-0.31690571,-0.53289157,0.78460026,0
-3.4340186,-0.52268201,3.7413321,-0.7420032,-0.17616351,0.64683664,0
3.9745693,-2.9590299,-0.79478848,0.89471817,-0.44368795,-0.051190358,0
-2.2052901,-0.29034197,-3.7388723,-0.37683421,-0.68839979,-0.61975944,0
-0.82684481,2.1747077,3.7238331,0.37683421,0.68839979,0.61975944,0
-0.69644308,1.5871077,4.3351402,0.37683421,0.68839979,0.61975944,0
-1.1131046,-2.1396794,-2.3669939,-0.37683421,-0.68839979,-0.61975944,0
3.1336687,-0.35182038,-4.1730299,0.74941725,0.16665342,-0.64078116,0
-2.3150685,3.8435442,2.9985237,0.37683421,0.68839979,0.61975944,0
3.6354973,0.2351073,3.2171819,0.37683421,0.68839979,0.61975944,0
1.0368624,-3.284395,-2.3356433,-0.37683421,-0.68839979,-0.61975944,0
2.1263671,1.6560513,2.4511116,0.37683421,0.68839979,0.61975944,0
4.1012597,-2.9486763,-1.5904697,0.91961551,-0.35816485,-0.16132379,0
-4.2044115,-2.524972,-0.20258975,-0.37683421,-0.68839979,-0.61975944,0
-3.1319783,-4.2550735,2.1413219,-0.42066547,-0.4689185,0.77663112,0
3.7162263,4.0801802,-0.93239713,0.37683421,0.68839979,0.61975944,0
-1.4794074,-3.1677885,3.5833092,-0.25729516,-0.5649609,0.78397608,0
3.2561345,-4.2924652,-1.5467117,0.85540491,-0.51531541,0.05227387,0
0.061457157,3.4110074,-3.6851046,0.012031674,0.66538966,-0.74639928,0
-1.7906744,-5.5267811,1.290818,-0.37683421,-0.68839979,-0.61975944,0
-4.8031263,-1.1186756,1.6754488,-0.85227919,-0.004371047,0.52306902,0
2.3983741,-1.0545881,5.1414971,0.37683421,0.68839979,0.61975944,0
2.2986526,-3.2725739,-3.648437,-0.37683421,-0.68839979,-0.61975944,0
2.7189896,-5.1927361,-0.82245588,0.78478557,-0.59269786,0.18116546,0
-2.0067098,0.59677595,-5.1955881,-0.37683421,-0.68839979,-0.61975944,0
-0.5617528,4.3584266,-2.5765047,-0.17280659,0.70958465,-0.6831013,0
1.7601962,-3.0905874,-3.3630078,-0.37683421,-0.68839979,-0.61975944,0
-3.3808732,-4.1446404,2.1649997,-0.48608446,-0.42258734,0.76494563,0
5.2394528,-0.59597552,1.3193775,0.88835144,-0.45809513,-0.031316362,0
-1.5323758,1.092315,-5.6361246,-0.026289433,0.67676288,-0.73573154,0
2.6417928,-0.093619347,3.937032,0.37683421,0.68839979,0.61975944,0
3.3209214,4.2055974,-1.1071215,0.37683421,0.68839979,0.61975944,0
-0.49517703,1.334657,-5.5597682,0.08437264,0.64079261,-0.76306379,0
4.72651,-1.5536808,2.0603271,0.80771387,-0.57173413,0.14393878,0
1.8049426,3.1069946,-3.5438504,0.28516209,0.55037028,-0.78471345,0
-0.16335952,-1.8589933,-3.3798225,-0.37683421,-0.68839979,-0.61975944,0
1.6109341,3.2067261,-3.3483648,0.28034034,0.5529446,-0.78464109,0
0.16582251,-0.43426359,-4.9673233,-0.37683421,-0.68839979,-0.61975944,0
-0.55240107,-5.36658,0.80013096,-0.37683421,-0.68839979,-0.61975944,0
0.73268092,5.2011633,-1.8474329,-0.067872018,0.68780619,-0.72271442,0
-0.84691483,-1.0301833,5.2748942,-0.3376506,-0.5209595,0.7839601,0
-3.1944308,1.0297769,-4.7439613,-0.37683421,-0.68839979,-0.61975944,0
-3.7282083,3.5336239,1.0988001,-0.87688863,0.48069316,-0.00075426884,0
-1.8220524,4.0437713,2.0561752,0.37683421,0.68839979,0.61975944,0
-2.9384353,-0.78746903,-3.1842632,-0.37683421,-0.68839979,-0.61975944,0
-2.7257738,3.80759,2.9665177,0.37683421,0.68839979,0.61975944,0
5.3957224,1.4125504,-0.71934009,0.88289952,-0.064579844,-0.46509975,0
-1.4072359,4.8558226,1.3953948,0.37683421,0.68839979,0.61975944,0
-1.3231349,-4.1346745,2.7683716,-0.14672844,-0.61627316,0.77374303,0
-4.4577112,-4.0079784,1.4223311,-0.37683421,-0.68839979,-0.61975944,0
3.3163006,2.8766847,0.26146603,0.37683421,0.68839979,0.61975944,0
0.1681788,-0.79605442,-4.9745903,-0.37683421,-0.68839979,-0.61975944,0
1.3753159,0.63189495,4.3694706,0.37683421,0.68839979,0.61975944,0
3.3741355,4.6769352,-1.8353167,0.41943341,0.46974388,-0.77679878,0
-4.2145863,0.18818903,-3.5530798,-0.37683421,-0.68839979,-0.61975944,0
-3.7984352,2.4744642,3.2288525,-0.91717577,0.18372317,0.35360202,0
-1.6819966,-0.31592429,-4.592721,-0.37683421,-0.68839979,-0.61975944,0
-3.2342415,1.7398367,4.7198744,-0.81652379,-0.069047242,0.57316786,0
3.5595179,-3.7009919,-2.0466902,0.91531157,-0.37940651,-0.13511261,0
-0.2303203,3.3637166,2.062469,0.37683421,0.68839979,0.61975944,0
-0.031704426,5.0967526,-0.22600031,0.37683421,0.68839979,0.61975944,0
0.19830894,1.0208104,-5.5949726,0.2281784,0.57947624,-0.78239501,0
-1.5184629,3.5820208,-3.2554502,-0.26803008,0.72149849,-0.6384356,0
5.4182191,2.0861785,-0.93114173,0.85396093,0.00099012256,-0.52033621,0
-1.8491175,-5.3167868,1.0719271,-0.37683421,-0.68839979,-0.61975944,0
0.27208292,-0.61191237,-5.0993366,-0.37683421,-0.68839979,-0.61975944,0
-4.5358024,2.2555218,-0.41761103,-0.87495697,0.4841662,-0.0057865353,0
2.9337978,-4.7827663,-0.70107144,0.78434837,-0.59306884,0.18184339,0
-2.2729173,1.0571562,5.5585275,-0.70350367,-0.22254717,0.67494839,0
-5.3564758,0.39863479,-1.3786249,-0.88889217,0.45693064,0.032938637,0
2.5782964,-1.2472558,-5.2091122,0.75071591,0.16496615,-0.63969666,0
5.8799925,1.5426137,0.67159688,0.37683421,0.68839979,0.61975944,0
1.0497681,1.8866353,2.6770592,0.37683421,0.68839979,0.61975944,0
-0.40282625,1.7584329,3.8033428,0.37683421,0.68839979,0.61975944,0
-2.9165652,-2.5305357,3.2097349,-0.51242,-0.40244991,0.75859076,0
-2.4735265,-0.92813557,4.2697983,-0.580755,-0.34565303,0.73705339,0
0.27073061,-4.7280579,2.1667905,0.18198782,-0.7110666,0.67916483,0
-0.73240709,-2.4422221,-2.366847,-0.37683421,-0.68839979,-0.61975944,0
3.1208105,4.0324526,-2.1500602,0.44683433,0.45098698,-0.77262527,0
2.5202148,4.9087391,-1.2456899,0.37683421,0.68839979,0.61975944,0
-2.080538,5.1562495,1.1755916,0.37683421,0.68839979,0.61975944,0
5.3068895,2.9334002,-0.81368279,0.78900558,0.11195797,-0.60409909,0
-1.4973572,-0.25011754,-4.5041904,-0.37683421,-0.68839979,-0.61975944,0
-0.82969004,2.3038259,3.6174181,0.37683421,0.68839979,0.61975944,0
1.0025855,-3.2327018,-2.6752071,-0.37683421,-0.68839979,-0.61975944,0
-4.2814798,1.0804253,-4.0177298,-0.37683421,-0.68839979,-0.61975944,0
0.64486337,2.5468953,-4.3335314,0.13625856,0.62060761,-0.77219152,0
3.0672753,1.287137,2.6272283,0.37683421,0.68839979,0.61975944,0
-3.5210032,-2.8721204,-0.27971137,-0.37683421,-0.68839979,-0.61975944,0
3.4943285,1.8980129,-3.0640113,0.64387476,0.2863276,-0.70953637,0
0.67993164,5.2123981,-0.63291574,0.37683421,0.68839979,0.61975944,0
1.1843991,1.1967653,3.7313466,0.37683421,0.68839979,0.61975944,0
-3.7786772,-0.91397572,-2.2464941,-0.37683421,-0.68839979,-0.61975944,0
0.88521779,0.98599923,-5.3038435,0.34457952,0.51688212,-0.78364408,0
2.2224729,-2.4584112,-3.9938176,-0.37683421,-0.68839979,-0.61975944,0
-0.37051058,0.53984904,-5.7186337,-0.37683421,-0.68839979,-0.61975944,0
-2.3151765,3.7109213,3.0690644,0.37683421,0.68839979,0.61975944,0
-0.79657471,-1.588454,4.719388,-0.29319084,-0.54603702,0.78478205,0
-2.1418781,-0.83675969,4.5052433,-0.56926078,-0.3557027,0.74122727,0
-3.3297544,-0.80993378,-2.4293292,-0.37683421,-0.68839979,-0.61975944,0
2.9077363,-5.2073493,-1.9021306,0.84397137,-0.53089988,0.076536261,0
5.4040608,2.1941166,-0.70275676,0.845523,0.017594695,-0.53364921,0
0.39349866,4.1799479,0.4729408,0.37683421,0.68839979,0.61975944,0
2.5498972,4.0478678,-2.3925993,0.35233909,0.5122602,-0.78322846,0
2.8928845,2.4989655,1.1193004,0.37683421,0.68839979,0.61975944,0
-1.1503711,1.2850158,-5.6923494,0.019308507,0.6631006,-0.74828136,0
0.53243101,3.2203197,-3.7307673,0.12399752,0.62557137,-0.77025002,0
-2.9750614,-1.2441587,-2.58233,-0.37683421,-0.68839979,-0.61975944,0
-0.67973065,2.6843731,-4.4721298,-0.028478801,0.67737806,-0.7350837,0
2.0618963,4.8603878,-1.2749832,0.37683421,0.68839979,0.61975944,0
3.461386,3.387887,-0.37908483,0.37683421,0.68839979,0.61975944,0
2.3190649,-3.7122123,2.2750154,0.48534966,-0.7166245,0.50088429,0
-3.6408956,3.7478588,1.5202107,-0.88303566,0.46903551,0.01593212,0
5.9233007,0.58460903,0.68622226,0.92627805,-0.28166255,-0.25035009,0
3.152102,-3.5238557,1.0771317,0.6867696,-0.65662044,0.31176472,0
-0.59974527,-0.73358768,-4.4623599,-0.37683421,-0.68839979,-0.61975944,0
-5.6941886,0.16006625,-1.1974026,-0.90851933,0.40508634,0.10245879,0
-0.33423704,-5.5124421,0.80156946,-0.37683421,-0.68839979,-0.61975944,0
2.9878793,-1.6864614,4.4575868,0.37000999,-0.72525507,0.5806011,0
-1.8670539,4.3297467,-2.356626,-0.43002224,0.72262764,-0.54119325,0
2.6649654,-3.5147128,-3.1390536,-0.37683421,-0.68839979,-0.61975944,0
-5.0485406,0.14489341,0.6881361,-0.92067683,0.20487705,0.33223405,0
-0.46534884,5.7405167,-1.2011096,-0.30898976,0.72418177,-0.61651123,0
1.8542891,4.4110932,-0.65058005,0.37683421,0.68839979,0.61975944,0
-2.6134512,0.97674608,5.2986164,-0.70565569,-0.2200751,0.67351103,0
-4.2253599,2.3453412,1.759766,-0.92620265,0.2887243,0.2424603,0
-0.5846622,5.7198277,-0.42568409,0.37683421,0.68839979,0.61975944,0
-1.9524558,-4.2098832,2.5112491,-0.21708539,-0.58481431,0.78157938,0
1.3738364,5.1633048,-2.2447708,0.090680718,0.63845283,-0.76430035,0
-1.54512,0.81676942,-5.6803751,-0.37683421,-0.68839979,-0.61975944,0
-1.7728697,-0.4561522,-4.1751037,-0.37683421,-0.68839979,-0.61975944,0
-0.80838454,4.7365246,-2.1060033,-0.30946067,0.72420371,-0.61624932,0
0.9579826,4.8153577,-0.57774293,0.37683421,0.68839979,0.61975944,0
-4.2122989,2.4665737,0.4903596,-0.89083868,0.45265356,0.038872939,0
-4.2391539,-1.9662311,-0.68445146,-0.37683421,-0.68839979,-0.61975944,0
-0.61985385,-0.18758059,-4.8259387,-0.37683421,-0.68839979,-0.61975944,0
3.2578664,4.0142565,-1.1128953,0.37683421,0.68839979,0.61975944,0
-0.21378446,5.7147584,-0.69318914,0.37683421,0.68839979,0.61975944,0
-3.4946959,-2.6523442,-0.70044696,-0.37683421,-0.68839979,-0.61975944,0
0.31604147,-5.9605141,0.84702718,-0.37683421,-0.68839979,-0.61975944,0
-2.4633875,5.042419,0.0007263422,-0.68686831,0.65657151,-0.31165028,0
5.1994028,0.14584446,-0.94267082,0.91370165,-0.16636214,-0.37077343,0
-1.4140906,4.946445,0.80231452,0.37683421,0.68839979,0.61975944,0
-5.4262314,0.18570292,0.3391701,-0.92626995,0.27681345,0.25573123,0
-1.1588717,3.7524767,2.3338511,0.37683421,0.68839979,0.61975944,0
4.5250988,-2.0596085,-0.29467532,0.89862859,-0.43396205,-0.064371027,0
-4.88236,1.5193518,-1.2583959,-0.85912216,0.50987786,-0.043973811,0
-2.1483476,-0.052330106,5.0711374,-0.60790372,-0.32103488,0.72621608,0
0.19621742,2.1826499,-4.7847633,0.14233205,0.61810404,-0.77310359,0
-1.2851005,5.4606738,0.059308529,0.37683421,0.68839979,0.61975944,0
-4.6889567,-0.54729271,1.5694169,-0.88589442,0.072433785,0.458197,0
-4.3714957,2.1629543,-0.61581272,-0.8455404,0.52885443,-0.073310278,0
-3.2383528,2.8062861,4.534308,-0.88847286,0.079419881,0.45200491,0
0.5919354,2.1551142,-4.6334267,0.20793135,0.58914053,-0.78081882,0
-2.5767722,5.0587807,1.0415468,-0.77618802,0.59981644,-0.19430009,0
-4.0180759,-2.0869246,-0.99045855,-0.37683421,-0.68839979,-0.61975944,0
3.2729099,-2.795881,-4.2852669,0.89243674,-0.090615943,-0.44197905,0
-1.0173848,-2.677258,-2.0999007,-0.37683421,-0.68839979,-0.61975944,0
4.7892556,0.3576144,-1.5433984,0.8781606,-0.05265975,-0.47545856,0
-2.619508,4.8007302,2.0258939,0.37683421,0.68839979,0.61975944,0
-0.9613536,-2.17308,-2.7131338,-0.37683421,-0.68839979,-0.61975944,0
5.4688721,1.8597758,0.10721922,0.37683421,0.68839979,0.61975944,0
-5.1599526,-0.57013631,-2.0395117,-0.37683421,-0.68839979,-0.61975944,0
-2.294394,4.9799724,-0.38734233,-0.65016448,0.67314166,-0.35237271,0
2.9034882,3.4794931,-0.17562282,0.37683421,0.68839979,0.61975944,0
5.3518419,-0.53327322,1.1610031,0.88888657,-0.45694286,-0.03292159,0
0.54254431,5.3661652,-0.46400487,0.37683421,0.68839979,0.61975944,0
0.66660309,-1.3925781,5.4774427,-0.10011879,-0.63489336,0.76608527,0
2.1812394,-0.92393267,5.5026913,0.37683421,0.68839979,0.61975944,0
0.87442088,2.1370587,-4.2862039,0.23478714,0.57624596,-0.78282535,0
-2.9059191,3.9977665,-1.4338784,-0.61965287,0.68467391,-0.38373441,0
-2.8803856,-1.0410753,-2.6708193,-0.37683421,-0.68839979,-0.61975944,0
-2.3396478,0.38827819,-4.8692422,-0.37683421,-0.68839979,-0.61975944,0
-0.44635081,-4.0086188,-0.83765709,-0.37683421,-0.68839979,-0.61975944,0
-2.688941,0.17163873,-4.1996417,-0.37683421,-0.68839979,-0.61975944,0
-2.0958886,4.5484915,-1.1730467,-0.58086056,0.69680268,-0.42079344,0
-5.6132169,-1.0357969,-1.3608391,-0.37683421,-0.68839979,-0.61975944,0
5.4942288,-0.18475604,2.0582981,0.87844086,-0.47783938,-0.0033593848,0
-4.800025,0.96763909,-3.6175401,-0.69131845,0.65433842,-0.30646396,0
-2.9267173,1.0559914,-4.8038116,-0.37683421,-0.68839979,-0.61975944,0
-2.1723278,4.100709,2.4564791,0.37683421,0.68839979,0.61975944,0
-1.4258674,4.6783519,-1.9404335,-0.41250256,0.72379345,-0.55314076,0
0.23659998,-3.5882709,-1.6619465,-0.37683421,-0.68839979,-0.61975944,0
-4.4193292,2.2542372,0.74170375,-0.91414541,0.38433957,0.12892413,0
-0.15782124,-2.470892,-2.5707986,-0.37683421,-0.68839979,-0.61975944,0
5.5149069,0.079886436,0.70300686,0.9246558,-0.3191815,-0.20768937,0
0.77850401,1.8669162,-4.6441417,0.25791508,0.56464386,-0.78400087,0
3.5674567,0.57209373,2.9276042,0.37683421,0.68839979,0.61975944,0
-3.9269521,-2.9413819,2.4208877,-0.61103058,-0.31811601,0.72487509,0
-1.1729922,3.9704061,2.2638638,0.37683421,0.68839979,0.61975944,0
0.27587259,5.1188011,-1.9745812,-0.090508759,0.6932472,-0.71499419,0
-3.6114659,-0.067809105,-3.2435794,-0.37683421,-0.68839979,-0.61975944,0
1.6487854,4.5254545,-0.60584152,0.37683421,0.68839979,0.61975944,0
-3.9475663,1.4107273,3.1299653,-0.88709265,0.075653166,0.45534956,0
1.4606767,-5.2589393,-0.61178648,-0.37683421,-0.68839979,-0.61975944,0
3.2828503,-0.11619562,-3.8561983,0.76241016,0.14947008,-0.6295948,0
0.50979304,-2.1626801,4.6193695,-0.015361279,-0.66434735,0.74726611,0
4.7968245,-1.353482,2.1392972,0.81670344,-0.56260639,0.12833422,0
1.5025172,-2.1555037,4.8766956,0.12402901,-0.70055848,0.70273376,0
-2.1142421,4.3044429,2.1168859,0.37683421,0.68839979,0.61975944,0
0.00026142597,-3.1274011,3.8784871,0.0022202134,-0.66975313,0.74258047,0
4.8693433,-1.0939417,1.4548991,0.85562599,-0.51499748,0.051786236,0
-0.0022211075,-1.3642417,5.2213612,-0.18194941,-0.60103685,0.77823472,0
-3.5552254,3.3001566,3.0413523,-0.92607105,0.29423138,0.23626332,0
0.1287784,2.1542397,3.3756785,0.37683421,0.68839979,0.61975944,0
5.4915037,2.0422428,0.23253012,0.37683421,0.68839979,0.61975944,0
-3.355787,4.1630993,2.7312567,-0.91974568,0.35742089,0.16222927,0
-3.7882915,3.0873899,2.8361623,-0.92593473,0.26166552,0.27235299,0
2.6158407,4.7668214,-1.3409376,0.37683421,0.68839979,0.61975944,0
-1.4738983,-4.3063865,2.6072738,-0.16796069,-0.60720974,0.77658582,0
-4.9483881,0.77243662,0.46266919,-0.92608941,0.2935988,0.2369771,0
-2.4118516,4.0790401,2.5875518,0.37683421,0.68839979,0.61975944,0
-2.3344722,-4.2409339,0.53064311,-0.37683421,-0.68839979,-0.61975944,0
-0.68064314,-3.5868328,-1.3973442,-0.37683421,-0.68839979,-0.61975944,0
-2.6283298,3.6986623,-2.1451359,-0.51091826,0.71257204,-0.48083645,0
3.8653085,2.0679178,-2.9219058,0.68308651,0.24537052,-0.68788517,0
-4.2261353,-0.43936038,-2.3716769,-0.37683421,-0.68839979,-0.61975944,0
3.5559301,1.9253381,1.3282199,0.37683421,0.68839979,0.61975944,0
0.41632837,-4.7524052,-0.36302441,-0.37683421,-0.68839979,-0.61975944,0
3.7681923,1.2864723,2.1238949,0.37683421,0.68839979,0.61975944,0
4.0148988,-2.5247731,2.2753189,0.70462745,-0.64734197,0.29060045,0
-1.0568751,4.9694204,0.85310483,0.37683421,0.68839979,0.61975944,0
2.623606,3.0551841,0.69261688,0.37683421,0.68839979,0.61975944,0
-2.314986,-3.0594172,-1.1395938,-0.37683421,-0.68839979,-0.61975944,0
2.1700082,-2.6588516,3.557776,0.3452954,-0.72525615,0.59562969,0
0.76183796,0.67858034,-5.6166792,0.32835007,0.52635962,-0.78430331,0
-3.0557375,1.9465704,4.4114175,-0.83564055,-0.036009908,0.54809511,0
-0.17526686,-0.088906944,5.8498406,0.37683421,0.68839979,0.61975944,0
0.68892646,-3.1980832,3.7686994,0.080793768,-0.69096154,0.71836239,0
-5.5558524,-0.18035245,-2.2463846,-0.37683421,-0.68839979,-0.61975944,0
-1.7633851,-5.3986244,1.2980223,-0.37683421,-0.68839979,-0.61975944,0
-2.5758955,-1.6454355,3.9020588,-0.55947495,-0.36409295,0.7445966,0
1.4159502,3.1862965,-3.8943825,0.25405353,0.5666135,-0.78384054,0
-0.30666137,1.7171867,4.096808,0.37683421,0.68839979,0.61975944,0
-4.0166745,1.5329596,2.6493735,-0.91284007,0.16242695,0.37462059,0
-0.8468827,-1.1432748,5.3334813,-0.32109818,-0.53051311,0.78450739,0
3.4792099,-3.0563278,-3.628264,0.92242163,-0.21787971,-0.31885219,0
-2.5263443,3.7711945,2.8025134,0.37683421,0.68839979,0.61975944,0
0.84757233,5.0679388,-2.1002557,-0.047234893,0.68249464,-0.72936273,0
-3.0672176,-2.7321582,-0.87703454,-0.37683421,-0.68839979,-0.61975944,0
1.6334558,-0.96490479,-5.3923283,-0.37683421,-0.68839979,-0.61975944,0
0.20126474,5.6084585,-1.2621933,-0.18735421,0.71190041,-0.67682809,0
4.5959601,-0.12044919,-2.1742682,0.89279532,-0.091658697,-0.44103876,0
1.7386116,0.51636523,-5.3252435,0.53145283,0.38731721,-0.75335467,0
5.1342869,0.84453511,1.4522276,0.37683421,0.68839979,0.61975944,0
2.1474662,4.1247053,-2.3925412,0.26363787,0.5617007,-0.78421128,0
1.5759439,-4.9722733,-1.1798431,-0.37683421,-0.68839979,-0.61975944,0
-0.91725641,-3.2638626,-1.5619678,-0.37683421,-0.68839979,-0.61975944,0
-4.5267406,1.7675376,-0.24708834,-0.89059263,0.4532021,0.038114008,0
-2.5241346,-4.6536751,1.0464003,-0.37683421,-0.68839979,-0.61975944,0
-5.2858777,-1.4341364,-0.82095474,-0.37683421,-0.68839979,-0.61975944,0
-2.6132269,1.6036981,-5.0655327,-0.27452582,0.72202522,-0.63507104,0
-4.1886544,2.5771656,0.26035464,-0.87580872,0.48264509,-0.0035790261,0
-4.1657495,2.815721,-1.1342828,-0.79131234,0.58703858,-0.17091104,0
0.13583994,-0.36443856,5.8545957,-0.2398181,-0.5737617,0.78312498,0
2.9708533,-1.1227248,5.316988,0.37683421,0.68839979,0.61975944,0
0.69860995,4.9731917,-2.253057,-0.034532607,0.67905957,-0.73327053,0
-5.1954594,0.29281723,-0.12751222,-0.92462546,0.31953898,0.20727384,0
1.5551631,4.4294395,-0.17816055,0.37683421,0.68839979,0.61975944,0
-1.513279,-5.0368981,0.70128787,-0.37683421,-0.68839979,-0.61975944,0
-0.51520133,-0.32155555,-4.7874217,-0.37683421,-0.68839979,-0.61975944,0
-2.0672824,3.6038396,2.9625235,0.37683421,0.68839979,0.61975944,0
0.93585122,-2.6432829,-3.0499454,-0.37683421,-0.68839979,-0.61975944,0
-3.8385129,2.1489747,2.7271438,-0.91880488,0.19296235,0.3443301,0
3.5615456,3.3126197,0.056598306,0.37683421,0.68839979,0.61975944,0
3.8521333,1.588673,-2.5853515,0.72109962,0.20193353,-0.6627506,0
-5.7807813,-1.6905427,-0.14461207,-0.9084056,0.1438427,0.39256686,0
2.9469252,4.5436707,-2.2366982,0.36197793,0.50643623,-0.78262019,0
-1.5062317,5.8925791,-0.20766628,0.37683421,0.68839979,0.61975944,0
-2.4135652,-5.0769911,1.6286976,-0.37683421,-0.68839979,-0.61975944,0
3.5004659,-1.999089,3.8386142,0.49425951,-0.71530855,0.49400517,0
-3.8385527,1.8081944,2.8545194,-0.90726596,0.1394349,0.39676982,0
1.7216326,2.0900683,-4.0215096,0.37534583,0.49820513,-0.78160554,0
-3.0910919,-3.9919634,0.35186696,-0.37683421,-0.68839979,-0.61975944,0
2.5178909,-0.92621684,-5.3047118,0.68895769,0.23892088,-0.68429106,0
2.43542,4.9957666,-2.2207124,0.25566033,0.56579548,-0.78390908,0
3.7935452,-3.3039169,0.64013839,0.80234206,-0.57692814,0.15297428,0
5.1727901,-0.70440578,0.13845289,0.91322756,-0.38804176,-0.12425387,0
-2.8088589,-3.2979198,3.0685675,-0.4034,-0.48033336,0.77881217,0
-3.4126337,-3.3906031,0.43151569,-0.37683421,-0.68839979,-0.61975944,0
-1.7540948,-4.5643301,2.7163053,-0.19319008,-0.59595913,0.77942944,0
3.7164326,-1.8818874,3.4131708,0.57836497,-0.69749427,0.42307913,0
0.89474869,-0.70610631,6.0063424,-0.093065053,-0.63756025,0.76475865,0
-2.5865178,1.7033226,-4.771069,-0.31796673,0.72456384,-0.61147732,0
-4.3110876,-2.7090831,-0.001434207,-0.37683421,-0.68839979,-0.61975944,0
-2.8573911,1.9447521,-4.1605725,-0.42181659,0.72321588,-0.54683596,0
-2.8883495,-3.1725507,-0.452667,-0.37683421,-0.68839979,-0.61975944,0
2.380002,-1.1857895,5.2560868,0.37683421,0.68839979,0.61975944,0
4.4302073,3.7687709,-1.3368514,0.65898323,0.27096215,-0.70165551,0
-0.34362829,3.726428,-3.1339731,-0.1145018,0.6985715,-0.70631963,0
3.6395755,-2.3911998,-3.5455976,0.90542537,-0.13257192,-0.40327376,0
2.9186502,-2.7703226,-4.3797922,-0.37683421,-0.68839979,-0.61975944,0
-0.2265178,5.7975225,-0.66829646,0.37683421,0.68839979,0.61975944,0
-2.2230785,4.9156456,1.7556667,0.37683421,0.68839979,0.61975944,0
3.2059255,-3.7212214,0.7933709,0.69550663,-0.65218896,0.30153,0
3.180037,-3.3110998,-4.0467863,0.91642255,-0.17972142,-0.35758898,0
0.56561518,-0.1504494,5.6846714,0.37683421,0.68839979,0.61975944,0
-1.8870603,3.4894612,3.1190712,0.37683421,0.68839979,0.61975944,0
-2.2291422,4.5857153,1.6997573,0.37683421,0.68839979,0.61975944,0
3.7826912,3.5490894,-0.68120766,0.37683421,0.68839979,0.61975944,0
2.2390289,4.3074803,-0.36245632,0.37683421,0.68839979,0.61975944,0
-4.0861635,2.1730797,-2.6798365,-0.69760168,0.65109593,-0.29904196,0
-1.5097888,2.3811822,3.7982485,0.37683421,0.68839979,0.61975944,0
-3.5146732,2.8293765,3.3077135,-0.92106843,0.20760158,0.32944587,0
4.9356031,0.20159924,2.261096,0.37683421,0.68839979,0.61975944,0
-3.5576882,3.1922891,2.4216921,-0.92446423,0.32139134,0.2051183,0
-2.6707478,-4.6524706,1.2603364,-0.37683421,-0.68839979,-0.61975944,0
-1.3986114,1.1507374,5.4155865,0.37683421,0.68839979,0.61975944,0
-1.9984639,3.5335655,2.8935995,0.37683421,0.68839979,0.61975944,0
0.020256519,-5.8001604,0.77694738,-0.37683421,-0.68839979,-0.61975944,0
-5.3930235,0.90434873,-0.96646035,-0.89688098,0.43840259,0.058376152,0
-0.4545213,-5.5946474,1.3901808,0.1468966,-0.70503026,0.69379663,0
3.4831393,-2.9632282,-3.7135243,0.91976613,-0.19887428,-0.33834782,0
-1.484733,-3.2780833,-1.0524998,-0.37683421,-0.68839979,-0.61975944,0
0.67295349,3.8759332,1.0038627,0.37683421,0.68839979,0.61975944,0
0.72905922,-0.31939667,5.3369589,0.37683421,0.68839979,0.61975944,0
2.6223574,2.9560983,0.46174324,0.37683421,0.68839979,0.61975944,0
3.213902,4.160717,-1.2277658,0.37683421,0.68839979,0.61975944,0
0.9092077,-5.1658521,1.7547841,0.35077387,-0.72530818,0.59235626,0
1.3735943,-5.0145478,-1.0098249,-0.37683421,-0.68839979,-0.61975944,0
4.7030163,-1.2411861,-1.1861413,0.9251188,-0.24620411,-0.28903073,0
4.8473725,-1.6224688,2.4640307,0.76367486,-0.60954988,0.21271998,0
4.5371213,-1.2933095,3.4134853,0.70161724,-0.64896727,0.29423603,0
1.380367,0.78853095,-5.4571934,0.45449525,0.44558913,-0.77128756,0
1.0616407,-3.2520123,-2.7617457,-0.37683421,-0.68839979,-0.61975944,0
-0.30724192,0.85376698,-5.5972657,0.17937995,0.60218275,-0.77794528,0
2.9603019,3.717983,-2.8442581,0.44817242,0.4500491,-0.77239704,0
-2.568655,-4.3320222,2.5587759,-0.30036673,-0.5421142,0.78478801,0
-3.4318469,-0.82336873,3.3013606,-0.73218793,-0.1884481,0.65451372,0
3.5018861,-3.3958662,-3.4568734,0.92440128,-0.23688847,-0.29894179,0
-4.2800779,-2.8643732,1.8089479,-0.68029428,-0.24840726,0.68956053,0
0.74703026,0.55907464,-5.6216931,0.39633435,0.48491216,-0.77960199,0
-1.6240265,0.78899133,5.5134602,0.37683421,0.68839979,0.61975944,0
5.7919598,0.4165833,1.4662172,0.91482991,-0.38147724,-0.13251966,0
1.5153675,5.1798863,-1.9351137,0.061542809,0.64899808,-0.75829679,0
-3.6399488,-4.2063284,1.4922831,-0.37683421,-0.68839979,-0.61975944,0
3.5517783,-0.17801315,-3.9022126,0.76522076,0.14566085,-0.62707269,0
-1.7183509,-4.1504674,0.23035002,-0.37683421,-0.68839979,-0.61975944,0
-4.3784428,2.0497868,1.5747347,-0.92307764,0.33468455,0.1895097,0
-0.93025136,2.0851653,3.7418406,0.37683421,0.68839979,0.61975944,0
-5.352149,-2.3661337,0.87548149,-0.82737279,-0.050679192,0.55936205,0
3.4418955,3.1062407,0.35211313,0.37683421,0.68839979,0.61975944,0
5.1360464,-0.36147058,-0.51545566,0.92577362,-0.25776696,-0.2765854,0
1.8575135,3.1896143,0.67281115,0.37683421,0.68839979,0.61975944,0
3.4114215,1.6980108,1.6499903,0.37683421,0.68839979,0.61975944,0
4.8039865,0.71285176,-2.079421,0.84598273,0.01671198,-0.53294832,0
-0.39175904,-0.46709675,-5.0804129,-0.37683421,-0.68839979,-0.61975944,0
-3.3153286,0.93164557,4.4306469,-0.78732008,-0.11443947,0.60583055,0
-1.6307647,-5.1202388,1.9299216,-0.078919679,-0.64278978,0.76196659,0
-2.1715419,-2.1313105,-2.2499034,-0.37683421,-0.68839979,-0.61975944,0
2.1326401,4.1177731,-0.23871028,0.37683421,0.68839979,0.61975944,0
-0.98235738,-0.35060769,-4.3506975,-0.37683421,-0.68839979,-0.61975944,0
0.76355314,-1.6250341,5.4892998,-0.019669056,-0.66298604,0.74837327,0
4.1907272,-2.8036001,-0.86972409,0.90873456,-0.4043662,-0.10338955,0
-3.7391493,2.8838582,-1.1119246,-0.74590641,0.62222767,-0.23760572,0
2.716193,3.0536385,0.40712881,0.37683421,0.68839979,0.61975944,0
4.5379801,-1.7902193,-1.2954813,0.9246223,-0.3195768,-0.20722997,0
1.1573173,5.5271153,-1.4476838,0.37683421,0.68839979,0.61975944,0
0.19663841,3.83618,1.2076279,0.37683421,0.68839979,0.61975944,0
-2.9796543,4.7748327,2.1140614,0.37683421,0.68839979,0.61975944,0
-2.4415894,-5.0194139,1.1335161,-0.37683421,-0.68839979,-0.61975944,0
4.833252,1.480602,-1.5371245,0.82252103,0.059009731,-0.56566513,0
3.6179471,3.9332554,-2.0761967,0.53478593,0.38461494,-0.75237978,0
3.7858353,-0.46442154,-3.1211739,0.84037769,0.02731055,-0.54131269,0
4.1178112,3.3811874,-0.67776537,0.37683421,0.68839979,0.61975944,0
4.0260916,-1.3813295,4.4175944,0.51257682,-0.71227944,0.47950298,0
-2.1138573,1.7225195,4.876853,0.37683421,0.68839979,0.61975944,0
1.0214593,-4.0485234,-1.4963778,-0.37683421,-0.68839979,-0.61975944,0
5.1718698,1.5121663,0.97498441,0.37683421,0.68839979,0.61975944,0
-3.2271743,1.2134969,3.9347177,-0.83001047,-0.046066403,0.55584216,0
-1.0858173,4.4479456,-2.4214535,-0.32631007,0.72485101,-0.60672319,0
-3.9457412,2.7750251,-1.395484,-0.77648211,0.59957886,-0.19385734,0
-1.9833577,0.5149554,-4.9413261,-0.37683421,-0.68839979,-0.61975944,0
-0.058636189,0.14976668,-5.9895115,-0.37683421,-0.68839979,-0.61975944,0
0.65540206,-3.7689888,-1.7889186,-0.37683421,-0.68839979,-0.61975944,0
-2.8855872,3.9590561,3.2741451,0.37683421,0.68839979,0.61975944,0
-0.31119823,2.4019897,-4.5275164,0.065101981,0.64774591,-0.75906992,0
-1.4102676,5.4464259,-0.70501757,-0.51731336,0.71142328,-0.4756721,0
-3.9572673,0.71031463,-3.7219892,-0.37683421,-0.68839979,-0.61975944,0
3.5745914,-1.994581,-3.7476637,0.88189143,-0.061994344,-0.46735865,0
-5.09062,-0.04810977,-2.5163953,-0.37683421,-0.68839979,-0.61975944,0
2.9881728,4.2477121,-2.3894227,0.41614768,0.47193679,-0.77723676,0
2.7372079,-3.8628983,1.6500614,0.60440218,-0.68976086,0.39865762,0
-3.9174354,-0.5569756,3.1771748,-0.79164499,-0.10804084,0.60135293,0
2.9513774,3.6126192,-2.731113,0.42586717,0.46541554,-0.77590305,0
1.6655006,2.3386824,2.1805918,0.37683421,0.68839979,0.61975944,0
-3.1005428,3.4621694,-1.245474,-0.70147109,0.64904553,-0.29441184,0
0.9869926,-2.5195863,-3.2746265,-0.37683421,-0.68839979,-0.61975944,0
-1.1297317,-3.7413998,3.3489778,-0.12999766,-0.62315744,0.77121687,0
4.9353294,-1.0160617,-0.57339329,0.92499369,-0.31492758,-0.2126199,0
-3.5681634,4.0762882,0.41633976,-0.80786598,0.57158446,-0.14368014,0
-2.9975364,4.2637725,2.8687742,0.37683421,0.68839979,0.61975944,0
2.1212058,1.7475832,-4.1866093,0.46750844,0.4362607,-0.76883841,0
0.74513793,-1.9293715,-3.8754337,-0.37683421,-0.68839979,-0.61975944,0
5.0210342,2.2902811,-1.1788225,0.81851006,0.065753549,-0.57071698,0
-4.5473375,1.9296288,-2.2105088,-0.76730931,0.60679549,-0.20745067,0
5.3615928,-0.93566072,1.5122001,0.87630463,-0.48175186,0.0022852905,0
3.3012702,-4.4051189,-0.72808725,0.82719612,-0.55118662,0.10926978,0
5.4911523,-0.3229413,2.4015443,0.37683421,0.68839979,0.61975944,0
2.5537908,3.063036,0.60112536,0.37683421,0.68839979,0.61975944,0
-1.8954045,-5.323926,1.2782435,-0.37683421,-0.68839979,-0.61975944,0
3.2356653,-2.3632164,-4.4186525,0.8670904,-0.026820675,-0.49742839,0
-3.0114772,2.4808807,4.4565058,-0.86632377,0.025120482,0.49885079,0
-4.6019101,-1.2618111,1.9379115,-0.82632589,-0.052493334,0.56074047,0
3.5699694,-1.9303677,-3.8834939,0.89105046,-0.086632937,-0.44556025,0
-1.2548317,-5.0486107,0.57553971,-0.37683421,-0.68839979,-0.61975944,0
-1.7286243,5.4197927,0.58979636,0.37683421,0.68839979,0.61975944,0
5.2248769,-1.0304449,1.6787385,0.85995901,-0.50862586,0.042074364,0
2.9779172,4.3211889,-2.2282903,0.36685187,0.503456,-0.78227341,0
0.14957458,-1.5738325,-3.8491161,-0.37683421,-0.68839979,-0.61975944,0
0.33902782,3.5262485,1.3729563,0.37683421,0.68839979,0.61975944,0
0.62800652,-2.6966498,-3.2039621,-0.37683421,-0.68839979,-0.61975944,0
4.5312381,-0.81224865,-1.6147084,0.92098516,-0.2070138,-0.33004808,0
-4.9003639,0.87835491,-3.5566468,-0.37683421,-0.68839979,-0.61975944,0
-2.8292992,-1.1934494,4.1342773,-0.60192323,-0.32656831,0.72872591,0
3.1855445,-1.8814734,-4.0162563,0.87231594,-0.038701996,-0.48740846,0
4.4263554,0.20411718,-2.0519419,0.8707298,-0.035039887,-0.49051178,0
-2.0281923,4.917943,1.1906779,0.37683421,0.68839979,0.61975944,0
3.2475057,-3.6184955,1.6830471,0.64423954,-0.67553031,0.35862854,0
-3.4100151,2.2909427,3.8672895,-0.88558471,0.071609035,0.45892471,0
-3.7456799,-2.7746058,2.4012809,-0.63642186,-0.29372883,0.7132256,0
-1.5216455,1.5893606,4.717804,0.37683421,0.68839979,0.61975944,0
-4.9169531,0.77362198,0.68346381,-0.92547148,0.30777672,0.22085316,0
-1.1539013,3.2163382,2.5021191,0.37683421,0.68839979,0.61975944,0
3.0676384,4.3085084,-1.2742398,0.37683421,0.68839979,0.61975944,0
1.9279375,2.5299919,-3.9313464,0.40731481,0.47777337,-0.77834916,0
0.32177436,1.3051889,3.9077415,0.37683421,0.68839979,0.61975944,0
0.33615112,-5.9252634,0.46350586,-0.37683421,-0.68839979,-0.61975944,0
-1.1534547,-0.17556965,-4.889689,-0.37683421,-0.68839979,-0.61975944,0
3.6851125,-3.5530362,0.057698727,0.80943501,-0.57003009,0.1409996,0
0.30933642,-5.4115715,0.25684142,-0.37683421,-0.68839979,-0.61975944,0
3.7706656,0.71225148,-3.3961372,0.73651779,0.18307064,-0.65117335,0
2.8594437,1.9878054,-3.3756742,0.59614193,0.33185714,-0.7310853,0
-5.3113346,0.44162178,-3.0778489,-0.79571462,0.58308876,-0.16384694,0
3.7207642,2.0497084,1.3335023,0.37683421,0.68839979,0.61975944,0
-4.4981275,2.2014878,-1.6440666,-0.787673,0.59022224,-0.17666008,0
0.16676986,5.2730403,-1.8347834,-0.13468724,0.70269507,-0.69862658,0
-1.3525695,-1.4286708,-3.2208161,-0.37683421,-0.68839979,-0.61975944,0
0.4715116,-1.8152353,5.2288146,-0.096366793,-0.63631678,0.76538503,0
-2.0871472,3.9428408,-2.217339,-0.43455788,0.72227013,-0.53803837,0
-0.92544907,-2.8346634,3.8373437,-0.20208678,-0.59186584,0.78029227,0
3.7290542,-2.1227686,3.1903908,0.59600699,-0.6923818,0.40667331,0
1.0405416,5.5720382,-0.91629958,0.37683421,0.68839979,0.61975944,0
-0.66332507,-2.4593272,-2.2997649,-0.37683421,-0.68839979,-0.61975944,0
3.2647107,1.0640013,-3.456594,0.70682192,0.21872978,-0.6727258,0
0.45185715,2.243577,2.6909671,0.37683421,0.68839979,0.61975944,0
-5.0068626,-1.8606772,-0.7944445,-0.37683421,-0.68839979,-0.61975944,0
-0.0047842264,3.8078272,-3.4272408,-0.052344173,0.68384075,-0.72775126,0
-3.956064,1.5121483,-4.2620668,-0.50857604,0.71297902,-0.48271272,0
-0.88131964,4.6241527,-1.9962332,-0.29005545,0.723131,-0.6268568,0
2.2369118,4.7892838,-2.0893393,0.26480624,0.56109631,-0.78425044,0
2.7153277,-0.58242244,4.6103091,0.37683421,0.68839979,0.61975944,0
4.4214439,0.37928033,2.571681,0.37683421,0.68839979,0.61975944,0
3.7609911,-2.6902556,-3.4525964,0.91298842,-0.16309556,-0.37396812,0
-2.3496742,0.71257651,-4.9108915,-0.37683421,-0.68839979,-0.61975944,0
4.7588258,-1.3835615,-0.95026535,0.92510259,-0.31343687,-0.21434191,0
2.4561965,3.7328753,-3.065418,0.36403036,0.50518417,-0.78247738,0
-1.5068699,3.4934881,2.8652186,0.37683421,0.68839979,0.61975944,0
2.9208956,4.8892803,-1.5001421,0.37683421,0.68839979,0.61975944,0
2.5007868,-5.5857325,-0.65725362,0.71496773,-0.6415593,0.27789003,0
-2.193469,4.8648505,-0.95347679,-0.59147793,0.69374454,-0.41094095,0
2.8055787,-4.539423,-0.65101266,0.79312587,-0.58542472,0.16801573,0
-2.5925822,-1.8878553,3.735446,-0.51454502,-0.40078509,0.75803363,0
-4.6712613,0.23287451,-3.1179585,-0.37683421,-0.68839979,-0.61975944,0
-1.9452432,3.0138032,3.6560125,0.37683421,0.68839979,0.61975944,0
2.5550642,3.7888951,-2.6356664,0.34752157,0.5151366,-0.78349423,0
3.1422176,-0.95794958,-4.247612,0.79741979,0.099333897,-0.59519291,0
-5.1043878,-0.922925,1.3537881,-0.88558728,0.071615562,0.45891899,0
3.8224452,-3.0585022,1.4907424,0.72043514,-0.63837183,0.27102521,0
-5.7525673,0.18268335,-1.2436333,-0.90623337,0.41244626,0.092893824,0
-4.8934608,1.0332211,-2.3290174,-0.80625498,0.57316321,-0.14641322,0
-1.6702834,-2.4807768,4.0642982,-0.31399092,-0.53453547,0.78465378,0
-0.42182326,-5.2219744,0.22625577,-0.37683421,-0.68839979,-0.61975944,0
-2.2633269,-2.3113713,-1.5314058,-0.37683421,-0.68839979,-0.61975944,0
0.82001293,-5.0337362,2.0312023,0.28606763,-0.72286785,0.62898922,0
-0.60722768,-3.0020719,3.8516712,-0.13938139,-0.61932397,0.77266461,0
1.5761839,3.98016,-2.9556231,0.1727341,0.60512143,-0.77716851,0
4.2285533,-2.0209742,2.8616104,0.6960212,-0.65192157,0.30092007,0
3.0665154,3.7349162,-0.15881503,0.37683421,0.68839979,0.61975944,0
-3.7091842,2.1660752,2.9696305,-0.91323668,0.16422307,0.37286669,0
3.5292358,-3.2437987,1.336913,0.72037047,-0.63841009,0.27110702,0
1.9552214,3.9940157,-0.13104129,0.37683421,0.68839979,0.61975944,0
-3.9573331,-0.72617662,3.0202651,-0.76139212,-0.15084131,0.63049901,0
3.8176975,-2.613462,1.7865797,0.71570796,-0.64113313,0.27696663,0
-2.6304877,2.4567435,4.7798252,0.37683421,0.68839979,0.61975944,0
4.076293,-2.0033021,-2.3766184,0.9171685,-0.18368325,-0.35364193,0
-1.1744759,-5.6311388,1.8703642,-0.017890662,-0.6635499,0.74791819,0
-3.6445246,-3.8805327,0.65990281,-0.37683421,-0.68839979,-0.61975944,0
1.0910149,4.971118,-0.67497253,0.37683421,0.68839979,0.61975944,0
2.6347086,3.4291391,0.38373184,0.37683421,0.68839979,0.61975944,0
3.6705163,-3.2274151,-2.6641159,0.92623156,-0.28693241,-0.2444683,0
-2.2486095,-2.5897806,-1.3104317,-0.37683421,-0.68839979,-0.61975944,0
-0.33115709,1.6235654,3.9744244,0.37683421,0.68839979,0.61975944,0
-1.0487132,4.5031257,-2.3102977,-0.27293229,0.72189945,-0.63590026,0
0.74646807,5.6896853,-1.1414957,0.37683421,0.68839979,0.61975944,0
-2.2256317,1.2777823,-5.5839663,-0.18292454,0.71121383,-0.67875886,0
-3.8380101,-2.3570142,-0.49688071,-0.37683421,-0.68839979,-0.61975944,0
-1.978904,-0.43995476,-3.8715065,-0.37683421,-0.68839979,-0.61975944,0
-0.21684688,-2.1881382,-3.1925793,-0.37683421,-0.68839979,-0.61975944,0
0.64547086,2.9290371,-3.9607275,0.13121839,0.62266272,-0.77140969,0
-1.19538,-2.8245587,-1.9639783,-0.37683421,-0.68839979,-0.61975944,0
0.48258078,-4.8037386,2.3792372,0.22461128,-0.71702528,0.65986705,0
5.19279,-0.25485671,-0.67595124,0.92601752,-0.26403025,-0.26977682,0
-2.4773202,3.964622,2.9165275,0.37683421,0.68839979,0.61975944,0
2.3851931,4.8907871,-1.2590597,0.37683421,0.68839979,0.61975944,0
-1.9209154,3.2719259,-3.3717556,-0.34387451,0.72523797,-0.59647322,0
-5.1481123,0.90091532,-1.657624,-0.84527147,0.52920711,-0.073865622,0
-0.80698574,-0.32626218,-5.0222888,-0.37683421,-0.68839979,-0.61975944,0
4.6382132,-0.71871901,3.7203829,0.37683421,0.68839979,0.61975944,0
3.256892,-4.4558239,-1.6415787,0.85871243,-0.51048696,0.044899486,0
-1.8195622,-4.34798,2.7196457,-0.22967786,-0.57874668,0.78249633,0
2.8717928,-3.9801702,-2.6740446,-0.37683421,-0.68839979,-0.61975944,0
-4.4417734,0.44732654,-3.2112646,-0.37683421,-0.68839979,-0.61975944,0
0.99046427,-3.1189404,-2.9534097,-0.37683421,-0.68839979,-0.61975944,0
-3.0682254,4.6432362,0.43410936,-0.76541996,0.60823447,-0.21019779,0
1.0448228,3.3851776,1.5458374,0.37683421,0.68839979,0.61975944,0
3.5441358,-0.089527369,-3.6464951,0.78309,0.1206013,-0.61010277,0
4.9145908,-0.71514928,3.2318137,0.74866366,-0.6203419,0.23383455,0
1.577616,1.7992896,-4.2486372,0.388639,0.48983911,-0.78039569,0
3.00702,-1.2188134,-4.7689013,0.77633107,0.1302581,-0.61671948,0
-3.3897195,0.12030131,4.0765238,-0.74389255,-0.17375952,0.64531511,0
-5.2514906,-0.89435208,1.049656,-0.88196039,0.062170386,0.46720505,0
2.3871019,5.1715198,-1.4531178,0.37683421,0.68839979,0.61975944,0
-2.5534692,-5.2187853,1.5878694,-0.37683421,-0.68839979,-0.61975944,0
-1.0602261,3.5298228,2.0503714,0.37683421,0.68839979,0.61975944,0
0.56259823,-3.3073721,3.8813488,0.081726223,-0.6911841,0.71804273,0
0.64984125,4.9990921,-0.1186682,0.37683421,0.68839979,0.61975944,0
2.6827159,-4.5718985,0.92975259,0.61244154,-0.68713284,0.39085028,0
4.3211942,2.0040112,0.77408159,0.37683421,0.68839979,0.61975944,0
-3.1133068,3.2606483,-2.5698321,-0.57267678,0.69903255,-0.42824626,0
-3.7266588,-1.8669286,2.9272065,-0.66434079,-0.26539212,0.69872618,0
-0.42561078,3.6329937,2.1628613,0.37683421,0.68839979,0.61975944,0
-4.2984633,2.5694122,-1.5675229,-0.7743392,0.60129982,-0.1970719,0
-1.4081753,-0.13451695,-4.4619942,-0.37683421,-0.68839979,-0.61975944,0
5.8048811,0.64192224,0.59778494,0.92575479,-0.30244213,-0.22695088,0
5.6148653,0.31041789,1.5771785,0.37683421,0.68839979,0.61975944,0
1.3237457,-5.4637127,1.1124717,0.43232766,-0.72244889,0.53959292,0
-4.1504083,-3.2314734,0.28558052,-0.37683421,-0.68839979,-0.61975944,0
2.1103959,-5.5415764,-1.0339552,-0.37683421,-0.68839979,-0.61975944,0
3.077225,-2.0505507,-4.7946558,0.82995337,0.046166852,-0.55591905,0
-3.7834375,3.1946325,0.75091833,-0.87161231,0.48998755,-0.014286124,0
-2.0883951,3.1067581,-3.3005919,-0.39846137,0.72448653,-0.56244808,0
3.092865,0.63452393,-4.0561905,0.67708057,0.25187814,-0.6914618,0
-0.30576277,3.1459932,-4.0243864,0.0032371581,0.66810095,-0.74406356,0
-1.3774984,-5.7828693,1.5198576,-0.025804371,-0.66102231,0.74992257,0
-2.8453,4.83462,1.0180197,-0.78266782,0.59448576,-0.18443912,0
-0.047577366,-3.905725,-1.5308653,-0.37683421,-0.68839979,-0.61975944,0
-3.8135297,-3.3242021,0.16027236,-0.37683421,-0.68839979,-0.61975944,0
-1.1932087,-2.684474,-2.2192693,-0.37683421,-0.68839979,-0.61975944,0
-5.391284,-2.6445601,0.52075171,-0.37683421,-0.68839979,-0.61975944,0
-0.80758375,4.4205303,0.90917146,0.37683421,0.68839979,0.61975944,0
0.28242397,-0.087812543,-5.950963,-0.37683421,-0.68839979,-0.61975944,0
3.8156922,-3.007596,-1.7332129,0.91889417,-0.36215436,-0.15645382,0
-1.9649637,4.4640808,-1.4347266,-0.54090297,0.70669508,-0.45607692,0
-1.3894124,2.4471216,-4.4528303,-0.17507365,0.70995712,-0.68213654,0
1.2555159,-0.45757702,-5.7381153,-0.37683421,-0.68839979,-0.61975944,0
1.4965595,-0.082817435,4.876411,0.37683421,0.68839979,0.61975944,0
-1.6404163,-1.1653931,-3.1459029,-0.37683421,-0.68839979,-0.61975944,0
4.7091336,1.1762593,-1.6115749,0.84911412,0.010635197,-0.5281024,0
0.39983082,-5.4588642,1.792913,0.2750769,-0.72206819,0.63478369,0
-0.2636224,5.8391323,-0.91030419,0.37683421,0.68839979,0.61975944,0
-2.4963322,-4.2017345,0.58119583,-0.37683421,-0.68839979,-0.61975944,0
-1.2577028,-0.90891421,5.4669118,-0.41491377,-0.47275722,0.77739775,0
-1.865711,5.1673784,1.2559779,0.37683421,0.68839979,0.61975944,0
-2.18678,-0.56814766,-3.4163148,-0.37683421,-0.68839979,-0.61975944,0
-4.4962873,-1.9807639,1.7962028,-0.78665817,-0.11541,0.60650605,0
1.2097123,1.2152998,-5.1941786,0.39821529,0.4836984,-0.77939755,0
-4.1126018,1.8128082,2.5116489,-0.91389167,0.1672471,0.36990601,0
0.43916714,-3.7997921,3.0075188,0.15505475,-0.70652342,0.69049466,0
-3.0619087,-1.8697023,-1.4413096,-0.37683421,-0.68839979,-0.61975944,0
-5.1797967,-1.9592075,-0.34814239,-0.37683421,-0.68839979,-0.61975944,0
3.2006338,-2.6255441,3.1875517,0.53231084,-0.70850831,0.46331525,0
4.3911285,1.3681935,-1.9967002,0.79808635,0.098316252,-0.59446788,0
3.9280205,-3.1292875,-0.70951915,0.86862159,-0.49500173,0.021674134,0
-3.6289539,-1.3941989,-1.8460665,-0.37683421,-0.68839979,-0.61975944,0
-1.1159741,-2.7592988,-1.6106794,-0.37683421,-0.68839979,-0.61975944,0
4.6464539,-0.65601689,-1.3286312,0.91769165,-0.18655613,-0.35076898,0
-0.23406339,-1.0558889,5.7374878,-0.22545882,-0.58079463,0.78220582,0
5.1824293,-0.64194643,2.1956635,0.85079086,-0.52180064,0.062282845,0
1.3639923,-5.5466614,-0.31705391,-0.37683421,-0.68839979,-0.61975944,0
1.9035194,4.8004584,-0.98112857,0.37683421,0.68839979,0.61975944,0
-5.1233721,-3.173969,0.7203629,-0.37683421,-0.68839979,-0.61975944,0
-4.6582117,-1.2340446,-1.2932308,-0.37683421,-0.68839979,-0.61975944,0
1.7808263,-4.0084991,-2.3392143,-0.37683421,-0.68839979,-0.61975944,0
-2.4053044,4.9537177,1.4462819,0.37683421,0.68839979,0.61975944,0
0.14882781,-3.9696698,-1.5524106,-0.37683421,-0.68839979,-0.61975944,0
0.23128593,5.4626346,-1.9285567,-0.16906932,0.70896167,-0.68468165,0
0.9339385,-1.5796436,5.4690604,0.009103775,-0.67180401,0.74067295,0
1.8829213,-1.0244669,-5.5861421,0.62708688,0.30283991,-0.71766984,0
3.9064708,-3.1881278,-1.1070217,0.88804138,-0.45875818,-0.030391313,0
0.77710491,2.9042785,-3.9506049,0.13121797,0.62266296,-0.77140963,0
-0.92388827,3.8784966,1.9685099,0.37683421,0.68839979,0.61975944,0
-5.9803658,-0.79485226,-0.95773447,-0.37683421,-0.68839979,-0.61975944,0
4.3631945,-2.3897061,-0.82680553,0.90784407,-0.40731335,-0.099574521,0
-4.4092941,2.3350692,0.2101814,-0.89558172,0.4416039,0.05403034,0
2.4558706,-1.6095643,-5.1494484,0.76801002,0.1418467,-0.62453198,0
1.8801436,-0.77143174,5.5801544,0.37683421,0.68839979,0.61975944,0
2.7229092,-5.2235751,-0.43911815,0.7440362,-0.62349039,0.24014539,0
-0.91025901,0.40849268,5.9201016,0.37683421,0.68839979,0.61975944,0
-4.7795863,-1.777983,-0.99775368,-0.37683421,-0.68839979,-0.61975944,0
1.6157227,2.2164135,-4.2100177,0.35704273,0.50942975,-0.78294438,0
-2.4127192,2.8013358,-3.4646266,-0.41315144,0.72375631,-0.55270493,0
-0.6802249,2.3781438,-4.4997149,0.003202498,0.66811156,-0.7440542,0
-2.7053282,-2.2162418,-1.832372,-0.37683421,-0.68839979,-0.61975944,0
-0.43481445,-2.8371279,4.0085106,-0.11980511,-0.62724102,0.76955533,0
1.2005758,-1.3866611,5.2856655,0.016189754,-0.67387658,0.73866665,0
-2.6294093,4.7631068,1.9212139,0.37683421,0.68839979,0.61975944,0
2.8349257,4.5551486,-2.3142216,0.34304723,0.51778775,-0.78371835,0
-3.6189029,1.1225505,-4.8661642,-0.44047284,0.72176898,-0.53388518,0
-0.65357256,4.227304,-2.779741,-0.1639019,0.70808125,-0.68684578,0
3.2117054,-4.1112719,-3.1322956,0.92238891,-0.34015036,-0.18301982,0
-1.5658619,5.3147736,0.92632592,0.37683421,0.68839979,0.61975944,0
-3.8029225,2.3789134,-2.587796,-0.66184914,0.66820699,-0.33978689,0
-2.3061965,4.9573183,1.3047688,0.37683421,0.68839979,0.61975944,0
2.5274074,-3.3130779,-3.5522919,-0.37683421,-0.68839979,-0.61975944,0
2.7832441,-1.0901412,-4.6182675,0.76280999,0.14893021,-0.62923831,0
-3.01402,-2.7944074,-0.85437548,-0.37683421,-0.68839979,-0.61975944,0
-1.0594956,3.7213006,-3.0508397,-0.24065983,0.71886957,-0.65215755,0
-3.896807,3.0410845,1.3138313,-0.90028214,0.4296068,0.070214182,0
-3.5948346,3.4537249,3.3198812,-0.92475832,0.24125244,0.29431164,0
-3.2470546,-1.5756642,-2.1028559,-0.37683421,-0.68839979,-0.61975944,0
0.41939044,3.137537,-3.8677082,0.059348583,0.64976519,-0.75781465,0
-4.0750556,-2.7076921,-0.2599684,-0.37683421,-0.68839979,-0.61975944,0
-2.4089494,-0.8628993,-3.3177788,-0.37683421,-0.68839979,-0.61975944,0
0.48634362,1.7536491,-4.7091103,0.20382485,0.59105831,-0.78045213,0
-2.1467218,-1.1149462,-3.1114249,-0.37683421,-0.68839979,-0.61975944,0
-2.9503846,1.8498703,4.8541894,-0.82521653,-0.054405689,0.56219018,0
-1.9247704,-1.9663111,-2.1174102,-0.37683421,-0.68839979,-0.61975944,0
-4.5985084,1.934602,0.94079757,-0.92334634,0.33238629,0.19222592,0
-1.6719556,-4.8055139,2.2830126,-0.17051615,-0.60609412,0.77690047,0
3.0813398,1.6935135,1.7177784,0.37683421,0.68839979,0.61975944,0
-1.7763529,-1.9250215,-2.5057721,-0.37683421,-0.68839979,-0.61975944,0
