-0.70998132,4.0419579,0.73623419,-0.98309207,0.089672446,-0.15965214,0
-1.3887968,2.2108998,3.1667106,-0.98309207,0.089672446,-0.15965214,0
-1.0799587,-4.3102856,-2.3793523,-0.98309207,0.089672446,-0.15965214,0
-0.045690536,-2.5781269,4.3175535,0.98309207,-0.089672446,0.15965214,0
1.272944,-2.4474216,-3.4676323,0.98309207,-0.089672446,0.15965214,0
1.5724351,2.2936354,-3.1314206,0.98309207,-0.089672446,0.15965214,0
-0.90305877,3.483078,1.1877797,-0.98309207,0.089672446,-0.15965214,0
-0.14414454,1.9268844,4.5065365,-0.10792637,0.42058414,0.9008112,0
-0.15418863,3.5560164,-2.4698582,-0.98309207,0.089672446,-0.15965214,0
-0.37878895,-0.68312037,-4.3847828,-0.98309207,0.089672446,-0.15965214,0
-0.22622561,-3.3779533,3.6675568,-0.17921335,-0.65013814,0.73837847,0
-1.1001252,-4.7557411,-0.52667618,-0.078847133,-0.99421704,-0.072908044,0
0.97451973,-3.5550537,-3.4056745,0.053866625,-0.691679,-0.72019345,0
1.0047483,1.9484532,0.86410117,0.98309207,-0.089672446,0.15965214,0
0.81392121,2.2208068,3.2631464,0.98309207,-0.089672446,0.15965214,0
-1.0641117,-2.5263982,3.9801264,-0.18295866,-0.51669431,0.836393,0
-0.37755466,1.0882516,-3.759639,-0.98309207,0.089672446,-0.15965214,0
-1.172384,1.9786792,2.4097638,-0.98309207,0.089672446,-0.15965214,0
1.3382962,3.323967,-3.6562474,0.18016827,0.6293996,-0.75590706,0
1.0383372,0.16955441,0.31212732,0.98309207,-0.089672446,0.15965214,0
-1.2299867,0.54707217,2.7019656,-0.98309207,0.089672446,-0.15965214,0
0.097584724,4.0940294,2.9864056,-0.018353701,0.81923717,0.57316124,0
1.3187332,2.4059844,0.098330259,0.98309207,-0.089672446,0.15965214,0
-1.2151217,-4.4796629,2.2410502,-0.15422073,-0.87553447,0.45788151,0
-1.18572,-3.7283988,-0.99700046,-0.98309207,0.089672446,-0.15965214,0
-1.2773585,-1.7134416,0.57443583,-0.98309207,0.089672446,-0.15965214,0
0.22662783,-1.6409431,3.939642,0.98309207,-0.089672446,0.15965214,0
1.893693,2.0110202,-4.0727873,0.98309207,-0.089672446,0.15965214,0
1.2349823,3.971983,2.0636578,0.98309207,-0.089672446,0.15965214,0
-0.56754744,0.70419657,-2.1080604,-0.98309207,0.089672446,-0.15965214,0
-1.6404788,-0.91234815,2.6461105,-0.98309207,0.089672446,-0.15965214,0
-0.3565855,5.023489,-0.21027851,0.090807378,0.99586844,0.00018799305,0
0.64823985,-1.1670183,2.1749482,0.98309207,-0.089672446,0.15965214,0
1.4348195,1.2792637,-2.7706306,0.98309207,-0.089672446,0.15965214,0
-0.1942029,1.8454902,-4.0422759,-0.98309207,0.089672446,-0.15965214,0
1.1288831,-1.1413987,-2.5701418,0.98309207,-0.089672446,0.15965214,0
-1.3297131,3.3252263,3.1878676,-0.98309207,0.089672446,-0.15965214,0
0.86524796,-1.0791324,1.0015366,0.98309207,-0.089672446,0.15965214,0
1.5636728,4.8997865,-0.21307182,0.98309207,-0.089672446,0.15965214,0
1.3035619,-2.3233004,-2.9945669,0.98309207,-0.089672446,0.15965214,0
1.7866817,2.1936264,-3.5535583,0.98309207,-0.089672446,0.15965214,0
-1.6325824,0.73196745,2.9815836,-0.98309207,0.089672446,-0.15965214,0
1.0890195,4.8166909,1.2751255,0.98309207,-0.089672446,0.15965214,0
1.3303608,-0.87759519,-1.7732947,0.98309207,-0.089672446,0.15965214,0
-0.90392244,-2.5115588,-1.4993746,-0.98309207,0.089672446,-0.15965214,0
1.3880446,2.5806429,-0.6886127,0.98309207,-0.089672446,0.15965214,0
0.72720003,-3.5086057,-3.7473528,0.060669839,-0.66312385,-0.7460469,0
1.7208278,2.7733095,-2.8228469,0.98309207,-0.089672446,0.15965214,0
-1.4721153,0.20097017,3.4186532,-0.98309207,0.089672446,-0.15965214,0
-1.4460031,-4.4290342,0.61954546,-0.98309207,0.089672446,-0.15965214,0
1.3224487,3.4473522,0.47923493,0.98309207,-0.089672446,0.15965214,0
0.98991215,0.31855571,1.051676,0.98309207,-0.089672446,0.15965214,0
-1.4813733,-4.9504261,-0.82175112,-0.98309207,0.089672446,-0.15965214,0
0.55852842,1.6610681,4.2251749,0.98309207,-0.089672446,0.15965214,0
-0.81330967,4.8417592,1.0091405,-0.98309207,0.089672446,-0.15965214,0
1.005215,-2.564646,-1.2980286,0.98309207,-0.089672446,0.15965214,0
-0.47218108,-3.7701268,-3.2821712,0.039178789,-0.74868393,-0.66176832,0
0.36260056,0.041004807,3.1702948,0.98309207,-0.089672446,0.15965214,0
-0.9753437,-0.13047004,0.21246922,-0.98309207,0.089672446,-0.15965214,0
-0.79399776,-3.4899206,-2.9819069,-0.98309207,0.089672446,-0.15965214,0
-0.95833021,0.095393419,0.66884601,-0.98309207,0.089672446,-0.15965214,0
-0.80802107,-0.97878999,-1.7152188,-0.98309207,0.089672446,-0.15965214,0
0.41023231,4.2867274,2.4327445,0.0071869493,0.8901068,0.45569524,0
1.6000723,4.3747077,-0.84039021,0.98309207,-0.089672446,0.15965214,0
0.91683853,4.2572713,2.0599983,0.017340124,0.91355515,0.40634501,0
-0.46975493,1.3554535,-2.2307072,-0.98309207,0.089672446,-0.15965214,0
0.29619789,3.1250589,-3.9863729,0.17992574,0.63499612,-0.75127012,0
-0.22050321,5.0052304,-0.88042784,0.11139494,0.98486817,-0.13276291,0
-1.19697,-2.3237448,0.1989572,-0.98309207,0.089672446,-0.15965214,0
-1.1021392,2.4966578,1.7546064,-0.98309207,0.089672446,-0.15965214,0
-0.93943721,1.6077042,-0.59775186,-0.98309207,0.089672446,-0.15965214,0
-0.31923103,1.5352517,-3.4262707,-0.98309207,0.089672446,-0.15965214,0
1.2350779,-1.5752957,-4.5883904,0.12835073,-0.28438619,-0.9500792,0
0.59636259,1.4662571,3.0490987,0.98309207,-0.089672446,0.15965214,0
0.91484094,-3.9014335,-1.3581383,0.98309207,-0.089672446,0.15965214,0
0.80151999,-2.1114683,-0.88114023,0.98309207,-0.089672446,0.15965214,0
0.78699541,4.2971668,2.2934039,0.0033291578,0.88049179,0.4740496,0
0.24851298,-1.9492755,2.8726683,0.98309207,-0.089672446,0.15965214,0
0.92882538,2.5187559,2.4615457,0.98309207,-0.089672446,0.15965214,0
0.14331055,4.8251696,-1.7153153,0.13252252,0.95010275,-0.28238726,0
0.22572553,-4.0528612,2.1600194,0.98309207,-0.089672446,0.15965214,0
-0.28231597,1.6408095,-2.4499471,-0.98309207,0.089672446,-0.15965214,0
0.1304338,-3.0208178,3.454247,0.98309207,-0.089672446,0.15965214,0
-1.1259251,-1.4930407,-0.17588449,-0.98309207,0.089672446,-0.15965214,0
0.66659844,-2.418519,-0.20749354,0.98309207,-0.089672446,0.15965214,0
1.5800662,-0.22677994,-4.417594,0.98309207,-0.089672446,0.15965214,0
-1.5316458,1.4205198,3.7001865,-0.98309207,0.089672446,-0.15965214,0
-1.425736,-0.86167359,1.306828,-0.98309207,0.089672446,-0.15965214,0
1.5808852,1.268507,-3.6481361,0.98309207,-0.089672446,0.15965214,0
1.5573792,0.40175295,-4.8532515,0.16521072,0.058382183,-0.98452872,0
-1.1652818,3.187573,3.905314,-0.065958381,0.63993847,0.76559007,0
-1.8184605,-4.2829304,1.6932297,-0.98309207,0.089672446,-0.15965214,0
1.8478756,0.076477051,-4.3567462,0.98309207,-0.089672446,0.15965214,0
-0.36023545,-3.841198,3.3104596,-0.17425913,-0.72597712,0.66527516,0
1.6729305,2.0266905,-2.5650108,0.98309207,-0.089672446,0.15965214,0
-1.4091033,-2.4773514,1.6504803,-0.98309207,0.089672446,-0.15965214,0
1.1941718,0.67916226,0.48926821,0.98309207,-0.089672446,0.15965214,0
-1.6638441,1.1786346,3.422585,-0.98309207,0.089672446,-0.15965214,0
0.67394447,4.766685,-1.6667399,0.14029497,0.92916524,-0.34200799,0
-1.0119258,-0.0052852631,1.0160258,-0.98309207,0.089672446,-0.15965214,0
1.0726943,-3.467546,-3.5545838,0.055390537,-0.68540412,-0.72605306,0
-0.91848153,3.0131485,0.20978475,-0.98309207,0.089672446,-0.15965214,0
1.3452888,-2.7447114,-3.03738,0.98309207,-0.089672446,0.15965214,0
-0.59141922,0.84071755,4.9911528,-0.14722073,0.13138476,0.98033875,0
-1.2252617,-4.5061731,-0.7109077,-0.98309207,0.089672446,-0.15965214,0
-1.0413287,2.5969598,1.7540706,-0.98309207,0.089672446,-0.15965214,0
1.4789023,-0.091341019,-3.984982,0.98309207,-0.089672446,0.15965214,0
0.5953238,0.38088873,3.0619771,0.98309207,-0.089672446,0.15965214,0
-0.0055301189,4.5704055,-2.2518253,0.15271285,0.88260138,-0.44462758,0
-1.4888772,-4.2766132,0.29227972,-0.98309207,0.089672446,-0.15965214,0
-0.97314703,-2.9229839,-1.9462435,-0.98309207,0.089672446,-0.15965214,0
-0.95745945,4.2966104,1.7455378,-0.98309207,0.089672446,-0.15965214,0
0.45584607,-0.79062325,3.108259,0.98309207,-0.089672446,0.15965214,0
0.80801284,1.8521916,1.8779554,0.98309207,-0.089672446,0.15965214,0
0.60395098,-0.63055396,2.7745676,0.98309207,-0.089672446,0.15965214,0
-0.72549391,0.85964203,-0.69539583,-0.98309207,0.089672446,-0.15965214,0
-0.96645474,-3.7313874,-3.1876981,-0.98309207,0.089672446,-0.15965214,0
0.77033758,3.8068578,2.6609735,0.98309207,-0.089672446,0.15965214,0
1.744662,0.91046154,-3.1559403,0.98309207,-0.089672446,0.15965214,0
1.5735985,2.2170744,-1.668987,0.98309207,-0.089672446,0.15965214,0
1.7676406,4.0734,-1.6735229,0.98309207,-0.089672446,0.15965214,0
0.79028141,-0.41531131,2.2333753,0.98309207,-0.089672446,0.15965214,0
0.37700748,-1.8594871,3.9643264,0.98309207,-0.089672446,0.15965214,0
-1.8176155,0.49040771,4.7273664,-0.98309207,0.089672446,-0.15965214,0
0.69359624,-4.3886728,-0.61808443,0.98309207,-0.089672446,0.15965214,0
0.12080097,-0.66541123,4.8214307,0.98309207,-0.089672446,0.15965214,0
-1.347928,-0.75716507,1.7652211,-0.98309207,0.089672446,-0.15965214,0
-0.94078755,0.55865258,-0.026363134,-0.98309207,0.089672446,-0.15965214,0
0.68328184,-3.2878106,-0.075800419,0.98309207,-0.089672446,0.15965214,0
1.0508254,-1.5526637,-1.7643422,0.98309207,-0.089672446,0.15965214,0
1.7540078,0.93921947,-4.7951035,0.17603517,0.22278269,-0.95884275,0
1.1098485,-0.6247201,-4.9364371,0.14496613,-0.15152133,-0.9777658,0
-0.82974911,-3.385376,-3.1354928,-0.98309207,0.089672446,-0.15965214,0
-0.21191454,4.1473589,-2.5702505,-0.98309207,0.089672446,-0.15965214,0
1.5529985,3.0749421,-1.5966909,0.98309207,-0.089672446,0.15965214,0
1.7542791,2.5113263,-3.321861,0.98309207,-0.089672446,0.15965214,0
0.89922988,-4.0357814,-1.3272436,0.98309207,-0.089672446,0.15965214,0
-0.85477859,0.38190711,-0.83655483,-0.98309207,0.089672446,-0.15965214,0
0.91608143,-3.2231152,-1.7388644,0.98309207,-0.089672446,0.15965214,0
-0.67008996,0.017193794,-0.95240974,-0.98309207,0.089672446,-0.15965214,0
-0.33460546,-3.3791809,-3.5823395,0.057589114,-0.67622876,-0.73443735,0
1.4393151,2.4413102,-2.0373018,0.98309207,-0.089672446,0.15965214,0
-1.2219108,-0.08410275,0.19830568,-0.98309207,0.089672446,-0.15965214,0
-0.2299614,2.6653852,4.4685326,-0.096797585,0.48560464,0.86880291,0
1.0204401,0.92055607,-0.13077652,0.98309207,-0.089672446,0.15965214,0
1.1996846,4.5067329,0.88652825,0.98309207,-0.089672446,0.15965214,0
-1.896198,-3.3896694,2.7131886,-0.98309207,0.089672446,-0.15965214,0
1.8316274,4.4197173,-1.9586711,0.98309207,-0.089672446,0.15965214,0
0.70468664,3.6929021,-3.5780425,0.17455518,0.72234929,-0.66913521,0
-0.53737378,3.2720015,-0.42466331,-0.98309207,0.089672446,-0.15965214,0
0.51173592,-1.7045385,1.9736381,0.98309207,-0.089672446,0.15965214,0
1.0932271,-1.0014982,-0.29458845,0.98309207,-0.089672446,0.15965214,0
1.4771032,-2.1058829,-4.2457538,0.10766327,-0.42218828,-0.90009207,0
0.022886276,4.1183343,-2.8774962,0.16125962,0.8370313,-0.52285159,0
1.0012836,-0.97450614,-1.5542371,0.98309207,-0.089672446,0.15965214,0
-0.44764662,3.3887563,-1.7475195,-0.98309207,0.089672446,-0.15965214,0
1.108247,3.8383629,2.6644554,0.98309207,-0.089672446,0.15965214,0
-0.46960831,1.3801503,-2.3791351,-0.98309207,0.089672446,-0.15965214,0
-1.3069121,-1.5963688,1.1980749,-0.98309207,0.089672446,-0.15965214,0
0.69185209,-0.43919557,2.3235564,0.98309207,-0.089672446,0.15965214,0
-1.1644838,-2.4096959,-0.48794901,-0.98309207,0.089672446,-0.15965214,0
-1.5579826,-4.1334872,0.69528389,-0.98309207,0.089672446,-0.15965214,0
1.2902002,0.027558684,-2.6402838,0.98309207,-0.089672446,0.15965214,0
0.082576632,-4.3131509,2.1033478,0.98309207,-0.089672446,0.15965214,0
0.80071616,4.6049037,2.3274312,0.012786329,0.90337241,0.42866626,0
-0.83789527,-4.7005148,-1.7633851,-0.029203743,-0.93750507,-0.346744,0
1.0335312,0.80690163,0.72159433,0.98309207,-0.089672446,0.15965214,0
-1.139201,-1.2075589,0.61440849,-0.98309207,0.089672446,-0.15965214,0
-0.40576279,4.8454475,1.0146227,0.049432963,0.96947932,0.2401377,0
-1.1235571,3.0846643,2.8671212,-0.98309207,0.089672446,-0.15965214,0
0.45102608,-1.5724889,1.5300331,0.98309207,-0.089672446,0.15965214,0
-0.3815043,4.3461595,2.6073935,-0.003359437,0.86290365,0.50535727,0
-0.71034706,0.72938383,-1.0522683,-0.98309207,0.089672446,-0.15965214,0
-0.95517063,1.582886,1.2442408,-0.98309207,0.089672446,-0.15965214,0
0.88156652,-1.175431,-0.61964005,0.98309207,-0.089672446,0.15965214,0
-0.82523251,0.47451794,-0.98123205,-0.98309207,0.089672446,-0.15965214,0
-1.5732789,-4.3989291,0.42939758,-0.98309207,0.089672446,-0.15965214,0
0.30293512,0.32202172,4.494555,0.98309207,-0.089672446,0.15965214,0
0.09022522,-1.6997468,4.7128744,0.98309207,-0.089672446,0.15965214,0
-0.30124152,3.4380012,-1.4741125,-0.98309207,0.089672446,-0.15965214,0
-0.73685932,0.25521046,-0.540537,-0.98309207,0.089672446,-0.15965214,0
0.50258517,-1.771391,2.7233996,0.98309207,-0.089672446,0.15965214,0
0.72088373,-4.4441338,-0.40420437,0.98309207,-0.089672446,0.15965214,0
-0.58342004,3.8147292,3.2355886,-0.043806911,0.73138857,0.68055248,0
-1.3348243,0.49292445,1.1860533,-0.98309207,0.089672446,-0.15965214,0
1.4611826,0.15052032,-2.0074446,0.98309207,-0.089672446,0.15965214,0
-1.4841714,-1.1816175,2.9922104,-0.98309207,0.089672446,-0.15965214,0
-1.0898104,-4.6042104,-1.6654031,-0.037554651,-0.95208734,-0.30351198,0
-0.1585803,-2.5292106,-4.4607139,0.091119289,-0.51670039,-0.85130376,0
-1.3668246,-3.8596706,-0.27052808,-0.98309207,0.089672446,-0.15965214,0
0.84164369,3.5592496,1.9602855,0.98309207,-0.089672446,0.15965214,0
0.88005918,0.16278207,0.75028694,0.98309207,-0.089672446,0.15965214,0
-0.44987953,4.3130808,-1.7813706,-0.98309207,0.089672446,-0.15965214,0
0.96055305,-0.51344669,1.1692114,0.98309207,-0.089672446,0.15965214,0
-1.1977239,1.9471865,1.0510188,-0.98309207,0.089672446,-0.15965214,0
-0.66322595,1.3433468,-0.55683601,-0.98309207,0.089672446,-0.15965214,0
1.5995913,4.451622,-2.0180731,0.98309207,-0.089672446,0.15965214,0
-1.2887205,-2.0177689,0.1849221,-0.98309207,0.089672446,-0.15965214,0
-0.45786399,2.7733312,-1.4690959,-0.98309207,0.089672446,-0.15965214,0
-1.1572881,0.70884192,0.48410162,-0.98309207,0.089672446,-0.15965214,0
1.2465513,0.098269224,-0.35851237,0.98309207,-0.089672446,0.15965214,0
1.1637387,0.51800317,-0.36604834,0.98309207,-0.089672446,0.15965214,0
0.79291558,-3.9953375,-3.1992474,0.03935051,-0.74805319,-0.66247112,0
-1.4132755,0.81332994,3.6362493,-0.98309207,0.089672446,-0.15965214,0
-0.23143911,4.2318168,-2.9132996,-0.98309207,0.089672446,-0.15965214,0
0.74113417,-2.6923175,1.2356753,0.98309207,-0.089672446,0.15965214,0
1.5877805,-2.0943854,-4.2879853,0.98309207,-0.089672446,0.15965214,0
0.082261205,4.7726927,-1.2886219,0.13141957,0.95266271,-0.27415788,0
0.93761504,1.1602676,2.0443344,0.98309207,-0.089672446,0.15965214,0
1.4422141,3.4179449,0.5429914,0.98309207,-0.089672446,0.15965214,0
0.99950206,-3.3153324,-1.0240185,0.98309207,-0.089672446,0.15965214,0
-1.1892216,0.95210886,2.1512909,-0.98309207,0.089672446,-0.15965214,0
0.024889946,-0.64496034,5.1866517,-0.1686542,-0.1038602,0.98018825,0
-0.84702015,-3.1142988,-2.5033765,-0.98309207,0.089672446,-0.15965214,0
-1.1619384,2.1868846,1.2415656,-0.98309207,0.089672446,-0.15965214,0
1.4686916,0.71922612,-2.9259801,0.98309207,-0.089672446,0.15965214,0
0.64630127,-1.5118438,0.98776996,0.98309207,-0.089672446,0.15965214,0
0.81217444,2.443676,2.0200367,0.98309207,-0.089672446,0.15965214,0
1.0232424,-0.95225286,-1.0360087,0.98309207,-0.089672446,0.15965214,0
0.12775898,-0.35152793,-4.8997111,0.1538868,-0.067939281,-0.98575008,0
0.98007584,4.8723683,-1.4388762,0.13386831,0.94684809,-0.29250252,0
0.99990511,-2.2761164,-1.841367,0.98309207,-0.089672446,0.15965214,0
1.3895434,0.52825308,-1.2507491,0.98309207,-0.089672446,0.15965214,0
-1.7202454,-0.72657192,2.9626751,-0.98309207,0.089672446,-0.15965214,0
0.97937202,-0.58722246,1.0176653,0.98309207,-0.089672446,0.15965214,0
0.62740749,-3.4268787,1.3647828,0.98309207,-0.089672446,0.15965214,0
-0.10255003,0.16265613,-4.7325549,-0.98309207,0.089672446,-0.15965214,0
0.72737741,2.3930821,3.5475287,0.98309207,-0.089672446,0.15965214,0
0.91381121,-2.1210041,-1.1102288,0.98309207,-0.089672446,0.15965214,0
-1.069409,0.58572614,1.4789445,-0.98309207,0.089672446,-0.15965214,0
-1.4279115,-4.1659713,0.2896781,-0.98309207,0.089672446,-0.15965214,0
-1.0031474,-4.7072883,1.2704234,-0.13253036,-0.95008409,0.28244615,0
1.3667996,4.6996026,0.86943769,0.98309207,-0.089672446,0.15965214,0
-0.53709662,2.765255,-2.1294646,-0.98309207,0.089672446,-0.15965214,0
-0.67540115,2.8170035,0.1636827,-0.98309207,0.089672446,-0.15965214,0
-1.2518424,-2.1982591,1.3400018,-0.98309207,0.089672446,-0.15965214,0
1.8924719,3.9397068,-1.9404235,0.98309207,-0.089672446,0.15965214,0
-0.062863111,-3.6370006,3.377799,0.98309207,-0.089672446,0.15965214,0
-0.071358681,3.7471199,-3.6737947,-0.98309207,0.089672446,-0.15965214,0
1.3028996,-0.044552445,-0.9217003,0.98309207,-0.089672446,0.15965214,0
1.2432246,5.0592318,0.066170692,0.095442101,0.99501741,-0.028829336,0
0.51396585,-1.0290635,3.2755017,0.98309207,-0.089672446,0.15965214,0
0.68397719,-3.002341,-0.015906096,0.98309207,-0.089672446,0.15965214,0
-0.37811112,3.2373424,-2.8325076,-0.98309207,0.089672446,-0.15965214,0
1.4680562,-2.4212792,-4.0994544,0.98309207,-0.089672446,0.15965214,0
-1.0853348,-4.4793096,-1.4630382,-0.98309207,0.089672446,-0.15965214,0
0.56472576,-3.3333061,1.6764846,0.98309207,-0.089672446,0.15965214,0
0.85585952,0.97916603,2.4884753,0.98309207,-0.089672446,0.15965214,0
-1.1931624,0.60354853,4.8727922,-0.14636624,0.13908717,0.97940373,0
-1.3776248,0.66643667,2.5128174,-0.98309207,0.089672446,-0.15965214,0
0.46015328,-4.817522,-0.50441885,0.98309207,-0.089672446,0.15965214,0
1.6352339,-2.5974636,-4.1385555,0.98309207,-0.089672446,0.15965214,0
0.45492822,-5.0106354,1.3904567,0.98309207,-0.089672446,0.15965214,0
1.8677721,3.149394,-3.4342926,0.98309207,-0.089672446,0.15965214,0
-0.13473558,3.1899836,-3.5787096,-0.98309207,0.089672446,-0.15965214,0
-1.7990885,0.55515933,4.890553,-0.98309207,0.089672446,-0.15965214,0
-0.54774475,-2.3015623,4.5253019,-0.18296546,-0.44618085,0.87604028,0
1.5789342,-0.70273995,-3.7268693,0.98309207,-0.089672446,0.15965214,0
-0.14515281,1.654433,-3.3939097,-0.98309207,0.089672446,-0.15965214,0
0.49632263,1.0648816,2.872756,0.98309207,-0.089672446,0.15965214,0
-1.4134016,2.3181369,4.2777376,-0.98309207,0.089672446,-0.15965214,0
0.67523003,-0.5338425,0.97312862,0.98309207,-0.089672446,0.15965214,0
0.85286248,-2.1968238,-0.32233357,0.98309207,-0.089672446,0.15965214,0
-0.2269733,4.7676163,1.7027605,0.02895692,0.9370451,0.34800565,0
-0.13427448,-0.73047692,-4.9106021,0.14512575,-0.15011609,-0.97795892,0
0.66498661,2.1321256,4.0782785,0.98309207,-0.089672446,0.15965214,0
1.7298796,3.2749474,-1.9609449,0.98309207,-0.089672446,0.15965214,0
-0.81433868,3.1016583,1.6457567,-0.98309207,0.089672446,-0.15965214,0
-0.23343563,3.513787,3.5712886,-0.051007032,0.7032671,0.70909357,0
-0.45232654,-1.0777919,-3.8122559,-0.98309207,0.089672446,-0.15965214,0
-0.90343142,-3.6770806,-2.2195933,-0.98309207,0.089672446,-0.15965214,0
-1.1738826,0.45703876,0.14702243,-0.98309207,0.089672446,-0.15965214,0
-0.86443949,-3.1123691,-2.703064,-0.98309207,0.089672446,-0.15965214,0
-0.85833514,2.5265064,-0.19215274,-0.98309207,0.089672446,-0.15965214,0
-0.069211245,-3.5719838,3.8491049,-0.17676675,-0.69228292,0.69964135,0
-0.96792758,1.5946014,-0.37532115,-0.98309207,0.089672446,-0.15965214,0
1.0577662,-3.4881105,-2.3956165,0.98309207,-0.089672446,0.15965214,0
0.43857622,-0.38863468,-5.0802188,0.15289223,-0.077816278,-0.9851743,0
-1.48596,-0.38605833,3.4762435,-0.98309207,0.089672446,-0.15965214,0
-1.7205782,-0.81916666,4.1365376,-0.98309207,0.089672446,-0.15965214,0
-0.4554038,-2.584743,-4.1074133,-0.98309207,0.089672446,-0.15965214,0
-1.0639881,1.8013531,1.1380363,-0.98309207,0.089672446,-0.15965214,0
-0.32310367,3.5188448,-2.1731739,-0.98309207,0.089672446,-0.15965214,0
1.6014609,3.9798951,-1.2081447,0.98309207,-0.089672446,0.15965214,0
-0.33014107,3.0900838,3.7440472,-0.063164949,0.65229475,0.75532889,0
0.79170972,0.1475991,1.2555515,0.98309207,-0.089672446,0.15965214,0
1.093088,-0.95821643,-1.8412688,0.98309207,-0.089672446,0.15965214,0
-1.4689138,-0.56251562,2.9835699,-0.98309207,0.089672446,-0.15965214,0
-1.3880112,1.4238636,2.7314854,-0.98309207,0.089672446,-0.15965214,0
-0.92566407,-4.4499874,-2.0997279,-0.98309207,0.089672446,-0.15965214,0
0.42216361,-4.3191795,2.2474737,0.98309207,-0.089672446,0.15965214,0
-1.2550511,-4.503089,-1.4156258,-0.98309207,0.089672446,-0.15965214,0
-1.5883174,0.9977262,3.9737051,-0.98309207,0.089672446,-0.15965214,0
0.98997068,-2.6626246,-1.8203248,0.98309207,-0.089672446,0.15965214,0
1.5282674,3.7245793,-1.809629,0.98309207,-0.089672446,0.15965214,0
-1.3620358,2.1725161,4.0094414,-0.98309207,0.089672446,-0.15965214,0
0.69187379,2.5253432,3.1026094,0.98309207,-0.089672446,0.15965214,0
0.37794924,-0.45915151,-5.0733981,0.15295351,-0.077213585,-0.98521233,0
1.1408838,-0.76690173,-0.76260924,0.98309207,-0.089672446,0.15965214,0
1.227289,-2.7820189,-3.4758167,0.98309207,-0.089672446,0.15965214,0
-1.1033057,-0.27059066,0.079452887,-0.98309207,0.089672446,-0.15965214,0
1.1097472,1.9556625,1.2083462,0.98309207,-0.089672446,0.15965214,0
1.3534541,-1.6858809,-4.7400217,0.1202656,-0.34126574,-0.93224132,0
-0.96024823,-0.9213891,0.14767444,-0.98309207,0.089672446,-0.15965214,0
1.7059021,0.62813878,-3.1404505,0.98309207,-0.089672446,0.15965214,0
0.69334424,-3.1984024,-0.43428946,0.98309207,-0.089672446,0.15965214,0
-0.65284777,4.5500717,-0.56876898,-0.98309207,0.089672446,-0.15965214,0
-1.5583532,-2.5430005,2.4793067,-0.98309207,0.089672446,-0.15965214,0
-1.9182267,-0.97332096,4.4453254,-0.98309207,0.089672446,-0.15965214,0
0.56036729,-3.5234315,-0.26241183,0.98309207,-0.089672446,0.15965214,0
0.8351174,-3.0124831,-0.21490097,0.98309207,-0.089672446,0.15965214,0
0.3414979,4.9148798,0.60236406,0.072792038,0.99141473,0.10861969,0
-0.66678214,-0.61430317,-1.252661,-0.98309207,0.089672446,-0.15965214,0
0.53071618,-3.5647638,2.0800271,0.98309207,-0.089672446,0.15965214,0
0.31691086,-3.7441139,1.668282,0.98309207,-0.089672446,0.15965214,0
0.35603452,-2.2140999,2.0616078,0.98309207,-0.089672446,0.15965214,0
1.1932901,1.3792943,-1.3973576,0.98309207,-0.089672446,0.15965214,0
0.81455421,-1.9113685,-4.5259275,0.11050606,-0.40467384,-0.90775967,0
-1.0324407,-1.7307999,4.6080875,-0.18198258,-0.38178274,0.90615904,0
-0.61995506,-0.75947964,-1.6970241,-0.98309207,0.089672446,-0.15965214,0
1.3241942,2.5321364,-1.1527984,0.98309207,-0.089672446,0.15965214,0
0.1068821,-2.3852072,4.2269802,0.98309207,-0.089672446,0.15965214,0
-0.77372617,2.788722,-0.95994043,-0.98309207,0.089672446,-0.15965214,0
1.7972853,2.2639966,-2.7199454,0.98309207,-0.089672446,0.15965214,0
-1.8829744,-4.2229538,1.895083,-0.15236336,-0.88418829,0.44158405,0
0.01730442,-0.079503298,-4.909327,0.15857315,-0.019078076,-0.98716289,0
-0.87355947,2.773232,1.3572429,-0.98309207,0.089672446,-0.15965214,0
0.085380077,-2.9057326,-4.1761751,0.082710683,-0.56040895,-0.8240757,0
-0.75982666,-1.8175876,-2.5548873,-0.98309207,0.089672446,-0.15965214,0
0.90634996,1.7780597,0.77330512,0.98309207,-0.089672446,0.15965214,0
-1.3348429,1.6234725,2.392226,-0.98309207,0.089672446,-0.15965214,0
-0.4365387,-0.31558216,-4.5520511,-0.98309207,0.089672446,-0.15965214,0
-0.58102822,-1.190869,-2.4448495,-0.98309207,0.089672446,-0.15965214,0
-1.6657195,-0.053885937,4.0586457,-0.98309207,0.089672446,-0.15965214,0
1.3820705,2.6885555,-4.0624504,0.18232638,0.56004417,-0.80815071,0
1.1106131,-2.4309702,-2.9951456,0.98309207,-0.089672446,0.15965214,0
-1.7363174,-0.03413105,3.2936537,-0.98309207,0.089672446,-0.15965214,0
-0.9154222,4.2801118,2.1266429,-0.98309207,0.089672446,-0.15965214,0
0.78117478,-5.1827917,-0.59061241,-0.06967321,-0.98948586,-0.12674117,0
0.75447977,-2.8241127,0.9905355,0.98309207,-0.089672446,0.15965214,0
0.74098301,-2.7067339,0.44355464,0.98309207,-0.089672446,0.15965214,0
1.9029107,2.3682394,-4.0647335,0.18303388,0.45578435,-0.87106788,0
-0.70326036,2.7685266,-0.3980186,-0.98309207,0.089672446,-0.15965214,0
0.3904376,1.1921246,4.5354838,0.98309207,-0.089672446,0.15965214,0
0.62129903,1.5551341,3.5054941,0.98309207,-0.089672446,0.15965214,0
1.2403939,2.1251755,-0.38538599,0.98309207,-0.089672446,0.15965214,0
0.68271756,1.6192689,3.2772691,0.98309207,-0.089672446,0.15965214,0
0.62822437,1.1583704,4.076818,0.98309207,-0.089672446,0.15965214,0
-0.34913445,-0.064544439,-4.7672391,-0.98309207,0.089672446,-0.15965214,0
-0.22917604,-1.382498,-4.7236986,0.12385929,-0.31651315,-0.94046712,0
-0.74210197,1.8174406,-1.3254471,-0.98309207,0.089672446,-0.15965214,0
-1.3339415,-1.5632259,-0.0068662167,-0.98309207,0.089672446,-0.15965214,0
-1.149462,1.0022957,2.2207923,-0.98309207,0.089672446,-0.15965214,0
0.25686884,3.4614866,-3.8518157,0.17740756,0.68236428,-0.70915842,0
-2.0727196,-2.5554724,3.8190205,-0.98309207,0.089672446,-0.15965214,0
-0.77117372,0.17295206,-1.7040099,-0.98309207,0.089672446,-0.15965214,0
-1.6099174,-2.5842719,3.3576813,-0.98309207,0.089672446,-0.15965214,0
1.7996693,-0.93739605,-4.763001,0.14755285,-0.12836641,-0.98068869,0
-0.73678219,4.5638361,1.2852156,-0.98309207,0.089672446,-0.15965214,0
-0.75881565,3.4003935,1.3817937,-0.98309207,0.089672446,-0.15965214,0
1.2350205,3.9151132,1.6433339,0.98309207,-0.089672446,0.15965214,0
-0.70718384,-3.161088,-3.0582604,-0.98309207,0.089672446,-0.15965214,0
0.7131772,1.57797,3.3132892,0.98309207,-0.089672446,0.15965214,0
0.91931289,-1.1775672,0.25612342,0.98309207,-0.089672446,0.15965214,0
-0.49356401,5.050374,1.1181173,0.044769436,0.96312934,0.26528758,0
0.14042711,0.052586198,-4.9566765,0.16163409,0.015244961,-0.98673302,0
-0.42857838,-2.7425022,4.1719055,-0.1825766,-0.54664677,0.81721669,0
-0.21135378,-0.76258504,-4.4630919,-0.98309207,0.089672446,-0.15965214,0
1.4312708,-1.5274861,-3.3424935,0.98309207,-0.089672446,0.15965214,0
1.0512614,0.69780421,0.75235987,0.98309207,-0.089672446,0.15965214,0
1.1496216,1.5755334,-0.76659036,0.98309207,-0.089672446,0.15965214,0
1.4426998,4.4900603,-0.31997299,0.98309207,-0.089672446,0.15965214,0
-0.52115488,-3.3453405,-3.7695553,0.062071562,-0.6570639,-0.75127494,0
-0.66244328,-4.2894588,2.2421713,-0.15761077,-0.85822296,0.48847967,0
-1.8199234,-1.2232118,4.0469141,-0.98309207,0.089672446,-0.15965214,0
1.3302895,4.5079784,1.7668285,0.98309207,-0.089672446,0.15965214,0
1.0314624,1.6616797,0.73188871,0.98309207,-0.089672446,0.15965214,0
-0.39042187,-3.0277944,3.8648744,-0.18054289,-0.62021625,0.76337147,0
-1.7836812,-1.2,3.6054449,-0.98309207,0.089672446,-0.15965214,0
0.94230199,3.2189984,3.0171127,0.98309207,-0.089672446,0.15965214,0
-1.7044325,-1.6823977,2.5988846,-0.98309207,0.089672446,-0.15965214,0
-1.4759884,-3.7159617,3.2896132,-0.17440569,-0.72419095,0.66718072,0
1.2979938,4.8668137,0.55973482,0.98309207,-0.089672446,0.15965214,0
-0.4663564,0.81246305,-2.0327578,-0.98309207,0.089672446,-0.15965214,0
1.2137049,3.1848712,0.17033386,0.98309207,-0.089672446,0.15965214,0
-0.40161079,2.3405221,-1.3849411,-0.98309207,0.089672446,-0.15965214,0
-1.2570326,2.9928751,3.4041495,-0.98309207,0.089672446,-0.15965214,0
0.73537982,5.0044246,0.23588991,0.076718301,0.99337626,0.085544646,0
-0.41561836,3.7610219,-1.3352609,-0.98309207,0.089672446,-0.15965214,0
-0.39958954,2.5865054,-2.143029,-0.98309207,0.089672446,-0.15965214,0
0.36139011,-2.4874661,2.7818847,0.98309207,-0.089672446,0.15965214,0
-0.21280098,3.7283275,-1.9339814,-0.98309207,0.089672446,-0.15965214,0
1.3850207,-0.09828198,-1.4863079,0.98309207,-0.089672446,0.15965214,0
1.1945366,3.1025953,1.6569947,0.98309207,-0.089672446,0.15965214,0
-1.0024929,-2.3996372,-1.2842239,-0.98309207,0.089672446,-0.15965214,0
0.97039014,1.0657738,1.4478748,0.98309207,-0.089672446,0.15965214,0
-0.79012871,0.46817109,-1.5306032,-0.98309207,0.089672446,-0.15965214,0
-1.6300559,-1.0567108,2.5218751,-0.98309207,0.089672446,-0.15965214,0
1.3714266,-1.1192105,-4.86766,0.14384365,-0.16132769,-0.97636175,0
-1.3196869,-3.3771632,1.076848,-0.98309207,0.089672446,-0.15965214,0
-1.011389,0.88222384,0.84193492,-0.98309207,0.089672446,-0.15965214,0
0.51480079,-4.5232921,0.18538523,0.98309207,-0.089672446,0.15965214,0
0.099422455,-1.1882619,4.1511035,0.98309207,-0.089672446,0.15965214,0
-1.2012361,-1.2681463,-0.60225725,-0.98309207,0.089672446,-0.15965214,0
1.5934942,-1.4256513,-3.21473,0.98309207,-0.089672446,0.15965214,0
-0.54512316,2.7041183,-1.1671474,-0.98309207,0.089672446,-0.15965214,0
-1.1483037,1.9542291,2.9211509,-0.98309207,0.089672446,-0.15965214,0
-1.1114621,-3.6283641,-1.9440093,-0.98309207,0.089672446,-0.15965214,0
1.6651218,1.7375579,-2.2892451,0.98309207,-0.089672446,0.15965214,0
-1.4869227,-1.6710923,2.4642344,-0.98309207,0.089672446,-0.15965214,0
0.39919901,-3.8429656,-3.1736243,0.033150733,-0.77031624,-0.63679975,0
-0.61320341,1.5749134,-2.4757645,-0.98309207,0.089672446,-0.15965214,0
-1.1500506,-1.9818364,0.91131258,-0.98309207,0.089672446,-0.15965214,0
0.23369622,-3.5271096,3.1466913,0.98309207,-0.089672446,0.15965214,0
-0.59111059,3.5214436,-1.4735198,-0.98309207,0.089672446,-0.15965214,0
1.2291466,4.7862539,0.96107197,0.98309207,-0.089672446,0.15965214,0
-0.5481087,0.43270564,-1.9908929,-0.98309207,0.089672446,-0.15965214,0
0.45103431,-0.16308895,3.2862897,0.98309207,-0.089672446,0.15965214,0
1.692451,0.26167274,-4.3045483,0.98309207,-0.089672446,0.15965214,0
0.50864643,-1.5433217,1.2567058,0.98309207,-0.089672446,0.15965214,0
-0.080658913,2.9534121,4.1536455,-0.071736157,0.61358345,0.78636467,0
1.8179746,1.0489146,-3.5432816,0.98309207,-0.089672446,0.15965214,0
1.3607337,3.7409067,-0.89995193,0.98309207,-0.089672446,0.15965214,0
0.69637632,0.023923039,1.5723242,0.98309207,-0.089672446,0.15965214,0
-0.71056026,2.3775403,0.29998279,-0.98309207,0.089672446,-0.15965214,0
-0.91575825,0.5383215,-1.1259863,-0.98309207,0.089672446,-0.15965214,0
-0.68299651,-4.871201,-0.76327705,-0.062981561,-0.98427707,-0.16502082,0
-0.41712356,-0.027706057,-3.1114352,-0.98309207,0.089672446,-0.15965214,0
1.5614038,2.7898622,-4.1797504,0.18255872,0.5477038,-0.81651264,0
-0.55344152,-0.64294612,4.7486143,-0.17004561,-0.12363523,0.97764969,0
-0.28213763,1.8148251,-2.9663863,-0.98309207,0.089672446,-0.15965214,0
0.0017590523,1.2590322,-4.7645211,-0.98309207,0.089672446,-0.15965214,0
0.19359303,4.893405,-1.8409495,0.14234346,0.92271203,-0.3582468,0
1.1883082,-0.16047239,-0.65446794,0.98309207,-0.089672446,0.15965214,0
-0.23105478,1.2244718,4.9333625,-0.13367426,0.2444185,0.96041173,0
-0.76066113,0.96294558,-1.986068,-0.98309207,0.089672446,-0.15965214,0
0.95516443,-2.2348065,-4.4700441,0.10024559,-0.46605846,-0.87905657,0
-1.6697431,0.79504275,4.5047693,-0.98309207,0.089672446,-0.15965214,0
0.16827965,1.7822932,-4.5684948,0.18191773,0.37887985,-0.9073897,0
-1.4498487,1.2073145,2.8099127,-0.98309207,0.089672446,-0.15965214,0
-1.2547696,-3.9662647,-0.43028021,-0.98309207,0.089672446,-0.15965214,0
-0.6860652,3.5527635,-1.2446465,-0.98309207,0.089672446,-0.15965214,0
-0.93779707,-3.4756465,-3.0724292,-0.98309207,0.089672446,-0.15965214,0
0.280056,0.73570329,4.7953086,0.98309207,-0.089672446,0.15965214,0
0.85626316,-3.7944789,-3.0641685,0.031066656,-0.77756315,-0.62803692,0
-0.94123435,-2.4039094,-2.8332577,-0.98309207,0.089672446,-0.15965214,0
-1.5259362,-3.9365044,0.66863394,-0.98309207,0.089672446,-0.15965214,0
-0.45312774,3.3905125,-2.1804099,-0.98309207,0.089672446,-0.15965214,0
-0.020785332,2.1230865,-3.7005975,-0.98309207,0.089672446,-0.15965214,0
-0.16050291,0.90782523,-4.5158043,-0.98309207,0.089672446,-0.15965214,0
0.49023056,0.44212583,2.3960683,0.98309207,-0.089672446,0.15965214,0
1.4604974,3.1342216,-1.9918761,0.98309207,-0.089672446,0.15965214,0
0.28034019,-3.7978461,3.6135182,-0.17612046,-0.70167625,0.69038546,0
-0.92242277,0.64673185,0.30890048,-0.98309207,0.089672446,-0.15965214,0
0.0061769485,2.3695598,-4.352807,-0.98309207,0.089672446,-0.15965214,0
-0.40288448,0.0045101643,-4.7177334,-0.98309207,0.089672446,-0.15965214,0
0.3528688,-1.4040096,3.803648,0.98309207,-0.089672446,0.15965214,0
-1.046973,1.2231169,1.9400964,-0.98309207,0.089672446,-0.15965214,0
-0.012671709,4.2897897,-2.803719,0.15839347,0.85391748,-0.495718,0
-1.3224564,1.2072871,2.0277972,-0.98309207,0.089672446,-0.15965214,0
-1.2499282,-0.30821943,0.84376943,-0.98309207,0.089672446,-0.15965214,0
0.035347462,-0.82906389,4.8663535,0.98309207,-0.089672446,0.15965214,0
-0.93507648,2.3823736,1.0516903,-0.98309207,0.089672446,-0.15965214,0
-1.2805026,-1.9368531,-0.49151349,-0.98309207,0.089672446,-0.15965214,0
-1.4084642,1.6568038,2.3787267,-0.98309207,0.089672446,-0.15965214,0
-1.5129137,0.52380133,2.9944851,-0.98309207,0.089672446,-0.15965214,0
0.26691866,0.36559474,3.7587221,0.98309207,-0.089672446,0.15965214,0
-0.87508535,1.7968742,4.6763458,-0.11670136,0.36504224,0.92364764,0
1.2154242,0.98664868,-1.2646935,0.98309207,-0.089672446,0.15965214,0
-1.1193343,-1.5343083,-0.82471681,-0.98309207,0.089672446,-0.15965214,0
1.6641943,3.9669313,-2.6466079,0.16386747,0.81992364,-0.54851854,0
-0.9201473,-1.6120074,-2.3436599,-0.98309207,0.089672446,-0.15965214,0
0.010058165,2.6083667,-3.7658405,-0.98309207,0.089672446,-0.15965214,0
0.85104632,-3.1650286,-0.75910234,0.98309207,-0.089672446,0.15965214,0
-1.018474,1.8948491,1.0130808,-0.98309207,0.089672446,-0.15965214,0
-1.0003664,-4.2938766,2.1263447,-0.15627369,-0.86529922,0.47627264,0
1.3444879,-0.5472312,-2.4552567,0.98309207,-0.089672446,0.15965214,0
-0.93379301,0.044802368,-0.10231537,-0.98309207,0.089672446,-0.15965214,0
1.6361303,1.6692133,-3.4125736,0.98309207,-0.089672446,0.15965214,0
-0.35775304,4.2387381,2.5464988,-0.0018730164,0.86691296,0.49845606,0
-0.96066386,1.5664191,-0.28662646,-0.98309207,0.089672446,-0.15965214,0
-0.38960934,-0.50769353,-3.9119956,-0.98309207,0.089672446,-0.15965214,0
-0.80147147,-2.9698234,-3.9880574,-0.98309207,0.089672446,-0.15965214,0
0.90965873,4.9798899,0.51316214,0.078004129,0.9939031,0.077922642,0
-1.6990409,-2.2220771,2.9447706,-0.98309207,0.089672446,-0.15965214,0
1.3348796,-1.9667754,-1.891938,0.98309207,-0.089672446,0.15965214,0
-0.76765847,3.8522015,1.6946824,-0.98309207,0.089672446,-0.15965214,0
-1.63673,0.054565668,3.3497491,-0.98309207,0.089672446,-0.15965214,0
0.19572163,-1.6385497,4.9175334,0.98309207,-0.089672446,0.15965214,0
0.47702336,-2.3686025,2.5931816,0.98309207,-0.089672446,0.15965214,0
0.56616706,-2.4476964,1.294503,0.98309207,-0.089672446,0.15965214,0
-1.1583507,-0.014257073,1.2468981,-0.98309207,0.089672446,-0.15965214,0
1.2434874,-1.8105692,-3.6620536,0.98309207,-0.089672446,0.15965214,0
1.1338665,0.75927567,0.77301633,0.98309207,-0.089672446,0.15965214,0
-1.6308782,-2.9166484,2.8319242,-0.98309207,0.089672446,-0.15965214,0
1.3239068,0.37121427,-1.3121297,0.98309207,-0.089672446,0.15965214,0
0.65452695,2.935487,3.6248698,0.98309207,-0.089672446,0.15965214,0
0.24407864,3.8980474,3.4403665,-0.034018993,0.76726234,0.64043051,0
-1.5059689,-4.7471237,0.90274191,-0.11874978,-0.97589773,0.18309045,0
1.5713282,-1.6251056,-4.0815692,0.98309207,-0.089672446,0.15965214,0
-0.067049503,-2.6661725,-4.4825516,0.091947734,-0.51224554,-0.85390294,0
-0.87243879,1.4687309,0.093050003,-0.98309207,0.089672446,-0.15965214,0
1.7396312,1.838917,-3.1760616,0.98309207,-0.089672446,0.15965214,0
0.2447145,4.2647552,2.6633992,0.0020890236,0.87731868,0.47990367,0
-1.4941149,1.8734624,4.3857889,-0.11670327,0.36502904,0.92365265,0
-0.31357527,0.36034974,-4.2283721,-0.98309207,0.089672446,-0.15965214,0
-0.56752896,3.0124598,-0.60580182,-0.98309207,0.089672446,-0.15965214,0
0.79623979,-4.434967,0.079730511,0.98309207,-0.089672446,0.15965214,0
0.10913873,-2.0074332,3.5196397,0.98309207,-0.089672446,0.15965214,0
-0.41408369,4.7145882,-0.08268404,-0.98309207,0.089672446,-0.15965214,0
-1.0143416,-1.0492698,0.26454419,-0.98309207,0.089672446,-0.15965214,0
1.531641,-0.1889286,-2.513078,0.98309207,-0.089672446,0.15965214,0
-0.32392454,2.02685,-3.7860718,-0.98309207,0.089672446,-0.15965214,0
-1.1066463,3.2816882,3.1704268,-0.98309207,0.089672446,-0.15965214,0
-0.40036261,3.8465054,-0.92229128,-0.98309207,0.089672446,-0.15965214,0
0.47571325,0.67589343,4.741838,0.98309207,-0.089672446,0.15965214,0
0.95135516,-1.9311404,0.27994514,0.98309207,-0.089672446,0.15965214,0
-1.5937842,-3.7202234,1.7391019,-0.98309207,0.089672446,-0.15965214,0
-1.6646709,-0.16466784,4.9036379,-0.16374779,-0.040295035,0.98567891,0
-1.5066919,-3.9685624,0.61600447,-0.98309207,0.089672446,-0.15965214,0
1.1236198,0.2966724,-0.27043277,0.98309207,-0.089672446,0.15965214,0
-0.46820271,1.2113069,-1.4585598,-0.98309207,0.089672446,-0.15965214,0
1.524719,3.6867909,-0.0022015572,0.98309207,-0.089672446,0.15965214,0
-1.4447427,0.46069932,4.1073756,-0.98309207,0.089672446,-0.15965214,0
1.5211997,-0.2997551,-4.2420335,0.98309207,-0.089672446,0.15965214,0
0.53579426,1.4766052,2.5967696,0.98309207,-0.089672446,0.15965214,0
-0.19343328,1.5089706,-4.296144,-0.98309207,0.089672446,-0.15965214,0
-1.633543,0.0069785118,4.2772093,-0.98309207,0.089672446,-0.15965214,0
-1.0954392,-0.22874326,-0.12261218,-0.98309207,0.089672446,-0.15965214,0
-0.29952139,4.3546548,-1.4899206,-0.98309207,0.089672446,-0.15965214,0
1.0318141,1.6067206,1.5420481,0.98309207,-0.089672446,0.15965214,0
-0.82569814,3.1187596,0.99026561,-0.98309207,0.089672446,-0.15965214,0
1.396513,0.94786572,-4.6549039,0.17459142,0.19616547,-0.96490264,0
1.3358946,4.1188345,-0.078108311,0.98309207,-0.089672446,0.15965214,0
-1.4123554,-1.5518303,0.8405664,-0.98309207,0.089672446,-0.15965214,0
1.2026048,2.6323521,-4.1398497,0.18276006,0.53453803,-0.82514721,0
-1.5577774,-0.11321425,4.7142034,-0.16091311,-0.0069659948,0.98694408,0
0.39919612,-4.4465027,0.96532917,0.98309207,-0.089672446,0.15965214,0
-1.4878798,-0.40303922,1.7520289,-0.98309207,0.089672446,-0.15965214,0
-0.5278306,0.42216212,-2.9582224,-0.98309207,0.089672446,-0.15965214,0
0.67825848,-3.2826114,0.42289901,0.98309207,-0.089672446,0.15965214,0
0.68571079,-2.9304943,0.79741073,0.98309207,-0.089672446,0.15965214,0
-0.67214912,1.7450763,-0.17879295,-0.98309207,0.089672446,-0.15965214,0
0.58679688,-3.8338299,1.0879283,0.98309207,-0.089672446,0.15965214,0
-0.92972589,-4.1718245,-2.3146954,-0.006367743,-0.88809752,-0.459611,0
1.5149879,3.7411311,-0.1305387,0.98309207,-0.089672446,0.15965214,0
0.40833712,2.3499479,-4.4817467,0.18310308,0.47285873,-0.86190361,0
0.88512671,-0.23790795,1.2990324,0.98309207,-0.089672446,0.15965214,0
-1.7306247,-1.7219638,3.3738799,-0.98309207,0.089672446,-0.15965214,0
0.99115527,1.6636398,0.69205761,0.98309207,-0.089672446,0.15965214,0
2.0365248,1.5261638,-4.6248941,0.18038201,0.32427007,-0.92860705,0
-0.84072793,-4.8263168,-0.48996115,-0.080122091,-0.99464399,-0.065297008,0
-0.59557223,-4.353694,2.4972253,-0.15951273,-0.84754086,0.50619161,0
1.9201694,1.5645356,-3.9448884,0.98309207,-0.089672446,0.15965214,0
0.16835356,1.96909,4.7868013,-0.11701763,0.36296093,0.92442751,0
0.31707752,-2.2970979,1.7696009,0.98309207,-0.089672446,0.15965214,0
-0.88934636,3.7668779,0.63200712,-0.98309207,0.089672446,-0.15965214,0
0.92550504,-1.4958318,-1.2074283,0.98309207,-0.089672446,0.15965214,0
1.1866997,0.018933892,0.099986285,0.98309207,-0.089672446,0.15965214,0
0.82084155,0.27179366,2.4549723,0.98309207,-0.089672446,0.15965214,0
-0.38973927,0.80799824,-3.0623112,-0.98309207,0.089672446,-0.15965214,0
-1.2368387,1.2469485,1.5670868,-0.98309207,0.089672446,-0.15965214,0
-0.047583222,4.6821384,1.3216851,0.038409531,0.95347178,0.29902548,0
0.97004318,-2.5372043,-2.0451915,0.98309207,-0.089672446,0.15965214,0
1.3176804,1.5911002,0.24586141,0.98309207,-0.089672446,0.15965214,0
-0.88116109,-3.9736059,-2.1583033,-0.98309207,0.089672446,-0.15965214,0
0.87552285,0.67388189,1.6429218,0.98309207,-0.089672446,0.15965214,0
-1.1201448,0.54951262,2.1314926,-0.98309207,0.089672446,-0.15965214,0
1.2308135,-0.0063649416,-1.1642395,0.98309207,-0.089672446,0.15965214,0
-1.3958168,-4.5451603,1.4392676,-0.1364094,-0.94029474,0.3118304,0
-1.6213927,1.020432,4.4089646,-0.98309207,0.089672446,-0.15965214,0
-0.10485148,2.7298265,-3.3297505,-0.98309207,0.089672446,-0.15965214,0
-1.3792243,2.8750463,3.5840561,-0.98309207,0.089672446,-0.15965214,0
-1.1598051,-2.3499537,-0.39679348,-0.98309207,0.089672446,-0.15965214,0
-0.40617561,1.3487407,4.7737226,-0.1337055,0.24417862,0.96046847,0
-0.065856934,-0.38439262,-5.0895133,-0.98309207,0.089672446,-0.15965214,0
-0.77403957,3.2754402,-0.39036584,-0.98309207,0.089672446,-0.15965214,0
1.0168171,4.928966,-0.39858103,0.10084752,0.99288535,-0.063312173,0
0.0090330839,4.855051,-1.3051362,0.12417635,0.96725368,-0.22136092,0
-1.6604778,-3.9117839,2.2640796,-0.98309207,0.089672446,-0.15965214,0
0.78587341,3.4359021,3.2539575,0.98309207,-0.089672446,0.15965214,0
-0.81027138,1.2153111,-0.21761417,-0.98309207,0.089672446,-0.15965214,0
-0.61992705,2.6703343,-2.1150055,-0.98309207,0.089672446,-0.15965214,0
0.84462869,-1.3501426,0.81266749,0.98309207,-0.089672446,0.15965214,0
-0.78536439,-3.0013828,-3.9077344,0.061289847,-0.66045094,-0.74836361,0
1.0931183,2.0513926,-0.043319106,0.98309207,-0.089672446,0.15965214,0
0.71319473,-1.6747497,2.108479,0.98309207,-0.089672446,0.15965214,0
1.0267577,-2.487432,-4.396935,0.098766148,-0.47450837,-0.87469256,0
-1.2537136,0.71652603,4.6589136,-0.14490676,0.15204367,0.9776935,0
1.1020436,-1.1619105,-4.8557248,0.13615835,-0.22499716,-0.96479899,0
-0.9413774,-0.9005717,-0.38672438,-0.98309207,0.089672446,-0.15965214,0
-0.90399575,3.8208473,2.2182517,-0.98309207,0.089672446,-0.15965214,0
1.0710588,0.17586982,-0.9907431,0.98309207,-0.089672446,0.15965214,0
-0.31956053,0.79214895,4.7330089,-0.14576507,0.14445499,0.97871614,0
-0.63140917,2.7693601,4.2302656,-0.083726168,0.55527174,0.82744384,0
-0.39262342,2.3204222,4.5519257,-0.098763525,0.47452286,0.87468493,0
1.59041,1.510828,-2.1826756,0.98309207,-0.089672446,0.15965214,0
1.5346761,-0.063527584,-4.1841073,0.98309207,-0.089672446,0.15965214,0
1.7030768,0.083732128,-3.9219122,0.98309207,-0.089672446,0.15965214,0
-1.4466798,-0.86199653,2.9805329,-0.98309207,0.089672446,-0.15965214,0
-0.69162321,4.616313,-0.44854021,-0.98309207,0.089672446,-0.15965214,0
0.49025011,0.48428467,4.2544913,0.98309207,-0.089672446,0.15965214,0
-1.2197194,1.3613613,0.77148855,-0.98309207,0.089672446,-0.15965214,0
1.2587271,-1.8684113,-3.7485962,0.98309207,-0.089672446,0.15965214,0
0.7297616,-0.2479834,0.66647828,0.98309207,-0.089672446,0.15965214,0
-0.075499296,3.5254135,-3.4366632,-0.98309207,0.089672446,-0.15965214,0
-1.5326041,-1.6460428,1.8873324,-0.98309207,0.089672446,-0.15965214,0
0.24915075,-0.85402012,5.2118444,-0.17087781,-0.13592428,0.9758715,0
-0.6966455,4.04321,2.6119199,-0.01343441,0.83421189,0.55128032,0
-0.76277196,0.49880564,-2.3269019,-0.98309207,0.089672446,-0.15965214,0
0.72937667,0.76440084,1.8248054,0.98309207,-0.089672446,0.15965214,0
-0.90097404,1.0200665,-0.53873062,-0.98309207,0.089672446,-0.15965214,0
-1.2673558,-4.0796766,-1.5334003,-0.98309207,0.089672446,-0.15965214,0
-1.0732937,1.9865568,1.6799507,-0.98309207,0.089672446,-0.15965214,0
0.16164303,0.14587986,4.4809585,0.98309207,-0.089672446,0.15965214,0
-1.7340207,0.30376458,4.7219853,-0.98309207,0.089672446,-0.15965214,0
-1.9741209,-2.7797129,3.4703991,-0.98309207,0.089672446,-0.15965214,0
-1.4267304,1.0323811,2.2136714,-0.98309207,0.089672446,-0.15965214,0
0.41904306,-0.86484951,3.4979248,0.98309207,-0.089672446,0.15965214,0
-1.0587469,-1.7846551,-1.9738874,-0.98309207,0.089672446,-0.15965214,0
-1.0725337,-3.4477205,-1.0942845,-0.98309207,0.089672446,-0.15965214,0
1.0675133,3.0418611,1.1852062,0.98309207,-0.089672446,0.15965214,0
0.42724371,2.6606119,4.0924373,0.98309207,-0.089672446,0.15965214,0
2.0495057,1.5408183,-4.3291159,0.98309207,-0.089672446,0.15965214,0
0.66670704,-3.3954115,-3.8141155,0.066655815,-0.63681489,-0.76813,0
-0.49666774,2.8179245,-1.9891126,-0.98309207,0.089672446,-0.15965214,0
1.2796969,4.3261471,-2.6110234,0.16065001,0.84077978,-0.51699221,0
1.3769956,1.0518789,-2.2791471,0.98309207,-0.089672446,0.15965214,0
1.0845213,-4.0802202,-2.8970721,0.027613521,-0.78931123,-0.61337215,0
1.8684568,-0.055039167,-4.512105,0.98309207,-0.089672446,0.15965214,0
-0.98257911,-1.1694369,-1.955767,-0.98309207,0.089672446,-0.15965214,0
0.95512652,0.58432329,1.2338784,0.98309207,-0.089672446,0.15965214,0
-0.96447754,1.1898715,-0.61108327,-0.98309207,0.089672446,-0.15965214,0
-1.1435771,2.5197287,3.1092789,-0.98309207,0.089672446,-0.15965214,0
-1.6040767,-3.2319412,0.88498282,-0.98309207,0.089672446,-0.15965214,0
-0.59912872,-3.0231757,-3.9546344,-0.98309207,0.089672446,-0.15965214,0
-0.9446578,3.1445298,2.0428882,-0.98309207,0.089672446,-0.15965214,0
1.3299093,-0.90847826,-2.2889733,0.98309207,-0.089672446,0.15965214,0
1.0679328,1.5482377,1.6261241,0.98309207,-0.089672446,0.15965214,0
-1.0334271,-1.7377796,-1.9084728,-0.98309207,0.089672446,-0.15965214,0
1.2539022,-3.0001864,-3.407851,0.98309207,-0.089672446,0.15965214,0
-0.086090565,2.7059247,-3.7149801,-0.98309207,0.089672446,-0.15965214,0
-0.86860907,3.0840228,0.81925774,-0.98309207,0.089672446,-0.15965214,0
1.7089723,2.7084608,-2.0084109,0.98309207,-0.089672446,0.15965214,0
0.83985662,2.013593,2.9632692,0.98309207,-0.089672446,0.15965214,0
1.0131098,0.36404276,0.90207177,0.98309207,-0.089672446,0.15965214,0
-1.3208009,0.99330842,1.5004877,-0.98309207,0.089672446,-0.15965214,0
0.51505041,1.3668253,4.4415469,0.98309207,-0.089672446,0.15965214,0
-0.068353176,4.2880602,-3.0852509,0.16311428,0.82505333,-0.54099953,0
0.78722453,-5.105741,-0.28120327,0.98309207,-0.089672446,0.15965214,0
1.5713913,-1.0437269,-3.0433903,0.98309207,-0.089672446,0.15965214,0
-1.0539756,2.9979661,3.095166,-0.98309207,0.089672446,-0.15965214,0
-1.5604892,1.0742495,4.5870624,-0.98309207,0.089672446,-0.15965214,0
-1.2155637,-2.8734086,-0.49544525,-0.98309207,0.089672446,-0.15965214,0
0.92702436,1.9296538,2.1624169,0.98309207,-0.089672446,0.15965214,0
0.59207809,4.5725012,1.5836616,0.03715083,0.95142627,0.30562735,0
0.70328569,-4.634059,0.49070263,0.98309207,-0.089672446,0.15965214,0
0.31768745,-4.2729263,1.1763253,0.98309207,-0.089672446,0.15965214,0
-1.2012984,-0.48623353,0.44275326,-0.98309207,0.089672446,-0.15965214,0
-1.4503679,-3.9902291,1.4881105,-0.98309207,0.089672446,-0.15965214,0
1.6318569,-1.4727383,-3.4392672,0.98309207,-0.089672446,0.15965214,0
-1.3770818,-2.4773474,1.6213627,-0.98309207,0.089672446,-0.15965214,0
-0.72674155,1.6773913,-1.6796257,-0.98309207,0.089672446,-0.15965214,0
1.2048942,2.7583444,-0.42649198,0.98309207,-0.089672446,0.15965214,0
-1.0562804,-2.1821568,-1.7567172,-0.98309207,0.089672446,-0.15965214,0
-0.63769674,2.3776674,4.4962263,-0.095595121,0.49230099,0.86515969,0
-1.8442788,-1.4544754,3.0578268,-0.98309207,0.089672446,-0.15965214,0
1.8875589,0.90425754,-4.6502242,0.98309207,-0.089672446,0.15965214,0
0.9721334,3.3216381,2.8617356,0.98309207,-0.089672446,0.15965214,0
-0.49069023,0.99514842,-3.5429487,-0.98309207,0.089672446,-0.15965214,0
-0.48511636,2.3148081,-1.9297495,-0.98309207,0.089672446,-0.15965214,0
-0.24773693,-1.7629077,-4.49331,-0.98309207,0.089672446,-0.15965214,0
0.80698705,-2.0056102,1.0706868,0.98309207,-0.089672446,0.15965214,0
-1.4988768,1.6296089,3.5033364,-0.98309207,0.089672446,-0.15965214,0
-0.40954816,4.1482491,-1.3462963,-0.98309207,0.089672446,-0.15965214,0
1.0812222,-0.45944536,-1.5710168,0.98309207,-0.089672446,0.15965214,0
-0.31710339,0.48109668,-2.939852,-0.98309207,0.089672446,-0.15965214,0
0.019272804,-3.3255825,-3.4883358,0.050952852,-0.70348448,-0.70888186,0
-1.4325418,-1.1400993,2.7215958,-0.98309207,0.089672446,-0.15965214,0
-1.1901091,-3.7334363,-0.12445188,-0.98309207,0.089672446,-0.15965214,0
-0.5564841,3.7387381,-0.73088408,-0.98309207,0.089672446,-0.15965214,0
-1.5236371,0.77538705,2.6017268,-0.98309207,0.089672446,-0.15965214,0
-0.43778467,2.148895,-2.6592419,-0.98309207,0.089672446,-0.15965214,0
-0.34930086,3.7916679,3.3329864,-0.034779012,0.76457185,0.64359945,0
1.2116561,1.4449581,-4.6026292,0.17988992,0.31012562,-0.93352109,0
-0.35362113,-4.9484043,1.6433296,-0.13951886,-0.93150115,0.33591664,0
1.39065,-1.4601254,-2.2672143,0.98309207,-0.089672446,0.15965214,0
-1.4444778,-2.3170145,2.5096278,-0.98309207,0.089672446,-0.15965214,0
0.29695082,0.43746895,4.4226189,0.98309207,-0.089672446,0.15965214,0
