0.601924,-1.2352592,-0.24514896,0.43123746,-0.88497883,-0.17563249,0
-0.90327239,0.61458486,-0.85802895,-0.65021849,0.44240743,-0.61765009,0
0.26297879,-1.4936041,-0.49955213,0.16469781,-0.93541121,-0.31285846,0
-0.68127817,1.0794967,-0.59680301,-0.48347679,0.7660771,-0.42352802,0
-1.375713,0.4478277,-0.42800984,-0.91182268,0.29682022,-0.28368497,0
-0.97370106,0.37867153,0.89378679,-0.70819944,0.27541816,0.65007561,0
-1.3983951,0.68768376,0.25226817,-0.88583106,0.43562201,0.15980247,0
-0.50207037,1.1530472,0.47297475,-0.37367168,0.85816872,0.35201693,0
-1.3968823,-0.42314804,0.08233387,-0.9555338,-0.28945333,0.056320276,0
0.64573842,0.38933179,-1.0166893,0.51014811,0.30758101,-0.80320776,0
-0.3457382,-0.83997363,-0.91668218,-0.26790974,-0.6508888,-0.71032959,0
0.84536403,0.8460682,0.10116221,0.70429754,0.70488417,0.084281199,0
0.081094667,1.3847661,0.027354404,0.058450472,0.99809563,0.01971619,0
-0.81389588,0.98043263,0.24200161,-0.62751621,0.75591654,0.18658398,0
-0.31026855,-0.34902698,-1.4317486,-0.20602368,-0.23175995,-0.95070583,0
-0.78663713,-0.78391707,-0.57194829,-0.62972319,-0.62754571,-0.45785928,0
-1.0384938,-0.48701066,-0.423724,-0.84928924,-0.39828154,-0.34652516,0
-0.99355865,-0.60678327,-0.90722698,-0.67316908,-0.41111585,-0.61467648,0
-1.1912507,0.22470751,0.054342475,-0.98168433,0.18517669,0.044782478,0
-0.13006859,-1.1914947,0.12225557,-0.10795937,-0.98896295,0.10147442,0
0.31591845,-0.7039212,1.0188358,0.24719362,-0.55079031,0.79719847,0
-1.0086522,-0.29957643,1.017169,-0.68921745,-0.20470217,0.69503701,0
0.72716767,0.012820069,1.178894,0.52496195,0.0092551531,0.85107541,0
0.5213998,-0.35325792,1.1940379,0.38623527,-0.26168147,0.88450277,0
0.1244413,-1.2282952,-0.33559003,0.097266816,-0.96006995,-0.26230657,0
-0.30218899,0.1850156,1.4076434,-0.20818309,0.12746038,0.96974933,0
-0.1773206,0.25831974,1.2765403,-0.13490301,0.19652602,0.97117388,0
-0.26207194,1.0156376,0.75004226,-0.20323807,0.78763199,0.58166146,0
-1.3486766,-0.088369057,0.62629199,-0.90538061,-0.059323065,0.42043632,0
-0.35644123,0.14672372,-1.1824872,-0.28659144,0.11797109,-0.95076185,0
0.51948833,0.83079225,1.0256833,0.36622664,0.58568835,0.72308177,0
-1.0680394,0.54151589,-0.10667141,-0.88839132,0.45043093,-0.08872889,0
0.36157644,1.2966827,-0.074789494,0.26818654,0.96176857,-0.055472463,0
1.094932,-0.10275749,1.0423819,0.72260612,-0.067815349,0.68792546,0
0.41297325,-1.4672389,0.10468044,0.27029878,-0.96033549,0.068515323,0
0.56721812,1.1423784,-0.51730311,0.41211459,0.82999963,-0.37584865,0
0.48417214,-0.3441276,-1.1770523,0.36722955,-0.26101011,-0.89275765,0
-0.24478889,-0.074176364,-1.5348246,-0.15732017,-0.047671437,-0.98639637,0
0.36070055,-0.37760431,-1.0981212,0.29663837,-0.31053993,-0.90308952,0
0.93402839,-0.56927651,-0.2005683,0.83989644,-0.51190448,-0.18035491,0
-0.53114319,-0.73165804,-0.76421303,-0.44866437,-0.61804217,-0.64554185,0
-0.40638798,0.68804687,-1.197358,-0.28230742,0.47796869,-0.83177423,0
-1.0958682,-0.79590738,0.020759463,-0.8090229,-0.58757728,0.015325639,0
0.48355329,1.4208534,0.14840174,0.32061586,0.94208467,0.098396502,0
0.93495059,-0.79668891,-0.21889785,0.74933761,-0.63852465,-0.17544071,0
1.2069163,-0.34951952,0.21486968,0.94678891,-0.27418736,0.16855869,0
1.4346429,-0.043369591,0.18491027,0.99135035,-0.029968753,0.12777455,0
0.64043176,0.90489209,-0.84365201,0.45971656,0.64955223,-0.60559273,0
-0.11649787,-0.69559717,-1.2559978,-0.08087483,-0.48289555,-0.87193531,0
0.068706676,-1.0299494,-0.69398081,0.05523777,-0.8280434,-0.55793637,0
-0.23276529,-0.65014005,1.3660676,-0.1520659,-0.42473742,0.89245397,0
0.70972443,-0.51403219,1.1853511,0.48146018,-0.34870723,0.80411404,0
1.2274942,-0.78640437,0.29583848,0.82519907,-0.52867067,0.1988813,0
-0.71676528,1.0755274,-0.32983172,-0.53734386,0.80630034,-0.24726792,0
-0.60885054,-0.62644565,0.85667527,-0.49761802,-0.51199865,0.700167,0
-0.0036762962,1.2247161,0.082620375,-0.0029949334,0.99772781,0.067307554,0
-0.017992131,-1.3631942,-0.77482867,-0.01147374,-0.86932087,-0.494115,0
1.1136372,-0.020998465,-0.1661492,0.98888093,-0.018646091,-0.14753617,0
0.72259092,-0.38702053,-0.86139119,0.60768777,-0.32547829,-0.72441667,0
-1.0903599,-0.2963123,0.41664213,-0.90540838,-0.24605054,0.3459695,0
-1.0250129,-0.29013613,-0.33396196,-0.91813678,-0.25988421,-0.29914042,0
0.7296409,-0.93122172,0.61901069,0.546471,-0.69744676,0.46361354,0
-0.54291475,-0.39937058,-1.2749377,-0.37646902,-0.27693233,-0.88406986,0
1.1386585,-0.12159079,0.17915191,0.98239726,-0.10490455,0.15456639,0
-0.22799125,1.1744369,-0.75247502,-0.16131498,0.83097166,-0.53241295,0
-0.64117593,1.356666,0.29364657,-0.41934004,0.88728279,0.19204989,0
0.12004657,-0.90663034,-1.0456916,0.086414531,-0.65263033,-0.75273246,0
0.64975619,-1.1923835,0.32072756,0.46567899,-0.85457891,0.22986481,0
0.7065661,-0.59714997,-0.62601352,0.63254994,-0.53459567,-0.56043559,0
-0.16204272,1.3166538,0.69622946,-0.10815906,0.87883019,0.46471402,0
0.78899556,0.19254331,-0.93896121,0.63553596,0.15509365,-0.75633329,0
1.0486404,-0.9254815,-0.57948256,0.69266433,-0.61131346,-0.38276887,0
0.30651101,-0.71719438,-0.9439199,0.2503235,-0.58572316,-0.7708869,0
0.81926107,-0.75658113,0.62305927,0.64133948,-0.59227198,0.48774746,0
1.0182228,-0.386262,-0.39683494,0.87847906,-0.33325031,-0.34237221,0
-1.1867527,-0.80181003,-0.22900575,-0.81821185,-0.55281144,-0.15788902,0
0.6368944,0.92139453,-0.54814786,0.51073152,0.73887485,-0.43956485,0
-0.062916167,1.4610354,0.21756668,-0.042554483,0.98819757,0.14715514,0
0.72644109,-0.54500884,-0.98275316,0.5428834,-0.40729558,-0.73443031,0
0.70321983,1.2164441,0.32246512,0.48780185,0.84380966,0.22368409,0
-1.250425,-0.62582749,0.32123119,-0.87154835,-0.43620282,0.22389869,0
-0.71933311,0.88042021,0.60194707,-0.55916697,0.68438655,0.46791801,0
-0.96154106,0.95821673,-0.35008079,-0.68588883,0.68351752,-0.24972048,0
0.90630001,-0.34490362,1.1669523,0.59732187,-0.22731818,0.76911187,0
-0.22954325,1.1679841,-0.0072521144,-0.19283701,0.9812119,-0.0060924296,0
0.94706136,-0.7640087,-0.67301983,0.68107653,-0.54943472,-0.4840003,0
0.12656519,-1.0331539,-0.72608095,0.099728167,-0.8140828,-0.57212192,0
-0.67653656,-0.93663126,-0.13688001,-0.58147025,-0.80501664,-0.11764575,0
-0.92117697,0.9495002,-0.53050786,-0.64629179,0.66616321,-0.37220088,0
0.07074406,1.3716357,-0.72489917,0.045552608,0.88320601,-0.46676776,0
-0.41038659,-1.4236341,0.25752586,-0.27289632,-0.94667935,0.17124796,0
1.1032923,-0.095846675,-0.6283356,0.86649507,-0.075275309,-0.49347728,0
0.1595207,0.019947652,-1.5285274,0.10378987,0.012978656,-0.99451458,0
-0.31902537,1.2613963,0.27939114,-0.23972934,0.94786727,0.20994648,0
-0.94218355,-1.0193139,-0.11060113,-0.67663264,-0.73202413,-0.079428613,0
-0.34480438,-0.7641567,0.84665638,-0.28938881,-0.64134455,0.71058518,0
0.96024328,0.49925721,0.40075564,0.8320331,0.43259716,0.34724736,0
0.58139592,-0.61825031,1.0426494,0.43246222,-0.45987576,0.77555835,0
0.36904263,-0.016350009,1.1999669,0.29393142,-0.013022293,0.95573777,0
-1.3838983,-0.48375672,0.45071372,-0.90230703,-0.31541124,0.29386708,0
-0.82555938,-0.60735196,0.43809661,-0.74067175,-0.54490137,0.3930496,0
0.52383912,1.2549821,0.076769441,0.38458565,0.92136705,0.056361627,0
1.0714989,-0.15217067,1.0550946,0.7089197,-0.1006784,0.69806641,0
-0.55601418,0.15590696,-1.378445,-0.37203699,0.10431956,-0.92233717,0
0.88802594,-0.1786941,-0.83815134,0.71956986,-0.14479631,-0.6791563,0
-0.6386826,-0.63239568,-1.1191071,-0.4449653,-0.44058526,-0.7796734,0
0.11776953,1.1269581,0.82423574,0.084051035,0.80429971,0.5882495,0
-0.31559983,-0.56026381,1.4425508,-0.19982472,-0.35473582,0.91336334,0
0.058995463,-1.4104089,-0.27661854,0.041012097,-0.98047918,-0.19229795,0
-1.3204043,-0.11238743,-0.29159608,-0.97311705,-0.082827754,-0.2149017,0
-1.0835882,0.087567709,0.88026816,-0.7746433,0.06260103,0.62929237,0
-0.64948004,-0.78852046,0.84691036,-0.4894464,-0.5942269,0.63822937,0
-0.48906663,0.37624669,1.2941455,-0.34111667,0.26242644,0.90264714,0
-0.75075454,0.43121842,-0.80367672,-0.63553059,0.3650361,-0.68033046,0
0.92906052,0.90297544,0.55657786,0.65887552,0.64037639,0.39471653,0
-0.14548615,-0.90934211,-1.1186765,-0.10040678,-0.62757945,-0.77205092,0
-0.27358118,-0.7451387,1.0876244,-0.20318268,-0.55339801,0.80775458,0
-0.45608264,-0.12502129,1.3567653,-0.31742486,-0.087012447,0.94428289,0
0.5233109,-0.10867983,-1.3159958,0.36842737,-0.076514028,-0.92650253,0
-1.2987635,0.051279746,-0.67728758,-0.88613385,0.034987677,-0.46210679,0
-0.9651581,0.23595595,-1.1681212,-0.62937045,0.15386464,-0.76172078,0
-0.3036162,-0.57630694,1.1303408,-0.23272732,-0.44174972,0.86642671,0
-0.4962635,0.58660245,1.179098,-0.35262105,0.41681159,0.83781052,0
-0.19738153,-0.88706762,0.67605186,-0.17426535,-0.7831794,0.59687662,0
-0.3359952,0.70783871,-1.0234424,-0.26067588,0.549164,-0.79401946,0
-0.23125798,-0.21214819,1.16066,-0.19234009,-0.17644624,0.96533513,0
0.57470745,0.23213491,-1.1852503,0.42967734,0.17355457,-0.88614678,0
0.32482925,-0.85288149,0.78882688,0.2692765,-0.70702052,0.65392065,0
0.84690225,0.98709273,-0.47374097,0.61183256,0.71311116,-0.34224746,0
-0.15366904,0.97087395,1.104067,-0.10395452,0.65677983,0.74688268,0
0.40786791,-0.40276882,-1.1982323,0.30706367,-0.3032248,-0.90209007,0
-0.74080706,-0.67134291,-1.0169338,-0.51947773,-0.47076723,-0.71310669,0
0.90866876,-0.084307432,0.74937123,0.7695213,-0.071397156,0.63461751,0
1.1783956,-0.45535576,0.69535214,0.81717259,-0.31577191,0.48220029,0
0.71057332,0.87784809,0.80107349,0.51317972,0.63398641,0.57853943,0
0.69928879,0.33627489,-1.1084009,0.51683903,0.24853823,-0.81921071,0
-0.547189,0.87566596,-0.93358469,-0.39308307,0.62905043,-0.6706574,0
-0.85825604,-0.24104856,-1.0976965,-0.60693246,-0.17046218,-0.77625746,0
0.29927844,-0.37162799,-1.332352,0.21147189,-0.26259449,-0.94144768,0
-0.55370909,-0.64810169,0.88838607,-0.44973037,-0.52639735,0.72155976,0
0.48076043,-0.34210852,1.29281,0.33830154,-0.24073495,0.90972459,0
0.15248051,-1.2437241,0.29963002,0.11835217,-0.96535254,0.23256652,0
0.43134174,-0.71879578,-1.1816295,0.29772702,-0.49613774,-0.81560165,0
1.280346,0.4737255,0.04137902,0.93743193,0.34684795,0.030296508,0
1.0554761,0.56738222,-0.58959532,0.7903195,0.42484453,-0.44147727,0
0.721479,-0.67251021,-0.75573492,0.58064258,-0.54123276,-0.60821158,0
0.50839573,1.1481566,0.16847345,0.40128145,0.90625066,0.13297765,0
-0.76178217,0.16982579,-0.91776419,-0.63231087,0.14096247,-0.76178247,0
0.81043297,-0.06011235,-0.85106295,0.68870872,-0.051083684,-0.72323626,0
-1.0888562,-0.71126682,-0.28356409,-0.81799161,-0.53433162,-0.2130245,0
1.0962704,0.91050768,0.66943234,0.69627666,0.57829273,0.42517802,0
-0.47492886,0.53594166,-1.0250821,-0.37981135,0.42860466,-0.81978136,0
-0.39316824,-0.26122278,1.125006,-0.32226288,-0.21411292,0.92211837,0
1.0636115,-0.67772651,-0.059848517,0.84239626,-0.53676957,-0.047400925,0
-1.3381939,-0.51917499,-0.44412163,-0.89063627,-0.34553742,-0.2955856,0
0.25802651,-1.184226,0.019472776,0.21286386,-0.97694975,0.016064437,0
-0.33385116,-0.10040242,-1.2333415,-0.26048213,-0.078337416,-0.96229529,0
0.47388235,1.2814364,-0.35224518,0.3358655,0.90822178,-0.2496548,0
-0.17614961,0.92359638,-1.1829784,-0.11656857,0.61119813,-0.78284645,0
-0.27565402,-0.62322277,1.1183466,-0.21048482,-0.4758825,0.8539508,0
-1.124397,0.86834252,0.39112049,-0.76306844,0.58929789,0.26543269,0
-0.24103999,-0.32745221,-1.0874505,-0.20761776,-0.2820482,-0.93666631,0
-1.1049201,0.54200095,0.38269559,-0.85730827,0.4205389,0.29693374,0
-1.3699822,0.10784356,0.25670668,-0.97996467,0.077141792,0.18362537,0
0.8370592,1.0046467,0.60157311,0.58153331,0.69796193,0.41793317,0
-1.0425761,-0.38100159,-0.30197832,-0.90630764,-0.33120331,-0.26250869,0
0.65229493,1.076026,-0.0448176,0.51806504,0.85460031,-0.035594992,0
-0.74319732,-0.99808061,-0.44188935,-0.56280649,-0.75582385,-0.33463278,0
-0.87888777,0.65526617,0.47099826,-0.73659837,0.54918045,0.39474499,0
1.0669198,-0.85716617,-0.2403869,0.76781911,-0.6168679,-0.17299674,0
-0.005569377,-0.79811609,-0.96152234,-0.0044568628,-0.63868797,-0.76945293,0
-1.2141629,0.56128776,-0.38678685,-0.871979,0.40310171,-0.27777988,0
-0.95801479,0.30670193,0.92353696,-0.70154983,0.22459641,0.6763019,0
1.3149513,0.42952344,0.39324731,0.9143452,0.2986671,0.27344266,0
0.81054711,-0.97512853,0.43381372,0.60480899,-0.72761536,0.32370043,0
-0.16399871,0.75633544,-1.1587834,-0.11769211,0.54277694,-0.83158994,0
-0.8756057,-0.47904834,1.1397426,-0.57796246,-0.31620622,0.75231177,0
-0.78969526,0.78770041,-0.38178024,-0.66984767,0.66815561,-0.3238396,0
1.0236316,0.046287294,-0.62602943,0.85247093,0.038547631,-0.52135152,0
0.6845805,-0.64587545,1.1595144,0.45840034,-0.43248314,0.7764197,0
-0.13513319,1.2559528,0.95894724,-0.085206114,0.79192132,0.60464913,0
-1.4166741,0.53108466,0.42480475,-0.90150386,0.33795694,0.27032548,0
-0.35955483,1.0758191,-0.94659942,-0.24336965,0.72818303,-0.64071888,0
-0.88123542,-0.77961004,-0.42886218,-0.70368564,-0.62253553,-0.34245577,0
0.28748471,1.1718988,0.64297599,0.21026267,0.85711193,0.47026446,0
-1.0421168,-0.7736541,0.63328165,-0.72160834,-0.53571278,0.43851259,0
-0.98521906,0.48064756,-0.79609734,-0.72721285,0.35477704,-0.58761775,0
-0.042566054,1.2379563,-0.42961112,-0.032466572,0.94423115,-0.32767895,0
-0.0041512968,0.91255134,1.0479145,-0.0029874786,0.65671712,0.75413114,0
0.16814321,-1.033769,-0.83570123,0.12548885,-0.77152377,-0.62370157,0
-0.62828147,0.92029655,0.16552424,-0.55771136,0.8169266,0.14693215,0
-1.1121368,0.51051056,-0.050716985,-0.90804332,0.41682434,-0.041409671,0
-0.79205072,-1.0153971,-0.34147409,-0.59450603,-0.76214778,-0.25630733,0
-0.48534405,0.8092497,-0.71400827,-0.41015372,0.68387938,-0.6033929,0
-1.4006718,-0.34461948,0.5434823,-0.90868133,-0.22357078,0.3525824,0
0.80120194,0.47471869,1.0236174,0.57896072,0.34303895,0.73968148,0
0.099829696,0.37862283,1.2159668,0.07814721,0.29638791,0.9518652,0
-1.1287198,0.15275843,-0.46958321,-0.91616029,0.12399109,-0.38115171,0
0.09898711,0.27907661,1.1236545,0.085185654,0.24016586,0.96698695,0
0.50733632,0.32870606,1.0558521,0.41699108,0.27017087,0.86782843,0
-0.47953206,0.49828389,1.0149572,-0.39044771,0.40571594,0.82640499,0
0.29299343,1.2347457,-0.63897598,0.20621416,0.86903673,-0.44972304,0
1.1431254,-0.27115959,-0.63762528,0.85516977,-0.20285393,-0.47700617,0
-0.39710692,-0.31005341,-1.3556477,-0.27457902,-0.21438599,-0.9373607,0
0.1037754,0.82160383,-0.92485446,0.083593175,0.66181844,-0.74498892,0
-0.65389436,1.0928489,-0.096606411,-0.51197654,0.8556627,-0.075639464,0
1.1795361,-0.35270384,-0.67866045,0.83904725,-0.25089115,-0.48275605,0
-0.042847417,-0.2127077,-1.1225183,-0.037477069,-0.18604764,-0.98182565,0
0.83160931,-0.88215703,0.7481308,0.58375084,-0.61923301,0.52515286,0
-0.046204623,-0.37565172,-1.3071361,-0.033953309,-0.27604637,-0.96054447,0
0.030984778,1.3291216,-0.38483489,0.022386875,0.96030635,-0.27804783,0
-1.0833141,0.34280488,0.88171071,-0.75322855,0.23835233,0.61305368,0
0.10216662,1.0342345,-0.88233131,0.074940652,0.75862563,-0.64720243,0
-0.76884735,-0.0034549648,-1.0739894,-0.58209413,-0.0026157531,-0.81311715,0
-0.26433223,-0.66486108,-1.1383839,-0.19659452,-0.49448392,-0.84666187,0
-0.45501584,0.17097586,1.3122121,-0.32516292,0.12218258,0.93773156,0
1.3833048,0.33743402,0.16504829,0.96505165,0.23540817,0.11514463,0
-1.1454128,0.47625178,-0.015881956,-0.92328829,0.3838945,-0.012802042,0
0.15254527,-1.2098019,-0.64727634,0.11049778,-0.87633276,-0.46886146,0
0.66813082,1.0396084,-0.025461536,0.54053473,0.84106946,-0.020599028,0
0.51909578,-1.2057271,0.55494392,0.36422607,-0.84600431,0.38937908,0
-0.41691044,1.3219578,-0.5140934,-0.2820003,0.89417893,-0.34773535,0
0.77077824,0.087736368,1.02065,0.60123122,0.068437122,0.79613906,0
-1.2341152,0.31487176,0.51156157,-0.89914376,0.22940724,0.37271023,0
-0.094372995,-0.50126296,-1.0891261,-0.078470886,-0.41679877,-0.90560532,0
-0.59684843,1.3203156,-0.070554271,-0.41142991,0.91014284,-0.048635691,0
-0.55374396,-1.1160284,0.48580936,-0.41410026,-0.83458728,0.36329746,0
0.70409775,-0.36465731,1.1416272,0.50655282,-0.26234737,0.82132703,0
-0.83962655,0.61194843,0.64896274,-0.68541366,0.49955285,0.52976876,0
0.017225025,-1.3884424,-0.31875589,0.012090567,-0.97457367,-0.22374073,0
0.94398028,-0.78474808,0.49733928,0.71271211,-0.59249061,0.37549484,0
0.44067979,-0.10639647,-1.1955156,0.34466243,-0.083214313,-0.93503112,0
0.95734322,0.29649374,-0.56974256,0.83042747,0.25718734,-0.49421135,0
-0.93902057,1.212244,-0.092973851,-0.61125815,0.78911376,-0.060521599,0
-1.0894314,-0.26140755,0.19155295,-0.95849001,-0.22998835,0.16852973,0
-1.2779064,-0.37569305,-0.44061679,-0.91085601,-0.26778352,-0.31405935,0
-0.84016991,-0.93529576,-0.94599313,-0.53398591,-0.59444499,-0.60124391,0
-0.69042397,1.252967,0.22157542,-0.47692549,0.86551446,0.15305808,0
-1.1688267,0.72495234,-0.0022527655,-0.84981042,0.5270859,-0.001637902,0
1.0161161,-0.36427319,-0.9700551,0.70015496,-0.25100249,-0.66841662,0
-1.0196215,0.43554053,-0.80011803,-0.7457183,0.3185403,-0.58518058,0
-0.89406109,0.36008075,-1.190588,-0.5836556,0.23506574,-0.77723247,0
0.99097127,0.58921844,0.25684357,0.83897173,0.49884152,0.21744777,0
0.042213414,1.0888579,-0.56817508,0.034350328,0.88603646,-0.46234119,0
0.20176123,-0.63441056,1.0198108,0.1656678,-0.52091968,0.83737499,0
-0.51069272,0.39731511,0.99995035,-0.42878023,0.3335878,0.83956343,0
-1.2321485,-0.69017237,-0.18697716,-0.86490774,-0.48446712,-0.13124879,0
1.0782652,-0.70380747,-0.56028128,0.76785886,-0.50119841,-0.39898992,0
-0.64046699,0.92442024,-0.21875763,-0.5590229,0.8068676,-0.19093962,0
0.64034849,0.45778143,-1.1690336,0.45435935,0.32481888,-0.82948798,0
0.55665296,-0.67216974,-1.1781607,0.37965739,-0.45844397,-0.80354804,0
-0.72267514,-1.0554622,0.13129249,-0.56200647,-0.82080674,0.10210291,0
0.01875364,-0.93188518,0.81134212,0.015176118,-0.75411493,0.65656716,0
1.0814519,0.82925856,-0.73267746,0.69894487,0.53595173,-0.47353116,0
0.32630584,0.26274571,1.3318355,0.23371461,0.18819004,0.95391923,0
-0.20769283,-1.0943148,-0.033490967,-0.18637975,-0.98201805,-0.03005418,0
-1.1183063,-0.55255139,0.19122186,-0.88618159,-0.43785936,0.15153031,0
0.5601806,-0.58843279,-0.91581666,0.45757231,-0.48064956,-0.74806654,0
-0.20754811,-0.26160163,-1.2311699,-0.16269948,-0.20507267,-0.96512902,0
0.12334264,-1.2942321,0.57263684,0.086823061,-0.91103286,0.4030892,0
0.80783635,-0.36154464,0.62708819,0.744762,-0.33331591,0.57812631,0
1.1499885,0.85112232,0.022500884,0.80369878,0.59482855,0.015725316,0
-0.86679292,-0.98303366,-0.13958076,-0.65764946,-0.74584311,-0.10590212,0
0.96586961,-0.7874096,0.33875588,0.74793351,-0.60974073,0.26231995,0
0.037383415,0.83874106,0.93164289,0.02980824,0.66878307,0.74285978,0
-0.6195358,1.0378602,-0.84606212,-0.41991094,0.70344418,-0.57344669,0
0.53425282,0.027803335,1.3972856,0.35707378,0.018582668,0.9338913,0
-1.1528121,0.66101795,0.11761877,-0.86412877,0.49548805,0.088165067,0
-0.90664256,0.65903246,-0.068423152,-0.80737907,0.58687848,-0.060931865,0
-0.76976174,0.86402279,0.090550281,-0.66317683,0.74438608,0.078012258,0
-1.2133501,0.6745311,-0.25710145,-0.85940629,0.47776505,-0.18210292,0
0.53407556,0.088957608,-1.2054642,0.40415132,0.067316949,-0.91221172,0
0.055247508,-1.1012456,0.87406301,0.039264873,-0.7826646,0.62120402,0
-0.39335525,0.86687064,1.1398469,-0.26487252,0.58372223,0.76753551,0
0.26431325,-0.60400653,1.0595832,0.2117964,-0.48399544,0.84905279,0
-1.4239892,0.21866083,-0.12730043,-0.98457873,0.15118711,-0.088018432,0
0.0019491377,-0.86851972,1.057549,0.0014243074,-0.63465965,0.77279037,0
0.14561084,1.0572016,-0.84412283,0.10701412,0.7769717,-0.62037319,0
-0.78705281,-1.2120663,0.15846327,-0.54135925,-0.8336966,0.10899593,0
0.76920921,-0.66966915,-0.79814553,0.59395725,-0.5170958,-0.61630088,0
-0.98579347,1.0124969,-0.45863402,-0.66352427,0.68149805,-0.30870038,0
-0.36525181,1.1503129,-0.84922022,-0.24750446,0.77948302,-0.57545447,0
-0.45446315,-1.2888805,-0.61618751,-0.30314818,-0.85974354,-0.41102588,0
-1.1810466,0.040426239,-0.72289836,-0.85254961,0.029182063,-0.52183104,0
-0.38764575,-0.2223675,1.207255,-0.30112723,-0.17273737,0.93780822,0
0.91477954,-0.64568704,-0.36823153,0.7760936,-0.54779708,-0.31240547,0
0.81926328,-0.83987588,-0.97336167,0.5374077,-0.55092883,-0.63849074,0
0.78026742,0.31137285,-0.77934909,0.68090326,0.27172068,-0.68010187,0
0.1494638,-1.3656312,0.36915973,0.10506964,-0.96000755,0.25951084,0
0.7381587,-0.87586743,0.74331826,0.54058433,-0.64143413,0.54436284,0
-0.90232527,0.4259043,0.9262377,-0.66277581,0.31283516,0.68033999,0
-0.85779756,0.70317256,-0.87193996,-0.60799289,0.49839723,-0.61801684,0
-0.85113657,0.86198062,-0.33473995,-0.67723614,0.68586463,-0.26634738,0
0.97797841,1.0630254,0.35935289,0.65702766,0.71416408,0.24142127,0
0.084516928,0.91028643,1.0735643,0.059937999,0.64555997,0.76135391,0
-0.62243354,0.62861687,-0.92318493,-0.48680344,0.49163941,-0.72202021,0
0.4990091,-1.1269267,-0.47725388,0.37756673,-0.85266984,-0.36110601,0
0.76813626,-1.0657977,-0.36869305,0.56293851,-0.78108352,-0.27020144,0
0.74237978,-0.96913952,-0.86481941,0.49621481,-0.64778352,-0.57805479,0
-1.2699372,0.55238736,-0.039900541,-0.91662616,0.39870688,-0.028799755,0
0.45984015,-0.95378262,0.77385169,0.35062477,-0.7272523,0.5900563,0
1.0867885,-0.58606309,-0.17039491,0.87191373,-0.47018942,-0.13670522,0
-0.10234815,1.163699,-0.46285313,-0.081452079,0.92611057,-0.36835399,0
-0.053589437,-1.0039097,0.84314162,-0.040842637,-0.76511943,0.64259171,0
0.59493291,-1.3314624,-0.21173215,0.40372097,-0.90352923,-0.14368126,0
0.37300992,-1.3397597,-0.33000907,0.26096746,-0.93733078,-0.23088294,0
-1.2014496,-0.0046008932,-0.60220677,-0.89398044,-0.0034234549,-0.44809294,0
-0.85327429,-0.49347052,0.78725231,-0.67640209,-0.39118075,0.62406558,0
-0.025607737,-1.1206144,0.41542146,-0.021421701,-0.93743026,0.3475135,0
-1.2959565,0.5598948,-0.24348937,-0.904634,0.39083093,-0.16996618,0
-0.54593378,-0.035380315,-1.0890723,-0.44794229,-0.029029783,-0.89359111,0
1.2639673,0.59155416,-0.61906981,0.8279109,0.38747376,-0.40549678,0
-1.1484394,-0.57167077,-0.12902433,-0.8907268,-0.44338647,-0.10007095,0
0.10436381,-1.1205108,0.3639313,0.088238746,-0.94738275,0.30770093,0
-0.020345313,1.3122283,-0.59082896,-0.014136068,0.91174555,-0.41051215,0
-1.1465803,0.27594697,-0.56919986,-0.87558854,0.2107275,-0.43467069,0
0.093661025,-0.56541687,1.1999607,0.07043229,-0.42518863,0.90236014,0
0.80190474,0.17156294,-1.0311517,0.60866469,0.13022032,-0.78266847,0
1.1086603,-0.25569642,-0.27251926,0.94761616,-0.2185539,-0.23293306,0
0.45456046,-0.039950132,-1.4934341,0.29108804,-0.025582967,-0.95635414,0
0.56126273,0.4348931,-1.3249612,0.37337369,0.28930771,-0.88141543,0
0.65353817,-1.179304,0.70922995,0.42898774,-0.77410471,0.46554428,0
0.82904136,-0.50906271,0.59041619,0.72850686,-0.44733074,0.5188188,0
0.0039585973,0.92695999,-0.98197669,0.002931451,0.68643951,-0.7271809,0
-0.38028669,-0.042789195,1.0968922,-0.32734457,-0.036832239,0.94418693,0
1.2246925,0.3912937,-0.25566804,0.93426794,0.298502,-0.19503872,0
0.24693525,1.271464,-0.37193385,0.18324547,0.94352674,-0.27600428,0
1.1982827,-0.14319341,-0.031554341,0.99259633,-0.11861412,-0.02613801,0
-0.88111019,-0.84392619,-0.33659175,-0.69617409,-0.66679466,-0.26594454,0
1.2077138,0.60957736,-0.32482296,0.86805791,0.4381406,-0.23347016,0
-0.91855741,1.1349115,-0.30903336,-0.61548787,0.76045799,-0.20707066,0
-0.18479079,0.93439847,0.90686619,-0.14050788,0.71048099,0.68954647,0
-0.82361645,-0.38146937,-0.89861196,-0.64483595,-0.29866472,-0.70355237,0
-0.26645815,-0.61447138,-1.4396288,-0.16781603,-0.38699564,-0.90668195,0
-0.57325584,-1.0272368,-0.32723737,-0.46948424,-0.84128493,-0.26800039,0
-0.1595277,-0.93316138,-0.88324159,-0.12321203,-0.72073191,-0.68217611,0
-0.077416308,-1.1049137,0.7650916,-0.057508264,-0.82077885,0.56834394,0
-1.0016804,-0.2395522,-0.85292721,-0.74906075,-0.17913812,-0.63782251,0
-0.2431673,1.1731249,0.70858157,-0.17469923,0.84281081,0.50906789,0
-0.33040795,-0.21531209,-1.307973,-0.24185617,-0.15760686,-0.95742655,0
0.24490607,0.58465713,1.3090545,0.1683839,0.40197799,0.90003365,0
1.1564562,-0.56358969,-0.087626852,0.89685422,-0.43707475,-0.067956321,0
-1.2235955,0.26231867,-0.51045918,-0.90535778,0.19409376,-0.37769687,0
0.67214537,0.85509712,0.84911603,0.48711708,0.61970586,0.61537123,0
0.30980998,-1.3345836,-0.25125009,0.22241786,-0.95812035,-0.18037672,0
-0.93211365,-0.26847178,-0.71195668,-0.77466744,-0.22312337,-0.59169787,0
1.0142608,-0.97627574,0.25087616,0.70929438,-0.68273067,0.1754431,0
-0.24886049,-0.64476722,-1.1711847,-0.18299901,-0.47412816,-0.86122805,0
0.23384513,1.1675233,0.73498565,0.16711761,0.83437139,0.52525806,0
1.3930693,-0.065753236,0.12624876,0.99482,-0.046955768,0.09015689,0
-0.16779411,1.2531581,0.69019723,-0.11648627,0.86996925,0.47914976,0
-0.93457174,-0.68887877,-0.72596586,-0.68251383,-0.50308532,-0.53016984,0
0.43012798,1.0654699,0.96519434,0.28663507,0.71002358,0.64320052,0
1.4544195,-0.22299245,0.14176048,0.98389399,-0.1508512,0.095898941,0
1.0367576,0.56369191,-0.85564649,0.71125239,0.38671258,-0.58700377,0
0.98280972,0.99667132,0.32431692,0.68401754,0.69366497,0.22571863,0
0.70377165,-0.13165705,0.92481154,0.60173309,-0.11256833,0.79072475,0
-0.65535682,0.42858854,-0.84285092,-0.56964332,0.37253386,-0.73261523,0
-0.052585598,-1.116154,0.55386347,-0.042165335,-0.89497906,0.44411096,0
0.68422127,-0.33640802,-1.0430273,0.52958763,-0.26038,-0.80730373,0
-1.0423474,0.51109344,0.18746915,-0.88639045,0.43462318,0.15941985,0
0.92675197,0.40258101,0.95187765,0.66760772,0.29000875,0.68570757,0
0.52584261,-0.91278309,-0.49903089,0.45111945,-0.78307503,-0.42811772,0
-1.0280648,-0.33890712,-0.90499616,-0.7286306,-0.240197,-0.64140689,0
1.3539206,-0.19380587,0.52290386,0.92463785,-0.13235654,0.35710862,0
-0.90623212,-0.94514853,-0.13898069,-0.68822455,-0.71777904,-0.10554682,0
0.47657922,-1.1793076,-0.25508344,0.36736518,-0.90905464,-0.19662791,0
-1.1258484,0.99564677,-0.13507703,-0.74608707,0.65980393,-0.089514032,0
-1.2889229,-0.089618273,-0.71867204,-0.87180114,-0.060615972,-0.4860951,0
0.83960187,0.30595657,-0.85234255,0.67988336,0.24775407,-0.69020033,0
1.0799066,-0.10117579,-0.68516594,0.84175593,-0.078863598,-0.53406698,0
0.35964277,-0.58016694,1.1255146,0.27321666,-0.44074643,0.85504103,0
0.55558592,-0.93236029,-0.27068907,0.49668404,-0.83351368,-0.24199127,0
-1.1404245,-0.87049073,-0.44017074,-0.75993305,-0.58006006,-0.2933121,0
0.77668113,-0.78368002,0.31030798,0.67763859,-0.68374497,0.27073744,0
0.069880582,-0.2616612,1.1608162,0.058625057,-0.21951596,0.9738459,0
-0.07850574,0.43138081,-1.1553259,-0.063529812,0.34908965,-0.93493336,0
0.92666584,0.80687064,-0.54908454,0.6885488,0.5995363,-0.4079912,0
-1.2847795,-0.35459489,-0.25389284,-0.94693142,-0.26134992,-0.18712868,0
0.72212231,-1.1794858,0.052044746,0.52177829,-0.85225183,0.037605565,0
0.1229079,-0.96210867,1.2320951,0.078382052,-0.6135655,0.78574395,0
-0.6122328,-0.74172813,-0.75081486,-0.50177747,-0.60791004,-0.6153574,0
1.1495963,-0.37638658,-0.5488407,0.86544383,-0.28335288,-0.4131805,0
1.1168036,0.90274668,-0.029319769,0.77753639,0.62850654,-0.020412888,0
-1.3039805,-0.43661681,0.41155678,-0.90844285,-0.3041774,0.28671888,0
-0.38542202,1.4680887,-0.17974401,-0.25216618,0.96051162,-0.1175993,0
1.3285695,0.11627331,0.30987716,0.97034305,0.084922165,0.22632398,0
0.51171482,-1.1198246,-9.0851296e-05,0.41562203,-0.90953743,-7.379071e-05,0
-0.83392483,0.41994679,-1.0763748,-0.58524734,0.29471809,-0.75539839,0
-0.60107404,-1.0553509,0.56720668,-0.44841555,-0.78731692,0.42314968,0
-1.1181141,0.28809112,-0.029756337,-0.96805108,0.24942617,-0.025762714,0
-1.1035967,0.80867887,-0.19502203,-0.79855114,0.58515167,-0.14111592,0
1.2624969,-0.074939221,0.10864113,0.99458015,-0.059036233,0.085586198,0
-1.1359843,-0.15679938,0.41364157,-0.9318406,-0.12862152,0.33930752,0
0.91503036,0.12542787,-0.95312476,0.68944424,0.094505638,-0.7181471,0
0.53981733,0.80347681,0.5954805,0.47499281,0.70699048,0.52397162,0
-0.62637734,-1.0352024,-0.17139469,-0.51256919,-0.84711373,-0.14025354,0
-0.6320492,-1.3616762,-0.034360614,-0.42091468,-0.90681154,-0.022882532,0
-0.069099098,0.082708783,1.3880969,-0.049630366,0.059405509,0.99699938,0
-0.083735719,0.33136111,1.2431757,-0.064946592,0.25700828,0.9642244,0
0.50149715,0.055746011,-1.1622756,0.39578965,0.043995656,-0.91728669,0
-0.03786375,-1.2967467,-0.018896548,-0.029183496,-0.99946791,-0.01456452,0
0.0030166758,0.61178362,-1.317398,0.002076851,0.4211866,-0.90697157,0
-1.2499191,-0.33625302,-0.044549808,-0.9650954,-0.25962982,-0.034398079,0
0.29168031,0.88682044,-0.73185724,0.24588838,0.74759537,-0.61696035,0
-1.2307882,0.59877342,0.66738302,-0.80826646,0.39321831,0.43827465,0
0.94268131,0.38045651,-0.8348121,0.71664387,0.28923011,-0.63463968,0
0.6878345,-0.27739587,-1.3060402,0.45796588,-0.18469246,-0.86957234,0
-0.99093038,0.19557481,1.0792835,-0.67036742,0.13230695,0.73013854,0
0.50857753,-0.88401175,-0.68541461,0.41388533,-0.71941733,-0.55779707,0
-1.2924546,-0.27512082,0.71693099,-0.85970509,-0.18300277,0.4768827,0
0.87517494,0.70780593,0.90023571,0.60721231,0.49108866,0.62459993,0
-0.34907785,-0.08737205,1.3238361,-0.25445375,-0.063688219,0.96498549,0
0.48729646,1.0631415,-0.42006588,0.39214247,0.85554266,-0.33803996,0
0.10964376,1.129272,0.33428782,0.092698164,0.95474142,0.28262317,0
1.1379594,-0.14583415,0.18916292,0.97867417,-0.12542111,0.16268496,0
0.57932055,-0.78800547,-1.0020382,0.41373226,-0.5627684,-0.71562374,0
-0.2195058,-0.80889922,-0.9218033,-0.17618506,-0.64925826,-0.73988008,0
0.48285416,0.511738,1.375643,0.31250128,0.33119479,0.89031065,0
-1.161148,0.56197077,-0.48658895,-0.84219807,0.40760586,-0.35293028,0
0.014701678,-0.38971633,-1.3427829,0.010514187,-0.27871311,-0.9603169,0
0.17418636,-0.3391189,1.3079405,0.12785545,-0.24891844,0.96004826,0
-0.13906434,0.67045754,1.2181321,-0.099517219,0.4797928,0.87171966,0
-0.2467723,-1.177135,-0.72859442,-0.17548899,-0.83710462,-0.51813072,0
0.90571696,-0.99180746,-0.55739725,0.62282842,-0.68202972,-0.38330171,0
1.063401,0.43287709,0.58026332,0.82662755,0.33649409,0.45106378,0
0.59562558,-0.335875,-1.2094537,0.42870069,-0.24174556,-0.87050259,0
-0.87950122,-1.0448841,-0.087752752,-0.64263874,-0.76348162,-0.064119659,0
-0.71000856,-0.39664295,-1.093195,-0.52109224,-0.29110572,-0.80232185,0
1.4358025,0.52769917,0.080371864,0.93732154,0.34449294,0.052468415,0
-0.56530881,1.0438912,0.4019362,-0.45104554,0.83289427,0.32069468,0
0.56176257,0.28438997,-1.1942986,0.41608572,0.21064168,-0.88459188,0
0.018121675,-0.61349136,1.0643709,0.014749235,-0.49932075,0.86629164,0
0.27294943,0.7806707,1.1681659,0.19070315,0.54543573,0.8161692,0
-1.0399646,0.37516296,-0.67950273,-0.8013972,0.28910077,-0.52362514,0
-1.3193417,0.033861138,0.31922925,-0.97165084,0.024937591,0.23510161,0
0.24201237,-1.2127082,0.46495384,0.18318437,-0.917925,0.35193357,0
-1.0888461,0.45906603,-0.2887094,-0.89512253,0.37739068,-0.23734328,0
-0.55139059,-0.46722716,1.1305792,-0.41092038,-0.34819812,0.84255707,0
-0.59162152,-0.068262748,0.97971952,-0.51601148,-0.059538674,0.85450995,0
-0.49331394,-1.1154315,-0.84549117,-0.33241081,-0.75161374,-0.5697192,0
-0.18078446,1.3014368,0.3427577,-0.13313493,0.95841587,0.25241673,0
1.1823211,0.13632354,0.20463338,0.97905195,0.11288628,0.16945203,0
-1.0339506,0.69729441,-0.31629342,-0.80363619,0.54197079,-0.24583848,0
0.77837718,-0.031921376,0.88334203,0.66088086,-0.027102834,0.75000125,0
1.0294877,-0.46480712,-0.91240728,0.70900118,-0.32010949,-0.62836868,0
0.80208027,-0.25335816,-0.90633881,0.64866114,-0.20489669,-0.73297745,0
-0.10828886,-1.2993553,-0.066713266,-0.082944028,-0.99524331,-0.051099136,0
-0.87350076,-0.55307615,-0.84617501,-0.65381557,-0.41397765,-0.63336223,0
0.31750429,-1.2048355,-0.19753702,0.25168186,-0.95505875,-0.15658523,0
-1.1745917,0.19955923,-0.46477348,-0.91846186,0.15604362,-0.36342561,0
-1.0918212,-0.58002269,0.21023118,-0.87062067,-0.46251142,0.16763882,0
-0.95494145,0.76369065,0.31442478,-0.75636715,0.60488582,0.24904206,0
-0.36019325,1.4877113,0.075749375,-0.23502608,0.97073156,0.049426463,0
-0.70907354,-1.0751014,0.66532046,-0.48915821,-0.74166453,0.45897493,0
-0.2753123,1.416765,0.25660145,-0.18781106,0.96648103,0.17504698,0
-0.51213735,1.2569196,-0.40000358,-0.36194271,0.88830251,-0.28269443,0
0.71994889,1.1412829,0.37504476,0.51405102,0.81488794,0.26778588,0
-0.45311719,-0.21031593,-1.385148,-0.30772483,-0.14283156,-0.94069368,0
0.4344511,-1.0342987,-0.78220153,0.31767148,-0.75628114,-0.57194728,0
-0.83203667,-0.29416487,0.93968511,-0.6454308,-0.22819075,0.72893631,0
-0.96101296,-1.0300847,-0.54481518,-0.63624489,-0.68197435,-0.36069846,0
-0.36521271,-0.21160373,1.2748185,-0.27196288,-0.15757491,0.94931889,0
-0.7626248,1.1094207,-0.38664305,-0.54446769,0.79205877,-0.2760396,0
0.66932797,-0.011778272,-1.0072606,0.55342591,-0.0097387247,-0.83284146,0
-0.66902715,-0.57198447,-1.192908,-0.45128444,-0.38582543,-0.80466217,0
0.95127332,0.30736771,0.86355835,0.72009796,0.2326722,0.65369916,0
1.26781,0.66851968,-0.11158548,0.88188952,0.46502277,-0.077618942,0
-0.52045196,0.91241044,0.58512121,-0.43284965,0.75883383,0.48663381,0
0.056712966,-1.0990775,0.43698841,0.047894504,-0.92817873,0.3690398,0
-1.0720901,0.19048974,0.21188158,-0.96645218,0.17171991,0.19100392,0
0.9434163,-0.74164474,0.55130851,0.71437889,-0.56159234,0.41746488,0
-1.1216258,-0.67614496,0.071119532,-0.8551634,-0.51551455,0.054223809,0
-0.57514566,0.45384386,-1.2121878,-0.40606394,0.32042253,-0.85582799,0
0.97168034,0.59262902,0.76436073,0.7087425,0.4322629,0.55752379,0
0.50496691,0.031239308,-1.2074305,0.3857232,0.023862408,-0.92230588,0
-0.60194606,1.3488841,-0.32351646,-0.39808232,0.89205158,-0.21394971,0
1.008008,-0.67842424,-0.2501578,0.81256133,-0.54688185,-0.20165372,0
-0.68519062,0.71144593,-0.96154368,-0.49706236,0.51610893,-0.69753897,0
-0.055682555,1.3582152,-0.14272803,-0.040738508,0.9936983,-0.10442278,0
0.50156277,-0.60134709,-1.2885922,0.33263132,-0.39880729,-0.85458124,0
1.3221259,-0.46971515,-0.41631439,0.90337157,-0.32094321,-0.28445596,0
-0.010852363,-1.0128335,-0.85306591,-0.0081950249,-0.76482838,-0.64418197,0
0.41171208,0.36175561,-1.0792013,0.34014764,0.29887471,-0.89161289,0
-1.3684556,-0.42269433,0.045552246,-0.95497543,-0.29497683,0.031788591,0
-0.42548144,1.0263195,-0.76908386,-0.31488165,0.75953764,-0.56916791,0
-0.27087012,1.3010786,-0.37662533,-0.19609627,0.94191509,-0.27265769,0
-0.76205492,0.15685929,-1.0698519,-0.57607323,0.11857734,-0.80875146,0
0.98625064,0.26276612,-0.89227229,0.72749156,0.19382511,-0.65816998,0
-0.59201354,-1.1460311,-0.54844981,-0.4223645,-0.81762129,-0.39128453,0
0.76192188,0.99202913,0.11969504,0.60634953,0.78947252,0.095255204,0
0.66978401,-0.41057429,-1.1308395,0.48642728,-0.29817751,-0.82126647,0
-0.42530248,0.96247828,-1.0687979,-0.28356174,0.64171273,-0.71259916,0
0.87699533,0.588633,-1.1374497,0.56499249,0.37921894,-0.73278677,0
1.0426581,0.66157204,0.64082277,0.74946094,0.47553691,0.46062237,0
0.67785525,0.76474351,0.72952259,0.53986692,0.60906768,0.58101654,0
-0.41546029,-0.63979036,-1.0539716,-0.31932089,-0.49173993,-0.81007779,0
0.46778151,1.2027066,0.44112429,0.34300205,0.88188785,0.32345557,0
-0.044626616,0.38468525,1.4696804,-0.02936257,0.25310788,0.96699232,0
1.137332,-0.56747925,-0.51970768,0.82824033,-0.41325596,-0.3784672,0
-0.88469023,-0.012661517,1.0133612,-0.65763265,-0.0094119124,0.75327998,0
-0.50682771,-1.2243359,0.14569646,-0.38019323,-0.91842699,0.10929318,0
-1.3052326,0.53012925,0.30780762,-0.90514332,0.36763021,0.21345621,0
-0.71421951,0.11503895,-1.2604932,-0.49143443,0.07915508,-0.86730999,0
-0.39019027,1.057411,0.44740185,-0.32176498,0.87197924,0.36894372,0
0.24195902,0.10428204,-1.4119016,0.16846292,0.072605915,-0.98303038,0
-1.256763,0.46257204,0.51204991,-0.87656039,0.32263231,0.35714188,0
-1.383067,-0.2046961,0.4173153,-0.94790071,-0.1402908,0.28601179,0
1.1744623,0.2810311,0.62192595,0.86462021,0.20689055,0.45785183,0
-0.71176195,0.80939358,1.0096185,-0.48194969,0.54805821,0.68363494,0
0.27158442,-0.25286114,-1.2511774,0.20810352,-0.19375668,-0.95872378,0
-0.62658465,-1.1008003,0.41329578,-0.47028181,-0.82620341,0.31019831,0
-0.61227041,-0.72701067,0.82263917,-0.48707235,-0.57835031,0.65442455,0
-0.27614447,0.52186781,1.1473404,-0.21400814,0.40444031,0.88917291,0
0.56346315,-0.89233649,-0.81145954,0.42325929,-0.67030066,-0.60954791,0
-0.26210713,0.96584421,-0.94838446,-0.19010307,0.70051485,-0.68785155,0
-0.46276391,0.676889,-1.0547882,-0.34637907,0.50665182,-0.78950965,0
1.3507408,-0.35197556,-0.50277984,0.91042614,-0.23723853,-0.33888361,0
0.45173696,0.5168584,-0.97161716,0.37972504,0.43446538,-0.8167305,0
1.0250516,-0.79850209,-0.39509207,0.75476915,-0.58795553,-0.29091543,0
0.45583266,0.36988989,-1.313552,0.31682402,0.25708994,-0.91297716,0
0.75395197,-0.62959355,0.71502674,0.62056398,-0.51820683,0.58852535,0
-0.54709959,-1.2745341,-0.038123772,-0.39430064,-0.91857064,-0.027476218,0
0.7394945,-0.48020923,-0.96757692,0.56490171,-0.36683303,-0.73913443,0
-0.5063802,-1.0494558,-0.053456716,-0.43411595,-0.89969057,-0.045828041,0
1.1068752,-0.16081485,-0.38721895,0.93515551,-0.13586617,-0.32714611,0
0.37307885,-0.14490414,-1.1136411,0.31526619,-0.12244965,-0.94107026,0
0.56621277,-0.36281163,1.1245679,0.43212503,-0.27689236,0.85825324,0
-0.30033004,1.4755776,-0.15996976,-0.19832872,0.97442603,-0.10563911,0
-0.076038778,0.34473947,1.3047496,-0.056255631,0.25504798,0.96529055,0
-0.41066301,-0.33538559,-1.1765743,-0.31821391,-0.25988308,-0.9117021,0
0.89532268,-1.2166263,0.333895,0.57874054,-0.78643262,0.21583121,0
-0.61952573,-0.13983153,1.1348317,-0.47638804,-0.10752429,0.8726356,0
0.94578552,-0.94214106,-0.33902049,0.6866737,-0.68402773,-0.24614085,0
0.33766186,-1.2651341,-0.6414203,0.23157965,-0.86767071,-0.43990722,0
0.43100747,-1.264062,-0.074356966,0.3222267,-0.94502896,-0.05559022,0
-0.19414151,0.33833605,-1.3162854,-0.14141299,0.24644452,-0.9587844,0
0.34085864,-0.93045735,0.99338579,0.24292876,-0.66313368,0.70798254,0
-1.1338946,0.8551321,-0.23607293,-0.78759801,0.59397089,-0.16397519,0
0.30988839,0.13068023,-1.4220214,0.21207069,0.089430414,-0.97315377,0
0.17779545,-1.2572871,0.71435952,0.12203297,-0.8629607,0.49031296,0
-0.67314661,0.78304034,-0.84165561,-0.50530285,0.5877955,-0.63179547,0
0.028851485,-1.146415,0.42146978,0.023614382,-0.93831849,0.34496486,0
-0.051713701,-1.3863149,-0.39961949,-0.035820518,-0.96025842,-0.27680436,0
1.3381566,-0.40327087,-0.44719309,0.91192156,-0.2748194,-0.30475134,0
0.078803748,-0.53120995,-1.3409257,0.054555707,-0.3677558,-0.92832071,0
0.7348876,1.1855884,-0.41902187,0.50457311,0.81402379,-0.2877,0
0.959916,-1.0732974,-0.71639794,0.59685099,-0.66734862,-0.44543776,0
-0.16596332,0.95213079,-0.69992453,-0.13907802,0.79788989,-0.58653992,0
1.494509,-0.13443674,-0.33837366,0.97158206,-0.087397486,-0.21997713,0
-0.77605057,-0.78452414,1.0816711,-0.50222236,-0.50770605,0.70000517,0
-0.71220869,-0.5729475,1.1016564,-0.49753043,-0.4002462,0.76958847,0
1.1517246,-0.91117257,0.024508806,0.7841385,-0.62036145,0.01668654,0
0.98293006,-0.60564005,0.62429035,0.74889183,-0.46143556,0.47564515,0
0.54546493,-0.64590651,0.96926242,0.42410487,-0.50219929,0.75361198,0
-0.34566483,-1.1591738,0.022929545,-0.28571305,-0.9581278,0.018952666,0
-0.76886559,-1.0939649,0.16474189,-0.57069713,-0.81200492,0.12228109,0
-0.93354487,-0.69789302,0.21941698,-0.78710693,-0.58841997,0.18499874,0
-0.059122656,1.1178473,-0.63945991,-0.045860641,0.86709899,-0.49602038,0
-0.90278023,0.92157835,0.4077296,-0.66725183,0.68114567,0.30135608,0
1.232888,0.64484006,-0.24868843,0.87229007,0.45623577,-0.17595147,0
-0.70587337,0.43862069,0.94094658,-0.56227028,0.34938759,0.74952018,0
-0.01295778,0.79058671,1.1400204,-0.0093397032,0.56983876,0.82170343,0
0.32422057,0.41448802,-1.2815437,0.23403032,0.29918757,-0.92504954,0
0.48630384,-0.48198861,0.89896208,0.43035111,-0.42653239,0.79553008,0
-0.64225221,1.1464401,-0.14037049,-0.48598093,0.86749107,-0.10621587,0
0.096824311,-0.7442221,-1.0711447,0.074030578,-0.56902236,-0.81898302,0
-1.2979083,-0.20332831,0.3559255,-0.95357352,-0.14938535,0.26149854,0
-0.86518002,-0.78770816,0.28635621,-0.71824014,-0.65392596,0.23772225,0
0.32228047,-0.10747176,-1.4450033,0.2171113,-0.072400704,-0.97345817,0
0.14937821,0.3874256,1.0990752,0.12714173,0.32975334,0.93546659,0
1.332199,0.34979692,0.76259804,0.84617454,0.22218096,0.48438036,0
1.280773,0.75044543,0.082149401,0.8614834,0.50477034,0.055255961,0
1.0331627,0.72931558,-0.30169201,0.79465955,0.56095481,-0.23204713,0
-0.067574538,0.91297549,0.69915175,-0.05866288,0.79257327,0.60694838,0
1.2425829,-0.32879627,0.41027007,0.92095226,-0.24369051,0.3040756,0
-0.0050625619,0.54150903,1.1886729,-0.0038757457,0.41456309,0.91001236,0
0.7368753,0.90197337,0.7282756,0.53643423,0.65662318,0.53017378,0
0.12091561,-0.25192806,1.2403241,0.095103294,-0.19814801,0.97554737,0
-1.2750373,0.20460738,-0.1689655,-0.97902292,0.15710546,-0.12973824,0
-0.79382467,-1.2574697,-0.27206761,-0.52510083,-0.83179367,-0.17996785,0
-1.2253819,-0.22248651,-0.16067003,-0.97582668,-0.17717601,-0.12794878,0
1.070696,0.55697393,0.43466151,0.8346644,0.43419075,0.33884174,0
-0.16943122,-0.92338216,-1.0090189,-0.12293578,-0.6699869,-0.73212314,0
0.41324171,-1.1789453,-1.0276766,0.25545764,-0.72880006,-0.63528883,0
-1.2301757,-0.43021315,-0.54230255,-0.87149948,-0.30477804,-0.38418609,0
-0.96893698,0.60839391,-0.78568244,-0.69812942,0.43835428,-0.56609255,0
0.4003607,-0.41728112,-1.1462955,0.31183109,-0.32500997,-0.89282131,0
0.084180444,0.2815358,1.4692992,0.056180391,0.18789153,0.98058176,0
-0.31694677,-0.35812557,-1.1998849,-0.24537593,-0.27725601,-0.92893475,0
0.61226737,0.96667981,0.43686622,0.49988198,0.78923988,0.35667679,0
0.77704787,-1.1979238,-0.72946191,0.4846206,-0.7471078,-0.4549427,0
-0.51319188,-1.224967,0.29120007,-0.37743804,-0.90092844,0.21416938,0
0.049081109,1.2839082,0.5896318,0.034718651,0.90820199,0.41708958,0
-0.66949785,-0.32233691,-1.0023819,-0.53656101,-0.25833303,-0.80334693,0
0.51564813,-0.2959134,1.2026523,0.38435954,-0.22057122,0.89644641,0
-0.081460565,0.050205838,1.4864513,-0.054688841,0.033705868,0.9979344,0
0.27871296,-0.66178823,1.3089383,0.18668337,-0.44326916,0.87673354,0
-0.9947629,-0.49600303,-0.57968551,-0.79350114,-0.39565101,-0.46240276,0
0.6297757,1.2110212,0.69341838,0.41134417,0.79099035,0.45291302,0
0.061567709,0.38767588,-1.1141764,0.052118555,0.32817703,-0.94317728,0
-0.40697041,-0.60971725,-1.0790309,-0.31197724,-0.46739987,-0.82716846,0
-0.96778411,-0.94418228,-0.23747864,-0.70498919,-0.68779629,-0.172993,0
1.0817606,-0.33429012,-0.66003478,0.82541037,-0.2550717,-0.50362301,0
-0.036554657,-1.0155122,-0.95876169,-0.026165091,-0.72688329,-0.68626237,0
0.99184883,0.36321527,0.81801081,0.74241531,0.27187264,0.61229467,0
0.23599048,-1.0774186,-0.47567883,0.19646831,-0.89697945,-0.3960152,0
-0.49923199,0.82523543,-1.1216993,-0.33746874,0.55783916,-0.75824159,0
0.99041122,0.016375899,0.8607235,0.75473672,0.012479153,0.655909,0
-0.5828504,0.95080596,1.0825775,-0.37500215,0.61174238,0.69652331,0
1.2495289,-0.68987375,-0.18050595,0.86851817,-0.47951505,-0.12546544,0
-0.27451783,0.95732647,1.031352,-0.19147392,0.66772729,0.71935952,0
-1.0922599,0.76720858,-0.18827567,-0.81028527,0.5691483,-0.13967097,0
1.0998086,-0.19989595,0.37757975,0.93214035,-0.16942137,0.32001689,0
-0.64062953,0.60041773,0.8975119,-0.5102334,0.47820646,0.71482897,0
-1.1142945,0.30884373,0.77583408,-0.80023241,0.22179662,0.55716646,0
-0.03591859,-0.36366057,1.4272517,-0.024379833,-0.24683553,0.96875066,0
-1.1184669,0.34415215,0.22325213,-0.93884438,0.28888234,0.18739851,0
-0.66629261,-1.1993525,0.1874145,-0.48116657,-0.86611849,0.13534233,0
-0.39009681,0.18400416,1.208444,-0.30402455,0.14340487,0.94180888,0
-0.50251931,0.80009311,-1.0551934,-0.35479346,0.56488937,-0.74499774,0
-0.82608128,0.11033883,0.87214571,-0.68479091,0.091466822,0.72297662,0
0.97036296,-0.63234586,-0.76512963,0.69904619,-0.45553982,-0.55119681,0
0.84249341,-1.0310526,0.46071851,0.59796041,-0.73179048,0.32699537,0
-1.4948002,-0.18226488,0.069727518,-0.99158567,-0.12090662,0.046254214,0
-0.12959275,0.88409585,-0.83683997,-0.10585718,0.72216922,-0.68356848,0
0.43428072,-1.3353773,-0.51290643,0.29049656,-0.89325291,-0.34309042,0
0.82566619,0.96026957,0.39932945,0.62178558,0.7231515,0.30072358,0
0.026372867,1.3595699,-0.69906205,0.017248543,0.88919419,-0.45720482,0
0.60442847,1.4317751,0.4014973,0.37655523,0.89198709,0.25013036,0
-0.71489751,-0.53423768,-1.1078067,-0.50253713,-0.37554231,-0.77873254,0
0.55498075,-1.048561,-0.26686174,0.45639205,-0.86229098,-0.2194555,0
-0.28734326,-0.92348862,0.58063161,-0.2547223,-0.81864852,0.51471472,0
0.87807637,-0.086488523,-0.88079119,0.70431352,-0.06937328,-0.70649111,0
0.30489224,-0.50454175,1.1544348,0.23521256,-0.38923445,0.89060181,0
-1.0361007,-0.63096523,0.25123751,-0.83634269,-0.50931644,0.20279944,0
0.80223763,-0.18337569,-1.0809269,0.5905171,-0.13498056,-0.7956568,0
0.48616523,1.0173652,0.4845328,0.39613959,0.8289746,0.39480945,0
-0.24907389,1.0761715,1.0758195,-0.16153309,0.69793469,0.6977064,0
-0.57028735,-0.54585505,-1.0902197,-0.42368481,-0.40553325,-0.80995929,0
-0.87560958,0.50003326,-0.82906479,-0.67075866,0.38304931,-0.63510317,0
-0.9161014,-0.99099213,-0.38296801,-0.65303147,-0.70641637,-0.27299398,0
0.40809554,0.68231726,-1.2471371,0.27592611,0.46133596,-0.84322822,0
0.98594058,-0.75125861,-0.098245524,0.79291946,-0.604182,-0.079011641,0
-0.013237854,0.092906497,-1.4646403,-0.0090198014,0.063303173,-0.99795359,0
0.99111336,0.70750308,-0.33558837,0.78465158,0.560121,-0.26568094,0
-1.0937622,-0.85650522,-0.23980898,-0.77584952,-0.6075536,-0.17010616,0
0.78811038,0.87089896,-0.71298331,0.57358038,0.63383329,-0.51890349,0
-0.6505003,-0.49125734,0.7252956,-0.59617788,-0.45023307,0.66472709,0
0.83712429,0.76274067,-0.64971739,0.64116251,0.58419132,-0.49762556,0
-0.39902583,1.4066689,-0.16205505,-0.27123907,0.95618761,-0.11015743,0
0.15080723,1.2122774,-1.0489627,0.093658574,0.75288284,-0.65145648,0
-1.1040436,0.70304728,-0.70630848,-0.74231434,0.4727006,-0.4748933,0
-1.0379769,0.7949369,0.70941156,-0.69781071,0.53441989,0.47692296,0
0.15270819,1.1387858,0.30527252,0.12845124,0.95789534,0.25678149,0
1.0560914,1.0381756,-0.076267764,0.71218598,0.70010424,-0.051431939,0
0.46485084,0.12604843,1.5007093,0.29493672,0.079974703,0.95216405,0
0.13498671,-1.2183764,0.87448686,0.089645386,-0.80913013,0.5807513,0
-0.96691734,-0.023720713,0.68518996,-0.81574559,-0.020012122,0.57806462,0
-0.7651825,0.99694437,0.27475786,-0.59481227,0.77497166,0.21358217,0
0.71903718,0.13539012,1.3658273,0.46405634,0.087378852,0.88148552,0
0.3266741,-0.65065843,-1.2980593,0.21949512,-0.43718296,-0.87217712,0
1.3184097,0.34466413,-0.011336289,0.96745259,0.25291547,-0.0083186002,0
-1.1018367,0.12666573,-0.72545445,-0.83139795,0.095576435,-0.5473963,0
1.2076519,-0.37163481,0.6228019,0.85728502,-0.26381522,0.44211313,0
0.00049367209,-0.84366208,-1.0794661,0.00036033374,-0.61579317,-0.78790772,0
-0.47087374,0.64547879,1.1744106,-0.33150217,0.45442674,0.82680261,0
0.83464384,-0.93279171,0.67340106,0.58722436,-0.65627754,0.47377992,0
-0.36782518,0.32740578,-1.2712647,-0.26980379,0.24015573,-0.93248653,0
-0.92486817,-1.0048512,-0.40890801,-0.64876074,-0.70486587,-0.28683382,0
0.62357563,-0.80179638,-0.96042854,0.4460777,-0.57356876,-0.687047,0
-0.09354338,-0.89977491,-0.7645117,-0.078978993,-0.75968295,-0.6454798,0
-1.0419122,-0.98491329,0.070322283,-0.72583234,-0.68612492,0.048988953,0
0.097464271,0.31619135,1.2832105,0.073547877,0.23860234,0.9683283,0
-1.2409492,-0.45473814,0.61074746,-0.85233682,-0.31233355,0.41948742,0
1.2522392,0.046397228,-0.55262023,0.91434896,0.033877917,-0.40350735,0
-1.1317942,0.63465601,-0.86866897,-0.7248047,0.40643579,-0.55629843,0
0.87202799,0.98787707,-0.60081029,0.60214269,0.68213743,-0.41486457,0
-0.71407926,0.72130215,1.1044112,-0.47606233,0.4808777,0.73628885,0
1.2913508,0.041251887,0.22485426,0.98468924,0.031455655,0.17145734,0
0.70931035,1.0727364,0.13616569,0.54848266,0.82950616,0.10529174,0
-0.86016822,-0.89578843,-0.67695236,-0.60814101,-0.63332456,-0.47860694,0
