-0.90750343,-0.49144471,0.71584505,-0.72253948,-0.39128029,0.5699442,0
-0.16429323,0.7069549,-1.0475361,-0.12891755,0.5547331,-0.82198024,0
-0.56431544,-0.19118972,-1.0391338,-0.47111353,-0.15961298,-0.86751127,0
-1.0454104,-0.43159455,0.85954887,-0.73591608,-0.30382076,0.60507894,0
-0.49165016,1.3224452,-0.23806573,-0.34361339,0.92425448,-0.1663837,0
0.16209279,-0.6612168,-1.10588,0.12481784,-0.50916302,-0.85157126,0
1.3194103,-0.35319588,-0.56747675,0.89205956,-0.23879741,-0.38367373,0
-0.13490081,1.0626795,-0.52157462,-0.11322514,0.89192969,-0.43776876,0
0.40248495,-1.1639837,-0.85722941,0.26822233,-0.77569711,-0.57127124,0
0.53628087,1.4052259,0.072847165,0.35613328,0.93318212,0.048376329,0
-0.75195664,0.97955179,-0.52713895,-0.56003439,0.72954035,-0.39259702,0
0.53299528,-1.008124,0.82623184,0.37849119,-0.71589011,0.58672464,0
1.0626546,-0.2502397,1.0132588,0.71344042,-0.16800483,0.68027723,0
-1.4172261,-0.41129121,-0.1350029,-0.95638174,-0.27755022,-0.091103539,0
0.4435848,-1.2280174,-0.64824694,0.30429536,-0.84240937,-0.44469184,0
-0.35216033,-0.83637345,1.1740415,-0.2373234,-0.56363815,0.79119509,0
-0.5312615,0.7014603,1.139966,-0.36891311,0.48710078,0.79160339,0
-1.2622144,-0.87841892,-0.29959369,-0.80564958,-0.56067955,-0.19122545,0
0.60486066,-1.126202,-0.44752759,0.44658101,-0.83149797,-0.33041877,0
0.29417893,0.67260069,-1.1748374,0.21235095,0.48551196,-0.84804785,0
-0.78203177,0.028843332,1.0859513,-0.58424127,0.021548314,0.8112939,0
-0.82468599,1.0024,-0.57849944,-0.5803082,0.70536053,-0.40707368,0
1.143605,0.86871952,0.23464683,0.78588253,0.59698194,0.16124873,0
1.186882,-0.43929625,0.46349084,0.88062412,-0.32594216,0.34389368,0
0.083405331,1.0446968,-1.033711,0.056659631,0.70969248,-0.7022295,0
0.62512285,-0.77945304,-0.94082844,0.45549583,-0.56794858,-0.68553478,0
-0.52901417,0.90192801,-0.78658497,-0.40430543,0.6893093,-0.60115701,0
-0.70831472,-1.3061625,0.44858593,-0.45636037,-0.84154791,0.28901961,0
1.2685032,0.398987,0.29637155,0.93108153,0.29285651,0.21753676,0
-0.12847032,1.2062109,-0.12222308,-0.1053748,0.98936647,-0.10025065,0
-0.7939198,-0.67153007,0.85250086,-0.59043914,-0.49941775,0.63400596,0
-1.0170079,-0.52842504,-0.39476517,-0.83899158,-0.43592989,-0.32566574,0
-0.23650366,1.15193,-0.7929368,-0.16674942,0.81218046,-0.5590685,0
-0.37280518,-0.61085218,-1.0857005,-0.28669944,-0.46976542,-0.83493942,0
-0.31463948,-0.64669698,-1.2412356,-0.21933256,-0.45080706,-0.865255,0
-0.65021801,-1.3583468,-0.48356661,-0.41109207,-0.85879755,-0.30572885,0
-0.37673363,0.42589542,-1.5200983,-0.23212683,0.26241818,-0.93661827,0
-0.2557565,0.14769483,-1.283273,-0.19422284,0.11216024,-0.97452426,0
0.30107865,-1.3985833,-0.16755785,0.20902398,-0.97096705,-0.11632711,0
-0.33571228,-1.2689793,-0.79388618,-0.21884251,-0.82721609,-0.51751471,0
-0.82156497,1.0026951,-0.19175486,-0.62695956,0.76518512,-0.14633358,0
1.0305923,0.98689252,0.52432227,0.67793453,0.64918834,0.34490475,0
-1.2588198,-0.14299715,0.79925227,-0.84035689,-0.095461354,0.53356099,0
1.4448886,0.67643058,-0.35146719,0.88445777,0.41406256,-0.21514316,0
0.35403812,-1.4150031,-0.057729393,0.24253117,-0.96933728,-0.039547089,0
-1.4217474,0.60227436,0.12592281,-0.91774225,0.38876992,0.081283554,0
-0.94707513,1.0470351,0.02421633,-0.67072028,0.74151212,0.017150046,0
-1.4937911,-0.13273814,-0.0017443501,-0.99607456,-0.088511094,-0.0011631497,0
0.10047118,-1.200913,-0.84736919,0.068199232,-0.81517255,-0.57518917,0
-0.79946196,0.010721576,-0.79219627,-0.71029496,0.0095257591,-0.70383966,0
-0.013102164,0.39830109,1.3414962,-0.0093624452,0.28461498,0.95859623,0
0.96352977,0.21886347,-0.71398741,0.7903977,0.17953694,-0.58569443,0
-1.1676179,-0.62848979,0.62233549,-0.79711884,-0.42906252,0.42486104,0
-0.91593254,-0.83404946,0.66913301,-0.65054554,-0.59238768,0.47525498,0
1.4378119,-0.15344314,0.28913656,0.97505158,-0.10405741,0.19607785,0
-1.0410146,-0.77788275,-0.061404355,-0.80016911,-0.59791452,-0.047198061,0
0.7182076,0.087144777,-1.093483,0.54776806,0.066464245,-0.83398598,0
0.44506821,-0.41608322,-1.0691655,0.36167368,-0.33811975,-0.86883086,0
1.2996827,0.55649376,-0.64879572,0.8355028,0.35774279,-0.41707921,0
-0.69361752,-0.27352729,0.98386937,-0.56187379,-0.22157429,0.796996,0
0.26887953,0.87781441,-0.8668555,0.21294807,0.69521421,-0.68653494,0
-0.12899728,0.484148,-1.0329844,-0.11235876,0.42170092,-0.89974648,0
-0.46280876,-0.34582657,1.4700714,-0.29300508,-0.21894345,0.93070495,0
0.55831987,1.0112085,-1.0357922,0.35985982,0.65176499,-0.66761017,0
0.72531027,-0.58658808,-1.0571015,0.51446599,-0.41606972,-0.74980706,0
0.39961886,0.29309753,-1.3896339,0.27086213,0.19866185,-0.94189554,0
-0.97442311,-0.65552258,-0.096238136,-0.82694948,-0.5563128,-0.081673019,0
1.1144719,-0.6868034,-0.39911339,0.8143214,-0.5018329,-0.29162383,0
-0.78130591,-0.6554569,-1.1481278,-0.5087744,-0.42682347,-0.74764317,0
1.0466182,1.0463403,-0.44485709,0.67726529,0.67708546,-0.28786644,0
-0.94824976,-0.74112546,-0.90180862,-0.63052881,-0.49280366,-0.59964824,0
0.0026637139,-1.3345035,-0.61883694,0.0018108081,-0.9072032,-0.42068893,0
-0.57096958,-0.61709827,-0.88572985,-0.4675473,-0.50532049,-0.72529364,0
0.81330103,-0.35348904,0.82513881,0.67142379,-0.29182425,0.68119651,0
0.55058706,-0.5411377,1.307359,0.36263949,-0.35641575,0.86108094,0
-0.73761535,0.84083349,0.96421736,-0.49948537,0.56938082,0.65293175,0
0.6216417,0.67247951,-1.2180227,0.40793034,0.44129086,-0.79928422,0
0.27561259,1.2637142,-0.97026891,0.17045768,0.78156728,-0.60008061,0
0.56323004,-0.0086928438,-1.0810772,0.46203172,-0.0071309577,-0.88683474,0
0.83869046,1.1280283,-0.19099905,0.59122401,0.79518902,-0.13464232,0
-1.1009719,0.21003805,0.64283317,-0.85208786,0.16255717,0.49751526,0
1.4535583,0.29440627,-0.66436452,0.89445305,0.1811641,-0.40881944,0
0.82504231,0.52093267,1.3243507,0.50155056,0.3166796,0.80508453,0
0.51211232,-0.20640218,-1.4050908,0.33921859,-0.13671894,-0.93071944,0
0.79321355,0.04653297,-1.2369206,0.53954792,0.031651966,-0.84135973,0
-1.0645881,-0.87651747,0.40823266,-0.74024665,-0.60947436,0.28385895,0
-0.33794671,-0.2606402,-1.4400063,-0.22501001,-0.17353818,-0.95877784,0
-0.37993011,0.029125778,-1.3940569,-0.26289186,0.020153522,-0.96461481,0
-0.34071365,0.71749246,1.2055436,-0.23600332,0.49698803,0.83504814,0
-0.67986196,0.60660553,1.1899768,-0.45362175,0.40474313,0.79398376,0
-1.3075446,-0.38727897,-0.72123158,-0.84758502,-0.25104448,-0.4675214,0
0.91049945,-0.68134964,0.10196179,0.79744434,-0.59674764,0.089301378,0
-0.11799473,0.93137735,0.88449705,-0.091479182,0.72208005,0.68573457,0
-0.65257674,0.4911066,1.1128514,-0.47274762,0.35577345,0.80618542,0
-0.98560154,0.32149097,-0.8290441,-0.7424863,0.24218981,-0.62454641,0
0.79566455,1.2356325,-0.19756459,0.53657091,0.83327132,-0.13323128,0
-0.42922676,-0.2753121,-1.1676511,-0.33687478,-0.21607624,-0.91642046,0
0.99651319,0.84581953,-0.045523707,0.76193649,0.64671576,-0.03480754,0
-1.192912,0.16665919,0.27200681,-0.96605462,0.13496543,0.22027898,0
-0.77367508,0.87661242,-0.36942565,-0.63096786,0.71491802,-0.30128372,0
-0.9415462,1.3602874,0.07705085,-0.56851554,0.82135594,0.046524119,0
0.15689601,-1.1911711,-0.63393307,0.11549667,-0.87686294,-0.46666044,0
-0.97102553,0.37535763,-0.97077107,-0.68216842,0.26369762,-0.68198961,0
-1.4848795,0.20211126,-0.29382026,-0.97235,0.13234939,-0.19240358,0
-1.078995,0.85693461,-0.63077044,-0.71201974,0.56548393,-0.41624013,0
-0.9614284,1.2365614,0.3319847,-0.60046571,0.77230167,0.20734298,0
-1.027197,0.86388111,-0.33993462,-0.74189931,0.62394339,-0.24551985,0
1.0669101,0.34044442,1.1639348,0.66053444,0.21077245,0.72060335,0
0.75386107,0.77377486,0.72382766,0.57972842,0.59504235,0.55663234,0
1.1090122,-0.83619678,0.65320891,0.7225464,-0.544801,0.42558029,0
1.0664644,0.20785828,0.94803673,0.73957998,0.14414717,0.65745187,0
-0.35013303,1.5576292,0.20564421,-0.21751626,0.96765983,0.12775418,0
-0.47182751,-1.1187222,0.59172106,-0.34932995,-0.8282755,0.43809628,0
-0.67103195,0.87296331,1.1263574,-0.42601725,0.55421716,0.7150892,0
0.59887123,-1.2043589,0.30196425,0.43443146,-0.87366265,0.21905005,0
-0.27097872,-0.57508665,-1.1726166,-0.20315371,-0.43114454,-0.87911487,0
-0.9377349,0.25381243,-0.89977115,-0.70818228,0.19168048,-0.67951185,0
0.791031,-0.98310411,-0.04435239,0.62650329,-0.7786268,-0.035127468,0
-0.74134803,0.43503323,-1.0068634,-0.55998665,0.32860789,-0.76054704,0
1.0749763,0.63997579,-0.38915408,0.82047695,0.48846227,-0.29702231,0
-0.82244968,1.3708475,-0.39212868,-0.49965689,0.83282101,-0.2382271,0
-0.030491224,-1.1925006,-0.89847797,-0.02041729,-0.7985127,-0.60163164,0
1.0978723,-0.79808408,-0.24483781,0.796018,-0.578655,-0.17752092,0
0.31611919,-1.5070382,-0.15475243,0.20426507,-0.97379494,-0.099995561,0
-1.0390011,-0.64955676,-0.48622683,-0.7881487,-0.49273029,-0.36883411,0
0.66561162,-1.2665941,0.0082379831,0.46518213,-0.88519627,0.0057573551,0
1.334956,0.55118322,-0.23879781,0.91193199,0.37652299,-0.16312699,0
-1.2514988,0.12547122,-0.25571153,-0.97506475,0.097756833,-0.19922934,0
0.82604319,0.91860652,-0.7976678,0.56173152,0.62467706,-0.54243547,0
0.82926202,0.82446992,-0.5806728,0.6351549,0.63148445,-0.44475347,0
0.96172971,0.19971597,-0.96946645,0.69685513,0.14471124,-0.70246106,0
0.64899707,-1.2051926,-0.47029364,0.44839936,-0.83268106,-0.32493114,0
-0.3457143,0.18604901,-1.3017592,-0.25426289,0.13683368,-0.95740634,0
-0.57554555,-0.18297084,-1.4148706,-0.37412626,-0.11893792,-0.9197191,0
-0.61075813,-1.1214482,-0.71720022,-0.41701415,-0.76570368,-0.48969081,0
-0.17378841,-1.1463387,0.5288133,-0.13637541,-0.89955598,0.41497087,0
-1.1350589,-0.012763523,-0.85475594,-0.79879683,-0.0089823203,-0.60153383,0
1.3369534,0.078196838,-0.34701562,0.96637946,0.056522403,-0.25083056,0
-1.377707,-0.44482797,-0.21705787,-0.94110787,-0.30386078,-0.14827164,0
0.33025324,1.1794249,0.55724043,0.24543278,0.87650776,0.41412181,0
-1.0261673,-0.84760785,-0.56402737,-0.70988524,-0.58636081,-0.39018461,0
-0.61745584,0.84336531,-0.73357981,-0.48353145,0.66044182,-0.57446843,0
1.0937529,-0.58650506,0.75757951,0.75222039,-0.40336451,0.5210197,0
-0.059986249,-0.97799981,0.74417138,-0.048753634,-0.79486626,0.60482293,0
-0.66978276,1.1861567,-0.35420501,-0.47586918,0.84274405,-0.25165659,0
1.1240225,-0.84117043,-0.65378815,0.72579032,-0.54315048,-0.42215624,0
0.10737966,-0.86892283,1.0410908,0.078937978,-0.638771,0.76533681,0
-0.19640915,-1.4742916,0.21673355,-0.13067585,-0.98088259,0.14419818,0
-0.74965668,0.0122073,1.2653961,-0.50968033,0.0082995603,0.86032385,0
-1.2582819,0.51811397,0.29069752,-0.90427506,0.37234703,0.20891225,0
1.1510125,-0.76581204,0.1666588,0.82657635,-0.54995239,0.11968265,0
-0.81985003,0.39693865,1.0506012,-0.58961004,0.28546566,0.75555903,0
-0.67128646,-0.78996044,-1.1479132,-0.43400416,-0.51072997,-0.74215579,0
-1.2051418,0.43937036,0.58502233,-0.85480416,0.31164435,0.41495493,0
-1.2232145,-0.37387717,0.70447463,-0.83767623,-0.25603688,0.48243511,0
-0.29918942,-0.93812084,-0.7951501,-0.23639348,-0.74122161,-0.62825853,0
0.48314258,-0.045884445,1.1160551,0.39699176,-0.037702631,0.9170475,0
-0.40095407,-1.2056124,-0.23089908,-0.31049263,-0.93360764,-0.17880468,0
-1.0885121,0.61220354,-0.94440544,-0.6952045,0.39099857,-0.60316736,0
-1.1397835,0.098328717,0.55880326,-0.89521229,0.077229649,0.43889701,0
0.94782132,-0.9328683,0.52391577,0.66310459,-0.65264332,0.36653635,0
1.3103571,0.61990798,0.5492503,0.84530413,0.39989921,0.35431835,0
0.1604424,-1.258225,0.34272555,0.1221116,-0.95762628,0.26084605,0
-1.2072062,0.15782857,-0.12518598,-0.98636121,0.12895557,-0.10228459,0
-1.2863486,-0.077639103,-0.3363663,-0.9658255,-0.058293551,-0.25255296,0
0.5729689,-1.179126,0.64074463,0.39266691,-0.80807835,0.43911496,0
1.2415541,0.42006156,0.35056153,0.91508651,0.30960605,0.2583811,0
1.1518062,0.32781029,-1.0045651,0.73687506,0.20971863,-0.64267665,0
-0.61797655,1.2279868,0.3916533,-0.43232706,0.85908103,0.27399474,0
0.71347642,-0.54703599,-1.0449106,0.51759183,-0.39684752,-0.75803083,0
0.36634377,-1.3750727,0.36684605,0.24928793,-0.93570322,0.24962974,0
0.72071505,0.82732987,0.55173188,0.58683753,0.67364794,0.44924408,0
-0.71231794,-1.1973556,0.070448563,-0.5106228,-0.85832047,0.050500821,0
0.28867713,-1.3495678,-0.094177648,0.20868629,-0.97561002,-0.068081543,0
0.1545358,0.94443738,-0.7563197,0.12669155,0.77426875,-0.62004608,0
-0.20031831,-1.1928025,0.99000823,-0.12816133,-0.76314116,0.63339573,0
-0.51726037,0.5745483,-1.0605497,-0.39412907,0.43777987,-0.80809104,0
-1.1838198,0.86875445,-0.25509563,-0.79430646,0.58290738,-0.17116128,0
1.1933601,0.24275312,-0.50224441,0.90591174,0.18428043,-0.38126725,0
1.1138285,-0.3040657,-0.75163335,0.80847692,-0.22070731,-0.5455761,0
-0.1236117,1.3969442,-0.10176027,-0.08791168,0.99349582,-0.07237111,0
-1.3296537,-0.43239748,0.36902136,-0.91949362,-0.29901522,0.25518882,0
-1.0404083,-0.40813509,0.80179608,-0.75640547,-0.29672545,0.58292782,0
-1.088431,-0.14348796,1.217387,-0.66396117,-0.087530062,0.74262649,0
0.55543661,-0.99722171,-0.88029724,0.385322,-0.69180077,-0.61068696,0
-0.27307618,-1.3154567,-0.18393883,-0.20137843,-0.97007591,-0.13564461,0
-1.268015,-0.49976259,-0.24572699,-0.91558647,-0.36085999,-0.17743032,0
0.42832795,0.052002586,-1.3222259,0.30796233,0.037389196,-0.95066357,0
0.6121031,-0.52663016,1.0823243,0.45329341,-0.38999638,0.80151606,0
0.41632375,1.0910962,0.632743,0.31344384,0.82146972,0.47638261,0
-0.15382138,1.0970908,0.82823163,-0.11120705,0.79315525,0.59878016,0
0.94254607,0.8577674,-0.38194373,0.70845318,0.64473039,-0.28708333,0
-1.0923759,0.14323935,-1.074388,-0.70985711,0.093081035,-0.6981681,0
0.87417805,0.87994325,-0.49123803,0.65526056,0.65958202,-0.36821893,0
0.76185721,1.1529386,0.17919205,0.54672754,0.82737714,0.12859263,0
-0.079451852,-1.3532662,0.25196871,-0.057623293,-0.98147064,0.18274297,0
1.1759986,0.84476173,-0.61829686,0.74692762,0.53654474,-0.39270711,0
-0.57890034,0.2029864,1.0496061,-0.47617468,0.16696654,0.86335385,0
-0.38387954,1.1382135,-0.73655868,-0.27243921,0.80778986,-0.52273554,0
1.3853898,-0.14352609,0.10819354,0.99168879,-0.10273875,0.077447027,0
-0.91398585,0.87725461,-0.18027486,-0.71425968,0.68555504,-0.14088081,0
-0.77319747,0.8722322,0.48105609,-0.61317807,0.69171679,0.38149768,0
-0.12907781,-1.2301918,0.077210709,-0.10414939,-0.99260855,0.062299233,0
0.096601702,-1.4838253,-0.51525766,0.06138473,-0.94288421,-0.32741609,0
-0.35252702,0.33971873,-1.4468455,-0.23079731,0.2224118,-0.94724101,0
-1.2176795,-0.47959509,-0.59033823,-0.84813935,-0.33404806,-0.411183,0
0.50444967,-1.1581551,-0.24166492,0.39221531,-0.90047866,-0.18789719,0
0.18692236,-0.90941823,0.7238223,0.1587798,-0.77249855,0.61484545,0
-0.4269245,-0.90508604,-0.84501445,-0.32595405,-0.69102728,-0.645163,0
-1.4433949,-0.35738665,-0.28694147,-0.95310462,-0.23599006,-0.1894736,0
-1.0180532,0.094911925,-0.86356074,-0.76067847,0.070917182,-0.64524335,0
1.1847366,0.11782165,0.10314506,0.99137783,0.098592184,0.086310938,0
-0.6108095,0.48166013,-1.1482066,-0.44041678,0.34729519,-0.82790047,0
1.1926873,0.77236342,0.48954234,0.7935921,0.51391637,0.32573244,0
-0.34915224,1.1320739,0.5308845,-0.26894996,0.87202996,0.40893728,0
0.31079623,-1.4242455,-0.14776228,0.2121141,-0.97202766,-0.10084569,0
0.13435489,1.299094,0.42755675,0.097767569,0.94532669,0.31112516,0
-0.86946481,-0.46416387,-0.96537888,-0.63021684,-0.33644131,-0.6997385,0
0.18570213,-1.2983652,0.63948178,0.12726566,-0.88979763,0.43825063,0
-1.0652564,0.51539081,-0.76824808,-0.75502568,0.36529544,-0.544514,0
-0.91869277,-0.31956607,0.92984784,-0.68272018,-0.23748331,0.69101,0
-0.7223739,0.32666579,1.1747196,-0.50971341,0.23049827,0.82889253,0
1.1233007,-0.032451622,0.80640239,0.81212401,-0.023461876,0.58301288,0
1.5271643,-0.12856498,-0.4235141,0.96047616,-0.080858096,-0.26635981,0
0.94944531,-1.0426644,0.38336235,0.64970148,-0.7134909,0.26233324,0
0.96238422,0.7376672,0.034587562,0.79334766,0.60810077,0.028512482,0
-1.0012157,-0.18061393,-0.96656764,-0.71346211,-0.12870473,-0.68877202,0
-0.66928256,0.25306264,-1.1713711,-0.48759434,0.18436445,-0.85338235,0
1.0873462,0.59063828,-0.25949031,0.86002302,0.46715805,-0.20524065,0
1.0151188,-0.37048337,1.189186,0.63175434,-0.23056856,0.74008423,0
-0.95180613,0.99438608,-0.50363863,-0.64936948,0.67841965,-0.34360734,0
-0.55816239,0.31818575,-1.2711955,-0.39187625,0.22339275,-0.89248455,0
-0.72964573,-1.1064866,-0.075672016,-0.54961318,-0.83347237,-0.057000726,0
-0.48733947,1.2181832,-0.40629202,-0.35481194,0.88690931,-0.29580459,0
-0.69312847,0.8763442,-0.89783674,-0.48356944,0.61139214,-0.62638664,0
0.86407185,-1.2662745,0.37236804,0.54772305,-0.8026737,0.23603889,0
0.31931275,0.5919795,1.1685493,0.23682652,0.43905684,0.86668468,0
-0.084871322,1.3341349,0.40267584,-0.060789041,0.95557344,0.28841636,0
0.19140208,0.75533062,1.2867748,0.1272358,0.50211108,0.8553921,0
1.0221373,-0.86289299,-0.35057977,0.73915637,-0.62399918,-0.253521,0
1.3082147,0.69984901,0.4281857,0.84717894,0.45321104,0.27728623,0
-1.4100729,-0.061106209,-0.47285137,-0.94731224,-0.041052245,-0.31767002,0
-1.424561,-0.31554213,-0.59195304,-0.90471584,-0.20039575,-0.37593988,0
0.36651465,0.57031667,1.4235541,0.23245133,0.36170688,0.90284806,0
-0.79186857,0.17636238,-1.1150248,-0.57426429,0.12789826,-0.80861765,0
1.2461141,-0.82010579,0.23672369,0.8250038,-0.54296023,0.15672557,0
-0.74370003,0.19032301,1.2062991,-0.52012467,0.13310701,0.84365451,0
1.1511912,0.50630814,0.53708321,0.8418237,0.37024447,0.39274913,0
-1.261121,0.4838793,-0.055392381,-0.93285078,0.35792533,-0.040973723,0
0.32598305,0.95817399,-0.89223695,0.24160491,0.71015823,-0.66128844,0
0.10997683,0.45089027,-1.4327868,0.073021933,0.29938015,-0.95133555,0
0.044315904,-0.25396234,1.2883632,0.033728451,-0.19328853,0.98056209,0
-0.17675205,-1.0197662,-0.7496683,-0.13830858,-0.79796773,-0.58661592,0
-0.45423496,0.5473606,-1.1588075,-0.33407146,0.4025616,-0.85225612,0
0.45050159,-1.1432478,0.53698975,0.33594036,-0.85252333,0.40043485,0
-1.3682709,-0.30886564,0.19170137,-0.96647215,-0.21816589,0.13540742,0
-0.43485802,-0.18026888,-1.4492527,-0.28537947,-0.11830308,-0.95108509,0
0.36335927,0.11036575,-1.2742591,0.27327609,0.083004132,-0.9583478,0
0.29188216,-0.82177347,0.82966894,0.2424905,-0.68271476,0.68927419,0
-1.4236765,-0.011468119,-0.43862131,-0.95564359,-0.0076979813,-0.2944248,0
0.024215963,1.4840134,0.16698201,0.016213426,0.99359846,0.11180025,0
1.0571021,0.02549848,1.0764524,0.7005648,0.016898403,0.71338868,0
0.64860129,-0.025122525,1.4515331,0.40791219,-0.01579982,0.91288441,0
0.44020057,-1.1363304,-0.85746682,0.29542515,-0.76260817,-0.57545871,0
-0.67948925,1.0148469,-0.28159672,-0.54213321,0.80969965,-0.22467306,0
0.39311594,-0.94097704,-1.1439135,0.25652155,-0.61401963,-0.74644262,0
1.0905995,0.76190519,0.14368862,0.8150264,0.56938666,0.10738132,0
1.1185006,0.137427,-0.76644278,0.82070613,0.10083784,-0.56238174,0
-0.17625307,0.63286835,-1.0990192,-0.13765442,0.49427295,-0.85833877,0
-0.44288364,-0.02151455,1.3637451,-0.30884093,-0.015002978,0.95099539,0
0.62805283,0.59100854,-0.91365069,0.49988952,0.47040465,-0.72720695,0
1.3104886,0.46057022,-0.10551342,0.94072121,0.33061576,-0.07574176,0
-0.8411209,0.98992538,0.75328994,-0.56013983,0.65923536,0.50164932,0
-0.57300133,-1.128199,-0.33903146,-0.43740484,-0.86121917,-0.25880221,0
-0.77764839,0.0087421732,1.3502616,-0.49906507,0.0056103934,0.86654639,0
0.75431436,0.76331592,0.37802169,0.66297066,0.67088223,0.33224517,0
0.42927527,1.2641861,0.43783337,0.30552498,0.89974999,0.31161594,0
-0.78573853,-0.80817252,-0.8599996,-0.5541997,-0.57002288,-0.60657775,0
0.98778397,-0.8870793,0.35249576,0.71910089,-0.64578849,0.25661483,0
0.7438702,-1.0429388,0.80457562,0.49173442,-0.68943334,0.53186363,0
0.063643627,-1.2761717,0.85942143,0.041329909,-0.8287406,0.55810469,0
-0.24306366,1.3241036,0.70885676,-0.15975797,0.87029094,0.46590889,0
-0.73160201,-0.85815507,0.99841571,-0.48574123,-0.56976515,0.66289002,0
-0.17257537,1.1267292,-0.79741466,-0.12405638,0.80995309,-0.57322419,0
-0.29930848,-0.52361298,-1.2073447,-0.22177467,-0.38797462,-0.89459026,0
0.68377662,-1.3131967,-0.31925693,0.45146203,-0.86703527,-0.2107887,0
0.73494607,-1.1808792,0.059071776,0.52791762,-0.84823495,0.042431727,0
1.0673498,0.74207044,-0.59410262,0.74677068,0.51918918,-0.41566357,0
0.11390678,-1.1224024,-0.8169449,0.08177691,-0.80580455,-0.58650792,0
1.2455424,0.38926914,-0.91392183,0.78180611,0.24433772,-0.5736534,0
-1.01489,0.95321751,-0.57509285,-0.67370158,0.63276231,-0.3817566,0
0.25247967,-0.29956365,1.5490102,0.15801856,-0.18748683,0.96947348,0
-0.59505475,-1.2117406,-0.24767223,-0.43355644,-0.8828733,-0.18045381,0
1.3047924,-0.16757958,0.68096697,0.88083625,-0.11312924,0.45970562,0
-0.36235875,-0.35528105,1.4305114,-0.23873043,-0.23406747,0.94245434,0
-1.126103,0.41180712,-0.57502067,-0.84682757,0.30967826,-0.43241456,0
-0.15280214,0.69105035,1.1941862,-0.11007555,0.49781859,0.8602674,0
0.52845019,-0.6659205,0.97241068,0.4091363,-0.51556844,0.75285906,0
-1.024112,0.53885043,0.58502913,-0.78978491,0.41555604,0.4511686,0
-0.55102646,0.63804334,-1.2576795,-0.36393097,0.42140213,-0.83064705,0
0.023984836,0.73243541,1.2994375,0.016077394,0.49096239,0.87103236,0
-0.32220471,-1.3570113,0.58307064,-0.21313924,-0.89766645,0.38570273,0
1.3463362,-0.24437916,0.35539895,0.95232475,-0.17286047,0.25138983,0
-0.86276066,0.24377531,1.1609674,-0.5881753,0.16619049,0.79147363,0
0.22138546,-1.2852899,0.34703135,0.1640382,-0.9523508,0.257137,0
-1.4260937,0.49363366,0.19660273,-0.93707037,0.32436121,0.12918548,0
-0.060266063,0.29139236,1.4694761,-0.040196124,0.19435222,0.9801079,0
0.71312207,1.0601367,-0.17399706,0.55303919,0.82215536,-0.1349379,0
1.5027907,0.39219332,0.12068444,0.96468395,0.25176001,0.077470765,0
0.57818341,-0.31054726,-1.0302488,0.47332522,-0.25422701,-0.84340489,0
0.63606799,-0.73582202,0.938541,0.47059685,-0.54440016,0.69438243,0
-1.1513934,1.0055578,0.04835039,-0.7528196,0.65746737,0.031613104,0
-1.1868887,0.007420761,-0.026414961,-0.99973291,0.0062506106,-0.022249689,0
-0.016652575,-1.1890509,0.92834133,-0.011038277,-0.78817081,0.61535764,0
-0.15764917,0.95906574,-0.9098736,-0.11841177,0.72036326,-0.68341458,0
-0.96503741,-0.065756679,0.94850868,-0.71234733,-0.048538633,0.70014662,0
-0.93871635,0.88047791,-0.61576742,-0.65794301,0.61712384,-0.43158922,0
0.7108525,-0.75825274,-0.93784374,0.5077765,-0.54163545,-0.66992098,0
-1.0378453,0.18377663,1.0517451,-0.69701713,0.12342443,0.70635223,0
-0.020991229,-1.3200467,-0.58518159,-0.014535937,-0.91410154,-0.40522462,0
1.1035535,-0.71960783,-0.44403243,0.79377329,-0.5176056,-0.31938741,0
-0.40776807,0.084865898,1.3195381,-0.29469153,0.061332073,0.95362222,0
1.2141529,0.55228257,-0.022349522,0.91012716,0.41399017,-0.016753167,0
0.35259077,-1.1929568,0.050550878,0.28320575,-0.95819932,0.040603161,0
1.044078,0.50434297,0.28445125,0.87451774,0.42243671,0.23825583,0
-0.91942877,0.28115141,0.86520386,-0.71084285,0.2173681,0.66891968,0
-0.40125543,0.94081342,-0.55271739,-0.34513712,0.8092342,-0.47541606,0
-1.1757997,0.2987251,0.30261716,-0.94039345,0.23891748,0.24203032,0
0.32400492,0.74664247,-1.2591795,0.21609996,0.49798447,-0.83982873,0
0.21273714,-1.216849,-0.38101947,0.16456407,-0.94130069,-0.29473987,0
-0.094181225,-1.1523113,-0.66127491,-0.070711568,-0.86515903,-0.49648732,0
0.69383013,-0.0039649494,-1.3249671,0.4639003,-0.0026509964,-0.88588351,0
0.31516412,1.3037636,0.66946727,0.21023493,0.86969495,0.44657812,0
-0.31221852,0.032745879,1.1461729,-0.26272449,0.027554883,0.96447736,0
-0.40138176,0.68396705,1.0513841,-0.304784,0.51936144,0.7983548,0
-0.71566296,0.56685388,0.93794501,-0.54676378,0.43307421,0.71658641,0
0.13243957,-1.3639112,0.79107976,0.083701879,-0.86199254,0.49996281,0
0.32589495,0.7494086,-1.1141336,0.235864,0.54237878,-0.8063457,0
-1.4132115,-0.46657029,0.011181573,-0.94955969,-0.31349614,0.0075130807,0
-0.44647846,-0.35512066,-1.4916011,-0.2795777,-0.22237091,-0.93401688,0
1.3755766,-0.19330205,0.56711835,0.91680664,-0.12883368,0.37797812,0
-0.36835778,-1.3103265,0.19069244,-0.2680113,-0.95337284,0.13874482,0
0.61920965,1.3275808,0.12723519,0.42111605,0.90286964,0.086530924,0
0.76876813,-1.2170647,-0.066700533,0.53346819,-0.84455281,-0.046285231,0
-1.1897711,-0.33802554,0.12070745,-0.9573822,-0.27200162,0.097130597,0
-0.28755376,0.39972302,1.2092677,-0.22023335,0.30614218,0.92616099,0
1.0255466,0.94693643,-0.49815813,0.6919589,0.63891894,-0.33611831,0
1.5387293,-0.57631272,-0.018404754,0.93641263,-0.35072219,-0.011200439,0
-0.92447311,0.62363279,0.86908901,-0.65388364,0.44109806,0.61471027,0
0.1541165,0.32228178,-1.3813344,0.10801698,0.22588044,-0.96814793,0
0.10292756,0.59717733,-1.1341391,0.080044478,0.46441153,-0.88199472,0
-0.48029909,-1.0381614,-0.21547478,-0.41262811,-0.8918913,-0.18511581,0
0.31408966,-0.19504416,1.3909642,0.21822962,-0.13551676,0.96644247,0
0.25808868,-0.32463127,1.4762081,0.16831604,-0.21171269,0.96272916,0
-1.2017437,0.17326725,-0.74396408,-0.84393859,0.12167895,-0.52245748,0
1.1637113,0.46946886,-0.53975421,0.85191077,0.3436811,-0.39513445,0
0.50179785,0.93139577,-0.97961891,0.34802186,0.64596951,-0.67941463,0
0.73929334,1.0230027,0.40997353,0.55707854,0.77086169,0.30892673,0
-0.81582487,0.56880009,-1.1770393,-0.52942997,0.36912313,-0.76384026,0
0.50733536,1.1984816,-0.2078425,0.38494796,0.909365,-0.15770346,0
1.3419012,-0.24439184,-0.27820864,0.96396911,-0.1755615,-0.19985417,0
-0.78719628,0.95975375,-0.35295284,-0.60999495,0.74370903,-0.2735016,0
-0.97778553,0.70361888,0.42815045,-0.76481581,0.55036491,0.33489576,0
1.1840568,-0.47806445,-0.036764927,0.92688829,-0.37423235,-0.028779855,0
0.80119121,1.0821196,-0.22505555,0.58690363,0.79269457,-0.16486192,0
0.38887849,1.5102279,0.11474818,0.24868999,0.96579927,0.073382109,0
0.49943304,-0.64393896,-0.99510771,0.3882989,-0.50064927,-0.77367574,0
1.1442227,0.06734658,0.65775222,0.8658374,0.050961394,0.49772343,0
-1.0057369,0.80998605,-0.6845789,-0.68811357,0.55418307,-0.46838096,0
-0.56506389,1.2879784,0.52045685,-0.3767879,0.85883152,0.34704366,0
0.45842767,-0.33196279,1.3046606,0.32234961,-0.23342413,0.91738975,0
0.088468082,1.4700528,-0.50412017,0.056833997,0.94439685,-0.32385877,0
0.55789226,1.0853502,0.063730627,0.45653933,0.88817334,0.052152611,0
-0.89923757,-0.65053791,-0.93632817,-0.61927527,-0.44800398,-0.64481831,0
-0.47011572,0.74507827,-1.1010736,-0.33338076,0.52836937,-0.7808221,0
-0.92656612,0.43765292,0.6760354,-0.75475675,0.35650074,0.55068094,0
0.99254733,-0.63580006,-0.64371037,0.7390306,-0.47340384,-0.4792937,0
-0.044564538,-0.97627252,-0.80139989,-0.035260729,-0.77245462,-0.63409036,0
1.0670975,0.80888194,0.010196563,0.79689837,0.60406542,0.0076146969,0
0.21687809,0.35726982,-1.4925576,0.13992408,0.23050117,-0.96295923,0
1.3606199,0.47068712,0.62027979,0.8679266,0.30024686,0.39567062,0
-0.89999139,1.0953333,0.85003775,-0.54446989,0.66264635,0.51424932,0
-0.088874258,-1.3483684,0.017972231,-0.065763913,-0.99774659,0.013298837,0
0.14162835,0.26825136,1.4204108,0.097510591,0.18469006,0.97794747,0
0.073943205,-1.2144016,-0.6746403,0.053151477,-0.87292999,-0.48494151,0
-1.2584984,0.13232936,0.34728324,-0.95905674,0.10084348,0.26465216,0
-0.48740262,-1.1896002,-0.30193603,-0.36908817,-0.90083092,-0.22864263,0
1.1172148,-0.028383806,0.81076699,0.80916864,-0.020557627,0.58721673,0
-1.2759166,0.025911815,0.64417934,-0.89253277,0.018125907,0.45061818,0
-0.38662428,-0.70895004,1.1977003,-0.26765305,-0.49079338,0.82914639,0
-0.3904134,0.51507628,-1.0035853,-0.32706273,0.4314971,-0.84073794,0
-0.028430132,0.71792352,-1.205258,-0.020261446,0.51164621,-0.85895729,0
-1.5008745,0.061193243,-0.10124147,-0.99690813,0.040645663,-0.067246422,0
-1.2292943,0.72500402,0.37553668,-0.83299917,0.49128002,0.25447261,0
-0.068651587,-0.51059014,1.1094515,-0.056123082,-0.41741049,0.90698326,0
0.096381374,1.2233447,-0.42725977,0.074174367,0.9414767,-0.32881585,0
-1.3335735,-0.43934718,-0.5008058,-0.89458257,-0.29472119,-0.33594862,0
-0.12569398,-0.83203262,-1.0515128,-0.093330801,-0.61780423,-0.78077352,0
0.53129274,0.19066122,1.2382988,0.39040244,0.14010093,0.90992182,0
-0.69181758,0.31394702,1.0032219,-0.54974967,0.24947655,0.79720563,0
0.3440932,-1.2283217,0.65354806,0.2400735,-0.85699886,0.45597985,0
0.14796789,0.48218167,-1.138873,0.11879607,0.38711971,-0.91434455,0
1.2856044,-0.630413,0.084685192,0.89629519,-0.43951014,0.059040662,0
-1.2208209,0.44198811,-0.63959259,-0.84348422,0.30537647,-0.44190449,0
-0.11343639,-0.39904159,1.2399701,-0.086756416,-0.30518794,0.94833201,0
0.39496076,1.0041308,-0.49096847,0.33317003,0.84703678,-0.41415754,0
-0.10030618,-0.78596818,1.18591,-0.070328593,-0.55107313,0.83148801,0
0.046052199,1.0672319,1.0411347,0.030873004,0.71546322,0.69796789,0
-0.098273508,-1.3194764,0.093346044,-0.074089304,-0.99476546,0.070374444,0
0.013214255,-1.1353712,0.70746309,0.0098774973,-0.84867638,0.52882016,0
-1.0498624,-0.51461917,-0.38407964,-0.85307842,-0.41816005,-0.31208858,0
1.2155983,0.27301714,0.42952085,0.92241627,0.20716995,0.32592756,0
0.67371392,1.4092163,-0.13217013,0.42978463,0.89898616,-0.08431574,0
-0.88633883,-1.1321784,-0.27116293,-0.60575378,-0.77376884,-0.18532187,0
0.4479869,1.0469861,0.40808085,0.37032539,0.86548412,0.33733732,0
-0.51417363,0.85718864,-0.98341596,-0.36668235,0.61130315,-0.70132202,0
-0.1202476,1.0670191,-0.64233041,-0.096103482,0.85277581,-0.51335901,0
1.2079136,0.17754646,0.20202443,0.97609639,0.14347255,0.16325283,0
1.2100492,-0.45504138,-0.70238,0.82245523,-0.30928591,-0.47739887,0
0.21081327,0.71086866,-1.2073525,0.14878964,0.50172311,-0.85213584,0
1.343079,-0.39199695,-0.46665165,0.91063285,-0.26578131,-0.31639862,0
0.83586997,0.88303041,0.49421689,0.63685048,0.67278206,0.37654454,0
-1.5182176,-0.20304094,-0.42943877,-0.95437682,-0.12763491,-0.26995236,0
-1.168541,-0.25841022,-0.67071319,-0.85176599,-0.18835884,-0.48889229,0
-0.43120587,1.3588241,0.14393762,-0.30094275,0.94833654,0.10045546,0
0.28315774,-0.921498,-0.98641527,0.20529719,-0.6681115,-0.71517831,0
-1.1233495,-0.92881292,-0.28888389,-0.75597829,-0.62506139,-0.19440961,0
1.006946,0.74595898,0.61556101,0.7212165,0.5342868,0.44089037,0
-1.0425986,0.96898037,-0.11015533,-0.73031074,0.67874324,-0.077160686,0
-1.4202005,0.36068356,-0.087630749,-0.96750253,0.24571338,-0.059697889,0
0.36062473,1.3201075,0.12406093,0.26244611,0.96071351,0.090285838,0
0.93902594,1.141696,0.17835532,0.63065213,0.76676583,0.11978387,0
1.0365822,0.40892276,-0.75402892,0.77042592,0.30392638,-0.56042194,0
-1.2316927,0.4269352,-0.4513931,-0.89283657,0.30947927,-0.32720846,0
-0.19127782,1.0765897,-0.52696222,-0.15758532,0.88695461,-0.43414086,0
-0.27832568,-1.2738843,0.19639456,-0.21106991,-0.9660576,0.14893697,0
-0.87100208,-0.79579455,0.38107443,-0.70252353,-0.64186347,0.30736294,0
0.039077699,-1.5349424,0.050096359,0.025436958,-0.99914443,0.032609366,0
-0.084941708,-0.69338834,1.3891902,-0.054626845,-0.44592485,0.89340186,0
0.5111202,-0.92880207,-0.47339991,0.44022444,-0.79997104,-0.40773618,0
0.78746122,1.1914979,0.53341758,0.51651549,0.7815333,0.34988195,0
-1.1232092,-0.35434031,0.62629938,-0.84202123,-0.26563355,0.46950948,0
-0.24607264,0.50693935,-1.1788648,-0.18832731,0.387977,-0.90222323,0
-0.64902472,0.96889883,0.77170908,-0.46411827,0.69286054,0.55184996,0
-0.85029179,-0.81953585,-0.19666274,-0.71022785,-0.68453819,-0.16426755,0
-1.3331206,0.31437209,0.12140404,-0.96950263,0.22862491,0.088290237,0
-0.027771505,-0.40099862,-1.1681795,-0.022479758,-0.32458997,-0.94558764,0
0.26040074,0.33812782,1.4311367,0.17436585,0.22641236,0.95829749,0
-0.59223527,0.94308156,0.95542008,-0.40362215,0.64273208,0.65114105,0
-0.92632103,-0.58728033,0.93441075,-0.64289224,-0.40758869,0.6485067,0
0.83837235,0.98517501,0.77148044,0.55661649,0.65408248,0.51220524,0
-0.28008056,0.069967568,1.3999294,-0.19594473,0.048949402,0.97939247,0
-1.0536294,-0.77638108,-0.35707867,-0.77665985,-0.57229233,-0.26321274,0
1.1429614,0.377837,0.51821369,0.87209159,0.2882936,0.39540249,0
1.3355123,-0.42499027,0.58887732,0.87851501,-0.2795634,0.38737014,0
-0.59419781,-0.54439896,0.86943746,-0.5012297,-0.45922241,0.73340541,0
-0.94182312,-0.10203833,1.284855,-0.58998978,-0.063920252,0.80487651,0
-0.72992271,-0.75158536,0.93082809,-0.52082777,-0.53628486,0.66418141,0
1.235396,-1.0494744,-0.044146515,0.7618432,-0.64718914,-0.027224243,0
1.3212293,0.38992101,-0.24306685,0.94451457,0.278745,-0.17376254,0
0.93946797,-0.23279987,-1.0657804,0.65255255,-0.16170232,-0.74028885,0
1.3822293,0.30630666,-0.45757195,0.92899942,0.20586939,-0.30753514,0
-1.2709694,0.01300233,0.60497898,-0.90288943,0.0092367809,0.42977363,0
0.62481028,0.3626976,-1.1602365,0.45714054,0.26536658,-0.84888345,0
0.20748337,1.0759784,0.89184725,0.14685355,0.7615611,0.63123584,0
-0.24931104,1.1616087,0.40957817,-0.19838862,0.92434716,0.32592079,0
1.0556155,-0.29827353,1.1810498,0.65489548,-0.18504652,0.73271394,0
0.60364252,1.2945197,0.17776531,0.41938171,0.89936984,0.12350276,0
-0.98249096,0.76335275,-0.60041684,-0.71118551,0.55256021,-0.43461752,0
-0.90148598,-0.78483152,-0.55319983,-0.6844644,-0.59589309,-0.42002383,0
-0.8962329,1.0616509,0.57552534,-0.59595889,0.70595521,0.38270125,0
-0.6355648,-0.30590084,-1.3768891,-0.41082561,-0.19773263,-0.89001358,0
-0.19974932,1.5458186,-0.2770924,-0.12617533,0.97644466,-0.1750305,0
-0.99048471,0.88415551,-0.5382396,-0.69136429,0.6171459,-0.37569448,0
0.59754789,1.3988252,0.34324881,0.38320139,0.89705241,0.22012198,0
-0.23742238,-0.57088095,1.0426242,-0.19586667,-0.47096047,0.8601352,0
0.7531898,0.95257175,-0.65980482,0.5449847,0.68925124,-0.47741422,0
-0.29720676,1.2492217,-0.2673994,-0.22659239,0.95241487,-0.20386706,0
-0.84105098,-0.76094812,0.51953989,-0.67417312,-0.60996389,0.41645491,0
-0.1642675,1.0324379,-0.61339974,-0.13552375,0.85178059,-0.50606626,0
1.3663998,0.24567708,0.21505059,0.97261828,0.17487563,0.15307537,0
0.097836502,-1.270979,0.71981066,0.06683147,-0.86819738,0.49169791,0
-1.2013381,-0.57625228,-0.5937081,-0.82357472,-0.3950485,-0.40701529,0
0.95000535,0.34558278,-1.1329638,0.62566131,0.22759637,-0.74615538,0
-1.1139743,0.90431911,-0.62414569,-0.71194059,0.57795006,-0.3988913,0
1.0575382,-1.0448055,0.48883024,0.6757797,-0.66764337,0.31236845,0
0.65191811,-1.0676003,0.40776661,0.49549508,-0.81143731,0.30992597,0
-1.1149021,0.85081911,0.59450287,-0.73191649,0.55854994,0.39028218,0
-0.99357897,0.47810066,-0.88781059,-0.70186716,0.33773175,-0.62715209,0
0.95864832,0.47285551,0.59590209,0.78333431,0.38638148,0.48692575,0
-1.0180942,-0.27551454,-0.66937613,-0.81500012,-0.22055365,-0.53584594,0
0.81585073,0.011856621,-0.92023325,0.66336298,0.0096405419,-0.7482357,0
1.0880153,0.15645008,0.87908137,0.77301627,0.1111551,0.62457228,0
-0.46543065,0.4193525,1.4631341,-0.29242635,0.26347584,0.9192754,0
-1.1148723,-0.40758762,-0.42626843,-0.88393652,-0.32315949,-0.33797073,0
0.71703053,0.16159911,1.2772201,0.48657963,0.10966177,0.8667264,0
0.45798078,-1.348201,0.32914233,0.31338224,-0.92253274,0.22522204,0
0.89467239,-0.57591408,0.44820622,0.77490455,-0.49881771,0.38820583,0
0.87276399,-0.68786699,0.58749151,0.69432843,-0.5472334,0.46737954,0
-0.9241851,0.23452769,-1.2523521,-0.58715332,0.14900014,-0.7956444,0
-0.032018255,0.79482281,1.137506,-0.023067044,0.57261747,0.81949812,0
-1.3286551,0.79096448,-0.1459422,-0.85546303,0.50926751,-0.093965806,0
0.2408188,1.2433337,0.74534386,0.16387883,0.84609705,0.50721157,0
-0.42359912,-1.1375922,-0.7347796,-0.29852745,-0.80170733,-0.51782894,0
1.3065411,-0.31601116,0.21044269,0.96027702,-0.23226078,0.15467043,0
0.65593719,0.97947752,0.7503829,0.46940103,0.70093256,0.53698814,0
-0.85507357,-0.43658954,-1.0762545,-0.59287471,-0.3027142,-0.74623293,0
0.85144746,-0.39314288,-1.1482757,0.57429886,-0.26517373,-0.77450866,0
0.94681561,-0.96482509,0.16097973,0.69549984,-0.70872903,0.11825046,0
-1.0141779,0.21179572,1.179001,-0.64616227,0.13494122,0.75117582,0
-0.53913563,0.97251219,1.0648793,-0.35017556,0.63165921,0.69165283,0
0.87727702,0.78624153,0.46656448,0.69236517,0.62051809,0.36822236,0
-0.67874974,-0.38477433,-0.952209,-0.55136377,-0.31256089,-0.77350092,0
-0.96824253,0.77806246,-0.67450827,-0.68502152,0.55047113,-0.4772076,0
-0.0030030543,-0.76098585,-1.1504209,-0.0021771688,-0.55170321,-0.83403772,0
-0.43015197,0.92008924,0.64799654,-0.35703781,0.76369905,0.53785473,0
0.1448255,0.77719641,1.38957,0.090588272,0.48613593,0.86917526,0
-0.11439975,1.1662873,-0.92221612,-0.076714523,0.78209239,-0.61842245,0
1.4477865,-0.48192018,0.48482764,0.90426791,-0.30100086,0.30281681,0
-0.49891007,0.87327039,0.93408567,-0.36347836,0.63621664,0.68052328,0
-0.11642843,-1.3814259,-0.61447233,-0.076779492,-0.91099036,-0.40521783,0
0.84485638,1.0253184,0.25770503,0.62428474,0.75763249,0.19042447,0
-0.39528507,0.80691278,-1.1503606,-0.27080116,0.55279827,-0.78808683,0
1.3543669,0.66438913,-0.029800385,0.89761883,0.44032985,-0.019750472,0
-0.52964658,1.3996273,0.54284996,-0.33271196,0.87921417,0.34100604,0
0.65988624,-1.0838304,0.26899481,0.50873542,-0.83557266,0.20737998,0
-0.4268977,0.17457427,1.3415847,-0.30091831,0.12305664,0.94567716,0
0.48895487,-0.82422769,-0.94417769,0.36344737,-0.61266059,-0.70182121,0
-1.2031302,-0.1782314,-0.42592424,-0.93361324,-0.13830523,-0.3305116,0
1.2188548,-0.41226041,0.61864704,0.85372698,-0.28876111,0.43332127,0
0.67473346,-0.225788,-1.3176961,0.45056701,-0.15077454,-0.8799184,0
-1.1844742,-0.19114564,-0.65762132,-0.86571479,-0.13970554,-0.48064575,0
0.080293484,-0.91980368,1.086735,0.056306753,-0.64502317,0.76208574,0
-0.82201803,0.0022191335,1.2115743,-0.56144387,0.0015156831,0.8275134,0
1.4217325,0.085105449,0.64882118,0.90839779,0.054377034,0.41455597,0
0.67185307,-0.89101696,-0.64413375,0.52142674,-0.69152039,-0.49991372,0
0.24672471,1.3637999,-0.21064474,0.17599887,0.97285455,-0.15026155,0
0.40350711,0.84902698,-0.97461706,0.29799271,0.62701207,-0.71976119,0
1.1893089,0.6666398,-0.2990765,0.8520509,0.47759756,-0.21426594,0
-1.3204156,-0.62399459,0.22347338,-0.89372307,-0.42235062,0.15125792,0
-1.3890384,0.47517693,-0.74878931,-0.84286278,0.28833538,-0.45436224,0
1.1508069,0.35080394,0.72829592,0.81829041,0.24944194,0.51786059,0
0.77814853,-0.83321226,0.77874017,0.56361032,-0.6034928,0.56403881,0
-0.6535359,-0.30272099,-1.1736541,-0.47459799,-0.21983609,-0.85230798,0
-0.30378839,1.1771327,0.84961551,-0.20482455,0.79366326,0.57283992,0
-0.16145374,1.5374695,0.018940343,-0.10443053,0.99445677,0.012250878,0
0.48232478,-0.37739909,-1.1437448,0.37176558,-0.29089111,-0.88157398,0
1.2414001,-0.39921761,-0.29218984,0.92895025,-0.29873794,-0.21864814,0
-0.7742067,0.40756759,-0.98284453,-0.58836502,0.30973449,-0.74692112,0
-1.5131161,-0.32902557,-0.12400537,-0.97404635,-0.21180539,-0.079826638,0
-0.64296085,1.3869611,-0.17779508,-0.41776511,0.9011808,-0.11552271,0
-1.0855759,0.20788182,-0.96379417,-0.74025524,0.14175481,-0.65721214,0
0.7656824,-1.1555814,-0.74093467,0.48713073,-0.73518628,-0.4713861,0
-1.233829,-0.13671735,0.13788962,-0.98784137,-0.10946011,0.11039867,0
0.26940477,-0.87177789,-0.92095482,0.20780493,-0.67244446,-0.71037704,0
1.1364042,0.4020434,-0.85612988,0.76861095,0.27192348,-0.57904649,0
0.8101508,1.195974,-0.44491315,0.53598964,0.79124737,-0.29435119,0
0.21132483,-1.1199006,0.41515645,0.17422725,-0.92330468,0.34227672,0
0.86930555,0.6571883,-0.91955328,0.60965753,0.46089637,-0.64489704,0
-1.1882554,1.1356015,-0.065006413,-0.72237808,0.69036812,-0.039519455,0
0.26731658,-0.84854269,-1.0206276,0.19743551,-0.62671936,-0.75381833,0
0.41639829,0.71933568,-0.92428797,0.33498478,0.57869238,-0.74357271,0
1.1317348,0.37071532,0.28896809,0.92351717,0.30251077,0.23580346,0
0.93302464,-0.68279231,-0.29131591,0.78253466,-0.57266295,-0.24432881,0
-0.42925516,-0.35369459,-1.2955939,-0.3044498,-0.25085837,-0.91890168,0
0.11254105,1.3588789,-0.93145508,0.068152577,0.82290941,-0.56407028,0
-0.049932696,0.73533708,1.1388575,-0.036808766,0.54206669,0.83952886,0
-0.66728336,0.4585872,-1.3248224,-0.42977047,0.29535764,-0.85326505,0
-0.2389719,0.71254987,-1.1146739,-0.17775744,0.53002483,-0.82914174,0
-0.89835024,-0.63111371,-0.64617771,-0.70518333,-0.4954091,-0.50723398,0
0.22882029,0.64095765,-1.1093431,0.17581664,0.49248698,-0.85237616,0
0.20227018,1.4614388,-0.35615432,0.13326985,0.96289879,-0.23465955,0
1.2949624,-0.4133476,-0.11963207,0.94897807,-0.30291057,-0.087669119,0
0.73896664,-0.28316659,1.3196652,0.48023629,-0.18402302,0.85761803,0
0.3953267,1.2881808,0.68208796,0.26175773,0.85294336,0.45163098,0
0.69535774,-0.15988265,1.2578428,0.48084483,-0.11055999,0.86980724,0
1.5398802,-0.30864134,-0.40969759,0.94874781,-0.19015947,-0.25242203,0
-1.2239602,0.15920569,0.9051559,-0.7996611,0.10401531,0.5913738,0
-0.18190375,-0.47943884,-1.0720845,-0.15306494,-0.40342918,-0.90211749,0
0.28476703,0.71196806,1.2078918,0.19903593,0.49762511,0.84424758,0
0.64627063,-0.33482736,1.1721574,0.46839467,-0.24267133,0.84953928,0
-0.44968155,0.58379334,0.95043808,-0.37390974,0.48542356,0.79028827,0
-0.15242575,-0.35545069,1.5251687,-0.09687411,-0.22590652,0.96932024,0
0.79524094,0.74074513,-0.92778701,0.55652088,0.51838392,-0.64927846,0
-0.48261714,1.0099766,-1.0220402,-0.31839874,0.66631556,-0.67427433,0
-0.49084935,1.2204928,0.13598385,-0.37115037,0.92286235,0.10282271,0
-1.2875292,0.72115469,0.50310248,-0.82579613,0.46253458,0.32268012,0
0.29007858,1.1736838,-0.32622793,0.23164785,0.93726784,-0.2605156,0
0.33153695,-1.1966748,-0.27912921,0.26049125,-0.94023705,-0.21931407,0
-0.43478033,-1.4087479,0.64489853,-0.2701855,-0.87543809,0.40075925,0
-1.5392414,0.29148376,-0.27585042,-0.96765149,0.18324266,-0.17341469,0
-0.76021093,1.2466453,0.48098364,-0.49450007,0.8109147,0.31286901,0
0.26903313,-1.4583821,0.18776026,0.17997597,-0.9756186,0.1256066,0
-0.96760988,-0.88116336,-0.38624817,-0.7091229,-0.64576966,-0.28306594,0
1.1363617,0.79125381,0.25060326,0.80753583,0.56229085,0.17808688,0
1.3133701,0.6220932,-0.39008781,0.87284762,0.41343454,-0.25924698,0
0.59965026,-0.86793941,0.94620299,0.42315027,-0.61247164,0.66769928,0
-0.58790165,0.68458819,-0.79179472,-0.48970923,0.57024699,-0.65954769,0
-0.41084629,0.96208084,-0.93033719,-0.29346752,0.68721437,-0.66453987,0
1.0308211,0.91481793,0.69496143,0.66783768,0.59268272,0.4502444,0
-0.92942297,0.68711823,-0.21756059,-0.79023564,0.58421767,-0.18497942,0
1.0091828,-0.69442606,0.51414138,0.75961787,-0.52269864,0.38699725,0
0.15294944,-0.3778725,-1.3447317,0.10884814,-0.26891708,-0.95699304,0
-0.83166099,-0.59700185,-1.0447042,-0.5685811,-0.40815184,-0.71423221,0
0.37002572,-0.41287285,-1.1953475,0.28081945,-0.31333694,-0.90717167,0
0.64326596,-0.99294269,0.76295137,0.45693913,-0.70532936,0.54195672,0
1.2566901,0.39034224,-0.11345561,0.95146227,0.29553497,-0.085899241,0
1.0874619,0.40392143,-0.0048729628,0.937415,0.34818873,-0.0042005964,0
-0.078611754,1.1354924,-0.55619258,-0.062053625,0.89632171,-0.43904078,0
-1.1474156,-0.44928676,0.39713606,-0.88626957,-0.34703135,0.30674988,0
-0.71348345,1.1030731,0.38458887,-0.52123016,0.80584204,0.28095859,0
-0.28053463,-1.1587225,0.83697045,-0.19258764,-0.79546559,0.57458204,0
0.45978937,0.22187074,-1.4245828,0.30383277,0.14661409,-0.94137663,0
0.40009749,0.46771532,-1.1820874,0.30020922,0.35094559,-0.88696766,0
0.3773405,-1.1489642,-0.65263659,0.27458823,-0.83609378,-0.47491944,0
1.4139017,0.34592187,0.3234396,0.94822437,0.23199035,0.21691275,0
1.1473757,-0.14907387,-0.24722162,0.96977443,-0.12599885,-0.20895439,0
-0.50191462,1.1097068,-0.70666891,-0.35644791,0.78808749,-0.50185955,0
-0.81174684,1.2278414,-0.061104435,-0.55101651,0.83346289,-0.041477896,0
1.3035897,-0.40517646,-0.59576541,0.87521762,-0.27203158,-0.39999118,0
0.60068935,0.21098952,-1.014756,0.50143284,0.17612611,-0.84708011,0
0.3601023,1.2067578,0.5539633,0.26174116,0.87713456,0.40264946,0
-0.68834805,-0.28994602,-1.3015373,-0.45870596,-0.19321616,-0.86732709,0
-0.26324964,1.3092862,0.62374842,-0.17859882,0.88827085,0.42317528,0
-1.2511469,-0.56386274,-0.67602092,-0.8178454,-0.36858386,-0.44189903,0
-1.4613087,0.011227346,-0.78232056,-0.88159114,0.0067733317,-0.47196522,0
1.0074776,0.61803436,0.47401485,0.79114211,0.48532391,0.3722297,0
-1.2193803,-0.52108628,0.28804219,-0.89860028,-0.38400513,0.2122675,0
1.1449785,-0.52253163,0.35916451,0.8748163,-0.3992382,0.27441821,0
-0.19904779,0.97237641,-1.1540865,-0.13076439,0.63880247,-0.75817686,0
-1.5809205,0.15089984,-0.11404775,-0.99291837,0.094774678,-0.071629226,0
0.19749403,0.11495119,1.4316128,0.13622762,0.079291143,0.9874993,0
0.74034572,-1.0926925,0.022974866,0.5608331,-0.82774585,0.017404119,0
0.865646,1.1044101,0.54964411,0.57440102,0.73283333,0.36471736,0
0.81780684,0.056774847,1.1875975,0.56671757,0.039343402,0.8229723,0
-0.56946331,0.3626934,-1.1955818,-0.41474503,0.26415271,-0.87075245,0
0.99154651,0.78308481,-0.45218092,0.73887986,0.58353853,-0.33695585,0
-0.53938776,-1.0568765,0.046459191,-0.45423263,-0.89002353,0.039124507,0
0.78576529,-0.66995764,0.98865032,0.54964751,-0.46863937,0.69156682,0
-0.75429034,-0.027427053,1.147462,-0.54919237,-0.019969404,0.83545732,0
0.17117821,-1.3534957,-0.24966769,0.123422,-0.97589028,-0.18001407,0
-1.5316669,0.38706872,-0.42124298,-0.93679118,0.23673722,-0.25763872,0
0.31729496,0.21539445,1.479672,0.20757751,0.14091319,0.96801609,0
0.8523612,-0.14791521,1.0742948,0.6179601,-0.10723823,0.77886152,0
-0.93880963,-0.9859156,-0.41635415,-0.65944427,-0.69253278,-0.29245797,0
0.99923813,-0.3789469,0.98458612,0.68766159,-0.26078591,0.67757827,0
-0.68790162,-0.91407323,-0.75406396,-0.50205761,-0.6671266,-0.55034554,0
-0.18573378,1.1809999,-0.86079508,-0.12607774,0.80167323,-0.58431536,0
-0.12268087,-1.3390481,0.2759257,-0.089373596,-0.97550297,0.20101319,0
0.17500585,0.97188282,1.2286191,0.11102393,0.61656368,0.77943748,0
-0.76796222,-0.64623076,1.0516773,-0.52826089,-0.44452503,0.72342098,0
1.1586277,-0.33993626,0.75053895,0.81494874,-0.23910235,0.52790964,0
0.18761787,-0.68841088,-1.0712371,0.14576648,-0.53484899,-0.83227926,0
1.3492028,-0.2030163,-0.43864152,0.94141299,-0.14165564,-0.30606431,0
-0.62067717,-1.0770638,-0.77459675,-0.4237611,-0.73535448,-0.52884817,0
-1.0942875,-0.71707851,-0.43596604,-0.79351777,-0.51998633,-0.31613883,0
-0.53456289,0.69409484,-1.0769913,-0.3850427,0.49995267,-0.77575094,0
-0.2847003,-0.42452085,1.1423947,-0.22748104,-0.33920035,0.91279536,0
0.8745814,-1.0005764,-0.053994201,0.65756863,-0.75230008,-0.040596444,0
0.37646419,-1.166236,-0.22304179,0.30222937,-0.93626648,-0.17906028,0
1.243443,-0.047548845,-0.66949987,0.87998617,-0.033650376,-0.4738059,0
-1.1796755,0.11662219,-0.94728649,-0.7774179,0.07685519,-0.62427127,0
-0.49674308,0.20745105,1.2562771,-0.3634468,0.15178353,0.9191671,0
-0.71495974,-1.2757787,-0.052835479,-0.48855719,-0.87178457,-0.036104348,0
-1.3635063,-0.2579706,0.38697737,-0.94645733,-0.1790664,0.2686145,0
-1.1665022,-0.79278439,0.015480367,-0.82702082,-0.56206423,0.010975192,0
-0.9388178,-1.0264134,-0.3239617,-0.65732735,-0.71865875,-0.22682664,0
-1.1332428,0.52174479,0.068976909,-0.90696734,0.41756758,0.055204235,0
-1.1752242,0.18090181,-0.74100918,-0.83881009,0.12911773,-0.52889144,0
-0.75591516,0.87039852,-0.6899097,-0.56264865,0.64786178,-0.51351893,0
0.97730553,-0.24331753,0.88515216,0.7288813,-0.18146791,0.66015267,0
1.1888404,0.49431574,0.67520231,0.81773657,0.34001204,0.46443376,0
-1.1403501,-0.80826443,-0.74251693,-0.72049755,-0.51067871,-0.46913806,0
0.024965584,1.0279913,-0.95614362,0.017780023,0.73211622,-0.68094766,0
-0.5010317,0.67460418,-1.3161125,-0.32086608,0.43202373,-0.84285253,0
0.92319113,-0.68110156,0.068622217,0.80326396,-0.59262305,0.059707843,0
0.12969926,-0.94098645,1.0312517,0.092506565,-0.67114818,0.73552889,0
-0.93942034,0.8203131,0.34955236,-0.72529441,0.63333577,0.26987746,0
-0.70525718,-0.42700103,-1.1125551,-0.50930768,-0.30836254,-0.80344146,0
0.86885238,0.56202209,-0.73854142,0.68343341,0.44208279,-0.58093172,0
0.68994331,1.1570791,0.22343151,0.50524282,0.84732455,0.16361803,0
0.084854618,-0.65427953,1.3270885,0.057255238,-0.4414719,0.89544648,0
-0.82272112,-1.0943961,0.14048161,-0.59776068,-0.79515034,0.10206907,0
-0.0047702785,-1.1943388,0.52610469,-0.0036551398,-0.91514057,0.40311822,0
-0.58018297,1.1309391,0.067940071,-0.45579943,0.88848078,0.053374622,0
