0.76696724,-0.89285219,-0.50510156,0.59880018,-0.69708329,-0.39435178,0
0.60548919,0.28427476,-0.90140158,0.53942245,0.25325668,-0.80304694,0
0.063178964,0.83552653,0.83940572,0.053268693,0.70446563,0.70773631,0
-0.078355066,0.7961067,0.80429065,-0.069073282,0.70180148,0.70901597,0
0.90868628,0.78453851,0.32185093,0.73110187,0.63121629,0.25895166,0
-1.072067,0.024556279,0.48011583,-0.91245794,0.020900346,0.4086363,0
0.78145641,0.64711159,0.028792379,0.76989603,0.63753867,0.028366443,0
-0.4973346,0.60589534,0.95168787,-0.40337032,0.49142006,0.77188003,0
0.24550019,0.36647558,1.2051446,0.19129862,0.28556505,0.93907261,0
-1.0515922,0.0041448292,0.52975553,-0.89307261,0.0035200273,0.44989887,0
0.084145598,0.73100603,0.90689844,0.072050624,0.62593216,0.77654207,0
-0.240435,-1.2127587,0.37136981,-0.18624902,-0.93944353,0.2876755,0
-0.6439271,-1.0415329,0.098902993,-0.52415675,-0.84780794,0.080507055,0
1.0561637,0.7432918,0.18286702,0.80970603,0.56984335,0.14019468,0
-1.1832864,0.11984368,0.38871536,-0.9456827,0.095779084,0.31066138,0
-0.61035061,0.79717839,0.076870315,-0.6061433,0.79168326,0.076340429,0
0.61667323,-1.0097317,0.029921174,0.52104646,-0.85315377,0.025281334,0
0.76493186,-0.83633816,-0.17789246,0.66674101,-0.7289812,-0.15505721,0
-1.1696446,0.24510746,0.69041514,-0.84747529,0.17759456,0.50024575,0
0.6325165,-1.1625723,0.28398123,0.46727654,-0.85885942,0.20979337,0
0.50772542,1.0410374,-0.36079893,0.41852009,0.85813135,-0.29740798,0
0.43793359,-1.0949774,-0.82955229,0.30373132,-0.75942773,-0.57534069,0
-1.2390357,0.26590183,0.13441525,-0.97228456,0.208656,0.10547708,0
-0.56795079,0.6462428,-0.88108802,-0.46119809,0.52477425,-0.71547771,0
0.2575627,1.0344076,-0.26351321,0.23455758,0.94201589,-0.2399766,0
0.19628204,0.91540664,-0.692599,0.16854677,0.78605676,-0.59473252,0
0.20812403,-1.1916457,0.0262936,0.17200765,-0.98485589,0.021730794,0
0.34408882,0.25326508,-1.395092,0.23583099,0.17358238,-0.95616567,0
-1.2126526,0.27184278,-0.28959987,-0.95032054,0.21303529,-0.226951,0
-1.235448,-0.016792223,0.11031736,-0.99594575,-0.013536906,0.088931389,0
0.16301343,-0.67989135,0.86651665,0.14640947,-0.61064005,0.77825636,0
-0.68192375,1.027535,0.20124128,-0.54574054,0.82233161,0.1610525,0
-0.95553452,-0.31979814,-0.7018292,-0.77814907,-0.26043081,-0.57154161,0
-0.66294736,0.66369462,-1.0258638,-0.4769052,0.47744277,-0.73797679,0
-0.71667886,0.61211371,0.8841868,-0.55456644,0.47365391,0.68418419,0
0.70300519,-0.63288546,-0.8170464,0.56243563,-0.50633669,-0.65367371,0
-0.93795604,-0.31401095,0.70725131,-0.77136815,-0.25824028,0.58163828,0
-0.63817024,0.39193889,0.94072556,-0.53073305,0.32595524,0.78235263,0
-1.076609,-0.37691766,0.048157658,-0.94298983,-0.33013797,0.042180754,0
0.074133188,-0.12155768,1.073706,0.068445057,-0.11223073,0.9913221,0
0.81919742,-0.52625459,0.69941992,0.68332523,-0.43896997,0.58341408,0
1.052061,-0.59431344,0.4636766,0.81288427,-0.45920157,0.35826385,0
-0.30689132,-0.22949904,-0.96697235,-0.29504859,-0.22064282,-0.92965752,0
-1.0780377,-0.15779486,-0.031770933,-0.98903626,-0.14476751,-0.029147964,0
0.68190795,0.72133631,-0.69696814,0.56221992,0.59472787,-0.57463676,0
0.57170224,-0.61535484,1.0612748,0.42240569,-0.45465869,0.78412932,0
0.16770475,-1.0529822,-0.32092389,0.15061007,-0.94564843,-0.28821111,0
0.91236192,-0.013996544,0.61698562,0.82830101,-0.012706965,0.56013936,0
-1.0200473,-0.83044946,0.28267816,-0.75818479,-0.61725974,0.21011013,0
1.0681206,-0.39994204,-0.57257485,0.83695632,-0.31338596,-0.44865733,0
-0.49747974,1.371196,-0.18854171,-0.33824062,0.93228763,-0.12819108,0
-1.1987096,0.46981028,-0.042418621,-0.93054003,0.36470658,-0.032928932,0
-0.25260702,0.77907449,-0.90936267,-0.20641053,0.63659823,-0.74305946,0
0.61195773,-0.67517722,0.98224556,0.4567405,-0.50392497,0.73310834,0
-0.42739701,1.0401908,0.82157248,-0.30688113,0.74688154,0.58990842,0
-0.96160221,0.40273231,1.0371692,-0.6538952,0.27386037,0.7052812,0
0.70234746,-0.62673056,1.1473256,0.47326028,-0.42230761,0.77309835,0
0.093307018,-0.81737548,-0.93120265,0.075092763,-0.65781748,-0.7494247,0
0.71792775,0.48064727,1.1487796,0.49946061,0.33438513,0.79920322,0
-1.0324481,-0.89324439,-0.368954,-0.73005807,-0.63162524,-0.26089239,0
-0.59677684,1.0942173,0.55140501,-0.43787217,0.80285841,0.40458158,0
1.2120453,0.26958805,0.40181074,0.92872715,0.20657127,0.30788663,0
0.094034955,-0.97628158,0.61273116,0.081312515,-0.84419578,0.52983183,0
-0.70119518,-0.76599205,0.69443488,-0.56128705,-0.61315513,0.5558756,0
0.54928643,-0.65434366,-1.1066135,0.39290163,-0.46804851,-0.79155475,0
0.4211221,-0.24700823,-1.0985768,0.35029978,-0.20546755,-0.91382331,0
-1.2540772,0.28214929,0.51207978,-0.90634102,0.20391366,0.37008798,0
-0.18825735,-0.91011679,1.0062256,-0.13743818,-0.66443509,0.73459977,0
0.1345225,-0.46747324,1.1186548,0.11027856,-0.38322422,0.91704845,0
-0.091505878,0.98951989,-0.86281133,-0.069531128,0.75189084,-0.6556108,0
0.032329999,1.3417695,-0.3725884,0.023210315,0.96328157,-0.26748821,0
-1.2774781,0.18344219,0.026433643,-0.98963916,0.14210935,0.020477664,0
-1.043332,-0.52075791,-0.8547253,-0.7216385,-0.36019117,-0.59118545,0
1.1188743,-0.4052141,-0.29823253,0.91203195,-0.33030358,-0.24309932,0
0.0015724374,0.90240836,-1.0322556,0.0011468498,0.6581673,-0.7528708,0
-0.89504462,-0.24970286,-0.78640616,-0.73525256,-0.20512347,-0.64600927,0
1.2706964,0.23708484,-0.51578534,0.9130336,0.17035258,-0.37060729,0
0.28151599,0.13719976,-1.237824,0.22048119,0.10745382,-0.96945435,0
-0.79166353,0.62730783,-0.63552719,-0.66338271,0.52565914,-0.53254664,0
0.64038718,0.81052226,-0.66926128,0.52028716,0.65851462,-0.54374611,0
-1.0781114,-0.13329495,-0.57481521,-0.87720817,-0.10845579,-0.46769992,0
0.055787425,0.54636002,1.0737828,0.04625513,0.45300448,0.89030755,0
-0.40306148,-0.4056026,-0.9453758,-0.36480898,-0.36710894,-0.85565501,0
-1.1358895,-0.13224839,-0.71762794,-0.84134787,-0.097955741,-0.53154355,0
-0.53253859,0.62314415,0.76807338,-0.47407654,0.55473542,0.68375432,0
-1.0763631,-0.045927104,0.56932229,-0.88333535,-0.037690844,0.46722385,0
-1.070127,0.57351822,-0.0012854197,-0.88139856,0.47237208,-0.001058722,0
0.97090834,-0.9417302,-0.46142399,0.67936718,-0.65895057,-0.32286912,0
-0.49483064,0.77997035,0.75666815,-0.4144133,0.65321356,0.63369834,0
-0.15137415,1.1797194,-0.28339568,-0.12380442,0.96485752,-0.23178092,0
-0.082948647,1.0764234,-0.36529467,-0.072778545,0.94444615,-0.32050693,0
-0.74766892,0.71910602,0.27278319,-0.69704336,0.67041451,0.25431272,0
-0.50358939,1.0521013,0.43958119,-0.40400419,0.84404737,0.35265365,0
0.27144086,-0.62493634,-1.014572,0.2221062,-0.51135349,-0.83017248,0
0.86128014,-0.18034443,0.81354845,0.71868521,-0.15048631,0.67885602,0
0.24114731,0.80568117,-0.67884594,0.22312142,0.7454561,-0.62810189,0
0.11074996,-0.44428641,-0.99107915,0.10144363,-0.40695298,-0.90779865,0
0.4898448,-0.65467578,0.91091853,0.40018064,-0.53483993,0.74417847,0
-1.3043338,-0.29377314,-0.31622705,-0.94936901,-0.21382496,-0.23016819,0
-1.2950549,0.24623623,0.24670917,-0.96563512,0.18360175,0.18395439,0
1.1890978,-0.14968033,-0.52398169,0.90908277,-0.11443282,-0.40059173,0
0.69857818,-0.75973606,-0.58714503,0.58831948,-0.63982463,-0.49447414,0
0.3124918,1.2140892,-0.64625424,0.22155808,0.8607946,-0.45819712,0
-0.060705621,0.44767451,1.2163502,-0.046785224,0.34501836,0.93742913,0
-1.1833059,0.23914926,-0.19852795,-0.96719146,0.19547197,-0.16226958,0
-0.17928202,-0.25006926,1.4215069,-0.12326641,-0.17193659,0.97736543,0
-0.59319156,-1.0162554,-0.60764724,-0.44791359,-0.76736522,-0.45882893,0
0.84481484,-0.70579207,-0.82352912,0.6145035,-0.51338077,-0.59902066,0
0.94323796,-0.093663968,1.0770149,0.6574353,-0.065283634,0.75067765,0
0.25519595,0.63993102,0.95177573,0.21719679,0.54464412,0.81005454,0
0.50028443,-0.080036268,-1.2924788,0.3603749,-0.057653327,-0.93102419,0
-0.18057185,0.54350913,1.2363385,-0.13252498,0.39889127,0.9073714,0
-0.22590037,-1.0897849,-0.73156422,-0.16961282,-0.81824344,-0.54928052,0
-0.61103106,1.0741639,0.20102216,-0.48802948,0.85793293,0.16055606,0
-0.11939821,0.94921792,0.48462427,-0.11133306,0.88509977,0.45188868,0
0.45556208,-0.85311931,-0.95661187,0.33489469,-0.62714857,-0.70322847,0
-0.015648626,0.70864868,-0.90510345,-0.013611928,0.61641669,-0.78730249,0
1.0351751,-0.49365905,0.0054101706,0.90260714,-0.43043944,0.0047173263,0
-0.13096359,-0.84262437,0.93023854,-0.10377897,-0.66771758,0.7371453,0
-0.85583347,-0.65827537,0.072992504,-0.79084486,-0.60828853,0.067449741,0
0.42025104,1.1882881,-0.72063947,0.28945267,0.81844687,-0.49634859,0
-0.14820087,-0.48436004,1.2017312,-0.11364061,-0.3714079,0.921489,0
0.13636015,-1.057184,-0.053916991,0.12776123,-0.99051756,-0.050516967,0
0.95139968,-1.1282407,-0.34533793,0.62769651,-0.74436933,-0.22784054,0
-0.10315034,-0.56732249,-1.3274292,-0.07127282,-0.39199749,-0.91720128,0
-0.37537169,0.58417827,-0.80080003,-0.35414809,0.55114865,-0.75552255,0
-0.35587391,0.88394237,-1.1017083,-0.24431373,0.60684204,-0.75634217,0
-0.82717359,0.24360752,1.0304159,-0.61563009,0.1813067,0.7668947,0
-0.58683759,1.0131009,0.07567995,-0.50018781,0.86351103,0.064505391,0
0.60026044,-0.7947849,-0.4677161,0.54552138,-0.72230673,-0.42506406,0
-1.0398616,0.79271531,0.15111513,-0.79001117,0.60224742,0.11480628,0
-0.28732756,0.32189816,1.0386533,-0.25546774,0.28620505,0.92348403,0
-0.23770888,1.1156867,-0.51970899,-0.18963024,0.89002961,-0.41459346,0
-0.71888506,-0.94634962,-0.49360028,-0.55863404,-0.73539311,-0.38356885,0
0.2877042,-0.96683431,-0.72871262,0.23119667,-0.77693987,-0.58558732,0
-0.045782682,0.41019243,1.331003,-0.032853771,0.29435515,0.95513117,0
0.98100191,-0.70385289,0.59308666,0.72926861,-0.52323836,0.44089565,0
1.2664535,0.31676593,-0.20378157,0.95850742,0.23974232,-0.15423082,0
-0.43993604,0.22755037,1.3769946,-0.30063316,0.15549803,0.94097823,0
0.13115448,-0.78404993,-0.78195381,0.11761965,-0.70313787,-0.70125806,0
-0.38718921,1.1928986,-0.40090969,-0.29406437,0.90598851,-0.30448487,0
0.09662699,1.2999454,-0.34893355,0.071606018,0.96333241,-0.25857931,0
-0.18164702,0.53479046,-1.1288713,-0.14390408,0.42367074,-0.89431244,0
-0.41081089,1.2399299,-0.16763267,-0.31194696,0.94153392,-0.12729093,0
-0.65880907,-0.80908394,0.52346814,-0.56437141,-0.69310498,0.44843107,0
0.1470197,-1.0715688,0.69444263,0.11438105,-0.83367848,0.54027504,0
-0.56061333,-0.59954947,0.92254877,-0.45399475,-0.48552594,0.7470966,0
-0.92382568,-0.38946462,-0.66865033,-0.76660621,-0.32318434,-0.55485737,0
-0.57696033,0.85756618,-0.78284508,-0.44498238,0.6614005,-0.60377163,0
-0.64993584,-1.078006,-0.14032774,-0.51314545,-0.85112077,-0.11079331,0
-0.29767379,1.0242085,0.20234443,-0.27419874,0.94343776,0.18638721,0
0.23148721,-0.32753137,-1.2533674,0.17590535,-0.24888855,-0.95242423,0
1.0326219,0.83297068,0.39189383,0.74645066,0.60212898,0.28328803,0
-1.062776,0.50507849,0.18245889,-0.89252561,0.42416796,0.15323007,0
-0.95390069,-0.095590308,0.78696918,-0.76907861,-0.077069305,0.63449073,0
0.32841948,-0.75107032,-0.814394,0.28422034,-0.64999026,-0.70479178,0
-0.049643651,-1.1991092,0.11897108,-0.041163247,-0.99427074,0.098647781,0
-0.24035586,0.82622093,-0.87955689,-0.19533819,0.67147315,-0.71481949,0
0.49132624,-1.2650653,-0.45427942,0.3433111,-0.88395637,-0.31742486,0
0.79889816,0.9838683,0.45032641,0.59397566,0.73149979,0.33481482,0
-1.1062551,-0.38465714,-0.80706835,-0.77775776,-0.27043501,-0.56741315,0
-0.81515008,-0.70854849,-0.14097513,-0.74838454,-0.65051425,-0.12942845,0
-0.048125066,0.96604472,0.6486603,-0.041322868,0.8294999,0.55697596,0
-1.0930487,-0.24097364,0.78205305,-0.80050933,-0.17648037,0.57274735,0
0.26052833,-0.9248603,0.80809462,0.20751104,-0.73665208,0.64364809,0
0.62992024,0.93781406,0.74564487,0.46536049,0.69282043,0.55085331,0
-0.14247644,-0.88418454,-0.91119325,-0.11151563,-0.692047,-0.71318662,0
0.44563916,0.96145487,-0.25895366,0.40850872,0.88134688,-0.23737776,0
0.25095481,-0.074579157,-1.4112118,0.17484598,-0.051961012,-0.98322374,0
-0.63161486,0.60325652,-0.95447886,-0.48819062,0.46627176,-0.73774016,0
-1.1780273,0.085533381,0.0489912,-0.99651766,0.072354458,0.04144267,0
-0.8290621,-0.23421194,0.75178504,-0.72508037,-0.20483685,0.65749544,0
0.30335283,-0.044073999,1.0689939,0.27278063,-0.039632175,0.96125966,0
0.80916488,0.50425589,0.6293425,0.70829821,0.44139773,0.55089164,0
-1.0113983,0.94268239,-0.17935003,-0.72544217,0.67615455,-0.12864178,0
-0.88069367,0.31671822,0.95736563,-0.65780568,0.23656245,0.71507335,0
-0.70569724,-0.8336463,-0.56865031,-0.57308686,-0.67699248,-0.46179295,0
-0.19046296,0.97477293,-0.87107795,-0.14417286,0.73786426,-0.65937132,0
-0.83142912,-0.32577914,-0.77260202,-0.70411557,-0.27589384,-0.65429646,0
-0.0088943364,0.82074666,0.81305289,-0.0076986058,0.71040773,0.70374829,0
1.2695583,-0.15074308,-0.095643677,0.99025726,-0.11757982,-0.074602202,0
-0.58455676,0.29445788,-0.88577378,-0.53075612,0.26735696,-0.80425012,0
0.31349844,-0.87048978,0.79368687,0.25717574,-0.71409875,0.65109414,0
0.89783788,-0.15245804,-0.97969204,0.67123443,-0.11397947,-0.73242956,0
0.060297951,0.03550303,-1.0979415,0.054807894,0.032270521,-0.99797529,0
-1.2459167,-0.029384052,0.4413701,-0.94236869,-0.022225089,0.33383721,0
0.76779205,0.96724361,-0.50770408,0.57502782,0.72440445,-0.38023832,0
1.0350718,0.32304394,0.46574655,0.87710053,0.27374139,0.39466491,0
-1.0387281,-0.60560489,-0.21504585,-0.85040063,-0.49580517,-0.17605679,0
0.49046451,-0.63362902,0.89970028,0.40709785,-0.52592802,0.74677384,0
1.0805223,-0.18072593,0.24233353,0.96302021,-0.16107278,0.21598081,0
0.92820394,-1.0458999,-0.18540417,0.65801215,-0.74144787,-0.13143469,0
-0.78359395,0.86763412,0.8169651,-0.54940164,0.60832477,0.57279915,0
0.77226126,0.33760121,-0.82116932,0.65628034,0.28689906,-0.69784319,0
-0.19536147,1.3161983,0.33240756,-0.14244263,0.95967114,0.24236616,0
-0.34656444,-0.12947674,-1.164264,-0.28369001,-0.1059868,-0.95304078,0
-0.19420141,-0.43655023,-1.3546324,-0.13519765,-0.30391422,-0.94305766,0
1.1030712,0.13945168,0.75302851,0.82143611,0.10384701,0.56076598,0
-0.63439882,-0.27750754,-0.91305345,-0.55361396,-0.2421695,-0.79678446,0
-0.95634919,0.18447198,0.41410404,-0.90361834,0.17430063,0.39127132,0
0.81143588,0.93889058,-0.082534075,0.65244418,0.75492555,-0.066362455,0
0.34233016,0.94371468,-0.7133742,0.27796924,0.76628846,-0.57925391,0
-0.6859591,-0.6882425,0.70851743,-0.57040304,-0.57230181,0.58916122,0
0.39309484,-1.1546004,0.12850837,0.32051858,-0.94142896,0.10478215,0
-0.27055246,0.70145077,-0.93860626,-0.22497553,0.58328521,-0.7804898,0
1.279166,-0.20882346,0.2673713,0.96658301,-0.15779439,0.2020352,0
-0.29357678,1.3115758,0.1648235,-0.21680593,0.9685964,0.12172186,0
-0.89767152,-0.70822322,-0.52336878,-0.71385348,-0.56319886,-0.41619745,0
-0.72198033,0.6482746,0.99858373,-0.51852745,0.46559188,0.71718448,0
0.4454602,0.20422453,-1.1891062,0.34635854,0.15879063,-0.92456543,0
-0.17000662,1.0880846,0.6427086,-0.13332705,0.85332626,0.50404185,0
0.90977931,0.10127378,0.48312247,0.87895757,0.097842798,0.46675512,0
-0.99880636,-0.86989278,0.079551578,-0.75273836,-0.65558416,0.059953086,0
0.66119635,-0.059727341,-1.2646613,0.46291685,-0.041816313,-0.88541478,0
-0.21462962,-0.6615234,1.2402791,-0.15093924,-0.46521929,0.87223184,0
-1.0567923,-0.58783239,-0.1551536,-0.86679715,-0.48214909,-0.12725936,0
-0.95012885,-0.77232331,0.26296803,-0.75867677,-0.61669928,0.20997967,0
-0.11989272,-0.80856508,0.77635527,-0.10635077,-0.71723723,0.68866557,0
-0.43575785,1.2674283,0.11561829,-0.32392964,0.94216907,0.085947253,0
0.71374017,-0.58327854,-0.65480483,0.63125575,-0.51587111,-0.57913136,0
-0.74361432,1.0609468,-0.18563153,-0.56815302,0.81060857,-0.1418304,0
-0.065502182,-0.86078644,1.1634901,-0.045212071,-0.59414721,0.80308467,0
-0.2414299,1.0398536,-0.20190069,-0.22222149,0.95712185,-0.18583728,0
1.0411839,-0.16164164,0.78036338,0.7940895,-0.12328074,0.59516704,0
-0.93793172,-0.5467779,-0.20197582,-0.84934586,-0.49513575,-0.18289959,0
0.45415881,1.2097397,-0.53991109,0.32429704,0.86382776,-0.3855294,0
-0.48602456,1.2338439,-0.42932564,-0.34868377,0.88518441,-0.30800685,0
-0.2256318,1.1906774,-0.60951328,-0.16633214,0.87774831,-0.44932342,0
-0.74052948,-1.0372421,0.41140464,-0.55295604,-0.77451241,0.30719733,0
1.3085464,0.086416103,-0.12210416,0.99352908,0.065612428,-0.092709005,0
-0.47911793,1.0595467,0.52971393,-0.37495336,0.82919168,0.41454932,0
0.73768675,0.77801532,0.75450402,0.56268275,0.59344405,0.57551044,0
-0.8448357,0.49344495,-0.74829602,-0.68588829,0.40060821,-0.60751158,0
-1.2951061,-0.020320714,-0.1244581,-0.99529284,-0.015616529,-0.095646426,0
-0.68666619,-0.014820696,1.1069225,-0.52711308,-0.011376972,0.84971899,0
-0.30440277,-0.82107693,-0.76238501,-0.26217672,-0.70717901,-0.65662873,0
-0.33970347,0.91539621,-0.45527273,-0.31532225,0.84969628,-0.42259684,0
1.106472,0.84358263,-0.46073318,0.75492597,0.57556129,-0.31434998,0
0.56622738,-0.93938613,0.84278405,0.4093495,-0.67912161,0.60928392,0
-0.67914671,-0.99221778,-0.015980355,-0.56478179,-0.8251332,-0.013289343,0
0.48006991,0.16410756,-1.0802162,0.402262,0.13750964,-0.90513885,0
0.38067368,0.71128875,-0.89948612,0.31505647,0.58868301,-0.74444056,0
0.037305713,0.58319449,-1.0150797,0.031850409,0.49791256,-0.86664218,0
-0.59305406,0.011353959,1.0772088,-0.48226607,0.0092329346,0.87597615,0
1.1195012,-0.029063012,-0.75207955,0.8298862,-0.02154441,-0.55751652,0
-0.93975747,-0.76304221,-0.22559884,-0.76318038,-0.61966926,-0.18320961,0
0.18510498,0.13445431,-1.0360658,0.17445864,0.12672114,-0.97647631,0
0.14206834,1.1708891,-0.71315056,0.10307403,0.84950846,-0.51740801,0
0.046173129,-1.3245121,0.12289122,0.034690499,-0.99512398,0.092329852,0
0.8906408,0.9295125,0.66907769,0.61388487,0.64067763,0.46116984,0
-0.84853011,0.83236384,-0.703282,-0.61438698,0.60268164,-0.50921857,0
-0.11474234,-0.4373731,-1.3544449,-0.080355756,-0.30629885,-0.94853777,0
0.19461451,-1.2180599,-0.49443156,0.1464465,-0.91658431,-0.37205741,0
0.10599561,0.42348859,1.2763641,0.078576021,0.31393796,0.94618642,0
-0.2931025,-0.32745615,0.97986203,-0.27293217,-0.30492172,0.91243118,0
0.74597913,0.80735874,-0.47388029,0.62319285,0.67446947,-0.39588076,0
-0.56363904,0.89303446,0.49520388,-0.48324075,0.76565075,0.42456728,0
-0.74516988,-1.0172986,-0.7836678,-0.50190204,-0.68519175,-0.52783197,0
0.62078917,1.0517013,0.51250041,0.46872219,0.79407918,0.38695958,0
0.27588415,-0.89702886,1.0716546,0.19367011,-0.6297124,0.75229931,0
1.0228152,-0.05348108,-0.94253063,0.7348358,-0.038423181,-0.67715579,0
-0.47678176,1.0886792,-0.65495545,-0.35134405,0.80225587,-0.48264158,0
-0.3425363,0.89144242,-0.99761045,-0.24803066,0.64549381,-0.72237009,0
-0.31705055,-1.1473016,0.25542128,-0.26043257,-0.94241977,0.20980889,0
0.061760187,-1.3040451,0.13359645,0.047061667,-0.99369091,0.10180137,0
0.52012676,-0.87913233,0.18742982,0.5008319,-0.84651965,0.18047684,0
-0.30185679,-1.0150689,-0.11477626,-0.28337976,-0.95293528,-0.10775066,0
-0.91214603,0.8940571,-0.010054319,-0.71413046,0.6999684,-0.0078716511,0
-1.0320317,0.38889301,0.76472121,-0.76899058,0.28977314,0.5698114,0
0.64846808,0.80949783,0.79008049,0.4973487,0.62085199,0.60595965,0
0.64883679,0.95088583,0.6932252,0.4828459,0.70762223,0.5158785,0
-1.0692341,-0.69476217,0.50401157,-0.77982253,-0.50670958,0.3675898,0
0.62432849,0.97324717,-0.065221384,0.53908628,0.84036565,-0.056316432,0
-0.93532854,0.28588343,-0.79068214,-0.74369639,0.227311,-0.62868541,0
-1.1107562,-0.90793127,-0.11223585,-0.77189559,-0.63094687,-0.077995837,0
0.59257776,1.2418318,-0.41829327,0.41204283,0.86349493,-0.29085591,0
-0.76615471,-1.1572126,0.44405666,-0.52578562,-0.79415518,0.30474082,0
0.60937405,0.46929514,0.87011379,0.52472371,0.40410367,0.74924314,0
-0.38286126,0.75839591,-1.019434,-0.28851119,0.57150126,-0.76821065,0
0.3844144,-1.1061974,-0.77921259,0.27328673,-0.7864145,-0.5539555,0
-0.92835063,-0.70455652,0.54086179,-0.72255224,-0.54836917,0.42096257,0
-1.037514,-0.2497099,-0.63940316,-0.83399004,-0.20072556,-0.51397461,0
-0.41954792,-0.62630558,0.7105608,-0.40499172,-0.60457593,0.6859079,0
0.74740499,-0.29850298,0.94854259,0.6008243,-0.23996073,0.76251489,0
-0.91122299,-0.15033919,-1.1154211,-0.62923926,-0.10381576,-0.77024692,0
-0.92736906,0.82590646,-0.23732227,-0.73350346,0.65325153,-0.18771029,0
0.55775893,0.64703703,1.1154472,0.39698654,0.46053049,0.79392278,0
-0.80876452,0.028143954,1.1674993,-0.56933415,0.019812088,0.82186747,0
0.61455125,0.12136388,-1.1411196,0.47209576,0.093231238,-0.87660342,0
0.61124742,-0.59293383,-0.92056072,0.4874211,-0.47281748,-0.73407382,0
-0.70945948,-0.93278152,-0.47406551,-0.56120116,-0.73785472,-0.3749983,0
-0.35427994,0.15241316,-1.1599337,-0.28983018,0.12468652,-0.94892132,0
0.88398594,-0.45690727,-0.65139276,0.7432633,-0.38417172,-0.54769689,0
1.2937084,0.25454244,0.39778951,0.93936849,0.1848246,0.28883705,0
0.8598361,-1.1400733,-0.00055308465,0.60214067,-0.79838991,-0.00038732353,0
0.90059322,0.46491206,-0.63537967,0.75287211,0.38865417,-0.53116059,0
0.75736278,-0.73420525,-0.77785677,0.57786739,-0.56019819,-0.59350425,0
0.75040144,0.63990182,0.92621523,0.55464429,0.47297069,0.68459356,0
-0.53105652,1.07505,-0.20073995,-0.43681362,0.8842684,-0.16511603,0
-1.1137419,0.36145175,-0.95138073,-0.73821002,0.23957732,-0.63059384,0
-0.98826003,-0.41338006,-0.61500484,-0.80006713,-0.33466071,-0.49789038,0
0.42664054,-0.14492913,-1.2052524,0.33157098,-0.11263414,-0.93668252,0
0.29871467,0.4233419,1.0540951,0.25432286,0.36042932,0.89744675,0
-1.0672126,0.13630916,0.090345338,-0.98846275,0.12625088,0.083678737,0
0.093960635,-1.261904,-0.48006701,0.069425561,-0.93239462,-0.35471153,0
-1.0530448,0.58535218,-0.22457397,-0.85924226,0.47762388,-0.18324333,0
0.2954703,0.30254143,0.95620978,0.28259844,0.28936154,0.91455352,0
-0.11797609,1.2956003,-0.32325763,-0.088007703,0.96649081,-0.24114345,0
-0.45788473,0.90052563,-0.55514127,-0.39721763,0.78121114,-0.48158824,0
-1.0743153,-0.20162937,0.727727,-0.81811333,-0.15354493,0.55417913,0
-0.71934247,0.20224568,0.74362636,-0.6823588,0.19184761,0.70539421,0
-0.87869102,0.569098,0.1477357,-0.83110303,0.53827691,0.13973466,0
-0.51057208,-1.0915029,-0.55708569,-0.3845953,-0.82218927,-0.41963232,0
-0.28533265,1.068011,0.141799,-0.25601244,0.95826435,0.12722802,0
-0.18804973,0.42450404,-1.1771281,-0.1486108,0.33547446,-0.93025357,0
0.31746674,-0.37340453,-1.2482744,0.23673062,-0.27844268,-0.93082124,0
-0.13812147,0.85962933,-1.0180629,-0.10310753,0.64171237,-0.75998294,0
-0.77234274,-0.20315109,-0.902502,-0.64088911,-0.16857454,-0.74889511,0
-0.13327688,1.0540528,-0.17873016,-0.12370532,0.9783538,-0.16589428,0
-0.74754512,0.77819461,-0.28487799,-0.66981369,0.69727618,-0.25525573,0
0.047816116,1.0501808,0.080771081,0.045350537,0.9960295,0.076606214,0
-0.72273433,-0.77180606,0.84589911,-0.53373951,-0.56997901,0.62469673,0
0.56607813,0.21851352,-1.1817454,0.42612708,0.1644906,-0.88958341,0
-0.13834062,0.90443814,-0.66412938,-0.12236238,0.79997617,-0.58742291,0
-0.042853601,0.092309281,1.1335453,-0.03765348,0.0811079,0.99599385,0
0.22806522,-1.1416094,0.11302476,0.19498734,-0.97603393,0.096631996,0
0.14915591,1.2269025,0.30299622,0.11721168,0.96414083,0.23810452,0
-0.11050886,-0.9054203,1.1238202,-0.076349854,-0.62554902,0.77644008,0
0.62582904,-1.114326,0.46043918,0.46069318,-0.8202917,0.33894429,0
-0.3352285,-0.30976936,1.0121673,-0.30191973,-0.27899024,0.91159695,0
1.0300342,0.42309278,-0.25629374,0.901438,0.37027112,-0.22429636,0
-1.3028069,0.34220126,0.61125928,-0.88074845,0.23134145,0.41323519,0
0.78081417,0.76991123,0.52369362,0.64254439,0.63357222,0.4309558,0
-0.60907608,-0.94511181,0.46404898,-0.50073332,-0.77699482,0.3815037,0
1.0794404,-0.73694205,0.011401951,0.82585388,-0.56381667,0.0087233586,0
-0.87713623,-0.38570449,1.0232403,-0.62570333,-0.27514151,0.72992641,0
1.1402577,-0.63740742,0.45816407,0.82368481,-0.46044225,0.33096272,0
1.0220052,-0.88342553,0.27169514,0.74168378,-0.64111453,0.19717304,0
0.21983024,-0.091446102,1.2173963,0.17721669,-0.073719501,0.98140699,0
-0.46436059,-0.73595655,0.86581218,-0.37828061,-0.59952998,0.70531386,0
0.49501213,-1.2014754,-0.092949562,0.37996781,-0.92224401,-0.07134743,0
1.0360308,0.40466449,-0.34286633,0.89013487,0.34767884,-0.29458323,0
0.2835649,-1.0802335,-0.54668981,0.22804576,-0.86873466,-0.43965349,0
0.92664587,0.63090509,-0.58710587,0.73225594,0.49855509,-0.46394399,0
0.7246477,-1.0362163,0.63159323,0.51268941,-0.73312467,0.44685322,0
-0.90775317,-0.21466894,0.676498,-0.78778905,-0.18629937,0.58709538,0
-0.02764832,0.42481211,-0.97726828,-0.025937343,0.39852321,-0.91679144,0
-0.83420837,-0.48498988,0.64061397,-0.72024184,-0.41873235,0.55309564,0
-0.75575811,-0.85354561,0.18120833,-0.65469885,-0.73941028,0.15697733,0
-0.3103168,-0.96532416,1.005116,-0.21735018,-0.67612642,0.70399714,0
-0.67965186,1.121366,0.16232552,-0.5143953,0.84870714,0.12285625,0
-0.54300958,-0.14841391,-0.90893531,-0.50789618,-0.13881682,-0.85015959,0
-0.43129814,0.51737458,1.1424516,-0.32520574,0.39010876,0.86142695,0
-0.017415367,0.83748627,-0.80154586,-0.015021274,0.72235686,-0.6913572,0
-0.51637828,0.64717907,0.86455011,-0.43137491,0.54064399,0.72223258,0
0.39695346,0.65168822,1.0639013,0.30318972,0.49775401,0.81259888,0
-0.046603356,1.3043381,-0.069951437,-0.035655551,0.99793011,-0.053518828,0
0.43852463,-0.97779757,0.48934376,0.37223983,-0.82999939,0.41537744,0
-0.183888,-1.3187017,-0.15579046,-0.1371741,-0.983706,-0.11621431,0
-0.76727909,-0.92693764,0.40865928,-0.6037764,-0.72941262,0.32157636,0
0.25082758,-0.98438621,0.92944562,0.18217091,-0.71493948,0.67503726,0
0.30526921,1.0868847,0.075276658,0.26980403,0.96061403,0.066531263,0
-0.23906527,0.33161721,-1.2998682,-0.17544311,0.2433643,-0.9539358,0
-1.1320608,-0.48888603,0.16247894,-0.91018295,-0.393067,0.13063395,0
0.4838956,0.25782049,1.0734657,0.40144458,0.21389043,0.89055777,0
0.64523822,0.81223094,0.18405125,0.61245334,0.77096105,0.1746995,0
-1.0346717,-0.40965864,0.51561034,-0.84362012,-0.3340154,0.42040318,0
0.69977868,-0.1721313,-0.75675017,0.66965532,-0.16472156,-0.72417438,0
0.71755219,-0.31775072,-0.95777929,0.57950318,-0.25661904,-0.77351326,0
0.22676295,-1.028729,-0.65850997,0.18253295,-0.82807589,-0.53006792,0
-1.0798839,-0.45886922,-0.400381,-0.87103975,-0.37012619,-0.32294932,0
0.062252175,-0.60229498,-0.91958785,0.056539726,-0.54702657,-0.83520365,0
-0.036645658,-1.0318056,-0.84677106,-0.027444066,-0.77272296,-0.63414991,0
1.0333681,0.13589662,0.42531553,0.91797447,0.12072138,0.37782159,0
0.87442249,0.33350191,1.0926917,0.60779303,0.2318103,0.75950748,0
0.99166775,-0.40151295,-0.42871648,0.8603977,-0.34836346,-0.37196597,0
-0.19990993,-0.79283363,-0.72098273,-0.18338314,-0.72728914,-0.66137826,0
-1.113456,0.36200163,-0.51647031,-0.87010759,0.28288534,-0.40359452,0
-0.35627356,0.97358644,0.62879795,-0.29383066,0.80294913,0.51859057,0
0.21536182,1.2234753,0.26931754,0.16942376,0.96250021,0.21187037,0
-1.1387725,0.02938352,-0.21328549,-0.98259288,0.025353648,-0.18403396,0
0.81624436,-0.2961463,-0.81629622,0.68490547,-0.24849448,-0.68494898,0
-0.70562911,-0.25080562,-1.048669,-0.54758823,-0.19463229,-0.81379694,0
0.5741024,-0.9814508,0.59927732,0.44667119,-0.76360214,0.46625814,0
1.2264847,-0.71362191,-0.18284425,0.85725141,-0.498786,-0.12779899,0
1.1039022,0.33394521,-0.72562116,0.81015128,0.2450816,-0.53253168,0
0.19356774,-0.10266863,1.339443,0.14261802,-0.075644813,0.98688293,0
-1.0008246,-0.89896417,-0.63940799,-0.67191702,-0.60353166,-0.42927513,0
0.050439429,0.51729035,1.115998,0.040971324,0.42018855,0.90651137,0
1.0895503,0.11750861,0.16476233,0.98318422,0.10603697,0.1486776,0
0.46704185,1.0440038,-0.73444855,0.34360945,0.76808876,-0.54034448,0
0.54540533,1.0609537,0.43339998,0.42971614,0.83590847,0.3414689,0
0.0096202893,-0.99107754,0.28381979,0.0093313791,-0.96131414,0.2752963,0
0.74212176,-0.44306421,0.96952391,0.57136565,-0.34111878,0.7464444,0
0.56914836,-0.96533638,-0.52799249,0.45944199,-0.77926266,-0.42621911,0
-0.59845495,-0.0111887,-1.1991855,-0.44651875,-0.0083481036,-0.89473534,0
-0.039540287,-0.88565397,-0.79641676,-0.033178829,-0.74316514,-0.66828489,0
0.78050101,-0.22105543,-0.71358663,0.72242188,-0.20460613,-0.66048682,0
-0.98434234,-0.095897488,-0.58229423,-0.85767251,-0.08355695,-0.50736189,0
-0.27609929,-0.49112666,1.1493684,-0.21569705,-0.38368288,0.89792109,0
0.77201211,-0.44812885,-0.71850812,0.67371958,-0.39107311,-0.62702769,0
-0.15097252,1.326969,0.31276941,-0.11006517,0.96741498,0.22802176,0
-0.62088138,-0.90059602,-0.50863683,-0.514678,-0.74654675,-0.42163318,0
0.6471836,-0.70663011,-0.85763562,0.50326604,-0.54949307,-0.66691869,0
0.78149962,-0.15282837,-1.0104724,0.60744888,-0.11879138,-0.78542626,0
1.0716472,0.42778999,0.2154374,0.91295964,0.36444363,0.18353583,0
0.43036783,1.2305529,0.41700879,0.31443265,0.89905888,0.30467233,0
-0.61710608,0.06063639,-1.2441455,-0.44392738,0.043619975,-0.89500046,0
0.78883111,-0.27042189,-0.86367464,0.65705895,-0.22524863,-0.71940011,0
1.1893092,0.35622963,-0.28201291,0.93415385,0.27980384,-0.22150962,0
-0.17344995,0.73296016,-0.83713543,-0.15402651,0.65088111,-0.74339056,0
-0.96982741,-0.80760652,-0.15091917,-0.76301229,-0.63538492,-0.11873575,0
0.73634082,0.80429137,0.68778867,0.57114398,0.62384999,0.53348446,0
0.94792026,0.497215,0.83093011,0.69953489,0.36692882,0.61319989,0
-1.3498514,0.012131875,0.15072554,-0.99378395,0.0089316964,0.11096676,0
0.98659372,-0.69865239,-0.70218325,0.70569277,-0.49973351,-0.50225908,0
0.47136778,-0.50496519,-0.87393415,0.4231407,-0.45330065,-0.78451926,0
1.3018275,0.16139977,-0.26429972,0.97285247,0.12061364,-0.19751053,0
0.47652173,-0.042215511,-1.1750128,0.37560889,-0.033275545,-0.92618072,0
0.73277521,-0.54540336,0.71922284,0.63027442,-0.46911216,0.61861771,0
0.58000976,-0.095762759,-1.067758,0.47585142,-0.07856565,-0.87600964,0
-0.19736759,0.35741782,-1.2515057,-0.14992724,0.27150694,-0.95068699,0
-0.79864264,-0.21374112,0.92208463,-0.64487338,-0.17258778,0.74454808,0
-0.30766052,-0.5905121,1.2893234,-0.21201766,-0.40693876,0.88850963,0
0.2633763,0.33439258,-1.0758934,0.22763017,0.28900793,-0.92987031,0
-0.45034906,-1.1597962,-0.12953341,-0.36002353,-0.92717844,-0.10355318,0
-0.83701187,0.075935833,-0.67046428,-0.7785306,0.070630267,-0.62361956,0
0.917759,-1.1627626,-0.077504322,0.61871004,-0.78388,-0.052249778,0
-0.51174933,-0.49121466,0.98213327,-0.42240497,-0.40545538,0.81066638,0
-0.26664653,-0.71128273,-0.78482413,-0.24412976,-0.65121895,-0.71855021,0
-0.11868858,0.51568973,-1.2405058,-0.088004969,0.38237259,-0.91980773,0
0.097260401,1.356728,-0.11095326,0.071267277,0.99413842,-0.081300676,0
-0.71550965,0.76308846,0.44085792,-0.63030988,0.67222321,0.38836247,0
-0.5376423,0.24626707,-1.2957032,-0.37748545,0.17290722,-0.9097296,0
0.5889895,0.89806509,-0.088453472,0.54656774,0.83338231,-0.082082644,0
0.75596303,-0.18919121,-0.98537332,0.60174829,-0.15059663,-0.7843594,0
-0.089334331,1.2395955,0.36427075,-0.06897898,0.95714647,0.28126952,0
0.63351798,-0.98285723,-0.01252006,0.54174346,-0.84047568,-0.010706342,0
-0.50737303,-0.69993377,0.82283521,-0.42512098,-0.586465,0.68944246,0
0.051703978,-0.0014576926,1.2426785,0.041570887,-0.0011720099,0.9991349,0
0.72053784,-0.8244493,-0.62273347,0.5720197,-0.65451276,-0.49437487,0
1.0417006,-0.13082056,-0.060419668,0.99056751,-0.12439907,-0.057453897,0
-0.8390168,0.72039604,-0.62548679,-0.66038656,0.56702071,-0.49231803,0
-0.16445388,-0.30622557,-1.1334336,-0.13871713,-0.25830179,-0.9560532,0
0.025585799,1.4113164,-0.14805262,0.018027164,0.99438101,-0.10431446,0
-0.8597098,-0.11446185,-0.77050221,-0.7410531,-0.098663889,-0.66415787,0
-0.74835932,0.055391431,-0.76485521,-0.69842178,0.051695198,-0.71381694,0
0.62138683,0.050087459,1.1762279,0.46678054,0.037625276,0.88357252,0
-0.24973409,0.9806183,-0.272367,-0.23831119,0.93576455,-0.25990885,0
1.0155202,-0.85978574,0.64126176,0.68752444,-0.58208954,0.43414509,0
-0.6539228,1.0228258,0.022731731,-0.53855848,0.84238005,0.018721424,0
0.80933905,-0.16766985,1.0929581,0.5906325,-0.12236066,0.79760957,0
-0.36327472,-1.3151911,0.46578184,-0.25196755,-0.91221726,0.32306653,0
0.16347001,1.2330004,-0.17631251,0.13012809,0.98151326,-0.14035118,0
-0.7575677,0.022865891,1.0292786,-0.59267396,0.017888855,0.80524379,0
0.98965663,-0.4363195,0.35166389,0.87017703,-0.38364339,0.3092081,0
-0.68624693,-0.55824518,0.87016487,-0.55303669,-0.44988191,0.70125359,0
1.0695324,0.61025357,-0.010748248,0.86852747,0.49556422,-0.0087282518,0
-0.38111117,-0.59548402,1.0364033,-0.30377516,-0.47464693,0.82609379,0
0.90138751,-0.5226413,-0.9806273,0.62997389,-0.36527061,-0.68535405,0
-0.77037787,-0.75947326,0.71214747,-0.59481353,-0.58639401,0.5498535,0
-0.16994031,-0.42623299,1.2319949,-0.1292643,-0.32421213,0.93711114,0
-1.0403783,0.3069554,-0.21202223,-0.9413119,0.27772662,-0.19183314,0
-0.95014781,-0.86815917,-0.095325328,-0.736224,-0.67269492,-0.073863029,0
-0.29956821,1.1730195,-0.014450944,-0.24742289,0.96883404,-0.011935494,0
1.0810939,0.0020504084,0.042481855,0.99922705,0.0018951393,0.039264876,0
0.87073791,-0.76094306,0.28753108,0.73073459,-0.63859332,0.24129982,0
0.85248905,0.38105372,1.123446,0.58355856,0.26084459,0.76903802,0
1.1083428,-0.58198553,0.4344075,0.83643377,-0.4392074,0.32783461,0
0.9911769,0.40190631,-0.7655313,0.75357819,0.30556387,-0.58202296,0
-0.64246333,0.59471786,0.71248096,-0.56918103,0.52688164,0.63121212,0
0.39872125,0.1809023,1.0881025,0.33994767,0.15423636,0.92771053,0
0.90439719,-0.98746306,0.049699157,0.6749444,-0.73693579,0.037090085,0
0.54792386,1.1287725,0.38152233,0.41779932,0.86070424,0.29091591,0
0.51739037,0.9394055,-0.50543827,0.43639603,0.79234725,-0.42631495,0
-1.1426891,0.04287836,0.073370516,-0.99724609,0.037420742,0.064031817,0
-0.011274732,1.1201133,-0.15550174,-0.009969594,0.99045146,-0.13750121,0
0.10725461,0.031328093,1.1099184,0.096146904,0.028083634,0.99497092,0
0.77357513,0.4850004,0.7101562,0.66877496,0.41929492,0.61394775,0
0.33740839,-0.25768226,1.4051142,0.22986534,-0.17555054,0.95725852,0
0.57404631,-1.1475216,0.36599156,0.43023151,-0.86003506,0.27430034,0
-0.7984646,0.69027871,-0.49310833,-0.68538713,0.59252238,-0.42327499,0
0.15485893,-1.1133093,0.33331263,0.13208643,-0.94959354,0.28429794,0
0.56471431,1.0078532,0.5364182,0.44335118,0.79125476,0.4211362,0
0.082045145,0.62438911,0.96266586,0.071321532,0.54277909,0.83684176,0
-0.058735009,0.052789528,-1.2514898,-0.046838909,0.042097617,-0.99801493,0
0.18142189,-0.6188181,-0.81227714,0.17492643,-0.59666252,-0.78319514,0
-0.13847157,-1.3671635,-0.35711423,-0.097528711,-0.96292472,-0.25152376,0
0.54435492,-0.72141689,-1.081705,0.38618872,-0.5118041,-0.76740789,0
-0.57001209,-0.056686997,-1.2108324,-0.42554307,-0.042319734,-0.90394807,0
-0.59101892,-0.30402181,1.1700542,-0.43920878,-0.22593024,0.86951208,0
-0.48143199,0.075474888,-1.3175131,-0.34271795,0.053728458,-0.9379006,0
-1.3657994,-0.2474099,-0.16666898,-0.97696811,-0.17697443,-0.11921976,0
-1.1307559,0.3257837,0.53137976,-0.87576371,0.25231755,0.41155046,0
-0.90217125,-0.77398074,-0.54540348,-0.68982202,-0.59180444,-0.41702873,0
-1.0543211,0.057639632,0.13731247,-0.99017149,0.054132581,0.12895778,0
0.66630387,0.8766489,0.79836166,0.48989546,0.64455026,0.58699006,0
-0.11246523,0.20105219,-1.125693,-0.097878963,0.17497656,-0.97969532,0
-0.17245404,-1.2739635,0.21120715,-0.13237013,-0.97785306,0.16211577,0
-0.78938723,-0.41200599,0.56404132,-0.74890786,-0.39087856,0.53511757,0
-0.68649745,-0.84283996,0.83129603,-0.50165313,-0.61589932,0.60746372,0
0.43872136,0.03376893,1.1983606,0.34366632,0.026452426,0.93871921,0
-0.84238362,-0.088781647,1.0305189,-0.63148874,-0.066554725,0.7725234,0
-0.2139347,0.18436438,-1.357559,-0.15428464,0.13295922,-0.97903937,0
-0.59153932,0.91995287,0.22867267,-0.52940166,0.82331735,0.20465198,0
-0.4044942,0.60021734,0.97843242,-0.33235672,0.49317464,0.80393887,0
-0.2654399,1.0312257,0.87143397,-0.1929117,0.74945587,0.63332528,0
1.1763008,0.31386775,0.5964449,0.86766559,0.23151582,0.439951,0
-1.0494355,-0.54952383,0.32000974,-0.85523778,-0.44783461,0.26079205,0
0.11988836,0.5101369,0.86182988,0.11886087,0.50576484,0.85444367,0
0.52263558,-1.2455851,-0.19335487,0.38300747,-0.91281271,-0.1416979,0
0.68797284,-0.70595706,0.58271247,0.60080135,-0.61650681,0.50887829,0
0.68743616,-1.0930694,0.19257227,0.52655023,-0.83725011,0.14750311,0
0.73284453,-0.60179061,0.26930064,0.74342597,-0.61047977,0.27318904,0
-0.85676724,1.1225256,0.45553777,-0.57741868,0.75652665,0.30700991,0
-0.05376533,-0.35332739,-1.1695065,-0.043965548,-0.28892657,-0.95634115,0
0.2994059,-0.85486138,0.6323697,0.27103347,-0.77385259,0.5724448,0
-0.82726395,0.73795521,0.47407854,-0.68613189,0.61205935,0.39320028,0
-0.84685725,-0.72773248,-0.28557724,-0.73478365,-0.63142389,-0.24778377,0
-0.18698317,-0.40698203,-1.081267,-0.15976593,-0.34774178,-0.92387795,0
-0.13019909,0.037820961,1.128566,-0.11454321,0.033273153,0.99286085,0
-0.037962373,-0.053747408,1.2735558,-0.029768465,-0.042146415,0.99866784,0
-1.0089279,-0.34445727,0.62317294,-0.81702447,-0.27893966,0.50464213,0
0.54073793,-0.91309154,-0.13843185,0.50527495,-0.8532086,-0.12935312,0
-0.23986647,-0.34414977,-1.0085279,-0.21959905,-0.31507099,-0.92331278,0
-0.85587645,-0.33599019,-0.66762692,-0.75322455,-0.29569227,-0.58755326,0
0.94653219,0.6455366,0.34346426,0.79136163,0.53971004,0.28715816,0
1.1701982,-0.14695485,-0.66434175,0.86449009,-0.10856367,-0.49078596,0
1.3467499,0.25353366,-0.3855817,0.94600523,0.17809109,-0.27084637,0
0.48288742,-0.91193056,-0.47881293,0.42449132,-0.80164981,-0.42090955,0
0.73154414,0.76204175,0.23846854,0.67552465,0.70368689,0.22020733,0
-1.2168941,-0.31429043,-0.17957754,-0.95849407,-0.24755277,-0.14144534,0
0.92397255,-0.99551755,-0.44701073,0.64618218,-0.69621736,-0.3126179,0
-0.11209792,-0.55316448,1.2201236,-0.083384901,-0.41147566,0.90759832,0
0.59791434,-0.99879968,0.63322258,0.45119852,-0.75371492,0.47784287,0
-0.38592738,-1.0843856,-0.23062368,-0.32875919,-0.9237535,-0.19646095,0
0.056167249,-1.0108521,0.78952205,0.043748397,-0.78734779,0.61495489,0
-1.222046,-0.16091296,-0.13458513,-0.98558426,-0.12977685,-0.10854337,0
-1.2139843,-0.56940746,0.630243,-0.81936443,-0.38431489,0.42537513,0
-0.2007512,1.1903545,-0.68847793,-0.14445722,0.85655928,-0.49541727,0
0.054872319,0.78569007,-0.98339027,0.043552529,0.62360752,-0.78052348,0
-0.86277783,-0.89963067,0.35551608,-0.66562521,-0.69405687,0.27427742,0
-0.75709814,-0.39932668,-0.9938516,-0.57721472,-0.30444831,-0.75771654,0
-0.77112716,0.052416325,1.0985332,-0.57410127,0.039023757,0.81785381,0
-1.1115227,0.2987065,-0.084461488,-0.96314573,0.25883222,-0.07318674,0
0.34298068,0.96519774,0.89702517,0.25189927,0.70888132,0.65881258,0
-1.1592597,0.24770164,-0.45610538,-0.91269785,0.19501823,-0.35909677,0
1.1017522,0.50082666,-0.77242482,0.7673803,0.34883028,-0.53800082,0
-0.5405646,-0.18404248,1.0561095,-0.45024401,-0.15329163,0.8796488,0
-1.2383182,-0.099922948,0.35640925,-0.958112,-0.077312417,0.2757611,0
-0.23685122,0.76388532,0.93637305,-0.19233873,0.62032503,0.76039636,0
1.1431282,-0.3398816,-0.43640751,0.90015304,-0.2676388,-0.34364787,0
-0.49349225,-1.2659525,0.17256571,-0.36030459,-0.92428702,0.12599228,0
-0.93458718,0.22205923,-0.79043561,-0.75127202,0.17850329,-0.63539511,0
0.087914594,-1.1428907,-0.66832238,0.066257149,-0.86134362,-0.50368357,0
1.1802452,0.095305517,0.22732937,0.9788785,0.079045035,0.18854374,0
-0.2892125,-1.1511192,-0.58345616,-0.2186778,-0.87037808,-0.44115975,0
-0.057514429,1.2909529,0.30819863,-0.043293476,0.97175336,0.23199378,0
0.56258309,-0.60933506,-1.0426428,0.42228007,-0.45737255,-0.78261739,0
0.004256981,-1.1204787,0.42688853,0.0035502904,-0.93447089,0.35602185,0
-0.98787314,0.47817025,-0.2464872,-0.87822354,0.42509544,-0.21912821,0
-0.56095642,0.68070996,-0.49862954,-0.55362254,0.67181045,-0.49211055,0
-0.3032034,-0.64783406,0.96532953,-0.25236455,-0.53921014,0.80347031,0
0.42682004,-1.2591019,-0.30022845,0.31315753,-0.92380208,-0.22027738,0
-0.24181825,-1.0001663,0.2831555,-0.22658436,-0.93715858,0.26531747,0
1.0146888,1.0376545,-0.26086977,0.68812263,0.70369703,-0.17691176,0
0.39617056,0.303036,-0.89061064,0.38810989,0.29687029,-0.87248987,0
0.89872456,0.27473164,0.60725516,0.80321991,0.24553677,0.54272407,0
-0.073267058,0.42776063,-1.0433033,-0.064839907,0.37855977,-0.92330295,0
-1.1151232,-0.11987329,-0.70450068,-0.84194642,-0.090507388,-0.53191596,0
-1.1100526,0.41262811,-0.57888061,-0.84211415,0.31303018,-0.43915358,0
0.30067548,1.2702601,0.14058675,0.22901465,0.96751547,0.10708032,0
-0.69634855,-0.84669894,0.66154993,-0.54384828,-0.66127193,0.51667058,0
-0.86068124,-0.11607,1.1113771,-0.61021221,-0.082292177,0.78795248,0
-0.96908534,-0.065117717,0.86503881,-0.7450847,-0.050065987,0.66508818,0
0.56082642,0.3087821,0.87979209,0.51543003,0.28378758,0.80857682,0
0.51914549,0.56170982,-0.951603,0.42521805,0.46008134,-0.7794323,0
-0.76678425,0.70295316,0.53539973,-0.65540612,0.60084671,0.45763102,0
0.044746961,-0.90933979,-1.0510163,0.032180097,-0.6539582,-0.7558459,0
0.14645009,-0.53490072,1.0685427,0.12164745,-0.44431049,0.88757545,0
-0.0056467396,0.28620902,1.1358613,-0.0048205922,0.24433514,0.96967882,0
-1.0161927,0.74027932,0.21465671,-0.79674101,0.58041245,0.16830057,0
1.1994298,0.15403886,-0.33570281,0.95571148,0.12273892,-0.26748964,0
0.53489512,1.0426011,0.21770182,0.44879124,0.87477005,0.18265761,0
-0.5230186,0.20629494,-1.3584131,-0.35575446,0.14032072,-0.9239853,0
0.20309617,0.066917054,-1.0125486,0.19625056,0.064661533,-0.97841936,0
-1.2837496,0.46925426,-0.22469953,-0.92677969,0.33876958,-0.16221774,0
0.11678946,0.22253355,1.3918444,0.082574531,0.15733957,0.98408622,0
-0.53757101,-0.66008592,-0.69472021,-0.48924056,-0.60074073,-0.63226122,0
0.77065772,0.029962463,1.1025888,0.57274419,0.022267768,0.81943166,0
-1.1503973,0.020191602,-0.18623047,-0.98700076,0.01732369,-0.15977924,0
0.6249187,0.85783798,0.33417344,0.56162822,0.77095795,0.30032906,0
0.71709305,0.10253792,1.1803397,0.51779538,0.07404013,0.8522945,0
0.54533792,0.97309715,0.75526285,0.40481749,0.72235352,0.56064987,0
1.2047992,0.027319718,0.50464791,0.92215389,0.020910526,0.38625777,0
-1.0995466,0.5564658,-0.012243991,-0.89220029,0.45153064,-0.0099350885,0
0.24642497,1.2275467,0.52504188,0.18150593,0.90415758,0.38672304,0
-0.30743113,1.2071247,0.40936139,-0.23446579,0.92062718,0.31220403,0
0.27895162,-0.74802846,-1.1219248,0.20258209,-0.54323816,-0.81477159,0
-0.96755505,0.52921593,-0.47578302,-0.80556846,0.44061542,-0.39612818,0
0.93724793,-0.44897747,-0.28051317,0.87070012,-0.41709855,-0.26059577,0
-0.25007269,-0.78868294,1.1880965,-0.17272575,-0.54474503,0.82062089,0
-1.2957036,-0.41696516,-0.22099167,-0.93962026,-0.30237538,-0.16025905,0
0.23542579,-0.63971657,1.1532987,0.17573197,-0.47751206,0.86087197,0
-0.26203045,-0.78146142,1.0024557,-0.2019051,-0.60214776,0.7724328,0
-1.0494004,0.14940789,0.47617593,-0.90307724,0.12857519,0.40978032,0
-0.12550303,1.1573325,-0.48348224,-0.099564053,0.91813493,-0.38355607,0
-0.52818203,-1.0194997,0.58579141,-0.40976277,-0.79092622,0.45445603,0
-1.1066852,0.099714875,0.86110473,-0.78724337,0.07093244,0.61254913,0
0.20862952,0.75584459,1.0950832,0.15490055,0.56118977,0.81306326,0
1.1404656,0.039512705,-0.1482548,0.99107146,0.034336779,-0.12883431,0
1.2228867,0.2484653,0.33594209,0.94628567,0.19226569,0.25995639,0
-0.95112914,-0.70195192,-0.44526741,-0.75295871,-0.55569828,-0.35249469,0
-0.77120984,0.93375552,-0.53975284,-0.58165234,0.70424551,-0.40708572,0
-0.53373581,1.2667606,-0.20896433,-0.38387114,0.91107398,-0.15029041,0
0.88071805,-0.45777333,0.62906593,0.74946058,-0.38954926,0.53531331,0
0.5073995,0.76661587,0.85215747,0.40477791,0.6115678,0.67980856,0
-1.0321538,0.68206459,-0.58854705,-0.7533887,0.49785191,-0.42959169,0
0.29986256,-1.0146402,0.39489356,0.26552597,-0.89845604,0.34967518,0
-0.72187304,-0.54513007,0.71190912,-0.62710381,-0.47356409,0.61844796,0
-1.3063364,0.066958927,0.42005125,-0.95086378,0.048738457,0.30574936,0
0.81892419,-0.028135467,-0.89525938,0.67476797,-0.023182748,-0.73766577,0
-0.90614772,-0.13585456,0.73878539,-0.76986939,-0.11542298,0.6276772,0
-0.85586709,0.8118881,0.52859777,-0.66207451,0.62805361,0.40890825,0
0.1887126,0.32994193,1.3796585,0.13186914,0.23055778,0.96408176,0
-1.0031381,-0.35770562,0.204429,-0.92502064,-0.32984999,0.18850948,0
-1.0062423,0.51601732,-0.55096519,-0.79992616,0.41021508,-0.43799737,0
-0.49522281,0.58209997,-1.2577311,-0.3364915,0.39552236,-0.85459673,0
-0.5872665,0.73417646,0.82120907,-0.47044873,0.58813566,0.65785593,0
-0.40456209,1.2975811,-0.44224799,-0.28304413,0.90782779,-0.30941036,0
-0.31379744,0.87616193,0.69294757,-0.27044421,0.75511426,0.5972122,0
-0.64022362,0.73897356,-0.65377629,-0.54432607,0.62828451,-0.55584872,0
-0.25395405,-1.1464626,-0.88704425,-0.17256564,-0.77903879,-0.60276008,0
0.87660551,-0.7106182,-0.68460494,0.66415238,-0.53839356,-0.51868486,0
-1.157344,0.55929434,-0.24922104,-0.88391531,0.42715809,-0.19034125,0
-0.4829278,0.4755497,-1.0384893,-0.38942918,0.38347954,-0.83742964,0
0.056938786,0.24557945,1.0813514,0.051280137,0.22117347,0.97388536,0
-0.68844134,-1.0686694,0.09853211,-0.53993917,-0.83814907,0.077277966,0
-0.17951863,1.2786951,0.020481693,-0.13901111,0.9901638,0.015860099,0
-0.76418525,1.1587069,0.49405867,-0.51868212,0.78645927,0.33533674,0
-0.15175697,-1.0862936,0.56435627,-0.12302797,-0.88064808,0.45751837,0
0.23881954,1.1209122,0.48359242,0.19198926,0.90111178,0.38876444,0
0.77587795,-0.45992672,0.73815018,0.66570526,-0.3946183,0.63333476,0
0.071692899,-1.1875951,-0.88363272,0.048375722,-0.80134535,-0.59624273,0
0.30562016,-1.3009189,-0.005863566,0.22869791,-0.97348756,-0.0043877512,0
-1.2605001,-0.75051767,0.10969513,-0.85683495,-0.51017034,0.074566133,0
0.25047597,1.0748646,0.40429357,0.21310157,0.91448027,0.3439675,0
-0.13768445,-0.84677339,0.99827552,-0.1046029,-0.64331847,0.7584191,0
-0.065708928,-0.73993021,-0.81059837,-0.059762951,-0.67297423,-0.73724765,0
0.78105611,0.347918,-0.83771634,0.65249878,0.29065272,-0.6998331,0
0.04776391,-0.87895066,-0.93598253,0.037174027,-0.68407583,-0.72846299,0
0.9660427,0.25197512,-0.77691191,0.76364696,0.19918378,-0.61414099,0
0.69769531,0.96283168,-0.026630988,0.58662331,0.80955034,-0.022391375,0
-0.4363777,1.2877018,-0.52181315,-0.2996425,0.88421154,-0.35830748,0
1.0975571,-0.24778327,0.36936775,0.92679095,-0.2092313,0.31189877,0
1.3140943,0.40459692,0.029202329,0.95551038,0.2941924,0.021233734,0
0.92388833,-0.49618492,-0.65979415,0.74567825,-0.40047514,-0.5325256,0
0.83550692,0.42927495,-0.85868055,0.65650082,0.33730346,-0.67470956,0
0.20040438,0.085647367,-1.3121655,0.15066399,0.064389683,-0.9864859,0
-0.96176988,0.65535074,-0.27993119,-0.80347288,0.54748702,-0.23385751,0
0.48723948,-1.1967387,0.13344364,0.37508902,-0.92127907,0.10272822,0
0.71050912,0.88687056,-0.56731677,0.55940211,0.69825596,-0.44666308,0
0.5334928,0.83092397,-0.53900599,0.47422487,0.73861319,-0.47912559,0
-0.99331206,-0.40517926,0.28225935,-0.89545387,-0.36526218,0.25445199,0
-0.45391929,1.140761,0.019056551,-0.36967081,0.9290331,0.015519611,0
-0.33821684,-0.1640135,-1.3353069,-0.24381188,-0.11823314,-0.96258855,0
0.56937516,-1.2596796,-0.12868722,0.41010657,-0.90731537,-0.092690155,0
-0.55809385,0.99032712,-0.19575936,-0.48383084,0.85854882,-0.16971055,0
-0.63921624,0.85353744,0.54127109,-0.53452116,0.7137394,0.45261812,0
-0.020707034,0.2650601,-1.1235595,-0.017934578,0.22957133,-0.97312659,0
-0.79549062,-0.94317144,0.61549515,-0.57692558,-0.68403035,0.44638479,0
0.69733942,0.87479842,-0.077098839,0.62185687,0.78010708,-0.068753384,0
-0.83100915,0.25019568,0.94790548,-0.64660692,0.19467688,0.73756379,0
0.63043296,-0.45051581,-1.2552148,0.42737788,-0.30540994,-0.85092479,0
0.12008382,1.2664165,-0.33311138,0.091319308,0.963063,-0.25331891,0
-0.5520938,1.0495847,-0.019934684,-0.46546987,0.88490409,-0.016806917,0
0.70160741,0.21634158,-1.1048853,0.52888227,0.16308157,-0.8328793,0
1.1962603,-0.02623551,0.65540826,0.87683725,-0.019230155,0.48040244,0
-0.76889592,-0.86535305,-0.77786708,-0.55130893,-0.62046999,-0.55774134,0
-0.94342124,0.32118955,0.9925853,-0.67072594,0.22834991,0.70567912,0
-0.3936232,0.091255382,1.1341939,-0.32692432,0.07579229,0.94200641,0
