0.49980578,0.21140712,-0.82409382,0.50652909,0.21425095,-0.83517945,0
-0.24582,-0.91035753,0.62233949,-0.21757519,-0.80575711,0.55083245,0
0.65010577,-0.49188587,0.086579733,0.79299754,-0.60000128,0.10560976,0
-0.18383005,-1.1224937,-0.25442272,-0.15771902,-0.96305585,-0.21828477,0
-0.55421466,-0.59696138,-0.18394953,-0.66366863,-0.71485758,-0.22027843,0
-0.78481507,0.11472275,-0.73458385,-0.72596228,0.10611977,-0.6794979,0
0.19325078,0.6207431,0.73268777,0.19728722,0.6337086,0.74799144,0
0.44029003,-0.38422513,0.80706888,0.44187379,-0.38560721,0.80997199,0
0.28937817,-0.44997376,-0.69767839,0.3291426,-0.51180619,-0.79354876,0
-0.59501076,0.79032922,0.17026223,-0.59274858,0.78732449,0.16961493,0
0.65038764,-0.43430945,-0.080999419,0.82720166,-0.55238056,-0.10301988,0
-0.73957586,0.37602952,-0.56256247,-0.73778993,0.37512147,-0.56120396,0
0.98891735,0.21386094,-0.4759219,0.88444531,0.19126807,-0.42564416,0
-0.11078915,0.81052434,-0.42353317,-0.12026648,0.87985975,-0.45976382,0
0.85553122,-0.20504467,-0.10748526,0.96528256,-0.23134871,-0.12127395,0
0.63093591,-0.59084022,0.33888236,0.6795606,-0.63637483,0.3649992,0
0.30042395,-0.14155477,0.84835178,0.32975951,-0.15537719,0.93119097,0
-0.4088507,0.45439667,0.79090595,-0.40902099,0.45458594,0.79123539,0
0.38208991,0.89324147,0.075073101,0.39211732,0.91668332,0.077043287,0
0.56065178,-0.63434422,-0.013695159,0.66215658,-0.74919087,-0.016174639,0
0.67460966,0.13811749,-0.80856287,0.63519621,0.1300481,-0.76132333,0
0.29775292,-0.34365416,1.1455082,0.24159345,-0.2788372,0.92945278,0
-0.27314141,-0.67697495,-0.4762224,-0.31337878,-0.7767024,-0.54637629,0
0.90518242,0.025622124,-0.6539312,0.81038582,0.022938808,-0.58544725,0
-0.72347844,-0.87823051,-0.014719127,-0.63577437,-0.77176654,-0.012934793,0
0.81384104,-0.1225177,-0.43380064,0.87477893,-0.13169144,-0.46628228,0
-0.84802037,0.45727733,-0.31164923,-0.83746517,0.45158565,-0.30777016,0
0.53955513,0.18419367,0.96952057,0.47971976,0.16376702,0.86200303,0
0.95960754,0.18044862,0.052324094,0.98136717,0.18454039,0.053510569,0
0.10187558,-0.98405421,0.48976532,0.092286348,-0.89142829,0.44366524,0
-0.62026531,0.72774345,0.55918455,-0.55995154,0.65697861,0.50481015,0
-0.62379283,0.99029243,0.43084314,-0.50016832,0.7940343,0.34545779,0
-0.20610882,1.06602,-0.43653658,-0.17612642,0.91094732,-0.37303412,0
-0.18862502,-0.98244971,0.69965154,-0.15451212,-0.80477339,0.57311934,0
-0.19033147,-0.99849576,-0.31137884,-0.17903478,-0.93923235,-0.29289767,0
0.49368834,-0.68578351,-0.29277098,0.55204934,-0.76685292,-0.32738069,0
0.14826763,-0.55948788,-0.72337747,0.16004077,-0.60391378,-0.78081697,0
0.94574189,0.13956827,0.21651892,0.96484816,0.14238788,0.22089313,0
-0.59181499,0.49245101,-0.55982077,-0.62170643,0.51732379,-0.58809626,0
0.50387406,-0.68322486,-0.34225237,0.55048579,-0.74642777,-0.37391302,0
0.76046574,-0.63833296,0.70122385,0.62562931,-0.52515161,0.57689142,0
-0.34372562,0.69473881,-0.329469,-0.40811148,0.82487565,-0.39118436,0
0.26802897,0.94376487,-0.1294155,0.27084967,0.95369691,-0.13077745,0
0.16534624,0.38303339,0.72066021,0.19856413,0.45998442,0.86544013,0
-0.52529681,0.16246141,-0.46959496,-0.72646767,0.22467862,-0.64943385,0
0.067772508,0.1210705,-0.79927957,0.083542585,0.14924257,-0.98526508,0
0.48085579,-0.58527118,-0.69752353,0.46698153,-0.56838417,-0.67739767,0
-0.92734796,-0.11827993,0.49440747,-0.87688684,-0.11184379,0.46750456,0
-0.98271215,-0.33555347,-0.031095803,-0.94592786,-0.32299322,-0.029931843,0
0.09996891,-0.050765693,-0.7554,0.13090497,-0.066475488,-0.98916376,0
-0.26201797,-1.0168387,-0.15656093,-0.24679986,-0.9577803,-0.14746781,0
-0.57704246,0.78836501,0.38359889,-0.54977739,0.75111496,0.36547396,0
0.31267628,-0.63916403,0.79636425,0.29278487,-0.59850258,0.74570221,0
-0.53262973,-1.0127503,0.30114383,-0.450147,-0.85591638,0.25450888,0
0.19788244,0.89413875,0.71600211,0.17022811,0.76918167,0.61593986,0
-0.2939035,0.66164166,0.89624786,-0.25509524,0.57427573,0.77790356,0
-0.066298939,-0.43689355,0.75394231,-0.075865619,-0.49993563,0.8627333,0
1.1078538,-0.069039874,0.040422056,0.99740273,-0.062156722,0.036392052,0
0.67658216,0.25222427,0.5042662,0.76821619,0.2863847,0.57256234,0
0.58321089,-0.84577584,-0.070758447,0.56633663,-0.82130474,-0.068711169,0
-0.71858317,0.37298736,-0.32513469,-0.82362473,0.42751017,-0.37266245,0
-0.58967537,-0.3495774,0.71860099,-0.59375399,-0.35199532,0.72357136,0
-0.32945642,-0.15454322,-0.79798257,-0.37564531,-0.17620976,-0.90985757,0
-0.72947609,0.56274742,0.22278322,-0.76959729,0.59369856,0.2350363,0
1.0416406,0.11574145,0.3566843,0.94088668,0.10454622,0.32218358,0
0.26327246,-0.40945151,-0.9473142,0.24718872,-0.38443744,-0.88944119,0
0.45263997,-0.024618233,1.0219386,0.40487823,-0.022020562,0.91410547,0
0.89335096,0.48657238,-0.041040041,0.87747502,0.47792539,-0.040310711,0
0.7181375,0.38547933,-0.48970133,0.75525534,0.40540332,-0.51501215,0
-0.47185391,0.50204939,-0.80567116,-0.44510448,0.47358817,-0.75999761,0
-0.14784962,1.0940877,0.041326307,-0.13382411,0.99029887,0.037405953,0
0.57154799,0.80825061,0.3256945,0.54844767,0.77558345,0.31253085,0
-0.23417982,-1.038254,-0.08839494,-0.21926938,-0.97214746,-0.082766756,0
-0.95749247,0.26458389,-0.21253009,-0.94254655,0.26045388,-0.20921262,0
-0.038713373,-0.81187373,0.53721583,-0.039735012,-0.83329892,0.55139285,0
-0.26841336,-1.0712597,-0.21939553,-0.23838702,-0.95142215,-0.19485262,0
-0.36944094,0.25425205,0.60044509,-0.49295396,0.33925462,0.80118835,0
0.99920166,0.13853653,0.15202782,0.97946411,0.13579997,0.14902475,0
0.1602595,-0.98617733,0.16212398,0.15833066,-0.97430795,0.1601727,0
-0.2158013,-1.0469199,0.6148439,-0.17500086,-0.84898424,0.49859855,0
-0.22492294,1.0279396,-0.39980236,-0.19981572,0.91319495,-0.35517409,0
-0.29913384,0.25364286,1.0837151,-0.25955233,0.22008075,0.94031751,0
-0.69560659,0.35117632,-0.52927005,-0.7384541,0.37280786,-0.56187171,0
-0.5085997,0.64524758,-0.50698978,-0.52681112,0.66835195,-0.52514356,0
-0.40709305,0.75316739,-0.49306309,-0.41204742,0.76233351,-0.4990637,0
-1.0154927,-0.25492501,0.039437182,-0.96921837,-0.24330851,0.037640095,0
0.21883962,-0.090363823,-1.1600766,0.1848322,-0.076321393,-0.97980213,0
0.7468372,-0.17260335,-0.48490247,0.82339519,-0.19029686,-0.53460962,0
0.17691389,-0.075046621,1.0882746,0.16008687,-0.067908622,0.98476422,0
1.0285325,0.32004815,-0.044218097,0.95403743,0.29686755,-0.041015446,0
-0.62470651,0.71065879,0.55942291,-0.56832659,0.64652169,0.50893486,0
-0.23407066,-0.48014659,0.86248612,-0.23072492,-0.4732835,0.85015798,0
-0.57817185,-0.39889157,-0.60955834,-0.62166911,-0.42890114,-0.65541691,0
-0.068431027,-0.81496471,-0.61465609,-0.066888556,-0.79659498,-0.60080141,0
-1.0297225,-0.078918509,0.38787484,-0.93341398,-0.071537375,0.35159746,0
0.3286477,-1.0857584,0.072440185,0.28911975,-0.95516932,0.063727476,0
-0.62411487,-0.046205081,-0.50075978,-0.77867609,-0.057647705,-0.62477225,0
-0.3482258,-0.63496995,0.68930352,-0.34829769,-0.63510102,0.68944579,0
-0.89897305,-0.46086833,0.26550665,-0.86064714,-0.44122013,0.25418732,0
-0.18098301,-0.098365515,-0.78663939,-0.22256702,-0.12096671,-0.96738356,0
-0.47195795,-0.032795433,0.73484796,-0.54001695,-0.037524719,0.84081715,0
0.80329138,0.17565815,-0.57534188,0.80043453,0.17503344,-0.57329571,0
0.77945966,-0.21106395,-0.36065394,0.88133544,-0.23865013,-0.40779161,0
-0.81152958,-0.13951385,-0.65283203,-0.77227825,-0.13276598,-0.62125647,0
-0.93386829,-0.26371068,0.25652632,-0.93040478,-0.26273265,0.25557494,0
-0.45826519,0.79889351,-0.29840833,-0.47334844,0.82518816,-0.30823007,0
-0.28645262,-1.0672699,-0.040996801,-0.25904483,-0.96515352,-0.037074227,0
-0.10113244,-1.0203941,0.19416556,-0.096905887,-0.97774953,0.18605095,0
-0.53392041,0.89833069,0.63966763,-0.43576357,0.73318005,0.52207005,0
0.28198057,0.68995839,-0.4576678,0.32239187,0.78883797,-0.52325726,0
-0.60119915,0.013765186,0.98581648,-0.52062821,0.011920417,0.85370028,0
0.87273479,0.72362524,0.1703977,0.76125348,0.63119084,0.14863145,0
-0.60939342,0.35136503,-0.86323446,-0.54725337,0.3155362,-0.77521014,0
-0.17233539,0.12369857,1.0784975,-0.15678793,0.11253894,0.9811995,0
0.87134075,-0.46913174,-0.59869462,0.75335526,-0.40560809,-0.5176273,0
-0.2490979,0.031527016,-0.80677605,-0.29480976,0.037312526,-0.95482725,0
-0.69796669,0.35486844,0.14920217,-0.87564498,0.44520572,0.1871839,0
-0.64403725,-0.68616158,-0.1623113,-0.6744135,-0.71852469,-0.16996677,0
0.070622019,0.6106391,0.85184324,0.067228444,0.58129627,0.81090993,0
0.76479435,-0.60842752,-0.22107923,0.76328057,-0.60722321,-0.22064163,0
-0.62366402,0.5929752,0.37461984,-0.66448218,0.6317848,0.39913833,0
-0.33419684,-0.35035872,0.84140784,-0.34425744,-0.36090589,0.86673748,0
-0.1092226,-0.46166614,0.58750784,-0.1446396,-0.61136806,0.77801573,0
0.10820027,0.79984897,-0.52343369,0.11247402,0.83144182,-0.54410851,0
-0.50398177,0.79503363,-0.17867108,-0.5260095,0.82978249,-0.18648033,0
-0.99189436,0.14296339,-0.5481928,-0.86834455,0.12515596,-0.47991022,0
-0.0635003,1.0814663,-0.31067842,-0.05634468,0.95959979,-0.27566919,0
-0.76860678,-0.39250299,0.66390419,-0.70589173,-0.3604764,0.60973245,0
-0.43763599,-0.90438306,-0.6091637,-0.37247106,-0.76971853,-0.51845795,0
-0.60087377,-0.84960264,-0.28888634,-0.55638146,-0.78669298,-0.26749545,0
0.65229523,0.53448224,-0.14363934,0.76251817,0.62479746,-0.1679111,0
0.80958939,-0.48733136,-0.0648522,0.85474485,-0.5145126,-0.068469383,0
0.99391264,0.13466704,-0.27643877,0.95532501,0.12943873,-0.26570633,0
0.0032124422,0.28941765,-0.83748174,0.0036254288,0.32662475,-0.9451471,0
0.26780379,0.81699973,-0.2378895,0.30020303,0.91584134,-0.26666966,0
0.11016055,-0.60502177,0.85926092,0.10425421,-0.57258308,0.813191,0
-0.35937804,0.80003422,0.89036459,-0.28755245,0.64013875,0.71241558,0
0.63936675,0.232362,-0.85872602,0.58361256,0.21209952,-0.78384322,0
-1.0696288,0.44090617,0.17722382,-0.9138748,0.37670359,0.15141736,0
1.1141657,-0.20946796,0.025791831,0.98252803,-0.18471952,0.022744551,0
0.21236473,0.16583019,0.82216686,0.24545395,0.19166872,0.95027125,0
-0.62985939,-0.51808518,-0.5958457,-0.62360263,-0.51293874,-0.58992684,0
-0.59988898,-0.57067645,0.21729912,-0.7007947,-0.66666836,0.2538504,0
-0.026463946,0.51799059,-0.99275786,-0.023626802,0.46245793,-0.88632643,0
0.65784109,0.5674544,-0.5012176,0.65588343,0.56576574,-0.49972603,0
0.79218137,-0.11121356,-0.45247456,0.86195672,-0.12100926,-0.49232855,0
-0.86714941,0.37747926,-0.32828894,-0.8661918,0.37706238,-0.3279264,0
-0.48656595,0.46725661,-0.84242749,-0.45084125,0.43294963,-0.78057468,0
0.48575115,-0.24811624,-0.69362497,0.550488,-0.28118309,-0.78606552,0
0.14575852,0.72770923,-0.99791193,0.11720338,0.58514577,-0.80241376,0
0.078832068,0.61721545,-0.75933439,0.080300622,0.62871349,-0.77347994,0
0.61029208,0.60277683,0.50295627,0.6137507,0.60619283,0.50580657,0
-0.42816865,-0.47991592,0.63234085,-0.47471768,-0.53209072,0.70108676,0
-0.86922026,0.71914917,0.32934648,-0.73961097,0.61191696,0.28023767,0
1.0860634,-0.21081021,0.0036803116,0.98167241,-0.19054742,0.003326565,0
0.67302173,-0.63584578,-0.37295929,0.67425108,-0.63700724,-0.37364054,0
-0.51323086,0.43509203,-0.60754049,-0.56614196,0.47994748,-0.67017436,0
0.07461302,1.1069441,-0.047596682,0.067190103,0.99681914,-0.042861499,0
-0.7019791,-0.36208788,-0.58544922,-0.71399206,-0.36828426,-0.59546798,0
0.72526687,0.025103608,0.31807816,0.91533834,0.03168254,0.40143725,0
-0.78045219,-0.51034832,0.07876984,-0.83397365,-0.54534674,0.084171683,0
0.36773929,-0.72078109,-0.56752837,0.37207198,-0.72927332,-0.57421499,0
1.0243821,-0.31322384,0.03877797,0.95566863,-0.29221341,0.036176823,0
0.40916339,0.96085215,0.36485294,0.36986822,0.86857396,0.32981324,0
-0.42486191,-0.77889305,-0.036106359,-0.4784658,-0.87716424,-0.040661819,0
-0.25493658,0.28908932,-0.79256964,-0.28926545,0.32801712,-0.89929438,0
1.1143231,0.42476004,0.13182648,0.92875886,0.35402626,0.10987388,0
-0.010589277,-0.67679513,-0.93268389,-0.0091887619,-0.58728361,-0.80932909,0
-0.16544193,-0.31659693,-1.0308007,-0.1516505,-0.29020506,-0.94487202,0
-0.32628298,-0.84521788,-0.57107478,-0.30466071,-0.78920662,-0.53323054,0
0.099287935,0.91621011,-0.4075098,0.098533913,0.90925217,-0.40441507,0
0.88805705,0.33009821,0.41202646,0.85957181,0.31951001,0.39881033,0
0.32500684,-0.0005054666,0.82036203,0.36832291,-0.00057283387,0.92969769,0
0.056252658,0.22996037,-0.85756904,0.063230358,0.25848514,-0.96394366,0
0.75084537,-0.094833903,0.96693611,0.61148959,-0.077232867,0.78747422,0
-0.88721824,-0.31102145,-0.48715481,-0.83788979,-0.29372898,-0.46006951,0
0.3553744,0.6603846,0.85199571,0.31309664,0.58182079,0.75063652,0
-0.30311513,-1.1736343,-0.029733287,-0.24998982,-0.96793795,-0.0245221,0
-0.4669928,0.79370648,0.73781586,-0.39575315,0.67262673,0.6252622,0
-0.68908548,-0.96850163,-0.21905744,-0.57013106,-0.80131257,-0.18124232,0
0.85081601,0.19280733,0.59488565,0.80576366,0.18259782,0.56338531,0
0.16337933,0.88436913,-0.49939951,0.15882283,0.85970491,-0.48547176,0
-0.41539431,-0.07980404,-0.88300133,-0.42426676,-0.081508584,-0.90186143,0
1.0356979,-0.10882466,0.030583924,0.99409646,-0.10445344,0.029355442,0
-0.36102495,0.38258779,0.91100222,-0.34318992,0.36368755,0.86599773,0
-1.0080374,-0.011635726,-0.097425707,-0.99529624,-0.011488656,-0.096194282,0
-0.70401424,-0.59245628,-0.29804939,-0.72788972,-0.61254847,-0.30815724,0
-1.0523521,0.015413768,-0.2442794,-0.97400147,0.01426617,-0.22609212,0
-0.589082,0.28498361,-0.92085308,-0.52145374,0.25226668,-0.81513655,0
-0.47920874,0.8114934,-0.2397902,-0.4927842,0.83448213,-0.24658319,0
0.56952679,0.20469056,0.68240011,0.6244117,0.22441645,0.74816257,0
0.89564902,-0.31451169,-0.36596054,0.88036138,-0.30914333,-0.35971403,0
-1.0961258,0.28152376,0.4957647,-0.8871718,0.22785701,0.40125728,0
0.59647751,-0.7751897,-0.16966003,0.60085291,-0.78087604,-0.17090456,0
0.36624151,-0.72065693,-0.24712293,0.43326294,-0.85253567,-0.29234591,0
-0.18685074,-1.0631586,0.36154434,-0.16413583,-0.93391353,0.31759244,0
0.75545067,0.71349561,0.044015896,0.72635484,0.68601567,0.042320646,0
-0.51432395,-0.18409869,-0.94672918,-0.47054818,-0.16842946,-0.86615002,0
-0.83386326,0.2070432,0.8398878,-0.69401753,0.17232035,0.69903171,0
0.70173377,0.56883943,0.03177442,0.77634811,0.6293233,0.035152949,0
0.64057148,-0.73419404,0.30116519,0.62810993,-0.71991116,0.29530638,0
0.71575487,0.17267151,-0.79911929,0.65870702,0.15890907,-0.73542708,0
0.6400153,0.23335505,0.59409481,0.70806527,0.25816664,0.65726227,0
-0.40571564,1.1101298,-0.09365277,-0.3421886,0.9363054,-0.078988597,0
0.55452377,0.47595721,0.8494013,0.49489069,0.42477313,0.7580573,0
0.77564067,-0.38165298,-0.1761075,0.87920368,-0.43261102,-0.19962125,0
0.12013873,0.63566399,-0.58734274,0.13749473,0.72749603,-0.672194,0
0.72238439,0.6873377,-0.086626269,0.72174358,0.686728,-0.086549424,0
0.42058301,-0.57446194,0.43677661,0.50353146,-0.68775874,0.52291876,0
1.1466126,0.018328164,0.0039103897,0.99986643,0.015982481,0.0034099286,0
0.12178501,-1.0554376,-0.097517796,0.11414776,-0.98925012,-0.091402367,0
-0.73037559,-0.48911476,-0.55286407,-0.70334482,-0.47101289,-0.53240287,0
-0.63135594,-0.53677398,0.078333393,-0.75848597,-0.64485896,0.094106622,0
0.542768,-0.32036126,0.46664029,0.69212282,-0.40851587,0.59504688,0
-0.26852188,-0.78370398,0.20305458,-0.31481475,-0.91881371,0.23806097,0
-0.53031284,-0.22236767,0.47483709,-0.7111094,-0.29817823,0.6367206,0
-0.34652066,-0.19164756,-0.8549211,-0.36778763,-0.20340952,-0.90739012,0
-0.045233313,0.89958352,-0.49110731,-0.044091091,0.87686741,-0.47870597,0
0.36334202,0.19281064,0.79668236,0.4052431,0.21504582,0.88855684,0
-0.62839675,-0.50494903,0.18149559,-0.76048076,-0.6110853,0.21964453,0
0.90044171,-0.037721992,-0.61507291,0.82524878,-0.034571953,-0.56371021,0
0.53036815,0.77081263,-0.87842077,0.4132587,0.60061115,-0.68445855,0
0.71890461,-0.25026652,-0.66217279,0.71254504,-0.2480526,-0.65631503,0
0.72402406,-0.67210823,-0.3150745,0.69824195,-0.64817476,-0.30385485,0
-0.0082229143,-0.86683726,-0.12501748,-0.009388553,-0.98971575,-0.14273933,0
0.51141304,-0.48469701,-0.84097666,0.46613285,-0.44178227,-0.7665171,0
0.37066212,0.20443422,0.75749129,0.4271569,0.23559321,0.87294495,0
-0.81256974,0.11319604,-0.63739705,-0.78212816,0.10895534,-0.613518,0
-1.1199182,0.012949957,-0.12024707,-0.99421936,0.011496463,-0.10675062,0
-0.9386214,0.1030598,0.68617868,-0.80413055,0.088292822,0.58785921,0
0.81997663,-0.14213914,0.59523422,0.80141097,-0.13892087,0.58175713,0
0.47825956,0.24991207,0.8949548,0.45764217,0.23913856,0.85637403,0
-0.45611128,-0.099638514,0.8897292,-0.45394132,-0.099164478,0.88549626,0
-0.061262406,0.92761046,-0.092627168,-0.065574981,0.99290973,-0.09914767,0
0.27048081,0.7361514,-0.50905025,0.28928661,0.78733402,-0.54444313,0
0.38237154,0.029241743,-1.0178181,0.35155246,0.026884863,-0.93578213,0
-0.042880923,-0.10979407,-0.88949835,-0.047790214,-0.12236402,-0.99133402,0
-0.9758693,-0.33669391,0.55932152,-0.83115959,-0.28676626,0.47638085,0
-0.46002194,0.59063464,0.39035669,-0.54485399,0.69955283,0.46234187,0
0.19043711,-0.51243925,0.85865033,0.18708639,-0.50342292,0.84354246,0
0.60320169,0.60756117,-0.1993227,0.68620461,0.69116396,-0.22675028,0
0.32509756,-0.23423198,-1.027167,0.29485866,-0.21244493,-0.93162519,0
0.32007185,-0.098627761,0.92710257,0.32470053,-0.10005406,0.9405098,0
-0.31810197,0.93888515,0.10321676,-0.31916529,0.94202358,0.10356179,0
-0.54551977,0.71843153,-0.032630626,-0.6043449,0.79590225,-0.036149289,0
-0.61718762,-0.11128978,-0.61601353,-0.70208496,-0.12659825,-0.70074934,0
-0.48883212,-0.91717929,-0.51107264,-0.42207095,-0.79191756,-0.44127402,0
-0.35849923,-0.47292829,0.67773199,-0.39796329,-0.52498883,0.75233763,0
-0.067288466,-0.48804495,-1.0149741,-0.059641082,-0.4325783,-0.89962155,0
0.044455413,1.0191218,-0.011697553,0.043576989,0.99898434,-0.011466414,0
0.62587506,-0.46571928,0.07392253,0.79868525,-0.59430891,0.094333261,0
0.16651662,0.75120825,0.69892156,0.16019116,0.72267216,0.67237169,0
-0.55290264,-0.54829204,0.16763487,-0.69415724,-0.68836874,0.21046194,0
-0.87954372,-0.2391943,0.24549516,-0.93174988,-0.25339189,0.26006675,0
1.0077487,0.29451215,0.50952917,0.86352962,0.25236449,0.43661037,0
0.6915648,0.061190978,-0.61940056,0.74329019,0.065767735,-0.66572845,0
-0.6458686,0.648615,0.4351162,-0.63726813,0.63997799,0.42932215,0
-0.54499483,0.032495048,0.92479891,-0.50747645,0.030258035,0.86113423,0
-0.83876228,-0.038755465,-0.57663035,-0.82345378,-0.03804813,-0.56610614,0
0.18835305,0.35121164,0.7097652,0.23139246,0.43146488,0.87194932,0
0.73649371,-0.71739841,0.16781954,0.70697612,-0.68864614,0.16109359,0
-0.55422103,-0.21451092,-0.60709703,-0.6523667,-0.25249815,-0.7146064,0
0.92953032,-0.31340635,0.61069739,0.80443347,-0.2712279,0.52850932,0
-0.29425088,-1.0714087,0.30527955,-0.25536916,-0.92983502,0.26494053,0
-1.0937599,-0.17006442,0.15620472,-0.97843242,-0.1521326,0.13973428,0
-1.102753,0.2346049,0.30696368,-0.94375521,0.20077895,0.26270485,0
-0.62430882,-0.38068315,0.77827656,-0.58461738,-0.3564806,0.72879636,0
-0.17164885,-0.51334429,-0.77894074,-0.18096048,-0.54119223,-0.82119679,0
0.43198183,0.3354978,-0.75240123,0.46439603,0.36067221,-0.80885839,0
0.88333905,0.20556696,0.60812509,0.80895323,0.1882562,0.55691499,0
0.34039527,0.360351,-1.0073204,0.30319816,0.32097319,-0.89724416,0
1.0391172,-0.092501,0.3636269,0.94056225,-0.083727747,0.32913873,0
-0.73809683,-0.39905569,-0.56239098,-0.73071158,-0.39506283,-0.55676383,0
1.0060625,0.069650851,-0.089916058,0.99367023,0.068792924,-0.088808507,0
0.41940916,-0.50151628,-0.82480484,0.39849401,-0.47650662,-0.78367341,0
0.64089131,0.51371849,0.20833415,0.75632173,0.60624391,0.24585705,0
0.66059864,-0.41754484,-0.28979725,0.79256302,-0.50095558,-0.34768853,0
1.1125901,0.48463199,0.23159674,0.90054709,0.39226839,0.18745787,0
0.20237149,0.70543337,0.61729479,0.21102779,0.73560774,0.64369911,0
-0.63349152,0.5554114,0.51828402,-0.64044225,0.56150544,0.52397072,0
0.50046921,0.57688618,-0.6739893,0.49133456,0.56635672,-0.66168749,0
0.64244413,-0.24844682,0.88384151,0.57332844,-0.2217183,0.78875566,0
-0.11500537,-0.71162164,-0.8524437,-0.10301685,-0.63743997,-0.76358229,0
0.54264045,0.39881083,0.83873957,0.50448334,0.37076744,0.77976149,0
-0.30764285,1.0731659,-0.17069378,-0.27240336,0.95023823,-0.15114138,0
-0.73863047,-0.065173231,0.52232945,-0.81436574,-0.071855754,0.57588637,0
0.34687206,-0.33820298,0.58881241,0.45491603,-0.44354671,0.77221614,0
0.67753899,0.82780445,-0.183916,0.6242162,0.76265568,-0.16944169,0
-0.042111374,0.94536573,-0.11533853,-0.044174027,0.99167061,-0.12098792,0
1.0569843,-0.093484834,-0.29726395,0.95918369,-0.084834874,-0.26975873,0
0.31504467,0.91389525,-0.063356943,0.32520822,0.94337815,-0.065400884,0
-0.90338778,-0.045118,-0.58680749,-0.83787638,-0.041846156,-0.54425365,0
-1.0077126,-0.21045826,-0.047051437,-0.97785896,-0.20422339,-0.04565753,0
-0.11250937,0.91716725,0.29447049,-0.11600958,0.94570065,0.30363157,0
1.1280916,-0.0062548243,0.44978821,0.92887503,-0.0051502469,0.37035739,0
-0.091382213,0.88683254,-0.83054096,-0.074998729,0.72783649,-0.68163717,0
-0.15287019,1.0767313,0.038325671,-0.14047931,0.98945701,0.035219189,0
1.0623289,0.29036605,-0.013405466,0.96454465,0.26363871,-0.012171532,0
-0.25736663,-0.82587707,-0.73741949,-0.22641464,-0.72655362,-0.64873433,0
0.51463592,0.10048176,-0.74683172,0.5639683,0.11011382,-0.81842208,0
0.74723697,-0.50156558,0.083600692,0.82673919,-0.55492961,0.092495382,0
-0.89974922,-0.39818045,0.027427273,-0.91409957,-0.40453115,0.027864719,0
-0.5858978,0.35665375,0.543284,-0.66959286,0.40760145,0.62089169,0
-0.6934002,-0.41734645,-0.58597583,-0.69397312,-0.41769129,-0.58645999,0
-0.79142791,-0.55031955,0.45613056,-0.74213099,-0.51604092,0.42771885,0
0.37038246,-0.92533058,-0.71223527,0.30234557,-0.75535327,-0.58140224,0
-1.035269,-0.31402993,-0.66933709,-0.81378394,-0.24684648,-0.52613932,0
0.4772926,0.90192795,-0.52664107,0.41564515,0.78543431,-0.45861974,0
-0.81367546,-0.096436299,-0.68554181,-0.76163101,-0.090268023,-0.64169306,0
-0.15302947,1.0979321,0.051564854,-0.13789618,0.9893561,0.046465535,0
0.59389144,0.60682869,0.78855348,0.5125156,0.52368021,0.6805048,0
-0.47792652,0.50823605,0.75547451,-0.4647606,0.49423516,0.73466265,0
-0.84880698,0.53016633,-0.53855276,-0.74687314,0.46649826,-0.47387758,0
-0.49832791,-0.12469625,-1.0232754,-0.43522963,-0.10890721,-0.89370823,0
0.71985239,-0.61223364,-0.16473602,0.75043458,-0.63824373,-0.17173466,0
0.57333398,0.53324467,-0.50235009,0.61630386,0.57320994,-0.5399999,0
0.34795636,0.37995255,0.74903637,0.38274118,0.41793597,0.82391667,0
-0.092700787,-0.98110586,0.30240929,-0.089928173,-0.95176166,0.29336444,0
0.094211578,-0.41600055,0.88583958,0.095823273,-0.42311713,0.90099376,0
0.11969751,-0.81495422,-0.79712975,0.10442512,-0.71097296,-0.69542277,0
0.76437342,0.5397743,0.094946295,0.81268609,0.57389104,0.10094743,0
-0.6016959,0.47379151,0.66621661,-0.59276474,0.46675888,0.65632772,0
-0.34020904,-1.0277686,-0.093913391,-0.31307238,-0.94578904,-0.086422421,0
-0.85294837,-0.71087509,-0.34976065,-0.73269212,-0.61064965,-0.3004483,0
0.78873706,0.19997275,0.63707376,0.76322943,0.19350566,0.61647087,0
-0.54520905,-0.032351878,0.70467079,-0.61152977,-0.036287248,0.79038888,0
0.37747824,0.7268104,-0.2622298,0.43895561,0.84518111,-0.30493742,0
0.86912799,0.7511214,0.1525365,0.75001943,0.6481849,0.13163233,0
-0.13293141,-0.71304631,-0.46192658,-0.15458375,-0.82918984,-0.53716683,0
0.44501746,0.34864977,0.526456,0.57607591,0.45132777,0.68149823,0
0.80758119,-0.69755208,0.28899172,0.73046666,-0.63094401,0.26139641,0
1.0163571,-0.10769378,-0.057950612,0.99283826,-0.10520172,-0.056609619,0
0.7203728,0.021037184,-0.71783108,0.70820385,0.020681811,-0.70570505,0
-0.32639036,1.1139432,0.27985865,-0.2733506,0.9329229,0.23438048,0
0.53700781,0.73353481,0.65251207,0.4798879,0.6555109,0.58310634,0
0.65269655,-0.85412198,0.030121328,0.60694444,-0.79425055,0.028009912,0
0.20952503,0.27805582,1.0355794,0.19177815,0.25450435,0.94786531,0
-0.36197603,0.46739507,-0.75637537,-0.37706071,0.48687288,-0.78789592,0
-0.9364717,0.21353762,-0.60695612,-0.82420647,0.1879385,-0.53419358,0
0.67293322,0.15556452,-0.76814914,0.65143478,0.15059464,-0.74360883,0
-0.57522649,0.22357389,0.62346154,-0.65571237,0.25485641,0.71069646,0
0.33434382,0.83784658,-0.54130536,0.31780583,0.79640329,-0.51453018,0
0.13065381,0.46225947,-0.88845199,0.12936014,0.45768237,-0.87965494,0
0.17557544,-0.22609174,1.1312674,0.15046012,-0.19375029,0.96944445,0
0.64918929,-0.87790638,0.055176321,0.59381217,-0.80301923,0.050469674,0
0.11535349,0.34701565,-0.8066898,0.13023905,0.39179564,-0.91078758,0
0.68573445,0.77241093,-0.077739388,0.66202992,0.74571013,-0.075052083,0
-0.16076608,0.25411761,-0.90093195,-0.16926497,0.26755154,-0.9485597,0
-0.71192974,0.54189456,-0.31173703,-0.75141162,0.57194668,-0.32902518,0
-0.58074152,-0.48877659,-0.57721949,-0.60900152,-0.51256138,-0.60530812,0
0.088324025,0.14197212,-1.0152838,0.085838161,0.13797635,-0.98670888,0
-0.90565538,-0.27175912,0.57773334,-0.81731975,-0.24525233,0.52138251,0
0.23524451,-1.1188856,0.1438915,0.20414028,-0.9709456,0.12486604,0
-1.0015669,-0.047116093,0.1526352,-0.98751885,-0.046455238,0.15049432,0
0.34975094,-0.90796739,0.37444109,0.3354724,-0.87089974,0.35915458,0
0.16804639,0.99830151,-0.33317563,0.15767701,0.93670094,-0.31261688,0
-0.20979828,1.0165476,-0.17342065,-0.19936003,0.96597058,-0.16479233,0
0.25158942,-0.75210232,0.25269848,0.30226287,-0.90358567,0.3035953,0
-0.46843225,0.62474936,0.72741318,-0.43894452,0.5854215,0.68162262,0
-1.0708538,-0.084624268,-0.35005888,-0.94783252,-0.074902505,-0.3098436,0
0.026073957,0.53036535,-0.81925327,0.026707171,0.54324543,-0.83914906,0
-0.62290061,-0.78957927,-0.22912705,-0.60389334,-0.76548594,-0.22213542,0
-0.18729289,0.46275306,-0.73209202,-0.21136706,0.5222342,-0.82619333,0
1.0803485,-0.46133798,-0.17703909,0.90938932,-0.3883338,-0.14902362,0
0.78654867,-0.18522197,0.47615778,0.83861035,-0.19748183,0.50767469,0
-0.0051077632,0.8291958,0.080037504,-0.0061312881,0.99535513,0.096075907,0
0.96422225,0.08358074,-0.3899731,0.92407072,0.08010032,-0.37373409,0
-0.74569601,0.040375847,0.68666178,-0.73504263,0.039799016,0.67685175,0
-0.099805437,-0.76845795,0.43736812,-0.11216363,-0.86361057,0.49152428,0
0.19840914,0.48749924,-0.85718805,0.19724946,0.48464984,-0.85217786,0
0.70907825,0.62735665,0.59605497,0.63380075,0.5607549,0.5327763,0
-0.60487205,-0.60226506,-0.74023461,-0.53536034,-0.53305292,-0.6551671,0
0.0080089094,0.96859592,0.61853635,0.0069686719,0.84278983,0.53819776,0
-0.30917838,0.93821627,0.51538825,-0.27748638,0.84204543,0.46255895,0
0.36036038,0.47690216,-0.37886289,0.50920284,0.67388082,-0.53534758,0
0.35332561,-0.49997389,0.6775586,0.38691762,-0.5475083,0.74197668,0
-0.37931624,-0.48724097,0.66807759,-0.41695383,-0.53558737,0.73436749,0
-0.34513694,-0.85734332,0.54605359,-0.32151607,-0.79866749,0.50868219,0
-0.033072297,-1.1107817,0.1740724,-0.029402174,-0.98751521,0.15475512,0
-0.222247,-0.17842115,-0.9156357,-0.23175681,-0.18605569,-0.95481515,0
-0.76541442,-0.21464328,-0.24041714,-0.92163008,-0.25845048,-0.28948459,0
0.93656188,0.057053793,0.48874119,0.88525581,0.053928312,0.46196732,0
-0.50071305,-0.765046,-0.32523021,-0.51595682,-0.78833717,-0.33513156,0
-0.12442337,0.98622501,-0.68184024,-0.1032203,0.81816173,-0.56564736,0
-1.0108751,-0.15125318,0.11327586,-0.98297256,-0.14707823,0.11014917,0
0.55227584,-0.16116804,0.85815924,0.53454977,-0.15599513,0.83061546,0
0.052719872,-0.29358038,0.93690008,0.053618804,-0.29858625,0.95287526,0
0.46314785,0.19959007,-0.95913935,0.42739743,0.1841837,-0.88510329,0
-0.4059073,-0.79574776,0.60552716,-0.3761242,-0.73736048,0.56109715,0
-0.3618131,-0.13211958,0.9420628,-0.35549751,-0.12981337,0.92561871,0
0.73488975,-0.56246471,-0.10226585,0.78929752,-0.60410696,-0.10983713,0
0.26277378,-0.6233747,0.612445,0.28795767,-0.6831181,0.67114091,0
0.67644656,-0.77750504,-0.17715357,0.64688724,-0.74352968,-0.16941233,0
0.14154315,0.032129359,0.87176555,0.16015913,0.036355063,0.98642153,0
0.091185734,-0.30140907,-0.7883088,0.10741919,-0.35506779,-0.92864847,0
-0.79114372,-0.44620624,0.18445438,-0.85359281,-0.48142764,0.19901432,0
0.30813169,-0.68862116,0.61998522,0.3155514,-0.70520294,0.63491428,0
0.52022189,-0.070890084,-0.67087585,0.61066198,-0.083214261,-0.787507,0
0.49438363,0.022897555,0.85622776,0.49989656,0.023152888,0.86577564,0
0.20177029,-0.40267181,0.72411382,0.23660901,-0.47219923,0.84914309,0
-0.77227294,-0.70471108,-0.054465931,-0.7376793,-0.6731438,-0.052026153,0
-0.20780045,0.84266442,0.056079451,-0.23892857,0.96889395,0.064480044,0
-0.40176684,0.53724205,-0.78200525,-0.38994035,0.52142769,-0.758986,0
-0.56689113,-0.77289081,0.21873517,-0.57661086,-0.78614253,0.22248554,0
0.054208469,0.8033604,-0.21184541,0.065108292,0.96489394,-0.25444165,0
-0.34647322,-0.69272453,0.31447634,-0.41446823,-0.82867098,0.376192,0
0.43571952,-0.25991961,0.85143918,0.43961453,-0.26224309,0.85905039,0
-0.18407723,-0.83716637,-0.31678098,-0.20143525,-0.91610903,-0.34665263,0
0.22758459,0.80903971,-0.12307178,0.26793453,0.9524796,-0.14489198,0
0.54468644,0.67448199,0.008858446,0.62824327,0.77794987,0.010217363,0
0.096003011,-0.63878697,0.69460964,0.10121023,-0.67343491,0.73228538,0
0.7731123,0.23669674,0.71289217,0.71721625,0.21958354,0.66135001,0
-0.41406485,-0.22942753,0.78793722,-0.45046139,-0.24959433,0.85719734,0
0.041979831,0.84272325,0.52932036,0.042146113,0.84606123,0.53141701,0
0.72927487,-0.22297694,-0.25003666,0.90870249,-0.27783722,-0.31155458,0
-0.13396698,0.92757809,-0.81776106,-0.10770632,0.74575108,-0.65746075,0
-0.27491248,-0.85769278,-0.274784,-0.2919451,-0.91083246,-0.29180866,0
-0.24429296,-0.80365336,0.46150839,-0.25489706,-0.83853775,0.48154122,0
-0.007705471,-0.53823459,0.92525232,-0.0071983957,-0.50281489,0.86436409,0
-0.27481788,-0.55822426,-0.69670206,-0.29420772,-0.59760988,-0.74585801,0
0.33819035,-0.5629074,0.37268004,0.44789383,-0.74550545,0.4935714,0
0.80709904,-0.13198219,-0.58261544,0.8037827,-0.13143988,-0.58022147,0
1.0816995,-0.10563919,0.0097479671,0.99522501,-0.097194061,0.0089686839,0
0.22938815,-0.78257847,0.21225314,0.27221459,-0.92868477,0.2518805,0
-0.67031378,0.3928861,-0.29806259,-0.80549264,0.47211748,-0.3581714,0
-0.794671,-0.25617686,-0.70998579,-0.72506708,-0.23373875,-0.64779931,0
1.0832288,-0.20409837,-0.24025287,0.96016657,-0.18091139,-0.21295848,0
0.090261936,0.33721814,0.84532005,0.098693833,0.36871967,0.92428637,0
-0.3060481,0.49446359,1.0177907,-0.26108819,0.42182457,0.86827242,0
0.37584406,-0.58135724,-0.80858374,0.3530893,-0.5461601,-0.75962955,0
-0.026574468,-0.15687622,0.96059209,-0.027292805,-0.16111675,0.9865579,0
0.15353969,-1.1305244,-0.18712653,0.1328029,-0.97783786,-0.16185357,0
0.16333817,0.68411744,-0.38596091,0.20359111,0.85271084,-0.48107684,0
-0.28090528,-0.68649447,-0.18477947,-0.36747885,-0.89806855,-0.24172755,0
-0.82673568,0.57327527,0.013480504,-0.82169032,0.56977671,0.013398236,0
-0.40326506,1.1124147,-0.087018184,-0.33989245,0.93760008,-0.073343381,0
-0.53134805,0.97540593,-0.057443123,-0.47773379,0.87698519,-0.051646978,0
-0.18513261,-0.736875,-0.70144027,-0.17903492,-0.71260464,-0.67833698,0
-0.92365772,-0.11716044,-0.15292546,-0.97893429,-0.12417194,-0.16207732,0
0.38785961,0.20736347,-0.84131205,0.40855843,0.21842979,-0.88621014,0
0.4935486,0.64380026,-0.072694883,0.60597879,0.79045773,-0.089254744,0
-0.064829126,-0.66793036,-0.57820922,-0.073186249,-0.75403327,-0.6527462,0
1.0120115,-0.438945,0.038165312,0.91687244,-0.39767984,0.034577396,0
0.52164745,-0.21977958,-0.9514333,0.47118863,-0.19852036,-0.85940146,0
-0.18164703,0.33405587,0.96175838,-0.17564027,0.32300919,0.92995465,0
0.028475655,0.84420848,-0.27700776,0.032032911,0.94966924,-0.31161231,0
0.19200046,0.28004569,0.99600422,0.18245965,0.26612976,0.94651121,0
0.98047477,0.016491367,-0.082315318,0.9963544,0.016758459,-0.083648488,0
-0.2027815,-0.47782117,-0.9771542,-0.18326977,-0.43184501,-0.88313198,0
0.0089059565,0.75824749,-0.46931028,0.0099867247,0.85026342,-0.5262627,0
-0.80868959,-0.45820367,-0.52494967,-0.75757283,-0.42924091,-0.49176794,0
0.76433372,0.50692248,-0.19753635,0.81469125,0.54032069,-0.21055087,0
0.31076896,0.22795708,0.87623292,0.32464793,0.23813766,0.91536558,0
-0.080606624,0.80565786,-0.37649605,-0.090271637,0.90225905,-0.42163923,0
1.1454878,-0.019262696,-0.24991934,0.9768849,-0.016427444,-0.21313402,0
-0.48539132,0.72763926,-0.65672845,-0.44377396,0.66525161,-0.60042071,0
-0.64454073,0.8338539,-0.24436267,-0.59576148,0.77074736,-0.22586915,0
0.1622918,-0.37661228,1.0293001,0.14647451,-0.3399069,0.92898244,0
0.68653691,-0.73072529,-0.51156282,0.60992646,-0.64918387,-0.45447767,0
0.73928684,-0.78420097,-0.00309298,0.68595964,-0.72763395,-0.0028698731,0
0.20861065,-0.22158846,-1.1176445,0.18009464,-0.19129845,-0.96486825,0
0.8365075,-0.6277594,-0.40384254,0.74613398,-0.55993837,-0.36021271,0
0.66155416,-0.70579666,0.2794655,0.65700257,-0.70094067,0.27754271,0
0.94016623,0.40392941,-0.1181986,0.91272151,0.39213815,-0.11474822,0
0.69971091,0.55591977,0.61895072,0.64366114,0.51138824,0.56937015,0
0.81829768,-0.62946695,0.10811268,0.78830999,-0.60639924,0.10415073,0
-1.0112276,-0.17999516,-0.18381672,-0.96912825,-0.17250161,-0.17616406,0
0.81992817,-0.44702443,-0.83405101,0.6548425,-0.35701978,-0.66612178,0
-0.60184479,0.77564901,-0.11308209,-0.60900116,0.78487206,-0.11442672,0
0.80928695,0.39464709,-0.75077152,0.6903255,0.3366358,-0.64041162,0
-1.0919755,0.079196602,0.46538481,-0.91789693,0.066571385,0.39119494,0
0.38314721,0.060444716,1.1436511,0.3172695,0.05005195,0.94701362,0
0.72693092,0.046016224,-0.84740376,0.65054101,0.041180585,-0.75835389,0
-0.12834761,0.28122416,0.9984706,-0.12279377,0.26905507,0.95526499,0
-0.64874905,0.10458491,-0.72254401,-0.66424632,0.10708322,-0.73980409,0
1.0236381,0.22556503,-0.38267845,0.91734844,0.20214345,-0.34294295,0
0.54935193,-1.0055139,-0.48023522,0.44218227,-0.80935442,-0.38654912,0
-0.39484128,-0.13145858,0.99202907,-0.36702791,-0.12219838,0.92214864,0
0.01746236,0.26387128,-1.033173,0.016373828,0.24742265,-0.96876925,0
0.84902745,-0.45383865,-0.5748803,0.75718409,-0.40474474,-0.51269275,0
-0.68094313,-0.29502663,0.794608,-0.62629503,-0.2713497,0.73083788,0
0.99917614,0.56324357,-0.32011518,0.83906037,0.47298503,-0.26881742,0
0.57696837,-0.22472318,0.72699004,0.60419428,-0.23532739,0.76129514,0
0.33526984,0.010144211,0.99259663,0.31999367,0.0096820034,0.94737023,0
0.76635003,-0.67239606,0.026960494,0.75141901,-0.65929562,0.026435215,0
1.1833667,0.077711307,-0.14338015,0.99063671,0.065054797,-0.12002843,0
-0.40279022,-0.0042126537,-0.78199857,-0.45789963,-0.0047890255,-0.888991,0
0.088609368,0.77886146,-0.39888111,0.10074563,0.88553715,-0.45351329,0
-0.023840904,-1.0776037,-0.02791797,-0.022111174,-0.99942023,-0.025892435,0
0.1959714,0.70852906,-0.73032182,0.18911824,0.68375164,-0.70478231,0
0.34492499,1.0882835,-0.20078059,0.29756513,0.93885696,-0.17321244,0
0.8917821,-0.47156355,0.02198348,0.88380611,-0.46734592,0.021786861,0
0.31615096,-0.22795519,0.84400702,0.34007254,-0.24520344,0.90786886,0
0.76412517,0.31588727,-0.44848529,0.81234258,0.33582023,-0.47678536,0
0.95166552,0.52694958,0.11716092,0.86981034,0.48162532,0.10708362,0
0.7015295,0.41689509,-0.36969715,0.78305209,0.46534118,-0.41265851,0
-0.42010924,-0.54472786,0.59515446,-0.46184567,-0.59884471,0.65428102,0
-0.065343551,0.90736389,-0.27221921,-0.068813868,0.95555288,-0.28667644,0
0.21547693,0.72630006,-0.66869718,0.21323919,0.71875745,-0.66175276,0
0.68508881,0.37100521,-0.17131132,0.8588208,0.46508858,-0.21475424,0
0.21450011,-0.45962307,-0.75641638,0.23552544,-0.50467539,-0.83056039,0
-0.018148199,0.53368467,-0.98960882,-0.01613907,0.47460216,-0.88005245,0
0.55163145,-0.18873382,0.71907765,0.59588307,-0.20387396,0.77676171,0
-0.61816412,0.21782973,-0.65187061,-0.6687206,0.23564492,-0.7051838,0
-0.9413569,-0.28861016,-0.017690459,-0.95592058,-0.29307523,-0.017964147,0
-0.0060209632,0.41372329,1.0594218,-0.0052938266,0.36375898,0.93147808,0
0.024843236,1.1514509,-0.084471688,0.02151279,0.99708909,-0.073147535,0
0.35570779,0.58757663,0.98477286,0.29626358,0.48938358,0.82020223,0
-0.73367643,0.01583457,0.90779883,-0.62851483,0.01356492,0.77767938,0
-0.16915415,0.89197069,0.20132722,-0.18190117,0.95918733,0.21649872,0
-0.11192565,1.0306219,0.48302779,-0.097863704,0.90113819,0.42234188,0
0.63679546,0.42351124,0.60230809,0.65414953,0.43505287,0.61872232,0
-0.23234047,0.29128513,-0.84390831,-0.25185898,0.31575549,-0.91480356,0
0.7037977,-0.29524326,0.97232974,0.56937295,-0.23885207,0.78661561,0
-0.30764389,-0.6663146,0.070863351,-0.41724584,-0.90369737,0.096109293,0
0.30046824,-0.81555957,-0.75806856,0.26053053,-0.70715684,-0.65730745,0
0.56534398,0.54255372,-0.71116757,0.53426236,0.51272511,-0.67206889,0
-0.26680404,-0.76765251,0.70558882,-0.2478998,-0.71326095,0.65559477,0
0.36204487,-0.72229522,-0.43121666,0.39532119,-0.78868294,-0.47085071,0
-0.60738289,-0.85123277,-0.19560438,-0.57093018,-0.80014515,-0.183865,0
-0.31120202,-0.0169114,1.0660853,-0.28018364,-0.015225794,0.95982563,0
1.082829,-0.29652655,0.16238877,0.95455623,-0.26139978,0.14315207,0
0.27482241,-0.0027507721,0.89481229,0.29359224,-0.0029386445,0.95592624,0
-0.095722131,-0.32125163,0.89923084,-0.099744037,-0.33474949,0.93701333,0
0.48653913,0.90890747,-0.26002631,0.45760706,0.85485929,-0.24456383,0
-0.46489745,-0.29231459,-0.75745445,-0.49690691,-0.31244126,-0.80960727,0
0.39363816,0.17655537,-1.1570358,0.31877407,0.14297716,-0.9369849,0
0.037292156,0.079108827,0.86184156,0.043049227,0.091321453,0.99489051,0
-0.15607925,-0.63108158,1.0384561,-0.12739503,-0.51510155,0.84760886,0
-0.32604235,-0.05385432,1.0796509,-0.28876495,-0.047696993,0.95621115,0
0.75900358,0.53755772,-0.31079471,0.77399069,0.54817218,-0.31693158,0
-0.041261006,0.53144646,-0.81115454,-0.042509805,0.54753113,-0.8357048,0
-0.20620114,0.51857966,-0.52427453,-0.26929501,0.67725575,-0.68469316,0
0.17376639,0.91452426,-0.31342557,0.17690924,0.93106496,-0.31909439,0
-0.03678849,-0.87941688,0.11686133,-0.041432682,-0.99043483,0.13161395,0
0.99181497,-0.45093048,0.13767406,0.90314794,-0.41061786,0.12536617,0
-0.19988981,-0.81377071,-0.39428616,-0.21584305,-0.8787179,-0.42575422,0
0.2615433,0.0055864337,0.89435357,0.2806775,0.0059951302,0.95978338,0
0.047702152,0.8187089,-0.5112471,0.049360555,0.8471719,-0.52902097,0
0.55059487,0.4961279,-0.18215969,0.72142589,0.6500597,-0.23867771,0
0.23898351,0.034879219,1.1168287,0.20914952,0.030525003,0.97740716,0
-0.76409125,0.5166443,-0.41924068,-0.75415677,0.50992703,-0.41378984,0
-0.60953462,-0.22658794,1.0027871,-0.50999379,-0.18958469,0.83902562,0
0.66886699,-0.66410661,0.52981395,0.61859953,-0.6141969,0.48999676,0
1.1188025,-0.066218846,0.37231621,0.94734764,-0.056070901,0.31525928,0
0.15573642,0.65622783,0.57554209,0.17564708,0.74012554,0.64912426,0
-0.12212566,0.891689,0.17681032,-0.13314815,0.97216868,0.19276839,0
-0.088598303,-0.097489662,1.064308,-0.082614549,-0.090905406,0.99242681,0
-0.16602443,0.77542651,-0.52429527,-0.17464301,0.81568009,-0.55151224,0
0.4547427,-0.23972237,1.0775311,0.38089725,-0.20079398,0.90255135,0
-0.7702691,0.20045336,-0.63915539,-0.75458014,0.19637048,-0.62613696,0
0.26004443,0.8057735,0.33657759,0.28540516,0.8843562,0.36940217,0
0.18407893,0.13300875,-0.83510858,0.21270034,0.15368955,-0.96495497,0
0.56212819,-0.50245154,-0.60224843,0.58254009,-0.52069646,-0.6241172,0
0.95479852,0.42943618,0.42882824,0.84394729,0.37957904,0.37904167,0
-0.31185746,0.86299515,-0.45745689,-0.30415604,0.84168321,-0.44615984,0
-0.82961452,-0.71662444,0.58063734,-0.66875035,-0.57766932,0.46805042,0
-0.20295282,-0.018502999,-1.0112588,-0.19673799,-0.017936399,-0.98029202,0
-0.80060369,-0.3356595,0.12003785,-0.9135344,-0.3830066,0.13697003,0
-0.066628501,0.90522605,-0.38206762,-0.067656249,0.91918927,-0.38796106,0
-0.19337982,0.75039554,0.63295203,-0.19327186,0.74997658,0.63259864,0
-0.25547129,-0.20379084,0.86852568,-0.27530047,-0.21960868,0.93593889,0
-0.94480979,-0.030242305,-0.58225256,-0.851008,-0.027239814,-0.52444583,0
-0.64651549,-0.67041278,0.38337341,-0.64190686,-0.6656338,0.38064057,0
0.38250598,0.21824133,-0.98281187,0.35516945,0.20264429,-0.91257328,0
0.91833627,0.51628959,-0.10742152,0.86719054,0.48753539,-0.10143879,0
-0.018647529,0.81980538,-0.21333688,-0.022007812,0.96753418,-0.25178015,0
0.35442194,-0.056393173,0.85108846,0.38371497,-0.061054077,0.92143106,0
0.26816392,-0.37415361,-1.0270303,0.23826732,-0.33244061,-0.91253054,0
-0.57996774,-0.34022412,0.49238619,-0.69590384,-0.40823522,0.59081465,0
0.97519839,-0.4560129,-0.13986838,0.89830536,-0.42005694,-0.12883995,0
-0.57470852,-0.23439737,-0.73927414,-0.59538245,-0.24282931,-0.76586795,0
-0.57124478,-0.27097028,0.51647741,-0.69971949,-0.33191234,0.63263476,0
-1.0065659,-0.44716945,-0.39733902,-0.8596493,-0.38190138,-0.33934411,0
-0.66139108,-0.32499203,0.21317677,-0.86215281,-0.42364165,0.27788544,0
-1.1181775,-0.072479427,0.27705488,-0.96873343,-0.062792569,0.24002656,0
-0.44981015,-0.79099929,0.17055956,-0.48586273,-0.85439843,0.18423003,0
-0.18987681,1.062703,-0.55907238,-0.15618582,0.87414122,-0.45987281,0
0.11743827,-0.9953298,0.33920172,0.11099198,-0.94069529,0.32058263,0
0.16809595,0.62616014,-0.73702061,0.17124745,0.63789958,-0.75083846,0
-0.91109008,0.20016466,0.011983884,-0.97662574,0.21456271,0.012845897,0
-1.1276742,-0.23763017,0.081726119,-0.97605914,-0.20568095,0.0707381,0
0.52162546,-0.86594129,0.13511679,0.5114457,-0.84904206,0.13247992,0
-0.014752111,-0.35156301,-1.0166496,-0.013712423,-0.3267858,-0.94499892,0
0.26761276,0.097826868,-0.99827307,0.25778085,0.094232783,-0.96159726,0
0.91705441,-0.053952064,-0.32734063,0.94035769,-0.055323042,-0.3356587,0
0.87390441,-0.41259843,0.2239245,0.88094103,-0.41592064,0.22572753,0
-0.78917694,0.37958351,0.55657494,-0.76056296,0.36582059,0.53639466,0
-0.51286978,0.93067986,-0.35121265,-0.45825735,0.83157736,-0.31381413,0
-0.91774791,0.089679532,0.085753448,-0.99098372,0.096835911,0.092596531,0
-0.58289939,0.69232202,0.49743533,-0.56442785,0.67038298,0.48167205,0
0.18975931,-0.80136126,0.41051596,0.20622213,-0.87088442,0.44613081,0
-0.12064978,-0.039312959,-0.94083792,-0.12708585,-0.041410111,-0.99102694,0
0.62845367,-0.59550405,-0.32125324,0.68054068,-0.64486015,-0.34787908,0
-0.72234321,0.36908209,0.10427197,-0.8832252,0.45128495,0.12749568,0
0.78524822,0.19688468,0.73130077,0.71978164,0.1804703,0.67033184,0
0.25505331,0.12473412,1.0317689,0.23834075,0.11656082,0.96416146,0
-0.92484593,0.53723127,-0.031266082,-0.86432874,0.50207758,-0.02922019,0
-0.60764623,-0.66818589,0.28546178,-0.64151591,-0.70543003,0.30137318,0
0.35132134,-0.36135334,0.95498639,0.32535306,-0.33464351,0.88439757,0
0.381246,0.79972619,0.36761972,0.3974646,0.83374739,0.38325864,0
0.41660473,0.075743325,0.77568638,0.47141415,0.085708283,0.87773734,0
-0.85435665,-0.5764581,0.36269379,-0.78194785,-0.52760184,0.3319546,0
-0.13956067,0.8618207,0.60833997,-0.13115484,0.80991262,0.5716992,0
-0.35953179,-0.034465991,0.89024401,-0.3742311,-0.035875119,0.92664129,0
0.97307247,0.44830576,0.21519576,0.89046007,0.41024527,0.19692595,0
-0.019471116,-1.0779231,-0.43451971,-0.016751219,-0.92734921,-0.37382212,0
1.0390772,-0.30229002,0.025834696,0.95991856,-0.27926108,0.023866568,0
-0.10428527,0.39000449,0.9107371,-0.10468272,0.39149085,0.91420805,0
-0.43845394,-0.53815728,-0.93849909,-0.37560737,-0.46101955,-0.80397767,0
-0.37952775,0.020401524,-1.0848731,-0.33016059,0.017747791,-0.94375795,0
-0.52479827,0.80163997,0.68574655,-0.44540244,0.68036121,0.58200115,0
0.95126832,0.37770963,0.37436128,0.87286198,0.3465777,0.34350532,0
-0.43665898,0.77122259,0.62493259,-0.40266088,0.7111755,0.57627559,0
-0.51502675,0.48671636,-0.73787862,-0.50342792,0.4757551,-0.72126096,0
0.76974821,0.32675788,0.059402179,0.91818291,0.38976836,0.070857026,0
0.10120121,0.7286694,-0.41665936,0.11969931,0.86185956,-0.49281859,0
-0.44729102,-0.64473069,0.39016119,-0.51040781,-0.73570794,0.44521642,0
0.83177656,-0.27840927,-0.69553292,0.74303383,-0.24870563,-0.62132615,0
-0.33942094,-0.3900989,-0.93959343,-0.31648144,-0.36373436,-0.87609172,0
-0.093757048,-0.98945838,0.59074861,-0.081090569,-0.85578364,0.51093912,0
0.69857883,0.77212983,0.42055377,0.62208128,0.68757814,0.37450123,0
-0.069804363,-0.90153635,-0.46012822,-0.068801716,-0.888587,-0.45351911,0
-0.24778566,0.73490214,-0.74151981,-0.23092778,0.68490374,-0.69107115,0
0.22836338,-0.73285389,-0.26616475,0.28108135,-0.9020341,-0.32760921,0
-1.0471448,0.34928378,0.078853734,-0.94620812,0.31561553,0.071252845,0
0.050746392,0.71361023,0.62851679,0.053289041,0.74936569,0.66000861,0
0.063872583,-0.29744658,-1.0040511,0.060881507,-0.28351751,-0.95703256,0
-0.55721021,0.78388214,0.33932504,-0.54636437,0.76862419,0.33272022,0
-0.98326492,-0.49298823,-0.042488974,-0.89326739,-0.44786537,-0.03859999,0
-0.53459078,1.0037372,0.13862658,-0.46663034,0.876136,0.12100352,0
0.25633064,0.2366533,-0.95364594,0.2524291,0.23305127,-0.93913078,0
0.74171317,0.24876662,0.91089404,0.61771882,0.20717956,0.75861722,0
-0.58134305,-0.49551043,0.50169736,-0.63612092,-0.54220062,0.54897052,0
-0.29280636,-0.76510847,0.24306718,-0.34265506,-0.89536411,0.28444806,0
-0.55555409,1.0197227,0.071491055,-0.47751111,0.87647438,0.061448153,0
-0.90251857,0.11523614,0.012820591,-0.99184841,0.12664203,0.014089553,0
1.0384481,-0.45392177,0.17557161,0.90548545,-0.39580172,0.15309146,0
-0.71840733,-0.07777781,-0.34696698,-0.89622927,-0.097029567,-0.43284911,0
0.15618844,-0.49049175,-0.81973565,0.16135862,-0.50672811,-0.84687072,0
0.048298839,0.098078184,1.1425241,0.042081591,0.085453108,0.99545312,0
0.10156085,-0.90664858,0.19289246,0.10891385,-0.97228986,0.20685786,0
0.64621025,0.18498433,0.69510216,0.66830409,0.19130892,0.7188676,0
-0.72187197,-0.52664512,-0.37332928,-0.74541539,-0.54382133,-0.38550517,0
0.49463117,-0.34663206,-0.74044389,0.51764166,-0.36275756,-0.77488971,0
-0.81782413,0.16365981,0.53748673,-0.82423156,0.16494204,0.5416978,0
0.47402939,0.81630558,0.27849323,0.48164737,0.8294242,0.28296882,0
-0.57368815,0.95590883,-0.014748638,-0.5145449,0.85736132,-0.013228157,0
-0.29296085,0.57204598,-0.60749918,-0.33126342,0.64683694,-0.68692541,0
-0.89243937,-0.067547478,0.83154881,-0.73050612,-0.055290978,0.68066418,0
0.85558426,-0.049727317,0.19069549,0.97448343,-0.056637842,0.21719614,0
-0.51500708,0.84995276,-0.11224448,-0.51494253,0.84984618,-0.11223041,0
-1.0738817,-0.24962731,0.11461121,-0.96880984,-0.22520301,0.10339729,0
-0.47353116,0.45961586,0.79424238,-0.45857349,0.44509774,0.76915425,0
0.82003301,0.35877955,0.42358071,0.82810605,0.36231163,0.42775074,0
0.35244787,0.072663054,0.80957282,0.3978191,0.082017094,0.91379052,0
0.75515872,-0.22576745,-0.6742143,0.72806871,-0.21766843,-0.65002799,0
1.0938462,0.45285159,0.13886172,0.91765857,0.37991002,0.11649503,0
-0.7291128,-0.80463457,-0.32080805,-0.64395791,-0.71065933,-0.2833401,0
0.84460056,0.040403113,0.19807248,0.97253162,0.046522941,0.22807437,0
-1.0240545,0.054421052,-0.15885597,-0.98682129,0.052442379,-0.1530802,0
-0.44183126,0.96544033,-0.19395329,-0.40936494,0.89449859,-0.17970136,0
-0.9684636,0.64092582,-0.11159326,-0.83009648,0.54935497,-0.095649622,0
-0.36373609,-0.08840546,0.92634726,-0.36405683,-0.088483416,0.92716408,0
0.78972119,-0.30795676,0.19836888,0.90715814,-0.35375202,0.22786769,0
-0.2771664,0.44975269,-0.85373211,-0.27607021,0.44797391,-0.85035557,0
0.89802194,-0.628434,0.091230065,0.8164863,-0.57137549,0.082946859,0
-0.41808259,-1.1494468,0.2024651,-0.33722773,-0.92715019,0.16330947,0
-0.078099236,0.640378,-0.88721287,-0.071195796,0.58377296,-0.80878931,0
0.63213533,-0.52974319,-0.61085159,0.61591548,-0.51615059,-0.59517789,0
-0.066586949,-0.85715401,-0.40157807,-0.070172757,-0.90331304,-0.42320365,0
-0.59738076,-0.7746101,-0.47712061,-0.54888129,-0.71172196,-0.43838468,0
0.17767385,-0.87038434,-0.10280051,0.19868205,-0.97329879,-0.11495567,0
0.14146069,0.024045484,0.88559681,0.15767854,0.026802195,0.98712671,0
0.064647548,-0.66160488,1.0080814,0.053537015,-0.54789937,0.83482939,0
-0.49958757,-0.5308823,-0.4129664,-0.59628499,-0.63363695,-0.49289793,0
