0.33768746,-0.79211032,-1.4860098,0.19661935,-0.46120816,-0.86523283,0
-0.21143308,-1.3363285,0.70388967,-0.13863531,-0.87622195,0.4615359,0
-0.0061815153,-0.56094539,1.4075395,-0.004079639,-0.37020934,0.9289394,0
-0.92534232,-0.4805806,-1.2358457,-0.57227606,-0.29721409,-0.76430619,0
-0.63560879,-1.5832855,-0.24495634,-0.36876827,-0.91859245,-0.14211906,0
-0.49976063,0.30536312,1.6878717,-0.27972814,0.17091914,0.94474274,0
1.4942881,-0.37528342,-0.72131622,0.87838054,-0.22060114,-0.42400801,0
0.96000737,1.0074958,-1.0773522,0.54548079,0.57246393,-0.61215669,0
0.73764956,-0.8383441,0.96657312,0.49946058,-0.5676406,0.65446413,0
0.091497362,0.40801212,1.4827675,0.059390776,0.26483995,0.96246171,0
0.1796868,1.6110641,-0.37672013,0.10796854,0.96804124,-0.2263601,0
0.68093622,0.29223162,1.2577684,0.46645433,0.20018426,0.86159539,0
1.1932212,-0.59447294,0.5848437,0.81965905,-0.40836111,0.40174648,0
-0.91261613,1.0743433,0.50441456,-0.60956109,0.71758306,0.33691218,0
-1.6716578,0.58510447,0.30820563,-0.92987943,0.32547128,0.17144303,0
-0.58031452,-0.31662223,1.3986512,-0.3751201,-0.20466723,0.9040997,0
1.1807607,-0.72297037,-0.36911494,0.82405066,-0.50455964,-0.2576046,0
-0.94612241,-1.0227789,-0.59247988,-0.62490743,-0.67553848,-0.39132896,0
1.0853645,-0.034608833,-1.2305995,0.66131741,-0.021087317,-0.74980974,0
-0.25857094,-1.6418477,0.65931994,-0.14460824,-0.91821891,0.36873093,0
-1.3086345,-0.15495484,1.1698396,-0.7426486,-0.087936692,0.66388261,0
-1.2186382,1.4440013,-0.14471543,-0.64306861,0.7619915,-0.07636553,0
1.3303652,1.0683016,0.47909722,0.75068796,0.60281277,0.27034119,0
0.44943255,-1.6496303,0.59794813,0.24812691,-0.9107433,0.33012077,0
0.45598164,-1.6638079,0.30622876,0.26024449,-0.94959271,0.17477535,0
-0.43761617,0.41701654,1.4521559,-0.27821389,0.2651177,0.92320615,0
1.1056497,-0.41416466,1.2179605,0.65180224,-0.24415821,0.71801162,0
-1.2089322,0.97368371,0.92533886,-0.66896778,0.53879207,0.5120402,0
-1.1482229,1.2269413,0.19113199,-0.67891896,0.72546345,0.11301215,0
0.19881284,0.65961003,-1.4647797,0.12282249,0.40749353,-0.90491086,0
-0.52091986,1.5210147,-0.62250876,-0.30214831,0.88223171,-0.36107278,0
-1.1072642,1.2546804,0.016068395,-0.66165602,0.74974602,0.0096018193,0
-0.85268897,0.46112388,-1.2011673,-0.55242413,0.29874429,-0.77818978,0
0.65004152,1.4803042,-0.43188089,0.38844803,0.88459164,-0.25808087,0
1.7139434,-0.52347457,-0.25338954,0.94696856,-0.28922424,-0.13999991,0
-1.0628575,0.3279033,1.2671604,-0.63037014,0.19447616,0.75154012,0
-0.5574764,-0.23021431,1.5317285,-0.33864462,-0.139846,0.93046385,0
-0.45603788,-0.25643563,1.4276251,-0.29993126,-0.16865498,0.93893379,0
0.86995739,-0.71065819,0.9967882,0.57927072,-0.47319961,0.66372246,0
-0.39375663,1.258682,0.63122922,-0.26930651,0.86086494,0.43172389,0
1.4453692,-0.83809531,0.43680772,0.8369574,-0.48530856,0.25293845,0
-0.97382021,-1.0632991,1.0188398,-0.55158544,-0.6022675,0.5770852,0
0.30790952,0.5464226,1.5062118,0.18871838,0.33490354,0.92316031,0
-1.3129705,0.6790852,-0.9493162,-0.7473765,0.38655272,-0.54037517,0
0.063531928,1.1410152,1.250031,0.037511323,0.67369258,0.73805904,0
-0.3854076,0.43856424,1.7459468,-0.20934914,0.23822324,0.94837898,0
-1.1372728,-0.37704358,1.2825193,-0.64797854,-0.21482632,0.73073494,0
-1.350751,-1.0316145,-0.0095780836,-0.79471773,-0.60695297,-0.0056352895,0
0.22062567,1.3600309,0.46994784,0.15155454,0.93424696,0.32282159,0
0.8857488,-0.59295571,-1.51228,0.47873849,-0.32048672,-0.81737244,0
-1.2192794,0.73747194,0.042205323,-0.85528445,0.51731235,0.029605648,0
1.5501592,0.92479831,0.43307969,0.83508569,0.49819776,0.2333042,0
1.012386,1.1518192,-0.86139423,0.57558984,0.65486437,-0.48974383,0
0.45744938,-1.5908527,0.87923914,0.24405949,-0.8487556,0.46909377,0
0.69082022,-0.49149203,-1.1302602,0.48893794,-0.34786054,-0.79995793,0
-0.92788857,1.1654825,0.59134823,-0.57891142,0.72714674,0.36894327,0
1.4017669,0.38488665,-0.69770443,0.86935902,0.23870209,-0.43270794,0
1.0910884,-1.0127672,-0.7606318,0.6526643,-0.60581434,-0.45499268,0
1.3929778,-0.34360561,0.93475747,0.81347775,-0.20066042,0.54588407,0
1.3604082,0.32277572,0.34198144,0.94512779,0.22424468,0.23758763,0
0.98808235,0.32279399,1.1487951,0.63777345,0.20835252,0.74150813,0
0.17642453,-1.5893914,-0.68961716,0.10130541,-0.91265053,-0.39598772,0
1.2178161,-1.1724491,-0.31248242,0.70839691,-0.68200719,-0.1817693,0
1.4270136,0.77346605,0.24825084,0.86905718,0.471044,0.15118578,0
-1.2661207,-0.08133854,1.0513818,-0.76839352,-0.049363386,0.63807106,0
1.1164188,0.65724176,-0.99972844,0.68223953,0.40163809,-0.6109305,0
0.48975232,0.048361707,-1.5231183,0.30597061,0.030213764,-0.95156145,0
-0.22362164,1.5636264,0.83669949,-0.12510607,0.87477738,0.46809503,0
0.45696059,-1.7520881,-0.016678942,0.25235644,-0.96759051,-0.0092109451,0
0.23570643,1.0363662,-1.108849,0.15345918,0.67473722,-0.72192794,0
0.25366378,0.62725866,-1.3267399,0.17032328,0.42117465,-0.89084333,0
0.85467893,-1.207823,-0.83281666,0.50337136,-0.71135896,-0.49049535,0
0.73522741,1.5818002,-0.74083191,0.38795805,0.83466983,-0.39091539,0
0.063261241,-1.0707376,1.3141875,0.037292782,-0.63120455,0.77471936,0
-1.5922539,0.39813945,0.59101808,-0.9127565,0.22823267,0.33879998,0
0.057448391,-1.8375717,0.17459168,0.031107983,-0.99503487,0.094540417,0
-1.6627163,0.18415895,0.011975151,-0.99389678,0.11008191,0.0071582054,0
0.75258166,1.306191,-0.7906574,0.44211009,0.76733232,-0.46447799,0
0.22183207,-0.83031303,1.3538698,0.13833219,-0.51777464,0.8442592,0
-1.0751095,0.92721593,1.2043022,-0.57748747,0.4980475,0.64688241,0
0.66634279,0.99476761,0.84929651,0.45392716,0.67765725,0.57855922,0
0.89657933,0.85323018,1.2695099,0.50568628,0.48123661,0.71602559,0
-0.87823212,1.3364114,-0.43798012,-0.5296793,0.80601633,-0.26415452,0
-1.3715622,0.53784317,0.5558272,-0.87104785,0.34157193,0.35299316,0
0.90243429,-1.0699753,-0.4919492,0.60824847,-0.72117251,-0.33157799,0
-1.1520203,0.78146684,0.78033268,-0.72188181,0.48968467,0.48897398,0
-0.90777647,-0.29317477,-1.6388991,-0.47870627,-0.15460259,-0.86425596,0
1.1933178,0.076886527,-1.4524628,0.63428003,0.040867228,-0.77202249,0
-0.23306124,-1.09654,-1.2171152,-0.14084662,-0.66267544,-0.73554301,0
-0.74611908,1.3902302,0.45783845,-0.45415354,0.84621602,0.27868065,0
-0.10212878,-1.3775057,-1.0357977,-0.059153385,-0.79785663,-0.59993804,0
-1.0395398,-0.61488259,0.69350189,-0.74640983,-0.44149768,0.49794787,0
-1.1090522,-1.0780535,-0.032470644,-0.71689886,-0.69686109,-0.020989245,0
0.51705343,-1.2231027,-0.85906106,0.32692763,-0.77335542,-0.54317558,0
0.92455494,1.3635015,0.76181132,0.50939125,0.75123256,0.41972631,0
0.07941369,-1.0585968,-1.4208912,0.04477394,-0.5968436,-0.80110741,0
0.56743443,1.3993363,0.1458848,0.37404084,0.92241305,0.096164189,0
-1.2645173,0.7879656,-1.2496524,-0.65026641,0.40520406,-0.64262223,0
1.0676806,-1.1241084,-0.42920089,0.66370958,-0.69878721,-0.26680708,0
0.4952696,1.602164,-0.079795241,0.29500258,0.95431364,-0.047529269,0
-1.20907,-0.76018322,0.30480996,-0.8279286,-0.52054673,0.20872313,0
0.14322245,0.720052,1.5183401,0.084921964,0.42694584,0.90028077,0
0.89003885,1.1496261,-0.73970312,0.54561836,0.7047525,-0.4534584,0
0.35453892,-1.3801904,0.70979679,0.22270161,-0.86695874,0.44585481,0
1.3676295,-0.73250496,0.075866617,0.88046908,-0.47158092,0.04884233,0
1.3925595,-0.23118325,-0.29569733,0.96554202,-0.1602927,-0.20502405,0
-0.20767039,0.56040657,-1.6843098,-0.11619877,0.31356686,-0.94242966,0
-1.3458942,0.25457332,-0.75681812,-0.86003363,0.16267371,-0.48361084,0
0.23117426,0.38846967,-1.6807157,0.13282466,0.2232011,-0.96568054,0
-1.3341449,-0.34533954,-0.55177486,-0.89873356,-0.23263456,-0.37169769,0
-0.75692362,0.22644386,1.4947815,-0.44768932,0.13393226,0.88410205,0
1.5415126,-0.74188673,-0.4063471,0.87668413,-0.42192346,-0.23109642,0
-1.0571408,-0.96873444,1.0416324,-0.59648496,-0.54660219,0.5877344,0
-0.80745584,-0.76505417,1.5498658,-0.4232581,-0.40103167,0.81241995,0
-1.4134179,0.24167973,0.2881141,-0.96638024,0.16524094,0.19698898,0
0.21278618,-1.0435007,1.3892844,0.12155673,-0.59611261,0.7936458,0
-0.13406196,-0.7016716,-1.5226015,-0.079710849,-0.4172014,-0.90531164,0
1.0804324,-0.8547076,-0.5481497,0.72870445,-0.57646292,-0.36970302,0
-1.3615763,0.12773624,0.85021329,-0.84554148,0.079324447,0.52798408,0
-0.13246234,0.66698885,-1.640254,-0.074600287,0.37563553,-0.92376006,0
1.1054626,-0.53157687,1.3841245,0.59772879,-0.28742611,0.74840266,0
0.061448243,-0.17698832,-1.5667515,0.038942717,-0.11216605,-0.99292606,0
0.87718248,0.58468026,-1.0684209,0.58442175,0.38954252,-0.71183413,0
-0.31866392,1.2552047,0.63974589,-0.22061662,0.8690002,0.4429073,0
-1.3060597,-0.68343812,-0.93812329,-0.74748564,-0.39114609,-0.53690779,0
-1.4812797,-0.59705561,0.88393676,-0.81149149,-0.32708579,0.48424828,0
1.3225226,-0.62623847,0.53049463,0.84968197,-0.40233982,0.34082723,0
-0.95351982,-1.2344074,-0.3938829,-0.59270519,-0.76730412,-0.24483648,0
-0.25428176,-0.40602243,-1.7294458,-0.14169477,-0.22625002,-0.96370822,0
-1.0005099,-1.2916158,-0.55743515,-0.57957733,-0.74820977,-0.32291216,0
-0.95530981,0.75909901,1.0101924,-0.60306585,0.47920233,0.637712,0
0.48375049,-0.6063031,1.5028973,0.28603175,-0.35849461,0.88863236,0
0.71603227,-1.3507836,0.017211173,0.46832368,-0.88348526,0.011257035,0
-1.6161306,-0.69478011,-0.030967429,-0.91855907,-0.39489171,-0.017600937,0
-0.19395769,-1.522086,0.49418488,-0.12032021,-0.94421476,0.30656391,0
0.76999772,1.2805245,-0.75328124,0.46015573,0.76524991,-0.45016584,0
0.28350565,-1.4372085,0.75386643,0.17208228,-0.87235689,0.45758188,0
-1.0654155,-0.35253656,1.340861,-0.60932636,-0.2016207,0.76685756,0
1.4659135,-0.64581013,-0.88179988,0.801687,-0.35318425,-0.48224363,0
-0.72626948,-1.3449937,0.63294268,-0.43898848,-0.81297195,0.38257775,0
-1.2515812,-0.21925038,-0.94523001,-0.79030818,-0.13844517,-0.59686345,0
1.6479723,0.49124697,-0.4785597,0.92324382,0.27521136,-0.26810357,0
0.17800756,-0.64189661,1.5007001,0.10841593,-0.39094868,0.91400504,0
0.071284309,1.4357535,-0.95259058,0.041336231,0.83256245,-0.5523867,0
1.3585842,-0.51074111,-1.0310109,0.76310617,-0.2868793,-0.57911074,0
1.4048373,-0.49527195,0.90759915,0.80538529,-0.28393662,0.52032149,0
-1.0827602,-0.96102518,1.2048132,-0.57487077,-0.51023787,0.63967246,0
0.41394651,-1.3292347,1.0241244,0.23950973,-0.76909608,0.59255904,0
1.5400929,0.3249571,-0.9448669,0.8389101,0.17700867,-0.51468217,0
0.20261431,0.74139029,1.1994524,0.14222845,0.5204311,0.84197533,0
1.0441071,1.0856436,-0.15418877,0.68958062,0.71701348,-0.10183399,0
0.83904803,-0.28396636,-1.3664006,0.51525891,-0.17438358,-0.83910584,0
1.0340387,-0.93960887,-0.59511429,0.68089867,-0.61871809,-0.39187366,0
1.2211983,-0.5419659,0.78585374,0.78785044,-0.34964681,0.5069899,0
-1.6711277,-0.19057816,0.57254314,-0.9405601,-0.10726303,0.32224423,0
-1.7960228,0.21801795,-0.01251131,-0.99268907,0.12050183,-0.0069151912,0
0.10463531,-1.5978266,-0.54923123,0.061811097,-0.94388223,-0.32444671,0
-1.4768275,-0.57041836,-0.098905995,-0.93101996,-0.35960251,-0.06235221,0
-0.98321575,0.047295164,-1.4362926,-0.56466693,0.027161907,-0.82487184,0
-0.079476163,0.25671908,1.5825628,-0.04951112,0.15992782,0.98588628,0
1.3957689,-0.437677,0.041321792,0.95380723,-0.29908925,0.028237499,0
1.6175706,0.9082706,-0.18671815,0.86756349,0.48713943,-0.10014391,0
-0.23781477,-1.7367743,-0.46352807,-0.1311554,-0.95783508,-0.25563681,0
1.2835219,-0.92004091,0.040018544,0.81250125,-0.58240879,0.025332732,0
0.65866369,0.82163572,1.3638235,0.38226381,0.47684667,0.79151225,0
0.44068423,-1.5301231,-0.88199592,0.2420978,-0.84060061,-0.48454028,0
1.2425931,0.66547185,-0.30491534,0.86161149,0.46143684,-0.21142767,0
-0.35456911,1.430822,0.90190953,-0.20517576,0.8279627,0.52190101,0
-1.7879624,-0.3109518,-0.074625202,-0.98437971,-0.17119746,-0.041085612,0
0.22074643,-1.2246314,1.1350378,0.13106364,-0.72709972,0.67390531,0
1.1076115,1.0490839,0.47718513,0.69292259,0.65630764,0.29852736,0
-0.62717742,0.22957978,-1.5075001,-0.38037905,0.13923866,-0.91428906,0
0.43382946,1.5012678,0.93734705,0.23807217,0.82384926,0.51438701,0
-0.26167151,0.1022459,1.4374359,-0.1786602,0.069809936,0.98143119,0
-0.040193625,-0.0033762953,-1.4581832,-0.027553642,-0.0023145271,-0.99961764,0
-0.60308874,-1.2744029,0.59128338,-0.39446771,-0.83356023,0.38674608,0
-1.2126083,0.46014595,0.88717264,-0.77168477,0.2928296,0.56458265,0
-1.2407049,0.35670102,-1.1938136,-0.70560974,0.20286186,-0.67894185,0
1.2610985,-0.29403302,0.94214827,0.78749961,-0.18361047,0.58832943,0
-0.90656281,0.25101537,-1.2115145,-0.59104544,0.16365275,-0.78986269,0
-1.2415856,0.96775025,-0.93896049,-0.67736846,0.52797288,-0.5122661,0
0.70970893,-0.43491611,-1.2858227,0.4633399,-0.28393891,-0.83946103,0
1.3062632,-0.61565763,1.1186935,0.71509457,-0.33703271,0.61241227,0
-0.70171469,0.94042778,-1.0144056,-0.45240605,0.60630798,-0.65400261,0
-0.43163159,1.4061903,0.56408697,-0.273983,0.89259511,0.35806057,0
0.86200964,0.97300351,-1.0770808,0.5106194,0.57636768,-0.63801885,0
-0.53447908,1.5283979,-0.55599713,-0.31220335,0.89277762,-0.32477263,0
1.4762117,0.52178907,-0.015398363,0.94278967,0.3332431,-0.0098342383,0
-1.3140883,0.76842821,-0.78968179,-0.76627362,0.44808728,-0.46048072,0
1.1826268,-0.55267501,0.64869386,0.81130207,-0.37914443,0.44501498,0
-0.063182406,1.064859,0.95379728,-0.044153865,0.7441572,0.66654372,0
-1.2310671,-0.68793243,0.81588775,-0.75560433,-0.42223915,0.50077558,0
-1.2337242,1.107082,0.28911731,-0.7332052,0.65794146,0.1718231,0
-0.8373934,-1.1755486,0.89233696,-0.49348956,-0.69276989,0.52586871,0
-1.2671435,1.0088644,-0.76286638,-0.70775503,0.56349486,-0.42609423,0
1.7280846,0.40930614,-0.48732892,0.93838716,0.22226205,-0.26463011,0
-0.01015518,-0.82308757,1.3863471,-0.0062985388,-0.51050293,0.85985291,0
1.1345875,1.3550107,-0.38663065,0.62715739,0.74899906,-0.21371491,0
1.6870072,0.56567174,-0.20321597,0.94199556,0.31586128,-0.11347228,0
0.82380992,0.73062718,1.1613557,0.51475799,0.45653269,0.72567362,0
0.033723418,-1.567517,0.25773925,0.021224072,-0.98652792,0.16221002,0
1.0075561,-0.2434534,1.102854,0.66570628,-0.16085304,0.72867095,0
0.79311353,0.4146328,-1.1425616,0.54646873,0.28568906,-0.78724438,0
0.69014913,0.11498845,-1.4378769,0.43159464,0.071909666,-0.89919692,0
0.89291215,0.34453639,1.251071,0.56686538,0.21872897,0.79424256,0
1.1914886,0.0039401129,1.2895832,0.67861789,0.0022441095,0.73448807,0
0.73286438,-1.308676,0.28945947,0.47975421,-0.85669714,0.18948853,0
-1.4018602,-1.1841708,0.4436231,-0.74253887,-0.62723291,0.23497877,0
1.2316372,1.2600797,0.015943322,0.69896114,0.71510243,0.0090479264,0
1.3775489,-1.0924963,-0.43363926,0.76071322,-0.60330075,-0.23946525,0
-0.29139727,-1.6251137,0.61386925,-0.16542937,-0.92259461,0.34850019,0
0.80581224,0.82294703,1.2749084,0.46900573,0.47897866,0.74203306,0
-1.0571784,-1.4085848,0.051154695,-0.60001576,-0.79946119,0.029033532,0
-1.2607688,1.2764658,0.15238164,-0.70019776,0.70891547,0.084628753,0
1.0067836,-0.084406003,-1.168371,0.65180331,-0.054645419,-0.7564168,0
1.2163976,0.31188521,-0.87638342,0.79434538,0.20367071,-0.57230556,0
-1.1440873,0.82933575,0.53631628,-0.75696546,0.54871553,0.35484433,0
1.1679022,-1.1357378,0.20474078,0.7113142,-0.69172436,0.12469795,0
0.10066102,-1.5158333,-0.36743373,0.064403482,-0.9698385,-0.23508613,0
1.3728516,0.60663068,0.44174799,0.87746543,0.38773122,0.28234556,0
-0.97733742,1.3209065,0.040150583,-0.59461308,0.80364084,0.024427654,0
0.83811808,-1.2934494,0.3922708,0.52699012,-0.81329244,0.24665122,0
-0.042797122,-0.48206422,1.4204037,-0.028520236,-0.32125023,0.94656479,0
1.5005254,0.44033188,-0.17334463,0.95369697,0.2798641,-0.11017358,0
0.48990494,1.2528747,-0.81611383,0.31135726,0.79625982,-0.51867807,0
-0.034563415,-1.1741781,-1.3240547,-0.019527011,-0.66336584,-0.74804044,0
0.59907627,-0.84356081,-1.5181788,0.32607871,-0.45915228,-0.82634854,0
0.41955832,-1.259905,-0.58216923,0.28936359,-0.8689391,-0.40151411,0
0.36035526,1.5315555,-0.87071097,0.20039366,0.85169846,-0.48420259,0
-1.4657949,0.10230172,0.78638887,-0.87953234,0.061384901,0.47186303,0
0.095282987,0.091680311,-1.451318,0.065381929,0.062909819,-0.99587524,0
0.20720212,-0.42384458,1.5099647,0.13097882,-0.26792517,0.95449501,0
-0.81754965,0.55234283,-1.4257028,-0.47153348,0.31857163,-0.82229453,0
0.67882562,0.55673337,-1.3439481,0.42286816,0.34681192,-0.83720011,0
1.6646794,0.017103098,-0.147854,0.99602669,0.010233287,-0.0884654,0
-0.78845942,-0.88958651,-1.0585978,-0.49534187,-0.55887395,-0.66505367,0
-1.3909497,-0.036485408,-0.74954492,-0.88008535,-0.023085143,-0.47425401,0
-0.028039906,-1.5851722,0.78763252,-0.015839171,-0.89543146,0.44491756,0
1.1165233,0.57546329,1.0590391,0.67957675,0.35025823,0.64458877,0
0.58820808,-1.3211102,-0.93075532,0.34202617,-0.76818782,-0.54120761,0
1.0698862,-0.34206954,1.4423486,0.58523721,-0.18711506,0.78897744,0
-1.6115098,0.65945101,-0.016936967,-0.9254635,0.37871185,-0.0097266212,0
1.1900378,0.75583541,-1.1801538,0.64727229,0.41110566,-0.64189625,0
-0.0075706001,0.64070094,1.5855938,-0.0044268258,0.37464285,0.92715865,0
-0.022269513,-0.97985101,-1.4526109,-0.01270847,-0.55916834,-0.82895666,0
1.6430261,-0.15617293,-0.46402755,0.95835513,-0.091093577,-0.27066106,0
0.2724703,-1.1582406,-1.1869553,0.16212083,-0.68915743,-0.7062428,0
-0.9529773,-0.31297597,-1.2464368,-0.59564286,-0.19562051,-0.77906489,0
-1.0622181,-1.2973026,-0.42692572,-0.61393052,-0.74980241,-0.2467504,0
-1.3604705,-0.35662478,-0.70417333,-0.86496037,-0.22673501,-0.44769952,0
-0.87082797,-1.0854877,0.88066363,-0.52877635,-0.65912014,0.53474867,0
0.64086735,-0.71410805,1.3556513,0.38586506,-0.42996314,0.81623513,0
-0.11580984,-0.09688738,1.5065293,-0.076488726,-0.063991047,0.99501491,0
0.19982725,-1.3997538,0.35672012,0.1370323,-0.95988655,0.24462219,0
1.4900876,0.73555875,-0.52811968,0.85457915,0.42184982,-0.30288157,0
1.2984517,-0.078611918,0.59859592,0.90677327,-0.054898605,0.41802925,0
0.35858414,-1.2028884,-1.1592994,0.20986353,-0.70399767,-0.67848694,0
-0.29944444,-1.4737555,0.84558159,-0.17356166,-0.85420674,0.49010944,0
-1.0740246,0.58706337,-0.95655215,-0.69138628,0.37791276,-0.61576527,0
-1.292341,-0.82158744,-0.50003105,-0.80221945,-0.50999963,-0.31039381,0
-0.78829604,0.59909445,-1.4204726,-0.4552696,0.34599882,-0.82037455,0
0.67251951,0.015685031,-1.453491,0.41990137,0.0097932713,-0.90751696,0
-0.37452406,0.58371454,1.4600368,-0.23170485,0.36112362,0.90327328,0
-0.64027762,-0.7886914,1.4420099,-0.36298749,-0.44712654,0.81750721,0
1.4922868,0.35363096,-0.75868958,0.87216282,0.20667863,-0.443414,0
-0.080844454,-1.2457241,-1.4147643,-0.042847943,-0.66023964,-0.74983174,0
-1.4221017,0.83235294,0.66363859,-0.80055213,0.46856135,0.373586,0
1.2267934,-1.0666814,1.059765,0.63217181,-0.54966539,0.54610139,0
-1.5640001,-0.71625656,0.40947384,-0.88447899,-0.40505999,0.23156713,0
0.45208004,-1.2740641,1.0705094,0.26216432,-0.73883855,0.62079579,0
0.66493946,-0.16611984,1.4088165,0.42442429,-0.10603265,0.89923364,0
-1.0725704,0.95696729,0.70550179,-0.66984302,0.59764642,0.44060084,0
-1.6563694,0.45547259,0.55075675,-0.91817445,0.25248191,0.30530071,0
-0.29407769,0.39113581,1.4041897,-0.19776359,0.26303399,0.94430012,0
-0.81846941,1.3422594,-0.7628662,-0.46838421,0.76813269,-0.43656427,0
-1.3080599,0.60899109,0.83153152,-0.78546423,0.36568716,0.49931833,0
-1.1735581,-0.56310505,0.90973818,-0.73898637,-0.35458571,0.57285964,0
1.6139755,-0.22559576,0.80966729,0.88693744,-0.12397296,0.44494122,0
0.18617553,-0.21362174,-1.8008024,0.10212813,-0.11718397,-0.987845,0
1.0812045,0.58639777,-1.1075331,0.65323973,0.35428849,-0.66914684,0
-0.81551349,0.11888973,-1.4296131,-0.49420607,0.072047889,-0.86635417,0
-0.37144411,0.098831765,1.5131613,-0.23791975,0.06330435,0.96921968,0
-1.0481197,0.49889567,-1.2185714,-0.62278193,0.29643869,-0.72406262,0
1.3624882,0.73738307,-0.79817075,0.78180265,0.42311418,-0.45799446,0
-1.7364349,-0.41553357,-0.26716581,-0.96183276,-0.23016918,-0.14798644,0
-0.66497058,0.86895925,-1.1914911,-0.41106135,0.53715992,-0.73653775,0
-0.33298069,-1.3963115,-0.833718,-0.20058905,-0.8411442,-0.50223541,0
0.53930867,-0.22133113,1.5556152,0.32463861,-0.133231,0.93640763,0
-1.4865427,-0.26710069,-0.18236528,-0.9771412,-0.17557187,-0.1198732,0
-0.23761177,0.85015184,-1.6234822,-0.1285814,0.4600518,-0.87853241,0
1.5241479,-0.13275705,0.23527075,0.98465335,-0.085765749,0.15199322,0
1.2120351,0.73392993,-1.1792107,0.65749043,0.39813364,-0.63968426,0
-1.1994244,-0.447092,-0.93722856,-0.75603038,-0.28181446,-0.59076107,0
0.90984547,1.2808478,-0.26230571,0.57120341,0.80411965,-0.16467622,0
0.24309619,-0.2834329,-1.8395805,0.12950659,-0.15099548,-0.9800145,0
0.53217244,-1.2034891,-1.0955012,0.31080744,-0.70287997,-0.63981128,0
-0.89587843,-1.16347,0.71169674,-0.54901224,-0.71299767,0.436142,0
1.131634,1.1180475,-0.25851256,0.70215338,0.69372326,-0.16040123,0
0.019369451,1.4683664,-0.16661084,0.013105926,0.9935388,-0.11273367,0
0.47935784,0.62299269,-1.5574555,0.27476922,0.35710111,-0.89273775,0
0.23435472,1.1044877,-1.1741567,0.14386909,0.67803901,-0.72080845,0
-1.3541151,0.79345351,-0.54417622,-0.81518131,0.47766137,-0.32759571,0
0.83095807,0.94383103,-1.2370067,0.47107998,0.53506899,-0.70127374,0
-1.6722237,-0.70233721,0.024824098,-0.92189515,-0.38719773,0.013685498,0
1.3506123,0.79517835,-0.27101544,0.84913749,0.49993306,-0.17038892,0
-0.96995562,-0.02275111,-1.4820333,-0.54757351,-0.012843789,-0.83665901,0
-0.43202332,-1.1245202,-0.84962547,-0.29307044,-0.76283753,-0.57635802,0
-0.93166649,-0.35951427,-1.4081341,-0.53969133,-0.2082577,-0.81569719,0
-0.12360968,-1.7384968,-0.65052897,-0.066444926,-0.93450844,-0.34968418,0
0.17498155,-1.3041878,-0.99500185,0.10606787,-0.79055434,-0.6031363,0
1.351234,-1.1501626,-0.19692183,0.7568441,-0.64422137,-0.11029854,0
-1.6338859,0.43432963,-0.65082693,-0.90191501,0.23975262,-0.35926044,0
0.70303941,-0.3517136,-1.2528988,0.47531724,-0.23778971,-0.84707117,0
1.5352378,-1.0497981,-0.086130016,0.82458079,-0.56384969,-0.046260688,0
0.47766757,-1.6233945,0.063418292,0.28207633,-0.95866072,0.03745031,0
-0.72724241,0.0016501166,1.3648834,-0.47023788,0.001066972,0.88253909,0
1.5067605,0.38081864,0.4971658,0.92341614,0.23338419,0.30468738,0
0.076059334,-0.52067631,-1.4930407,0.048045956,-0.32890627,-0.94313955,0
-0.096701674,0.66656286,1.2376871,-0.068627179,0.47304586,0.87836093,0
-1.3443742,0.69111353,0.35535705,-0.86576152,0.44506919,0.22884586,0
-0.41436949,-0.30506998,1.4183283,-0.2746383,-0.20219611,0.94004816,0
0.47225794,-1.5934653,-0.090373054,0.28373557,-0.95736408,-0.054296706,0
-0.93918753,-0.77272117,-0.97617429,-0.60223049,-0.49548811,-0.6259473,0
-0.6611442,0.75972533,1.2162215,-0.41868991,0.48111945,0.77020967,0
0.88664699,1.2367846,-0.91709566,0.49902719,0.69609344,-0.51616448,0
0.15225181,-1.5421385,-0.30025646,0.096456118,-0.97699124,-0.19022153,0
-0.81206554,1.2689035,-0.63363135,-0.49687785,0.77640289,-0.38769948,0
0.5957433,-0.4076134,1.4825588,0.36128622,-0.24719557,0.89909208,0
-1.7671483,-0.60810483,-0.4888176,-0.91480494,-0.31479946,-0.25304767,0
1.3155422,0.75402248,0.040165313,0.8672893,0.4970997,0.026479535,0
1.2362719,-0.4616591,1.3117366,0.66441745,-0.2481124,0.70497495,0
-1.1632925,0.070003457,-1.262378,-0.67709452,0.040745515,-0.7347672,0
1.0858034,-1.0097808,0.62858665,0.67419785,-0.62699383,0.39030248,0
0.89994341,-1.0700017,0.92635977,0.5365802,-0.63797539,0.55233061,0
0.31264466,-1.3069307,-0.33140939,0.22588809,-0.94426709,-0.23944575,0
-0.47844592,-0.65146214,1.5207186,-0.27781439,-0.37827799,0.8830204,0
-0.28471282,0.11812378,-1.5605057,-0.1789906,0.074260958,-0.98104417,0
-1.6366768,0.53509659,0.048788279,-0.950109,0.31062949,0.028322136,0
-0.30607221,1.3798481,-0.37735993,-0.20922364,0.94323123,-0.25795424,0
-1.2225692,0.87756127,0.12391455,-0.80964065,0.58116078,0.08206182,0
1.1400208,-0.622688,-1.1028036,0.66903234,-0.36543053,-0.64719105,0
0.23044433,-1.4943681,-0.07508944,0.15221946,-0.98710138,-0.049600154,0
-0.55460751,-1.2840967,-0.34601292,-0.38490114,-0.89117128,-0.24013516,0
-1.547744,0.30164593,0.60246539,-0.91689032,0.17869636,0.35690314,0
-1.4700656,0.86617047,-0.48521879,-0.82871163,0.48828128,-0.27352959,0
-0.73129243,-0.6686359,1.1091851,-0.49168092,-0.44955412,0.74575526,0
0.7477904,-0.65391672,-1.3366604,0.44902349,-0.39265543,-0.80262053,0
1.4609267,-0.25953892,-0.36714643,0.95576006,-0.16979425,-0.2401927,0
-0.68939698,0.70486414,-1.2668207,-0.42945486,0.43909004,-0.78915679,0
0.59291798,0.40685707,-1.449052,0.36652735,0.25150904,-0.89576834,0
-1.3296171,0.056231067,-0.78200412,-0.86139709,0.036429491,-0.50662404,0
-0.43230224,-1.6545892,-0.098381579,-0.25237158,-0.96592438,-0.057433695,0
-0.68296826,-1.6570367,-0.44057539,-0.3700476,-0.89781988,-0.23871368,0
0.26046452,-1.3297423,-0.79942811,0.16555738,-0.8452155,-0.50813532,0
-1.4177139,-0.74342227,-0.81305212,-0.7896145,-0.41405886,-0.45284012,0
0.57842535,1.7806771,-0.063203007,0.30876783,0.95053887,-0.033738244,0
-1.7408644,-0.41054767,-0.066793568,-0.97262281,-0.22937343,-0.037317641,0
-0.48939115,-1.4601536,-0.23690392,-0.31409484,-0.93713731,-0.15204668,0
0.85925007,-1.0288653,-0.69621903,0.56885326,-0.68114448,-0.46092108,0
-1.3815653,0.87801379,-0.80804032,-0.75680232,0.48096377,-0.44263327,0
1.5717402,-0.56666201,0.085851438,0.93948841,-0.33871529,0.051316645,0
0.57951063,-1.2872577,0.73102206,0.3645328,-0.80973083,0.45983887,0
1.298999,0.88928348,-0.26421776,0.8137784,0.55710566,-0.16552339,0
0.53191262,1.5870858,0.63721764,0.2969856,0.88612604,0.35578111,0
-0.67111963,-1.0642002,1.1434101,-0.39475507,-0.62596649,0.67255807,0
1.4036808,-0.23646814,-0.68663162,0.88817436,-0.14962442,-0.43446386,0
0.64132124,-1.1650907,0.58609962,0.44126937,-0.80165571,0.40327343,0
0.66519368,1.2807208,0.17045988,0.45774463,0.88131189,0.11729982,0
1.236727,-0.24444842,1.1685389,0.71947348,-0.14220937,0.67980468,0
-1.3745238,0.50431865,0.54161549,-0.88049012,0.3230556,0.34694713,0
-0.51328337,-1.555244,-0.36110452,-0.30605543,-0.92734522,-0.21531576,0
-0.086757205,-1.462779,-0.36318785,-0.057467017,-0.96892869,-0.24057163,0
1.0932574,-0.78794611,0.53146648,0.75468397,-0.54392523,0.36687538,0
-0.84866732,-0.20340209,1.4369247,-0.50480497,-0.1209878,0.85471272,0
0.17174119,1.3928196,1.1580724,0.094389319,0.76549661,0.63647902,0
0.1082959,1.5423914,-0.77290165,0.062649295,0.89227509,-0.44712442,0
-1.014608,1.2847875,-0.090512648,-0.61881286,0.78359628,-0.055203971,0
0.25052059,1.3433901,0.57210386,0.16910243,0.90679389,0.38617247,0
1.0080909,0.60551226,1.3181963,0.57067025,0.34277451,0.74621791,0
0.71198028,0.89832217,1.1646124,0.43570685,0.54974151,0.71270174,0
-0.74104619,1.2968922,-0.80160576,-0.43714783,0.76504487,-0.47287229,0
1.0115116,-1.078524,-0.75443196,0.60935122,-0.64972061,-0.45448226,0
0.88552684,1.4014268,-0.3114861,0.52498507,0.83083665,-0.18466471,0
0.8973611,-1.5043327,-0.70869738,0.4748989,-0.79611868,-0.37505481,0
1.646118,-0.24967799,-0.055172909,0.9881494,-0.14987938,-0.033119787,0
0.29332545,-0.97157437,-1.3318131,0.17517908,-0.58024114,-0.79538202,0
0.56881565,-0.18672465,1.5851289,0.3356998,-0.1101999,0.93550074,0
-1.3302659,0.8071841,0.44163689,-0.82243818,0.49904236,0.27304244,0
1.6195685,0.32268757,-0.080276735,0.97956651,0.1951717,-0.048553921,0
1.0155512,-1.5279651,-0.09297581,0.55282342,-0.83175999,-0.050612126,0
1.3195421,0.74452686,0.78800881,0.77267087,0.43596503,0.46142632,0
-0.55051434,1.6406841,0.32626647,-0.31260255,0.93164158,0.18526626,0
-0.93688297,-0.37133551,-1.327598,-0.56209147,-0.22278613,-0.7965045,0
0.25163734,1.5654672,-0.15886089,0.15791476,0.98240739,-0.099692993,0
1.1659619,0.67452496,-0.98040885,0.6998449,0.40486988,-0.58847046,0
-0.34049231,-1.657096,-0.63493031,-0.18843567,-0.91707212,-0.35138392,0
1.0573543,-0.67639101,-1.0438863,0.64767259,-0.41431704,-0.63942289,0
-1.1472687,-0.89110273,0.95627749,-0.65965968,-0.51236868,0.54984307,0
1.4903045,0.4963192,-0.21988551,0.9396075,0.31291944,-0.13863346,0
0.95269978,-1.1765574,0.83563262,0.55094153,-0.68039727,0.48324218,0
0.5810197,1.3608046,-0.53220934,0.36949807,0.86540037,-0.33845726,0
1.2909195,0.80141556,0.8541587,0.74059695,0.45976987,0.49002847,0
0.41868311,1.6959358,-0.024373231,0.23965523,0.97075778,-0.013951297,0
0.60837734,0.90436018,1.180284,0.37868136,0.56291437,0.73466176,0
1.1856229,0.88765579,-0.6318022,0.73631114,0.55126363,-0.3923701,0
-1.6880901,0.42286468,-0.44210237,-0.94016415,0.23551007,-0.2462243,0
0.66518819,0.44455239,-1.3893539,0.41490018,0.27728224,-0.86658663,0
1.6769055,0.73262131,-0.13705118,0.9138037,0.39923063,-0.07468392,0
-0.52838248,-1.4252375,0.70164734,-0.31561121,-0.85131693,0.41910505,0
1.5210562,0.22707638,0.44219014,0.95052874,0.14190312,0.27633065,0
0.44746,-0.20840599,1.4993194,0.28347448,-0.13202919,0.94984764,0
-0.54079109,1.1333025,-1.2526904,-0.30489185,0.63894302,-0.70625263,0
0.20924552,0.88009524,-1.3395011,0.1294549,0.54449266,-0.82871544,0
0.74764091,1.4124705,-0.084845714,0.46716258,0.88258058,-0.05301575,0
0.41118473,0.90987962,-1.3890376,0.24036525,0.5318861,-0.81198633,0
-0.88807106,-1.3679852,-0.32110831,-0.53424978,-0.82295871,-0.19317378,0
0.28800571,-0.40257883,1.5207187,0.18008792,-0.25172967,0.95089459,0
1.1809735,0.38345832,-1.0096354,0.73794955,0.23960985,-0.63088632,0
1.5358551,0.57433534,0.0019870487,0.93665093,0.35026205,0.0012118142,0
-0.61978722,0.53209394,1.6050757,-0.34413892,0.29544693,0.89122367,0
-1.2016158,-1.3204008,0.61402386,-0.63646507,-0.69938248,0.32523268,0
0.70779866,-1.1874033,-0.77812701,0.44619122,-0.74853057,-0.49052569,0
-1.0891308,-0.20839962,1.5190116,-0.57910925,-0.1108096,0.80768418,0
1.4803858,0.32051709,-0.20166638,0.96880597,0.20975538,-0.13197614,0
-0.051148016,0.8799687,1.217663,-0.034025684,0.58538997,0.81003761,0
-1.6269263,-0.30406654,-0.3890132,-0.9569034,-0.17884172,-0.2288045,0
-1.1897173,-1.2519963,-0.062956586,-0.6883899,-0.72442549,-0.03642771,0
-1.3831058,0.89763802,-0.36081791,-0.81943572,0.53181517,-0.2137704,0
1.4712807,0.88162464,0.20837633,0.85152602,0.51025367,0.12060097,0
0.55058748,0.13234679,-1.6793268,0.31067488,0.074678101,-0.94757813,0
0.028092943,0.68611449,-1.2635624,0.019534761,0.47709784,-0.87863308,0
1.8322372,-0.20153214,0.062203478,0.99343973,-0.1092708,0.033726748,0
-0.9604966,-1.0045594,-0.81297523,-0.59652168,-0.62388712,-0.50490272,0
-0.44666725,0.1120301,1.4342974,-0.29651105,0.074368924,0.95212942,0
-0.1774846,0.063277461,1.4798152,-0.11897638,0.042417895,0.99199063,0
-1.5092614,-0.3432965,-0.29816672,-0.95748937,-0.21779047,-0.18915972,0
0.1815141,1.2828255,-0.94817954,0.11305762,0.79901886,-0.59058177,0
-1.6559796,-0.088229738,-0.4068771,-0.96981937,-0.051671475,-0.23828632,0
-0.67043167,0.93888199,-1.2740378,-0.39006612,0.5462541,-0.74125224,0
-1.1119211,1.3356675,0.074451722,-0.63921255,0.76783812,0.042800229,0
0.37503788,0.71400684,-1.1807752,0.26227778,0.49933124,-0.82575947,0
-0.1818039,-1.1959704,0.75079203,-0.12769298,-0.84000969,0.52733123,0
1.2054373,-0.12942106,-0.73047721,0.8516438,-0.09143623,-0.5160836,0
0.19974223,0.93006027,-1.4740992,0.11385293,0.53013372,-0.84023547,0
1.4092412,-0.68811923,0.33962229,0.87823868,-0.42883569,0.2116525,0
1.1043463,-1.1581609,0.37793458,0.67161727,-0.70434511,0.22984402,0
-0.091717698,1.0625859,1.0353523,-0.0617036,0.71486074,0.69653916,0
1.1524818,0.082821362,-1.2798966,0.6683768,0.048031889,-0.74227047,0
-1.3363899,0.052729245,-0.81239778,-0.85401332,0.033696361,-0.51915878,0
1.045768,1.0531341,-0.64637095,0.64601386,0.65056419,-0.39928988,0
0.39333034,-1.6606635,0.1635821,0.22942336,-0.96863872,0.095414847,0
0.57681042,-1.2746023,-0.9092263,0.34569842,-0.76390439,-0.54492444,0
-1.0751487,0.82041854,-1.0726748,-0.62285221,0.47528264,-0.62141901,0
0.75074255,-1.3685827,-0.92907739,0.41328156,-0.75340074,-0.51145434,0
-0.27304074,1.2942215,-0.6269362,-0.18653312,0.88417274,-0.42830372,0
0.59068352,-0.45006779,1.6763577,0.32216552,-0.24547209,0.91430455,0
-0.50334573,0.21745376,-1.6132518,-0.2954106,0.12762232,-0.94680786,0
0.66540152,0.96874332,1.0152551,0.42844811,0.62376809,0.65371674,0
1.220197,-0.73132348,1.0895827,0.68095154,-0.40812743,0.60806006,0
0.61682552,-1.4264528,-0.66956216,0.36451012,-0.84295547,-0.39567459,0
-0.98755604,0.69719911,-1.2534443,-0.56710446,0.40036687,-0.71979088,0
0.060728434,0.092092462,1.6332045,0.037099078,0.056259401,0.99772668,0
-0.082752906,-0.57460666,-1.4906754,-0.051729314,-0.3591899,-0.93182975,0
-0.69213283,-1.5741246,-0.20377383,-0.39970702,-0.90905762,-0.11767948,0
0.50654364,-1.4421887,0.3864747,0.32127634,-0.91471118,0.24512237,0
-0.46448767,-1.1295575,-0.55174166,-0.34658745,-0.84284353,-0.41169387,0
-1.138455,0.032494534,1.0524158,-0.7341488,0.020954559,0.67866522,0
-1.0418661,-0.71784258,-0.86964971,-0.67861795,-0.46756572,-0.56644511,0
-1.2152014,0.7146219,-0.23366821,-0.85039443,0.50009036,-0.16352034,0
-0.95224732,0.046107139,-1.3574657,-0.57405829,0.027795495,-0.81834257,0
1.4484346,0.20166625,1.0645927,0.80074257,0.11148778,0.5885421,0
-0.96596467,1.1648476,0.052732196,-0.63794613,0.76929313,0.034825601,0
-0.017101374,-1.1681031,-1.1867808,-0.010269279,-0.70143932,-0.71265519,0
1.347942,0.55477488,0.29584458,0.90626335,0.3729924,0.19890551,0
0.63199329,-1.4854636,-0.45576203,0.37676516,-0.88556468,-0.27170423,0
-0.060889814,-0.13608953,1.7123759,-0.035424657,-0.079174578,0.99623114,0
0.82658648,1.2913361,0.27369696,0.53072482,0.8291257,0.17573208,0
0.53040135,-1.338264,-1.1593229,0.28696322,-0.72404146,-0.62722886,0
-0.95725173,-1.3278054,-0.10499981,-0.58360076,-0.80951357,-0.06401448,0
-0.69094956,-1.1694731,-0.39777115,-0.48817247,-0.82626081,-0.28103489,0
0.66381997,-1.2821445,-0.97566962,0.38094732,-0.73578614,-0.55990893,0
0.95659387,1.5493832,-0.38286439,0.51410127,0.83268338,-0.20576242,0
-1.4457241,0.090942331,-0.042308632,-0.99760199,0.062753499,-0.029194487,0
-0.34060934,1.4108251,0.54931736,-0.21948813,0.90913349,0.35397923,0
0.45826223,-1.5114833,-0.56997913,0.27291721,-0.90016103,-0.33945,0
0.85839063,-1.5062697,-0.38176399,0.48353887,-0.84849471,-0.21505095,0
0.13099748,-0.50545627,-1.5677694,0.07927534,-0.3058854,-0.94876212,0
0.57892132,0.72550201,1.2267648,0.37633136,0.47161704,0.79746598,0
0.37614694,-1.4014522,0.055865578,0.25903153,-0.96510231,0.038471524,0
0.74663997,0.80318844,1.4863504,0.40422034,0.43483487,0.80468911,0
0.33541563,1.2391508,0.77300018,0.22383299,0.82692277,0.51584637,0
1.4746102,-0.62014031,0.75432366,0.83375829,-0.35063308,0.42650157,0
-1.5248464,-0.96557355,0.53337008,-0.81022108,-0.51305366,0.28340405,0
-1.6845404,0.18688129,0.44814304,-0.96088082,0.1065992,0.25562584,0
0.75700384,0.28034118,1.4966993,0.44516122,0.16485652,0.88014418,0
1.155435,0.35601479,-1.0860873,0.71093768,0.21905544,-0.66826814,0
-0.031301346,-1.1954181,1.1294705,-0.019029289,-0.72674054,0.68664843,0
-1.6800834,0.47690231,-0.037177432,-0.96177673,0.27300641,-0.021282509,0
1.738243,-0.058472198,-0.41570723,0.97205371,-0.032698601,-0.23247023,0
0.37211099,-1.558676,-0.76934791,0.2093343,-0.87684685,-0.43280342,0
0.032089747,-1.1686786,-1.3357068,0.018077793,-0.65837634,-0.75247186,0
-0.73340547,-0.16787037,-1.4425542,-0.45078033,-0.10317985,-0.88665152,0
1.6191682,-0.59856153,0.18839912,0.93242526,-0.34469172,0.10849281,0
0.13765973,0.046286296,1.72936,0.079322316,0.026671099,0.99649215,0
1.6155173,-0.24732003,0.23502177,0.97841907,-0.14978647,0.14233819,0
-0.93904132,-0.1832978,-1.3683789,-0.56240529,-0.10977968,-0.81954175,0
-1.1893355,-0.92830145,-0.36221385,-0.76652217,-0.59828675,-0.23344544,0
0.54860193,-0.24798338,-1.478802,0.34359398,-0.15531407,-0.92618608,0
-1.108514,0.92788839,0.66453731,-0.69672543,0.58319831,0.41767633,0
0.74848992,1.5373147,0.79089737,0.39730802,0.81602627,0.41981843,0
-0.93352497,1.3863993,0.54486573,-0.53102511,0.78863752,0.3099407,0
-1.2414412,0.51391196,0.54570591,-0.85604894,0.35437343,0.3762973,0
0.63306135,-0.9477517,1.2292105,0.37765554,-0.56538546,0.73329097,0
-0.84761113,-1.1339325,-0.061870411,-0.59814525,-0.80019748,-0.043660931,0
-1.6015029,-0.166944,0.2234244,-0.98517185,-0.10269637,0.13744055,0
-1.7662921,-0.56582344,0.013695506,-0.95230269,-0.30506572,0.0073839813,0
-1.4143192,-0.90692365,0.49394,-0.80761743,-0.51787984,0.28205413,0
0.69355309,-1.0580533,0.98250544,0.43297967,-0.66053426,0.61337036,0
-1.0352752,1.2762481,-0.20315191,-0.62521881,0.77074605,-0.12268659,0
1.0574863,1.0200436,-0.690786,0.65133744,0.62827533,-0.42547575,0
0.1226871,-1.2789171,-0.88792658,0.078556947,-0.81889474,-0.56854224,0
-1.290482,-0.59329355,1.0606085,-0.72800255,-0.33469602,0.59832346,0
0.72321594,-0.65970242,-1.4746264,0.40860495,-0.37272087,-0.83313936,0
0.94999009,-0.79328424,-0.85671085,0.63112384,-0.52701664,-0.56915396,0
1.0245459,-1.395708,-0.23720695,0.5862726,-0.79866147,-0.13573617,0
0.32167289,0.96372265,1.4501069,0.18167393,0.54428983,0.81898916,0
-0.30871552,1.4499942,-1.1492193,-0.16458115,0.77301496,-0.61266708,0
0.71825796,1.5469707,-0.72378349,0.38766038,0.83493578,-0.39064264,0
0.5425719,-1.4529008,-0.85460699,0.30640295,-0.82048684,-0.48261642,0
-0.97210056,-0.021007692,-1.3553201,-0.58278471,-0.012594338,-0.81252897,0
-1.7013375,-0.52349979,0.53113437,-0.91587579,-0.28181404,0.28592393,0
0.85581148,0.69135594,1.1908602,0.52786309,0.42642719,0.73452049,0
-0.10421139,1.2007328,-1.0386744,-0.065498196,0.75467598,-0.65282017,0
1.5882932,-0.78177345,-0.52562404,0.86009318,-0.42334628,-0.28463614,0
0.77299029,0.73386127,1.0341834,0.52048773,0.49414045,0.69636029,0
-0.80709195,0.052448846,1.5598432,-0.45934233,0.029850347,0.8877576,0
0.59623486,-1.0668651,1.0397753,0.37157211,-0.6648677,0.6479854,0
1.2960483,1.0590049,-0.88700825,0.68421721,0.55907589,-0.46827444,0
0.38387769,1.3672261,-0.98195511,0.22234061,0.79189253,-0.56874496,0
-0.96517867,-1.0006323,0.73608363,-0.61355072,-0.63608807,0.46791819,0
0.14122184,-0.193803,1.8200244,0.076928526,-0.10557134,0.99143165,0
-0.8782897,-1.2037745,0.037344355,-0.58922261,-0.8075822,0.025053395,0
-1.6566442,0.22615591,-0.13769418,-0.98746735,0.13480358,-0.082074657,0
0.88732874,1.2844813,0.70478064,0.51803303,0.74989533,0.41145927,0
0.43192253,0.48198426,-1.2928748,0.29873911,0.33336428,-0.89421654,0
1.4500477,-0.50263971,0.75745606,0.84726793,-0.29369414,0.44258422,0
0.65139824,0.41875991,1.3137656,0.42714319,0.2745946,0.86147922,0
-1.2224585,1.2480128,-0.29489687,-0.68999356,0.70441723,-0.16644897,0
1.2302866,0.41863468,-0.61701947,0.85519648,0.29100123,-0.42890239,0
1.3886236,0.21878128,0.5763129,0.91398817,0.14400122,0.37932754,0
-1.2314093,-0.82419956,-0.97926241,-0.69331133,-0.46404302,-0.5513469,0
-1.2798361,-1.1362823,-0.62810045,-0.70201784,-0.62327552,-0.34452671,0
-1.2489159,1.104857,0.10660403,-0.74745673,0.66123968,0.063800856,0
-1.7726868,-0.018847603,-0.15751262,-0.99601972,-0.010589904,-0.088501632,0
1.6138149,-0.2949138,0.24575628,0.9728542,-0.17778254,0.14814897,0
-0.73074311,-1.3310378,-0.36570457,-0.46786913,-0.85221672,-0.23414779,0
0.50962484,0.79741502,1.3522521,0.30876863,0.48313332,0.81929487,0
-1.3486993,0.30818179,0.72900736,-0.8624593,0.1970745,0.46618187,0
-0.82576096,-1.135868,-0.86505306,-0.50065488,-0.68867123,-0.52447748,0
-0.22889487,-1.568608,-0.54934329,-0.13643312,-0.93497115,-0.32743689,0
0.9190439,0.87634814,-0.76449972,0.62002981,0.59122527,-0.5157671,0
0.77393019,-1.5947318,0.220111,0.4332779,-0.89279634,0.12322717,0
0.99425662,0.82782531,1.2214051,0.55881178,0.46527076,0.68647832,0
0.51204139,-0.0019616096,-1.7789878,0.27659786,-0.001059635,-0.96098518,0
-0.074004315,-1.4548941,0.16048704,-0.050494608,-0.99270302,0.10950349,0
0.36138886,-1.2578009,-1.0792238,0.21304703,-0.74150252,-0.63622719,0
-0.29609385,0.568434,1.5793198,-0.1737214,0.33350626,0.92660367,0
1.1647073,0.2719689,-1.0195507,0.74108642,0.17304988,-0.64872539,0
-1.0073066,-1.188199,0.9385584,-0.5538854,-0.65335232,0.516083,0
-1.1419185,0.23724651,1.1985912,-0.68280679,0.14186086,0.71669406,0
0.15901367,1.4795188,0.18823819,0.10601631,0.98641282,0.12550065,0
-0.47235781,0.19332238,-1.6338241,-0.27596018,0.11294251,-0.95451033,0
1.5618405,-0.71659648,-0.1049252,0.90720916,-0.41624153,-0.060946748,0
-1.3505085,-1.0017797,-0.62758631,-0.75245702,-0.55815732,-0.34966958,0
0.68816155,-1.5888222,-0.23593841,0.39380851,-0.90922213,-0.13501851,0
0.49998036,-1.1342379,0.9994809,0.31399769,-0.71232408,0.62769401,0
0.53049701,1.3140328,-0.45466655,0.35646152,0.88294959,-0.30550808,0
1.4823415,-0.29264754,-1.0849105,0.79691058,-0.15732807,-0.5832507,0
0.1748479,-0.48419714,1.3331299,0.12235044,-0.33881867,0.9328624,0
1.3530619,0.23024359,-0.4764412,0.93131304,0.15847676,-0.32793465,0
1.6471192,-0.052791946,-0.50789714,0.95515299,-0.030613683,-0.29452604,0
-0.82865763,-0.11320261,1.2784338,-0.54242009,-0.074099801,0.83683312,0
-1.3307581,0.8879385,0.67778277,-0.76592487,0.51105773,0.39010146,0
-1.3807216,0.68183535,-0.34842363,-0.87452435,0.43186232,-0.2206853,0
1.4741992,-0.14161892,0.21782596,0.98482209,-0.094606921,0.14551617,0
0.29949659,-1.5066227,0.71496201,0.17676321,-0.88921028,0.42197135,0
-0.50051922,0.79554868,-1.4030112,-0.29638541,0.47108886,-0.83080137,0
1.472411,-0.94955838,0.2325978,0.83308715,-0.53725815,0.13160336,0
-1.2262255,-1.0360585,0.50917625,-0.72810459,-0.61518782,0.30233717,0
0.57069266,0.32091996,-1.6431261,0.32264966,0.18143693,-0.92896605,0
-0.69598448,0.76899904,1.2776221,-0.42293093,0.46729988,0.77637637,0
-1.0563871,0.52376461,1.0556726,-0.66748703,0.33094504,0.66703558,0
-0.87952858,-0.13599962,-1.2490845,-0.57346326,-0.08867339,-0.81441814,0
0.69770306,-0.013895347,1.587683,0.40230179,-0.0080121802,0.91547209,0
0.13163969,-0.43601957,1.8045756,0.070729725,-0.23427239,0.96959466,0
-0.052429948,-0.87453765,1.5552959,-0.029371204,-0.4899151,0.87127525,0
0.062083922,1.5913298,0.47416586,0.037363239,0.95769131,0.28536168,0
-0.3890115,-1.1072347,-0.78263044,-0.27577618,-0.78493553,-0.55481863,0
-1.4242293,-0.034592807,0.5176394,-0.93960416,-0.022821849,0.3415013,0
-1.7496006,0.05702398,0.38537058,-0.97609639,0.031813487,0.21499696,0
0.94279784,-1.3173703,0.15087688,0.57947373,-0.80969793,0.092733756,0
-1.1257831,-0.26259395,1.2478722,-0.66182148,-0.15437283,0.73359483,0
-0.6976341,1.0673218,-0.95989382,-0.43710986,0.66874152,-0.60143143,0
-0.97902006,-1.5038993,-0.087903187,-0.54491675,-0.83706146,-0.048926394,0
0.24529497,0.98639715,-1.1058867,0.16330752,0.65670353,-0.73625481,0
-0.56060988,1.3769313,-0.037267856,-0.37696955,0.92588657,-0.025059935,0
0.21525502,-0.93504292,1.2611353,0.13583794,-0.59006435,0.79584688,0
-0.65764982,0.5070585,1.4881771,-0.38590044,0.29753539,0.87324309,0
0.71580178,-0.45859617,-1.2814207,0.46548185,-0.29822251,-0.83330065,0
-0.51441723,-0.87843585,-1.3870038,-0.29899621,-0.51057577,-0.80617219,0
1.3740845,-0.22084586,0.52639991,0.92347854,-0.14842349,0.35377666,0
-0.86369532,0.42468363,1.3974829,-0.5090006,0.25027832,0.82357699,0
0.12074588,-0.011697245,1.4886788,0.080841459,-0.0078315083,0.99669623,0
0.72586727,0.40072408,-1.4265199,0.43992585,0.24286656,-0.8645699,0
-1.0145756,-0.069431737,1.3270491,-0.60684049,-0.041528687,0.79373801,0
-1.1602488,-0.74129045,0.94926202,-0.69377941,-0.44326016,0.56761831,0
-0.16777255,-1.0945499,-1.4099959,-0.093579203,-0.61051172,-0.78645939,0
-0.5097065,0.33055788,1.5803139,-0.30105591,0.19524255,0.93340546,0
-0.28529975,-1.0992543,-1.17424,-0.17464654,-0.67290968,-0.71881229,0
0.59393561,0.0072812056,1.7174729,0.32682574,0.0040066387,0.94507611,0
0.94211251,-0.037231583,1.2882609,0.59013826,-0.023321824,0.80696529,0
0.97958118,1.3004686,0.14245145,0.59937161,0.79571146,0.087161079,0
0.42466295,-0.7895155,1.5949912,0.23209888,-0.43150845,0.87173998,0
-1.15962,-0.5343017,1.1891021,-0.66463304,-0.30623356,0.68153059,0
-0.35531083,-1.6138922,-0.57273155,-0.20315368,-0.9227643,-0.32746688,0
-0.62587607,1.6712407,0.38394514,-0.34286577,0.91553462,0.2103318,0
1.0694685,1.0189821,0.38648266,0.70041329,0.66734886,0.25311413,0
-1.4034111,-0.22277124,0.69457287,-0.88730747,-0.14084724,0.43914407,0
1.1009088,-1.1611661,-0.55503684,0.6500302,-0.68560904,-0.32772079,0
1.037796,-1.1441232,-0.08368434,0.67086768,-0.73960131,-0.054096486,0
0.63366836,0.33435297,-1.4244217,0.39741865,0.20969661,-0.89335644,0
-1.0696334,-0.43119082,0.98457319,-0.70538348,-0.28435433,0.64928943,0
1.3663657,1.2658296,-0.42296132,0.71536726,0.66273111,-0.22144341,0
0.17732464,-1.6519761,-0.29129949,0.10512432,-0.97934985,-0.17269264,0
-1.2928632,-0.3406834,-0.93969464,-0.79113257,-0.20847195,-0.57502061,0
0.7422905,-1.3097789,-0.36733761,0.47900146,-0.84520286,-0.23704366,0
0.5234068,1.4273391,0.70368993,0.31243679,0.85202032,0.42005304,0
0.82958484,1.1652609,0.25524348,0.57094836,0.80197197,0.1756672,0
0.53583324,1.3131992,-1.2553737,0.28289762,0.69331443,-0.66278499,0
-0.35345846,1.2205596,-0.88725322,-0.2280654,0.78755343,-0.57249093,0
0.11161549,1.6035103,-0.0033579783,0.0694388,0.99758404,-0.0020890827,0
-0.018573005,0.72214961,1.4792506,-0.01128224,0.43867245,0.8985762,0
1.800532,0.03517716,-0.40717503,0.97519368,0.01905245,-0.22053178,0
0.48952311,0.93254328,-1.3459684,0.28642756,0.54564553,-0.78754699,0
0.10855436,1.4917645,0.26447847,0.071468495,0.98212689,0.17412362,0
1.1915445,-1.1013277,0.041236665,0.73412377,-0.67854017,0.025406366,0
1.2857641,-0.67669266,-0.19878896,0.87675756,-0.46143413,-0.13555342,0
0.49801284,0.68171459,1.4496282,0.29686919,0.40637517,0.86413425,0
-0.88114357,-1.3445685,0.40973762,-0.53114069,-0.81048661,0.24698396,0
1.232259,1.2622992,0.21307056,0.69350052,0.71040672,0.11991354,0
-1.4954022,0.94671792,-0.39725181,-0.82440293,0.52191776,-0.21900165,0
0.91816801,-1.0022687,-0.94123107,0.55534559,-0.60621315,-0.56929511,0
0.57089871,-0.53104645,-1.6427803,0.31395262,-0.29203677,-0.90340924,0
-1.5492401,-0.096802093,-0.29756811,-0.98020542,-0.061246756,-0.18827157,0
-1.5289649,-0.47550792,0.54419583,-0.90409738,-0.28117418,0.32179028,0
-0.30803925,1.5539314,-0.81980222,-0.17269459,0.8711732,-0.45960185,0
0.80834985,-0.64031696,-1.2154034,0.5071398,-0.4017199,-0.76251572,0
1.3718338,-0.13212541,0.60415685,0.91164517,-0.087803267,0.40148935,0
1.3328366,-1.3711306,0.1109625,0.69585216,-0.71584481,0.057931703,0
-1.0956757,-0.26783964,-0.97835636,-0.73381341,-0.17938183,-0.65524042,0
0.58443892,0.98317289,-1.0203769,0.38129729,0.64143771,-0.66571021,0
-1.4408834,0.22497019,-0.3990998,-0.95298749,0.14879328,-0.26396105,0
0.53987509,0.62751901,-1.5990955,0.29982182,0.34849522,-0.88806415,0
0.18090831,-1.6723042,-0.60384291,0.10122647,-0.9357307,-0.33787772,0
0.81459653,0.55804694,-1.3676653,0.48290741,0.3308202,-0.81077647,0
-1.2460806,0.38432938,-0.48468775,-0.89570826,0.2762638,-0.34840345,0
-0.16239512,-1.3938881,1.1668515,-0.088980772,-0.76374978,0.63935018,0
1.5160638,-0.12491136,-0.89323974,0.85941434,-0.070808768,-0.50635272,0
0.35582814,-0.27140209,1.4330406,0.23701459,-0.18077901,0.95453817,0
-0.83597708,1.397977,0.71599942,-0.46983898,0.78569627,0.40240869,0
0.9060958,0.83884794,1.2903301,0.50734591,0.46969214,0.7224884,0
0.65053964,0.3143889,1.4388593,0.40404174,0.19526288,0.89365691,0
-1.4207728,0.47161558,0.8525368,-0.82471651,0.27375889,0.49487236,0
-0.52785021,-1.3456674,-0.61673898,-0.33587575,-0.85626,-0.39243644,0
1.045258,0.40927461,1.2767763,0.61483341,0.24074027,0.75101525,0
-0.3585501,-1.1703249,1.1078528,-0.21718121,-0.70889002,0.67104936,0
0.30829722,0.2709392,1.7435772,0.17211449,0.15125847,0.97339481,0
0.29414648,0.77721024,1.1185583,0.21108966,0.55775285,0.80271596,0
-1.7011178,0.63530493,-0.36229336,-0.91869533,0.34309891,-0.19565795,0
1.0669187,1.2361079,0.22169125,0.64745921,0.75013161,0.13453324,0
-1.7004223,0.52980709,0.14108868,-0.9517498,0.29654032,0.078969277,0
-1.1004144,-0.23741443,-1.2146106,-0.66447473,-0.14336045,-0.73343104,0
-1.0317589,-0.97145623,-0.90806085,-0.61301082,-0.57718247,-0.53951663,0
0.77663964,1.4857893,-0.50095451,0.44385245,0.84913415,-0.28629738,0
0.60167003,1.2881726,-0.31177106,0.41336551,0.88501358,-0.21419616,0
1.1287805,-0.2450403,-1.3541838,0.63418597,-0.13767169,-0.76082498,0
0.66669095,-0.91391742,-1.3895286,0.37208092,-0.51005828,-0.77549744,0
-1.2061706,-1.2968022,-0.085396603,-0.68026602,-0.73138118,-0.04816268,0
