-0.48926812,-1.5756934,0.27707925,-0.29244766,-0.94183087,0.16561712,0
0.64139152,-1.290482,0.57553816,0.41333061,-0.83162266,0.37089285,0
1.0941998,0.0082837408,1.1398361,0.69250816,0.0052426974,0.72139096,0
-0.31788805,1.2580703,0.6130178,-0.22150542,0.8766275,0.42715278,0
-0.88980281,0.92896032,-0.19571903,-0.68385249,0.71394676,-0.15041867,0
-0.10321406,1.1375213,0.93744022,-0.069850899,0.76982617,0.6344198,0
-0.52838933,-0.78896093,1.3514901,-0.31990242,-0.47766009,0.81823176,0
-0.50000191,0.18189509,1.2336326,-0.37216941,0.13539106,0.91823703,0
-0.056110833,0.85180926,1.4153802,-0.033947211,0.515347,0.856309,0
-0.076970696,-1.1199409,0.96797633,-0.051927038,-0.75555003,0.65302962,0
-0.10831093,-1.4144487,-0.92220807,-0.064013548,-0.83596259,-0.54504025,0
-0.82965839,-0.23957039,1.3125633,-0.52805406,-0.15247977,0.83540934,0
0.14967985,-1.3560171,0.19491759,0.10861263,-0.9839707,0.14143863,0
0.18919951,-1.1049771,-1.014701,0.12512524,-0.73076582,-0.67106259,0
0.24286775,-0.76194495,-1.4675457,0.14531688,-0.45590025,-0.87808764,0
-0.10481203,1.5480691,0.17298459,-0.067134425,0.99157256,0.11080046,0
1.2113153,0.7667948,-0.69601464,0.76009244,0.48115873,-0.43674463,0
0.90408474,0.4373126,-0.90779215,0.66782653,0.32303274,-0.67056513,0
0.60514486,-0.99774426,0.78288209,0.43064553,-0.71003515,0.55713052,0
0.68356276,1.0569735,1.0836103,0.41155618,0.63637751,0.65241492,0
-0.27505267,-0.90238571,-1.2919052,-0.17194241,-0.56410426,-0.80760276,0
0.2587347,0.6713928,1.153132,0.19035804,0.49396166,0.84839004,0
1.1512963,-0.32963553,-0.56523216,0.86939692,-0.24892299,-0.42683288,0
-1.3888023,0.89703214,-0.34989396,-0.82181042,0.53081018,-0.20704639,0
1.2379526,0.11829419,0.74341112,0.85443521,0.081646688,0.51310259,0
-1.0566683,-1.099039,-0.69733113,-0.63027638,-0.65554941,-0.41594067,0
0.54073799,-0.8387652,0.87879127,0.40665051,-0.63077557,0.66087633,0
-0.51279277,-0.25987166,1.3163489,-0.35699692,-0.18091787,0.91641796,0
-1.1092808,0.9158808,-0.10355162,-0.76913595,0.63503921,-0.071799017,0
-1.6098523,-0.18688211,-0.3603276,-0.96965235,-0.11256354,-0.21703389,0
-1.2682549,-0.57824022,-0.74832165,-0.80166316,-0.36550531,-0.4730137,0
1.2279329,-0.30468053,0.69932169,0.84943992,-0.21076705,0.48376563,0
0.12492824,1.0763276,0.77297294,0.09386006,0.80865759,0.58074367,0
-0.96269065,-0.25639179,1.2052089,-0.61566418,-0.16396882,0.77076054,0
0.8279075,-1.0609523,-0.8011837,0.52861297,-0.67741042,-0.51155001,0
-1.4208236,-0.65501821,-0.22980276,-0.89850026,-0.41422036,-0.14532265,0
0.32381874,-1.1089871,1.2017531,0.19425127,-0.66525531,0.72090352,0
0.42120871,-1.4209535,0.2470814,0.28033432,-0.94571179,0.16444436,0
-0.24121642,-1.1226656,0.77299291,-0.17426087,-0.81104219,0.55842972,0
0.72400075,-1.0309685,-0.67667043,0.50628728,-0.72094715,-0.47318962,0
1.575623,0.60728967,0.23296034,0.92433625,0.35626534,0.13666575,0
1.2938625,-0.90405715,-0.2410832,0.81032431,-0.56619579,-0.15098636,0
0.66255099,-0.57376993,-1.397621,0.40161759,-0.3478013,-0.84719396,0
-0.37864068,-1.2076722,0.54394567,-0.27485994,-0.87666416,0.39485687,0
1.4581577,-0.13825193,0.29408246,0.97605598,-0.092542544,0.19685179,0
-1.1915158,-0.18086155,0.67456049,-0.86272609,-0.13095418,0.48842067,0
0.75248903,-1.2619112,-0.20675687,0.50716573,-0.85050821,-0.13935088,0
-1.2733952,0.48080373,-0.72912794,-0.82466877,0.31137532,-0.4721936,0
0.25452337,-0.20364921,1.3716146,0.18053657,-0.1444509,0.97290313,0
-0.37556362,-0.16560444,-1.5449216,-0.23494507,-0.10359882,-0.96647203,0
0.94275546,-0.1671169,-1.2883781,0.58731717,-0.10411038,-0.80263293,0
0.5853098,0.66713101,1.2417614,0.38348025,0.43708742,0.8135708,0
0.42592067,-1.1714115,-0.40728617,0.32480913,-0.89332396,-0.31059837,0
-0.82000303,-1.0180688,-0.02635166,-0.62715203,-0.77863604,-0.020154191,0
-0.83926445,-1.2682734,-0.74448234,-0.49564949,-0.74901187,-0.43967345,0
0.63001519,-0.64492083,1.092611,0.44475028,-0.45527267,0.77131319,0
-1.1666037,-1.0064561,0.03960776,-0.75691485,-0.65300804,0.025698274,0
0.85508215,1.1678365,-0.23606785,0.58306146,0.79632169,-0.16096939,0
0.40250763,0.88953394,1.3024086,0.24727942,0.54648262,0.80013096,0
-0.59903562,1.5614297,0.08890944,-0.35768506,0.93233204,0.053087961,0
0.075663425,1.2912304,-0.89217943,0.048153378,0.82175905,-0.56779683,0
1.1592696,0.41808823,-0.85637283,0.77248967,0.27859685,-0.57065171,0
-1.1272904,-0.70150435,-0.82576519,-0.72096789,-0.44865289,-0.52812493,0
-0.37918121,-1.4414167,0.14639276,-0.25318775,-0.96246612,0.09774971,0
-1.0940477,-0.04023717,-0.69139129,-0.84493625,-0.031075286,-0.53396356,0
0.07850343,-1.4041358,-0.47285166,0.052910786,-0.94637811,-0.31869885,0
-0.89578408,-1.3378826,0.15274613,-0.55387294,-0.82722723,0.094444573,0
1.1048282,0.78541917,-0.42824444,0.7771771,0.55249292,-0.30124298,0
0.86227137,0.46769595,0.97089666,0.62475365,0.33886635,0.70345747,0
-1.3372113,-0.85018533,-0.031519286,-0.84371382,-0.5364247,-0.019887103,0
-0.18721743,1.4034668,0.79868937,-0.11516605,0.86333698,0.49131057,0
1.4079001,0.41763288,-0.025216766,0.95856827,0.28434518,-0.017168825,0
1.436379,0.032612789,-0.075589247,0.99836159,0.022667665,-0.052538641,0
-0.22333761,0.41692266,-1.3223816,-0.15902473,0.29686454,-0.94158518,0
-1.1962258,0.76503271,0.74471837,-0.74606371,0.47713664,0.46446699,0
-1.0124192,-0.8975789,-0.27574849,-0.73319876,-0.65003085,-0.19969836,0
0.89669651,-0.05718568,1.1554923,0.61261177,-0.039068535,0.7894178,0
-1.4798577,0.72576827,0.082571059,-0.89671284,0.43977588,0.050033547,0
1.3152421,0.837246,0.11543477,0.84127927,0.53553462,0.073836505,0
-1.3999882,0.6456719,-0.095405996,-0.9063431,0.41800374,-0.061765213,0
0.80244327,0.084932588,1.3676935,0.50531989,0.053484313,0.86127305,0
-0.76441258,1.5607493,0.26831988,-0.43470016,0.88755465,0.15258604,0
0.91969675,1.4316086,0.18439353,0.5373525,0.83644795,0.10773586,0
-0.14474604,-1.3359903,0.68251556,-0.096036442,-0.886406,0.45283705,0
-0.11389847,-1.1168928,1.195786,-0.069440909,-0.68094027,0.72903937,0
0.44531444,-0.37098256,1.1622763,0.34287238,-0.28564012,0.89490122,0
1.0681927,-0.74086767,-1.0586261,0.63716125,-0.44191664,-0.63145483,0
-1.1864467,-0.51181227,-0.18418385,-0.90901947,-0.39213505,-0.14111608,0
0.0054574492,-0.62738836,1.081109,0.0043660393,-0.50191987,0.86490309,0
0.76255769,0.46948507,-1.3859888,0.46212429,0.28451678,-0.8399353,0
-0.23204224,-0.45833704,-1.6599499,-0.13353968,-0.26377171,-0.95529664,0
-0.085437402,1.5492311,-0.20229067,-0.054602478,0.9901033,-0.12928262,0
-1.1225356,0.42992234,-0.98072463,-0.72357827,0.27712482,-0.63216799,0
0.24245164,-1.0622921,0.85689455,0.17490537,-0.76634085,0.61816645,0
-1.0234118,-0.75749737,0.58403218,-0.73058593,-0.54075688,0.41692477,0
1.2238008,-1.2231936,-0.13266009,0.70521253,-0.70486271,-0.076445088,0
0.49506971,-0.0055840886,-1.4051306,0.33230519,-0.0037482025,-0.94316453,0
0.1353548,1.1542754,0.88675135,0.092591546,0.78959996,0.60659599,0
-0.59923011,-1.1085448,0.58825487,-0.43088987,-0.79712403,0.42299786,0
0.14078529,1.4268148,0.037710056,0.098160237,0.99482322,0.026292719,0
0.059677877,-1.2633924,-0.78934187,0.040028092,-0.84740257,-0.52943987,0
0.23056036,1.3888787,0.52088469,0.15358876,0.92520738,0.34698951,0
-1.1306499,-0.65833741,-1.0149505,-0.6828137,-0.39757824,-0.61294132,0
-1.3701743,0.22448651,1.0394627,-0.78998446,0.12942941,0.59931016,0
0.439089,1.5267602,-0.42175114,0.26713845,0.92886949,-0.25659025,0
1.1050215,-0.30000576,0.95686418,0.74053109,-0.20104912,0.64124334,0
1.5297079,-0.69685102,0.018635625,0.90996754,-0.41453129,0.011085655,0
-1.3160024,0.5508604,0.32115322,-0.89992696,0.37669697,0.21961544,0
-1.3818951,0.83866131,0.41895828,-0.8275395,0.50222725,0.25089064,0
0.57683057,-1.105907,-1.0179981,0.35828096,-0.68690085,-0.63229895,0
-0.79968929,1.4347429,0.2586953,-0.48092848,0.86284602,0.15557785,0
-0.73939455,1.4946876,-0.24802522,-0.43857148,0.88657314,-0.14711604,0
-0.032066155,1.2839607,0.57198811,-0.022807129,0.91322011,0.4068279,0
0.68875831,-0.78650182,-1.1712075,0.43871734,-0.50097686,-0.74602228,0
-1.3983775,0.21020478,0.33569321,-0.96215045,0.14463091,0.23097295,0
-0.83750951,-0.24939065,-1.358169,-0.5185802,-0.15442099,-0.84096897,0
-1.041788,-0.7980662,-0.55368686,-0.73140788,-0.5602982,-0.38872683,0
-0.87120968,0.97624886,0.6110453,-0.60328621,0.67602259,0.42313027,0
-0.39176831,-1.4066634,-0.32014862,-0.26207262,-0.94098467,-0.21416278,0
1.2759211,-0.84425265,-0.41302589,0.80514133,-0.53274667,-0.2606307,0
1.1769648,-0.24240692,-0.93072242,0.77434385,-0.15948337,-0.61233705,0
-0.30727097,0.9337737,-0.80289739,-0.24208881,0.73568994,-0.63257676,0
-0.53649282,0.17238624,1.5252182,-0.32994911,0.10601947,0.93802637,0
1.5606793,0.34038958,-0.070355229,0.97608542,0.21288761,-0.044001807,0
0.23328365,1.3821348,0.57332307,0.15404329,0.9126597,0.37858018,0
0.32807404,-0.94645196,1.1745839,0.21252263,-0.61310083,0.76088208,0
-0.036495697,1.3639121,0.92675775,-0.022126863,0.82692206,0.56188107,0
0.27510142,-1.0453174,1.1218165,0.17659244,-0.67100763,0.72011375,0
-0.32635245,1.078024,-0.7932263,-0.23689504,0.78252375,-0.57579279,0
0.73597062,0.57048374,1.0180776,0.53342599,0.41348234,0.73789501,0
0.66816556,-1.3820697,0.20019276,0.43160132,-0.89274746,0.12931445,0
0.21844646,1.5494133,0.36440569,0.13596742,0.96439981,0.22681668,0
-0.64235616,0.12469818,1.4780862,-0.397387,0.077143244,0.91440278,0
-0.52567041,1.40061,0.10336568,-0.35054651,0.93400526,0.06893003,0
-1.3251103,0.56061625,0.6310994,-0.84340459,0.35682034,0.40168136,0
-1.4683292,0.0070842253,-0.071637116,-0.99880034,0.0048188968,-0.048729658,0
-0.86747628,0.038516141,1.3281227,-0.54668564,0.024272963,0.83698612,0
-0.49985987,-0.27118796,-1.3579893,-0.33951965,-0.18419892,-0.92238665,0
-0.25804073,-1.4366103,-0.11186422,-0.17627163,-0.98137087,-0.076416194,0
-0.38396084,-0.87535113,1.2347636,-0.24589108,-0.56058067,0.79075086,0
0.036270864,0.14568929,-1.3913863,0.0259177,0.10410371,-0.99422866,0
-0.97953337,1.1026409,0.44768074,-0.63550878,0.71537936,0.29044956,0
0.95914829,0.83419579,-0.87978011,0.62043953,0.53961211,-0.56909901,0
-0.67123634,1.360265,0.13342781,-0.44081348,0.8933115,0.087624542,0
-0.35511312,-1.239026,0.81263995,-0.23305909,-0.81316698,0.53333187,0
-0.64204872,0.67933464,1.2127602,-0.41931653,0.44366765,0.79204333,0
-0.86496758,-1.0991378,-0.4963645,-0.58281004,-0.74059254,-0.33444747,0
-0.7747581,1.1245816,0.83974034,-0.48327166,0.7014814,0.52380568,0
-1.1322517,1.0348793,-0.57141519,-0.69169939,0.63221401,-0.34908095,0
-1.1152312,-0.88988894,0.044838008,-0.78126752,-0.62340558,0.031410959,0
-1.2859451,0.63819617,0.58051389,-0.83042949,0.4121303,0.37488061,0
1.1008698,-0.68392175,-0.039593998,0.84902853,-0.52746391,-0.030536249,0
-1.2955658,0.39700404,0.30044839,-0.93344641,0.28603873,0.21647102,0
-0.60666531,-1.2754707,0.045898359,-0.42930195,-0.90257686,0.032479614,0
1.1594002,-1.0221543,0.13679259,0.74718875,-0.65873909,0.08815755,0
0.6490342,0.8203066,0.97071368,0.45481262,0.57483226,0.68023044,0
-0.61153108,0.85935545,1.093966,-0.40242553,0.56550938,0.71989775,0
-0.31683117,-0.16063277,1.4796395,-0.20821108,-0.1055626,0.97237068,0
0.4715572,0.51259249,-1.3700322,0.30682078,0.33352056,-0.89141744,0
-1.1567476,-1.1065242,-0.40399599,-0.70065087,-0.67023021,-0.24470347,0
1.3514664,-0.17432351,0.37653691,0.95595849,-0.12330757,0.26634303,0
0.64540213,-0.64065403,1.2142735,0.42543226,-0.42230242,0.80041742,0
-0.95426708,1.0899047,-0.026778702,-0.65862685,0.75224274,-0.018482428,0
0.62618864,1.0155311,-0.76090842,0.4425171,0.71765894,-0.53772134,0
0.79344833,0.9013921,0.83461845,0.54256052,0.61637259,0.57071269,0
0.30284587,0.13276,-1.319984,0.22255456,0.097562321,-0.97002631,0
1.1637031,0.17518198,-0.5965147,0.88201767,0.13277753,-0.45212266,0
1.4696043,-0.0087589389,0.44645751,0.95680565,-0.0057026255,0.29067218,0
-0.18679158,-1.4181173,-0.9209789,-0.1097986,-0.83358836,-0.54136372,0
-1.0374376,1.0852909,-0.40883219,-0.66671425,0.69746745,-0.26273799,0
0.23718707,1.1925353,-0.89562422,0.15706234,0.78968209,-0.59307128,0
0.67856604,-0.95607901,0.83909458,0.4706572,-0.66314173,0.58200067,0
-0.3515594,-1.0570178,0.76242131,-0.26043817,-0.78304768,0.56480813,0
0.86300135,-1.0054868,-0.36683178,0.62768453,-0.73131812,-0.26680681,0
-0.68652272,0.18429835,1.4841511,-0.41718808,0.11199494,0.90189314,0
0.034380868,1.345003,-0.82636708,0.02177445,0.85183138,-0.52336341,0
-0.8797785,-0.87900239,0.98381925,-0.55480802,-0.55431855,0.62041843,0
0.60029322,0.29815322,1.257481,0.42127079,0.20923649,0.88246876,0
-1.591082,-0.56822073,-0.019769643,-0.94168174,-0.33630139,-0.011700662,0
1.571638,0.023287376,0.67295128,0.9191885,0.013619859,0.3935824,0
0.076077648,1.2023292,1.15021,0.045674644,0.72184092,0.69055021,0
-0.91004246,0.50418186,-0.91736472,-0.65609467,0.36348966,-0.66137362,0
-0.86956686,0.83643121,-0.91306448,-0.57469493,0.55279565,-0.60344243,0
-0.015435988,-0.40544498,-1.4718978,-0.01011005,-0.26555276,-0.96404332,0
0.44730482,0.98561186,-0.86635232,0.32263982,0.71091932,-0.62489772,0
-0.90991569,-1.3226564,0.48814964,-0.54226464,-0.78823769,0.29091299,0
0.95887691,-0.91375631,-0.0035630676,0.72393161,-0.68986654,-0.00269004,0
-1.4932733,0.12094998,-0.37104422,-0.9675048,0.078364551,-0.24040279,0
0.72128212,-0.9053486,0.94607013,0.48247078,-0.60559416,0.63283306,0
-0.24047883,1.2748736,0.041576721,-0.18526559,0.98216629,0.032030825,0
1.4150829,-0.53237933,-0.22145125,0.92607278,-0.34840503,-0.14492436,0
0.58288753,0.38357905,-1.5181769,0.34885612,0.2295707,-0.90862352,0
-1.3282236,0.023888616,-0.35405231,-0.96611458,0.017375944,-0.25752825,0
-0.54256248,1.2985597,-0.10965617,-0.38435596,0.91991097,-0.077681385,0
-0.5976398,0.61658454,1.2817031,-0.38738316,0.39966291,0.83078504,0
0.12608452,-0.75178444,-1.0895927,0.094816759,-0.56534904,-0.81938404,0
0.41317359,1.2407336,0.93730485,0.2567994,0.77115202,0.58256221,0
1.3815399,-0.9846471,0.34141383,0.79833186,-0.56898475,0.19728822,0
0.42295176,-0.95416635,0.95709944,0.29867205,-0.67379504,0.67586631,0
0.34261811,-0.29361019,1.3449372,0.24151702,-0.20697054,0.9480679,0
-1.518092,0.56157225,-0.38744187,-0.91212022,0.33741131,-0.23278798,0
-0.65231675,0.12642585,1.1789092,-0.48203161,0.093422793,0.87115884,0
-1.339474,0.47741345,-0.15112704,-0.93668288,0.33385119,-0.10568187,0
0.065726086,-1.3784392,0.52933043,0.044468377,-0.93261224,0.35812971,0
-1.0897028,-0.94340789,-0.45475775,-0.72099763,-0.62420213,-0.30088869,0
0.72532028,-1.489707,0.43679056,0.42329606,-0.86939126,0.25491044,0
0.5536288,-1.0441412,1.0642871,0.34810179,-0.65651828,0.66918528,0
-1.0815406,0.95689166,-0.37793446,-0.72454458,0.64103991,-0.25318548,0
1.0943482,-0.96297979,0.36530718,0.72821105,-0.64079469,0.24308601,0
-1.2155826,0.40270978,-0.75310171,-0.81824893,0.27107731,-0.50693768,0
-1.1126798,-0.27012327,0.84746182,-0.78109926,-0.18962607,0.5949167,0
-1.3990591,-0.58281237,-0.5048967,-0.87578875,-0.3648313,-0.31605732,0
-0.58986294,0.73355627,-1.4439809,-0.34220845,0.42557198,-0.83772421,0
-1.5601683,-0.4028967,-0.020345263,-0.9681592,-0.25001672,-0.012625211,0
-1.4388943,0.070038922,-0.36002597,-0.96901482,0.047167297,-0.24245736,0
-0.23847036,-1.4589672,-0.46281567,-0.15394312,-0.9418276,-0.29876789,0
-1.329507,0.6541245,0.75444937,-0.79959422,0.3934046,0.45374215,0
-0.70575255,-0.53594303,1.2667193,-0.45652297,-0.34668002,0.81938982,0
1.4189296,0.54600388,-0.41588712,0.90021509,0.34640265,-0.26385233,0
0.4964723,-1.0645951,-0.99743724,0.32217219,-0.69084001,-0.64725977,0
-1.1288862,-0.79236507,-0.13339113,-0.81469929,-0.57183731,-0.096266262,0
-1.3012888,0.28488672,-0.76813376,-0.8462528,0.18526724,-0.49953195,0
-0.27246115,0.16475946,1.3707933,-0.19360746,0.11707599,0.97406846,0
0.82627916,1.1725565,0.21636418,0.56958503,0.80828691,0.14914788,0
-0.94506985,0.051239699,1.41098,-0.55624622,0.030158499,0.83047009,0
-1.2602556,-0.34910291,0.82762241,-0.8143273,-0.22557649,0.53477687,0
1.3911332,-0.62350452,0.70078599,0.82912683,-0.37161383,0.41767424,0
1.4108142,-0.55768532,0.045379736,0.92956257,-0.36744982,0.029899972,0
-1.1257468,0.46005434,0.87776864,-0.75059235,0.30674148,0.5852527,0
0.33878875,0.97871965,-0.93127406,0.24323983,0.70269042,-0.66862595,0
-0.15084387,0.77356625,1.2920024,-0.099671103,0.51113909,0.85369933,0
0.64129549,-0.03383502,1.3108983,0.43931985,-0.0231787,0.89803165,0
-0.034223635,-1.37867,0.60722226,-0.022711918,-0.91493028,0.40297246,0
1.1293654,1.1671865,0.12779504,0.69322473,0.71643996,0.078442886,0
0.50986743,-0.91205871,-1.0818515,0.33899242,-0.60639489,-0.71928394,0
-0.024419701,1.0806818,-1.0582851,-0.016142502,0.71437848,-0.69957328,0
-1.4051647,0.31108692,-0.63410765,-0.89347821,0.19780555,-0.40319926,0
1.3483795,-0.037703294,-0.76451951,0.86964375,-0.02431692,-0.4930805,0
1.032976,0.78189272,-0.050267227,0.79673964,0.60307777,-0.038771365,0
-1.5568801,0.21805425,-0.078308634,-0.98910743,0.13853288,-0.049750559,0
-0.0037333881,0.3273392,-1.5886045,-0.002301743,0.20181419,-0.97942114,0
-0.10915804,-1.3922185,-0.43077129,-0.074693076,-0.95264703,-0.29476193,0
-0.87303668,-1.0164148,0.3461237,-0.63086653,-0.73447323,0.25011304,0
-0.77230513,0.44592577,-1.2797027,-0.49513415,0.2858884,-0.82043284,0
-1.3934679,-0.51975268,-0.41386691,-0.90264797,-0.33668068,-0.26809093,0
-0.28648582,0.23219298,1.457346,-0.19057408,0.15445778,0.96944541,0
0.1298923,0.60421085,-1.3465402,0.087670796,0.40781206,-0.90884715,0
1.340714,0.60987538,-0.35592777,0.88478214,0.40247723,-0.23488867,0
1.1559186,0.76015365,0.5695321,0.77261549,0.50808638,0.38067502,0
-1.3023347,-0.73668551,0.79728007,-0.76815039,-0.43451598,0.47025621,0
-1.3895801,-0.48240316,0.57360482,-0.88013917,-0.30554691,0.36331266,0
-0.26404247,-0.21500611,-1.5551885,-0.16585277,-0.13505161,-0.97685921,0
0.90875894,-1.0308298,-0.078931652,0.66020745,-0.74889112,-0.05734333,0
1.0081847,0.29323468,0.92375314,0.72091526,0.20968118,0.66054142,0
-1.135659,-0.70842111,0.95703274,-0.69018292,-0.43053433,0.58162504,0
0.10598397,-1.1484567,-1.2146732,0.063274108,-0.68564683,-0.72517914,0
1.0471381,-0.87771088,-0.81626964,0.65791798,-0.55146664,-0.51286304,0
0.76559573,-0.39768094,-1.4391057,0.45628503,-0.23701262,-0.85768819,0
-0.7906881,0.98994374,-0.96582413,-0.49631801,0.62139153,-0.6062516,0
-1.0814254,-0.46675661,-0.76506764,-0.76996189,-0.3323251,-0.54471892,0
0.69327158,-1.3601496,-0.13971372,0.45222583,-0.88723499,-0.091136225,0
-1.5114261,-0.55460727,-0.57339853,-0.88437647,-0.32451579,-0.33551106,0
0.6110732,-0.12419867,1.064469,0.49533147,-0.10067453,0.86285079,0
0.79785907,1.0732234,-0.77156156,0.5167743,0.69512802,-0.49974135,0
-0.319399,0.97855592,-1.1607938,-0.20586988,0.63073206,-0.74819422,0
-0.3445223,0.37488022,-1.4773942,-0.22047088,0.23989789,-0.94543195,0
0.92962533,1.0183074,0.6620273,0.60778868,0.66576904,0.43283319,0
1.1793962,-0.92622161,-0.094343618,0.78491127,-0.61641866,-0.062787525,0
0.24347977,-0.17966683,-1.566818,0.15257826,-0.11258945,-0.98185718,0
1.1842725,1.1201303,-0.26835102,0.71685869,0.6780324,-0.16243707,0
-0.28245279,0.10901938,-1.4625196,-0.18911773,0.072994493,-0.97923762,0
-0.34785187,-1.3298482,-0.050392788,-0.2528888,-0.96680146,-0.036635626,0
0.94951081,-0.97369015,-0.6113497,0.63678366,-0.6529994,-0.40999797,0
-0.17928742,1.0202578,-0.98363501,-0.12550759,0.71421695,-0.68857968,0
-1.4987833,-0.70741522,-0.34699982,-0.88513625,-0.41777807,-0.20492762,0
0.97353929,0.7440573,0.84740829,0.65347028,0.49943471,0.56880718,0
1.0525751,-0.024660034,1.0179813,0.71871853,-0.016838346,0.69509721,0
0.859254,-0.82384843,-1.1750058,0.51371515,-0.49254751,-0.7024911,0
1.1268024,-0.68014258,0.45282626,0.8095544,-0.48865038,0.32533431,0
-1.3588021,-0.44593477,0.36302048,-0.92093396,-0.30223423,0.24603871,0
1.1427653,-0.64354712,0.42169151,0.82951003,-0.46713772,0.30609727,0
-0.47928575,0.51989675,-1.1433668,-0.35651678,0.38672528,-0.85049361,0
0.23657295,1.4144075,0.39936018,0.15892047,0.95014369,0.26827458,0
-1.3803241,-0.24797311,-0.14974155,-0.97868067,-0.17581849,-0.1061701,0
0.62841213,1.3182982,-0.1457932,0.42816865,0.89822263,-0.099336214,0
0.13392131,-1.4201543,-0.22434267,0.092744023,-0.98349416,-0.15536319,0
0.86257893,1.0189757,0.14928071,0.64210153,0.75852293,0.11112418,0
-0.82530731,0.91743654,0.891738,-0.5420723,0.60258394,0.5857048,0
-1.1578422,0.83046263,-0.14963885,-0.80814821,0.57964456,-0.1044446,0
-0.12627974,1.049359,1.0423412,-0.085068673,0.70690334,0.70217586,0
0.25324216,1.5719739,-0.074258648,0.15887488,0.98619902,-0.046587162,0
-0.77771491,-0.31187999,-1.2507697,-0.51658201,-0.20716022,-0.83079946,0
1.2180533,-1.0024515,-0.25495672,0.76224178,-0.627321,-0.15954857,0
-0.17807786,-1.4429703,0.89679164,-0.10424593,-0.84470791,0.52497751,0
-0.82588392,-1.4388765,0.023802884,-0.49775383,-0.86719972,0.014345814,0
1.4369957,-0.38514727,-0.54363525,0.90723437,-0.24315928,-0.34321925,0
-0.75828314,0.43044457,-1.2437029,-0.49923009,0.28339133,-0.81881535,0
-1.1278644,0.71367806,0.0092279939,-0.84501421,0.53469914,0.0069137625,0
0.19053909,-1.4379479,-0.54984617,0.12283058,-0.92696977,-0.35445705,0
0.23552705,-0.7164399,-1.5412256,0.13726567,-0.41754267,-0.89822948,0
0.35691062,1.3687871,0.039802819,0.25221336,0.9672628,0.028126936,0
-1.0832222,0.88004327,0.42074239,-0.7431069,0.60372311,0.2886357,0
-1.0835636,-0.36478898,0.74568671,-0.79381847,-0.26724434,0.54628998,0
-0.22590184,-1.2153811,-0.6673736,-0.16080275,-0.8651396,-0.4750537,0
-0.40969345,-0.41147006,-1.3864945,-0.27255279,-0.27373469,-0.92237973,0
-0.7651599,-1.0833142,0.11462746,-0.57477576,-0.81376809,0.086106293,0
-1.3940274,-0.057585254,-0.37902308,-0.9642027,-0.03982982,-0.26215777,0
-0.030159684,1.4180553,-0.33603212,-0.020690795,0.97284478,-0.23053198,0
-1.1741034,-1.103543,0.0062841927,-0.72865742,-0.68486714,0.0039000176,0
1.2832896,-0.79528689,0.2485728,0.8387152,-0.51977295,0.16245888,0
0.21860181,0.79775721,-1.2784976,0.1435575,0.52389336,-0.83959931,0
-0.011381854,-1.3294657,0.49919602,-0.0080145849,-0.93614936,0.35151115,0
-0.30051786,0.6247353,1.4007059,-0.19228512,0.39973432,0.89623594,0
-0.2355798,-0.78736585,1.1661537,-0.16512686,-0.55189472,0.81740153,0
-1.0953963,0.19588619,0.84726524,-0.78320092,0.1400573,0.60578889,0
-0.88816983,-0.085513458,1.0375969,-0.64901435,-0.062487446,0.75820559,0
-0.30562583,0.63854468,1.4674696,-0.18758124,0.39191389,0.90067571,0
-1.2169797,0.47011936,0.74054581,-0.81123692,0.31338087,0.49364674,0
1.414575,0.62276417,0.10826951,0.91299397,0.40194401,0.069879226,0
-0.056793902,1.0564256,0.73714948,-0.044045478,0.81929165,0.57168287,0
0.96709281,-0.59358215,-1.0312958,0.63070357,-0.38711318,-0.67257446,0
-1.2362871,0.15257673,-1.0702627,-0.75277811,0.092904322,-0.65168542,0
0.46302462,0.50299352,1.2739443,0.32025567,0.34790057,0.88113648,0
1.3276114,0.63456863,0.6243735,0.83055705,0.39698771,0.39060962,0
1.2222042,0.48486447,-0.25268453,0.91282344,0.36212906,-0.18872163,0
0.093660623,-0.2008722,1.529246,0.060612999,-0.12999557,0.98966014,0
1.2440671,0.84280729,0.37822089,0.80286157,0.54390764,0.24408571,0
0.17354165,1.6082083,-0.42581326,0.10375234,0.96147168,-0.25457361,0
0.25135523,0.10869619,1.5451281,0.16017963,0.069268167,0.98465443,0
1.1122726,-0.0082066394,-1.1528928,0.69430584,-0.0051227706,-0.71966189,0
0.76528257,-1.0256906,1.0044981,0.47040099,-0.63046759,0.61744112,0
-0.78443158,-0.0022843978,1.2518497,-0.53098387,-0.0015463152,0.84738046,0
-0.16260841,0.66087204,-1.3928605,-0.1048922,0.42630219,-0.89847875,0
0.66929477,0.6307739,1.1572359,0.45278198,0.42672235,0.78287703,0
0.61769992,0.83548552,0.92921126,0.44313759,0.59937686,0.66661566,0
0.9303053,1.1226935,-0.14434355,0.63494396,0.76625109,-0.098516114,0
-0.48256698,-0.28859317,1.6040848,-0.28390002,-0.16978286,0.94370258,0
-0.30026677,-1.5664042,-0.25004283,-0.18599221,-0.97026718,-0.15488234,0
-0.24895531,1.5881556,0.11718639,-0.15445644,0.98532087,0.072704583,0
-1.1422647,-0.80258965,0.13185354,-0.81459439,-0.57235861,0.09403,0
0.97100109,1.3281515,0.024879541,0.590119,0.80717462,0.015120365,0
-0.97422326,-0.40610942,0.83537787,-0.72375625,-0.3017011,0.6206072,0
1.50612,-0.47119087,-0.21782301,0.94542116,-0.29577577,-0.13673179,0
-1.02776,0.98620903,-0.061456293,-0.72087121,0.69172734,-0.043105461,0
-0.32859904,1.3151902,1.1268632,-0.18640566,0.74607307,0.63924009,0
-0.85498857,1.0738833,-0.46768421,-0.58958292,0.74052829,-0.32250562,0
0.30660689,-0.37359649,-1.2569916,0.22767217,-0.27741557,-0.93338418,0
-1.3051189,1.0112125,-0.3249234,-0.77561241,0.60094827,-0.19309705,0
0.12454706,1.1256422,-0.7033506,0.093423262,0.84434885,-0.52758616,0
-1.231437,0.52990854,0.1785941,-0.91051942,0.39181218,0.13205174,0
0.14671919,-0.82553953,1.3781434,0.090950787,-0.51174951,0.854307,0
-0.54695636,1.5142952,0.17199485,-0.33779261,0.93520755,0.10622162,0
-0.78344238,-1.3420688,0.37071887,-0.49038348,-0.84004694,0.23204567,0
-0.29104671,-1.5946865,0.5506171,-0.17000483,-0.93148077,0.32162386,0
0.64081007,-1.2343866,-0.48341891,0.43520665,-0.83833456,-0.32831433,0
-0.10288531,0.59617722,1.2941705,-0.072018415,0.41731653,0.90590298,0
0.44685432,0.62778312,-1.3138716,0.29337114,0.41215545,-0.8625899,0
0.099853575,-0.35621384,1.509847,0.064234816,-0.22914882,0.97126961,0
-1.2628963,-0.78587401,0.025258815,-0.84891254,-0.52826053,0.016978849,0
-1.6009177,-0.13701493,-0.15111248,-0.99198025,-0.084898867,-0.093634166,0
0.87335002,-0.26489937,-1.1916943,0.5818395,-0.17648011,-0.7939254,0
1.0370557,-0.25762969,1.0878189,0.68009758,-0.16895267,0.71338785,0
0.55208558,0.045146998,-1.4564008,0.35431328,0.028974095,-0.93467778,0
-0.88970798,0.95834881,0.38809612,-0.65225488,0.70257622,0.28451762,0
1.1366911,-0.77212244,-0.76079029,0.72369272,-0.49158421,-0.48436943,0
-0.57873553,-0.30520442,1.4866964,-0.35629842,-0.18789905,0.91528434,0
0.24210958,-1.4109694,0.22118373,0.16713621,-0.9740386,0.15269041,0
-0.79195714,0.90073854,1.0187651,-0.50325781,0.57238418,0.64738542,0
0.35804498,1.1885036,0.38418016,0.27555528,0.91468519,0.2956692,0
-0.22197643,-0.1158587,-1.5165198,-0.14441699,-0.075377211,-0.98664182,0
-1.379003,-0.10488891,0.14870489,-0.99140519,-0.075407669,0.10690825,0
-0.68504745,0.97541243,-1.1797826,-0.40847564,0.58161259,-0.70347309,0
-0.42573497,-0.75873578,-1.1967398,-0.28774306,-0.51280957,-0.80884498,0
-0.45204344,-0.58282942,-1.3638613,-0.29154077,-0.37588981,-0.87960827,0
-0.901842,0.3476316,1.155562,-0.5986408,0.23075712,0.76705962,0
0.46027955,-1.2505794,0.32771248,0.33540791,-0.9113031,0.23880564,0
0.39209548,-0.25403616,-1.3075955,0.28237706,-0.18295029,-0.94169658,0
-0.52277505,0.63311398,-1.0930183,-0.38241205,0.46312544,-0.79954726,0
1.5401144,-0.5968079,-0.038086914,0.9321909,-0.36123216,-0.023053011,0
-0.62379897,-0.17123386,1.2650265,-0.43904057,-0.12051737,0.8903476,0
-1.1276309,0.9498688,-0.28646085,-0.75077659,0.63242257,-0.19072561,0
0.27181703,1.6577595,0.3338604,0.15870206,0.96789324,0.19492647,0
-0.65678793,1.1901742,0.96577495,-0.39387226,0.71374124,0.57917017,0
0.32152617,1.2766237,0.0248717,0.24418621,0.96954441,0.018889057,0
0.61961192,1.4136717,0.26915914,0.39546564,0.90227216,0.17179009,0
-0.33324835,-1.2064449,-0.84741575,-0.2204731,-0.79816943,-0.56064004,0
1.345654,-0.47300911,0.85145718,0.81006169,-0.28474373,0.51256329,0
0.98691911,-0.27892926,0.93489122,0.71116811,-0.20099479,0.67367715,0
-1.4284738,-0.43376663,0.34211642,-0.93268037,-0.28321528,0.22337495,0
0.75515223,-0.89057219,1.0962511,0.471497,-0.55604964,0.68447012,0
-0.32535291,1.3713231,-0.18862651,-0.22880645,0.96439147,-0.13265276,0
-0.6476469,1.0461096,-1.2659774,-0.36686426,0.59257627,-0.71712202,0
-0.69133979,0.36526361,1.4528903,-0.4190124,0.22138171,0.88057864,0
-0.47724622,-0.63886094,-1.1892161,-0.33331165,-0.44618434,-0.83055574,0
0.48934686,1.1287885,-1.0496088,0.30259091,0.69799387,-0.64903259,0
-0.76414543,-1.2028847,-0.77957326,-0.47042513,-0.74052292,-0.47992286,0
-0.47711644,-0.9878397,0.65277505,-0.37375429,-0.77383488,0.51135838,0
1.4761817,-0.51430905,0.62027901,0.87775141,-0.30581295,0.36882368,0
0.42870274,0.5274846,1.5164158,0.25797662,0.31741971,0.91252005,0
-0.19999301,1.4655137,0.44450322,-0.12949182,0.94889331,0.2878077,0
-1.1923064,0.87349647,0.80354726,-0.7087177,0.51921415,0.47763574,0
0.99616933,-0.63732541,-1.2445545,0.58024275,-0.37122551,-0.72492069,0
0.5651992,-0.074040405,1.2796257,0.40346944,-0.052854005,0.91346532,0
-0.76727343,-1.2339995,-0.13954696,-0.52561152,-0.84533668,-0.095594987,0
0.76521182,-0.93894529,0.8877039,0.50955433,-0.62524343,0.59112179,0
0.13936637,-1.1805545,-0.68338275,0.10163949,-0.86097491,-0.49838904,0
0.61974728,0.78033632,-1.0351059,0.43133214,0.54309899,-0.72041374,0
-0.13939846,-1.3791885,-0.76987636,-0.087912209,-0.86979091,-0.4855257,0
1.4627848,0.39183977,0.64624298,0.8884297,0.23798586,0.39249894,0
-0.57037425,-0.064157344,1.607712,-0.33411938,-0.037582714,0.94178122,0
0.75435138,-1.3249499,0.34265789,0.4827309,-0.84787309,0.21927653,0
-1.1234649,0.38368154,-1.0598644,-0.70594013,0.24109003,-0.66597611,0
1.535295,-0.22652224,-0.27838168,0.97374797,-0.14366983,-0.17656124,0
1.1744347,-0.034214079,-0.65165788,0.87412834,-0.02546544,-0.48502707,0
0.10259132,-0.3802903,1.3583125,0.072540149,-0.26889521,0.96043396,0
0.3911902,-1.5136995,-0.07133808,0.2499526,-0.9671846,-0.045581762,0
0.090308577,1.5321673,0.004242036,0.058839373,0.9982636,0.0027638432,0
-0.35302109,-0.54217839,1.0754229,-0.28128362,-0.43200222,0.85688603,0
0.73248273,-1.2837349,-0.58451372,0.4608576,-0.80769002,-0.36775964,0
-1.082832,-0.92957187,-0.53685945,-0.71017259,-0.60965735,-0.3520979,0
1.1704485,-1.1771164,-0.10895197,0.70358169,-0.70758986,-0.065493368,0
0.0760516,0.99349159,1.0047288,0.053745851,0.7021029,0.71004426,0
0.35340789,1.2124796,0.97294354,0.22167702,0.76053441,0.61028409,0
1.0966159,-0.88021886,-0.26583856,0.76627958,-0.61506832,-0.18575935,0
-0.59190059,-1.4285371,0.13831332,-0.38126126,-0.92016441,0.089091837,0
-0.23362805,-0.8412568,1.0685735,-0.16930705,-0.60964727,0.77438056,0
0.50787103,-1.187238,-0.74650812,0.34049731,-0.79597247,-0.50048929,0
-1.2030345,0.24530652,1.0178816,-0.75432396,0.15381153,0.63822985,0
0.013054897,1.5361059,-0.55242074,0.0079970183,0.94097,-0.33839551,0
-1.1989664,-0.47791907,0.77083689,-0.79752004,-0.31789884,0.51273984,0
-1.434185,-0.087905228,-0.325551,-0.97345424,-0.059665743,-0.22096801,0
1.4568651,0.3899532,0.55234426,0.90707427,0.24279292,0.34390095,0
-1.0184563,0.37873125,-1.1547577,-0.64231241,0.23885538,-0.72827393,0
1.5831023,0.4255372,0.22416753,0.95681566,0.2571916,0.13548523,0
-1.4057472,-0.34192386,0.36655584,-0.94190717,-0.22910275,0.24560715,0
1.4824157,0.17553531,0.05456838,0.99239933,0.11751166,0.036530662,0
-0.74650496,-1.3536534,-0.87329441,-0.42045507,-0.76242018,-0.49186686,0
-1.4189243,0.35045299,0.16070031,-0.96501172,0.23834339,0.10929243,0
0.97504514,-0.12342866,1.1061095,0.65896082,-0.083416291,0.74753749,0
-1.0760663,1.068588,0.52083749,-0.67109191,0.66642809,0.32482186,0
1.0892873,0.10051548,-1.0465361,0.71952474,0.066395141,-0.69128561,0
0.32880351,-1.288229,-0.39713314,0.23696293,-0.92840409,-0.2862069,0
1.22953,-0.049013473,0.50597751,0.92412966,-0.036839124,0.38029885,0
-0.80326474,-1.0453688,-0.5967958,-0.55507296,-0.72237206,-0.41239858,0
0.15009901,0.63470191,1.2564408,0.10602953,0.44835168,0.8875463,0
0.92532003,0.64460099,-0.65940464,0.7083264,0.49343783,-0.50476992,0
0.11909907,1.381474,-0.72459197,0.076125525,0.883008,-0.46314335,0
0.63644904,-0.5587219,-1.2456658,0.42252651,-0.37092492,-0.82697397,0
-1.3664972,0.010158668,-0.4260698,-0.95464677,0.0070969337,-0.29765606,0
-0.74349886,-0.13122834,-1.1211526,-0.550062,-0.097086534,-0.82946122,0
-0.33987632,-1.3819096,-0.042717926,-0.238722,-0.97062433,-0.030004175,0
0.26103404,0.075742237,1.5108812,0.17003986,0.049339157,0.98420119,0
1.2397659,-0.6777249,0.14539441,0.87284303,-0.47714448,0.10236328,0
-1.4131286,-0.095986277,-0.20249383,-0.98765868,-0.067086376,-0.14152625,0
1.4879752,-0.070572592,0.041138969,0.99849647,-0.047357298,0.02760605,0
0.86657745,-0.59115684,1.0395899,0.58676285,-0.40027452,0.70391023,0
0.85241866,-0.85539019,-0.56419635,0.63952088,-0.64175028,-0.4232842,0
0.27975443,-0.72284299,1.3272042,0.18201844,-0.47030801,0.86352748,0
-0.55981773,1.4569492,-0.10312629,-0.3578932,0.93143219,-0.065928958,0
-1.0150619,0.25011739,-0.93395525,-0.72408766,0.17841959,-0.6662308,0
-0.69976163,-0.91521275,-1.1005152,-0.4392066,-0.57443488,-0.69074029,0
-1.4531301,-0.51163101,0.56124091,-0.88626176,-0.31204295,0.34229994,0
0.50586647,1.3543321,0.58610511,0.32427102,0.86815524,0.37570566,0
0.93358564,1.1709846,-0.18364988,0.61875534,0.77609694,-0.12171818,0
0.01596044,-1.4791359,0.0070646973,0.01078963,-0.99993038,0.0047759004,0
0.77091694,0.31616333,1.2020495,0.52708709,0.21616545,0.82185864,0
-0.27733031,1.4963052,-0.011875432,-0.18223412,0.98322421,-0.0078033628,0
-0.7355361,-1.51176,0.53236133,-0.41709498,-0.85726249,0.30188218,0
0.10470454,-1.0430855,-0.76039612,0.080848888,-0.80543119,-0.58714914,0
-0.33674595,1.1710196,-0.67099959,-0.24208634,0.84184486,-0.48238096,0
-1.2851094,-0.93184572,0.071701154,-0.80874348,-0.58642805,0.045122884,0
0.43459582,0.79879504,-1.0516596,0.31259134,0.5745486,-0.75642622,0
1.1225502,0.2272379,-0.8661325,0.78174949,0.15824959,-0.60317892,0
-0.23152336,0.24400896,-1.2637975,-0.17703338,0.18658045,-0.96635759,0
-0.36366555,-0.56568569,-1.5029787,-0.22086228,-0.34355366,-0.91279286,0
-0.054539103,-1.4897554,0.0089203119,-0.036584269,-0.99931264,0.0059836535,0
1.0762323,-1.0675894,-0.23063788,0.70187485,-0.69623828,-0.15041262,0
0.6092959,-0.69029129,0.96226239,0.45749789,-0.51831436,0.72252744,0
-0.75967115,-1.1741364,-0.17608243,-0.53896344,-0.83301383,-0.1249251,0
0.28047016,-0.24929397,1.2850921,0.20950028,-0.18621288,0.95991379,0
1.1975318,-0.78716636,-0.80727983,0.72806507,-0.47857463,-0.49080303,0
-0.42980111,1.2728325,-0.27744156,-0.31331429,0.92786312,-0.20224798,0
-0.98047328,0.61968994,0.92731464,-0.66024673,0.41729671,0.62444991,0
-0.65205878,0.75511253,-0.97391504,-0.46768275,0.54159707,-0.69853097,0
0.55374622,0.4998714,1.186563,0.39508596,0.35664743,0.84658706,0
0.83681524,-0.37292925,-1.0270507,0.60802329,-0.27096742,-0.74624687,0
-0.58635229,-1.3436562,0.10064552,-0.39902219,-0.91437972,0.0684909,0
-0.0072577773,-0.77579778,1.2154875,-0.0050331806,-0.53800637,0.84292579,0
0.6496895,-0.08229094,1.4145731,0.41678584,-0.05279091,0.90747046,0
-0.49408105,0.8518458,-0.96830672,-0.35775042,0.61679798,-0.70112407,0
-1.4717432,-0.19785695,0.46500763,-0.94579738,-0.1271503,0.29883134,0
-0.49648523,0.81316572,-1.0851487,-0.34381416,0.56311423,-0.75146139,0
-1.0802662,-1.1403202,-0.38402194,-0.66805679,-0.70519531,-0.23748633,0
-0.38286942,1.6380259,-0.1226221,-0.22700129,0.97117704,-0.072702013,0
1.2365578,-0.021476604,0.60235494,0.89890051,-0.015612153,0.43787453,0
0.20167916,0.40440518,1.2085234,0.15631005,0.31343147,0.93665785,0
1.2316478,-0.14510858,-0.88659084,0.80791044,-0.095185272,-0.58156723,0
0.027158411,0.48855191,1.2658736,0.020011354,0.35998371,0.93274397,0
0.043678164,-1.3437048,-0.93636554,0.026659649,-0.82015121,-0.57152534,0
-0.72547746,0.95665282,0.6990034,-0.52219552,0.68859452,0.50313962,0
-0.20278789,1.3521951,-0.6399861,-0.134325,0.89568269,-0.42392141,0
0.015772,1.5950727,-0.19518006,0.0098142726,0.9925487,-0.12145259,0
0.27332565,-1.2405772,1.1739163,0.15802027,-0.71722627,0.67868704,0
1.2255473,-0.42794275,-0.40230337,0.90178412,-0.31488952,-0.29602349,0
0.98336989,0.19936447,1.1499132,0.64435661,0.13063428,0.75348473,0
-0.14541623,1.3373482,-0.099627599,-0.10780236,0.99142504,-0.073857576,0
0.57547265,0.66798455,-1.227402,0.38079154,0.44200689,-0.81217468,0
0.062174655,0.19391845,-1.5886031,0.038820282,0.12107778,-0.99188364,0
0.31743959,-1.2122793,0.28183612,0.24713983,-0.94380951,0.21942106,0
-0.62244415,-0.33867705,1.5022725,-0.37473786,-0.203898,0.90443194,0
-0.096966982,-1.1776515,1.1710697,-0.058286332,-0.70788002,0.70392376,0
-0.83284938,-1.4818902,-0.042581778,-0.48978856,-0.87148154,-0.025041824,0
-1.1981241,0.087061584,-1.1711873,-0.71413618,0.051892649,-0.69808066,0
0.23471551,0.44147515,1.1899852,0.18184315,0.34202781,0.92192739,0
-0.51302934,1.0911163,-0.7307775,-0.36388081,0.77390563,-0.51832497,0
0.54382086,-1.5536927,0.39322224,0.32132509,-0.91802377,0.23234154,0
0.46686566,1.0131385,0.97183228,0.31555992,0.6847921,0.65687275,0
-1.141147,-1.0551808,0.12080417,-0.73201352,-0.67686862,0.077492453,0
-0.0070510358,-1.313789,0.86984527,-0.004474957,-0.83379936,0.5520494,0
-0.18599078,-1.5157601,0.64220506,-0.112268,-0.91494507,0.38764867,0
-0.8356576,-0.54179466,-1.3256981,-0.50398093,-0.32675365,-0.79952192,0
0.53488302,-1.2069827,0.28039134,0.39631552,-0.89430016,0.20775278,0
1.202836,-0.15715034,1.088786,0.73792708,-0.096410058,0.66795862,0
0.39574245,0.46263179,1.2660803,0.28169757,0.32931077,0.90122187,0
0.71336985,0.51083338,1.4282526,0.42557949,0.30475104,0.85206151,0
-0.3210994,-0.24150676,1.3703403,-0.22485517,-0.1691191,0.95960355,0
0.85246474,-1.1860039,-0.44312486,0.55850881,-0.77703351,-0.29032186,0
-0.74476284,-0.66132087,1.1969126,-0.47829565,-0.42470822,0.76867169,0
0.69592476,-1.094594,-0.76205945,0.46259674,-0.72760111,-0.50655794,0
-0.44786289,-0.77348691,-1.4675407,-0.26064372,-0.45014784,-0.8540678,0
1.3199704,0.59643966,0.74303001,0.81082755,0.36637923,0.45642632,0
1.2191689,-0.78998792,0.26536942,0.82555974,-0.53494,0.1796948,0
-1.1532894,-0.96536499,-0.62819541,-0.70757473,-0.59227794,-0.38541514,0
-0.67637897,-0.60513377,1.182634,-0.45372102,-0.40592912,0.79332137,0
-1.3268213,-0.27360886,0.068522789,-0.97814244,-0.20170647,0.050515503,0
0.57896727,-0.86279792,-1.0109206,0.39937481,-0.59516275,-0.69733864,0
-1.4378897,0.037667658,0.91413885,-0.84368968,0.022101706,0.536376,0
-0.37771487,1.388303,0.19090937,-0.26024556,0.95654088,0.13153657,0
0.82890457,0.59891373,1.1977165,0.52632254,0.3802872,0.76050395,0
-1.4092489,-0.20710476,-0.068869323,-0.98821861,-0.14522968,-0.048293769,0
-0.40459442,1.4784667,-0.46969876,-0.25237036,0.9222104,-0.29297993,0
0.17223506,-0.50820041,1.3109437,0.12159097,-0.35876888,0.92547315,0
-0.84014815,-0.52811843,1.0148718,-0.59189987,-0.37206918,0.71499592,0
-1.0778131,0.55470711,-0.98899859,-0.68894124,0.35457036,-0.63217074,0
0.81756163,-0.017078398,1.2813236,0.53785914,-0.011235572,0.84295982,0
-1.0327021,0.16983722,0.9659307,-0.72511125,0.11925112,0.67822772,0
0.74327791,0.51483566,-1.3274976,0.46276546,0.32053712,-0.82650113,0
-0.86012793,-0.63265544,1.0847824,-0.56508839,-0.4156431,0.71268225,0
-0.40425923,1.2327195,-0.06952782,-0.31116599,0.94884759,-0.05351688,0
1.3066009,0.45474178,-0.083633915,0.94271481,0.32809696,-0.06034201,0
-0.051257502,-1.373193,-0.26487401,-0.036627036,-0.98124152,-0.18927082,0
1.1116959,-1.0826511,0.41512626,0.69206721,-0.6739859,0.25842974,0
1.1267829,-1.1003823,0.44714081,0.6882388,-0.6721133,0.27311352,0
-0.30263659,-1.0854225,0.91405135,-0.20857999,-0.74808341,0.62997276,0
0.11680182,-0.19739217,1.5090042,0.076524347,-0.12932423,0.9886452,0
-1.2304091,-0.36147776,0.75288624,-0.82739878,-0.24307871,0.50628453,0
0.75973761,0.94725555,-0.74973786,0.53236639,0.66376472,-0.52535933,0
-0.086214334,1.5595149,-0.49557036,-0.052613653,0.95171851,-0.30242962,0
-0.54987556,-0.46325213,1.3254164,-0.36466861,-0.30722132,0.87899482,0
-0.098093294,0.051385287,-1.3226634,-0.073904887,0.038714409,-0.99651349,0
-1.0760367,1.110518,0.72841108,-0.62952095,0.64969373,0.42614719,0
-0.21946535,-1.3295747,0.27433431,-0.15958719,-0.96681815,0.1994859,0
-1.0957123,-0.58577245,1.1168227,-0.65586734,-0.35062948,0.66850358,0
0.068791598,0.17342041,1.4224494,0.047950689,0.12088146,0.99150813,0
-0.65189177,0.2675457,1.1963451,-0.46951145,0.1926942,0.8616426,0
1.4655373,0.14146794,-0.18918346,0.98725694,0.095299661,-0.12744315,0
-1.3404335,0.025041228,0.86196107,-0.84100223,0.015711132,0.54080355,0
0.45626321,0.2678577,-1.1895037,0.35046992,0.20574979,-0.91369462,0
0.10607189,-0.32108957,1.311877,0.078295782,-0.23700869,0.96834743,0
0.72067553,1.0606605,0.2495212,0.55165744,0.81190664,0.19100167,0
1.3506913,-0.78885543,0.051699203,0.86304259,-0.5040499,0.033033907,0
-1.1113578,0.95334852,0.64241338,-0.69504887,0.59622902,0.40176859,0
-0.25455564,0.85805559,1.051307,-0.18436846,0.62146878,0.76143605,0
0.42138445,-0.70574009,1.1750925,0.29384387,-0.4921335,0.81942683,0
1.2386703,0.15304433,0.64660966,0.88121295,0.10887856,0.46001005,0
1.131452,-0.69229019,0.69498694,0.75556904,-0.46230245,0.46410331,0
-1.2679527,0.48646334,-0.154636,-0.92764974,0.35590255,-0.11313359,0
0.83559555,1.0060012,-0.57567132,0.58479661,0.70405608,-0.40288708,0
0.74618983,-1.2692459,0.65966845,0.46250525,-0.78670716,0.40887737,0
-0.92591268,0.94502866,-0.68626463,-0.6212427,0.63406861,-0.46045044,0
-1.1080769,1.0810601,0.23157802,-0.70790219,0.6906423,0.14794514,0
0.24967617,1.4225216,0.35927689,0.16776124,0.95581406,0.24140364,0
-0.86166739,-0.9617328,0.18896282,-0.66026551,-0.73694211,0.14479558,0
-1.5547986,-0.35267454,0.07616955,-0.97411507,-0.22095825,0.047721878,0
0.1127004,1.3662483,-0.32004726,0.080056995,0.97051769,-0.22734633,0
-0.31309131,-1.4483446,-0.65308571,-0.19334549,-0.89440644,-0.40330464,0
0.032794852,-1.2375098,-0.81438583,0.022131771,-0.83513975,-0.54959238,0
-0.4891181,0.14404137,1.1587617,-0.38635436,0.11377828,0.91530585,0
-0.80973881,0.095450155,-1.0847907,-0.59669471,0.070337005,-0.79937983,0
0.4352541,0.11353032,-1.6107877,0.26025483,0.06788405,-0.96315068,0
-1.0167711,-0.38932031,1.2415417,-0.6157366,-0.23576474,0.75185335,0
-1.0160199,0.99733734,-0.23887716,-0.70379978,0.6908583,-0.16547087,0
1.4693881,0.60453075,-0.35635367,0.90237463,0.37125197,-0.21884246,0
-0.92110515,-0.67760056,0.64289081,-0.70215529,-0.5165326,0.49007347,0
-0.69815671,0.498431,-1.0475295,-0.51564527,0.36813167,-0.77368534,0
0.90192771,-1.0776874,0.29635981,0.62798941,-0.75036645,0.20634782,0
-0.80233556,-0.7311337,-0.82666093,-0.58803749,-0.53585315,-0.60586572,0
0.51484913,-1.5303817,0.040732916,0.31875709,-0.94750088,0.025218856,0
0.17334059,0.78314114,1.2597978,0.1160658,0.52437747,0.8435384,0
-1.0219792,1.0812348,0.3000057,-0.67335898,0.71240115,0.19766697,0
0.62864703,0.99108297,0.70699698,0.45881909,0.72334355,0.51600295,0
-0.058905102,-1.2361988,0.98102236,-0.037299179,-0.78277093,0.62119114,0
0.67607123,-1.2690217,-0.10581981,0.46891916,-0.88018632,-0.07339602,0
-0.11534646,-0.016405808,-1.5365767,-0.07485231,-0.010646296,-0.99713778,0
0.93846667,-1.0086168,0.31385717,0.66417193,-0.71381861,0.22212309,0
-0.049790569,1.2141185,-0.79000044,-0.034353331,0.83768904,-0.545066,0
-0.20542631,-1.1204431,-1.1042674,-0.12948354,-0.70623344,-0.69603759,0
0.049813949,1.4373711,-0.19389313,0.034324978,0.99044007,-0.13360469,0
0.32851088,-0.72036111,-1.2122953,0.22688322,-0.49751121,-0.83726132,0
1.1832346,0.74924129,0.42495456,0.80846614,0.51193249,0.2903578,0
-0.8316806,0.046670992,1.2980694,-0.5392282,0.030259592,0.84161592,0
1.6034807,0.4720318,0.092124455,0.95784384,0.28196955,0.055030808,0
-0.62858289,-1.1025834,-0.73653066,-0.42836297,-0.75138199,-0.50192654,0
-1.0095991,-0.39998597,-1.0664068,-0.66333443,-0.2628018,-0.70065868,0
-0.92778277,-1.0097502,-0.1149893,-0.67422104,-0.73378694,-0.083562881,0
1.1210515,0.17656296,1.2213081,0.67241955,0.10590448,0.73255455,0
1.2351437,0.53173977,0.94092315,0.75256813,0.32398692,0.57330072,0
-0.74955702,-0.93566161,-0.86457914,-0.50710666,-0.6330142,-0.58492392,0
1.1792997,0.19075112,-0.71464962,0.84715563,0.137027,-0.513372,0
-1.5403961,-0.42321384,-0.028982766,-0.9641099,-0.26488295,-0.018139862,0
0.89255852,-1.2991558,0.076172791,0.5656054,-0.8232621,0.048269939,0
-1.0916784,0.88379312,-0.2606357,-0.76418108,0.61866021,-0.18244648,0
-1.4054673,-0.16651012,0.099164203,-0.99062645,-0.11736263,0.069894679,0
1.5327762,-0.2454288,0.081744954,0.98605579,-0.15788768,0.05258764,0
-1.1663464,-0.34768212,0.67458969,-0.8381837,-0.24985844,0.48478743,0
-0.32840088,-1.4242053,0.83340108,-0.19518767,-0.8464877,0.49533856,0
-0.69211644,-1.3693416,-0.3312858,-0.44093046,-0.87237406,-0.21105409,0
-0.73668122,0.73800594,1.028361,-0.50301194,0.50391644,0.70217323,0
0.78419912,-1.2612187,0.22764164,0.52193469,-0.83942169,0.15151007,0
0.78337389,-0.4896099,1.1144871,0.54116285,-0.3382276,0.76989925,0
-1.4456558,0.34566236,0.17605685,-0.96583331,0.23093478,0.11762244,0
-0.16234994,-1.675969,-0.23416159,-0.095498949,-0.98585367,-0.13774064,0
0.82006949,-1.1372721,-0.2149846,0.57812762,-0.8017472,-0.15155853,0
-1.1422179,-0.59074646,0.62136209,-0.79976463,-0.41363224,0.43506888,0
-1.6366013,0.16189604,0.065938361,-0.99434394,0.098362587,0.040061928,0
1.1614597,1.1769865,0.20051585,0.69728827,0.70660985,0.12038072,0
-1.3272722,-0.33419758,0.074601695,-0.9682948,-0.24380967,0.054424733,0
0.45071194,0.45544216,-1.2905332,0.31281006,0.316093,-0.89567578,0
-0.48211023,-1.3448774,-0.56508648,-0.31379724,-0.87535745,-0.36780503,0
1.3333285,-0.49504647,0.32014406,0.91458523,-0.33957288,0.21960007,0
0.57569373,-1.1012293,-0.67537344,0.40705064,-0.7786364,-0.47753027,0
0.41100085,-1.1448922,-0.7279622,0.28992441,-0.80761927,-0.51351237,0
-0.91221273,0.42417872,-1.3668201,-0.53750253,0.24993856,-0.80537051,0
1.2604178,0.98725981,-0.19743338,0.78133023,0.61200017,-0.12238851,0
-1.3550496,-0.82025236,0.52014887,-0.8127737,-0.49199641,0.31199104,0
1.3669521,0.49161041,0.55479288,0.87906724,0.3161476,0.35677934,0
-0.32927674,-1.153353,-1.0557759,-0.20606744,-0.72178948,-0.66072398,0
1.2817297,0.2200626,0.58687699,0.8983413,0.15423791,0.41133153,0
-0.75712907,1.1091619,-0.41533211,-0.53861451,0.78904736,-0.29546338,0
1.0003009,-0.016610073,-1.2280164,0.63152248,-0.010486479,-0.77528667,0
-0.25270739,-1.1792045,0.65965742,-0.18384033,-0.85785121,0.47988957,0
0.88443226,0.8580811,-0.92220438,0.57462358,0.55750304,-0.59916449,0
0.9405241,0.74831378,-0.76139903,0.66104931,0.52595389,-0.53515089,0
1.5402988,-0.23300889,0.069464698,0.98776907,-0.1494249,0.044546604,0
0.72673279,1.0080783,-0.57117486,0.53135395,0.73706102,-0.41761708,0
1.3906641,-0.1219973,0.2825799,0.976372,-0.085653149,0.19839665,0
-0.66840625,-0.77268708,-0.93481398,-0.48267117,-0.5579747,-0.6750502,0
0.34580052,-0.81929457,-1.1481723,0.23810849,-0.56414312,-0.79059905,0
0.72099525,-0.89140695,0.93883502,0.48655385,-0.60155386,0.63356006,0
1.1791787,0.83870316,-0.27717587,0.80034739,0.56925541,-0.18812838,0
-0.42349717,0.82031107,1.2484227,-0.27275214,0.528319,0.80404311,0
0.1079361,1.2482852,0.52120972,0.079538576,0.91986674,0.38408169,0
0.43774319,-1.3695091,-0.79166907,0.26670277,-0.83439761,-0.48233837,0
-0.077166706,-0.029059134,-1.4760115,-0.052199166,-0.019656956,-0.99844319,0
0.88111067,-0.38900235,-1.1812097,0.57811189,-0.25523114,-0.77501208,0
-0.75417387,0.55556911,0.93883896,-0.56866515,0.41891238,0.70790702,0
-0.72452784,-0.85331863,-1.0302196,-0.47624627,-0.56090295,-0.67718339,0
0.30901423,0.59380299,1.419928,0.19684882,0.3782655,0.90452516,0
0.97840166,-0.19762947,-0.69941598,0.80274832,-0.16214886,-0.5738492,0
-1.105304,0.70834506,0.77213526,-0.72572351,0.46508715,0.5069707,0
-1.0674804,1.0558518,-0.22263293,-0.70327926,0.69561809,-0.14667541,0
0.29903302,-1.0461359,0.83560145,0.21797338,-0.76255721,0.60909283,0
0.25815597,0.89936578,1.2393003,0.1662457,0.57916802,0.79807693,0
0.88231802,-0.33328411,1.3589374,0.53339058,-0.20148133,0.82152283,0
-1.4135475,-0.2341821,-0.47894427,-0.93566358,-0.15501118,-0.31702557,0
-0.79738194,-0.13215654,-1.3157871,-0.51636946,-0.08558207,-0.8520788,0
-0.64784831,-0.33163694,1.2652142,-0.4438507,-0.22720948,0.86681741,0
1.2632594,-0.97904462,-0.13134867,0.78775358,-0.6105206,-0.081907474,0
0.99417394,1.0085329,-0.39434707,0.67628843,0.68605614,-0.26825523,0
0.29509273,0.76930332,1.030977,0.22359227,0.58290243,0.78117305,0
-0.53757125,1.4053226,0.31124404,-0.34987074,0.91463453,0.20256883,0
-0.4128218,-0.18326302,1.3896576,-0.28251913,-0.12541805,0.95102745,0
-0.21900466,0.2760075,1.5025389,-0.14190698,0.17884274,0.97359008,0
-0.81369412,-1.1946615,0.57971245,-0.52248186,-0.76710516,0.37223968,0
0.98590338,0.98778546,0.59445566,0.64992964,0.65117031,0.39187852,0
0.13346745,-0.93657172,-1.2502204,0.085129805,-0.59737539,-0.79743057,0
