0.36280575,0.33702296,1.5301418,0.22558698,0.20955564,0.9514184,0
0.3928363,-1.0722268,1.0177952,0.25681075,-0.70095187,0.66536808,0
1.3913918,0.90884751,0.50564247,0.80096781,0.52318668,0.29107788,0
0.95604998,-0.74686497,0.89460218,0.63425207,-0.49547687,0.59348708,0
0.97584772,1.1026338,-0.81802768,0.57933968,0.65460986,-0.48564535,0
0.15643343,0.94967675,0.9509536,0.11561775,0.70189273,0.70283645,0
1.3425952,-0.51587117,0.56089646,0.86967438,-0.33415875,0.36332417,0
1.0666767,-0.070254833,1.3368076,0.62318158,-0.041044787,0.78099942,0
-0.99228078,1.138885,0.19906357,-0.65128088,0.74750423,0.13065486,0
-0.66188043,-1.2587689,0.46964321,-0.4419269,-0.8404597,0.31357321,0
-0.22450975,-0.93663383,-1.0717872,-0.15580381,-0.64999908,-0.74379194,0
-1.1342568,-0.39831394,-0.86730051,-0.76516759,-0.26870185,-0.58507931,0
1.1077529,0.29236203,0.78892595,0.79634792,0.21017493,0.56714773,0
-0.70977652,-0.14762379,-1.2127529,-0.50234699,-0.10448129,-0.85833043,0
1.3356528,0.29891688,0.7843917,0.84667534,0.18948452,0.49722883,0
-0.24390148,0.22725916,-1.6568378,-0.1443167,0.13446943,-0.98035234,0
0.10065649,1.3217144,-0.61668724,0.06884978,0.90406239,-0.42181861,0
-0.32785311,-1.536791,-0.76744926,-0.18747653,-0.87878454,-0.43885118,0
-0.96782553,-1.27262,-0.24574097,-0.5983088,-0.78673238,-0.15191682,0
-0.60803485,1.5024259,-0.44686705,-0.36165139,0.89362383,-0.26579085,0
1.060008,0.54244339,-0.88326848,0.71497822,0.36587951,-0.5957669,0
-1.4015627,-0.63177234,0.4908084,-0.86847651,-0.39147693,0.3041288,0
1.1349825,0.79491842,-0.40110382,0.78678632,0.55104899,-0.27805099,0
-1.5021971,0.1453777,0.37854171,-0.96544451,0.093432546,0.24328433,0
-0.72455734,1.048726,0.65304637,-0.50589502,0.73223358,0.45596516,0
-0.77668613,-0.40750605,-1.1162019,-0.54712367,-0.28706089,-0.78628993,0
-1.2304565,0.81298387,0.77058488,-0.7394743,0.48858345,0.46310267,0
1.5186644,-0.032363385,0.48023441,0.95326757,-0.020314539,0.30144376,0
-0.42674479,1.6652378,-0.50484931,-0.23818567,0.92944497,-0.28177938,0
-0.31887183,-0.85140103,1.4540801,-0.185941,-0.49647018,0.84790528,0
-0.43759298,-1.1525573,1.0882833,-0.26610193,-0.70087439,0.66178912,0
0.15728116,0.87447262,1.1445062,0.10855152,0.60353911,0.78990954,0
0.46179083,1.1829405,1.097515,0.27513209,0.70478857,0.65389258,0
-0.013832366,-0.41631848,-1.5459621,-0.0086393058,-0.26002079,-0.96556437,0
0.0060563148,0.27082723,1.5182459,0.0039270008,0.17560825,0.98445231,0
-1.0323237,-1.2345479,0.50492537,-0.61205977,-0.7319575,0.29936782,0
1.3597724,-0.82043236,-0.091275245,0.85481042,-0.51575845,-0.057379477,0
-1.117095,1.313352,-0.037531231,-0.64774609,0.76154542,-0.021762436,0
0.35364652,-1.354691,-0.76341909,0.22176392,-0.84949684,-0.47872326,0
0.094231904,1.1312855,-1.0100564,0.0620148,0.74450845,-0.6647265,0
1.1787567,0.81002373,-0.4019703,0.79342288,0.54522818,-0.27056679,0
-0.89958733,0.91413081,-0.70524454,-0.61462045,0.62455696,-0.48184064,0
0.59229445,1.0095809,0.93190628,0.39587459,0.67477822,0.62286252,0
0.95913398,-0.11275057,-1.144501,0.6404863,-0.075292081,-0.76426983,0
0.36665261,1.5068035,-0.036581516,0.23636669,0.97137767,-0.023582682,0
0.53309274,-0.80232233,1.0049248,0.38295719,-0.57636333,0.7219066,0
0.010172577,-1.1387204,1.1227685,0.0063610952,-0.71206236,0.7020874,0
-1.2210554,1.0450321,-0.15560511,-0.75620824,0.64719582,-0.096367344,0
0.37379995,0.81088853,-1.3978418,0.22535953,0.488875,-0.84274215,0
-0.64032292,-0.68400049,1.4131672,-0.37764764,-0.40340766,0.83345336,0
-0.084093615,-0.096121013,-1.5725403,-0.053300794,-0.060924079,-0.99671829,0
-0.42602989,-0.35946798,1.4157,-0.28000873,-0.23626083,0.93047076,0
-1.65336,-0.12625629,-0.25465575,-0.98554242,-0.075259432,-0.15179637,0
-1.128706,0.23509103,1.0308497,-0.72980982,0.15200746,0.66653693,0
-1.2501063,-0.61647004,0.57120484,-0.82989365,-0.40924883,0.37919915,0
-0.50536275,0.5480873,-1.4522854,-0.30957139,0.33574328,-0.88963026,0
-0.92771477,-1.0440006,1.1199129,-0.51822007,-0.58317715,0.62558162,0
-0.68019074,-0.3281917,1.5761492,-0.38918173,-0.18777999,0.90181834,0
0.39057219,1.3982414,-0.4389883,0.25751686,0.9219057,-0.28943914,0
0.79265124,-0.52598423,-1.3483006,0.48036206,-0.31875667,-0.81709641,0
-0.81296021,-0.57073343,-1.2102816,-0.51923048,-0.3645224,-0.77299619,0
-1.2317976,-0.15035622,1.2399334,-0.70218199,-0.085710049,0.70681983,0
1.1502582,1.1068281,0.42007026,0.69685471,0.67054367,0.25448892,0
-1.2629538,-0.17553014,0.95370066,-0.79316497,-0.11023709,0.59894669,0
0.40393385,1.1610727,-1.0946993,0.2453896,0.70535105,-0.66502917,0
0.23146388,-0.049649075,1.401446,0.16285373,-0.034932178,0.98603165,0
-0.6134187,0.54847085,1.489797,-0.36042333,0.32226226,0.8753525,0
-1.2491244,0.3454884,0.99265754,-0.76516229,0.211632,0.60806125,0
-1.2891726,0.11980268,-0.88925391,-0.82076436,0.076273546,-0.56615216,0
0.15793689,-0.47077769,1.380988,0.10761941,-0.32079154,0.9410159,0
-0.8587606,0.80941951,1.3028678,-0.48852438,0.46045566,0.74116427,0
1.3652825,-0.70501083,0.37284335,0.8634721,-0.44588366,0.23580454,0
0.32713363,1.1396947,-1.2253501,0.19185475,0.66839916,-0.71863371,0
0.8296032,-1.0918043,0.81280059,0.52044481,-0.6849345,0.50990379,0
0.38327748,-0.64829886,-1.5376124,0.22385791,-0.37864688,-0.89806139,0
-1.2036934,-0.23000389,0.988029,-0.76465744,-0.14611211,0.62765461,0
0.1662851,-1.5071102,-0.66040915,0.10054512,-0.91128176,-0.39931971,0
-0.1354555,-0.33671653,1.5147315,-0.086963885,-0.21617562,0.97247386,0
-1.4267412,-0.63935953,-0.20472981,-0.9048357,-0.40548021,-0.12983912,0
1.2685415,-0.83994001,-0.39880449,0.80654293,-0.5340367,-0.25356123,0
-0.87454194,1.3885754,-0.5041188,-0.50942838,0.80885744,-0.29365364,0
-1.0418085,-1.1050611,-0.53021055,-0.64764243,-0.6869635,-0.3296065,0
-0.24606821,0.2294105,1.3984826,-0.17107336,0.15949246,0.9722634,0
-0.42172369,-0.95096886,0.96910757,-0.29662377,-0.66887391,0.68163192,0
0.24964227,-1.2942411,0.87176222,0.15797137,-0.81898397,0.55164319,0
-0.49483186,1.3254198,0.60771489,-0.32136589,0.86078674,0.39467716,0
1.6616334,0.036075708,0.019593732,0.99969488,0.021704366,0.011788253,0
-1.3170593,0.24622139,-1.013586,-0.78393233,0.14655446,-0.60330075,0
0.56229746,0.063603148,-1.5822271,0.33462581,0.037850525,-0.94159061,0
1.502486,-0.10379754,0.48031095,0.95045769,-0.065661296,0.30383992,0
1.2021556,-0.49054885,0.90211749,0.7603659,-0.31027317,0.57059115,0
0.10202087,-1.2776752,-0.74745291,0.068758272,-0.8611055,-0.50375545,0
0.014765572,-0.40212393,-1.4974934,0.0095223943,-0.25933182,-0.96574134,0
0.84735936,-1.1071781,-0.17924821,0.60280263,-0.78763497,-0.12751532,0
-1.3677915,0.61022234,0.76772428,-0.81269073,0.36257136,0.45615315,0
0.032301933,0.70799053,-1.2662711,0.022260068,0.48789394,-0.87261903,0
-1.0988182,0.57305956,-1.0304413,-0.68177181,0.35556006,-0.63934672,0
-0.16720508,-1.4387307,0.84260064,-0.099783845,-0.85859877,0.50284314,0
-1.4905739,0.48288754,-0.8739118,-0.8308304,0.26915652,-0.48710936,0
0.54437029,-0.40833682,-1.4503446,0.3397952,-0.25488329,-0.90530312,0
1.5117435,-0.18914171,0.7073223,0.8999992,-0.11260334,0.42109621,0
0.48828655,-0.56227607,-1.2939548,0.32706171,-0.37662101,-0.86671054,0
0.87735373,0.091327444,-1.2673424,0.56819719,0.059146039,-0.82076406,0
-0.1877158,1.2715924,-0.61281228,-0.1318246,0.89298373,-0.43035129,0
-0.9086563,1.2110589,-0.25706455,-0.59168524,0.78859925,-0.16739146,0
-0.22780228,0.56165594,1.2998756,-0.15883198,0.39160684,0.90632027,0
0.92422354,-0.060397282,-1.1699702,0.61936885,-0.040475268,-0.78405607,0
0.4938336,1.6227727,0.32192314,0.28602704,0.93990546,0.18645699,0
-0.77375811,-0.89503831,1.0167621,-0.49599874,-0.57374245,0.65177053,0
-1.2791361,-0.16756287,0.57355827,-0.90601927,-0.11868572,0.40625456,0
-0.076924205,0.5374918,-1.5819002,-0.045993816,0.32137218,-0.94583535,0
-0.43774846,0.70459944,1.0562596,-0.32593742,0.52462852,0.7864666,0
-0.42322785,-0.39846107,-1.549095,-0.2557939,-0.24082515,-0.93625462,0
0.14071429,-0.83392197,1.2901851,0.091215283,-0.5405736,0.83633721,0
-0.46101633,-1.3869739,-0.46361724,-0.30065882,-0.90453619,-0.30235505,0
-1.6830351,-0.42818469,-0.19046192,-0.96335179,-0.24508846,-0.10901842,0
-0.24796037,-1.4538054,0.24782376,-0.16580689,-0.97213495,0.16571553,0
-0.16160896,-1.2402852,0.65584284,-0.11443068,-0.87821043,0.46438354,0
0.052121297,-0.46061245,1.3262229,0.037099615,-0.32786107,0.9439972,0
1.1889319,0.55768359,-1.005055,0.71895498,0.33723494,-0.60776335,0
-0.078922004,1.1918209,-0.96274072,-0.051444355,0.77687407,-0.6275509,0
-0.15751122,1.3592292,0.27533734,-0.11285041,0.97383267,0.19726805,0
-0.72352993,0.51851648,-1.4845854,-0.41798463,0.29954797,-0.85764784,0
-1.1733922,-0.34180069,1.1399521,-0.70209306,-0.20451465,0.68208432,0
-1.3575805,-0.59403747,0.89329726,-0.78459948,-0.34331775,0.51627183,0
-0.096721262,0.36487332,-1.679091,-0.056200683,0.21201265,-0.9756496,0
0.63221973,1.167123,0.96782827,0.38485867,0.7104767,0.58915764,0
-0.70765275,0.12916282,-1.4290792,-0.44230691,0.080731131,-0.89322287,0
1.5789865,-0.35418615,-0.47482258,0.93628007,-0.21001917,-0.28155208,0
0.1732901,0.91886753,1.0535636,0.12301707,0.65229565,0.74791521,0
0.72387958,0.31885442,-1.432286,0.44241816,0.19487633,-0.8753795,0
-1.4821669,-0.69329399,-0.3589353,-0.88476777,-0.41385636,-0.21426359,0
0.18863061,-1.3786341,-0.9749918,0.11102023,-0.81140739,-0.57384014,0
0.84915936,1.1299665,-0.47048321,0.57001472,0.75851196,-0.31582099,0
-1.3506299,0.54871649,0.045855913,-0.9260031,0.37620458,0.031439193,0
0.18193834,1.4992523,0.36117777,0.11716498,0.96549129,0.23259193,0
-0.24493694,1.5842775,-0.1585297,-0.15204792,0.98346174,-0.098409459,0
0.86565495,0.59781581,-1.033004,0.58712566,0.40546525,-0.70062923,0
-1.0947151,-0.58745688,-1.2605546,-0.61852217,-0.33191749,-0.7122227,0
0.82523322,0.46096647,1.2799861,0.51862866,0.28970042,0.80442405,0
0.22265616,-1.5071483,-0.1147066,0.1457347,-0.98647082,-0.075078681,0
-1.3608067,0.68734241,0.26208383,-0.879695,0.44433326,0.16942438,0
-0.07565888,1.0375171,1.0125,-0.052118801,0.71470982,0.69747645,0
-1.5245888,0.48220575,0.023901664,-0.95334023,0.30152795,0.014945943,0
-0.1699422,0.47908112,1.48534,-0.10824928,0.30516368,0.94612747,0
0.11384042,-1.1572738,-1.3067667,0.065079495,-0.66158217,-0.74704331,0
-0.15126584,-0.53392899,-1.4243345,-0.098955579,-0.34928739,-0.93177575,0
1.2814288,-0.93873495,-0.32235637,0.79058433,-0.57915753,-0.19887948,0
0.41516995,-0.025640853,1.5539787,0.25808004,-0.015938995,0.96599203,0
-0.35442379,1.4585527,-0.75519401,-0.21093252,0.86804616,-0.44944778,0
0.5641005,-1.4068118,-0.67687875,0.33982614,-0.84749335,-0.40776613,0
1.3982661,-0.80534309,-0.42337418,0.83817649,-0.48275477,-0.25378737,0
-0.10728427,1.4256494,-0.55088717,-0.070022352,0.93049353,-0.35955331,0
0.21667543,-1.419436,-0.81223083,0.13134339,-0.86042768,-0.49235463,0
0.98359215,-1.3245654,0.52843636,0.56776631,-0.76458889,0.3050333,0
-1.3958803,0.20213996,0.52176523,-0.92820108,0.13441448,0.34695169,0
-0.23028475,-0.83435559,-1.2200704,-0.15394273,-0.55775726,-0.8156032,0
-1.2802385,0.67240804,-0.37927192,-0.85635346,0.44977474,-0.25369555,0
-0.25519833,-0.62521476,-1.3931947,-0.16483249,-0.40382591,-0.89986378,0
0.10195997,1.6318012,0.36338162,0.060876045,0.97428048,0.21696001,0
-1.4277805,0.1090955,0.73045957,-0.88820386,0.067866907,0.45440951,0
0.26207843,-1.4222142,0.53237528,0.17006604,-0.92289299,0.34546512,0
-1.5511675,0.18196124,0.67052907,-0.91263467,0.10705751,0.39450806,0
-0.90158689,-1.1023092,0.48963216,-0.5987097,-0.73200178,0.32514617,0
0.90417683,-0.34611505,-1.3806379,0.53620064,-0.20525533,-0.81875461,0
-1.5419836,0.38742694,-0.38612148,-0.94246113,0.23679553,-0.23599763,0
-1.2871158,0.71092469,-0.60633063,-0.80924791,0.44697943,-0.38121805,0
0.10683686,1.6408234,0.24275185,0.064277455,0.98718685,0.1460495,0
1.6281338,0.26517805,0.35373747,0.96505505,0.15718083,0.20967327,0
0.63682359,-1.4587048,0.62546766,0.3723813,-0.85297465,0.36574093,0
-0.60166419,0.14789742,1.4048144,-0.39186788,0.096326575,0.91496491,0
0.57072496,1.5723064,0.059783123,0.34098521,0.93938988,0.035718013,0
-0.69058561,0.9958238,-1.1143788,-0.41946885,0.60487372,-0.67688525,0
1.2066089,0.29767704,-0.93500841,0.77583677,0.1914032,-0.60120052,0
-0.25444198,1.4925704,0.4503338,-0.16107446,0.94487154,0.28508377,0
-0.13386001,0.58337677,1.2671934,-0.095516242,0.41627038,0.90420997,0
0.90542871,-0.1780442,1.203022,0.59718263,-0.11743046,0.79346263,0
-0.99729592,0.41772854,-1.0517058,-0.66117436,0.27694029,-0.69724637,0
-0.99195474,0.93271232,0.82758176,-0.62255263,0.58537197,0.51939183,0
1.0201517,-1.1303154,0.05260301,0.6696052,-0.74191421,0.034527462,0
1.3327452,0.44483781,-0.87410748,0.80541217,0.2688269,-0.52824563,0
-0.17727047,0.076024629,-1.58708,-0.11088011,0.047552302,-0.99269551,0
0.93896121,-0.4167119,0.97706139,0.66230112,-0.29392987,0.68917525,0
-1.2414806,0.0987859,0.7131449,-0.86506277,0.06883394,0.49691883,0
-1.1035458,0.052141216,1.2606729,-0.65834033,0.031105792,0.7520774,0
-0.63578868,0.44390467,1.2142518,-0.44129801,0.3081122,0.84280658,0
0.35736415,0.96662438,1.3105967,0.21434297,0.57977039,0.78608108,0
1.2971125,0.12266641,-1.0303744,0.78088039,0.073846951,-0.62030023,0
-0.58907992,0.84846258,1.0397549,-0.40193671,0.57891679,0.70943791,0
-0.23003037,0.88595772,1.3040111,-0.14438279,0.55608761,0.81848651,0
0.45138294,-0.84537524,-1.2759411,0.28286493,-0.52976531,-0.79958498,0
-1.1553535,-0.83601904,0.63797808,-0.73952025,-0.53512019,0.40835789,0
0.088490643,1.4601177,0.46804842,0.057616618,0.9506886,0.30474824,0
-0.63951308,-0.919801,-1.29984,-0.37268049,-0.5360201,-0.75749034,0
1.6833462,0.23456079,0.32262748,0.97305501,0.13558741,0.18649419,0
-1.5339715,-0.25114775,0.24454451,-0.97487003,-0.1596095,0.155413,0
1.6129967,-0.49584427,-0.027169943,0.95573217,-0.29379746,-0.016098723,0
-0.43620464,0.89166242,-1.2749132,-0.26996562,0.55184698,-0.78903961,0
0.9016673,1.1541524,0.59359461,0.57055825,0.73032606,0.3756156,0
0.34724572,-0.75855148,1.2045246,0.23699278,-0.51770604,0.8220796,0
-0.92084956,-0.020412261,1.424459,-0.54285485,-0.012033339,0.83974028,0
-0.40090409,-1.7022253,-0.28528392,-0.22625472,-0.96066993,-0.16100317,0
0.16819741,1.5639491,-0.20753947,0.10601122,0.98572361,-0.13080768,0
0.64602715,0.62591714,-1.3484411,0.39855319,0.38614672,-0.83189309,0
-0.15053041,-0.93974614,-1.0098289,-0.10847966,-0.67722756,-0.72773272,0
-1.3465929,-0.1582671,0.14340782,-0.98765481,-0.11608056,0.10518207,0
-0.73284715,1.215811,-0.67466784,-0.46625814,0.77353346,-0.42924282,0
0.23598154,-1.0742177,-1.2650561,0.14077483,-0.64082479,-0.75466949,0
0.86494935,-0.12186975,-1.1836103,0.58798981,-0.082846664,-0.80461448,0
-0.69642806,0.93342829,0.86827111,-0.47941869,0.64256883,0.59771484,0
1.4351766,0.31706154,0.61692786,0.90035748,0.19890843,0.38702947,0
-1.3008982,-0.54807389,0.77679616,-0.80738342,-0.34015402,0.48210716,0
0.45900726,0.031705953,1.4610789,0.29965007,0.020698346,0.95382458,0
1.601496,0.16464537,0.40506074,0.96469158,0.099177271,0.24399604,0
-1.0532557,-0.2571274,-1.1434914,-0.66840923,-0.16317627,-0.72567391,0
-0.91914469,-0.48104635,-1.1015373,-0.60743868,-0.31791097,-0.72797722,0
1.5248525,0.50593472,-0.52253908,0.9025811,0.29946968,-0.30929804,0
-0.69130695,0.039822187,-1.4496988,-0.43029571,0.024786843,-0.90234762,0
-0.53350419,0.70786375,1.0943468,-0.37883008,0.50263911,0.77707255,0
1.4755352,0.056630924,-0.33340794,0.97472662,0.037409931,-0.2202466,0
1.6198734,0.41733095,0.24419969,0.95822179,0.24686843,0.14445417,0
0.45695156,-0.62413794,1.4119024,0.2838361,-0.38768417,0.87700516,0
0.95174426,-1.0100734,-0.87778026,0.57958204,-0.61510265,-0.53454036,0
1.5425338,-0.25602478,0.15871267,0.98146117,-0.16289976,0.10098342,0
-0.65521675,1.0001436,1.064853,-0.40923017,0.62466192,0.66507757,0
-1.1943587,0.20850481,1.0364878,-0.74877763,0.13071762,0.64980388,0
0.12695214,0.00097248424,1.4818044,0.085361294,0.00065388827,0.99634981,0
0.79567146,-0.73580825,0.76897049,0.59877032,-0.55372119,0.57867694,0
1.0865481,1.0752904,-0.46958974,0.67944419,0.67240453,-0.29364556,0
-1.1881011,-0.18616271,-0.911717,-0.78727627,-0.12335777,-0.6041348,0
-0.84096569,1.0022513,0.52668256,-0.59627581,0.71063328,0.37343743,0
-0.30025157,-0.78054911,1.5822673,-0.1677677,-0.43613735,0.88410306,0
-0.88990235,0.80855924,-0.71298563,-0.63661277,0.57842201,-0.51005119,0
-0.0058908272,0.85001141,1.4567062,-0.0034927679,0.5039857,0.86370492,0
0.53156358,-1.0492485,-0.80637592,0.37274274,-0.73575348,-0.5654465,0
-0.088235982,1.0797254,-0.96860719,-0.060718372,0.74299812,-0.66653365,0
-0.49296823,-0.66801399,-1.0430957,-0.36977494,-0.50107658,-0.78242493,0
0.20226303,-1.5377835,-0.2956273,0.12809968,-0.97392774,-0.18723027,0
0.10871953,-0.7395103,1.3986381,0.068556495,-0.46632129,0.88195491,0
0.24604623,1.5591328,-0.64426631,0.14432135,0.91452795,-0.37790209,0
-1.4400904,0.83665854,0.29547611,-0.8513701,0.49462593,0.17468314,0
-0.62112421,-1.3788137,0.31007236,-0.40235582,-0.89317679,0.20086066,0
1.49198,-0.37936389,0.43516976,0.93261606,-0.23713513,0.27201861,0
0.032351866,-1.632202,0.31515431,0.019457847,-0.98167872,0.18954779,0
-1.5151134,-0.26628596,0.62086564,-0.91332382,-0.16051954,0.37426335,0
0.69374043,-1.2100487,0.36298376,0.48134062,-0.83957279,0.25185046,0
1.3839186,0.89873713,-0.043389395,0.83837807,0.54445505,-0.0262853,0
1.5579778,-0.31049657,0.30998987,0.96255928,-0.19183287,0.19151981,0
0.083166674,1.6266928,0.2885578,0.050276674,0.98338312,0.17444159,0
1.1913393,-0.78634673,-0.78822643,0.73060375,-0.48223701,-0.48338974,0
1.03509,1.2591262,0.44083795,0.61301094,0.74569184,0.26107728,0
-1.0573499,-0.14578894,0.98218292,-0.72895962,-0.10051001,0.67713785,0
-0.51389498,-0.91509575,-1.0431744,-0.34728175,-0.61840659,-0.70496005,0
-0.12913798,-1.1215214,-0.96069509,-0.087115869,-0.75657296,-0.64808035,0
0.40456799,0.61381662,-1.3953071,0.25652221,0.38919935,-0.88471472,0
-1.2006638,0.038779631,1.0244857,-0.76048237,0.024562435,0.64889383,0
-0.31351328,1.2752421,-0.88475132,-0.19799364,0.80535609,-0.55874866,0
-0.46452132,1.2367129,-0.44878095,-0.3329373,0.88639176,-0.32165569,0
0.70050263,-0.1202293,-1.3300427,0.46451321,-0.079725742,-0.88197011,0
-0.514943,-0.87317348,1.1753743,-0.33176568,-0.56256515,0.75726604,0
-0.19825184,1.3648677,0.023523271,-0.14372413,0.98947084,0.017053368,0
1.6108251,-0.016888639,0.079823352,0.99871963,-0.010471041,0.04949088,0
0.72559506,1.3210311,0.051537041,0.48114231,0.87597609,0.034174226,0
-1.353019,0.049067978,0.27316761,-0.97960311,0.035525844,0.19777685,0
0.60457295,-0.72029823,1.1816554,0.40033138,-0.47696143,0.78245932,0
-0.036674377,-0.11120096,1.6074234,-0.022755336,-0.068996809,0.99735737,0
1.1001933,-0.20812243,-1.1671952,0.68021011,-0.12867464,-0.72163498,0
-0.25923079,-0.067231789,1.6693813,-0.15332513,-0.039765041,0.98737538,0
-0.66321355,-0.93304235,1.3286256,-0.37816715,-0.53202468,0.75758785,0
0.51211673,0.65338576,-1.4432744,0.30757803,0.39242443,-0.86683267,0
0.23068176,1.0848184,1.3011898,0.13492377,0.63450092,0.76105469,0
0.30866906,-1.0866829,1.2765938,0.18107423,-0.63747972,0.748887,0
0.56666368,0.81823188,1.3919449,0.33115461,0.47816944,0.81344366,0
0.21111378,0.5415535,1.3346214,0.14502557,0.37202263,0.91682428,0
-1.2997977,0.28355917,-0.47475123,-0.92018485,0.20074421,-0.33609763,0
-1.2644219,0.93259239,0.25902343,-0.79405934,0.58566976,0.1626672,0
1.4651366,-0.070853934,-0.55812532,0.93353963,-0.045145929,-0.35562015,0
-1.1547421,0.85561413,0.16679479,-0.79811716,0.5913704,0.11528269,0
-0.58971232,-0.67140889,1.5139447,-0.33544418,-0.38191539,0.86117238,0
0.075935975,1.3500949,0.82591164,0.047924131,0.85206157,0.52124304,0
0.71109205,-0.74287856,-1.2598276,0.43725902,-0.4568049,-0.77468306,0
-0.5364573,0.75859272,1.2989223,-0.33591303,0.47500741,0.81334513,0
1.0905646,0.31174484,-1.0429972,0.70774722,0.20231406,-0.67687732,0
-0.44303,-0.48057312,1.5313383,-0.26608416,-0.2886326,0.91972303,0
0.83449835,-1.4206328,-0.20057489,0.50278139,-0.85592479,-0.12084545,0
-0.24124545,1.5620763,-0.09031149,-0.15238094,0.98667419,-0.057044599,0
-0.79084414,0.91859347,0.79018188,-0.54656315,0.63485241,0.54610544,0
0.6868732,0.41268551,1.0157995,0.53089052,0.31896839,0.78512067,0
-1.0388402,0.0075861141,0.97746515,-0.72828305,0.0053182757,0.68525583,0
1.250586,0.090567634,0.86762613,0.82017672,0.059397325,0.5690186,0
-0.45343864,0.80061597,-1.0730045,-0.32079551,0.566414,-0.75912148,0
-0.19412835,1.1677501,0.86783725,-0.13225709,0.79557282,0.59124613,0
0.1305519,-1.4280998,-0.64833933,0.082953133,-0.9074195,-0.41195706,0
0.63396156,1.1855147,-0.82401913,0.40205079,0.75183916,-0.52258301,0
-0.14097545,1.4229305,0.75220793,-0.087254554,0.88070065,0.46556738,0
0.72649872,1.5660802,-0.10703728,0.42001411,0.90540534,-0.061881967,0
-0.60115349,-0.50170434,1.3539956,-0.38434562,-0.32076311,0.86567289,0
-0.25333843,-0.31334963,-1.6241206,-0.15139499,-0.18725768,-0.97057414,0
-0.44660085,-1.3861427,-0.12821899,-0.30548397,-0.9481495,-0.087704375,0
0.054818656,-1.5858718,0.49707681,0.032966629,-0.95370543,0.29893011,0
-1.39674,-0.87968123,-0.099954009,-0.84461683,-0.53194839,-0.060442775,0
-0.58512402,1.3095964,0.0034601775,-0.40793025,0.91300988,0.002412328,0
-0.29661039,0.010007796,-1.5822477,-0.18424833,0.0062166392,-0.98286009,0
-1.2987001,-0.8997885,0.43344671,-0.79269868,-0.54921156,0.26456657,0
1.0922892,0.67237705,-1.1034057,0.64558053,0.39739799,-0.65215081,0
0.89171129,0.49421647,1.0668963,0.60426658,0.33490491,0.72298038,0
1.1453182,0.94591504,-0.41547996,0.74253488,0.61325747,-0.26936477,0
-0.82096612,-0.64282662,-1.1497113,-0.52893531,-0.41416287,-0.74074054,0
1.0729749,0.93441856,-0.45456982,0.71834856,0.62558615,-0.30433103,0
0.935709,-0.11069717,1.2877735,0.58640474,-0.069373429,0.807042,0
0.99748802,0.39642587,1.0904126,0.65192014,0.25908884,0.71265215,0
-1.4314526,0.27820724,0.11821337,-0.97842252,0.19015944,0.080800876,0
-1.2048311,0.74208355,-0.025126709,-0.85131931,0.52434736,-0.017754233,0
-0.45863605,0.90909809,1.2583309,-0.2833353,0.56162089,0.77736932,0
0.52778971,-0.30573183,1.5864536,0.31052533,-0.17987746,0.93339068,0
-0.352642,1.5927067,0.50362998,-0.20655517,0.93290585,0.29499429,0
-0.61956578,0.21799204,-1.2481241,-0.4392873,0.15456168,-0.88495052,0
1.5742195,-0.37227294,0.46247697,0.93567073,-0.22126831,0.274883,0
-0.58735311,1.5180814,0.14205866,-0.35947207,0.92909676,0.086942792,0
-0.99851316,-0.55211473,-1.0772225,-0.63633555,-0.35185337,-0.68649566,0
-0.44710469,-1.2458305,0.84605139,-0.28461272,-0.79305637,0.53856957,0
-1.2263222,0.49087521,-0.34976608,-0.89745718,0.35923633,-0.25596869,0
1.4831651,-0.4276177,0.40611815,0.92923731,-0.26791239,0.25444242,0
-0.0075333426,-1.6361221,-0.33121327,-0.0045128004,-0.98010844,-0.19841118,0
-1.6247696,-0.090268463,-0.32892689,-0.97866726,-0.054372501,-0.19812654,0
1.1260853,-0.41602454,1.1246096,0.68456727,-0.25290871,0.68367016,0
-0.42017218,-0.50748247,-1.5181166,-0.25389272,-0.30665073,-0.91733521,0
-1.3224535,-0.7713936,9.6664216e-06,-0.86378956,-0.50385267,6.3138359e-06,0
-0.22291015,1.0208384,1.0650818,-0.14939906,0.68418729,0.71384013,0
-0.74335289,-0.96137947,-0.63991708,-0.54123718,-0.69998288,-0.46592528,0
-0.73773974,-1.0371379,-0.5158872,-0.5371877,-0.75519544,-0.37564501,0
0.72125465,1.0753477,-0.69361466,0.49101514,0.73207432,-0.47219843,0
-0.79423267,-1.0913522,0.88744831,-0.49167234,-0.67560518,0.5493778,0
-0.055100597,0.72641343,1.2171235,-0.038844656,0.51210481,0.85804415,0
0.19587846,-1.705454,-0.23465063,0.11305276,-0.98431581,-0.13543041,0
-0.8492828,-1.0374799,0.93655765,-0.51928741,-0.63435906,0.57265097,0
-0.61926222,-0.089588717,-1.3856665,-0.40730506,-0.058924858,-0.91138935,0
-1.428812,-0.25441423,0.28174889,-0.96647018,-0.17208965,0.19057924,0
-0.53606933,-1.3032095,-0.58591408,-0.35126454,-0.85394043,-0.38392577,0
-0.81319237,0.54419625,1.2769685,-0.50548053,0.33827251,0.79376388,0
-0.85504371,-0.89887321,-0.88374382,-0.56135452,-0.59012949,-0.58019674,0
0.78768438,1.0486497,0.70991987,0.52817178,0.70315874,0.47602776,0
-1.2419727,0.75097668,-0.12530649,-0.85255539,0.5155099,-0.08601696,0
1.4692626,0.094057389,0.34316704,0.97190481,0.062218171,0.2270021,0
1.2929006,-0.8452068,0.54224885,0.78976464,-0.51629221,0.33123118,0
-1.591184,-0.34143946,0.39791653,-0.94976425,-0.20380232,0.23751301,0
0.92507082,1.0933776,-0.44053361,0.61735898,0.72968084,-0.29399627,0
1.1668184,-1.1785896,-0.34665191,0.6886664,-0.69561386,-0.204597,0
-0.15249021,-0.48528111,1.4911182,-0.096788764,-0.30801818,0.94644427,0
0.37490562,1.4935026,-0.44353551,0.23395857,0.93201524,-0.27678683,0
0.22154503,0.57387811,1.5089297,0.13595846,0.35217938,0.92600489,0
-0.49341017,1.2935489,0.58587688,-0.32821342,0.86046088,0.38972172,0
0.89453828,0.74969661,0.9720071,0.58894026,0.49358034,0.63994366,0
-1.4476603,0.71268904,0.61955005,-0.83755541,0.41233191,0.35844561,0
-0.342657,-1.0085481,-1.2954527,-0.20431095,-0.60135186,-0.77242017,0
-0.45554608,-0.87909818,-0.96640217,-0.32925382,-0.63538343,-0.69848388,0
-1.0793201,0.41589749,-1.1682789,-0.6565156,0.25297704,-0.71062642,0
1.1212583,1.0836364,0.53123713,0.68065125,0.65781319,0.32248345,0
1.3043051,-0.76365322,-0.11548551,0.86046082,-0.50378835,-0.076186746,0
0.32743898,-1.0794487,0.9763158,0.2194851,-0.72356355,0.65443265,0
0.90649986,-0.17349236,1.3229086,0.56197894,-0.10755551,0.82012898,0
0.89524215,-1.2058375,0.57844222,0.55626589,-0.74925679,0.3594197,0
-1.0649953,-0.841043,0.44334638,-0.74598891,-0.58911878,0.31054735,0
0.014924003,-0.19767395,1.5173861,0.0097524626,-0.12917498,0.99157381,0
1.7243791,-0.055793785,0.27710474,0.9868294,-0.031929724,0.15858178,0
0.86938173,-0.42853671,1.2147278,0.55943429,-0.27575704,0.78165936,0
-0.60109025,-0.25755587,1.3862262,-0.39216918,-0.16803712,0.90441525,0
-1.0622735,-0.96108937,-0.49805331,-0.70041573,-0.63369948,-0.32839414,0
-1.0672326,-0.95268953,0.50474966,-0.70350212,-0.62799716,0.33272263,0
0.21769224,0.36151695,1.5961515,0.13185519,0.21896917,0.96678168,0
0.77727866,1.1667105,-0.23783581,0.54662871,0.82050043,-0.16726033,0
-0.91450816,0.27101627,0.95363218,-0.6780296,0.20093538,0.70703667,0
-0.7409901,-1.1702467,0.090208367,-0.53383553,-0.8430872,0.064989299,0
1.5573214,0.45519179,-0.0006856845,0.95983857,0.28055263,-0.00042261436,0
0.63415259,-0.93264407,-0.92970502,0.43387038,-0.63809037,-0.63607955,0
0.32155219,1.6327813,-0.3551738,0.18896799,0.95954376,-0.20872656,0
-0.56225991,-0.84533733,1.1170841,-0.37247941,-0.56000924,0.74003291,0
-0.51976675,1.0916179,-0.45263824,-0.40260935,0.84556311,-0.35061187,0
-0.74392408,1.4908561,0.057205152,-0.44622841,0.89426106,0.034313399,0
-0.89087403,0.51378429,1.4039441,-0.51190442,0.2952252,0.80671924,0
-0.15283912,-0.56624162,-1.3191193,-0.10587146,-0.39223483,-0.9137522,0
-1.2959247,0.77833223,0.32701385,-0.83788544,0.50323391,0.21143216,0
0.22004665,-0.42398912,-1.3045636,0.15839003,-0.30518821,-0.93902755,0
1.1926739,0.32848227,1.1742051,0.69926244,0.19258854,0.68843424,0
0.398523,-1.0485708,-0.69424731,0.30209345,-0.79485083,-0.5262621,0
-0.79047632,0.20716432,-1.2762175,-0.52162158,0.13670413,-0.84215373,0
-0.85786408,0.15940721,1.0467846,-0.62950748,0.11697429,0.76813889,0
0.16889054,0.050077885,1.5308092,0.1096043,0.03249887,0.99344391,0
-0.73232251,-0.45149076,1.3321573,-0.4617981,-0.28470731,0.84005022,0
-0.8431865,0.62847316,1.4406289,-0.47273493,0.35235527,0.80769271,0
0.38299254,-1.4028329,0.89736712,0.22413361,-0.82096118,0.52515417,0
-0.90444958,1.2973206,-0.35331622,-0.55814248,0.8005861,-0.21803403,0
-1.5154135,-0.32996228,-0.16960005,-0.97131562,-0.21149179,-0.10870642,0
0.5223704,-0.70696098,-1.0761862,0.37592849,-0.50877076,-0.77448696,0
-0.49285033,-0.5352903,1.2300677,-0.34485269,-0.37454841,0.86069167,0
0.6774112,-1.2225415,-0.55110252,0.45088586,-0.81372535,-0.36681461,0
-1.0032922,0.43214196,-1.2527329,-0.60361779,0.25999263,-0.75369054,0
0.39800161,1.3252245,-0.70370293,0.25638479,0.85368347,-0.45331153,0
0.47319886,1.3926868,-0.33467311,0.31369331,0.92324096,-0.22186173,0
1.2711878,0.52385056,-0.58278286,0.85125536,0.35079837,-0.39026257,0
-1.4263382,-0.28071108,0.65192217,-0.8952741,-0.1761948,0.40919399,0
1.2125832,0.79900122,-0.25584659,0.82235622,0.54187095,-0.17351142,0
0.88508826,-0.055499822,1.1456491,0.61091828,-0.038307879,0.7907663,0
0.66443014,0.52349818,-1.2025173,0.4519237,0.35606638,-0.817913,0
1.0590971,0.12985201,1.0536929,0.70625043,0.086590782,0.70264673,0
-1.3701606,0.86635268,0.33487448,-0.82773709,0.52337825,0.20230331,0
-1.017204,0.46715379,1.3771695,-0.57317209,0.26323089,0.77600473,0
-1.4528491,-0.33476672,-0.56226069,-0.91178238,-0.21009366,-0.35286483,0
0.7964344,0.91980731,-1.0186646,0.50190264,0.5796507,-0.6419493,0
-0.73633653,0.4300898,1.2256006,-0.49316862,0.28805688,0.82085806,0
0.33945826,1.4564137,-0.14905158,0.2258748,0.96909457,-0.099178597,0
-1.1667976,-0.89001101,-0.060197555,-0.79442769,-0.60597432,-0.040986203,0
0.38008764,-0.41308838,1.6576573,0.21717747,-0.23603368,0.94716525,0
-1.370366,-0.87903076,0.26825926,-0.83051556,-0.53273994,0.16257955,0
0.90804964,0.87830198,0.58272249,0.65269333,0.63131112,0.41885275,0
0.18445262,-1.3738568,0.71705723,0.11818845,-0.88030195,0.45945612,0
-0.62993145,1.2035235,0.49547479,-0.43565166,0.83233976,0.34266332,0
-0.71177065,1.1237283,-0.79429483,-0.45941851,0.7253201,-0.51268446,0
-0.14282112,-1.3008701,-1.032854,-0.085666917,-0.7802875,-0.61952615,0
0.84892493,-0.17788845,1.4359155,0.50605071,-0.10604068,0.85596031,0
-0.70185947,0.0076569007,-1.1266392,-0.52874893,0.0057683596,-0.84875864,0
1.2652416,-1.1782173,-0.11465307,0.73022258,-0.67999732,-0.066170968,0
-1.3000555,-0.77434301,0.60077488,-0.79851502,-0.47561395,0.36900562,0
-0.49759954,0.85866046,1.103981,-0.33520153,0.57842559,0.74368262,0
-0.75468266,1.1910042,0.27626884,-0.52525657,0.82893491,0.19228218,0
0.31171033,-0.6024527,1.24015,0.22051811,-0.42620254,0.87733871,0
-1.1242733,0.67745048,-0.74724913,-0.74435425,0.44852361,-0.49473563,0
-0.28053361,-0.28723577,-1.5163845,-0.17883897,-0.18311156,-0.96668857,0
-0.29381868,1.045563,1.248975,-0.17751953,0.6317088,0.75460643,0
-0.19289555,1.4761783,0.052470639,-0.1294903,0.99095488,0.035223413,0
-0.75503004,-0.58530587,-1.2186548,-0.48759609,-0.37798876,-0.78700352,0
1.0107652,-1.1312219,-0.42554474,0.64152652,-0.71797967,-0.27009067,0
-0.61529136,-1.2424742,0.33811569,-0.43114448,-0.8706215,0.23692307,0
-0.77114677,-0.72987729,0.99137992,-0.53085136,-0.50244176,0.6824581,0
-1.4488491,0.36548898,0.2388818,-0.95746607,0.24153191,0.15786406,0
0.9702071,0.93836015,0.60333067,0.65623033,0.63468969,0.40808186,0
-1.1863797,0.97230709,0.13008516,-0.77066892,0.63160795,0.08450295,0
0.76145744,1.1470399,0.9697184,0.45217064,0.68113822,0.57584071,0
1.6708318,-0.50839853,-0.17049491,0.95216584,-0.28972378,-0.097160853,0
-0.53481787,0.40486819,-1.207149,-0.38726893,0.2931706,-0.87411314,0
0.2976585,-0.59692031,-1.2308446,0.21261904,-0.42638332,-0.87919879,0
1.1088712,0.65525454,0.90369505,0.70475674,0.41645506,0.57435447,0
0.32536718,-1.5586357,-0.14746878,0.20347549,-0.97472697,-0.092222832,0
1.3852574,0.45465103,-0.24841262,0.93663609,0.30741042,-0.16796318,0
1.3414104,0.97842795,0.52907097,0.76977974,0.56147921,0.30361187,0
0.14691086,0.59434485,1.4573299,0.092939891,0.37599906,0.9219473,0
1.3505442,-0.23749456,0.12910084,0.98055172,-0.17243101,0.093732625,0
1.0502013,1.2916321,-0.04262507,0.63065737,0.77563918,-0.02559682,0
-1.5992205,-0.30850321,0.44325688,-0.94743657,-0.18276855,0.26260155,0
-0.84411359,-0.45752078,-1.3669064,-0.5053317,-0.27389649,-0.81830353,0
1.0969065,-0.67437404,-0.65406108,0.75951326,-0.46694592,-0.45288092,0
-0.44454634,-0.5868504,-1.2874359,-0.29974675,-0.3956989,-0.86808658,0
1.6011679,0.019572435,-0.4401986,0.96415728,0.011785713,-0.26506945,0
-0.73264533,0.841672,0.99570483,-0.48989022,0.56279194,0.6657874,0
0.33809903,1.6582841,-0.28863168,0.19693148,0.96589553,-0.16811839,0
-0.96552563,0.43288198,-0.90823567,-0.69240111,0.31042984,-0.65131712,0
0.16066018,-1.5195251,-0.019643713,0.10513577,-0.99437481,-0.012854815,0
-0.48530671,0.052844141,-1.3665465,-0.33443475,0.036415976,-0.94171506,0
0.055419523,1.3990556,0.042061031,0.039563209,0.99876583,0.030026771,0
-1.5363679,-0.1195545,0.41658539,-0.9624387,-0.074893445,0.26096478,0
-0.28532654,1.3313075,-0.36931798,-0.20225313,0.94369459,-0.26179031,0
-0.4444803,-1.4281561,0.73505521,-0.26670158,-0.85693675,0.44105527,0
-1.5189637,0.67683673,0.0011883753,-0.91342217,0.40701282,0.0007146243,0
-0.11304171,1.285297,0.80592155,-0.074307233,0.84488171,0.52976733,0
0.21651685,0.18317743,1.5186355,0.14015026,0.11856982,0.98300511,0
-0.51427549,0.81178045,-1.010221,-0.36884695,0.58222246,-0.72454739,0
0.83018273,-0.1332546,-1.3543519,0.52077699,-0.083591148,-0.84959036,0
-0.71487898,-1.3810685,0.60076743,-0.42880809,-0.82841063,0.36036021,0
-1.0821362,-1.2533375,-0.11627501,-0.6519137,-0.7550509,-0.070047811,0
1.4604937,0.4988887,-0.60890514,0.88027924,0.30069378,-0.36700368,0
-1.1732532,-0.03842672,1.0928171,-0.73153526,-0.023959449,0.68138254,0
-0.43230951,0.092944942,-1.5174943,-0.27350849,0.058803312,-0.96007043,0
-0.42785257,1.4929979,0.26065066,-0.2716845,0.9480471,0.16551203,0
0.21058218,1.4688859,-0.46553841,0.13540383,0.94449002,-0.29934004,0
-0.49312925,1.3091677,-0.7852971,-0.30737913,0.81603521,-0.48949426,0
-1.4169041,-0.70988792,0.025939533,-0.89394474,-0.4478783,0.016365618,0
0.9839431,-1.0579799,0.13960561,0.67786366,-0.7288695,0.096177883,0
1.4236513,-0.55588073,-0.49673733,0.88589162,-0.34590638,-0.30910337,0
1.2521851,-0.58273363,-0.52551478,0.84736568,-0.39434144,-0.35562089,0
0.33427376,1.4583095,-0.53794408,0.21024798,0.9172321,-0.33835039,0
-0.35173374,-1.4967455,0.060930379,-0.22858772,-0.97271764,0.039597951,0
1.1544473,0.24658586,1.0431679,0.73281592,0.15652688,0.6621784,0
0.36672437,1.252099,-1.1410317,0.21158065,0.72239518,-0.65831518,0
-0.0068452745,-1.1459835,-1.184661,-0.0041530416,-0.69527042,-0.71873617,0
1.2207623,0.66739964,-0.39172423,0.8445946,0.46174604,-0.2710177,0
1.5655411,-0.42635876,-0.20774846,0.95704591,-0.26064143,-0.12700069,0
-0.10932063,-1.3834032,0.18607941,-0.078078575,-0.98804915,0.13290095,0
0.3587071,-1.3730048,-0.68309927,0.22775915,-0.87178206,-0.43373021,0
0.044557381,1.223983,0.90550935,0.029252931,0.8035726,0.59448743,0
0.28276268,-1.3278905,0.55598128,0.19273664,-0.9051165,0.37896785,0
0.28522435,0.71031153,-1.1384224,0.20791616,0.5177862,-0.82986045,0
0.95231527,-0.96729434,0.21873584,0.69263268,-0.70352715,0.15908974,0
0.41035503,-1.4435736,0.01994903,0.27340639,-0.96180677,0.013291398,0
-1.3279657,0.30490461,0.51062411,-0.91265416,0.20954792,0.35093015,0
1.3647627,-0.49617264,-0.095001407,0.93781185,-0.34095055,-0.065281272,0
0.13504738,1.2902054,0.54072732,0.096089229,0.91800994,0.38473958,0
-0.27482876,0.56645745,1.3898867,-0.18011628,0.37124282,0.91089892,0
1.2565701,-0.17896059,-0.81278211,0.83371925,-0.11873821,-0.53927124,0
1.4386648,0.36410496,-0.12206793,0.96617162,0.24452387,-0.0819778,0
-1.0496361,-0.62903035,-1.0330608,-0.6554302,-0.39278895,-0.64507997,0
0.022701133,1.3481458,-0.67520225,0.01505431,0.8940261,-0.44776195,0
-1.5324924,0.42304245,-0.30213815,-0.94699651,0.26141712,-0.18670486,0
-0.8958742,-1.2979916,-0.29341227,-0.55845475,-0.80911988,-0.18290234,0
-1.3507423,-0.054032169,-0.22483584,-0.98566097,-0.039428245,-0.16406676,0
0.86706871,1.236533,-0.6909343,0.52208316,0.74454659,-0.41602835,0
0.39456096,-1.5242629,-0.32032493,0.24556375,-0.94865876,-0.19936131,0
0.007391741,0.26196384,-1.4763978,0.0049295477,0.17470352,-0.98460877,0
-0.93849176,1.1270775,-0.24545904,-0.63110936,0.75792795,-0.16506432,0
0.64673752,0.23831359,1.5617185,0.37886217,0.13960533,0.91486275,0
1.6442009,-0.031734761,0.55137777,0.94795024,-0.018296411,0.31789222,0
1.1145704,0.67186511,-0.36227247,0.82506204,0.49734893,-0.26817262,0
0.03134473,-1.382991,-0.4819451,0.021397253,-0.94408882,-0.32899633,0
0.54786533,0.72458142,-1.0170084,0.40177044,0.53136307,-0.74581087,0
-0.5911653,-1.0853189,-0.69279647,-0.41724992,-0.76602811,-0.48898211,0
0.95046437,1.265844,0.088863,0.59949327,0.79841489,0.056049202,0
1.1927828,1.0155237,0.25202674,0.75175005,0.64003271,0.15883958,0
0.13363105,-0.53054118,1.333027,0.092739157,-0.36819243,0.92511278,0
-0.58418494,1.2194208,-0.7111693,-0.38238248,0.7981807,-0.46550101,0
1.0711826,1.0594686,-0.65471625,0.65207493,0.64494413,-0.39855397,0
-0.60001987,1.1252283,0.90157527,-0.38420203,0.72050112,0.57729262,0
-0.33739224,-1.3424184,-0.83715141,-0.20857129,-0.8298648,-0.5175156,0
-1.0731786,-1.0933735,1.0246994,-0.58225375,-0.59321052,0.55595136,0
1.0319895,1.2243325,-0.30630416,0.63301343,0.75099498,-0.18788433,0
-0.22570656,0.0054642255,1.7113255,-0.1307569,0.0031655489,0.99140942,0
-0.73224932,0.14287998,-1.3423153,-0.47681391,0.093038209,-0.87406653,0
1.2113769,-0.15352397,0.80058813,0.82964307,-0.10514489,0.54830366,0
-0.37091473,1.1167144,0.9855817,-0.24164981,0.72753596,0.64210343,0
1.4711767,0.62097812,-0.076225728,0.92024332,0.38843122,-0.047680348,0
1.110733,0.062855415,-1.0700823,0.71956497,0.040719554,-0.69323021,0
-0.40341878,-1.2139184,0.77798301,-0.26944917,-0.81079346,0.51962596,0
-0.36479259,-1.2585695,-0.0021171691,-0.27838853,-0.96046716,-0.0016157005,0
-0.76083821,0.63086671,1.2659621,-0.47372055,0.39279643,0.78822577,0
-1.1860013,0.80813217,0.5361219,-0.77413917,0.52749246,0.3499431,0
0.25476736,1.5868821,-0.29651594,0.15588523,0.97097009,-0.18143006,0
0.31964821,0.89494914,-1.3619201,0.19247761,0.53889769,-0.82008636,0
-1.4662609,-0.51067507,0.49610987,-0.89955753,-0.31330141,0.30436561,0
0.35659665,-1.4478563,0.080442019,0.23879907,-0.96957374,0.053868927,0
-1.2717097,0.14986871,-0.82363737,-0.83526313,0.098434269,-0.54096776,0
1.5926614,0.76690632,-0.15870918,0.89737666,0.43210933,-0.08942385,0
1.3937931,0.42399994,0.92097032,0.80867618,0.24600397,0.53434527,0
0.36766487,0.69579399,-1.3371075,0.23697327,0.44846433,-0.86181402,0
-1.0151417,1.1322716,-0.75261921,-0.59828317,0.66731477,-0.4435631,0
-0.019208461,-0.7024368,-1.3114752,-0.01291005,-0.47210938,-0.88144547,0
-0.4193365,0.86686331,-0.91647345,-0.31544057,0.65208691,-0.6894055,0
0.0081814593,-1.4579946,0.20223692,0.0055581452,-0.99050122,0.1373914,0
-0.96020347,-0.73382896,-0.92132431,-0.63185853,-0.48289359,-0.60627425,0
-1.3961639,-0.55537891,0.094410613,-0.92735463,-0.36889163,0.062709048,0
1.0066857,-0.96739519,0.77122915,0.63114613,-0.60651273,0.48352554,0
0.35578999,1.3563294,-0.11307023,0.25291276,0.96414465,-0.080375798,0
0.11940277,1.4284102,-0.094541468,0.083120249,0.99436396,-0.065813467,0
-0.52089953,-1.4527559,0.61709797,-0.31339449,-0.87403744,0.3712714,0
1.1597799,-0.6347357,-0.90159911,0.72474074,-0.39664319,-0.5634048,0
-0.74192417,0.44586784,1.016348,-0.55575031,0.33398452,0.76131195,0
-0.63244367,-0.43227014,-1.4345618,-0.38888806,-0.26580185,-0.88210857,0
-0.84442937,-0.65283346,1.2389331,-0.51637566,-0.39921314,0.75761801,0
-1.0173229,0.81061041,-1.1360167,-0.58906549,0.46937174,-0.65779334,0
0.79459524,1.0393176,-0.43613914,0.57619017,0.75364733,-0.31626049,0
0.11693098,0.14756756,1.3831166,0.08376909,0.10571706,0.99086154,0
-1.1925386,-0.60479826,-0.79735965,-0.76600564,-0.38848126,-0.5121696,0
-0.23009914,-1.6339092,0.12748021,-0.139037,-0.98728681,0.07702969,0
-1.2811468,0.67908108,0.5523839,-0.82566768,0.4376511,0.35599786,0
1.2746613,0.85616332,0.69174504,0.75686711,0.50837177,0.41074368,0
-1.2811548,-0.30279541,0.34905037,-0.9406842,-0.22232665,0.25628921,0
1.3216091,-0.37995937,-0.93550032,0.794626,-0.22845301,-0.56247556,0
1.079523,0.16113517,0.9330321,0.75179571,0.1122169,0.64977729,0
0.04061991,-0.27434233,-1.5168678,0.026342148,-0.17791192,-0.98369384,0
0.5645327,0.61237705,-1.2707919,0.37154666,0.40303537,-0.83637047,0
-1.5083704,0.018214354,-0.26451179,-0.98490012,0.011893179,-0.17271467,0
0.49682882,-1.1760883,-0.72644943,0.33822528,-0.80064356,-0.4945437,0
0.61231726,0.24382684,1.2860421,0.42372224,0.16872765,0.88993841,0
-0.82743704,0.6592133,1.244065,-0.50667632,0.40366548,0.76179606,0
-0.16503954,1.5594786,0.17435239,-0.10459774,0.98835671,0.11049998,0
0.051087793,0.59722811,-1.428401,0.032979634,0.38553953,-0.92210174,0
-1.2981325,-0.6075539,0.05600109,-0.90502185,-0.42356965,0.039042398,0
-1.5123819,0.44773105,0.51570201,-0.91138589,0.26980999,0.31077042,0
-1.0914171,0.99244297,-0.6986047,-0.66866523,0.60802799,-0.42800567,0
-0.7977758,1.2231277,-0.10771009,-0.54482806,0.83531523,-0.07355886,0
-1.2915373,0.13324048,0.65005565,-0.8894695,0.091761455,0.44768715,0
-1.3324783,0.85856783,-0.095131896,-0.83910161,0.54066592,-0.059907414,0
1.0993401,0.036627762,-0.98285657,0.7452687,0.024830827,-0.66630173,0
-1.6667978,-0.47110596,-0.15121976,-0.95865464,-0.27095544,-0.086973667,0
-1.4496505,-0.086787745,-0.46444288,-0.95077431,-0.056921002,-0.30461159,0
0.88949776,0.94357526,-0.78308135,0.58718711,0.62288547,-0.51693809,0
1.0034571,0.8313272,-0.58629769,0.70225483,0.58179224,-0.41031191,0
0.07707537,-0.18372898,-1.422658,0.053653408,-0.12789671,-0.99033517,0
-0.5331614,-0.5114333,1.0772866,-0.40815198,-0.39151841,0.82469708,0
-1.2648644,0.036028646,-0.71580851,-0.87003452,0.024782233,-0.49236748,0
-1.1122346,-0.57890183,-0.907188,-0.7186659,-0.37405509,-0.58617586,0
-0.34086859,1.2596422,-0.86441267,-0.21776855,0.80473965,-0.5522418,0
-0.33044308,0.59532821,-1.3472145,-0.21890874,0.39438727,-0.89248961,0
-0.099705562,0.53268927,-1.3873708,-0.066940658,0.35763875,-0.93145776,0
-1.110824,-0.72706944,-0.23797077,-0.82358086,-0.5390597,-0.17643493,0
0.31051669,1.4652263,-0.26362771,0.2041809,0.96346265,-0.17334896,0
-1.0215414,1.0915604,-0.5641737,-0.6392951,0.68311399,-0.35306793,0
0.64873296,-1.3341494,-0.2269111,0.43226799,-0.88897914,-0.15119688,0
1.093205,0.71840453,1.111449,0.63686419,0.41851816,0.64749253,0
0.90752703,0.78276968,-0.66458112,0.66223413,0.57119709,-0.48495337,0
-1.0913802,-0.6227029,-0.91860557,-0.7011739,-0.40006498,-0.59017217,0
-0.82575601,1.1841904,-0.67783856,-0.51775408,0.74249458,-0.42500892,0
0.5662595,0.93675733,-0.96250439,0.38848934,0.64267397,-0.66033804,0
-0.47179347,1.1725283,1.0054286,-0.29212809,0.72601348,0.62254763,0
-0.50418597,-1.4647512,-0.33970031,-0.31791681,-0.92360568,-0.2141996,0
0.077582471,1.5560743,0.5941081,0.046527937,0.93321246,0.35629988,0
0.17892389,1.5101801,0.17972998,0.11684243,0.98619086,0.11736882,0
-1.3208071,-0.08887285,0.33811152,-0.96671045,-0.065046825,0.24746682,0
1.1432916,-0.39143813,-1.1055506,0.69804037,-0.23899381,-0.67499751,0
-0.44975495,1.1526775,0.69711381,-0.31668857,0.81164151,0.49086282,0
-0.61838293,-1.3846554,-0.15559107,-0.40564954,-0.90831226,-0.10206531,0
0.22870111,1.6709043,0.14747186,0.13509281,0.98699629,0.087111019,0
-0.45589837,-0.67787576,1.2916216,-0.29830781,-0.44355416,0.84514618,0
-0.77520221,-1.2361671,-0.084579982,-0.5303883,-0.84577745,-0.057869069,0
-1.1384152,-0.97768384,-0.032597393,-0.75845194,-0.65136707,-0.02171752,0
-1.0730484,-0.63164371,0.83116925,-0.71676081,-0.42191711,0.5551936,0
1.061107,-0.19837818,1.2563163,0.64061368,-0.11976527,0.75846583,0
0.82600695,-1.145838,-0.68896163,0.52558625,-0.72909403,-0.43838465,0
1.0799621,-1.129833,0.48137963,0.66036153,-0.69085592,0.29434791,0
0.13639249,0.73244488,-1.1442816,0.099888168,0.53641206,-0.83802408,0
-1.0858945,0.46258613,0.72182024,-0.78486788,0.33435017,0.52172059,0
-0.16123459,1.3297387,0.90932423,-0.099590689,0.8213473,0.5616675,0
1.5091289,0.11370035,0.30390337,0.97765726,0.073658369,0.19687736,0
-0.35634163,-1.1997831,0.64162451,-0.25335994,-0.85304928,0.4561969,0
-0.2760196,-1.5305762,0.13028583,-0.17685482,-0.98069042,0.083478406,0
0.23477979,-1.4871041,0.70787895,0.14112429,-0.89388663,0.42550051,0
-0.73848087,-1.2538112,-0.34007022,-0.49418616,-0.83904159,-0.22757258,0
-0.85256886,0.64928555,-1.1860583,-0.53335792,0.40618604,-0.74198532,0
0.46689364,0.63938928,-1.3143162,0.30429375,0.41671625,-0.85659379,0
1.4513977,-0.082643673,0.28868729,0.97926116,-0.055759866,0.19477795,0
-1.5139359,-0.56382829,0.5183661,-0.89231104,-0.33231935,0.30552402,0
-0.70735747,-0.5742631,1.2681134,-0.45300224,-0.36776662,0.81211865,0
1.354277,0.7850855,0.61298686,0.80557823,0.46700034,0.36462915,0
0.72797906,-1.08672,-0.54765499,0.51336962,-0.76635307,-0.38620538,0
0.041203994,1.5822009,0.48197731,0.024904246,0.95630342,0.29131353,0
1.5670655,-0.029046446,0.0061038299,0.99982065,-0.018532243,0.0038943717,0
-1.3174912,-0.65993649,-0.6636585,-0.8152346,-0.40835419,-0.41065732,0
0.040930718,-1.316475,-0.28010902,0.030396346,-0.97765279,-0.20801714,0
-0.096989863,-0.12070497,1.668849,-0.057869256,-0.072018936,0.99572307,0
0.31982604,-0.77060914,1.3006748,0.20696999,-0.49868661,0.84170961,0
-0.37243989,-1.216285,0.63238317,-0.26217961,-0.85620564,0.44516709,0
1.180528,-0.64544642,0.15824856,0.87141281,-0.47643957,0.11681198,0
-0.18757428,0.15122718,1.7114235,-0.10853103,0.08750049,0.99023467,0
-1.0179186,0.069547705,1.2599201,-0.62786728,0.042898055,0.7771374,0
0.040206421,-1.5865977,-0.076346993,0.025303891,-0.99852443,-0.04804894,0
1.1811409,-0.11216372,1.1037011,0.72890067,-0.069217995,0.68111134,0
0.086877942,1.5208126,0.35747769,0.055524576,0.9719668,0.22846763,0
0.56382555,0.46225196,1.1679562,0.40950593,0.33573312,0.84828544,0
-0.26298666,0.058858067,-1.6682737,-0.15562259,0.034829311,-0.98720235,0
1.3698695,-0.19285204,-0.7716859,0.86478603,-0.12174571,-0.48715821,0
-0.26714727,-1.353368,0.7814784,-0.16849834,-0.8536126,0.49290347,0
-0.25852826,1.4564521,-0.57027018,-0.16307451,0.91870111,-0.35971513,0
-1.224252,0.25828314,0.78385711,-0.82918042,0.17493401,0.53090292,0
-0.10935544,1.6320311,-0.19870536,-0.066367894,0.99048084,-0.12059443,0
0.238316,-0.61722738,1.3211241,0.16129211,-0.41773906,0.89413589,0
0.9860009,-0.18245769,-1.0907458,0.6654858,-0.12314694,-0.73618174,0
-0.76767457,1.3812597,-0.58595836,-0.45548695,0.81954747,-0.34766865,0
1.0931143,1.2543002,-0.28204873,0.64776421,0.74328077,-0.16713813,0
0.60599059,0.27022785,1.3965924,0.39192387,0.17476961,0.90324485,0
0.72013509,-0.85219383,-1.2699805,0.42599767,-0.50411731,-0.7512601,0
-1.1975151,-0.52340746,-0.7719841,-0.78893965,-0.34482813,-0.50859386,0
-0.21337019,-1.1290123,-1.2781621,-0.12414701,-0.65690297,-0.74368405,0
0.19608703,-1.3550963,0.7333715,0.12624347,-0.87242925,0.47215444,0
1.2498432,0.38365635,0.96284795,0.76975375,0.23628637,0.59299904,0
1.0490657,-0.4277761,-1.3158563,0.60416889,-0.24636114,-0.75781667,0
-0.89475369,-1.0882137,0.19465683,-0.62912858,-0.76515621,0.13686915,0
-0.58628458,1.1344935,0.81363362,-0.3871907,0.74923569,0.53733528,0
-1.4371837,-0.2581816,0.42615125,-0.94482887,-0.16973294,0.28015903,0
1.120743,0.75327963,0.40623873,0.79476821,0.53418374,0.28808177,0
0.86367095,1.3976753,-0.12264994,0.52421093,0.84832847,-0.074443206,0
0.66526204,1.2891508,0.1547063,0.45599946,0.88363987,0.10604241,0
1.4611216,0.16904996,-0.08084584,0.99187618,0.11475886,-0.05488186,0
0.61862963,0.38145366,1.2536497,0.42691055,0.26323763,0.86513203,0
-1.0404634,-0.92449212,-0.94037431,-0.61941636,-0.55037546,-0.55983055,0
-1.2099029,0.83813643,0.67018187,-0.74812591,0.51824951,0.41439724,0
-0.13356741,1.5611633,-0.4714056,-0.081630498,0.95411402,-0.28810227,0
1.5216563,-0.17413667,0.61083519,0.92282945,-0.10560758,0.37044942,0
-0.047026865,-0.0026544628,-1.5477183,-0.03037058,-0.0017142877,-0.99953723,0
-0.81181413,0.78473973,1.2116385,-0.49017316,0.47382566,0.73158699,0
-0.16745324,-1.2359823,0.44785884,-0.12635659,-0.93264544,0.33794457,0
-1.529415,-0.36405098,-0.54780149,-0.91864961,-0.21866877,-0.32903931,0
0.14613098,1.0446608,0.85177219,0.10778232,0.77051401,0.62824452,0
0.051837396,1.4819698,0.30297351,0.034249771,0.97916043,0.20017929,0
1.0540825,1.3919246,-0.51274949,0.57924879,0.76490277,-0.28177065,0
-1.5618941,-0.12302296,-0.71269619,-0.90743655,-0.071474455,-0.41406557,0
-1.196731,-0.30397591,-1.1627201,-0.70561129,-0.17922895,-0.68555796,0
-0.92471749,-0.90818697,-0.37573889,-0.68524182,-0.67299229,-0.27843314,0
-0.6490109,1.2701249,0.39399433,-0.43859455,0.85833669,0.26625711,0
-1.3010737,0.23600529,0.56293029,-0.90531921,0.16421831,0.3917008,0
0.24659497,0.91391534,1.2439878,0.15775135,0.58464849,0.79580194,0
