-0.76028758,-1.8152362,0.69380254,-0.36434236,-0.86989111,0.33248162,0
1.8488644,-0.046954844,-1.1573544,0.84742796,-0.021521777,-0.53047395,0
2.1606104,-0.26349944,-0.32974845,0.98144662,-0.11969332,-0.14978661,0
-1.4120985,-0.71767718,-1.8739985,-0.57548285,-0.29248023,-0.76372433,0
-0.73711514,1.4227133,1.6410784,-0.32137945,0.62029767,0.71550399,0
-1.6751798,1.3274242,0.64698684,-0.75014842,0.59442282,0.28972182,0
-1.8229432,0.52886117,1.4740599,-0.75852865,0.22005971,0.61335796,0
1.3306643,1.2776887,1.2948917,0.59039253,0.56688821,0.57452089,0
-0.60963529,-2.3007476,0.15152282,-0.25561613,-0.96468854,0.063532531,0
-1.6058851,-1.4601856,-0.6913957,-0.70497078,-0.64100987,-0.30351719,0
-0.98807412,-0.16707939,-2.0476265,-0.43342504,-0.073290445,-0.89820445,0
-0.05981975,-1.35633,-1.8615727,-0.02596283,-0.58867121,-0.8079555,0
-1.6061034,-1.1190255,1.0962127,-0.71587932,-0.49877685,0.48860866,0
-0.62047076,1.9326349,1.076462,-0.27005512,0.84116441,0.46852177,0
-0.86340988,2.0146472,0.65268844,-0.37753257,0.88091993,0.28539303,0
1.4641641,0.42759261,-1.485283,0.68772113,0.20084119,-0.69764072,0
1.8354385,1.5378428,-0.16486186,0.76470137,0.64071363,-0.068686634,0
1.259411,1.5510522,-0.75757241,0.5893988,0.72588563,-0.35454056,0
1.1526276,1.468716,-1.0923417,0.53286564,0.67899495,-0.50499517,0
-1.0004129,-1.2830051,1.9523466,-0.39365032,-0.50484687,0.7682246,0
-1.0402261,-2.1506147,-0.35615206,-0.43066776,-0.89038378,-0.1474518,0
1.8489728,0.068374351,-1.4209572,0.79255885,0.029308541,-0.60909075,0
1.8105986,0.96169603,0.4296039,0.86437935,0.45911345,0.2050928,0
-0.56441814,1.5294523,1.4820333,-0.25617778,0.69418699,0.6726644,0
-0.60808063,1.8107859,-1.0423009,-0.2794452,0.83215183,-0.47899237,0
0.60894406,-0.18707599,-2.0190821,0.2876187,-0.088360414,-0.95366025,0
-0.015782533,1.0552925,-2.1179562,-0.0066695577,0.44595718,-0.89502937,0
1.1966172,1.6739944,1.3864092,0.48227647,0.67467535,0.55876893,0
-1.044893,-1.8311834,1.1639286,-0.43387705,-0.760373,0.48330489,0
-1.4048249,0.2026896,-1.7410624,-0.6253919,0.090232201,-0.77507621,0
-1.4403621,0.23263815,-1.5415792,-0.678599,0.10960301,-0.72628552,0
-0.031994909,-2.0120506,0.34464806,-0.015671443,-0.98552358,0.16881226,0
-2.3942738,0.38021791,-0.34690887,-0.97766531,0.1552562,-0.14165497,0
0.16455917,1.7172688,1.3922614,0.074230634,0.77463901,0.62803209,0
0.46701521,1.2666204,-1.7862023,0.20858562,0.56571776,-0.79778153,0
-2.3214316,-0.17342815,0.099245608,-0.99631602,-0.074432187,0.042594399,0
-0.33858019,-1.4001143,1.9164062,-0.14122756,-0.5840115,0.79936564,0
2.2670107,0.8478086,0.17899805,0.93409306,0.34932879,0.073753878,0
-1.6742781,-0.16870004,1.5473961,-0.73238373,-0.073794886,0.67688137,0
-0.48218608,-0.22166078,2.2989309,-0.20436898,-0.093948349,0.97437519,0
-2.395674,-0.41126174,0.018202057,-0.98555523,-0.16918878,0.0074881362,0
-1.61279,-0.86525428,1.2841578,-0.72134691,-0.38699922,0.57436073,0
-0.6763773,1.922053,0.41835469,-0.32516658,0.92402184,0.20112289,0
-0.42353821,-0.3693352,2.1301813,-0.19225012,-0.16764659,0.96692008,0
1.088624,-0.65313751,-1.8188202,0.4907997,-0.29446319,-0.82000434,0
1.1187359,-0.92835075,1.6715316,0.50501102,-0.41906884,0.75454974,0
-0.71933341,0.88018304,-1.9533811,-0.31828099,0.38945159,-0.86430585,0
2.0294576,-0.81300706,-0.33920884,0.91730785,-0.3674764,-0.15332124,0
1.4641924,-0.84861845,-1.6315428,0.62286639,-0.36100167,-0.69405711,0
1.6952513,0.83885866,-1.5281054,0.69717592,0.3449825,-0.62843674,0
0.24305838,-2.129601,0.74542761,0.10710494,-0.93841982,0.32847658,0
-1.7956966,0.15470049,-0.98550332,-0.87416506,0.07530991,-0.47975394,0
0.035892963,0.55607444,2.3379123,0.014934232,0.2313697,0.9727512,0
-1.9770644,-1.2738415,0.60505509,-0.8141138,-0.52454132,0.24914904,0
-1.0184426,0.97036171,1.8970056,-0.43123943,0.41088051,0.80324954,0
-0.65436292,-1.8911389,-0.32353246,-0.3228021,-0.93291289,-0.15960097,0
0.557091,-1.8141102,-0.88340968,0.26613495,-0.8666414,-0.42202476,0
-1.2203574,1.3216692,-1.273373,-0.55370438,0.59967184,-0.57775879,0
-0.23365189,1.3630214,1.6308618,-0.10927227,0.63744593,0.76270717,0
0.48775682,-1.6881951,-1.7253021,0.19806288,-0.68552357,-0.70059156,0
1.446262,1.6099184,-0.14445555,0.66680038,0.74225432,-0.066601358,0
-1.7777176,0.90088028,-1.0917037,-0.78231746,0.396449,-0.48042434,0
1.5388398,1.661422,-0.19922401,0.67690921,0.73083103,-0.087635227,0
-1.6581734,1.1479573,-1.1951498,-0.7073223,0.48968086,-0.50981158,0
-0.81489962,-2.1088378,-0.43703771,-0.35389432,-0.91582531,-0.18979658,0
-0.31296676,1.6805446,-1.4555523,-0.13939525,0.74851382,-0.64830238,0
-0.34829322,-1.797349,1.2635125,-0.15657407,-0.80799228,0.56800789,0
-2.0315161,0.10227223,-0.99711347,-0.89678305,0.045146581,-0.44016117,0
-0.97349107,2.0801747,0.31648421,-0.419898,0.89724624,0.13650982,0
2.1328447,0.61123204,0.41316333,0.94505721,0.27083513,0.18307145,0
-2.0850563,-0.58363014,-0.75159776,-0.90973473,-0.25464472,-0.32793099,0
-0.30204585,2.052254,0.75917983,-0.13673909,0.9290753,0.3436881,0
-0.68557662,-1.326234,1.4698417,-0.32723221,-0.63302404,0.70156938,0
-2.0740154,0.021672478,1.1747575,-0.8700794,0.0090919174,0.49282771,0
0.60651076,1.4306445,-1.7792321,0.25675035,0.60562569,-0.75319105,0
-1.6171376,-0.018994559,-1.6675752,-0.69614357,-0.008176757,-0.71785593,0
-2.1262527,0.93237823,-0.11795723,-0.91463846,0.40107602,-0.050741013,0
0.0025220504,-1.787632,1.407851,0.0011083736,-0.7856164,0.61871284,0
-0.93355632,-1.1572679,-1.495065,-0.4427464,-0.54884338,-0.70904624,0
-0.34552681,-2.013994,-1.0642743,-0.14997071,-0.87414378,-0.46193224,0
-2.0489869,0.11066356,-1.0857872,-0.88259983,0.04766826,-0.46770215,0
0.16215017,0.43497869,2.3514426,0.067652002,0.18148102,0.98106462,0
-1.4365575,-1.7010278,-0.14099774,-0.64392602,-0.76247281,-0.063201167,0
-1.6425198,0.75909418,0.92112648,-0.80895919,0.37386227,0.45366499,0
-1.9961475,-1.2141579,0.28290868,-0.84817201,-0.51590115,0.12020916,0
1.5448129,1.2614896,-0.48896816,0.75228012,0.61430973,-0.23811364,0
-1.2395418,-0.39341652,1.5008811,-0.62416452,-0.19810276,0.75576055,0
2.0703247,0.77208275,-0.016542772,0.9369396,0.34941134,-0.0074865445,0
2.2191708,-0.011599667,-0.95939523,0.91788352,-0.0047978028,-0.39682078,0
1.3841765,-1.3956181,-1.2004339,0.60097939,-0.60594708,-0.52120233,0
-1.2036296,1.0040834,-1.6546386,-0.52809381,0.4405427,-0.72597456,0
-1.1330116,0.6659773,-1.5615332,-0.55512929,0.32630163,-0.76508737,0
-0.73910511,2.0663826,-1.0059662,-0.3061538,0.85594177,-0.41669363,0
-1.0694016,1.8042399,-0.80973208,-0.47566244,0.80251342,-0.36016321,0
1.558211,-1.1367135,1.155704,0.69299752,-0.50554109,0.51398689,0
1.9171599,-0.77748013,-1.2935674,0.78574145,-0.31864756,-0.53016418,0
-2.095077,1.3512211,-0.16977501,-0.83843541,0.54074937,-0.067942791,0
-1.6221244,1.4395485,0.17864275,-0.74542034,0.6615206,0.082092308,0
-0.60788137,0.17086284,2.1810434,-0.26771736,0.075249799,0.96055448,0
-0.30534074,-2.1539125,0.88572943,-0.12999594,-0.91700792,0.37709093,0
0.99545246,1.8192596,-0.69053549,0.45542985,0.83233023,-0.31592718,0
1.2672441,-1.8361292,0.033050336,0.56795859,-0.82292384,0.014812633,0
1.7136755,-1.436834,0.53065187,0.74558616,-0.62513793,0.23087609,0
-2.0349505,-0.64604688,-0.82113868,-0.88959479,-0.28242451,-0.3589673,0
-0.62798411,1.9416378,-0.97321463,-0.2777639,0.85880661,-0.43046296,0
0.59010983,1.5916097,1.6822306,0.24692407,0.66598916,0.70390832,0
-0.70408058,-1.6553024,-1.1142329,-0.3327482,-0.78229529,-0.52658606,0
0.57788604,-1.3179972,-1.9543891,0.23809955,-0.54303879,-0.80524379,0
1.103001,-1.5776684,-1.1577859,0.49101779,-0.70232326,-0.51540613,0
1.46368,-0.92755419,-1.2824891,0.67894828,-0.43025887,-0.59490037,0
0.34304503,-2.2586012,-0.20574114,0.14955643,-0.98467636,-0.089696415,0
1.9301522,0.78368527,-0.25661784,0.9195891,0.3733739,-0.12226133,0
-0.79467559,-1.9700478,0.13285147,-0.37336096,-0.92558396,0.062417362,0
1.8926376,-0.45572743,-1.2482423,0.81842124,-0.19706732,-0.53976947,0
-0.29967859,-0.29692596,-2.38469,-0.12374628,-0.12260963,-0.98470998,0
0.91623807,2.1471128,-0.047477789,0.39240703,0.91956687,-0.020333819,0
-1.5845125,0.23580121,-1.2218008,-0.78646952,0.11703944,-0.60643834,0
2.1428449,-0.18793809,-0.56326389,0.96368527,-0.08451996,-0.25331235,0
-0.25184107,-0.60746545,2.280652,-0.10610244,-0.25592953,0.96085501,0
2.0962851,-0.50610745,1.0163927,0.87930232,-0.21229053,0.42633346,0
-1.7969892,0.054333176,1.0993763,-0.85274124,0.025783205,0.52169681,0
0.62469715,-1.9474785,-0.033735201,0.30540121,-0.95208097,-0.016492425,0
-0.11382157,-1.2463953,1.9115013,-0.049816947,-0.54551709,0.83661783,0
1.8852522,-0.40762395,-1.0560561,0.85732371,-0.18536812,-0.48024446,0
1.0589393,1.825107,-0.053888772,0.5016883,0.86467159,-0.025530608,0
1.1408939,1.5651352,0.97533894,0.52611113,0.72174555,0.4497672,0
1.1900086,-1.1159936,1.478587,0.54047871,-0.50686252,0.67154539,0
-1.1801537,1.4999564,-1.2483617,-0.51747996,0.6577087,-0.54738814,0
0.28004187,-2.0672979,0.17511716,0.13376626,-0.98747635,0.083647385,0
-1.3038476,1.1978458,-1.702593,-0.53080601,0.48765191,-0.69313824,0
-0.68743789,2.2322428,0.22924134,-0.29291075,0.95113742,0.097677559,0
1.2168765,-0.306234,1.8064198,0.55325603,-0.13923007,0.82129341,0
-1.3368378,-0.39323309,-1.540535,-0.64355779,-0.18930361,-0.74161822,0
-2.1639018,0.59898376,0.56306565,-0.93481183,0.25876272,0.24324599,0
0.41810057,2.042099,-0.29998165,0.19853434,0.96968722,-0.14244577,0
1.6394846,-1.4466161,-0.20071945,0.7466954,-0.65885431,-0.091416702,0
1.7376506,-1.2032732,0.26299787,0.81583762,-0.56494415,0.12347911,0
-0.24543329,-0.98277444,2.0917573,-0.1056027,-0.4228588,0.90002137,0
-1.0130969,1.1218448,1.7317668,-0.44073039,0.48803928,0.75337541,0
-0.22926825,-2.2068381,-0.4100872,-0.10161268,-0.97808021,-0.18175241,0
-1.491789,0.97321481,-1.4822001,-0.64378452,0.4199928,-0.63964647,0
-0.15558295,2.3094265,-0.49926984,-0.065705173,0.97530776,-0.21084964,0
0.87940812,1.7193906,1.187544,0.38789317,0.75839633,0.52380711,0
-0.91327918,-1.9719148,0.51969677,-0.40873295,-0.88251936,0.23258737,0
1.8566631,0.8591122,-0.8629685,0.83620018,0.38692522,-0.38866201,0
-1.3214767,-1.6747135,-0.35396054,-0.6110974,-0.77444655,-0.16368383,0
1.1904271,-1.6224878,-1.1952003,0.508614,-0.69321346,-0.51065344,0
-1.6448377,1.2271841,0.2353406,-0.79628593,0.59409469,0.11393124,0
0.18468626,2.0682499,-0.83019197,0.082586065,0.92485833,-0.37123656,0
-0.72582448,-1.3011274,-1.8705043,-0.30352119,-0.54409814,-0.78219694,0
-1.7082789,-1.4656317,0.21294446,-0.75557697,-0.64825338,0.094185986,0
0.29545867,-1.3854201,-1.6112731,0.13771513,-0.64575291,-0.75102443,0
-0.41396075,2.1469383,0.048489459,-0.18928069,0.9816727,0.022171469,0
-1.3918892,-1.9335521,0.50326854,-0.57161611,-0.79406434,0.20668054,0
1.3742634,0.95328176,1.6416392,0.58639711,0.4067646,0.70048618,0
-0.99293345,-1.3862025,1.5377815,-0.4324365,-0.60371065,0.66972548,0
-1.2771796,1.5154549,0.87567103,-0.58945829,0.69942975,0.40414953,0
2.353276,-0.23291747,0.11243066,0.9940148,-0.098383449,0.04749028,0
2.2487276,0.12338007,0.32802585,0.98807245,0.05421219,0.14413187,0
-1.657346,1.1894116,-1.0410711,-0.72364736,0.51933306,-0.45456308,0
1.324896,-0.87386662,-1.4837198,0.60980588,-0.40221196,-0.68290728,0
-1.8182579,-0.44850507,0.93464714,-0.86871946,-0.21428482,0.44655168,0
-1.0827423,-1.9469808,0.0031980313,-0.48601502,-0.87394929,0.0014355135,0
0.66375858,1.7115407,1.3948518,0.28789604,0.7423569,0.60499752,0
-0.061332736,2.2463777,-0.51697695,-0.026598014,0.974181,-0.22419609,0
-0.77608109,-1.351132,-1.4420365,-0.36555058,-0.63641173,-0.67922962,0
1.7845995,0.66216695,0.88336909,0.8504265,0.3155466,0.42095745,0
0.24903353,1.0261194,-1.9559408,0.1120382,0.46164289,-0.87996215,0
1.0661762,-0.95244873,1.8706846,0.45283788,-0.40453434,0.79453743,0
0.38857758,1.8504866,-0.97052634,0.18282786,0.870664,-0.45663789,0
0.92140162,0.084627479,2.1781857,0.38934115,0.035759609,0.92039925,0
-1.527295,-1.4814657,-0.77339709,-0.67461228,-0.65436929,-0.34161258,0
1.2702892,1.4910048,-1.1297345,0.56177628,0.65938622,-0.49961698,0
0.30095693,1.5086858,1.4321795,0.14318551,0.71778363,0.68138438,0
-1.9422728,-0.72236574,0.950315,-0.85196137,-0.31685954,0.41684756,0
0.96869159,0.35575345,1.7652864,0.47373679,0.17398055,0.86330998,0
-0.28617209,1.850243,1.2903562,-0.12585454,0.81371135,0.56748086,0
1.6500093,0.94870913,-1.0683886,0.75596023,0.43465596,-0.48948771,0
1.9210485,-0.28820902,-0.71910632,0.9274255,-0.1391388,-0.34716329,0
-0.065894872,0.38995558,2.3127761,-0.028084038,0.16619696,0.98569262,0
-0.84695649,0.40820691,-1.9589113,-0.38978958,0.18786655,-0.90153772,0
-0.2442662,-2.1925135,-0.88700104,-0.10273127,-0.92210758,-0.3730469,0
-1.9392377,-1.2468895,-0.17493261,-0.83872092,-0.53928006,-0.075658411,0
-1.4981509,0.58237088,-1.6682858,-0.64669317,0.25138673,-0.72013378,0
-1.7263397,-1.1388049,0.44601625,-0.81597805,-0.53827173,0.21081568,0
0.37125197,1.4596426,-1.5873982,0.16966093,0.66705191,-0.72543573,0
-0.9325307,0.50968325,1.8931214,-0.42953706,0.23476744,0.87199897,0
0.82218874,-1.8876995,1.2256675,0.34312519,-0.78779632,0.51150954,0
1.733333,-0.9503454,-1.0727328,0.77068579,-0.42254874,-0.47696543,0
-0.25369728,-1.2404647,2.0426879,-0.10556354,-0.51615787,0.84996325,0
-2.1144574,0.69847721,0.35892582,-0.93743521,0.30966675,0.15912816,0
-0.54605818,1.9011215,-1.1051116,-0.24100333,0.83906192,-0.48774213,0
-1.7191159,0.0017784288,1.2517749,-0.80839819,0.00083628955,0.58863544,0
-1.9254301,0.19877955,1.2615005,-0.83335733,0.086035006,0.54599786,0
-0.58697051,1.5026823,-1.440022,-0.27143592,0.69489342,-0.6659171,0
-1.5002838,-1.421931,-0.033143576,-0.72571218,-0.68781161,-0.016032098,0
-0.42395002,2.0059106,-1.2414005,-0.17688422,0.83692396,-0.51794821,0
1.1332008,0.63796312,1.9778543,0.47873443,0.26951528,0.83556855,0
0.94441283,1.8730856,-0.29785258,0.44574156,0.88405418,-0.1405797,0
1.0548691,1.909713,-0.55978215,0.46834022,0.84787339,-0.24853179,0
1.4750534,1.3133337,-0.92811304,0.67594612,0.60183775,-0.4253096,0
0.43017423,0.97966242,-2.2584152,0.17213543,0.39201465,-0.9037112,0
0.20265336,-2.0525799,1.1374795,0.086036973,-0.87142771,0.48291969,0
0.20759092,-0.94275188,2.0023935,0.093385823,-0.42410168,0.90078682,0
1.4270557,-0.30174088,-1.7630421,0.62365901,-0.1318683,-0.77049345,0
-0.3831048,-0.73725754,-2.1140304,-0.16866161,-0.32457709,-0.9307003,0
0.49894598,-2.1522617,0.83562285,0.21123123,-0.91117054,0.35376504,0
-1.1393,-0.023807967,1.8711164,-0.52003598,-0.010867199,0.85407519,0
-2.1598339,-0.31605572,-0.99333686,-0.9005962,-0.13178726,-0.4141964,0
0.78702211,2.0119629,0.91228765,0.33559752,0.85792983,0.38901255,0
1.9722965,-0.77975184,0.27806702,0.92206818,-0.36454171,0.12999909,0
-0.011065502,-1.7344141,1.603211,-0.0046849879,-0.73432815,0.67877847,0
-2.093466,0.48484296,-0.72876728,-0.9226011,0.21367276,-0.32117143,0
0.29782316,-2.3687708,-0.1376294,0.1245401,-0.99054402,-0.057552207,0
1.5931002,1.4822819,-0.80937767,0.6861828,0.63845098,-0.34861651,0
-2.129992,-0.45697165,0.73294514,-0.92670578,-0.19881684,0.31888595,0
0.011830394,-0.002677425,-2.3546765,0.0050241454,-0.001137052,-0.99998671,0
2.1556141,0.65367538,-0.714306,0.91220129,0.27661884,-0.30227619,0
-1.3005629,0.95418829,1.4763262,-0.59477168,0.43636811,0.67515153,0
0.96962565,0.41768691,1.9118028,0.44397849,0.1912532,0.87538868,0
-0.28382719,2.2001321,-0.20226493,-0.12741584,0.98768437,-0.090800874,0
-0.73485494,2.2412348,-0.11428265,-0.31119472,0.94911307,-0.048396155,0
-1.3074845,-0.87406212,-1.5677352,-0.58878416,-0.39360616,-0.70597982,0
0.71867537,-1.9419541,0.25775781,0.34441543,-0.93065512,0.12352693,0
-1.8056612,0.42992407,1.1294039,-0.83105248,0.19787182,0.51980627,0
-2.2445395,-0.44842866,0.12018838,-0.97927177,-0.19564526,0.052437074,0
1.7435507,1.004168,-0.68643832,0.82014078,0.47234601,-0.32289058,0
-1.7359809,0.42406401,1.441197,-0.7561686,0.18471625,0.62776494,0
-0.69969022,0.71587485,2.1645632,-0.29339305,0.30017957,0.90764135,0
0.35559168,-0.20234436,-2.3104389,0.15154882,-0.086236686,-0.98468071,0
-0.6195122,1.9308683,0.47791559,-0.29735991,0.92679822,0.2293949,0
-1.1154976,-2.0604753,0.15490623,-0.47505033,-0.87748241,0.065968998,0
-1.6084536,-1.0775117,-1.0186603,-0.73524189,-0.49254245,-0.46564084,0
0.4502044,-1.4490134,-1.6404903,0.20146787,-0.64843798,-0.73412454,0
-1.7677281,-1.5860089,0.38870814,-0.73455518,-0.65904427,0.16152234,0
1.2614228,0.37070036,1.8153898,0.56276256,0.16538174,0.80990565,0
0.33241937,-2.176857,-0.10034242,0.15079969,-0.98751575,-0.045519628,0
0.5568524,0.4457781,-2.1596663,0.24483329,0.19599685,-0.94954824,0
1.6182357,-0.58962297,1.612967,0.68579131,-0.24987602,0.68355846,0
0.46517724,1.9469094,0.8669166,0.21324968,0.89251536,0.39741775,0
0.37098411,-0.33485046,2.4138052,0.15050085,-0.13584214,0.97923261,0
2.0699401,0.10530643,-0.19586375,0.99427867,0.050583079,-0.094081543,0
-1.6660146,-1.3398763,-0.55684745,-0.75409579,-0.60647434,-0.2520484,0
1.2175419,0.56871158,1.817155,0.53871989,0.25163507,0.8040278,0
-1.2245826,1.3848881,-1.3460985,-0.53549826,0.60559827,-0.58863604,0
-1.0065669,1.5130708,-1.2009885,-0.46209109,0.69461507,-0.55134547,0
-0.47030479,-0.12708546,-2.3450913,-0.19635631,-0.05305928,-0.97909594,0
-1.5891728,1.0933603,1.1573951,-0.70644069,0.48603535,0.51450098,0
-1.5317384,-0.021479389,-1.7323573,-0.66236782,-0.0092883063,-0.74912119,0
1.793587,-0.39562038,1.4457364,0.76732975,-0.16925374,0.61851287,0
-0.57316285,-1.8393873,-1.4992192,-0.23478612,-0.75347281,-0.61412889,0
-1.6475207,1.2558434,-0.34127784,-0.7847172,0.59816056,-0.16255128,0
-2.1567292,-0.71056098,0.10023398,-0.94885653,-0.31261247,0.044098102,0
0.017417429,-0.46361795,2.3988073,0.0071287649,-0.1897538,0.9818058,0
0.57924658,1.4118145,-1.6440419,0.2582317,0.6293956,-0.73292398,0
0.44186318,-1.245363,1.9129974,0.19004682,-0.53563476,0.82278651,0
1.1552783,-1.5109651,-0.81391311,0.55841583,-0.73034072,-0.39341339,0
1.6518751,-1.3757094,1.1284453,0.68037438,-0.5666272,0.46478406,0
0.29962397,1.6630023,1.1960878,0.14472769,0.80328184,0.57774764,0
-1.7847027,-1.1225138,-1.2043513,-0.73502064,-0.46230155,-0.49600592,0
1.1195323,1.2214798,1.6631442,0.47687563,0.52030116,0.70843238,0
-0.43033105,1.6015867,-1.5607662,-0.18896255,0.70327228,-0.68534762,0
-2.0190511,0.63964868,-0.033636399,-0.95318359,0.30197483,-0.01587957,0
-2.1744146,1.0185088,0.13767703,-0.90409368,0.42348287,0.057244338,0
-0.99816853,0.66930944,-1.6009928,-0.49861741,0.33434168,-0.79974765,0
-0.10216945,-1.5493784,-1.6600523,-0.044948049,-0.68162775,-0.73031723,0
-0.12870339,-1.6884583,1.4803584,-0.057221755,-0.75069159,0.65816998,0
0.0015351409,1.5718969,-1.6452259,0.00067465653,0.69080991,-0.72303617,0
-1.7654519,1.0901847,1.0550756,-0.75843096,0.46833891,0.45325619,0
-1.3199844,-0.47438702,-1.9887613,-0.54239237,-0.1949295,-0.81719828,0
-1.5193051,-0.087178029,1.7700458,-0.6508615,-0.037346564,0.75827736,0
-0.42858547,0.98809868,2.065542,-0.18398313,0.42417094,0.88669568,0
0.41900513,-1.3256541,1.7695796,0.18619074,-0.58907282,0.78633726,0
0.14233698,-0.55174822,2.248626,0.061360098,-0.23785333,0.96936101,0
1.826992,-0.15417171,1.6109467,0.74856496,-0.063168056,0.66004568,0
0.64431798,-1.6524867,1.2596155,0.29617977,-0.75961429,0.57901949,0
-0.86698031,1.9907814,-0.035247482,-0.39922467,0.91670948,-0.016230661,0
1.8721528,-0.32876357,1.075133,0.85729402,-0.15054704,0.49232364,0
1.4197582,1.2749856,-1.248808,0.62255585,0.55907387,-0.5475952,0
1.7990875,0.78557426,0.97068524,0.82150346,0.35871071,0.4432365,0
1.282431,1.0614161,-1.6242738,0.5513857,0.4563596,-0.69836223,0
1.5931631,1.6012418,-0.24076633,0.7013433,0.70489973,-0.10599031,0
-0.90242869,2.2313724,-0.058214806,-0.37481689,0.92678356,-0.024179077,0
1.7785318,1.461478,-0.13875474,0.77121121,0.63372958,-0.06016716,0
-2.2283523,-0.77464527,0.57906485,-0.91732466,-0.31889087,0.23837814,0
-1.2290413,1.4486593,1.0044048,-0.57192647,0.6741243,0.46739331,0
0.60729438,0.2092279,-2.0445189,0.28337923,0.097631142,-0.95402533,0
1.1591892,1.5203243,1.1223176,0.52288449,0.68578446,0.50625247,0
0.31793898,-1.8751243,1.5222937,0.13051179,-0.76972574,0.62489116,0
0.24017943,1.8184527,-1.1259676,0.11159363,0.84490055,-0.5231539,0
1.4713598,-0.65129602,1.9406106,0.58365905,-0.25835612,0.76980144,0
-1.3310664,1.8829817,0.78112572,-0.546718,0.77340996,0.32083714,0
-1.3832392,1.8080125,-0.31824693,-0.60177583,0.78657275,-0.13845278,0
-1.7628759,-0.83066869,1.4017278,-0.73436701,-0.34603438,0.58392239,0
-0.58837724,-2.1135273,-0.83434403,-0.2506727,-0.90044886,-0.35546461,0
-0.13933598,-1.2557032,1.8177553,-0.062942758,-0.56724346,0.82114136,0
0.14957051,0.52930915,2.3622086,0.06166837,0.21823575,0.97394568,0
1.8999453,0.42140487,-0.91397393,0.88367414,0.19599754,-0.42509392,0
-0.17660229,-1.3257935,1.9068669,-0.075821802,-0.56921154,0.8186875,0
-0.22869051,2.3432703,-0.21724391,-0.096722238,0.99106145,-0.091881022,0
-0.012268817,1.876423,-1.1408134,-0.0055868044,0.85445952,-0.5194878,0
0.37723309,1.9832122,0.30537871,0.18476084,0.97133565,0.14956807,0
-1.2127607,-1.7669281,0.7479673,-0.53428805,-0.77842933,0.32952088,0
0.71956855,-1.7914487,0.75660056,0.34702647,-0.86396235,0.3648859,0
0.55100667,-1.5508727,-1.8034244,0.22567929,-0.63520074,-0.73863989,0
-1.6267554,0.081056908,-1.4330717,-0.7498402,0.037362549,-0.66056323,0
-2.0891795,-0.59140235,0.042807575,-0.96200401,-0.27232289,0.019711595,0
-1.9320203,0.998972,-0.44425687,-0.8703137,0.45000511,-0.20012359,0
-0.1831882,-1.7602726,-1.23627,-0.084855914,-0.8153885,-0.57266146,0
0.33846983,-2.4017725,-0.19107112,0.13911517,-0.98715734,-0.078532524,0
-1.0221738,-1.8987302,0.45311189,-0.46389055,-0.86169595,0.20563462,0
-1.409584,0.36459121,-1.7389153,-0.62151837,0.16075674,-0.76672816,0
-1.0890285,-0.29098657,-1.9735061,-0.47916821,-0.12803294,-0.86833483,0
-0.43814927,-1.6689287,-1.3917909,-0.19764587,-0.75284129,-0.62782645,0
-0.30702055,0.48651215,-2.3585486,-0.12646581,0.20040077,-0.97151732,0
-0.50162226,-1.3571728,-1.5386654,-0.23749748,-0.64256543,-0.7284947,0
1.0752689,1.686603,-0.54548734,0.51863784,0.81350452,-0.26310664,0
2.039073,0.99938244,0.43026358,0.88225186,0.4324058,0.18616344,0
0.94542551,1.4848415,1.392234,0.42125559,0.66160452,0.62034118,0
0.74510205,2.2036209,0.68746477,0.30717748,0.90846986,0.28341582,0
0.05455333,-0.74934423,-1.9520818,0.026081134,-0.35825029,-0.93326116,0
0.56367791,1.4827231,1.6118041,0.24925613,0.65565425,0.71273339,0
2.2983947,-0.0010999237,-0.1852092,0.99676895,-0.00047701548,-0.080321617,0
-2.2377012,-0.68774647,-0.23133354,-0.95123905,-0.29235867,-0.098339088,0
-1.7565559,-0.64271915,-1.2651935,-0.77787006,-0.28462058,-0.56027603,0
1.7246451,1.0134057,-0.981278,0.77405322,0.45483556,-0.44041604,0
-0.10869288,0.98642355,-2.1254096,-0.046337485,0.42052788,-0.90609556,0
-1.8807501,-0.68962049,-0.88446808,-0.85888124,-0.31492865,-0.40390962,0
1.7477912,0.15319155,-1.2227662,0.81727839,0.071633354,-0.57177335,0
0.5725385,1.2230226,-1.615446,0.27192152,0.58086246,-0.76724011,0
0.73503155,-1.1221474,-1.6368885,0.34731278,-0.53023046,-0.77345288,0
1.8345331,1.0887552,-0.29636025,0.85177726,0.50551116,-0.13760065,0
-1.8100828,0.47202981,-1.0947171,-0.83514065,0.21778633,-0.50508344,0
1.4735497,-0.97314036,-1.3144314,0.66937494,-0.44205889,-0.59709382,0
-1.8074113,0.78743595,1.136463,-0.7942583,0.34603497,0.49941328,0
1.1521946,-1.6100574,-0.068318412,0.58161211,-0.81273496,-0.034486201,0
-0.87414449,1.9340341,-0.23525009,-0.40935752,0.90569854,-0.11016645,0
0.20318048,0.68784934,1.9286805,0.098740391,0.33427677,0.93728828,0
1.4212043,1.196614,1.1890419,0.64430505,0.54248673,0.53905386,0
1.6846797,1.3935958,0.98864204,0.70209199,0.58078247,0.41201758,0
-0.60212874,0.11499843,-2.2384384,-0.25944212,0.04954993,-0.96448672,0
-0.75265211,2.0642786,-0.82838702,-0.32052553,0.87909669,-0.35277811,0
-2.2439508,-0.76757866,-0.44846311,-0.92969942,-0.31801829,-0.18580438,0
1.5913541,-0.23388562,-1.6272463,0.69551551,-0.10222179,-0.7112025,0
-0.4871439,1.5268788,1.5241181,-0.22025797,0.69036525,0.68911701,0
1.4639957,0.34691525,-1.6179876,0.66261667,0.15701674,-0.73231471,0
2.1008711,0.78534222,-0.11452583,0.93547416,0.34969652,-0.050995968,0
-1.2386342,-0.19941169,1.8324751,-0.55774277,-0.089792795,0.8251425,0
-0.62563241,0.2406197,-1.9094261,-0.30915803,0.11890291,-0.94354832,0
-1.4212629,-1.7397066,0.96152687,-0.58163053,-0.71194887,0.39349046,0
2.3074512,0.15181428,-0.77277726,0.94639522,0.062266242,-0.31695262,0
0.47743577,-1.1492043,-1.6839309,0.22801735,-0.54884553,-0.80422425,0
0.8848182,1.9966938,-0.036168844,0.40508807,0.91412771,-0.016558845,0
-2.0322464,-0.14520122,0.66978294,-0.94756883,-0.067702495,0.31229749,0
2.0000603,-0.46282697,0.58169365,0.93735254,-0.21690948,0.27261779,0
-2.193188,0.13539574,1.1107832,-0.89075673,0.054990571,0.45114127,0
0.16961257,1.4149977,-1.511659,0.081641749,0.68109858,-0.72762585,0
0.29402038,-1.4167562,-1.5107315,0.14055328,-0.67726505,-0.72218895,0
-0.093120612,1.9099407,1.3451258,-0.039830398,0.81693727,0.57534945,0
1.4481128,-1.4500202,-0.52306908,0.68468952,-0.68559134,-0.24731493,0
-1.4607457,-1.8050605,-0.52664047,-0.61348957,-0.75809622,-0.22118047,0
-0.83798641,-0.24076974,2.0934715,-0.36951882,-0.10616992,0.92313802,0
1.3433487,1.2485067,1.1083905,0.62689281,0.58263344,0.51724619,0
-0.72077245,0.0061209192,2.1362202,-0.31969708,0.0027149208,0.9475159,0
-2.2407224,0.37239966,0.32148272,-0.976735,0.16232969,0.1401349,0
-0.81229216,0.72808754,-2.1225979,-0.34037054,0.30508673,-0.88942116,0
0.36678854,-0.54854578,-1.9971117,0.17438677,-0.26080185,-0.94951129,0
1.2419475,-0.553011,-1.9014342,0.53132415,-0.23658656,-0.81346262,0
-1.6735265,0.37467268,-1.4157373,-0.7525453,0.16848144,-0.63662356,0
-1.4018017,1.2787609,1.2657454,-0.61458957,0.56064498,0.55493867,0
-0.234208,1.4540375,1.9213161,-0.09674602,0.60062999,0.79365218,0
0.86045444,-2.1266229,0.46862954,0.36748341,-0.90823942,0.20014259,0
0.88528359,-1.0571461,1.8082485,0.38930783,-0.46488521,0.79518622,0
1.7940661,-0.70656168,1.3625002,0.75987631,-0.29926407,0.57708669,0
-1.3239074,-1.5397971,-0.0052028359,-0.65194708,-0.75826013,-0.0025620928,0
-0.38960251,-1.88741,0.68155462,-0.1905922,-0.92331445,0.33341414,0
-1.9980197,-0.84249848,-1.2367277,-0.80040097,-0.33750248,-0.49542958,0
2.1206772,-0.9910087,-0.46160793,0.88884264,-0.41536298,-0.19347443,0
0.055323184,-1.6170664,1.7171489,0.023448417,-0.68538439,0.72780383,0
-0.19174385,2.1800194,-0.78288716,-0.082496896,0.93794322,-0.33683357,0
1.0459068,0.9126749,-1.4998492,0.51178741,0.44659385,-0.73391241,0
-0.53014046,-2.0797749,0.42963025,-0.24219969,-0.95016485,0.19628066,0
-2.3935211,-0.091378115,0.13661177,-0.99765074,-0.038087588,0.056941565,0
-0.69677371,0.42051202,-2.0319881,-0.31832084,0.19211078,-0.92831314,0
-0.83860016,-1.2392371,1.7749579,-0.3612296,-0.53380519,0.76456863,0
-1.3498096,-0.49554491,1.5257415,-0.64383036,-0.23636433,0.72774607,0
-0.25199288,2.3476722,-0.48103586,-0.10457612,0.97427535,-0.19962811,0
2.1730106,-0.44852954,-0.87012702,0.91175294,-0.18819426,-0.36508834,0
0.34381539,0.00048805456,-2.3189201,0.14666206,0.00020819047,-0.98918664,0
-0.63722879,1.8865236,-1.1404225,-0.27769729,0.82212627,-0.49698356,0
-0.87417716,1.1284497,-1.7671891,-0.38481486,0.49674621,-0.77792084,0
-0.21009952,1.6381218,1.4900842,-0.094452411,0.73643464,0.66988271,0
0.39769617,-2.0166914,-1.0387757,0.17267877,-0.87564284,-0.45103404,0
0.89060497,0.24314401,2.1095996,0.38675535,0.10558805,0.91611761,0
-2.0023584,0.89534289,0.61191571,-0.87931746,0.39318168,0.2687172,0
1.2479916,1.632628,-0.20630728,0.60426253,0.79049885,-0.099891506,0
0.84241176,1.8133051,-1.2691597,0.35571411,0.76568043,-0.53591132,0
-1.8951381,0.87912744,-1.269803,-0.77518618,0.35959777,-0.51939946,0
2.0706651,0.15370937,0.34977892,0.98340029,0.072999656,0.16611701,0
1.5673194,1.4157343,-0.7023226,0.70416957,0.63606501,-0.31554145,0
1.3631573,-0.2424107,1.7923371,0.60188192,-0.10703286,0.79137987,0
0.75378662,-2.0194318,0.90064031,0.3226662,-0.86443877,0.38552845,0
-2.1558378,-0.5542258,0.097038671,-0.96758825,-0.24874894,0.043553129,0
0.71555066,0.53873175,1.9478707,0.33375621,0.2512821,0.90855056,0
-0.85999006,-2.1709538,-0.20548728,-0.36687285,-0.92613161,-0.087661132,0
-0.095854692,-1.0603188,1.8328314,-0.045222856,-0.50024307,0.8647033,0
-0.50318801,-1.7656889,1.2216389,-0.22817427,-0.80066448,0.5539611,0
-0.79442906,0.078979179,-1.9918067,-0.37021741,0.036805637,-0.92821568,0
-1.1945347,1.1009333,1.7186533,-0.50511068,0.46553123,0.72673506,0
-0.16909809,-2.1111295,-0.49695554,-0.077731453,-0.97044951,-0.22844182,0
-0.32269225,-0.45326787,2.1340055,-0.14632256,-0.20553118,0.96765006,0
-1.7242415,1.3580015,0.49668911,-0.7662254,0.60347414,0.22072071,0
2.0675526,0.9701826,0.40294331,0.89151847,0.41833797,0.17374718,0
-0.7099551,0.72678876,2.1225784,-0.30169645,0.30884993,0.9019928,0
-1.2758915,1.2671559,1.4594212,-0.55092168,0.54714972,0.63016862,0
0.55611336,1.9692903,-1.1073323,0.23901337,0.84638625,-0.47592318,0
0.35692558,0.21890439,2.2512827,0.15587029,0.095596097,0.98314083,0
0.30249286,0.84843808,2.1686075,0.12881713,0.36130887,0.92350537,0
0.99942106,1.6852999,1.0935149,0.44540501,0.7510758,0.48733917,0
0.021773349,-2.1149166,-0.58696526,0.0099196769,-0.9635306,-0.26741433,0
-1.2471144,-0.72570115,-1.7712084,-0.54589337,-0.31765765,-0.77530247,0
0.46896651,1.315855,-1.654719,0.21656017,0.60763782,-0.76411903,0
-1.6333216,-1.6383336,-0.10472958,-0.70530039,-0.70746464,-0.04522429,0
-2.0324678,0.25742826,0.27605805,-0.98318839,0.12452865,0.13354065,0
1.7840265,0.48096979,1.0151198,0.84622794,0.22814128,0.48150784,0
-1.0933914,1.4190681,-1.0826129,-0.52236456,0.67795563,-0.51721513,0
-0.30190435,1.4245939,1.6375518,-0.13776842,0.65008688,0.74726623,0
1.121573,-1.3636844,-1.0983905,0.53936601,-0.65579772,-0.52821749,0
-1.3193023,0.5427171,1.8975904,-0.55572605,0.22860722,0.79931676,0
1.3772386,0.85333014,-1.3625404,0.65057707,0.40309426,-0.6436339,0
-0.64809495,2.0208547,1.2160357,-0.26496762,0.8262077,0.49716493,0
-1.350728,-1.5960549,-0.67806846,-0.61449856,-0.7261073,-0.30847964,0
-0.53544348,1.9790262,0.28400281,-0.25869849,0.95616269,0.13721541,0
2.080209,0.36004466,-0.0081875175,0.98534244,0.17054406,-0.0038782202,0
-0.97171646,-1.6584011,0.80821574,-0.46602345,-0.79534912,0.3876105,0
-1.6236905,1.4148386,-0.72340184,-0.71468955,0.62276047,-0.31841519,0
1.8544987,-0.3627772,1.006483,0.86619288,-0.16944472,0.4701046,0
0.31563258,0.095934816,-2.0132885,0.15471148,0.047023717,-0.98683995,0
1.6107523,-0.75922513,1.5873868,0.6752184,-0.31826296,0.66542375,0
-1.8865573,-1.4841648,-0.34270728,-0.77805001,-0.61209613,-0.14133862,0
0.92632872,-0.036737856,2.0907755,0.40502518,-0.01606315,0.91416442,0
0.79342484,-1.1237805,1.905696,0.33757922,-0.47813594,0.81081825,0
1.5174838,1.0955381,-0.91511488,0.72838229,0.52585113,-0.43924913,0
1.5653455,0.90939772,-1.363348,0.6907112,0.40127316,-0.60157943,0
-0.23654157,-2.1044319,-0.12085009,-0.1115168,-0.99212795,-0.056974407,0
-0.73999852,-0.80308658,1.9704056,-0.3284815,-0.35648596,0.8746528,0
-1.1300846,1.2140055,1.5468751,-0.49827856,0.53528106,0.68205041,0
-2.2553267,-0.12887166,-0.11855956,-0.99699926,-0.056969553,-0.052410942,0
-1.7597904,-1.1794665,0.96349978,-0.75615036,-0.50679559,0.41399857,0
-0.80975491,-1.5201162,1.3728231,-0.36764911,-0.690171,0.62329626,0
0.64984423,2.1175644,0.021201389,0.29336542,0.95595241,0.0095711462,0
1.1828098,-2.0956936,-0.39801201,0.48492983,-0.85919505,-0.16317746,0
0.38023132,1.7995003,-1.4739888,0.16132045,0.76347262,-0.62536806,0
1.5661052,0.013500008,1.8971591,0.63660288,0.0054875906,0.77117229,0
2.229651,0.00022372024,0.60954213,0.96460384,9.678708e-05,0.26370347,0
0.040118027,-1.5749506,1.4334438,0.01883488,-0.73941833,0.67298281,0
-1.4182827,1.4569671,1.1486968,-0.60731483,0.62387967,0.49187696,0
1.1349577,-0.7630806,1.6696523,0.52586281,-0.35356009,0.77360427,0
-1.0726249,1.7803075,-0.38163531,-0.5075804,0.84246522,-0.18059491,0
0.62595212,-1.7385397,1.2305238,0.28195685,-0.78311604,0.55428296,0
0.3877838,2.2959044,-0.46422097,0.16332908,0.96700269,-0.19552335,0
-0.033963606,1.2756215,-1.7970244,-0.015409915,0.57877302,-0.81534308,0
2.0674491,-0.12614463,-0.30350274,0.98759794,-0.060257919,-0.14497995,0
-1.1002434,-0.17199785,1.9197332,-0.49575129,-0.077499352,0.86499965,0
-0.72984391,0.64273173,1.8749175,-0.34554881,0.30430505,0.88769054,0
-0.0023760528,1.1557261,1.9641538,-0.001042609,0.50713116,0.86186826,0
1.8253663,1.0746855,-0.0018715041,0.86173981,0.50734979,-0.0008835211,0
1.8718206,0.62167555,1.4056079,0.77285123,0.25668204,0.58035791,0
2.2837212,-0.88009387,-0.28452221,0.92686504,-0.35719258,-0.11547543,0
1.3611987,-0.83886582,1.37559,0.64535671,-0.39771393,0.65217978,0
-1.4990642,0.053001449,1.4729146,-0.71307409,0.025211703,0.70063525,0
-2.0209515,-0.7199412,-0.19157222,-0.93827802,-0.33425096,-0.08894226,0
0.59915042,-2.0074749,1.0848382,0.25396371,-0.85091454,0.45983365,0
0.076057702,1.1984159,1.9112842,0.033695463,0.53092819,0.84674662,0
-1.5401758,0.91618097,-1.32365,-0.69130999,0.41122907,-0.59412211,0
-0.70076239,-0.82754666,-1.8672,-0.32454056,-0.38325751,-0.86474693,0
-1.4924327,1.6289073,0.36693513,-0.66641498,0.72735488,0.1638473,0
1.3131475,-1.7871698,-0.17454362,0.59028763,-0.80337065,-0.078461051,0
-0.34989318,-0.81029034,1.9232495,-0.16534804,-0.38291663,0.90886456,0
-1.7398795,0.88713598,0.50009072,-0.8630327,0.44004619,0.24806008,0
-1.4027115,1.4498343,-1.2878195,-0.58608842,0.6057775,-0.53808361,0
2.1081121,-1.2879946,-0.021602953,0.85330248,-0.52134281,-0.0087442473,0
-1.8205267,1.3970426,-0.13913931,-0.79187733,0.60767376,-0.06052164,0
-0.95450705,-1.5475625,1.3894118,-0.41711774,-0.67628181,0.60717028,0
-0.27425581,-1.331241,-1.6931187,-0.12631585,-0.61313862,-0.77981102,0
-1.0773429,-2.0861814,0.20047009,-0.45718268,-0.88529474,0.085071757,0
0.1376016,-1.2783734,2.059546,0.056674171,-0.5265255,0.84826821,0
-1.9132984,0.78022212,0.44707093,-0.90502691,0.36906007,0.21147314,0
-0.18415198,-1.6634531,1.4643204,-0.082810126,-0.74802762,0.65848094,0
-2.0689251,1.1414151,0.15701714,-0.8736617,0.48199457,0.0663049,0
1.1175272,1.5243422,-1.1853909,0.50089473,0.68323606,-0.53131241,0
0.011143656,-2.1928358,0.16867945,0.0050668134,-0.99704164,0.076695405,0
-1.744766,-1.4861461,0.082100451,-0.76078457,-0.64801645,0.03579893,0
1.2241467,-2.0960476,-0.13638508,0.50352317,-0.86215854,-0.056098711,0
0.9974544,1.5460927,-1.2643036,0.44680038,0.69255781,-0.566333,0
1.4615018,0.59240234,-1.7748204,0.61557162,0.24951462,-0.74753869,0
-0.23649032,0.36711639,2.0246122,-0.11418185,0.17725049,0.97751975,0
0.5649808,-1.0296396,1.7879287,0.26411211,-0.48132658,0.8358047,0
-1.5588411,-1.0332112,-1.3456351,-0.67659122,-0.44844958,-0.58405238,0
1.0088152,1.6937087,-0.48156509,0.49711245,0.83460647,-0.23730016,0
1.6853899,-1.5275141,-0.74398321,0.70424461,-0.6382758,-0.31087533,0
2.1231306,-0.90126973,0.63655627,0.88732427,-0.3766695,0.26603726,0
-1.5992631,1.3529336,0.8893311,-0.70274496,0.5945034,0.39078808,0
-2.1728802,0.6767562,0.19074984,-0.95142728,0.29632756,0.083522603,0
1.1106095,1.5083907,1.0395871,0.51841992,0.7040996,0.48526746,0
-0.74536556,-2.0282998,0.35979861,-0.34024584,-0.92588204,0.16424154,0
-0.12970908,2.0392146,0.26766148,-0.062941372,0.98952955,0.12988283,0
1.3488605,-1.2642694,-1.0752555,0.630696,-0.59114313,-0.50276464,0
1.0395739,1.3882526,-1.2836416,0.48179591,0.64339286,-0.59491032,0
1.01871,1.9429413,1.1217715,0.41344208,0.78854007,0.45526943,0
-0.80483294,0.10987891,2.0152633,-0.37041059,0.050569892,0.92749047,0
0.21836756,-2.1226802,-0.97450805,0.093085825,-0.9048571,-0.41541374,0
-1.5625629,-0.18359406,-1.6901649,-0.67669624,-0.079508744,-0.7319566,0
-1.2979946,0.54784089,1.9623202,-0.53731555,0.22678323,0.81231856,0
-2.3564839,-0.043228425,0.53480685,-0.97504455,-0.017886665,0.22128752,0
0.36418277,1.7828807,-1.0281179,0.17424576,0.85303158,-0.4919101,0
-1.9747069,-0.51555359,-1.1186138,-0.84847856,-0.22151954,-0.48063836,0
-0.91513431,-1.6557522,-1.151623,-0.41319546,-0.74759442,-0.51997328,0
-2.0749056,-0.49392986,-0.59376055,-0.93717933,-0.2230949,-0.26818573,0
-0.81515437,-2.0440602,0.90388972,-0.34264475,-0.85920721,0.37994406,0
2.1732426,0.71112698,-0.44376254,0.93300486,0.30529723,-0.19051376,0
1.1533184,1.856239,-0.34027094,0.52146596,0.83928722,-0.15385145,0
0.90216577,-0.63599491,2.0260599,0.39101678,-0.27565297,0.87813509,0
2.1236975,-0.28295425,-1.1847099,0.86745203,-0.11557636,-0.48391026,0
1.2054752,1.8269984,0.9577021,0.50455135,0.76468974,0.400846,0
0.30656502,2.2837465,-0.027868589,0.13303466,0.99103755,-0.012093645,0
-1.8430086,1.4476864,-0.9702785,-0.72659039,0.57073802,-0.38252401,0
-1.4512843,-0.57554108,1.7782239,-0.61330402,-0.2432202,0.75146669,0
-0.88561916,-1.2949574,2.0230732,-0.34593281,-0.50582492,0.79023516,0
-1.3981359,0.91118044,1.2610716,-0.66841125,0.43561089,0.60288447,0
-2.0330105,-1.1783906,0.34275442,-0.85611135,-0.49622643,0.14433567,0
-0.38070923,-2.184119,0.029701157,-0.17170335,-0.98505765,0.013395494,0
-1.4824682,1.4346188,1.4369035,-0.58966923,0.57063657,0.5715453,0
2.0603583,0.93633676,-0.17562799,0.90766907,0.41249326,-0.077371053,0
1.5999475,-1.039016,-1.2386335,0.70341128,-0.45679975,-0.54456085,0
1.7789698,-1.1980935,0.23059516,0.82468176,-0.55540341,0.10689761,0
0.99284434,2.1010752,-0.017565489,0.42722982,0.90411144,-0.007558587,0
-1.9280224,-0.64459348,-0.3208918,-0.93680096,-0.31319955,-0.15591714,0
2.0526149,0.34617454,1.0489659,0.88058615,0.14851131,0.45001373,0
-0.39569438,0.60928184,2.111867,-0.17717655,0.27281269,0.94561183,0
-0.86395001,0.90435433,1.8711724,-0.38386205,0.40181413,0.83138156,0
-1.0499077,1.8307606,0.91269326,-0.45661113,0.79620868,0.39693573,0
1.8302441,0.66768187,1.0797155,0.82168972,0.29975638,0.48473924,0
-2.1656084,-0.5083003,-0.80022466,-0.9160704,-0.21501526,-0.33850169,0
1.3410872,-1.421225,-1.0087986,0.6098327,-0.64627373,-0.45873109,0
-0.81052983,-1.81794,0.99260229,-0.36441195,-0.81734073,0.44627121,0
-0.89091438,0.32957295,1.9898,-0.40405837,0.14947195,0.9024384,0
1.3190477,1.8140991,-0.80028605,0.55388445,0.76176268,-0.33605,0
1.8079045,-0.39458385,-1.2439725,0.81081873,-0.17696509,-0.55790353,0
1.7523707,1.1404935,0.65723747,0.79955357,0.52037257,0.29987752,0
-2.2251067,0.18189353,-0.26166123,-0.98989964,0.080920316,-0.11640716,0
0.75734711,2.205786,-0.072493218,0.324581,0.94534749,-0.031068873,0
1.2911527,-1.4413618,1.2693548,0.55790848,-0.622814,0.54848957,0
-1.1183342,-1.0323224,1.3635796,-0.54727602,-0.50518471,0.6672911,0
1.5526992,1.0852096,0.95800781,0.73143482,0.51121306,0.45129171,0
0.79189551,1.9790131,-0.30203226,0.36783382,0.91924751,-0.14029336,0
-0.65485513,1.7589576,1.2134503,-0.29299995,0.78700536,0.5429306,0
1.2119517,2.0849917,-0.064117722,0.50236464,0.86424732,-0.026577359,0
-1.6206112,-0.44031227,-1.5056567,-0.71851683,-0.19521756,-0.66755044,0
-0.2585808,-0.57809305,-2.3508661,-0.10620766,-0.23744187,-0.9655782,0
0.9886775,-1.3432529,1.651917,0.42116627,-0.57221168,0.70369935,0
1.072057,1.8203119,0.16311136,0.50596619,0.85911125,0.076981753,0
-1.5271988,0.98823303,1.5742304,-0.63483882,0.41079703,0.65438938,0
-0.24758309,-0.62454122,-2.1879594,-0.10817249,-0.27287075,-0.9559499,0
-1.5724111,0.40821427,-1.6534145,-0.67836267,0.17611,-0.71330881,0
-2.1140842,0.30607966,0.41518906,-0.97150069,0.14065504,0.19079489,0
1.5577625,1.6566169,0.078918234,0.68462449,0.72807026,0.03468395,0
0.60849333,-2.0728738,1.0618759,0.25277972,-0.86111122,0.44112349,0
1.7453604,0.13515818,1.5307883,0.75053722,0.058120515,0.65826726,0
0.58430028,-2.1766226,0.52388853,0.25253123,-0.94072384,0.22642161,0
-0.98134196,0.26913255,1.9628141,-0.44386426,0.12172956,0.8877874,0
1.8316233,0.8020308,-0.88096803,0.83827358,0.36706305,-0.40319002,0
-1.1439065,1.862802,-0.35472947,-0.51653314,0.84115183,-0.16017877,0
0.6132676,-1.9606502,0.90355831,0.27326155,-0.87363219,0.40261015,0
1.3342701,-1.9662002,-0.30804563,0.55685961,-0.82059658,-0.1285633,0
-0.45819473,-2.0544169,-0.1831602,-0.21686138,-0.97234571,-0.086688846,0
-1.2535857,-1.7566416,-0.82964766,-0.54219627,-0.75977618,-0.35883614,0
0.4010458,-1.4132125,-1.5817717,0.18578069,-0.65465742,-0.73274088,0
0.18592377,2.3778622,-0.35582486,0.077098303,0.98604465,-0.14755237,0
2.1935952,-0.31937751,0.51097131,0.96428019,-0.14039482,0.22461733,0
2.1095369,0.3415328,1.0542532,0.88527912,0.14332618,0.44242334,0
0.54545039,-0.20169321,-2.1096289,0.24925567,-0.09216819,-0.96404183,0
0.043341089,0.56183219,-2.2462041,0.01871532,0.24260741,-0.969944,0
0.94669408,1.762428,0.97296613,0.4255484,0.79222894,0.43735796,0
-1.3139837,-0.94080043,1.6814837,-0.56341529,-0.40340024,0.72099346,0
0.52856976,-2.176661,0.3426562,0.23326349,-0.96058381,0.15121785,0
-0.33246583,1.6397436,-1.3454595,-0.15485226,0.76374167,-0.62667328,0
-1.7469392,-0.43956944,1.6917015,-0.70691693,-0.17787631,0.68456447,0
0.30009249,-2.2332916,0.065143608,0.13311975,-0.99067861,0.028897425,0
-0.060678471,2.0522017,-0.503932,-0.028702624,0.97074914,-0.23837401,0
-1.1376487,-1.6136936,0.3396838,-0.56785721,-0.80547494,0.16955313,0
-1.518769,-0.012068026,1.857013,-0.63307863,-0.0050303959,0.7740711,0
0.64567226,-1.9292907,-1.3556576,0.26410431,-0.78915268,-0.55451512,0
-0.46500146,-0.68456465,2.0179799,-0.21319807,-0.31386539,0.92522162,0
0.80404955,-1.6124303,-1.484094,0.34444979,-0.69075501,-0.63577658,0
0.81304002,-0.5624305,-2.1204696,0.34751162,-0.24039546,-0.90633643,0
-1.8310535,-0.85824889,0.31850192,-0.89444369,-0.41924241,0.15558368,0
0.69272095,1.5422038,-1.2305367,0.33127955,0.73752725,-0.58847886,0
-2.1336586,0.57471746,-0.083555594,-0.96489543,0.25990206,-0.037785992,0
-0.3257477,-1.5479063,-1.6098119,-0.14433382,-0.6858536,-0.713283,0
0.072350003,-1.9274436,-1.1978072,0.031865709,-0.84891987,-0.52756011,0
-1.5329815,0.98664737,-1.2553333,-0.69257522,0.44575062,-0.56713843,0
0.03760457,2.1989167,0.81621206,0.016030489,0.93737829,0.34794381,0
0.42369097,1.8178444,0.94722188,0.20241731,0.86847061,0.45253289,0
-0.77210265,-1.8279617,-1.0181004,-0.34619209,-0.8196137,-0.45649153,0
0.21398418,0.41527978,2.3352222,0.089852951,0.1743779,0.98057067,0
-1.5252028,-0.059249375,1.4940562,-0.71408832,-0.027740108,0.69950581,0
-2.2421772,0.90600014,-0.023920352,-0.9271239,0.37462443,-0.0098908907,0
-2.1554658,0.059035208,-0.44766808,-0.97875416,0.026806714,-0.20327717,0
1.5339087,-0.61803824,1.1958348,0.75162101,-0.30284104,0.58596349,0
1.1626018,1.3720223,1.0964481,0.55197728,0.65140545,0.52056897,0
-1.6254567,-1.2929611,0.77125049,-0.73365659,-0.58358335,0.3481071,0
0.66440111,2.0624788,0.97996384,0.27937779,0.86726344,0.41207057,0
-2.1786942,-0.26690453,-0.46636307,-0.97090673,-0.11894253,-0.20782863,0
1.856529,-0.75840294,-1.0197914,0.82517701,-0.33708963,-0.45326972,0
1.3428923,0.019776162,1.9100757,0.57511896,0.0084695145,0.81802595,0
-2.2632742,-0.31676596,0.51855689,-0.96579659,-0.13517208,0.22128139,0
1.4915649,1.3649384,1.3895104,0.60798907,0.55637383,0.56638986,0
0.09202338,1.6056978,1.5084735,0.041733097,0.72819257,0.68410087,0
-2.1505365,-0.34311998,-0.21673775,-0.98265505,-0.15678348,-0.099035025,0
1.1135255,0.53910023,-1.5192171,0.56834805,0.275159,-0.77541471,0
-0.70078236,0.36453903,2.2527544,-0.2935541,0.15270351,0.94366711,0
-0.13230215,-1.1399627,-2.0736194,-0.055823609,-0.48099619,-0.87494361,0
0.32293281,-0.97502244,1.8192918,0.15457211,-0.46669549,0.87080586,0
-1.2571747,0.82855558,-1.5170833,-0.58817583,0.38764411,-0.70977545,0
2.1309555,0.75815946,0.81231552,0.88669562,0.31547195,0.33800641,0
-0.54968494,1.6578295,1.0532516,-0.26950875,0.81282848,0.51640588,0
0.096660227,-0.1453808,-2.2404401,0.043013021,-0.06469328,-0.99697781,0
0.53102094,0.51939255,-1.9886687,0.25014356,0.24466588,-0.9367854,0
2.0021098,0.5548436,-0.41831428,0.9447192,0.26180953,-0.19738655,0
-0.76989943,0.74663365,2.1159539,-0.32454693,0.31473938,0.89196891,0
-0.92866743,-1.1383078,-1.3820392,-0.46042517,-0.564363,-0.6852029,0
1.7634417,-1.3015341,-0.7451154,0.76176798,-0.56223404,-0.32187346,0
-1.7625411,-1.1252801,-1.2752967,-0.71960312,-0.45942479,-0.52067292,0
0.399652,1.0911462,1.6517186,0.19789371,0.54029751,0.81787336,0
2.0609138,-1.124141,-0.63805807,0.84716088,-0.46209028,-0.26228064,0
-0.32107249,-2.1291749,-0.62610024,-0.14318085,-0.94949615,-0.27920663,0
1.4133954,-1.2451903,-1.1260188,0.64404434,-0.56739801,-0.51309496,0
0.84799957,0.41035089,-2.1954234,0.35495836,0.17176598,-0.91896731,0
0.97968102,0.065954924,2.0814829,0.42567894,0.028657921,0.90442032,0
1.9564589,0.38314164,0.68743169,0.92775375,0.18168594,0.32598042,0
2.1627543,0.58609116,0.34939876,0.95366359,0.25843611,0.15406691,0
-1.9933053,-0.19879882,-1.2252948,-0.84885824,-0.08465939,-0.52179742,0
-0.97731686,-0.11425483,-1.7729999,-0.48197335,-0.056345884,-0.87437218,0
-1.6980863,-1.4961978,0.71292424,-0.71563476,-0.6305517,0.30045199,0
1.4370888,-0.91640913,1.5068666,0.63168424,-0.40281519,0.66235566,0
0.35620818,-2.282119,0.21675791,0.15354463,-0.98371446,0.09343417,0
-1.9640825,1.2650532,-0.37727976,-0.82995266,0.5345673,-0.15942524,0
-1.198131,-0.96621621,1.6001053,-0.53964233,-0.43518713,0.72069299,0
-1.3298885,0.53308308,-1.7825453,-0.58150578,0.23309541,-0.77943408,0
-1.9496075,-0.85361636,-1.1121272,-0.81188154,-0.35547429,-0.46312684,0
-0.094578549,-2.1445217,0.071087398,-0.044035431,-0.99848151,0.033098035,0
-1.3352742,1.6361785,-1.3180596,-0.53637505,0.65724725,-0.52945995,0
-0.082984231,-1.5158533,-1.4648674,-0.039335936,-0.71854025,-0.69437206,0
-1.8128279,0.51299781,-1.2228807,-0.80710161,0.22839528,-0.54444712,0
1.8440714,-1.1096472,-0.14209168,0.85497403,-0.51447004,-0.065878518,0
-1.9777713,-0.60730791,-0.57783926,-0.92071056,-0.28271967,-0.26900113,0
1.2721326,1.4773344,1.1033212,0.56788492,0.65948778,0.49252683,0
-1.5169579,0.76967078,-1.370142,-0.69450593,0.35237688,-0.62728947,0
0.025422733,-0.86919457,-2.0187969,0.011565724,-0.39542818,-0.91842401,0
-1.9133632,0.0049236845,1.5012338,-0.7867406,0.0020245307,0.61728036,0
-0.59065223,-1.9425538,-1.1452748,-0.2533789,-0.83331972,-0.49130175,0
1.9300332,-0.94483042,-0.66225779,0.85831678,-0.42018127,-0.29451668,0
0.11002689,2.0237041,-1.2633405,0.046070997,0.84737527,-0.52899212,0
-1.4833441,0.97998142,1.6433936,-0.61268979,0.40477771,0.67879766,0
1.3208928,-1.2203552,-1.4464012,0.57235157,-0.52878797,-0.62673521,0
-0.0071614902,0.67395091,-2.0623395,-0.0033007145,0.31062245,-0.95052761,0
1.4266603,0.61467934,1.2683218,0.71139151,0.3065044,0.63243741,0
0.50417954,-1.9938278,1.1823577,0.21253324,-0.84048367,0.49841431,0
-1.9088715,1.257664,0.69400448,-0.79903722,0.52644736,0.29050431,0
0.18506683,1.7984339,1.5839514,0.076994196,0.74821067,0.65897852,0
1.4410712,0.093032278,1.9095868,0.60191828,0.038858477,0.79761165,0
1.5791602,-1.6302996,-0.042524986,0.69562936,-0.71815652,-0.018732507,0
-1.63018,-0.34796438,1.2569456,-0.78085095,-0.16667381,0.60207289,0
1.3775364,0.39283192,1.708383,0.61787868,0.1762004,0.76627624,0
1.7510998,-1.3440826,0.60115075,0.76538855,-0.58748531,0.26275709,0
0.94016957,0.35732862,-2.0591145,0.41026288,0.15592791,-0.89853817,0
-0.16270567,0.64937729,1.9141746,-0.080235042,0.32022738,0.94393682,0
-0.23209459,-1.9390576,-1.2080131,-0.1010722,-0.84441787,-0.52606368,0
0.28132734,-0.45013839,2.1314001,0.12807952,-0.2049339,0.97035962,0
-1.8361142,0.87504047,0.98027343,-0.81320876,0.38755247,0.43415979,0
-2.1688554,0.68924874,-0.5781734,-0.92368841,0.29354241,-0.24623682,0
-2.1070194,0.53393918,1.0932348,-0.86599547,0.21945165,0.44932491,0
0.54732245,2.1874881,0.17836848,0.2419678,0.96707463,0.078855574,0
0.61091584,1.633554,-1.3316708,0.27840713,0.74444473,-0.60687023,0
-0.70557725,1.160859,1.5825291,-0.33830497,0.55660009,0.75877935,0
0.34178057,1.8847855,-1.3227427,0.14682253,0.80966848,-0.56822544,0
-0.74059796,-2.0768032,0.55332559,-0.32578501,-0.91357446,0.24340492,0
2.076896,-0.57320195,-0.23478261,0.95828819,-0.2644777,-0.10832965,0
0.049104359,-0.28364211,2.4039552,0.020281598,-0.11715284,0.99290681,0
0.41174832,-2.2679963,0.43809074,0.17548606,-0.96661413,0.18671313,0
-0.7675153,1.2633079,-1.5526271,-0.35802412,0.58929729,-0.72425652,0
1.3826536,1.7917656,0.11236011,0.61017227,0.79071552,0.049585108,0
