-2.6545937,1.1751083,-0.75046968,-0.8853097,0.39189982,-0.25028241,0
-2.922375,0.4894729,0.036742896,-0.98618591,0.16517773,0.012399273,0
-1.8179175,2.0436823,0.053248655,-0.66450566,0.74702972,0.019464048,0
-0.27972332,0.48522228,-3.0102892,-0.091354683,0.15846847,-0.98312867,0
-2.4836109,1.4858694,-0.52234614,-0.84450299,0.50524068,-0.17761353,0
-2.1239965,2.2256629,0.10414882,-0.68999541,0.72302252,0.033833489,0
-1.6414733,-1.6210521,-1.8446569,-0.55571359,-0.54880011,-0.62450051,0
-0.72709358,-0.88222909,-2.5414796,-0.26090866,-0.31657714,-0.91197896,0
-0.17357524,0.078681961,2.885139,-0.060031008,0.027212162,0.9978255,0
-2.3854144,-1.2760959,1.4297733,-0.77957737,-0.41704094,0.46726429,0
-1.0528219,-2.140897,-1.4408911,-0.37774536,-0.76813936,-0.51698202,0
-1.2096878,2.4604268,-0.96619678,-0.41613096,0.84638345,-0.33237037,0
1.3090814,-0.55496746,2.4304669,0.46490207,-0.19708899,0.86314654,0
2.2761838,1.5613226,0.54226184,0.80917513,0.55504453,0.19277214,0
-1.3506032,0.48880517,2.5343859,-0.46363038,0.16779535,0.86999518,0
0.044936348,2.2126138,-1.9757485,0.015146954,0.7458185,-0.665977,0
1.7730783,-2.0569434,-0.98414391,0.61384308,-0.71211773,-0.34071252,0
-2.6751947,1.3165345,0.77811122,-0.86815858,0.42724395,0.25251395,0
0.82404363,2.294867,1.4950151,0.28811073,0.80235535,0.52270275,0
1.8409036,-0.96304792,2.3818247,0.5824514,-0.30470288,0.75359577,0
-0.77407783,0.27040011,2.9418216,-0.25346753,0.088541023,0.9632833,0
0.50376052,-2.5824769,-0.72999835,0.18449104,-0.9457745,-0.26734558,0
2.0553401,1.5506953,-1.6685603,0.66990882,0.50542706,-0.54384345,0
2.486268,0.77118492,1.1398163,0.87491322,0.27137858,0.40109926,0
-0.77076346,-1.4090247,-2.3459022,-0.27110863,-0.49561086,-0.82514846,0
2.9404678,-0.031217271,0.19282316,0.99780083,-0.010593083,0.065431461,0
1.4011928,2.2775323,0.47635314,0.51587683,0.8385185,0.17537881,0
0.86432815,2.5011218,-1.0692873,0.30283436,0.8763172,-0.37464583,0
2.7564683,0.40733078,-0.93417788,0.93794739,0.13860303,-0.31787404,0
-1.6711497,-1.8828998,-1.4937907,-0.57087177,-0.64320642,-0.5102852,0
-1.6099727,-1.7509919,1.475132,-0.57521045,-0.62559372,0.52703458,0
-0.73643667,-2.4411478,-1.396667,-0.25330865,-0.83967006,-0.48040494,0
-0.35889921,1.78306,-2.35325,-0.12067062,0.59950805,-0.79121977,0
1.0553604,2.2357779,1.5656238,0.36063755,0.76400954,0.53500462,0
-1.3678252,-2.582444,-0.45801556,-0.46241614,-0.87303829,-0.15483981,0
0.91448903,0.60439283,2.8005123,0.30407968,0.20096859,0.93120736,0
-1.3825495,1.9988437,-1.3007892,-0.50154066,0.72511065,-0.47188088,0
0.55373323,-1.7851949,-2.0653069,0.19879101,-0.6408875,-0.7414481,0
-1.8949677,-1.7679634,-1.2587316,-0.65771317,-0.61363202,-0.43688574,0
0.41164595,-2.3837485,-1.5217144,0.14404027,-0.8341046,-0.53246766,0
1.073307,0.49123466,2.8449264,0.34846705,0.15948753,0.92365283,0
-1.0934356,-1.7458941,-2.0811126,-0.37340644,-0.5962199,-0.71069646,0
-0.28712261,0.28698093,2.9076488,-0.09779878,0.097750522,0.990394,0
-2.566416,-0.58977634,1.3300102,-0.86993384,-0.19991551,0.45083138,0
-0.32338542,-1.3105696,2.6959226,-0.10725917,-0.43468446,0.89417273,0
1.7485147,-0.83853352,1.8882029,0.64601588,-0.30980921,0.69762588,0
-2.8795812,0.23893631,0.041905668,-0.99647039,0.082683191,0.01450133,0
-0.83972687,-2.5474677,0.077540621,-0.31293154,-0.94933605,0.028896188,0
0.88896549,-2.6611631,-0.51689792,0.31159696,-0.93278122,-0.18118118,0
1.5349752,1.2692428,-2.2702785,0.50824511,0.42025855,-0.75171119,0
0.90997577,-0.46947038,-2.9082632,0.2951349,-0.1522646,-0.94324487,0
2.3264735,-1.0093496,1.2940902,0.81714016,-0.35451943,0.45453045,0
-1.4031667,-0.60285234,2.4154906,-0.49099895,-0.21095133,0.84523344,0
-0.88942999,1.1151488,-2.6612115,-0.29457316,0.36932969,-0.88137519,0
1.5370384,1.1470293,2.0947981,0.5411858,0.40386495,0.737571,0
0.89808375,2.7315333,0.22898164,0.31134963,0.94697398,0.079383858,0
2.3623259,-0.71579945,-1.1826903,0.86307663,-0.26151758,-0.4320963,0
0.77192175,0.80072665,2.8506243,0.25226894,0.26168257,0.93160212,0
2.3253016,-0.21399701,-1.413945,0.8518067,-0.078391582,-0.51795763,0
2.1517096,-1.5462232,-0.56359601,0.79430246,-0.57078749,-0.20805117,0
2.3758862,0.19038959,1.947049,0.77197433,0.061861496,0.63263631,0
-1.9315822,0.99263954,-1.8822103,-0.6721217,0.34540316,-0.65494204,0
1.1459329,-2.6831768,-0.54927802,0.38598028,-0.90376437,-0.18501125,0
-2.6700914,-0.42595267,-1.1122311,-0.91326517,-0.1456908,-0.38042215,0
2.2706573,0.69143385,-1.7474053,0.77038342,0.23458809,-0.59285563,0
0.13538772,-0.15979515,-3.0100331,0.044870328,-0.052959464,-0.9975881,0
2.1262343,-2.214637,0.46547669,0.68473732,-0.71320677,0.14990318,0
3.0338483,0.24833632,-0.29608497,0.99198502,0.081199147,-0.096811645,0
1.2142458,-0.13140936,-2.5948455,0.4233911,-0.045820668,-0.90478754,0
1.6277714,2.2493503,0.49390987,0.57719618,0.79760367,0.17513694,0
-1.9182448,-1.9998519,0.65604973,-0.67360878,-0.70226586,0.23037772,0
-1.0331877,0.41529706,2.7762306,-0.34540668,0.13883863,0.92812616,0
0.39100537,-0.46362701,2.8121147,0.13591804,-0.16116217,0.97752392,0
2.258604,1.91813,0.51292062,0.75105089,0.63783348,0.17056087,0
-1.1731105,-2.7575939,0.66251701,-0.38223138,-0.89849925,0.2158661,0
-0.33996207,2.6970282,0.84922361,-0.11937156,0.9470129,0.29818958,0
-1.2390429,-2.1403801,1.8848768,-0.39846548,-0.68832779,0.6061601,0
-1.4136504,0.042906795,-2.3789115,-0.51079035,0.015503393,-0.85956544,0
2.590214,0.19478734,-1.4277213,0.87387925,0.065716818,-0.48168066,0
-0.8403523,1.2864578,-2.5394335,-0.28312367,0.43342137,-0.85556227,0
2.2394602,-1.3202254,1.2598001,0.77521658,-0.45701218,0.43609524,0
-2.5863042,-0.27786037,1.1236285,-0.9127599,-0.098062634,0.39655158,0
-0.46677825,2.7506084,-0.055908665,-0.16727445,0.98570681,-0.020035405,0
0.51949281,-1.5402333,-2.2922843,0.18486518,-0.54810286,-0.81572551,0
0.47987428,2.7298968,-0.60723561,0.16911927,0.96208143,-0.21400447,0
-2.3121145,-0.81258988,-1.5543386,-0.79670584,-0.28000134,-0.53559226,0
2.0367002,-1.6610622,0.99569362,0.72468591,-0.59102875,0.35428146,0
-0.59428453,-2.5640419,0.7530725,-0.21708015,-0.93659276,0.2750822,0
0.87675905,1.4605622,-2.5357971,0.28700396,0.47810984,-0.83008415,0
-1.4647049,2.2049303,-1.0357287,-0.5152874,0.77570081,-0.36437234,0
-2.4419489,0.49941429,1.3924445,-0.85530233,0.17492184,0.48770922,0
-2.3847129,-1.3950458,-0.92049301,-0.81889856,-0.47905177,-0.3160927,0
0.62646037,-1.0961012,-2.7921815,0.2044358,-0.35769591,-0.91118586,0
0.46858647,1.3012697,2.3084178,0.17412873,0.48355734,0.85781789,0
-0.3781037,-1.6427176,2.339498,-0.13112538,-0.56969017,0.81133175,0
0.6270256,2.7730677,0.086694531,0.22044255,0.97492367,0.030479079,0
-1.9926082,-1.582281,1.3340404,-0.6935789,-0.55075389,0.46434733,0
0.32119399,-1.5591029,2.5065055,0.10817288,-0.52508032,0.84415001,0
-2.708487,0.9865613,-1.061432,-0.88173163,0.32116908,-0.34554279,0
1.014954,2.5018768,1.0169816,0.35179228,0.86717325,0.35249504,0
2.425174,-1.4123522,0.71737522,0.83722138,-0.48757389,0.24765311,0
-1.6187438,-0.40242374,-2.1982577,-0.5866164,-0.1458343,-0.79662639,0
2.4344811,1.0476736,-1.4332879,0.80797178,0.34770885,-0.47568908,0
-2.9357414,-0.80531532,0.35301858,-0.95795465,-0.26278049,0.11519264,0
-0.13076666,2.2894773,-1.6421257,-0.04636246,0.81171912,-0.58220488,0
-0.010127953,2.8007898,0.062575206,-0.0036151805,0.999744,0.022336267,0
-0.94503486,1.8228365,2.2641277,-0.30919012,0.59638333,0.740762,0
1.2523272,-0.71385276,2.7381268,0.40470895,-0.2306926,0.88486809,0
1.5100861,-2.279788,0.42028254,0.54581469,-0.8240205,0.15190949,0
-0.027734501,-2.863101,0.20034513,-0.0096627949,-0.99751419,0.069800928,0
1.0425855,-0.92111409,-2.5686808,0.3569001,-0.31531775,-0.87931627,0
2.6674149,1.3203448,-0.37916183,0.88903081,0.44006175,-0.12637201,0
0.90435994,2.5604603,1.0554975,0.31041393,0.87885648,0.36229065,0
2.4835641,1.4043576,-0.68536824,0.84639442,0.47860265,-0.23357232,0
-0.28916696,1.1369193,2.6701815,-0.099148035,0.38982084,0.91553771,0
1.4375986,-1.7661819,-1.5111332,0.52600348,-0.64622897,-0.55290908,0
-1.5928054,2.2825344,0.43526161,-0.56539208,0.81022257,0.15450315,0
0.52468795,-0.2654489,-3.0333583,0.16981149,-0.085910633,-0.98172468,0
0.30500078,-0.60782319,-2.7184002,0.10884438,-0.21691136,-0.97010434,0
0.99255115,0.0069116591,2.6780896,0.34751844,0.0024199549,0.93767005,0
0.82180333,1.0907891,-2.5098493,0.28760898,0.38174674,-0.87837952,0
-1.0756605,1.878499,2.1200421,-0.35501346,0.61998415,0.69970357,0
0.3174063,-2.3405273,1.4285913,0.11498653,-0.84790099,0.51753461,0
0.94424856,1.3591297,-2.3705494,0.32660756,0.47011143,-0.81995291,0
2.2153111,1.2670426,-1.5620837,0.74036837,0.42345217,-0.5220564,0
-2.4365788,-1.2186221,-0.64860749,-0.87005979,-0.43514872,-0.23160642,0
-1.2034712,2.1507933,1.5903847,-0.41029489,0.73326188,0.5422039,0
-2.530724,-1.5402542,0.558406,-0.83944523,-0.51090479,0.18522416,0
-2.5016489,1.4762522,-1.167658,-0.79908192,0.47154757,-0.37297574,0
0.8556239,-0.92486352,-2.5978687,0.29634252,-0.32032344,-0.89976329,0
-0.27331287,-1.9326385,1.967067,-0.098628774,-0.6974197,0.7098437,0
-2.0310998,-1.9950234,-0.61718202,-0.69721955,-0.68483549,-0.21186125,0
-2.0576148,-1.8740296,-0.40445349,-0.73163372,-0.66635567,-0.14381303,0
2.4376638,-1.8021648,0.54148805,0.79158235,-0.58521682,0.17583737,0
-1.4342442,-2.6910698,-0.23136148,-0.46898678,-0.87995911,-0.075653419,0
1.5639201,-2.5212817,-0.18462938,0.52609861,-0.84815252,-0.062108837,0
-1.4323479,2.3593075,-1.1471945,-0.47920942,0.78933507,-0.3838079,0
-0.084836513,2.4066906,1.8122241,-0.028148541,0.79853386,0.60129142,0
-2.182411,-1.4972411,1.1363914,-0.757707,-0.51982421,0.3945415,0
1.0715708,2.5937414,-0.10395031,0.3815724,0.92359751,-0.037015352,0
0.9423824,2.2124872,1.2733996,0.34631598,0.8130666,0.46796143,0
2.8586566,0.12663351,0.98430848,0.94469088,0.04184816,0.32528117,0
1.634542,2.019737,-1.0907557,0.58004755,0.71674114,-0.38707492,0
-0.032614179,1.0911721,-2.6586008,-0.011348007,0.37967011,-0.92505229,0
2.8751104,0.27915314,0.71965802,0.96579814,0.093772255,0.24174528,0
-1.0702332,-0.40931192,2.6761668,-0.36763224,-0.14060137,0.91928113,0
-2.192903,-1.7688881,-0.46412843,-0.76798952,-0.61949277,-0.16254516,0
-2.0001392,0.16938311,1.9896454,-0.70768982,0.059931178,0.70397687,0
-2.3458054,0.11240236,-1.8454969,-0.78537673,0.037632361,-0.61787319,0
2.5111539,-0.0011991748,1.3517071,0.88053727,-0.00042049118,0.4739767,0
1.7685534,1.3074402,1.7188159,0.63358861,0.46839368,0.6157701,0
-0.99802393,-2.4570541,-1.4048545,-0.33254933,-0.81870955,-0.46810848,0
2.651319,-0.2462475,1.3140875,0.89289963,-0.082930155,0.44255266,0
0.22194958,2.0546145,1.859944,0.079829231,0.738989,0.6689713,0
-2.3668368,0.35045031,-1.9107735,-0.77297318,0.11445179,-0.62402982,0
-2.2470131,0.17219305,1.726735,-0.79146028,0.060651165,0.60820389,0
-0.32610404,0.9898898,2.5400033,-0.11877708,0.3605482,0.925147,0
-2.1879742,1.4334626,-0.74651003,-0.8043521,0.52697539,-0.27443507,0
2.0171773,-1.2754917,-1.7449857,0.68228692,-0.43142033,-0.59022123,0
0.41284356,-2.7093139,-1.0355211,0.14091679,-0.92477608,-0.35345671,0
-0.96513683,2.1636009,-2.0067089,-0.31085709,0.69686562,-0.64633286,0
-2.4171181,1.554024,-0.87212402,-0.80489928,0.51748931,-0.29041693,0
2.4124935,1.7359507,-0.73463339,0.78798699,0.56700945,-0.23995155,0
-0.71819955,-2.0105903,1.9594215,-0.24783756,-0.69381803,0.67616057,0
-1.1622763,-0.021225294,2.6456618,-0.4022015,-0.0073449365,0.91552174,0
-1.870513,-2.2282455,-0.72358137,-0.62393892,-0.74326617,-0.2413619,0
1.2945592,2.1982617,-1.1733257,0.46102339,0.78285342,-0.41784924,0
2.1219232,1.718623,0.23156777,0.77430862,0.62714082,0.08450114,0
-1.8600798,-0.32797658,-2.1830256,-0.64436084,-0.11361624,-0.75623435,0
-0.055090424,0.34178793,2.7388535,-0.01995562,0.12380718,0.9921056,0
-1.549997,2.5896816,0.44198859,-0.5081467,0.84899402,0.14490031,0
-2.8815432,-0.26612705,0.18186387,-0.99380165,-0.091783285,0.062722161,0
-1.6314372,-1.2236032,1.9943815,-0.57194668,-0.42896891,0.69918716,0
-2.7184894,0.11844128,-1.5786313,-0.86415464,0.037650164,-0.50181603,0
-0.34664348,-3.0494964,0.076283135,-0.11291014,-0.99329448,0.024847256,0
-2.6693373,1.4667724,-0.64742106,-0.85725212,0.47105092,-0.20791793,0
-0.6680491,-2.3684387,-1.1682407,-0.245239,-0.86944741,-0.42885795,0
1.772931,-2.3536863,-0.10456771,0.60128528,-0.79824704,-0.035463884,0
2.6050973,-0.6578815,-0.89350522,0.92002428,-0.23233949,-0.3155531,0
2.8475556,-1.1004568,-0.58048588,0.91635007,-0.35412958,-0.18680172,0
0.85204065,-1.590211,2.5551662,0.27240217,-0.50839937,0.81690097,0
0.080347076,-1.149279,2.7706776,0.026776481,-0.38300893,0.92335653,0
0.27897677,1.7652357,-2.1184893,0.10065474,0.63689655,-0.76435035,0
-1.2173358,0.60844535,2.6591113,-0.40752599,0.20368849,0.89018738,0
-2.5473669,-1.543857,-0.15640117,-0.85402167,-0.51758832,-0.052434534,0
-0.86382622,2.3973982,-1.5565984,-0.28928372,0.80285621,-0.52128375,0
1.6791817,-0.34627286,2.0786517,0.62318778,-0.12851082,0.7714414,0
-0.11729259,-2.1138694,-2.1807451,-0.038590916,-0.69549286,-0.71749592,0
0.99691135,0.61318785,2.4801061,0.36351785,0.22359534,0.90435612,0
0.21174283,2.0504653,2.1944339,0.07032828,0.68104172,0.72885942,0
-1.336337,2.4118233,-1.2227355,-0.44304568,0.7996096,-0.40538254,0
0.26396969,-1.7797712,-2.0260911,0.09741766,-0.65682214,-0.7477262,0
-1.7752324,1.6323081,-1.8885906,-0.57955194,0.53289211,-0.61655945,0
-1.173501,-2.5626471,-0.15138251,-0.41574889,-0.9078967,-0.053631917,0
1.9284893,0.55884665,-2.037256,0.67420661,0.19537474,-0.71223181,0
2.2203448,1.9816148,0.046736822,0.74598521,0.66577739,0.015702507,0
1.6677195,2.27914,-0.64451039,0.57572091,0.7867921,-0.2224943,0
2.7331882,0.25208065,1.0901302,0.92545515,0.085354291,0.36911714,0
2.6672714,1.0602413,0.18746619,0.9272998,0.36860201,0.065174229,0
-0.69982195,-0.4465847,2.7254007,-0.24563476,-0.15674949,0.95660502,0
-2.4867334,-1.5303416,0.64802235,-0.83142209,-0.51165909,0.21666178,0
2.8412497,0.4128772,0.87248152,0.94685227,0.13759218,0.29075626,0
-0.59101927,2.4894316,-1.1705831,-0.21005148,0.88475758,-0.41603163,0
-2.1563737,1.2758677,-1.1561739,-0.7814526,0.46236426,-0.4189882,0
-1.4647121,-0.78601152,2.2715523,-0.52035946,-0.27924156,0.8070007,0
1.5053053,0.37467864,2.2535241,0.55022132,0.13695307,0.82371134,0
-1.7262715,-0.67193568,-2.4971941,-0.55520356,-0.21610801,-0.80314773,0
1.6778522,1.0000105,2.1365685,0.57959974,0.34544513,0.73805946,0
-2.5300601,-1.0879369,0.024408448,-0.91863167,-0.39501563,0.0088623883,0
-2.6984129,-0.36477524,1.4813347,-0.87050807,-0.1176765,0.47787863,0
-1.6939038,-1.4224998,1.7422434,-0.6015901,-0.50520098,0.61875796,0
-2.457067,1.3082051,-0.75969899,-0.85154194,0.45338264,-0.26328772,0
2.2057617,2.1012506,0.11988771,0.72349185,0.68921208,0.039323278,0
-2.9404559,-0.6782968,0.41698512,-0.96523923,-0.2226589,0.13688028,0
-0.7678203,0.028646562,-2.7316537,-0.27058244,0.010095144,-0.96264386,0
-0.4533205,-1.99745,2.1187408,-0.15382831,-0.67780817,0.7189666,0
-1.3667643,2.5190854,-0.18924148,-0.47585639,0.87705165,-0.065886833,0
0.0069705229,0.19078748,-2.9710546,0.0023413156,0.064083241,-0.99794179,0
1.9280643,-0.41345707,2.1213198,0.66570616,-0.14275505,0.73243183,0
2.6702666,0.48776326,0.70476252,0.95215422,0.17392489,0.25130171,0
-2.586412,0.68798971,-1.3255523,-0.86599743,0.23035669,-0.44382909,0
-0.65804338,-1.3869895,-2.3221729,-0.23638764,-0.49824554,-0.83418965,0
2.7921205,0.20746423,0.69791555,0.967641,0.071899079,0.24187055,0
1.7647194,1.9319656,-1.0095071,0.6292212,0.68885386,-0.35994577,0
-2.4881842,0.95916915,0.53408265,-0.91490281,0.35268551,0.19638164,0
-0.22773914,-0.71965134,2.6991158,-0.081257768,-0.25677299,0.96304977,0
-2.7014999,1.0971162,0.087663241,-0.92609209,0.37609872,0.030051541,0
-0.89596212,-2.4181902,-1.3729078,-0.30667689,-0.82771701,-0.46992958,0
-0.13633901,-1.8551613,2.0785191,-0.048878476,-0.66508818,0.7451635,0
1.1062734,1.4755108,-2.2530527,0.37995815,0.50677562,-0.77382833,0
-2.5146921,0.68917453,1.5790224,-0.82495713,0.22608711,0.51800609,0
-0.8647539,-2.526252,-1.0604172,-0.30099148,-0.87930256,-0.36909521,0
-0.33102059,0.65936381,-2.8012877,-0.11427046,0.22761668,-0.96702272,0
-2.3380296,-1.7474513,-0.58879465,-0.78518194,-0.58684766,-0.19773526,0
-2.4702194,-0.16777997,1.7227,-0.8189674,-0.055625152,0.57113761,0
-2.9820743,0.20739041,-0.28601944,-0.99305505,0.069062702,-0.095246807,0
1.6358778,0.25348648,-2.3571076,0.5679478,0.08800602,-0.81834602,0
-1.4858252,0.99217534,-2.3116429,-0.50856453,0.33959931,-0.79122341,0
-2.0054312,-0.35323685,1.9713268,-0.70758414,-0.12463395,0.69555098,0
2.789516,-0.048743833,-1.2124424,0.91699928,-0.016023589,-0.39856693,0
-0.49937308,2.7407284,0.18981671,-0.17883869,0.98152715,0.067978375,0
-2.1478877,-1.3836782,-0.97516042,-0.785402,-0.50595921,-0.3565796,0
-0.33573881,-1.478128,2.6703877,-0.10933998,-0.4813816,0.86966461,0
0.87169105,0.70881063,-2.5436759,0.31347388,0.25489953,-0.91474611,0
-2.9281082,-0.80995172,0.11166041,-0.96315664,-0.26642129,0.036728993,0
-0.1190116,-0.31112716,2.826112,-0.041821904,-0.1093333,0.99312496,0
1.6687249,-0.1049509,-2.3506963,0.57847649,-0.036382049,-0.81488723,0
-1.4399716,1.8407507,-1.637862,-0.50457114,0.64500558,-0.57391268,0
0.8241154,0.53533614,-2.6291842,0.2936095,0.19072543,-0.93670553,0
-0.11280435,-1.4352678,2.6949952,-0.036919177,-0.46974167,0.88203156,0
-0.38701072,-2.9591093,-0.98573124,-0.12313841,-0.94152433,-0.31363827,0
2.1518648,-0.60338247,-1.7610908,0.75627345,-0.21205892,-0.61893582,0
0.82439148,1.2312844,-2.5742791,0.27754623,0.41453403,-0.86667734,0
1.345787,-2.3434474,-1.3182859,0.44758314,-0.77938598,-0.43843678,0
-0.34538659,0.97601724,2.834152,-0.11446738,0.32346982,0.93928939,0
-0.89255518,-2.7039177,0.40175474,-0.31038624,-0.94028795,0.13971029,0
0.32998666,1.2017775,-2.7932096,0.1078873,0.39291444,-0.91322428,0
-0.24124932,-0.01555281,2.7775745,-0.086528987,-0.0055783326,0.9962337,0
-2.1409156,0.49204922,-2.0352345,-0.7149182,0.1643105,-0.67962795,0
-2.1580076,1.8897486,0.36545643,-0.74628645,0.65351659,0.12638287,0
-2.0848565,-0.48921368,-2.1073823,-0.69391143,-0.16282701,-0.7014088,0
-0.053433597,0.050102778,2.8755767,-0.018575847,0.017417908,0.99967575,0
1.1944489,-1.8139582,1.7713094,0.42618984,-0.64723617,0.63201869,0
-2.8706841,-0.42004582,-1.1211195,-0.92295057,-0.13504848,-0.36044991,0
-2.0944502,-1.3755664,-1.1665652,-0.75775647,-0.49766967,-0.42205459,0
-2.5691361,0.44308034,-1.1960844,-0.89568609,0.1544725,-0.41699469,0
1.8319539,-1.5940731,1.5010816,0.64169085,-0.55836678,0.52579403,0
-2.306597,0.9630928,-1.067812,-0.84860104,0.35432354,-0.39284989,0
2.2387259,1.8281285,0.95758241,0.73525792,0.60040665,0.31449586,0
-0.13336138,2.5520871,-0.9421863,-0.048962966,0.93698597,-0.34591898,0
-2.7974536,-0.60625857,0.37705699,-0.96894222,-0.20998722,0.13059963,0
0.29016098,-2.8097734,-0.49165076,0.10120071,-0.97997689,-0.17147517,0
-1.1820935,0.56349856,2.5959232,-0.4065637,0.19380707,0.89282966,0
0.47507918,2.5772164,1.2345154,0.16399823,0.88965994,0.42615706,0
-2.1626377,-1.7019066,0.34800246,-0.77963424,-0.61353993,0.12545542,0
2.8513243,-0.61634773,0.020607553,0.97740072,-0.21127681,0.0070640291,0
1.8920544,2.0453961,0.36767492,0.67321813,0.72777915,0.13082363,0
0.19715564,2.8020742,0.38080484,0.069550887,0.98849183,0.13433708,0
0.55854666,0.059766196,-2.8815439,0.19025454,0.020357816,-0.98152375,0
-1.869854,-1.974949,1.0709051,-0.63971549,-0.67567068,0.36637866,0
-0.92400104,0.73575664,2.6497104,-0.31850591,0.25361753,0.9133631,0
-0.48593578,2.3595381,-1.6443692,-0.16660108,0.80895787,-0.56376523,0
-2.5698092,0.12516509,-1.1056888,-0.91766417,0.044695739,-0.39483514,0
-2.2721665,-1.0072517,-1.8648893,-0.73124272,-0.32416001,-0.60017025,0
2.4029233,0.15502383,1.3381982,0.87227213,0.056274358,0.48577204,0
2.4736729,-1.1241249,1.1795965,0.83510184,-0.37949994,0.39822695,0
0.82177621,2.5909941,0.67540884,0.29340273,0.92507517,0.24114449,0
-2.6937561,0.98524553,-0.74083018,-0.90931302,0.33258268,-0.25007704,0
2.4780576,1.7250308,0.5245775,0.80861109,0.56289208,0.17117406,0
1.8267856,1.4938858,-1.7754214,0.61859357,0.50586569,-0.6012004,0
2.910789,-0.85073143,0.057004601,0.95967507,-0.28048262,0.018794181,0
2.3919089,-0.63237494,-1.5684917,0.81652278,-0.21587299,-0.53543395,0
2.1251123,0.5017994,1.7581471,0.75805134,0.17899746,0.62715077,0
-1.1733536,-1.3802017,2.2909055,-0.40174946,-0.47257307,0.78439277,0
1.328325,1.3066568,-2.2125053,0.45921916,0.45172819,-0.76489174,0
0.87702125,-0.038676869,2.7609541,0.30271769,-0.013349931,0.95298678,0
-1.6109943,1.6631424,1.9740008,-0.52946204,0.54660082,0.6487661,0
-0.92858416,-2.4836743,-0.91366214,-0.33109528,-0.88557708,-0.3257747,0
1.8530569,-1.9073219,-0.81002384,0.66659158,-0.68611211,-0.29138613,0
2.4182675,1.3200853,0.21611062,0.87505043,0.47767302,0.078199655,0
-0.34480786,2.677135,-0.83871937,-0.12198888,0.94713819,-0.29672882,0
1.0826011,-2.4976678,0.93780768,0.37600622,-0.86748356,0.32571697,0
-0.86032468,0.47436807,2.7086837,-0.29858437,0.16463423,0.94007605,0
-0.19802119,-0.39038351,2.7492399,-0.071131624,-0.14023051,0.98756045,0
2.333051,-1.3328868,-1.3203638,0.77928394,-0.44520983,-0.4410269,0
0.69561046,-1.3252258,-2.5605252,0.23453839,-0.44682527,-0.86333013,0
2.5717683,-1.3545513,0.68407351,0.86124825,-0.45361978,0.2290864,0
0.5872786,-2.55234,-0.7014575,0.21660067,-0.94135654,-0.25871223,0
1.6685159,1.1213648,2.1990862,0.55999976,0.3763608,0.73807371,0
-0.15809859,-0.67170066,-2.8270483,-0.054328516,-0.23082116,-0.97147822,0
0.80919808,2.8477159,-0.35553959,0.27138573,0.95505589,-0.11923949,0
-0.6359663,1.9114456,2.1012442,-0.21847799,0.65665239,0.72185522,0
2.0700657,-1.3387026,-0.90174448,0.78860706,-0.50998878,-0.34352633,0
0.15508418,0.021481311,3.087944,0.050158042,0.0069475849,0.99871713,0
-1.5833795,2.6039419,-0.067420773,-0.51942986,0.85422683,-0.022117481,0
-1.3576282,2.7382989,0.71872622,-0.4324007,0.87214035,0.22891223,0
1.5983198,-1.9539974,-1.622221,0.53264511,-0.65117574,-0.54061025,0
-0.25237951,-0.63895065,-2.8475904,-0.086157307,-0.21812494,-0.97211027,0
0.60987788,1.7451602,-2.2760837,0.20798971,0.59516072,-0.77622426,0
-0.43766007,2.8078442,0.75053269,-0.14890502,0.95531243,0.25535363,0
-0.63677943,2.2519522,-1.5136178,-0.22847547,0.80799693,-0.54308373,0
-1.2042215,1.9013109,1.7445987,-0.42289174,0.66769171,0.61265838,0
2.4744029,0.86606091,1.3745446,0.8359229,0.29257974,0.46435982,0
-1.4710842,1.5604302,2.0680385,-0.49377996,0.52376956,0.69415188,0
1.6528727,-0.37428948,2.3555524,0.56959361,-0.12898324,0.81174284,0
2.1802008,-0.10325848,2.1835735,0.70616478,-0.033445314,0.70725721,0
-0.26578161,2.7356198,-1.0119951,-0.09074486,0.93401283,-0.34552184,0
-2.8722923,0.42647246,-0.48889333,-0.97542763,0.14482963,-0.16602769,0
-0.28426746,-2.7014258,1.0834442,-0.097204,-0.92374057,0.37047896,0
-2.1824749,0.73566383,-1.6604259,-0.7686767,0.25910383,-0.58480889,0
-2.7110655,-0.49332511,0.82128125,-0.94285822,-0.1715693,0.28562635,0
-1.4118538,1.884346,-1.5943358,-0.49650419,0.66266471,-0.56067735,0
1.45837,-1.8415985,1.4443152,0.52885425,-0.66782582,0.52375752,0
-1.3593982,-1.6326253,1.5394989,-0.51813447,-0.62227494,0.58677983,0
-0.65642303,0.32781237,-2.855036,-0.2226816,0.1112054,-0.96852785,0
0.66675937,-1.9014025,-2.0026848,0.23470102,-0.66929859,-0.70495021,0
2.3006253,1.4026505,-0.88351071,0.81132281,0.49464911,-0.31157285,0
2.3986502,0.12561245,1.7033645,0.81458902,0.042658377,0.57846785,0
-2.2691667,-1.4518557,0.69265878,-0.8158049,-0.52196735,0.24902289,0
-1.1590217,2.5480726,-0.43516472,-0.40912774,0.89945441,-0.15361054,0
0.060551304,1.7229912,-2.081358,0.022404267,0.63751483,-0.77011222,0
2.2687554,1.4875777,0.32081053,0.83048022,0.54452932,0.11743302,0
1.82837,-1.9592748,-0.82693261,0.65192938,-0.69860524,-0.29485372,0
2.8261957,0.90813178,-0.72829354,0.92463595,0.29711008,-0.23827308,0
-0.60741317,-1.3888199,2.4341743,-0.21182133,-0.48431891,0.84886211,0
-1.7696816,1.5637519,-1.6654645,-0.61239189,0.54113066,-0.57632792,0
2.527374,-0.01516223,1.649182,0.83746439,-0.0050241188,0.54646885,0
0.42327192,-2.7002842,0.29576126,0.15396115,-0.98220283,0.10758036,0
-0.56416321,-0.95158994,-2.6748219,-0.19490467,-0.32875121,-0.92408592,0
-2.6699715,-0.4938612,0.88806319,-0.93460238,-0.1728722,0.3108595,0
-2.5310509,0.95569372,1.4945983,-0.81888342,0.30920032,0.48355475,0
0.41053486,-0.11423142,-3.0576868,0.13297805,-0.037001174,-0.99042809,0
0.67862433,-1.5075424,-2.2967737,0.23980431,-0.53271765,-0.81160694,0
-0.78547847,-2.7469535,0.2105893,-0.27418268,-0.95886403,0.073509261,0
-1.9944392,-0.17888086,-2.3532865,-0.64546168,-0.057891328,-0.76159561,0
-1.398397,0.92214721,2.1495605,-0.51314366,0.33838317,0.78878415,0
1.4883269,1.4856769,2.193506,0.4897874,0.48891529,0.72185189,0
0.3980543,-1.5165477,2.5701761,0.13221426,-0.50372332,0.85368741,0
-0.35525507,0.82887655,-2.9140255,-0.11646275,0.27172941,-0.95530075,0
-3.0592747,-0.13830377,0.062208358,-0.99877369,-0.045152586,0.020309413,0
-1.5712801,2.1581991,-1.1944005,-0.53726161,0.73794448,-0.40839666,0
-0.060900435,1.9425433,-1.8632612,-0.022619531,0.72149593,-0.69204915,0
0.24705067,2.8963237,-0.73761308,0.082378611,0.965774,-0.24595578,0
-0.34943187,0.19704793,-2.781893,-0.12432338,0.070107132,-0.98976189,0
2.5853851,-0.44617209,-0.8116163,0.94141644,-0.16246468,-0.2955339,0
0.19826518,1.9386796,-2.1171875,0.068900786,0.67372674,-0.73576152,0
0.43725857,-1.7626374,-2.0926988,0.15780805,-0.63614166,-0.7552619,0
-1.2807798,-0.31164667,2.6568694,-0.43183726,-0.10507711,0.89580989,0
-1.9032016,2.1938634,-0.057788905,-0.6551652,0.75522369,-0.019893467,0
1.8044336,-1.8073331,-1.2403661,0.63554752,-0.63656873,-0.43687481,0
2.2195022,0.80526972,-1.8389715,0.74162996,0.26907483,-0.61447847,0
-1.5429353,-1.5067892,1.9475695,-0.53097159,-0.51853263,0.67021871,0
-1.7570354,-2.2030203,0.56479293,-0.61137068,-0.76655376,0.19652298,0
2.2423658,-1.6175389,-0.9384979,0.76797789,-0.55398369,-0.32142195,0
2.5468721,0.76251084,-0.32935676,0.95071888,0.28463677,-0.12294519,0
0.68254972,-2.0708621,-2.3152869,0.21461178,-0.65113413,-0.72798777,0
-1.4933017,0.89574069,-2.1563575,-0.5387724,0.32317674,-0.77799815,0
-1.2803237,-2.4199324,-0.91987908,-0.44330055,-0.83787978,-0.31849983,0
0.96042967,2.3832498,1.1649837,0.34042615,0.84474742,0.41293073,0
1.3827511,1.9044113,-1.7086513,0.47544816,0.65481699,-0.58750641,0
-1.5608772,-1.616358,-1.9471896,-0.52496499,-0.5436247,-0.65489227,0
-2.2535865,1.2669284,1.087163,-0.80353725,0.45173511,0.38763806,0
-1.6868814,2.3550167,-0.054812517,-0.58221388,0.81281549,-0.01891811,0
0.11856974,2.736007,0.51741588,0.042543467,0.98169422,0.18565163,0
1.5246557,1.3516995,2.0327413,0.52973604,0.46964303,0.70626849,0
0.036042828,-2.6595209,-1.5787264,0.011652985,-0.85984808,-0.51041704,0
-1.0528193,-0.79661947,-2.580806,-0.36317953,-0.27480111,-0.89027238,0
2.1313686,-1.5687038,-1.0558074,0.7480424,-0.550565,-0.37055472,0
-1.4879016,-0.89500046,-2.4399052,-0.49685088,-0.29886505,-0.81475085,0
1.3685902,2.1425869,1.2417089,0.48370171,0.75725585,0.43885794,0
1.4013938,1.9470654,1.193464,0.52302009,0.72667253,0.44541776,0
0.82712072,1.6147282,-2.1704152,0.29239154,0.57081491,-0.76725322,0
1.4036287,1.0743566,2.666153,0.43878853,0.33585474,0.83346641,0
0.60762984,0.71744066,-2.7102082,0.2118172,0.2500968,-0.94476718,0
0.37461266,-0.57571048,2.9964087,0.12185995,-0.18727623,0.97471935,0
0.56409776,-1.4623141,-2.6268926,0.18440935,-0.47804552,-0.85875821,0
1.4043808,1.9941871,1.7193518,0.47061107,0.66825646,0.57615852,0
-2.9111135,0.31686854,-0.94181728,-0.94638425,0.10301192,-0.30617872,0
0.73582298,-2.551511,-1.2259408,0.25157887,-0.872365,-0.4191508,0
1.6385448,-0.26364288,-2.4083109,0.56022972,-0.090141304,-0.82341802,0
1.9274715,-1.2375648,-1.5788471,0.69283897,-0.44484869,-0.56752425,0
-2.3140056,-1.245294,-1.0350218,-0.81932116,-0.44092187,-0.36647069,0
-0.18938152,-1.7735194,2.2984476,-0.065094948,-0.6096009,0.79003125,0
1.2811974,-2.376123,-1.0335498,0.44322667,-0.82201308,-0.35755366,0
-2.5546596,-1.1386161,-0.10193601,-0.91277885,-0.40682709,-0.036421698,0
3.0694358,-0.1572174,-0.26416484,0.99502224,-0.050965328,-0.085634589,0
-2.6997273,0.64506507,0.76577175,-0.93759507,0.22402626,0.26594678,0
0.2637468,2.7237082,0.44670194,0.095123813,0.98234177,0.16110903,0
2.5224314,1.136289,-0.75388527,0.87968361,0.39627433,-0.2629132,0
-0.16626278,0.050472695,2.6888483,-0.061705496,0.01873205,0.99791855,0
-1.5675514,-1.7885898,1.5753807,-0.54949075,-0.62697375,0.55223525,0
-1.4615905,2.2508731,0.96760798,-0.51232052,0.78898191,0.33916846,0
2.9218538,-0.14124189,0.22326168,0.99593723,-0.048143428,0.076100528,0
1.4198548,-0.72038871,-2.4012904,0.49280483,-0.25003335,-0.83344269,0
0.90058666,2.7164657,0.50799656,0.30984235,0.93458647,0.17477368,0
-2.2850347,-0.25609004,1.9540733,-0.7572583,-0.084867999,0.64757806,0
-0.10117891,-2.9650679,0.42861956,-0.033753354,-0.98914874,0.14298779,0
-1.5363755,-2.2317414,0.4596639,-0.55905509,-0.81208426,0.16726212,0
-0.95672315,2.3689566,1.6009585,-0.31731907,0.7857185,0.53099442,0
-2.1684046,1.6375906,1.0412956,-0.74516159,0.56274998,0.35783613,0
-0.026948728,-2.7967029,0.72181141,-0.0093297437,-0.96822834,0.24989365,0
0.71076542,2.76932,-0.66164738,0.24219871,0.94366682,-0.22546136,0
-2.8190835,-0.22307464,-1.0454425,-0.93503386,-0.073989421,-0.34675243,0
1.3927698,2.1134877,1.0943249,0.5050717,0.76643163,0.39684415,0
0.33044499,-2.6962955,0.90470761,0.11541259,-0.94171935,0.31598192,0
-1.924243,1.8484732,-0.37658721,-0.71408558,0.68596745,-0.13975132,0
-0.88510293,-0.21891718,2.9046302,-0.29073402,-0.071908779,0.95409793,0
-1.6812896,-1.8379281,1.4410552,-0.58424073,-0.63867193,0.50076038,0
-0.55288339,2.7612464,0.56875384,-0.1924468,0.96113038,0.19797096,0
-0.99502152,-0.87662411,2.5864005,-0.34233823,-0.30160347,0.88985389,0
0.87118447,0.47056195,2.6613026,0.30680603,0.16571833,0.93723392,0
2.835139,0.64269674,0.1993494,0.97297066,0.2205624,0.068413265,0
-1.014788,-0.063368328,-2.7964694,-0.34103921,-0.021296155,-0.93980777,0
2.2531817,0.46471247,-1.3779708,0.84020215,0.17328936,-0.5138396,0
-0.26634067,-0.57501036,2.9268842,-0.088937365,-0.19200937,0.97735488,0
2.1664772,0.11887785,-1.7090876,0.7843824,0.043040238,-0.61878252,0
0.15465248,0.081081651,2.8647714,0.053884223,0.028250577,0.99814743,0
0.8214075,1.2808247,-2.2926176,0.29851967,0.46548316,-0.83319354,0
-1.8304837,-1.6422116,-1.3275735,-0.65499938,-0.58763021,-0.47504374,0
2.0792232,-2.3054557,-0.41525751,0.66382003,-0.7360478,-0.13257657,0
-2.4244263,-0.79472452,-1.5044188,-0.81854433,-0.268318,-0.50792778,0
0.38956529,-2.6596076,-0.7549662,0.13952926,-0.95258248,-0.27040362,0
0.5760985,2.430475,-1.3195575,0.20393243,0.86036104,-0.46710864,0
-2.5215495,1.3307703,0.023100035,-0.88436264,0.4667303,0.0081016887,0
-1.5286822,-2.4428844,0.38953838,-0.52568698,-0.840065,0.1339554,0
-0.67200452,-0.91723901,-2.7258003,-0.22753155,-0.31056461,-0.92291874,0
-1.239327,-0.63953644,2.6197386,-0.41758803,-0.21549016,0.88271415,0
-1.3035026,1.294661,-2.4646304,-0.42403686,0.42116064,-0.80175835,0
-1.0647579,2.6426888,0.025584796,-0.37369895,0.92750663,0.008979517,0
-1.6318271,-2.4802604,-0.060826853,-0.54951924,-0.83522993,-0.020483498,0
-0.71397948,2.4989381,-1.5064518,-0.23767838,0.83187759,-0.50148642,0
-0.57206732,-2.1244471,-1.8635827,-0.19840646,-0.73680842,-0.64633447,0
1.2377738,-1.9246418,2.11607,0.39713702,-0.61751717,0.67893648,0
1.5413005,-1.0134045,2.1892776,0.53839219,-0.35399264,0.76473725,0
0.48735589,-2.6126032,1.3696816,0.16300313,-0.87382239,0.45810956,0
-2.2953589,-1.2687582,-0.90811425,-0.82702398,-0.45713696,-0.327196,0
-2.1425879,-1.3676693,-1.2960308,-0.75093526,-0.47934142,-0.4542335,0
-2.4760776,-1.1845257,0.75613898,-0.86969328,-0.41605079,0.26558498,0
0.54702586,2.6757281,0.21692628,0.19966821,0.97665918,0.079179585,0
2.7746882,1.0826501,-0.2583254,0.92811096,0.36213776,-0.086407773,0
1.4699341,1.6037832,-1.9158767,0.50707251,0.55324548,-0.66090608,0
-1.8007473,1.0800929,-2.23069,-0.58779973,0.3525638,-0.72814161,0
1.6101413,1.0880238,2.1030884,0.56230867,0.37996989,0.73446029,0
-1.1426845,2.5516171,-0.40555292,-0.4044818,0.90320885,-0.14355563,0
-0.63924879,-0.7189641,2.7114897,-0.22218484,-0.24989162,0.94243729,0
-0.23840307,1.7587355,-2.198513,-0.084375553,0.62245125,-0.77809715,0
0.4160879,-1.630808,2.3843112,0.14256941,-0.55878419,0.81696641,0
0.32033223,-0.41627192,2.8514521,0.11048124,-0.14357044,0.98345387,0
-1.0231143,1.6941551,2.0442314,-0.35957882,0.59541959,0.71845573,0
-1.9554926,-1.7019719,-0.98327374,-0.70528388,-0.61384702,-0.35463551,0
-1.2259108,0.31203198,-2.7908185,-0.40008453,0.10183381,-0.91080308,0
-1.2530773,-2.223568,1.4797866,-0.42472985,-0.75367719,0.50157291,0
2.9974139,-0.28094265,-0.35085389,0.98894304,-0.092691995,-0.11575796,0
-1.0158216,2.635977,-1.0736723,-0.3361319,0.87223583,-0.3552745,0
-2.7657433,0.029454628,0.033184417,-0.99987131,0.010648435,0.011996828,0
0.8935709,-1.8351595,-2.2152607,0.29664549,-0.60923183,-0.73541689,0
-2.8767786,0.53942269,0.5463317,-0.96618319,0.18116832,0.18348874,0
2.2503252,-1.9459988,0.060039014,0.75624716,-0.65397489,0.020176789,0
2.8598838,-1.0116132,-0.57594848,0.92621225,-0.32762471,-0.18652874,0
1.6228191,2.2380934,-0.037159629,0.58696228,0.80950266,-0.013440377,0
2.4047849,-1.5666803,0.84147012,0.80403084,-0.52381372,0.28134239,0
1.3163997,-0.54109865,-2.6273768,0.44054586,-0.18108389,-0.87927699,0
-2.75617,-0.3529993,1.3120822,-0.89693147,-0.11487541,0.42698663,0
-1.3451656,-2.5505972,0.25531116,-0.46467417,-0.8810786,0.08819472,0
-1.9351171,2.0155864,-0.35377756,-0.6870752,0.71564633,-0.12561089,0
-2.6171153,1.1377727,0.84363806,-0.87945819,0.38233835,0.28349704,0
2.675869,0.87528694,-1.0230882,0.89329171,0.29219911,-0.34153998,0
-1.4295347,-1.5164235,-1.8170984,-0.51701981,-0.54844487,-0.65718997,0
2.1810052,-1.8843019,0.59530878,0.74106002,-0.64024645,0.20227349,0
-1.1773566,-1.2825339,2.1569574,-0.42474446,-0.46268833,0.77814627,0
-0.64662945,0.25061408,-2.6596632,-0.23525862,0.091179147,-0.96764648,0
0.61294794,2.5204082,1.3398777,0.20995019,0.8633036,0.45894203,0
2.8562245,-0.36967999,-0.50043368,0.97708732,-0.12646401,-0.17119361,0
1.0782096,2.4601552,-0.96874732,0.37760228,0.86157662,-0.33926722,0
1.3818254,-2.6002994,-0.10457873,0.46896982,-0.88250071,-0.035492379,0
-1.7559917,-1.9199778,-1.7723266,-0.55778199,-0.60987139,-0.5629707,0
0.786695,0.076645203,-2.9218183,0.25990602,0.025321821,-0.96530187,0
-2.6317284,0.71677667,-1.1088631,-0.89381582,0.24343938,-0.37660399,0
2.0150626,-2.2550561,0.80447936,0.64392,-0.72061074,0.25707409,0
2.2234194,-1.7806228,-0.80688471,0.75099772,-0.60143566,-0.27253905,0
-2.1994765,-0.94734251,-1.2339913,-0.81642097,-0.35164291,-0.45804369,0
0.40837601,-1.3574395,-2.3286145,0.14979988,-0.49793398,-0.85417897,0
-2.2744064,0.41968766,1.9266202,-0.75558221,0.13942474,0.64004391,0
-2.0491898,-2.1118238,-0.53673929,-0.68508083,-0.70602053,-0.17944156,0
2.8377757,0.40265989,-0.80278671,0.95339239,0.13527951,-0.26970798,0
-2.1654065,-1.6643114,0.90275413,-0.75280893,-0.57860196,0.31384471,0
-1.6546408,-0.6134513,-2.6023505,-0.5262413,-0.19510181,-0.82765049,0
1.3689061,2.468529,-0.60062367,0.47434661,0.8553825,-0.20812516,0
-0.26325199,1.8101572,2.1309996,-0.093737237,0.64455026,0.75879395,0
-1.0737331,1.7742397,-1.9614261,-0.37615794,0.62156445,-0.687141,0
-0.71163708,2.8636029,0.87691134,-0.23118235,0.93026978,0.28487334,0
1.3691523,2.266156,1.2333926,0.46875316,0.77585799,0.42227346,0
-0.42339656,2.9238081,-0.60407561,-0.14040996,0.96961528,-0.20032811,0
-2.9657323,-0.62053531,-0.24389441,-0.97564816,-0.20413984,-0.080234863,0
-1.4176161,2.596559,-0.95868999,-0.4558548,0.83496082,-0.30828053,0
-0.37806144,0.016159531,-2.9179065,-0.12849002,0.005492066,-0.99169564,0
2.2270722,-1.0093035,1.4411637,0.78467196,-0.35561132,0.50777012,0
-1.6903839,-2.0443645,0.52501643,-0.62510568,-0.75600803,0.1941516,0
-0.928523,2.0705307,1.8949548,-0.31407568,0.70036322,0.64097416,0
-0.038421057,2.4203663,-1.5329177,-0.013409461,0.84474009,-0.53500873,0
-1.6214283,-1.6286019,-1.4331626,-0.5986706,-0.60131931,-0.52915835,0
1.705188,-0.86183846,-1.9551394,0.62377036,-0.31526685,-0.71520436,0
2.3354568,1.6351333,-0.0097509557,0.81917548,0.57353276,-0.003420206,0
-1.4312732,1.9549332,-1.40343,-0.51117152,0.69819385,-0.5012275,0
0.39024481,-1.8484821,-2.2417977,0.13311236,-0.63051659,-0.76467639,0
-2.5375175,-0.14327516,1.164758,-0.90763587,-0.051247597,0.41661826,0
2.3454666,1.7426397,-0.25423178,0.79967475,0.59414399,-0.086679012,0
0.036064714,2.6702058,0.46383286,0.013305892,0.9851588,0.17112876,0
1.6633217,-1.5608228,-1.9817744,0.55047202,-0.5165503,-0.65586311,0
-1.0625794,-1.4239191,-2.2571962,-0.36990783,-0.4956983,-0.78578079,0
1.7336657,-2.1344421,0.3947427,0.62407058,-0.7683388,0.14209621,0
1.7178652,2.2482357,-0.83454525,0.5823409,0.76213169,-0.28290334,0
-2.1568749,0.3568823,2.0130832,-0.72576487,0.12008701,0.67738056,0
-0.82888204,2.650306,0.79940391,-0.28684279,0.91716444,0.27664158,0
1.4140434,-1.7323343,-1.8693696,0.48515436,-0.59435904,-0.64137548,0
2.9989429,0.50913978,0.47650412,0.97401458,0.16536146,0.15476185,0
2.5553105,-0.49800789,-1.3620297,0.8696993,-0.16949686,-0.46356648,0
-1.1083455,-2.0067472,-1.6510584,-0.39231423,-0.71031594,-0.58441496,0
0.55866158,2.8734891,0.92493027,0.18197796,0.93600792,0.30128601,0
1.2312057,-0.30653161,2.5457549,0.43285021,-0.10776613,0.89500117,0
2.7002389,-0.75843889,0.47813591,0.94905239,-0.26656836,0.16805032,0
-2.9829378,-0.14951994,0.025344882,-0.9987101,-0.050060403,0.0084856581,0
2.1554422,1.5682148,-1.3055333,0.72620153,0.5283556,-0.43985417,0
-0.68152857,-0.22068724,2.8840353,-0.22934167,-0.074263625,0.97050881,0
-2.2949514,0.69241977,-1.7290099,-0.77646893,0.23427182,-0.58498949,0
-0.57003284,-1.7701838,-2.4327016,-0.18615681,-0.57809258,-0.79445243,0
1.5614617,-1.7603865,-1.8066454,0.52633601,-0.59338939,-0.60898232,0
0.84485,0.82339621,2.4931505,0.30630714,0.29852891,0.90391171,0
1.4309758,0.70118761,-2.4371235,0.49143019,0.24080405,-0.83696461,0
1.0016388,-0.75647706,-2.6033943,0.34656501,-0.26173955,-0.90076923,0
-0.17189291,1.1918142,2.3643453,-0.064784132,0.44917876,0.89109004,0
2.4400537,-0.85623556,1.4716487,0.82008761,-0.28777573,0.49461243,0
-0.27266937,-0.1047945,-2.736572,-0.099076174,-0.038077757,-0.99435103,0
-1.9002304,-2.1562738,-0.53366745,-0.65004784,-0.73763746,-0.18256174,0
-0.0079943901,-3.0219123,0.060149204,-0.0026449407,-0.99979848,0.019900339,0
-1.6940215,1.8249593,1.5546499,-0.57708234,0.62168741,0.52960432,0
-0.40655828,-3.0065272,0.43278489,-0.13266258,-0.98104912,0.1412205,0
-2.4169977,-1.6214275,-0.99371904,-0.78590095,-0.52721667,-0.32311356,0
1.909318,-0.023155781,-2.4064908,0.62152129,-0.0075376709,-0.78336102,0
0.69675529,2.1337743,1.7946272,0.24244468,0.74247336,0.6244629,0
1.4504938,1.2436556,-2.3413637,0.47997516,0.41153142,-0.77476817,0
-2.0927982,2.3235276,0.062532537,-0.66911775,0.74288744,0.019993151,0
1.6691105,1.9339697,1.2913263,0.58310294,0.6756314,0.45112422,0
-1.6922648,-2.1875455,-0.8023411,-0.58764625,-0.75963461,-0.27861643,0
1.1899804,1.8129035,-1.9904866,0.40426189,0.61588228,-0.67621106,0
2.6713464,1.1136034,0.20476016,0.92070895,0.38381568,0.070572846,0
-1.7556974,-0.94210374,2.3294024,-0.57276267,-0.30734333,0.75992298,0
2.4304225,1.9769769,0.15000957,0.77487332,0.63030463,0.047826421,0
-1.7018318,-0.25862545,2.3544281,-0.58350217,-0.088674158,0.80725592,0
-1.9890993,1.0366423,1.7685846,-0.69636524,0.36291885,0.61916506,0
0.67100817,1.0722198,-2.4392884,0.24420431,0.39021987,-0.88774592,0
-2.3024349,-0.010520653,-1.7702616,-0.79275888,-0.0036224003,-0.60952455,0
2.2782722,1.4788955,0.17636259,0.8370142,0.54333133,0.064793833,0
0.87875438,0.67325878,2.6600749,0.30499279,0.23367062,0.92324287,0
-2.3718188,1.6052183,0.83057088,-0.79538864,0.5383094,0.27853167,0
-1.1232045,2.157692,-1.3703419,-0.40229914,0.77282244,-0.49081659,0
-1.2171708,-1.3825644,1.9201133,-0.45744649,-0.51960593,0.72163171,0
-1.4943329,-0.17048186,2.5085356,-0.51090628,-0.058287051,0.85765803,0
-1.3908665,2.2515626,0.81880051,-0.50206625,0.81275487,0.29556546,0
-1.426126,1.8019867,-1.6094007,-0.50832146,0.64229149,-0.57364708,0
1.6020827,-1.2251101,2.2649026,0.5282672,-0.40396506,0.74682391,0
-0.73452604,-0.43846935,2.8576727,-0.24624029,-0.14699113,0.95799756,0
0.0052820444,-3.0932574,-0.11324318,0.0017064537,-0.99932909,-0.036585126,0
0.14081958,0.81561327,2.8912077,0.046825182,0.27120689,0.96138144,0
-0.67936838,-0.26993296,-2.9412651,-0.2241585,-0.08906474,-0.9704743,0
-1.0151032,-2.4649317,1.4945108,-0.33215398,-0.80655527,0.48902187,0
0.4378736,2.3628945,-1.5995387,0.15168209,0.81852114,-0.55408996,0
-2.7738438,0.96800882,0.96646863,-0.89687604,0.31298947,0.31249148,0
-2.475378,-1.6262027,0.20900974,-0.8337056,-0.54770398,0.070394337,0
1.7753124,1.5143145,-2.0151405,0.5758155,0.49116185,-0.65360278,0
1.0824569,-2.1133769,-1.7455025,0.36730713,-0.71712637,-0.59229654,0
-0.78147739,-2.6225674,0.21801189,-0.28467098,-0.95533007,0.079415806,0
-0.34931457,1.5089291,-2.2177238,-0.12913519,0.55782342,-0.81985188,0
-1.3859768,2.3812966,0.48036608,-0.49555281,0.85142714,0.17175378,0
2.5949299,-1.0077599,0.87469953,0.88930374,-0.34536758,0.29976669,0
-1.1480496,-2.0353975,1.5967413,-0.40563214,-0.71915245,0.56416517,0
-2.6879771,0.70469427,-0.80646598,-0.92897862,0.24354593,-0.27871877,0
1.7137514,0.25755134,-2.1457751,0.62133127,0.093376845,-0.77796412,0
1.4850181,1.1926389,-2.1184473,0.5212841,0.41865057,-0.74363601,0
0.48937091,2.7492964,-1.4223319,0.15615544,0.87728465,-0.45385793,0
-2.2788942,-1.6064193,1.0043734,-0.76897097,-0.54205668,0.33890736,0
1.7233617,2.4167407,0.55185473,0.57081378,0.80047548,0.18278593,0
1.4274318,-1.3575979,2.1834435,0.48539585,-0.46164894,0.7424764,0
1.8956119,-0.79083169,2.3253362,0.61098093,-0.25489557,0.7494868,0
0.74021322,0.95851839,-2.6754274,0.25205058,0.32638586,-0.91101193,0
0.2411471,2.724179,0.15655249,0.088032104,0.99447685,0.057150368,0
-2.7079501,-0.61424142,-0.77958369,-0.9389236,-0.21297503,-0.27030391,0
1.2263316,-2.2002635,-1.5463231,0.41490391,-0.74441361,-0.52316642,0
2.4916644,-0.19577438,1.966844,0.78343403,-0.061555766,0.61841899,0
-0.53581738,1.3009639,-2.4352429,-0.19051455,0.46256906,-0.86587185,0
0.20410368,2.6480305,1.3322735,0.068691507,0.89120001,0.44837931,0
-0.37093228,2.6278212,1.3865426,-0.12388152,0.87762243,0.46306837,0
1.0951946,-2.7567887,1.0376762,0.34849647,-0.87722415,0.33019385,0
-0.62096769,-2.8117495,0.40975896,-0.21350017,-0.96673143,0.1408827,0
1.3524096,1.5978951,1.9612179,0.47145885,0.5570367,0.68369341,0
1.2163016,-1.9960699,1.4779686,0.4398101,-0.72177142,0.53442788,0
-2.7678277,-0.56607354,-0.22675554,-0.97657931,-0.19972908,-0.080006704,0
-2.0568454,1.537819,-0.943726,-0.75174975,0.56205249,-0.34491935,0
0.13876905,-1.2700313,-2.7421057,0.04587217,-0.41982776,-0.90644383,0
1.4281135,2.1625926,-1.2282515,0.49796286,0.75406533,-0.42827383,0
-2.5278153,-0.75601,0.71482664,-0.92473209,-0.27656558,0.26149976,0
-2.8223395,0.73914403,0.4791545,-0.95458746,0.24999742,0.1620623,0
2.4868846,1.2741877,-0.8025893,0.85539794,0.43827426,-0.27606156,0
2.8257442,0.095056958,1.1040188,0.93097675,0.031317703,0.36373278,0
-1.0512551,-2.1307101,-1.4152507,-0.38013184,-0.77046072,-0.51175195,0
-0.98578614,2.2838774,0.97443914,-0.36898834,0.85487521,0.36474106,0
-1.7028691,-1.2754327,1.8915797,-0.59815866,-0.44801512,0.66444618,0
0.97908467,-0.69562429,-2.7161689,0.32967359,-0.23422791,-0.91457784,0
-0.18949184,1.0012692,-2.9369135,-0.060955673,0.32208794,-0.94474536,0
-1.7088212,0.73544335,1.9889786,-0.62745559,0.27004465,0.73032558,0
-1.4299833,2.2254157,-0.017053533,-0.54057485,0.84127122,-0.0064467266,0
0.42310745,-0.93996674,-2.8868392,0.13802889,-0.30664212,-0.94176358,0
-2.3967249,1.1556631,1.3374016,-0.80480993,0.38806671,0.44909373,0
-0.033583514,-2.2235916,1.6426191,-0.01214716,-0.80427331,0.59413552,0
-0.12642263,-2.6732192,-1.5170127,-0.041096132,-0.86898184,-0.49313447,0
1.567584,2.5857687,0.14339459,0.517829,0.85417175,0.047368355,0
-1.2393881,-2.2476761,-1.6086992,-0.40914717,-0.74200356,-0.53106427,0
-1.1108819,-0.19760951,-2.6979201,-0.37987182,-0.067573592,-0.92256767,0
-1.4477019,-0.94788069,-2.185137,-0.51938879,-0.34006906,-0.78395677,0
1.0695957,-0.23065658,-2.8100224,0.35469493,-0.076489389,-0.93184805,0
1.960376,-2.0998907,-0.20896851,0.68060887,-0.72904593,-0.072550274,0
1.1798995,-1.6297512,1.7562171,0.44179684,-0.61023754,0.65759093,0
-0.89281821,-1.9327079,-1.9600254,-0.30852604,-0.66787469,-0.67731464,0
-1.5514172,-2.4712226,1.0145806,-0.50220537,-0.79995322,0.32842731,0
1.3060842,-0.15287891,2.7394001,0.42982042,-0.050311059,0.90151167,0
0.81416583,-2.1133475,-1.6072873,0.29316759,-0.76098138,-0.57875746,0
-1.6444943,-1.6949534,1.6632258,-0.56932068,-0.58678955,0.57580549,0
0.54150629,-2.7402596,1.3804682,0.17379603,-0.87948424,0.44306025,0
-2.0949223,-0.022517461,2.1243508,-0.70213777,-0.0075469911,0.71200109,0
1.0551847,-0.11006211,2.9406676,0.33753073,-0.035206486,0.94065589,0
1.5015354,2.4008698,-0.16563578,0.52934599,0.84639418,-0.058392651,0
-2.950819,0.55902642,0.35240889,-0.97582883,0.18486871,0.11654077,0
1.1794554,-1.6428014,-2.1737533,0.39725333,-0.55331326,-0.73214358,0
2.1734693,2.1986256,-0.20845027,0.70143396,0.70955253,-0.067272224,0
0.84523195,1.2347397,-2.5442829,0.28635687,0.41831854,-0.86197984,0
2.0839093,0.02551453,-1.8709196,0.74407923,0.0091102002,-0.66802925,0
2.0698698,-0.017364269,2.0300891,0.71392119,-0.0059891306,0.70020044,0
-1.8370438,-2.1405818,0.65496612,-0.6343767,-0.73919594,0.22617602,0
1.2177906,2.3973105,-1.1404563,0.41694519,0.82078731,-0.39046758,0
1.2151074,1.8667781,1.5991471,0.4431448,0.68080652,0.58320254,0
2.5089698,-0.058286425,-1.4345393,0.86794108,-0.020163329,-0.49625772,0
-1.8076215,-2.2866213,0.29844597,-0.61692482,-0.78040308,0.1018569,0
1.9806364,0.32841021,-1.9020123,0.71617436,0.11874919,-0.68774486,0
-2.5067289,-1.5104549,0.83734107,-0.82348198,-0.4961974,0.27507374,0
-1.3156073,-2.2613919,0.9966253,-0.46992034,-0.80774409,0.3559835,0
-2.7927275,0.63732284,-0.72864211,-0.94484729,0.21562174,-0.24651727,0
1.6488115,0.90286654,2.2219126,0.56651682,0.31021684,0.76342922,0
-2.2348678,1.5138719,1.2181138,-0.75465077,0.51119113,0.41132209,0
1.6823975,1.1541451,2.2721443,0.55093539,0.37794834,0.74405998,0
-2.1323471,2.0115855,0.89532846,-0.69568026,0.65628165,0.29210177,0
-0.7245419,-2.5375772,-1.573867,-0.23580188,-0.82585347,-0.51221436,0
0.13151196,-1.3285402,2.6478286,0.044349533,-0.44802114,0.89292228,0
0.12812603,-0.051358905,2.7819667,0.045999326,-0.018438682,0.99877125,0
1.3958691,-1.6206528,-2.1795168,0.45710316,-0.53071272,-0.71372312,0
-2.1800301,-1.5162406,0.71362871,-0.79282826,-0.55142283,0.25953081,0
2.738502,-1.0202259,0.40054891,0.92840213,-0.34587517,0.13579337,0
-0.55949807,-2.7727473,-0.67374855,-0.1924151,-0.95356619,-0.2317066,0
-1.6646231,-1.9500933,-1.4156154,-0.56836581,-0.66583616,-0.48334506,0
2.4511373,-1.3168892,0.04528448,0.88079721,-0.47321394,0.016272627,0
-0.032547671,-2.322983,1.4778028,-0.011820902,-0.84367806,0.53671926,0
-0.058960415,2.9091349,-0.59796554,-0.019848386,0.97932875,-0.20129862,0
-0.61216277,0.67409837,2.7734118,-0.20971164,0.23092923,0.95010144,0
1.1500311,2.1401463,-1.284876,0.41843656,0.77868801,-0.46749958,0
0.14565258,-1.1348706,2.4760983,0.053398073,-0.41605791,0.90776891,0
-2.8305132,-0.2677651,0.81504822,-0.957008,-0.090532467,0.27557111,0
2.9045012,0.19000959,-0.32024804,0.99188161,0.064887911,-0.10936409,0
-3.003845,-0.4374803,0.39096323,-0.98145342,-0.14293897,0.12774034,0
0.89124906,1.3392009,-2.5177937,0.29829407,0.44822004,-0.84268582,0
1.1874276,-2.6562102,-0.57848912,0.40027979,-0.89540386,-0.19500768,0
2.3215859,0.85235584,-1.4389877,0.81137848,0.29789257,-0.50291646,0
-0.03503624,-1.442607,-2.6884012,-0.01148276,-0.47279933,-0.88109529,0
1.7745999,1.5239167,-1.3781377,0.65364718,0.56131184,-0.50761634,0
-1.6289648,-1.6053345,-1.8614144,-0.552414,-0.54440051,-0.63124228,0
-1.3530914,1.1754627,2.4127297,-0.45018506,0.39108649,0.80273581,0
2.4446599,1.3167539,-0.83783025,0.84287786,0.45399469,-0.28886986,0
-0.79880768,0.23020989,-2.6717787,-0.28547984,0.082272969,-0.9548468,0
