0.71918654,0.54488057,-2.7097926,0.2518104,0.19078025,-0.94878572,0
2.5650697,0.76094741,0.36964384,0.94968325,0.28173074,0.13685575,0
0.35078138,0.93884826,2.4893467,0.13071641,0.34985575,0.92763901,0
-2.0676789,1.1960528,-1.5028981,-0.73266041,0.42380878,-0.53253621,0
-0.30722234,-0.5211637,2.7590148,-0.10876807,-0.18451121,0.97679329,0
1.9000545,0.28610587,-1.5373194,0.77213657,0.11626656,-0.62472975,0
2.4639909,1.2482144,-0.2411361,0.88868594,0.45019263,-0.086970396,0
-1.6267841,1.8100145,0.96283448,-0.62157905,0.69158971,0.36789009,0
1.8399134,1.1903723,1.5451986,0.68617636,0.44393685,0.57626557,0
-0.77765465,0.49439502,2.7079859,-0.27186134,0.17283621,0.94668841,0
2.0286863,0.50680512,1.6866682,0.75514174,0.18864903,0.62783164,0
-0.53243744,-1.5454874,-2.2828405,-0.18963231,-0.550439,-0.81305385,0
2.6084998,0.27655268,0.37891486,0.98421139,0.10434591,0.14296812,0
0.20062116,-1.3976332,-2.2376647,0.075823501,-0.52822661,-0.84571123,0
-0.62508929,2.0090942,1.6329209,-0.23469719,0.75433826,0.61309952,0
-0.99511486,0.88328689,2.3496735,-0.3685253,0.32711154,0.87016499,0
-0.78581434,2.6015327,0.11727211,-0.28888616,0.95639229,0.04311233,0
-0.74164647,-0.92989618,-2.512403,-0.26680493,-0.33452716,-0.90382892,0
1.255538,2.2969966,-0.75583541,0.46080276,0.84303492,-0.27740383,0
2.0431461,-1.8169794,-0.44223809,0.73766828,-0.65601188,-0.15966798,0
1.589762,2.1762102,-0.5504421,0.5779531,0.79115456,-0.20011154,0
-0.80521023,-0.89872837,2.4171941,-0.29804406,-0.33265927,0.8947109,0
1.0365793,1.4963505,-2.0103729,0.38221386,0.55174357,-0.74127704,0
-0.97133213,0.57868767,-2.2942774,-0.37976071,0.22624892,-0.89699125,0
-0.71176362,0.42253971,-2.5999401,-0.26086044,0.15486026,-0.95287466,0
0.55861276,2.6110761,0.27503508,0.20810451,0.97272515,0.10246103,0
1.7760462,0.41480735,-2.0511041,0.64707971,0.15112975,-0.74729353,0
-2.6124306,0.66215092,-0.8132807,-0.92801362,0.23521586,-0.28890169,0
-2.8188796,-0.028540676,0.037503105,-0.99986029,-0.010123416,0.013302401,0
1.6042295,-1.8082016,1.0791415,0.60600889,-0.68306082,0.40765327,0
0.25818285,2.5191424,0.75289226,0.097726569,0.95353794,0.28498244,0
1.124055,2.0966127,1.5761987,0.3938919,0.73469603,0.55233228,0
1.9257624,1.4953091,0.97006738,0.73389453,0.56985182,0.36968586,0
-0.55955094,-2.5741725,0.97497678,-0.19920491,-0.91642731,0.34710005,0
0.54107618,-2.7381196,0.12441856,0.19366755,-0.98005593,0.044533171,0
0.74168509,-2.7490082,0.24217834,0.25954959,-0.96200395,0.084749296,0
-1.6502721,0.36233124,-2.0256293,-0.62563044,0.13736247,-0.7679311,0
-0.69934523,0.053255826,2.5724339,-0.2622872,0.019973427,0.96478313,0
1.0745188,-1.7304364,1.678337,0.40712523,-0.65564638,0.63590634,0
-2.4089849,0.47114941,0.53910804,-0.95855927,0.18747509,0.21451649,0
1.1720488,0.70821607,-2.2327082,0.44748199,0.27039313,-0.85243613,0
1.7530218,-0.42963046,-1.9954921,0.65152091,-0.15967469,-0.7416364,0
-0.6677227,1.5221046,-2.1586664,-0.24508747,0.55868816,-0.79233801,0
1.5608102,-1.6155932,1.7346233,0.54993618,-0.56923842,0.6111775,0
0.98793924,-2.0723016,-1.3352817,0.37198883,-0.78028387,-0.5027737,0
1.6517814,1.9879686,0.21193492,0.63693655,0.76657224,0.08172334,0
-1.0754844,-2.5042539,0.68991679,-0.38254482,-0.89075154,0.24540021,0
0.088392742,-2.6269712,-0.51620197,0.032998782,-0.98070103,-0.19270854,0
-2.4619057,1.1980125,-0.48787883,-0.88524324,0.43077704,-0.17542973,0
-2.2564807,-1.4213341,-0.87975585,-0.80353892,-0.50614095,-0.31328347,0
2.8209951,-0.2652902,-0.023308989,0.99557358,-0.093625084,-0.0082261087,0
-1.0070555,-0.16113432,2.5673597,-0.36454368,-0.058328956,0.92935765,0
0.78583831,2.6022816,-0.38727608,0.28619692,0.9477331,-0.14104329,0
-1.6690832,-0.87761641,-2.1651218,-0.58131862,-0.30566165,-0.75408196,0
2.6719036,0.44618165,0.55569917,0.96622151,0.16134949,0.20095354,0
-1.4397591,1.1664882,-1.8521919,-0.54953378,0.44523045,-0.70695299,0
1.8956949,-1.2845678,-1.5445967,0.68630779,-0.46505845,-0.55919796,0
0.26586032,-2.5095274,-0.31207573,0.10455441,-0.98691732,-0.12272946,0
1.9275746,-1.505863,1.5099308,0.67056483,-0.52385974,0.52527487,0
-1.0070846,-1.305758,-2.145647,-0.3721523,-0.48252237,-0.79289013,0
0.888129,2.2339163,-1.3642471,0.32130694,0.80818534,-0.49355677,0
-1.2505816,-2.2096667,0.4699997,-0.48431858,-0.85574794,0.18201898,0
0.31165475,1.7058344,2.1742742,0.11206204,0.61336875,0.78180617,0
-0.29810077,-0.86520672,-2.6278739,-0.10712819,-0.31092852,-0.94437653,0
-0.22898275,-2.2702422,-1.1612448,-0.089437366,-0.88672394,-0.45356548,0
-1.0093069,2.3583231,-1.138783,-0.35961425,0.84026629,-0.40574634,0
1.2092031,1.9757084,-1.4488482,0.44257963,0.72312766,-0.53029197,0
2.0356777,1.7277123,-0.20733142,0.76013386,0.64513779,-0.077418759,0
-1.7009462,-1.7828019,-0.27715161,-0.68597621,-0.71898782,-0.11177274,0
-0.26917553,2.5227177,-0.40524316,-0.10477022,0.98190832,-0.15773134,0
-1.1742599,-2.2508724,0.56025714,-0.4516651,-0.86577129,0.21549624,0
0.04654057,2.7418771,0.49606228,0.016700491,0.98388773,0.17800564,0
-0.19982184,-1.0266072,-2.287909,-0.079432227,-0.40809196,-0.90947866,0
-1.2187744,2.3749294,0.39414558,-0.45167524,0.88014388,0.14606953,0
0.29424098,-2.7108505,0.35602301,0.10699997,-0.98579371,0.12946685,0
0.94991183,-1.3740641,2.3099644,0.33322406,-0.48201442,0.8103233,0
-0.94263232,-2.5330086,0.15217701,-0.34822035,-0.93572551,0.056216117,0
1.0123694,-0.23245063,2.6261542,0.35847348,-0.082309268,0.92990428,0
-2.6332171,0.78878081,0.51924777,-0.94129801,0.28196603,0.18561587,0
1.520959,-0.67396665,2.0308688,0.57935619,-0.25672403,0.77358848,0
-0.82593191,2.2423694,1.1965617,-0.30905086,0.83905971,0.44773474,0
2.1639817,-0.4008069,-1.4291515,0.82465452,-0.15274031,-0.54462397,0
-1.3219936,2.1174729,-0.56746352,-0.51641268,0.82715213,-0.22166926,0
1.0338416,-2.4842567,-0.39450833,0.38015056,-0.91347802,-0.14506339,0
2.3118172,1.2233232,-0.91630894,0.8341704,0.44141033,-0.33063072,0
1.0650799,2.4039371,-0.55560845,0.39632657,0.89452827,-0.20674729,0
0.37232995,-2.4077597,1.4178566,0.13208295,-0.85414565,0.50298047,0
0.61354309,0.83559895,2.4079449,0.23403259,0.31873456,0.91849715,0
1.4546492,-2.1161942,-1.050259,0.52431023,-0.76275593,-0.37855282,0
-1.3278279,-1.1065068,-1.9030727,-0.51649761,-0.4304083,-0.74025595,0
-1.9552015,-0.77424079,1.6566428,-0.73035008,-0.28921154,0.61882585,0
2.0316284,1.4156624,0.29584733,0.81466514,0.5676682,0.11863218,0
0.62476587,1.8525922,1.6526108,0.24405004,0.72367144,0.64555341,0
1.7450783,1.5860828,1.2305919,0.65605778,0.59628379,0.4626379,0
-1.4626371,-1.7480637,1.5422494,-0.53147924,-0.6351949,0.56040806,0
0.61484098,-2.181073,-1.5798301,0.22257321,-0.78955114,-0.57190049,0
-0.16235068,2.6293249,0.47716731,-0.060641985,0.98211771,0.17823376,0
-2.4023399,0.72254592,0.18017447,-0.95516342,0.28728217,0.071636848,0
1.932142,1.4134495,1.6212699,0.66826415,0.48886552,0.56074375,0
-1.1131958,-1.8807695,1.7186023,-0.4003863,-0.6764617,0.61813456,0
2.4591091,-0.67610419,-1.0855529,0.88719517,-0.24392428,-0.39164484,0
2.3605006,1.3161981,0.55372882,0.855627,0.47709146,0.20071393,0
-2.2252464,0.9634279,0.99213231,-0.8493405,0.36772481,0.37868083,0
2.4750032,0.36878812,1.2198632,0.88906395,0.13247506,0.43819594,0
-1.1058671,-0.009483601,-2.3662369,-0.42339295,-0.003630897,-0.90593886,0
2.4061782,0.62780905,0.47511867,0.95041472,0.24797787,0.1876668,0
1.2728081,1.5404488,1.7590961,0.47809935,0.57863206,0.66076165,0
2.0638423,1.3839185,-0.20365672,0.8277815,0.55507255,-0.08168418,0
-0.78587502,2.5914741,0.78691113,-0.27867618,0.91895282,0.27904359,0
-1.718565,-1.2629054,1.7995679,-0.61586469,-0.45257458,0.64489293,0
-2.2023008,-1.5892731,-0.81456095,-0.77671927,-0.56051338,-0.28728372,0
-0.69575983,-0.8178317,2.6068108,-0.24678552,-0.29008433,0.92463398,0
-2.0621936,0.73950416,1.5039618,-0.7760393,0.27828828,0.56596696,0
-2.5422275,-0.24426557,-0.28688869,-0.98919427,-0.09504503,-0.11162992,0
1.8073506,-1.6744771,-1.2911716,0.64974314,-0.60197508,-0.4641766,0
-0.88625151,2.5081356,0.45379904,-0.32841885,0.92944163,0.16816464,0
1.8093867,1.4171419,-1.385573,0.67422575,0.52806485,-0.51630145,0
-1.8116727,-0.41852328,-1.7920808,-0.70154178,-0.16206656,-0.69395506,0
-0.6075334,0.29240692,2.6788089,-0.21993297,0.10585414,0.96975482,0
0.60257781,2.778939,0.065414786,0.21185663,0.9770301,0.022998784,0
-0.84941202,1.2389265,-2.2263386,-0.31627125,0.46130362,-0.82895803,0
0.014972701,-2.6227407,0.67546183,0.0055283168,-0.96838516,0.24939835,0
1.2909236,-2.0788987,1.2551327,0.46939072,-0.75590509,0.45637682,0
1.6894177,1.9170833,0.42228147,0.65230614,0.74021071,0.16304836,0
0.88730389,2.1185999,-1.541845,0.32074127,0.76582831,-0.55734378,0
-2.2344687,1.1488674,-0.72586596,-0.85439372,0.43929237,-0.27754933,0
-1.2099767,-2.1852829,-0.59267062,-0.47131267,-0.85121602,-0.23085831,0
-1.0924013,1.2354587,1.9816175,-0.42372638,0.47921625,0.76864022,0
-2.3131399,0.82464278,1.3116699,-0.83084387,0.29619884,0.47113141,0
1.8451092,1.9193233,0.81211776,0.66287833,0.68954068,0.29176337,0
-1.4546155,1.1271118,-1.9282687,-0.54573429,0.4228633,-0.72343677,0
0.87072974,-1.8448008,1.6206295,0.33420706,-0.70807904,0.6220367,0
-2.2700214,1.3979812,0.67865962,-0.82516629,0.50817448,0.24669681,0
-0.21306498,-0.93443227,2.3740587,-0.083221428,-0.36498153,0.92728776,0
-1.6389585,-0.40989497,2.23844,-0.58441824,-0.14615995,0.79818076,0
2.0884621,0.96458644,-1.4144831,0.77335262,0.35718408,-0.52377975,0
-1.5761894,1.259107,-1.8055015,-0.58219635,0.46507576,-0.66689724,0
0.88041431,-2.2768998,-1.0152507,0.33300003,-0.86119419,-0.38399935,0
-0.51401532,-0.9901486,2.4056256,-0.19384193,-0.37339804,0.90719301,0
2.0428512,-1.7188383,-0.65578127,0.74309111,-0.62523079,-0.23854171,0
0.24201421,-2.4599793,0.81429607,0.092992008,-0.94522715,0.31288669,0
-0.83555299,2.5271866,0.27543432,-0.31224588,0.94440877,0.10292971,0
2.2700777,-0.098171152,-1.3085067,0.86576861,-0.037440792,-0.49904197,0
-2.7291238,-0.45550892,-0.23433474,-0.9828369,-0.16404201,-0.084390759,0
-2.1567512,-1.7893374,-0.11639293,-0.76895261,-0.63795751,-0.041497901,0
0.54547751,-0.18813506,-2.7570562,0.19365224,-0.066790611,-0.97879404,0
-1.5988653,-1.6209662,-1.1875041,-0.62263739,-0.631244,-0.46244323,0
-0.59871238,2.5348735,-0.99807364,-0.21464615,0.90878499,-0.35782233,0
1.7016954,-1.2250243,-1.8676288,0.6060313,-0.43627259,-0.66512579,0
0.73180115,-2.3962235,0.9851914,0.2718212,-0.89005649,0.36594081,0
0.85195363,2.256568,0.99623293,0.32645965,0.86469305,0.38174596,0
-0.893305,-2.5596464,0.50564498,-0.32391945,-0.92814797,0.18335086,0
1.884764,-1.878605,-0.65430993,0.68777782,-0.68553036,-0.23876722,0
0.37022728,2.0375345,1.9398144,0.13047586,0.71806985,0.6836313,0
-2.5002334,0.83190429,-0.84449673,-0.90358305,0.30064976,-0.30520067,0
-2.4394903,0.77191669,1.318619,-0.84748852,0.2681669,0.45809343,0
-2.156841,-1.778493,-0.62137437,-0.75315076,-0.6210348,-0.2169787,0
2.6149163,-0.065514654,-0.61400133,0.97323328,-0.024383588,-0.22852224,0
-0.075256504,-2.561357,0.023209391,-0.029367618,-0.99952763,0.009057085,0
-0.44165242,-1.2522167,2.2065587,-0.17149766,-0.48624712,0.85682684,0
-2.1690788,0.30056316,-1.816605,-0.76235807,0.10563781,-0.63847536,0
-1.6030347,-0.1437436,2.2136974,-0.58570337,-0.052519828,0.80882215,0
0.10030565,-1.2206876,2.5030019,0.03599567,-0.43805572,0.8982268,0
-0.98258054,-0.12646234,2.3393433,-0.38677126,-0.049779125,0.92083114,0
1.0267701,2.4817982,0.32828489,0.37947017,0.91721439,0.1213264,0
-1.0716945,-1.7166439,-1.8268161,-0.39309645,-0.62966323,-0.67007422,0
-0.91877186,-2.5710487,0.37941054,-0.33330899,-0.93271649,0.13764128,0
-0.14495757,1.3817035,2.053071,-0.058475275,0.55737334,0.82820016,0
1.0640725,-2.5059702,-0.16704518,0.3901068,-0.91873068,-0.061241563,0
2.0418043,0.1476945,-1.851131,0.73979074,0.053512976,-0.67070562,0
2.3145542,0.61914426,1.3701421,0.83859611,0.22432482,0.49642208,0
-1.6162078,1.21012,-1.8988333,-0.58311957,0.43660513,-0.68508941,0
0.81962186,-0.34404868,-2.6904259,0.28926456,-0.12142318,-0.94951695,0
-0.016725305,-2.3493102,1.0838877,-0.0064642751,-0.90800053,0.418919,0
0.63218433,-0.7890228,-2.6993856,0.21931687,-0.27372715,-0.93646866,0
0.33509836,-0.34401396,2.5270388,0.13027351,-0.13373956,0.98241669,0
1.3258373,-2.3292036,-0.39351395,0.48944589,-0.8598485,-0.14526956,0
-0.48889554,2.7293108,-0.25000024,-0.17560904,0.98035592,-0.089798942,0
1.9169104,-1.864787,0.56442463,0.70133501,-0.68226475,0.20650457,0
-2.4747214,0.60188484,0.28247389,-0.96575248,0.23488373,0.11023457,0
1.3849695,-1.9683832,1.159687,0.51840085,-0.73677552,0.43407655,0
2.4932363,-0.47467527,-0.43358421,0.96832645,-0.18435501,-0.16839601,0
0.98138493,-2.7557631,0.11172752,0.33523804,-0.94136012,0.038165774,0
-2.3121734,1.2066103,-0.68704873,-0.85729653,0.4473812,-0.25474063,0
0.92367715,-1.3691782,2.0026212,0.3558315,-0.52745348,0.77147704,0
-1.9643362,0.64223301,1.6756604,-0.73829919,0.2413844,0.62979984,0
-1.4288162,0.25097671,2.2050748,-0.54132468,0.095085628,0.83541983,0
2.3790991,0.80974424,-0.65913057,0.91569865,0.31166491,-0.25369477,0
2.3990352,-0.78074396,1.2886912,0.84683019,-0.2755931,0.45489228,0
0.96711284,2.2113857,-0.99457389,0.37047035,0.84711194,-0.38098979,0
-2.4232819,0.28972939,-0.50805897,-0.97208816,0.11622359,-0.20380548,0
2.4941387,-0.26128516,0.86851376,0.93979275,-0.098452382,0.32725644,0
-1.0000937,-2.3724141,-0.22492176,-0.3869732,-0.91797465,-0.087030537,0
-2.1426632,-1.4492385,-1.1775396,-0.75388438,-0.50990665,-0.41431087,0
0.11595173,2.6445477,0.0038970017,0.04380345,0.99903905,0.0014721826,0
-2.1451151,0.79813677,1.1522138,-0.83713526,0.31147438,0.44965363,0
-2.200871,1.1379305,-0.18290876,-0.88588119,0.45803285,-0.073623322,0
-0.71451128,1.9446939,1.8522248,-0.25710666,0.69977033,0.66649663,0
-1.1778104,0.82217354,2.2704368,-0.43839365,0.30602178,0.84508085,0
-0.34702426,-2.7592726,0.38302135,-0.12361665,-0.98290545,0.1364395,0
0.024576351,2.7222419,-0.93074423,0.008542167,0.94618785,-0.32350501,0
2.0291493,-0.97306478,1.7636296,0.70970577,-0.34033459,0.61683881,0
0.9291839,-2.1700101,1.2507541,0.34781843,-0.81229293,0.46819079,0
-1.6944212,-2.0144978,0.28648365,-0.63991302,-0.76079273,0.10819306,0
2.3618028,0.84678054,0.71501631,0.90528423,0.32457286,0.27406734,0
1.0047212,0.28027633,2.3265376,0.39405993,0.10992669,0.91248721,0
-1.9019899,1.0176574,-1.6407306,-0.70178926,0.37549147,-0.60539073,0
2.3334706,-1.2174157,0.2216273,0.88346553,-0.46092066,0.083909385,0
2.7421789,0.25470424,-0.47962067,0.98094898,0.091114357,-0.17157283,0
1.809058,0.036470059,1.9965607,0.67139167,0.013535053,0.74097914,0
2.743439,-0.10233512,-0.2850315,0.99396229,-0.037076548,-0.1032684,0
2.655127,0.62830681,0.059539068,0.97289294,0.23022449,0.021816336,0
-1.3201922,2.366369,-0.46698692,-0.48012745,0.86060101,-0.16983379,0
-0.98784488,-2.2355421,-1.417304,-0.3496443,-0.79126245,-0.50164992,0
1.8255787,1.6331536,0.12293383,0.74435699,0.66589803,0.050124738,0
2.4451685,0.15282586,-0.58759034,0.97052908,0.060659193,-0.23322463,0
2.2727327,-0.88126993,1.1856024,0.8384468,-0.32511431,0.43738735,0
-2.396275,0.49781266,-0.50242549,-0.95909464,0.19924653,-0.20109278,0
1.006809,-2.3247824,0.034751147,0.39737177,-0.91755527,0.013715735,0
2.1633272,-1.4102949,-0.43664712,0.82598764,-0.53846973,-0.16671778,0
-1.467517,1.3971823,-1.9021429,-0.5280385,0.50273085,-0.68442458,0
-1.9259194,1.8907814,0.91638726,-0.67569941,0.66337144,0.32151002,0
-0.94326806,2.6031845,0.45696789,-0.33612892,0.92763191,0.16283825,0
1.9489614,1.6351908,-0.85256946,0.72637671,0.6094346,-0.31775209,0
2.2653265,0.24912104,1.3457196,0.85592401,0.094127133,0.50846255,0
-1.9098605,-0.79821777,-2.0117679,-0.66165084,-0.27653405,-0.69695556,0
-0.29793397,-2.4948666,-1.2891345,-0.10550059,-0.88345051,-0.45649195,0
0.085193172,-0.82843137,2.6199996,0.03098865,-0.30133834,0.9530136,0
-2.0260258,-0.56883329,-1.7274336,-0.74415976,-0.20893261,-0.63448679,0
-1.8483275,-0.91075552,-1.5791607,-0.71197349,-0.35082191,-0.60829079,0
-2.4880679,0.61559868,-0.50141573,-0.95267028,0.23571002,-0.19198988,0
1.9752367,-0.49282283,1.6887251,0.74677056,-0.18631974,0.63845021,0
-1.790287,1.8488797,0.26414338,-0.69199657,0.71464431,0.10209889,0
-2.5234399,0.0075147385,0.0098246122,-0.99998802,0.0029779384,0.0038932944,0
2.3403859,1.3205781,-0.34100214,0.86399263,0.48751348,-0.12588665,0
0.63903081,-1.5768601,-2.1804838,0.23105177,-0.57013887,-0.78838867,0
-1.036368,1.1697785,2.0632226,-0.40040398,0.45194751,0.79713243,0
2.0473042,-1.1258643,-1.2859124,0.76765895,-0.42215505,-0.48216683,0
-0.57272476,-2.4708829,-1.0100324,-0.20978166,-0.90505242,-0.3699618,0
-0.060265094,-2.5418789,-1.2092962,-0.021404572,-0.90280837,-0.42951012,0
-2.1261423,-1.475468,-0.58755744,-0.80116582,-0.55598092,-0.22140142,0
-0.21370597,-0.49062103,-2.7246406,-0.076964095,-0.17669232,-0.98125243,0
-0.22947244,-1.3165072,2.3016512,-0.086220033,-0.49465328,0.86480296,0
0.89269888,2.5389028,-0.64549899,0.32255349,0.91736639,-0.23323424,0
0.13586618,-2.2539947,1.0878755,0.054206043,-0.89926821,0.43402579,0
-0.14206873,-2.3075643,-1.1174324,-0.055326626,-0.89864779,-0.435168,0
-0.10280429,-2.5306191,-1.0328829,-0.037585329,-0.92519641,-0.37762281,0
1.213648,1.9146169,1.7317059,0.42544863,0.67117578,0.60705566,0
-2.1178195,1.7452507,-0.31200752,-0.7667821,0.63188905,-0.11296608,0
-0.13490452,-0.38953131,2.6232557,-0.050802924,-0.14669138,0.98787689,0
-1.764944,-0.64221156,1.9959242,-0.64398676,-0.23432797,0.72826606,0
2.1845052,-1.1335479,1.5696751,0.74836081,-0.38832721,0.53773427,0
1.3288416,0.63142622,2.4189782,0.46934807,0.22302032,0.85438532,0
-0.96030283,-2.3428729,1.5712607,-0.32225481,-0.78621244,0.52727777,0
-1.5351527,-1.1939516,-2.0779474,-0.53939503,-0.41950977,-0.73011273,0
-1.1647142,0.031222397,2.4418001,-0.43049306,0.011540192,0.90252012,0
0.39487407,-2.8148279,0.46936187,0.13706706,-0.97707146,0.16292296,0
-1.2849852,-1.3050233,1.7667471,-0.50495863,-0.512833,0.69427586,0
-1.39305,-2.3240633,-0.093874253,-0.51381075,-0.8572045,-0.034624457,0
0.33862284,-0.64329404,2.5655322,0.12698948,-0.24124652,0.96211946,0
-0.11449031,-2.7081215,0.6791721,-0.0409723,-0.96914726,0.24305326,0
-1.3101615,-2.5944021,-0.23700351,-0.44928613,-0.88968337,-0.081274249,0
0.12764794,0.80962437,2.7942731,0.043835133,0.27803028,0.9595716,0
-1.8877473,-0.43984014,1.5998007,-0.75111884,-0.1750087,0.63654727,0
-0.38157761,-0.85900444,2.3517709,-0.15066338,-0.33917218,0.92858106,0
-2.8238528,-0.050584912,-0.61420232,-0.97700363,-0.017501494,-0.21250325,0
-1.277665,-1.7496769,-2.0611176,-0.42726722,-0.58511394,-0.68926364,0
-1.323792,-1.9881979,-0.92723715,-0.51665217,-0.77595782,-0.36188397,0
0.035709474,-0.70601571,2.6255815,0.013132911,-0.25965214,0.96561289,0
-2.5684271,-0.64578444,0.28173894,-0.96437329,-0.24247418,0.10578517,0
-0.60005087,2.1289673,1.800752,-0.21037884,0.74641949,0.6313467,0
1.781317,0.60430908,-1.8985949,0.66650379,0.2261104,-0.71038491,0
0.70197296,-2.3743987,0.48408622,0.27824378,-0.94114971,0.19187915,0
0.72365683,1.6743246,2.1131928,0.25923327,0.59978795,0.75700229,0
1.6361187,1.0701989,-2.0802207,0.57312399,0.37488517,-0.72869062,0
-0.4780032,2.3195775,1.3713776,-0.1746632,0.84757763,0.50110376,0
1.779662,1.1146566,2.0279665,0.60961974,0.38182342,0.69467592,0
-0.94049776,2.2835231,1.2751579,-0.3383821,0.82158971,0.45878962,0
-0.19581407,2.6633124,0.43730861,-0.072361052,0.9841994,0.16160285,0
-1.5917881,-0.37533411,2.3352301,-0.55833435,-0.13165189,0.81910348,0
0.73423165,2.5955927,-0.6760577,0.26402923,0.93337351,-0.24310991,0
-1.9872695,1.2908758,1.4249321,-0.71868521,0.46683821,0.51531893,0
-2.3464544,0.94232732,-0.68688422,-0.89551246,0.35963446,-0.26214591,0
-1.7362556,1.4014386,-1.3121861,-0.67075175,0.54140496,-0.50692487,0
1.8838105,1.9297471,-0.51852757,0.68597347,0.70270085,-0.18881737,0
0.012226112,1.3270509,-2.3078008,0.0045925337,0.49848437,-0.86688656,0
0.88836843,-1.8025002,-1.6445826,0.34211421,-0.69414997,-0.63333529,0
-1.1034619,-2.2964954,-1.0838922,-0.39853203,-0.82941425,-0.39146417,0
-0.87433362,1.0715078,2.27595,-0.32830417,0.40234125,0.8545981,0
-1.9157965,0.44655311,-1.9151921,-0.69780087,0.16265044,-0.6975807,0
-0.064354539,-2.4716816,-0.89966923,-0.024459055,-0.93940532,-0.34193483,0
-0.70108491,-2.7625659,-0.28618294,-0.244752,-0.96442461,-0.099907801,0
-1.1130595,0.4895308,-2.3981056,-0.41396695,0.18206535,-0.89189887,0
-2.2212217,1.5912272,-0.1277356,-0.81204265,0.58172685,-0.046698064,0
0.11672068,2.7074151,-0.13936529,0.043014627,0.99775344,-0.051359762,0
0.37040654,-0.10056219,-2.619292,0.13992053,-0.037987225,-0.98943383,0
-0.24206778,-0.75851047,2.7252369,-0.085260242,-0.26715982,0.95987308,0
1.5696701,2.0351639,-0.49194789,0.59983784,0.77772284,-0.18799424,0
-2.625602,-1.0256789,0.034936219,-0.93137944,-0.36383894,0.01239292,0
0.4468905,-0.34811807,-2.6911738,0.16249689,-0.12658158,-0.97855598,0
0.18454432,-2.5179842,-0.40387937,0.072176784,-0.98480403,-0.1579605,0
-2.1667097,0.69314498,1.3699293,-0.81592661,0.26102042,0.51587981,0
-0.71238685,1.5462824,2.0485797,-0.26744512,0.58050722,0.76908022,0
-2.3092346,1.4526415,0.50405729,-0.83236307,0.52360427,0.18168733,0
2.5055158,0.28877735,0.19010855,0.99061316,0.11417475,0.075163782,0
2.7228894,0.33199993,0.11381827,0.99179506,0.12092885,0.041457575,0
1.3270372,-2.1924982,-0.74396968,0.49727347,-0.82158297,-0.27878374,0
0.88182509,1.1573375,2.4283044,0.31150547,0.40883049,0.85780066,0
-0.92093569,2.4829602,0.01879305,-0.34774414,0.93756264,0.0070962319,0
-1.7903579,-0.95051622,-1.7377861,-0.67055249,-0.356002,-0.65086246,0
-0.58583951,0.10073044,2.7482705,-0.20834869,0.0358239,0.97739834,0
-0.074052811,-2.6854436,0.22088802,-0.027472448,-0.99625808,0.081946038,0
2.2021194,-1.0597631,-1.1246184,0.81856984,-0.39393419,-0.41804215,0
1.6824226,-1.0544952,-1.5596303,0.66634113,-0.4176439,-0.61770791,0
-0.23614442,-0.82001889,2.5628805,-0.087421618,-0.30357429,0.9487887,0
2.4459949,-0.5613938,-0.39904234,0.96256584,-0.2209238,-0.15703407,0
-2.4070909,0.99895531,-0.91662824,-0.87129945,0.36159384,-0.33179376,0
0.45835754,2.4940605,-0.41495696,0.17838004,0.97061914,-0.16148974,0
0.45435539,2.2246139,1.3612034,0.17162946,0.84033179,0.51418471,0
1.8956721,-1.0433058,1.6014897,0.70418894,-0.38755879,0.59490848,0
1.8977473,1.583445,1.4001586,0.66807234,0.55742711,0.49290401,0
-1.0015196,0.36966181,2.718467,-0.34291872,0.12657163,0.93079883,0
-1.4103341,0.053601809,-2.1643577,-0.5458234,0.020744817,-0.83764344,0
-2.4598634,-0.95163453,0.79821277,-0.89265752,-0.34533775,0.28966269,0
-2.1526034,-0.61151522,1.5056152,-0.7981078,-0.22672783,0.5582279,0
0.40645418,1.6145394,2.2982438,0.14322188,0.56891376,0.80983001,0
0.067889802,-1.9237274,1.8842846,0.025203448,-0.71416563,0.69952285,0
2.0224259,-1.7446606,0.20318934,0.7550081,-0.6513133,0.075854249,0
-1.5980078,-1.2021097,-1.7172792,-0.60625732,-0.45606023,-0.6515069,0
-0.84643817,2.4414458,0.90032035,-0.30932942,0.89222234,0.32902059,0
-2.2525206,1.5939524,-0.090610139,-0.81585521,0.57732409,-0.032818682,0
-1.4639461,1.4398013,1.9977248,-0.5110119,0.5025838,0.69733518,0
0.69940621,2.6862555,-0.10380981,0.25178844,0.96706045,-0.037371859,0
-2.4627407,-0.91333634,-1.099086,-0.86493105,-0.32076985,-0.38600639,0
-0.64872068,2.4949062,1.2589351,-0.22612552,0.86965311,0.43882886,0
-2.3057399,1.2305663,-0.43840283,-0.87006408,0.46435052,-0.16543001,0
0.90722388,-1.1531327,-2.3159828,0.33090651,-0.42060083,-0.84474605,0
2.2949238,-0.89554465,-0.87344378,0.87802666,-0.34263101,-0.33417535,0
-1.1714934,1.3373952,-2.22965,-0.41080102,0.46897686,-0.78185886,0
-0.28954655,-0.97787952,2.7023215,-0.10024598,-0.33855864,0.93559003,0
2.4284256,-1.3858155,-0.57324547,0.85083115,-0.48553887,-0.20084417,0
-1.2337439,-2.2755716,-0.55637658,-0.46598178,-0.85947734,-0.21014196,0
-0.015772147,2.5058615,0.55130756,-0.0061469739,0.97662449,0.21486442,0
1.8984191,1.9729297,0.46390283,0.68362564,0.71045709,0.16705261,0
0.75716144,1.4765005,-2.0759709,0.2849009,0.55557019,-0.78113592,0
-1.8947434,1.8285182,-0.69098026,-0.69600511,0.6716783,-0.25382107,0
-1.809275,-1.7018595,-0.42197382,-0.71810973,-0.67547596,-0.16748337,0
1.9275709,0.72249299,-1.8408302,0.69800222,0.2616255,-0.66659206,0
2.4982066,-0.616162,0.44506231,0.95669889,-0.23596187,0.17043851,0
-1.0103154,1.3209393,-1.9824338,-0.39044532,0.51048869,-0.76612908,0
-0.12475193,-0.11111516,2.7319541,-0.045578852,-0.040596578,0.99813557,0
-0.082572274,-0.85311997,-2.6588621,-0.029557697,-0.30538413,-0.95177037,0
-1.0409636,-1.0567802,-2.2545173,-0.38572103,-0.39158174,-0.83539397,0
-0.13803102,1.7263325,-2.141186,-0.050122056,0.62686872,-0.77751106,0
1.5983636,1.9417498,-1.0993994,0.58232772,0.70743275,-0.40054139,0
-2.4201667,0.68210292,0.47044715,-0.94608587,0.26664606,0.18390609,0
1.2603728,2.3261554,0.55678552,0.46618009,0.86038619,0.20594092,0
0.55829298,2.3916705,1.1752968,0.20505115,0.87841833,0.43166575,0
1.92967,-1.5907955,0.87566519,0.72825271,-0.60036236,0.3304739,0
1.47276,0.58689839,2.2314515,0.53803253,0.21440725,0.81519967,0
2.3720021,-0.54951215,1.0300206,0.89721853,-0.20785499,0.38960907,0
0.61976629,-0.16844447,-2.4656556,0.24324317,-0.06611035,-0.96770978,0
-1.245114,-0.83176905,1.9917675,-0.49967575,-0.33379662,0.79931474,0
0.92311388,2.6142099,-0.34531075,0.33041191,0.93570912,-0.12359773,0
-1.5443225,-0.15096614,-2.277673,-0.56034994,-0.054777335,-0.82644266,0
-2.5059006,-0.47929949,0.62049991,-0.95437533,-0.1825418,0.23631816,0
-0.016883528,-1.5046345,2.0063186,-0.0067321579,-0.59995973,0.80000186,0
0.99123943,0.45739102,2.3520322,0.38227034,0.17639232,0.90705848,0
0.43478549,-0.8076008,2.435487,0.16706641,-0.31032079,0.93583643,0
-2.654891,-1.0271139,-0.35917032,-0.92530119,-0.35797694,-0.12518056,0
2.0951564,0.86084753,-1.5238044,0.76746589,0.31533259,-0.55817688,0
-1.3036035,0.6585393,-2.2004631,-0.49359471,0.24934845,-0.83318043,0
-1.8780099,-1.7363709,-1.1542536,-0.66925943,-0.61878407,-0.41133708,0
1.0412947,-2.2866652,-0.42704871,0.40857074,-0.89721435,-0.16756026,0
0.16561596,2.6704395,1.1792374,0.056641858,0.91330963,0.40330774,0
2.2943287,-0.88762206,-1.1275753,0.84782052,-0.32800192,-0.41667151,0
-1.561537,-2.1902475,0.16182171,-0.57947022,-0.81277817,0.060050357,0
-0.48230779,-0.45622444,2.4063458,-0.19321296,-0.18276395,0.96398443,0
-1.7250991,-0.92399204,-1.6415374,-0.67537445,-0.3617419,-0.6426602,0
1.8636588,1.2228965,-1.2199252,0.7334218,0.48125705,-0.48008773,0
0.89397323,0.81282753,2.2268875,0.35285318,0.3208248,0.87895733,0
-0.56929386,1.1091605,-2.3402333,-0.2146976,0.41829732,-0.8825714,0
-2.0124526,-1.6003793,0.79918832,-0.7474122,-0.59437084,0.29681352,0
-1.8933918,0.7803579,1.5551016,-0.73631972,0.30347279,0.60476232,0
-0.47141409,2.4537168,-1.3476137,-0.16605863,0.86433744,-0.47470555,0
1.3062735,1.7285266,1.3754401,0.5090068,0.67354333,0.53595853,0
1.3535962,0.7001124,-2.3974762,0.47648039,0.24644709,-0.84393734,0
-1.2502544,2.1103249,-1.2838103,-0.4515945,0.76225376,-0.46371496,0
-0.72285718,-0.047464073,-2.4997749,-0.27774173,-0.01823701,-0.96048266,0
-0.72066838,1.9621147,1.7179303,-0.26635686,0.72519165,0.63494188,0
-0.73090416,-2.5646243,0.0340252,-0.27405888,-0.96162826,0.012758045,0
-2.2685764,-1.3046006,0.68208885,-0.83885294,-0.48240301,0.25221643,0
-0.81116509,-1.8840704,1.4494826,-0.32295275,-0.75011331,0.57708889,0
1.5070062,-0.46174783,-2.1060996,0.57288051,-0.17553101,-0.8006227,0
-1.7113434,-0.76455218,1.6843981,-0.67910272,-0.30339292,0.66841018,0
0.38172352,0.44432083,-2.4316573,0.15261507,0.17764179,-0.97218931,0
2.0633442,0.73956233,1.7464814,0.73622632,0.26388481,0.62316579,0
0.28620845,2.3684697,1.7147353,0.097415872,0.80614859,0.58363903,0
-0.83459264,1.2766325,-2.0891829,-0.32264754,0.49353701,-0.80766314,0
0.65543032,-1.9350399,1.7566987,0.24325369,-0.71816272,0.6519739,0
1.5337244,1.9216487,-0.79457998,0.59357566,0.74370849,-0.30751505,0
1.5216621,1.8843567,0.31173861,0.62311745,0.77164012,0.12765631,0
1.1635344,0.46453404,2.4718714,0.41986108,0.16762699,0.89197409,0
2.3702397,1.3680856,0.99282998,0.81416422,0.46992984,0.34103158,0
0.34781086,1.4192491,-2.5387824,0.11873613,0.48450512,-0.86669284,0
-2.4555743,0.20947574,0.82033229,-0.9453842,0.080647148,0.31582397,0
2.7003031,-0.18518947,-0.2050862,0.99480492,-0.068224713,-0.075554766,0
-1.1777998,-0.85977244,-2.1681664,-0.4507595,-0.32904625,-0.82978582,0
-1.1306883,-2.3510048,0.096858397,-0.43311977,-0.90057236,0.037102431,0
1.3983351,-1.620507,1.5222975,0.5323844,-0.61697131,0.57958025,0
-0.46670178,2.6385901,0.52235073,-0.17095397,0.96652186,0.19133832,0
-1.468737,-0.067973189,2.3622634,-0.5278551,-0.02442915,0.84898305,0
-2.217093,0.26478457,-1.2511215,-0.8662293,0.10345265,-0.48881942,0
1.9344888,1.8969471,0.23794125,0.71126336,0.69746023,0.087485075,0
1.3645233,-1.1033942,-2.0854993,0.50063854,-0.4048312,-0.76516193,0
-2.535413,0.84726733,-0.97031772,-0.89153063,0.29792571,-0.34119409,0
-1.5309172,1.9379411,0.9290365,-0.58019131,0.73444635,0.35208887,0
-0.66302651,-2.4804258,0.37382081,-0.25554267,-0.95600188,0.14407744,0
0.1378074,1.4214044,-1.9695716,0.056645218,0.58426297,-0.80958509,0
-1.9858694,0.20384668,-1.7148681,-0.75458705,0.077457286,-0.65161246,0
1.0388495,-1.5347465,2.0327306,0.37765989,-0.55793667,0.73897213,0
2.4068651,0.5973503,-1.4058459,0.84432024,0.20954849,-0.49316603,0
1.51569,2.0094247,-0.94671518,0.56363767,0.74724215,-0.35205373,0
-0.47536963,2.3732517,1.2032634,-0.17586823,0.87801057,0.44516051,0
0.15512703,-1.8395305,-1.9102154,0.058395818,-0.69247043,-0.71907896,0
1.6511949,-0.36897463,2.3146794,0.5759089,-0.12869211,0.80732101,0
1.5100332,2.1204278,-1.0452852,0.53830171,0.75589722,-0.37262678,0
-0.51857644,1.7020465,-1.8793058,-0.20037834,0.65767211,-0.72616524,0
-2.0933404,1.0787623,1.2912152,-0.77943647,0.40166742,0.48077235,0
2.0399179,-1.4671217,-1.2737943,0.72411019,-0.52078456,-0.45215908,0
-2.1930523,1.4033149,0.70065051,-0.81337583,0.52047205,0.25986257,0
-1.765246,0.91925019,1.8111392,-0.6559878,0.34160504,0.6730423,0
1.5297685,-2.1233857,-0.45568946,0.57587415,-0.79933858,-0.17154217,0
1.9276766,0.013548564,-1.7971128,0.73143381,0.0051408405,-0.68189299,0
-1.8808049,1.9780201,0.52734381,-0.67656243,0.71153265,0.18969592,0
0.13365901,-2.4930725,1.0955449,0.049023207,-0.91440463,0.40182197,0
1.954479,1.3297052,0.94206226,0.76805353,0.52253556,0.37020314,0
2.4235404,-0.55931664,1.077089,0.89414901,-0.20635614,0.39738476,0
1.2871325,-2.2487488,-0.3074902,0.49329793,-0.86184067,-0.11784668,0
0.083964087,-2.4550748,1.245895,0.030483667,-0.89132965,0.45232967,0
-0.1351409,-2.164906,1.7525952,-0.048460726,-0.77632248,0.6284703,0
1.3301326,2.1221139,0.088532537,0.53076136,0.84678477,0.03532704,0
1.2279121,0.85043174,2.1472745,0.46944249,0.32512814,0.82092351,0
-2.4662423,-0.92558891,-0.79267806,-0.89652467,-0.3364687,-0.28815314,0
-1.4155495,1.5677398,1.9144102,-0.4965601,0.5499469,0.67155528,0
0.31994972,2.4554062,0.79947221,0.12296174,0.94365144,0.30724981,0
-0.13741821,-1.6869614,-2.169867,-0.049935456,-0.61301327,-0.78849304,0
-0.97727877,2.462312,-0.79599231,-0.35329759,0.8901543,-0.28776044,0
-0.35320944,0.32899168,2.5592206,-0.13562325,0.12632425,0.98267418,0
-1.970907,-0.095539197,-1.8408908,-0.73034227,-0.035403151,-0.6821633,0
-0.52076387,-0.74989951,2.4285812,-0.2007166,-0.28903171,0.93604147,0
-0.56469268,1.9365399,-1.7837275,-0.20971078,0.71917576,-0.66242558,0
1.4043941,1.7747833,1.3655636,0.53130686,0.67143148,0.51661658,0
-1.1048516,0.14466722,2.4989405,-0.40380296,0.052873213,0.91331679,0
1.415037,1.8150721,1.0452261,0.55981004,0.71806997,0.41350725,0
-1.2317626,-1.5724527,1.989328,-0.43693614,-0.55778718,0.70566297,0
-1.6503521,1.7641852,1.1239221,-0.6194005,0.66212362,0.42182386,0
-2.6500559,0.79249167,-0.32415438,-0.95156515,0.28456286,-0.11639528,0
2.0942976,0.56036586,1.8189119,0.74005151,0.19801368,0.64273977,0
2.5443153,-0.97922415,-0.25122875,0.92932916,-0.35766855,-0.091763079,0
1.2944947,1.3983973,-1.8225679,0.49092439,0.53032845,-0.69119096,0
1.7961444,-0.2582064,-2.0582354,0.65458888,-0.094101027,-0.75010562,0
1.6913446,-1.9392173,0.82904828,0.62562925,-0.71731746,0.30666536,0
-0.25081283,1.8884518,2.0198202,-0.090334885,0.68016088,0.72747564,0
-2.2867594,-0.51596409,-0.83527732,-0.91889054,-0.20733032,-0.33564022,0
-2.6610551,-0.81197816,-0.26284274,-0.9522242,-0.29055589,-0.094054878,0
-0.99689466,-2.6415744,-0.10370746,-0.3528423,-0.93496251,-0.036706366,0
2.2129438,1.3830636,-0.66336989,0.82186413,0.5136553,-0.24636863,0
-0.84267026,-0.90879571,2.5151739,-0.30053034,-0.32411334,0.89701283,0
0.14149556,-1.7123462,2.1290002,0.051719334,-0.62589532,0.77819031,0
-1.7221218,0.48237512,-1.8290883,-0.67319947,0.18856661,-0.71501404,0
1.4102614,2.0918694,1.5209605,0.47872698,0.71010548,0.51630485,0
0.76964122,2.5403795,0.39389235,0.28680789,0.94667608,0.14678454,0
1.1029693,-2.5776424,-0.32195452,0.39082819,-0.91336668,-0.11408196,0
1.6297853,-1.6829731,1.6232555,0.57181728,-0.59047848,0.56952626,0
-2.1342447,-0.76336384,1.7950181,-0.73815215,-0.26401785,0.6208269,0
-0.49780422,-1.9204581,-1.8271468,-0.18456909,-0.71204138,-0.67744464,0
-1.8257908,-0.077323772,1.9545343,-0.68234456,-0.028897865,0.73045927,0
1.5802817,1.9599644,0.76942921,0.60026592,0.7444874,0.29226568,0
-0.27561149,2.3586621,-1.0823202,-0.10560939,0.90379709,-0.41472572,0
-1.0758309,2.2645557,0.59899765,-0.41736442,0.87852556,0.2323788,0
2.0721869,1.8024181,-0.88467407,0.71817213,0.62467647,-0.30660757,0
0.99085748,2.4429379,-0.18310173,0.37495729,0.92444915,-0.069288798,0
1.1399726,-2.3204217,-0.37163982,0.43645373,-0.88840443,-0.14228727,0
2.3088751,-1.1165736,0.92194724,0.84717941,-0.40969655,0.33828366,0
-0.95107639,-1.995773,-1.8670499,-0.32867077,-0.68969458,-0.6452108,0
0.061744858,2.3461912,-1.1624777,0.023574675,0.89579427,-0.44384316,0
1.0683368,0.49557427,2.2728157,0.41734999,0.19359803,0.88788438,0
-0.32889992,0.86024028,-2.4178288,-0.12712125,0.33248663,-0.93450141,0
0.44718817,0.81553823,2.4299808,0.17186981,0.31343943,0.93392527,0
-2.5657144,-0.27024388,-0.5645467,-0.97151071,-0.10232816,-0.21376626,0
-0.10776152,2.5547626,0.72284663,-0.040553909,0.96143419,0.27202898,0
-0.38431963,2.3016307,1.0320704,-0.1506224,0.90205419,0.40448862,0
1.7733598,-1.0478792,-1.521641,0.69247323,-0.40918279,-0.59418041,0
-2.6225262,-0.75756276,-0.68399417,-0.93190986,-0.26919854,-0.24305607,0
1.0721806,-1.7508395,1.3754246,0.43387136,-0.70849919,0.55658287,0
2.3995075,-0.43576187,1.147401,0.89029223,-0.16168126,0.42572159,0
0.12663502,-0.28795084,2.8359442,0.044381376,-0.10091723,0.99390447,0
-1.6091739,0.12029266,2.1555352,-0.59762222,0.044674825,0.80053228,0
-2.0924964,1.407238,1.0024478,-0.77110738,0.51858228,0.36941278,0
-1.2205527,2.2403724,-1.0301909,-0.44360831,0.81426048,-0.37442157,0
-1.4711078,-0.60651183,2.375092,-0.51457858,-0.21215169,0.83078313,0
-2.6456876,-0.42255086,-0.68904305,-0.95636338,-0.15274371,-0.24907534,0
0.31772801,1.2913214,-2.2542477,0.12139679,0.49338514,-0.86129779,0
-2.5117619,-0.38369048,0.35471433,-0.97903883,-0.14955552,0.13826115,0
0.32856002,2.4464803,-0.70851618,0.12793823,0.95263678,-0.27588964,0
-1.5107727,0.75685239,-1.9442084,-0.58650529,0.29382178,-0.75477171,0
0.75751191,0.12615456,2.6400859,0.2755082,0.045882598,0.96020317,0
0.91224074,2.371016,-0.7986027,0.34255895,0.89034915,-0.29988632,0
-1.4097077,2.2198834,0.077934667,-0.53584278,0.84379798,0.02962368,0
-1.9641302,0.95129168,-1.4797332,-0.74490982,0.3607839,-0.56119895,0
1.9517692,0.017504979,-1.7449914,0.74547672,0.0066860132,-0.66649812,0
2.3286688,-0.8196907,-0.63662374,0.91338742,-0.3215121,-0.24970666,0
1.3493909,0.36667398,2.2083569,0.516249,0.14028187,0.84487158,0
-1.874014,-2.1582272,-0.49890223,-0.6458748,-0.74382824,-0.17194556,0
-1.2567831,1.5770302,-1.6561472,-0.48162326,0.60434806,-0.63466722,0
2.5151689,-0.5867371,0.15544619,0.97209364,-0.22676943,0.06007877,0
-0.7533322,2.7146368,0.37952134,-0.26500824,0.95495874,0.13350855,0
0.77861053,-2.113378,-1.070667,0.31222126,-0.84746039,-0.42933536,0
-0.30279869,0.053132158,2.8878627,-0.10426307,0.018295065,0.99438149,0
1.4806925,2.0178316,-0.09198156,0.59121114,0.8056801,-0.036726411,0
-1.2142543,0.50962186,-2.1174159,-0.48696643,0.20437954,-0.84917176,0
-0.91091931,2.3487217,-0.86753327,-0.34188884,0.88152897,-0.32560506,0
1.774262,0.29635766,-2.3211348,0.60419333,0.10091933,-0.79042119,0
-1.1955642,1.2902391,2.0725167,-0.43981275,0.47464088,0.76241773,0
-0.63667607,0.61751956,-2.3817067,-0.25051209,0.24297459,-0.93712699,0
0.1818191,1.2774,2.2858162,0.069268741,0.48665893,0.87084144,0
-0.39238769,-2.0358942,2.0206745,-0.13553225,-0.70320582,0.69794887,0
0.94134521,-1.5022497,2.0186892,0.35038117,-0.55915725,0.75138283,0
2.2992101,-0.50815082,1.1604174,0.87585598,-0.19357385,0.44204685,0
0.11575124,-2.2774522,-1.1332815,0.045455553,-0.89435631,-0.44504002,0
-1.4406806,-2.4776402,-0.38040736,-0.49830046,-0.8569625,-0.13157474,0
2.0152583,-1.5180497,-0.41246155,0.78827757,-0.59379214,-0.16133624,0
-0.20127422,2.191731,1.1697401,-0.080752388,0.87933522,0.46930653,0
1.3530135,2.2292683,-1.2416823,0.46845248,0.77183729,-0.4299064,0
-2.4974635,-0.95197624,-0.77308208,-0.89762288,-0.34215343,-0.27785638,0
-2.3213058,0.22526529,1.0957549,-0.90084922,0.08742065,0.42523906,0
-0.28355929,-2.6787102,-0.34045395,-0.10443763,-0.98659492,-0.12539248,0
1.255157,0.8907572,-2.4532285,0.43340069,0.3075749,-0.84709001,0
0.22149199,-1.3700231,-2.233336,0.084236294,-0.52103764,-0.84936678,0
1.5907809,-1.6000981,1.1032776,0.63337427,-0.63708395,0.43927333,0
1.4948244,1.5488962,-1.3250904,0.59136909,0.61276048,-0.52422047,0
0.40229961,1.2557738,2.2274642,0.15541714,0.4851329,0.86051816,0
-1.4486457,-1.778246,0.93382674,-0.58497053,-0.71806484,0.37708402,0
-1.8167486,1.4093546,-1.5568885,-0.65425384,0.50754172,-0.5606721,0
-0.41637358,0.41958886,2.573209,-0.15770338,0.1589212,0.97461462,0
0.96363223,-1.153452,2.432193,0.33703732,-0.40342817,0.85067707,0
1.2094437,-2.5171316,-0.24487516,0.43143079,-0.89790708,-0.087351471,0
-1.0192437,1.7165143,-2.0140078,-0.35942587,0.60531121,-0.7102192,0
-0.82041138,-0.4698427,-2.5745907,-0.29912663,-0.17130731,-0.93871033,0
-0.37386838,1.4305346,2.1286366,-0.14425182,0.55195153,0.82130432,0
-0.99794781,1.1001928,-2.4545557,-0.34783807,0.3834759,-0.85554367,0
1.3305671,1.2695299,-2.1328804,0.4724597,0.45078653,-0.75734627,0
-0.094236851,1.4808666,1.9522257,-0.038430322,0.60390574,0.79612869,0
2.1133115,1.6126131,0.38651481,0.78671104,0.60031873,0.14388578,0
1.9919113,1.6248484,0.21564646,0.77217776,0.62988335,0.083596796,0
2.2432413,0.71695042,1.0256582,0.87330461,0.27911222,0.39929366,0
0.0027396802,-1.3684829,-2.3442595,0.0010092902,-0.50414515,-0.86361837,0
0.088353649,-2.6291573,-1.1483386,0.030781401,-0.91596836,-0.40006801,0
-2.0126274,-1.6443962,-0.29505366,-0.7694481,-0.6286695,-0.11280204,0
2.5617173,-0.78692657,-0.042592339,0.95579398,-0.29360759,-0.015891489,0
-1.5458368,-0.34577104,-2.3330312,-0.54817587,-0.12261536,-0.82732624,0
-0.3051433,-2.5818405,0.34666833,-0.11634163,-0.9843753,0.13217382,0
0.41500831,-2.2268529,-1.4164205,0.15534176,-0.83353329,-0.53018034,0
-0.30042693,-1.0450922,2.3556802,-0.11579141,-0.40280247,0.90793306,0
-0.94482875,1.050014,-2.0271738,-0.38240382,0.42497581,-0.82046509,0
0.67894441,0.64639086,-2.7268651,0.23545833,0.22416875,-0.94567847,0
2.214148,-0.7798149,1.1381208,0.84872001,-0.2989161,0.43626076,0
1.9703404,-1.3125368,0.77942216,0.79051167,-0.5265972,0.31270856,0
-0.93480647,-0.2172761,2.4524062,-0.35496616,-0.082504414,0.9312315,0
-2.336591,1.1204251,-0.99493033,-0.84178138,0.40364486,-0.35843405,0
-2.7677546,-0.57724333,-0.66024071,-0.95328832,-0.19881797,-0.22740448,0
-1.8879097,1.7836249,0.019811112,-0.72687685,0.68672544,0.0076276101,0
1.2768039,2.0137639,0.73637092,0.51163447,0.80694544,0.29507488,0
-2.3146398,-0.35094464,1.449456,-0.84062397,-0.12745503,0.52640909,0
-2.0941813,0.2558344,1.857058,-0.74508989,0.09102346,0.66072369,0
0.06988515,-2.5587273,0.080105096,0.027288925,-0.99913812,0.031279635,0
0.35261387,-0.98308474,2.4536698,0.13222857,-0.36865222,0.92011482,0
0.59326011,2.3728714,1.6320239,0.20176139,0.80698812,0.5550338,0
0.3779867,2.7311678,-0.022175793,0.13708635,0.99052644,-0.0080426065,0
0.23142226,2.5094535,-0.732687,0.088179298,0.95618224,-0.27917722,0
0.3074562,2.7356606,-0.18425366,0.11143582,0.99152523,-0.066781737,0
-0.60884911,1.491081,2.2898822,-0.21747968,0.53261113,0.81794131,0
-0.98717606,1.3014044,-1.9664453,-0.38616174,0.50908101,-0.76923048,0
0.84342945,2.0013108,-1.5084463,0.31896803,0.75685543,-0.57046402,0
-2.5636129,-0.35623935,0.84185797,-0.94191021,-0.13088773,0.30931136,0
-1.3413047,-2.3082566,-0.54262197,-0.49235585,-0.84729713,-0.19918151,0
0.87991238,-0.24161196,-2.6136312,0.31784871,-0.087276928,-0.944116,0
-1.0294831,-2.1927061,-0.94294786,-0.39604449,-0.84353906,-0.3627542,0
-0.18646422,1.2456217,2.4305367,-0.068115033,0.45502329,0.88787055,0
1.5243914,2.3283806,-0.33516139,0.54382032,0.83064014,-0.11956744,0
-0.44908732,-2.6152558,-0.91547781,-0.1599874,-0.93168521,-0.32613909,0
2.4507945,-0.71210146,-0.88074541,0.9077518,-0.26375586,-0.32622004,0
2.4341955,0.17689325,1.4910626,0.85110343,0.061849777,0.5213421,0
0.50844496,-1.779137,-2.2978134,0.17234144,-0.60305256,-0.778862,0
2.5769095,-0.92125064,0.20525008,0.93899745,-0.33569357,0.074790865,0
-0.10384225,2.5732119,0.44862062,-0.039724063,0.98436266,0.17161641,0
1.1902186,0.68179643,-2.5076075,0.41641596,0.23853679,-0.87732434,0
-2.1360424,1.2372665,0.34692195,-0.85689795,0.4963437,0.13917173,0
-0.70747882,0.72017807,2.3941522,-0.27228558,0.2771731,0.92143124,0
-0.83095592,-2.1482372,1.467007,-0.30428514,-0.78665626,0.53719872,0
-1.4963092,0.83782125,-2.1763291,-0.54002923,0.30237597,-0.78545356,0
-1.9095491,-0.87425363,-1.8273377,-0.68593645,-0.314044,-0.65640503,0
1.3138417,0.069997214,-2.4294872,0.47553396,0.025334902,-0.87933248,0
1.9010016,-0.38221306,1.8565675,0.70813024,-0.1423758,0.69157839,0
-2.5541029,-0.66293508,-0.54065001,-0.9482283,-0.24611922,-0.20072004,0
-0.94946247,2.3872182,0.82871342,-0.35172379,0.88433349,0.30699289,0
-0.61870396,-1.7155309,-2.2485125,-0.21370672,-0.59256202,-0.77665937,0
-1.5119951,-1.2797052,1.6102926,-0.5922876,-0.5012936,0.63079321,0
1.2343791,-1.3768866,2.1173902,0.4390932,-0.48978597,0.75319779,0
0.49161902,-1.9100856,1.5994351,0.19360019,-0.75219411,0.62985957,0
0.37584621,-1.8878946,2.1047254,0.13177228,-0.66189885,0.73792005,0
0.94131321,-2.5213699,0.6328128,0.34046984,-0.91197109,0.22888628,0
2.3435102,1.367877,0.62964559,0.84129387,0.49105251,0.2260357,0
1.6398686,-1.846166,-1.2239708,0.59501505,-0.66986865,-0.44410938,0
2.2378204,-0.8713752,1.2169962,0.83120799,-0.32366049,0.45203671,0
2.4310832,0.56016749,0.98876733,0.90590966,0.2087387,0.36845052,0
1.9954127,0.48595268,1.426204,0.79804504,0.19435184,0.57039583,0
-0.25074989,1.2196367,2.4314213,-0.091792531,0.44647491,0.89007539,0
-0.56969285,2.1109312,1.926562,-0.19549251,0.72437495,0.66110784,0
-0.5414179,2.104521,1.6235917,-0.1995938,0.77583206,0.59853733,0
1.4993839,-1.1368895,2.0388973,0.54041868,-0.40976581,0.73487389,0
-1.3086649,1.4773104,-2.0510461,-0.45976576,0.51901501,-0.72058231,0
1.4005899,-0.24928774,-2.1570897,0.54203308,-0.096475199,-0.83480102,0
2.4191003,0.10158375,-0.69843251,0.95997751,0.040311728,-0.27716067,0
2.1970904,1.6375334,-0.55263835,0.78597289,0.58580059,-0.19769727,0
0.35081524,2.1258256,-1.404947,0.13638858,0.8264702,-0.54620981,0
1.6877241,1.953214,0.22070503,0.65143341,0.7539081,0.085188471,0
-0.0092450157,-2.2031927,-1.8465004,-0.0032160308,-0.76641679,-0.64233553,0
-2.7456329,-0.18131298,0.28247014,-0.99261016,-0.06554886,0.10211953,0
-1.8947405,2.0269291,0.12294289,-0.68221492,0.72981042,0.04426647,0
0.35425034,2.4644125,-1.2411537,0.12733854,0.88585573,-0.44614413,0
0.43375698,1.0644944,2.3873248,0.16370387,0.40174997,0.90099835,0
2.40766,0.59430367,1.0135159,0.89870358,0.22183482,0.37831354,0
-2.5982778,-0.95921302,0.129969,-0.93708301,-0.34594539,0.046874028,0
0.54207253,1.2084894,-2.4992943,0.19164246,0.4272452,-0.88359189,0
-0.54866248,-0.35431463,2.5163817,-0.21104361,-0.1362875,0.96792889,0
2.1290967,0.82547927,-1.2644231,0.81567794,0.31624925,-0.48441297,0
-1.834386,1.381326,-1.3149489,-0.69322753,0.52201295,-0.49692857,0
1.1861031,-2.1898098,0.74531537,0.45627445,-0.84238398,0.28671062,0
2.2453077,-0.12185957,-1.5786798,0.81723309,-0.044353683,-0.57459801,0
-1.7453901,-1.1167423,1.6845652,-0.65359598,-0.41818631,0.6308189,0
-1.4998883,-0.26436454,2.1527588,-0.56877953,-0.10025088,0.81635755,0
0.85070926,-2.3308327,-0.76525116,0.32763001,-0.89766359,-0.29471791,0
1.816131,-0.65971851,-1.8092384,0.68609476,-0.2492273,-0.68349087,0
-2.3420491,-0.50670964,-1.5811366,-0.81579536,-0.17649987,-0.55075014,0
-1.5465831,-2.115705,-0.094111025,-0.58975857,-0.80678189,-0.035887361,0
-0.11541936,-2.7888389,-0.11393572,-0.041316364,-0.99831331,-0.040785272,0
-1.4960946,0.42932299,-1.9541788,-0.59884846,0.17184703,-0.78220791,0
1.4405814,-2.3901525,0.037227787,0.51615876,-0.85638905,0.013338676,0
-2.4237211,-0.98899192,-0.97884339,-0.86723876,-0.35387409,-0.35024282,0
-0.25680649,0.72685337,2.612941,-0.094265662,0.26680523,0.95912921,0
0.95411026,-2.4533908,-0.87798661,0.34383047,-0.88412273,-0.31639796,0
-1.7192045,-1.9261621,0.47091746,-0.65508229,-0.73394096,0.17943744,0
2.4472897,-0.61435843,0.67877394,0.93660784,-0.23512252,0.25977513,0
1.669059,-1.1530423,1.9490893,0.5932911,-0.4098655,0.69283187,0
-1.5478698,-2.0053732,-1.0064231,-0.56784648,-0.73568469,-0.3692131,0
1.5898701,1.4560499,1.210043,0.64308882,0.58895975,0.489452,0
-2.775074,-0.13146099,0.34410959,-0.9913047,-0.046960153,0.12292193,0
-1.4452264,0.70261854,2.0693722,-0.55160296,0.26817006,0.78982216,0
-1.2110755,-1.1050168,-2.1381452,-0.44948992,-0.4101263,-0.79357123,0
-0.88002557,2.3237655,0.8561942,-0.33484054,0.88416845,0.32577294,0
1.3178017,-0.96052796,-2.1171153,0.49312684,-0.35943353,-0.79223329,0
0.17943211,-2.6185148,0.030691123,0.06835939,-0.99759221,0.011692592,0
2.127743,-1.5318962,-0.88656557,0.768785,-0.55349678,-0.32032925,0
-1.5249516,-1.9293307,0.38632685,-0.61258137,-0.77502269,0.1551896,0
-2.2482517,-1.1920117,1.1948429,-0.79973125,-0.42401347,0.42502058,0
-1.0387015,-1.9781225,1.6407496,-0.3747133,-0.71361095,0.59190315,0
1.2717346,-1.2808325,-1.9716539,0.47575951,-0.47916308,-0.73760134,0
1.3125867,0.29651523,-2.142786,0.51875073,0.11718655,-0.84685594,0
-0.1422682,1.3698068,2.1831536,-0.055116344,0.53067899,0.845779,0
1.3961105,1.5344282,-1.8333962,0.50427282,0.5542329,-0.66221964,0
-1.7153614,-2.1402564,-0.78110856,-0.60148174,-0.75046879,-0.27389127,0
-1.9076973,0.1399364,1.8333029,-0.72001958,0.052816004,0.69194096,0
-2.4036245,-0.1640186,-1.0936793,-0.90845567,-0.061991222,-0.41335872,0
-2.3595793,-1.0854641,-0.19906469,-0.90582544,-0.41670182,-0.076419495,0
1.9913954,1.6238036,1.1506429,0.70732701,0.57676148,0.40869874,0
-1.3999116,-1.0319,-2.0388005,-0.52239591,-0.38506743,-0.7608059,0
0.99630159,0.023814293,2.5044541,0.36962289,0.0088349823,0.92913985,0
1.4946055,1.9034725,0.8995384,0.57887751,0.73723626,0.34840131,0
1.4826657,-0.92988586,2.0983076,0.54262865,-0.3403213,0.76794237,0
-1.1926163,1.2996234,1.9578044,-0.45256904,0.49317563,0.74293941,0
-1.7981411,0.62188226,-2.0688856,-0.63973624,0.22125106,-0.73606074,0
1.67914,1.987229,-0.042289853,0.64532793,0.76373285,-0.016252857,0
1.5753731,2.0516379,-0.37817106,0.60262191,0.78480583,-0.14466046,0
0.51355231,-1.3851689,-2.1128874,0.19919614,-0.53727788,-0.81954455,0
1.9789286,1.8333261,0.70352823,0.70983642,0.65760922,0.2523537,0
2.5364163,-0.78270513,-0.25717804,0.95108491,-0.29349244,-0.096434548,0
-0.14638031,-1.2631174,2.2782295,-0.056104496,-0.48412636,0.8731975,0
2.212502,1.0475773,0.79751092,0.85935485,0.40688804,0.30976012,0
-1.5539223,2.198333,-0.42664537,-0.57010305,0.80652446,-0.15652765,0
1.0380737,2.3041587,0.32665208,0.40737143,0.90422142,0.12818813,0
-0.16197272,-2.4081278,-1.5726818,-0.056226149,-0.83594173,-0.5459305,0
1.682435,-1.9907151,-0.20944108,0.64341742,-0.76131368,-0.080097027,0
-0.18141636,-0.15561181,-2.6485136,-0.068220198,-0.058516599,-0.99595267,0
0.64205205,-2.0641415,1.2072213,0.25931615,-0.8336789,0.48758039,0
