1.2113883,2.0987546,0.56315231,0.48692271,0.84360337,0.22636148,0
-1.3163189,-1.3582019,1.8520006,-0.49726206,-0.51308405,0.69962502,0
0.75999606,2.0004244,1.3915443,0.29773593,0.78368586,0.54515117,0
0.21958999,1.1934867,2.413775,0.081279807,0.44176134,0.89344311,0
-1.4839907,-1.9856915,0.14903767,-0.59755754,-0.79957706,0.060012899,0
-1.9632829,-0.0004517599,-1.3438096,-0.82520717,-0.00018988375,-0.56483012,0
-1.0362989,1.9382551,-1.6398041,-0.37790671,0.70682269,-0.5979867,0
2.1025486,-1.6046457,0.55179751,0.77818394,-0.59390283,0.20422831,0
0.42081174,-2.3767428,-0.38322166,0.17218572,-0.97250414,-0.15680479,0
0.084966883,-2.393559,0.63849801,0.034278613,-0.96564537,0.25759244,0
-0.1039971,2.0412579,-1.5904204,-0.040156659,0.78819591,-0.61411291,0
-2.3744833,-0.55856657,-0.25110242,-0.96831256,-0.22778304,-0.10239939,0
-0.75141925,2.0991623,-1.0911338,-0.30271399,0.84566081,-0.43957016,0
0.4145951,-1.9251437,-1.7771105,0.15629871,-0.72576225,-0.66995502,0
-0.43159446,0.7349335,-2.5797548,-0.15885559,0.27050462,-0.94952208,0
2.050971,0.29774031,1.3830471,0.82316214,0.11949879,0.55508929,0
0.58550978,-2.2582288,0.75441974,0.23880327,-0.92103058,0.30769411,0
-0.81533027,0.94267708,2.3651628,-0.30497172,0.3526054,0.8846817,0
-2.0799067,1.3067541,1.0488536,-0.77872849,0.48925591,0.39269656,0
0.86543363,-1.5303801,1.6257308,0.36141273,-0.63910025,0.67891949,0
2.1305001,1.1804689,-0.59889555,0.84940416,0.47063842,-0.23877227,0
-2.2218876,1.3414313,0.84120017,-0.81437337,0.49166569,0.30831939,0
-1.1545913,-2.3123863,-0.32656768,-0.44319406,-0.88761783,-0.12535419,0
2.2813749,-1.1594944,-0.50801605,0.87440586,-0.44441128,-0.1947125,0
-0.19666123,1.5616153,-2.0287082,-0.076591052,0.60818172,-0.7900942,0
1.0806333,0.22552082,2.4267387,0.40533504,0.084590666,0.91024607,0
1.7097201,-0.13191074,2.0269749,0.64395577,-0.049683381,0.76344782,0
2.6800041,-0.0092988499,0.59235168,0.97642803,-0.0033879268,0.21581638,0
-2.188746,1.1394134,0.6972326,-0.85358608,0.44435826,0.27191278,0
-1.3077859,-1.6237799,-1.2684854,-0.53586888,-0.66534829,-0.51976544,0
-2.3001642,-0.10591912,-0.88050944,-0.9330492,-0.042965516,-0.35717392,0
-1.9530038,-0.30827406,1.9169837,-0.70917189,-0.11194003,0.69609237,0
1.3114957,1.2142678,1.8902769,0.50413758,0.46676332,0.7266205,0
2.4477661,-0.097336106,0.1976648,0.99597329,-0.039605159,0.080427974,0
0.6342774,-1.7220315,-1.8021199,0.2466058,-0.6695224,-0.70066065,0
-2.0992808,-1.3554448,-0.25342101,-0.8358143,-0.53966105,-0.10089784,0
1.2908645,0.95354033,-2.1079695,0.48723644,0.35991353,-0.79565251,0
2.0381594,-0.53440368,1.368629,0.81119674,-0.21269511,0.54472059,0
-1.420619,-1.5926273,1.4998105,-0.54462034,-0.61056286,0.57497984,0
1.9127641,0.79580605,1.3298366,0.77697915,0.32326242,0.54018962,0
2.0426219,1.5677282,0.16656344,0.79162949,0.60758179,0.06455259,0
-2.6695688,0.0034594336,0.23093659,-0.99627835,0.0012910545,0.086185127,0
-1.7419175,1.2875808,-1.112496,-0.71533257,0.52875555,-0.45685554,0
-2.1295753,1.4387836,0.75059539,-0.7953831,0.5373767,0.2803427,0
-1.8414205,1.8212615,0.76000434,-0.68222153,0.67475289,0.28157139,0
2.7176836,0.20794013,0.21659712,0.9939521,0.076050997,0.079217158,0
0.053984668,-2.3010831,-0.99053943,0.021543831,-0.91830039,-0.39529768,0
1.8287351,1.6952605,-0.78431922,0.69957519,0.64851505,-0.30003813,0
0.59980989,-1.280709,1.8502303,0.25756106,-0.5499422,0.79449719,0
1.808259,0.081972793,-1.9336711,0.68269718,0.030948328,-0.73004574,0
-2.2987373,-0.66021889,0.18009853,-0.95842993,-0.27527007,0.075089842,0
2.1339355,-0.82292044,1.0273914,0.8510986,-0.32821351,0.40976468,0
1.8487946,1.7171499,0.11860313,0.73190391,0.67978817,0.046952806,0
-2.254004,-0.18813878,-1.2069232,-0.87919718,-0.07338544,-0.47077268,0
-0.2653774,-2.0639029,-1.4680516,-0.10420752,-0.8104465,-0.5764696,0
0.064832084,2.4390218,-0.28604329,0.02639105,0.99284714,-0.116439,0
-1.3078499,1.7399364,1.2694228,-0.51903367,0.69051164,0.50378346,0
1.9796296,1.091581,-1.0413513,0.79536593,0.43857008,-0.41838905,0
-1.1092879,1.2244049,1.9604279,-0.43267679,0.47757813,0.76466328,0
-2.6500261,-0.42006421,-0.4206318,-0.97575104,-0.15466945,-0.15487844,0
-2.5484929,0.77553105,-0.39226285,-0.94647771,0.28802234,-0.14568141,0
0.039219938,2.0930259,-1.4914232,0.015258668,0.81429982,-0.58024395,0
1.1246164,0.54568052,2.2550116,0.43618605,0.21164392,0.8746134,0
0.90807408,2.1072283,-0.87943178,0.36953875,0.85753191,-0.35788283,0
-0.66419077,-2.3966806,0.17906013,-0.26637426,-0.96119076,0.07181222,0
-2.2668707,0.96739441,-0.44992581,-0.9047969,0.386125,-0.17958301,0
-0.10273339,-2.398386,-0.54876006,-0.041719005,-0.97396064,-0.22284599,0
-2.6247025,-0.18453507,-0.65114075,-0.96832705,-0.068080217,-0.24022426,0
0.738536,-1.2805083,-2.033993,0.29372123,-0.50926757,-0.80893403,0
1.8836228,0.15328477,1.5293698,0.77478594,0.063050248,0.62907195,0
-0.63363254,2.4378045,-0.13674408,-0.25119084,0.96641839,-0.054209433,0
2.2558625,-0.067475304,1.5274976,0.82777858,-0.024759758,0.56050837,0
0.42920539,-2.4896667,-0.11420977,0.16971533,-0.98445785,-0.045160543,0
1.2915379,1.3971317,-1.8864158,0.48204425,0.52145535,-0.70407218,0
1.5056082,1.7341952,-1.1454526,0.58666414,0.67573369,-0.44632858,0
2.2296197,0.57306343,0.82312661,0.91197717,0.23439907,0.33668193,0
0.090702891,0.7538594,2.5462201,0.034137048,0.28372341,0.95829839,0
1.5198523,-1.1479274,1.3853261,0.64532644,-0.48740783,0.58820689,0
1.0714012,-1.6728975,1.8284762,0.3968204,-0.61959964,0.67722213,0
-1.7222378,-1.8163382,-0.023690898,-0.68802881,-0.72562164,-0.0094644418,0
-0.46751863,1.9581555,-1.4670112,-0.1876833,0.78609294,-0.58892518,0
-0.13769554,2.0602181,-1.4128504,-0.055035941,0.82345474,-0.56470639,0
-0.38216272,-0.64580965,2.6607449,-0.13823736,-0.23360473,0.9624548,0
0.06237464,-2.5775559,0.91023833,0.022812193,-0.94268608,0.33290026,0
-0.16016421,-2.6186488,0.69723499,-0.059000805,-0.96464986,0.2568453,0
0.58211106,1.8673304,-1.4501436,0.23907071,0.76690525,-0.59556824,0
1.157534,2.0904596,-0.079131596,0.48415145,0.87435794,-0.033097669,0
-1.51036,-2.0318236,-0.64058822,-0.57835317,-0.77803415,-0.24529664,0
-0.50466412,2.3342745,0.94192046,-0.19657823,0.90925342,0.36689961,0
1.8436811,1.8170675,0.46027932,0.70122975,0.69110745,0.17506365,0
-0.85886168,2.1852493,1.2599019,-0.32231799,0.82009149,0.4728224,0
-0.36785337,1.0467551,-2.1722875,-0.15080714,0.42913333,-0.89056265,0
-1.0500643,0.094698384,-2.5660615,-0.37850851,0.034135189,-0.92496818,0
2.5193663,0.63004082,0.21634923,0.96677536,0.2417703,0.083021313,0
0.61142564,-2.5064416,-0.6077494,0.2306782,-0.9456284,-0.22929125,0
1.757333,-1.8943588,0.74545258,0.6534456,-0.70439714,0.2771886,0
1.6239334,1.6463072,-1.2194625,0.62117285,0.62973106,-0.46645814,0
1.0424365,2.3210359,-0.22448187,0.40811589,0.90869004,-0.087885089,0
2.2167232,-0.6369223,1.5675634,0.79489791,-0.22839487,0.56211478,0
2.3558824,0.98898059,-0.78560162,0.8813315,0.36997592,-0.2938922,0
1.7061344,-1.3783945,-1.3889728,0.65717298,-0.53093332,-0.53500789,0
0.33121675,-1.4763004,2.0568712,0.12971562,-0.57816893,0.80553997,0
-2.21328,1.0591904,-1.1046972,-0.82251084,0.39362195,-0.41053343,0
-0.22917734,0.49695551,2.5543866,-0.087728389,0.19023307,0.97781146,0
1.7871068,0.33807993,-1.6501091,0.72771132,0.13766642,-0.67192572,0
-0.24963164,-1.9358824,1.7117971,-0.096153043,-0.74566263,0.65934956,0
-1.3425796,-1.1122179,-2.042794,-0.49991414,-0.41413817,-0.7606414,0
-1.2607344,1.2504348,1.9218551,-0.48182267,0.47788638,0.73448724,0
1.5671577,0.16601333,-1.8833357,0.63816965,0.067603067,-0.766922,0
-1.9529133,0.52515388,1.6337416,-0.75118893,0.20200066,0.6284194,0
0.87319303,-2.1110978,0.74383652,0.36343652,-0.87867177,0.30959633,0
-0.40437484,-2.1881087,1.0484078,-0.16439499,-0.88955611,0.42622086,0
1.6210464,-0.37330163,1.9136537,0.63931727,-0.14722477,0.75471735,0
-1.1128207,-1.5161399,1.5378143,-0.4580664,-0.62408322,0.63300496,0
-2.5643907,0.61146528,-0.84861535,-0.92593956,0.22078535,-0.30641451,0
1.1619117,1.7408334,1.1675391,0.48481691,0.72637659,0.48716497,0
1.5925843,-1.878422,-0.72695142,0.62022972,-0.73154885,-0.28311023,0
-1.2718921,1.9019996,1.3144994,-0.48199794,0.72078431,0.49814445,0
1.748494,1.8981452,-0.69888365,0.65396255,0.70993429,-0.2613928,0
-0.21118657,2.3913591,1.1630533,-0.079168364,0.89645845,0.43599847,0
-0.46550065,0.72144675,2.3568766,-0.18557711,0.28761292,0.93959558,0
2.6107161,-0.1215312,-0.7293222,0.96215802,-0.044789329,-0.26878572,0
-0.11835588,-0.49674526,2.3786206,-0.048649721,-0.20418519,0.9777227,0
-1.1952701,1.9501381,-0.99048197,-0.47953868,0.7823894,-0.39737833,0
-0.13516685,2.3092291,-1.0396844,-0.053297337,0.91054696,-0.40995562,0
2.0506063,-1.4565047,-0.70136642,0.78531516,-0.55779368,-0.2686004,0
-0.16879745,-1.8055578,1.9330032,-0.063685663,-0.68121976,0.72930366,0
-0.80908197,2.0635419,-1.5226879,-0.30087176,0.76736534,-0.566239,0
-1.704438,1.0267038,1.5360951,-0.67805243,0.40843904,0.61108297,0
-2.4717619,-0.76736605,-0.64815837,-0.92642516,-0.28761151,-0.24293207,0
-0.22393538,-0.59443247,2.4073987,-0.08994139,-0.23874781,0.96690744,0
-0.041925251,1.7125522,1.930275,-0.016245028,0.66357285,0.74793518,0
0.43518627,-1.6900568,-1.6838763,0.17945072,-0.69690138,-0.69435281,0
-2.4006889,0.63287032,0.21365005,-0.9634037,0.25397277,0.085738413,0
1.6319661,0.55072671,-2.1254573,0.5965392,0.20130937,-0.77692699,0
-2.0258713,-1.1415337,-0.6819036,-0.83600658,-0.47107124,-0.28139788,0
0.93163639,-1.5956708,-1.5919992,0.3819795,-0.65423971,-0.65273434,0
0.91499954,2.4917536,-0.11097631,0.34440422,0.93789172,-0.041771289,0
0.88991439,-1.5946983,-1.5346209,0.37306917,-0.66852808,-0.64334249,0
1.8360845,-1.0224326,1.4814003,0.71409351,-0.39764643,0.57614905,0
1.4100442,1.8554695,-0.51596135,0.59074724,0.77736109,-0.21616539,0
0.73642606,-2.296195,0.49923533,0.29905221,-0.93245232,0.2027324,0
0.30315629,2.4462547,-0.84612918,0.11632358,0.93864816,-0.32466677,0
-2.0568593,-0.2765823,1.3568076,-0.82953423,-0.11154603,0.54720241,0
-2.1923788,-1.3689557,0.45624745,-0.835307,-0.52157879,0.17383251,0
1.7484531,-2.0698338,-0.12822253,0.64458734,-0.76306796,-0.047270704,0
0.074872836,2.0105948,-1.4931753,0.029883057,0.80246353,-0.59595233,0
2.2174842,0.95381898,-1.1397384,0.83068681,0.357308,-0.42695487,0
2.4840794,0.7483893,0.037342545,0.95739067,0.28843722,0.014392215,0
-2.1190064,0.96467799,-0.95399177,-0.84217012,0.38339806,-0.37915099,0
-1.0924114,1.8081788,-1.2903894,-0.4412936,0.73043698,-0.52126938,0
-2.4864292,-0.012643245,-0.19427687,-0.9969486,-0.0050693844,-0.077896468,0
-1.3725494,-2.1363831,-1.2399781,-0.48570776,-0.75600761,-0.43879437,0
0.73230976,2.2802348,-0.64328867,0.29530615,0.91951168,-0.25940812,0
0.38243547,0.58865172,2.4424095,0.15048899,0.23163541,0.96109211,0
-0.46307194,2.0309448,-1.0965089,-0.19671372,0.86274868,-0.46579877,0
0.72249168,1.3990548,1.9325619,0.28982925,0.56123412,0.77525181,0
0.38572377,2.0534744,1.3157051,0.15621828,0.83165795,0.53286105,0
1.1059375,-2.0050037,-0.6036483,0.46703002,-0.84669971,-0.25491667,0
-1.3700795,1.2971356,-1.4765006,-0.57187349,0.54142654,-0.61629379,0
1.8570309,-0.032674957,1.9368653,0.69202268,-0.012176326,0.72177303,0
0.54147989,-1.2270234,-2.2386308,0.20749168,-0.4701876,-0.85782915,0
1.357186,1.3312844,1.7380506,0.52688509,0.51682961,0.67474389,0
-0.90863764,-1.7134057,1.5065519,-0.3699927,-0.69769025,0.61346042,0
0.79237592,-2.2675612,-0.02763983,0.32985735,-0.94396067,-0.011506156,0
1.5854357,1.7312238,-0.36676514,0.66727787,0.7286371,-0.15436403,0
-1.2112095,0.26218164,-2.2511754,-0.47133562,0.10202656,-0.87603265,0
0.4949429,0.85372478,2.4257727,0.18899505,0.3259967,0.92628664,0
-2.4312148,-0.70706916,1.0704103,-0.88442725,-0.25721759,0.38939381,0
-2.0773468,1.7839403,0.44393486,-0.74887234,0.64310086,0.16003613,0
0.54402757,-1.7352619,1.6845305,0.21946691,-0.70002443,0.67955875,0
0.79798293,2.5518782,0.49745178,0.29341739,0.9383226,0.18291244,0
1.9178368,-0.21392038,-1.6846322,0.74868417,-0.083510131,-0.65764588,0
-2.273859,-0.68509221,-0.71778244,-0.91653615,-0.27614367,-0.28932029,0
1.386678,-1.2186786,-1.6732969,0.55654544,-0.48911861,-0.67158037,0
-0.41518107,2.3959839,0.55118036,-0.16651376,0.96094042,0.22105803,0
-1.2898504,0.3986125,-1.9066179,-0.55211633,0.17062481,-0.8161217,0
-0.14567123,-1.1096258,2.1320937,-0.060495488,-0.46081409,0.88543254,0
-1.8168961,0.87443131,1.7502577,-0.6804738,0.32749677,0.65551603,0
-0.72139031,0.94213772,-2.1594422,-0.2927739,0.38236353,-0.87640262,0
2.2753849,0.69224799,-0.83958656,0.90214312,0.27446204,-0.33287874,0
-0.28909948,-1.6169586,2.0591018,-0.10975621,-0.61387604,0.78173506,0
-0.24571909,-1.4118974,2.1818774,-0.094129212,-0.54086477,0.83582598,0
-0.2259506,2.5992761,-0.26164755,-0.086169481,0.99127102,-0.099783026,0
-0.69647241,1.3566773,2.1064992,-0.26781484,0.52168375,0.81001312,0
2.355871,-1.1263957,0.21969377,0.89900661,-0.42983559,0.083835728,0
1.6596625,-0.10359336,1.8334023,0.67051876,-0.04185266,0.74071121,0
1.2362719,-1.3099455,-2.0403705,0.45423439,-0.48130375,-0.74967849,0
-1.4865483,-1.5383387,-1.1948063,-0.60668498,-0.62782145,-0.48762023,0
0.8458063,2.2556665,0.5787639,0.34138447,0.91043246,0.23360078,0
-1.9625866,0.40962821,-1.6431412,-0.75711501,0.15802394,-0.63388121,0
-1.4197148,-2.1133049,-0.7696895,-0.5337851,-0.79456145,-0.28938824,0
-0.39877442,-0.91402596,2.2809854,-0.16018578,-0.36715987,0.91626096,0
-1.3441445,1.0154891,1.7997465,-0.54525578,0.41193584,0.73007196,0
0.78079987,0.11023831,-2.4212971,0.30662119,0.043290734,-0.95084667,0
2.1236598,-0.47857004,0.99710745,0.88692528,-0.19986998,0.41643193,0
1.3908525,-2.0458555,0.21754858,0.56005764,-0.82380921,0.087600768,0
0.62733239,0.07193473,-2.3179338,0.26112711,0.029942831,-0.96483994,0
-2.6495881,0.037567414,0.05518844,-0.99968272,0.014174088,0.020822456,0
1.8880144,0.45653942,1.5673443,0.75644159,0.1829146,0.62796366,0
-0.54031479,2.3472245,0.28372353,-0.22278605,0.96782261,0.1169867,0
1.1064447,-1.2760359,-1.9905517,0.42384169,-0.48880634,-0.76251328,0
-2.5996838,-0.40800175,-0.05859115,-0.98766267,-0.15500659,-0.022259742,0
-1.6218525,-0.96708691,1.7151644,-0.63577855,-0.37910545,0.67235756,0
0.16813937,1.6251997,-1.867993,0.067751102,0.65486783,-0.75270045,0
0.61043847,-1.6927751,-1.6500227,0.25003073,-0.69334716,-0.67583615,0
-2.4540322,0.55987614,-0.45999295,-0.95906526,0.21880633,-0.17977077,0
2.0647256,-1.7141076,-0.44333935,0.75912076,-0.63021195,-0.16299894,0
-2.0277278,-1.6510737,-0.114794,-0.77470398,-0.63080132,-0.043857645,0
1.8876554,0.019101763,1.9428352,0.69683099,0.007051446,0.7172007,0
-1.8523539,-0.82342887,-1.4004704,-0.7518121,-0.33420384,-0.56840682,0
0.9393689,1.0412862,2.0789487,0.37458906,0.41523027,0.82901555,0
-1.4521618,2.1521173,0.4957763,-0.54940832,0.81422818,0.18757112,0
0.13788874,-0.049522333,-2.7296176,0.050443165,-0.018116511,-0.99856263,0
2.3291662,0.35117531,-0.28221875,0.98180205,0.14802922,-0.1189623,0
0.94950515,-0.78722662,2.4099901,0.35072359,-0.29078192,0.89019036,0
-0.70824635,0.084981263,2.362221,-0.28702128,0.034439191,0.95730489,0
-1.9046063,-1.2248212,-0.94172764,-0.77661031,-0.49942541,-0.38399294,0
1.8802727,1.0943955,1.7098913,0.6795097,0.39550239,0.61793572,0
-0.28996283,-1.9450469,-1.8987676,-0.10607336,-0.71153146,-0.69460171,0
-2.0812747,0.6437338,1.4847237,-0.78944403,0.24417333,0.56316745,0
1.9430323,0.51760781,1.663654,0.74451494,0.19833265,0.63746506,0
1.2373962,1.8662634,1.2046167,0.48665157,0.73397672,0.4737598,0
2.2886386,-0.77840102,-0.085741848,0.94614446,-0.32179821,-0.035446476,0
2.6511412,-0.10644082,-0.23907034,0.9951635,-0.039954875,-0.089740254,0
-2.32039,1.2378534,0.9078896,-0.83400631,0.44491553,0.32631829,0
-1.2439595,1.8651128,-0.60529429,-0.53568894,0.80317748,-0.26065916,0
-1.9700705,-0.80898207,-1.4528126,-0.76417351,-0.31379724,-0.56353354,0
-1.3226284,-1.8124646,1.3783622,-0.50227076,-0.68828708,0.52343583,0
-0.85504115,0.5227828,2.3929403,-0.3295804,0.20150957,0.92237228,0
-0.63890976,-2.6639702,-0.10281584,-0.23305593,-0.97173983,-0.037504263,0
-1.3557876,-0.35805798,-1.9973805,-0.5555436,-0.1467168,-0.81844085,0
0.52247453,2.3634596,1.3998489,0.18685447,0.84525263,0.50063306,0
0.65225852,0.34365261,-2.4225264,0.25758296,0.13571163,-0.95667827,0
-0.68715316,1.2775905,-2.1131713,-0.26808581,0.49843895,-0.82443231,0
0.26735747,-2.1715329,1.1808459,0.10753449,-0.8734175,0.47495085,0
-0.27577561,0.14766763,-2.5888829,-0.10575377,0.056627229,-0.99277866,0
1.950839,1.5797282,0.78341961,0.74186254,0.60073698,0.29791778,0
-1.3686228,1.2046798,-1.6644206,-0.55438101,0.48797351,-0.67419833,0
0.57266062,2.2008886,-0.67056787,0.24152981,0.92826396,-0.28282392,0
1.2794645,-1.7550517,1.6049503,0.47377494,-0.64988089,0.59429961,0
-0.61825293,0.13323471,-2.5182889,-0.23811091,0.051313367,-0.96988147,0
0.091840491,0.05628705,-2.480022,0.036997247,0.022674812,-0.99905807,0
-1.1479301,-2.0047467,0.81366611,-0.46868718,-0.8185159,0.33221087,0
0.2460482,1.6973656,1.6559609,0.10320505,0.71196091,0.69459367,0
-0.94536299,0.30975515,-2.2757246,-0.38063255,0.12471706,-0.91627753,0
1.8692749,-0.098876178,-1.7446414,0.7305122,-0.03864079,-0.68180549,0
-0.060431834,-2.3720922,-1.278814,-0.022419343,-0.88001215,-0.47442162,0
1.5372951,-1.616536,-1.1184236,0.616036,-0.64778996,-0.44818276,0
0.037505221,2.3284559,-0.52088684,0.015716879,0.97575909,-0.21828203,0
2.6505377,0.18559547,0.3343395,0.98975247,0.069304265,0.12484763,0
-0.94381434,1.6503989,1.6576757,-0.37417346,0.65429765,0.65718251,0
0.77272844,-1.8404347,-1.8418329,0.28450969,-0.67762685,-0.67814165,0
2.3268297,0.065398611,-1.2484244,0.88090879,0.024759103,-0.47263798,0
-0.13478695,-2.2017279,-1.0010909,-0.055642217,-0.90890861,-0.41326639,0
-1.1974193,-1.2135735,-1.7536389,-0.48958656,-0.49619147,-0.71700698,0
1.5627289,1.5428015,-1.4076573,0.59910929,0.59146965,-0.5396589,0
-2.252254,-0.92307681,-1.2975302,-0.81653249,-0.33465239,-0.47040677,0
-1.3150696,-1.9886177,-0.46885648,-0.54122972,-0.81843501,-0.19296247,0
1.1987709,2.0896606,0.91274184,0.46532437,0.81113917,0.35429707,0
1.2046669,-0.30759916,2.0078552,0.51009858,-0.13024837,0.8501969,0
-2.1540716,-1.1866436,0.64739531,-0.84703171,-0.46661624,0.25457111,0
0.27949888,-0.84047639,2.4524188,0.10719177,-0.32233459,0.94053733,0
1.8134615,2.1009538,-0.44340646,0.64523089,0.74752086,-0.15776433,0
0.85642743,-0.36076233,-2.4611211,0.32554758,-0.13713397,-0.93552816,0
-0.74763852,-2.0644696,0.97112799,-0.31140557,-0.85989058,0.40449315,0
-1.9464872,-1.1393499,-1.0649532,-0.78040397,-0.45679891,-0.42697108,0
1.0840548,-2.3229046,-0.41992536,0.41733333,-0.89425874,-0.16166051,0
-1.7970825,0.52217376,-1.688095,-0.71304739,0.20718838,-0.66980326,0
-0.82557797,-1.7221357,1.6344427,-0.32843021,-0.68509746,0.65021157,0
-0.65296209,2.3860948,-0.8437348,-0.24981798,0.91290045,-0.32280606,0
0.77543855,-1.1774035,-2.2570844,0.29138622,-0.4424324,-0.84814364,0
-2.2512381,-1.4554695,-0.052316785,-0.83961678,-0.54282868,-0.019511951,0
-2.4660408,0.48399428,0.80177599,-0.93485427,0.18347795,0.3039462,0
0.33970031,-0.38607016,2.5804815,0.1291036,-0.14672653,0.98071581,0
-0.12523273,-2.6136925,-0.88037103,-0.045360703,-0.94670886,-0.31888032,0
2.331167,0.92339677,0.99373019,0.86431444,0.34236294,0.36844009,0
-2.1517458,-1.3699389,-0.64217359,-0.81802249,-0.52080536,-0.24413313,0
2.4118607,0.79725462,-0.82303822,0.9032439,0.29857254,-0.30822852,0
0.053959295,-1.276377,-2.2755156,0.020677214,-0.48910797,-0.8719781,0
2.1784649,-0.43303612,1.5017158,0.81252187,-0.16151342,0.5601086,0
-0.4445194,0.18390839,2.3707283,-0.18375832,0.07602524,0.98002702,0
0.1680806,-1.1077837,-2.3293352,0.065026313,-0.42857465,-0.90116334,0
-2.1676891,1.2757626,-0.2297617,-0.85824764,0.50510943,-0.090968974,0
-0.22101569,1.9333676,-1.7656751,-0.084112622,0.73578769,-0.6719684,0
-1.7795016,1.5242256,-0.16237514,-0.75766319,0.64897364,-0.069134906,0
1.5456915,-0.37542239,1.7951504,0.64444834,-0.15652563,0.74845576,0
-2.35653,-0.26955003,0.44646907,-0.97637486,-0.11168195,0.18498436,0
-1.9598331,1.8455052,0.32760975,-0.7226907,0.68053216,0.12080646,0
1.3931303,-1.4958664,-1.6357081,0.53213358,-0.57137567,-0.62479097,0
-1.2009888,-0.28592494,-2.23787,-0.46990448,-0.11187232,-0.87559944,0
1.8811232,1.6703724,-0.70289928,0.7201696,0.63948572,-0.2690981,0
-0.71987385,2.4303768,0.121484,-0.28367648,0.95772433,0.047872487,0
2.0556908,1.4982777,0.73368442,0.77647942,0.56593227,0.27712867,0
-1.7855792,-1.9297487,0.15906776,-0.67791748,-0.7326532,0.060392067,0
1.6994641,-0.040843438,-1.587399,0.7306782,-0.017560482,-0.68249625,0
-1.438852,-1.5998421,1.1636387,-0.58820122,-0.65401387,0.47569436,0
0.12103393,2.5907857,-0.053444337,0.046656273,0.99869853,-0.020601774,0
0.70819992,2.5659111,-0.024553493,0.2660442,0.96391672,-0.0092238281,0
1.2172834,-2.0958724,0.75588411,0.47946024,-0.82551646,0.29772556,0
-1.7586529,0.43238848,1.866935,-0.67614168,0.16623853,0.71777242,0
0.72235084,-2.4757383,-0.62324202,0.27225587,-0.93311203,-0.23490149,0
-0.21810332,-0.05626063,2.6667972,-0.081494577,-0.021021854,0.99645209,0
-1.2217442,-2.1438484,0.0060841069,-0.49512523,-0.8688181,0.0024656511,0
-0.29131958,1.962624,-1.552828,-0.11562455,0.77896416,-0.61631638,0
-1.864163,1.0273246,1.3442231,-0.74050355,0.40808526,0.53396726,0
-1.5427638,0.87463897,-1.8669597,-0.59913033,0.33966494,-0.72503138,0
1.0208377,-1.4277412,1.8099672,0.40489876,-0.56629044,0.7178942,0
-0.83245891,0.25994861,2.235841,-0.34687155,0.10831619,0.93163711,0
0.43450388,-2.4462366,0.97268581,0.16284883,-0.91683131,0.36455542,0
0.99204022,2.4655352,0.10385437,0.37299508,0.92701131,0.039047983,0
0.23836492,-0.5004313,2.3410501,0.099080205,-0.2080123,0.97309506,0
0.5286265,-2.2042439,-0.50966746,0.2275289,-0.94874018,-0.21936864,0
-1.813526,-1.3177426,1.2208618,-0.71045905,-0.51623309,0.4782795,0
0.32201192,1.7171234,1.8230572,0.12752829,0.68004262,0.72199619,0
2.1621621,-0.056103267,1.4331999,0.83331889,-0.02162276,0.55236953,0
-2.5912316,-0.055488877,-0.59186953,-0.97467983,-0.020871885,-0.222629,0
0.65322149,-2.2151794,0.65234441,0.27219284,-0.92304981,0.27182737,0
0.78281826,1.99008,-1.667959,0.28864264,0.73378706,-0.61501384,0
2.2440856,-1.026471,1.2668502,0.8090027,-0.37004733,0.45670509,0
0.73033839,1.8293301,-1.7472154,0.2773805,0.69477451,-0.66358757,0
2.5495765,-0.73069817,0.5354228,0.94229031,-0.27005652,0.19788529,0
0.52474558,-0.90317088,-2.2533896,0.21127447,-0.36363709,-0.90726572,0
-2.2410045,-0.69456804,0.27163881,-0.94883627,-0.29407856,0.11501127,0
-1.8065811,0.25950763,-1.9471316,-0.67693079,0.097238198,-0.72959542,0
1.2466426,-2.0767443,1.1588225,0.46427864,-0.77342778,0.43157241,0
1.7823752,-0.94773674,1.4651393,0.71456975,-0.37995592,0.58738708,0
0.40827882,2.3983848,1.1071798,0.15274331,0.89727217,0.41421276,0
-2.0883508,-1.5249352,-0.15127929,-0.80622756,-0.58871567,-0.058402799,0
0.13229136,2.122221,1.2919946,0.053169925,0.85295314,0.51927245,0
1.9703808,-0.25758323,-1.6312612,0.76640302,-0.10019006,-0.63449842,0
-0.20716685,1.2040167,2.3439376,-0.078376666,0.45551115,0.88677317,0
-1.6822834,-0.069437861,-1.8861561,-0.66537172,-0.027463855,-0.74600679,0
-2.2723203,-1.2682971,0.13601683,-0.87200326,-0.48670921,0.05219648,0
2.2628942,-0.65631711,-1.0775995,0.87340736,-0.25331816,-0.41592017,0
1.3486701,-1.9087064,0.92983156,0.53618985,-0.75884306,0.36967248,0
-0.12835772,-2.2307916,-1.0352229,-0.052122008,-0.90585387,-0.42037126,0
0.12729967,1.7593616,1.874845,0.049451768,0.68345457,0.72831613,0
-1.609502,-0.038668089,-2.0796232,-0.61198127,-0.014702776,-0.7907356,0
0.011630842,2.1917803,-1.3175116,0.004548063,0.85706228,-0.51519281,0
0.76507318,1.4269001,1.9187269,0.30474249,0.56836009,0.76426363,0
0.49705946,1.9908236,-1.6359029,0.18941097,0.7586292,-0.62338203,0
1.8091519,-0.0067846421,-2.1376624,0.64601541,-0.0024226729,-0.76332057,0
1.9050429,-0.92990547,-1.2232878,0.77835691,-0.3799381,-0.49980742,0
1.1379851,-1.1641819,-1.8757024,0.45818794,-0.46873558,-0.7552157,0
-1.595323,-1.9577982,-0.73099571,-0.60678476,-0.74465311,-0.27803591,0
-0.23124659,-2.5017283,-0.47270367,-0.090455227,-0.97858483,-0.18490443,0
2.6004288,0.22842346,-0.4129636,0.9839282,0.086428933,-0.15625367,0
0.51272291,-0.21534501,2.6154735,0.19174804,-0.080534697,0.97813439,0
-2.208436,-1.5580915,0.38774875,-0.8088268,-0.57064193,0.14201072,0
2.7033188,-0.19205467,0.33900297,0.9897725,-0.070317432,0.12411996,0
1.6120163,0.65439975,1.9323155,0.61997515,0.25167957,0.74316096,0
-1.6739318,-0.94945329,-1.435259,-0.69726115,-0.39548618,-0.59784412,0
2.2653384,-0.48890659,-1.4035219,0.83611399,-0.18045057,-0.51802605,0
-1.6093067,0.696621,-2.1242168,-0.58423966,0.25289997,-0.77117163,0
1.6906437,-1.4774922,0.90964323,0.69787997,-0.60989332,0.3754912,0
-1.8620195,0.84973389,-1.6402267,-0.70991367,0.3239696,-0.62535292,0
-0.031119412,-2.7066495,-0.30077863,-0.011426307,-0.99381727,-0.11043875,0
0.53639019,0.8431592,-2.2093132,0.2212093,0.34772196,-0.91112894,0
0.34819734,-1.2038834,-2.3536489,0.130582,-0.45148396,-0.88267243,0
1.4148302,-0.10090397,2.1456823,0.55006063,-0.039229654,0.83420283,0
0.76619661,-2.3761039,-1.0180115,0.28418079,-0.88129216,-0.37757841,0
-1.0039293,-1.2555288,1.7834551,-0.41812465,-0.52291286,0.74278796,0
0.68548977,2.4444497,-0.63473296,0.2619482,0.93410462,-0.24255234,0
1.9767458,-0.85461885,-1.411579,0.7676782,-0.33189511,-0.5481931,0
1.6578608,1.7145835,-0.66441071,0.66961783,0.69252843,-0.26835865,0
-0.43975121,-1.0594012,2.4018834,-0.16521314,-0.39801368,0.90237999,0
-1.2123266,-0.79919469,-1.8662486,-0.51269847,-0.33798307,-0.78924507,0
-0.85919672,0.10362059,-2.5192974,-0.32254586,0.038899578,-0.94575423,0
-0.90925646,-2.183203,0.48683807,-0.37657124,-0.90417993,0.20162542,0
0.69994247,-2.2977681,0.32947165,0.28869537,-0.94772792,0.13589251,0
1.1291792,1.7706429,1.2809829,0.45903343,0.71980095,0.52074456,0
-2.12887,0.05237174,-0.97601169,-0.90879238,0.02235695,-0.41664922,0
1.6448179,1.5696095,0.0094483811,0.72344685,0.69036764,0.0041557192,0
0.085474208,-0.86906552,2.5271094,0.031968087,-0.32503796,0.94516051,0
2.2156751,-1.4214244,0.38130727,0.83299243,-0.53439051,0.14335409,0
2.1220541,1.0680227,-0.61428094,0.86480373,0.43525282,-0.25033879,0
-1.6210035,-1.8055809,0.67607284,-0.64353663,-0.71681368,0.26840019,0
-0.16107084,0.78806543,2.451097,-0.062437743,0.30548689,0.95014697,0
0.75940651,-0.48216352,2.3256006,0.30455306,-0.1933673,0.932661,0
1.5699013,-0.15168947,-1.9729488,0.62152374,-0.06005384,-0.78109014,0
0.47325766,0.70777255,2.3605654,0.18859252,0.28204638,0.94068205,0
-2.624007,0.34510869,-0.19832645,-0.98868978,0.13003221,-0.074726686,0
-0.014557051,2.0148101,1.1807775,-0.0062333215,0.86274058,0.50560832,0
0.76352549,0.014970894,-2.2390471,0.32274848,0.0063283197,-0.94646358,0
-0.95705938,-0.29212525,2.3436246,-0.37556654,-0.11463497,0.91967857,0
-2.1998911,-1.6240144,-0.51515901,-0.79061538,-0.58365196,-0.18514219,0
-0.49856812,1.0230249,-2.3174922,-0.19310541,0.39623803,-0.89761114,0
-0.73364359,-1.9456168,1.4104904,-0.29198626,-0.77434516,0.56136769,0
-2.4101996,-0.47760707,0.63065815,-0.95012796,-0.18827811,0.24861258,0
0.66428852,-2.0796363,-1.1895217,0.26719165,-0.83647609,-0.47845212,0
0.23290841,2.2113523,-1.5475745,0.085972093,0.81626332,-0.57124698,0
-1.351904,1.8415577,-1.2013011,-0.52376944,0.71347642,-0.4654212,0
0.2480347,1.9008589,1.6759194,0.097410992,0.74652678,0.65818602,0
0.37593794,-2.4956484,-0.46636942,0.14647697,-0.97238123,-0.18171185,0
0.1306687,-0.46922264,2.5719326,0.049918361,-0.17925352,0.98253566,0
-2.0117564,0.7137928,1.0169533,-0.85081702,0.30187902,0.43009242,0
1.5099263,-1.2362976,1.46954,0.61808264,-0.50607377,0.6015507,0
-1.6302097,-1.7579579,-0.45813113,-0.66787851,-0.7202155,-0.18769115,0
1.7248862,0.53670919,1.5655816,0.72156858,0.22452061,0.65492696,0
-1.5720431,-1.0423018,1.7258279,-0.61489642,-0.40769088,0.67504859,0
1.7241807,1.648104,1.0040655,0.66624874,0.63685155,0.38798565,0
0.23831204,0.25215489,-2.5401797,0.092953958,0.098353378,-0.9908008,0
1.9521728,-0.073775202,-1.5084676,0.79093724,-0.029890569,-0.61116678,0
0.72383076,2.5271945,-0.18389176,0.27467418,0.9590019,-0.069781944,0
0.52711821,1.2247298,2.2432358,0.20199326,0.46932009,0.85961461,0
0.24061009,-1.4790404,-2.1199529,0.092681922,-0.56971967,-0.81659633,0
-0.007071082,2.4710503,0.13935709,-0.002857018,0.99840945,0.056306195,0
-1.4133055,-0.46900275,1.9959151,-0.5675481,-0.18833975,0.80150944,0
0.42374578,2.3286266,0.13226137,0.17875344,0.98231071,0.055793297,0
1.5746861,-1.4275007,1.2055814,0.64443183,-0.58419698,0.49337772,0
-1.3258113,0.54459929,-2.3210509,-0.48601237,0.19963777,-0.85084468,0
-0.73203886,2.0449755,-1.368661,-0.28513938,0.79654664,-0.53311265,0
-0.02531521,1.4044328,-2.3578115,-0.009223938,0.51172405,-0.8591004,0
-1.1533908,-1.2185239,-1.7222124,-0.4797006,-0.50678974,-0.71627617,0
0.09880919,-0.72236574,-2.5378094,0.037421141,-0.27357528,-0.96112239,0
1.7695378,-1.5447283,0.9159593,0.70186436,-0.61269653,0.36330342,0
0.42970189,2.311938,1.0244725,0.16752486,0.90133899,0.39940387,0
-2.3084593,-0.57102758,-1.1374149,-0.87572604,-0.21662228,-0.43148428,0
-0.039288487,-2.3422394,0.5705626,-0.016295165,-0.97145963,0.2366447,0
-1.3616798,1.9193218,-0.17112815,-0.57710463,0.81344342,-0.072527215,0
-2.3186085,0.092953555,-0.94895101,-0.92485046,0.037077472,-0.37851918,0
-0.19195957,2.5731747,-0.16453367,-0.074242786,0.99520779,-0.063635476,0
0.85260248,1.6255754,1.9080278,0.3220236,0.61397153,0.72065234,0
-2.0390115,-1.2556586,-0.54608607,-0.83018059,-0.51123959,-0.22233815,0
-2.4206727,0.11227617,0.48856622,-0.97922248,0.045418512,0.19763723,0
1.5208116,1.9395744,0.21687442,0.61465871,0.78390795,0.087653033,0
-1.8693523,-1.5894582,0.19723438,-0.75938773,-0.64568621,0.080122598,0
2.3598895,-0.84929794,0.78674853,0.89778596,-0.32310316,0.29930714,0
-0.3873654,1.8618649,-1.8490977,-0.14603786,0.70192838,-0.69711512,0
-1.3410211,-0.82120198,-1.969902,-0.53203291,-0.32580137,-0.78153342,0
1.3122478,2.1262729,-0.55976737,0.51248848,0.83039987,-0.21861294,0
0.11764152,2.6718824,0.54090041,0.043113921,0.97920638,0.1982322,0
1.1484104,-1.7166179,1.4609816,0.45394588,-0.67854804,0.57749963,0
-2.4787943,-0.27360389,-0.71083713,-0.95589072,-0.10550912,-0.27411819,0
-2.554265,-0.63337868,-0.078943402,-0.97016811,-0.24057168,-0.029984506,0
-0.94403648,-1.3699901,1.5584501,-0.41411307,-0.60096282,0.68363303,0
-0.73729569,2.3296075,-0.45529872,-0.29663247,0.93725932,-0.18317805,0
-1.9195677,-0.63443941,-1.0420403,-0.84397179,-0.27894247,-0.45815143,0
-0.97716302,-0.76371348,2.1115599,-0.39903185,-0.31186813,0.86227131,0
-2.2859874,0.55322593,0.75037271,-0.92595971,0.22408913,0.30394521,0
-1.8669758,1.9166666,-0.15286772,-0.6966241,0.71516526,-0.057039488,0
0.018426148,2.5624039,-0.98644882,0.006710703,0.93321359,-0.35925931,0
-2.5533481,-0.21366413,-1.0616673,-0.92061865,-0.077037357,-0.38278788,0
-1.6654977,-0.26724824,1.6445756,-0.70696867,-0.11344125,0.69808769,0
-2.3618989,0.31305513,-0.67987651,-0.95327783,0.12635109,-0.27440259,0
-1.2274241,1.1813151,1.9940637,-0.46800667,0.45042565,0.76032001,0
-2.2024972,-0.3425405,0.93676877,-0.91094261,-0.14167316,0.38744321,0
0.14445351,-2.0498848,1.4869081,0.056950122,-0.8081575,0.58620656,0
0.046208087,1.6666172,-1.7468246,0.019135555,0.69017452,-0.7233898,0
1.1746525,-0.93645751,2.1033032,0.45446473,-0.3623088,0.81375313,0
2.4760251,0.23803203,1.0681416,0.9146477,0.08792942,0.39457324,0
-2.0157619,1.1653311,1.017504,-0.79329926,0.45861387,0.40043679,0
-2.1370621,0.24485648,-1.4006693,-0.83255303,0.095390767,-0.54567039,0
-0.60900956,1.6532013,2.0037746,-0.22825073,0.6196034,0.7509948,0
1.9201446,-1.5356057,-0.054516204,0.78077805,-0.62441504,-0.02216763,0
-0.90154481,-0.13957611,-2.2826636,-0.36674786,-0.05677947,-0.92858607,0
0.66068864,-0.73630589,-2.3226297,0.26170731,-0.29166028,-0.92002368,0
-2.4646037,-0.29267183,0.60890478,-0.96442282,-0.11452527,0.23827022,0
-1.2843026,-1.8370075,0.93963081,-0.52842849,-0.75583988,0.38661268,0
0.60588646,0.26666364,-2.5439079,0.23049548,0.10144602,-0.96777093,0
-1.5184574,-1.9482874,-0.94241709,-0.57434624,-0.7369265,-0.3564629,0
-0.80848551,-0.3625735,2.4815023,-0.30683142,-0.13760166,0.94176441,0
0.99774003,-0.23153736,2.3441973,0.39001736,-0.090508133,0.91634852,0
2.4048898,-0.79446912,0.16708851,0.94746852,-0.31300166,0.065828837,0
2.5705388,-0.17759927,-0.75312293,0.95755738,-0.066157915,-0.28054756,0
0.03612335,1.8217385,-1.7802138,0.014180533,0.71513915,-0.69883829,0
-1.0638566,2.3256063,0.46051139,-0.40940866,0.8949734,0.17722064,0
-1.1752321,-2.327486,0.68277103,-0.43603325,-0.86354119,0.25332093,0
1.5330194,-0.38697115,-2.2242887,0.56175458,-0.14180043,-0.81506097,0
2.0510693,-0.39482689,1.2264096,0.84679383,-0.16300619,0.50632912,0
-0.20705526,-1.841471,-1.8824072,-0.078386486,-0.69713974,-0.71263725,0
-0.69434297,-2.2179356,1.3749205,-0.2571331,-0.82135868,0.50916845,0
1.4280341,0.56429893,2.1619022,0.5385344,0.21280614,0.81528783,0
-1.3058319,-1.9639117,-0.53907865,-0.5397681,-0.81178659,-0.22282918,0
-0.32588547,2.4773703,-0.65852147,-0.12611516,0.95872319,-0.25484273,0
-1.3363538,-2.0457904,-0.48398855,-0.53646141,-0.82125533,-0.19429076,0
2.3234031,-0.037602201,1.1569941,0.89505756,-0.014485706,0.44571531,0
2.3330727,-1.0449944,-0.48270404,0.89678895,-0.40167606,-0.1855423,0
-1.7549667,-1.850962,-0.26868692,-0.68425286,-0.721681,-0.10475971,0
-1.3876165,2.0179522,-0.56201655,-0.55224943,0.80311304,-0.2236737,0
-0.96667725,-0.30564797,2.1942818,-0.39991945,-0.12644817,0.90778595,0
1.7548463,-1.6843235,0.75929362,0.68868053,-0.66100419,0.2979809,0
2.3142579,-0.81637728,0.083923124,0.94249302,-0.33247373,0.034178112,0
-1.8875002,0.82000405,1.4646041,-0.74726093,0.32463941,0.57983643,0
0.51180726,2.4106216,0.070374005,0.20759948,0.97779733,0.028545132,0
-1.8437535,0.88008475,1.4918531,-0.72883022,0.34789488,0.58972508,0
0.046142817,-1.9597096,-1.2672349,0.019768175,-0.8395648,-0.54289973,0
1.0921395,-1.7105377,1.884135,0.39438283,-0.61769283,0.68038058,0
2.4678209,1.0544739,-0.60723412,0.89689803,0.3832351,-0.2206915,0
-0.083781958,-1.2009138,-2.0603459,-0.03511015,-0.50326186,-0.86342043,0
1.4591359,1.9788792,-0.49171349,0.58194256,0.78923017,-0.19610853,0
-0.85691279,-0.70235378,-2.4353728,-0.32027373,-0.26250684,-0.91022789,0
2.267242,0.52067691,1.2614709,0.85676563,0.19675803,0.4766959,0
0.47398677,2.2077348,-0.70441854,0.20038614,0.93335819,-0.29780516,0
-1.9770155,-0.90054554,1.1421229,-0.80550259,-0.36691254,0.46533927,0
1.1143804,-1.8836418,0.90355086,0.47064468,-0.7955327,0.38160348,0
2.2496107,1.2118127,-0.40519714,0.86952728,0.46839404,-0.15661819,0
-2.176923,0.31326145,1.2698051,-0.85719377,0.12335106,0.5000034,0
-0.51261663,1.0216633,2.2220621,-0.20514299,0.40885732,0.88924241,0
-0.10814717,-2.5172777,0.95359582,-0.04014346,-0.93439555,0.35396799,0
0.052405838,-0.28490278,-2.449507,0.021246387,-0.11550535,-0.99307966,0
1.6339313,-1.2345235,-1.7458962,0.60716468,-0.45874581,-0.64877057,0
-0.63398099,1.5482961,-2.0505233,-0.2395573,0.58504218,-0.77481472,0
1.1793641,1.0056086,2.2459645,0.43218696,0.36851293,0.82305086,0
1.7598534,1.812996,-0.47855908,0.68434536,0.70501071,-0.18609487,0
-1.1969107,1.1954181,1.7835274,-0.48691168,0.48630449,0.72555143,0
-0.50626099,-0.90188879,2.5363002,-0.18482929,-0.32926786,0.9259702,0
0.052780434,-1.3573822,-2.1048334,0.021069076,-0.54184449,-0.84021467,0
0.30825144,-1.2850143,2.0415554,0.12675235,-0.52839524,0.83948338,0
1.8312023,-0.1595237,-1.4835225,0.77523828,-0.067534253,-0.6280483,0
0.25391021,1.6772479,-1.83049,0.10174067,0.67206556,-0.73346901,0
-1.0727614,0.87682092,2.0882649,-0.42806199,0.34987622,0.83327645,0
-0.6716159,1.5472267,-1.8502015,-0.26825556,0.61799037,-0.73900402,0
0.2367419,-0.93328243,-2.2051921,0.09838713,-0.38786113,-0.91645175,0
2.3142605,0.36374488,-0.94984853,0.91548407,0.1438916,-0.37574473,0
0.45477262,1.865899,1.7164274,0.17655887,0.72440821,0.66637802,0
-1.7233903,-1.0705496,-1.8505448,-0.62759399,-0.38985392,-0.67389888,0
-0.63472635,0.0045254468,2.693212,-0.22939153,0.0016355066,0.97333288,0
-1.4807749,2.146066,-0.7735436,-0.54446644,0.78908741,-0.28442439,0
2.3168316,-0.23000735,0.50577307,0.97242755,-0.096539386,0.21228461,0
-2.3966155,-0.73322248,-0.026646158,-0.95619446,-0.29253891,-0.010631205,0
2.1716359,-1.4510537,-0.7749542,0.79711914,-0.53262275,-0.28445414,0
-0.17891951,0.45388409,-2.474354,-0.070943683,0.17997037,-0.98111045,0
-1.2463963,2.126518,-0.85259879,-0.47788307,0.81533211,-0.32689646,0
1.140203,-0.34151688,2.0731716,0.4769623,-0.14286113,0.86723566,0
-2.0586472,1.0095693,-1.1550912,-0.80184418,0.39322779,-0.44990864,0
2.3737712,-0.12085763,0.33165345,0.98912364,-0.050360013,0.13819624,0
-2.4992225,-0.99140608,-0.5213477,-0.91253823,-0.36199096,-0.19035909,0
-0.67714602,1.0021721,-2.2257631,-0.26731282,0.39562139,-0.87865096,0
1.2101684,-0.90255302,1.9902689,0.4844442,-0.36130226,0.79672736,0
1.8274571,0.32406551,1.698643,0.72634864,0.12880442,0.67514968,0
-1.5839033,0.44085908,1.7347353,-0.66270292,0.18445481,0.72581077,0
-2.2306848,0.94616127,-0.27420914,-0.9147709,0.38800678,-0.11244912,0
-0.67016613,1.6900955,1.8185697,-0.26061037,0.65723473,0.70719498,0
-1.8405627,1.0253326,-1.5733224,-0.69996423,0.38993299,-0.598333,0
2.0798821,1.3994312,1.098946,0.75987095,0.51127279,0.40149251,0
2.0210016,-1.0525547,-0.65371883,0.85253328,-0.44400656,-0.2757628,0
2.3683131,-0.77443194,-0.93173707,0.89026868,-0.29111546,-0.35024777,0
-0.092277355,-1.4426922,2.0922153,-0.03628571,-0.56730181,0.82271016,0
-0.25956061,0.36393461,-2.5612662,-0.099831715,0.13997585,-0.98510939,0
-1.0848675,-2.1094439,-1.1626107,-0.41067681,-0.7985304,-0.44010648,0
1.2694436,0.012901912,2.0128295,0.53343916,0.0054215766,0.84582102,0
-0.2654272,2.4918091,0.61488169,-0.10286915,0.96572727,0.23830397,0
-0.27559751,-0.67953992,-2.4509273,-0.10772785,-0.26562423,-0.95803887,0
1.5485044,-0.88288844,-1.552159,0.65514946,-0.37353712,-0.65669566,0
0.45580104,0.99473578,2.176466,0.18710789,0.40834245,0.89344674,0
-1.7515996,-0.42716229,1.8938391,-0.66987818,-0.16336308,0.72427601,0
-0.60560179,1.8060226,-1.4830039,-0.2508626,0.74812114,-0.61431485,0
-2.4877472,-0.24015732,-0.63281149,-0.96492374,-0.093149938,-0.2454489,0
1.6571398,2.0116909,0.28901553,0.63193744,0.76714277,0.11021384,0
1.1354498,1.8843625,-0.90749073,0.47711313,0.79180431,-0.3813253,0
-2.1161535,1.2290065,-0.23288319,-0.86085129,0.49995989,-0.094736889,0
1.7922789,-1.2508229,1.1742227,0.72238654,-0.50415015,0.47327605,0
0.082208924,0.76286381,2.2644916,0.034383371,0.31906307,0.94710958,0
1.74953,1.2206008,1.2812825,0.70305884,0.49050558,0.51489085,0
0.53471231,-1.4351046,-2.291837,0.19398658,-0.52063704,-0.83144826,0
-0.69219148,-1.5532929,-1.8896481,-0.27228394,-0.61101115,-0.74332154,0
-1.2745079,0.65272558,2.165803,-0.49088117,0.25139955,0.83416659,0
-2.227674,-0.15234829,1.421997,-0.84151191,-0.057550117,0.53716445,0
-1.9809244,-1.5351028,0.45977777,-0.77746123,-0.60248786,0.1804508,0
0.016671788,0.54623705,2.3508692,0.0069075702,0.2263207,0.97402829,0
0.25543326,-2.4860873,0.12850048,0.10207219,-0.99345082,0.051349323,0
1.6350155,1.8544538,0.20056958,0.65916777,0.74763584,0.08086101,0
-0.63653362,1.7895986,1.773757,-0.24492839,0.68861014,0.68251455,0
-0.5163089,1.9474455,1.5084347,-0.20514156,0.77376544,0.59933621,0
-2.0648937,-0.73525125,-0.88684517,-0.87328863,-0.3109538,-0.37506619,0
0.30692768,1.5425752,-2.1072183,0.11672607,0.58664876,-0.80138522,0
0.64391744,-1.6159785,-2.1428273,0.23330151,-0.58549464,-0.7763803,0
2.6001627,0.35743099,-0.31061214,0.98381793,0.13524039,-0.11752564,0
0.79872894,0.93415141,2.1651256,0.32081929,0.37521338,0.86964923,0
1.171838,1.7296519,1.2846031,0.4777998,0.70524025,0.52377814,0
-0.3677392,-2.5325007,-0.55056536,-0.1404863,-0.96748358,-0.21033083,0
1.2151892,-2.2191815,0.78977168,0.45847413,-0.83726656,0.29796997,0
-0.87748474,2.2087457,0.21460325,-0.36771238,0.92558098,0.08993008,0
0.51097226,-0.0019450904,2.4882207,0.20115867,-0.00076573977,0.97955835,0
0.33329308,-0.64239293,-2.5447936,0.1259754,-0.24280643,-0.9618603,0
1.3895391,-2.0747266,-0.15722552,0.55537021,-0.82922554,-0.062839806,0
-0.97407055,-2.2032762,-1.0106046,-0.37286624,-0.84339613,-0.38685119,0
1.022332,-1.5914601,-1.9997365,0.37140477,-0.57816434,-0.72648782,0
-0.4730542,2.617713,0.28903759,-0.17679182,0.97830278,0.10802035,0
-1.7511219,-0.046742059,1.8056068,-0.69607288,-0.018580019,0.7177307,0
-2.3117993,-0.66360706,-0.54564738,-0.93736404,-0.26907241,-0.22124337,0
2.0706639,0.61415344,1.3159739,0.81871802,0.24282959,0.52032173,0
-1.0344223,-2.3493357,-0.15525711,-0.40223676,-0.91354299,-0.060371976,0
-0.38766849,-1.1454924,-2.0155511,-0.1649297,-0.48733833,-0.85749614,0
0.082923226,1.9896777,1.5730001,0.032676272,0.78404146,0.61984777,0
1.6243832,0.063474707,1.8672684,0.65611744,0.025638569,0.75422311,0
2.2866507,0.60208261,-0.86034638,0.90875649,0.23927857,-0.34191728,0
1.470089,0.1482693,2.0534537,0.58111197,0.058609419,0.81171042,0
0.25145704,2.2641997,1.2635003,0.096526913,0.86915928,0.4850204,0
-0.72791672,0.60528374,-2.2082441,-0.30296814,0.25192675,-0.91909915,0
-0.047291476,2.3520672,0.67002159,-0.019333452,0.96155965,0.27391469,0
0.71889669,-0.91167039,2.2629421,0.28265232,-0.35844615,0.8897326,0
1.5489058,-1.8356524,0.22002813,0.64219987,-0.76108932,0.091227002,0
2.0513017,1.0872415,1.2460148,0.77852404,0.41263732,0.47289607,0
-0.1637789,0.16066389,-2.4616199,-0.066245876,0.064985909,-0.99568486,0
2.250958,0.55770755,0.57283914,0.94232726,0.23347527,0.23980987,0
-0.52384424,2.1345196,1.3106996,-0.20470601,0.83412004,0.51219058,0
-1.7340566,1.2644439,-1.4083234,-0.67553633,0.49258932,-0.54864049,0
1.8271122,0.13411275,1.6743356,0.73618096,0.054036774,0.67462415,0
-1.5435019,0.82495165,1.9988886,-0.58096635,0.31050766,0.75237161,0
1.5414288,0.58201224,-2.0061781,0.59375858,0.22419119,-0.77278006,0
0.39422172,-2.0127234,-1.6188329,0.15087692,-0.77031153,-0.61956137,0
1.8587661,0.82156438,1.1950674,0.78842252,0.34847841,0.50690514,0
-1.9950175,-1.2421664,-0.048233178,-0.84872091,-0.5284428,-0.020519372,0
0.68987375,-0.70583934,2.4450583,0.26163802,-0.26769304,0.92730039,0
-0.18690035,0.29132357,2.487685,-0.074413419,0.11598899,0.99045908,0
1.2618027,-1.9869919,-1.3348088,0.46631205,-0.73431313,-0.49329224,0
0.40671697,-2.6057847,0.79963565,0.14758079,-0.94553161,0.29015476,0
2.336817,0.18521179,0.39434662,0.98306054,0.077915557,0.16589515,0
-1.9575309,0.52002186,1.4938891,-0.77779967,0.20662399,0.59357756,0
1.7580669,-1.3432668,-1.0230694,0.72123212,-0.5510639,-0.41970557,0
-0.74085957,-1.5275323,-1.9119182,-0.2897509,-0.59741938,-0.74775302,0
-0.73625499,2.3577459,0.10300842,-0.29781675,0.9537133,0.04166713,0
0.59002441,-1.7998196,1.6077393,0.23749052,-0.72444475,0.64713061,0
-1.8421229,-2.0820143,-0.27541664,-0.65941441,-0.745287,-0.098589353,0
0.24176423,0.46344724,2.3094349,0.10210276,0.19572476,0.9753291,0
2.0226305,-0.013866588,-1.190876,0.8617155,-0.0059076804,-0.5073573,0
0.64733589,2.3918703,0.020241732,0.26123294,0.96524125,0.0081685679,0
-1.9607397,-0.45340148,1.4331295,-0.79362446,-0.18351774,0.5800702,0
1.554042,-0.90382695,1.6113611,0.64370483,-0.37437713,0.66744721,0
-1.5308688,-2.0887611,1.0998214,-0.54410487,-0.74239224,0.39090106,0
-0.67729872,-0.32669082,-2.60957,-0.24939626,-0.12029473,-0.96090096,0
2.4135618,0.58678579,-0.1405132,0.97014397,0.23586167,-0.056480024,0
-1.0519325,-0.88044977,-1.9490024,-0.44136694,-0.36941668,-0.81775707,0
1.8803648,-0.75946951,-1.4867495,0.74779207,-0.30202931,-0.59125733,0
1.9414992,-1.3630491,-0.46332273,0.80326122,-0.56393766,-0.19169164,0
-1.9698843,-0.53997236,1.4159261,-0.79260498,-0.21726392,0.56971371,0
1.7196978,1.0274402,-1.4164118,0.7009421,0.4187806,-0.57732391,0
2.293241,-1.0380296,-1.1821795,0.82460773,-0.37325653,-0.42509019,0
1.0498722,-1.9741964,1.1636194,0.41650796,-0.78320825,0.46163407,0
2.1329327,-1.4725313,0.15454184,0.82147545,-0.56712914,0.059520077,0
1.3731796,-1.9695226,-1.0688314,0.52249396,-0.74940211,-0.4066897,0
-2.3711576,-0.58308363,0.30176231,-0.96373904,-0.23698992,0.122649,0
-1.3318348,2.121191,0.20485409,-0.52997673,0.8440851,0.08151754,0
-2.3646693,0.070111111,0.012386127,-0.999547,0.029636005,0.0052356226,0
-2.3100545,1.4316703,-0.47516432,-0.8372944,0.51891828,-0.17222641,0
-0.26644057,0.92881477,-2.3895886,-0.10336925,0.36034635,-0.92707348,0
-0.55883992,2.0636141,0.92276156,-0.2399915,0.88621062,0.39627618,0
1.5103735,-1.4866878,-1.3101643,0.60618967,-0.59668338,-0.52583551,0
1.9170392,-0.28672963,1.7713428,0.73007381,-0.10919641,0.67458761,0
-0.11370809,0.92262256,-2.5265443,-0.042237151,0.34271041,-0.93849111,0
2.3052027,0.112272,1.0714704,0.90594578,0.044122953,0.42108837,0
1.5147516,0.050723724,-2.1436603,0.57697707,0.019320941,-0.81653178,0
0.35874835,-2.3785026,0.55502576,0.14532411,-0.96349925,0.22483343,0
-2.11185,-1.0685973,-0.44357094,-0.87700641,-0.44376573,-0.18420558,0
-1.956908,-0.74534976,1.4090917,-0.77532023,-0.29530501,0.55827731,0
0.096904464,2.5195858,-0.77224845,0.036747199,0.95545357,-0.29284477,0
-0.19640724,-2.0702806,0.9696669,-0.085597835,-0.90226579,0.42259839,0
2.3029552,-0.73760557,-0.45034382,0.93624771,-0.29986757,-0.18308362,0
1.6415017,-1.213205,-1.8260787,0.59935337,-0.44297153,-0.66674709,0
1.7094722,-1.421262,-1.2023509,0.67636639,-0.56233376,-0.47571978,0
-0.78086084,-0.081243321,-2.2588842,-0.32652566,-0.0339728,-0.94457763,0
1.2238551,2.0345151,0.50801831,0.50406015,0.83794069,0.20923375,0
2.5407016,-0.19627464,0.3053827,0.98994613,-0.076475456,0.11898777,0
1.1444302,-2.0913529,0.23733804,0.47768396,-0.87292856,0.099064648,0
-0.44103462,-1.4413334,2.0949595,-0.17088707,-0.55847144,0.81173104,0
1.4215524,-1.9967569,0.040612407,0.57988751,-0.81452811,0.016566837,0
-0.20436491,1.8111784,1.6250602,-0.083690405,0.74170393,0.6654858,0
0.7665416,-1.9667658,1.3544832,0.30563098,-0.7841773,0.54005164,0
2.414129,-0.77151591,-0.3445172,0.94385856,-0.30164167,-0.13469683,0
-0.19480133,-1.6201187,2.1401691,-0.072382063,-0.60198534,0.79521972,0
2.3541174,-0.42629555,0.0042085815,0.98399508,-0.17818683,0.0017591406,0
-1.0461589,-2.2745824,-0.77502024,-0.39916849,-0.86788118,-0.29571384,0
-1.6745043,1.996361,-0.87752861,-0.60903233,0.72609454,-0.31916508,0
1.8377072,-0.38903996,-1.6999083,0.72538644,-0.15356326,-0.67099392,0
1.9424295,1.105996,-1.5914105,0.70791483,0.4030782,-0.57998663,0
-1.954075,1.8006513,0.021432666,-0.73536259,0.67762578,0.0080655972,0
-1.7315017,-0.37916327,1.8803985,-0.67005038,-0.14672726,0.72766995,0
2.2136185,-1.2933593,-0.8538155,0.81919116,-0.47863191,-0.31597048,0
-2.158632,-1.3852506,-0.53393,-0.82394785,-0.52874887,-0.20380059,0
1.1573901,2.2628632,0.70036483,0.43900377,0.85831511,0.26565182,0
2.3125162,0.5305354,-0.16380008,0.97236419,0.22307892,-0.068874471,0
0.82118756,2.1352041,1.1749803,0.31930777,0.83024544,0.45687532,0
2.7050738,0.088172816,-0.33312902,0.99198329,0.032334037,-0.12216244,0
-0.61316293,-0.18860431,-2.4043562,-0.24640185,-0.075791359,-0.9661997,0
2.2232196,0.72029281,0.67933279,0.91350466,0.29596302,0.27913287,0
-1.8069264,-1.591495,-1.2199371,-0.66941172,-0.58960092,-0.45194989,0
-0.84377074,-2.4196262,-0.52611041,-0.32254526,-0.92494196,-0.20111436,0
-0.85686839,0.18976837,2.3877497,-0.3368285,0.074596517,0.93860638,0
0.59804732,0.50097603,2.5695305,0.22270709,0.18655866,0.95686853,0
0.14466955,0.3039546,2.3329451,0.061375909,0.12895243,0.98974955,0
1.1529582,2.1541097,-1.0529513,0.43336308,0.80966651,-0.39577347,0
2.1235213,1.3118402,0.45192859,0.83714169,0.51715803,0.1781608,0
-0.78411871,0.78854525,2.2935214,-0.30763036,0.309367,0.8998087,0
2.202086,-1.3349141,0.17061099,0.85327262,-0.51725757,0.066108994,0
-1.6502904,-0.57099962,1.7776091,-0.66227108,-0.22914545,0.71336484,0
-2.4376144,0.65271199,0.38120046,-0.95513356,0.25575295,0.14936626,0
0.13885888,0.92533249,-2.2523866,0.05693249,0.37938866,-0.92348415,0
1.1334497,2.1372163,-0.75856078,0.44706485,0.84297901,-0.29919797,0
-2.5303249,-0.10731211,0.11163827,-0.99813265,-0.042331211,0.044037744,0
-2.2154217,-0.76927435,-0.96739012,-0.87328863,-0.30323735,-0.38133183,0
1.4004077,2.1753328,-0.15464181,0.54033446,0.83933222,-0.059667125,0
