-0.24882111,2.9594774,-0.36341581,-0.083160155,0.98910666,-0.12145961,0
-0.10227473,0.19869629,2.7658942,-0.03685699,0.071604654,0.9967519,0
-2.7811134,0.63030958,0.77528203,-0.94110554,0.2132915,0.26234898,0
-1.9696749,-0.68365622,-1.7246487,-0.72794229,-0.25266212,-0.63738674,0
-1.291011,1.3280759,-2.2822127,-0.43923652,0.45184699,-0.77646995,0
-1.182129,-2.7935789,-0.78633511,-0.37723571,-0.89147437,-0.25093174,0
1.1708759,-2.5689731,-0.36466482,0.41131362,-0.90244716,-0.12810206,0
-0.1360416,-0.83999097,-2.7648695,-0.047026798,-0.29036772,-0.95575887,0
-2.622149,0.32031956,-0.99197918,-0.92926222,0.11351791,-0.35154706,0
-1.7005099,-0.90123916,-2.1254711,-0.59306341,-0.31431279,-0.74127132,0
-0.17873983,-0.97367835,-2.5494149,-0.065355882,-0.35602364,-0.93218869,0
1.7698406,0.99053806,1.8938608,0.63779759,0.35696027,0.68249077,0
-2.4659173,-1.2615502,1.1327703,-0.8240155,-0.42156196,0.37852862,0
-2.425015,-1.3684995,-0.80272144,-0.83681679,-0.47223765,-0.27700067,0
0.68117976,-1.8651222,-2.1330776,0.23374303,-0.6400063,-0.73195368,0
1.4467019,-0.35791257,2.5525556,0.48944977,-0.12108938,0.86358339,0
1.0644135,-2.12168,1.718261,0.36323828,-0.72403753,0.58636808,0
-0.97678971,2.8115637,-0.034529012,-0.32815519,0.9445526,-0.011600116,0
1.9379221,2.0653079,-0.43167782,0.67644721,0.72091222,-0.1506806,0
1.5648587,2.5407994,0.39168885,0.51995075,0.84422356,0.13014525,0
0.76348364,0.67611957,-2.6908698,0.26531568,0.23495607,-0.93509525,0
-0.71391833,2.5289295,1.3541826,-0.24150065,0.8554734,0.45808598,0
-2.2638843,-1.8388962,0.3633742,-0.77024472,-0.62565035,0.12363134,0
1.9346159,-0.058469448,1.9926474,0.69642776,-0.021047976,0.71731812,0
-2.9102762,0.37566033,-0.076865472,-0.99143165,0.12797464,-0.02618544,0
-1.7955027,-2.398452,-0.32049119,-0.59588742,-0.79599297,-0.10636391,0
-1.8272243,1.7532659,1.3931961,-0.6321975,0.60660881,0.48202902,0
-1.8401827,-0.75254387,-2.3309712,-0.60064822,-0.24563546,-0.76084495,0
-1.3495544,2.7062569,0.215102,-0.44514322,0.89264417,0.070950232,0
-0.33922032,-2.5799336,1.4688061,-0.11352516,-0.86341345,0.49155799,0
1.9413403,1.9504404,-0.43873045,0.69665354,0.6999191,-0.15743923,0
-1.4180547,1.6251248,-1.7771705,-0.5074119,0.58150625,-0.63591164,0
0.53440475,-2.4215453,-1.7290033,0.1767758,-0.80102319,-0.5719372,0
2.685775,1.1156441,-0.72683805,0.8959384,0.37216386,-0.24246339,0
-2.5289726,0.79636079,-1.0376536,-0.88822764,0.27969843,-0.36444545,0
2.0154538,-1.3793683,1.556044,0.69597852,-0.47632483,0.53733468,0
-2.4916942,1.1626208,0.35721916,-0.89865458,0.41931087,0.12883468,0
0.65398026,1.6838027,2.3920786,0.21817626,0.56173831,0.79802835,0
-0.98593771,1.4091276,-2.4623265,-0.32826743,0.46916825,-0.81983024,0
-2.6582794,-1.2313913,0.85849714,-0.87075812,-0.40336016,0.28121322,0
0.50176966,1.0879759,2.7450349,0.16752966,0.36325076,0.91650569,0
-1.4181789,2.129349,1.3909019,-0.48700559,0.73122287,0.4776386,0
-0.20004338,2.0711579,-2.1112187,-0.06748464,0.6987052,-0.71221972,0
-0.19983566,3.1064255,0.30425811,-0.063892603,0.99320418,0.097279146,0
-2.6192236,0.35314468,-1.4132596,-0.87393206,0.11783051,-0.47154924,0
-0.90380579,-0.96367955,-2.6670897,-0.30365816,-0.32377437,-0.89608139,0
1.0044457,-1.9998323,-1.8748465,0.34405103,-0.68499905,-0.64218789,0
-2.7081599,-0.15166703,1.0570356,-0.93029004,-0.052099701,0.36310619,0
-0.75020033,1.8862149,-2.3135593,-0.24374163,0.61283511,-0.7516802,0
0.77406985,-2.8806605,-1.1837862,0.24120601,-0.89763558,-0.3688767,0
2.0806789,-0.81709772,-1.9817888,0.69649267,-0.27351773,-0.66338986,0
2.4294457,0.078229487,1.6836795,0.82162642,0.026456822,0.56941199,0
-2.5617287,1.4009737,-0.32494336,-0.87198371,0.47687572,-0.11060708,0
-1.8293191,0.86618382,-2.2085443,-0.6106438,0.28914025,-0.73723269,0
-2.5430746,0.84834832,-1.2257125,-0.86271393,0.28779411,-0.41581136,0
2.8336978,-0.30811378,-0.16252337,0.9925285,-0.10791966,-0.056925297,0
-0.17831102,-3.0044665,0.076850496,-0.059225097,-0.99791825,0.025525501,0
-0.69332451,2.6081841,0.87354964,-0.24441925,0.919469,0.30795443,0
1.4347843,-1.8820783,-1.9716544,0.46579376,-0.61100495,-0.64008528,0
-0.40474966,-2.5022311,-1.3233931,-0.14154896,-0.87507969,-0.46281675,0
-1.882284,-2.2726023,-0.36894768,-0.63294333,-0.76419306,-0.12406362,0
-0.54067916,3.0414262,0.7617265,-0.16993724,0.95593029,0.23941316,0
-0.71086043,-2.7536089,0.11781897,-0.24974675,-0.96742606,0.041393366,0
-2.5159717,-1.4164177,0.12914844,-0.87052983,-0.49008259,0.044685546,0
2.6581364,-0.85328919,-1.0960175,0.88628942,-0.28450805,-0.36543977,0
1.1110359,2.3986609,-0.82006729,0.40142089,0.86664397,-0.29629296,0
-1.5258752,-0.70260721,-2.6163983,-0.49075201,-0.22597255,-0.8414861,0
-1.6084654,-0.010974856,2.4055588,-0.55583435,-0.0037925604,0.83128446,0
-0.45929363,-2.831727,-1.1510694,-0.14858823,-0.91610527,-0.37238783,0
2.3708005,0.112592,1.8157122,0.79335004,0.037677091,0.60759872,0
-0.44357386,1.3611364,-2.6720264,-0.14632809,0.44901764,-0.88145977,0
0.72158742,0.14435019,2.7110095,0.25687405,0.051386453,0.96507782,0
-0.48193583,-0.57035279,-2.919174,-0.15994358,-0.18928717,-0.9688077,0
1.3778158,1.0876755,2.430691,0.45953566,0.36276665,0.81069559,0
1.9951512,0.030589879,-2.1611469,0.67828864,0.010399596,-0.73472196,0
1.2585073,2.1084671,-1.2140491,0.45943806,0.76972944,-0.44320792,0
0.80165029,-1.9484295,2.2742445,0.2585806,-0.6284861,0.73358113,0
-1.1823326,1.7309554,1.9230331,-0.41563019,0.60848975,0.67601162,0
-0.37031251,1.5900117,-2.478678,-0.12476774,0.53571552,-0.83512986,0
0.37504759,2.2034361,-1.7456754,0.13224298,0.77693868,-0.61553079,0
-2.2120388,-0.14317448,-1.8225868,-0.7708137,-0.049891014,-0.63510406,0
-2.9416099,0.50034565,0.17558149,-0.98413843,0.16739453,0.058742151,0
-1.4895943,1.9882663,-1.4971392,-0.51354575,0.68546563,-0.5161469,0
-0.59931862,2.3931556,-1.4978619,-0.207652,0.8291809,-0.51897937,0
2.1224444,1.8415397,0.42154127,0.7469629,0.6481027,0.14835522,0
-1.3681655,-0.65149611,-2.681406,-0.44421279,-0.21152624,-0.87059265,0
-1.0965847,0.2247037,-2.5500586,-0.39375782,0.080685824,-0.91566622,0
-1.9792259,-0.98255485,2.2477689,-0.62792355,-0.31172255,0.7131207,0
-1.9931451,0.6589554,-1.9739825,-0.69168681,0.22867915,-0.68503672,0
-1.0261728,-1.4087936,-2.4800317,-0.33853471,-0.46476144,-0.81816322,0
0.26966646,0.3256661,-2.776247,0.096026167,0.11596721,-0.98860037,0
2.4439058,0.19536708,1.4592432,0.8565762,0.068475142,0.51145709,0
-2.1699777,1.7423396,0.3173542,-0.77473199,0.62205535,0.11330276,0
2.6334093,-1.0818037,0.17829555,0.92318344,-0.37924346,0.062504336,0
-2.0657632,1.1347154,1.4169952,-0.75117016,0.41261473,0.51525968,0
-0.33827311,-2.9422932,-1.0415511,-0.10774807,-0.93719071,-0.33175892,0
1.3221258,2.2892535,-1.0233244,0.46639702,0.80756384,-0.36099094,0
0.90826738,-2.4610715,1.3728448,0.30676088,-0.83120948,0.46366861,0
1.3741492,-1.4134227,2.2661753,0.45750105,-0.47057652,0.75448686,0
-1.6545466,-2.4902284,0.14507596,-0.55275112,-0.83193576,0.048466995,0
-0.098541401,2.856091,-0.5299266,-0.033903711,0.9826538,-0.18232416,0
-2.500526,-0.11990748,-1.7249218,-0.82250744,-0.039441619,-0.56738508,0
-1.4451134,1.8595561,-1.7254769,-0.49498397,0.63693994,-0.5910148,0
0.66011393,2.5202525,1.4892588,0.21997303,0.83983618,0.49627307,0
-2.5460334,1.6647892,-0.014100557,-0.83694929,0.54726076,-0.0046352306,0
1.0845062,-2.7245359,-0.048641492,0.36977881,-0.92897183,-0.016585054,0
-1.7919135,-1.8900226,1.6558388,-0.58061182,-0.61240089,0.5365212,0
-2.9357185,-0.71061409,-0.49678546,-0.9590466,-0.23214488,-0.1622909,0
2.7573919,-1.2130083,0.042452905,0.915254,-0.40263072,0.014091284,0
-0.5385378,3.0718796,0.21131265,-0.17228363,0.98272502,0.067601033,0
1.611324,0.18346667,2.312026,0.57056373,0.064964861,0.81867975,0
2.7605944,0.94737387,0.24732147,0.94247514,0.32343626,0.08443629,0
0.75233823,-1.0245392,-2.5114298,0.26728159,-0.36398587,-0.89223027,0
2.2401028,1.9407912,0.45800745,0.74692911,0.64712811,0.1527158,0
-0.70940083,2.7750323,0.0044021732,-0.24767202,0.96884274,0.0015369239,0
-2.3039165,0.7515102,1.694486,-0.77912945,0.25414279,0.57303464,0
2.5341883,-1.2884542,0.48447129,0.87873352,-0.44677338,0.16799113,0
-0.064837687,-2.6950688,-0.63865364,-0.023403175,-0.97278559,-0.23052216,0
-0.30725926,0.10023939,-2.7461116,-0.11112189,0.036252089,-0.99314535,0
1.495333,1.7015225,1.8023415,0.5165655,0.58779407,0.62262213,0
2.2713299,-0.10242838,-2.0930326,0.73497677,-0.033144671,-0.67728174,0
-0.010962305,-0.95142567,-2.9174178,-0.0035723459,-0.31004626,-0.95071477,0
0.55260724,-0.33300045,-2.6853294,0.20009321,-0.12057593,-0.97232926,0
2.2720218,-1.8993758,0.66035724,0.74882805,-0.62600893,0.21764493,0
0.44751436,1.400465,-2.4668489,0.15583365,0.48767054,-0.85900718,0
0.6097405,-1.8766576,1.9326007,0.22076152,-0.67945921,0.69971389,0
0.49330357,1.238618,-2.717397,0.16297635,0.4092114,-0.89776653,0
2.4866762,-0.55600297,-1.4986186,0.84120029,-0.18808636,-0.50695723,0
-2.6685171,-0.82918525,-0.78473687,-0.91939461,-0.28568244,-0.27036846,0
2.4384494,-1.1370336,-1.2656734,0.82010168,-0.38240826,-0.42567253,0
0.83059382,-1.8691247,2.1432238,0.280361,-0.63090962,0.72342986,0
0.84914351,2.4869506,1.0132341,0.30149007,0.88299668,0.35975075,0
1.0525966,-1.851387,1.7794296,0.37928113,-0.66710854,0.64118016,0
-1.2859497,1.0974553,-2.489099,-0.42737707,0.36473215,-0.82723594,0
-2.5337334,-1.3660529,-0.60188931,-0.86158609,-0.4645209,-0.20467009,0
-0.56865907,-0.51301593,-2.9066916,-0.18918118,-0.17066985,-0.96699655,0
-2.7011902,0.48637187,0.86997306,-0.93817127,0.16892557,0.30215707,0
-0.73828322,-0.99252433,-2.4906111,-0.26548517,-0.35690975,-0.8956188,0
-1.6061133,-1.8645755,-1.9151943,-0.51504952,-0.59793335,-0.61416584,0
2.3136139,-1.7895541,1.014627,0.74730825,-0.57803446,0.32772931,0
2.0426598,-0.2498834,1.8329551,0.74121273,-0.090674303,0.66511792,0
-0.070646763,-2.6995995,-1.3876045,-0.02326845,-0.88914895,-0.45702595,0
-1.1809245,1.2909278,2.2644429,-0.4126792,0.45112032,0.79131937,0
-0.9600395,2.6696355,1.2675526,-0.30896249,0.85914934,0.40792722,0
1.6627953,2.1561303,-1.0239004,0.57160789,0.7411983,-0.35197932,0
-0.36635634,2.6176941,0.97804487,-0.12998953,0.92880291,0.34702712,0
-0.76395494,2.0639224,-2.209146,-0.24499168,0.66187644,-0.70844805,0
-0.039752088,-1.311981,2.3849428,-0.01460248,-0.48194137,0.87608176,0
2.5100267,-0.7766338,1.5999157,0.81594539,-0.25246376,0.52009159,0
2.1697919,-0.36920574,1.9303977,0.74115461,-0.1261128,0.65938264,0
1.3723185,1.9155688,-1.72975,0.46946862,0.65531397,-0.59174556,0
0.1021418,2.474865,-1.6334002,0.03442537,0.83411634,-0.55051321,0
2.7703767,-0.6188851,-1.252315,0.89291298,-0.19947127,-0.40363047,0
1.2294916,2.6191299,-0.28022671,0.42295751,0.90100706,-0.096400812,0
2.5003648,1.1898818,-1.1622583,0.83260024,0.39622054,-0.38702214,0
1.2406579,-2.7121027,-0.81036848,0.40143743,-0.87755013,-0.26220945,0
0.83421737,2.7742631,-0.071771659,0.28787339,0.95734817,-0.024767106,0
-0.57070082,-2.7883344,-0.67226386,-0.19514765,-0.95345384,-0.2298765,0
2.8594618,-0.3175652,-0.3598344,0.986206,-0.10952575,-0.12410407,0
-1.244759,-2.2876322,-1.4825317,-0.4153679,-0.76336789,-0.4947111,0
-1.479992,-2.5148084,-0.46560404,-0.50086057,-0.85106426,-0.15757024,0
-0.53991467,-0.34874085,-2.7792134,-0.18927306,-0.12225496,-0.97428399,0
-2.0222354,0.71730083,-2.0422976,-0.68266827,0.24214715,-0.68944091,0
0.86801726,1.4196514,-2.3639288,0.30026349,0.49108413,-0.81772745,0
-1.7021718,2.4340763,0.065187231,-0.57294434,0.81930047,0.021941764,0
2.5660422,0.5649122,1.041898,0.90784305,0.19986095,0.36861432,0
1.0010111,-2.3387337,1.2743011,0.3518163,-0.8219735,0.44786701,0
0.61607969,-0.045064766,2.8001976,0.2148473,-0.015715569,0.97652119,0
1.3281629,1.8929586,-1.7469769,0.45828053,0.65316242,-0.60279167,0
1.3556641,0.39036345,-2.6742237,0.44837263,0.12910889,-0.88447326,0
0.90647829,1.0407373,2.6462235,0.30372706,0.34871224,0.8866508,0
1.4866971,-1.9969558,1.6143752,0.5010429,-0.67300898,0.54407263,0
-3.0082307,-0.53558582,-0.051744085,-0.98437685,-0.17525859,-0.016932106,0
2.1551483,-1.7352896,0.6324771,0.75931078,-0.61138439,0.22283696,0
-1.7060338,-0.44203091,2.3145659,-0.58643705,-0.15194499,0.79561561,0
2.5462284,0.16267894,-1.2003911,0.90301538,0.057693798,-0.42571655,0
1.1890826,1.1305002,2.6741786,0.37900448,0.3603321,0.85235929,0
-2.0872226,-0.16381173,-2.0686312,-0.709162,-0.055657241,-0.70284534,0
-0.21365936,-2.6728117,-1.1580064,-0.073153205,-0.9151237,-0.39648104,0
1.416766,1.6232848,2.0796318,0.47311962,0.54208517,0.69447923,0
-0.20202051,1.2672877,-2.4856312,-0.072218411,0.45303077,-0.88856488,0
0.77785861,0.8158313,2.8847032,0.25115541,0.26341605,0.93141448,0
1.0351235,1.2241838,2.4712279,0.35140303,0.41558513,0.83893085,0
-2.259403,1.3253607,-1.2737234,-0.77570593,0.45502731,-0.43729904,0
-1.1863635,-2.2273018,-1.2031864,-0.42435154,-0.79668581,-0.43036896,0
0.84729624,1.1874751,2.5542855,0.2880497,0.40369806,0.86836356,0
1.7375299,1.4561204,1.7301496,0.60927665,0.51059848,0.60668868,0
-2.4706118,1.4142418,-0.11799325,-0.86712563,0.49636501,-0.041412808,0
-0.92384493,0.19361025,-2.608583,-0.33302402,0.069791868,-0.94033188,0
0.19778436,0.7882691,-2.8599384,0.066523083,0.26512757,-0.96191579,0
0.10623767,2.647877,-0.92450827,0.037852198,0.9434315,-0.32939982,0
1.2798791,-2.1920764,1.5237893,0.43230221,-0.74041325,0.51468724,0
0.92703664,2.8337131,-0.012494523,0.31092715,0.95042449,-0.0041906503,0
2.8060522,-0.25642151,0.33759058,0.98877937,-0.090356231,0.11895809,0
-2.229723,1.3267283,-1.450708,-0.75008863,0.44631726,-0.48802459,0
-2.3026404,1.2103332,1.553121,-0.7600159,0.39948595,0.51262742,0
-1.0517374,2.4106865,1.1796108,-0.36486471,0.8363061,0.40922606,0
-1.8818996,-1.7794007,-1.0776012,-0.67086577,-0.63432664,-0.38414681,0
2.0269291,-0.90282714,1.6842972,0.72760659,-0.3240878,0.60461205,0
-1.6732881,-2.0786192,-0.64569169,-0.60947794,-0.7571156,-0.23518653,0
0.038340334,-1.8280687,2.3387909,0.012914806,-0.61577851,0.78781343,0
2.9931767,0.37517548,0.97703791,0.94395834,0.11831912,0.30812851,0
-0.5897252,1.6271111,2.1325269,-0.21472342,0.59244353,0.77646923,0
2.7194843,-1.2899842,-0.49554783,0.89150375,-0.42288378,-0.16245092,0
1.3779906,-0.08349023,-2.4868519,0.48446789,-0.029353129,-0.87431645,0
-1.6682965,-0.68972421,-2.2605896,-0.57667524,-0.23841499,-0.78141153,0
-2.0943027,-1.5678577,-1.1947402,-0.72818619,-0.54514199,-0.41540954,0
-2.4965298,0.95572537,1.1974829,-0.85229933,0.32627854,0.40881303,0
0.3749806,2.7309303,1.2607248,0.12370802,0.90094793,0.41591957,0
2.2110128,1.8043821,1.2358736,0.7109493,0.58019751,0.39739409,0
2.2409904,1.2506511,-1.0419974,0.80907321,0.4515273,-0.37619627,0
-0.40335959,1.0247062,2.6374393,-0.14112796,0.35852551,0.92279053,0
0.86631233,-2.1573579,1.7192317,0.29961234,-0.74611783,0.59459281,0
0.788113,-2.0501575,2.2168105,0.25254694,-0.65696287,0.71036601,0
-2.34548,-1.0999904,1.5029433,-0.78312892,-0.36727419,0.50181556,0
-1.5549103,-0.83847958,-2.3212678,-0.53304523,-0.28744265,-0.79576343,0
-0.79188854,2.0163922,1.9992102,-0.2686334,0.68402344,0.67819476,0
-1.2528058,-0.19351184,-2.7024956,-0.41969511,-0.064827263,-0.90534711,0
-1.690488,-1.9356254,1.3819016,-0.57935405,-0.66336614,0.47359717,0
-0.56699282,-2.1881335,-1.886837,-0.19256571,-0.74314779,-0.64081955,0
-1.7059944,-2.2810574,-1.1177796,-0.55753028,-0.74546468,-0.36529779,0
-0.060245432,-1.9665842,2.2568421,-0.020121625,-0.65682769,0.75377214,0
-2.6557362,0.24875252,1.4721739,-0.87168908,0.081647739,0.48320985,0
-1.7998782,2.250844,-0.86777902,-0.59800577,0.74783814,-0.28831774,0
-1.6659501,-0.32378349,-2.3169286,-0.5800662,-0.11273798,-0.80673003,0
-1.0282949,-2.3446155,1.4951928,-0.34683105,-0.79080957,0.50430989,0
-1.4675848,-2.3898966,0.50730562,-0.51493353,-0.83854628,0.17799902,0
0.11598098,2.6895494,0.99408919,0.040415317,0.93721396,0.34640533,0
-2.1408558,0.55520123,1.9520293,-0.72573757,0.18820997,0.66172653,0
-0.92037416,-2.3807702,1.4089769,-0.31567883,-0.81657958,0.48326451,0
-1.1924393,-0.3022739,-2.6115339,-0.41307169,-0.10471039,-0.90465879,0
2.4089532,1.6963228,-0.6422376,0.79886597,0.56254083,-0.21298121,0
1.9865751,1.858496,0.16983184,0.72883654,0.68184674,0.062308066,0
-2.698348,1.068825,-0.11807498,-0.92895216,0.36796117,-0.040649317,0
0.61456418,2.760565,-0.70308024,0.21088398,0.94727117,-0.24125773,0
2.3874881,-0.91115034,1.2852674,0.83465308,-0.31853327,0.44932258,0
-2.1841547,-1.1019523,-1.4611459,-0.76649857,-0.38671476,-0.51276869,0
-2.1151016,2.1296673,-0.54352701,-0.69339919,0.6981743,-0.17818585,0
0.93573195,-1.3198797,2.6773312,0.29912573,-0.42192635,0.85586327,0
2.0187559,-2.1412237,-0.052099798,0.68588525,-0.72749448,-0.01770124,0
2.4476991,-1.662611,-1.0863779,0.77653009,-0.52746171,-0.3446523,0
-2.2663045,-0.90072101,1.3192911,-0.81735855,-0.32485133,0.47581154,0
-0.73567915,-2.0269885,-2.0431988,-0.24765195,-0.68234587,-0.68780279,0
-1.732237,-1.8722901,-1.7242787,-0.5626266,-0.60811555,-0.56004173,0
-1.3566122,2.3001471,0.89786786,-0.48152736,0.81643355,0.31869677,0
1.5416831,-1.990924,-1.3768454,0.5371924,-0.69372833,-0.47975546,0
1.1790458,-0.62468147,2.7738526,0.38304469,-0.20294455,0.90116048,0
0.18905322,-1.7795602,2.2937391,0.064983189,-0.61168748,0.78842598,0
1.3893869,-1.2619588,-2.2867489,0.46964064,-0.42656741,-0.77296698,0
-0.25224364,-2.6478031,1.1995593,-0.086450584,-0.90747237,0.4111208,0
0.9477101,1.447497,-2.3419917,0.32547709,0.49712154,-0.80432254,0
-0.84343714,-1.775328,2.1980526,-0.28604057,-0.60207909,0.74544054,0
-1.9856853,-0.53454173,2.0668163,-0.681068,-0.18334186,0.70889503,0
1.8533579,-1.8477759,1.2986351,0.63436705,-0.63245642,0.44449663,0
1.0878541,2.0162914,-1.8133157,0.37232205,0.69008309,-0.62061393,0
2.1073463,-1.7857754,0.98831034,0.71832108,-0.60870874,0.33688062,0
0.7844255,0.4354623,-2.7841666,0.26816541,0.14886808,-0.95180124,0
0.18486665,0.74980444,-2.9670234,0.060298104,0.24456431,-0.96775639,0
2.0667043,-0.89743203,-1.9479536,0.69388551,-0.30130824,-0.65401554,0
-1.8838024,2.2764337,-0.025258061,-0.63751572,0.77038985,-0.0085478239,0
0.85533208,-0.32788399,-2.89939,0.28129894,-0.10783345,-0.95354223,0
1.1504115,2.7322104,0.35316551,0.38533431,0.91516334,0.11829401,0
0.62409413,1.3163875,2.7340405,0.20145334,0.42492098,0.88252974,0
0.58683783,2.0770743,-1.8789821,0.20506789,0.72582442,-0.65660197,0
1.6371447,-1.4716512,1.7704532,0.57952464,-0.52094245,0.62671387,0
-2.8528848,-0.030068925,-0.25250122,-0.99605119,-0.010498212,-0.088157833,0
2.2909367,1.1414728,1.2674208,0.80210096,0.39965159,0.44374838,0
-2.8731968,-0.24373215,-0.25326738,-0.9925999,-0.084201857,-0.087495983,0
0.13619392,2.4118133,1.7282994,0.045852609,0.81198877,0.58186913,0
-1.333848,-0.22210844,-2.5059702,-0.46842447,-0.078000665,-0.88005364,0
1.9413161,-0.69453102,2.166271,0.64913487,-0.23223642,0.72435498,0
0.29684561,-0.44247675,-2.8981626,0.10073711,-0.15015829,-0.9835164,0
0.30774868,2.3235707,-2.0044742,0.099785917,0.75340581,-0.64994037,0
0.46647978,-1.7159642,2.3094599,0.16004133,-0.58871835,0.7923367,0
-1.6642821,0.94983047,2.3447359,-0.54960042,0.31366509,0.7743085,0
-0.69234776,-1.0760829,-2.5910642,-0.23958372,-0.37237346,-0.89662564,0
-2.1150184,2.0399315,0.69927841,-0.70021385,0.67535502,0.23150834,0
0.41372684,1.4023615,2.6345129,0.13731182,0.46542984,0.87436861,0
1.9888314,-0.929703,1.8671046,0.69008917,-0.32259044,0.64785218,0
-2.4367371,1.3436372,-1.119764,-0.81238467,0.44795573,-0.37331852,0
0.44421315,2.7263565,-0.19167352,0.16042657,0.98461747,-0.069222458,0
-1.4258186,-2.3221827,1.1058619,-0.48483711,-0.78963786,0.37603867,0
2.6925471,0.31535786,-1.186891,0.90983278,0.10656189,-0.40105975,0
0.34646878,-2.2250445,2.0088503,0.11481328,-0.73733813,0.66569543,0
2.0163436,-0.7357834,1.8203083,0.716452,-0.26144031,0.64679629,0
-1.8894871,-0.43722114,2.1494472,-0.65265614,-0.15102249,0.74245012,0
0.92236757,-2.1508152,2.0951734,0.29364461,-0.68473279,0.66701865,0
-2.3691955,1.6130856,-0.67923492,-0.80431986,0.54762763,-0.23059395,0
1.506124,1.9429055,-1.3002981,0.54157275,0.69863081,-0.46756175,0
1.9823821,1.3939333,1.4415671,0.7030341,0.49434599,0.51123887,0
1.7726566,0.52636886,2.328717,0.59613144,0.17701399,0.78313053,0
-0.45233411,3.0064781,-0.3063027,-0.14802934,0.98388988,-0.10023959,0
2.4572551,1.5231624,-0.19877334,0.84795284,0.52561486,-0.068592966,0
1.3488301,2.5515423,-0.9505856,0.44389293,0.83969921,-0.31283274,0
-0.68076295,-2.7656889,0.033269916,-0.23899546,-0.97095042,0.011680069,0
1.1901715,-1.1803925,2.4643967,0.39932603,-0.39604497,0.82685375,0
-2.3551698,1.5396177,-0.93673217,-0.79416615,0.51916093,-0.31586725,0
-0.28396866,0.48151177,2.8469117,-0.09787719,0.16596557,0.98126221,0
-0.8906495,-2.4936626,-0.94906092,-0.31663194,-0.88651401,-0.33739761,0
-2.5594735,1.1055681,-1.5165658,-0.80643213,0.34833944,-0.47783554,0
1.6228092,1.4769754,2.2190852,0.52000016,0.47327036,0.71106613,0
-0.19660972,1.2814617,2.4291098,-0.071405396,0.4654057,0.88221246,0
2.7739761,-0.36103496,-1.0241275,0.93119347,-0.12119549,-0.34378842,0
-0.29541415,2.6885371,1.5171205,-0.095259428,0.86694735,0.48921162,0
-1.9598945,-0.95238292,1.6774595,-0.71270823,-0.34633046,0.6100018,0
-2.9322684,-0.6374414,-0.7474882,-0.9482013,-0.20612805,-0.24171364,0
-1.0698506,2.4748971,-0.9567374,-0.37394923,0.86506087,-0.33441231,0
1.2581853,2.3398068,-1.0633277,0.43968871,0.81767499,-0.37159327,0
0.51523668,2.6743801,-0.57790869,0.18505751,0.96055686,-0.20756741,0
-2.6306374,1.39583,0.3297354,-0.87798607,0.46586403,0.11005054,0
0.45177361,-0.18491979,-2.8482895,0.1563329,-0.063990116,-0.98562938,0
0.4708533,-0.73542082,2.7184668,0.16490632,-0.25756547,0.95208502,0
-2.135092,-0.85123521,-2.0432107,-0.69425428,-0.27679074,-0.66437787,0
-1.9517133,0.65376925,-2.0427978,-0.67301971,0.22544275,-0.70442885,0
-2.3806293,-1.357393,-1.4608231,-0.7665934,-0.43709809,-0.47040391,0
-1.4531891,-2.0858994,1.3601437,-0.50402308,-0.72347188,0.47175127,0
0.047293343,-1.2897226,2.6387002,0.016100371,-0.43906838,0.89830935,0
-1.0244106,1.9332793,1.7404863,-0.36641568,0.69150382,0.62254477,0
1.27537,1.6636721,1.8833497,0.45257255,0.59036386,0.66831774,0
0.5122962,2.8574963,-0.48430628,0.17406237,0.97088867,-0.16455226,0
-0.28766668,-1.5362066,2.5316069,-0.096688718,-0.51634014,0.8509078,0
-1.6258081,1.3168786,-2.2822461,-0.52510846,0.42532945,-0.73712677,0
-0.65993577,1.8483335,2.2677495,-0.22004534,0.61629814,0.75614589,0
-0.44983166,2.9540455,0.17842339,-0.15027344,0.98684603,0.059605181,0
-0.60547781,-0.45793578,-3.0436919,-0.19301566,-0.14598186,-0.97027534,0
1.265496,-2.6389248,0.70331579,0.42043158,-0.87672132,0.2336603,0
-0.48059523,-2.5673764,-1.0012345,-0.17180708,-0.91780651,-0.35792944,0
-0.22176999,-2.8459873,0.67102695,-0.075626887,-0.97052425,0.22883023,0
-1.9011278,-0.62258548,-2.2080417,-0.63807201,-0.20895721,-0.74108094,0
-2.7039247,0.080936439,-1.079996,-0.92830443,0.027786888,-0.37078142,0
2.8014462,0.49462712,-0.32778537,0.97829556,0.17272918,-0.11446623,0
-2.2801163,-1.2143592,-0.89388728,-0.83410394,-0.44423249,-0.32699862,0
1.9984394,0.74004072,-1.9609145,0.69007754,0.25554213,-0.67711985,0
-0.28559402,2.7752836,-1.2157683,-0.093842611,0.91192341,-0.39948624,0
1.8852128,1.9403032,-0.73981297,0.67217118,0.69181365,-0.26377976,0
1.410092,-2.3847618,-0.92761153,0.4826391,-0.81624413,-0.31749815,0
2.5316963,-1.0406882,1.1599115,0.85160214,-0.35006264,0.39016652,0
-0.5382095,2.6633718,-1.1909565,-0.18141393,0.89774102,-0.40143493,0
1.3014737,1.3034505,-2.137531,0.46124136,0.46194193,-0.75753951,0
-1.4622979,2.0121381,1.7691967,-0.47906685,0.65920132,0.57961071,0
-1.9417104,-1.7827134,1.5667077,-0.63321912,-0.58136797,0.51092547,0
-1.6577113,-1.4763201,1.91853,-0.5650028,-0.50317866,0.65389842,0
-0.16251685,0.20876099,2.9054461,-0.055704787,0.071555577,0.99587989,0
-0.74465173,-2.0792973,1.9415625,-0.25322363,-0.7070784,0.66024083,0
0.72885132,0.5832901,-2.6495044,0.25945616,0.20763934,-0.94316936,0
-0.22608909,1.3065956,2.5910478,-0.077676713,0.44890288,0.89019805,0
2.048758,-1.9541936,-0.43938631,0.7150501,-0.68204558,-0.15335302,0
-0.10786287,-0.98550725,2.8335795,-0.035930283,-0.32828304,0.94389582,0
0.53309625,1.2406549,2.4636943,0.18974875,0.44159517,0.87692028,0
-1.0198026,2.4641087,-1.3961509,-0.33878678,0.81859714,-0.4638128,0
2.3215985,-0.038111173,2.0051527,0.75674272,-0.012422627,0.65359479,0
1.971361,-2.4114718,0.032625351,0.63288349,-0.77417618,0.010474006,0
0.05277596,0.82930082,-2.6381347,0.01908084,0.29982886,-0.95380217,0
-0.83391827,2.7842996,0.077456616,-0.28681308,0.95761609,0.026639985,0
0.27064621,-2.5311925,-1.4331261,0.092645586,-0.86645889,-0.49057701,0
-0.17600885,-2.6578548,1.3959043,-0.05852763,-0.88380748,0.46417534,0
-2.800163,-0.29318526,0.85259968,-0.95187515,-0.099664114,0.28982899,0
1.5849104,-0.23608179,-2.4429998,0.54247463,-0.08080481,-0.83617687,0
0.57251459,-2.9854858,-0.18489064,0.18798693,-0.98029345,-0.060709409,0
-2.634073,1.4683523,0.31271249,-0.86879706,0.48430708,0.10314205,0
-0.44245595,-1.6333684,2.3540647,-0.15261385,-0.56338859,0.81197435,0
1.177343,0.92312449,-2.4467957,0.41051811,0.32187673,-0.85315317,0
0.28080162,2.229377,1.9230164,0.094944745,0.75379777,0.65021104,0
2.8820589,0.2187115,-0.34371689,0.99015629,0.07514023,-0.11808691,0
-0.71943349,2.545944,-1.4325016,-0.23912828,0.8462314,-0.4761408,0
2.6034031,-0.85418975,0.71468669,0.91940111,-0.30166015,0.25239417,0
2.8720491,-1.1615262,-0.12647931,0.92628402,-0.37461171,-0.040791702,0
1.910431,2.2607813,-0.32118961,0.64167553,0.75935119,-0.10788116,0
-0.72481042,-1.9373366,2.215096,-0.2391544,-0.63923275,0.73088074,0
2.5032246,-0.53162825,1.4524181,0.8507148,-0.18067257,0.49360079,0
-0.42301986,-2.1217289,1.9746068,-0.14441869,-0.72435677,0.67412943,0
-1.272352,-2.7074301,-0.74052781,-0.41286117,-0.87852478,-0.24029134,0
1.9569093,-0.22823898,-1.8776855,0.71902007,-0.083861023,-0.68991119,0
0.46935225,2.7435689,0.29067647,0.16771187,0.98034918,0.10386633,0
1.4028903,0.11061027,2.4973898,0.48939481,0.038586117,0.87120825,0
-1.1443465,-2.372654,-1.2465065,-0.39267409,-0.8141588,-0.42772952,0
2.6336532,1.5585973,0.063986316,0.86040229,0.50918651,0.020904033,0
0.0574353,-2.8570986,0.31228286,0.019979663,-0.99388123,0.10863191,0
2.7976599,-0.67942113,0.67736799,0.94592541,-0.22972117,0.22902697,0
2.7895591,0.8662346,0.54053044,0.93907112,0.29160732,0.181963,0
2.5207102,0.96865958,0.090246864,0.93292952,0.35850653,0.033400889,0
0.14217642,0.64956558,-2.8470953,0.048628714,0.22217143,-0.97379422,0
0.14620881,1.0686455,2.7506201,0.049486194,0.36169639,0.93098164,0
2.8936214,-0.018876133,-0.23149353,0.9967941,-0.0065024467,-0.079744846,0
1.491132,2.078289,1.9860762,0.46045277,0.64176339,0.61328864,0
-2.7556839,0.81448203,-0.62704813,-0.93694091,0.27692637,-0.21319827,0
1.5016547,-2.1667452,-1.2734869,0.51290995,-0.74008036,-0.43497622,0
-1.7064188,-1.6448317,-1.739598,-0.58041662,-0.55946857,-0.59170216,0
2.8467345,-0.89323729,0.78796101,0.92250347,-0.28945956,0.25534406,0
-2.2903919,0.31283131,-1.8899846,-0.76706052,0.10476834,-0.63296264,0
0.02206747,1.2357485,2.4415662,0.0080639208,0.45156866,0.89219993,0
-0.38806602,2.5212488,1.2181987,-0.13727674,0.89188123,0.43093267,0
-1.8650011,-2.2002285,-0.63128042,-0.63165057,-0.74518752,-0.21380612,0
1.7426084,2.2589247,-0.79471117,0.58840382,0.76274163,-0.26833975,0
1.1245624,0.71467268,2.5602832,0.38962731,0.24761276,0.88706172,0
-2.6078348,0.3001914,-1.5427883,-0.85647386,0.098589867,-0.5066877,0
1.7190378,-2.09023,0.68972176,0.61551946,-0.7484287,0.24696209,0
-0.32937643,-0.1085228,-2.9203608,-0.11199929,-0.036901478,-0.99302292,0
1.3884966,2.4898465,0.95313424,0.46191639,0.82830656,0.31708273,0
-1.6965882,1.0555073,2.1187234,-0.58255941,0.36243072,0.72750843,0
1.9315927,-0.4884192,2.1422265,0.66025347,-0.16695055,0.73225188,0
2.8421202,-0.22869381,0.35293135,0.98922902,-0.079599224,0.12284137,0
-2.5002372,-1.4519244,-0.90956068,-0.82490605,-0.47903505,-0.30009237,0
1.5265452,2.3541725,-0.35134563,0.53985316,0.83253837,-0.12425119,0
-1.7835966,-2.2580929,0.86483645,-0.59360486,-0.75152355,0.28782916,0
1.6438032,-2.1130564,1.1417379,0.56479537,-0.72602642,0.39229047,0
0.95560992,1.6359211,2.2185519,0.3275519,0.56074041,0.7604472,0
0.35769975,1.8540034,2.2235112,0.12262308,0.63557106,0.76224208,0
-1.0721048,-1.6025786,2.4515703,-0.34373876,-0.51381952,0.78602368,0
1.8891896,-1.820989,0.70292383,0.6954608,-0.67035437,0.25876489,0
2.9418178,-0.28765661,0.15710017,0.99385059,-0.097180627,0.053074021,0
0.38094115,2.4015684,-1.5783217,0.13140789,0.82843512,-0.54445136,0
2.1399117,-1.9266261,0.80204278,0.71591848,-0.64456272,0.26832756,0
-1.3358358,0.32126072,2.4168131,-0.48050866,0.11555953,0.8693431,0
-1.2513831,-2.4170012,-0.88148123,-0.43740579,-0.84483349,-0.3081111,0
-1.1416613,-2.4094334,-1.2239444,-0.38914946,-0.82128537,-0.41719669,0
-1.6846343,-0.56860769,-2.1949253,-0.59639126,-0.20129749,-0.77704358,0
-1.6335201,1.130932,2.4450817,-0.51849109,0.35896596,0.77608657,0
1.5022312,2.6217527,0.076469362,0.49699906,0.86738223,0.025299169,0
-1.1025822,-1.9521589,-1.8242353,-0.38146275,-0.67539269,-0.63113463,0
0.98755461,-2.713541,0.7971884,0.32965997,-0.90581912,0.26611298,0
1.0579542,0.78706867,2.7700641,0.34484658,0.25654981,0.90291917,0
-1.7256899,-1.1088083,2.0804853,-0.59066141,-0.37951791,0.71209919,0
-1.7642157,1.9741784,1.2654699,-0.60119945,0.67274934,0.43123966,0
0.57042783,2.5067089,-1.5809275,0.18900871,0.83058679,-0.52383327,0
0.30088761,-1.5039843,-2.4032936,0.10553678,-0.52752477,-0.84295887,0
-2.3121133,1.5747094,0.72777468,-0.79988915,0.54477996,0.25177792,0
2.3449478,0.30479026,1.7593135,0.79561275,0.10341169,0.59691405,0
-2.1917672,1.4942169,0.97166449,-0.77584517,0.52892524,0.34395128,0
1.0317969,-0.8344115,-2.6123543,0.3521421,-0.28477639,-0.89157069,0
1.6843399,-0.41282022,2.2701137,0.58960664,-0.14450856,0.79465795,0
0.8039397,1.8960123,-2.3229406,0.25896868,0.61075205,-0.74827611,0
-0.74548483,0.3445828,2.8608165,-0.25046811,0.11577298,0.96117759,0
0.18385832,-2.837256,-0.85778111,0.061909672,-0.95537466,-0.28883624,0
2.8003478,1.2861779,0.71023798,0.88551939,0.40671214,0.22458979,0
-1.5185537,-0.44166759,-2.6067824,-0.49805003,-0.14485662,-0.85496354,0
-0.34048229,1.9942209,2.1141727,-0.11635698,0.68150836,0.72250086,0
0.33520791,-2.3474715,1.6692832,0.11559242,-0.8094973,0.57563221,0
-0.50343275,0.3237319,2.6698613,-0.18399447,0.11831745,0.97578025,0
1.0956165,0.31841353,-2.6105988,0.38455734,0.11176197,-0.91631055,0
2.7195969,-1.2448461,-0.45804206,0.89879346,-0.4114064,-0.15137729,0
-2.4277086,1.4566004,0.97059464,-0.81115335,0.48668373,0.32429799,0
0.51956511,-2.0116477,2.1574116,0.1734671,-0.67162848,0.72029459,0
-1.3000391,2.6024213,0.17597215,-0.44607601,0.89295602,0.060380459,0
-2.1718416,0.22492991,-1.8782797,-0.75406516,0.078095846,-0.6521402,0
0.10345898,3.1368341,-0.085532837,0.032951813,0.99908555,-0.027242314,0
1.5107131,2.3094931,-0.76771861,0.52739012,0.80624431,-0.26801068,0
-2.0698931,-1.2652526,-1.4726372,-0.72936112,-0.4458327,-0.51890808,0
0.95798856,-1.000981,-2.4394894,0.34146839,-0.35679275,-0.86953914,0
-1.508249,1.3796356,-2.4877393,-0.46843067,0.42848602,-0.77263993,0
-1.7974658,-1.7411492,-1.6313927,-0.60170364,-0.58285159,-0.54611051,0
-1.0195431,0.81741273,2.6953168,-0.34037068,0.27289021,0.89982152,0
-0.46761939,-1.5981677,-2.3076818,-0.16432294,-0.56160116,-0.81092674,0
1.5057198,-0.26675364,2.5535872,0.50588053,-0.089621909,0.85793525,0
-0.78186381,1.8313271,-2.4087696,-0.25017571,0.58597618,-0.77074254,0
1.6235846,1.2339972,2.2358603,0.53651047,0.40777206,0.73883587,0
-0.67884678,2.702821,0.77309173,-0.2347315,0.93458086,0.2673195,0
-0.71771258,2.6940596,0.96245033,-0.24333604,0.91340435,0.32631287,0
-2.4973917,1.5804143,-0.60993361,-0.82757294,0.52370965,-0.2021167,0
-2.3635681,0.048441134,2.016201,-0.76070708,0.015590629,0.64890808,0
2.1555915,-1.7201266,-1.0780083,0.7279948,-0.58092791,-0.36406916,0
-0.57583904,1.0777923,-2.8823907,-0.18393187,0.34426349,-0.92068005,0
-1.903598,-2.2078094,-0.57711703,-0.64056921,-0.74293774,-0.19420245,0
1.5095665,-2.4987621,-0.97547925,0.49043542,-0.81181014,-0.31691849,0
-0.023907864,2.1330466,2.1451838,-0.0079027144,0.70507592,0.70908785,0
0.97145808,-0.73470855,-2.541127,0.34473902,-0.26072428,-0.90176368,0
1.537423,1.1220477,2.3274872,0.51134336,0.37319046,0.77411687,0
-2.1405039,-1.9796351,0.075646862,-0.73390907,-0.67875236,0.025936844,0
-0.64788145,2.9114034,0.45809188,-0.2147014,0.96480978,0.15180704,0
-0.57931024,0.84151071,-2.7499506,-0.19747463,0.28685322,-0.9374001,0
0.2558099,-2.6022158,1.3811703,0.086506248,-0.87998128,0.46706501,0
0.35611996,1.8255187,2.1894014,0.12396388,0.63545549,0.76212156,0
2.5793896,-0.42967424,1.0103877,0.92011076,-0.15327188,0.36042193,0
-1.1354737,-1.6727571,-2.0842431,-0.39104345,-0.57607734,-0.71778816,0
2.9198856,0.88873279,0.37678653,0.94945985,0.28898942,0.12251976,0
-0.46941727,1.523193,2.4149842,-0.16222897,0.52641016,0.8346101,0
1.1169405,0.88173485,2.7541828,0.36029333,0.28442267,0.8884213,0
-0.55070448,0.028293163,2.8388197,-0.19043127,0.0097836554,0.98165178,0
-0.33272517,-2.7590525,-0.94401634,-0.1133645,-0.9400509,-0.32164064,0
-1.2991477,-2.323766,-1.1882986,-0.44561115,-0.79705799,-0.40758958,0
-1.5936216,-2.2605386,-0.73686057,-0.55676711,-0.78976941,-0.25743863,0
0.96949005,-2.7818925,-0.011230011,0.32908604,-0.94429225,-0.0038119417,0
-1.2397307,1.7099208,-1.9079071,-0.43557355,0.60077262,-0.67033422,0
-2.9143107,0.28669193,0.25854152,-0.99133992,0.097521916,0.087946199,0
0.020957978,1.4922545,2.3319104,0.0075699212,0.53899515,0.84227479,0
0.68576199,-0.49898702,2.8402629,0.23134981,-0.16833909,0.95819587,0
-2.4068768,0.47708318,1.9786891,-0.76357341,0.151353,0.62773234,0
1.5120623,-1.1162304,-1.9939843,0.55182266,-0.40736499,-0.72769868,0
0.67359614,-2.6950085,-0.46139604,0.23920569,-0.9570443,-0.16384974,0
1.776661,0.82068002,2.2074685,0.60224217,0.2781893,0.74827474,0
2.4655709,-0.095134914,-1.983695,0.77878159,-0.030049559,-0.62657499,0
-1.9944071,-1.7649806,1.2955576,-0.67341405,-0.59594792,0.43744665,0
1.4225608,2.1396739,-1.6349564,0.46710518,0.70257294,-0.53684634,0
1.6148336,-2.099442,1.353056,0.54293984,-0.70587504,0.45492488,0
1.122244,2.6040742,1.152009,0.36666501,0.85081571,0.37638995,0
-2.6490858,-0.68908978,-1.2292,-0.88286024,-0.22965281,-0.40965524,0
2.6895411,1.2520514,-0.49033675,0.89444423,0.41638705,-0.16306829,0
0.679277,-2.6724946,0.40969533,0.24366581,-0.95865983,0.14696324,0
-2.1363192,-0.2319027,2.3369627,-0.67290956,-0.073045991,0.73610938,0
0.65834475,0.37978381,-2.8145702,0.22581758,0.13026892,-0.96542037,0
-0.088745654,-2.4465697,-1.7006702,-0.029771272,-0.82074434,-0.57051939,0
1.8119642,2.2633681,0.79639441,0.60264051,0.75277281,0.26487252,0
1.6341867,-1.8803619,-1.7183309,0.53998035,-0.62132341,-0.56778389,0
-0.1914686,-2.4904153,-1.2255893,-0.068817973,-0.89510942,-0.44050342,0
-1.4979448,-2.4558544,-0.98911285,-0.49243066,-0.80733144,-0.32515851,0
-1.6997051,-0.23028886,-2.4590075,-0.56692284,-0.076810986,-0.82018203,0
0.0044391765,-2.8063459,-0.20624483,0.0015775786,-0.99730909,-0.073294543,0
1.7893343,2.2783117,-0.50139427,0.60860944,0.77492619,-0.17054012,0
-2.8804271,0.23812513,-0.39514828,-0.98741478,0.081629656,-0.13545743,0
0.1808241,0.087488323,-2.8897419,0.06242384,0.030202596,-0.99759263,0
1.0359268,1.3801218,2.4527464,0.34542707,0.46019799,0.8178618,0
1.2911341,-1.503235,2.3762031,0.41729718,-0.48584861,0.76799369,0
2.5485671,1.5654079,0.077860691,0.85180837,0.52320677,0.026023403,0
-2.3014474,-1.7199202,-0.20362832,-0.79902452,-0.59712791,-0.070696391,0
2.0518126,-0.4184382,2.0025406,0.7081452,-0.14441621,0.69113988,0
2.8644955,-0.46070817,1.0569953,0.92766631,-0.14920025,0.34230769,0
1.3684089,2.3076348,0.81057948,0.48825806,0.82338059,0.28922054,0
-1.3509786,2.6403122,0.86860228,-0.43714666,0.85434639,0.2810604,0
-1.4847459,-1.0320823,-2.1619949,-0.5267877,-0.36618271,-0.7670756,0
0.48308158,2.7626681,-1.1545634,0.15927836,0.91088808,-0.38067478,0
1.7084615,-2.337486,-0.97234076,0.55938131,-0.76533532,-0.318362,0
1.316996,-1.210847,-2.1962862,0.46492279,-0.42745033,-0.77532774,0
-2.1870785,-0.68070304,1.5881469,-0.7846666,-0.24421847,0.56978559,0
0.51110405,-2.7929642,-0.80844295,0.17312679,-0.94606352,-0.27384469,0
-1.167686,-1.9086165,1.8112177,-0.40563196,-0.66301721,0.6291827,0
-1.2167048,0.82403374,-2.3686745,-0.43648982,0.29562005,-0.84975606,0
-1.0808696,-1.8701077,2.1436732,-0.35517818,-0.61452508,0.70441985,0
3.0122552,-0.31542715,0.37266847,0.98711771,-0.10336565,0.12212367,0
0.0010716034,-1.5055846,-2.4381654,0.00037395942,-0.52540666,-0.85085112,0
-2.7392561,1.2307677,-0.4347676,-0.90274614,0.40561041,-0.14328152,0
-1.6409649,1.4835485,-1.6405653,-0.59582341,0.53866661,-0.59567833,0
2.5399587,0.82500738,0.83680385,0.90757573,0.29479089,0.29900599,0
-2.60324,-0.8880676,0.53274196,-0.9291755,-0.31697831,0.1901518,0
-1.7703021,-0.19812277,-2.380785,-0.59537125,-0.066630773,-0.80068308,0
-2.0797837,-1.8179855,0.70717126,-0.72938228,-0.63756943,0.24800569,0
-1.4790602,1.8668636,1.8436183,-0.49106714,0.61982292,0.61210513,0
1.1189599,-2.0276513,-1.972239,0.36784875,-0.66657352,-0.64835715,0
2.5451756,-1.2726421,0.76140928,0.86402428,-0.43203059,0.25847965,0
-0.75034964,-1.4904704,2.6056974,-0.24250057,-0.48169535,0.8421182,0
1.4943397,2.0966642,-1.3074142,0.51749766,0.72608578,-0.45276439,0
-2.2674437,-1.4516947,-0.91817272,-0.79710406,-0.51033318,-0.32277724,0
2.474719,-0.81865895,-1.6149004,0.80706394,-0.26698387,-0.52665687,0
2.2891698,-1.9710125,1.076153,0.71385807,-0.61464345,0.33558914,0
2.5189347,1.0124855,0.86958706,0.88362789,0.35517412,0.30504617,0
0.068340272,-2.6281588,-1.6461142,0.022031978,-0.84728277,-0.53068489,0
2.5783885,-0.85617912,-0.55449969,0.92987531,-0.3087742,-0.19997591,0
-1.4276522,1.3005968,2.0364139,-0.50868577,0.46341476,0.72559327,0
2.6132011,0.12894426,-0.93081337,0.94100791,0.046432544,-0.33518383,0
2.5655231,0.47790584,-1.2161936,0.89107364,0.16598926,-0.422416,0
2.3387196,-0.23083064,1.7689091,0.79509979,-0.078476012,0.60137999,0
-0.074098863,0.026906364,-2.8161147,-0.026302142,0.009550686,-0.9996084,0
1.1780049,-1.0247662,-2.6495605,0.38304266,-0.33321524,-0.86153692,0
0.80106229,2.5460055,-1.0509424,0.27926117,0.88757205,-0.36637279,0
0.10721852,-2.6610096,-1.033204,0.037534039,-0.93154091,-0.36169422,0
0.67111999,0.62872106,2.7343793,0.23263374,0.21793678,0.94783181,0
1.4312167,-2.6360588,-0.76111919,0.46248987,-0.85182804,-0.2459515,0
0.56644046,2.6991942,-0.65076047,0.19989258,0.95252538,-0.22964849,0
-2.5556099,-0.81994319,1.2557402,-0.86246026,-0.27671218,0.42378375,0
2.3446949,-0.3518475,-2.012646,0.75391984,-0.11313404,-0.64715189,0
1.3177688,-0.38984421,-2.6837547,0.4370515,-0.12929583,-0.8900947,0
1.8386583,0.78629416,-2.2628875,0.60885453,0.26037395,-0.74933404,0
-2.7557554,0.62775123,-1.3274603,-0.88252944,0.20103705,-0.42511857,0
-1.1082048,-0.390856,2.7597189,-0.36946455,-0.13030753,0.92006302,0
2.0613689,-2.2658424,0.37445426,0.66797072,-0.73422879,0.12133902,0
1.696155,2.2248888,-1.2237015,0.55545944,0.72861004,-0.40073964,0
-1.5691255,0.066946507,-2.4995284,-0.53154731,0.022678388,-0.84672493,0
1.9341211,-0.85844469,2.3356452,0.61368239,-0.27237818,0.74108303,0
0.37096331,-0.85964912,-2.9461763,0.11999967,-0.27808037,-0.95303273,0
1.9249053,-0.88244784,-1.8489449,0.68473911,-0.31390977,-0.65771806,0
3.044214,0.66512519,0.61273623,0.95859593,0.20944202,0.1929452,0
-2.5795033,1.6538941,0.67153555,-0.82230884,0.52723783,0.21407595,0
-1.1699246,1.5483638,1.9790682,-0.42208147,0.55861348,0.71400154,0
-2.4614763,0.90031183,-1.4183955,-0.82595819,0.30210322,-0.47594827,0
-2.4020452,-0.6853388,-1.6653978,-0.8001014,-0.22828068,-0.55473024,0
-2.2570276,-0.47133571,1.6683248,-0.79305637,-0.16561419,0.58620268,0
1.2071021,2.3044181,1.6170499,0.39408472,0.75232738,0.52792114,0
2.2245207,0.72279668,-1.8150301,0.75137025,0.24413705,-0.61305773,0
1.8119895,-2.1440213,-0.62358564,0.63012892,-0.74559468,-0.21685518,0
2.0223866,1.8799273,0.57809782,0.71688926,0.66639072,0.2049223,0
3.0391731,-0.15657897,0.88169473,0.95922732,-0.049419634,0.27828151,0
1.525316,-2.4039638,0.65095198,0.52227753,-0.82313198,0.22288996,0
2.0512013,2.3248901,-0.36094096,0.65715218,0.74483502,-0.11563621,0
0.84226024,2.2780976,-2.0580287,0.26457128,0.71559739,-0.64646918,0
-0.66962111,2.5590048,-1.167294,-0.2316006,0.88507819,-0.4037298,0
2.3962855,1.3010831,1.2270284,0.80141085,0.43513265,0.41036591,0
-1.5472014,0.027763538,-2.7082944,-0.49602371,0.0089008277,-0.8682633,0
-3.0156171,-0.64777046,0.64854914,-0.95677638,-0.2055206,0.20576766,0
1.992402,0.16409639,-2.1886952,0.67213601,0.055357851,-0.73835546,0
1.3834764,-2.0192342,1.5818807,0.47470555,-0.69285005,0.54278308,0
1.1951258,-1.1128469,2.5524642,0.39441106,-0.36725762,0.84235489,0
0.18522705,-2.8927176,-0.40444574,0.063288234,-0.98838145,-0.1381907,0
-0.037193537,3.0526307,-0.1908458,-0.012159453,0.99797767,-0.062392037,0
-0.78272623,0.26417634,-3.0653236,-0.24655201,0.083213262,-0.96555042,0
1.7171514,1.854264,-1.2217468,0.61172658,0.66057223,-0.43524116,0
1.1478524,-0.31093234,-2.6922922,0.38999578,-0.10564276,-0.91473657,0
-1.01544,2.5678558,0.5930391,-0.35953626,0.90919924,0.20997702,0
-2.4913287,-0.25125131,-1.1038749,-0.91040981,-0.091815129,-0.40339059,0
-1.4802135,-1.4376413,2.0234413,-0.51218277,-0.49745193,0.70015019,0
1.030872,2.5689545,-0.78860074,0.35816377,0.8925516,-0.27398962,0
0.80278307,1.8676785,2.0539601,0.27779064,0.64628124,0.71074104,0
2.0282125,1.6341168,-1.6917535,0.65303963,0.52614945,-0.54470724,0
0.64486295,2.860373,-1.0277976,0.20754625,0.92059827,-0.33079204,0
-2.356282,-0.6209901,1.4515818,-0.83074945,-0.2189412,0.51178122,0
-2.4554265,1.0200522,-1.510563,-0.80294907,0.33356732,-0.49396926,0
-0.95129061,0.68521208,-2.8046782,-0.31293997,0.22540982,-0.92263699,0
1.0180483,0.53810591,-2.8668356,0.32952368,0.17417507,-0.9279424,0
-0.38497218,-2.6251559,1.532259,-0.12564789,-0.85680294,0.50010133,0
-1.7312334,2.125469,1.1648251,-0.58123869,0.71359807,0.3910746,0
0.21909745,-2.7416482,-0.22410379,0.07939741,-0.99352938,-0.081211627,0
0.92559373,-2.5437398,-1.3853816,0.304389,-0.83652943,-0.45559397,0
1.8896803,-2.3244238,-0.89620745,0.60434502,-0.74338186,-0.28661916,0
0.38868496,-2.8367817,0.38117456,0.13456075,-0.98207933,0.13196069,0
0.69016379,-2.883719,0.81117642,0.2245083,-0.93806547,0.26387337,0
-1.6589155,-1.1886268,2.2568357,-0.54520822,-0.39064619,0.74171668,0
2.5962684,-0.79332668,0.39144334,0.94656003,-0.28923485,0.14271429,0
1.9559319,2.1648417,-0.12138572,0.66981834,0.74136049,-0.041569129,0
0.52239096,-2.3229659,1.9548275,0.16957158,-0.7540502,0.63455003,0
0.13845593,2.7436688,1.3866782,0.044992689,0.89158362,0.45061547,0
-0.71479559,-2.7980494,0.79211378,-0.23869713,-0.93437392,0.26451656,0
2.7748826,0.7127651,0.068404399,0.96828228,0.24871606,0.023869395,0
-2.0661831,-1.9831184,-0.058527123,-0.72130954,-0.69231147,-0.02043196,0
0.65027392,-1.4874899,-2.3596621,0.22703722,-0.51934355,-0.82385451,0
-2.6461821,-0.68446958,-1.4501518,-0.855223,-0.22121462,-0.46867645,0
-0.20700468,2.4681857,1.666461,-0.069341846,0.82678592,0.55822641,0
0.85809177,-0.035964437,-2.6852698,0.30436653,-0.012756644,-0.95246953,0
-1.6787341,-1.9247863,-1.5559561,-0.56132865,-0.64360267,-0.52027464,0
-1.9671596,-1.8851668,1.3277237,-0.64903247,-0.62198025,0.43806094,0
-2.2975123,0.12255275,1.9645375,-0.75941008,0.040508069,0.64934999,0
-1.5763547,1.076964,2.3272841,-0.52367997,0.35777766,0.77314579,0
-0.11651802,2.6503196,1.0531639,-0.040822186,0.92854172,0.36897686,0
-0.26354468,0.48877716,-3.0056043,-0.086225152,0.15991552,-0.98335767,0
-0.93431324,2.4768436,-1.1413521,-0.32410225,0.8591879,-0.39592159,0
-0.86602151,-1.8930858,-1.8531553,-0.31072444,-0.67923027,-0.6649034,0
-2.7272732,0.67574394,-1.4478427,-0.86283231,0.21378632,-0.4580566,0
-0.50190014,0.66597819,3.0200918,-0.16019227,0.21256131,0.96392745,0
0.78643852,-2.7405829,-0.56563073,0.27055559,-0.94283277,-0.19459188,0
0.30488279,-1.7783784,-2.2565866,0.10552316,-0.61551559,-0.78102845,0
0.54361987,2.650605,-0.83173406,0.19204254,0.93636924,-0.29382357,0
0.53632891,3.0685921,-0.16874419,0.17191812,0.98362511,-0.054090288,0
2.3286052,1.4647516,-1.2504021,0.77059656,0.48472473,-0.41379085,0
1.301692,-2.8427436,0.31874132,0.41418231,-0.90452588,0.10141955,0
2.6643667,0.67043662,1.2735052,0.87984419,0.22139587,0.42054501,0
0.93052244,1.6194216,2.1887212,0.32340041,0.56282532,0.76068377,0
1.9298736,-1.9634027,0.72415644,0.67793095,-0.68970913,0.25438353,0
2.1654785,1.6491296,0.91906804,0.75375783,0.5740276,0.31990841,0
-1.2397304,2.0102835,-1.8274585,-0.41514421,0.67317665,-0.61195469,0
-0.62976235,1.4128472,2.503762,-0.21398266,0.48006171,0.8507362,0
-0.30544156,-2.8586361,0.57106757,-0.10420796,-0.97528517,0.19483198,0
2.4519851,1.7841887,0.34096199,0.8035273,0.58468723,0.11173488,0
-2.5295548,1.0278853,-0.57057029,-0.90684587,0.36849707,-0.20454955,0
-1.0136616,1.7499993,1.8388124,-0.37084869,0.64023823,0.67273051,0
2.0369451,1.3883604,-2.0131228,0.64001256,0.43622583,-0.63252753,0
2.5312002,0.24175078,1.7073606,0.82644421,0.07893233,0.55745822,0
-2.7787697,-0.80753934,0.59424824,-0.94064283,-0.27336058,0.20115928,0
0.032201871,1.0753055,2.7040107,0.011065352,0.36950129,0.92916435,0
-2.5460374,-1.2140182,0.17052844,-0.90099251,-0.42961714,0.060346656,0
0.92704368,1.7457615,-2.2876279,0.30663317,0.57743597,-0.75666618,0
-0.0036361457,-3.0679111,-0.64874619,-0.0011595755,-0.97836417,-0.20688671,0
-1.2861615,2.6364472,-0.70598578,-0.42627686,0.8738066,-0.23398726,0
2.2129142,1.399901,-1.3992515,0.74535441,0.47151509,-0.47129631,0
1.6576452,-0.1104295,2.3852279,0.57027107,-0.037990488,0.82057756,0
-2.5322335,-0.13701452,1.3339508,-0.88373381,-0.047817223,0.46554056,0
-0.31959149,-1.4458119,2.4668832,-0.11107899,-0.50251436,0.85740358,0
1.545529,-1.707047,2.0803246,0.4980289,-0.55007625,0.67036062,0
2.0278454,-1.9857326,1.0871278,0.66721553,-0.65335929,0.35769421,0
-2.364651,-0.268442,1.5594035,-0.83109099,-0.094347842,0.54807502,0
-1.1301018,1.5984772,-2.4960141,-0.35626072,0.50391448,-0.78685993,0
0.23814449,2.5907443,1.6933755,0.076716341,0.83458751,0.54550737,0
-0.88189989,2.0555019,-2.1489272,-0.28432524,0.66269547,-0.6928159,0
1.4907212,1.8270016,1.7569003,0.50695175,0.62131107,0.59747165,0
1.4979211,-2.0718472,1.3011593,0.52216357,-0.72222972,0.45357394,0
0.91707689,2.7305989,0.88434255,0.30435503,0.90621787,0.2934913,0
-1.9663777,2.3820403,0.27134821,-0.63417065,0.76822478,0.087511703,0
-2.1756673,-0.20442632,2.0933158,-0.71896708,-0.067554355,0.69175339,0
0.77709806,-2.5833836,-1.0889853,0.26711434,-0.88799447,-0.37432033,0
-0.01690729,-0.93150431,-2.9096982,-0.0055339141,-0.30489007,-0.95237142,0
-1.9305716,-1.2005081,1.8893032,-0.65310806,-0.40612921,0.63914704,0
-1.3881141,-2.4040258,-1.3381957,-0.45043558,-0.78009343,-0.4342373,0
-1.2104315,1.0497746,2.4057293,-0.41876915,0.36318722,0.83230257,0
0.93348467,-2.804074,-0.55296421,0.31047249,-0.93262148,-0.18391322,0
-2.0338473,-1.9806439,0.20600858,-0.71453619,-0.69584465,0.072375439,0
-1.7689444,0.86763746,-2.2972248,-0.58450121,0.286688,-0.75905758,0
0.079385787,-1.9862403,-2.038569,0.027880907,-0.69758308,-0.71596134,0
-0.17457969,2.8170323,0.28762504,-0.061535552,0.99294269,0.10138158,0
-0.8915357,0.046158958,2.9694459,-0.28752372,0.014886443,0.95765781,0
1.6300188,2.1784151,0.98162544,0.56355017,0.75314844,0.33937964,0
-2.2004988,1.0819623,1.5573261,-0.75752813,0.37246868,0.53611404,0
-0.61851192,2.6341431,-1.5332314,-0.19887878,0.84699285,-0.49300134,0
-2.9293988,-0.86638838,-0.012038812,-0.95893157,-0.28361014,-0.0039408756,0
-2.3821814,0.36195999,1.8592535,-0.78272241,0.11893057,0.61090201,0
-0.4711135,-2.1877556,1.7704563,-0.16509743,-0.76667899,0.6204403,0
-1.3461945,2.7624438,-0.52174193,-0.43189096,0.88625717,-0.16738713,0
2.5129287,0.38933194,-1.7994901,0.80666345,0.12497761,-0.57764584,0
-0.47587609,-1.7890413,-2.4136353,-0.15644374,-0.58814538,-0.79347992,0
2.269799,1.7594706,0.34153214,0.78482139,0.60836667,0.11809051,0
2.8084381,0.57654351,-0.091670461,0.97907114,0.20099325,-0.031957943,0
2.2648685,-1.2100387,-1.731198,0.73133105,-0.39072415,-0.55900764,0
