-2.1432867,1.0829337,0.33038643,-0.88420904,0.44676232,0.13630033,0
-0.21732685,1.0606102,-2.2524812,-0.086959988,0.42438683,-0.90129566,0
-1.5152886,-0.26799121,-1.9955711,-0.60131335,-0.1063472,-0.79190433,0
-1.8576127,-1.8981308,-0.264393,-0.69599736,-0.71117836,-0.099060923,0
2.218462,0.21891676,-1.6037685,0.807832,0.079716474,-0.58399719,0
-1.3926945,2.1149051,0.025684373,-0.54994905,0.83513659,0.01014228,0
-0.68025732,2.6200047,0.19626896,-0.25064918,0.96537304,0.072317719,0
2.0631399,-1.4253058,-0.91402972,0.77300477,-0.53402495,-0.34246314,0
2.7473445,-0.18248673,0.18602841,0.99553162,-0.066126145,0.067409515,0
1.4131181,2.3186367,0.52113628,0.51109558,0.83860296,0.18848422,0
-2.0050392,-0.27821246,1.4448912,-0.80619979,-0.11186555,0.58097166,0
0.8766309,1.0793967,-2.2746315,0.32881945,0.40487581,-0.85320181,0
-2.0172682,-1.6059666,0.47792181,-0.76924914,-0.61240661,0.18224694,0
0.96306521,0.21085612,2.426713,0.36767614,0.080500014,0.92646319,0
-0.61711472,2.4747477,-0.91475278,-0.22775048,0.91332287,-0.33759588,0
2.1841164,-1.2074858,-0.34034106,0.86713505,-0.47939444,-0.13512176,0
1.2230526,2.4095638,-0.27142105,0.45034847,0.88724172,-0.099941775,0
0.65589875,0.70606655,2.4823642,0.24631293,0.26515269,0.93221456,0
2.0277009,-0.078771248,-1.7029426,0.76542693,-0.029734975,-0.6428355,0
-1.8753259,-1.5151325,-0.90984678,-0.72775137,-0.58797234,-0.35308117,0
-1.0526496,-2.3507311,-1.1355866,-0.37395859,-0.83510798,-0.40342236,0
2.1025379,-1.2309382,-0.67922252,0.83128178,-0.48667687,-0.26854467,0
1.4140921,0.26259768,-2.2797043,0.5246141,0.097421132,-0.84574771,0
-2.7111809,0.08711078,-0.0045661647,-0.99948281,0.032113582,-0.0016833267,0
2.0843835,0.72544849,1.6900799,0.74983162,0.26097128,0.60798568,0
2.6122937,-0.64493179,0.26941741,0.96601987,-0.23849422,0.099629901,0
-1.9212762,1.7394611,0.66919142,-0.71777183,0.64984733,0.25000399,0
1.5561744,0.4108569,-2.2175951,0.56792378,0.14994168,-0.80930841,0
2.4637334,0.064209439,1.0428594,0.92063367,0.023993412,0.38968968,0
-0.42887446,1.9327321,-1.7586392,-0.16195826,0.72986841,-0.66412473,0
2.2390161,1.1596382,-0.81830269,0.84460676,0.43744135,-0.30868199,0
1.7574545,1.1876689,1.5253725,0.67267001,0.4545832,0.58384007,0
1.0628259,-1.0094849,2.3043675,0.38916034,-0.3696292,0.84375858,0
-1.2718762,-1.2346599,1.7836176,-0.50579131,-0.49099138,0.70929724,0
1.0906869,1.8381613,-1.1470146,0.4496358,0.75778222,-0.47285691,0
1.2746841,0.57983464,-2.3287876,0.46908173,0.21337824,-0.85699016,0
-1.0273134,1.5709574,-1.9186424,-0.38273832,0.58527964,-0.71481401,0
1.9024912,1.1560868,-1.0588615,0.77174002,0.46896324,-0.42952406,0
1.9093676,-0.30254418,1.7527527,0.73170567,-0.11594064,0.6716879,0
-1.4116386,0.71752179,1.9252825,-0.56627625,0.28783253,0.77232349,0
0.93887573,-2.2898185,0.71142191,0.36460498,-0.88923293,0.27627507,0
-2.2368023,-0.41621506,1.0527662,-0.89223784,-0.16602398,0.41993779,0
-2.0272083,0.35680115,1.9093286,-0.7220524,0.12708567,0.68006593,0
-2.2286551,-0.81165093,0.1227477,-0.93837094,-0.34174407,0.051682681,0
-2.3019042,-0.081029437,0.9794637,-0.91968244,-0.032373786,0.39132625,0
-0.14935513,-2.6246889,0.019735934,-0.056810427,-0.99835676,0.0075069861,0
-0.9746412,-1.7329677,1.4110293,-0.39976197,-0.71079963,0.57875234,0
0.3650052,2.3403492,-0.78905177,0.14620027,0.93741047,-0.31604916,0
0.87334371,2.3851657,0.051540673,0.34376147,0.93883777,0.020287199,0
0.43048063,1.5280577,-2.0610805,0.1654676,0.58735293,-0.79223555,0
1.1838303,2.3980641,0.076549582,0.44247916,0.89632225,0.028611867,0
-2.4236038,-1.2129345,0.017880226,-0.8942405,-0.44753817,0.0065972921,0
1.1472831,-2.054693,1.3084176,0.4260909,-0.76309496,0.48593482,0
2.6148715,0.7835927,-0.2214665,0.9547767,0.2861158,-0.080864795,0
-0.90109956,2.4367819,0.12539729,-0.34643301,0.93683511,0.048209727,0
1.6684359,0.30390608,1.9996278,0.6363374,0.11590903,0.76265317,0
-1.6164597,-0.98131698,2.0069001,-0.58621377,-0.35587743,0.72780812,0
0.00044519582,-1.549306,2.2440243,0.00016326066,-0.56815612,0.82292074,0
1.8943919,1.6336787,0.15060422,0.75592607,0.65189272,0.060096148,0
2.7280896,-0.042648342,-0.32531616,0.99284542,-0.015521195,-0.11839371,0
2.5868704,-0.18743153,0.88790935,0.94362247,-0.068370104,0.32388604,0
2.7171564,0.23176144,-0.21969409,0.99316436,0.084712535,-0.080301724,0
0.65349865,2.2149425,-0.83337218,0.26617953,0.90217835,-0.33944464,0
1.8259743,-2.1197579,0.41083714,0.64572704,-0.74961895,0.14528608,0
-0.3611778,-0.52006561,-2.626796,-0.13366897,-0.19247207,-0.97215593,0
-1.8608723,0.70084786,-1.8029004,-0.69329035,0.26110929,-0.67169225,0
2.575304,-0.76470751,0.43757519,0.94616109,-0.28095189,0.16076417,0
-0.98062927,-2.3590589,0.83267695,-0.36494881,-0.87794209,0.3098872,0
0.051967885,-1.0952679,2.4106181,0.019623253,-0.41357693,0.9102577,0
0.34865379,-0.57320905,-2.3051729,0.14522262,-0.23875524,-0.96015954,0
-1.6003454,1.6893541,-0.99773854,-0.63207352,0.66722846,-0.3940675,0
1.9983053,-1.3381047,1.1835543,0.74552482,-0.49921814,0.44155869,0
-1.9963157,-0.15416682,-1.7279067,-0.7548219,-0.058291629,-0.65333444,0
-0.06318526,1.4246008,1.8908627,-0.026679592,0.60152906,0.79840529,0
-0.30158147,-1.3953561,2.3555181,-0.10949285,-0.50660115,0.85519975,0
-0.60085762,2.0871556,1.1291914,-0.24545619,0.8526234,0.46128571,0
0.024456453,2.6148748,0.15766899,0.0093354573,0.99814361,0.060185023,0
2.4292283,0.11542659,-1.2630578,0.88645047,0.042120356,-0.46090284,0
-1.2872095,-2.0730348,0.027846143,-0.52747589,-0.84949332,0.011410861,0
0.59375304,-2.3493252,0.82931572,0.23182805,-0.91728282,0.32380238,0
1.1113869,-1.811698,-1.7309605,0.40545219,-0.66093719,-0.63148284,0
0.64052421,2.3840799,0.23898169,0.25825867,0.96125841,0.096357159,0
0.45625678,-2.4354842,-0.27453616,0.18301405,-0.97692317,-0.11012214,0
0.40925041,0.88529664,2.5151384,0.15170792,0.32817686,0.93235439,0
0.56520474,-1.9047016,1.7839265,0.21167472,-0.71332943,0.66809797,0
-1.5716054,-1.4431003,-1.731756,-0.57191044,-0.52514714,-0.63018954,0
-2.194669,1.2416842,-0.98520541,-0.81067586,0.4586584,-0.36391923,0
1.096697,0.29427576,2.5098119,0.39811519,0.1068259,0.91109413,0
-0.20322476,-0.8056947,2.3866739,-0.080415517,-0.31881133,0.94440073,0
0.90546012,-2.514137,0.83482558,0.32342654,-0.89803916,0.29819617,0
0.55035496,2.2443545,-0.55192202,0.23164606,0.94465554,-0.23230565,0
1.7146711,-1.2942249,1.0507214,0.71699452,-0.54118371,0.43936208,0
2.284765,-1.2685484,0.44527033,0.86186063,-0.47852269,0.16796517,0
2.5305777,-0.1585831,0.2571359,0.99294925,-0.062224913,0.10089511,0
-0.10217717,-0.92895871,-2.2186537,-0.042442024,-0.38586789,-0.92157722,0
-2.5807536,-0.91761214,-0.53873289,-0.92450058,-0.32871521,-0.19298971,0
0.34343961,1.1560869,-2.3100491,0.13179213,0.44363883,-0.88646227,0
2.2451298,-0.9572866,1.0337591,0.84702802,-0.36115888,0.39000994,0
1.2864105,-1.8080051,1.1951203,0.51041412,-0.71736932,0.47419259,0
-0.64155698,-2.0512121,1.4510754,-0.24739973,-0.79099649,0.55956942,0
1.9380897,1.5473474,0.53219151,0.76408792,0.61003858,0.20981543,0
-0.97116596,-1.0148265,-2.2309508,-0.36837953,-0.38494074,-0.84623706,0
-0.4616119,2.4272211,-0.5096764,-0.18297979,0.96213377,-0.20203222,0
-0.079843037,-2.3793309,0.82138413,-0.031704064,-0.9447844,0.32615513,0
-0.0045622936,0.065599911,2.5866878,-0.0017631893,0.025352392,0.99967706,0
1.808651,-0.92327601,1.3479263,0.74206334,-0.3788068,0.55303466,0
1.9804283,-1.5389887,-0.55632645,0.77087587,-0.59904683,-0.21654843,0
-0.60931236,0.043809429,-2.5997632,-0.2281581,0.016404519,-0.97348595,0
2.0393484,0.27169985,-1.5144662,0.7982806,0.10635393,-0.59282124,0
-2.0475793,-0.728365,1.1669935,-0.83006382,-0.29527035,0.47308502,0
-1.083111,-2.0792408,-0.38735324,-0.4558129,-0.87502086,-0.16301246,0
2.1756036,-0.11303981,-1.8059032,0.76884061,-0.039947346,-0.63819146,0
2.4485385,-0.57966018,0.18537095,0.97047317,-0.22974712,0.07347139,0
-1.8802021,-1.7212219,-0.073911294,-0.73729289,-0.6749512,-0.028983198,0
-0.73583877,-2.0038235,1.1561282,-0.30310962,-0.82542288,0.47623688,0
-0.090050071,-2.2932029,-1.0433401,-0.035719965,-0.90963978,-0.41385943,0
-1.9403734,1.826224,0.67605227,-0.70583814,0.66431469,0.24592353,0
0.43241146,-2.3816857,0.29870006,0.17729186,-0.9765085,0.1224692,0
1.9803594,1.7622149,0.82868403,0.71302682,0.63448405,0.29836699,0
2.3519478,0.92144251,-0.4470976,0.9168421,0.35919902,-0.1742887,0
-1.4295421,2.1289291,0.41665867,-0.55024999,0.81945354,0.16037753,0
-0.060410351,-0.37004441,2.5883908,-0.023097886,-0.14148641,0.98967075,0
-2.2006636,0.61679292,0.97239041,-0.886033,0.24833366,0.39150462,0
-0.58615267,0.98063046,2.5153272,-0.21217257,0.35496363,0.91048539,0
1.0135942,-2.1190557,-1.026144,0.39541841,-0.82667571,-0.4003143,0
-2.491055,1.1580853,-0.28259957,-0.90203649,0.41935456,-0.1023322,0
-1.6186258,1.1571019,-1.5212495,-0.6462605,0.46199018,-0.60738158,0
0.63707107,0.88941979,-2.1383841,0.26522502,0.37028268,-0.89025074,0
0.0046324255,0.87955135,2.6075413,0.0016833609,0.31961709,0.94754529,0
1.433071,1.216549,-1.6231099,0.57701826,0.48983684,-0.65353638,0
0.012722553,-2.1016443,1.550495,0.0048713223,-0.80469596,0.59366709,0
-0.49223781,0.36995912,-2.4979565,-0.19132876,0.14380005,-0.97093505,0
-1.681251,1.4554272,0.82764256,-0.70857126,0.6133967,0.34881392,0
-2.4636827,0.41914028,-0.78129303,-0.94092447,0.16007717,-0.29838979,0
-1.5932422,-1.023807,-1.8821354,-0.59671426,-0.3834447,-0.7049129,0
0.91711819,-0.20224398,2.5997522,0.3317861,-0.073165856,0.94051301,0
-2.2371838,-1.1031269,0.20271836,-0.89394605,-0.44079342,0.081003301,0
-1.528524,2.0038838,-0.36935201,-0.60007411,0.78669274,-0.14500169,0
-1.8279867,0.24803981,1.6198952,-0.74459159,0.10103375,0.65982997,0
-1.8053938,2.0051486,-0.14461978,-0.66816127,0.74208885,-0.053522579,0
-0.074354872,-0.2867088,2.4565535,-0.030050321,-0.11587258,0.99280941,0
-2.3331001,0.47511905,-1.0753574,-0.893031,0.18185934,-0.4116101,0
2.1780443,0.38383901,1.1249528,0.87779218,0.15469423,0.4533768,0
-2.2616143,-1.0452354,0.94605279,-0.84862339,-0.39220268,0.35498649,0
1.1031629,0.78720558,2.3550613,0.40599805,0.28971598,0.86673534,0
0.56775773,-1.9784682,-1.0862565,0.24394849,-0.85008848,-0.46673188,0
-1.7260187,-1.3166678,1.546207,-0.64760315,-0.4940145,0.58013773,0
-1.8027612,0.44131362,2.1152763,-0.6406197,0.15682288,0.75167346,0
0.0213439,0.97033697,2.415797,0.0081982333,0.37270832,0.92791229,0
1.0118997,-2.1225913,-1.311451,0.37582985,-0.78835201,-0.48708624,0
-0.88279969,2.1629918,-1.2953135,-0.33047888,0.80972284,-0.48490474,0
-2.1934094,0.80027831,-1.1055528,-0.84905368,0.30978221,-0.42795187,0
1.7115067,0.6255998,2.1032739,0.61501396,0.22480345,0.75579184,0
-0.40138632,-1.7441499,-1.9465652,-0.15179344,-0.65959024,-0.73613822,0
1.5862172,1.4144301,-1.2846258,0.63874429,0.5695684,-0.51729828,0
0.81677711,-2.5377357,0.17028643,0.30575201,-0.94997495,0.063744955,0
-2.2136464,1.2640905,0.52159274,-0.85075998,0.48582178,0.20046121,0
-1.0449842,1.4335097,1.5890878,-0.43876925,0.6019038,0.66722816,0
-0.6587767,0.72518939,2.5074074,-0.24471453,0.26938474,0.93142188,0
2.4138105,-0.00032798166,1.1496979,0.9028222,-0.00012267289,0.43001419,0
-0.051905498,-2.4949946,-0.71537447,-0.019994061,-0.96107501,-0.27556312,0
-1.0369558,-1.7397585,-1.4007547,-0.4210903,-0.70648664,-0.56882292,0
0.5372414,2.1985509,-0.93737358,0.21931101,0.89748561,-0.38265172,0
0.35515478,-2.4694278,-0.69892776,0.13707833,-0.9531197,-0.26976365,0
1.1696188,-2.1664999,-0.99401003,0.44051063,-0.81596345,-0.37437153,0
-0.79396957,0.43394402,-2.2472272,-0.32774189,0.17912732,-0.92763066,0
-2.2128928,0.038846225,-1.2509623,-0.87042809,0.015279929,-0.49205849,0
-0.73607326,-2.1960037,-0.99487191,-0.29200965,-0.87118268,-0.39467838,0
-0.65189874,1.5470726,1.8455955,-0.2612904,0.62008893,0.73974121,0
-0.6701889,-0.52131826,2.4554324,-0.25795442,-0.20065439,0.94509119,0
1.6696092,0.48235402,-2.0019796,0.62978643,0.18194678,-0.75515848,0
0.052366465,-2.3816819,-1.159411,0.019765316,-0.8989473,-0.43761066,0
-0.51357615,2.2890458,0.69411141,-0.20992422,0.93564731,0.28371799,0
-0.14319435,0.12149521,2.5963483,-0.055008508,0.046672724,0.99739444,0
-2.4193552,0.14066781,0.0092003802,-0.99830681,0.05804424,0.0037963844,0
1.146911,2.3086727,-0.12296107,0.44440255,0.89455938,-0.047644686,0
-0.0054268003,2.5470722,-0.38810089,-0.002106288,0.98858762,-0.15063246,0
-2.1230199,-0.93893367,0.79719174,-0.8649677,-0.38254341,0.32479447,0
-0.80605203,-1.2753404,-1.9838254,-0.32341126,-0.51170331,-0.79596788,0
1.349172,-1.039941,1.9467518,0.52155823,-0.40201676,0.7525686,0
2.2883222,-0.95330065,-0.82008249,0.87638932,-0.3650983,-0.31407794,0
1.1524096,-2.0718524,-1.3334485,0.42367125,-0.76169479,-0.49022833,0
-2.3474469,-1.1623408,0.3805382,-0.88684928,-0.43912432,0.1437647,0
0.26404899,-1.8054237,-1.530744,0.11086617,-0.75804269,-0.64271295,0
-1.3347515,2.3462524,0.65726691,-0.48043543,0.84451884,0.23657911,0
-0.22263882,2.4736526,1.1304728,-0.081587747,0.90648949,0.41427067,0
0.50942993,0.35214728,-2.5838251,0.19173086,0.1325354,-0.97245753,0
-0.90761536,0.711357,2.4652956,-0.33347762,0.26136804,0.9058032,0
-2.2984717,0.63187802,0.28121266,-0.95758665,0.26325229,0.11715849,0
1.6626164,1.0104662,1.5575259,0.66711932,0.40544623,0.62495214,0
1.0215555,0.85597372,2.0572484,0.41675189,0.34920144,0.83927119,0
1.0802151,-0.56172466,-2.1988525,0.42977655,-0.22348891,-0.8748399,0
0.88243014,2.1750917,0.95459479,0.34824139,0.85837615,0.3767204,0
0.41828448,2.5485148,0.75645667,0.15543149,0.94700968,0.28109384,0
-1.2286944,1.9076382,1.2188852,-0.47702515,0.74061656,0.47321683,0
0.69546258,-1.6016445,2.0193253,0.26051477,-0.59996331,0.75642323,0
1.4056256,-1.2999345,1.8334433,0.53025007,-0.49037978,0.69163758,0
0.2007753,-2.7055242,0.68694466,0.071741782,-0.96674806,0.24546164,0
-0.28195885,2.4722638,0.66238511,-0.10950091,0.96012288,0.25724241,0
-1.0784318,-2.3558195,-0.10370807,-0.41590101,-0.90853,-0.039995376,0
0.71070254,-1.6126596,1.9868423,0.26760322,-0.60722017,0.74811244,0
-2.5051053,-0.72285801,-0.8708117,-0.91131562,-0.26296371,-0.31678683,0
0.86185235,1.7519276,-1.6962777,0.33322635,0.67736483,-0.65584832,0
2.3471346,-1.3261071,-0.51111066,0.85540962,-0.48329771,-0.1862735,0
0.057494637,2.4228742,-1.0951235,0.02161862,0.91102749,-0.41177854,0
0.061224323,1.3381287,-2.4395497,0.021998474,0.48080221,-0.87655312,0
1.0842055,-0.60390604,1.9734396,0.46507728,-0.25904956,0.84652025,0
1.2061926,-2.3275506,-0.98370218,0.43078136,-0.83126479,-0.3513208,0
-1.8868721,-1.631264,0.10620239,-0.75580239,-0.65341645,0.04254026,0
2.0142832,1.1099693,-1.6096411,0.71754444,0.39540234,-0.57339954,0
-1.5830345,-1.7667843,1.1737835,-0.59810472,-0.6675294,0.44348085,0
-2.1020691,-1.2819909,1.0722064,-0.78275257,-0.47737807,0.3992601,0
-1.3501745,-0.91467649,2.1829119,-0.49550748,-0.33568183,0.80111802,0
-0.83788615,-1.0327461,2.2741749,-0.318046,-0.39201123,0.86323452,0
0.43429032,1.5167515,-2.2690899,0.15714219,0.54881644,-0.82104009,0
0.44919786,-2.3032398,-1.1029388,0.17324102,-0.8882848,-0.42536765,0
-1.3536208,-1.8952007,1.3133992,-0.50625759,-0.70880985,0.4912146,0
1.0884608,1.8369907,-1.5490434,0.41261506,0.69636869,-0.58721328,0
2.2593784,1.5468763,-0.0054345164,0.82513785,0.564928,-0.0019847162,0
-1.0631361,-1.0812095,1.9870619,-0.42533314,-0.43256384,0.79497182,0
1.9824021,-1.5295392,1.137797,0.72080249,-0.55614132,0.41370362,0
-1.2649369,-1.7356288,1.4584994,-0.48724657,-0.66855443,0.56180578,0
2.1055739,-0.15698655,1.3281063,0.84412569,-0.062935993,0.53243852,0
-0.23470552,-1.0935304,-2.5011268,-0.085665055,-0.39912713,-0.91288507,0
0.0084870644,2.2563431,1.4822173,0.0031437615,0.83579016,0.54904002,0
0.041832354,2.2948616,-1.0912265,0.016460102,0.90297705,-0.42937338,0
-0.40360066,-2.0735664,1.6311882,-0.15122022,-0.77691936,0.61117005,0
2.5356958,-0.91962439,0.42949042,0.92838889,-0.33670011,0.15724841,0
-0.98867565,-0.48049799,2.5283079,-0.35861385,-0.17428692,0.91707152,0
2.0570755,-0.96230733,1.2889844,0.78774828,-0.3685115,0.4936111,0
1.2559907,-2.318418,0.28027466,0.47366786,-0.87433773,0.10569911,0
2.5294769,-0.7034179,0.6086688,0.93854898,-0.26099947,0.22584333,0
2.3867612,-0.40030938,-0.06179991,0.98590338,-0.16535646,-0.025527792,0
1.5387515,-1.977471,-0.12802413,0.61331916,-0.78818506,-0.051028159,0
-0.39717066,-2.2569919,-1.0467708,-0.15764357,-0.89583725,-0.41548058,0
-1.3518049,-0.39230788,-2.3227675,-0.49772325,-0.14444448,-0.85522354,0
-2.3552511,-0.90230465,0.37214273,-0.92381603,-0.35391703,0.14596805,0
2.4238663,-0.30833426,0.63162994,0.96043456,-0.12217459,0.25027752,0
0.95995516,0.3082948,2.5160336,0.35415745,0.11373959,0.9282434,0
-2.4191782,0.77878356,0.20462081,-0.94882166,0.30544534,0.080253966,0
-1.7568173,1.9468867,-0.85075974,-0.63724089,0.70618373,-0.30859149,0
-0.36747316,-2.163172,1.1217741,-0.14911926,-0.87780726,0.45521182,0
0.74045974,-1.5449784,-1.8836745,0.29080224,-0.60676247,-0.73977929,0
-1.2562697,-2.1956,1.0947535,-0.45577615,-0.79656631,0.39717788,0
-2.2935712,-0.79012841,-0.30825084,-0.93792748,-0.3231132,-0.12605536,0
1.1429267,2.1971109,0.63383013,0.44707978,0.85944605,0.24793597,0
-0.94535869,2.2769825,-0.2936908,-0.38075352,0.91707951,-0.11828717,0
0.68893719,-1.1857082,-2.4057887,0.24878745,-0.42818028,-0.86877298,0
-0.84760857,-1.45108,-2.0814507,-0.31684342,-0.54242623,-0.77806431,0
1.9965076,1.4450425,0.50867617,0.79335624,0.57421941,0.20213367,0
-0.47350025,1.6016037,2.0308533,-0.18007976,0.60911566,0.77236617,0
1.6246688,-1.412815,-1.2610724,0.65112418,-0.56621879,-0.50540435,0
-1.3740602,0.4629091,2.3323023,-0.50033814,0.16855964,0.84926403,0
-0.91101056,2.2760971,0.41496608,-0.36638054,0.91537654,0.16688664,0
-2.0512047,-1.5515994,0.87008518,-0.75547105,-0.57146341,0.32045761,0
0.17938785,-1.5996219,-2.0995462,0.067806765,-0.60464066,-0.79360688,0
0.73700684,2.5554245,-0.75769264,0.26650944,0.92406839,-0.27398965,0
1.5290483,1.8446906,-0.33724752,0.63193482,0.76238543,-0.1393798,0
2.3329966,0.97733498,-0.10157583,0.9215951,0.38607305,-0.040125128,0
0.59540349,2.5883005,-0.71309119,0.21651317,0.94121242,-0.25930926,0
-0.95661694,1.7183514,1.7938535,-0.35937256,0.64553356,0.6738975,0
1.2990811,-2.1840279,0.66834092,0.4943988,-0.83118814,0.25435436,0
0.15603375,-2.4756825,-0.97590768,0.058534741,-0.92873132,-0.3661035,0
0.27589813,-2.5789869,-0.25813225,0.10584939,-0.98943841,-0.099033445,0
2.5698996,-0.87976074,0.32274547,0.9394896,-0.32161805,0.1179875,0
-2.4096961,-0.28662997,-0.64338243,-0.95983773,-0.11417135,-0.2562741,0
-1.0841366,0.22734846,2.1930025,-0.44126412,0.092535131,0.8925935,0
-0.96974754,-0.77501744,-2.08884,-0.39909282,-0.31895301,-0.85964751,0
0.58922666,2.1628473,-1.5216558,0.21747963,0.79829252,-0.56163299,0
1.8840197,-1.7719084,0.46756548,0.71682858,-0.6741727,0.17789851,0
0.65067434,1.9892261,1.4985555,0.252776,0.77278072,0.58216351,0
-1.7982837,-1.4582201,0.94981033,-0.71860272,-0.5827117,0.37954873,0
-2.594697,0.87923461,0.080372393,-0.94669449,0.3207953,0.029324464,0
-1.7080209,1.1113756,1.7363987,-0.63798016,0.41512114,0.64857984,0
0.57611495,2.2578671,-1.1022073,0.22349632,0.87591022,-0.427587,0
-1.0330646,1.2975429,-1.9717141,-0.40095219,0.50360131,-0.7652601,0
-1.5881251,0.65428287,-1.8847178,-0.62279946,0.25658369,-0.7391113,0
2.0035081,0.79996473,-1.4950045,0.76332968,0.30478382,-0.56959158,0
-0.42653477,1.3175569,2.1475079,-0.16692007,0.51561254,0.84040546,0
-2.2752724,1.458131,-0.55077809,-0.82498258,0.52869833,-0.19970459,0
2.0140378,-1.4411762,0.71034777,0.78172004,-0.55937195,0.27571133,0
1.0535488,1.9163861,1.442974,0.40210983,0.73143047,0.55074245,0
2.1610863,0.72878802,0.64239687,0.9120782,0.30758217,0.27112114,0
2.4668705,0.16184859,-0.57485783,0.97192425,0.063766852,-0.22648868,0
-2.0970135,1.5092591,-0.23025693,-0.8084386,0.58184808,-0.08876843,0
-1.6108146,-0.72302306,-2.1078503,-0.58582747,-0.26295191,-0.76659143,0
0.32419914,-2.2693799,-0.87668872,0.13209231,-0.92464048,-0.35719973,0
2.665313,0.1158967,0.61547863,0.97348529,0.042330388,0.22479889,0
2.132621,-0.56502223,1.1282659,0.86063433,-0.22801873,0.45531967,0
2.0624011,0.96472132,-1.1431473,0.8095026,0.37865791,-0.44869101,0
-1.7352619,-1.629862,1.3723133,-0.6314919,-0.593135,0.49940857,0
-0.21899059,2.4222829,0.22177242,-0.089667484,0.99182355,0.090806529,0
-1.6982834,-0.72579336,-1.9893283,-0.62563992,-0.26737899,-0.73285949,0
1.0353434,-0.0039245011,-2.4733136,0.38613859,-0.0014636702,-0.92243963,0
0.25253448,0.85817426,-2.5809758,0.092449076,0.3141647,-0.94485646,0
-1.0216517,-1.2665436,-1.7436628,-0.42836401,-0.53104371,-0.73109299,0
0.62081522,-1.6242129,1.8216316,0.24652183,-0.64496475,0.72335845,0
-0.28243148,1.7411973,1.7095404,-0.11497625,0.70883155,0.69594413,0
0.35844707,0.87688357,2.2541823,0.14659525,0.35862193,0.92190027,0
-0.81632948,-1.7078961,-1.714124,-0.31966195,-0.66878563,-0.67122436,0
1.9869516,1.5493447,-0.31589216,0.78246862,0.61013746,-0.12439945,0
-1.8869225,-1.05334,1.5223986,-0.71381712,-0.39847535,0.57591879,0
-0.13929693,-0.0069218446,-2.5902166,-0.053700317,-0.002668438,-0.99855357,0
2.0447137,0.34027275,1.2500658,0.84471363,0.14057373,0.51642811,0
-1.4462839,1.8188328,-1.137514,-0.5590058,0.70300025,-0.43966255,0
-2.6140773,-0.55381095,0.36374757,-0.96934634,-0.20536295,0.13488406,0
-1.1355295,2.117753,1.2679787,-0.41793546,0.77944613,0.4666838,0
1.0526429,1.68537,-1.4366447,0.42929357,0.68733513,-0.58589888,0
0.72318166,2.5866439,0.013427365,0.26925415,0.96305621,0.0049992604,0
-1.3370631,-2.1120193,-0.69175547,-0.51551914,-0.81431186,-0.2667138,0
1.1993418,0.16329367,-2.5317025,0.42739418,0.058190893,-0.90219069,0
1.2983147,-0.037237991,-2.2751491,0.49557927,-0.0142141,-0.86844641,0
1.8665214,1.49261,-1.1954994,0.69847888,0.5585559,-0.44737291,0
-0.72751594,1.1982069,2.0447738,-0.29345632,0.48331776,0.82479537,0
1.5501354,1.0923948,2.1022241,0.54752231,0.38584405,0.74252516,0
1.2438459,1.0930982,-1.8663576,0.49852419,0.43810558,-0.7480222,0
0.49404702,-1.9579848,-1.7740463,0.18380128,-0.72843295,-0.66000193,0
0.64952368,0.608455,-2.3486755,0.25860459,0.2422533,-0.93511331,0
1.69601,-1.4953371,1.3427347,0.64493972,-0.5686301,0.51060015,0
-2.6346524,0.043142077,0.79488713,-0.95725828,0.015674975,0.28880936,0
-1.9290099,1.6396893,0.23452182,-0.75868517,0.64489454,0.092238113,0
-0.23128615,-1.6654708,-2.1485035,-0.084774517,-0.61045367,-0.78750217,0
1.7255852,-0.058785345,-2.2174282,0.61400998,-0.020917419,-0.78902102,0
1.1631144,1.3376743,2.1649957,0.41567874,0.47806367,0.77373528,0
0.65812457,-0.5218823,-2.3886771,0.25991789,-0.20611075,-0.94337749,0
-1.0363917,-2.1759493,-0.45444676,-0.42256376,-0.88719088,-0.18528971,0
2.2773621,1.0376788,-0.95186859,0.85054338,0.38754964,-0.35550144,0
-1.2391393,2.0910807,0.12331594,-0.50914156,0.85918999,0.050668452,0
-2.6079974,-0.50678754,0.17480302,-0.97952026,-0.19034094,0.065653093,0
-0.95943034,-2.5444477,-0.2055196,-0.35181612,-0.93303043,-0.075362541,0
-2.2911162,0.26368254,1.3836904,-0.85187846,0.098041937,0.51448113,0
-2.4138682,-0.31831709,0.55246758,-0.96683937,-0.12749723,0.22128275,0
1.2760644,1.5386305,-1.3256291,0.5320161,0.64148498,-0.55268055,0
0.44594869,-2.5803294,-0.83954906,0.16217053,-0.93834424,-0.30530444,0
-0.40410021,2.1159379,1.0843958,-0.16755669,0.87735552,0.44963539,0
-0.47837347,-0.63817507,-2.5370028,-0.17987916,-0.23996815,-0.95397002,0
1.2635502,1.3183702,-1.7184166,0.50390601,0.52576834,-0.6853075,0
-1.8564054,-0.35857159,1.6003916,-0.74942428,-0.14475408,0.64607245,0
2.2629826,-0.43114585,-0.91545618,0.91289109,-0.17392497,-0.36929658,0
-1.2552277,2.0983644,1.1455663,-0.4648656,0.77711588,0.42425323,0
1.0626915,-0.74993807,2.4602304,0.38186672,-0.26948217,0.88405722,0
-2.1529274,-1.7782042,-0.38120806,-0.76392859,-0.63096464,-0.13526501,0
-1.8286769,0.14774761,-1.7155761,-0.7280373,0.058821633,-0.68300927,0
-1.3445623,-2.4555211,-0.38338524,-0.47583824,-0.86900461,-0.13567936,0
-2.0997899,0.90904647,0.81244981,-0.86479545,0.37438947,0.33460629,0
2.2185092,1.3541,0.24821678,0.84969914,0.51862645,0.095068157,0
-1.023993,2.1860795,1.2532473,-0.37647477,0.80372012,0.46076095,0
-0.37376863,1.658089,-1.9108354,-0.14615226,0.64835149,-0.74718124,0
-1.8505143,1.5851707,-0.26701158,-0.75493699,0.64668727,-0.10893022,0
0.88779163,2.2713315,-0.6769225,0.350784,0.89744794,-0.26746544,0
2.3305452,0.004999781,-1.0454022,0.91240889,0.0019574151,-0.40927514,0
-1.4053015,1.4925643,1.5628201,-0.54515642,0.57900816,0.60626233,0
-1.3334601,2.2032347,0.58954781,-0.5047248,0.83394104,0.22314833,0
-1.2447512,1.5102128,-1.777438,-0.47082722,0.57123804,-0.67231601,0
-0.79410458,-1.2597435,2.3249028,-0.28762224,-0.45627522,0.84207267,0
-0.31773642,-1.1602805,2.2009571,-0.12667552,-0.4625819,0.87748003,0
-2.2686996,1.3507289,1.022537,-0.80125314,0.47704673,0.36113682,0
0.27964407,-1.307776,-2.3917491,0.10205075,-0.4772478,-0.87282306,0
-0.8297084,2.3410363,-0.57626504,-0.32541466,0.918163,-0.22601326,0
-2.3079965,0.81278729,0.098161265,-0.94246292,0.33189908,0.040083837,0
1.2276418,-2.1525452,1.2638232,0.44132936,-0.77382618,0.45433632,0
-1.508606,-1.7830727,-1.130627,-0.58137125,-0.68714243,-0.43570957,0
-0.81422764,2.3824685,-0.1083334,-0.32309455,0.94538981,-0.042987891,0
2.3128147,-0.56613028,-0.84572387,0.91530323,-0.22404772,-0.33469769,0
-2.491993,0.047069144,0.17333724,-0.9974125,0.018839279,0.069377698,0
0.36784747,0.52448201,-2.6280222,0.13598919,0.19389527,-0.97155106,0
0.27745661,0.42055184,-2.4044461,0.11294032,0.17118806,-0.97874367,0
2.0295634,-0.6295976,-1.7456992,0.73799932,-0.22893722,-0.63477927,0
2.3014002,1.0218629,0.4236109,0.90129143,0.40018955,0.16589765,0
0.93066442,2.0051501,1.5331094,0.34594589,0.74535292,0.56988633,0
1.7938946,-1.511634,0.56989127,0.74309093,-0.62616915,0.23606795,0
-0.069948144,2.6867955,0.39425161,-0.025749668,0.98907685,0.14513391,0
-1.6374931,0.022426603,1.8476752,-0.66323048,0.0090834005,0.74836004,0
-0.4261955,2.068903,1.6577083,-0.1587235,0.77049977,0.61736286,0
0.099388309,-2.4996321,1.091041,0.036416948,-0.91589212,0.39976916,0
1.4093815,-2.1572773,0.64116019,0.53075528,-0.81240338,0.24145283,0
-1.3182186,-1.8366846,1.6493499,-0.47104883,-0.6563161,0.58937442,0
1.4481317,1.4939839,1.3993356,0.57753587,0.59582239,0.55807531,0
2.1912768,-1.3947935,0.042328976,0.84348941,-0.53689867,0.016293718,0
1.634717,1.9885391,0.14804761,0.63398731,0.77120906,0.057416856,0
-1.1290046,0.13292481,-2.3055432,-0.43920335,0.05171017,-0.89689827,0
2.2210186,-1.569734,-0.85313946,0.77919275,-0.55070466,-0.29930416,0
-1.2142488,1.4220285,1.67984,-0.48306233,0.56572294,0.66828758,0
-2.0254326,0.47852001,1.5866419,-0.77394634,0.18284924,0.60627824,0
0.10408928,-0.022527134,2.5844398,0.040241219,-0.0087090563,0.999152,0
0.56258655,1.8308593,-1.5406618,0.22887176,0.7448312,-0.62677288,0
2.3576136,-0.25255707,-1.2098109,0.88568467,-0.094878115,-0.45448965,0
0.81744307,1.3862464,-1.8654764,0.3317928,0.56266499,-0.75718009,0
2.2401116,-0.29714906,-0.80056578,0.93441027,-0.12394879,-0.33393732,0
1.718696,-1.5310391,-1.3349515,0.64592129,-0.575396,-0.50170225,0
-2.5886352,0.8010788,-0.40903133,-0.94460225,0.29231653,-0.149257,0
0.88952225,0.071339205,2.4871628,0.33663324,0.026997805,0.94124871,0
-1.0525976,-0.83191115,-2.3442028,-0.38970867,-0.30800277,-0.86790633,0
1.2764072,2.2933161,-0.77114666,0.46660149,0.83834118,-0.28189921,0
0.77138627,-1.0881876,2.4566569,0.27594683,-0.38927567,0.87881613,0
-1.0345018,-1.9544312,-1.1498388,-0.41506028,-0.78415215,-0.46133554,0
-0.092901886,2.4388535,1.4778075,-0.032560989,0.85478866,0.51795369,0
0.93435758,-2.0463719,-1.4590697,0.34846756,-0.763192,-0.54415834,0
-1.5066965,1.3118581,1.5696689,-0.5930329,0.51634485,0.61781871,0
1.0551695,-0.70103288,-2.1229722,0.42681158,-0.28356484,-0.8587333,0
0.83997005,2.2269664,-0.874264,0.33127072,0.87827986,-0.3447957,0
0.014659648,-0.13433321,-2.4801898,0.0059019425,-0.054082256,-0.998519,0
0.071837746,-1.6535861,2.1072979,0.026809212,-0.61710376,0.78642493,0
-0.96467328,0.8440308,-2.4023969,-0.35427418,0.3099685,-0.8822751,0
-0.52653432,-2.3481498,-0.82328713,-0.20702045,-0.92323518,-0.3236964,0
0.18252778,1.6039088,2.2223783,0.066451527,0.5839231,0.80908465,0
0.59025949,1.1760176,-2.2604914,0.22567081,0.44962066,-0.86424178,0
0.10329327,-2.1258659,-1.6501223,0.038354542,-0.78937012,-0.6127184,0
2.4609439,-0.95428473,-0.79616004,0.89263266,-0.34613779,-0.28878286,0
0.7844708,2.189605,1.0900518,0.30540165,0.8524332,0.4243671,0
2.2919605,-0.10493915,1.2334843,0.87986028,-0.040285069,0.47352204,0
-1.6920543,-1.3626847,-0.96792841,-0.71142191,-0.57293892,-0.40696418,0
-0.52550626,-0.80196482,-2.5665205,-0.19180681,-0.29271263,-0.93676543,0
0.83886081,0.5869118,-2.3473532,0.32756457,0.22918166,-0.91661185,0
0.92788982,2.2556753,-0.97880667,0.35305968,0.85827863,-0.37243339,0
-1.671505,-2.0569122,0.81061971,-0.60307699,-0.74213141,0.2924706,0
-1.7075404,2.2049484,-0.33144835,-0.6080026,0.78511429,-0.11801856,0
-0.48267099,-2.5787704,-0.47171408,-0.18107255,-0.96741778,-0.17696209,0
-2.3075273,1.1706356,-0.72528368,-0.85870701,0.43563211,-0.26990196,0
0.13265868,1.2557213,2.021071,0.055666447,0.52692783,0.84808505,0
-0.71441221,1.6309111,-1.7041487,-0.28986645,0.66172779,-0.69144326,0
-1.0105382,2.1124964,0.57504106,-0.4190796,0.87607193,0.23847488,0
-2.6547921,0.06293115,-0.74717373,-0.96235186,0.022812299,-0.27084759,0
-2.0936675,-0.33504102,1.5433234,-0.7983458,-0.127756,0.58849162,0
-1.3442601,-2.0605228,-0.34049007,-0.54123473,-0.82962108,-0.13709033,0
1.9076933,0.75509298,-1.4352335,0.76189852,0.30157062,-0.57320654,0
0.8831445,2.3397257,-0.68636268,0.34054473,0.9022094,-0.26466471,0
-0.33329108,-2.6885648,0.011742226,-0.12302332,-0.99239433,0.0043342523,0
1.5091606,1.0178407,-1.5891504,0.62455046,0.42122284,-0.65765345,0
0.39295453,-1.2212831,2.3285637,0.14780505,-0.45937073,0.87586081,0
0.15191105,-2.5994613,-0.093566038,0.058302276,-0.99765295,-0.035909913,0
1.7118011,0.49176991,1.816242,0.67293501,0.19332223,0.7139923,0
2.5161984,0.4940038,1.1287092,0.89811099,0.17632562,0.40287209,0
0.44891047,-1.253372,-2.2662725,0.17079271,-0.47685853,-0.8622272,0
-2.4230285,1.0309005,0.77594626,-0.88265401,0.37553352,0.28265953,0
2.0477977,1.3162905,0.6986658,0.80856472,0.519732,0.27586538,0
2.1270077,1.1834478,1.2878174,0.77240175,0.42975736,0.4676581,0
2.3197513,-0.084591597,1.2193421,0.88470578,-0.032261509,0.46503219,0
-0.44733667,-2.1175637,1.4273846,-0.17254315,-0.8167699,0.55055946,0
-0.99861896,-0.98277593,2.2641277,-0.37505609,-0.36910585,0.85034925,0
1.9900655,-1.0834011,-0.59298325,0.84966832,-0.46256348,-0.25317714,0
0.81856096,-0.74713677,2.207458,0.33139506,-0.30247891,0.89369112,0
0.57675016,-2.4538643,-0.8822906,0.21595635,-0.91881657,-0.33036187,0
0.42380393,1.2976092,-2.1987417,0.16375585,0.5013901,-0.84958345,0
-0.16021982,0.92431647,2.4146397,-0.061849795,0.35681468,0.93212545,0
0.3032333,1.0490196,-2.3181632,0.11833614,0.40937763,-0.9046582,0
-1.8776263,-0.51538211,1.6418387,-0.73721832,-0.2023561,0.64464027,0
-0.32507637,0.0042605894,-2.6385579,-0.12227761,0.0016026224,-0.99249464,0
-2.4452262,0.43807575,-1.0465591,-0.90711331,0.16251436,-0.38824534,0
0.058306668,-2.2360599,1.3942158,0.022121435,-0.84835672,0.52896273,0
-1.3739166,0.43222174,-2.3794072,-0.49397048,0.15539864,-0.85547906,0
-1.8086891,-0.035885539,-1.8001829,-0.70870137,-0.014061085,-0.7053684,0
-0.85295796,1.1019497,-1.961383,-0.35451233,0.458,-0.81520367,0
1.2566185,-1.4926728,1.5052985,0.50991613,-0.60570329,0.61082661,0
-0.61003536,0.45458001,2.3845658,-0.24372302,0.18161507,0.9526884,0
-2.2130759,0.41976425,1.1785197,-0.87053341,0.16511805,0.46358138,0
-0.3677198,-2.6450915,0.46585944,-0.13564701,-0.9757396,0.17184944,0
-1.0971818,2.3850155,-0.4648636,-0.41152728,0.89456362,-0.17435949,0
2.3660452,-0.54075277,0.77184862,0.92901641,-0.21232401,0.30306268,0
-0.48435965,0.63630289,2.5180919,-0.18332925,0.2408395,0.95309329,0
-1.3337477,0.85337204,-2.0150852,-0.52043581,0.33299056,-0.78629756,0
0.86556488,0.63929623,-2.4335465,0.32529804,0.24026138,-0.91457951,0
-1.1589148,-1.2980754,1.7880903,-0.46448278,-0.52025712,0.71665072,0
0.5364992,-2.4852879,-1.1101241,0.1933803,-0.89581811,-0.40014249,0
2.0709548,0.67166495,-1.5901119,0.76815683,0.24913341,-0.58980298,0
-1.6506335,-0.18780892,1.9488046,-0.64457703,-0.073339909,0.76101369,0
0.73591846,-1.9988586,1.1268675,0.30539343,-0.82949173,0.46763054,0
1.7233263,0.71437168,1.5501908,0.71049017,0.29451999,0.63911015,0
-1.9982319,0.59676391,-1.784932,-0.7279526,0.21740012,-0.65024781,0
0.060909059,-2.3720181,-0.84496272,0.02418218,-0.94174117,-0.33546799,0
-1.1443778,1.1239458,1.8997709,-0.46026239,0.45204476,0.76407725,0
2.3544965,-1.1042918,0.21263294,0.90235591,-0.42321754,0.081491135,0
-0.34478888,1.3350235,-2.4173868,-0.12389239,0.47971168,-0.86863536,0
1.4612209,0.64658642,-2.1218851,0.55010778,0.24342126,-0.7988289,0
-2.4885159,0.28226915,0.84954411,-0.94096643,0.10673261,0.32123262,0
-0.84375823,2.1383688,-1.194199,-0.32571325,0.82546753,-0.46099272,0
2.1660109,-0.1215236,1.6518762,0.79436153,-0.044567496,0.60580808,0
1.2868687,2.1327181,0.30760741,0.51273572,0.8497532,0.12256209,0
0.34198076,-0.03936306,2.7462945,0.12355755,-0.014221863,0.99223548,0
2.7035401,-0.27900943,-0.6102491,0.9705531,-0.10016255,-0.21907541,0
1.0686527,-1.5927173,1.8861448,0.39726293,-0.59207964,0.70115888,0
-2.2588904,1.1474432,-1.0271791,-0.8262465,0.41970646,-0.37571684,0
0.94973451,-2.0578439,1.3964134,0.35676363,-0.77302009,0.52455664,0
-0.88994735,2.4009705,-0.50838876,-0.34090033,0.91970795,-0.19474174,0
0.70953953,-1.5188,-1.8813282,0.28158113,-0.60273659,-0.74660605,0
0.088336706,-1.9642133,1.6086634,0.034772478,-0.77318436,0.63322729,0
0.79385144,-0.35617173,-2.3754508,0.31380162,-0.14079116,-0.93899226,0
-1.5237925,-1.7003119,-1.0676113,-0.60456538,-0.67459953,-0.42357531,0
-0.55802262,-1.070154,2.2494254,-0.21859665,-0.4192161,0.88117731,0
0.95886767,-2.5711658,-0.096561544,0.34920722,-0.93638539,-0.035166468,0
-1.4204079,-2.1765919,-0.48289126,-0.53731316,-0.82336313,-0.18266854,0
-2.0890124,-0.61182016,1.194546,-0.84132951,-0.24640465,0.48109183,0
0.41268545,1.8196665,-1.455498,0.17439191,0.76895154,-0.61506182,0
2.1190176,1.6498913,0.2575773,0.78542906,0.61154401,0.095472872,0
0.27935123,-0.077501535,2.6995616,0.10288865,-0.028544812,0.9942832,0
0.24336518,2.2989118,1.5524619,0.087394774,0.82556134,0.557504,0
1.3893697,-0.72943443,-1.901763,0.5635044,-0.29584602,-0.77132225,0
-1.8419284,1.8453763,0.022825768,-0.70641816,0.70774055,0.0087541612,0
0.15072787,-0.85736519,2.5563838,0.055814065,-0.3174797,0.94662106,0
0.86713296,-1.4418346,-2.0682638,0.32523409,-0.54078645,-0.77574015,0
-1.2353626,-2.1629755,-0.10416678,-0.49551719,-0.86759263,-0.041782409,0
-1.8809005,1.6710103,0.63583285,-0.72479987,0.64391923,0.24501646,0
1.6440254,-2.092483,-0.96955603,0.58047694,-0.73881954,-0.34233347,0
2.3458178,0.011895033,0.53428346,0.97501814,0.0049440637,0.22207013,0
-1.5386996,0.69669408,-2.0877283,-0.57297856,0.25943387,-0.77742499,0
1.044278,0.35856724,2.4153624,0.39321247,0.13501491,0.90948057,0
-0.83778214,0.0006489199,-2.3734419,-0.33285427,0.00025781852,-0.9429782,0
1.877699,1.5346788,0.5163784,0.75730669,0.61896104,0.20826384,0
2.4564106,-1.0762284,-0.66803938,0.8887856,-0.38940406,-0.24171193,0
-2.4826968,-0.658804,-1.1481864,-0.88240302,-0.2341529,-0.40808979,0
-1.0705478,2.4046304,0.54986823,-0.39812243,0.89424992,0.20448864,0
2.3275845,1.3752124,0.38666016,0.85228264,0.50355625,0.14158186,0
1.4728683,-0.93711889,1.8347598,0.58157218,-0.37002784,0.72446752,0
-0.59657502,1.2493353,-2.1094825,-0.23643367,0.49513459,-0.83602679,0
-0.65741038,-1.8531938,1.8755912,-0.24192469,-0.68196875,0.69021088,0
2.3467751,0.71943653,-1.1263198,0.86896509,0.26639333,-0.41705427,0
2.3812706,1.3387756,-0.48801959,0.85809833,0.48243201,-0.17585939,0
2.557689,0.096518569,-0.27071261,0.99374574,0.03750062,-0.1051807,0
-1.8773167,1.2694622,-1.4354124,-0.69981635,0.47322354,-0.53508556,0
-1.5715232,-2.1978605,-0.081037618,-0.58137441,-0.81308365,-0.029979318,0
0.61396438,2.2343884,-0.62895471,0.25570691,0.93058908,-0.26195017,0
0.80193925,-2.3570721,0.089628443,0.32188675,-0.94609439,0.035975553,0
2.0162692,0.30759427,-1.6177918,0.77450311,0.11815521,-0.62143725,0
-1.3471465,1.299113,1.7886391,-0.52038097,0.50182641,0.69092244,0
-1.1218635,1.3982747,-1.8062608,-0.44083452,0.54944986,-0.7097674,0
1.9664464,-1.337432,-1.4442347,0.70675838,-0.48068503,-0.51907086,0
-1.8109064,1.7230794,-1.016825,-0.67105979,0.6385141,-0.37680045,0
1.1839488,0.43750909,2.4886444,0.42428899,0.15678912,0.89184976,0
2.2893581,0.28627795,1.0869421,0.89764541,0.1122481,0.42618436,0
-1.9940608,-0.091339566,-1.3295978,-0.83140355,-0.038083114,-0.55436242,0
1.2465405,0.34185109,2.3864062,0.45930436,0.12595956,0.87930298,0
1.1434635,-2.0109231,-1.2360795,0.43596631,-0.7667011,-0.47127783,0
1.6213804,-1.9453082,-0.65662408,0.61975759,-0.74357599,-0.25098845,0
1.2988566,0.2817772,-2.1755023,0.5094834,0.1105286,-0.85335231,0
1.3055363,-1.3591027,1.6051847,0.52737844,-0.54901689,0.64842302,0
-1.3828689,1.2774959,1.8901272,-0.51836479,0.47886595,0.70850921,0
1.1748512,2.2173185,0.9012987,0.440631,0.8316111,0.33803442,0
1.1096398,2.1830873,-0.898269,0.4254005,0.8369261,-0.34436768,0
-0.24538125,-1.7083443,-1.7047821,-0.10115109,-0.70421392,-0.7027455,0
2.4676325,-0.95792985,-1.1395415,0.85624951,-0.3323943,-0.39541215,0
-1.0918504,1.7081306,1.4455431,-0.43851739,0.68603259,0.58057016,0
1.5884374,-1.9226621,-1.0784367,0.58460146,-0.70760804,-0.39690307,0
1.7713388,-1.6655713,-1.3899004,0.63247615,-0.59471071,-0.49627936,0
0.46330124,-2.4624031,-0.75946462,0.17695551,-0.94050205,-0.29007357,0
-1.4129053,2.3079967,-0.049287163,-0.52202588,0.85273516,-0.01821012,0
-1.467348,-1.2711847,-1.3551513,-0.61976588,-0.53691214,-0.5723772,0
-0.008966906,-1.3774014,-2.2900989,-0.0033553413,-0.51541209,-0.85693586,0
1.9919809,-1.704299,0.93110508,0.71602219,-0.61261421,0.33468789,0
0.3562732,-2.5791233,0.4616535,0.13473628,-0.97537923,0.17458928,0
-2.4640293,-1.0369127,0.12497933,-0.92070651,-0.38745165,0.046699639,0
-1.595486,1.9039747,-0.12886722,-0.64141977,0.7654388,-0.0518074,0
0.21739855,2.7252064,-0.6384899,0.077436768,0.97071105,-0.22742836,0
1.8557562,-0.57312012,1.8051273,0.69987273,-0.21614432,0.68077874,0
2.0195084,1.5129501,0.49017996,0.78563386,0.58857137,0.19069096,0
-1.4364206,-1.9680667,-0.39671719,-0.58187711,-0.79724067,-0.16070548,0
1.2483404,2.2974694,0.040457055,0.47737223,0.87856495,0.015471001,0
-1.0361028,-1.9605432,-1.4764038,-0.38892442,-0.7359339,-0.5542013,0
0.74965602,0.65605253,2.2396626,0.30582982,0.2676433,0.91369319,0
0.41707507,2.3621447,0.58357197,0.16894861,0.95685667,0.23639311,0
-0.10581765,-0.16251455,-2.7395384,-0.038529668,-0.059173796,-0.99750382,0
-1.8520553,1.48001,1.3502592,-0.67882591,0.54246175,0.4949047,0
0.61210102,-0.28513879,2.6057208,0.22739524,-0.10592893,0.96802402,0
-1.1573426,0.34051135,2.175576,-0.46523085,0.13687943,0.8745423,0
1.4186596,-0.44251141,1.9534023,0.57800126,-0.18029143,0.7958703,0
-0.27984226,2.4598765,1.2150538,-0.10147168,0.89195895,0.44058231,0
0.5558632,-2.5427084,0.31656593,0.21200463,-0.9697817,0.12073734,0
-0.44903353,-1.8861209,-1.5873643,-0.17920087,-0.75271559,-0.6334874,0
1.0938181,-0.7078079,-2.2903042,0.41512024,-0.26862362,-0.86920452,0
-2.5209906,-1.0036786,-0.29217744,-0.92373526,-0.36776546,-0.10705895,0
-2.3366766,-0.69259191,0.61672264,-0.92947358,-0.27549636,0.24531738,0
-1.2989616,1.2007445,-1.9352468,-0.49543089,0.45797035,-0.73811346,0
1.3966603,0.041913357,-1.9972947,0.57297939,0.01719494,-0.8193894,0
0.44040498,-2.0153172,-1.4074936,0.17635258,-0.80699903,-0.5636065,0
0.41078606,-1.6321266,-2.0178916,0.15633295,-0.62113881,-0.76794952,0
-0.51227587,1.7922803,-2.1249101,-0.18123087,0.63406563,-0.75174201,0
-1.9578433,-1.7541628,-0.73595607,-0.71720833,-0.64259493,-0.26959962,0
0.13324182,0.60948539,2.4843218,0.052017905,0.23794445,0.96988481,0
2.461313,0.77557933,-0.52802438,0.93440974,0.29443994,-0.2004585,0
-1.0593305,1.6253508,2.0257416,-0.37766874,0.57946432,0.72221017,0
2.5982797,0.51076591,-0.85701311,0.93354583,0.18351503,-0.3079195,0
1.2229906,1.1596966,1.7492931,0.50347042,0.47741407,0.7201342,0
2.4540339,0.24663857,0.66374183,0.96080375,0.096563973,0.25986832,0
2.2264166,-1.5486336,0.66744095,0.79715055,-0.55447578,0.23897186,0
-1.0426701,2.3315024,-0.85776091,-0.38700268,0.86537218,-0.31837085,0
-0.10668293,1.4017217,-2.2529674,-0.040173225,0.52784157,-0.84839219,0
0.0090256175,1.8832904,1.7657045,0.0034961547,0.72950959,0.68396163,0
1.6619929,-0.38558796,-2.0828609,0.61728239,-0.1432116,-0.77359742,0
-1.5212393,2.0823836,-0.72466481,-0.56789428,0.77737528,-0.27052483,0
-1.3451096,1.9659863,0.7304635,-0.5398609,0.78905028,0.29317215,0
2.2943676,-0.61916053,0.67749584,0.928469,-0.25055766,0.27416441,0
2.3946047,0.45252681,1.1286652,0.89162445,0.16849712,0.42025536,0
-0.92604667,-1.0259187,2.1630709,-0.36076537,-0.3996731,0.8426801,0
1.0717188,1.4094849,-1.9330035,0.40883473,0.53768426,-0.73739398,0
1.7958107,0.99372911,1.5716666,0.69468647,0.38441142,0.60797918,0
2.2486074,-1.2623535,0.89159209,0.82411879,-0.46265492,0.32677016,0
1.1047733,-1.4689721,2.0708823,0.39898971,-0.53052038,0.74790066,0
2.1817863,-0.52772743,1.1352997,0.86734712,-0.2097927,0.45132694,0
1.5830683,1.8499734,0.23619507,0.6471324,0.75623888,0.096552677,0
-0.75276065,1.0802364,-2.2440596,-0.28932303,0.41518813,-0.86250275,0
-1.5677986,2.164326,0.53908402,-0.57505691,0.79385871,0.19773202,0
-2.1092815,-1.016035,-0.8148905,-0.8508597,-0.40985674,-0.32871738,0
2.0096407,-1.2068021,-1.3847237,0.73813611,-0.44325545,-0.5086056,0
-1.4545571,0.35924441,-1.9997578,-0.58211052,0.14376882,-0.80029863,0
-0.55344474,-2.3092833,-0.38865328,-0.23000099,-0.95969367,-0.16151682,0
-2.7701354,-0.38297632,0.1737064,-0.98867255,-0.1366858,0.06199652,0
-0.55960834,2.590981,0.90974563,-0.19968216,0.92452639,0.32461983,0
-2.184783,-1.2317683,0.48291039,-0.8553822,-0.48225966,0.1890682,0
-0.64834297,-2.5364232,-0.32455248,-0.2457692,-0.96148914,-0.12302902,0
2.420191,-0.3983531,-0.64724171,0.95406437,-0.15703492,-0.25514939,0
0.44352284,2.4418399,1.1450483,0.16227184,0.89339674,0.41893917,0
-1.8556632,0.50729322,-1.5538545,-0.75039577,0.20513998,-0.62834996,0
1.4557741,2.1856475,0.35046563,0.54947942,0.82496893,0.13228266,0
-2.0191407,1.502211,-1.4113698,-0.6997785,0.52062488,-0.48914185,0
0.7051338,-0.44993028,-2.3356817,0.28422049,-0.18135481,-0.94145054,0
-2.0569637,1.353417,0.67398912,-0.8057484,0.53015697,0.26401326,0
-1.5845294,1.8686051,1.0728666,-0.59243703,0.69864959,0.40113226,0
0.44099289,2.4240458,1.2407008,0.15986179,0.87872684,0.4497593,0
-1.4804658,-0.26333898,2.0357456,-0.58495939,-0.1040501,0.80436075,0
0.36372399,1.1248431,2.3484876,0.13833749,0.42781883,0.89321548,0
-1.013683,-0.51597261,2.5653644,-0.3612271,-0.18386744,0.91417056,0
2.4113657,0.58589381,-0.09534353,0.97101176,0.23592845,-0.03839305,0
1.7911344,-0.40683237,1.7202158,0.71175361,-0.16166537,0.68357229,0
-1.4504045,1.3802466,-1.679968,-0.55493933,0.5280962,-0.64277261,0
-0.092518963,-2.2776475,1.3968664,-0.034606244,-0.85194236,0.52249074,0
1.9511909,1.7327143,-0.58739513,0.72947562,0.64779556,-0.21960457,0
2.6272316,-0.4439286,0.7766518,0.94662833,-0.1599537,0.27983853,0
-0.6278162,1.4381877,2.1738009,-0.23416936,0.53643006,0.81080669,0
-1.8436853,-1.9240483,-0.82754707,-0.66073966,-0.68954015,-0.2965762,0
1.3913176,-1.0951784,1.9038446,0.5351299,-0.42122853,0.7322585,0
0.10608316,2.7201488,-0.12282049,0.038929801,0.99822491,-0.045071974,0
0.30635631,2.7434509,-0.25514054,0.11050744,0.98960495,-0.092033118,0
2.0453894,-1.2214257,1.0374242,0.78716886,-0.4700661,0.39925307,0
1.7600609,-0.90062976,1.6035862,0.69139391,-0.35378885,0.62992692,0
0.020440351,1.5816277,2.0560262,0.00787964,0.60970861,0.79258651,0
-1.6302365,2.0373709,0.028693616,-0.62473667,0.78075808,0.010995923,0
0.62253195,-1.5507766,-2.0477681,0.23553383,-0.58673352,-0.77476937,0
-0.052430365,2.429929,-0.82629049,-0.020423878,0.94656163,-0.3218756,0
0.17868716,1.727034,-1.843034,0.070569754,0.68206555,-0.72787803,0
2.3755217,0.92363298,-0.19258547,0.92937928,0.36135447,-0.075345539,0
0.0218825,-2.6366141,0.41099399,0.008200164,-0.98803461,0.1540143,0
-1.8007599,1.7845104,0.77775049,-0.67906755,0.67293984,0.29329014,0
-2.1438594,1.4246296,0.58647853,-0.81206447,0.53963012,0.22215001,0
-2.4801917,-0.53119665,0.30732325,-0.97072506,-0.20790567,0.1202836,0
-2.4141037,-0.63486755,-0.26409921,-0.96174836,-0.25292319,-0.10521378,0
1.0627785,1.6234329,1.6357802,0.41876706,0.63968199,0.64454722,0
-0.3558884,2.4999161,-0.95022374,-0.1319086,0.92658383,-0.3521966,0
0.45325854,0.23110566,-2.6683378,0.16685943,0.085077621,-0.98230326,0
1.3104591,2.2395036,-0.774773,0.48393166,0.82701302,-0.28611133,0
-2.5765812,-0.24706453,-0.014439449,-0.99541867,-0.095449209,-0.0055784374,0
-0.65670252,2.3066447,1.3781893,-0.23741154,0.83389974,0.49824393,0
-1.5067666,1.7767019,0.58492631,-0.62732112,0.73970497,0.24352586,0
2.2282372,0.56767231,-0.96090937,0.89411473,0.22778732,-0.38557979,0
-2.4453654,0.12412237,0.36350369,-0.98788708,0.050143376,0.14684947,0
2.613693,-0.61313123,0.87860221,0.92527997,-0.21705613,0.31103617,0
0.57498962,-2.0151694,-1.2731084,0.23449779,-0.82184571,-0.51921129,0
1.7769804,-1.6515026,1.4209621,0.63205111,-0.58742011,0.50541955,0
0.37589139,-2.4808924,-0.8846153,0.14128195,-0.93246436,-0.33249015,0
-1.2767248,1.0739861,-1.9595424,-0.49609035,0.41731322,-0.76140928,0
-2.5639741,0.27042994,-0.48357451,-0.97743917,0.1030934,-0.18434846,0
1.9998431,1.1747597,-0.9860791,0.79350197,0.46612367,-0.39125854,0
0.50937307,1.4043438,-2.1981907,0.19165507,0.52839386,-0.82708412,0
0.64488965,-2.1624513,1.5466678,0.23572789,-0.79044545,0.56535679,0
0.91762346,-1.7991267,1.639092,0.35278827,-0.69168985,0.63016307,0
-1.0563072,-1.1589247,-2.2705362,-0.38280478,-0.41999328,-0.82284027,0
0.36046866,0.32646877,2.7222371,0.13035248,0.11805746,0.98441392,0
-1.1735612,0.28245851,-2.3453171,-0.44491583,0.10708454,-0.88914722,0
-1.9155207,0.97487324,-1.8199782,-0.68013906,0.34614578,-0.64621508,0
-1.3451859,-1.8556738,-1.3376051,-0.50690544,-0.69927222,-0.50404876,0
-0.091391109,-1.7782828,2.0893302,-0.033291638,-0.64778674,0.76109403,0
-2.3455873,1.3924946,-0.063281529,-0.85965532,0.51034784,-0.023192614,0
-1.6388484,1.0852487,-1.5570642,-0.65355361,0.4327845,-0.62093902,0
-1.0278842,2.6167622,-0.2648499,-0.36400086,0.92666435,-0.093790323,0
1.5985515,1.439119,1.3595215,0.62822586,0.5655694,0.53428781,0
2.4287477,-0.99689579,0.728396,0.8914305,-0.36589363,0.26734537,0
0.09368024,-1.3570304,2.2629261,0.035481017,-0.51396984,0.8570742,0
1.1718833,2.1954198,0.2371949,0.46877435,0.87820727,0.094882213,0
-0.95563948,2.1789119,-1.1405292,-0.36218968,0.82581294,-0.43226334,0
0.480777,-0.78342837,-2.5927494,0.17477305,-0.28479353,-0.94252163,0
2.1197224,-0.54031181,-1.2597866,0.8397181,-0.21404201,-0.49905857,0
-1.5184351,2.0481198,-0.0086368984,-0.59555572,0.80330688,-0.0033875362,0
0.015499856,0.6139344,-2.6103017,0.0057801371,0.22894567,-0.97342205,0
-2.0311863,-1.7067679,-0.17713284,-0.76389807,-0.64188927,-0.066616952,0
0.769822,1.9763315,1.4592396,0.29902163,0.76766557,0.5668118,0
0.22905917,2.2988973,1.2859644,0.086631313,0.86945432,0.48635811,0
2.1165483,-1.1618906,1.5111727,0.74306446,-0.40790924,0.53053302,0
0.67097712,2.1724453,-1.3452288,0.25398007,0.82231987,-0.50919962,0
2.2742705,-0.87470734,0.60527843,0.9058193,-0.34838721,0.24107637,0
0.087164618,2.6589389,-0.4280844,0.032348022,0.9867698,-0.15886816,0
-1.395515,2.2679405,0.27714083,-0.52124375,0.84710652,0.10351586,0
1.2385404,1.6904534,1.4064522,0.49073827,0.66979665,0.5572688,0
0.97112733,1.3101659,-2.096849,0.36558184,0.49321324,-0.78936088,0
0.15404449,-2.0617626,-1.8282882,0.055814568,-0.74703342,-0.66243923,0
-0.10491791,-0.36120409,2.7511551,-0.03778445,-0.13008168,0.9907831,0
0.33842653,-2.5232685,0.96734738,0.12426393,-0.92649728,0.35519198,0
-0.27454954,1.1902657,2.3655794,-0.10312324,0.44707432,0.88853258,0
-2.2831311,-1.3813353,0.33415255,-0.84896278,-0.51363772,0.12425178,0
-0.032052536,-0.20662443,2.6145411,-0.012220318,-0.078777425,0.99681735,0
