0.12561801,1.3376817,2.5445275,0.043655824,0.46488234,0.88429552,0
-2.0046663,-1.6305913,1.1155423,-0.71223956,-0.57933408,0.39634192,0
1.1919336,1.3798217,-2.2247839,0.41436881,0.47968701,-0.77343321,0
-1.3651396,1.6123142,-1.7179027,-0.50134933,0.59212452,-0.63090205,0
-0.89388019,-0.23083758,-2.6034219,-0.32360396,-0.0835682,-0.94249505,0
1.1827008,-1.2385608,-2.4167302,0.39929232,-0.41815126,-0.81591374,0
-1.7929085,-0.66739136,2.2139304,-0.61275274,-0.22809076,0.75664312,0
-0.84167308,2.45543,1.3615162,-0.28715381,0.83771968,0.46450883,0
1.5643809,2.1521583,0.8739152,0.5586077,0.76849067,0.31205684,0
-1.550428,-2.254035,-0.91972601,-0.5371787,-0.78095824,-0.31865859,0
0.54780269,-2.53178,-0.53388327,0.20712352,-0.95726287,-0.20186061,0
0.35243535,0.45824689,2.8726914,0.1202735,0.15638317,0.9803462,0
0.52664924,-2.769222,0.71052486,0.18116432,-0.95259655,0.24441649,0
2.3579261,-1.4438295,0.68403172,0.82785946,-0.50692338,0.24016109,0
-1.2727925,0.021723609,-2.2587221,-0.49090639,0.0083786314,-0.87117195,0
-0.89771837,-0.63015592,2.4364748,-0.33597669,-0.23583977,0.91186583,0
-0.49451119,1.5200961,2.2692358,-0.17815551,0.54763877,0.81752825,0
0.2404291,-0.32948822,-2.9584124,0.080508061,-0.11032964,-0.99062896,0
0.069338679,-2.490494,-1.3987014,0.024267841,-0.87164783,-0.48953143,0
1.4894357,-1.8237903,1.6011456,0.52306652,-0.64048666,0.56229728,0
0.12916581,-2.081099,2.2373674,0.042233899,-0.68046588,0.73156166,0
1.2813926,-1.1008503,2.3054614,0.44833022,-0.38516259,0.8066287,0
0.50500673,-1.3265426,-2.2021382,0.19275403,-0.50632286,-0.84052551,0
1.8234587,1.0510961,-1.8269047,0.65427226,0.3771421,-0.6555087,0
-1.9986308,1.9401246,-1.0255024,-0.67334574,0.65363485,-0.34549537,0
2.9762654,-0.54075474,-0.43686908,0.97378939,-0.17692684,-0.14293702,0
1.1341398,-0.46120068,2.7249346,0.3796477,-0.15438466,0.91215843,0
-2.0662227,-1.8627205,-1.0354555,-0.69608182,-0.62752473,-0.34883061,0
-0.65044785,-1.8895092,-1.8342651,-0.23979318,-0.69658381,-0.67621762,0
-0.45612487,0.83943927,2.7573571,-0.156305,0.28765929,0.94489193,0
2.117635,1.8092797,0.060730189,0.76011026,0.64942831,0.021798678,0
0.66422069,-2.521842,-1.4927047,0.2210505,-0.83926088,-0.49676734,0
0.74740928,-2.3585026,0.91437978,0.28336084,-0.8941651,0.34666336,0
-1.485908,1.9982076,-1.5038538,-0.5107953,0.68690324,-0.51696432,0
0.37350288,1.0193533,2.7194445,0.12755665,0.34812394,0.92872977,0
-1.3629533,-1.0067973,-2.1965621,-0.49129659,-0.36291492,-0.79178309,0
0.046640214,2.2660975,1.6880124,0.016503468,0.80185032,0.59729695,0
2.4869046,-1.5775676,-0.27001712,0.84090388,-0.53342724,-0.091301627,0
2.0859621,1.701499,0.85162783,0.73881119,0.60264111,0.30163166,0
1.0642463,0.65514386,-2.6976886,0.35795778,0.22035673,-0.90736383,0
-2.682653,-1.079556,0.67012,-0.9037509,-0.36368838,0.22575471,0
-0.66964662,1.7953773,-2.148828,-0.23258816,0.62358785,-0.74635178,0
-0.55110323,1.9307555,1.7603593,-0.20638405,0.72305351,0.65924138,0
-2.462512,-0.59699148,1.4168797,-0.84823924,-0.20564026,0.48805973,0
1.8408744,-2.2113791,0.096439227,0.63942707,-0.76812166,0.033498131,0
2.3993425,-1.3201845,0.79933858,0.84103763,-0.46276212,0.28019086,0
0.56711143,-1.7944535,1.870906,0.21370831,-0.67621565,0.70502573,0
-2.0846546,1.436839,-0.969405,-0.76893449,0.52998471,-0.35756952,0
-2.4000676,1.3613302,-0.14072789,-0.86869222,0.4927265,-0.050935742,0
-2.6538529,-0.38385859,1.0371828,-0.9230566,-0.13351275,0.36075038,0
-0.34114757,-2.646163,0.20201704,-0.12749843,-0.98896092,0.075500622,0
-0.55275011,1.5821244,-1.9080703,-0.21765557,0.62299067,-0.75133795,0
2.4964178,-1.6546193,0.81061012,0.80458653,-0.53327793,0.26125675,0
0.76336265,-0.62691611,2.6130211,0.27326417,-0.22441982,0.93539429,0
-1.748583,0.60919964,2.0186517,-0.63833815,0.22239459,0.73692954,0
2.3688769,-1.2646494,0.47170717,0.86885649,-0.46384799,0.17301272,0
-0.16476999,0.67062581,-2.6076326,-0.061081935,0.2486079,-0.96667629,0
1.0599777,2.524617,-1.1445258,0.35717267,0.85070109,-0.3856622,0
2.2214141,-2.1247199,0.46999431,0.71435827,-0.68326348,0.1511399,0
-1.0709474,2.8810501,0.07973247,-0.34831038,0.93702048,0.02593185,0
-0.21482135,0.19980368,-2.9657836,-0.072081447,0.067042395,-0.995143,0
2.4928272,0.38776222,1.8088071,0.80303842,0.12491357,0.58268845,0
0.67197877,0.55701095,2.71176,0.23588429,0.19552721,0.95190746,0
-2.1608551,-1.3516728,1.5882604,-0.71953046,-0.45008561,0.52886552,0
-0.53722006,-2.1022775,1.9858017,-0.18264358,-0.71473032,0.67513102,0
2.4706521,-0.21585774,-1.1369985,0.90557313,-0.079118773,-0.41674638,0
2.1470268,0.7693134,1.5959167,0.7713086,0.27637199,0.5733251,0
-1.8628724,-1.5418062,1.6786581,-0.63283426,-0.52376521,0.57025504,0
1.6593598,-0.068078071,2.5458915,0.54589897,-0.022396438,0.83755165,0
-1.8518732,0.0040931324,-2.0985956,-0.66165531,0.0014624343,-0.7498067,0
1.2598022,-2.5246296,-0.81656355,0.42890051,-0.85951185,-0.27799961,0
0.87216598,1.1097447,2.556854,0.29862905,0.37997583,0.8754651,0
-1.8208954,1.5497183,-1.738794,-0.61590272,0.52417928,-0.58813256,0
0.023299789,2.349092,-1.5344033,0.0083038053,0.83719224,-0.54684556,0
1.3166679,-1.8872396,-1.7358588,0.45678845,-0.65473551,-0.60221732,0
0.96909899,2.5923519,-0.044205617,0.3501178,0.93656951,-0.015970685,0
0.0037091121,-1.6240513,-2.2893555,0.0013214251,-0.57859188,-0.81561613,0
-0.055670131,1.6444783,2.4917307,-0.018643783,0.55073154,0.83447421,0
1.7090281,-0.38856745,2.1198232,0.6213451,-0.14127006,0.7706964,0
-2.2081838,-1.6424659,1.0245546,-0.75195849,-0.55931318,0.34889421,0
-2.2603197,1.6113746,0.58620596,-0.79669708,0.56796277,0.20662057,0
1.663951,1.6007456,1.3627099,0.62063116,0.59705639,0.50827229,0
0.69530696,-1.1247814,-2.315232,0.26078096,-0.42185909,-0.868348,0
-1.890443,0.63088667,-1.8347613,-0.69786358,0.232894,-0.6773085,0
-0.63911307,0.85686463,2.7879012,-0.21404998,0.28697872,0.93371612,0
0.22685553,2.2959781,-1.509302,0.082283892,0.83278555,-0.54744643,0
2.0533571,-1.6764693,-0.21280295,0.77212918,-0.63040709,-0.080020845,0
2.0749424,-1.8151737,-0.50669128,0.74024975,-0.64757556,-0.18076555,0
-2.4851179,1.3813003,0.50041205,-0.86082464,0.47847122,0.17333867,0
-1.6044313,-1.4053189,1.6730986,-0.59186864,-0.51841682,0.61719978,0
1.2565141,0.77150542,-2.53529,0.4284243,0.26305449,-0.86443907,0
-1.6224451,-0.41359353,-2.364284,-0.56002259,-0.14276089,-0.81608456,0
-1.7460426,-0.50947374,2.1665123,-0.61724198,-0.18010361,0.76588184,0
0.92135143,-0.9297663,2.6032195,0.31620502,-0.31909299,0.89341706,0
-0.093010433,-2.764843,-0.49238524,-0.03310116,-0.98397034,-0.17523326,0
2.4927194,-1.0348017,0.23741104,0.92002761,-0.38193074,0.087625064,0
-2.3716724,-1.5902473,0.41509929,-0.82193202,-0.55111957,0.14385772,0
0.92126667,2.7243061,-0.38111129,0.31756827,0.93909091,-0.13137223,0
-2.4220138,0.9032895,0.53340942,-0.91762638,0.34222856,0.20209239,0
-2.6291535,0.23080781,-0.79324841,-0.95401037,0.083750546,-0.28783685,0
-1.544126,-2.4225173,0.8163839,-0.51702911,-0.8111462,0.27335477,0
1.9210174,0.54933971,-2.050905,0.67091817,0.19185771,-0.71628165,0
-1.0352204,1.1661838,2.415498,-0.36006203,0.40561268,0.84013909,0
-2.0043137,-2.0098579,-1.0672799,-0.66095036,-0.66277862,-0.35195044,0
-0.87496847,1.9413162,1.873579,-0.3084898,0.68445468,0.66057241,0
2.0134685,1.7561502,1.1927259,0.68816066,0.60021478,0.40764832,0
2.772831,0.30747503,0.10378568,0.99322098,0.11013677,0.037175763,0
1.7622758,-2.0187356,-0.28245762,0.65401071,-0.74918735,-0.10482486,0
0.64045399,-1.5238086,-2.3401432,0.22354117,-0.53186327,-0.81679302,0
-0.91184157,2.3103888,-1.2152784,-0.32975778,0.83552748,-0.43949249,0
1.6786603,-0.85497284,2.3223803,0.56135488,-0.28590846,0.77661902,0
0.7630927,-2.6727321,-0.58515394,0.26865113,-0.94095051,-0.20600677,0
-2.1338921,1.8318418,-0.33234367,-0.75352263,0.64686227,-0.11735761,0
2.2466571,1.8280954,0.58003473,0.76055938,0.618864,0.19635879,0
1.2318674,0.85151738,-2.4287629,0.43173036,0.29842976,-0.85120422,0
0.74395382,2.4577196,1.2306788,0.26126292,0.86310601,0.43219182,0
1.5055697,-2.4028604,0.12078892,0.53047663,-0.84663051,0.042559106,0
-2.5172057,0.29081118,-1.4637796,-0.86018503,0.099376634,-0.50020593,0
1.0083752,2.0885577,1.7316042,0.34839258,0.72159457,0.5982675,0
-1.7789925,-1.9111598,-0.44962671,-0.67146093,-0.72134596,-0.1697066,0
2.1600204,0.51535076,-1.5861222,0.79152656,0.1888472,-0.58122498,0
0.94149971,-0.271806,2.650728,0.33314833,-0.096178167,0.93795627,0
-0.46253201,-0.51486087,2.9390726,-0.15318346,-0.17051397,0.97337544,0
1.1454507,-2.1347611,1.2286381,0.42168012,-0.78587955,0.45230424,0
-2.099601,-0.17805992,1.8946594,-0.74094403,-0.062836908,0.66862065,0
0.67096192,2.9256964,-0.28139916,0.22255535,0.97044164,-0.093338966,0
2.5896552,0.65899271,-1.1902312,0.88526887,0.22527544,-0.40687835,0
-1.4438602,2.1498353,0.54660475,-0.54552132,0.81225389,0.20651901,0
-1.460151,-1.7921681,-1.7133348,-0.50745523,-0.62284315,-0.59544575,0
-1.2886584,-2.2695949,-1.3494726,-0.43859383,-0.77245474,-0.45929191,0
0.055098098,-2.7728698,-0.069595002,0.019860249,-0.999488,-0.025085695,0
-2.3799937,-1.3761094,-0.27154613,-0.86151481,-0.49812678,-0.098294802,0
-0.85547954,0.11714486,-2.6556797,-0.30634612,0.041949421,-0.95099545,0
-1.4502183,0.13904133,2.2262673,-0.54507422,0.052259613,0.83675742,0
-1.7014426,2.4135203,0.065940745,-0.576038,0.81711799,0.022324804,0
-0.62317169,-1.979333,2.0845759,-0.21186563,-0.67293274,0.70871317,0
-2.813283,-0.23352022,0.89795995,-0.94968444,-0.078829803,0.3031258,0
1.6789595,-1.0036347,-2.256058,0.56228375,-0.33611739,-0.75555414,0
1.3717272,2.4586973,0.36061764,0.48326409,0.86620724,0.12704679,0
-0.23902932,2.9897838,0.17606138,-0.079557456,0.9951064,0.058599491,0
-0.54492533,0.47745854,-2.853724,-0.18508075,0.16216604,-0.96925092,0
2.5806663,0.44154209,1.0273962,0.9175595,0.1569909,0.36529216,0
-0.37529129,2.9666409,0.09165439,-0.12544462,0.99162745,0.030636337,0
-2.2972956,-1.4768885,-0.16104367,-0.83971053,-0.53983426,-0.058864899,0
-1.842334,0.92894465,-1.8125571,-0.67082745,0.33824569,-0.65998513,0
1.7417715,1.1689066,-1.8287363,0.62588948,0.42003578,-0.65713948,0
-1.1555083,-2.3269472,0.95768416,-0.41731033,-0.84037399,0.34586641,0
2.2276886,-1.7969877,-0.16872257,0.77698481,-0.62676269,-0.058847938,0
-0.85309875,2.248487,-1.17397,-0.31878063,0.84020066,-0.43868181,0
-0.67360717,1.3183448,2.525836,-0.23007798,0.45029527,0.86272722,0
-2.0073867,-1.6225356,1.1199204,-0.71345395,-0.57667238,0.39803573,0
0.24244942,1.2418122,-2.5657706,0.08474943,0.43408179,-0.89687824,0
0.29163891,-1.9000549,2.0113907,0.10482098,-0.68291855,0.7229349,0
-2.2583733,0.41210678,-1.500066,-0.82352865,0.15027708,-0.54700762,0
-1.6910366,-1.3690242,-1.8890836,-0.58688009,-0.47512454,-0.65561301,0
-2.4891746,1.3965443,0.65041071,-0.8503176,0.47706828,0.22218436,0
1.3074249,2.3997278,-0.68776703,0.46395627,0.85157377,-0.24406283,0
0.32264367,2.3506041,-1.7027131,0.1104797,0.80489427,-0.58304334,0
-2.6773739,0.57990146,0.48443973,-0.96240574,0.20845072,0.17413615,0
-0.19440714,-2.4296291,-1.0162528,-0.073617622,-0.92004603,-0.38483211,0
-2.182858,-0.57583791,-1.2996765,-0.83797449,-0.22105765,-0.49893111,0
-2.0824502,-0.20754264,1.784301,-0.75720942,-0.075465553,0.64879805,0
1.222643,-0.43305638,-2.6858628,0.40991718,-0.1451914,-0.90049285,0
-1.0985771,-2.278446,-1.3363593,-0.38401356,-0.7964431,-0.46713158,0
1.9130492,-1.5699289,1.6571958,0.64231259,-0.52710879,0.55640894,0
-2.8579311,-0.45450729,0.53002471,-0.97142965,-0.15449002,0.1801589,0
-1.759411,-1.2433916,1.9065624,-0.61156577,-0.43219903,0.66271514,0
1.8553833,-1.0546045,-1.6008179,0.69546831,-0.39530593,-0.60004753,0
1.2544761,-1.8074585,2.1005599,0.41240305,-0.5941934,0.69054908,0
0.21932426,2.8052642,0.32366559,0.077434652,0.9904269,0.11427341,0
2.1165154,-1.345464,-1.2742441,0.75237465,-0.47828284,-0.45296571,0
1.9556149,0.65154278,-2.0220132,0.67727661,0.22564498,-0.7002719,0
1.5134997,2.3420899,0.42068321,0.5366804,0.83049488,0.14917243,0
2.6680756,-1.1371704,0.072407663,0.91964197,-0.39196402,0.024957735,0
2.7942789,0.03214347,-0.68577105,0.97111952,0.011171094,-0.23833185,0
-1.1033653,2.4645944,0.86831909,-0.38899106,0.86889189,0.30612558,0
-2.3406379,1.9538499,0.3611446,-0.7623564,0.63637781,0.11762644,0
-1.5986651,0.46562478,-2.2870605,-0.56510109,0.16459048,-0.80843717,0
0.19683632,-2.5052049,1.3689966,0.068784595,-0.87544566,0.47839686,0
-2.2324002,-1.0870502,-1.4429286,-0.77734768,-0.3785235,-0.50244451,0
1.8373054,-0.0049757678,-1.8250474,0.70946819,-0.0019213731,-0.7047348,0
1.7360508,2.0670359,0.72609967,0.62105954,0.73946702,0.25975686,0
-0.95009696,-1.9717926,-2.0364485,-0.31779957,-0.65954828,-0.68117517,0
-2.1323562,1.5349272,-1.2481622,-0.73308218,0.52769226,-0.42910534,0
-1.1989206,-1.2077569,-2.137454,-0.43881497,-0.44204912,-0.78232604,0
-0.5540908,-2.0906696,-1.9565301,-0.18998536,-0.71684396,-0.67085052,0
2.6615021,0.60378456,-1.4304632,0.86376107,0.19595161,-0.46424103,0
0.92410326,1.1565946,-2.4649909,0.3213838,0.40223944,-0.85727233,0
-2.5453391,0.80623323,0.26261812,-0.94874138,0.30051273,0.097887419,0
-1.5670074,-2.3154204,0.48349956,-0.55228192,-0.81605536,0.17040639,0
-2.316555,-1.27671,0.29523897,-0.87039453,-0.47969568,0.11092954,0
1.2899206,0.14417847,-2.4967563,0.45839745,0.051236521,-0.8872692,0
-1.941574,-0.036840342,2.3070579,-0.64385253,-0.012216763,0.76505202,0
-0.82839382,-2.4810963,-0.91578144,-0.29890665,-0.89524591,-0.33043844,0
2.8554556,-0.45062158,0.52922779,0.97162741,-0.15333325,0.18008062,0
1.7841678,-1.9985539,-1.0843576,0.61731464,-0.69149131,-0.37518322,0
-2.393157,-1.0072286,-0.8978883,-0.87107939,-0.36661869,-0.32682016,0
-1.2065843,-2.6148434,0.51293701,-0.41248986,-0.89392537,0.1753556,0
-1.3099651,1.222188,-2.3817465,-0.43953443,0.41008243,-0.79915071,0
-0.49848488,-2.6361525,-1.318229,-0.16676012,-0.88188249,-0.44099233,0
-2.113497,-0.88329279,-2.116112,-0.67773002,-0.28324339,-0.67856854,0
-2.0388494,0.39817923,2.0418739,-0.69994968,0.13669741,0.70098805,0
1.0468531,-2.3549819,-1.1808407,0.36928329,-0.83073306,-0.41654819,0
1.5798213,1.3972713,2.0124242,0.54193634,0.47931498,0.69033486,0
1.1192511,1.2369717,-2.1785355,0.40790924,0.45081234,-0.79396367,0
-2.8235006,0.15213141,-0.41961372,-0.98773468,0.053219564,-0.14679191,0
-0.50846916,-1.8343652,2.0790861,-0.18038042,-0.65074462,0.7375598,0
0.43948221,2.9281483,-0.17281286,0.14817417,0.98724341,-0.058264934,0
-0.15135823,-2.6662784,0.11146488,-0.056627054,-0.99752414,0.041701913,0
2.7044244,0.98292887,0.32808575,0.93379897,0.33939123,0.11328331,0
-2.8810041,-0.41251212,-0.24841298,-0.98631793,-0.14122441,-0.085044719,0
-0.58933038,2.3011513,-1.3360298,-0.21623953,0.84434789,-0.49022153,0
-0.88956416,2.4792135,-1.1849507,-0.3079952,0.85838199,-0.41026735,0
-1.7641294,2.2650607,-0.02595347,-0.61443961,0.78891206,-0.0090394951,0
-2.0141749,-1.6472917,-0.97342688,-0.72500992,-0.59294891,-0.35038871,0
2.6103952,-0.73498005,0.23132075,0.95909059,-0.27004051,0.084990025,0
1.9924738,-1.5791541,1.4664085,0.67887425,-0.53804827,0.49963364,0
0.6748814,-0.038153041,2.6529431,0.24651358,-0.013936142,0.96903914,0
-1.8239372,-2.2393508,0.1321376,-0.63086343,-0.77454668,0.045703754,0
-2.8282447,0.62188387,0.36022818,-0.96919823,0.21311054,0.12344494,0
-2.7897656,0.8417632,-0.33282086,-0.95118451,0.28700337,-0.11347694,0
-1.5070907,-2.6009831,0.28740382,-0.49907395,-0.8613171,0.095173948,0
-1.5724832,2.3313088,-0.77879423,-0.53890657,0.79896408,-0.26690099,0
0.64229411,0.87383002,2.4669297,0.23834713,0.32426715,0.91544604,0
-2.6072879,-0.66332668,-0.22804756,-0.96566498,-0.24567726,-0.084462307,0
0.69888544,2.6786292,-0.47449434,0.24883126,0.95369947,-0.16893902,0
-0.2038236,0.19350344,-2.7367527,-0.0740868,0.070335582,-0.99476832,0
1.6195395,1.7853068,1.8466742,0.53335434,0.58794564,0.60815543,0
1.2767936,0.53385782,-2.2238362,0.48745885,0.20381816,-0.84902418,0
1.5880505,-1.8022175,1.3482586,0.57651341,-0.6542629,0.48946124,0
1.8831348,2.1674955,-0.5080294,0.64582151,0.74334311,-0.1742288,0
-2.4431305,1.1577793,-1.0700096,-0.84025061,0.39818782,-0.36800173,0
0.34299666,2.770649,0.69848973,0.11918496,0.962749,0.2427122,0
2.0488372,1.5840329,1.3063238,0.70635378,0.5461086,0.45036608,0
0.11139627,-0.80132544,2.6818526,0.039766975,-0.28606245,0.95738542,0
1.1131876,2.3797636,-0.23963001,0.42195615,0.90205455,-0.090832278,0
1.0765399,-2.1450963,-1.894751,0.35205758,-0.70150435,-0.61963469,0
-2.5245571,-1.0106308,-0.97424138,-0.87397778,-0.34987083,-0.33727315,0
1.3356059,2.705523,0.20505665,0.44164035,0.89462626,0.067805402,0
1.257955,1.6884617,1.6596172,0.46921363,0.62979144,0.6190325,0
-2.5176747,-0.94901168,1.063547,-0.87021273,-0.32801777,0.36760592,0
-2.4731994,1.1626947,0.85011995,-0.86413836,0.40624669,0.29703277,0
0.41321465,-0.5311197,2.5847964,0.15470664,-0.19885004,0.96774203,0
2.2157729,1.3809181,-1.178674,0.77350527,0.48206541,-0.41146392,0
0.17982566,2.3213985,-1.3359773,0.066988863,0.86477005,-0.49767983,0
-0.34852493,-0.65927899,2.5922232,-0.12920974,-0.24441658,0.96102309,0
-0.37585536,-1.1037056,2.6106551,-0.1314553,-0.38602072,0.9130758,0
-1.050752,-0.82078463,2.314127,-0.39342833,-0.30732268,0.86646807,0
-0.24407212,0.82547086,-2.8048198,-0.083189279,0.28135258,-0.95599174,0
-0.30896375,-1.7053224,-2.163039,-0.11147085,-0.61526227,-0.78040159,0
-1.7682006,-0.49692467,2.0715296,-0.63868088,-0.1794911,0.74824446,0
0.88541406,-2.2748196,-1.668215,0.29946661,-0.76939422,-0.56422716,0
2.4312603,-0.54048389,1.2875714,0.86714721,-0.19277208,0.4592326,0
2.3769481,1.0795602,0.15187956,0.90895516,0.41282845,0.058079399,0
0.60284072,-2.7421596,0.094883882,0.2145917,-0.97611964,0.033775575,0
-2.260072,1.2110219,-1.3536022,-0.7794863,0.41767475,-0.46684989,0
-2.4552133,-1.2183398,-0.17660511,-0.89392179,-0.44358692,-0.064300381,0
-0.91463852,0.17021185,2.7731848,-0.31268844,0.058190506,0.94807166,0
0.036014464,-0.44552508,2.6120586,0.013590229,-0.168121,0.98567271,0
-2.0078731,1.4125314,1.5221138,-0.69511837,0.48901322,0.52695024,0
-1.4144076,-2.5066721,0.25091386,-0.48956648,-0.86763012,0.086848386,0
0.56857556,1.5172446,2.2400544,0.20566098,0.54880661,0.81025606,0
1.396008,-0.16974951,-2.4918256,0.48789859,-0.059326697,-0.87088192,0
1.8729467,-1.9317929,1.0916969,0.64501762,-0.66528344,0.37596571,0
-1.5825896,1.9532154,-1.3946166,-0.55050021,0.67942154,-0.48511425,0
0.18321075,1.4109533,-2.2919233,0.067915164,0.52303225,-0.84960276,0
-2.577884,1.5513061,0.43031526,-0.84818971,0.51041937,0.14158472,0
-2.4348438,-1.0192003,-0.85670388,-0.87738985,-0.3672663,-0.30871111,0
-1.2678677,0.9685899,-2.5001869,-0.42748097,0.32657489,-0.84297621,0
-1.0428776,2.0498316,1.8477424,-0.35349637,0.69481605,0.62631541,0
2.2960086,0.23114048,1.519393,0.8310129,0.083658539,0.54992616,0
-1.5093831,-2.2128189,0.51417196,-0.55339724,-0.81130356,0.18851499,0
1.6838155,-1.6711037,1.7097819,0.57581311,-0.57146609,0.58469284,0
-1.2988638,0.67081416,-2.6080801,-0.4344264,0.22436485,-0.87231541,0
0.51802444,2.783283,-0.91073334,0.17418665,0.93588388,-0.30623573,0
-0.59857577,1.7602698,-2.2449586,-0.20534989,0.60388547,-0.77016485,0
-2.5570953,-1.0133113,0.042375803,-0.92955595,-0.36835918,0.015404463,0
1.6180495,-2.0898454,0.47242662,0.60264641,-0.77836794,0.17595643,0
-2.6556289,0.4571583,1.1254792,-0.90937334,0.1565458,0.38540053,0
-0.40867198,1.8640033,1.9414642,-0.15012126,0.68472153,0.71317595,0
-2.7139602,0.40251917,-1.0953096,-0.91867816,0.13625313,-0.37076336,0
-0.89289713,-2.029011,2.0221441,-0.2975792,-0.67621613,0.67392755,0
-0.31486866,0.59030539,2.8037453,-0.10923599,0.20479204,0.972691,0
-0.29929554,-2.0578265,-1.6333261,-0.11318792,-0.77823114,-0.61769307,0
-2.1978219,-0.36500943,-1.496447,-0.81890887,-0.13600259,-0.55757648,0
-1.6891993,-0.37292746,2.0701766,-0.62614065,-0.13823415,0.76735866,0
-1.2783881,1.4075303,-2.3104179,-0.42723572,0.47039488,-0.77213877,0
2.6373653,0.49968317,-0.7902205,0.94252783,0.17857416,-0.28240487,0
-2.2069993,-1.8032936,-0.85258979,-0.74189049,-0.60618341,-0.28660104,0
1.8697486,1.5884674,-1.1275464,0.69247341,0.5882991,-0.41759408,0
0.81316197,-0.27289394,2.8113444,0.27665356,-0.092843838,0.95647418,0
-2.2709551,-0.99152762,-1.3387735,-0.80630362,-0.35204232,-0.47533214,0
-1.329704,0.82174426,-2.5438051,-0.44535962,0.27522796,-0.85200018,0
-2.751298,-0.25527811,0.072096974,-0.99538434,-0.092356347,0.02608376,0
1.7406913,-0.64851385,-2.035392,0.63168955,-0.23534296,-0.73863524,0
2.8571417,0.42875195,-0.60441792,0.9679718,0.14525698,-0.20477091,0
-2.7964756,-0.71185708,-0.85953915,-0.92876828,-0.23642269,-0.28547099,0
2.0325701,-1.4058259,-1.2825278,0.72999996,-0.50490403,-0.46062139,0
-0.23071207,0.9266209,2.5765986,-0.083960749,0.3372159,0.93767589,0
1.2480019,-2.6518171,-0.18120964,0.42501003,-0.90308261,-0.061711371,0
1.4185412,0.25490221,2.2528291,0.53041261,0.095311537,0.84236461,0
0.53552979,-0.84908134,2.5259287,0.19702385,-0.31238088,0.92930067,0
-0.60176086,2.5901384,-0.13531563,-0.22600809,0.97279882,-0.050821561,0
-2.2029097,1.2955844,1.2685241,-0.77209556,0.45408806,0.44460368,0
0.89293945,-2.753638,0.12275492,0.30818638,-0.95038211,0.042367253,0
-1.7654099,0.44467559,2.3458085,-0.59453791,0.1497536,0.78999901,0
1.0437086,-1.6249048,-1.7373338,0.40178397,-0.62552011,-0.66880059,0
-1.6922852,-1.9854988,-0.71005869,-0.62590492,-0.73435229,-0.26262078,0
0.4688414,-1.2336367,-2.4533339,0.16829862,-0.44283494,-0.88066608,0
1.0650864,-1.681017,-1.9828196,0.37913752,-0.59838963,-0.70582193,0
0.11079384,1.8885316,-2.1766794,0.038418334,0.65485799,-0.75477475,0
1.3056023,0.49955332,2.5179193,0.45334321,0.17345949,0.874295,0
-1.90871,-1.213843,-1.2802453,-0.73435736,-0.46701413,-0.49256176,0
1.8326302,2.056633,-0.042121556,0.66520053,0.74650818,-0.015289109,0
1.7572683,0.070781879,2.1335192,0.6355533,0.025599767,0.77163243,0
2.3460586,0.0061114565,1.406039,0.85774809,0.0022344242,0.51406527,0
-0.60046571,2.5860517,-0.76125622,-0.21741548,0.93635267,-0.2756342,0
0.28019002,-2.8579805,-0.78698188,0.094100356,-0.95983785,-0.26430374,0
-0.45118859,-1.9967788,1.6086001,-0.17329977,-0.76695496,0.61785704,0
-2.2774706,-1.3867998,1.5536629,-0.73797917,-0.44937107,0.5034405,0
-0.35503763,2.6967161,-1.1233251,-0.12064538,0.91637146,-0.38171726,0
-2.6612592,0.85056049,0.20492806,-0.94998032,0.30362159,0.073152445,0
-1.2600626,-2.6577113,0.2677682,-0.42664042,-0.89986569,0.090662755,0
1.5800524,-2.3447974,0.49265125,0.55052602,-0.81698048,0.17165084,0
0.45628646,-2.4586112,-1.1530828,0.16570266,-0.89285666,-0.41874766,0
-0.46004221,2.9428115,-0.40445334,-0.15304704,0.97901577,-0.1345537,0
0.35984385,-1.6460243,2.1503696,0.13172194,-0.60253227,0.78714937,0
1.8644567,0.25874525,2.3372252,0.62128645,0.086220786,0.77882552,0
0.99125767,-2.2677684,1.4059902,0.34824571,-0.79670572,0.49394834,0
0.080921233,2.1061583,-2.1647046,0.026783371,0.69709784,-0.71647555,0
0.24959975,2.581398,1.6220069,0.081598088,0.84389961,0.53025955,0
1.427318,2.0181117,-0.91558778,0.54147834,0.7656064,-0.34734443,0
-0.12651059,1.5717088,2.0656185,-0.048682939,0.60481423,0.79487717,0
-1.414897,-2.479213,0.65939003,-0.48294708,-0.84623033,0.22506975,0
2.4498241,-1.0453467,-0.083753005,0.91931182,-0.39227289,-0.03142884,0
-0.16449067,2.7573049,0.27346992,-0.059260726,0.99336874,0.098522469,0
0.41775376,2.1859334,-1.3883665,0.15926269,0.83335602,-0.52929497,0
-1.7153946,1.7429478,-1.2487025,-0.62472218,0.63475662,-0.4547596,0
-0.55277276,-2.6648481,0.98876303,-0.19089951,-0.92030257,0.3414683,0
1.504202,-0.20331502,-2.3170817,0.54303575,-0.073399268,-0.83649546,0
0.95654166,2.3147118,-1.3453068,0.33645371,0.81417614,-0.47319785,0
0.61005169,1.0235593,-2.4584649,0.22329764,0.37465414,-0.89987361,0
1.0107335,0.49701837,2.4655216,0.37288046,0.18336034,0.90958184,0
-2.1168425,0.60142529,-1.9876667,-0.71384901,0.20281473,-0.67028791,0
-1.4983637,0.54682255,2.5470994,-0.49857387,0.18195277,0.84753597,0
-1.8377388,-2.271148,0.41560829,-0.62276101,-0.76963192,0.14083864,0
2.6207347,0.28731105,1.0546647,0.92293602,0.10118144,0.37141803,0
-0.1748592,1.3481232,-2.399987,-0.063394949,0.48876011,-0.87011182,0
2.2088549,-1.6263992,0.44580263,0.79483223,-0.58524191,0.16041718,0
0.58225089,-2.5772395,0.77673256,0.21142039,-0.9358182,0.28203839,0
-2.2574961,-0.010951412,1.7886761,-0.78378803,-0.0038022592,0.6210168,0
-1.5774032,-2.3916376,0.39777866,-0.54534894,-0.82685077,0.13752234,0
-0.57902372,-1.8966089,-2.0016184,-0.20550245,-0.67312926,-0.71039832,0
1.8661945,1.1321862,1.7013025,0.67432934,0.4091033,0.61474741,0
1.1978229,1.4945687,1.8747202,0.44692734,0.55764806,0.69948876,0
-1.3372619,1.7261723,1.9087747,-0.4610875,0.59518367,0.65814489,0
-1.8070335,-0.054637142,-2.4551558,-0.59267247,-0.017919939,-0.80524421,0
0.93788248,-0.30555087,2.7476962,0.32126009,-0.10466269,0.94118947,0
-1.8119394,2.2746961,-0.35680437,-0.61841744,0.77635694,-0.12177783,0
-1.6921848,-2.0540431,0.30400407,-0.63173777,-0.76682907,0.11349283,0
-2.4019418,-0.49255788,-1.0728033,-0.89746952,-0.18404096,-0.40084577,0
1.6722056,2.2645204,0.72269571,0.5753715,0.77917486,0.24866472,0
1.5421647,-0.86729795,-2.0236371,0.57371241,-0.3226501,-0.7528286,0
2.1816721,-1.1392444,-1.4578983,0.76266217,-0.39825353,-0.50964755,0
-0.63744664,0.59802979,-2.5464046,-0.2367719,0.22213097,-0.94583136,0
-1.9636323,1.7851954,0.34377596,-0.73379487,0.66711426,0.12846653,0
-1.5039711,2.2275071,0.81250346,-0.53563571,0.79332131,0.28937116,0
2.7038717,-0.35983431,0.43631357,0.9788177,-0.13026217,0.15794812,0
-2.2345045,0.91598219,1.539561,-0.78021425,0.31983036,0.53756326,0
-2.6890121,-0.85324097,-1.1876858,-0.87848991,-0.27875054,-0.38801241,0
-1.6815624,1.9231884,0.99659735,-0.6132226,0.7013374,0.36343345,0
0.52037412,-2.3531895,1.0789741,0.19707076,-0.89117587,0.40861806,0
2.5338571,-0.4408209,-1.0921525,0.90682751,-0.15776284,-0.39086413,0
-0.56559706,0.15415986,2.9107852,-0.190486,0.05191911,0.98031598,0
-2.0328224,-1.1797074,-1.3455173,-0.75061005,-0.43560138,-0.4968259,0
-0.93711329,2.0765297,-1.3421179,-0.35441235,0.78533494,-0.50758344,0
-0.47501382,-2.7693079,-0.39771628,-0.16739041,-0.97587806,-0.14015147,0
0.21267048,-2.8168685,0.37064269,0.074644871,-0.98868817,0.13009128,0
2.7602055,0.0092020277,-1.2616982,0.90948397,0.0030320557,-0.41572788,0
-1.11234,2.1251171,1.3808194,-0.40190253,0.76783174,0.49890757,0
-0.070798263,0.96245086,-2.8184907,-0.023764746,0.32306442,-0.94607854,0
1.8251191,1.5197335,1.851844,0.60602164,0.5046199,0.61489552,0
1.0455428,-1.3340321,2.4305773,0.35284343,-0.45020103,0.82025641,0
-1.9035404,2.0262208,0.92495197,-0.64968485,0.6915561,0.31568927,0
-0.20733373,2.5032568,0.97123879,-0.076988079,0.92952043,0.3606447,0
1.7995787,-0.58733469,-2.0772502,0.64032567,-0.20898528,-0.73912668,0
0.37788263,2.8664162,-0.33791277,0.12981655,0.98471916,-0.11608543,0
-1.000168,-2.2426789,-1.377431,-0.35523143,-0.79653621,-0.48922461,0
-0.15573125,-0.87167406,2.8372023,-0.052396506,-0.29327881,0.95459002,0
0.97587872,-1.9187169,1.8274369,0.34560159,-0.67950207,0.64717579,0
0.34965423,0.88607019,-2.4887881,0.13120955,0.33250239,-0.93393052,0
-2.1961844,1.0811945,1.5125507,-0.76322603,0.37574068,0.52564716,0
-1.5150352,0.29148477,2.1449311,-0.57340717,0.11032052,0.81180882,0
-2.3250773,0.10629756,1.3770473,-0.8597526,0.039306048,0.50919598,0
-0.76722461,1.0458252,2.5203204,-0.27067357,0.36896268,0.88915825,0
-1.1289095,-1.3554077,-2.04146,-0.41842681,-0.50237769,-0.75666088,0
1.0387114,2.6580346,-0.62622732,0.35551822,0.90976155,-0.2143379,0
-0.21577863,-0.51500142,-2.7967041,-0.075661324,-0.18058178,-0.98064548,0
-0.71367991,-2.4974811,-0.59140623,-0.26790512,-0.93751824,-0.22200534,0
0.94343388,-1.9982377,1.764119,0.33365569,-0.70669854,0.62389994,0
-1.4982464,1.2005244,-2.1842835,-0.51519614,0.41281965,-0.75110102,0
1.9688441,1.2346631,-1.5432798,0.70575356,0.44257841,-0.55320543,0
-2.7168491,0.037552763,-1.1500243,-0.92082113,0.01272775,-0.38977751,0
-2.2233078,-0.22167158,-1.9845095,-0.74398017,-0.074177429,-0.66407162,0
2.3237283,-1.4212538,-0.48647466,0.83979815,-0.51364279,-0.17581253,0
-1.9093835,-2.2368391,-0.22027157,-0.64742672,-0.75845909,-0.074688867,0
1.7528937,1.514732,-1.4871902,0.63673073,0.55021954,-0.54021513,0
2.6649592,0.55083257,0.22869897,0.97585952,0.20170486,0.083745398,0
-0.27411172,2.6839294,-0.268361,-0.10110328,0.98993969,-0.098982185,0
-1.4287705,2.6131182,-0.01224423,-0.4797363,0.87740308,-0.004111228,0
2.9189935,0.50966781,0.44556892,0.974145,0.17008957,0.14869809,0
1.0800883,0.65217268,-2.7128749,0.36100122,0.21797769,-0.90673256,0
1.3257996,2.6676481,-0.66275173,0.43443558,0.87413001,-0.21716927,0
1.2423136,-1.216076,2.2109363,0.44170406,-0.43237528,0.78609741,0
2.5837686,1.457497,0.44578511,0.86130971,0.48586252,0.14860427,0
2.296839,-0.22721852,-1.609848,0.81621277,-0.080745175,-0.57208127,0
-1.7993752,-2.040056,0.61626679,-0.64513361,-0.7314254,0.22095138,0
-1.6887428,-0.4539324,2.2194533,-0.59766316,-0.16065128,0.785487,0
-0.75112867,2.4127579,-1.7505143,-0.24434353,0.78487456,-0.56944549,0
0.31420213,-0.64146298,-2.9365823,0.10396459,-0.2122501,-0.97166932,0
-2.6303618,-0.51061183,-1.3906169,-0.87131786,-0.16914222,-0.4606474,0
-1.5866383,2.5061722,-0.50643474,-0.52727675,0.83285916,-0.16830002,0
0.82003057,0.63737458,-2.50631,0.30226138,0.23493481,-0.92382014,0
-2.2936006,0.84728217,-1.1264219,-0.85197955,0.31473094,-0.41842005,0
2.423485,-1.1228206,-0.68824798,0.87864596,-0.40708393,-0.24952756,0
2.2095671,-0.32159352,1.66335,0.79358006,-0.11550236,0.59740269,0
-0.3745791,0.64391363,-2.6044033,-0.13827991,0.23770766,-0.96144354,0
-2.3945343,0.869654,-1.4604155,-0.81544417,0.29615539,-0.49733564,0
-1.9823266,0.98219234,1.7996768,-0.69509733,0.34440303,0.63105166,0
-1.4780391,1.947083,1.486635,-0.51660067,0.68053973,0.51960504,0
1.2454282,-0.10831795,2.436826,0.45473745,-0.03954963,0.88974702,0
1.842311,-2.374836,-0.43376973,0.60666335,-0.78202105,-0.14283809,0
-0.34433538,-0.60163385,-2.7618458,-0.12092502,-0.21128407,-0.96991557,0
1.7812035,2.0036843,-0.29967514,0.66028303,0.74275553,-0.11108804,0
2.4969125,-1.5383344,-0.56738365,0.83588904,-0.51498675,-0.18994248,0
-1.8057029,-1.8517848,1.3031737,-0.62347478,-0.63938594,0.44996098,0
-1.976913,1.4448141,-1.7133573,-0.66150182,0.48345435,-0.57331252,0
0.99571198,-0.85944164,-2.7301064,0.32857016,-0.28360298,-0.90089458,0
0.60178459,2.6944008,1.0947731,0.20262603,0.90722787,0.36861947,0
1.6996939,-1.6880279,1.5477266,0.59596741,-0.59187692,0.54268277,0
-1.5026666,-1.5785823,1.6308162,-0.5520373,-0.57992661,0.59911591,0
-1.4560554,-2.2155766,1.5619175,-0.47319281,-0.72002405,0.50759619,0
-1.3471769,1.821484,-1.7841097,-0.46716926,0.63164777,-0.61868727,0
2.600775,1.3076017,0.87307543,0.85577214,0.43025985,0.28728116,0
2.9379792,-0.043716881,-0.64577037,0.97658211,-0.01453146,-0.2146536,0
1.5487059,2.5196431,0.057411347,0.52354658,0.851776,0.019408148,0
-2.0959032,-1.7938855,-0.55841565,-0.74462157,-0.63732231,-0.19839101,0
1.4177136,2.0213704,-1.5697248,0.48456776,0.69089478,-0.53652447,0
-2.5220838,0.36180794,0.94312781,-0.92831004,0.1331716,0.34713954,0
-2.0751107,-1.4321997,1.5169575,-0.7052148,-0.48672512,0.51552957,0
-2.494755,-1.331935,0.75738204,-0.85211849,-0.45494103,0.25869444,0
-1.6585141,1.6759722,1.3029889,-0.61564547,0.62212598,0.48367342,0
2.8118126,0.58049411,0.65234029,0.95500708,0.19715963,0.22156155,0
2.8188257,0.39019904,-0.8941679,0.94500154,0.13081288,-0.29976669,0
0.80332774,1.3584523,2.3248863,0.28588673,0.48344341,0.82737607,0
-1.2141439,2.4106486,0.56745446,-0.44020271,0.87401009,0.20573755,0
0.95858318,2.4574981,0.63348293,0.35335094,0.90587783,0.23351316,0
1.1603419,-2.6678562,0.13395858,0.39842087,-0.91604865,0.045996696,0
1.5907323,2.5701747,0.3932187,0.52187854,0.84320849,0.12900499,0
2.67711,-0.22430567,1.2549505,0.9028573,-0.07564725,0.42323297,0
0.85219759,2.3941593,-1.4175739,0.29285738,0.82275194,-0.48714873,0
-1.5806788,1.9993621,1.4636395,-0.53781283,0.68026632,0.49799114,0
-0.57773775,-2.4475937,1.3495221,-0.20242605,-0.85758066,0.47284156,0
2.2964892,0.19139729,-1.4003835,0.85162884,0.070977665,-0.51931745,0
-1.8608861,-2.1782293,-0.50912982,-0.63952911,-0.74859017,-0.17497221,0
0.90849429,-2.7465198,0.37147489,0.31148773,-0.94167602,0.12736446,0
-0.024175072,2.7576013,-0.83502817,-0.0083901677,0.95704937,-0.28980374,0
-0.74481893,-2.1468086,1.8559099,-0.2538639,-0.73171777,0.63256794,0
-1.6884909,-1.7750363,-1.6243169,-0.57443094,-0.60387403,-0.55259871,0
-0.085646503,2.6394937,-1.2079232,-0.029492378,0.90890986,-0.41594842,0
1.7080177,0.9022876,2.0057812,0.61335588,0.32401502,0.72028387,0
0.3620109,-1.0337536,2.7335403,0.12293159,-0.35104185,0.92825508,0
-1.4372505,-2.2296145,-0.60874689,-0.52807826,-0.81921071,-0.22366735,0
1.3002908,-0.47951329,2.5090494,0.4536384,-0.16728999,0.8753435,0
-1.1300805,0.012411642,2.6063101,-0.39780501,0.004369081,0.91745961,0
0.72518378,-2.7374582,0.5676043,0.25108436,-0.94780517,0.19652475,0
2.3095331,0.15989922,1.5220956,0.83358258,0.057712618,0.54937178,0
2.0653317,1.1342453,1.4583584,0.74531496,0.40931439,0.52627689,0
-0.49341911,2.5277808,-0.68470788,-0.18515129,0.94852811,-0.25693077,0
1.6765114,2.4989595,0.25418326,0.55514538,0.82748371,0.084168032,0
2.3273034,0.27967888,-1.729373,0.79895002,0.096012168,-0.5936839,0
-0.37064213,2.2303324,1.9395133,-0.12442511,0.74872589,0.65109748,0
-0.6762647,-1.1165621,-2.4173419,-0.24615726,-0.40642351,-0.87990141,0
-0.015275463,2.8190393,0.91335654,-0.0051547973,0.95130187,0.3082177,0
1.2068526,-0.73432416,-2.6550496,0.40128195,-0.2441649,-0.88281161,0
-0.61997986,2.4063702,-1.5603971,-0.21129063,0.82009673,-0.5317871,0
1.5749722,2.3940153,0.52627486,0.54056686,0.82168144,0.1806297,0
1.9258658,-2.0081415,-0.53813177,0.67957348,-0.70860583,-0.18988867,0
-0.43812162,-2.1276693,-1.7141087,-0.15832978,-0.76890391,-0.61945009,0
-0.17883539,1.3651371,-2.56481,-0.061434671,0.46896058,-0.88107985,0
0.39041013,2.5780396,1.3683006,0.13258293,0.87549996,0.46467364,0
0.76718473,-0.76824075,2.6550279,0.26745728,-0.26782542,0.92560041,0
0.61160219,2.3977344,0.89720917,0.23235911,0.91094416,0.34086654,0
-1.4816306,2.2761729,1.0792794,-0.50697279,0.77884305,0.36929941,0
0.47788027,-2.7745738,-0.06335374,0.16969338,-0.9852401,-0.022496661,0
-2.1751034,0.57156831,-1.3307638,-0.83235955,0.21872538,-0.50925118,0
-0.10392135,-1.1888043,2.75897,-0.034571435,-0.39547858,0.91782439,0
0.99668372,-2.107393,-1.9453007,0.32826382,-0.69408268,-0.64069659,0
0.4045026,1.1845348,-2.5850255,0.1408374,0.41242453,-0.90003937,0
1.638436,-1.5780185,1.6067683,0.58830374,-0.56661004,0.57693303,0
-1.5495788,1.9392729,1.362316,-0.54724765,0.68487167,0.48111415,0
0.88459903,0.087172978,-2.6481876,0.31667614,0.031206908,-0.94802028,0
-0.32734543,2.5891848,-0.80719525,-0.11982882,0.9478029,-0.29548374,0
0.028494975,-2.3115726,1.6633419,0.010005393,-0.81165862,0.58404642,0
-0.020454517,2.6636961,-0.59282398,-0.0074953963,0.97609037,-0.21723567,0
0.61860359,-1.0638571,2.5024714,0.22182539,-0.38148907,0.89736259,0
-1.4734561,-1.9935794,-1.1501887,-0.53916842,-0.72949237,-0.42087808,0
-2.3433459,-0.078556493,1.4995408,-0.8419686,-0.028225495,0.53878784,0
0.61001855,0.98651749,-2.3763373,0.23069195,0.37307331,-0.8986643,0
1.6304226,-1.8331354,1.3758435,0.57965261,-0.65172166,0.48914391,0
2.3513157,0.92627054,1.0782478,0.85577214,0.33712041,0.39243323,0
-0.53806841,0.43016914,-2.9552968,-0.17731553,0.14175831,-0.97389108,0
2.476239,-0.29848158,1.2775414,0.88364083,-0.10651255,0.45588806,0
1.2944045,0.38029939,-2.5500927,0.44867089,0.13182066,-0.8839218,0
-0.69113684,2.7151816,-0.10163125,-0.24651706,0.96846032,-0.036250181,0
-1.8926665,2.2149708,0.36157694,-0.64468139,0.75446492,0.12316059,0
-2.5209026,-0.80387622,0.14151098,-0.95137256,-0.30337775,0.053405341,0
2.2380197,-1.7411886,0.70490432,0.76595294,-0.5959146,0.24125057,0
2.21366,-1.2272778,1.3726217,0.76880848,-0.42623597,0.47671419,0
-0.35789514,1.5063965,-2.3015969,-0.12902114,0.54305565,-0.82972527,0
-1.4135989,1.9266459,1.9238994,-0.46078053,0.62801468,0.62711948,0
-0.66196853,-2.2247779,1.5985357,-0.23487718,-0.78938735,0.56718642,0
2.0385828,0.30171815,-2.0948932,0.69372344,0.10267375,-0.71288568,0
1.5395606,0.036262911,-2.5411406,0.518134,0.012204162,-0.85521239,0
-0.012756689,0.18448338,-2.7941704,-0.0045555001,0.065880261,-0.99781716,0
-1.4062767,-0.95681334,2.2230778,-0.50239611,-0.34182411,0.79420048,0
-0.48169497,-1.4213395,-2.2052002,-0.18058442,-0.53285122,-0.82671565,0
-0.94760436,0.035779551,2.5583293,-0.34730864,0.013113645,0.93765914,0
0.56222093,0.029149901,2.9746392,0.18570808,0.0096285501,0.98255777,0
-1.5793306,-1.8432475,-1.3000878,-0.57356018,-0.66940606,-0.47214854,0
2.3596549,0.78805786,1.0210379,0.87747258,0.29305097,0.37968808,0
1.458194,-0.17015983,2.5769472,0.49167049,-0.057374097,0.86888909,0
1.1793083,1.1060375,-2.2789598,0.42205063,0.39582849,-0.81559366,0
-2.7152321,-1.0852702,-0.046731193,-0.92845511,-0.37110072,-0.015979413,0
-0.78440648,1.6752177,-2.1986949,-0.27299756,0.58302724,-0.76521337,0
0.6608032,-2.8238792,0.12969315,0.22762275,-0.97272402,0.04467459,0
0.74596798,1.4094669,-2.2931297,0.26707357,0.50462133,-0.82099277,0
1.8667911,1.6808616,-1.3955112,0.64963186,0.58492953,-0.48562932,0
0.40408111,1.4374306,-2.3648517,0.14448053,0.51395804,-0.84556043,0
0.21302173,0.96727407,-2.5166667,0.078764103,0.3576465,-0.93052948,0
1.1847281,-2.4022434,1.4617834,0.38825467,-0.78725421,0.47905019,0
-2.0995724,1.2170188,1.3687505,-0.75356585,0.43680504,0.49126363,0
-0.92946893,-1.9355456,-1.9150565,-0.32305783,-0.67274243,-0.66562098,0
-0.41629106,2.1510501,-1.6280165,-0.15250954,0.78804398,-0.59642899,0
-0.040013436,-0.51940954,2.7249486,-0.014422901,-0.18722193,0.98221171,0
1.4084383,0.54973054,2.3352945,0.50626898,0.1976029,0.83943123,0
-0.81752104,2.6224635,-1.1298419,-0.27523938,0.88291937,-0.38039017,0
2.7959571,-0.60469276,-0.3256062,0.9711318,-0.21003053,-0.1130942,0
2.2431014,0.2530407,1.5103698,0.82587892,0.093166091,0.55609727,0
2.2209845,1.1709014,1.5619694,0.75110751,0.39598334,0.52823734,0
-1.9010279,-1.0447408,-1.9158512,-0.65686083,-0.36098856,-0.66198272,0
2.6631253,-1.0185437,-0.60763335,0.9135043,-0.34938052,-0.20843019,0
-1.3722466,0.71175408,-2.4946282,-0.46758372,0.24252537,-0.85002762,0
2.3186438,1.1286331,-1.0356772,0.83436042,0.4061369,-0.37268683,0
-0.89902568,2.1419022,-1.7264521,-0.31062576,0.74005669,-0.59651297,0
2.0958269,1.6103873,0.87714684,0.75258964,0.57827336,0.31497431,0
-2.8050976,1.1460782,0.069239579,-0.92547435,0.37812087,0.022843931,0
-2.4001882,-1.5976579,0.61139691,-0.81433833,-0.54205501,0.20743537,0
-0.28742018,1.3987459,-2.4586616,-0.10108832,0.49195176,-0.86473387,0
-2.2795317,-1.2331001,-0.86296076,-0.83451188,-0.45142457,-0.31592059,0
-2.8215497,0.73915094,-0.76210755,-0.93593675,0.24518389,-0.25279883,0
0.39993533,2.4936345,1.19601,0.14312094,0.89237249,0.42800438,0
1.5342185,-1.6664779,-1.6189694,0.55103517,-0.59853786,-0.58147454,0
0.69991559,-2.525773,0.88101697,0.25312778,-0.91345775,0.31862396,0
-2.3478503,-1.0333816,0.8169452,-0.87210935,-0.38384974,0.3034544,0
-2.1824691,1.1427523,1.2913721,-0.78463978,0.41084152,0.46427318,0
-1.3906118,-1.502755,2.012985,-0.48431966,-0.5233767,0.70107865,0
-2.3998415,1.3086585,-0.02864844,-0.8779006,0.47872829,-0.010480059,0
1.8962588,1.526747,-1.5426881,0.65793788,0.52972972,-0.5352608,0
-2.6949301,0.92150146,0.96267384,-0.89639211,0.30651134,0.32020617,0
0.32397643,-1.3645211,2.3978145,0.11662892,-0.49121666,0.86319399,0
0.23761438,-1.6995432,1.9941335,0.090317801,-0.6460005,0.75797498,0
-0.63780856,-2.7825298,-0.41934982,-0.22105224,-0.96437162,-0.14533862,0
-2.7753661,-0.84186172,0.45002297,-0.94562763,-0.28684062,0.15333262,0
-1.3340877,-0.5012036,-2.309206,-0.49163678,-0.1847031,-0.85098648,0
2.4267082,-0.23847254,-1.2519836,0.88532716,-0.08700107,-0.45675665,0
1.4056288,0.84671122,-2.303802,0.49695814,0.2993536,-0.81450605,0
0.69822788,0.94975436,2.5111175,0.25170124,0.34237298,0.90522224,0
2.0000949,1.8562807,-1.130954,0.67711514,0.6284281,-0.38287491,0
1.6838506,-2.0451343,-1.4527208,0.55732435,-0.67690277,-0.4808245,0
-0.45149767,-2.4155939,-1.5606648,-0.15509416,-0.82978171,-0.53610462,0
0.40858972,-0.29234129,2.8698773,0.14023915,-0.10033952,0.98502028,0
1.4258411,0.43652812,-2.5411291,0.48393643,0.14815947,-0.86246985,0
0.41226763,2.2048731,-1.5009518,0.15275158,0.81693989,-0.55612606,0
1.332164,-2.3697863,-0.011005339,0.49002227,-0.87170047,-0.0040481961,0
2.718698,0.67826682,-0.63265598,0.94643629,0.23611903,-0.22024094,0
-0.47886977,1.0684282,-2.4191022,-0.17818096,0.39754769,-0.90011525,0
-1.0525707,-2.4493043,0.077220388,-0.39466274,-0.91836977,0.028953884,0
-0.64148438,1.0450706,-2.7520702,-0.2129126,0.34686539,-0.91342902,0
-1.8467753,1.6934696,1.5853534,-0.62283939,0.57113588,0.5346728,0
-1.1786125,2.7730651,-0.54147172,-0.38499054,0.90581411,-0.17687026,0
0.36882329,-1.7691483,2.3143871,0.12560493,-0.60249376,0.78817803,0
0.27366769,-2.7259405,-0.27929705,0.099376649,-0.98986775,-0.10142083,0
2.4141998,1.1812729,-1.2401675,0.81559956,0.39907452,-0.41897115,0
1.9976342,2.0643921,-0.32992473,0.6908505,0.71393764,-0.1140993,0
2.7587259,-0.63765854,-0.38901424,0.96524411,-0.22310884,-0.13611127,0
2.4049671,1.6248317,0.57146269,0.81300336,0.54927725,0.19318397,0
-1.3263433,0.77011979,-2.2545819,-0.48641109,0.28242674,-0.8268249,0
1.3260225,-2.5458384,-0.27266628,0.45988211,-0.88293034,-0.094564259,0
0.97207505,-0.99280792,2.5443115,0.33531556,-0.34246731,0.87765574,0
-0.46901128,0.8518039,-2.7416661,-0.16122772,0.29281685,-0.94247752,0
-1.4387574,-2.3794959,-0.89062172,-0.49275893,-0.81495172,-0.30502835,0
0.33062032,2.5162044,1.1044021,0.11945566,0.9091239,0.39902893,0
2.2022617,1.9305252,0.89584219,0.71908629,0.6303584,0.29251194,0
-1.3829452,-2.506325,-0.53233773,-0.47497293,-0.86079806,-0.18283156,0
1.7108792,-1.0733595,-1.8993115,0.61709553,-0.38714913,-0.68506104,0
-1.0164926,-0.12012282,-2.8229461,-0.33851671,-0.040003818,-0.94010961,0
-2.3561842,1.2869344,1.0490571,-0.81743366,0.44647759,0.36395058,0
1.4445579,1.7140317,-1.6836259,0.51528138,0.61140412,-0.60055822,0
1.7178465,0.6524114,-2.102246,0.61524254,0.23365955,-0.75291431,0
0.59845608,-0.08430893,-2.892487,0.20252652,-0.028531408,-0.97886109,0
-2.5529385,0.17388846,-0.60240841,-0.97113943,0.066147283,-0.22915655,0
0.94571829,1.7989408,2.0893538,0.32445562,0.6171779,0.71681237,0
2.3961716,-0.38564515,1.3301368,0.86579317,-0.13934267,0.48060971,0
2.4008796,1.291134,0.62166888,0.85867786,0.46177581,0.22234072,0
-0.023589436,1.1630287,-2.5102794,-0.0085261622,0.42036495,-0.90731508,0
-2.8417227,-0.48119333,0.65573323,-0.9613964,-0.16279474,0.22184414,0
1.0184342,-2.5850999,-1.1822842,0.33727893,-0.8561179,-0.39154181,0
-2.391413,-1.2329384,1.34635,-0.79486006,-0.40980521,0.44750106,0
2.3073018,-0.42607534,-1.6514907,0.80414766,-0.14849705,-0.57558244,0
-1.4461375,0.17127676,-2.4916689,-0.50108516,0.05934722,-0.8633607,0
1.4088116,-2.299701,1.3672171,0.46592575,-0.76056296,0.45216951,0
1.2986068,1.0392114,-2.3575518,0.45009217,0.3601867,-0.81711847,0
1.4332737,2.4095712,-0.15977378,0.51039368,0.8580566,-0.056895997,0
-0.54160416,2.6513333,-1.102289,-0.18535544,0.90737683,-0.37724093,0
1.1470811,2.2905593,1.4980788,0.38653392,0.77185374,0.50481021,0
1.0697358,2.5651181,-0.15617843,0.38429621,0.92150342,-0.056106173,0
-0.52028352,-2.7685597,-1.048411,-0.17309368,-0.92107505,-0.34879696,0
-0.50362086,-2.6255217,-0.92255878,-0.17807786,-0.92837161,-0.32621226,0
2.3924232,-1.2674472,-1.0588464,0.82295692,-0.43598244,-0.36422694,0
1.2142864,2.5937505,-1.1153852,0.39508858,0.84392047,-0.36290938,0
0.4818382,0.27945125,2.9097519,0.16264108,0.094326794,0.98216617,0
0.39223924,-2.7996793,-0.48037982,0.13678569,-0.97633278,-0.16752297,0
-2.8297987,-0.18244365,-1.1455473,-0.92527866,-0.059654851,-0.37456742,0
-2.5075271,-0.38516414,1.0981387,-0.90707558,-0.1393297,0.39724189,0
-1.5229365,1.8214803,1.6802865,-0.52358121,0.62621975,0.57767773,0
1.6579688,-0.93522656,-2.1213939,0.58169609,-0.32812297,-0.74428821,0
2.5072906,-0.085150875,1.1808096,0.9042657,-0.030710049,0.42586434,0
0.80022168,-1.9047713,2.105022,0.2713064,-0.64579189,0.71368468,0
-0.33365449,1.4779484,-2.5108526,-0.11377499,0.50397509,-0.85619175,0
1.3625095,1.6893075,1.6279938,0.50220871,0.6226635,0.60006386,0
-0.053239878,-2.1310947,1.8270637,-0.018962841,-0.75904775,0.6507588,0
0.54113513,1.4036562,-2.6383977,0.17817259,0.46216381,-0.86871123,0
2.23105,-1.2414676,0.67704463,0.8446334,-0.46999618,0.2563163,0
-0.96352392,-1.6991813,2.0262632,-0.3423444,-0.6037268,0.71994048,0
-2.615108,0.64920563,-1.0753794,-0.90140247,0.22377491,-0.37067288,0
-2.8444822,0.088761047,0.6454711,-0.97475582,0.030416906,0.221192,0
1.6701614,-2.0262101,1.0498792,0.59059411,-0.71649832,0.37125304,0
1.1071676,2.4454837,1.0186903,0.38560793,0.85172099,0.35479277,0
-2.1481647,0.74542469,1.6070435,-0.7715013,0.2677151,0.57716066,0
-1.5372621,-1.6567779,-1.5255084,-0.56376708,-0.60759765,-0.55945659,0
-2.4427624,-1.3715841,0.12014842,-0.87115115,-0.48914173,0.04284798,0
2.2676437,-1.5374241,-1.216182,0.75651282,-0.51290292,-0.40573272,0
-2.4032912,1.2919719,0.63359034,-0.85796618,0.46122926,0.22618943,0
0.42542404,2.4858637,1.4089006,0.14726371,0.86050022,0.48770145,0
2.5988727,-1.1181792,0.52328598,0.90326387,-0.38863423,0.18187322,0
1.0991887,0.28659844,-2.8005226,0.363713,0.094833203,-0.92667121,0
1.0600681,-1.6125811,2.2052131,0.36175108,-0.55029762,0.75253481,0
-1.0656226,-2.3830161,0.62971151,-0.39683509,-0.88742906,0.23450294,0
-1.8728408,-1.7249638,1.1779503,-0.66757023,-0.61485976,0.41987795,0
2.5876064,1.2074389,-0.46049476,0.89463896,0.41745991,-0.15921144,0
-0.62670505,1.8126014,2.0607421,-0.22262052,0.64387906,0.73202455,0
-0.51528507,-1.9102573,2.3052938,-0.1696175,-0.62880355,0.75883859,0
-0.053289521,-1.7070831,2.3456323,-0.018365912,-0.58833587,0.80840802,0
2.1914964,0.38509014,1.9161365,0.74631709,0.13114297,0.65254295,0
1.0342702,2.7611005,0.10066505,0.35057941,0.93591118,0.034121737,0
-1.680993,0.36415964,2.3337874,-0.57982808,0.12561028,0.80499774,0
-0.29433599,-1.0182718,2.5403147,-0.10693086,-0.36993328,0.92288417,0
0.3966071,0.66250896,-2.9532368,0.12992814,0.21703738,-0.96747786,0
-1.614848,-0.53654218,-2.3429058,-0.55767965,-0.18529215,-0.80911076,0
-1.1230537,0.91827965,2.3800392,-0.40291727,0.32945064,0.85388523,0
-2.1715243,-1.9873563,-0.61150879,-0.72227639,-0.6610198,-0.20339555,0
-0.64023107,-1.1536345,2.3307955,-0.2390424,-0.43073133,0.87024671,0
-1.9298127,1.4426808,1.2293618,-0.71343356,0.53334552,0.45448345,0
1.5798565,2.2518642,-0.2995455,0.57095337,0.81381404,-0.10825446,0
1.3227978,-2.5857859,0.011491355,0.45542791,-0.89026386,0.0039563747,0
2.3058741,-1.6895121,0.62736458,0.78789717,-0.57729161,0.21436504,0
1.161916,1.9704946,-1.4409289,0.42977443,0.72885495,-0.53297693,0
-0.44135401,2.4427681,1.6110505,-0.14914189,0.82545769,0.54440451,0
-2.3265495,1.7837689,1.0204862,-0.74948442,0.5746308,0.32874373,0
-2.8610246,-0.79352152,0.29335263,-0.95895332,-0.26597118,0.098325431,0
-2.7387495,1.185397,0.60538566,-0.89940655,0.38928491,0.19880892,0
-2.5612755,0.44461459,-0.96730429,-0.92340988,0.16029572,-0.34873965,0
-0.62654269,1.5286571,-2.0976002,-0.23465401,0.57251567,-0.78559744,0
2.5350707,-1.0567814,0.92938703,0.87431151,-0.36446959,0.32053298,0
-0.4830437,-2.5843222,1.2776215,-0.1652519,-0.88411075,0.43708131,0
1.6634557,-2.1816881,0.16458675,0.60523576,-0.79379064,0.059883639,0
-0.9831515,0.58010083,2.5376828,-0.35331947,0.20847337,0.91197819,0
2.6893198,1.0740745,-0.3616392,0.92151564,0.3680397,-0.12391838,0
-0.23913959,-2.2292576,-1.6923931,-0.085130706,-0.79358786,-0.60247082,0
2.0316801,-0.12984955,2.1822674,0.68075782,-0.043508865,0.7312153,0
-1.6572622,2.1730068,1.1662927,-0.55775374,0.73132819,0.3925173,0
-2.9303596,-0.12991181,-0.13839629,-0.99790859,-0.044240341,-0.047129661,0
0.15816544,-0.92253888,-2.5962715,0.057309631,-0.33427253,-0.94073248,0
0.95187378,-0.35630322,-2.756923,0.3239533,-0.12126146,-0.93826962,0
1.2622578,1.8241235,1.7017819,0.45147535,0.65243948,0.6086812,0
1.973508,0.78526384,-2.1431067,0.65405774,0.26025122,-0.71026593,0
-1.6663717,-1.4162191,-1.9014586,-0.57502079,-0.48869973,-0.65614307,0
