-3.0965531,0.86662346,-0.75567925,-0.93745762,0.26236358,-0.22877608,0
1.7450377,1.8516996,1.8936906,0.55018097,0.58380967,0.5970487,0
-2.7967386,1.5576173,0.79007852,-0.84819227,0.47239274,0.23961428,0
1.7641962,1.7337506,1.8366028,0.57264042,0.56275809,0.59614289,0
-2.3446207,1.9625341,-0.54947037,-0.75473255,0.63173902,-0.17687431,0
-0.58871776,2.7264819,-1.7911235,-0.17759863,0.82249844,-0.54032862,0
-2.0941598,-0.26204589,-2.4957886,-0.64070851,-0.080172978,-0.76358688,0
2.5205801,-1.354786,1.3167114,0.80018425,-0.43009084,0.41800368,0
0.092149489,1.8906225,-2.6738975,0.028128009,0.57709974,-0.81618911,0
3.1051631,0.92653179,0.84233314,0.92743003,0.27673051,0.25158262,0
-3.0313418,-1.3730686,0.034094024,-0.9108628,-0.41258201,0.010244631,0
-1.8531557,0.14055578,2.6752367,-0.5689016,0.043149322,0.82127285,0
0.28794262,-3.1207297,-0.9287076,0.088091016,-0.95473278,-0.28412187,0
-3.0263586,0.61011714,-1.1981082,-0.91387194,0.18423755,-0.3617937,0
-2.0248024,2.0132368,-1.2255423,-0.65164149,0.6479193,-0.39441586,0
0.13749765,-3.2006176,-0.29381493,0.042740755,-0.99490291,-0.091331534,0
0.21485963,-3.4017963,-0.30871779,0.062778071,-0.99394292,-0.090201713,0
0.35337105,-3.1918058,1.0888348,0.10421225,-0.94129175,0.321107,0
1.7638453,1.5060786,-2.2854095,0.54169643,0.46253341,-0.70187455,0
2.8110702,-1.8139626,0.69423383,0.82271963,-0.53089482,0.20318234,0
-2.3178818,0.96107972,-1.6859691,-0.7667399,0.31791878,-0.55770737,0
3.0232031,0.21360546,0.13165046,0.99657345,0.070413239,0.043397464,0
1.9381671,0.19584976,-2.432478,0.62192988,0.062845364,-0.78054708,0
-3.0857415,-0.14059012,-1.3752016,-0.91260797,-0.041579522,-0.40671584,0
-0.60682428,1.7806176,2.693157,-0.18471979,0.54202724,0.81980795,0
-1.4371158,-2.6494031,-0.63555652,-0.46654266,-0.86009741,-0.20632592,0
-2.9508364,-1.1928252,0.12242594,-0.92643219,-0.37449437,0.038436331,0
-1.8964523,-2.4471893,1.0406884,-0.58062309,-0.74923831,0.31862006,0
2.2854712,1.528738,-1.5038674,0.72924757,0.48778936,-0.47985363,0
3.2143018,0.75553662,-0.003818549,0.97346842,0.22881828,-0.0011564679,0
2.3557394,-0.61127186,-2.0661407,0.7378965,-0.19147082,-0.64718449,0
-1.3209639,0.62090331,3.0612209,-0.38950491,0.18308215,0.9026444,0
-0.58098602,-0.37731045,-3.1996019,-0.1774687,-0.11525372,-0.97735435,0
-2.4448452,0.39919063,-1.9774909,-0.77131397,0.12593898,-0.62387031,0
0.11299855,-3.3073788,0.082480818,0.034135066,-0.99910659,0.024916144,0
-1.0836427,2.6686006,1.0422059,-0.35378599,0.87124062,0.34025779,0
0.12074808,0.42685086,-3.2341549,0.036988962,0.13075794,-0.99072409,0
2.0030272,-2.6479974,-0.14684749,0.60268825,-0.79675251,-0.044184752,0
1.7504075,-2.4959321,1.0461789,0.54308927,-0.7743991,0.32459217,0
-2.1979973,-2.116071,0.41866818,-0.71371704,-0.68711454,0.13594677,0
0.40571621,3.1250875,1.510632,0.11609539,0.89424145,0.43226624,0
-0.29619041,-2.3132787,-1.9821852,-0.096771285,-0.75579405,-0.64761925,0
-2.4090064,-2.2549086,-0.77272737,-0.71083999,-0.66536945,-0.22801331,0
-3.0189254,1.0426916,1.0532529,-0.89766085,0.3100386,0.31317896,0
0.81591326,-3.1262691,-0.13508481,0.25230718,-0.96674514,-0.04177266,0
3.1075704,0.29727569,1.3473063,0.91396755,0.087431759,0.39625624,0
0.65888476,0.3742466,3.3304827,0.1929047,0.10956988,0.97508067,0
-2.692625,1.2218639,1.0597472,-0.85723507,0.38899755,0.33738545,0
1.0746282,0.15416607,2.9260733,0.34432429,0.049396731,0.93755037,0
1.4466748,2.7156169,0.71469897,0.45797735,0.85968941,0.22625397,0
1.4289576,1.1564066,2.4965005,0.46091303,0.37300119,0.80525106,0
-1.4431863,1.9063283,2.3979483,-0.42618379,0.56295311,0.70813221,0
-1.780026,-2.5864403,-1.0737448,-0.53642756,-0.77944815,-0.3235831,0
2.9651663,0.78031224,1.2203898,0.89851671,0.23645337,0.36980748,0
-0.20088759,-2.1048539,-2.245959,-0.06512481,-0.68236274,-0.72810698,0
0.51925904,3.234724,-0.51572126,0.15656935,0.97534865,-0.15550262,0
-2.4656863,1.8158218,1.1118386,-0.7568655,0.55738348,0.34128925,0
-0.85172802,1.4247575,-2.897238,-0.25507972,0.42669341,-0.86767918,0
1.1412877,-3.0168331,-1.0225648,0.33728939,-0.89157695,-0.30220273,0
-1.4511113,-0.1826552,-2.9475889,-0.4410007,-0.055509921,-0.89578849,0
-2.8234854,-0.68373907,-1.3710178,-0.87894416,-0.21284631,-0.42679453,0
-2.1291938,2.4827247,0.78945684,-0.63281953,0.73789275,0.23463516,0
2.467169,-1.2725887,1.8052313,0.74505669,-0.38430718,0.5451591,0
-2.3609827,1.4645853,1.5793095,-0.73876482,0.45827702,0.49417484,0
1.4382051,-0.098702408,2.9288068,0.44057718,-0.030236319,0.89720541,0
-1.9522933,-1.4438465,1.9108858,-0.6318258,-0.46727583,0.61842495,0
0.12620454,2.551784,1.875679,0.039818496,0.80510736,0.59179103,0
0.57677919,-2.1851296,-2.37412,0.17596585,-0.66664714,-0.72430497,0
1.7706875,-0.15055755,2.5854275,0.56440467,-0.04799005,0.8241021,0
0.77506608,-2.6468248,1.9749689,0.22848587,-0.78027165,0.58221167,0
1.6251312,-2.2847939,-1.4119434,0.51768064,-0.72781414,-0.4497703,0
1.6528691,-0.00178197,-2.957762,0.48782176,-0.00052592414,-0.8729431,0
1.8566285,-0.69655758,-2.451813,0.58877879,-0.22089411,-0.77752519,0
-3.0676098,-0.53069407,-1.4452085,-0.89375472,-0.15461886,-0.42106465,0
-2.4807031,-0.70840877,-1.8553585,-0.78064799,-0.22292788,-0.58385938,0
1.654457,1.1909727,-2.7142215,0.48739317,0.35085347,-0.79959351,0
-0.70700812,3.205533,-0.9076879,-0.20759189,0.94120938,-0.26651552,0
2.2044253,2.4478967,-0.025728459,0.66916537,0.74307245,-0.0078100143,0
2.2397935,-1.6542455,1.7917409,0.67644519,-0.4996025,0.5411278,0
-2.6702135,0.46894276,-1.5873718,-0.84995139,0.14926842,-0.50527382,0
-0.90812451,-2.2939746,-2.1014812,-0.28021017,-0.70782697,-0.64843136,0
2.4011245,-0.73954278,-2.0210803,0.74466139,-0.22935459,-0.62679815,0
-1.2338731,-2.5859795,1.1260842,-0.40078992,-0.83998466,0.36577764,0
3.209692,-1.207621,-0.38090813,0.93022585,-0.34999004,-0.11039396,0
-2.5167079,2.0972662,-0.31768277,-0.76463312,0.6371972,-0.096519254,0
2.7734611,1.589882,-0.37076393,0.86178565,0.49401721,-0.11520588,0
-2.0772395,-2.4532151,0.57017893,-0.63627195,-0.7514357,0.17464951,0
-2.7711539,1.82002,-0.10410529,-0.83543545,0.54869175,-0.031385209,0
2.3424687,-1.8569658,-0.97984105,0.74465203,-0.59031451,-0.31148362,0
1.2605317,-2.6089983,-1.7879469,0.37022346,-0.76627386,-0.52512759,0
0.11235832,-2.2522211,-2.2194774,0.035510931,-0.71181619,-0.70146751,0
-2.6558158,0.56529629,1.7700919,-0.81936294,0.17440322,0.54610252,0
1.1944443,2.4041021,1.6634598,0.37821788,0.76125306,0.52673048,0
-3.0779641,-0.77596498,-1.215374,-0.90555316,-0.22829296,-0.3575694,0
0.98142487,0.082211025,3.164999,0.29608342,0.024802024,0.95484,0
-2.7915211,-0.042857148,-1.1808616,-0.92089492,-0.014138144,-0.38955444,0
0.33656362,-2.5313795,-1.8623611,0.10648644,-0.80091125,-0.58923835,0
1.922224,-1.8817533,1.7507446,0.59891242,-0.58630288,0.54548413,0
1.6806251,0.31584722,-2.9473395,0.49321321,0.092691712,-0.86495602,0
1.9411862,2.5103123,0.60945708,0.60074437,0.77687341,0.1886104,0
-0.15930723,2.0136616,-2.2993972,-0.052050516,0.65792447,-0.75128299,0
-2.1674454,1.0984074,-2.1826773,-0.66358805,0.33628988,-0.66825145,0
0.61281669,-2.4092429,-1.9066727,0.19560352,-0.76900053,-0.60858637,0
-0.21697055,-0.11379518,-3.3103817,-0.06536369,-0.034281485,-0.99727243,0
1.7058767,-1.2786747,-2.5422525,0.51415259,-0.38539356,-0.7662369,0
-0.91261822,2.919214,0.59916544,-0.29281762,0.93664283,0.1922449,0
-1.1273072,3.1365283,-0.33931032,-0.33649066,0.9362244,-0.10128096,0
-2.6532826,-0.20741549,2.0446184,-0.79058552,-0.06180257,0.60922486,0
2.0235758,2.6224813,-0.043376688,0.61084926,0.79163861,-0.013093959,0
2.2481241,-2.2479959,-0.86969471,0.6820671,-0.68202817,-0.26386005,0
2.0218909,2.3042877,-1.4145848,0.59886301,0.68250602,-0.41898528,0
-2.7566857,-1.4636821,0.77182043,-0.85739678,-0.45524096,0.24005505,0
-0.48744652,-0.76743597,3.1004293,-0.15086652,-0.2375243,0.95959449,0
-2.9782264,0.54645139,0.88078737,-0.94443524,0.173287,0.27930939,0
-1.1470762,0.88398945,-2.9092736,-0.35297003,0.27201486,-0.8952207,0
0.83088917,-2.1431682,-2.2971995,0.25568032,-0.65949339,-0.70689178,0
-2.4834752,-2.3700237,0.14297171,-0.72281134,-0.68979144,0.041611679,0
-2.7609117,0.71008712,1.267747,-0.88492399,0.22759624,0.40633672,0
-1.7866685,2.6470966,-0.019265169,-0.5594365,0.82885128,-0.0060322541,0
1.3245541,1.5539237,2.5482841,0.40563232,0.47587463,0.78038818,0
3.0774517,0.36263743,1.3433095,0.91119498,0.10737241,0.39773718,0
2.9881551,0.91260368,-1.109666,0.9012382,0.2752445,-0.33467919,0
-2.7269509,0.3490375,1.6365999,-0.85231584,0.10909261,0.51152372,0
-1.2461989,2.7820103,0.015466679,-0.40880227,0.91260886,0.0050736796,0
2.4135349,1.5776316,-1.6523489,0.7262463,0.47471827,-0.49720111,0
-2.1369464,-0.66568422,2.3270798,-0.66184473,-0.2061725,0.72073191,0
2.8057811,1.3329908,1.1383681,0.84809178,0.40291756,0.34408981,0
-0.63173467,2.7909241,-1.1697226,-0.20435397,0.90281004,-0.37838265,0
-0.072920188,-3.1573346,0.98988467,-0.02203243,-0.95397115,0.29908815,0
0.36889103,-2.454469,2.0953872,0.11356598,-0.75562745,0.64508128,0
1.4472957,1.5873441,2.3947151,0.44989207,0.49342614,0.74439758,0
1.8123384,-0.19556604,2.4848218,0.58808821,-0.063459501,0.80630332,0
0.047006298,3.3410437,0.69229418,0.013775392,0.97910678,0.2028797,0
2.2103536,-1.436999,-1.7554756,0.69784826,-0.45368633,-0.5542351,0
-1.6051323,-1.5223659,2.5397749,-0.47656053,-0.45198736,0.75405401,0
1.0631403,-2.7826025,-1.0576177,0.33633408,-0.88030159,-0.33458695,0
0.045361992,2.6828325,-1.539297,0.014664152,0.8672781,-0.49760786,0
-0.84942216,0.33004409,-3.2328222,-0.25289398,0.098262288,-0.9624911,0
2.4205475,1.5892663,1.7406529,0.71644282,0.47039706,0.51520503,0
-0.62226307,0.38874698,-3.2543511,-0.18652767,0.11652961,-0.97551435,0
-1.0274048,1.0642914,2.7941434,-0.32496682,0.33663398,0.88378394,0
2.5887465,1.8837627,-0.21011382,0.80684614,0.58712071,-0.065487109,0
-2.09953,-2.2360954,0.8447907,-0.65992224,-0.70284736,0.2655338,0
0.94341415,-1.8892721,2.4127328,0.29423335,-0.58922887,0.75248659,0
0.53269333,0.91404593,2.8721132,0.17403933,0.29863325,0.9383648,0
-1.387303,-2.3375878,-1.5450281,-0.44370046,-0.74762964,-0.4941456,0
0.79020888,-3.0854402,-0.47034758,0.24543965,-0.9583407,-0.14609042,0
2.8990448,0.10043,-1.8361011,0.84445232,0.029253893,-0.53483129,0
0.35767397,-2.4670181,1.8347561,0.11555657,-0.79703909,0.59276921,0
-2.9384058,1.4729007,0.44768184,-0.88579822,0.44401386,0.13495611,0
0.75283903,-1.3872917,3.0591145,0.21870144,-0.40301135,0.88867962,0
0.72248226,-2.7070372,1.8410928,0.21550171,-0.80745393,0.54916042,0
0.18925168,-1.8045213,2.8261862,0.056350261,-0.53730172,0.84150547,0
1.2505651,2.356266,2.0214422,0.37364224,0.7040022,0.60396391,0
-0.96266037,1.6498791,-2.6040132,-0.29808298,0.51087677,-0.80631965,0
1.1322504,2.9228706,-0.46239585,0.35735333,0.92249697,-0.14593829,0
1.2691413,-0.088070758,3.2067158,0.36788246,-0.025528826,0.9295218,0
-1.1878304,-1.0116681,-3.1188784,-0.3406083,-0.29009405,-0.89433295,0
-1.9827222,-2.182045,-1.1593925,-0.62584448,-0.68876058,-0.36596119,0
3.4336987,-0.21109843,0.4377121,0.99013317,-0.06087184,0.12621762,0
-2.945044,-1.5322045,-0.17497444,-0.88589078,-0.46089831,-0.052633591,0
0.59494728,0.51143056,3.0193117,0.19071403,0.16394223,0.96785903,0
2.8616717,0.81387007,-0.79747415,0.92905962,0.26422802,-0.25890496,0
-2.2921901,-1.2085632,-1.8223288,-0.72356582,-0.38150197,-0.57524675,0
1.6513187,-0.059837788,2.83374,0.50340134,-0.018241433,0.86386019,0
-3.0037811,1.0887619,1.008309,-0.8965596,0.32497039,0.30095705,0
1.3518913,0.87506008,-2.6353993,0.43772146,0.28333092,-0.85330153,0
2.1791689,1.6789752,-1.5027182,0.69519204,0.5356217,-0.47939271,0
0.43708855,0.45406273,2.9453919,0.14511245,0.15074785,0.97786373,0
-1.2956316,-1.5409724,-2.3520787,-0.41847879,-0.49772188,-0.7597028,0
-0.26867402,-1.3068271,-2.8164361,-0.086211406,-0.41933119,-0.90373051,0
1.8956153,1.3867162,2.2092381,0.58788812,0.43006298,0.68515205,0
-2.5492067,0.89002496,1.8959802,-0.77265221,0.26976225,0.57466239,0
0.79404789,-0.78576863,3.1636364,0.23667055,-0.23420288,0.94294012,0
-0.54718572,-3.2930577,-0.39017189,-0.16280764,-0.9798044,-0.11609032,0
1.1845351,-0.76825589,-2.8937891,0.36788657,-0.23860079,-0.89873749,0
1.7081758,-2.2858226,-1.4363762,0.53469265,-0.71550751,-0.44961405,0
1.7000948,2.42079,-1.0892507,0.53931832,0.76794332,-0.34554124,0
-1.7319952,0.28327355,-2.6625609,-0.54312718,0.088830248,-0.83493835,0
-2.8892491,1.5116459,0.02915024,-0.88601917,0.4635624,0.0089392336,0
-0.61085498,-2.4040616,2.2488523,-0.18244646,-0.71803057,0.6716736,0
-0.36310968,-2.4782839,-1.9631457,-0.11409926,-0.77874643,-0.61687553,0
-3.1747515,0.51093221,0.47295246,-0.97678727,0.15720037,0.14551499,0
-1.0375707,-2.5158677,1.6821878,-0.3243058,-0.78636611,0.52578896,0
2.2460921,-2.4793413,-0.097160257,0.67110336,-0.7407952,-0.029030232,0
-0.15516278,2.5135529,-1.9912988,-0.048329823,0.7829169,-0.62024617,0
-0.76324433,-0.063167945,-3.2083647,-0.23139098,-0.019150477,-0.97267234,0
0.0038841248,0.12054045,3.3984292,0.0011421987,0.035447147,0.99937087,0
1.0437894,-2.8882556,1.3029871,0.31288093,-0.86576867,0.39057672,0
-1.3982353,-2.3606546,1.6648368,-0.43568599,-0.73557299,0.51875824,0
3.0554082,0.50527358,1.243927,0.91550821,0.15139781,0.37272444,0
-2.8270512,1.0321867,1.3739678,-0.85451078,0.31199107,0.41529855,0
3.2668266,0.038245108,-0.41652185,0.99190271,0.011612318,-0.12646803,0
1.6473455,-2.2614114,1.8683153,0.48965871,-0.67218429,0.55533999,0
2.1629283,-0.66835088,-2.3238556,0.66669279,-0.20600992,-0.71629643,0
1.6399014,1.8429275,-1.8377074,0.53309834,0.59909791,-0.59740096,0
1.6331365,-1.1069844,-2.572454,0.50375539,-0.34145913,-0.79349619,0
1.1355926,-2.8744643,-0.18935816,0.36674073,-0.92831105,-0.061153404,0
-1.9420935,2.1824968,1.2840406,-0.60857719,0.68391031,0.40236878,0
3.1448379,0.41519874,-0.94504261,0.95012802,0.12544112,-0.28551915,0
-0.44631526,2.4214623,-2.1851437,-0.13557406,0.73555064,-0.66376579,0
2.8484414,-0.035060879,1.8236331,0.84214151,-0.010365747,0.53915697,0
1.9877557,-1.0197343,-2.1842465,0.63620108,-0.32637614,-0.69908994,0
-1.9226226,-1.6866555,2.0023522,-0.59190691,-0.51926106,0.61645281,0
1.1475246,-2.6699457,1.6066056,0.34557402,-0.80404717,0.48382509,0
-0.30852142,-0.17392327,3.3457072,-0.091701746,-0.051695172,0.99444377,0
1.4098541,-2.7290585,1.1460077,0.43002582,-0.83240223,0.34954888,0
-2.7898066,0.47154388,-1.7946882,-0.83263785,0.14073566,-0.53563762,0
-2.835752,-0.96656311,0.21214545,-0.94416338,-0.3218171,0.070633814,0
-3.2018089,-0.03500025,-0.95599347,-0.95814764,-0.010473894,-0.28608292,0
-2.7771513,-0.5537042,-1.4290972,-0.8755253,-0.1745609,-0.45053747,0
-0.91743928,0.56792277,-3.1311882,-0.27701437,0.17148031,-0.94544041,0
1.1148952,-3.0728433,-0.6739189,0.33404174,-0.92067659,-0.20191766,0
-2.1742527,0.12504426,-2.2576253,-0.69313055,0.03986289,-0.71970892,0
-1.3863876,0.77737427,2.8272152,-0.42745122,0.23968014,0.87168741,0
0.57589567,1.8025466,2.806149,0.17015336,0.53257799,0.82910103,0
-0.44218341,0.33273438,3.2106276,-0.13572361,0.10212936,0.98546875,0
-2.1506472,-2.509613,0.15364546,-0.65001094,-0.75850463,0.046437755,0
-1.3423654,-1.5906628,-2.4939353,-0.41324356,-0.48968124,-0.76775128,0
-0.15844707,-3.0390198,-1.2631664,-0.048088651,-0.92234182,-0.38337073,0
-1.5701703,0.80094677,2.4609618,-0.5187059,0.26459286,0.81297898,0
1.234625,-2.8808281,-0.46044528,0.38973194,-0.90938604,-0.14534797,0
-1.7060676,2.211118,1.5132768,-0.53710198,0.69610131,0.47640783,0
-1.6003294,-2.6226087,-0.38289106,-0.51688826,-0.8470729,-0.12366948,0
-0.91723269,-0.8539632,-2.8940239,-0.29084161,-0.27077973,-0.91765434,0
2.3935082,1.0315726,2.0079501,0.72748363,0.31353649,0.61029696,0
-1.5686475,2.782093,-0.77391809,-0.47733206,0.84657782,-0.23549964,0
2.3770938,1.1166759,-2.0857377,0.70878041,0.33296034,-0.62190646,0
-0.80397928,1.7611852,-2.5073402,-0.25379795,0.55596602,-0.79151016,0
1.612812,2.7650983,-1.1962773,0.47195363,0.80914462,-0.35006398,0
-1.3491325,2.5253119,1.9043474,-0.39235055,0.73440343,0.55381644,0
1.0302597,2.8246367,0.87532037,0.32900044,0.90201211,0.27952251,0
0.67228478,3.2531478,-0.77582902,0.19707684,0.95364362,-0.2274303,0
2.1793222,2.3408968,1.1138153,0.64349174,0.69120014,0.32887793,0
-1.2272497,-0.24308448,-2.9173222,-0.38662404,-0.076579608,-0.91905248,0
2.5267181,-1.0405768,1.8571482,0.76475614,-0.31494907,0.56209892,0
1.177669,-0.44272831,2.802279,0.38338637,-0.14412877,0.91227287,0
3.1033857,-0.59389913,1.1665535,0.92138642,-0.17632698,0.34634644,0
1.5255231,-1.8695797,-2.2392185,0.46341631,-0.56793219,-0.68021935,0
2.6204374,-0.63171679,1.8434596,0.80243832,-0.19344623,0.56450981,0
2.4130602,1.752316,0.98042762,0.76868117,0.5582009,0.31231555,0
2.0195351,-2.0454671,-1.7011793,0.60462767,-0.61239147,-0.50931525,0
-2.3172903,0.94726658,-2.2988851,-0.68179131,0.27870402,-0.67637616,0
-1.0832659,-2.5975628,-1.6995503,-0.32948595,-0.79007423,-0.51693493,0
-0.76014519,-2.8969135,-0.70792025,-0.2469999,-0.94131672,-0.23003006,0
2.5789666,-2.1061528,-0.28074396,0.77179414,-0.63029754,-0.084016807,0
-1.0403272,-1.949325,-2.4373949,-0.31622434,-0.59252894,-0.74088567,0
-1.0077702,-2.8073735,1.2421374,-0.31189924,-0.86886644,0.38443461,0
-3.0764163,0.76831585,-1.1932957,-0.90803087,0.22677508,-0.35221156,0
1.8292627,2.2447143,-1.8012488,0.53640974,0.65823597,-0.52819496,0
-1.9578543,1.7034858,-1.9223013,-0.60622239,0.52746075,-0.59521395,0
2.9552569,0.1428851,1.141955,0.93183494,0.045053724,0.36007482,0
2.4725597,-0.86093783,-1.768411,0.78259498,-0.27249721,-0.55972344,0
-0.67416358,2.5121424,-2.1446908,-0.19997676,0.74517536,-0.63617837,0
1.9760957,-2.2024596,-1.3732575,0.60576493,-0.67515594,-0.4209671,0
1.4267763,2.2741394,-1.782931,0.44271746,0.70564753,-0.55322945,0
0.2871643,3.1807158,-0.98499233,0.085923336,0.95171195,-0.29472265,0
1.8480206,2.4259696,-1.050837,0.57291555,0.75208884,-0.32577607,0
2.8923938,-1.3585218,1.2400012,0.84382939,-0.39633629,0.36175898,0
-0.19742584,2.9797435,0.75206953,-0.064109243,0.96759933,0.24421631,0
-0.66285771,-2.212477,2.5384977,-0.19314215,-0.64466709,0.73966235,0
-1.7674236,-1.0603416,-2.6176963,-0.53048176,-0.31825528,-0.78568608,0
-2.211122,1.680835,-1.5247393,-0.69785529,0.5304907,-0.48122507,0
-2.6032979,-1.9706491,0.91341692,-0.76783931,-0.58124036,0.26941112,0
1.8768784,1.9164765,1.9004158,0.57092732,0.58297271,0.57808715,0
1.4835249,0.98042023,2.7617121,0.45164973,0.29848272,0.84078568,0
2.6563399,-1.533597,0.36144477,0.86008018,-0.49655408,0.11703001,0
0.39781895,-3.1801603,1.0591433,0.1178576,-0.94215232,0.31378114,0
0.1396466,0.09740559,-3.3337958,0.041833647,0.029179594,-0.99869841,0
0.18426025,3.1914761,1.3700331,0.052978843,0.91761905,0.39391443,0
1.2001193,2.6801286,-1.5133183,0.36328062,0.81128502,-0.45808715,0
2.4150772,1.8409283,1.2792106,0.73291939,0.55867863,0.38821045,0
-2.4995906,-1.5555526,-1.5678903,-0.74937606,-0.46635392,-0.47005275,0
0.69682568,3.197623,-0.49235776,0.2105533,0.96619582,-0.14877114,0
1.4589974,-2.9591963,-0.25097084,0.44093761,-0.89432716,-0.075848311,0
-2.7971287,-1.464988,-0.3862702,-0.87929922,-0.46053043,-0.12142705,0
-2.0413907,2.4710772,1.1264144,-0.600869,0.72734421,0.33155218,0
2.3922911,-1.3962688,1.8534217,0.71779442,-0.41894317,0.55610949,0
2.0218744,-2.8559482,0.001766438,0.57781005,-0.81617111,0.00050481159,0
3.1686287,1.0515715,-0.25714034,0.94629657,0.31404704,-0.07679379,0
-0.098250791,-1.156214,3.2019808,-0.028848464,-0.33948833,0.94016773,0
-1.7966492,-0.34978983,2.5572593,-0.5713048,-0.11122739,0.81316626,0
1.0017619,2.2468169,-1.8943598,0.32264057,0.72363931,-0.61012238,0
-0.04581546,1.2731277,2.9904318,-0.014094973,0.39167348,0.91999632,0
-2.2429979,1.6068835,-1.3749882,-0.72758269,0.52124017,-0.44601807,0
-0.032912027,0.84327722,2.9180439,-0.010834781,0.27761051,0.96063262,0
-1.031197,1.7638142,-2.545907,-0.31589553,0.54032457,-0.77990985,0
-1.2834951,0.34608567,-2.8558483,-0.40744841,0.10986568,-0.90659547,0
2.7505996,1.8158598,-0.19770974,0.83304721,0.54995173,-0.059878416,0
-0.075849831,-1.6446979,-2.6057823,-0.024607787,-0.53358561,-0.845388,0
-2.2310832,2.152004,1.0783225,-0.67979038,0.65569568,0.32855487,0
-2.567488,-1.9633896,0.2975505,-0.79101056,-0.60489553,0.091671549,0
-2.1292272,2.5204315,-0.45874035,-0.63918495,0.75662279,-0.1377119,0
-1.8381226,1.0458846,-2.3705213,-0.57861161,0.32922775,-0.74620223,0
-0.55038059,-3.0463974,1.2938094,-0.16403785,-0.90796167,0.38561264,0
-1.4130361,-0.019547999,2.7374692,-0.45867181,-0.0063452846,0.88858306,0
-1.1966665,-2.9767189,-0.78811008,-0.36222756,-0.90104437,-0.23855869,0
3.1942415,-0.32109237,0.83557862,0.96290439,-0.096793324,0.25188527,0
-1.8310671,2.3729489,-1.0283831,-0.57784325,0.74884886,-0.32453439,0
0.51745516,-1.7618341,-2.8717785,0.15180624,-0.51687074,-0.84249598,0
0.034258146,-2.901412,-1.0255219,0.011131778,-0.94277948,-0.33323118,0
2.9584091,1.0903094,-0.59794867,0.92187321,0.33975255,-0.18632747,0
1.413267,0.56073153,-2.8128462,0.44199467,0.17536697,-0.87970853,0
0.20185994,3.0401819,-1.2942197,0.060978316,0.91838515,-0.39096087,0
1.3424351,-2.2374678,2.0048945,0.40796158,-0.67995906,0.60928082,0
-1.5387502,-0.36798909,2.6583862,-0.49740246,-0.11895283,0.85932589,0
-0.55511892,-2.2466602,2.2332287,-0.17260915,-0.69857848,0.69440204,0
1.3640264,2.6235559,1.3265655,0.42087975,0.80951625,0.40932095,0
-0.39640814,-2.6579833,1.7960657,-0.12263905,-0.82231539,0.55565906,0
3.2532952,0.43201029,0.66356075,0.9716363,0.12902515,0.19818051,0
-1.4972436,-1.8588784,-2.3408346,-0.44785371,-0.55602551,-0.70018762,0
-1.0212907,3.1384227,-0.89860171,-0.2985743,0.91751778,-0.26270619,0
0.50792164,0.34387258,-3.0119588,0.16524328,0.11187284,-0.97988731,0
0.031708699,-2.1467817,2.2335413,0.0102348,-0.69292915,0.72093308,0
-0.94396043,-2.9246259,1.004319,-0.29196453,-0.90457928,0.31063327,0
-2.6315744,1.5745255,1.303141,-0.78977871,0.47254097,0.39109403,0
-1.7634884,-1.4676508,2.1750205,-0.55781454,-0.46423718,0.68798751,0
-2.7888448,1.4316633,0.71027011,-0.86763364,0.44540277,0.22097114,0
1.437696,0.77178091,2.7939899,0.44433913,0.23852919,0.86351991,0
1.4704908,-0.49765423,-2.9990227,0.43544272,-0.1473657,-0.88807261,0
-2.5295086,0.37347475,1.6993738,-0.82390618,0.1216474,0.55351645,0
0.18951356,-2.6933491,2.0613852,0.055789128,-0.79286987,0.60683191,0
0.49471655,0.52006847,3.1706009,0.15218139,0.15997998,0.97531903,0
1.8066229,2.7289462,-0.78936839,0.53662795,0.81058913,-0.23446906,0
-1.0811844,0.77345794,2.6997299,-0.35928395,0.25702465,0.89713621,0
-1.7559412,0.83897203,-2.586091,-0.54253966,0.2592203,-0.79903418,0
-0.11630567,3.2197549,1.1945124,-0.033847552,0.93702072,0.34762982,0
1.5474375,1.4330599,-2.3181071,0.49376079,0.45726487,-0.73966825,0
1.3640972,2.5333254,1.3831679,0.42729029,0.79353976,0.43326399,0
-0.83322752,0.92688078,3.1292109,-0.24737449,0.27517894,0.92902231,0
1.0320034,-2.4560049,2.0002856,0.309782,-0.73723215,0.60043645,0
1.9215446,2.2824719,-1.3024307,0.59024405,0.70111066,-0.4000698,0
-2.4904175,-2.0332401,-0.33714402,-0.77039927,-0.62897354,-0.10429396,0
-2.9663317,0.66279835,-0.73079914,-0.94889253,0.21202093,-0.23377354,0
0.23976472,1.1684515,3.1196728,0.071787372,0.34984323,0.93405366,0
-0.75380296,1.8166928,2.4071908,-0.24249248,0.58441579,0.77437431,0
-0.36680433,2.8791804,1.4197806,-0.11352307,0.89108384,0.43941101,0
-1.6607996,2.6567678,0.84031433,-0.51197833,0.81900764,0.25904554,0
-0.25660312,2.7874639,-1.7643402,-0.077549808,0.84241879,-0.53321344,0
1.0831826,0.65705436,-2.9316521,0.33916444,0.20573585,-0.91795433,0
1.8485789,-2.0856736,1.6442032,0.57128197,-0.6445533,0.50812197,0
-0.72438776,2.115649,2.3471875,-0.22344457,0.65259284,0.72401321,0
-0.95962334,1.4442815,2.553396,-0.31090704,0.46793073,0.82727122,0
2.1695886,-1.8601378,1.2002813,0.69994366,-0.60010999,0.38722977,0
-0.35693055,0.5396567,-3.2667079,-0.10718099,0.16205096,-0.98094428,0
-0.47332656,-2.6359148,1.7014655,-0.14917956,-0.83076811,0.5362553,0
0.39303797,3.0601699,1.3815982,0.11626545,0.90523577,0.4086937,0
-0.55633104,-3.3777361,0.30140877,-0.1618894,-0.98290336,0.087708361,0
-2.6291003,-1.5766972,-0.52981359,-0.84507525,-0.50679994,-0.1702987,0
-0.016786575,0.16540007,3.2450793,-0.0051661571,0.050902747,0.99869025,0
1.7205476,-2.8705583,-0.27390614,0.51238978,-0.85487008,-0.081570953,0
1.0992913,-3.0909894,0.05258701,0.33504048,-0.94206744,0.016027395,0
2.4081116,0.62309724,2.2215703,0.72205943,0.18683238,0.66612601,0
-1.6650331,2.5078602,-1.4042757,-0.50125939,0.75499308,-0.42275816,0
-1.9792953,-2.8453929,-0.33354101,-0.56841767,-0.81714517,-0.095786922,0
-0.75283498,-0.89934665,-3.0275109,-0.23187317,-0.27699876,-0.93247336,0
-2.6763189,-1.6813662,0.045128185,-0.8466773,-0.53191519,0.014276703,0
-0.56461018,-1.5800679,-3.0116696,-0.16377175,-0.45831707,-0.87356985,0
3.0374665,0.9875825,1.3644402,0.87454039,0.2843425,0.39284649,0
1.481743,2.0412307,2.0141585,0.45904943,0.63238078,0.62399369,0
-1.6321012,-1.0005836,2.6837122,-0.49509391,-0.30352461,0.81409758,0
0.36545596,-1.439806,-2.7758441,0.11607973,-0.4573254,-0.88169098,0
-1.8881317,1.6785653,-2.3962297,-0.54225016,0.48206502,-0.68817014,0
-3.2369409,0.18287483,0.69871891,-0.97599936,0.055140246,0.21067706,0
1.9343021,-1.5715909,1.9538316,0.61079866,-0.49626458,0.61696553,0
3.312429,-0.22290742,0.047581811,0.99764091,-0.067135498,0.014330741,0
1.0335889,1.8999436,2.1982529,0.33515698,0.61608571,0.71281707,0
-2.4909234,1.2516494,-1.8230801,-0.74782115,0.37576824,-0.54732227,0
2.5952973,0.76852429,-1.8859594,0.78670514,0.2329606,-0.57168555,0
-1.5552739,0.73050642,-2.9320939,-0.45763761,0.2149507,-0.86276537,0
2.7126932,-1.5784059,1.5374267,0.77620447,-0.45164183,0.43991613,0
0.56187564,-0.16882984,-3.3256614,0.16638233,-0.049993809,-0.98479319,0
1.9734895,1.3802576,-2.20157,0.60482216,0.42301232,-0.67472279,0
-2.9495413,-0.60828197,-0.99289834,-0.93014246,-0.19182266,-0.31311202,0
-0.80786568,0.41233152,-3.0069525,-0.25721908,0.13128363,-0.95739377,0
0.89572418,2.9290214,-0.34928453,0.29055798,0.95012563,-0.11330207,0
0.83727902,-2.4781926,-2.1948354,0.2452026,-0.7257548,-0.64277184,0
-0.85429221,-3.0075204,0.71342421,-0.266395,-0.93783885,0.22246796,0
-0.84346586,-2.8753133,-0.35113293,-0.27957311,-0.95304424,-0.11638565,0
1.9255247,-1.8176339,-2.1742799,0.56199807,-0.53050822,-0.63460165,0
2.414386,-1.9272678,-0.97090852,0.74558282,-0.59515655,-0.29982474,0
-1.5555341,-2.7538342,1.2309043,-0.45833519,-0.81141204,0.36268362,0
-2.8307378,-1.5342753,-0.1586232,-0.87810224,-0.4759362,-0.049205329,0
1.9617776,-2.4366479,-0.41836902,0.62158626,-0.77204818,-0.1325596,0
-1.9533983,2.6016033,-0.059780058,-0.60033059,0.79954094,-0.018371981,0
-1.2011846,3.0315793,0.54252565,-0.36336774,0.91707641,0.16411825,0
-1.096642,3.0899918,0.23006174,-0.33364192,0.94009781,0.069993883,0
0.90062642,-0.95245361,3.0695131,0.26983485,-0.28536269,0.91965061,0
1.384551,0.26242626,2.9340141,0.42537609,0.080625311,0.90141815,0
0.66724354,2.588402,-1.6223069,0.21339457,0.82781011,-0.51883829,0
-0.84313124,-1.0764066,-2.9177043,-0.26166388,-0.33406037,-0.90550297,0
-0.58085698,-0.78671086,-3.0692189,-0.1803207,-0.24422579,-0.95280546,0
-0.80811805,3.0172687,-0.7716189,-0.25116268,0.93776554,-0.23981875,0
-3.1042213,0.78696567,0.58327132,-0.95364702,0.2417635,0.17918663,0
-1.8930818,-1.2989025,2.5306821,-0.55403364,-0.38013977,0.74063516,0
-0.47653729,2.5053031,1.9204227,-0.14927068,0.78476191,0.6015538,0
-3.0723839,0.45666996,-0.62885302,-0.9694646,0.14409831,-0.19842921,0
-2.3042998,2.1277421,-0.86248142,-0.70839667,0.6541186,-0.26514733,0
1.3215497,0.7278142,2.9222262,0.40184441,0.22130691,0.8885631,0
-0.68605006,1.6393874,-2.6566339,-0.21464276,0.51291102,-0.83117437,0
-0.42647874,-1.3084699,-3.1596272,-0.1237485,-0.37967002,-0.91680801,0
2.7573247,-1.4200566,-0.7750234,0.86250407,-0.44420034,-0.24243094,0
-0.28496349,3.0520957,0.51918066,-0.091656849,0.9816888,0.16699143,0
3.3513012,-0.23736791,-0.70282286,0.97636622,-0.069154635,-0.20476002,0
1.7503089,-2.6380563,1.0252626,0.52596974,-0.79273885,0.30809253,0
-1.082626,-0.095910855,-2.9713693,-0.34217998,-0.030314047,-0.93914527,0
2.9888237,0.73707128,-0.99397749,0.92394161,0.22785246,-0.30727044,0
1.5895861,-2.0677001,-2.1878996,0.46693853,-0.60738379,-0.64269221,0
3.2569883,0.21942033,-0.1686476,0.99640954,0.067127205,-0.051594317,0
0.17991436,-1.5798805,2.9845195,0.053202681,-0.46718827,0.88255572,0
1.7726443,-2.5091796,0.23339327,0.57534218,-0.81439739,0.075751796,0
0.62996691,2.920752,-1.3445333,0.19226854,0.89142573,-0.41035718,0
0.55695015,-2.3252056,2.2621832,0.16920647,-0.70641834,0.6872716,0
2.0214543,-1.4825035,2.0853934,0.61992168,-0.45464104,0.63952994,0
-0.039561722,-0.26430154,3.4118593,-0.011559947,-0.077228993,0.99694633,0
0.96752656,-0.78352463,3.107161,0.2890462,-0.23407607,0.92825675,0
-1.1718086,1.9106379,-2.1892426,-0.37400663,0.60981905,-0.6987415,0
2.4193032,0.32148832,-2.0880973,0.7532227,0.10009176,-0.65010554,0
0.43387428,-2.9852579,1.2910877,0.13222641,-0.90977943,0.39346856,0
1.0931093,-3.1524,0.31378251,0.32617816,-0.94065988,0.093631081,0
1.7478814,0.82266283,2.6571043,0.53205884,0.25042033,0.80882818,0
-1.5297109,-2.53385,-1.2993637,-0.47323519,-0.78387815,-0.40197441,0
-1.0580832,2.7698152,0.78381896,-0.34500247,0.90313607,0.25557488,0
2.9420812,-1.2015986,-0.16094267,0.92458028,-0.37761515,-0.050577946,0
-1.2644981,-3.0366619,0.39310881,-0.38169792,-0.91663837,0.11866274,0
-2.6361306,0.69323832,-1.730935,-0.81641346,0.21469691,-0.53607309,0
-2.5744767,-1.3392295,1.7483152,-0.75989658,-0.39529428,0.51604223,0
1.6435611,-2.0060153,1.7833934,0.52220291,-0.63736415,0.56663132,0
2.6923506,-0.50220108,-1.6606393,0.84059316,-0.15679488,-0.51847708,0
-0.77915633,-0.00089004805,-3.0937047,-0.2442257,-0.00027898457,-0.96971834,0
-3.0109797,0.35668844,-0.75213522,-0.96384382,0.11417943,-0.24076578,0
-2.9489565,0.8807224,-0.69483143,-0.93465632,0.27914035,-0.22022317,0
-1.9611222,1.5884882,2.1446955,-0.59213513,0.47962323,0.64756274,0
-2.6677744,-0.41976303,-1.995685,-0.79445988,-0.1250049,-0.59431249,0
2.7846091,-0.65988737,1.3996105,0.87410831,-0.20714328,0.43934757,0
2.2985432,-0.75697923,2.098104,0.71765172,-0.23634423,0.65507054,0
-0.86595684,-1.3105645,-2.7009866,-0.27714643,-0.41944155,-0.86444122,0
-0.60823381,2.9347041,1.0469486,-0.19158955,0.92441195,0.32978174,0
2.5018301,-1.805025,1.1156696,0.76262593,-0.55022073,0.34008646,0
-2.5493336,-0.10144719,-1.8545566,-0.80824292,-0.032162901,-0.5879702,0
-1.3905945,-2.4239962,-1.1647574,-0.45931068,-0.8006413,-0.38471711,0
1.5982984,-0.49089581,2.7263138,0.4997533,-0.15349248,0.85245925,0
1.6696385,0.19766214,2.6727479,0.52877069,0.062599152,0.84645313,0
-0.06939999,2.6509995,2.0092278,-0.020858988,0.79678929,0.60389715,0
-2.2049885,-0.17485043,2.5302963,-0.65609121,-0.052026503,0.75288612,0
2.9703841,1.6380059,-0.76607704,0.8541683,0.47102752,-0.22029431,0
-1.5797346,1.8398012,1.9842961,-0.50416845,0.5871681,0.63328332,0
-0.84821522,2.5928488,-1.8896562,-0.25559396,0.78130704,-0.56941295,0
2.2551408,1.4460744,-1.7079271,0.70981663,0.45515901,-0.53757846,0
-1.1814271,1.653939,2.2469149,-0.38993096,0.54588389,0.74159604,0
2.5337291,-1.9818387,-0.83010119,0.7626825,-0.59655696,-0.2498703,0
-0.78330344,3.2851119,0.5282585,-0.22915189,0.96104467,0.15453964,0
2.2002616,2.079453,1.0746826,0.68490428,0.64729857,0.33453053,0
-1.3834866,0.90327346,3.0355468,-0.40030527,0.26135787,0.87832099,0
-1.0434082,2.0395644,-2.3467848,-0.31814888,0.62189001,-0.71556556,0
-2.7319362,0.64379025,-1.6590048,-0.83791327,0.19745716,-0.508834,0
2.9279797,-0.89274853,1.1193763,0.89834481,-0.27390763,0.34344018,0
2.7226846,-1.5990946,0.77419209,0.83747208,-0.49186641,0.23813418,0
-2.9415822,-0.74690449,-1.2587833,-0.89528948,-0.22732519,-0.38311881,0
0.17159867,1.7370337,-2.9492717,0.050071269,0.50685406,-0.86057645,0
-0.50185156,-0.30558988,3.1044023,-0.15883802,-0.096720412,0.98255569,0
-1.8960609,-2.4661777,0.86811507,-0.58707756,-0.76360285,0.26879457,0
2.0743723,-1.4570451,-2.1677339,0.62192112,-0.43683919,-0.64991206,0
1.2447299,-2.2314878,2.0693839,0.3785623,-0.67866707,0.62936604,0
-1.7233129,2.6216955,0.60986012,-0.53919321,0.82028079,0.19081412,0
-0.90391582,2.222502,2.1744628,-0.2791557,0.68637377,0.67153788,0
-1.3408957,-2.3185651,2.2038381,-0.38658988,-0.66845906,0.63538241,0
-0.20062396,3.2065561,-0.6000675,-0.061383232,0.9810831,-0.18359762,0
1.3659623,-0.58774841,2.9442115,0.41412419,-0.17819001,0.89260823,0
0.95405573,-3.1574483,0.70703423,0.28282011,-0.93599337,0.20959309,0
-1.5304227,0.82474822,2.6938257,-0.47734663,0.25724316,0.84021795,0
1.0450503,-3.2094615,-0.2891582,0.30848539,-0.94739175,-0.085355781,0
0.89865088,-1.6073935,-2.5537791,0.28542158,-0.51052618,-0.81110889,0
-0.94219601,2.810775,-0.88548648,-0.3045325,0.90848649,-0.28620309,0
-1.3709924,1.3345624,2.6036196,-0.42432141,0.41304636,0.80581886,0
2.206991,2.1368971,-0.72078753,0.69942868,0.67721486,-0.22842842,0
-1.8755738,-1.1770523,2.2765148,-0.59058183,-0.37063095,0.71683037,0
2.0442545,-2.4634871,-0.27575251,0.63623202,-0.76670951,-0.085822277,0
-1.6735196,0.00029289187,-2.8385122,-0.50787812,8.8886547e-05,-0.86142898,0
-2.3512299,-2.375483,-0.42418751,-0.69787139,-0.70507002,-0.12590361,0
0.24149162,0.076341778,-3.2191312,0.074786521,0.023641964,-0.99691921,0
-2.5089324,1.4376615,1.3778738,-0.78327113,0.44882786,0.43016255,0
-2.7800856,0.69949579,1.6015736,-0.8466115,0.21301545,0.48772261,0
0.37843168,-1.0461768,3.0319538,0.11717533,-0.32393193,0.93879604,0
2.2185457,0.1301125,2.2282605,0.70495701,0.041344076,0.70804399,0
-0.60545421,-1.3487158,-2.9178531,-0.18509728,-0.41232455,-0.89203554,0
0.93612987,2.4617023,-1.8000228,0.29345331,0.77168214,-0.56426215,0
-0.64549357,-0.79867655,3.1995111,-0.19209571,-0.23768222,0.95215875,0
1.2881618,-2.9315875,1.1214963,0.37967137,-0.86405283,0.33054858,0
1.5607058,-2.8666885,-1.3131216,0.44360447,-0.81480813,-0.37323278,0
-2.9984043,0.9473514,-1.2345099,-0.88758683,0.28043473,-0.36543933,0
-2.5649452,1.3427831,1.6141263,-0.77380288,0.40509614,0.48695606,0
-0.89600807,2.6713316,-1.3091375,-0.28839511,0.85981256,-0.42136768,0
-0.76368737,-3.2528732,-0.45626342,-0.22645719,-0.96457869,-0.13529637,0
0.48962942,-2.279551,-2.4918787,0.14347872,-0.66798902,-0.73020858,0
2.6160865,-2.1270304,-0.24584191,0.7738477,-0.62918317,-0.072720908,0
-0.011807489,-1.2484076,3.026691,-0.0036063669,-0.3813017,0.9244436,0
-1.8793181,1.3273073,-2.1247568,-0.60007602,0.42381611,-0.67844582,0
1.125659,2.8698537,0.1690264,0.36460346,0.92955202,0.054748032,0
2.5096598,-1.6638235,-1.1525975,0.77839279,-0.51604933,-0.35748816,0
2.6754453,-0.95026565,1.6921695,0.80946165,-0.28750488,0.51196951,0
2.6112466,-1.9335676,0.71879834,0.78468674,-0.58104241,0.21600087,0
1.5230908,-2.0493004,1.9633018,0.47288209,-0.63625717,0.60955673,0
0.063133679,0.014034709,3.3896306,0.018622145,0.0041397298,0.99981803,0
-0.64034319,3.3292761,0.17774929,-0.18861616,0.98065418,0.052356903,0
0.66108197,-0.83440423,3.1420078,0.19927414,-0.25151977,0.94711542,0
1.6560301,0.91698378,-2.6509604,0.50838459,0.28150481,-0.81381822,0
-1.5424026,-1.8835669,-2.0063829,-0.48891547,-0.59705871,-0.63598937,0
2.0796635,1.1430171,2.1100976,0.65490246,0.35994509,0.66448641,0
2.2476964,-1.6835316,-1.6707442,0.68785465,-0.51520526,-0.51129198,0
-1.2460006,-2.77864,1.1541818,-0.38260692,-0.85323143,0.35441229,0
1.1117408,1.9795948,-2.4728446,0.33116689,0.58968443,-0.73661441,0
1.0870913,1.9930614,2.3031771,0.33614561,0.61628574,0.71217835,0
1.7330669,1.1422311,-2.3917851,0.54725504,0.36068529,-0.75526023,0
-2.2063661,0.53598946,-2.0854948,-0.71566552,0.17385563,-0.67645925,0
0.85999668,-2.8726742,-0.91343731,0.27434912,-0.91641706,-0.2913973,0
2.245841,2.3582304,-0.54789817,0.68008202,0.71411556,-0.16591366,0
-1.0058168,-1.8717178,2.30106,-0.32113469,-0.59759742,0.73467672,0
0.30468786,-2.2570555,-2.2521772,0.095124722,-0.70466137,-0.70313835,0
1.6067393,-2.0772667,1.9061178,0.49514523,-0.64014661,0.58740407,0
3.2658281,0.5274052,0.30704507,0.98298484,0.15874422,0.092417799,0
0.85032696,-2.9138412,-1.1606574,0.26166195,-0.89664495,-0.35715657,0
-2.7006557,1.1988181,-1.3417245,-0.83221555,0.36941957,-0.41345665,0
-2.1082501,-0.54055732,2.5166876,-0.63363016,-0.16246337,0.75638515,0
-0.78191531,3.0679097,1.3526993,-0.22711241,0.89109445,0.39290035,0
0.89218003,-1.9692179,-2.4506743,0.27300766,-0.60258192,-0.74990791,0
0.010739692,2.9716296,1.2145716,0.0033454094,0.92566127,0.37833849,0
1.6356385,2.2817326,-1.5799176,0.50773323,0.70829308,-0.4904364,0
-0.58882803,3.125144,-0.98268795,-0.17690487,0.93890435,-0.29523438,0
-2.8605707,-0.18011126,-0.98404372,-0.94394153,-0.059433769,-0.32471833,0
0.86325526,0.50072134,-3.031456,0.27048597,0.15689228,-0.94985378,0
0.34816813,0.079216681,3.1621754,0.10940869,0.024893127,0.99368507,0
3.073648,-0.10369642,-0.46475551,0.98821098,-0.033339519,-0.14942391,0
1.5745438,2.2499366,1.5135418,0.50214499,0.71753758,0.48269054,0
1.2898405,2.6865723,1.0626014,0.40766978,0.8491239,0.33584812,0
1.8698428,0.483511,2.4690931,0.59649295,0.15424341,0.78765804,0
-0.62051636,0.81697029,2.9280844,-0.1999985,0.26331753,0.94375026,0
-0.073380746,-2.8145738,-1.4443138,-0.023189668,-0.88945717,-0.45642975,0
1.6598183,-0.47417405,2.6994812,0.51800978,-0.14798416,0.84247643,0
-1.7085602,0.17431006,-2.9204326,-0.50429881,0.051449373,-0.86199516,0
-3.0914934,1.6034397,0.39690021,-0.88199311,0.45745617,0.11323435,0
-1.070979,1.749783,2.5447931,-0.32764202,0.53530693,0.77852243,0
-0.85335487,-2.6282372,1.8895975,-0.25491545,-0.78511095,0.56446338,0
-0.91321737,-1.9337752,2.7166185,-0.26413575,-0.5593183,0.78574508,0
2.9711301,-0.95394486,0.25247058,0.94902653,-0.30470526,0.080643147,0
1.9035734,1.9800982,1.4312178,0.61460727,0.63931489,0.4620977,0
-0.40542012,2.5112107,2.2259262,-0.1199421,0.74293274,0.65853232,0
-0.9133808,2.7544067,-1.6099621,-0.27523211,0.82999462,-0.48513529,0
-1.4644341,-1.818408,-2.1592593,-0.46048713,-0.5717932,-0.6789729,0
-2.1099753,1.8515739,-1.5760751,-0.65540034,0.57513571,-0.48956031,0
-0.51592499,2.5713625,-2.0970881,-0.15364261,0.76575249,-0.62451345,0
0.40462056,2.0932055,-2.2704785,0.12991382,0.67207742,-0.72899544,0
-2.3888075,2.0975103,-0.65437943,-0.7360056,0.64625525,-0.20161813,0
1.6038427,-2.8117745,0.31576732,0.49312615,-0.86452335,0.097087525,0
1.1243024,-1.9558254,2.3757372,0.3431735,-0.59698123,0.7251519,0
-2.0403178,-0.98528618,-2.0688303,-0.66499233,-0.32113025,-0.67428529,0
-3.0697925,-1.0075192,-0.84677869,-0.91909313,-0.30165038,-0.25352478,0
2.36836,2.145735,-0.73504543,0.72222209,0.65433347,-0.22414923,0
0.71621239,-0.20102416,-3.2075422,0.21751699,-0.061051961,-0.97414529,0
2.6481709,-1.2762719,-1.3877215,0.81463093,-0.39260706,-0.42689121,0
2.3705595,-2.2241828,0.70719767,0.71259439,-0.66859329,0.21258487,0
0.52339888,-2.6994088,1.7082636,0.16168679,-0.83389318,0.52771163,0
2.4678998,1.9205258,0.77964163,0.76574969,0.59590834,0.24191029,0
2.8870659,-1.2868531,-0.13066043,0.91259575,-0.40677169,-0.0413015,0
-2.3980997,-1.94707,-0.51775628,-0.76565295,-0.62165052,-0.16530657,0
2.4918351,1.9256576,0.44108504,0.78361315,0.60556602,0.13870904,0
-0.19098605,-2.9871545,-1.2325106,-0.058999587,-0.92279452,-0.3807483,0
3.2970643,-0.74885321,-0.32483414,0.97069377,-0.22047102,-0.095634922,0
0.98658496,-2.4977078,-1.5300241,0.31920347,-0.80811793,-0.49502984,0
3.0928226,-0.71210653,-1.0239359,0.92743033,-0.21353608,-0.3070429,0
-2.9712582,-1.2340531,-1.1923198,-0.86596209,-0.35966018,-0.34749714,0
-2.3830836,1.2779922,1.6948272,-0.74672937,0.40045357,0.53106707,0
-2.5116091,-1.7098781,-0.79189098,-0.79990172,-0.54456502,-0.25220284,0
2.8436193,-1.4717082,-0.29694265,0.88431197,-0.45767349,-0.092343561,0
3.1269424,-0.11046535,0.89734548,0.96065027,-0.033936847,0.27567992,0
1.5087779,-0.33155978,-2.9810026,0.44937712,-0.098752365,-0.88786721,0
0.26882836,1.1578691,3.2128263,0.07847479,0.33799833,0.93786931,0
1.9675378,-2.5113897,-1.2700571,0.57298297,-0.73136264,-0.36986384,0
-2.4094882,-0.86681736,2.2304921,-0.7095297,-0.25525448,0.65682018,0
-2.3980136,1.0963352,1.8600267,-0.74315953,0.3397612,0.57643402,0
-3.1843476,-0.060441662,-0.39058569,-0.99238527,-0.018836327,-0.12172398,0
3.1580548,-0.37850583,0.39681369,0.98525602,-0.11808698,0.1237987,0
2.214776,1.3232731,2.2858586,0.64253289,0.38389727,0.66315484,0
2.6040719,-1.8426979,0.31296444,0.81239825,-0.57487065,0.09763623,0
0.28010562,-2.3461547,2.0019369,0.090447746,-0.75758708,0.64643717,0
1.0262488,-1.2317234,-2.5791199,0.33793694,-0.40559837,-0.84928715,0
-0.085628867,1.1763583,3.1019032,-0.025802884,0.35447669,0.93470871,0
-2.330106,2.1713846,-0.79628628,-0.70973951,0.6613937,-0.24254513,0
-2.2434506,-0.11717781,2.3403196,-0.69155735,-0.036120776,0.72141784,0
-1.4757555,1.8460841,-2.328042,-0.44484258,0.55647218,-0.70175058,0
-2.3493519,-1.6013927,1.7099279,-0.70810628,-0.48266771,0.51538074,0
1.8777336,0.018652549,2.8275166,0.55320662,0.0054953019,0.83302593,0
-2.5799263,-2.0446365,-1.0796224,-0.74469411,-0.59018302,-0.31163234,0
-0.33607933,2.5602348,1.6550835,-0.10957589,0.83474338,0.5396263,0
-3.4293625,0.20177837,0.13508585,-0.99750262,0.058691505,0.039292578,0
2.66344,-1.0001956,1.6907248,0.80478382,-0.30221868,0.51086867,0
-1.2552631,-1.6763766,2.5318196,-0.38203454,-0.51019883,0.7705496,0
0.078812003,-2.1518004,2.6055324,0.023316288,-0.63660353,0.77083874,0
-0.94552845,0.18512474,3.0190194,-0.29836494,0.05841678,0.95266247,0
1.613189,0.22190537,-3.0959995,0.46115902,0.063435629,-0.88504702,0
1.0660237,-1.110173,-3.1159821,0.30673626,-0.31943974,-0.89658862,0
-2.7395334,-0.30561185,-1.5234759,-0.86982816,-0.097034693,-0.48371822,0
2.6917107,2.1031406,-0.12165196,0.78749084,0.61529791,-0.035590678,0
0.77877796,-1.6342515,-2.6012349,0.2457349,-0.51567024,-0.82079136,0
3.0310707,1.3306979,-0.67883712,0.89697981,0.39379126,-0.20088716,0
-1.6435186,1.5926896,2.2731683,-0.50950837,0.49375087,0.70470655,0
-1.881623,0.74719965,2.7646468,-0.54911083,0.21805401,0.80680215,0
1.9876838,-2.3012471,1.3049116,0.60069185,-0.69545287,0.39435336,0
-2.407558,2.0518212,-0.59455174,-0.74799919,0.63747609,-0.18472004,0
2.5345156,2.0377145,-0.30043343,0.77604675,0.62393051,-0.091990113,0
-0.73009181,-2.4002309,-2.4228923,-0.20932902,-0.68818468,-0.69468206,0
0.38026541,-3.1674559,-0.79889429,0.11562754,-0.9631303,-0.24292028,0
1.4462186,-2.8090439,1.1245548,0.43123853,-0.83761054,0.33532366,0
1.8054224,-1.1056128,-2.2885959,0.57910144,-0.35463274,-0.73408258,0
0.28675929,2.7130382,1.7389405,0.088636413,0.83859175,0.53750116,0
1.0090055,-2.779599,1.5934291,0.30038339,-0.82749331,0.47436768,0
2.4751503,1.0764573,-1.3466443,0.82056838,0.35686994,-0.44644305,0
0.30319032,-0.96244866,-2.9649951,0.096804038,-0.30729517,-0.94667768,0
-1.3818316,0.50880659,-2.7511911,-0.44282663,0.16305394,-0.88165635,0
2.1795883,-1.8596654,1.2098787,0.70080811,-0.59794253,0.38901511,0
3.0423315,0.49876446,-0.44471803,0.97671694,0.16012447,-0.14277329,0
-1.782384,-1.3349305,2.5526977,-0.52616411,-0.39407474,0.75356257,0
0.42921504,3.3890185,0.50005436,0.12432022,0.98161411,0.14483851,0
-2.6089237,0.27558881,1.9294341,-0.80113,0.084625885,0.59247708,0
1.5372963,-1.4410058,2.4482172,0.4759284,-0.44611803,0.7579385,0
-0.29561701,3.1149106,0.37823722,-0.093796484,0.98833168,0.12001109,0
1.8187656,-1.2136012,-2.2703164,0.57702047,-0.3850264,-0.72027922,0
0.55478543,1.4218565,-2.7340319,0.17717999,0.45409364,-0.87315875,0
-3.0355306,0.8902688,0.34251124,-0.95400643,0.27979365,0.10764442,0
0.86603063,2.7368784,1.6861974,0.26012939,0.82207543,0.50648266,0
0.66361576,-3.3569376,-0.032404356,0.19392312,-0.98097098,-0.0094692651,0
-0.70507395,-1.0566429,-2.9952972,-0.21671075,-0.3247686,-0.92063123,0
-1.2630142,0.63294524,-2.7762163,-0.4054625,0.20319293,-0.89124227,0
-1.6335949,-1.295405,2.6602035,-0.4833335,-0.38327289,0.78707731,0
-1.0815166,2.9254997,-0.86829746,-0.33404708,0.90359646,-0.26819026,0
2.0362682,2.5557218,-0.26492012,0.62110555,0.77955002,-0.080806322,0
0.29311973,-1.6775801,2.5143969,0.096521355,-0.55241013,0.82796544,0
-2.7016816,1.9291558,0.22532482,-0.81195319,0.57978123,0.067718275,0
-2.8926415,-1.2617923,-0.54323202,-0.9033069,-0.39402938,-0.16963916,0
-0.36419511,3.2688267,0.56619757,-0.10912438,0.97944403,0.16965072,0
2.1053529,0.87456834,-2.1377418,0.67365444,0.27983758,-0.68401802,0
0.73062605,3.1250191,-1.0598905,0.2161755,0.92462152,-0.31359729,0
-3.2816274,1.1126134,0.078482427,-0.94680572,0.32100806,0.022643525,0
2.9013562,-1.5661147,0.20540538,0.87828094,-0.47408473,0.06217907,0
2.9593351,-0.75412709,-1.4157752,0.87915212,-0.22403425,-0.42059505,0
-0.9747774,-2.44315,-1.7442193,-0.30884719,-0.77408439,-0.55263615,0
-2.1839528,-1.6079568,1.525529,-0.70186156,-0.51675248,0.49026251,0
-2.9896896,-0.38397086,1.7299503,-0.86024332,-0.11048249,0.49777013,0
0.59870261,-2.529917,2.3357842,0.17130409,-0.72387379,0.66832745,0
-1.2892953,-2.471668,1.7360507,-0.39258739,-0.75261706,0.52862334,0
3.3885398,-0.094485186,-0.38907641,0.99309152,-0.027691113,-0.11402802,0
1.2306181,-2.2093143,2.2058773,0.36671391,-0.6583572,0.65733302,0
2.2159641,2.1472447,-0.44389635,0.71083665,0.68879282,-0.14239301,0
2.6051381,1.8588331,0.59538442,0.8002944,0.57103068,0.18290117,0
-0.90168905,-0.23598672,-3.2079494,-0.26991752,-0.070641816,-0.96028864,0
0.72221977,0.9021526,3.1573322,0.21480724,0.26832402,0.93907404,0
0.0070482297,0.11660861,-3.1121264,0.0022631695,0.037442744,-0.99929625,0
-1.567921,3.0634372,-0.19565642,-0.45487502,0.88874441,-0.056762565,0
-0.50953001,0.82944852,3.0667875,-0.15835838,0.25778681,0.95313621,0
-1.9177303,0.13582656,-2.7002521,-0.57854629,0.040976539,-0.81461966,0
-2.5076084,-1.8357847,-0.21722901,-0.80492079,-0.58927113,-0.06972865,0
-0.14125909,-3.1589487,-0.73802143,-0.043503303,-0.97285563,-0.2272871,0
0.35340157,2.9618306,-0.7542088,0.11486334,0.96266055,-0.24513458,0
-2.8805339,1.187965,0.60100108,-0.90773606,0.37436068,0.18939209,0
0.23997988,-2.724196,-1.5304364,0.076576486,-0.86927849,-0.48835528,0
-0.50216854,-2.4701238,-2.0336654,-0.15505026,-0.76267892,-0.62791741,0
1.1996744,1.6464772,2.4512198,0.37639755,0.51658183,0.76906961,0
2.231977,-0.2677204,2.3834808,0.68124187,-0.081713364,0.72748369,0
-2.7620037,0.62087232,1.8528197,-0.8163507,0.18350792,0.54762805,0
-2.2695243,-0.2707513,-2.0952828,-0.73194253,-0.087319791,-0.67574799,0
1.6076964,2.7217646,-0.56235707,0.50072253,0.8477028,-0.17514803,0
1.5505178,1.2699686,-2.6362898,0.46820259,0.38348648,-0.79606807,0
-0.26099643,2.9334438,1.4096018,-0.079937786,0.89845294,0.43173176,0
1.5079297,-1.1678582,-2.6444857,0.46248007,-0.35818061,-0.81106031,0
0.71279079,3.0179944,-1.17068,0.21504305,0.9105038,-0.35318443,0
2.6118135,-1.1926318,1.327422,0.82568067,-0.3770304,0.41964203,0
-1.3380965,-0.1796765,2.7822978,-0.43268156,-0.058099478,0.89967275,0
0.26566315,2.9919279,1.3985802,0.080179811,0.90299398,0.42210558,0
-0.25324389,-2.6891081,-1.6120847,-0.080509566,-0.85490286,-0.51250297,0
0.38406929,-0.048903655,3.3388677,0.11426415,-0.014549287,0.99334383,0
-2.7918184,0.72491688,1.588145,-0.84787786,0.22015794,0.48232114,0
-0.6117788,2.7990472,-1.3986095,-0.19188441,0.87792116,-0.43867385,0
0.34873414,1.4919163,-2.701582,0.11228491,0.48036504,-0.86985141,0
2.7385123,-0.80954516,1.6739117,0.82731897,-0.24456784,0.50569755,0
-2.9086359,0.8832438,0.20314014,-0.95472687,0.28991479,0.066678457,0
-2.2157588,0.33896521,2.299006,-0.69007289,0.10556687,0.71599931,0
2.0706501,0.15916367,-2.4359884,0.64685822,0.04972174,-0.76098764,0
-0.70622283,-2.6186576,2.0146623,-0.20902784,-0.77507031,0.59629977,0
0.54742485,-2.0548456,2.5795379,0.16374941,-0.61465925,0.77160877,0
-2.2224104,2.2641928,-0.40230334,-0.69492668,0.70799166,-0.12579644,0
0.31021595,2.5485067,2.2461696,0.090939976,0.74709618,0.65846586,0
2.2541049,0.45441514,-2.0502465,0.73167515,0.14750168,-0.66550338,0
-0.59452558,-3.140301,1.0779399,-0.17626192,-0.93102044,0.3195821,0
-2.0824485,-2.0425794,-1.1364536,-0.6652053,-0.65246975,-0.36302218,0
-1.4343393,-1.5048215,-2.5670607,-0.43421751,-0.4555546,-0.77712625,0
2.5684743,-1.8508106,0.49954528,0.80139291,-0.57747376,0.15586375,0
-2.4736512,-1.9119678,-0.37259573,-0.7856465,-0.60725242,-0.11833864,0
-1.7062076,-1.6372788,2.4061494,-0.50574827,-0.4853166,0.71322262,0
