2.8720222,1.1381384,-0.63871461,0.91040868,0.36078101,-0.20246756,0
2.6473236,2.1464999,0.58666337,0.7654947,0.62067753,0.16963838,0
0.022935871,1.8235834,2.7179923,0.0070072929,0.55713528,0.83039224,0
-1.6004319,-0.84430385,-2.8175666,-0.47794503,-0.2521387,-0.84142411,0
1.141518,2.5475988,1.5286851,0.35865238,0.8004275,0.48029605,0
-2.7099938,-1.3289073,1.6241962,-0.7906512,-0.38771385,0.47386554,0
0.089081414,-0.86487287,3.3561933,0.025694216,-0.24945977,0.96804428,0
0.92068905,-3.4357548,-0.011806191,0.25883895,-0.96591479,-0.0033191468,0
3.2210722,0.34438813,1.0870687,0.94267142,0.10078783,0.31813899,0
0.45598343,-2.9265501,-1.6376532,0.13472883,-0.86470395,-0.48387527,0
0.72429085,2.8688991,-1.6139287,0.21489429,0.85119128,-0.4788464,0
-2.6455252,0.21938597,-2.0341103,-0.79104805,0.065599389,-0.60822666,0
2.2749608,0.65353131,2.3540699,0.68147445,0.19576816,0.70517194,0
-1.5128634,-2.0412085,-2.123486,-0.45688373,-0.61644357,-0.64129132,0
0.61022562,1.0530335,3.1460762,0.18089953,0.31216857,0.93264472,0
2.3998816,-1.0386914,-2.1533546,0.7084493,-0.30662355,-0.63567412,0
-1.032491,-2.6260543,-1.5226759,-0.3220135,-0.81901431,-0.47489244,0
-2.7756572,-2.0077629,0.3150129,-0.80684239,-0.58362693,0.09156958,0
-0.020957636,-3.3499329,0.053485088,-0.006255216,-0.99985296,0.01596367,0
0.082086332,3.3324099,0.71632904,0.024075633,0.97738409,0.21009679,0
-1.6258183,-2.9831445,-0.85628366,-0.46403378,-0.85143578,-0.24439666,0
2.8773732,1.7005141,-0.90515262,0.83096111,0.49109411,-0.26140043,0
-0.5527848,-0.53097373,3.4059081,-0.15834157,-0.15209393,0.9756,0
1.7211264,0.80963558,-2.6967523,0.52154726,0.2453412,-0.81718796,0
-3.2190833,-0.52565271,1.5263187,-0.89389819,-0.14596702,0.42383915,0
-0.068702184,3.234216,-1.0200218,-0.020254487,0.95349783,-0.30071849,0
1.2787204,2.271167,-1.9616469,0.39199141,0.69622564,-0.60134238,0
-1.7629694,-2.7529984,0.81574601,-0.52323759,-0.81707162,0.242108,0
2.5333583,1.1134738,1.7938635,0.76818979,0.33763847,0.54395294,0
-1.2442381,2.6290433,-1.9387667,-0.35595,0.75211322,-0.55463982,0
1.1641939,-0.48548621,-3.2503896,0.33390936,-0.13924518,-0.93226355,0
0.35501823,-1.4099171,3.0062826,0.10631176,-0.42220584,0.90024441,0
-2.471534,1.829035,1.3061821,-0.73983562,0.54750824,0.39099607,0
1.8013936,-1.8668048,-1.9429073,0.55579329,-0.57597494,-0.59945524,0
-2.7365296,1.1328839,-1.8106129,-0.78831631,0.32635161,-0.52158606,0
2.39131,-1.5372254,1.6450958,0.72806495,-0.46802795,0.50087047,0
1.6692253,3.0294373,-1.069068,0.46107131,0.83678734,-0.29529661,0
2.853246,1.6755998,1.14684,0.81475139,0.47847164,0.32748297,0
-0.83147126,-1.2397312,3.0800796,-0.24292542,-0.36220402,0.89988637,0
-3.1393828,0.45947272,1.3420589,-0.91128916,0.13337414,0.38956821,0
-1.5047168,-1.7759565,2.3607507,-0.45386791,-0.53568202,0.71207356,0
-2.3386691,1.3792579,-2.0228462,-0.6907289,0.40736559,-0.59745026,0
1.1497626,-0.11241531,-3.2178149,0.3362954,-0.032880485,-0.94118237,0
2.4276037,0.90041876,1.9258447,0.75230181,0.27903512,0.59680927,0
1.0934801,-1.6561024,2.75702,0.32189688,-0.48752069,0.811607,0
0.85061502,-2.1715438,2.2345979,0.26335239,-0.672315,0.69183671,0
1.8268145,-2.5326662,0.33378401,0.58168596,-0.80644006,0.10628199,0
-1.3942797,-0.10190579,3.1986592,-0.39941329,-0.029192513,0.91630608,0
1.1208491,-3.2117198,-0.64345139,0.32375726,-0.92770523,-0.18586093,0
3.0626223,1.0612226,-0.24141572,0.9422726,0.32650483,-0.07427603,0
-2.5012763,1.7682973,-1.4031088,-0.74237955,0.52483118,-0.41644311,0
0.50305599,3.0224259,-1.7298558,0.14297062,0.85898614,-0.49163228,0
-2.3067808,-2.5227914,-0.11140049,-0.6744476,-0.7376039,-0.032570839,0
1.3925675,-3.1921475,0.50130665,0.39577618,-0.90722781,0.14247441,0
2.7292726,1.426892,-0.95431072,0.84648818,0.4425528,-0.29598096,0
1.8309407,-2.8444664,0.34629706,0.53843617,-0.83649004,0.10183774,0
-1.9244727,0.060656756,2.5746293,-0.5985986,0.018867012,0.80082691,0
-0.85928887,-1.9397513,2.3902586,-0.26886475,-0.60693294,0.74789315,0
1.2695005,-2.27684,-2.0262752,0.38449553,-0.68958998,-0.61370105,0
2.4099567,2.5242558,-0.31451482,0.68775451,0.72037321,-0.089756377,0
1.3179104,-2.6013694,-1.1938381,0.41824183,-0.82555038,-0.37886721,0
1.0366217,-1.6549451,-2.8084044,0.30305183,-0.483816,-0.82102484,0
-1.8227642,-0.052270327,-2.6937943,-0.5603407,-0.016068557,-0.82810634,0
-1.6286657,-2.4290068,-1.4805325,-0.4968631,-0.74102616,-0.45167157,0
2.5904248,-1.1452762,-1.4658515,0.81226182,-0.35911644,-0.45963705,0
2.5800257,0.2561847,2.1543789,0.76536351,0.075997084,0.6390956,0
1.4269747,-2.7988734,0.44394186,0.44974411,-0.88212979,0.13991857,0
1.4223006,2.7918892,-1.0893216,0.42875779,0.84162539,-0.32838005,0
0.8948921,-1.3230922,-2.7396903,0.28218231,-0.41720474,-0.86389428,0
-2.6434455,-2.2351468,-0.52315277,-0.75504291,-0.63842124,-0.14942725,0
3.1956933,0.055660777,1.0737848,0.94779021,0.016508074,0.31846696,0
-1.7452836,1.0526916,-2.6170013,-0.52615416,0.31735706,-0.78895265,0
-1.2993912,-0.43208048,-3.1726146,-0.37603384,-0.12504077,-0.91813034,0
-1.3572218,1.4178982,-2.8651752,-0.39079255,0.40826344,-0.8249861,0
-2.4801414,-2.1070998,-0.098110802,-0.7617479,-0.64717233,-0.030133644,0
0.93455851,-3.2790329,0.1054008,0.27396438,-0.96124339,0.030898081,0
-0.67888689,-1.848906,-2.7930136,-0.19864199,-0.54098904,-0.81723446,0
-0.62534374,-2.6160071,2.0555,-0.18472835,-0.77277607,0.60720068,0
-2.2560377,2.6261089,0.23905362,-0.65009016,0.75672829,0.068884663,0
1.3218625,3.0528738,0.28417856,0.39590001,0.91434079,0.085111953,0
2.2461581,-2.3740239,1.2690617,0.64066905,-0.67714006,0.36197299,0
2.6549215,-1.4278389,-1.2919708,0.80949795,-0.43535474,-0.39392793,0
-1.1828533,-1.576562,-2.5665596,-0.36552557,-0.48718953,-0.79311877,0
2.5041485,-1.2953327,1.863879,0.74092776,-0.3832632,0.55148476,0
-2.6969173,-0.27393913,2.1469815,-0.77990109,-0.079218388,0.62086934,0
2.688158,0.91822976,2.1257591,0.75765783,0.25880322,0.59914559,0
1.7777836,0.89265043,-2.5873122,0.54471964,0.27351147,-0.79276222,0
-1.6680467,-2.282172,1.8181983,-0.49629009,-0.67900932,0.54096437,0
-2.0618205,1.8905706,1.853003,-0.61447084,0.56343436,0.55223835,0
-3.0515435,0.066255957,-0.97185725,-0.9526397,0.020683976,-0.30339721,0
-0.82765794,0.41436043,3.2944589,-0.24186289,0.12108675,0.96272546,0
0.14579633,-0.075436838,-3.2145979,0.045295428,-0.02343642,-0.99869865,0
-1.1176167,0.21487203,3.251189,-0.32445198,0.062378865,0.94384307,0
-0.6789279,-2.2914772,2.4040401,-0.20028138,-0.67597789,0.70918351,0
2.4731286,-0.121374,-1.9141628,0.79020888,-0.038781166,-0.61160928,0
-1.9454557,1.6042501,2.0938346,-0.59356385,0.48946112,0.63883471,0
0.29844373,-3.3471527,-0.13306941,0.088741586,-0.99526846,-0.039567895,0
2.9366977,-1.0533795,0.86016095,0.90742266,-0.32548818,0.26578477,0
-0.78168797,-2.4244463,2.3502734,-0.22553399,-0.69950551,0.678105,0
-0.037466373,3.2620327,-0.63524354,-0.011273094,0.9814989,-0.19113567,0
-2.9114709,1.1546859,-1.2182877,-0.86633325,0.34358671,-0.36251199,0
0.3413642,-0.41040298,-3.3663492,0.10015347,-0.12040888,-0.98765934,0
-2.9801364,-0.84505177,-1.4238734,-0.87414175,-0.2478729,-0.41765445,0
1.3571035,1.9419299,2.3087637,0.41024241,0.58703119,0.69792235,0
3.1186001,-0.38959613,0.49443346,0.98023075,-0.1224569,0.15540911,0
2.6305587,1.7242584,1.4035631,0.76375246,0.50061858,0.4075084,0
-0.95162541,3.1169534,0.049866606,-0.29196629,0.95630622,0.015299473,0
-1.9295651,-0.59563369,2.7184868,-0.56978673,-0.17588636,0.80274969,0
3.2193074,-1.0473877,-0.81584567,0.92447156,-0.30077282,-0.23428211,0
0.77102351,2.1271677,-2.5835848,0.22450852,0.61939394,-0.7522946,0
3.2311246,0.57278377,0.91226441,0.94867146,0.16817166,0.26784456,0
0.026200477,1.0604179,-2.9537423,0.0083482657,0.33788124,-0.94115174,0
-3.3088624,-0.15903538,-0.99934494,-0.95628053,-0.045962151,-0.28881651,0
1.8401278,0.94974279,2.6753695,0.54391009,0.28072762,0.79079318,0
-1.4245094,-0.70623696,2.842576,-0.4373647,-0.21683472,0.8727513,0
-3.2917488,0.0308531,1.257468,-0.93412411,0.0087554138,0.35684106,0
-0.1562043,2.4977944,-2.3175287,-0.045795474,0.73229533,-0.67944562,0
-1.6869684,-2.5320237,-0.91016877,-0.5312025,-0.79729843,-0.28659925,0
1.5361145,-2.4235106,1.2453612,0.49109542,-0.77479577,0.39814168,0
-0.42425355,-3.1615849,0.92285967,-0.12775894,-0.95207387,0.27790827,0
-2.7891004,1.1890346,1.600705,-0.81348628,0.34680116,0.46687153,0
2.5855792,-0.95519704,1.7120864,0.79683268,-0.29437593,0.52763671,0
-0.51109529,-3.383651,0.51851261,-0.14766873,-0.97762489,0.14981179,0
-3.0469894,1.0302722,-0.54744697,-0.93388182,0.31577152,-0.16778882,0
-1.9054887,1.0686549,-2.4527519,-0.58011985,0.32534853,-0.74673235,0
0.024051918,-1.4465171,-2.9149058,0.0073910919,-0.44451094,-0.89574295,0
2.0814228,2.0572894,1.570752,0.62666112,0.6193952,0.47291172,0
2.4322059,-1.4799072,2.1360331,0.68334442,-0.41578975,0.6001327,0
-1.5828274,-2.9152491,-0.98313093,-0.45748433,-0.84259397,-0.28415415,0
-0.35315797,2.7170246,-2.0270512,-0.10361985,0.79720044,-0.59475577,0
-3.0023208,-0.20416099,-1.2700883,-0.9191801,-0.062505215,-0.38884583,0
-1.2831928,0.6337257,2.9592566,-0.39036569,0.19278847,0.90024841,0
-0.38108945,0.7461251,3.0998893,-0.11867832,0.23235717,0.96536297,0
1.7389846,2.5393391,1.1812718,0.52750504,0.77028531,0.35832798,0
-1.6970999,-2.0462382,2.0327337,-0.5071227,-0.61145121,0.60741585,0
2.7915184,-1.7337698,0.59604341,0.83585137,-0.51913458,0.17847049,0
-2.8529088,1.436058,-1.4743432,-0.81098831,0.40822414,-0.41910735,0
-2.2938581,2.0492883,1.5565253,-0.66539985,0.5944553,0.45151517,0
0.19285603,-1.8349383,-2.6754258,0.059341453,-0.5646072,-0.82322371,0
-2.8692908,-1.2009389,1.1005645,-0.86962879,-0.36398229,0.33356068,0
-1.5693152,2.5271182,-1.8753649,-0.44626653,0.71863723,-0.53329796,0
3.332969,0.36023676,-0.59960401,0.9786787,0.10577838,-0.17606515,0
2.9667747,1.2436987,-0.42589909,0.9142645,0.38326794,-0.1312484,0
-0.1733145,2.5062525,2.2050111,-0.051849186,0.7497766,0.65965652,0
-1.7699672,-2.8219388,0.055799399,-0.53127414,-0.84703439,0.016748773,0
-1.4182297,3.0466959,0.30449358,-0.42029327,0.90289032,0.090236865,0
-2.0900657,2.434119,1.4142174,-0.59610856,0.6942361,0.40334955,0
-2.003314,1.0217122,2.3453717,-0.61653763,0.314441,0.72180891,0
-2.0021925,1.3815655,2.390306,-0.58707851,0.4050996,0.70088029,0
2.6070092,0.43017402,1.8573459,0.80718625,0.13319115,0.57507437,0
3.206459,1.2026697,0.1830975,0.93497002,0.35068595,0.053389322,0
-2.0727842,-1.8760986,1.6254719,-0.64094788,-0.58012861,0.50262964,0
1.1120532,-0.25205645,3.1865823,0.32857722,-0.074474864,0.94153625,0
1.3989866,-1.03274,-2.7586281,0.42901298,-0.31669986,-0.84596044,0
-1.1568152,2.9450257,0.91846764,-0.35111508,0.89387041,0.27877212,0
-2.9599297,0.70657527,-1.6732532,-0.85232252,0.20346093,-0.48181936,0
3.1800923,-0.3283987,0.72691381,0.96995354,-0.10016422,0.22171451,0
-1.5726578,0.93721801,-3.0494347,-0.4421578,0.26350185,-0.85735834,0
-0.061409671,1.6117302,2.8176529,-0.01891489,0.49643159,0.86786973,0
-2.4106519,1.7835729,1.7084155,-0.69848865,0.51679188,0.49501497,0
-1.0783637,-0.2227352,2.9646184,-0.34098396,-0.070429973,0.9374271,0
2.9889898,-0.27697593,1.1240528,0.93250018,-0.0864105,0.35068014,0
2.0041468,-2.4995852,1.244848,0.58307952,-0.72722065,0.36217177,0
-2.6282525,1.5108882,-1.6683801,-0.75953484,0.43662938,-0.48214275,0
-2.6413777,1.3131982,1.9464128,-0.74739677,0.37157887,0.55075151,0
1.6410931,-1.9127959,2.5528066,0.45747173,-0.53321171,0.71162128,0
-1.566928,1.2114921,-2.658833,-0.47261053,0.36540535,-0.80194652,0
-0.29713058,-1.5243145,2.9306314,-0.089586526,-0.45958933,0.88360167,0
-2.078269,1.7650145,2.1181686,-0.60192627,0.51119876,0.6134823,0
-3.3309324,0.096567139,-0.053276259,-0.99945229,0.028975146,-0.015985638,0
2.9333191,-0.28537837,1.4787796,0.88959593,-0.086547501,0.44847363,0
-0.27150777,0.54879326,3.3862846,-0.078899302,0.15947759,0.9840436,0
-0.55017346,2.9805832,-1.001351,-0.17235667,0.93374801,-0.31370017,0
-3.1990523,0.65015239,-0.29461357,-0.97600007,0.19835523,-0.08988376,0
-2.0876601,2.5995486,-0.55228192,-0.61774307,0.76921195,-0.16342139,0
-0.5088743,3.0006576,-1.0005362,-0.15883741,0.9366098,-0.31230223,0
1.0550734,1.1054322,-2.9923949,0.31401011,0.32899785,-0.89059418,0
-1.3032672,2.9113827,0.24544647,-0.4073725,0.91003382,0.076721139,0
-2.2948735,-0.34395081,-2.3359303,-0.69697589,-0.10446128,-0.70944524,0
-1.8224339,-1.9936523,1.9344989,-0.54853284,-0.60006773,0.58226317,0
0.78660321,2.084568,-2.6302283,0.22819494,0.60473675,-0.76303375,0
-3.3259206,0.39131668,0.446601,-0.98443419,0.11582524,0.13218875,0
3.0422547,1.5661658,-0.44757462,0.88159031,0.45384648,-0.12969902,0
1.9817314,2.5750713,-0.74113834,0.59461504,0.77264565,-0.22237726,0
2.5033841,1.1107237,1.8650737,0.75551546,0.33521381,0.56287485,0
-2.2032347,2.131741,1.5875783,-0.63817739,0.61746895,0.4598496,0
2.7923472,-0.41293755,1.9653054,0.81184733,-0.12005751,0.57139313,0
0.74004561,1.5652145,-3.0183382,0.21267848,0.44982016,-0.86742705,0
-2.7100027,-1.6700867,0.71766561,-0.83047885,-0.51179719,0.21992825,0
-2.2423019,-1.635287,1.8749958,-0.6694873,-0.48824999,0.55982018,0
-1.0962017,3.1024971,0.41343945,-0.33054611,0.93551975,0.12466757,0
0.76469958,1.5816343,2.8361921,0.22921185,0.47408071,0.85012317,0
0.24795163,-2.5291369,2.4411397,0.070364818,-0.71772969,0.69275749,0
0.55153418,-2.6631968,1.9683108,0.16428205,-0.79326987,0.58628851,0
1.086702,-0.40937907,-3.1871686,0.32035962,-0.1206849,-0.93957692,0
-0.92254084,3.2815654,-0.52943105,-0.26743066,0.95127624,-0.15347406,0
-1.8314357,1.624029,2.1115766,-0.56653351,0.50237465,0.6531918,0
2.117774,-0.5846402,-2.4704356,0.64057952,-0.17684065,-0.74725181,0
-0.45995778,-3.2115209,-1.1702839,-0.13336317,-0.93116939,-0.33931977,0
1.5194141,-0.54533774,2.933362,0.45379657,-0.16287357,0.87609404,0
-1.5786536,-0.22080103,3.0015533,-0.46450636,-0.064968958,0.88318342,0
-0.072865769,-1.6378275,-3.026185,-0.021171192,-0.47587174,-0.87925982,0
-3.123611,0.65876257,0.8115533,-0.9483124,0.19999696,0.24638346,0
-3.1982353,-0.54955882,0.044780869,-0.98546213,-0.16933383,0.013798188,0
1.311147,3.117964,0.058472496,0.38757715,0.92167521,0.017284565,0
3.1167595,0.045531914,1.2449449,0.92857188,0.01356526,0.37090471,0
2.7120292,0.072087914,-2.2236807,0.77313012,0.020550419,-0.63391447,0
3.0911651,0.30201823,0.89756441,0.95613593,0.093418002,0.27762786,0
-0.015564216,-0.17349622,3.3243682,-0.0046754428,-0.052117728,0.99862999,0
3.0500968,0.96973538,0.16440946,0.9517386,0.30259189,0.051301595,0
-2.2425268,2.4311037,0.1791335,-0.67703164,0.73396409,0.054081429,0
-0.25917274,2.6374688,1.952529,-0.078733437,0.80123001,0.59315389,0
0.8442387,3.2522302,0.99202889,0.24097648,0.92830497,0.28316119,0
2.2657878,2.6295302,-0.60572952,0.64304823,0.74628115,-0.17191076,0
-1.4742116,2.5483794,-1.4701028,-0.44799262,0.77441746,-0.44674402,0
-0.52424276,-1.3784076,3.0560021,-0.15449683,-0.40622327,0.90061831,0
-0.00043014612,1.9586189,-2.6371191,-0.00013094638,0.59624869,-0.80279976,0
-2.1958358,2.4102664,-1.4879937,-0.61267388,0.67250347,-0.41517442,0
1.839318,-0.57060909,2.5516958,0.57535362,-0.17849116,0.79819119,0
0.39206016,-0.72887349,-3.4641733,0.11007775,-0.20464398,-0.97262722,0
1.1318648,3.0856626,-0.20784466,0.34369019,0.93695992,-0.063111931,0
1.8480952,-2.2225914,1.4087942,0.57472831,-0.69119072,0.43811268,0
1.6608989,-0.38732898,-2.7951014,0.50724936,-0.11829279,-0.85364217,0
-0.47152674,3.1308224,1.2949554,-0.13784446,0.91525358,0.37856269,0
1.0451909,-0.1131606,3.0693295,0.32215413,-0.034878939,0.9460445,0
-1.8702179,-2.8568966,-1.0535754,-0.52336377,-0.79947698,-0.29483366,0
2.0266659,2.0057356,2.213063,0.56149167,0.55569291,0.61313337,0
2.9532335,1.0967945,-0.70746863,0.91465759,0.33969256,-0.2191129,0
1.6980327,0.91066349,-2.7512157,0.50554132,0.27112433,-0.8190968,0
-1.7892931,1.5654883,2.4001839,-0.52963614,0.46338928,0.71046174,0
2.217088,-2.3187976,0.68193507,0.67597491,-0.70698541,0.20791732,0
-2.6341782,0.89667058,1.9177064,-0.77947533,0.26533231,0.56746536,0
-3.24663,-0.39174554,1.1196359,-0.93927217,-0.11333466,0.32391831,0
-1.4382267,-1.521817,2.5618265,-0.43468264,-0.45994654,0.77427393,0
-2.6375585,-1.1668483,-1.6613355,-0.79243898,-0.35057274,-0.49913847,0
-0.15773354,3.1816671,0.43271154,-0.049064364,0.9896847,0.13459861,0
-3.378917,-0.47008047,0.72137374,-0.96903324,-0.13481349,0.20688142,0
-2.2659147,2.4512906,-0.25599486,-0.67680788,0.73217797,-0.076463304,0
1.4757605,-2.7349753,1.5312113,0.42596981,-0.78943497,0.44197536,0
1.8965728,1.6854715,-2.4438491,0.53836906,0.47844496,-0.69372118,0
3.070626,-0.41859964,1.6016643,0.8802259,-0.11999581,0.45913324,0
-0.0051023611,2.6443372,-1.7501531,-0.0016090429,0.8338986,-0.55191529,0
-1.9086415,-2.3291662,1.7948933,-0.54444754,-0.66440386,0.51200038,0
-0.70056057,-3.1188951,-0.69409615,-0.214167,-0.9534713,-0.21219078,0
0.11367432,1.6273029,2.8011751,0.035067938,0.50201446,0.86414796,0
2.4734421,-2.2175834,1.327327,0.69141859,-0.61989659,0.37103701,0
-2.9550836,-1.0559092,0.67235833,-0.92079109,-0.32901666,0.2095039,0
-0.099115364,2.8917236,1.3121269,-0.031197419,0.91019505,0.4130033,0
-0.17885305,1.7494485,2.6022,-0.056946855,0.55702484,0.82854116,0
0.066243872,3.2120242,-0.56792688,0.020304518,0.98452282,-0.1740762,0
-2.6680484,1.3482292,-1.0657889,-0.84068531,0.42481855,-0.33582339,0
1.3376733,1.2213975,2.8463819,0.39647913,0.3620156,0.84365219,0
0.61229128,-3.1158338,1.3742237,0.17696123,-0.90052205,0.39717096,0
-0.12525855,-1.3606081,2.8844349,-0.039245166,-0.42629656,0.9037317,0
0.67413568,2.5877557,2.2195857,0.19398083,0.74462014,0.63868016,0
1.7357672,-2.0288603,-2.1764548,0.50389165,-0.58897632,-0.63182282,0
-3.3550787,-0.19093814,-1.1159874,-0.94750386,-0.053922616,-0.31516469,0
-0.75608194,-1.7378081,-2.8668749,-0.22000508,-0.50566822,-0.83420461,0
-1.282558,1.2759938,2.9691739,-0.36887553,0.36698762,0.85396188,0
-1.5803642,2.6738734,1.177332,-0.47577897,0.80498707,0.35444352,0
-1.2080538,-2.7540665,-1.4837359,-0.36024013,-0.82125914,-0.4424482,0
-2.071193,-0.71690321,2.7702782,-0.58633262,-0.20294765,0.78423619,0
1.2534872,-0.75501186,2.8229949,0.39421397,-0.23744656,0.88781446,0
-2.6288354,2.0936561,-0.41470593,-0.7763446,0.61829603,-0.12247047,0
2.7614315,-1.0091945,-1.9925053,0.77751172,-0.28414991,-0.56101197,0
-1.1354797,-1.6792703,2.4435899,-0.3576355,-0.52891004,0.76964343,0
-0.58900303,-2.4702058,2.167376,-0.17642128,-0.73988903,0.64918387,0
2.3517227,-2.0850344,0.10258576,0.74786133,-0.66305292,0.032622859,0
-1.621587,-2.7113411,1.320013,-0.47360295,-0.79187804,0.38552484,0
-1.942934,-0.94672871,-2.605391,-0.5739553,-0.27966979,-0.76964939,0
3.0562916,0.66042888,-1.2740464,0.90518439,0.19559976,-0.37733537,0
0.22629417,2.5655563,-1.9076736,0.070604958,0.80046684,-0.59520406,0
-1.8129272,0.35365734,2.6124513,-0.56663162,0.11053584,0.81652337,0
1.0117018,-2.1988764,-2.3625112,0.29911515,-0.65010983,-0.69848931,0
-0.26836124,-1.9513566,-2.8148201,-0.078112975,-0.56798917,-0.81932092,0
0.62231869,1.6191704,2.7915804,0.18934877,0.4926542,0.84937561,0
1.7269312,0.75024587,3.0137053,0.48597616,0.21112688,0.84808761,0
2.2435119,2.2996786,-0.51959038,0.68935454,0.70661265,-0.15965237,0
-1.9316796,2.5737386,0.3773329,-0.59618896,0.79435253,0.11645912,0
2.8111131,1.3298951,-1.1687835,0.84615934,0.40030521,-0.3518098,0
0.12259974,-2.4967787,2.0431736,0.037973698,-0.77334523,0.63284683,0
1.910794,2.0863445,1.4162891,0.60394901,0.65943563,0.44764972,0
-0.21754265,-3.3539429,0.64089519,-0.063580148,-0.98024076,0.18731137,0
0.78300571,-0.63835359,3.3397932,0.22440566,-0.18294905,0.95716858,0
1.3176571,0.70454663,3.0126145,0.39183283,0.20951164,0.89586377,0
2.5634031,-1.3512567,-1.881943,0.74188995,-0.39107537,-0.5446645,0
-1.4037985,-2.0188701,2.4250875,-0.40647087,-0.58456528,0.70218581,0
1.1528482,1.5740316,2.5133228,0.36233342,0.49470887,0.7899226,0
-0.34900567,-2.169008,2.3144436,-0.10936882,-0.67970777,0.72528327,0
2.243099,-2.6747391,-0.31058392,0.64004517,-0.76320922,-0.088621922,0
-1.494387,-2.9920783,-0.83659375,-0.43346325,-0.86788487,-0.24266313,0
1.77675,-2.3750443,1.6314238,0.52486646,-0.70160747,0.48193592,0
-2.6217992,-1.2312393,-1.4782913,-0.80622572,-0.37861663,-0.45458722,0
2.0546153,2.6252041,-0.81587541,0.59865981,0.7649141,-0.23772423,0
-2.3588543,0.62852108,-2.3770304,-0.69229984,0.18446457,-0.69763434,0
1.7815651,-2.8590372,0.53415471,0.52233434,-0.83823669,0.156608,0
-2.5006611,0.52422959,-1.9546553,-0.77733791,0.16295831,-0.60761034,0
1.3502976,1.1224065,2.7813916,0.41051698,0.34123361,0.84559768,0
1.9516755,0.050821159,-2.7129824,0.58390772,0.015204816,-0.81167763,0
-0.84843153,-1.5184621,2.7458651,-0.26102078,-0.46715635,0.84476811,0
2.0914445,2.2528741,0.65981346,0.66521102,0.71655577,0.20986222,0
-1.7320769,1.9458058,-2.2527061,-0.50293016,0.56498903,-0.65410137,0
2.6347945,1.4109981,0.99110216,0.83674455,0.44809756,0.31474915,0
-3.140384,-0.80186653,0.20202957,-0.96703595,-0.24692324,0.062212095,0
-0.70848376,-1.9786116,2.7006316,-0.20703632,-0.57819879,0.78919077,0
2.9239562,0.46339086,-1.5804989,0.87128192,0.13808143,-0.47095785,0
-3.2755225,0.30700445,1.4020507,-0.91592836,0.085847095,0.39205289,0
2.9820678,-1.8531058,-0.26572433,0.84694123,-0.52630311,-0.075468734,0
0.37132305,-0.18403938,-3.1499162,0.11687624,-0.057927538,-0.99145567,0
1.2690955,2.8004901,0.6833517,0.40293178,0.88914227,0.21696091,0
-2.7092032,1.4589293,1.3054785,-0.81052387,0.43647408,0.39056554,0
0.40115982,-0.42446962,3.275131,0.12058435,-0.12759103,0.98446941,0
3.002013,-0.26400599,1.3334677,0.91096002,-0.080112547,0.40464041,0
1.1845255,1.3752756,2.682936,0.36568087,0.42456833,0.82826281,0
2.335634,1.8494492,1.6565235,0.68518364,0.54255605,0.48595917,0
0.002593182,3.1435051,0.829642,0.00079762144,0.966892,0.25518465,0
-0.88532639,-3.0695486,-0.55212867,-0.27307755,-0.94679743,-0.17030323,0
2.026603,-1.5882792,-2.3821642,0.57774663,-0.45278874,-0.67911053,0
0.81003153,1.8444492,-2.7109013,0.23983565,0.54610795,-0.80264872,0
-0.29268727,0.83750874,-3.1369958,-0.089780398,0.25690174,-0.96225822,0
-1.4107176,-2.7961249,1.0983303,-0.42506212,-0.842498,0.33093694,0
-3.0792558,0.48354375,-0.67806321,-0.96531713,0.15158632,-0.2125663,0
0.46259919,2.5412982,-1.970166,0.14239721,0.78226203,-0.60645616,0
2.0786023,1.2874458,2.4666631,0.5984835,0.37068903,0.71021628,0
1.5388942,0.47762072,-3.0485563,0.44629046,0.13851348,-0.88410342,0
-2.3895524,2.1043901,1.0180966,-0.7148155,0.62951154,0.30455545,0
-2.2790906,1.6798867,1.8890945,-0.66959852,0.49355194,0.55501735,0
3.2769299,-0.056041878,-0.74036795,0.97527874,-0.016679164,-0.22034805,0
0.25728527,0.11205992,3.5171046,0.072920822,0.031760473,0.99683189,0
1.7214891,-0.24416634,-2.7334394,0.53139383,-0.075369917,-0.84376538,0
-0.85791707,-1.6418209,-2.8349462,-0.25333294,-0.48481065,-0.83712667,0
-1.664592,-2.9316666,0.062878616,-0.49367067,-0.86944896,0.01864801,0
1.5090015,-0.74804056,-2.7539616,0.4674508,-0.2317242,-0.85310823,0
0.69601387,3.2598112,-1.1187943,0.19795418,0.92712694,-0.3181977,0
-2.4135053,2.0407381,1.0570644,-0.72418541,0.61233455,0.31717792,0
-3.1841283,0.53566378,-1.5902442,-0.88466835,0.14882717,-0.44182852,0
2.8431814,1.8630811,-0.44590589,0.82931483,0.54343373,-0.13006429,0
1.0779338,-2.9856172,-1.3234383,0.31343576,-0.86814159,-0.38482222,0
-2.9154966,0.31391966,-1.4768934,-0.88798487,0.095611811,-0.44982356,0
1.7880269,-2.3983619,1.5620673,0.52981812,-0.71066916,0.462863,0
-2.0230024,-2.5620744,-0.19602904,-0.61858886,-0.78342503,-0.059941296,0
0.68549573,-3.4410107,0.39224571,0.19416481,-0.974657,0.11110254,0
1.6676543,2.6209164,-1.0628619,0.50792277,0.79826081,-0.32371923,0
1.3332551,2.9090159,0.81838441,0.40365183,0.88072389,0.24777132,0
1.1105671,1.8116795,2.3519762,0.35036394,0.57155228,0.74200618,0
-0.90340275,3.2009289,-0.95060998,-0.26116297,0.92535037,-0.27481002,0
1.7763381,1.7459431,-2.2871802,0.52530277,0.51631427,-0.67637014,0
-2.0552106,-1.9459708,-1.8858865,-0.60428399,-0.57216471,-0.55449843,0
3.3485317,1.0386519,0.75980592,0.93343896,0.28953531,0.21180402,0
-1.0200431,1.967122,-2.5497158,-0.30196363,0.5823276,-0.75479299,0
-0.066483669,-3.3636596,-0.1040542,-0.019751973,-0.99932688,-0.030913996,0
1.8465233,-2.1907585,-1.453776,0.574727,-0.68186957,-0.45248511,0
2.1710155,-1.9274476,-1.8784423,0.62784648,-0.55740792,-0.54323584,0
3.2646573,-0.0074846544,0.37748283,0.99337888,-0.0022774513,0.11486151,0
0.40804917,-3.1017604,-1.5519043,0.11684412,-0.8881833,-0.4443849,0
2.776902,0.41470549,2.0418975,0.79987437,0.11945409,0.58815962,0
2.7271144,0.91711372,1.6177899,0.82618988,0.27784315,0.4901157,0
2.2539051,2.0924015,-1.5456445,0.65482742,0.60790581,-0.44905639,0
0.76409417,2.2769413,2.3521292,0.22729611,0.67732477,0.69969106,0
1.204569,2.9818096,0.47207907,0.37059215,0.91736984,0.14523768,0
-2.1302319,1.861071,1.8318138,-0.6321131,0.55224377,0.54356217,0
-2.5182307,0.59763861,-2.0412486,-0.76396525,0.1813079,-0.61926132,0
3.1622486,1.2263601,-0.85121274,0.9042995,0.3506988,-0.24341895,0
2.6102431,-1.1135607,1.4335909,0.82098669,-0.35024267,0.45090017,0
-1.5667602,-2.0958426,-1.9276322,-0.48206729,-0.64485759,-0.59310192,0
-1.2400783,-2.1035421,-2.2087529,-0.37662488,-0.63886791,-0.67082155,0
-2.871577,-0.26893809,1.587123,-0.87229037,-0.081694521,0.48211563,0
1.0128274,-1.3671113,-2.7219794,0.31552434,-0.42589378,-0.84797341,0
-1.0454575,3.219553,-0.77235299,-0.30110794,0.92728108,-0.22244962,0
-1.0779556,0.65076965,-3.3392115,-0.30205593,0.18235336,-0.93568665,0
-1.3977118,-3.0908506,-0.43568659,-0.40868104,-0.90374285,-0.12739168,0
-0.0083854077,1.4764458,3.00298,-0.0025058603,0.44121489,0.89739799,0
-3.0320947,-0.65358675,-1.2849535,-0.90311819,-0.1946727,-0.38272712,0
2.8618665,1.2112465,1.4679077,0.83269292,0.35242608,0.42710459,0
-0.83580357,3.0647423,1.1015664,-0.2485853,0.91151786,0.32762867,0
-0.65106267,1.6597526,-2.8391993,-0.19419818,0.49506897,-0.84687293,0
-2.0218825,-2.4379551,-1.1246288,-0.601569,-0.72536272,-0.33460984,0
2.8677938,-1.5269192,-0.37562671,0.87684053,-0.46686223,-0.11484952,0
-0.72713488,2.1903465,-2.6611814,-0.20642394,0.62181032,-0.75547409,0
0.63518834,-2.3868985,2.1767917,0.1929321,-0.72499657,0.66117871,0
-0.8562721,-2.0140736,2.7066967,-0.24599934,-0.57862538,0.77760983,0
-3.1856692,-0.19446398,-1.5205758,-0.90109897,-0.055006117,-0.43011034,0
0.081824519,-3.121788,-0.5798381,0.025761481,-0.982858,-0.18255517,0
1.3638915,3.0522227,-0.58957422,0.40177307,0.89911908,-0.17367586,0
1.6430572,-1.2188953,2.6681945,0.48868048,-0.36252561,0.79357833,0
-0.67472452,2.9312735,-1.8027211,-0.19240639,0.83589041,-0.51406914,0
3.1832342,-1.4042448,-0.79225069,0.89209473,-0.39353666,-0.2220266,0
2.5471451,0.70860833,-1.9514827,0.77513051,0.21563904,-0.59386241,0
-0.29596379,2.6014237,-2.1455352,-0.087433547,0.76851189,-0.63383341,0
0.63826954,-3.25511,-1.2498467,0.18006058,-0.91829067,-0.35259104,0
-2.0248404,1.9695648,-1.5041057,-0.63271636,0.615444,-0.46999866,0
-0.1617517,-2.9623935,-1.7580912,-0.046903621,-0.85901403,-0.50979888,0
-0.96195543,-2.892514,-0.82966095,-0.30449659,-0.91559398,-0.26262021,0
-3.0889077,0.67560673,-0.45493352,-0.96694893,0.21149133,-0.14241199,0
-2.9370563,-0.28990182,1.639218,-0.86998105,-0.085871384,0.48555028,0
-2.1880116,2.348933,0.93901986,-0.65418386,0.70229697,0.28075337,0
-2.3637865,-2.2286019,-0.56413031,-0.71687859,-0.67588043,-0.17108692,0
-1.0288842,-1.4276721,3.0203507,-0.29433513,-0.40841725,0.86403829,0
-2.3581038,-0.19506595,2.3774731,-0.70301688,-0.058154631,0.70879143,0
1.7775865,-2.0593827,-1.7584772,0.54875511,-0.63574785,-0.54285592,0
1.5333824,-2.5023613,-1.3186553,0.47658449,-0.77774894,-0.40984601,0
0.45610493,0.73159301,3.1169763,0.14103401,0.22621876,0.96381253,0
-1.1536804,-1.5524684,-2.6898456,-0.34822139,-0.46858963,-0.81189013,0
1.7143165,3.0106378,0.67737108,0.48562741,0.85284615,0.19188404,0
-0.71520221,3.1607456,0.57092035,-0.21734977,0.96054983,0.17350255,0
-2.3672955,2.4678981,-0.33342624,-0.6889776,0.71825695,-0.097040355,0
-0.51443702,2.5142825,2.3584979,-0.14759308,0.72135299,0.67665803,0
1.2632585,3.06497,0.89802033,0.36780635,0.89238703,0.26146477,0
-2.2676992,-1.5455421,1.3787085,-0.73838627,-0.50324446,0.44892171,0
1.0703814,-3.2522986,-0.24588655,0.31181654,-0.94743848,-0.071630068,0
-0.75027031,-2.1554284,-2.4344079,-0.22483832,-0.64593107,-0.72953463,0
-3.0858173,0.88221264,0.1276474,-0.96071905,0.27466255,0.039740942,0
1.4705094,-1.7612774,-2.3756046,0.44524124,-0.53328007,-0.7192862,0
1.7029605,-2.6015413,1.4819996,0.49440336,-0.7552793,0.43025404,0
-0.71379435,-0.74872851,3.2539523,-0.20905255,-0.21928388,0.95300138,0
0.67911178,-1.590898,2.6657643,0.21370463,-0.50062788,0.83886951,0
-0.71935791,-2.045558,-2.4453595,-0.22010382,-0.62588471,-0.74821299,0
-2.5828321,-0.64527601,2.0486453,-0.76887882,-0.19209111,0.60985768,0
0.23053834,3.4385138,-0.61530256,0.065854326,0.98222715,-0.17576399,0
-0.27842453,3.1957438,-0.36182806,-0.086247846,0.98994875,-0.11208384,0
0.69522345,-1.5634841,3.0712502,0.19774623,-0.4447104,0.87357265,0
0.74865317,3.0962288,1.5450712,0.21146066,0.87454462,0.43641275,0
1.7328033,2.7874877,0.17762072,0.52717167,0.84803885,0.054037645,0
-3.1191611,-0.54463005,1.4455833,-0.89612198,-0.15646994,0.41531008,0
-0.58587784,2.3339007,2.0547435,-0.18515685,0.73759013,0.64936721,0
2.781945,-0.32653609,1.5523568,0.86869401,-0.10196462,0.48474109,0
1.1770096,0.60251278,-3.0829835,0.35086718,0.17960937,-0.91903901,0
-0.21137717,-0.53908771,3.2233505,-0.064543672,-0.16460954,0.98424476,0
0.24265955,2.8646612,-1.8950299,0.070472993,0.83195263,-0.55035305,0
1.3900079,-2.9179442,0.84133083,0.41619319,-0.87368464,0.25190949,0
-3.0830438,0.49706188,-1.4215374,-0.8985374,0.14486615,-0.41429985,0
-1.2919453,1.0924228,2.8576477,-0.38902971,0.32894963,0.86049294,0
1.1509305,-0.042983398,-3.0874789,0.34926406,-0.013043842,-0.93693352,0
-1.4650518,-0.54736143,-3.0826967,-0.42382562,-0.15834649,-0.89179498,0
-0.74655288,-2.6240165,1.8258723,-0.22741516,-0.79932868,0.55619776,0
2.4694064,-1.9530641,-1.6601104,0.69379598,-0.5487262,-0.46641895,0
-0.51232576,-2.3354142,-2.0576005,-0.16241527,-0.74036276,-0.65229148,0
0.44712228,0.41498509,3.1655025,0.13869651,0.12872761,0.98193306,0
2.3138225,1.998873,-1.409332,0.68724251,0.59369743,-0.41859427,0
0.34794,2.20716,-2.3435254,0.10745478,0.68164027,-0.72375417,0
1.9916929,-0.072794199,2.4216666,0.63503796,-0.023209943,0.77213222,0
1.5759561,1.5341613,2.2244039,0.50379968,0.49043879,0.71109468,0
0.18775877,3.2367282,0.12109245,0.057871111,0.99762613,0.037323181,0
-1.4265522,-0.013521874,-3.078552,-0.42043489,-0.0039851805,-0.90731394,0
0.17501302,-2.2759552,2.1897721,0.055328198,-0.71951509,0.69226933,0
-0.75817555,3.2165322,0.73881692,-0.22389759,0.94987738,0.21818076,0
0.99076533,3.1042211,0.37511131,0.30206102,0.94640392,0.1143626,0
-0.48381674,-0.18281765,-3.4251409,-0.13967115,-0.05277691,-0.98879045,0
2.4709284,0.57013339,-2.2651689,0.7266956,0.1676752,-0.6661821,0
1.6768368,-1.0677801,-2.7016299,0.49991971,-0.31834006,-0.80544394,0
2.7843511,2.0553377,-0.37455708,0.79987246,0.59044564,-0.10760061,0
0.47667432,-0.85891211,-3.3452334,0.13672084,-0.24635518,-0.95948768,0
2.5030034,1.2584307,-1.5673263,0.77971077,0.39201385,-0.48823792,0
2.8854601,1.3213351,-0.92041582,0.87322104,0.39987299,-0.27854359,0
-1.0019934,3.2066894,-0.15847993,-0.2979174,0.95342797,-0.047119997,0
-2.3915102,0.14711678,-2.0776913,-0.75408703,0.046388619,-0.6551342,0
2.7318203,-1.7213185,0.94096088,0.81226552,-0.5118081,0.27978051,0
-2.2497134,-2.0410285,-1.2004983,-0.68878162,-0.62488973,-0.36754954,0
2.4530923,-0.30216599,2.1828716,0.74391162,-0.091633238,0.66196591,0
-1.3815105,-1.6354513,-2.8432639,-0.38815936,-0.45950845,-0.79886436,0
-1.2799383,-1.7114226,-2.4744325,-0.39147109,-0.5234412,-0.75680894,0
2.355304,-2.5225804,0.028435182,0.68243378,-0.730901,0.008238906,0
1.753776,-2.2778058,-1.2239183,0.56130946,-0.72902924,-0.39172447,0
-0.86796421,1.2164216,-2.9890769,-0.25972959,0.36400196,-0.89445126,0
1.5823175,1.8829103,2.2548113,0.47422296,0.56431109,0.6757704,0
1.462307,-0.12550609,2.8117926,0.4610348,-0.039569445,0.8864994,0
-3.2281833,0.2924079,1.3749032,-0.9168523,0.08304821,0.39049307,0
0.20353217,1.3544521,2.9406073,0.062742308,0.41753325,0.90649295,0
-2.788626,0.19828884,-1.4110707,-0.89048165,0.063318849,-0.45059201,0
-2.8361397,-0.63112754,1.3714116,-0.88273287,-0.19643497,0.4268443,0
2.1360714,2.7567558,-0.15934719,0.61185908,0.78964871,-0.045643616,0
-0.1323898,2.9228232,-1.7756708,-0.038682319,0.85400522,-0.51882446,0
-2.1538329,2.4314179,0.23932727,-0.66129291,0.74652004,0.07348083,0
-3.1884949,-0.24805199,-1.4369793,-0.90940613,-0.070748113,-0.40984783,0
2.4552207,-1.9378116,1.2448738,0.72932208,-0.57562602,0.36978915,0
-0.87894422,-2.8414483,1.0971516,-0.27725273,-0.89630187,0.34608373,0
-0.74398839,-2.4107924,1.9826102,-0.23186119,-0.75131434,0.61787301,0
-0.99545205,2.6117172,1.9530152,-0.29194453,0.7659601,0.57277703,0
2.1626709,0.30513212,2.6570008,0.62878162,0.088715054,0.77250463,0
-2.078249,-2.6749237,-0.048564896,-0.61346412,-0.78959244,-0.01433554,0
1.1879086,2.5879438,1.7982734,0.35272089,0.76842767,0.53395402,0
0.36078551,-3.4408758,-0.69162929,0.10225788,-0.97525162,-0.19602934,0
1.6798549,-1.3947421,-2.3104656,0.52843738,-0.43874854,-0.72681063,0
-1.4991199,3.1310632,0.069703005,-0.43175638,0.90176678,0.020074924,0
0.36275297,-2.0157106,-2.7663486,0.10539018,-0.58562189,-0.80370384,0
1.5796233,-2.4524302,1.4800941,0.48289812,-0.7497192,0.45247155,0
0.78360099,-2.3020329,-2.3402781,0.2321815,-0.68209392,-0.69342601,0
1.4858751,1.2845811,2.7844083,0.43606305,0.37698886,0.81714648,0
-0.82888955,-2.4359722,-2.4133499,-0.23496026,-0.69051015,-0.68409753,0
-2.0361779,-0.29059884,-2.842654,-0.58031851,-0.082821786,-0.81016731,0
3.2748663,-0.90511411,-0.83511657,0.93600464,-0.25869483,-0.23868851,0
-0.015352653,-3.1503868,-0.087268718,-0.004871333,-0.99960464,-0.027690003,0
-2.9836888,-1.1537455,0.19611996,-0.93094969,-0.35998359,0.06119198,0
2.3172419,1.8596567,1.466521,0.69935483,0.56125337,0.44260314,0
-1.4192345,-2.8356409,-1.2901509,-0.41457033,-0.82831454,-0.37686393,0
-0.42668855,1.0541092,2.9423821,-0.13526377,0.33416128,0.93275928,0
-0.21694931,-1.9446285,-2.9604602,-0.061135601,-0.5479899,-0.83424789,0
-1.2115781,-0.12583435,-3.0506797,-0.36883542,-0.038307197,-0.92870504,0
-3.4407609,0.26321197,-0.10928174,-0.99658722,0.076237112,-0.031652529,0
-0.29077199,3.3575032,-0.055968635,-0.086268783,0.99613351,-0.016605265,0
0.65104514,1.1740497,3.2178385,0.18672505,0.33672702,0.92290229,0
1.3362362,-2.3502002,-2.0159621,0.39622727,-0.6968928,-0.59778291,0
1.740941,2.1551063,1.9398202,0.51475912,0.63721895,0.57356346,0
2.9465528,-1.1674929,0.80422181,0.90112495,-0.35704672,0.24594989,0
-1.6260875,2.7910709,-0.24600028,-0.50194693,0.86155844,-0.075936303,0
0.1350839,3.1403553,0.49298984,0.04245672,0.98701024,0.15494616,0
-0.75366056,-0.29157567,3.3646975,-0.21779723,-0.084261246,0.97235,0
1.5083051,2.6042612,-1.1680338,0.46722367,0.80671513,-0.36181876,0
-1.3599437,-2.4751093,1.5488695,-0.42221636,-0.76843739,0.48087138,0
2.8614554,-1.6406198,-0.85291624,0.83989787,-0.48155671,-0.25034901,0
-1.4032191,-2.6309757,1.2339065,-0.43483591,-0.81529868,0.38236856,0
0.8521719,3.369205,-0.074498348,0.24515153,0.96924788,-0.021431573,0
1.9457582,2.9516206,0.41539562,0.54662615,0.82920527,0.116698,0
-1.6816677,0.83870977,2.6105258,-0.52281493,0.2607471,0.81158829,0
2.913841,-1.2463936,-1.0879278,0.86960757,-0.37197405,-0.32468149,0
-2.6554258,-1.5777576,0.84092391,-0.8295064,-0.49286258,0.26268923,0
-0.67724305,2.133755,2.4465029,-0.20422482,0.64344066,0.73775083,0
-0.85930711,2.7093654,1.3902609,-0.2715753,0.85626745,0.43937787,0
-0.42515662,2.714818,1.7917026,-0.1296041,0.82758099,0.54617989,0
-0.23009643,-3.0860028,-0.63194728,-0.07285139,-0.97706687,-0.20008238,0
1.3021041,0.79049033,2.9210978,0.39524606,0.2399487,0.88668209,0
3.375875,0.67187035,0.54103124,0.96886945,0.19282547,0.1552749,0
2.23717,-1.9686545,1.8369164,0.63906646,-0.56236273,0.52473062,0
-2.950284,-1.3525947,-1.3994094,-0.83473229,-0.3826935,-0.3959389,0
1.65356,2.7800398,-1.4801941,0.46484539,0.78151906,-0.41610911,0
-0.090539627,1.5415123,2.8798144,-0.027707545,0.47174394,0.88130015,0
1.0316375,-3.0334494,-0.19845471,0.32136095,-0.94493669,-0.061819769,0
2.4285164,-2.0309994,0.12543355,0.76649463,-0.6410293,0.039589662,0
1.7649145,2.1952989,1.7611151,0.53127825,0.66083342,0.5301345,0
1.0362279,2.2354934,-1.9392482,0.33047372,0.71294338,-0.61846489,0
-2.376477,-1.3134065,1.5633861,-0.75848573,-0.41919199,0.49897644,0
-2.2390993,-1.8845632,-1.4239899,-0.68796456,-0.5790332,-0.43752176,0
2.1253603,1.9387256,-1.1754314,0.68391365,0.62385702,-0.37823874,0
-0.83999032,3.3588409,-0.31853902,-0.24159145,0.96604359,-0.091615707,0
0.018789817,-0.28297988,3.4841685,0.0053751352,-0.080951035,0.99670357,0
-0.10386994,0.98696738,3.2948105,-0.030185737,0.28682345,0.95750779,0
-1.8193233,3.0575931,-0.18332037,-0.51066685,0.8582375,-0.051456299,0
-0.91894174,1.8505844,-2.3639333,-0.29269078,0.58942688,-0.75293291,0
-1.7577053,-1.6624901,-2.5486794,-0.50018102,-0.47308615,-0.72526443,0
2.7578061,1.7333219,0.6751157,0.82903844,0.52106291,0.20295005,0
2.793328,-1.4970078,1.3046097,0.81504601,-0.43680164,0.3806631,0
2.056458,-2.7416697,1.0809032,0.57225204,-0.7629264,0.30078372,0
0.31931171,-3.0397191,1.4051545,0.094921023,-0.90360999,0.41770691,0
-2.5915864,1.7354767,1.1426897,-0.78019005,0.52246058,0.34400365,0
-0.65106124,3.4095168,0.51230103,-0.18555504,0.97172582,0.14600782,0
2.7479961,-0.029091194,1.7510793,0.84330046,-0.008927457,0.5373683,0
0.99743038,1.1675655,-2.8674099,0.30664605,0.35895169,-0.88154513,0
-2.5306356,0.50501913,1.7635751,-0.80964863,0.16157524,0.56423616,0
0.39301521,0.91228867,-3.3196216,0.11342244,0.26328245,-0.95802802,0
-1.4892941,-1.4514971,2.2662723,-0.48418999,-0.47190168,0.73679632,0
0.1390947,2.9754539,1.4995995,0.041708969,0.89222026,0.44967026,0
-0.2064992,3.13308,-1.0315838,-0.062480927,0.94798309,-0.31212863,0
-1.3482525,-0.76709265,2.8207245,-0.41882706,-0.23829301,0.87624216,0
-2.8875899,0.47328323,1.5116626,-0.87674797,0.1437012,0.45898038,0
-1.3212271,2.8299742,1.1360627,-0.39755201,0.85152805,0.34183678,0
-0.16546674,-2.4791865,-2.2768719,-0.04909778,-0.73563159,-0.67560017,0
2.0815213,0.74965942,2.8538227,0.57644558,0.20760675,0.79032272,0
-0.76506686,2.7702246,1.7324418,-0.2279892,0.82552427,0.51626599,0
0.5287028,-3.0192721,-1.4448242,0.156021,-0.89099175,-0.42636982,0
-1.3036743,2.3570044,1.9887941,-0.38936755,0.70396495,0.59399182,0
1.3845364,-2.9425871,0.42529261,0.42214939,-0.89720386,0.12967302,0
2.599088,-1.5265721,1.5330781,0.76857054,-0.45141923,0.45334309,0
-0.9377867,1.405502,2.9065704,-0.27893731,0.41805556,0.86453658,0
3.3360701,-0.44845176,-0.062255718,0.99091607,-0.13320406,-0.018491875,0
2.3754735,-2.2294493,-0.1860287,0.72797704,-0.68322712,-0.057009529,0
-1.4112802,0.10639443,3.0334671,-0.42160738,0.031784389,0.90622127,0
2.3713982,-2.2842915,0.62486893,0.70758128,-0.68159026,0.18644932,0
1.8353866,-2.4034042,1.6579124,0.5321936,-0.69689745,0.48073268,0
-2.4840677,-2.1571393,0.18957295,-0.75379443,-0.65458745,0.05752622,0
-0.95256454,-2.6459806,1.6044749,-0.29420701,-0.81723177,0.49555463,0
1.4406044,-0.0086368332,3.1940565,0.41114151,-0.0024649103,0.91156822,0
2.1239848,2.2191403,0.77679139,0.67034703,0.70037889,0.24516174,0
-1.4066784,3.1056728,0.23520677,-0.41161099,0.90875715,0.068824321,0
-1.8208023,-2.8570244,0.63456339,-0.52825546,-0.82888663,0.18410102,0
-1.7938596,1.1152127,2.7930722,-0.51226199,0.31846476,0.79760128,0
1.6630766,-0.96426058,-2.6560872,0.50722367,-0.29409096,-0.81008309,0
2.7455437,-1.9692366,-0.39568314,0.80707771,-0.57887512,-0.11631469,0
-3.1401687,-1.1062766,0.93630326,-0.90795881,-0.3198725,0.27072582,0
-0.88810575,-2.1617861,2.1393309,-0.28030062,-0.68229485,0.67520761,0
-0.10657286,-3.1463394,-0.59308112,-0.033267401,-0.98215002,-0.18513407,0
0.03636539,1.7619108,-2.9048207,0.010703281,0.51857626,-0.85496438,0
-0.61561704,1.7514805,-2.9506004,-0.17659323,0.50242209,-0.84639645,0
-0.83347768,2.6919835,-1.8233719,-0.24831691,0.80201912,-0.54323483,0
-0.35614356,-0.039796319,3.2243834,-0.10977732,-0.012266775,0.99388051,0
0.73263526,-2.5058877,2.1165996,0.21798229,-0.74558127,0.62975568,0
0.043889269,1.7260141,-3.0472851,0.012531101,0.49280512,-0.87004948,0
3.111213,1.1855669,0.28238079,0.93111062,0.35481143,0.084509723,0
-1.6165411,-0.77031964,2.9867876,-0.46419576,-0.22120012,0.85766703,0
-0.68081492,3.129189,0.23788877,-0.21201141,0.97445536,0.074080534,0
-3.1922202,-0.14709403,0.31971863,-0.99397761,-0.045801405,0.099552393,0
0.0633348,3.1733184,1.1351011,0.018789148,0.94140893,0.3367435,0
-0.19805244,3.4146681,-0.30638909,-0.057672262,0.9943409,-0.089219563,0
-0.82637745,-2.794241,-1.7049814,-0.24477717,-0.82766825,-0.50502408,0
0.056133389,-3.126533,0.59032482,0.017639417,-0.98248512,0.18550432,0
-1.2324442,-1.4244691,-2.7002957,-0.37433469,-0.43265912,-0.82017052,0
-2.2754722,0.73644054,2.3941591,-0.67240149,0.217618,0.7074734,0
-0.44815457,0.44471994,-3.4627788,-0.1273215,0.12634571,-0.98378152,0
0.26611412,-3.0577097,-1.4533151,0.078362018,-0.90039682,-0.42795441,0
0.049131673,-3.3115945,-0.077735767,0.014830542,-0.99961472,-0.023464773,0
-2.4703434,1.8608727,1.3008629,-0.73626256,0.55461562,0.38770995,0
1.4304749,2.8040993,1.3098258,0.4195523,0.82243055,0.38416642,0
1.4671925,-0.82123619,-2.9386806,0.43335053,-0.24256063,-0.86796981,0
-0.20481993,-2.3188047,-2.1151776,-0.065119788,-0.73723328,-0.67249274,0
-1.5713817,1.3939497,2.5863342,-0.47161934,0.41836664,0.77623743,0
-2.2146602,2.5322986,-0.49138716,-0.65140682,0.74483502,-0.14453366,0
-2.291074,1.4175751,2.0454733,-0.67729622,0.41906905,0.60469079,0
2.6133983,-0.19098341,-1.8289384,0.81783217,-0.059766009,-0.57234472,0
-3.0787294,-0.59761542,0.86640543,-0.94623244,-0.18367417,0.26628548,0
-1.3839118,2.9184165,0.67404497,-0.4194307,0.88450253,0.20428698,0
-2.661073,-0.94645792,-1.4470896,-0.83852696,-0.29823703,-0.45599034,0
-1.7783263,2.3600111,-1.918921,-0.50471866,0.66981053,-0.54462183,0
1.1227394,2.8817151,1.4607574,0.32825497,0.84252614,0.42708117,0
-0.24347356,-3.5036027,0.014795901,-0.069324538,-0.99758524,0.0042128558,0
2.5969465,0.85011309,-1.8510281,0.7868405,0.25757304,-0.56083703,0
-0.48627475,-3.0930572,-0.8669706,-0.14967541,-0.95204324,-0.26685363,0
2.4362776,1.1362011,2.4109108,0.67469335,0.31465515,0.66766834,0
1.2800823,1.270764,2.6046879,0.40403366,0.4010925,0.82212019,0
-1.5636111,-2.3443267,1.8242087,-0.46579626,-0.69836968,0.54342771,0
-1.904207,-1.4061977,-2.340503,-0.5720287,-0.42242539,-0.70309311,0
-1.3318917,-2.7771063,-0.36043847,-0.4295046,-0.89555329,-0.11623316,0
2.8056536,1.5283945,1.3050543,0.81294787,0.44285759,0.378144,0
0.09678188,-2.9899189,-1.8202584,0.027638068,-0.8538332,-0.51981241,0
-0.49583834,-2.677815,-2.3451416,-0.13796601,-0.7450965,-0.65253085,0
1.5524936,-1.9235903,-2.3953092,0.45103303,-0.55884469,-0.69588923,0
-2.628741,-1.1063999,-1.7156734,-0.78980231,-0.33241662,-0.51547217,0
-0.56351906,0.22621876,-3.1323764,-0.17661348,0.070899606,-0.98172349,0
-1.4789613,-2.5659578,-1.1371028,-0.46618834,-0.80882412,-0.35842997,0
2.417238,-1.1472042,-1.8894825,0.73796284,-0.35023198,-0.57684344,0
-0.80097145,-1.332112,-3.0873623,-0.23172428,-0.38538536,-0.89318639,0
0.97671443,-2.8679185,0.62674254,0.31569836,-0.92698246,0.20257875,0
-0.67109877,1.5035616,-2.7475998,-0.20951001,0.4693962,-0.85777193,0
1.8730808,2.3954375,1.2545967,0.56941849,0.7282154,0.38139865,0
2.6568098,-0.15347226,-2.077271,0.78697419,-0.045460049,-0.61530888,0
2.1512642,1.9836799,-1.7922261,0.62692177,0.57808429,-0.52229083,0
1.0527394,-0.54423314,3.2249374,0.30640364,-0.15840104,0.93862981,0
-0.1695088,-3.2131896,-0.3069379,-0.052442744,-0.99409872,-0.094960652,0
1.8623533,-2.1212409,1.5084136,0.5818907,-0.66277987,0.47130251,0
1.7186382,2.9529111,-0.63549137,0.49453887,0.8497014,-0.18286291,0
0.25812745,1.9387317,-2.6529396,0.078316152,0.58821332,-0.80490476,0
-0.99679607,2.3162718,-1.9330244,-0.31372324,0.72900397,-0.60838389,0
-1.6141917,-0.3398625,-2.9946086,-0.47213924,-0.099407293,-0.8759011,0
-0.15213469,-3.5223789,-0.095805734,-0.043134741,-0.99869996,-0.027163796,0
0.61487961,3.0537086,-1.1289073,0.18558185,0.92166477,-0.34072477,0
-0.88349551,-1.9219034,-2.6440411,-0.26092336,-0.56759709,-0.78086656,0
-1.5286683,1.3222008,-2.7339139,-0.44962141,0.3888939,-0.80411577,0
2.3437247,2.2009456,0.7857058,0.70812434,0.6649856,0.23739025,0
-2.8250401,1.3563848,1.081849,-0.85212916,0.40913224,0.32632282,0
-1.8230758,1.4013928,2.5643206,-0.52930129,0.4068723,0.74450999,0
-2.7185545,1.928156,-1.0014616,-0.78116643,0.55404836,-0.28776625,0
-2.4610062,0.24393035,2.2054415,-0.74269587,0.073614635,0.6655702,0
1.0138519,-2.1483719,2.2322671,0.31101486,-0.65904659,0.68478274,0
0.58130193,-2.7087581,-1.420346,0.18671541,-0.87005883,-0.45621812,0
3.3923407,-0.79252601,-0.54689181,0.96199697,-0.22474383,-0.1550871,0
0.41412181,-0.91186196,2.9600191,0.13252524,-0.29180962,0.94725084,0
-2.9349468,1.1004645,1.0449903,-0.88827974,0.33306235,0.31627277,0
-2.0243175,-2.3381658,0.84248132,-0.63153148,-0.72944355,0.26283103,0
-2.5916307,-1.4823993,-1.8061879,-0.74270123,-0.42482126,-0.51761156,0
-1.0087323,-1.1153392,-2.9624786,-0.30362299,-0.33571106,-0.89169008,0
-1.3790009,-2.6381931,1.8332307,-0.3944442,-0.75461876,0.52437037,0
1.6752239,1.9212383,-2.0432208,0.51279551,0.58810192,-0.62544143,0
3.1325562,-0.14015657,-1.038975,0.94830114,-0.04242881,-0.31452304,0
-1.9353261,0.38758898,2.6992395,-0.57876474,0.11590958,0.80721515,0
0.4867467,0.58719707,3.1618452,0.14965145,0.18053517,0.97211701,0
2.3492906,-0.93459898,-2.5413964,0.65533382,-0.26070607,-0.70892167,0
-2.4540961,-1.5536995,1.4715291,-0.75369966,-0.47717071,0.45193464,0
3.0721383,-1.5321298,-0.49108702,0.88586783,-0.44179797,-0.14160763,0
-1.5134852,-2.130842,2.1378543,-0.44822523,-0.6310581,0.63313484,0
0.9697541,3.1671112,0.58978325,0.28824398,0.94137347,0.1753037,0
-0.78257,-3.0578024,0.32302538,-0.24664649,-0.96374285,0.10180952,0
-1.7091519,1.8462387,-2.3833122,-0.49318472,0.53274184,-0.6877172,0
2.3910131,1.834759,-1.4577392,0.71418762,0.54803634,-0.43542182,0
-3.0905275,-0.99961191,-1.014379,-0.90821105,-0.2937552,-0.29809481,0
-0.18798089,-1.9364783,-2.5067456,-0.059240576,-0.6102646,-0.78997952,0
-2.4855306,0.89540243,-1.8509039,-0.77052832,0.27757972,-0.57379049,0
-0.84929198,0.76145172,3.2811038,-0.24449046,0.21920338,0.9445498,0
-3.0466323,-0.24936983,0.82941145,-0.96188819,-0.078731492,0.26186326,0
-2.6518579,-1.4179846,-0.8457523,-0.84891176,-0.45392469,-0.27074191,0
2.1286292,1.364643,2.1184905,0.64529651,0.41369316,0.64222294,0
-0.25771078,-2.3978388,-2.3275051,-0.076891512,-0.71542782,-0.69444275,0
1.328928,2.5880141,1.5051405,0.40570977,0.79009742,0.45950589,0
1.3435827,2.3229866,-2.2393031,0.38441527,0.66463459,-0.6406917,0
2.4441867,2.2440028,-0.42881262,0.73055321,0.67071944,-0.12816961,0
2.9897015,-1.3464526,-0.38177258,0.90567911,-0.40788487,-0.1156515,0
-2.6706367,0.9776513,1.9521241,-0.77421498,0.28342015,0.56591886,0
1.025985,2.5252838,-2.0380676,0.30145505,0.74197918,-0.59882528,0
-2.3764706,1.7410048,1.5427922,-0.71462154,0.52353251,0.46392855,0
-0.75940984,-0.16536263,-3.0643451,-0.24021544,-0.05230727,-0.96930927,0
1.3816391,-3.0608311,-0.23714101,0.41039863,-0.90918159,-0.070439771,0
-0.57010841,-3.3195343,-0.25552541,-0.16878031,-0.98274642,-0.075648166,0
0.26897341,2.7110755,-2.0236366,0.079256058,0.79884911,-0.59628743,0
-1.4083129,2.8132911,-1.5138832,-0.40336758,0.80577999,-0.43360493,0
0.47181475,-0.35261312,3.2483492,0.14291698,-0.10680972,0.98395449,0
1.9452595,2.1728473,1.6333412,0.58195662,0.65004331,0.48864111,0
-1.0022247,1.5100883,-2.6947823,-0.30860814,0.46499109,-0.8297857,0
1.2624871,3.0929759,0.7137329,0.36956891,0.90540951,0.20893164,0
-1.0942761,-2.7082582,-1.3787787,-0.33878139,-0.83846068,-0.4268617,0
0.991759,-3.2272677,0.23009722,0.29306877,-0.9536705,0.067994647,0
1.0919247,-2.9037046,-0.9295525,0.33717012,-0.89662087,-0.28703201,0
0.75345683,-3.28337,0.28817505,0.22284931,-0.9711197,0.085233301,0
