-2.5699673,1.6919931,-0.13999832,-0.83437103,0.54932606,-0.045452148,0
0.27045777,-2.7417192,1.5189582,0.08596839,-0.87148976,0.48281989,0
-0.77768189,0.67173386,-3.0883529,-0.2389314,0.20638043,-0.94885135,0
0.70611507,2.2370689,-2.2069974,0.21923211,0.69455725,-0.68522078,0
-1.3524784,-2.0873201,1.9691495,-0.4263365,-0.65797776,0.6207273,0
-0.93717813,2.9483879,-0.502464,-0.29900828,0.94068813,-0.160312,0
2.9462724,-0.75166303,-1.0215305,0.91851324,-0.23433422,-0.31846657,0
0.33351174,2.9128718,-0.38985243,0.11276019,0.98484087,-0.13180897,0
-1.1352839,2.7829971,0.32863927,-0.37547857,0.92043561,0.10869263,0
-2.8063009,0.084184051,-1.6128702,-0.8667137,0.025999874,-0.49812788,0
-1.8600519,2.454186,0.16489233,-0.60316277,0.79582387,0.053469971,0
1.0041521,-1.6760153,2.3043921,0.33237004,-0.5547539,0.76274395,0
1.7901213,2.6511443,0.3715198,0.55586517,0.82322848,0.11536365,0
0.35476345,-2.5430458,1.4901941,0.11949832,-0.85659808,0.50195611,0
-2.4471407,-0.35228756,2.2308233,-0.73486787,-0.10579073,0.66990852,0
2.970525,0.87662494,-0.052435782,0.95897061,0.28299966,-0.016927773,0
0.30026063,-0.31916946,3.1532662,0.094315723,-0.10025523,0.99048144,0
0.066222146,-2.0333948,-2.1703298,0.02226107,-0.68354094,-0.72957265,0
-2.863517,0.70500898,-1.2343707,-0.89570498,0.22052604,-0.3861098,0
-2.0872154,0.60994959,-2.2097731,-0.67323911,0.19674152,-0.71277058,0
-0.21559171,-3.1919436,-0.58413357,-0.066292949,-0.98150039,-0.17961699,0
0.26870295,-1.451744,-2.6749542,0.087945163,-0.47514871,-0.87549943,0
-1.5075948,-2.3854961,-1.346734,-0.4821465,-0.76290965,-0.43070135,0
-2.6714444,0.75958037,-1.4546069,-0.85208189,0.24227519,-0.46396032,0
-2.0793664,-2.2443051,0.23323284,-0.67767161,-0.73142564,0.07601127,0
-2.5204997,1.3063519,-0.71375471,-0.86104053,0.44626942,-0.24382932,0
1.7806377,-1.0542488,-2.2944598,0.57630169,-0.34120664,-0.74259973,0
-0.15451309,-1.5361928,-2.7512798,-0.048975814,-0.48692504,-0.8720696,0
0.69144201,2.981041,0.34141782,0.22455497,0.96813262,0.11087997,0
1.2137299,-2.5274053,-1.1219431,0.40191329,-0.83692247,-0.37151912,0
-0.4098765,1.6922268,-2.5289433,-0.13349408,0.5511471,-0.82366019,0
-1.1030519,-0.76658797,2.5777879,-0.3794755,-0.26372409,0.88681895,0
-2.7102227,0.90812385,-0.967107,-0.89816898,0.30095264,-0.32049969,0
-2.171386,1.435894,-1.7482076,-0.69246107,0.45791063,-0.55750829,0
2.2599773,-1.9853529,-0.72761858,0.73022068,-0.64148682,-0.23510064,0
2.9891868,-0.62785202,-0.47590113,0.96697855,-0.20310523,-0.1539503,0
-1.5819044,-2.3640878,-1.2004141,-0.51236653,-0.7657097,-0.38880479,0
1.8471968,1.4736996,-1.848752,0.61567032,0.49118376,-0.6161887,0
-2.7000802,1.5533564,-0.72092861,-0.84447271,0.48582527,-0.22547647,0
-1.9249511,-2.1125758,1.3203223,-0.61142957,-0.67102551,0.419379,0
2.8557911,0.97079283,0.92794997,0.90493417,0.30762181,0.2940459,0
2.5023594,1.85997,-0.44170681,0.7946443,0.59064835,-0.14026754,0
2.264612,1.4359411,-1.4812824,0.73924106,0.46873668,-0.4835375,0
2.0119689,-1.8319405,-1.1715906,0.67913616,-0.61836797,-0.39546812,0
1.3088561,-2.2861192,-1.3563931,0.44173646,-0.77156091,-0.45778009,0
-0.4633261,-3.0955133,-0.19688749,-0.14773571,-0.98703241,-0.06277936,0
2.8486998,-0.82485646,-1.4197538,0.86638343,-0.25086603,-0.4317939,0
-2.5960786,1.1496856,-0.97221231,-0.86504251,0.38308814,-0.32395202,0
1.3158967,-1.6178944,-2.3288646,0.42093283,-0.5175367,-0.74496388,0
-0.80747765,-2.7077758,1.6014779,-0.24861592,-0.83370256,0.49308226,0
-3.0895863,-0.31017002,1.0547491,-0.94212902,-0.094582297,0.32163197,0
-2.8041608,-0.41529134,1.1868268,-0.91246676,-0.13513474,0.38619041,0
0.45727086,0.9077875,2.8161387,0.15273099,0.30320603,0.94060588,0
2.823601,0.011400537,-0.51665664,0.9836607,0.0039716163,-0.17998819,0
-0.66309524,-2.7772667,1.2261294,-0.21338828,-0.89374214,0.39457628,0
2.8944037,0.653301,1.0065694,0.92375624,0.20850267,0.32124916,0
0.042283516,-1.2882051,2.5683525,0.01471437,-0.44828644,0.89376885,0
-1.4412693,-1.863609,1.917542,-0.4744699,-0.6135053,0.63126022,0
2.0271869,-1.4767923,-1.5863042,0.68310207,-0.49763539,-0.53453767,0
0.81633902,-0.07108371,-2.9657452,0.26531506,-0.023102632,-0.96388495,0
-1.5727984,-2.419024,0.81077909,-0.52476972,-0.80711585,0.27051929,0
1.3297734,-0.42156282,2.6131084,0.44892129,-0.14231637,0.88216531,0
-2.1395168,-0.98519421,1.9333308,-0.70210737,-0.32330295,0.63444501,0
-1.1531577,1.8725059,-1.994748,-0.38839695,0.63068181,-0.67185438,0
0.88997096,-1.1378742,-2.6252325,0.29700944,-0.37974206,-0.87611717,0
2.7538378,0.41279405,-0.93486929,0.93752581,0.14053299,-0.31827003,0
1.1306202,1.5284005,-2.6356812,0.34790578,0.47030768,-0.81103158,0
-1.8372657,-2.2802856,0.72597945,-0.60897088,-0.75581205,0.24062951,0
0.84189987,1.8529942,2.4637589,0.26344782,0.57984006,0.77096093,0
1.3944035,2.9366512,-0.26541755,0.42750734,0.90034199,-0.081373833,0
-2.8338065,-0.93928158,-0.43190062,-0.93943655,-0.3113817,-0.14317958,0
2.8419249,0.20145033,-1.4051422,0.89461011,0.063414589,-0.442325,0
-0.20546031,-2.7481005,0.86543411,-0.071131244,-0.95140427,0.29961702,0
1.0276157,2.1208222,-1.8466471,0.34322596,0.70835942,-0.61678433,0
1.0285659,2.7890837,0.86808914,0.33213234,0.90061796,0.28031307,0
-2.3233175,-0.19763331,1.9299977,-0.76757222,-0.065293632,0.63762814,0
-2.0114615,-2.405766,0.70614499,-0.62576699,-0.74843538,0.21968216,0
0.65683597,3.1701741,-0.23847046,0.20233524,0.97655725,-0.073459707,0
0.2426763,-0.29291704,2.9584816,0.081357598,-0.098200887,0.99183547,0
-2.5171404,-1.7387565,0.20130743,-0.82100964,-0.56712604,0.065659963,0
-2.766993,0.30359641,1.4099228,-0.88677007,0.097297028,0.45185417,0
-0.39343011,0.72195554,-3.068023,-0.12386496,0.22729574,-0.96591622,0
2.4535899,1.4878359,1.0329151,0.80453473,0.48786294,0.33869395,0
1.9117014,-2.3279059,0.58492637,0.62300199,-0.75863838,0.19062093,0
-2.6219709,0.78282744,-1.2684746,-0.86933833,0.25955358,-0.42057431,0
-1.433828,-1.1196758,-2.5955164,-0.45237151,-0.35325673,-0.81888324,0
-1.6413194,-0.88464355,2.6482253,-0.5067727,-0.27314198,0.81766433,0
1.7114346,1.1563687,2.335253,0.54895413,0.370913,0.74904805,0
-2.8845463,-0.0065871724,-0.39937744,-0.99054831,-0.0022620237,-0.13714553,0
0.47144985,2.7950945,1.678617,0.14310972,0.84845757,0.50954819,0
2.6960895,-1.6663369,-0.82410491,0.82326794,-0.50882649,-0.25164562,0
2.8471084,0.42113969,1.3252647,0.89855236,0.13291243,0.41825587,0
-0.94760513,2.8100774,-0.64160985,-0.31231174,0.92614537,-0.2114618,0
-1.0513269,-1.8735911,-2.1031935,-0.34968439,-0.62317967,-0.6995483,0
1.3712894,-1.6084764,-2.4240546,0.426375,-0.50012356,-0.75371134,0
-2.2536387,1.7809495,1.2453713,-0.71983904,0.56885648,0.39778644,0
0.55260545,2.5626292,1.4203703,0.18533903,0.85948342,0.47637978,0
2.0848546,-2.2001646,-0.15942696,0.68688005,-0.72487026,-0.052525099,0
0.26344064,-3.253798,-0.042454466,0.080693148,-0.99665421,-0.01300401,0
-2.7099376,-0.93040872,1.4835228,-0.83990169,-0.28836524,0.45979407,0
-0.55745941,1.9080212,-2.1845396,-0.18874151,0.64600718,-0.73962921,0
-1.2879238,0.3889862,-3.016536,-0.38993013,0.11776896,-0.91328251,0
1.5773339,0.36148307,-2.5178316,0.52700537,0.12077564,-0.84123641,0
-2.2459795,-1.8229883,-0.63241637,-0.75851458,-0.6156615,-0.21358033,0
2.0806699,0.87300497,-2.0089381,0.68870848,0.28896749,-0.66496503,0
2.6476541,-0.83582944,1.25217,0.86929369,-0.27442455,0.41111997,0
-2.5062547,-0.37265092,1.4849091,-0.85337955,-0.12688762,0.50561142,0
2.054002,1.2017431,-2.1936855,0.63462365,0.37130177,-0.67778152,0
1.8634899,2.1112044,-1.3866073,0.59368318,0.6726017,-0.4417547,0
-0.20692503,-2.8804717,-1.0810872,-0.067104682,-0.93412155,-0.3505908,0
-0.062833995,0.88608319,-2.9346461,-0.020492839,0.28898942,-0.95711297,0
0.27672738,-0.29607913,2.8606112,0.09578073,-0.10247875,0.9901132,0
0.86039597,-0.86228371,2.7827475,0.28324118,-0.28386262,0.91607666,0
-1.4830164,2.4182193,0.48292166,-0.51537335,0.84037226,0.16782348,0
1.9681281,1.3337638,-1.8811837,0.6491794,0.43993682,-0.62050116,0
-2.6940429,1.060815,1.1383681,-0.86593944,0.34097508,0.36590281,0
1.7990873,-0.59121114,2.1097436,0.63459718,-0.20853959,0.74417585,0
1.2307023,2.0241048,1.5745754,0.43266737,0.71159708,0.5535599,0
-1.3901519,-2.1409686,1.2512137,-0.48899913,-0.75310606,0.4401263,0
2.097306,2.4286461,-0.6415801,0.64090645,0.74215919,-0.19605762,0
2.0453682,-1.9478158,-1.4823939,0.64121562,-0.61063331,-0.4647252,0
1.6084995,-0.99883658,-2.4239421,0.52295613,-0.3247422,-0.78807318,0
2.0536232,2.427635,0.014669289,0.64583832,0.76346028,0.0046133045,0
-0.13883802,-2.5952268,-1.8839482,-0.043252479,-0.808496,-0.58691001,0
0.58483005,-2.6980824,-1.5338444,0.1851771,-0.85430479,-0.48566735,0
0.67902422,0.42131013,-2.922271,0.22413282,0.13906635,-0.96458536,0
-0.55368572,-1.0837891,2.5790992,-0.19415121,-0.3800332,0.90436721,0
-0.92405105,2.673053,-1.6208827,-0.28346798,0.82000339,-0.49723268,0
1.0714178,2.5828075,-1.0116297,0.36031145,0.86858284,-0.34020507,0
2.0930424,-1.1339573,1.9331295,0.68254173,-0.36978379,0.6303941,0
1.0889565,2.9253893,-0.094718434,0.34869692,0.93674469,-0.030329978,0
1.9978526,1.4477425,-1.8469573,0.64823592,0.4697437,-0.59927547,0
-0.62020814,1.1155616,2.614583,-0.2131667,0.38342062,0.89863712,0
-2.18116,1.9435917,1.0495756,-0.70262766,0.62609863,0.33810487,0
-2.8788004,0.7596485,1.5251405,-0.86056691,0.22708361,0.45591405,0
-2.9501374,0.065265775,0.90288329,-0.95600599,0.021149684,0.29258361,0
-1.1188403,1.9066875,-2.0577383,-0.37045363,0.63131374,-0.68132746,0
-0.35172105,0.16944911,2.8987772,-0.12024859,0.057932317,0.99105203,0
3.154825,0.24392854,-0.32442901,0.99182463,0.076687083,-0.1019951,0
-0.85503578,2.2186852,2.2632186,-0.26047099,0.6758818,0.68944812,0
-1.4666227,2.6887491,-0.41756684,-0.47447082,0.86984402,-0.1350881,0
1.7106557,2.6712286,-0.47641891,0.53331113,0.83277774,-0.14852755,0
-0.32444742,2.9876497,-0.23472615,-0.10763366,0.99113643,-0.07786911,0
-2.7314863,1.200055,0.80396366,-0.88400358,0.38837937,0.26019049,0
-0.92082,2.679914,-1.3260517,-0.29432148,0.85658032,-0.42384562,0
0.93734986,-2.5677545,-1.1664646,0.31539643,-0.86398965,-0.39248818,0
-2.6517477,-0.59430993,1.4256492,-0.86410326,-0.1936629,0.46456459,0
0.60254109,-1.8702471,1.9855596,0.21569832,-0.66951311,0.71079278,0
-1.5768486,-1.8194916,-1.7762078,-0.52702594,-0.6081239,-0.59365726,0
0.35295677,-2.177402,-2.1772718,0.11387971,-0.7025277,-0.70248568,0
2.3320692,1.4658571,-0.67594504,0.82224333,0.51683342,-0.2383254,0
-2.6416309,0.72229862,1.3571156,-0.86428976,0.23632193,0.44402158,0
-0.10251608,1.723353,2.313127,-0.035517558,0.59707016,0.80140233,0
1.2178948,0.32074812,-2.7189066,0.40644842,0.10704337,-0.90738159,0
-0.63991976,-2.5403693,-1.8405522,-0.19987144,-0.79345459,-0.57487494,0
0.50404203,-1.7160904,2.8114998,0.15126404,-0.51500225,0.84373689,0
-0.44446617,-3.118413,-0.27233636,-0.14057913,-0.98631531,-0.086136609,0
2.9938927,0.36245185,-1.4865105,0.89045292,0.10780156,-0.44212261,0
1.8643153,-1.9387244,1.752707,0.58072144,-0.60389936,0.54595619,0
2.8956156,-0.65093088,-0.033333391,0.97559029,-0.21931151,-0.01123068,0
0.089866214,-2.6187036,-1.2280678,0.031055195,-0.90494913,-0.42438513,0
1.7701948,-0.70040029,2.3267817,0.58882111,-0.23297463,0.77395904,0
0.44460374,2.6568744,-1.3696754,0.14712089,0.87916881,-0.45323026,0
-1.9490496,1.4075804,1.7867066,-0.65068179,0.46991464,0.5964843,0
-1.3669379,-0.38160875,3.0369399,-0.40777513,-0.11383879,0.90595818,0
-2.7366962,1.3666815,-0.75447106,-0.86861521,0.43377861,-0.23946576,0
-2.9229605,0.34020701,-0.56149268,-0.9756918,0.11356198,-0.18742771,0
-0.75202483,2.5333235,1.7510129,-0.23722689,0.79913914,0.55235857,0
-0.28654981,-2.9491801,1.4501117,-0.086862795,-0.89399481,0.43957719,0
0.18990019,2.3922012,1.8059222,0.063229695,0.79651392,0.60130483,0
-1.5611383,-2.4569764,-1.2700199,-0.49154568,-0.77361256,-0.39988309,0
2.0411203,2.274189,0.55214566,0.65729928,0.73235404,0.17780674,0
-0.0072236368,-2.3536332,1.9435649,-0.002366551,-0.77107877,0.63673544,0
-1.3564563,2.7635558,0.006529164,-0.44062027,0.89769107,0.0021208809,0
3.218509,0.11913365,-0.52542901,0.98627698,0.036507208,-0.16101199,0
0.61557305,-0.30853522,2.8089354,0.2128464,-0.10668208,0.97124428,0
-0.31672254,0.69395173,3.0584335,-0.10047903,0.22015356,0.97027647,0
-0.22629654,2.3712692,-1.970951,-0.073194221,0.76697236,-0.63749188,0
1.7189927,1.9060212,1.6640433,0.56196362,0.62310594,0.54399985,0
2.3317716,1.6471915,-1.203468,0.75262564,0.53166384,-0.38844323,0
0.11342409,-2.4023123,-2.0694325,0.035749145,-0.7571637,-0.65224624,0
-2.0654995,-0.34933159,2.0906849,-0.69789612,-0.11803303,0.70640582,0
-2.1654651,1.6723964,-1.3734884,-0.70732778,0.54627174,-0.44863641,0
-1.5789039,-2.5725598,0.081603803,-0.52289438,-0.85196894,0.027025186,0
-1.0497562,0.40947732,2.9616232,-0.33128574,0.12922429,0.93463945,0
0.98185575,1.545506,2.6332941,0.30613014,0.48186913,0.82102764,0
0.3460651,-1.0887123,2.7933626,0.11466951,-0.36074746,0.92558748,0
-2.5631289,0.43180376,-1.6967875,-0.82573503,0.13910946,-0.54663533,0
-0.83204257,-3.0680132,-0.38745791,-0.2598215,-0.95804697,-0.12099129,0
0.39860472,-0.1727141,3.2031724,0.12331175,-0.053430572,0.99092859,0
2.3853967,1.826758,1.0864327,0.74662226,0.57177001,0.34005028,0
2.2477469,0.76236045,2.0315411,0.71945977,0.24401665,0.65025651,0
1.9294147,-2.0963688,-1.1051791,0.63136351,-0.685996,-0.36164841,0
-0.041073151,-3.0546196,-0.60530454,-0.013188623,-0.98084086,-0.19436379,0
-1.0149262,1.095839,-2.792881,-0.32044956,0.34599671,-0.88181537,0
0.075935416,-3.0020871,0.95583791,0.024095047,-0.95259148,0.30329669,0
1.8737835,1.5228542,1.7133055,0.63289177,0.51436138,0.5786885,0
-1.3638421,2.4564159,1.1448481,-0.44953009,0.80964863,0.37734842,0
-0.88102496,2.7770791,-1.417531,-0.27191913,0.85711634,-0.43750608,0
1.987247,-2.4111223,0.22722952,0.63434029,-0.76964366,0.072532929,0
0.091955997,-1.3059742,-2.9302826,0.028651623,-0.40691507,-0.91301656,0
2.7355897,-1.4386125,-0.77842003,0.85827327,-0.45135519,-0.24422416,0
-1.1574855,0.61304951,2.7984643,-0.37461227,0.19840927,0.90570384,0
-1.6507292,-2.6324825,0.50474811,-0.52438092,-0.83625078,0.16034143,0
-0.35708416,0.068472318,3.0716248,-0.11544655,0.022137338,0.99306697,0
2.742537,0.62667632,1.1901147,0.89783716,0.20515795,0.38961342,0
1.0135138,1.3099304,-2.529048,0.33525503,0.43330514,-0.83657074,0
-0.75159574,-2.8093069,-0.031895846,-0.25843269,-0.965967,-0.010967238,0
1.9333192,-1.3707891,2.0062652,0.62261933,-0.44145826,0.64611131,0
-0.94147176,1.8134834,2.4761748,-0.29325876,0.56488138,0.771303,0
-1.2965704,0.94326973,-2.8311076,-0.39850128,0.28991419,-0.87014169,0
1.616999,1.9690497,1.4706298,0.54965019,0.66931921,0.49989638,0
2.6270268,1.3011444,-0.68073082,0.87288481,0.43233255,-0.22618711,0
-2.6923106,0.88179404,-1.3405238,-0.85901523,0.28134736,-0.42771083,0
2.5390244,-0.67381907,-1.7812155,0.79997921,-0.21230251,-0.56121373,0
-2.3759134,-1.5010668,1.2393148,-0.77353704,-0.48870921,0.40348941,0
-2.6287723,1.5598258,-0.65246475,-0.84105271,0.49905264,-0.2087504,0
0.0021943809,1.5476793,2.4487798,0.0007575014,0.53425968,0.84532005,0
0.64784718,2.7032242,1.2011726,0.21393865,0.89268607,0.39666337,0
-1.9101655,0.39218903,-2.3627968,-0.62351328,0.12801774,-0.77126044,0
0.57823867,-1.5048662,-2.4026136,0.1998502,-0.52011019,-0.83038867,0
0.47234502,3.0875382,-0.41682646,0.14989609,0.97981316,-0.13227756,0
-1.7514092,-1.0712461,-1.9507809,-0.61842293,-0.37825724,-0.68882114,0
2.8855932,1.0393279,-0.45266521,0.9307515,0.33523643,-0.1460077,0
1.3575277,-0.31205788,2.6340232,0.45559907,-0.10472956,0.88400292,0
-0.075955443,1.7125103,2.5067253,-0.0250117,0.56392002,0.82545054,0
2.172972,-0.034673028,2.3106017,0.68503749,-0.010930802,0.7284258,0
-1.6786232,-0.18274054,-2.3730638,-0.57635319,-0.062743738,-0.81478846,0
-0.82358146,2.8593745,-1.3145256,-0.25317267,0.87898463,-0.40409109,0
-0.40715012,1.8181751,-2.4879787,-0.13098776,0.58494073,-0.80042899,0
2.6401775,1.4435402,-0.97395509,0.83477503,0.45642057,-0.30794647,0
-3.0053058,0.053378135,-1.4825442,-0.8967008,0.015926572,-0.44235051,0
-1.7530136,-0.032696445,-2.4834447,-0.57664847,-0.010755396,-0.81692159,0
2.7669492,-0.3427231,1.3210078,0.89684272,-0.11108578,0.4281742,0
-0.16764778,-2.8557534,1.1153212,-0.054601226,-0.93009073,0.36324909,0
-1.3312892,-1.8065569,2.4376171,-0.40180159,-0.54524404,0.73570675,0
1.4654957,-2.8486097,0.69921362,0.44694799,-0.86877114,0.2132467,0
1.200981,0.92239416,-2.5160425,0.40896952,0.31410244,-0.85678679,0
-2.0076089,0.38548732,2.4183455,-0.63399088,0.1217346,0.76369905,0
0.23017499,-2.9649391,0.89466923,0.074117929,-0.95473075,0.28808963,0
-3.0693033,-0.33728501,1.1438714,-0.93211305,-0.10242968,0.34738094,0
1.725063,2.5481222,0.83571905,0.54100889,0.79913414,0.2620956,0
-0.35861027,-0.29440773,-2.8530266,-0.12406478,-0.10185327,-0.98703289,0
-0.72369391,-2.0413616,-2.3207459,-0.22797889,-0.64307207,-0.73108405,0
-0.6515224,2.1541028,-2.029557,-0.21499062,0.71081501,-0.66971713,0
2.0169137,0.77949971,2.4623682,0.61547309,0.23786893,0.75140619,0
1.2897865,1.4906436,-2.2432809,0.43190387,0.49916381,-0.75119543,0
1.9744645,-0.41409123,2.5642021,0.60516554,-0.12691732,0.78591776,0
1.3547709,2.2273626,1.7134429,0.43426526,0.7139703,0.54923582,0
-2.0815268,2.3356736,0.06785921,-0.66516614,0.74638045,0.021684874,0
-2.1780572,-1.934972,0.33931807,-0.74257374,-0.65969777,0.11568506,0
-3.043246,0.83228797,-0.45929304,-0.95451641,0.26104775,-0.1440576,0
-1.711211,-1.0758108,2.3080161,-0.55776328,-0.35065678,0.75228983,0
-1.2267871,-0.47172979,2.732496,-0.40459016,-0.15557486,0.90116775,0
2.9595523,0.060458064,0.22470628,0.99692327,0.020365261,0.075692162,0
-1.3005056,-2.8199327,-0.29915896,-0.41686231,-0.9038974,-0.095892012,0
-1.2739242,2.2449098,-1.3214366,-0.43931824,0.77416676,-0.45570308,0
3.1909513,0.088042043,0.53013128,0.98611355,0.027208015,0.16382878,0
0.60434085,2.8423193,-0.8370955,0.19984642,0.9399122,-0.27681488,0
0.90156776,-2.5960801,-1.829771,0.27307051,-0.78631127,-0.55420852,0
1.2642767,2.4475331,-1.5705272,0.39869714,0.77184403,-0.49527505,0
0.0065931594,1.6437286,2.6375449,0.0021214755,0.52890122,0.84868068,0
2.5916145,0.72310752,1.7518765,0.80718726,0.22521992,0.54564148,0
-1.6218653,2.3598993,0.53707731,-0.55668747,0.8100096,0.1843459,0
0.66842222,-2.5143962,-1.48351,0.22318244,-0.83954281,-0.4953357,0
-1.6798493,-2.4084055,0.17036919,-0.57112175,-0.81881922,0.057922788,0
2.896487,-0.52620673,0.50822389,0.96955353,-0.17613943,0.17011996,0
-0.34928069,2.5842965,-1.2096759,-0.12150161,0.89897949,-0.42080075,0
0.51354402,2.5681,1.4379722,0.1718834,0.85954416,0.48128989,0
-2.3041494,-1.570946,1.3527091,-0.74339783,-0.50684124,0.43643048,0
-2.4943225,1.4603373,-1.2841083,-0.78864926,0.46172616,-0.40600646,0
-0.064122081,-0.95146841,3.073647,-0.019924926,-0.29565379,0.95508736,0
1.9067057,2.3081272,1.2551547,0.58734941,0.71100485,0.38664296,0
-1.4075882,-1.8630887,-2.1582234,-0.44268307,-0.58593684,-0.678756,0
-3.0163879,0.43852291,0.9280135,-0.94669282,0.13763033,0.29125687,0
-2.7338827,1.4370115,0.12361947,-0.88446003,0.46489897,0.039993115,0
1.6448433,1.4970217,2.3512762,0.50821304,0.46254003,0.72648203,0
2.8337595,0.53833324,-1.2274029,0.90398926,0.1717321,-0.39155018,0
-3.0576353,0.69595444,0.08545997,-0.97469944,0.22185329,0.027242551,0
2.1523161,1.7327566,0.77720863,0.74984199,0.60367233,0.27077049,0
-1.4458998,2.5624633,-0.957995,-0.46728081,0.8281278,-0.30960143,0
-2.2678654,1.4349039,1.7237629,-0.71101969,0.44987014,0.54043305,0
-1.8519907,1.999966,-1.3863809,-0.60560787,0.65399635,-0.45335174,0
1.4056767,2.779604,0.37384275,0.44807047,0.88602054,0.11916531,0
1.0411307,2.2871754,-1.6380373,0.34707651,0.76246423,-0.54606432,0
-2.5369234,-1.2815388,-0.2113421,-0.89012188,-0.44964927,-0.074152894,0
-1.8655815,1.8182011,1.8810186,-0.58060414,0.56585848,0.58540845,0
-1.8345515,-2.4143448,1.1597158,-0.56509078,-0.74368256,0.35722339,0
-2.2939804,-1.2465812,1.5538738,-0.75503874,-0.41029868,0.51144069,0
-1.866165,-2.1127367,0.50031036,-0.65183067,-0.73795539,0.17475283,0
0.47551602,2.3029397,2.2174296,0.14712174,0.71251535,0.68605912,0
-2.2955263,1.890559,0.28839806,-0.76830506,0.63276386,0.096525878,0
0.24577993,-0.1799434,3.25775,0.075117037,-0.054995596,0.99565703,0
0.85563898,1.9539889,1.9895699,0.29333377,0.66987467,0.6820727,0
1.3765305,-2.8430629,-0.11653094,0.43548399,-0.89944124,-0.036866132,0
-2.5825133,-0.60844404,1.6290022,-0.8294847,-0.19542785,0.52322382,0
2.8073092,-1.0131356,0.58998442,0.92276281,-0.33301777,0.19392794,0
-1.8883613,0.22826536,2.711946,-0.57007116,0.068910271,0.81870037,0
2.6110685,0.60117429,-1.4867413,0.85211319,0.19619115,-0.48519289,0
-1.0256522,1.0098815,2.5189543,-0.35352704,0.34809113,0.86824608,0
-1.4648229,-2.6996803,-0.44638869,-0.47195312,-0.86981338,-0.14382254,0
-1.1463623,0.73901469,-2.6474931,-0.38492146,0.24814372,-0.88896579,0
1.7595721,1.7032503,1.9290882,0.56442547,0.54635888,0.61880189,0
2.0629809,-1.7516758,-1.2502091,0.69200736,-0.58758307,-0.4193708,0
1.2827481,-0.8913579,-2.4865496,0.43683249,-0.30354682,-0.84678018,0
-2.1354656,2.3499348,-0.37902158,-0.66778755,0.73485482,-0.11852492,0
2.5625625,-1.388734,1.2497761,0.80804372,-0.43790454,0.39408746,0
1.0423099,2.1691239,2.1570754,0.32251757,0.67118293,0.66745478,0
-1.8058215,1.7542179,1.4864132,-0.61766118,0.60001069,0.50841111,0
-1.07967,-2.0454664,-2.0498619,-0.34934458,-0.66184354,-0.66326576,0
3.0376775,0.47181216,-0.19075723,0.98625475,0.15318511,-0.061933905,0
2.327193,2.0929434,0.76517713,0.72226644,0.64956486,0.23747998,0
0.60571408,0.87739617,-3.0949652,0.18503803,0.26803347,-0.9454729,0
-2.6999264,-1.260147,-0.69537342,-0.88244593,-0.41186735,-0.22727636,0
1.3682511,-1.8829156,-1.9719648,0.44851947,-0.61722904,-0.64641982,0
1.4233177,-2.2767479,-1.1934733,0.48439655,-0.77484375,-0.4061738,0
-0.64015257,0.68322217,2.8063281,-0.21638554,0.23094401,0.94860017,0
-0.50703776,-1.6789138,2.3276658,-0.17397529,-0.57607055,0.79867095,0
-0.38005292,2.8291519,1.0515509,-0.1249316,0.93000329,0.34566748,0
-1.9657679,1.3106738,1.813884,-0.65995526,0.44002455,0.60896426,0
-2.2434149,-2.1651917,-0.056135025,-0.71942335,-0.69433856,-0.018001506,0
-1.8752805,-0.097924508,-2.5730088,-0.58871496,-0.030741869,-0.80775589,0
-0.54229581,1.2536187,-2.8374517,-0.17220707,0.39808902,-0.90103817,0
2.9615316,-0.91588348,0.8364349,0.9223702,-0.28525227,0.26050797,0
1.4007963,2.093451,1.8357882,0.44942388,0.67165148,0.58898431,0
-0.65167069,2.9119287,1.0034407,-0.20700066,0.92496282,0.31873906,0
1.7438072,1.6743261,1.9461892,0.5618791,0.5394913,0.62708938,0
-0.016617415,2.1597922,-2.2117503,-0.0053753508,0.69864297,-0.71545023,0
-0.71010655,-2.9117584,1.1053281,-0.22229572,-0.91151309,0.34601808,0
2.2561378,0.45865008,-1.9780574,0.74329245,0.15110385,-0.65167785,0
0.43567443,3.2228541,0.55336189,0.13206616,0.97694504,0.16774081,0
0.68696624,-2.6389701,-1.4407529,0.22274233,-0.85566121,-0.46715057,0
-1.2286751,2.1122458,-1.7441849,-0.40925369,0.70355815,-0.58096242,0
1.3303049,-0.89493787,2.8019574,0.41208249,-0.27722085,0.8679496,0
-0.49268818,2.8632224,1.37743,-0.15323283,0.89050174,0.42839974,0
-1.1410935,2.8134274,-0.4183864,-0.37233192,0.91800439,-0.13651696,0
-2.2704365,1.6444697,1.2585189,-0.73884547,0.53514338,0.40954724,0
2.6955647,1.4903686,-0.35864747,0.86927044,0.48061666,-0.11565726,0
-0.35499036,2.6075847,1.5911225,-0.11543449,0.84792501,0.5173955,0
1.8582336,2.1983044,-1.2657381,0.59095359,0.69910258,-0.40252879,0
-0.37668148,-1.9435631,-2.3733914,-0.12187651,-0.62884611,-0.76791847,0
1.0982256,-0.49413532,2.9002709,0.34971362,-0.15735006,0.92354822,0
-1.7911988,1.6846994,1.7423246,-0.59435493,0.55901635,0.57813752,0
1.7382848,-2.6507421,-0.32731137,0.54547733,-0.83180827,-0.10271097,0
2.4787984,1.5958468,0.055485476,0.84066939,0.54122174,0.018817561,0
2.787065,-0.76871854,0.027650066,0.96395981,-0.26587602,0.0095633045,0
0.3514519,-1.429719,-2.7535133,0.11255786,-0.45788941,-0.88185489,0
-1.6287578,2.6077302,-0.67991185,-0.51725137,0.82814765,-0.21592243,0
-2.3181827,-0.31893638,-2.1504531,-0.72943056,-0.10035531,-0.67665339,0
-2.806334,-1.2248449,-0.48427042,-0.90525621,-0.39510566,-0.15621404,0
0.40957069,-0.27598926,-3.019063,0.13388196,-0.090216376,-0.98688227,0
-0.46882442,-2.6074107,-1.4811922,-0.15446347,-0.85906297,-0.48800805,0
1.5887969,1.242187,2.2154932,0.53031492,0.41462213,0.73949611,0
-1.9687496,1.3628187,-1.9702747,-0.63490766,0.43949929,-0.63539952,0
-1.2978408,2.4887805,0.95440745,-0.43776795,0.83947766,0.32192624,0
-1.6615394,-1.090404,2.3294837,-0.54262209,-0.3561019,0.76075798,0
-1.5745643,-1.2633532,2.2543061,-0.52032995,-0.41748723,0.74495715,0
-1.4595736,2.0067465,-1.734726,-0.48208144,0.66280675,-0.57296133,0
-0.24841563,-0.12239502,3.058804,-0.080882512,-0.039851021,0.99592668,0
0.23313633,1.2818691,-2.8799002,0.073756024,0.40553769,-0.91109782,0
-1.877251,2.4156718,-0.91383052,-0.58794492,0.75657541,-0.28620681,0
0.9809525,-2.9242105,1.1578019,0.2977539,-0.88760173,0.35143396,0
0.86247116,-0.2372587,-3.0819709,0.26875311,-0.073931769,-0.96036756,0
0.42187789,2.6104975,-1.6521932,0.13530055,0.83721322,-0.52987522,0
-1.701072,1.398577,2.0723219,-0.56253594,0.46250236,0.68530637,0
1.6854321,-2.4334097,-0.33581665,0.56575525,-0.81683171,-0.11272483,0
-1.7405626,2.4052093,-0.60580438,-0.57442153,0.79376864,-0.19992794,0
2.770515,1.5211233,0.83219665,0.84767967,0.46540996,0.25462276,0
-2.0752616,-0.15677246,-2.2886088,-0.6708712,-0.050679937,-0.73984009,0
3.0039921,-0.87199509,-1.010965,0.9138152,-0.26526114,-0.30753583,0
0.68816406,2.824918,0.71618026,0.22981426,0.94338906,0.23917036,0
-0.44696009,2.9915819,-0.43993983,-0.14622724,0.97872448,-0.14393049,0
2.507951,-0.68511844,-1.784055,0.79539144,-0.21728389,-0.56580931,0
0.96732903,-2.7335446,1.3528417,0.30231729,-0.8543089,0.42280078,0
-1.4131991,2.2474513,-1.9148173,-0.43173122,0.68659467,-0.58497524,0
1.6212381,2.2221363,-1.4686673,0.51992446,0.71263009,-0.47099563,0
2.2338443,0.62102938,-2.0574758,0.72063452,0.20034306,-0.66373837,0
-0.6719166,1.6685227,2.4859061,-0.21897842,0.54377353,0.81015974,0
-0.70127559,3.1844625,0.34196308,-0.21389174,0.9712733,0.10430005,0
1.3087412,2.5555048,1.0543143,0.42789003,0.83551663,0.34470573,0
0.76022851,-3.1202528,0.59536797,0.23275271,-0.95530134,0.18227875,0
-2.5489967,-0.77659166,-1.880725,-0.781533,-0.23810624,-0.57663816,0
1.621712,1.7796918,2.0708942,0.51064295,0.56038749,0.65208101,0
-2.4501483,-1.2851076,1.271305,-0.80469328,-0.4220632,0.41753006,0
0.68568963,0.10718549,3.2352962,0.20722602,0.032393117,0.97775662,0
0.8753342,2.8112602,-0.079713881,0.29718059,0.95443773,-0.027063284,0
-0.022956366,3.1412406,0.21893461,-0.0072901775,0.99755347,0.069526345,0
-3.1353667,0.22753291,0.14336339,-0.99634159,0.072304301,0.04555732,0
2.0465932,-0.50620335,2.3943245,0.64151877,-0.15867293,0.75051755,0
-0.52027953,-2.9668143,-0.61117059,-0.16928092,-0.96529853,-0.19885372,0
2.7004228,1.064074,-0.72075754,0.90295309,0.35579944,-0.2410031,0
-1.4265649,2.6050007,-1.5316459,-0.42689613,0.77954018,-0.45834136,0
1.1472892,2.1641326,-1.6688559,0.38708505,0.73015887,-0.56305701,0
-1.481143,1.2820708,-1.9967577,-0.52950227,0.45833477,-0.71383232,0
2.9115205,0.0135972,-0.17083165,0.99827218,0.0046620681,-0.058573,0
-1.5351871,-2.1160643,1.8858306,-0.47625008,-0.6564514,0.58502769,0
-1.3854014,-2.1559527,1.1710198,-0.49169904,-0.76517886,0.41561189,0
-0.47522053,0.16065882,-2.9190714,-0.16044657,0.054242514,-0.98555297,0
1.8297306,-2.4262538,0.1066233,0.60174221,-0.79792035,0.035065126,0
1.6451175,-2.901036,-0.25517514,0.49184665,-0.86733305,-0.076290622,0
1.2958596,1.8745376,2.099278,0.41823447,0.60500091,0.67753512,0
-1.3830396,-0.62784982,2.601846,-0.45906386,-0.20839834,0.8636148,0
-0.49765739,-0.22304446,2.9501536,-0.16587825,-0.074344769,0.98333985,0
1.5972569,1.4488553,2.1260235,0.52744955,0.47844407,0.70205998,0
-1.9514706,2.2995558,0.93529981,-0.61800659,0.72824085,0.29619786,0
-1.59049,-1.6295323,2.0578001,-0.51822132,-0.53094232,0.67048264,0
1.6790273,-2.0191944,1.5449022,0.55107862,-0.66272587,0.50705701,0
1.5077881,1.7152109,1.9777668,0.49908882,0.56774729,0.65465516,0
-1.8132682,-1.364646,1.9159101,-0.61052763,-0.45947644,0.64508718,0
3.0883338,0.18448372,-0.15972042,0.99689305,0.059550084,-0.051556662,0
2.8715849,1.1700344,0.54201448,0.91224605,0.37169692,0.17218734,0
-0.84839517,-2.5558312,-1.2431575,-0.28603479,-0.86169356,-0.41912815,0
-2.9504488,0.57146937,0.059159134,-0.98156393,0.1901181,0.019681234,0
2.6104262,-0.068568997,-2.047056,0.7867347,-0.020665443,-0.61694521,0
2.7377222,0.48383245,0.85136455,0.94158012,0.16640367,0.29280835,0
1.8885105,2.2589471,1.4296051,0.57698184,0.69015843,0.43677607,0
-2.0801921,-1.680356,1.3919203,-0.69002306,-0.55739295,0.46171561,0
-0.71741873,0.073082052,-3.0606837,-0.22815108,0.023241308,-0.97334826,0
0.40918052,-2.0442204,2.5408103,0.12449824,-0.62197936,0.77307302,0
-2.159544,0.42927018,2.112489,-0.70774245,0.14068374,0.69232118,0
0.91359007,0.057567071,3.0455501,0.28727919,0.018102014,0.95767581,0
0.31710574,0.1315694,-3.1927896,0.098750077,0.040972102,-0.99426842,0
-1.322791,1.9749864,2.1199565,-0.41531205,0.62007958,0.66559535,0
-0.57360637,2.8928108,1.0475674,-0.18328069,0.92432094,0.33472234,0
-0.9933694,0.57018077,3.022824,-0.30730247,0.17638752,0.93512172,0
-0.9287259,2.2285838,-1.8396249,-0.30597016,0.73421031,-0.60606724,0
2.7607245,-0.78806388,-0.67250913,0.93624705,-0.26725683,-0.22806863,0
2.9318628,0.23887685,-0.49009311,0.98314536,0.080102883,-0.16434355,0
2.1321778,1.9961472,-1.0148399,0.6895709,0.64557701,-0.32821092,0
-1.3292756,-2.0596516,-1.7506285,-0.44128537,-0.68375146,-0.5811637,0
-2.2221248,-1.5717295,-1.51305,-0.71357352,-0.50471717,-0.48587388,0
-2.6482105,1.6398313,0.20509544,-0.84836155,0.52532446,0.065702893,0
-2.6532185,-0.3343966,-1.7225499,-0.83409107,-0.10512411,-0.54151726,0
0.64572066,0.89386004,2.8509891,0.21124013,0.2924161,0.93266845,0
-2.3847406,-0.49191353,1.9606657,-0.76282209,-0.15735149,0.62717056,0
2.4941881,1.0138566,1.5571796,0.80192393,0.32597217,0.50065976,0
2.007797,1.7921033,-1.7735286,0.62294233,0.55602086,-0.5502578,0
-0.83927679,-2.4232132,-1.5775981,-0.27875161,-0.8048293,-0.52397257,0
-2.9961398,-0.13461849,-0.06676922,-0.99874467,-0.044874243,-0.022257106,0
1.3961519,-2.7729356,0.83161229,0.4343929,-0.86275965,0.25874439,0
-1.8852323,0.32009947,-2.271476,-0.6349287,0.10780652,-0.76501197,0
1.2297938,1.6440121,-2.3679819,0.3923929,0.52455842,-0.755557,0
1.6076721,-2.4576404,-0.81139171,0.52766001,-0.80663127,-0.26630989,0
-2.4063282,1.9596045,-0.084994823,-0.77511901,0.63122177,-0.02737827,0
-0.093737826,-2.4561677,-2.0750668,-0.029140582,-0.76355684,-0.64508277,0
0.53585368,-2.949841,-0.45570248,0.17670064,-0.97272593,-0.15027034,0
-1.9881644,-1.6381322,-1.9045426,-0.620588,-0.51132852,-0.59448618,0
1.3583246,-2.1975949,-1.7584518,0.43464169,-0.7031945,-0.56267583,0
-2.6836743,-0.59505016,-1.2637199,-0.88704121,-0.19668333,-0.41770032,0
1.321823,2.3984096,1.9602509,0.39248699,0.7121563,0.58205444,0
-0.081833757,-3.1268909,-0.58272839,-0.025719501,-0.98274934,-0.18314548,0
2.4882548,1.8086952,-0.51166546,0.79791963,0.58000225,-0.16407803,0
0.16068617,-0.58766335,-3.1520348,0.050052188,-0.18305145,-0.98182839,0
2.2698758,2.0603442,0.19458856,0.73896879,0.67075485,0.063349225,0
2.7390401,-0.25886065,-1.0816581,0.92652947,-0.08756426,-0.36589026,0
-2.938067,-1.0782282,-0.2651515,-0.93542832,-0.34328872,-0.084419526,0
1.2931852,-1.7970021,-2.0532718,0.42827585,-0.59512943,-0.68000054,0
2.515928,-2.0672636,-0.83883411,0.74820793,-0.61478031,-0.24945958,0
-0.38187027,3.2134547,0.41106591,-0.11706384,0.98509723,0.12601388,0
-2.8160987,-1.3148597,1.1394987,-0.85072201,-0.39720914,0.3442339,0
2.3347523,0.73292947,-1.960302,0.74463099,0.23375584,-0.62520623,0
1.0429552,0.69742435,-2.8767691,0.3323139,0.22221836,-0.91661686,0
2.3195858,-2.2291024,-0.79850119,0.69979572,-0.67249781,-0.24089979,0
2.1312015,1.5804294,-1.3282895,0.71825933,0.53263766,-0.44766125,0
-1.3111211,-0.63909835,2.440196,-0.46119255,-0.22480562,0.85834956,0
-0.4405939,-2.9963052,0.96281236,-0.13864359,-0.94286036,0.30297235,0
0.50901812,0.22172904,-2.8907759,0.172923,0.075325511,-0.98205078,0
2.0967071,-0.96568996,-2.0687568,0.67641014,-0.31153733,-0.66739321,0
-0.16959506,2.963295,0.64193821,-0.055847213,0.97580528,0.21138857,0
2.2907188,-1.5366906,-1.3850608,0.74214548,-0.49785593,-0.44873101,0
2.5274315,2.1528263,0.46205777,0.7540015,0.6422466,0.13784438,0
2.0636904,1.2278249,2.0088456,0.65916008,0.39217761,0.64164221,0
2.3549623,1.916254,0.76329744,0.75224596,0.6121093,0.24382021,0
0.91070694,1.6318779,2.2715933,0.30960405,0.55477345,0.77225119,0
-1.7639678,-2.1245325,1.2522303,-0.58177483,-0.70069277,0.4129985,0
-2.3532844,-0.83691949,2.0584021,-0.72709155,-0.25858206,0.6359821,0
-1.74103,-0.27777153,2.4395206,-0.57843113,-0.092285432,0.81049418,0
2.2392247,-1.809637,-1.5960859,0.68022895,-0.54972929,-0.48485702,0
2.5697927,-0.96471006,-1.3877203,0.83549982,-0.31364986,-0.4511804,0
0.90451419,-1.6211147,-2.1049514,0.32228163,-0.57760894,-0.75000167,0
0.0040796204,2.4450972,-1.9945412,0.0012928906,0.77488661,-0.63209891,0
-0.12446892,1.5080847,2.575727,-0.041665509,0.50482577,0.8622151,0
-1.6082253,2.1730564,1.710752,-0.50268739,0.67923814,0.53473443,0
0.10641713,-2.0373039,-2.4791903,0.033144973,-0.63454431,-0.77217549,0
-1.5734873,1.7177106,2.0779154,-0.50407112,0.55027348,0.66566616,0
1.9157741,-2.1036875,-0.090216272,0.6729753,-0.73898572,-0.031691272,0
1.0115128,-2.9975398,-0.15458937,0.31935307,-0.94637805,-0.04880669,0
0.1771888,-0.46285424,3.1614773,0.055369958,-0.14463793,0.98793417,0
-0.35694665,2.8440714,0.75522023,-0.12041903,0.95947194,0.25478005,0
3.0074389,-0.17371389,1.0299877,0.944646,-0.054564077,0.32352236,0
-1.3415352,0.96523917,-2.5811775,-0.43770304,0.31492883,-0.84216142,0
-1.2009569,-2.5959833,-1.5236676,-0.3705706,-0.80102378,-0.4701471,0
1.9021466,-0.38193747,2.4346037,0.6110155,-0.12268756,0.78205359,0
2.5833972,0.82947487,-1.0811856,0.88449001,0.28399128,-0.37017068,0
1.6939402,0.91546971,2.4240954,0.54717994,0.29571685,0.78303611,0
1.5436342,-2.808449,-0.011947821,0.48167273,-0.87634319,-0.0037281758,0
1.8618686,0.90970695,2.1631248,0.62154794,0.30368763,0.72211629,0
2.5396476,-2.0527618,0.83113712,0.75368661,-0.6091944,0.24665506,0
-1.138061,2.6696951,0.21132232,-0.39110908,0.91747451,0.072623588,0
-0.92258501,2.105639,1.877854,-0.31080535,0.70935893,0.63262147,0
-1.0089017,-2.6739817,-1.0791389,-0.33025354,-0.87530029,-0.35324496,0
-1.4072547,1.9090201,-1.7118442,-0.48112652,0.65267515,-0.58526266,0
2.921226,-0.62431419,0.29071748,0.9733178,-0.20801407,0.096863613,0
-0.85498643,-0.93994355,-2.9562042,-0.26571295,-0.29211593,-0.91873002,0
-1.600662,1.6754608,1.9964842,-0.52332592,0.54778093,0.65273738,0
-2.9808097,0.2075638,-0.31653395,-0.9920336,0.069078639,-0.10534464,0
1.3700383,1.553324,-2.1162872,0.46266884,0.52456534,-0.71468085,0
-2.3364427,1.5123178,1.6026675,-0.72749275,0.47088689,0.49901885,0
0.63268667,0.82149827,-2.9949775,0.19962403,0.25919747,-0.9449693,0
-1.0008457,-2.1600182,1.8299197,-0.33331949,-0.7193678,0.60943252,0
-0.48440716,3.0841682,-0.23175226,-0.15473461,0.98517859,-0.074028835,0
0.30197081,-2.1638856,2.3387303,0.094350927,-0.67610711,0.73073739,0
3.0705445,-0.5167684,0.57364547,0.96981084,-0.16321783,0.18118207,0
2.0667841,-2.0741038,-1.2217549,0.65142226,-0.65372932,-0.38508055,0
2.3832607,2.1942291,0.44313556,0.72889268,0.67107952,0.13552788,0
-0.78618824,-1.2292016,-2.815248,-0.24793799,-0.38764986,-0.88783687,0
-2.5968742,1.370786,-1.0827641,-0.82974482,0.43798906,-0.34596127,0
0.90113956,-2.8114789,-0.65022135,0.29808265,-0.9299925,-0.21508288,0
-1.8924134,2.1415021,-1.2179369,-0.60916954,0.68935144,-0.39205495,0
0.003469612,1.0217409,-2.9333227,0.0011170033,0.32893819,-0.94435084,0
-3.1895976,0.78028893,0.088998772,-0.9709996,0.23754101,0.027093628,0
-1.2837954,-2.5849879,0.037051629,-0.44476426,-0.89555568,0.012836345,0
0.34135708,2.9052677,1.2242494,0.10764618,0.91616958,0.38606426,0
1.6518725,2.6706395,-0.59281659,0.5169065,0.83570063,-0.18550508,0
-2.8733492,-0.39030236,-0.55949289,-0.97295493,-0.13216166,-0.18945187,0
-1.0678138,-2.0816927,-2.0349236,-0.34437394,-0.6713537,-0.65627044,0
-1.4610538,1.3353608,-2.2707398,-0.48502463,0.44329843,-0.75381529,0
-1.1220455,-2.7143464,-0.83382916,-0.3675001,-0.88902146,-0.27310148,0
1.0530523,1.2231939,-2.6000412,0.34410283,0.39969951,-0.84960788,0
-2.1065226,1.016399,2.0483611,-0.67754209,0.32691467,0.65883499,0
-1.2732816,2.714983,-0.9006266,-0.40666214,0.86711442,-0.28764316,0
0.033135049,3.2723668,0.53922606,0.0099904807,0.98664463,0.16258095,0
-0.95534956,2.8650653,0.78088474,-0.30625412,0.91844714,0.25032637,0
-1.2184087,-2.0846074,-1.7944016,-0.40501308,-0.69294751,-0.59647977,0
-0.10009596,2.4426384,1.4896839,-0.034964282,0.85323215,0.52035791,0
0.17856762,-3.1515174,-0.90050781,0.05439974,-0.96009415,-0.27433524,0
0.58914804,-2.3917105,-1.6265908,0.19958887,-0.81025267,-0.55104893,0
0.82368892,1.8703411,2.4864929,0.25591651,0.58110672,0.77254236,0
-1.8886979,0.30088586,2.5115552,-0.598288,0.095312439,0.79559225,0
2.5370748,0.49386731,-1.7678062,0.81019944,0.15771353,-0.56453818,0
2.4515238,-1.4790733,1.1978493,0.78989124,-0.4765636,0.38595206,0
0.42737165,-0.041471548,-2.9245615,0.14458191,-0.014030026,-0.98939335,0
-1.3810701,1.3029858,2.5355649,-0.43598747,0.41133717,0.80044776,0
1.398272,2.784059,0.45350808,0.44413498,0.88430434,0.14404836,0
0.19090922,1.2115495,2.9164383,0.060340904,0.38293588,0.9218021,0
1.8550645,2.1749806,-0.4106552,0.64233929,0.75311422,-0.14219449,0
2.4416976,0.14423229,1.9867309,0.77485752,0.045771219,0.63047665,0
-2.6149981,-0.44309995,1.6545509,-0.83652246,-0.14174506,0.52928108,0
-0.86192393,-1.6820011,-2.4376366,-0.27943757,-0.54530835,-0.79028696,0
1.835135,-2.066129,-1.5973765,0.57493514,-0.64730394,-0.50044703,0
-0.023599958,-2.8232021,1.0842645,-0.0078033311,-0.93349242,0.35851231,0
0.90680218,-1.0776505,-2.9465554,0.27766147,-0.32997501,-0.90223092,0
-0.18504043,-2.9321599,0.79509002,-0.060795028,-0.96336102,0.2612268,0
-0.13134649,-2.8402464,1.4567623,-0.041113269,-0.88903642,0.45598677,0
-2.2484777,0.38160679,2.0268528,-0.73693222,0.12507056,0.66429532,0
2.2513258,-1.3974352,-1.2196259,0.77179986,-0.47906893,-0.41811234,0
2.5251245,0.68105662,2.0400767,0.76128435,0.20532759,0.61505026,0
1.2243872,-0.73855799,-2.6987112,0.4008972,-0.2418237,-0.88363045,0
2.6627734,-1.5090231,-0.95025003,0.8308807,-0.47086927,-0.29651207,0
1.64949,-2.6644137,-0.2354164,0.5248965,-0.84786296,-0.074913606,0
-0.53536439,3.0033927,0.30025366,-0.17464322,0.97974801,0.097946867,0
-0.022322129,2.596276,-1.6376952,-0.0072717108,0.84576911,-0.53349954,0
-2.7772446,-1.1214365,0.73998302,-0.90019137,-0.36349246,0.23985152,0
-1.5590185,2.8100722,-0.15939218,-0.48454008,0.87336522,-0.049538795,0
3.1887691,0.26598725,-0.073267058,0.99627799,0.083103299,-0.022891076,0
-0.18371099,0.76636279,-2.8210981,-0.062719151,0.26163718,-0.9631263,0
-0.64294374,2.187233,-2.0893822,-0.20791152,0.70729506,-0.67565262,0
-2.6966748,1.9080598,-0.32488653,-0.81240261,0.5748238,-0.097875603,0
1.6325011,-2.5717335,-0.03367351,0.53589451,-0.84421253,-0.011053867,0
-0.95525366,2.8743639,-0.42817593,-0.31227091,0.93962502,-0.13997003,0
-1.3192368,-1.4997648,2.4558115,-0.41674837,-0.47377741,0.77579361,0
2.5687811,-0.06353157,1.4899098,0.86483085,-0.021389157,0.50160754,0
2.1839726,-2.1323838,0.52103412,0.70530504,-0.68864465,0.16826583,0
1.708532,1.7577323,-1.776179,0.56440657,0.58065969,-0.58675349,0
-2.4785464,1.8402199,0.73091418,-0.78129536,0.58008003,0.23040111,0
0.27907416,2.3430216,1.754316,0.094914086,0.79686975,0.59664893,0
0.88103873,2.8459048,0.58737981,0.29014805,0.93722755,0.19343884,0
-0.53058052,3.0570941,1.0208154,-0.16243561,0.93592,0.31251949,0
1.2717687,-0.93963104,2.5997941,0.41794646,-0.30879474,0.85438079,0
2.2529392,-0.29820299,2.009481,0.7426641,-0.09830033,0.66240996,0
-2.0616648,1.6636683,1.5079333,-0.67633325,0.54576969,0.49468049,0
-0.91533661,-1.9138447,2.5158107,-0.27814272,-0.5815587,0.76447773,0
-0.65797824,-2.6883891,1.5051882,-0.20884554,-0.85330796,0.47775418,0
2.305124,-2.3465934,-0.33209744,0.69723076,-0.70977402,-0.1004495,0
-0.091890663,-2.5888364,1.4972355,-0.030711833,-0.86524475,0.50040829,0
-2.984339,-0.39085603,-1.3412406,-0.90567786,-0.11861576,-0.4070355,0
-1.0873904,-1.997502,-2.0861726,-0.35234112,-0.64723951,-0.67597097,0
-1.4184043,1.0462952,2.435879,-0.47175139,0.34799048,0.81015635,0
1.6691982,-1.9321545,-2.0477712,0.5099836,-0.59032363,-0.62564754,0
-0.35542518,-0.80388653,3.0268946,-0.11276437,-0.25504595,0.96033108,0
0.88914418,1.3388758,2.673754,0.2850154,0.42917699,0.85707253,0
-1.200525,-2.5616801,1.1395797,-0.39362308,-0.83991283,0.37364057,0
1.4979823,-2.7465243,1.1367776,0.45003307,-0.82512778,0.34151775,0
0.69101119,-1.185717,-2.8004773,0.2215725,-0.38019973,-0.89797205,0
2.6689651,-1.0308911,0.97950929,0.88254732,-0.34088498,0.32389456,0
-3.0472853,0.031961974,0.83498484,-0.96439987,0.010115273,0.26425463,0
-0.091053545,-3.1686485,-0.54604125,-0.028307019,-0.98507965,-0.16975506,0
1.9513723,1.1250217,-2.2423289,0.61396807,0.35397008,-0.70551288,0
0.63631201,-2.7711992,-1.1251094,0.20809284,-0.90626407,-0.36794406,0
1.3708267,2.5459247,0.19711284,0.47298715,0.87844044,0.068011396,0
-0.03428467,2.5017982,-1.8585716,-0.01099995,0.80268103,-0.59630716,0
3.061291,-0.010252367,0.77389175,0.96949553,-0.0032468732,0.24508764,0
2.0084019,0.4368625,2.3959363,0.63622564,0.13839018,0.75898957,0
1.643532,-1.6318889,1.8982797,0.54882896,-0.54494095,0.63389754,0
-2.8332722,0.75372589,0.47979918,-0.95370203,0.25371015,0.16150422,0
-1.8059566,-2.1200624,-0.62283093,-0.63282961,-0.74289614,-0.21824768,0
1.5262589,2.7576334,0.76259327,0.47066519,0.85039443,0.23516725,0
-1.0283173,-2.1434138,-2.07552,-0.32584393,-0.67918563,-0.65767211,0
-1.4297799,-1.1191221,-2.4698217,-0.46642405,-0.36508101,-0.8057074,0
1.2709831,-1.4833945,2.3133953,0.41976926,-0.48992264,0.7640481,0
2.3347681,0.080359176,1.9702381,0.76398247,0.026295118,0.644701,0
2.3689692,2.2742758,-0.72800922,0.70427901,0.67612731,-0.21643238,0
0.13681661,2.3272417,-2.1393881,0.043239806,0.73550636,-0.67613667,0
-2.713192,1.4671155,1.0461375,-0.83302647,0.45044583,0.3211937,0
1.1055787,-2.9954636,0.10518896,0.34606543,-0.93763244,0.032925982,0
0.66906697,-2.649086,1.6789566,0.20863362,-0.82605839,0.52354521,0
0.034244105,2.1655269,-2.2721217,0.010909298,0.68988162,-0.72384,0
1.7754585,-0.4002001,2.3971033,0.58990484,-0.13296846,0.79644942,0
1.4522243,-2.6009746,1.1834208,0.45305735,-0.81143844,0.36919743,0
0.25302061,-3.0696645,-0.6434468,0.080411643,-0.97555989,-0.2044917,0
1.1940932,-0.062405579,-2.8239353,0.38937989,-0.020349734,-0.92085242,0
-2.5559366,-1.0715307,-1.1502706,-0.85178429,-0.35709533,-0.38333598,0
-2.5623996,0.97144622,1.3216859,-0.84221804,0.31929818,0.43441612,0
-1.5803113,0.20581803,2.4724638,-0.53723437,0.06996882,0.84052587,0
0.73455852,1.1964316,-2.7789683,0.23592928,0.38427606,-0.89256334,0
2.8603516,0.56350398,-0.56130147,0.96344692,0.189804,-0.18906213,0
-2.665833,0.5847975,1.3475019,-0.87583834,0.1921306,0.44271109,0
-2.8299468,-0.27338958,0.97431058,-0.94161057,-0.090965144,0.3241832,0
-0.70223546,-2.1436539,2.1003799,-0.22783548,-0.69549382,0.68145388,0
1.3533796,1.7143518,2.3227568,0.42447102,0.53768557,0.72850436,0
-0.48413256,-2.6915751,-1.3490161,-0.15876353,-0.88265896,-0.44238824,0
1.4930537,-2.6318114,0.037746456,0.49339786,-0.86971426,0.012473778,0
2.2695494,-1.7765865,-0.0066851783,0.78743255,-0.61639643,-0.0023194591,0
2.1592789,-2.1666677,-0.15334365,0.70501268,-0.70742518,-0.050067279,0
1.6599948,-0.36201769,-2.5498788,0.54176146,-0.11814931,-0.832187,0
-1.3108549,-2.8867807,-0.22497986,-0.41242126,-0.90823919,-0.070783183,0
-2.3533804,0.38380527,2.0604258,-0.74678284,0.12179042,0.65382147,0
2.2012055,-1.9095601,0.54195648,0.74264079,-0.64424568,0.1828448,0
1.3843997,1.9744786,1.9017745,0.45077774,0.64291477,0.61924142,0
-0.17983544,1.9051405,2.5313711,-0.056671686,0.60036844,0.79771298,0
0.77389687,-2.9185379,-0.14653642,0.25600681,-0.96545881,-0.048474576,0
2.1287274,-2.3450279,0.99980724,0.64095473,-0.70608228,0.30103955,0
2.9497139,-1.0388808,0.60176128,0.92621922,-0.32621175,0.18895487,0
1.9761604,1.0741115,2.1043725,0.64157981,0.34872079,0.68320513,0
-2.8825676,0.27754071,1.4693162,-0.88767475,0.08546751,0.45246983,0
-1.7466835,-1.7853322,2.2571168,-0.51885247,-0.53033304,0.67047673,0
-2.3837295,1.5157143,1.5003285,-0.7452597,0.47387961,0.46906933,0
0.52176607,2.9033999,0.66253978,0.17257608,0.96031046,0.21913752,0
-0.3673718,2.9575849,0.02101435,-0.12326308,0.99234897,0.0070508774,0
-2.1333613,-1.2853601,-1.6753784,-0.71071488,-0.42820904,-0.55814099,0
-0.56206405,1.4177991,2.859128,-0.1734511,0.43752807,0.88231736,0
2.1452546,-0.79636431,1.9505441,0.71346414,-0.26485312,0.64870775,0
0.80155087,0.77435106,-2.6971021,0.27466381,0.26534337,-0.92420381,0
-3.0358369,0.95909244,-0.31665814,-0.94886416,0.29976857,-0.098972894,0
0.76996493,-1.2968364,2.6034961,0.25590509,-0.43101579,0.86529642,0
2.936621,1.1314386,0.27582785,0.92957222,0.35815105,0.087311886,0
-0.97511458,-0.79097342,-2.758759,-0.32170895,-0.26095727,-0.91016734,0
-2.8832402,-0.23445442,-1.3121719,-0.90769249,-0.07381019,-0.41309378,0
2.6743124,0.95225418,0.94637072,0.8937068,0.3182261,0.31625998,0
-1.0307654,-2.6722636,0.68359071,-0.35005081,-0.90750819,0.23214932,0
1.922977,2.1602683,0.96294445,0.63084507,0.70869005,0.31590018,0
-1.9558246,-1.0905826,-2.3068302,-0.60834765,-0.33921927,-0.71752584,0
2.1149824,0.41721156,-2.315201,0.66856974,0.13188528,-0.73186111,0
-1.2812157,-2.1326594,1.8556882,-0.41279462,-0.68712115,0.59788382,0
2.4853113,1.301935,-1.5482574,0.77556586,0.40628162,-0.48314896,0
2.479645,-1.243103,-1.4189852,0.79585993,-0.39898285,-0.45543352,0
-1.5211656,-1.9807279,-1.667625,-0.50654328,-0.65957606,-0.55531377,0
-2.103399,-1.9029795,-1.5570109,-0.65005541,-0.58811575,-0.48119417,0
-2.3021224,0.091531686,2.1018262,-0.73818517,0.029350018,0.67395937,0
1.1472759,1.6293174,-2.3461463,0.3727099,0.52930838,-0.76218104,0
-0.90981632,1.0677378,-2.9957643,-0.27504057,0.32278079,-0.90562969,0
1.7354884,-0.39573914,2.4703951,0.56996673,-0.12996811,0.81132376,0
1.7605315,-0.16735986,2.5351186,0.56956625,-0.05414417,0.82016021,0
-1.7341818,-2.6580203,-0.32736659,-0.54353648,-0.83309084,-0.10260498,0
-0.76890594,-1.0621855,2.7501423,-0.25236854,-0.34862807,0.90264535,0
0.36259913,1.9428047,2.2376902,0.1214533,0.65074629,0.74951881,0
0.29202291,0.81285822,-2.8666103,0.097539119,0.27150431,-0.95748186,0
-0.42267886,2.074156,-2.1157787,-0.14122838,0.69303131,-0.70693856,0
-2.7723339,1.683936,0.5434708,-0.84293759,0.51200646,0.16524415,0
-2.2081747,-1.9122597,1.2092103,-0.69846213,-0.60486203,0.38248223,0
-0.70338672,2.3293438,-1.8114775,-0.23187394,0.76787651,-0.59716004,0
-1.3132085,-2.0306101,-1.9553304,-0.42227292,-0.65295929,-0.62875247,0
1.1193995,-1.188863,-2.6019728,0.36439699,-0.38700935,-0.84701753,0
-1.7663517,-2.4515951,0.74710691,-0.56747824,-0.78762734,0.24002407,0
-1.9364499,2.0929377,-1.1242455,-0.63179684,0.6828534,-0.36680254,0
1.239405,0.18861209,-2.865119,0.39630574,0.060309626,-0.91613561,0
-2.1461337,-1.4214667,1.8644195,-0.67521483,-0.44722068,0.58658212,0
2.5480506,1.4996513,-0.94400012,0.82098478,0.48318934,-0.30415791,0
-0.30572131,1.9430295,-2.4293189,-0.097806811,0.6216169,-0.77719128,0
1.1097702,1.4650012,2.2583113,0.38114634,0.50314909,0.77560842,0
-2.8827856,-0.38015246,0.67896235,-0.96544671,-0.1273133,0.22738492,0
-0.52434123,-2.9639184,0.4764052,-0.17206126,-0.97260243,0.15633118,0
1.9393468,2.2411284,-0.089571662,0.65406048,0.75583881,-0.030208772,0
0.64929152,2.6148586,1.668069,0.20489909,0.82517964,0.52639806,0
-2.848212,-0.27232018,-1.3333442,-0.90229678,-0.086269431,-0.42239559,0
1.4070606,0.95519298,-2.6125987,0.45136401,0.30641162,-0.83808261,0
0.77692652,0.012127804,-2.8920321,0.25944275,0.0040498949,-0.96574998,0
3.1949818,-0.10828857,-0.0316258,0.99937719,-0.033872221,-0.0098924208,0
-0.44782043,3.0229609,-0.81362802,-0.1416074,0.95590466,-0.25728112,0
