-0.55060112,3.1023917,-0.91477507,-0.16781621,0.94556946,-0.27881178,0
-2.2254329,-1.2025076,2.2669067,-0.65517867,-0.35402429,0.66738874,0
3.3954337,-1.0613664,0.048758738,0.95436686,-0.29832211,0.013704795,0
-2.8947423,1.7168423,-0.28664425,-0.85700125,0.50827879,-0.084862299,0
-0.21113424,2.6924901,-1.9579889,-0.063292757,0.80714107,-0.58695596,0
-0.19545877,-0.30135167,3.5649116,-0.054552298,-0.08410687,0.99496233,0
-0.14211047,3.4111667,-0.26945761,-0.041495226,0.99603599,-0.078679673,0
0.768493,1.974391,-2.8403864,0.21687223,0.55718213,-0.80157,0
-1.1433969,2.3500581,-2.2173648,-0.33360806,0.68567473,-0.64695889,0
-2.0888069,-2.5661802,-1.4943175,-0.57533109,-0.70681655,-0.41158774,0
0.88969225,1.5153202,3.1472435,0.24682374,0.42038918,0.8731271,0
1.6844788,-2.8417501,0.04802848,0.50985575,-0.8601371,0.014537196,0
2.2234719,-1.1773324,2.2302926,0.66132176,-0.35017106,0.6633504,0
2.725508,-2.0861912,-0.42410791,0.788086,-0.6032263,-0.12263164,0
-1.7146692,-0.65425938,-3.1371036,-0.47177628,-0.18001376,-0.86314666,0
-1.3453132,-0.16476753,-3.2669301,-0.38036224,-0.046584949,-0.92366362,0
1.767763,2.7902954,0.50178587,0.5291062,0.83515865,0.15018868,0
2.4284103,0.81083959,2.0553253,0.73966116,0.24697086,0.62602448,0
1.5109848,2.7934277,0.8126626,0.46091607,0.85211694,0.24789743,0
1.3788338,-0.24506658,-2.936012,0.42387733,-0.075337701,-0.90258086,0
0.93507224,-2.0596819,2.4528706,0.28024295,-0.61729062,0.73513001,0
-3.4056509,0.3760514,0.44548997,-0.98566252,0.1088367,0.12893359,0
-3.2152777,1.4858496,0.58023584,-0.89581746,0.4139767,0.16166112,0
-0.67062509,0.59403962,3.3851397,-0.19151501,0.16964397,0.9667176,0
-1.8418329,2.7872901,-0.83477676,-0.53486121,0.80941832,-0.24241596,0
1.510269,-2.4370599,-1.8240687,0.44443905,-0.71717328,-0.5367834,0
-3.1436691,1.6708934,0.24091302,-0.88100553,0.46826378,0.067515276,0
2.2296348,-1.5745946,-2.1394665,0.64289224,-0.45401815,-0.61689311,0
-1.5492195,-2.8252382,0.961245,-0.46074182,-0.84023303,0.28587669,0
2.7241385,-1.0172904,-1.6160694,0.81885046,-0.30578792,-0.48577529,0
0.82323527,-1.5589925,2.7706468,0.25068066,-0.47472364,0.8436805,0
-2.5435293,-2.6055224,-0.092195503,-0.69831896,-0.715339,-0.025312023,0
0.76172829,2.8751841,1.4693106,0.22960934,0.86667269,0.44289735,0
3.1334717,1.3060126,-1.3144516,0.86076277,0.35876086,-0.36107904,0
-2.6244445,1.5630473,1.590493,-0.76205444,0.45385876,0.46182811,0
0.67308772,3.3075514,0.43525845,0.19777551,0.9718684,0.12789337,0
-0.22572409,3.1166439,-1.5060976,-0.065072194,0.89847237,-0.43418083,0
0.37447071,-1.3192278,3.0910866,0.11073682,-0.39011621,0.91408247,0
0.71987349,0.60317296,-3.2860079,0.21063811,0.17649102,-0.96150011,0
-1.083262,-1.0715373,3.1592691,-0.30884069,-0.30549794,0.90071553,0
-2.6453645,-1.5921113,-1.4171231,-0.77868825,-0.46865314,-0.4171437,0
-1.7202594,0.70172846,3.0921104,-0.47687829,0.19452825,0.8571732,0
-1.2494354,-3.1765525,-0.57839316,-0.36088982,-0.91752279,-0.16706441,0
0.30171698,2.7564321,2.1428199,0.086097293,0.78656936,0.61147034,0
-1.7720758,2.2688706,2.1225889,-0.49543777,0.63433194,0.59343439,0
-0.02010919,-1.1444529,-3.1167068,-0.0060565346,-0.34468913,-0.9386974,0
1.5977235,-1.697469,2.1823931,0.50034118,-0.53157735,0.68343562,0
-3.3569789,-1.070707,0.55862468,-0.94096237,-0.30011955,0.1565827,0
-1.8812624,2.7309818,-1.353349,-0.52523494,0.76247048,-0.37784529,0
-2.6157,1.0677221,-1.857005,-0.77367312,0.3158114,-0.54926592,0
1.8859117,0.80213898,2.6272154,0.56599665,0.2407366,0.78847551,0
-2.8855066,0.7808336,1.6938162,-0.8398304,0.22726263,0.49298739,0
-0.20389272,-1.449483,3.0376244,-0.060468134,-0.42987084,0.90086335,0
-1.9166634,-1.9728194,-2.1981812,-0.54434818,-0.56029695,-0.62430155,0
2.9861207,-1.4105009,1.0329435,0.86297572,-0.40762854,0.29851612,0
-0.71308482,-2.2613542,-2.3946083,-0.2116029,-0.67104089,-0.71058309,0
-2.2059178,2.4416904,-0.77530777,-0.65250623,0.72224736,-0.22933455,0
1.4989682,1.7491778,-2.626575,0.42905799,0.50067687,-0.75181907,0
0.65463173,-2.3400288,2.5388741,0.18627766,-0.66586304,0.72244519,0
-1.1813946,1.8937545,2.7031586,-0.33700436,0.54021204,0.77110249,0
-2.6858552,0.70264971,-1.9895607,-0.7863642,0.20572166,-0.58250326,0
-0.87315649,2.7558315,-1.4714328,-0.26917851,0.84957349,-0.45361638,0
0.6635713,3.3613191,-0.95906258,0.18650688,0.94475019,-0.26955923,0
2.0664725,2.5202436,-0.4106198,0.62908298,0.76722163,-0.12500235,0
-1.0441772,2.260915,-2.3996513,-0.30192697,0.65375036,-0.69386637,0
-0.077381283,-1.2542096,-3.3188233,-0.021805231,-0.35342306,-0.93520945,0
0.10737403,-0.68973368,-3.3940756,0.03098716,-0.19905083,-0.97949916,0
2.5114205,1.1657342,-2.1841502,0.71214294,0.3305577,-0.61934161,0
-0.9354142,-3.2015936,-0.10763396,-0.28030059,-0.95937026,-0.032252941,0
-0.61158776,-2.9018083,-1.5605814,-0.18250299,-0.86592424,-0.46569076,0
-2.4670026,-0.032803345,-2.3124437,-0.72955763,-0.0097008133,-0.68385053,0
-0.92374223,3.2711163,-0.72509933,-0.26578498,0.94118637,-0.20863019,0
-3.0498242,-0.93014687,-0.79832351,-0.92786348,-0.2829833,-0.24287802,0
2.8629377,0.41529608,-1.7500688,0.84675533,0.12282983,-0.51760823,0
-1.8383621,1.8173836,-2.1286154,-0.5489859,0.54272115,-0.63566363,0
-3.2443883,-0.35587034,-1.6434121,-0.88784111,-0.097385474,-0.44972694,0
3.146755,0.87885499,0.88809156,0.92941731,0.25957632,0.2623044,0
2.9233823,-1.4236434,-1.0346928,0.85672921,-0.41721427,-0.30322805,0
2.9709089,1.0330783,-1.4329704,0.85952938,0.29888538,-0.41458026,0
2.9169869,-0.377159,-1.843112,0.84037822,-0.10865877,-0.53099692,0
-0.35205498,3.2620075,0.77435219,-0.10443354,0.96764135,0.22970371,0
3.1364782,-1.1769114,-1.0822945,0.89091635,-0.33430156,-0.30742565,0
-0.24315481,-3.388236,-1.2105578,-0.067426778,-0.93955714,-0.33568743,0
0.99264652,-1.8806078,2.7848287,0.28329775,-0.53671873,0.79478008,0
3.5797281,-0.20583116,-0.38726491,0.99257863,-0.057072382,-0.10737991,0
-2.7009749,1.068292,-2.0016491,-0.76569539,0.30284852,-0.56744456,0
-3.5428109,-0.16393913,0.11925095,-0.99836689,-0.046198178,0.033605009,0
-0.29080123,-2.4652679,-2.2649772,-0.08653789,-0.73362511,-0.67402178,0
0.91926157,1.0610054,-3.3233843,0.2548039,0.29409289,-0.92118639,0
2.498709,1.3971046,-2.0248616,0.71259433,0.3984333,-0.57746017,0
1.0464536,-2.2379742,2.2962751,0.31025311,-0.66351575,0.68080086,0
0.29241654,1.4091698,-2.9641218,0.088744476,0.42766401,-0.899571,0
3.349412,0.93445784,-1.113433,0.91733712,0.25592935,-0.30494708,0
1.0670822,-2.3435078,-2.37151,0.30482149,-0.66944379,-0.67744285,0
-1.8825723,-2.3907254,1.4536459,-0.55823779,-0.70892006,0.43104857,0
-0.32853553,-0.7010774,3.2859263,-0.097317666,-0.20767075,0.97334582,0
3.3155048,0.41311151,1.5715022,0.89795852,0.11188553,0.4256196,0
-2.527878,0.68528873,-2.4272144,-0.70791531,0.19191052,-0.67972511,0
-1.3787793,2.664818,-1.4692516,-0.41270852,0.79765713,-0.4397895,0
2.5521824,-2.1312776,-1.0876573,0.72952324,-0.60921061,-0.31089914,0
1.2530695,-0.30381238,-3.1740258,0.36576152,-0.088680536,-0.92647409,0
1.2372488,-0.11433111,-3.3215215,0.34888276,-0.032239396,-0.93661165,0
-2.3418853,1.9950901,1.4420059,-0.6892612,0.58719283,0.42440966,0
3.305732,-0.65021425,0.031593155,0.98115659,-0.19298661,0.0093769953,0
2.6462443,-2.110594,-0.17550832,0.78074163,-0.62270468,-0.051781561,0
2.3397093,2.0291815,-1.5304915,0.6772747,0.58738637,-0.44303077,0
-3.2411897,-1.2930452,-0.021227824,-0.92879814,-0.37053615,-0.0060830633,0
2.2565539,-2.2956371,-0.77420241,0.68157429,-0.69337904,-0.23384172,0
-2.7423337,0.65084016,2.2222378,-0.76405233,0.18133314,0.61914641,0
0.26351702,-1.2963647,2.9634476,0.081199393,-0.39945814,0.91314834,0
-3.1540022,-1.2333888,0.51962548,-0.9205485,-0.3599852,0.15166143,0
2.6007311,-0.25384116,2.4629858,0.72425681,-0.070690192,0.68589717,0
2.6227322,0.21127567,-2.5221727,0.71957785,0.057966001,-0.69198817,0
0.57708406,-2.8856003,1.4422442,0.17609268,-0.88051838,0.44008952,0
0.69417679,2.703234,-1.9114435,0.20521101,0.79912406,-0.56505674,0
-0.59895509,3.1510139,0.83346003,-0.18073729,0.95083207,0.25150016,0
0.14823486,-0.65667886,3.3505716,0.043374814,-0.19214997,0.98040652,0
3.2551274,0.19192941,0.50207591,0.98663914,0.058174398,0.15218075,0
2.7813027,-0.17784745,-2.182281,0.78574067,-0.050243352,-0.61651218,0
-0.71516663,-1.000456,3.3655,-0.19959159,-0.27921128,0.93925732,0
-2.8888125,1.2360331,1.6536658,-0.81358457,0.34810755,0.46572664,0
-3.3408875,1.2565178,0.55636066,-0.92482209,0.34782836,0.15401135,0
2.07532,0.28373516,-2.7587724,0.59913611,0.081913143,-0.79644597,0
-2.8143771,0.11927828,2.1162448,-0.79879671,0.033854418,0.60064775,0
2.6207066,2.1854374,-0.78039783,0.74867368,0.62432766,-0.22294115,0
2.2847898,-1.6582125,-1.9862046,0.66191202,-0.48039031,-0.57541084,0
-2.7216213,-0.50472033,2.1592193,-0.77526194,-0.14377108,0.61506003,0
-2.3339429,-1.4812976,1.8638023,-0.70005119,-0.44430572,0.55903554,0
1.6368035,-1.4737489,2.6027198,0.48006067,-0.43223813,0.76335573,0
0.8741414,2.0374267,2.5461507,0.25891975,0.60348362,0.75416714,0
3.0769112,-1.0874244,0.68348843,0.9228276,-0.32614046,0.20499194,0
-1.6080908,2.8827398,0.16771871,-0.48653519,0.87218606,0.05074406,0
0.76782477,-2.9075351,-1.7901568,0.21939662,-0.8307929,-0.51151562,0
1.3767825,0.05054174,-3.1408956,0.40142146,0.014736198,-0.91577494,0
0.37979886,-2.7110116,-1.9199598,0.11358768,-0.81079113,-0.57420868,0
2.803077,0.38175982,-1.9858344,0.81098783,0.11045097,-0.5745427,0
2.5309968,-2.3742414,-0.21644774,0.72791684,-0.68283379,-0.062250555,0
0.79438949,3.2515485,0.8184014,0.23053978,0.94363195,0.23750828,0
-2.1606839,-0.82670927,-2.934654,-0.57820684,-0.2212304,-0.7853241,0
-1.397678,2.4440484,-1.8973868,-0.41167063,0.71986747,-0.55885434,0
-0.54762828,-3.4026225,-0.56189936,-0.15682752,-0.97442889,-0.16091441,0
1.5386229,-2.8251657,-1.4086176,0.43812257,-0.80446541,-0.40110359,0
-2.2121959,1.7916218,2.0326421,-0.63243419,0.51219827,0.58110243,0
-2.2721696,-0.55313373,-2.8171625,-0.62059098,-0.15107578,-0.76944327,0
-2.8185751,-0.063379027,-2.1487482,-0.79513288,-0.017879512,-0.60617167,0
2.0815551,-2.3155928,1.2279907,0.62190574,-0.69182914,0.36688653,0
0.47183093,0.27009469,-3.5474453,0.13147084,0.075259112,-0.98845917,0
1.284165,1.1600044,2.9198668,0.37834561,0.34176493,0.86026233,0
-2.9190731,-0.58443409,1.4347218,-0.88331217,-0.17684989,0.43414712,0
3.212198,0.58318794,0.65781921,0.96453047,0.17511453,0.19752415,0
-0.42901519,-3.3216078,-0.92502159,-0.12347206,-0.95597029,-0.26622444,0
-3.3711164,0.16763858,-0.60850346,-0.98292029,0.048878573,-0.17742205,0
-2.6322227,-1.1067042,-1.7701768,-0.78349274,-0.32941541,-0.52690095,0
2.2617035,-0.21273622,-2.733115,0.63639361,-0.059859291,-0.76903844,0
1.7448992,2.6955845,1.5146558,0.49147156,0.75924337,0.42662078,0
-2.0793004,-2.9923689,0.34810814,-0.56804401,-0.81748521,0.095099658,0
2.4669101,-0.21472906,2.3836269,0.71773696,-0.0624745,0.69350606,0
0.32487074,-3.4282675,0.043027185,0.094332367,-0.99546236,0.012493758,0
2.1738787,2.0151267,-1.1367589,0.68475139,0.63474602,-0.35806841,0
-0.37123331,2.3927276,2.5386395,-0.10581795,0.68203348,0.72362483,0
-1.1034318,-0.59666026,3.3545735,-0.30809703,-0.16659775,0.93665433,0
-1.1837286,-2.5927389,-1.5659246,-0.36399803,-0.79727048,-0.48152381,0
-1.8318853,0.52588844,2.9998436,-0.51543289,0.14796789,0.84405833,0
2.7937417,0.41279435,2.2032228,0.77997375,0.11524643,0.61510909,0
2.4268324,2.4409189,-0.77927065,0.6876545,0.69164598,-0.22081004,0
-0.17067371,3.1080797,1.5588937,-0.049025878,0.89279324,0.44779086,0
-2.4850903,1.6643816,1.7871385,-0.71324396,0.47769296,0.51292533,0
2.0294385,-2.9400713,0.087040678,0.56790638,-0.82273263,0.024356963,0
0.058395479,0.62183213,-3.343051,0.01717063,0.18284377,-0.98299205,0
-1.6588951,-0.42602631,3.0475602,-0.47453099,-0.12186587,0.87176204,0
2.5001366,-1.2613581,2.1208823,0.71171939,-0.35907361,0.60375625,0
-0.795582,-0.62321764,3.0800784,-0.24542573,-0.19225378,0.95016038,0
0.92454225,3.003449,1.5240746,0.26471424,0.8599453,0.43637189,0
-3.2211697,0.99669826,0.55339795,-0.94270146,0.29169184,0.1619564,0
-1.8226054,-2.8606098,-0.51037097,-0.53135926,-0.83397728,-0.14879268,0
-0.69624555,-3.093436,-0.83913904,-0.21227138,-0.94312692,-0.25583676,0
3.4719651,0.27106926,-0.90454739,0.9649477,0.07533706,-0.25139681,0
0.46114039,-2.6594737,-2.2131925,0.13211255,-0.76191515,-0.63405961,0
-2.0944037,-2.1055007,2.0124722,-0.58381617,-0.58690947,0.5609777,0
-0.69410121,-3.1748805,-0.55772978,-0.21050093,-0.96284986,-0.16914339,0
-3.0190895,-1.6103631,-0.19078851,-0.88096243,-0.46989977,-0.055671591,0
2.7627974,-1.3828596,1.5390944,0.80041879,-0.40063265,0.44589594,0
-0.083115891,3.2734847,0.88916779,-0.024495453,0.9647432,0.2620506,0
-2.2774985,-2.2969737,1.0377268,-0.67043376,-0.67616671,0.3054786,0
-0.62057984,-2.6426141,-2.2058396,-0.17742257,-0.75551826,-0.63064528,0
1.8310688,2.8379943,-0.74447733,0.52943909,0.82058364,-0.21525975,0
-0.86497092,-3.1199834,-1.6272328,-0.23870595,-0.86102152,-0.44906726,0
-1.0674828,2.0945938,2.4911125,-0.31164914,0.61151177,0.72727448,0
0.3070457,2.5649717,-2.1558886,0.091254972,0.76231784,-0.64073706,0
-3.5030539,0.073862724,0.2344256,-0.99754757,0.021033527,0.066756234,0
-2.3617985,2.4807525,0.17244467,-0.68865699,0.72334176,0.050281692,0
0.42958519,1.0591331,3.0373333,0.1323732,0.32636327,0.93592966,0
-3.2366998,-0.29965311,-0.70098484,-0.97336549,-0.090114012,-0.21080561,0
-2.8597229,-0.85407442,1.3912814,-0.86845392,-0.25936928,0.42251077,0
-2.2096639,-0.26891047,2.5416188,-0.65402287,-0.079592921,0.75227588,0
2.2024946,0.57823497,2.4280264,0.66165596,0.17370877,0.72940844,0
0.048974171,2.7476432,-1.9473168,0.014540666,0.81578839,-0.57816768,0
-1.2053457,0.99470913,-2.9339678,-0.36259452,0.2992304,-0.8826021,0
-1.129269,3.2066743,0.58516663,-0.32735282,0.92955166,0.16962828,0
1.4276749,-1.8624291,-2.532464,0.4135102,-0.53943193,-0.73350012,0
2.982332,-1.395246,0.42588925,0.89829284,-0.42025486,0.12827991,0
-0.160824,3.2598386,-1.279611,-0.045875221,0.92987251,-0.36501041,0
0.5646525,2.779108,1.5946449,0.17355312,0.85419416,0.49013436,0
1.8869401,3.015301,-0.083817847,0.53033215,0.84746259,-0.023557346,0
1.3022692,2.7442913,-1.4707685,0.38586473,0.81313848,-0.43579137,0
0.24986643,3.3097739,0.12996058,0.07522165,0.99639904,0.039124303,0
0.43264562,1.8417717,-2.9531865,0.12335844,0.52513671,-0.84202975,0
0.26053667,1.3436613,3.1413419,0.076034404,0.39213091,0.91676176,0
-1.2705625,2.9498389,0.75778151,-0.38501698,0.89388597,0.22962959,0
-0.44320107,-3.3116403,0.42730388,-0.13157697,-0.98315549,0.12685743,0
-1.1480154,1.8708984,2.6336656,-0.3348479,0.54569513,0.7681756,0
0.54037613,-1.5268999,-2.9463632,0.1607203,-0.45413521,-0.87631631,0
2.2621202,-1.8101717,1.7263929,0.67073745,-0.53673095,0.51188982,0
-0.40413234,-2.2021012,2.7437,-0.11412133,-0.62184262,0.77478254,0
3.2353022,-0.18270743,1.4581783,0.9104737,-0.051417239,0.41035825,0
-1.4217079,-1.4541448,2.8527334,-0.40580693,-0.41506562,0.81427342,0
1.0693828,2.5595891,2.4361386,0.28965944,0.69330567,0.65986711,0
1.5911053,-1.7946472,-2.478982,0.46128246,-0.52029192,-0.71868962,0
0.68289775,2.484221,2.4134412,0.1934438,0.70370293,0.68365318,0
0.74287647,2.7523296,1.7234317,0.22300057,0.82620877,0.51734877,0
0.90040827,1.7510388,-2.5412939,0.28008074,0.54467762,-0.79049414,0
-0.93453079,-2.4087439,-2.3792105,-0.26607606,-0.68580836,-0.67739975,0
0.61411065,-1.5591468,3.0116522,0.17818567,-0.45239016,0.87383813,0
0.024914054,-2.1021214,2.8128614,0.0070946747,-0.59861261,0.80100721,0
-2.6258514,-0.93622768,1.5901449,-0.81817794,-0.29171523,0.4954665,0
-0.99011427,-2.7942452,-1.8741547,-0.28230748,-0.7967124,-0.53437048,0
-0.96932137,-1.090157,3.2900341,-0.26933542,-0.3029108,0.91416818,0
0.5376175,-2.9556868,-1.6406077,0.15706179,-0.86348653,-0.47929388,0
-0.68243235,-2.9732757,-2.0803542,-0.18481988,-0.80523795,-0.56341237,0
-3.0873473,0.07835409,-1.5516745,-0.89326942,0.022670373,-0.44894961,0
-2.3819995,1.894773,-1.7170532,-0.68161935,0.54219741,-0.4913421,0
0.77457684,-3.3177104,-1.1848186,0.2147384,-0.91977942,-0.32847103,0
-3.0844514,-0.5538677,1.7442408,-0.86001706,-0.15443124,0.48633501,0
-2.6050715,0.11298921,2.4055767,-0.7343049,0.031848848,0.67807227,0
3.2751288,0.59642023,-0.19496806,0.98213714,0.17885295,-0.058466516,0
-0.82055146,1.1504445,2.9865012,-0.24835546,0.34820387,0.90392125,0
-1.3922566,-1.8779773,2.4165945,-0.41407782,-0.55853838,0.71873116,0
2.4431021,2.1909235,-0.30505407,0.7412892,0.66477287,-0.092559904,0
2.5432491,1.039625,-1.7657654,0.77870065,0.31831592,-0.54064804,0
-2.7575066,-1.9706748,0.084009312,-0.81334031,-0.58126032,0.024778964,0
0.35096818,-3.1621211,1.6390243,0.098065689,-0.88354331,0.45796758,0
-0.33544278,-0.14054213,-3.5742965,-0.093366526,-0.039118238,-0.99486303,0
-2.4772992,-2.3512149,-0.63646269,-0.71304888,-0.67675763,-0.18319507,0
-2.8754871,-1.2288803,1.2729458,-0.85168445,-0.36397946,0.37703112,0
2.5839672,1.180423,-2.1197686,0.72900105,0.33302653,-0.59803915,0
-0.84033674,-3.2153718,1.0214815,-0.24169765,-0.92480522,0.29379851,0
-3.3989074,0.80430645,0.18107386,-0.97182,0.22996834,0.05177287,0
-1.0041713,-3.2374458,-0.85308319,-0.28729135,-0.92622668,-0.24406536,0
1.7314473,-1.5255524,2.7270706,0.48467165,-0.42703697,0.76336932,0
1.317436,1.4427879,-2.7195258,0.39342934,0.43086353,-0.81213909,0
-0.07095629,-1.6051334,3.1745982,-0.019942591,-0.45113009,0.8922354,0
2.3252122,0.90373969,-2.2828786,0.68761694,0.2672559,-0.67509794,0
-0.9557308,-2.8078065,1.8335372,-0.27408522,-0.80522496,0.52582324,0
-0.32918429,-1.8546114,2.8653436,-0.09599968,-0.54085845,0.83561724,0
0.46851867,2.8806233,1.4783326,0.14321049,0.88051015,0.45187682,0
-1.0442692,2.9905193,-1.7605361,-0.28815576,0.82520425,-0.48580256,0
2.5107727,2.2616818,-1.2036709,0.69992536,0.63048655,-0.33554602,0
1.2943188,-2.5217898,-1.7915643,0.38598758,-0.75204003,-0.53427458,0
-0.81212151,3.2881286,0.69101626,-0.23494069,0.95123106,0.19990584,0
-2.4133391,2.7372282,0.06755396,-0.66122139,0.74996251,0.018508846,0
1.1617461,0.63607705,-3.2718461,0.32912868,0.18020391,-0.92693084,0
-1.6729978,-1.6398569,-2.3725102,-0.5017696,-0.49182993,-0.71156907,0
3.1337183,-1.5059747,-0.35596192,0.89663506,-0.43089697,-0.10184959,0
2.1937335,2.7403336,-0.01422394,0.62494463,0.78065854,-0.004052076,0
0.77401048,1.7317303,2.9700685,0.21963346,0.49139634,0.84278756,0
1.2581846,-1.6545967,2.528887,0.38435119,-0.50544751,0.77252638,0
0.0041254754,-3.2643106,0.46160132,0.0012513617,-0.99014848,0.14001542,0
-0.52055877,0.97724223,-3.1577137,-0.15556656,0.29204428,-0.94366795,0
0.1894795,0.48178956,3.2741344,0.057161458,0.14534445,0.98772848,0
-1.0727038,3.4092894,-0.077295296,-0.30006528,0.9536736,-0.021621658,0
-2.3352084,-2.3554032,-0.54928994,-0.69459528,-0.70060211,-0.16338336,0
0.66946071,0.75988883,-3.1360054,0.20314559,0.23058571,-0.95161027,0
3.1801319,1.6338598,-0.19061476,0.88821244,0.45633784,-0.053238798,0
-3.1658466,-0.66912252,-1.2668798,-0.91104746,-0.19255587,-0.3645747,0
-2.5340838,-1.9907763,-0.77859449,-0.76436847,-0.60048789,-0.23485138,0
1.4812123,2.4615092,1.9655817,0.42552805,0.70715129,0.56467944,0
0.53528214,-1.6367865,-2.7809772,0.16364488,-0.50039351,-0.85019213,0
-1.3241346,-2.2887292,2.312664,-0.37694159,-0.65153289,0.65834641,0
1.7093043,2.3314502,-1.453389,0.528265,0.72054082,-0.44917369,0
0.75737762,-3.4356449,0.53679961,0.21281512,-0.96537995,0.15083502,0
-1.8454598,-0.35163847,-2.6909165,-0.56232655,-0.10714709,-0.81994408,0
3.0175579,1.2484921,-0.49927595,0.91341954,0.37792054,-0.15113162,0
-2.1212811,-1.2113788,-2.5786159,-0.5972116,-0.34104365,-0.72596663,0
0.60029435,2.1925049,2.3660407,0.18295553,0.66822368,0.72111326,0
-3.3584974,-0.074013136,0.44925958,-0.99093497,-0.021837804,0.13255543,0
-1.8502226,-2.9469411,0.96246821,-0.51248711,-0.81626362,0.26659092,0
0.4654029,-3.4173605,-0.16130602,0.13479483,-0.98977154,-0.04671913,0
-2.530967,2.3095956,-0.6569593,-0.72545803,0.66200572,-0.18830603,0
-1.7484288,2.6022444,0.87137026,-0.53733075,0.79972714,0.2677913,0
-3.1146927,1.1070108,1.1560606,-0.88943094,0.31611776,0.33012441,0
2.2077479,-1.7905039,-2.2619431,0.60774451,-0.49288642,-0.62266326,0
-0.62483513,-2.0174913,2.6077967,-0.1861964,-0.60119802,0.77710479,0
3.2737696,-0.27362901,-0.042593356,0.99644142,-0.08328481,-0.012964194,0
-0.94562614,-0.72532111,3.1527536,-0.28056103,-0.21519798,0.93540114,0
3.0179451,-1.4011437,0.022788383,0.90699285,-0.42109028,0.0068486668,0
0.77212822,3.104948,0.55480099,0.23777848,0.95617515,0.17085211,0
-2.5727792,-0.26694885,-2.0100479,-0.78539395,-0.081491642,-0.6136086,0
1.619153,0.53818011,3.1553659,0.45137617,0.15003009,0.87963086,0
-0.89160895,-2.9496808,-1.999359,-0.24272798,-0.80300909,-0.54429734,0
1.0609081,0.17115998,3.3213148,0.3039121,0.049031194,0.95143753,0
-1.185638,2.9346085,1.4670168,-0.33986804,0.8412177,0.42052644,0
-2.6068938,-2.3687258,-0.16161372,-0.73932862,-0.67178297,-0.045834493,0
-0.36630088,2.0854611,2.6855533,-0.10710955,0.60980684,0.78527898,0
1.4384454,3.0896232,-1.4766207,0.3872824,0.83184016,-0.39756057,0
2.9555538,-0.49767467,1.4442581,0.88835675,-0.14958708,0.43410358,0
3.2942646,0.36119652,0.52145797,0.98196095,0.10766618,0.15543723,0
-0.64387995,-2.8028476,2.2446914,-0.17649375,-0.76828778,0.61529171,0
-1.6892579,2.1875794,2.1992486,-0.47825766,0.61934096,0.62264472,0
-1.7122977,-2.6682949,1.3953537,-0.49432305,-0.77030981,0.40282452,0
0.72281998,-1.3535438,3.2019622,0.20357402,-0.38121021,0.90179622,0
-0.87572068,-2.7163393,-1.5318196,-0.27035812,-0.83860576,-0.47291321,0
1.3865004,-0.88181388,-2.9512997,0.4104633,-0.26105458,-0.87371075,0
1.6854975,-2.9398415,0.54138553,0.49115312,-0.85666829,0.15775947,0
1.4520966,2.7625952,-1.8457191,0.40047824,0.76190478,-0.50903666,0
-3.0688901,-0.3142041,1.3177854,-0.91482925,-0.093663536,0.39282885,0
-1.0326104,3.3905656,-0.28246093,-0.29042134,0.95359552,-0.079442047,0
1.5003999,-2.8280542,-1.7918311,0.40896726,-0.77084887,-0.48840329,0
3.5347452,0.32381064,0.34088296,0.99126953,0.090808138,0.095595829,0
0.19344242,-2.4503026,2.4045718,0.056257587,-0.71260542,0.69930577,0
-1.8728774,-1.7093477,2.1025834,-0.56857342,-0.51892859,0.63830823,0
2.9372945,1.7662742,-0.86230987,0.83109152,0.49975768,-0.24398589,0
1.7218397,2.9008062,-0.89406598,0.49339089,0.83122224,-0.25619343,0
0.76807255,2.103853,2.5978551,0.22392705,0.61336601,0.75738943,0
-3.5290427,-0.095382467,0.17062052,-0.99846947,-0.026986493,0.048273537,0
-0.39629963,-3.4748149,0.89240414,-0.1097965,-0.96271229,0.24724437,0
-1.549311,-2.0215778,2.3493609,-0.44712391,-0.58341789,0.67801458,0
-1.4274794,-3.237592,0.18798725,-0.40286618,-0.91371989,0.053054154,0
-3.2507215,0.75458741,0.76195163,-0.94966084,0.22044402,0.22259539,0
-3.4386668,0.24863957,-0.17707005,-0.99608314,0.072023749,-0.051292114,0
1.6876168,-1.0923482,2.7395875,0.49664551,-0.32146505,0.80622792,0
2.5418327,1.6786118,-1.6418036,0.73455489,0.48509586,-0.47445881,0
0.44923708,3.1652601,-0.28532454,0.13996287,0.98615825,-0.088894799,0
1.3830725,2.901999,-1.1531655,0.40496361,0.84970528,-0.33764684,0
-3.2922235,0.78467852,-0.93662071,-0.93751359,0.22344983,-0.26671782,0
0.87436759,0.72854686,3.3028982,0.25028521,0.20854445,0.94544512,0
-2.8612745,0.38125625,1.9082776,-0.82688296,0.11017968,0.55147529,0
1.2049571,-0.14009981,3.2561498,0.34677273,-0.040319104,0.93708223,0
1.0631115,-2.7403715,1.913761,0.30309954,-0.78129649,0.54562485,0
1.2461838,-2.9686105,1.5674688,0.34801212,-0.82902092,0.43773487,0
-2.8169649,1.037464,1.5623983,-0.83239079,0.30656239,0.46167633,0
1.8655013,0.92878246,2.917691,0.52029359,0.25904006,0.81375229,0
1.0741575,-3.2275381,-0.1685072,0.31539422,-0.94767004,-0.0494771,0
2.4717607,-2.519192,0.33297229,0.69725889,-0.71063876,0.093928143,0
-2.2162428,-0.12737727,2.6858084,-0.63603461,-0.036555719,0.77079421,0
2.2222149,-2.3198557,-0.72155285,0.67493081,-0.70458621,-0.21914992,0
-2.1797116,-1.8911444,-1.7640218,-0.64446372,-0.55914462,-0.52155894,0
-1.6760199,-1.6544391,-2.5350008,-0.48438182,-0.47814482,-0.73263347,0
-0.76975161,3.1594741,1.1786712,-0.22254166,0.91343051,0.34076375,0
-2.3463085,1.3941436,1.9306926,-0.70183438,0.41702014,0.57751417,0
2.0717528,-1.6716068,2.0307317,0.61877006,-0.49925855,0.60651833,0
3.2191422,-0.60875612,0.042918801,0.98250103,-0.18579593,0.01309907,0
2.4209125,-1.4909605,-2.0914547,0.68589175,-0.42241821,-0.59254992,0
-0.89030713,1.0233026,3.2237115,-0.2545594,0.29258588,0.92173368,0
-0.89752167,3.0382073,-1.2163551,-0.26448345,0.89530486,-0.3584379,0
-0.99779892,-3.0185263,0.82152635,-0.30387375,-0.91927427,0.25019097,0
-0.64136076,-2.7201753,-2.2563632,-0.17855665,-0.75730449,-0.62817788,0
-3.1260264,1.2563508,-0.41653627,-0.92085606,0.37009227,-0.12270208,0
2.8417099,0.084160097,-1.8453153,0.83842719,0.024830865,-0.54444772,0
1.0642887,1.5225737,-3.0320289,0.29930559,0.42818719,-0.85268509,0
-2.0497794,-0.49976203,2.938199,-0.5666706,-0.13816144,0.81227815,0
3.2370672,-0.03560967,-0.37595695,0.99326372,-0.010926493,-0.11535887,0
-1.9139996,-0.1496406,2.9226227,-0.5473597,-0.042793758,0.83580261,0
2.729116,-1.2267625,1.6206535,0.80200368,-0.36050797,0.47626048,0
-0.49045131,-0.71212667,3.4498713,-0.13789961,-0.2002278,0.96999615,0
-0.38552985,-3.0968442,1.4203066,-0.11244024,-0.90319836,0.41423413,0
2.3066738,-1.4150423,2.1216161,0.67080706,-0.41151047,0.61699021,0
-0.0357696,-1.8060343,2.9907038,-0.010237724,-0.51691043,0.85597825,0
-0.92514163,-3.163162,-1.2045206,-0.26365605,-0.90146935,-0.34327623,0
-0.71135932,3.296768,0.39167267,-0.20951244,0.97097749,0.11535703,0
-2.971302,-0.55236232,1.7039083,-0.85642016,-0.15920772,0.49111852,0
2.1106451,0.84514177,-2.4420662,0.63257718,0.25329572,-0.73190671,0
1.2719827,2.5663176,-2.3708231,0.34209988,0.69021136,-0.63763314,0
2.3582003,-1.2644857,2.2101417,0.67948776,-0.36434671,0.6368264,0
-1.6539174,0.27517188,-3.1116924,-0.4679147,0.077849694,-0.88033819,0
-3.1694801,-0.74567723,-1.6107399,-0.87249887,-0.20527107,-0.44340673,0
-2.8535519,0.090323761,-2.0893164,-0.80658519,0.025530921,-0.59056634,0
-1.1773359,2.2098155,-2.3370185,-0.34374133,0.64518964,-0.68232852,0
3.1336207,0.52220213,1.742951,0.86479175,0.1441132,0.48100579,0
2.1184907,2.4000585,-0.94463623,0.63470489,0.71906328,-0.28301528,0
1.5154245,3.122421,1.0794786,0.41692844,0.85905051,0.29698962,0
1.5721247,3.1887643,0.68070936,0.43430915,0.88091582,0.18805017,0
-2.2860146,1.5773367,2.0629418,-0.66075355,0.45591608,0.59627622,0
0.88601971,2.7154396,2.061687,0.25151944,0.77084726,0.58526278,0
-1.0166564,2.9446321,-1.1160028,-0.30723375,0.88986832,-0.33725625,0
2.4561381,0.11067924,-2.2883279,0.73126203,0.03295235,-0.68130016,0
2.5577826,2.0990496,0.28246069,0.77021921,0.63208199,0.085056745,0
0.043762084,-3.3493214,0.77808595,0.012726007,-0.9739821,0.22626726,0
-0.090583473,-1.6131481,2.964016,-0.026833402,-0.47786036,0.87802589,0
-1.8800646,1.5521449,2.4508896,-0.5438472,0.44898969,0.70897001,0
-0.60504913,0.73307568,3.1441314,-0.18420403,0.22318102,0.95721424,0
-0.75361508,3.3818533,0.38282403,-0.21619022,0.97015524,0.10982107,0
0.017719645,-1.7855873,-2.9351785,0.0051575336,-0.51971847,-0.85432202,0
-3.4886427,-0.17396328,-1.0455112,-0.95681703,-0.047712263,-0.28674847,0
3.4722171,-0.41011271,0.13211474,0.99238861,-0.11721364,0.037759494,0
2.9879706,-0.28025684,1.7667254,0.85799503,-0.080475681,0.50731474,0
2.8469634,-2.1717279,0.16193558,0.79426801,-0.60588557,0.045178048,0
-1.0639569,-1.9359775,2.6072562,-0.31134617,-0.566526,0.76296258,0
2.2750325,-0.64888078,2.5202956,0.65815336,-0.18771735,0.72910655,0
-2.8810604,0.15921938,1.8439845,-0.84134638,0.046496302,0.53849262,0
-3.0259624,-0.70856011,-1.8257304,-0.83951586,-0.19658124,-0.50652635,0
-1.3366274,-2.4799442,-1.8391063,-0.39728865,-0.7371192,-0.54664153,0
2.8527453,2.1168332,0.19069764,0.80190569,0.59504104,0.053605039,0
-0.2852335,3.2608709,-0.34626991,-0.086655326,0.99066848,-0.10519849,0
-0.28816301,3.1704726,1.6028792,-0.080847263,0.88951051,0.44970515,0
-2.6871812,-0.20689987,-2.0680821,-0.79100752,-0.060903728,-0.60876745,0
-1.5871068,2.2140048,2.4375339,-0.43417579,0.60567272,0.66682231,0
-0.72719997,0.76611942,3.1952305,-0.21608759,0.22765251,0.94946325,0
-3.0171664,1.2737068,0.20659745,-0.91944468,0.38814661,0.062958054,0
1.1726398,-2.0811987,-2.3055391,0.35321146,-0.62687892,-0.69445264,0
-1.8043499,2.6450248,-0.92164367,-0.54154503,0.79385936,-0.27661574,0
-2.7196095,1.1740298,1.8216854,-0.78205383,0.33760527,0.52384579,0
2.0488997,1.3822242,2.6545153,0.56490511,0.38109505,0.73188031,0
-2.4222786,-2.4646103,0.38138968,-0.69672489,-0.70890081,0.10969988,0
-2.5105691,-0.079931289,-2.2861359,-0.73917794,-0.023533884,-0.67309886,0
0.34834659,1.5042439,-3.0173221,0.10277398,0.44380262,-0.89021164,0
1.4191279,-0.11990976,-2.986392,0.42892087,-0.036241833,-0.90261477,0
-1.7951201,2.6257777,1.5609547,-0.50664866,0.74109066,0.44055858,0
2.6598072,-1.4799414,1.4518346,0.78871447,-0.43884805,0.43051353,0
3.3118203,-1.0536667,0.67785585,0.93530899,-0.29757169,0.19143692,0
-1.0807984,-2.7065187,1.927523,-0.30932122,-0.77459747,0.55165124,0
-2.0604916,1.9818935,-1.7666639,-0.613105,0.58971792,-0.52567577,0
-3.4344218,-0.12523219,-1.0966793,-0.95203781,-0.034714948,-0.30400464,0
-2.8808801,-0.25613964,-2.0819554,-0.80840671,-0.071875602,-0.58421963,0
0.92979699,-0.21607256,3.3883481,0.26412863,-0.06138001,0.9625324,0
-3.0859547,0.11112969,1.8060861,-0.8626377,0.031064833,0.50486743,0
1.913412,-2.9499381,0.83391464,0.52949101,-0.81632483,0.23076594,0
-2.6945705,-1.5800231,-1.2505296,-0.80084234,-0.46959221,-0.37166482,0
0.95464283,-0.11863979,3.5077188,0.26246357,-0.032618087,0.96439046,0
0.19884515,-1.2245456,-3.314126,0.056191389,-0.34604275,-0.93653452,0
-3.0019615,1.2800418,-1.1671882,-0.86613673,0.36932227,-0.33676133,0
1.8562936,-2.4296262,1.6777462,0.53224683,-0.6966359,0.4810527,0
-2.1721611,-1.7711697,1.8258771,-0.6493718,-0.52949464,0.5458495,0
-2.8759165,1.3144302,1.0257679,-0.86512524,0.39540327,0.30856866,0
1.5318383,3.0965416,0.036364265,0.44337976,0.89627206,0.010525379,0
-3.1990476,0.87202269,-1.4439362,-0.88456303,0.24112146,-0.39926025,0
-0.98734665,-1.4774789,-2.7304831,-0.30307055,-0.45351887,-0.83813417,0
1.3690102,-3.1119509,1.1208067,0.38243142,-0.86931992,0.31309608,0
2.4172602,2.6125758,0.35378096,0.67580682,0.7304123,0.098908506,0
-0.54069656,-2.8968997,-1.6050215,-0.16112958,-0.86328679,-0.47830233,0
0.55538017,1.1794103,3.1228778,0.16411681,0.34851995,0.92282152,0
0.76810241,-3.2246768,1.5246677,0.21051303,-0.88378382,0.41786411,0
1.7119182,1.8956946,2.0510817,0.52258593,0.57868612,0.62612009,0
1.7181121,-1.5575119,-2.5577984,0.49763605,-0.4511196,-0.74084377,0
-3.049382,-1.0021598,-0.65721869,-0.93070269,-0.30586949,-0.2005899,0
2.7925129,1.0600895,1.6804281,0.81480688,0.30931574,0.49031985,0
-2.5783141,-2.0044186,-1.0342964,-0.75264674,-0.58511847,-0.3019259,0
-2.3393085,1.521452,-1.9029175,-0.69259208,0.45045173,-0.56339109,0
0.51571113,2.9396505,1.6538857,0.15113916,0.86152166,0.48470333,0
2.4607887,-2.2674041,0.571163,0.72492778,-0.66795832,0.16825984,0
-2.6638937,-2.2506325,-0.40504524,-0.75877047,-0.64105922,-0.11537111,0
-1.7140732,1.7484808,-2.2126777,-0.51938808,0.52981406,-0.6704722,0
0.28406778,-2.0579321,2.7783709,0.081883557,-0.59320629,0.80087537,0
3.1917956,0.89057738,0.98467499,0.92330712,0.25762188,0.28484198,0
-1.4811745,-3.0819767,0.69437701,-0.42450085,-0.88328671,0.19900669,0
2.9337142,0.87701464,-1.3887765,0.87255234,0.26084381,-0.41305327,0
0.69612318,1.2430403,-3.1172695,0.20310502,0.3626768,-0.909513,0
3.524049,-0.21911183,0.17017372,0.99691552,-0.061984375,0.04814031,0
-3.0017309,1.8989626,0.76988333,-0.82591248,0.52249086,0.21182987,0
3.2657115,-0.96250123,1.2573674,0.8998037,-0.26519862,0.3464433,0
-3.1339982,1.6922581,0.6604079,-0.86517048,0.46716422,0.18231198,0
-3.2230594,1.2587547,0.10831625,-0.93102604,0.36360902,0.031288672,0
-3.0314226,-0.2192753,-1.5665669,-0.88655764,-0.064128369,-0.45815185,0
-2.3511918,-1.5160002,-1.7736721,-0.70980614,-0.45766842,-0.53545755,0
-1.9947004,1.4224248,-2.4114769,-0.58025348,0.41377991,-0.70149279,0
-0.67251062,2.5320795,2.0426364,-0.20243804,0.76220238,0.61487103,0
-2.5814247,1.9879658,1.0298643,-0.7554493,0.58177465,0.30138794,0
0.16743186,3.227351,0.85638052,0.050080802,0.96533793,0.25615332,0
-0.76248163,-0.69678682,-3.1889813,-0.22746471,-0.20786652,-0.95134181,0
0.5569039,-1.2668424,3.0988109,0.16409606,-0.37328494,0.91308868,0
-1.6570072,0.32799301,-2.8379784,-0.50172335,0.099312626,-0.85930824,0
-2.8273587,0.88708347,-1.411865,-0.86136585,0.27025345,-0.43013018,0
3.246721,-1.2967367,-0.31200019,0.92499292,-0.36944115,-0.088889055,0
2.0211518,-1.2669436,2.4901826,0.58611917,-0.36740431,0.72213465,0
-3.4185555,1.0903695,0.28741089,-0.94967085,0.30290341,0.079842418,0
-1.2026882,-0.56142288,3.1097784,-0.35570076,-0.16604349,0.91973174,0
1.7466427,-0.81497979,-2.8935816,0.50237852,-0.23440874,-0.83226705,0
1.0150588,-2.100194,-2.4309044,0.30128989,-0.62337989,-0.7215414,0
0.46926802,0.52903503,3.3265157,0.13798541,0.15555954,0.97814173,0
1.0526744,-1.7280291,-2.559397,0.32264647,-0.52964383,-0.78445947,0
0.59010512,-2.3620217,2.4877932,0.16952784,-0.6785714,0.71470356,0
-1.7499257,-1.176793,2.6687274,-0.51447964,-0.34597811,0.78460807,0
0.87959963,1.5144808,-2.9406722,0.25698972,0.44248083,-0.85916644,0
2.3098216,0.21401532,2.5779612,0.66604024,0.061711613,0.74335867,0
0.30846807,0.99907953,-3.1689239,0.09243948,0.29939693,-0.94964021,0
-1.8955421,-0.71195412,2.9643929,-0.52801675,-0.19831988,0.82575274,0
0.34196162,2.6459022,2.1490943,0.099818483,0.77233797,0.62731993,0
1.4328675,0.23031573,-2.9020469,0.44160345,0.070982292,-0.89439803,0
2.6261492,2.4411094,0.52931839,0.72458655,0.67353183,0.14604539,0
-1.3156466,2.9593735,1.2658932,-0.37835783,0.85106599,0.36404955,0
0.10242384,0.22647923,3.3175151,0.030787369,0.068076923,0.99720496,0
0.72892207,-0.75476921,-3.4864602,0.20020188,-0.20730092,-0.9575727,0
2.5205445,-2.0437267,-0.82328278,0.75289601,-0.61046875,-0.24591762,0
0.64287949,-2.0509837,-2.4438617,0.19753073,-0.63018394,-0.75089937,0
3.5012023,0.19263814,-0.3437275,0.99372679,0.054675415,-0.097558267,0
-3.2486236,1.0816847,-0.13429406,-0.94805861,0.31567231,-0.039191563,0
2.291867,2.3773267,-0.79293782,0.67486459,0.70002908,-0.23348895,0
1.6008128,2.5583913,-1.5492285,0.47188824,0.75416362,-0.45668224,0
-2.6886704,-2.2763786,-0.62723714,-0.75138074,-0.63616091,-0.17528884,0
0.83738869,-3.3010142,-0.44529516,0.2438125,-0.96111703,-0.12965129,0
2.4930391,-2.422123,0.021961248,0.71722001,-0.69681817,0.0063180099,0
-0.21997383,-1.9439409,-3.0187054,-0.061151337,-0.54040331,-0.83918107,0
0.093400031,3.2036579,1.1197804,0.027511019,0.94363874,0.32983178,0
-2.8771961,-1.7387506,-0.45390746,-0.84816068,-0.5125615,-0.13380612,0
-1.8706487,-0.21005037,-2.871664,-0.54480004,-0.06117421,-0.83633167,0
3.0585277,-0.75523305,1.0436198,0.92158991,-0.22756542,0.31446156,0
-1.9454178,-1.9167271,1.8489121,-0.58987361,-0.58117425,0.56061196,0
-1.3361918,1.5058551,2.5577557,-0.41050249,0.46262616,0.78578925,0
-1.39127,-3.1203816,0.1928349,-0.40657476,-0.91187793,0.056352686,0
0.21411881,2.7218032,2.2017906,0.061047513,0.77601457,0.62775356,0
-0.39054787,-3.4191914,0.079851195,-0.11345386,-0.99327248,0.02319671,0
2.9600394,1.2855856,-1.4246508,0.83910072,0.36443293,-0.40385461,0
0.52923876,-0.84960246,-3.484251,0.14598969,-0.23436151,-0.9611252,0
3.2813954,0.031529095,1.5949723,0.89935052,0.0086413566,0.43714303,0
-1.4417428,2.7613459,-1.7467067,-0.40369534,0.77319092,-0.48908681,0
1.2519017,3.1675587,1.0418887,0.35148287,0.88932109,0.29251981,0
-0.94090873,3.1359317,0.97661823,-0.27539325,0.91785139,0.28584501,0
-0.39063558,-3.3308086,0.2019165,-0.11627062,-0.99139762,0.060099378,0
-0.29098964,2.3402262,2.4196305,-0.086123481,0.69263095,0.71613204,0
-3.2042935,-0.6073631,1.338874,-0.90889704,-0.1722784,0.37977129,0
-1.8149145,-3.1529758,-0.34606433,-0.49663273,-0.8627795,-0.094696954,0
2.9401617,-1.3846062,1.0645524,0.85974944,-0.40488058,0.31129184,0
-1.080685,2.8076248,1.7504926,-0.3104845,0.80664021,0.50292248,0
2.1031106,-1.1474934,2.5495701,0.60113114,-0.32798752,0.72874248,0
-0.12632303,1.4504098,-3.3223317,-0.034825332,0.39985585,-0.9159162,0
-3.3893757,-0.44397634,0.96910614,-0.95393473,-0.12495647,0.27275348,0
1.1462955,3.1719549,-0.20193444,0.33926442,0.93879056,-0.059765715,0
-2.0446546,-0.078323878,2.916111,-0.57395977,-0.021986479,0.81858832,0
1.2688172,-3.3345466,-0.38683808,0.35355937,-0.9291805,-0.10779349,0
0.59378326,2.4339049,2.437201,0.16988537,0.69635648,0.69729948,0
1.6636133,2.4676526,1.4115776,0.50506598,0.74916893,0.42854902,0
2.7836642,0.4613227,-2.2438529,0.77215409,0.12796521,-0.62241709,0
-0.13521205,-2.7157369,-2.0650477,-0.039600864,-0.79538417,-0.60481054,0
-1.0304965,3.1489899,-1.374318,-0.28728375,0.87788129,-0.38313496,0
1.359015,2.4156649,2.1542263,0.38713741,0.68814129,0.61366624,0
-0.87730575,0.60521263,-3.2539768,-0.25621662,0.17675197,-0.95032191,0
3.6225424,-0.10203001,-0.20144053,0.99806291,-0.028110746,-0.055499785,0
0.71867466,0.57803106,3.2335284,0.21373306,0.17190582,0.96164781,0
2.9831226,-0.68213439,-1.4286404,0.88331777,-0.20198347,-0.42302769,0
3.0091383,-1.3139846,-0.2742396,0.91325843,-0.39878777,-0.083230346,0
2.8661056,-0.49363884,1.914753,0.82311386,-0.14176762,0.54989588,0
-1.6384258,-0.23509344,-3.0773978,-0.4688862,-0.067279257,-0.88069248,0
0.47832736,0.17628703,-3.1922162,0.14796691,0.054533042,-0.98748767,0
-3.3364716,0.49986789,-1.3510709,-0.91807961,0.13754606,-0.37176719,0
2.4242895,0.77529746,1.9048568,0.76256841,0.24387243,0.59917915,0
0.06311354,-1.701093,3.0195498,0.018207645,-0.49074882,0.87111086,0
-2.7888227,-1.3745996,1.0980556,-0.84576666,-0.416875,0.33300748,0
3.3293273,0.07075233,0.35957432,0.99399644,0.021123657,0.10735369,0
0.75847089,-1.6846581,2.8451517,0.22358079,-0.49660069,0.83868909,0
-3.2452252,0.53721344,-0.28345126,-0.98293096,0.16271405,-0.085853219,0
3.1953986,0.66045827,0.47539982,0.969069,0.20029727,0.14417458,0
-2.6187997,-1.5672237,1.9994037,-0.7177645,-0.42954698,0.54799956,0
2.6301768,-1.1021417,-2.0561843,0.74811429,-0.31348768,-0.58485079,0
-2.9508147,-0.010962594,1.5202327,-0.88895547,-0.0033025653,0.45798171,0
3.5595937,-0.4689374,0.070378415,0.99124336,-0.13058543,0.019598342,0
-0.59966505,-2.9636428,-1.5626017,-0.17618546,-0.87073737,-0.45910245,0
-0.42957816,2.700491,-2.0352352,-0.12602331,0.79223025,-0.5970673,0
0.49086609,-2.1395025,2.9004154,0.13494894,-0.58819216,0.79738241,0
1.9397608,1.920681,-2.1058638,0.56263137,0.5570972,-0.61080986,0
1.6507288,-0.18965535,2.967217,0.48539826,-0.055768322,0.87251276,0
0.10440898,-2.4656329,2.4711165,0.029896291,-0.70600516,0.70757538,0
1.9902259,-2.6258872,1.2926242,0.56231034,-0.74190748,0.36521277,0
2.4833369,0.99127799,-2.2713318,0.7078355,0.28254795,-0.64740682,0
1.8172441,-2.163157,1.7447813,0.54727614,-0.65145034,0.52545345,0
-2.7803001,1.0042826,2.064642,-0.77107501,0.27852288,0.57259786,0
-3.1010995,-1.5861925,-0.55565929,-0.87918019,-0.44969502,-0.15753272,0
-2.2477193,-2.4036703,-0.13918802,-0.68240511,-0.72975171,-0.042257331,0
-3.3775072,1.0758368,0.37443399,-0.94755816,0.30182552,0.10504729,0
-1.2149533,1.380214,2.8674166,-0.35667369,0.40518922,0.8417871,0
2.4364898,-0.43435246,2.3730228,0.71060419,-0.12667924,0.69209397,0
-2.9815564,-1.7540007,-0.078226164,-0.86169571,-0.50692147,-0.022608042,0
2.5389798,2.3548794,-0.77605009,0.71544325,0.66356671,-0.2186783,0
2.693924,-0.37542453,-2.2847314,0.75838053,-0.10568772,-0.64318663,0
0.66784823,-0.41374817,3.5281606,0.18476555,-0.11446673,0.97609377,0
1.7574147,-0.6658718,-2.891777,0.50957185,-0.19307311,-0.83848631,0
3.2102625,0.95558089,-0.18163912,0.95703405,0.28487498,-0.054149721,0
0.67469615,-2.6958063,2.1590407,0.19172424,-0.76605058,0.61352122,0
0.61269224,3.4141614,-0.48046878,0.17496397,0.97496784,-0.13720547,0
3.0224845,1.658914,-0.28710988,0.87361467,0.47949016,-0.082985833,0
-1.760583,-2.7818599,0.32500824,-0.53219151,-0.84090447,0.098243944,0
3.3926013,0.87612772,-0.50675493,0.95826471,0.24746859,-0.14313659,0
3.2024267,-0.72910833,-1.4515959,0.89182752,-0.20304568,-0.40424758,0
1.4273951,2.6680551,1.3942488,0.42843464,0.80082047,0.41848576,0
1.152563,0.1306223,-3.3563321,0.32456356,0.036783446,-0.94514841,0
-1.7192745,2.9936149,-0.383737,-0.49497533,0.86185509,-0.11047703,0
3.4517636,0.89701635,-0.30717462,0.96428263,0.25058994,-0.085812122,0
-2.5732625,1.9614431,-0.30800354,-0.79172415,0.60348368,-0.094764471,0
-1.8850577,-0.87023175,2.6811876,-0.55588496,-0.25662276,0.79065585,0
2.9930499,0.97746426,1.2435123,0.88413709,0.28873974,0.36732945,0
2.5604081,-0.79907823,2.3621669,0.71638244,-0.22357592,0.66091609,0
0.4360438,2.222338,2.6143122,0.12606663,0.64251029,0.75583577,0
-1.3385682,1.758728,2.607919,-0.39156616,0.51447386,0.76288438,0
-2.7321653,-1.7541012,1.3509386,-0.77692878,-0.49880281,0.38415796,0
1.6411062,2.8262103,-0.30264387,0.50001466,0.86109388,-0.092209972,0
2.4855528,-2.0988834,-1.6047647,0.68520242,-0.57860774,-0.44239202,0
1.814608,1.9561013,2.217418,0.52304655,0.56383085,0.63915336,0
-1.4997467,-2.2008758,-2.3439434,-0.42272112,-0.62034255,-0.66066784,0
2.7673504,1.9095516,1.1718431,0.7772159,0.53630137,0.32911447,0
1.4311994,2.9432685,0.18831068,0.43658033,0.89782953,0.057443243,0
0.86737579,2.3160496,-2.6307404,0.24022311,0.64143896,-0.72859383,0
-1.7906322,-0.77059776,-2.6282003,-0.54721743,-0.23549476,-0.80317831,0
-2.33271,-0.39157701,-2.5240884,-0.67435449,-0.11319954,-0.72967935,0
-2.1117365,-2.6441214,-1.5232389,-0.56905723,-0.7125209,-0.41047266,0
-0.5010618,-2.2068393,2.4031141,-0.15179399,-0.66855013,0.72801054,0
3.3136389,-0.38880247,0.92263621,0.95725834,-0.11231894,0.26653513,0
1.2044787,3.3107255,0.26584229,0.3409189,0.93707663,0.075244717,0
1.0747609,2.6716988,1.7045459,0.32116687,0.79837394,0.50936317,0
0.47310171,-2.9515944,1.7260305,0.13705947,-0.85508871,0.50003797,0
-2.8057919,-2.0202262,-0.39488277,-0.80628484,-0.58054119,-0.11347527,0
-0.53655875,3.4342842,0.11945194,-0.15427229,0.98743129,0.034345027,0
-1.976529,-2.911998,0.84224212,-0.54618233,-0.80468428,0.23274021,0
-1.111676,-3.4087427,0.40968829,-0.30804875,-0.94457287,0.11352586,0
-1.7645286,-2.9111483,-0.39720619,-0.51485097,-0.84940952,-0.1158961,0
1.7564727,2.3010554,2.0121388,0.49822736,0.65269947,0.57074761,0
1.9401158,-1.120335,-2.6586187,0.55803347,-0.32224077,-0.7646957,0
-1.5449517,-0.55147541,3.1607487,-0.43384284,-0.15486158,0.88758004,0
1.71057,2.4232774,1.9731418,0.48015609,0.68021268,0.55385989,0
2.0903547,0.29238898,-2.6235509,0.62079751,0.086834237,-0.77914715,0
2.8936486,-0.92349654,1.7660435,0.82357085,-0.26283941,0.50263947,0
-0.1340096,-2.8599496,-1.9750848,-0.038527869,-0.82223785,-0.56783849,0
-1.0054878,-3.0130293,-1.3920624,-0.28993106,-0.86880296,-0.40139934,0
-1.3610471,-2.4449134,-1.6916653,-0.41624412,-0.74771905,-0.51735586,0
1.9946178,2.9144301,0.0017405307,0.56478685,0.82523668,0.00049284071,0
-0.34101343,1.2426207,-3.1883309,-0.099164292,0.36134529,-0.92714405,0
-2.3642104,0.73856699,-2.5568783,-0.66413027,0.20747083,-0.71825266,0
0.22784521,0.81153613,-3.245657,0.067946039,0.24200933,-0.96789193,0
2.1535602,-2.7895203,-0.90103728,0.59205055,-0.76688689,-0.24771059,0
-3.329901,-0.69935834,0.93641388,-0.94356793,-0.19817169,0.26534426,0
2.8550169,1.3334653,1.5782189,0.81011641,0.37837327,0.44782257,0
-0.14124863,-3.3758926,0.78563398,-0.040717624,-0.97316575,0.22647406,0
2.6867599,0.71212357,1.7633706,0.81622308,0.21633928,0.53570247,0
2.5164659,-2.1231079,1.1632911,0.72065604,-0.60800767,0.33313894,0
-1.9299891,3.1034124,0.3130067,-0.52617371,0.84608459,0.085335143,0
-1.5608673,-2.9476306,-0.42136413,-0.46428111,-0.87677491,-0.12533507,0
0.92731845,2.4992688,-1.9562907,0.28044811,0.75585169,-0.59163928,0
3.3549762,-0.55520731,0.3466374,0.98149598,-0.16242552,0.10140853,0
1.2734402,2.8102169,-1.8881023,0.35205457,0.77691096,-0.52198368,0
0.22720934,-0.6764586,-3.3412645,0.066501275,-0.19799079,-0.97794545,0
-0.66493279,2.4592614,-2.4040606,-0.18982892,0.70208442,-0.68632537,0
-3.0837104,-0.38165134,-0.89318591,-0.95380408,-0.1180463,-0.27626601,0
-1.0956805,-0.36821091,-3.1357658,-0.32784942,-0.11017603,-0.93828356,0
3.2942879,0.15169564,-0.59354782,0.98314422,0.045271907,-0.17713787,0
-2.5041325,-0.46428207,2.1982059,-0.74433053,-0.1380036,0.65339661,0
0.26372203,-3.1415944,0.79817671,0.081092477,-0.96601588,0.24543314,0
1.6311361,0.077681541,-2.8562307,0.49577245,0.023610765,-0.86813146,0
-0.95452666,-1.8404735,-2.8514388,-0.27074912,-0.52204573,-0.8088035,0
3.1950524,-0.57934123,0.91122943,0.94735986,-0.17177954,0.27018717,0
1.5968583,3.061209,-0.71955651,0.45277095,0.86797088,-0.20402205,0
-1.878655,-2.6044199,-1.3073267,-0.54183692,-0.7511602,-0.37705585,0
1.0779507,2.8380764,-2.0416558,0.29463851,0.77573729,-0.55805004,0
-1.8985738,-2.0376983,1.9178368,-0.56145042,-0.60259265,0.5671469,0
-2.6699674,-0.79858512,1.8372809,-0.79987687,-0.23924252,0.55041814,0
0.067419067,-2.4547391,2.5420754,0.019074764,-0.69451523,0.71922511,0
1.0905463,-2.2510509,-2.4387488,0.3121711,-0.64436793,-0.69809681,0
-2.8969011,-1.826705,-0.64032644,-0.83146489,-0.52429855,-0.18378568,0
-3.2076566,0.99677306,-0.61354101,-0.93941242,0.29192057,-0.17968509,0
-1.6927052,-1.2632997,-2.7516851,-0.48797244,-0.3641836,-0.79325485,0
-1.5992825,-3.1684468,-0.0373233,-0.45057982,-0.89267421,-0.010515419,0
-0.21632317,-2.4487276,-2.1256676,-0.066564046,-0.75348943,-0.65408176,0
3.2536554,0.091616347,0.60101265,0.98298717,0.027678929,0.18157661,0
2.5444477,-2.1325016,1.1707608,0.72279441,-0.60577404,0.33257487,0
0.46451584,3.2474885,0.57551885,0.13946734,0.97503364,0.17279515,0
-3.2004623,-1.3106407,0.82848555,-0.89994669,-0.36854261,0.2329641,0
3.2113383,1.0656819,0.51047683,0.93848413,0.31143576,0.14918217,0
2.6144011,1.9672778,-0.4240483,0.79242134,0.59627914,-0.12852845,0
1.1041932,-3.3970499,-0.52258885,0.30586848,-0.94100416,-0.1447604,0
-0.8182562,3.4198005,-0.37843013,-0.23136574,0.96696448,-0.10700288,0
-0.11563291,-3.461493,-0.080221616,-0.033377927,-0.99917448,-0.023156306,0
-2.4285371,2.1394649,1.4452991,-0.68514252,0.60358906,0.40774995,0
-0.85949194,-1.5731207,3.0126276,-0.24517556,-0.44874272,0.85937124,0
0.36297882,1.8595426,2.8249607,0.10671208,0.54668659,0.83050972,0
3.2455304,1.491225,0.097007804,0.90833813,0.41735443,0.027149919,0
1.7712244,2.3120804,-1.761413,0.52037412,0.67927408,-0.51749158,0
-0.60263222,-0.024942512,3.300487,-0.17961432,-0.0074341069,0.98370904,0
0.24319877,3.3851433,-0.86313415,0.069447555,0.96665752,-0.24647558,0
-3.4801571,-0.72466165,-0.4803082,-0.9701854,-0.2020185,-0.13389856,0
-0.82795954,-0.21368743,3.4810908,-0.23097849,-0.05961306,0.97113091,0
3.3792305,1.0121903,0.13808042,0.95721638,0.28671768,0.039113294,0
2.8625083,-1.8250617,0.62422574,0.82929593,-0.52873778,0.18084414,0
0.78859317,-3.0294061,1.4308586,0.22911701,-0.88016033,0.41572011,0
2.2521834,1.312799,-2.1125896,0.67120874,0.39124793,-0.62960619,0
2.1354165,1.3179538,-2.3642416,0.61937398,0.38227031,-0.68574435,0
0.71950877,2.5514317,-2.5413513,0.19592737,0.69477302,-0.69202811,0
-0.96652323,-3.1152868,-0.60928053,-0.29128003,-0.93885052,-0.1836182,0
-1.8775129,0.94647121,2.8223126,-0.53347236,0.26892823,0.80192566,0
3.0904739,-0.50581717,1.6512426,0.87294966,-0.14287548,0.4664177,0
-2.7121582,1.4437381,-1.5374525,-0.78940791,0.42021823,-0.44749495,0
0.6108427,-1.1617942,3.1858695,0.17727822,-0.33717486,0.92460018,0
0.55842751,1.3822278,3.0531878,0.16435467,0.40681303,0.89860487,0
-3.593807,-0.26231518,0.34832734,-0.99271929,-0.072459467,0.096218653,0
3.1723211,-1.5248535,-0.5839954,0.88913047,-0.42738223,-0.16368082,0
1.7602582,0.018190175,-2.8309777,0.52802604,0.0054565216,-0.84921068,0
0.92908692,3.2639415,0.3987641,0.27190554,0.95522147,0.11670186,0
0.23694713,-0.31007725,3.2661395,0.072034188,-0.094266437,0.99293756,0
1.4109427,-2.2163944,-2.2531998,0.40764269,-0.64034986,-0.65098351,0
2.0052524,0.96666837,2.6185274,0.58345073,0.28126302,0.76188999,0
2.3702559,1.6367801,-1.704738,0.70814532,0.48900971,-0.50931305,0
-0.7629841,-2.2522113,2.6104572,-0.21607183,-0.63781071,0.73926347,0
-0.6635465,-3.543653,0.11440993,-0.18395786,-0.98242223,0.031718358,0
