1.2684367,0.61324656,3.0910897,0.37339538,0.18052413,0.90993792,0
1.438904,-2.4078231,1.9243536,0.42300233,-0.70784068,0.56571251,0
0.7485224,-2.383559,1.9457898,0.23637597,-0.75270432,0.61446118,0
2.3718393,0.053865265,-2.3703527,0.70723718,0.016061593,-0.7067939,0
-0.2425575,-1.512467,-3.0605352,-0.070872165,-0.44192332,-0.89424884,0
0.0051840115,2.271389,-2.4643993,0.0015467772,0.67772472,-0.73531407,0
-2.0529695,-1.3430371,-2.0619776,-0.6406095,-0.4190819,-0.6434204,0
0.78162891,-2.700623,-1.7392616,0.23643059,-0.81689644,-0.52609956,0
0.68554562,-3.3413987,0.28918332,0.20026244,-0.97609353,0.08447659,0
-0.98990154,2.3085673,1.7621056,-0.32262319,0.75239539,0.57429564,0
-2.2347078,2.7072849,-0.058926031,-0.63649631,0.77109718,-0.016783493,0
-1.2935091,1.0557015,-2.795505,-0.39725095,0.32421759,-0.85853046,0
-0.8103078,-3.0261052,-0.54896182,-0.25477764,-0.95147043,-0.17260501,0
0.84551781,3.2707422,-0.30069321,0.24929632,0.96436048,-0.088657752,0
0.1320751,3.2670367,0.87338942,0.039025322,0.96533835,0.25806761,0
-2.2022548,-0.85101235,1.9894829,-0.71329832,-0.27563828,0.64438266,0
-2.2667649,2.0319667,1.1076663,-0.69973755,0.62725669,0.34193036,0
0.16890925,1.2807074,2.8973827,0.053244829,0.40371409,0.91333455,0
0.34350437,0.9657858,3.0216329,0.10765569,0.30268127,0.94699222,0
-1.8350971,-0.087662429,-2.6684227,-0.56643802,-0.027058695,-0.82365996,0
-3.3767982,0.099684075,0.31882116,-0.99514282,0.029376907,0.093956634,0
-1.2563974,0.83387095,2.8918889,-0.38522953,0.25567684,0.88669473,0
2.276998,1.7015536,-1.525025,0.70587349,0.52748471,-0.4727605,0
2.364238,1.2164903,-1.9160023,0.72140348,0.3711895,-0.58463264,0
-2.6529477,1.2501733,1.4509455,-0.81079084,0.38207653,0.44343629,0
-0.59867531,-3.3538113,-0.69512075,-0.17218067,-0.9645654,-0.19991864,0
-1.2625576,2.6957996,-1.3513502,-0.38620013,0.82461041,-0.41336066,0
0.9035213,2.8042953,1.4352245,0.27569592,0.85568845,0.43793714,0
-2.3525119,2.0604122,1.6236949,-0.667638,0.5847407,0.46080124,0
-1.2522123,1.7493726,-2.5528109,-0.37508899,0.52400893,-0.76467168,0
-3.1376772,-0.1092921,-0.67778772,-0.97688854,-0.034027144,-0.21102332,0
-1.2765836,-2.0011699,-2.0522532,-0.4068341,-0.63775235,-0.65403211,0
-0.27350825,3.0610325,-0.86316842,-0.085681662,0.95892662,-0.27040392,0
3.0516267,0.76571047,0.5201782,0.95694149,0.2401146,0.16311958,0
1.4750739,-2.5477681,-1.491981,0.44693112,-0.7719456,-0.45205379,0
0.56284302,-2.6067052,2.093663,0.16600852,-0.76883829,0.61751831,0
-1.3061014,-0.88676912,-2.7100534,-0.41644081,-0.28273979,-0.86408055,0
-1.3246017,0.48386914,-2.8883603,-0.41210446,0.15053931,-0.89861441,0
2.0362582,0.03886291,2.6651137,0.60707635,0.011586326,0.79455906,0
-1.2708436,-1.6067654,2.5994132,-0.38398293,-0.48548105,0.78540766,0
2.3341823,-0.36708304,2.4496114,0.68581998,-0.10785485,0.71973491,0
1.1502635,-2.8377595,0.82084662,0.36284339,-0.89515334,0.25893089,0
1.0336987,0.86948258,2.8932862,0.32373285,0.27230379,0.90611684,0
3.273592,-1.1396266,-0.31655338,0.94049484,-0.32741189,-0.090944998,0
2.2755957,-2.4440567,-0.091269612,0.68117929,-0.7316066,-0.027320746,0
-0.8299461,-2.7953374,1.7810932,-0.24289645,-0.81809837,0.52126426,0
2.3777285,2.3168309,-0.41554084,0.71067357,0.69247204,-0.1242,0
-1.523824,-0.44679981,-2.664536,-0.49126425,-0.1440434,-0.85901743,0
-0.60642844,0.72483373,-3.1153793,-0.1862742,0.22264427,-0.95693856,0
-1.3452785,1.4866068,2.5378208,-0.41594887,0.4596464,0.78467298,0
0.3961488,2.8489628,1.9698294,0.11363266,0.81720614,0.56503254,0
1.2919047,1.5800633,-2.7767642,0.3748821,0.45849934,-0.80575538,0
2.8801863,-0.2248819,1.3507371,0.90312672,-0.070515178,0.42354438,0
2.2480788,-0.72156632,2.0424724,0.72010142,-0.23113109,0.65424186,0
-2.6781399,-1.679965,0.050135344,-0.84701955,-0.53132522,0.015856385,0
1.4435602,0.54335809,-2.8758426,0.4423528,0.16650221,-0.88124967,0
-2.3610046,-0.9879753,1.8610536,-0.7460947,-0.3122074,0.58810651,0
-1.0013695,1.050902,-3.0292006,-0.29811126,0.31285727,-0.90180379,0
-2.202251,-2.5196431,0.70730215,-0.64386737,-0.73666257,0.2067924,0
-1.8788421,-2.2790444,-0.77059352,-0.61550438,-0.74660975,-0.25244468,0
-2.1020017,-1.092057,-2.346925,-0.63037515,-0.32750002,-0.70382589,0
0.86500162,1.2701011,-2.9478562,0.26020247,0.38206106,-0.88674915,0
-2.5559874,2.2987204,-0.11208303,-0.74314052,0.6683414,-0.032587577,0
-1.7821869,1.2661322,-2.4701982,-0.54027599,0.38383228,-0.74884892,0
1.0019399,-1.5523542,2.5316017,0.31968802,-0.49530819,0.80775571,0
-0.74664789,-1.2024108,-2.8964493,-0.23160705,-0.3729828,-0.89846647,0
-0.76623929,1.1870426,-2.8144698,-0.2433127,0.37693515,-0.89371067,0
-2.5131195,-0.13047877,-2.3524868,-0.72952956,-0.037876479,-0.68289977,0
-0.027887894,-1.7285144,2.8539371,-0.0083579533,-0.51803273,0.85531998,0
-1.160538,2.987304,0.87741619,-0.34926993,0.89904469,0.26406297,0
-2.1553574,-2.0896664,-1.7845056,-0.61715972,-0.59834993,-0.51097095,0
2.2554476,2.1708562,1.2198685,0.67131943,0.64614135,0.36308601,0
0.28664863,-3.0806255,-1.3434212,0.084983014,-0.91331619,-0.39828548,0
0.79824126,-1.425885,-2.8458593,0.24324359,-0.43450195,-0.86720276,0
1.2384433,-1.3321879,-2.488445,0.40178663,-0.43220007,-0.80732316,0
-3.3465691,0.26872319,-0.052320901,-0.9966706,0.080030777,-0.01558214,0
0.23821761,1.6438195,2.5624552,0.078009576,0.53830469,0.83913207,0
0.62655681,-2.5079498,2.1999452,0.18458389,-0.73884302,0.64810473,0
1.4093618,-0.38466185,-2.8679357,0.4378818,-0.11951254,-0.8910535,0
2.066395,0.50888133,-2.5942485,0.61583167,0.15165795,-0.77314371,0
0.31745216,2.9324546,-1.3191911,0.098247416,0.90755749,-0.40827292,0
1.1521294,-0.66914725,3.1864324,0.33358625,-0.19374414,0.92259598,0
-2.3218966,-0.65060937,-2.586776,-0.6565764,-0.18397667,-0.73147798,0
-1.3834629,0.27081433,2.7953823,-0.44189784,0.086501971,0.89288509,0
2.1961601,-2.3446493,0.53159171,0.67444694,-0.72004843,0.16325331,0
2.8050392,1.0538694,1.5089974,0.83607972,0.31411996,0.44977704,0
2.0941637,-1.8391446,-1.5065185,0.66099209,-0.58049905,-0.47551051,0
1.3388004,2.7432809,-1.2581816,0.40549242,0.83087784,-0.38107479,0
-2.2657962,1.8372885,1.8745207,-0.65344524,0.52986556,0.54060316,0
-3.1520479,-1.1983007,0.12572055,-0.93408316,-0.35510644,0.037256237,0
0.99537492,2.5947795,-1.5684452,0.31191373,0.81310803,-0.49149278,0
-2.0809774,0.43367651,2.4854515,-0.63629198,0.1326035,0.75996637,0
0.081015818,-0.1910398,3.3725963,0.023976455,-0.056537814,0.99811256,0
2.4125681,-1.8618835,-0.81949377,0.7645027,-0.58999991,-0.25968394,0
-1.465091,3.0921464,0.66224325,-0.42037833,0.88722908,0.19001736,0
1.3799731,-2.4486594,-1.5973151,0.42685235,-0.75741768,-0.49408042,0
1.7716243,-2.6331868,-0.8009333,0.54125196,-0.80446935,-0.24469449,0
1.8470526,1.0557346,2.4899094,0.56398022,0.3223587,0.76027054,0
-1.5682721,2.2611225,1.3426067,-0.5122025,0.73848957,0.43849948,0
2.3164163,-1.2921267,1.7291926,0.7315836,-0.40808669,0.54612333,0
1.1127549,-2.0868585,2.3274655,0.33535129,-0.62891716,0.70142901,0
2.7938285,1.0096242,-0.72918451,0.91336077,0.33006722,-0.23838562,0
0.19859149,0.61266404,-3.4016314,0.057362154,0.17696492,-0.98254412,0
-1.628123,-2.8711047,-0.0053016464,-0.4932788,-0.86986977,-0.0016062605,0
1.2550287,-0.27506927,3.1862533,0.365307,-0.080065683,0.92743748,0
2.7862983,1.2693545,1.3003327,0.83760726,0.38158891,0.39090148,0
-1.8288091,2.710243,0.92223316,-0.53833985,0.79780436,0.27147442,0
2.4538264,-1.039253,-1.8729479,0.75335836,-0.31906492,-0.57502067,0
0.47362697,2.8057752,1.2791742,0.15181457,0.89935237,0.41002157,0
1.0828694,-3.1542695,-0.23048545,0.32392874,-0.94356585,-0.068947248,0
-1.6001364,-1.6406388,-1.9861696,-0.52763534,-0.54099077,-0.65492743,0
3.0482881,0.71855849,1.0973697,0.91856724,0.21652949,0.33067995,0
1.099504,-3.1334779,-0.50224477,0.32737485,-0.93298596,-0.14954224,0
2.4659696,-0.51439106,2.2027266,0.73692805,-0.15372014,0.65826076,0
-1.8446894,-2.711287,-0.21638633,-0.56130081,-0.8249886,-0.065841891,0
-0.68379653,2.1999257,2.3907592,-0.20595738,0.66261077,0.72008926,0
1.0474553,-2.5030591,-1.9011713,0.3161515,-0.75549376,-0.57382703,0
-1.3192996,-1.1752567,-2.6298251,-0.41641369,-0.37094912,-0.83005804,0
-2.9558485,-0.16701312,1.4243464,-0.89969867,-0.050835315,0.43354136,0
0.97338963,-3.2364275,-0.62321585,0.2832405,-0.94174761,-0.18134564,0
3.2123268,0.48039842,-0.43351057,0.98030889,0.14660364,-0.13229485,0
-2.1593866,-2.6365862,0.61480331,-0.6235556,-0.76135421,0.17753378,0
-3.3123736,0.72078431,0.2350066,-0.97479361,0.21211857,0.069159754,0
3.1679015,1.2752168,0.30424926,0.92400104,0.37195021,0.088742226,0
-0.23683731,2.0888207,-2.8143263,-0.067421421,0.59463286,-0.80116546,0
3.1046383,-0.76822364,-0.52148873,0.95807123,-0.23706883,-0.16092804,0
1.0961295,-1.8070848,2.4489005,0.33885157,-0.55863243,0.7570399,0
2.6350331,-1.9848845,0.51858801,0.78905588,-0.59437007,0.15529025,0
1.9453887,-2.7995634,-0.34378457,0.56776309,-0.81705457,-0.10033377,0
1.4815917,1.3356526,-2.7152452,0.43974334,0.39642793,-0.80589747,0
0.82434517,-2.6573498,-1.590731,0.25721282,-0.82914835,-0.49634114,0
-1.9086415,0.35197899,2.6486852,-0.58125669,0.1071915,0.80662918,0
1.8612726,2.1117735,-1.7431035,0.56215811,0.63781661,-0.52646762,0
-0.31925812,-2.3902142,-2.1160007,-0.099513344,-0.74503416,-0.65956134,0
-3.1527724,-0.94488323,-0.51511782,-0.94638491,-0.28363076,-0.15462573,0
-0.39016619,0.59893149,3.0698166,-0.12378607,0.19001999,0.97394532,0
2.0980532,-2.4008775,-1.1458057,0.61925018,-0.7086302,-0.3381899,0
-0.069168955,-2.6720769,2.0280795,-0.020614974,-0.79638034,0.60444468,0
0.38503239,-2.9864798,1.2060907,0.11869948,-0.92068511,0.37181896,0
-2.077415,-2.5125055,0.32290938,-0.6341188,-0.76692766,0.098566204,0
2.8299699,-0.88681376,-1.5181637,0.8494162,-0.26617739,-0.45567724,0
-0.62855273,-1.0829279,-3.0977621,-0.18811913,-0.32410878,-0.92712712,0
0.31249461,2.95316,1.942814,0.08805868,0.83217877,0.54747069,0
3.1860249,-0.8979215,0.41857988,0.95490056,-0.26912084,0.12545481,0
-1.5263709,2.1919503,-2.1316686,-0.44664985,0.64141309,-0.62377334,0
-1.077843,3.0826118,1.0763322,-0.31347042,0.89651984,0.31303105,0
-2.5423081,0.64087397,1.9884238,-0.77260315,0.19476052,0.60427868,0
-0.42279482,-2.4579575,-2.367151,-0.12295683,-0.71482116,-0.6884129,0
0.62365133,2.5805018,-1.7246902,0.1969945,0.81511039,-0.54478276,0
0.044088785,0.92369986,-3.2322247,0.013114206,0.27475446,-0.96142501,0
-0.38360736,1.1969963,2.9035165,-0.12124449,0.37832749,0.91769713,0
1.7848568,2.0865231,-1.8383392,0.54015231,0.63144577,-0.55633771,0
2.9445889,1.2327924,-0.67218697,0.90262765,0.37789741,-0.20605068,0
-1.7089618,-2.6276863,-0.65789264,-0.53357899,-0.82042688,-0.20540991,0
0.46699983,3.0336695,-0.24566868,0.15166177,0.98520732,-0.079782777,0
1.0602118,-2.3662474,-2.0765412,0.31915563,-0.71231169,-0.62510139,0
-2.8898242,-0.95674169,1.3999151,-0.86249185,-0.28554747,0.41781622,0
2.3494782,-2.6253064,-0.068981826,0.66674906,-0.74502522,-0.019576076,0
-0.071373701,-3.3409796,0.082662672,-0.021351701,-0.99946612,0.024728838,0
-1.8899575,-2.6043918,-0.69246989,-0.57418442,-0.79123539,-0.21037798,0
2.8411894,-1.3716867,-1.1036621,0.85003275,-0.41038397,-0.33019584,0
1.7278665,2.1640165,1.4033852,0.55656666,0.69705582,0.45204729,0
-1.5967492,2.3350065,-1.781857,-0.47761336,0.69843799,-0.53298205,0
2.1012959,2.2444983,1.3495883,0.62580138,0.66844946,0.40193015,0
1.0391341,-1.437718,-2.7509372,0.31745774,-0.43922597,-0.84041727,0
2.3052769,-0.41311973,2.3519063,0.69454855,-0.12446736,0.70859736,0
0.65832192,-2.43085,2.1984699,0.19692513,-0.72714496,0.65763259,0
1.0927701,-2.2229965,1.9952534,0.34356204,-0.69890016,0.62729877,0
1.3657492,3.0295477,-0.97482121,0.39436126,0.87478447,-0.28148046,0
-0.57857287,-0.84947354,3.2528479,-0.16960187,-0.24901323,0.95353431,0
-2.4667857,1.514523,-1.5784727,-0.74818486,0.45936021,-0.47875637,0
1.8241252,1.8152593,-1.9169351,0.56845254,0.56568968,-0.59737492,0
-1.1751021,0.23731102,-2.8733795,-0.37742922,0.076221555,-0.92289627,0
0.83158743,-3.2197239,-0.82559502,0.24270469,-0.93969929,-0.24095577,0
-0.88660604,-2.7511592,-1.8610638,-0.25789884,-0.80026615,-0.54135227,0
-1.9159688,0.26991862,-2.7486305,-0.56999755,0.080300346,-0.81771302,0
0.39616397,-3.3162906,0.19264923,0.11841975,-0.99129236,0.05758594,0
-1.6477444,2.4903696,1.7726824,-0.47448981,0.71713489,0.51046735,0
1.9942578,0.63485616,-2.4166825,0.62380099,0.19858211,-0.75593483,0
-1.7183386,2.2718608,-2.0766177,-0.48745713,0.64447993,-0.58909351,0
-1.4638875,2.8979015,0.91198969,-0.43408945,0.85932046,0.27043411,0
-1.8774101,2.7824583,-0.63270938,-0.54964006,0.81460655,-0.18523519,0
-2.3760629,1.3772182,-1.9697502,-0.7030412,0.40749812,-0.5828194,0
0.79554182,1.2894628,-3.0785573,0.23185545,0.3758055,-0.89722532,0
2.2349405,2.1967466,-0.74794608,0.69369036,0.68183553,-0.23215069,0
2.6323068,0.58602899,-2.0590546,0.77581435,0.17271912,-0.60686094,0
-3.0553291,1.1108364,0.9507513,-0.90202999,0.32795411,0.28069192,0
1.8400176,-0.52726364,2.5201814,0.58142918,-0.16661061,0.79635489,0
0.81684464,2.8226931,-1.5406302,0.24619424,0.85075027,-0.46434081,0
-1.578658,2.9818704,-0.62851477,-0.45997959,0.86883897,-0.18313275,0
-1.0614797,-2.2458785,2.2249579,-0.31830019,-0.67345947,0.66718614,0
0.88546532,-2.8665566,1.9379337,0.24791396,-0.80258298,0.54258567,0
2.914067,1.1803921,1.003306,0.88298029,0.35766611,0.30400792,0
0.71579826,3.1664798,-0.1838747,0.22013861,0.97382814,-0.05654934,0
-0.51955336,2.9836733,1.6284838,-0.15109296,0.86769152,0.47358453,0
2.67751,-0.86903256,1.4643823,0.84380972,-0.27387318,0.46149597,0
-0.69023013,2.9853723,-1.373033,-0.20556694,0.88911486,-0.40892187,0
0.69695622,-1.6795229,2.6795807,0.21522173,-0.51864064,0.82746089,0
2.6353803,0.8110913,1.6790791,0.81631792,0.25123826,0.52010036,0
2.7591581,-1.7435638,-0.64672142,0.82923746,-0.52401072,-0.19436568,0
0.56218338,0.43119892,-3.3698955,0.16325594,0.12521856,-0.97860503,0
2.9166238,-1.6968143,0.041649446,0.8642993,-0.50282639,0.012342212,0
-0.20769976,-2.0668802,2.6470568,-0.061726779,-0.61426097,0.78668499,0
2.7161021,-1.103049,1.209929,0.85643303,-0.34781006,0.38151109,0
1.136248,-3.3275683,-0.15364257,0.32283714,-0.94544733,-0.043653786,0
-0.80395234,0.64400405,2.9705405,-0.25570413,0.20483117,0.94480664,0
-1.2666401,-2.9163406,-1.3266521,-0.36765322,-0.84649301,-0.3850722,0
-0.13440531,3.139235,1.1833744,-0.040030606,0.93497401,0.35245028,0
2.5228171,1.9262635,1.4438041,0.7234773,0.55240148,0.41404489,0
-0.28103593,2.9924593,1.5551873,-0.083045013,0.88425994,0.45955175,0
0.27229831,2.4711866,-2.0875618,0.083878152,0.76121873,-0.64304781,0
-0.67418236,1.5552531,2.9906864,-0.19611637,0.45241559,0.86997616,0
-0.9235999,2.9729865,0.64897293,-0.29043373,0.93488055,0.20407499,0
0.60750949,-2.1369698,2.3626714,0.18732168,-0.658921,0.72851467,0
0.20918371,2.7763491,-1.9424362,0.061618157,0.81781471,-0.57217336,0
0.62525487,2.6057615,-1.6437066,0.19889282,0.82888961,-0.52286106,0
0.038801908,-1.515714,-2.8609281,0.011983776,-0.46812069,-0.88358331,0
1.5786117,0.5679841,-2.985893,0.46091729,0.16583793,-0.87181014,0
3.3282013,0.1955072,-0.14595255,0.99732387,0.058585398,-0.043735925,0
2.9604862,-0.84482741,-1.1840242,0.89752406,-0.25612447,-0.35895801,0
-0.44015396,-0.58641142,-3.3370464,-0.1288262,-0.17163348,-0.97670144,0
2.7113893,0.13077135,-1.9490556,0.81135875,0.039132144,-0.58323723,0
-1.8991129,-2.6373751,-0.32067451,-0.58152193,-0.80758303,-0.098192818,0
-1.3840318,-0.5697872,2.7303748,-0.44449702,-0.18299341,0.87688988,0
1.9664088,-1.690533,-2.1393917,0.58492833,-0.50286627,-0.63638383,0
-1.0064471,1.8007354,2.6646457,-0.29866186,0.53436589,0.79073012,0
0.057773624,-1.5901772,-2.7081234,0.018393336,-0.50626326,-0.8621828,0
-3.3565731,-0.057457484,0.30287278,-0.99580902,-0.017046159,0.089854576,0
2.6451364,2.0165813,0.74686396,0.77593166,0.59154958,0.21908715,0
1.3625926,3.0237713,1.04609,0.39181247,0.86948317,0.30080238,0
1.4596633,-0.18386044,2.9039469,0.44838852,-0.056479398,0.89205259,0
-1.1160489,-2.7310522,1.0825678,-0.35513142,-0.86903214,0.34447756,0
-0.74709612,3.0612462,-1.1289535,-0.22319864,0.91456234,-0.33728039,0
-0.87581962,0.37288374,3.3398881,-0.25218767,0.10736991,0.96170324,0
1.9331702,-2.4921563,-1.3037959,0.56643069,-0.73021704,-0.38202018,0
1.9188849,-2.3911302,-1.1252624,0.58755893,-0.7321595,-0.3445532,0
-1.9624314,0.012062749,-2.7226367,-0.58471942,0.0035941759,-0.81122762,0
0.99314499,1.1313069,-2.8731952,0.30617872,0.34877294,-0.88578326,0
3.0263164,-0.77022028,0.49891791,0.95696938,-0.2435559,0.15776578,0
0.70682323,-3.0394635,-0.03670796,0.22648908,-0.97394264,-0.011762421,0
-3.0725975,-1.11341,0.64562774,-0.92234969,-0.33422971,0.19380818,0
-0.6544264,2.3462522,1.9440818,-0.20998703,0.75284636,0.62380117,0
-1.7075651,0.31304917,2.7576311,-0.5240221,0.096069358,0.84626913,0
1.6268085,2.569541,1.5777963,0.47482148,0.74997962,0.46051615,0
2.7547266,1.7249562,-0.41220191,0.84081352,0.52650106,-0.12581465,0
-0.50235176,1.8786168,-2.6935213,-0.15121329,0.56548393,-0.81077892,0
1.665928,-0.34440565,2.8040183,0.5079509,-0.10501124,0.8549611,0
1.4252688,-2.9648159,0.22726186,0.43223372,-0.89912403,0.068920501,0
-2.4969525,-0.93199795,1.8471287,-0.77001631,-0.28741181,0.56962204,0
-1.5765587,0.84493876,-2.7747388,-0.47755578,0.25594062,-0.84049684,0
-2.1863205,-0.71077883,2.7259085,-0.61311555,-0.19932555,0.76443356,0
-1.9991711,1.7599368,-1.9030538,-0.61071724,0.53763467,-0.5813548,0
0.75649357,-1.8257558,2.4659114,0.23938729,-0.57774812,0.780321,0
1.5527375,2.6058795,-1.7040287,0.4462826,0.74897319,-0.48976624,0
2.5553684,1.119686,1.8601233,0.76207829,0.33391991,0.55473787,0
2.8169212,0.52721697,1.0834532,0.91942054,0.1720794,0.35363045,0
-0.92918682,-2.6179731,1.4963026,-0.2944819,-0.82969928,0.47421467,0
-1.2858456,-2.8640008,0.34653273,-0.40710923,-0.90676606,0.10971509,0
2.8788571,0.55499971,1.2642757,0.90165997,0.17382628,0.39597198,0
-0.86967134,-2.9772635,-0.58607745,-0.2755118,-0.94319677,-0.18566927,0
-0.4078353,-1.6624683,-2.7522261,-0.12583147,-0.51292968,-0.84915811,0
1.0229262,1.2054229,2.8810208,0.3112708,0.36680356,0.87667876,0
-2.7227061,1.0565863,-1.8096869,-0.79246032,0.3075259,-0.52672046,0
0.62597126,-2.1835442,2.4993253,0.18534522,-0.64653045,0.74003077,0
0.62767726,-3.1226428,0.66877055,0.19286114,-0.95946831,0.20548752,0
0.16640776,-3.4779541,0.19101883,0.047720022,-0.99735761,0.054777633,0
-3.0872138,-0.021765638,-1.3823596,-0.91266292,-0.0064345049,-0.40866247,0
0.60585219,3.385726,-0.3644509,0.17516457,0.97888434,-0.10537039,0
0.96510476,2.3106251,-1.8844801,0.30795094,0.73728698,-0.60131031,0
0.38773727,3.1513021,1.1274844,0.11507905,0.93529528,0.33463338,0
2.0660739,-2.5602396,-0.75699419,0.61201143,-0.75839299,-0.22423647,0
-2.8333993,-1.7757007,0.93042362,-0.81633645,-0.51160073,0.26806626,0
3.3590178,0.38738075,0.1703902,0.99215668,0.11442106,0.050328337,0
-0.30616981,3.2049642,-0.8966592,-0.091610417,0.95897144,-0.26829335,0
-2.8945253,0.93988442,1.3276618,-0.87176806,0.28307274,0.39986283,0
0.11994843,-2.319464,2.388845,0.036001105,-0.69615972,0.71698362,0
-1.0180376,1.2208434,-3.0361612,-0.29705361,0.35623041,-0.88592273,0
0.32657114,0.065438963,-3.2432878,0.10016461,0.020071181,-0.99476844,0
0.54426199,3.0196545,0.80515718,0.17157274,0.95191365,0.25381714,0
2.0022333,-1.0395764,2.1219051,0.64648277,-0.33565933,0.68512255,0
2.5872002,-0.59729111,2.2655354,0.74122947,-0.17112313,0.64907295,0
2.8860199,0.41481882,1.0336454,0.93293685,0.13409463,0.33413693,0
-0.73081923,1.9490259,2.3737001,-0.23148468,0.61734778,0.75186199,0
0.52386218,-2.5777352,1.9716758,0.15935709,-0.78413826,0.59977704,0
-2.6563544,1.0759656,-1.7444828,-0.79172069,0.32068923,-0.5199393,0
-2.1592507,1.3819566,2.0064154,-0.66327518,0.42450723,0.61632746,0
1.6018149,1.9955286,2.126085,0.48147547,0.59981841,0.63906121,0
-1.8525162,-2.3032069,-1.5169312,-0.55760098,-0.69325739,-0.45659107,0
-1.280409,-0.83969921,2.8516514,-0.39558652,-0.25942782,0.88102698,0
-2.2936752,-1.2289461,1.9295024,-0.70803797,-0.37936518,0.59562093,0
0.98668855,1.2835674,2.9203105,0.29549903,0.38440996,0.87459093,0
-1.0564952,-3.3216085,-0.24944872,-0.30233136,-0.9505263,-0.071383357,0
1.6856217,2.611557,-0.8022759,0.52508783,0.81352586,-0.24991687,0
-1.1647898,-3.0464196,-0.023614394,-0.35712337,-0.93402922,-0.0072401492,0
-1.6342814,-1.5411605,-2.4929976,-0.4870086,-0.45925897,-0.74290222,0
0.47665381,-3.2827964,-0.75604695,0.14009805,-0.96487927,-0.22221726,0
3.1262898,-0.92727059,0.51203769,0.94711268,-0.28091756,0.15512234,0
-0.92999667,-2.623457,-1.4608287,-0.2958498,-0.83457202,-0.46471766,0
-1.037755,2.4593449,-2.0478005,-0.30845702,0.73100311,-0.6086778,0
-1.561564,1.5127842,-2.2880852,-0.49474254,0.47928792,-0.72492266,0
-3.1468201,0.71628493,-0.82775426,-0.94448787,0.21498606,-0.2484425,0
-3.2046525,-0.71151042,0.072508872,-0.97598988,-0.21669337,0.022082871,0
-2.6785131,1.7216257,-0.84771913,-0.81290114,0.52249569,-0.25727403,0
2.5350151,2.1032586,0.31861889,0.76602584,0.63555849,0.096279629,0
-3.0966582,0.17930564,1.2458208,-0.92639971,0.053641275,0.37270114,0
2.2400124,-0.44966525,2.2653048,0.69622499,-0.13976181,0.70408618,0
2.6655579,-1.8572928,0.10473782,0.82004726,-0.57138801,0.032222133,0
2.8980231,1.5898131,0.15381493,0.87579137,0.48044634,0.046483338,0
-2.905735,-0.63956481,-1.1691839,-0.90896004,-0.20006603,-0.36573926,0
-2.7733586,-1.71074,-0.4609744,-0.84271139,-0.51982462,-0.14007145,0
-0.5401985,-0.22573349,3.367413,-0.15804848,-0.066043936,0.98522025,0
-2.6675508,-1.6612731,0.22355923,-0.84670782,-0.52730501,0.070959978,0
0.45008579,-2.8595557,-1.2439677,0.14285134,-0.9075855,-0.39481902,0
-1.9857937,2.6974213,-0.012720935,-0.59285033,0.80530375,-0.0037977814,0
-0.88137239,-0.91897881,-3.0215545,-0.26880193,-0.28027117,-0.92151695,0
-2.4762082,-1.2151272,-1.6905342,-0.76541299,-0.37560418,-0.52255577,0
-2.4922466,-1.6088442,1.2650149,-0.77281529,-0.49888295,0.39226568,0
0.4163475,-2.5639768,2.0661635,0.12544028,-0.77249402,0.62250918,0
-0.65138412,2.5518022,2.0889311,-0.19377828,0.75912786,0.62142974,0
-2.3130937,2.5208635,-0.45233411,-0.67025751,0.73046231,-0.13107136,0
-2.9947591,-0.066731028,-1.5646931,-0.88614362,-0.019745586,-0.46298978,0
2.8552713,0.98383409,-1.4605625,0.85113573,0.29327381,-0.43538308,0
1.4667888,0.84425741,2.8810713,0.43897712,0.2526674,0.86224031,0
0.12060757,-3.2653992,-0.6993807,0.036092404,-0.97718662,-0.20929308,0
-0.75969052,-0.72148561,-3.2440605,-0.22284545,-0.21163853,-0.95160341,0
-1.0116218,2.0486746,-2.432266,-0.30314225,0.61390513,-0.72885203,0
-2.9400156,-0.87511599,1.0410655,-0.90759653,-0.27015239,0.32138178,0
0.8093248,-2.8422253,-1.1273315,0.25587818,-0.89860511,-0.35641998,0
-0.93993998,-2.9390967,-1.1055566,-0.28675863,-0.89666504,-0.33728525,0
2.7264752,0.27504644,-1.9768643,0.80689991,0.081399947,-0.58505267,0
-0.36081994,0.15054487,-3.2804978,-0.10921649,0.045568384,-0.99297297,0
-1.5443828,2.0940747,1.9750683,-0.47276911,0.64104176,0.60461128,0
-3.4481833,-0.029912962,-0.34297574,-0.99505264,-0.0086320732,-0.098973542,0
-2.3558865,2.0414815,0.69557244,-0.73759633,0.63916039,0.21777438,0
-2.0617592,-1.9619687,-1.63908,-0.62775838,-0.59737444,-0.49906227,0
-3.0367284,-1.2454276,-0.58592761,-0.91081321,-0.37354407,-0.17573866,0
1.3738987,-2.6126251,1.6949682,0.40362853,-0.7675457,0.49795341,0
-0.089677766,-2.9572306,-1.4629774,-0.027170643,-0.89598411,-0.44325408,0
-1.8656417,2.6179681,-0.52299285,-0.57281393,0.80380309,-0.16057616,0
0.67608851,3.1559904,0.32252264,0.20843323,0.97296917,0.09943141,0
0.39184907,1.6903093,-2.7082119,0.1218292,0.52553153,-0.84200609,0
2.8266811,1.8906623,-0.55368012,0.82040411,0.54873794,-0.1606978,0
-1.5441537,-0.66815674,2.6845765,-0.48738411,-0.21089156,0.8473379,0
-0.21314996,-0.7949419,3.3185601,-0.062341057,-0.2325007,0.97059619,0
0.97455359,3.0975945,0.51601249,0.29639474,0.9420833,0.15693685,0
2.6081977,-1.1316917,1.7026824,0.78702575,-0.3414889,0.51378578,0
2.5220156,-1.8805647,0.51254219,0.79123503,-0.58999187,0.16080049,0
-2.7210193,-0.077471808,-2.1494446,-0.78450865,-0.022336226,-0.61971551,0
-0.47797263,2.7194073,1.9781204,-0.14072271,0.80063659,0.58239001,0
2.8058379,0.15569507,-1.7329769,0.84985691,0.047158293,-0.5248993,0
1.4508202,-0.10398927,-2.9776008,0.43780109,-0.031379916,-0.89852411,0
0.18062314,1.8021445,-2.723701,0.055220954,0.55096006,-0.83270264,0
2.2801669,0.00180191,-2.5934699,0.6602872,0.00052179431,-0.75101304,0
2.0969238,-2.7141511,0.60315752,0.60213923,-0.77937829,0.17319886,0
2.9068534,-0.97667265,0.68071759,0.92539936,-0.31092459,0.21670704,0
1.1168453,3.0569189,0.25879997,0.34208441,0.93631977,0.079269201,0
-3.0719011,0.51481467,-1.5412701,-0.88394547,0.14813891,-0.44350344,0
2.3376379,0.6100018,2.0092187,0.7439422,0.19413018,0.63942432,0
1.7455579,2.9041104,-0.89218849,0.49818558,0.82883871,-0.25463229,0
3.186023,-0.11481585,0.27769729,0.99558157,-0.035878129,0.086775996,0
1.4149892,1.6841637,-2.1551342,0.45948946,0.54689848,-0.69983673,0
2.1032815,-0.78141916,-2.2768085,0.65797406,-0.24445304,-0.71225893,0
2.3125305,-2.3667014,-0.37822506,0.69435263,-0.71061778,-0.11356458,0
1.9941499,2.4717896,-1.3269204,0.57936448,0.71813411,-0.38551289,0
-1.5315084,1.9377756,-2.0720377,-0.47504148,0.60105693,-0.64270222,0
0.63951051,1.3481584,-2.9271164,0.19464628,0.41033572,-0.89091939,0
-3.1801059,-1.2505847,0.27906239,-0.92753845,-0.36475685,0.08139386,0
-0.16171011,-0.88904935,2.9698145,-0.052093163,-0.28639764,0.95669365,0
1.0411918,-1.1471325,-2.8728311,0.31900072,-0.35145888,-0.88017905,0
1.5304296,2.6832516,0.81657255,0.47898847,0.83979464,0.255568,0
-0.42796421,-2.4692278,2.3870223,-0.12365544,-0.71345556,0.68970317,0
0.31108499,2.0806518,2.4297833,0.096790895,0.64737338,0.75600213,0
-0.0064569409,-1.5571264,-2.8967712,-0.0019633337,-0.4734686,-0.88080853,0
-1.4917966,2.0958815,1.8204525,-0.47335437,0.66503346,0.57763851,0
-1.8339549,0.07517159,2.9131153,-0.53263867,0.021832215,0.84606111,0
-1.7193712,-2.0535467,-1.808038,-0.53207362,-0.63548696,-0.55951226,0
-1.3393886,-0.24191473,-2.9090974,-0.4170278,-0.075321801,-0.90576732,0
-2.7847977,-1.4413131,-0.79080254,-0.86113733,-0.44569436,-0.24453828,0
3.1817207,1.0515864,-0.409154,0.94248539,0.31149963,-0.12119909,0
-1.7975075,2.5759728,-1.3322102,-0.5268259,0.7549839,-0.39045337,0
1.0064683,2.203233,-2.2328887,0.30550975,0.66878325,-0.67778516,0
0.30668932,-2.8048224,1.7986315,0.09165667,-0.83824462,0.53753608,0
-0.55337685,-0.5165773,-3.1331637,-0.17167914,-0.16026248,-0.97202992,0
1.5108018,-2.629878,-0.68987846,0.48572275,-0.84550577,-0.22179592,0
-0.024367368,-2.073729,2.7425601,-0.0070868372,-0.60310906,0.79762727,0
0.12118065,-1.0237277,-3.1866937,0.036181036,-0.30565545,-0.95145452,0
-2.8600605,-0.055835966,-1.7002751,-0.85945463,-0.016778834,-0.5109365,0
-0.050195251,0.70425606,3.1078489,-0.015749805,0.220975,0.97515225,0
3.3810244,-0.035033122,-0.47550526,0.99020249,-0.010260169,-0.13926148,0
2.5809338,1.4795005,-1.3963256,0.78535801,0.45020047,-0.424891,0
-1.7544506,1.6824507,-2.4360044,-0.50981539,0.48889339,-0.70786411,0
-1.2833915,-2.6785307,1.5116899,-0.38509169,-0.80371416,0.45359442,0
1.8314236,-2.4597015,-0.95661706,0.57011497,-0.76569539,-0.29779112,0
1.6944619,-2.7098353,0.62558728,0.52030832,-0.83209294,0.19209535,0
2.0963573,0.75858945,-2.5255661,0.62229043,0.22518247,-0.74969834,0
-2.0577397,-1.8146828,-1.527586,-0.6552884,-0.57788682,-0.48646066,0
2.9067521,-0.52045029,-1.5127877,0.87607622,-0.15686035,-0.45594442,0
2.4821167,1.4931403,1.2560835,0.78616846,0.47292694,0.39784321,0
-3.0933776,-0.0093292259,-0.21184506,-0.99765873,-0.0030088094,-0.068323076,0
2.031754,0.97787011,2.2023356,0.6446104,0.31024683,0.69873047,0
-0.75383002,-2.1830769,-2.4026129,-0.22619459,-0.65505505,-0.72092915,0
-1.1909665,2.66959,-1.2805718,-0.37318102,0.83649731,-0.4012582,0
-2.63697,-0.79354459,-1.6706367,-0.8186999,-0.24637173,-0.51868242,0
1.3539132,-2.6748354,-1.5886757,0.39904398,-0.78836441,-0.46823645,0
-2.2268326,0.57539791,-2.1817307,-0.70243889,0.18150528,-0.6882118,0
0.60689807,3.0603423,0.67379218,0.19013889,0.95879376,0.21109657,0
-0.028275255,3.1077857,0.90760332,-0.0087330574,0.95986652,0.28032115,0
1.4533156,1.4780631,-2.5873158,0.4383705,0.4458352,-0.78042436,0
-0.48258299,1.8289456,2.7211664,-0.14561898,0.55188268,0.82110941,0
1.5089636,-0.50648743,-2.9383276,0.45154938,-0.15156369,-0.87927902,0
-1.5500985,-1.3253624,-2.7602546,-0.45166478,-0.38618159,-0.80427778,0
-2.1076937,0.39158592,-2.4231727,-0.65145808,0.12103362,-0.74896812,0
-1.8748478,-1.2093662,2.6912956,-0.5363127,-0.34594727,0.76986307,0
-1.1635085,-0.37556231,-2.9289913,-0.3665837,-0.11832747,-0.92282993,0
-2.0180514,-0.49978155,2.8260932,-0.5751999,-0.14245142,0.80551392,0
-1.6987308,-2.679853,0.37820619,-0.5316239,-0.8386696,0.11836098,0
1.8677328,-2.5143661,-1.1766386,0.558218,-0.75148028,-0.35166743,0
-0.37049979,2.9739103,1.2032437,-0.11472612,0.92087817,0.3725872,0
-0.99077815,-2.9399741,1.1758658,-0.29862568,-0.88612342,0.35441205,0
-2.6852951,1.0728179,-1.739862,-0.79570436,0.31789649,-0.51555443,0
2.864269,1.8567194,0.52469707,0.82937843,0.53763211,0.15193141,0
-2.6878505,-1.2942787,1.19349,-0.83652455,-0.40281105,0.37144315,0
0.95501518,1.9664011,-2.2462456,0.30468923,0.62736303,-0.716645,0
1.9463614,0.51510811,-2.3586733,0.62763005,0.16610344,-0.76058549,0
1.5634899,-1.8444012,-2.3235149,0.46624544,-0.55001551,-0.69289112,0
-1.0512792,-2.7937896,1.5716846,-0.31162673,-0.82815254,0.46588853,0
-0.95848066,3.012289,-0.9440797,-0.29053062,0.91307241,-0.28616548,0
-0.49892795,-0.80109543,3.3583193,-0.14302453,-0.22964498,0.96270823,0
-0.43407005,2.7241964,-1.7876289,-0.13205104,0.82874399,-0.54382521,0
-2.5044413,1.1774812,1.6456943,-0.77782941,0.36570212,0.51111978,0
-2.6763465,1.9856256,0.0606113,-0.8029725,0.59573853,0.018184943,0
-2.7594242,1.9586327,-0.83281207,-0.79183245,0.56204075,-0.23898014,0
-2.3009353,-2.3882031,0.32209313,-0.69057739,-0.71676904,0.096669488,0
-2.9089429,1.2690135,-0.78392822,-0.88983518,0.38818666,-0.23980083,0
-1.3321036,-0.72556555,-2.7882528,-0.41967106,-0.22858498,-0.87842196,0
1.2756815,2.5902183,1.6058806,0.38611931,0.7839992,0.48606294,0
-1.1629251,3.1239245,-0.84790689,-0.33810756,0.90824634,-0.24651952,0
-2.3218229,1.0738333,2.3702812,-0.66576785,0.30791482,0.67966294,0
0.5314917,1.8513676,-2.8379714,0.15495893,0.53977507,-0.82742411,0
1.0475721,-2.6890643,-1.2564223,0.33282143,-0.85433567,-0.39917466,0
2.3417797,-1.8661554,-1.6835035,0.68169957,-0.54324383,-0.49007326,0
-2.3511951,1.2753735,-1.7419754,-0.73657876,0.39954701,-0.54572338,0
-1.9309069,2.8239801,-0.027621599,-0.56440866,0.82545608,-0.0080738589,0
-2.4942036,2.2756093,0.91654289,-0.71293521,0.65045291,0.2619817,0
-0.29460913,1.6131542,2.9480171,-0.087332852,0.47819752,0.8738994,0
1.8443924,2.0789492,1.9764367,0.54083067,0.60960972,0.57954997,0
2.3836524,2.2067842,-0.69844311,0.71741074,0.66417849,-0.21021126,0
1.2723851,-3.0357637,0.057478812,0.38649282,-0.92212713,0.017459452,0
-2.212255,-2.3835299,-0.56563246,-0.67021948,-0.72210848,-0.17136265,0
0.7176879,3.0159447,1.1884577,0.21616095,0.90837461,0.35795248,0
-1.2159637,-1.6038097,-2.702529,-0.36085925,-0.47595957,-0.80202436,0
-2.8287899,1.5822999,-0.83636075,-0.84506553,0.47269228,-0.2498523,0
-0.86895156,3.1479888,-0.26947713,-0.2651816,0.96068501,-0.082237467,0
2.7941992,0.249265,1.1626837,0.92014492,0.082084313,0.38287804,0
1.4137049,-2.6453333,-0.56947678,0.4630582,-0.86647737,-0.18653178,0
0.085832417,3.0472379,0.69673496,0.027448334,0.97447568,0.22280876,0
-0.13671018,-1.7377886,-2.7070696,-0.042459805,-0.53972691,-0.84076869,0
-1.7002506,0.4067452,2.9044969,-0.50154239,0.11998229,0.85677272,0
-2.8330815,0.30092329,1.7465714,-0.8477791,0.09004911,0.52264881,0
-1.1208287,-2.9962726,-0.92070013,-0.33669612,-0.90007806,-0.27657765,0
-1.1690472,0.19119287,3.2231102,-0.34044307,0.055678062,0.9386152,0
-0.47043723,-0.23020953,-3.2237804,-0.14403869,-0.070485659,-0.98705858,0
1.3889223,2.6311347,1.3560193,0.42478934,0.80470872,0.41472623,0
0.22604041,2.9271841,-0.96600986,0.073134713,0.9470818,-0.31254965,0
-3.1902099,0.028106499,0.73127383,-0.97468412,0.0085871965,0.22342135,0
2.3203142,-0.9338643,2.3223772,0.67982179,-0.27361006,0.68042624,0
2.3112431,2.3723791,0.00012702942,0.69781739,0.71627575,3.8353101e-05,0
2.7255359,1.9845672,-0.83335382,0.78478497,0.57143205,-0.23995413,0
-2.6779194,-1.2056987,-1.0442594,-0.85914457,-0.3868188,-0.33502495,0
-0.896146,2.8910439,1.6406108,-0.26029629,0.83973819,0.47653499,0
2.3020515,1.6272453,-1.6912627,0.70024115,0.49497768,-0.51445055,0
3.1575351,1.2453704,-0.72624964,0.90966868,0.35878444,-0.20922858,0
0.053833805,2.0571029,2.5882335,0.016280772,0.62212253,0.78275055,0
1.2084465,-2.655664,-0.99965328,0.39182028,-0.86105841,-0.32412228,0
-3.1336224,-0.0046355566,-1.2574853,-0.92806304,-0.0013728804,-0.37242061,0
0.74108016,-2.2834733,2.1914089,0.2279899,-0.70249999,0.67417681,0
0.93507123,0.49565703,-3.1136124,0.28434077,0.15072167,-0.9468016,0
0.30522859,-2.3115683,2.4649584,0.089957997,-0.68127316,0.72648084,0
-1.7359185,-2.327632,1.7892952,-0.50896287,-0.68245035,0.52461261,0
-1.5130829,1.7340615,-2.4547584,-0.44967297,0.51534557,-0.72952944,0
0.60966492,3.1104565,-0.14789554,0.19213599,0.98026079,-0.046609301,0
-1.5111614,2.9192092,0.52216315,-0.45402449,0.87706876,0.15688255,0
-0.80542022,2.1003318,2.2832317,-0.25128627,0.6552909,0.7123546,0
-0.085230045,-3.0931623,1.3809234,-0.025152808,-0.91284382,0.40753353,0
-1.4534066,2.765666,-0.51894379,-0.45890588,0.87324524,-0.16385391,0
-0.47568491,1.0725833,-2.9696977,-0.14897329,0.33590776,-0.93003917,0
-2.1913443,-1.6895745,1.8544916,-0.657857,-0.50722218,0.55673146,0
-1.6323889,0.17063332,-2.7624304,-0.50802159,0.053103402,-0.85970581,0
-1.1873823,-3.1154301,0.16048141,-0.355728,-0.93335205,0.048078641,0
0.72831279,-2.5450976,1.9110628,0.22306778,-0.77951294,0.58532065,0
-0.74369979,-3.0183575,1.7090102,-0.20964444,-0.8508566,0.48175958,0
-1.2194043,-1.2869759,-2.7718804,-0.37059724,-0.39113334,-0.84242052,0
0.091402307,2.7970285,1.9339824,0.026869077,0.82222843,0.56852305,0
-2.8953476,1.3500497,0.097619079,-0.90589368,0.42240232,0.030542968,0
0.19950904,0.33052188,-3.0781248,0.064311258,0.10654293,-0.99222612,0
1.0439284,1.7158868,2.3743412,0.33567783,0.55174774,0.76347548,0
-1.8988959,-2.4506631,1.2010603,-0.57113588,-0.73709238,0.36124605,0
2.6037924,-0.18793315,2.0565586,0.78349024,-0.056549739,0.61882567,0
1.7613492,-2.0607197,2.0529406,0.51796591,-0.60600281,0.60371518,0
3.2489102,0.12437895,0.73279005,0.97481531,0.037319131,0.21986911,0
-2.4879169,0.64884877,-1.9333413,-0.77338588,0.20169905,-0.60099226,0
-1.9801234,2.0464058,1.510424,-0.61430424,0.63486743,0.46858692,0
-2.8647177,0.23358905,1.4887769,-0.88501441,0.072164066,0.45993677,0
-1.6268765,2.6716156,-1.3403928,-0.47806093,0.78505963,-0.39387712,0
-3.0015078,-0.31924397,-1.639841,-0.87377107,-0.092935339,-0.47737527,0
2.1916134,2.1994643,0.087145373,0.70556355,0.70809108,0.028055403,0
3.1695218,-0.077361204,0.07442084,0.99942696,-0.02439386,0.023466693,0
-1.4890258,1.1670679,2.8004072,-0.44059563,0.34532979,0.82862705,0
-1.8854171,-2.3667362,-1.4306337,-0.56330192,-0.70710456,-0.42742726,0
-0.34039482,-3.0136268,-1.6149399,-0.099068224,-0.87708342,-0.47001079,0
-1.6618359,-2.5255361,-1.3026888,-0.50481588,-0.76718211,-0.3957178,0
-1.7043928,-2.8319054,-0.90668935,-0.49729171,-0.82626677,-0.26454529,0
-3.028276,-1.2606963,-0.56896257,-0.90961254,-0.37867922,-0.17090103,0
-2.5059903,2.0760059,-1.0455616,-0.73316622,0.60736763,-0.30589521,0
-0.67279845,1.2293071,3.027555,-0.20166871,0.36848,0.90749782,0
-1.8407537,0.32882595,2.3988938,-0.60519707,0.10811034,0.78870058,0
-0.78679436,1.8534368,-2.3478813,-0.25437677,0.59923059,-0.7590884,0
2.732383,1.9908482,0.055809032,0.80811065,0.58879948,0.016505692,0
1.6739566,-0.58561498,2.5986159,0.53207535,-0.1861406,0.82598281,0
0.48359728,-3.242677,0.57290483,0.14530213,-0.97429806,0.17213558,0
1.0427768,-1.9476489,-2.3677299,0.32200941,-0.60143381,-0.7311548,0
3.3025262,0.098246202,0.37602282,0.99314666,0.029544925,0.11307883,0
-0.69868654,-1.9575033,2.642961,-0.20779866,-0.58218753,0.78605175,0
1.3625046,-2.0137742,-1.9994698,0.43282294,-0.63970989,-0.63516581,0
2.3392878,2.376071,0.40278971,0.69650596,0.7074579,0.11992772,0
1.8433989,2.4173126,-1.360653,0.55347353,0.72578895,-0.40853089,0
0.26123032,-3.0269029,-0.97948265,0.081835441,-0.94823575,-0.30684185,0
2.5791256,-2.0566392,0.016248852,0.78184342,-0.62345541,0.0049257227,0
-0.90570271,-0.58338368,3.1470456,-0.27228215,-0.17538312,0.94609892,0
1.1183896,3.0513937,-0.22107077,0.34333783,0.93675667,-0.06786719,0
-1.6461556,1.8251127,-1.9993272,-0.51956934,0.57605284,-0.63103944,0
-3.0034509,-0.68487167,0.50636899,-0.96206278,-0.2193775,0.16219968,0
2.007443,2.5342536,0.32413062,0.61782598,0.77996129,0.099756919,0
2.8706369,-1.2124634,0.73862123,0.89636594,-0.37859571,0.23063694,0
-0.13114002,0.98327261,3.211345,-0.039017402,0.29254791,0.95545453,0
-1.0110196,0.048004638,-2.9512727,-0.32404348,0.015386043,-0.94591707,0
3.2492363,0.37224677,0.88083351,0.95931727,0.1099036,0.26006073,0
-0.91530424,-0.018989306,3.2158239,-0.27374807,-0.0056792982,0.96178466,0
0.9717145,2.534889,-2.1989646,0.27814022,0.72557795,-0.6294241,0
-0.88207972,1.6745533,2.4542882,-0.28460518,0.5402987,0.7918821,0
-1.1660552,0.7886793,3.1399536,-0.33886346,0.22919551,0.91249162,0
-2.501173,1.7298732,-1.5357224,-0.73415548,0.50776011,-0.45077208,0
-1.4767587,-3.103575,0.54276299,-0.42440528,-0.89193553,0.15598451,0
3.0666356,0.26926515,-0.23051615,0.99338621,0.087224014,-0.074671917,0
1.8615584,0.18355858,-2.6308274,0.5766809,0.056863502,-0.81498814,0
0.5247643,0.44063747,3.3688588,0.15264358,0.12817274,0.97993451,0
1.1576654,-0.088351138,-2.9319541,0.36710882,-0.028017148,-0.92975593,0
-2.4473052,-1.3082962,1.5553257,-0.76930451,-0.41125977,0.48891294,0
-0.7324093,-1.2864602,-3.0375845,-0.21674681,-0.38071081,-0.89893281,0
-0.65012771,3.2541535,0.83779079,-0.18995236,0.95078874,0.24478318,0
2.637805,1.3383839,-1.4346361,0.80238116,0.40711653,-0.43639502,0
-0.62778407,-2.3422115,-2.0662293,-0.19705649,-0.73520178,-0.64857316,0
-0.48984298,-3.033391,0.74826938,-0.15489177,-0.95917946,0.23660801,0
2.1962037,-0.16158885,2.3716769,0.67859501,-0.049928606,0.73281372,0
-2.3424442,-2.3636787,0.67323673,-0.68993157,-0.69618589,0.19829172,0
0.36892521,-3.1160681,1.6684736,0.10381026,-0.87681681,0.46948451,0
-0.038953345,-1.9929814,-2.4695213,-0.012274005,-0.62797856,-0.77813387,0
0.1855046,3.1064579,-0.27583852,0.05937681,0.99432343,-0.088291138,0
3.3808701,-0.16972287,0.36479041,0.99299324,-0.049849197,0.10714236,0
1.5360924,0.30004019,-3.0378935,0.44949582,0.087798633,-0.88895726,0
-2.9919622,0.29600579,-1.5596722,-0.88335621,0.087393671,-0.46048248,0
0.38215646,2.6128254,1.8949975,0.11757873,0.80389243,0.58303708,0
3.0330925,-0.53185672,1.3851191,0.89828205,-0.15751493,0.41021749,0
-0.12795833,-1.2391996,-2.9557462,-0.039892763,-0.38633746,-0.92149436,0
-0.39439532,0.53269738,3.3129568,-0.11673306,0.15766768,0.98056835,0
3.3102944,0.65803587,0.354489,0.9754436,0.19390325,0.10445718,0
1.7727109,-2.1886199,1.6408681,0.54384267,-0.67143762,0.50339514,0
2.6722937,0.62598127,1.9570408,0.79275209,0.18570113,0.58056802,0
3.0822124,-0.47169048,-1.3129843,0.91101831,-0.1394189,-0.38808253,0
-0.81646329,-0.27765653,3.0157225,-0.26030165,-0.088521369,0.96146089,0
2.0521185,1.9882174,-1.1819177,0.66366345,0.6429975,-0.38223696,0
2.8401043,-0.76828659,-1.3725824,0.87479228,-0.23664314,-0.42277479,0
-2.3030949,-1.8709675,-0.99735773,-0.73571593,-0.59767425,-0.31860256,0
-1.6870514,-1.7702607,2.4409728,-0.48826641,-0.51234883,0.70646632,0
2.4713764,1.7234002,1.1809669,0.76368433,0.53255087,0.36493263,0
-2.5394871,1.525825,-1.5902977,-0.75524527,0.45378143,-0.47295564,0
-1.6299871,-2.2887886,-1.3869721,-0.52017355,-0.73041517,-0.44262081,0
1.301118,-2.3560841,-2.1628726,0.37682617,-0.6823625,-0.62640512,0
1.6071049,2.9357643,-0.87097579,0.46470448,0.84889472,-0.25184813,0
-1.8697138,0.27097455,-2.4296269,-0.6075002,0.088044003,-0.78942502,0
-2.9772472,-1.6770885,0.33168304,-0.86720121,-0.48849595,0.096611373,0
-2.0004556,1.5619117,-1.9268891,-0.62777513,0.49015298,-0.60468876,0
-2.3215108,1.7970306,1.361153,-0.71740919,0.55533069,0.42063284,0
-3.0489826,-0.28160882,-1.3937058,-0.90629554,-0.083706878,-0.4142724,0
2.0409331,-0.70564502,2.5553086,0.61003762,-0.21091823,0.76378506,0
-0.96185333,3.1255655,0.70165396,-0.28758022,0.93449885,0.20978437,0
-0.38381711,-2.5926433,1.5979719,-0.12503693,-0.84461093,0.52057475,0
1.7034929,2.0932882,2.2420051,0.48551813,0.59661502,0.63900131,0
-2.1817975,2.3526702,-0.014846914,-0.67997092,0.73322445,-0.0046271342,0
1.8945068,2.5456791,-1.0493689,0.56683123,0.76166022,-0.3139683,0
-3.0838263,-1.1229994,-1.0369328,-0.89597887,-0.3262777,-0.3012718,0
-2.4381061,-1.8250206,-1.3995059,-0.7274307,-0.54451114,-0.41755506,0
1.7905041,1.0803545,2.6432028,0.53124392,0.32054198,0.78424025,0
3.0148299,0.71160066,0.39679286,0.96536881,0.22785932,0.12705575,0
2.7464936,1.2768862,-1.3245659,0.83081716,0.38625941,-0.40068257,0
-1.9251277,1.5315682,-2.1182058,-0.59301794,0.47178549,-0.65249383,0
2.0659869,-1.2123765,2.1830194,0.63746411,-0.37408102,0.67357469,0
-1.572837,-2.7834365,0.91699797,-0.47289264,-0.83687419,0.27570665,0
1.6044707,-2.7635455,0.85831255,0.48490897,-0.83520877,0.25940233,0
-2.1371346,0.55327988,2.4430845,-0.64904481,0.16803032,0.74196136,0
1.0845962,1.2546401,2.8721538,0.32702193,0.37829274,0.86599725,0
-3.3316312,-0.6222651,-0.74884027,-0.95985162,-0.1792762,-0.21574283,0
1.8840458,1.1140683,-2.5532918,0.56022012,0.33126765,-0.75922006,0
1.1052845,-2.8002515,1.2632964,0.33854488,-0.8577075,0.38694337,0
2.1834259,-0.35139269,-2.2720585,0.68863481,-0.1108264,-0.7165888,0
-2.0251207,1.5943776,1.9606732,-0.62534136,0.49233127,0.60544044,0
-3.0602758,0.55324751,0.41400418,-0.97544301,0.17634405,0.13196114,0
0.80990106,-0.51631546,3.2815745,0.2368653,-0.15100266,0.95973593,0
-1.7149886,-2.6671498,1.2573123,-0.50276476,-0.78189963,0.36859271,0
2.2809982,0.47834346,2.3425992,0.69027609,0.14475639,0.7089178,0
0.32681713,1.4037855,-3.1438329,0.094497234,0.40589625,-0.90902066,0
0.20317616,3.363991,-0.18872584,0.060193185,0.99661958,-0.055912122,0
3.0502808,-1.1921842,-0.013008686,0.93138087,-0.3640247,-0.0039721066,0
1.941748,-2.7202883,-0.39681429,0.57692558,-0.80824286,-0.11790012,0
-2.8801754,1.6500915,-0.88869911,-0.83816743,0.48019749,-0.25862268,0
2.4635417,-0.97322464,1.7052628,0.7820127,-0.3089349,0.54130894,0
-0.34606996,-1.3221318,-3.0378184,-0.10389102,-0.39690703,-0.91196018,0
1.4691106,2.7287729,-1.5859643,0.42199498,0.78382695,-0.45556065,0
0.74340147,3.0202549,0.50472504,0.23591925,0.95848107,0.16017503,0
-1.5699309,-1.962925,1.899256,-0.49832973,-0.62307447,0.60286456,0
-3.3622146,-0.83517373,-0.63873827,-0.95442045,-0.23707794,-0.18131647,0
3.2919974,-0.23109919,-0.92108554,0.96082211,-0.067449994,-0.26883355,0
0.58332038,0.50889796,3.0232625,0.18691409,0.16306682,0.96874785,0
-2.1463604,2.1020551,-0.58150274,-0.70142335,0.68694448,-0.19003314,0
-2.662322,-1.7030472,-0.39659578,-0.83583659,-0.53467202,-0.12451133,0
-1.3887691,0.078511342,-3.0206187,-0.41761157,0.023608852,-0.90831894,0
0.67473602,2.3684781,-2.1250124,0.20743309,0.72813767,-0.65328938,0
-0.23105957,0.46813184,3.1306922,-0.072799429,0.14749326,0.98638028,0
-2.7942779,-2.0068333,-0.37059191,-0.8075574,-0.57998282,-0.10710254,0
1.405661,-1.4201829,-2.731668,0.41532359,-0.41961432,-0.80711222,0
2.7656832,1.7732955,0.32437587,0.83774734,0.53714526,0.098256022,0
1.2692599,-0.45171699,-2.9437149,0.39206585,-0.13953234,-0.90929371,0
0.74214005,2.3851902,-1.9508356,0.23415127,0.75254709,-0.61550462,0
-1.9792258,-2.158479,-1.6678261,-0.58727866,-0.64046693,-0.49487969,0
2.3184309,2.0363233,0.59027988,0.73795849,0.64816344,0.18788658,0
2.8496723,-0.91723901,-0.8936801,0.91212875,-0.29359168,-0.28605089,0
2.8116882,-1.6612972,0.86842829,0.8320328,-0.4916099,0.25698468,0
2.8525023,0.35813698,-1.0548464,0.93148762,0.11695001,-0.3444612,0
-1.4648124,-2.6599057,1.4338547,-0.43620509,-0.79209077,0.42698622,0
1.0219978,3.0645373,0.86473405,0.30560362,0.91637546,0.25857773,0
2.0973644,-2.1061959,0.82190698,0.68009806,-0.68296176,0.26651418,0
2.0613668,-2.5215545,-0.15459821,0.632209,-0.77334583,-0.047414355,0
-1.5718884,1.2387906,-2.6612647,-0.47206271,0.37202823,-0.79921943,0
-1.2463431,2.9100902,-0.18816562,-0.39300197,0.91762143,-0.059333146,0
1.5884358,-2.1853881,-1.7470616,0.49371096,-0.67925316,-0.54301435,0
-1.1720153,1.9862425,2.3135078,-0.35878044,0.60803384,0.70821714,0
0.13570847,0.87126923,-3.2194276,0.040655628,0.26101539,-0.96447814,0
1.2240299,2.6685588,1.2002393,0.38591564,0.84135085,0.37841487,0
0.092279755,2.8270571,1.4742541,0.028930534,0.88630784,0.46219194,0
-2.4105499,0.75947887,-2.0423141,-0.74184442,0.2337289,-0.62852019,0
2.3320401,-0.34271455,-2.0959706,0.73934513,-0.10865351,-0.6645022,0
-1.9203926,0.30815953,-2.7833545,-0.56555736,0.090753257,-0.81970036,0
-0.069508828,0.76711279,3.3159306,-0.020418452,0.22534196,0.97406578,0
-1.9212892,-1.1210788,2.5342619,-0.56977057,-0.33246309,0.75155157,0
-2.6826899,0.31359464,-1.760343,-0.8321079,0.097269751,-0.54601735,0
0.51327306,-2.6990056,-2.2017438,0.14578471,-0.76659727,-0.62536025,0
-2.532583,-2.3030338,1.1646913,-0.70040947,-0.63692552,0.32210627,0
-2.7838311,1.2825638,0.83821082,-0.87607366,0.40362373,0.26378554,0
1.2500391,-2.9608772,1.1061796,0.36776951,-0.87110907,0.32544512,0
-0.058501605,-3.0792179,0.52580464,-0.018724492,-0.98555917,0.16829324,0
1.5428778,-1.3636327,2.4307172,0.4843215,-0.42805505,0.76302129,0
1.5127182,3.0502753,0.11952819,0.44401956,0.89532989,0.035084426,0
-2.7900288,-1.9466264,0.40518028,-0.81435841,-0.56818467,0.11826472,0
-1.1056376,2.0551231,2.4304113,-0.32814068,0.60993719,0.72131848,0
0.49301872,-1.6444957,-2.7368021,0.1526036,-0.50901914,-0.84711963,0
-1.5021316,2.3028519,-1.3324956,-0.49164221,0.7537151,-0.43612096,0
-2.1056583,1.872614,-1.4570743,-0.66376203,0.59029996,-0.45931029,0
1.9297863,-0.95075577,-2.3989122,0.59889704,-0.29506105,-0.74448729,0
2.306967,1.274285,2.1279953,0.68104994,0.37618732,0.6282149,0
2.1585269,0.66601133,2.3789606,0.65796936,0.20301579,0.72516268,0
0.93004042,-1.3513532,-2.812525,0.28564042,-0.41503689,-0.86380202,0
1.1766719,0.22025537,-2.8545952,0.38013005,0.071154661,-0.92219204,0
-2.6393466,1.9268236,0.40655324,-0.80149341,0.58512074,0.12345849,0
-2.7040894,0.27010208,-1.6525846,-0.85018748,0.084922269,-0.51958591,0
3.1664324,0.37424973,0.36879507,0.98651052,0.11659851,0.1148991,0
-0.76352853,-0.87936038,2.9224927,-0.24269943,-0.2795184,0.92895985,0
0.76623499,-3.1742077,-1.0507692,0.22337383,-0.92534918,-0.30632162,0
-2.2024426,-1.291878,-2.0370617,-0.67427361,-0.39550599,-0.62364256,0
2.1820993,0.85804671,2.1949704,0.67939955,0.26715398,0.68340695,0
-0.62505215,3.0967767,1.1341951,-0.18621296,0.92257893,0.33789474,0
-1.1181965,2.9798336,0.90933692,-0.33781502,0.90022862,0.27471706,0
0.78898221,-2.5610092,-2.3084013,0.22306886,-0.72407389,-0.65265405,0
1.2999188,2.6178818,-1.5492704,0.39295372,0.79136205,-0.46833047,0
3.2570176,0.67655849,-0.74260962,0.95557833,0.19849589,-0.21787468,0
-0.54107273,0.26371068,3.3092382,-0.16086435,0.078402862,0.98385751,0
1.0616058,2.7341452,1.0189781,0.34190473,0.88056898,0.3281759,0
-3.120347,0.77651125,-0.79929036,-0.9417451,0.23435716,-0.24123207,0
2.2192159,2.7430463,0.37764955,0.62539577,0.7730161,0.10642517,0
-2.8536339,-1.548545,0.28936779,-0.87545693,-0.47507301,0.088774189,0
0.14739951,-0.65700281,-3.1953139,0.04513859,-0.20119593,-0.9785105,0
1.6920263,-2.5180461,1.5863514,0.49424574,-0.73552853,0.4633778,0
-2.2358253,0.091447629,-2.6887054,-0.63916177,0.026142396,-0.76862788,0
1.9266466,2.0450628,-1.636287,0.59255677,0.6289767,-0.50325418,0
0.21065444,-1.8330668,2.6175592,0.065777741,-0.57238287,0.81734395,0
-2.4760261,0.02463677,2.2993157,-0.73275208,0.0072909752,0.68045664,0
-2.8787031,1.8251951,0.82362539,-0.82092571,0.52049464,0.23487496,0
0.27598765,0.15980506,3.1252127,0.087853797,0.05086996,0.99483365,0
-2.6298888,1.183111,1.2521212,-0.83651507,0.37632397,0.39827475,0
