1.9674768,0.10409751,-2.4714897,0.62248015,0.032934889,-0.78194225,0
-2.1826866,1.003925,1.8975078,-0.71295673,0.32792386,0.6198054,0
-1.3842697,-2.5107138,1.0577662,-0.45297706,-0.82158542,0.34613472,0
1.6941053,1.9753153,1.3053976,0.58189791,0.67848903,0.44838309,0
-0.7885322,-2.1509135,-1.6968639,-0.27659184,-0.7544716,-0.59520555,0
-2.0877495,1.3346081,1.7941288,-0.6824469,0.43625885,0.58646774,0
-1.0068262,-0.30532992,-2.8827066,-0.32809529,-0.099498115,-0.93939,0
-2.2045169,-0.51005179,-2.0759225,-0.71790844,-0.16610011,-0.67603123,0
0.080616139,2.4611175,-1.6144913,0.02737839,0.83583057,-0.54830426,0
-1.7460091,1.5921606,1.7849107,-0.58960456,0.5376519,0.60274112,0
-0.17458473,-3.0767248,-0.51546264,-0.055876292,-0.98471367,-0.16497514,0
1.9240357,-1.0309156,-2.1292038,0.63097692,-0.33808312,-0.69826066,0
-2.0706234,-1.2656589,1.9124196,-0.67015302,-0.40962788,0.61895066,0
0.46880165,2.6109002,-1.4455634,0.15518275,0.86426038,-0.4785105,0
1.2271887,-2.1164248,-1.8045017,0.40368327,-0.69619715,-0.5935902,0
2.9030037,-0.79067457,0.3370901,0.9588536,-0.26115748,0.11133987,0
-2.8306603,0.067143224,-1.3447095,-0.90305227,0.021420388,-0.42899635,0
-2.1646967,-1.2387519,-1.591406,-0.73167598,-0.41870302,-0.53790146,0
-1.414881,2.835284,-0.30096591,-0.44451582,0.8907665,-0.094555028,0
-2.7321277,0.74549341,1.2599102,-0.88143903,0.24051109,0.40647224,0
1.95382,-0.24159712,-2.184525,0.66439819,-0.08215531,-0.74284965,0
-0.91252214,-2.6376209,0.23359258,-0.3258113,-0.94174886,0.083403021,0
0.13486354,-0.93981379,2.9168398,0.043965675,-0.30638042,0.95089328,0
0.12411684,-2.3289974,1.6494261,0.043448944,-0.81530017,0.57740611,0
-1.0739256,1.4548757,-2.2230496,-0.3747586,0.5076955,-0.77575856,0
2.458303,-1.6258924,0.22949536,0.83155966,-0.54998368,0.077630416,0
0.60439503,-2.9607966,0.72512615,0.19448692,-0.95274806,0.2333367,0
-0.5809952,-1.125212,2.670212,-0.19659553,-0.3807461,0.90353888,0
1.3314093,-2.4018638,-0.92701995,0.45935345,-0.82867408,-0.31983387,0
2.5951357,0.72540432,1.1101059,0.89047647,0.2489101,0.38091385,0
0.23356892,-2.3072059,-1.8141036,0.079329997,-0.78362584,-0.61614716,0
-1.9638486,1.4995006,-1.5292193,-0.67583585,0.51603585,-0.52626318,0
-1.8455467,1.0896318,1.8195206,-0.65645009,0.3875756,0.64719278,0
0.39936706,2.6657276,-1.1114206,0.1369749,0.91429114,-0.38119501,0
0.049860287,2.5331903,-1.4364954,0.017119005,0.8697443,-0.49320561,0
-0.66331643,1.8321416,-2.0417769,-0.23502386,0.6491577,-0.72343493,0
0.16093031,2.8109684,1.3351792,0.051644608,0.90207595,0.42847618,0
1.9159989,-1.8047457,-1.563229,0.62586796,-0.58952671,-0.51063442,0
-0.18070513,-1.0574273,-2.6354566,-0.063507274,-0.37162378,-0.92620867,0
1.8276423,0.92731279,-2.2160151,0.60549474,0.30721712,-0.73416197,0
-1.1585002,-0.050505906,2.8104899,-0.38104588,-0.016612053,0.92440689,0
-1.9520643,-0.37361747,-2.3188474,-0.63917315,-0.12233524,-0.75927061,0
1.1041842,0.76241237,-2.6467636,0.37209669,0.25692374,-0.8919273,0
0.36968037,-1.9231619,2.1033182,0.12863478,-0.66918755,0.73187512,0
-1.1860726,0.21464072,-2.8338361,-0.38514808,0.069699325,-0.920219,0
1.8016768,0.27689949,-2.2020121,0.63026637,0.096865557,-0.77031249,0
-0.22115873,1.3899804,2.770426,-0.071170591,0.44730645,0.89154452,0
-1.802399,0.86079478,2.3612981,-0.58277482,0.27832323,0.76348519,0
0.38344145,2.8113239,-0.92534328,0.12848058,0.94199651,-0.31005684,0
-2.2473283,-0.91490847,1.52845,-0.78366935,-0.31903917,0.53298819,0
-1.5718873,2.3338885,1.1744688,-0.51551861,0.76542574,0.38518059,0
-1.271247,1.721965,2.3256009,-0.40221179,0.54481512,0.73580039,0
-1.3715134,0.73552209,2.3141398,-0.49179721,0.26374349,0.82980418,0
0.93127561,-2.9308741,0.5889833,0.29742137,-0.93603289,0.18810353,0
0.34373888,2.5911343,1.3512908,0.1168199,0.88059884,0.45923716,0
2.9409671,-0.38446689,-0.064268105,0.99133039,-0.12959468,-0.021663256,0
3.0470572,-0.2081102,0.39376521,0.98948592,-0.067580648,0.12786932,0
-1.0129013,-2.3294911,1.790537,-0.32592061,-0.74955893,0.57613999,0
1.990432,-0.28037891,-2.1994457,0.66802073,-0.094099633,-0.73816907,0
0.11984283,2.7532196,-1.5864354,0.037688367,0.86583698,-0.49890479,0
-1.386138,1.4899651,-2.2413836,-0.45786357,0.49215934,-0.74036491,0
0.22448601,-2.387234,2.0280898,0.071482107,-0.76015657,0.64579588,0
-0.63875651,2.2664795,1.8083837,-0.21513917,0.76337147,0.60908055,0
-1.3557161,1.1152561,-2.6200182,-0.42987174,0.35362646,-0.83075786,0
-2.7511201,-0.55351943,1.1288888,-0.90952027,-0.18299352,0.37321064,0
-1.9457204,2.4591162,-0.80030429,-0.60121959,0.75985676,-0.24729072,0
-2.1165903,-1.7890537,0.55500913,-0.7488566,-0.63297307,0.19636406,0
2.7183602,0.19078024,1.0515803,0.93065602,0.065315396,0.36001834,0
-0.79026389,2.5336673,0.9225527,-0.28125069,0.90171862,0.32833156,0
2.6950719,-1.0676333,-0.46111444,0.91816455,-0.36372426,-0.15709375,0
-1.4918035,0.59946114,2.2593319,-0.53797865,0.21617948,0.81476706,0
-1.4118131,-1.7331144,-1.8500792,-0.48655176,-0.59728152,-0.63759094,0
1.0953107,2.1381989,-1.9101045,0.35686964,0.69665921,-0.62234241,0
-0.63656318,-2.1541002,1.9771233,-0.21272761,-0.71986032,0.6607179,0
-1.1297683,0.19540827,-2.5285785,-0.40692174,0.070382461,-0.91074747,0
0.27380377,1.9382365,-2.2477882,0.091860391,0.65027285,-0.75412655,0
1.9025288,0.1669163,2.3846958,0.6227181,0.054633498,0.78053659,0
-0.91761905,2.6489797,0.9891789,-0.30867073,0.89106965,0.33274218,0
-0.36812672,2.0560043,-1.9610456,-0.12848985,0.71762162,-0.68447757,0
-2.674643,-0.89650869,-0.98695397,-0.89495891,-0.29997963,-0.33024341,0
-1.6741714,2.5996933,-0.18657251,-0.54044729,0.83921939,-0.060228363,0
0.81540394,2.5509851,-1.5331333,0.26423362,0.82665288,-0.49681553,0
0.38456678,-1.758178,-2.4229515,0.12741423,-0.58251756,-0.80276954,0
2.4053237,1.6621237,-1.351289,0.7467854,0.51604265,-0.41953725,0
-2.412307,-1.8661351,-0.6829651,-0.77183938,-0.59708673,-0.21852084,0
0.84502989,-1.8349823,-2.2216346,0.2814126,-0.61108738,-0.7398507,0
-0.81841135,-0.023414696,2.8059199,-0.27999669,-0.0080106873,0.95996749,0
-1.5206428,-2.6463468,0.068930447,-0.49809623,-0.86682779,0.022578606,0
1.7489142,2.1434186,-0.911309,0.60045826,0.73590422,-0.31288156,0
2.3988214,1.2517693,0.94538486,0.83693844,0.43673691,0.32984072,0
2.1897297,-0.97154689,1.5388952,0.76905948,-0.34121898,0.54047859,0
-2.6327469,0.018646119,-1.2363591,-0.90514165,0.0064105592,-0.42506179,0
-2.4885521,0.75026125,1.5633502,-0.82045817,0.24735586,0.51542556,0
1.8690882,1.1663721,1.9508437,0.63515282,0.39635611,0.66293496,0
-2.6673286,1.0623155,-0.48670107,-0.91596258,0.36479989,-0.1671335,0
-0.56332588,2.7658379,0.58962315,-0.19535857,0.95917863,0.20447834,0
0.91398627,2.7691553,-0.64135629,0.30611226,0.92744541,-0.21480304,0
0.11882206,0.018697733,3.186456,0.037263181,0.005863701,0.99928826,0
1.5048157,0.022052551,-2.6828084,0.48919529,0.0071689868,-0.87214488,0
1.5195595,-1.8346123,-1.9061426,0.49806252,-0.60132664,-0.62477195,0
-0.042023875,-2.7338264,0.55665469,-0.015061027,-0.97978199,0.19950068,0
-0.77296978,2.7041535,-1.1905736,-0.25309429,0.88542378,-0.38983074,0
2.2336547,0.65559369,-1.7168976,0.77221376,0.22665028,-0.59356171,0
0.25859299,-1.5722765,-2.511411,0.0869442,-0.52863121,-0.84438723,0
1.3653722,-2.6708026,0.36826366,0.45179686,-0.8837592,0.12185715,0
1.4801141,-0.39441973,2.8118544,0.46224618,-0.12317903,0.87815458,0
-2.9967134,0.44967464,-0.43759197,-0.97877544,0.14687106,-0.14292467,0
0.54254407,-0.9115414,-2.7448223,0.18437131,-0.30976668,-0.93276566,0
-0.15146787,1.7479618,-2.2211714,-0.053512149,0.61753809,-0.78471851,0
0.62182719,1.6161798,2.1166418,0.22737958,0.59097815,0.77397889,0
2.2475684,-1.6353557,-1.3144704,0.73098773,-0.53187478,-0.42751169,0
1.6846851,-1.7235949,1.8007759,0.55995452,-0.57288736,0.59854072,0
-1.0734876,-2.5492797,-1.0288746,-0.36374187,-0.86380112,-0.34862515,0
0.89544612,-2.6746817,-1.2016476,0.29206693,-0.87239879,-0.39194044,0
2.3984056,1.5660871,0.027814027,0.83726597,0.54670966,0.0097096749,0
-1.8368537,-0.48896712,-2.370079,-0.60459483,-0.16094205,-0.78010434,0
1.253493,2.5583971,-0.75109285,0.4254441,0.86833751,-0.25492606,0
0.0088465689,3.1849244,0.0036605336,0.002777626,0.99999553,0.0011493262,0
3.0774198,0.16319485,-0.48106831,0.9866479,0.05232171,-0.15423475,0
-2.2004235,1.1668761,1.4294175,-0.76624244,0.40633541,0.49775892,0
0.28688568,-2.4532118,1.4508612,0.10015094,-0.85640895,0.5064913,0
0.68831563,-2.3002117,-1.7418802,0.23204567,-0.77544969,-0.58722442,0
-0.32859379,0.51698023,3.1220953,-0.10327869,0.16248949,0.98129034,0
3.0088427,0.21964833,0.90595347,0.95520592,0.069730923,0.28760961,0
-1.8646481,0.10274479,-2.313282,-0.62719363,0.034559272,-0.77809632,0
2.8897295,0.94860858,0.37724265,0.94289166,0.30952209,0.12309074,0
1.1361487,-0.89269459,2.7634966,0.36433271,-0.28626344,0.88617998,0
-1.9248164,2.0447505,-0.076349318,-0.68517667,0.72786963,-0.027178058,0
-1.9892486,1.5980324,1.5848917,-0.66224825,0.53200698,0.52763224,0
0.48200101,-1.9175079,2.4643254,0.152559,-0.60691386,0.77998805,0
-1.8096976,-1.7374103,1.7562364,-0.59095132,-0.5673461,0.57349372,0
2.767544,0.91732395,1.2480613,0.87262815,0.28923938,0.39352342,0
1.1409649,-1.3384336,-2.2188616,0.40297532,-0.47271895,-0.78367573,0
1.1139355,-2.0029209,2.075464,0.36027068,-0.64778769,0.67124969,0
2.0698888,1.8659132,0.20646229,0.74072623,0.66773188,0.073884174,0
-0.56824583,1.9817008,-2.3285601,-0.18271445,0.63719845,-0.74872804,0
-2.0459061,1.94119,1.2406601,-0.66401774,0.63003117,0.40266767,0
0.95348579,1.2005948,2.6246645,0.31368351,0.39497894,0.863478,0
-1.5953885,-1.4376125,-1.7493207,-0.57598191,-0.51902014,-0.63155591,0
-1.3754033,1.8490989,2.1898117,-0.43264991,0.58165663,0.68883204,0
2.6577547,1.0741429,-0.30172911,0.92204905,0.37265009,-0.10467823,0
0.75665665,-2.8521936,-1.0638875,0.24122076,-0.90927416,-0.33916539,0
2.0688276,2.1515853,0.016577058,0.69309723,0.72082269,0.0055536348,0
-1.3162386,-0.76472336,2.3993604,-0.46321696,-0.26912507,0.84439433,0
0.29730344,-0.76551944,2.9147873,0.098176129,-0.25279135,0.96252686,0
0.33434567,1.7778125,2.3954022,0.1113845,0.59226352,0.79800844,0
-0.99890232,-2.8779769,0.36942154,-0.32551131,-0.9378435,0.12038303,0
-1.2712945,2.4287229,0.52214646,-0.45556098,0.87031871,0.18710814,0
-1.1368444,0.36148778,2.6776161,-0.38782498,0.12331854,0.91344643,0
-1.6423008,-2.2483287,1.6285632,-0.50914937,-0.69703132,0.50489038,0
3.030194,0.15634075,0.29535413,0.99397367,0.051283378,0.096882984,0
-0.58786827,-0.78712302,2.7786777,-0.19946425,-0.26707157,0.94280791,0
-2.3863242,0.032431867,1.8719494,-0.78675681,0.010692593,0.61717051,0
-2.3632731,1.5191787,0.69231057,-0.81675649,0.52503413,0.23926526,0
0.45572481,-0.15264216,-2.8872783,0.1556966,-0.052149598,-0.98642737,0
-0.61584663,2.4767721,1.4519576,-0.20973571,0.84350151,0.49448571,0
-2.3581553,1.2053477,1.6089275,-0.76099592,0.3889755,0.51921403,0
-2.6878822,1.7414739,0.071878634,-0.83903748,0.54361081,0.022437317,0
2.2162759,1.3417957,-1.5609331,0.73272598,0.4436129,-0.5160622,0
-0.4571197,2.1986761,2.0791962,-0.14936486,0.71842223,0.67938191,0
-2.1739311,-0.79305726,1.9141005,-0.72389221,-0.26407826,0.63737184,0
-1.6093169,-1.1206235,2.2885988,-0.53397113,-0.37182271,0.75935674,0
-2.8265367,0.80328923,0.59565598,-0.94273478,0.26792106,0.19866915,0
-2.2068498,1.3685795,1.1512114,-0.77692091,0.48180807,0.40528366,0
-1.3634861,2.2383652,-1.6981425,-0.43659648,0.71673805,-0.54375547,0
-2.2033443,1.2870198,1.5515069,-0.73780376,0.43096671,0.51953185,0
-0.24132916,1.5915712,2.4839842,-0.081530511,0.53769553,0.83918786,0
1.6056807,-0.85716891,2.1295862,0.5731619,-0.30597401,0.76017457,0
0.32401836,2.7021344,-1.1025428,0.11034753,0.92023754,-0.37548143,0
1.9638464,-1.5994521,-1.861673,0.62475854,-0.50883377,-0.5922541,0
-2.4849496,-0.41290709,-1.4505459,-0.85487139,-0.14204814,-0.49901626,0
1.3000082,-2.1183388,-1.8866336,0.41661865,-0.67887223,-0.60461676,0
-1.2283213,2.5388029,-1.4290266,-0.38849905,0.80298412,-0.45197901,0
2.0363209,-1.5267715,-1.3726395,0.70420164,-0.52798897,-0.47468698,0
2.2147491,-1.8258748,0.068439484,0.77137518,-0.63593411,0.023836793,0
1.2272478,-1.0735368,2.5266867,0.40811417,-0.35699844,0.84023505,0
1.2307729,2.6437643,-1.1795778,0.39125037,0.84042615,-0.37497598,0
0.88596559,-0.34464362,2.953094,0.28558031,-0.11109171,0.95189422,0
-0.8086549,2.1714561,-1.7844344,-0.27649999,0.74247688,-0.6101442,0
-0.44714871,-0.62091982,2.9413362,-0.14712548,-0.20430145,0.96778876,0
0.58431059,1.1911066,2.5846627,0.20112044,0.40998039,0.88964415,0
-2.2800291,1.0230852,-1.4627142,-0.78739893,0.35331839,-0.50514251,0
0.67013025,0.49265033,-2.9671929,0.2174646,0.15987043,-0.96288657,0
-1.8190799,1.5014045,-1.8485012,-0.60702723,0.50101894,-0.61684513,0
-1.5701349,-0.25435546,2.6381631,-0.50968939,-0.082567602,0.85638738,0
-1.9947263,1.9915177,0.98263389,-0.66823429,0.66715938,0.32918283,0
-2.0544884,-2.2561169,0.074377209,-0.67309582,-0.73915374,0.024367617,0
-2.1698124,1.7477812,-1.0768731,-0.72640592,0.58511907,-0.36051363,0
-2.382236,-1.3982732,0.33397365,-0.85618001,-0.50254196,0.12003075,0
-2.5514445,-0.30403379,1.3153555,-0.8838923,-0.10532587,0.45567623,0
-0.6648497,0.641783,2.7491097,-0.22923787,0.22128455,0.94788349,0
-2.8250706,0.15819666,1.5591323,-0.87446541,0.048967805,0.48260999,0
2.1750162,-2.1251576,-0.874722,0.68738377,-0.67162669,-0.27644378,0
-0.10815574,-2.0509942,2.0523734,-0.037249688,-0.70637852,0.70685357,0
-1.8036337,-0.49200794,2.4981496,-0.57804263,-0.15768255,0.80062658,0
1.7181473,-2.3417954,-0.87394053,0.56646228,-0.77207518,-0.28813267,0
1.8573328,-1.3356708,-1.8021693,0.63775373,-0.45863026,-0.6188122,0
1.5260971,-1.2977808,-2.0746026,0.52916855,-0.45000073,-0.71936083,0
-1.0309044,2.0477715,1.9719009,-0.3409085,0.67717499,0.65208548,0
0.57301635,0.42389902,2.7606299,0.20097655,0.14867598,0.96824789,0
-0.69021535,3.1049836,0.36638889,-0.21557064,0.96976012,0.11443195,0
1.6647018,1.7920936,-1.429389,0.58760744,0.63257426,-0.50454658,0
-0.5825271,-2.7680693,-0.20208469,-0.20541103,-0.97607809,-0.071259215,0
-0.66033578,2.7504146,1.4713819,-0.20710677,0.86263609,0.46148211,0
2.5728958,-0.15256777,-1.39132,0.8784315,-0.0520893,-0.47502092,0
0.96840221,1.4241002,-2.5327759,0.31618074,0.46496493,-0.82694459,0
-1.4217912,-1.697994,2.235496,-0.4518266,-0.53960025,0.71041137,0
0.84046203,-0.152381,2.9016378,0.27786186,-0.050378088,0.95929915,0
-0.75763071,2.2252655,2.1736777,-0.23663616,0.69503289,0.67892015,0
-1.9960563,-2.1417291,-0.48414078,-0.67265505,-0.72174561,-0.16315158,0
-2.3070257,-1.3207287,-1.2904766,-0.78071952,-0.44694719,-0.43670958,0
-0.3794952,3.0031579,-0.79311574,-0.12127477,0.95971507,-0.25345492,0
2.3556919,1.2268122,-1.576353,0.76271373,0.39721093,-0.51038337,0
2.8101771,0.9354828,0.10359041,0.94822931,0.31565705,0.03495419,0
0.82697153,1.9106491,2.1197588,0.27833214,0.64306331,0.71344292,0
-0.86302483,0.28276095,2.9384766,-0.28060234,0.09193638,0.9554109,0
2.2493711,2.2770741,0.025849415,0.70274305,0.71139795,0.0080758119,0
-0.7627992,-2.7912529,0.63331014,-0.25751972,-0.94232225,0.21380444,0
-1.5906646,2.2107685,-1.312423,-0.52614033,0.73125058,-0.43410701,0
0.23799235,-1.5786257,-2.8208528,0.073425375,-0.48703745,-0.87028921,0
2.1694093,-1.5955932,-1.0828711,0.74741197,-0.54971898,-0.37307426,0
1.1908001,2.6675203,-0.25228515,0.4061228,0.90975881,-0.086041942,0
2.5267065,1.4429578,-0.34908465,0.86218983,0.49238148,-0.1191184,0
0.3035174,-1.0590022,-2.9014416,0.097797103,-0.34122375,-0.93488073,0
0.94103777,0.4060109,2.9929461,0.29746148,0.1283398,0.94606847,0
2.7230191,-0.15493438,0.94295204,0.94358367,-0.053688038,0.32675281,0
1.1719797,2.2838249,1.6795524,0.38204861,0.74449426,0.54751009,0
-2.1657054,-2.2382004,0.59906131,-0.68285507,-0.70571303,0.18888628,0
0.10483691,0.46500993,-3.1349092,0.033061743,0.1466472,-0.98863614,0
0.53722125,-2.8061717,-0.3628189,0.18653016,-0.97433907,-0.12597542,0
0.62097585,2.9404399,-0.48851448,0.20395035,0.96574402,-0.16044536,0
-0.45152202,2.6844208,1.5839673,-0.14336605,0.85235,0.50293702,0
1.8610692,-2.3199837,-0.80338711,0.60408622,-0.75304568,-0.26077217,0
2.4894726,-1.2643527,0.58009762,0.87295789,-0.44335762,0.2034169,0
0.40056074,1.239439,2.8423693,0.12811323,0.39641562,0.90908837,0
-1.34989,1.3506739,-2.4256568,-0.43726459,0.43751854,-0.78573352,0
-0.015771762,-0.72001195,-2.7980242,-0.0054588262,-0.24920616,-0.96843511,0
-1.2054446,-2.4934769,-1.2198527,-0.39832133,-0.82393253,-0.40308228,0
1.5651963,-2.7911849,0.06513305,0.48900935,-0.87204111,0.020349314,0
1.8802584,-2.1249189,-0.69995803,0.64338887,-0.72710705,-0.23951238,0
-0.026045097,-2.3059976,1.9146755,-0.008689288,-0.76933783,0.6387831,0
0.36708456,2.5360169,-1.6160165,0.12117152,0.83711785,-0.53343344,0
2.7875593,0.20681556,0.36148438,0.98902303,0.073377937,0.12825426,0
-0.1111414,0.055530854,-3.080502,-0.036049683,0.018011916,-0.99918771,0
-1.4307176,-2.1574879,-1.3772411,-0.48791319,-0.7357614,-0.46967629,0
1.3474218,2.4649134,1.0380642,0.44991812,0.82306015,0.34662041,0
-1.0127276,1.2151989,-2.7352626,-0.32050931,0.38458768,-0.86565936,0
-2.7820153,-1.1487418,0.43999559,-0.91458195,-0.37764657,0.14464767,0
1.0408118,0.54928339,-2.8879507,0.33375022,0.17613506,-0.92606002,0
1.5833763,-1.1196166,-2.3681657,0.51729876,-0.36578563,-0.77369428,0
-1.681486,-2.104872,-1.2728872,-0.56432939,-0.7064234,-0.42719811,0
-1.3749818,-0.12681279,2.6006572,-0.46696627,-0.043067694,0.88322568,0
1.1968266,-0.8884142,2.6343007,0.39541644,-0.29352087,0.87033981,0
-1.9500525,0.92925483,2.1199927,-0.6442948,0.30702457,0.70044285,0
-0.68068606,-0.36963907,2.9573071,-0.22266015,-0.12091315,0.96736884,0
2.4262962,1.7962925,-0.98950094,0.76373076,0.56542307,-0.31146747,0
2.7272668,0.07570827,1.6701114,0.85256279,0.023666939,0.52208859,0
-1.9305651,2.2141769,-0.24199715,-0.65496629,0.75118482,-0.082100302,0
2.4108472,1.7565006,-1.0167692,0.76500922,0.55737215,-0.32264084,0
-3.0365431,-0.71505433,-0.40865049,-0.96513075,-0.2272719,-0.12988491,0
0.016424464,-0.67741054,-3.0399213,0.0052735023,-0.21750031,-0.97604597,0
-2.4052842,0.35471094,-1.7592335,-0.80148923,0.11819684,-0.5862121,0
-2.907867,-0.33890495,-0.39941883,-0.98415923,-0.11470141,-0.13518216,0
0.93629628,2.2389216,-1.7049214,0.31569397,0.75490427,-0.57485372,0
2.0656331,0.30219409,2.2113218,0.67924553,0.099370986,0.72715265,0
2.8075349,-1.2325492,0.11443371,0.91501027,-0.40170297,0.037295356,0
-0.10049944,-2.8304865,-0.878187,-0.033891901,-0.95453835,-0.29615515,0
-1.2166907,-1.5888295,-2.4129987,-0.38811779,-0.50682807,-0.76973361,0
1.1027116,2.0100143,-2.0006685,0.3623969,0.66057432,-0.65750295,0
0.87552178,-2.7513967,0.85834306,0.29065657,-0.91341132,0.28495356,0
2.0693991,-0.1619336,-2.1171169,0.69795847,-0.054616306,-0.71405256,0
-0.8845706,-2.3427052,1.789067,-0.28742415,-0.76121688,0.58132279,0
2.6786165,-1.2462223,0.75723088,0.87828422,-0.40862039,0.24828635,0
2.5789144,-0.069258779,-1.6407874,0.84349537,-0.022652734,-0.53665859,0
-2.9859428,0.014742492,-0.98216259,-0.94992054,0.0046900413,-0.31245622,0
1.2304528,0.75010073,2.4217978,0.43662271,0.26617113,0.85936809,0
0.19963773,-2.204366,-1.9867716,0.067121342,-0.74114251,-0.66798383,0
1.6225581,2.255863,-0.13887659,0.58318263,0.8108061,-0.049915262,0
-2.4927113,0.57898009,-1.2885274,-0.87000829,0.20207614,-0.44972295,0
2.2429855,-1.9223627,0.45018831,0.75062293,-0.64332539,0.15065709,0
-0.79278028,1.3721364,2.7281744,-0.25127527,0.43490481,0.86470717,0
-1.4337655,-2.3554938,0.97969478,-0.48994121,-0.80491084,0.33477777,0
-2.0653291,0.82950681,2.3407853,-0.6394195,0.25681275,0.72469985,0
-0.96936905,-1.9809111,2.3812785,-0.29866815,-0.61033005,0.73368555,0
-2.5834088,1.3414896,-0.50437975,-0.87445188,0.4540776,-0.1707263,0
0.076767422,1.6030493,-2.4455914,0.026243811,0.54802054,-0.83605313,0
2.6790323,-0.57292056,-0.66115475,0.95059866,-0.2032889,-0.23459695,0
-1.9863136,0.61697894,-1.9350458,-0.69919354,0.21718006,-0.68114704,0
2.7586336,-0.0054184082,1.1722209,0.92035323,-0.0018077245,0.39108396,0
-1.1956007,-1.8066717,-1.8868874,-0.41615722,-0.62885493,-0.65677595,0
-1.7351997,-0.84427011,2.4261613,-0.55974275,-0.27234563,0.78263396,0
-2.0956552,-0.40762264,1.9312452,-0.72795498,-0.1415934,0.67084491,0
0.5538348,1.3191231,2.6072884,0.18622455,0.44354945,0.87668943,0
1.9797953,0.47496378,2.4561214,0.62057632,0.14887968,0.76988304,0
-1.3206739,0.41571206,2.5123816,-0.46038437,0.14491642,0.87581134,0
1.039675,-0.71697736,2.6571233,0.35339215,-0.24370518,0.90317315,0
-0.17252885,-2.8612626,0.57770067,-0.059002489,-0.97851235,0.19756567,0
2.7096725,1.0095286,-0.12308136,0.93622953,0.3488062,-0.042526323,0
-1.070274,1.8953347,-2.113416,-0.35277632,0.62472713,-0.69660956,0
2.0243838,-0.54165733,-2.039077,0.69235063,-0.18524985,-0.69737583,0
1.6545497,-0.67751527,-2.3769228,0.55628633,-0.22779158,-0.79915988,0
1.0076632,2.6467948,-0.3427532,0.35322076,0.92779297,-0.12014683,0
-0.62832743,2.246181,-1.7361134,-0.21609731,0.77251709,-0.59709227,0
0.89924091,1.8932509,2.0801046,0.30452368,0.64114052,0.70441759,0
2.9555385,0.58482057,0.62438554,0.96056902,0.19007045,0.20292932,0
0.11632635,3.1119459,-0.51159137,0.036860406,0.98608434,-0.16210829,0
1.8728909,-1.7788198,1.406045,0.63684314,-0.6048559,0.47810048,0
2.5047727,-1.7672534,-0.47915202,0.80729187,-0.5695883,-0.15443139,0
1.7011384,2.3114054,0.96779287,0.56167078,0.76316476,0.31953955,0
1.6776416,0.82619762,-2.2778118,0.56924802,0.28034076,-0.77289438,0
0.49083784,-2.5842776,1.7501981,0.15535171,-0.81793195,0.55394322,0
0.3107729,-2.9438193,0.66929698,0.10239976,-0.9699893,0.22053355,0
1.7473594,-1.4366057,1.6656717,0.62201482,-0.5113945,0.5929361,0
1.5393595,-2.3694816,-0.32578096,0.54120314,-0.83305484,-0.11453704,0
0.80036151,-2.1173391,-1.7759705,0.27818224,-0.73592514,-0.61727536,0
2.0063896,-2.1720386,0.62752545,0.66375858,-0.71855897,0.20759946,0
1.188051,2.4975784,0.59903127,0.4198243,0.88257498,0.21168105,0
-2.5328331,0.74192244,-1.5330545,-0.82983744,0.24307762,-0.50227785,0
-1.6449311,-2.4117553,-0.89371186,-0.53878379,-0.78995085,-0.29272807,0
-1.8044708,0.50085205,2.2481217,-0.61671871,0.17117752,0.76834643,0
0.3885819,2.5627658,1.2199297,0.13564086,0.8945753,0.42583638,0
-1.4687825,2.6322896,0.14298734,-0.4867171,0.87227368,0.047382362,0
-0.61169189,2.3385444,-1.9968356,-0.19509634,0.74586809,-0.63688165,0
0.36064696,3.1479838,0.13675435,0.11371406,0.99257737,0.043119434,0
0.97067338,2.1813118,1.5094402,0.34364182,0.77223706,0.53437829,0
1.1929739,1.7478371,-2.1748025,0.39314336,0.57599795,-0.71670401,0
2.2496934,1.7216027,-0.13788298,0.79320604,0.60700965,-0.04861534,0
0.28219372,-1.9180633,-2.2294254,0.095513918,-0.64920557,-0.75459212,0
-0.74893975,-1.3152764,2.6384859,-0.246217,-0.43240246,0.86741298,0
0.22094883,2.9804003,0.29395306,0.073576018,0.99247408,0.097886443,0
-1.5243062,-0.49960735,2.4262221,-0.52407748,-0.1717719,0.83416861,0
-2.1581504,-1.5861996,0.65805918,-0.78249937,-0.57512224,0.23859824,0
2.1185381,-0.72517717,2.0944638,0.69095916,-0.23651583,0.68310738,0
1.1399528,-1.0005453,-2.3998146,0.40153888,-0.35243374,-0.84531474,0
0.044849738,-2.7597716,1.1388388,0.015020757,-0.92428315,0.38141182,0
-1.9524825,1.7995125,-1.7535751,-0.61359215,0.56551939,-0.55108297,0
-0.71314192,2.8959794,-0.86939025,-0.22955534,0.93219525,-0.27985057,0
1.3997492,0.64854282,2.6961794,0.4506118,0.20878102,0.86796284,0
-1.102322,2.1944351,-1.7014517,-0.36896893,0.73452079,-0.56950951,0
-2.0811324,2.0573425,-0.021903483,-0.71113986,0.70301068,-0.0074845986,0
3.0076039,0.5156188,0.62499744,0.96557564,0.16553673,0.20065218,0
2.7905908,0.47420326,-0.80509019,0.94825751,0.16113678,-0.27357391,0
-0.29915461,-1.4774587,2.6109262,-0.099227071,-0.49006066,0.86602229,0
-1.7182981,-2.1649659,-0.75611377,-0.5996415,-0.75551695,-0.2638641,0
0.94160891,-0.34988743,2.6724219,0.32981324,-0.12255355,0.93605763,0
0.70373756,-1.6917603,-2.2963421,0.2395483,-0.57586569,-0.78166193,0
1.1959697,-0.33021313,2.7233932,0.39962897,-0.11033952,0.91001201,0
-2.4760315,1.2371478,-0.19617182,-0.89231426,0.44584432,-0.070696563,0
-3.1064591,0.3175655,0.11759278,-0.99411076,0.10162544,0.037631348,0
1.7599162,2.3636312,-1.3479416,0.54309595,0.72939759,-0.41596395,0
-1.0394592,-0.65882289,2.590924,-0.36238974,-0.22968736,0.90328151,0
-1.4762387,2.4363704,-1.5521934,-0.45504689,0.75100505,-0.47845975,0
-0.67906791,-0.5529421,-2.805676,-0.23104103,-0.18812892,-0.95458239,0
-0.73636985,2.4826608,-1.5463274,-0.24414483,0.82313091,-0.5126878,0
2.9685907,0.14924872,-0.83892345,0.96118736,0.048324607,-0.27163145,0
0.14741026,-3.0770907,-0.3402786,0.047561578,-0.99281621,-0.1097901,0
2.2050257,1.6957953,0.99754655,0.7461617,0.57384253,0.33756116,0
-0.75242293,2.0200646,2.1474493,-0.24728368,0.66389394,0.70575887,0
-0.37344486,0.75315928,3.0303903,-0.1187487,0.23949102,0.96360928,0
-1.7907979,0.34570023,-2.3852122,-0.5964126,0.11513302,-0.79437804,0
2.0473392,-0.7298463,-2.2495434,0.65450895,-0.23332281,-0.71915114,0
2.5542598,0.98381126,-1.4756672,0.82140642,0.31637695,-0.47454944,0
2.0898452,-1.2353568,1.5593765,0.72429651,-0.42814878,0.54044718,0
-2.1310468,1.8120754,0.5448485,-0.7477662,0.63584185,0.1911827,0
-0.13749555,-2.7666547,0.65272957,-0.048312981,-0.97214299,0.22935514,0
-1.7479554,0.95346963,-2.289947,-0.57602376,0.31420776,-0.75463247,0
0.95245647,-2.0576479,2.0072372,0.3145273,-0.67949188,0.66284484,0
-0.044428553,-2.8814785,-0.20138602,-0.015379327,-0.99744862,-0.069711506,0
-2.8344493,-1.0595785,0.44134527,-0.92688501,-0.3464897,0.14432304,0
0.064888172,-2.3866251,2.0570812,0.020589801,-0.75730497,0.65273672,0
0.41328713,-0.61721992,2.8960698,0.13823172,-0.20644093,0.96864551,0
-2.1016254,0.38987982,1.8414054,-0.74491966,0.13819262,0.65268481,0
0.10276305,-2.7706761,-0.79810494,0.035617735,-0.96031803,-0.27662367,0
1.943568,-0.17420521,2.0249293,0.69113439,-0.061947521,0.72006655,0
-1.9815662,2.3351316,0.066335052,-0.64687175,0.76229131,0.021654725,0
1.6652327,-2.5664952,-0.42734456,0.53906775,-0.83082378,-0.13833964,0
-2.7374821,-1.1209972,-0.17012642,-0.92388773,-0.37833145,-0.057416894,0
-1.0156276,-1.7206429,-2.4210999,-0.32354286,-0.5481357,-0.77127635,0
1.1789637,-0.70232135,-2.7569673,0.38282725,-0.22805431,-0.89522874,0
-2.2600985,1.1091199,1.5925802,-0.7586742,0.3723115,0.53460038,0
1.074044,0.77245343,-2.4087791,0.39082065,0.28107858,-0.87650102,0
-2.146971,1.5936977,-1.2978029,-0.72236401,0.53621119,-0.43665522,0
0.90596217,2.8330867,0.27235195,0.30331609,0.94851726,0.091183417,0
2.9863033,0.65955114,-0.048402563,0.97634596,0.21563452,-0.015824798,0
2.2163692,1.7381307,1.1595252,0.72764158,0.57063425,0.38067606,0
-0.52473086,-2.0200861,2.2615645,-0.17050773,-0.65641326,0.73488003,0
2.9282677,-0.9738366,-0.31531566,0.94398707,-0.31393617,-0.10164846,0
0.042104382,1.8651538,2.4032931,0.013839057,0.61304706,0.7899251,0
0.12945077,2.7223616,-0.77934974,0.045666844,0.96037787,-0.2749342,0
-2.664314,-0.19279474,0.90025651,-0.94516069,-0.068393596,0.3193644,0
1.0120419,2.7405856,0.17838617,0.34577027,0.93633771,0.060946718,0
0.38342297,2.7682245,-1.5868372,0.11930736,0.86137134,-0.49376634,0
0.19972235,2.0734072,-2.1630099,0.066509418,0.69046408,-0.72030264,0
0.56846035,-2.7364435,-0.56778347,0.19932303,-0.95949739,-0.1990857,0
0.02589264,2.3109376,-2.1037807,0.0082850633,0.73944813,-0.67316258,0
1.728389,1.0688927,-2.2566838,0.56913799,0.35197368,-0.74309921,0
-2.6756096,-1.0849118,-0.93876851,-0.8812986,-0.35735083,-0.30921379,0
0.38267785,2.933665,0.74341917,0.12544788,0.96170211,0.24370463,0
1.58325,-1.7702173,1.8119203,0.53001016,-0.59259951,0.60655999,0
-0.67934,2.3271682,1.5886388,-0.23438078,0.8029021,0.54810023,0
-0.61411417,1.7010049,-2.604259,-0.19369006,0.53649265,-0.82137674,0
-0.53676206,-2.5835161,-1.4510437,-0.17824663,-0.85792774,-0.48185906,0
2.6456599,-0.43278873,1.3986727,0.8749578,-0.14312945,0.46256119,0
-2.4399366,1.0965216,1.2376992,-0.82780856,0.37202194,0.41991988,0
0.22867575,-2.2916808,-1.8622977,0.07720843,-0.77374655,-0.62877274,0
1.7221874,-2.4862509,0.0039214967,0.56941891,-0.82204652,0.0012965919,0
2.7518826,0.1787342,-1.1095139,0.9257769,0.060129017,-0.37325805,0
2.0145521,-1.7097023,-1.3129654,0.68278605,-0.5794642,-0.4449994,0
0.59575927,1.9365354,2.3428724,0.19233909,0.62520462,0.75638932,0
1.6092763,2.1584215,1.1600378,0.54894251,0.7362622,0.39570209,0
1.9381208,-1.6804727,-1.7270635,0.62673312,-0.5434171,-0.55848324,0
-2.5584075,-0.12793337,-1.4245774,-0.87285459,-0.043647163,-0.48602456,0
-1.4230461,2.7194753,-0.46253315,-0.45846209,0.87613201,-0.14901409,0
2.5056949,0.34719601,1.8028371,0.80664206,0.11177056,0.58037567,0
0.18621704,2.7901886,0.60555625,0.065083303,0.97517753,0.21164335,0
0.86426419,-0.97385049,2.5768576,0.29935041,-0.33730721,0.89253193,0
2.5060971,-1.6126356,0.049604081,0.8408218,-0.54105616,0.016642688,0
-1.7980193,2.1747665,0.54109365,-0.6257903,0.75691503,0.18832454,0
-0.51839477,0.18694919,3.1620684,-0.16150734,0.058244541,0.98515123,0
-0.80868798,-0.057052512,-2.8711996,-0.27105731,-0.019122951,-0.9623732,0
-0.24584767,3.024848,-0.47979724,-0.080015115,0.98448586,-0.15615779,0
1.7623041,-1.3309712,-2.2090228,0.56418705,-0.42609942,-0.70720035,0
1.8227655,2.0813644,0.57762903,0.64492041,0.7364164,0.20437339,0
2.8992014,-0.27183083,0.70135194,0.96795285,-0.090755828,0.23415951,0
-1.0195783,1.2095417,-2.7542605,-0.32100195,0.38080963,-0.86714578,0
-0.53743708,-1.3071817,-2.7209294,-0.17528313,-0.42633253,-0.88742119,0
-0.27689099,-2.8433249,-1.1227592,-0.090207562,-0.92631906,-0.36578068,0
0.97488773,-2.3709321,-1.5105174,0.3276422,-0.79682761,-0.50765771,0
-1.446936,2.3787055,-0.94649374,-0.49203801,0.808891,-0.32186007,0
-2.2964182,1.7854373,1.0059277,-0.74610907,0.58009076,0.32682711,0
-0.54920465,-3.0479038,-0.71017784,-0.17284869,-0.95925289,-0.22351104,0
-1.7767582,-0.23630963,2.3971918,-0.59359843,-0.078948855,0.80087948,0
1.7317542,2.1184514,1.2255353,0.57761264,0.70659238,0.40876743,0
2.6604197,-1.17624,-0.50931305,0.9008919,-0.39830747,-0.17246751,0
-2.5209739,1.6049581,-0.47712758,-0.83300549,0.53032637,-0.15765728,0
1.1679559,2.1881671,-1.4204897,0.40861636,0.7655434,-0.49696684,0
2.1914971,1.9541078,-0.38306794,0.74010301,0.65993291,-0.12936807,0
-1.2189239,0.51743013,-2.5502443,-0.42418838,0.18006688,-0.88749099,0
-1.5732948,1.6368122,-1.8091637,-0.54195237,0.56383222,-0.62320209,0
0.61522716,2.6168506,-0.88706207,0.21733518,0.92442882,-0.31336361,0
-0.018913126,1.0682954,2.6509323,-0.0066172481,0.37377086,0.92749751,0
-1.8116347,1.9075217,1.5731282,-0.59103495,0.62231755,0.51322365,0
-1.4368069,0.23618503,2.8498638,-0.44896004,0.073800899,0.89049888,0
-1.6365461,0.9612751,-2.3779063,-0.53789622,0.31594968,-0.78156477,0
-2.4962041,-1.5581049,-0.70736104,-0.82481021,-0.51483804,-0.23373033,0
-1.6738666,2.1440842,0.73273021,-0.59418947,0.76110739,0.26010469,0
-1.1099622,-2.7647095,-0.24250801,-0.3713423,-0.92494458,-0.081132025,0
2.5183446,1.6907597,0.6490314,0.81186384,0.54506701,0.20923471,0
2.4270296,1.2093178,-1.6593862,0.76344019,0.38039988,-0.52197224,0
1.6588429,-2.0269082,1.3691341,0.56128401,-0.68582207,0.46325848,0
2.0008204,-1.8861253,-0.73817009,0.70277172,-0.66248602,-0.25927618,0
2.8280289,-0.46698678,0.74527228,0.95488924,-0.15767895,0.25164258,0
-1.0437917,0.92957932,2.7286341,-0.34046426,0.30321044,0.89002663,0
-1.2086592,-0.54516339,2.6634622,-0.40623835,-0.18323302,0.89520723,0
-1.8395025,1.9438348,1.3391395,-0.61468703,0.64955068,0.44748604,0
2.0989478,-1.4208413,1.6542004,0.69348341,-0.46943992,0.5465408,0
-1.635625,2.578177,0.93532008,-0.51220715,0.80737376,0.29290187,0
2.4566374,1.4632766,0.32714751,0.85357189,0.50842339,0.11366917,0
-1.220243,2.4444077,-1.2957581,-0.40355185,0.80840063,-0.42852578,0
1.5610139,-1.695274,1.6811939,0.54723155,-0.59429795,0.58936203,0
2.3260381,1.4142383,0.43684837,0.84366721,0.51295227,0.15844738,0
0.86661565,2.3302457,-1.6941886,0.28805143,0.77454245,-0.56312555,0
1.205048,-2.8017337,-0.55786204,0.38866323,-0.9036411,-0.17992683,0
-0.79018939,-2.2585983,1.950299,-0.25597644,-0.73165745,0.63178599,0
2.9688296,-0.31508547,0.49808377,0.9808585,-0.10409969,0.16455969,0
-2.6662498,1.325559,-1.0177608,-0.84731144,0.42125136,-0.32343569,0
-3.0025518,0.13112342,0.84485745,-0.96176893,0.042001087,0.27062237,0
-3.0351694,0.25622246,-0.82779831,-0.96157801,0.081174344,-0.26225641,0
-2.3795652,2.0672808,-0.038955521,-0.75484729,0.65578419,-0.012357497,0
-2.8373415,0.51948762,0.55581725,-0.96588111,0.17684275,0.18920998,0
2.7974494,-1.0263205,-0.11038937,0.93816882,-0.34419277,-0.037020821,0
2.2734003,1.8520962,-0.71703273,0.75309765,0.61353445,-0.23752776,0
2.4308059,-0.13854995,1.7087125,0.8172121,-0.046579078,0.57445168,0
-1.9543298,0.17077745,2.3910959,-0.63188016,0.055216312,0.77309674,0
-0.87206602,2.7914474,-0.0065494129,-0.29819283,0.954503,-0.0022394955,0
2.1472194,0.48263344,-2.0518889,0.71361268,0.16039969,-0.6819303,0
2.2234662,0.74567056,-1.5673206,0.78826892,0.26435703,-0.55565053,0
-1.8110666,1.5485364,-1.755198,-0.61194992,0.52324235,-0.59307224,0
-2.7792597,1.0778272,-0.037160091,-0.9322713,0.361545,-0.012464933,0
-1.8441453,2.2117622,-0.78914672,-0.61762077,0.74073899,-0.2642923,0
-1.655934,-0.28291973,2.1687737,-0.60362667,-0.10313085,0.79056871,0
-2.0249496,1.460809,-1.4055921,-0.70670915,0.50982362,-0.49055287,0
1.0208694,-2.1517978,-2.0303586,0.32619193,-0.68755031,-0.64874762,0
-1.4674239,-1.8805496,1.764187,-0.49460793,-0.63385552,0.59463447,0
-2.4472041,1.1914157,1.3795694,-0.80197453,0.39043945,0.45209941,0
-0.1609975,-3.0863965,0.40266696,-0.051656168,-0.99027264,0.129196,0
0.82879859,-0.44528806,-2.8626068,0.27505091,-0.14777642,-0.95000476,0
1.438081,-1.5577679,1.9058946,0.50444537,-0.54642874,0.66854352,0
1.7494947,2.5816102,-0.28703651,0.55863237,0.82433575,-0.091653824,0
-1.4502363,2.2911263,-1.5954283,-0.46096575,0.72824734,-0.50711584,0
-2.1754017,2.1555839,0.057014156,-0.71021187,0.70374191,0.018613635,0
2.2759478,-1.6598632,1.0444758,0.75755525,-0.55248988,0.34765652,0
2.2664075,-2.3078473,-0.066089034,0.70052588,-0.71333456,-0.020427518,0
-0.39056107,2.2457368,1.7060188,-0.13717523,0.78876132,0.59919828,0
0.8718828,1.1644952,2.6842229,0.28557506,0.38141686,0.87918597,0
-1.311693,-2.5508759,1.3291306,-0.41491625,-0.80689609,0.42043218,0
-2.808634,0.50564361,0.4910332,-0.96992487,0.17461738,0.16957186,0
0.8834433,-1.1364123,-2.4806266,0.30803484,-0.39623883,-0.86493313,0
1.9026965,0.26066449,1.952091,0.69481939,0.095188454,0.71285707,0
-1.5749083,-2.2236695,1.4430857,-0.51076514,-0.72116762,0.46801317,0
-0.79016584,2.1388671,-1.7780583,-0.27327469,0.73971587,-0.61493206,0
-0.27818587,1.3542535,2.518328,-0.096832141,0.47139442,0.87659049,0
2.5043211,0.35580516,-1.9306566,0.78700668,0.11181515,-0.60672718,0
-0.76928413,-2.8054371,0.08588285,-0.26433462,-0.96397948,0.029510306,0
2.8820157,0.75623423,0.096642703,0.96674687,0.25367212,0.032417946,0
-0.34194633,0.28049526,-3.1590877,-0.10719668,0.0879324,-0.99034172,0
-2.9256124,-0.18983544,0.66475606,-0.97319788,-0.063148297,0.22112949,0
2.8516436,-0.90751296,0.91026294,0.91166729,-0.29013088,0.29101005,0
0.0027337414,3.0381241,0.50993741,0.00088739872,0.98620427,0.16553058,0
-2.4746633,0.64212978,-1.7576468,-0.79763085,0.2069706,-0.5665229,0
-0.84109932,0.34281483,-2.6833007,-0.29690862,0.12101386,-0.94720691,0
2.6913526,-0.36636895,-0.80583483,0.94993669,-0.12931316,-0.28442651,0
2.5323818,-0.70700771,1.7478181,0.8021065,-0.22393759,0.55360383,0
0.27162009,-2.972528,0.24209878,0.090699844,-0.99259162,0.080842033,0
2.038429,1.7814938,-1.1869278,0.68959922,0.60267818,-0.40153691,0
0.39740491,-1.8821568,-2.3181353,0.13192563,-0.6248154,-0.76954621,0
0.27382323,-2.3162684,1.7672762,0.093572579,-0.79152966,0.60392463,0
-2.6302125,-0.79498112,0.79271084,-0.91972202,-0.27798575,0.27719191,0
-0.070788011,-2.7121053,1.2676235,-0.023638861,-0.90567708,0.42330864,0
-0.40757185,-2.4810729,1.2956322,-0.1440939,-0.8771643,0.45806086,0
2.6870675,0.22632083,-1.5408028,0.86519372,0.072871774,-0.49611443,0
-1.1407052,2.5191841,-0.8587786,-0.39393261,0.86997831,-0.2965717,0
-0.0094982544,-0.20965621,-3.1620522,-0.0029972317,-0.06615828,-0.99780464,0
-0.57741147,2.536258,1.814127,-0.18207477,0.79975653,0.57204747,0
-1.5462339,1.8444964,1.4564106,-0.54963374,0.65565592,0.51770461,0
0.78248984,-1.146229,-2.7703071,0.25253788,-0.36992973,-0.89407867,0
-1.5794332,-1.9565833,1.8023554,-0.51052326,-0.6324302,0.58257878,0
1.3349006,-1.4429575,-2.4137139,0.42882964,-0.46354234,-0.77539259,0
-2.3584874,1.528226,-0.82248372,-0.80543643,0.52189761,-0.28088272,0
2.9976063,0.0032501225,0.89000165,0.95863873,0.0010393938,0.2846238,0
0.31454283,2.7821767,-0.11095198,0.11225261,0.99289048,-0.039596036,0
2.4676847,-1.4204789,0.87828916,0.82816517,-0.47671857,0.29475746,0
1.9594028,1.7205228,1.3737519,0.66480994,0.58375984,0.46610323,0
-1.100701,2.7245047,0.27822998,-0.37291804,0.92306352,0.094264455,0
0.24792592,0.58908802,-3.0261281,0.080160059,0.19046548,-0.97841567,0
0.29997876,2.6008704,1.2603301,0.10323893,0.89510036,0.43374783,0
2.934505,-0.43069482,0.18813448,0.98741585,-0.1449222,0.063304365,0
-0.32319489,-3.0779674,0.19707198,-0.10421751,-0.99252224,0.063547887,0
-2.7428615,-1.0428472,0.93775499,-0.89036095,-0.33851889,0.30440488,0
-0.47564253,1.3280125,-2.7723839,-0.15290916,0.42692834,-0.89126366,0
0.69806087,2.7469556,1.2744193,0.22462998,0.88394666,0.41009715,0
0.26523304,-0.81696558,-2.9938118,0.085158162,-0.26230249,-0.9612208,0
1.9000922,0.9728502,-1.8256561,0.67645895,0.34634805,-0.64995867,0
0.022148004,-0.24049219,2.9819274,0.0074031707,-0.080386691,0.99673623,0
-0.74492592,1.3245248,2.6424839,-0.24437593,0.43451566,0.86687744,0
0.4758763,-3.1254225,-0.05100818,0.15050542,-0.98847759,-0.01613236,0
1.4998629,2.236701,1.3076452,0.50100321,0.74713117,0.43679619,0
-2.9231739,-0.47674161,0.73978508,-0.9575426,-0.15616602,0.24233103,0
-0.35219869,1.960322,-2.1015728,-0.12163952,0.67704004,-0.72582412,0
-1.4512241,1.2641344,2.3001373,-0.48388335,0.42150182,0.76693743,0
-0.22654228,2.671483,-1.3505255,-0.075463541,0.88989824,-0.44987381,0
1.6522423,-1.9758043,-1.1096973,0.58914292,-0.70451593,-0.39568669,0
2.5538588,1.0890745,-0.21205047,0.91718125,0.39112529,-0.076154843,0
1.6817819,2.3619068,-1.1077421,0.54183167,0.76095235,-0.35688916,0
2.5304096,0.12956233,-1.4825256,0.86197889,0.044135146,-0.50501931,0
-0.45824024,-2.5237331,1.4110036,-0.15653056,-0.86208355,0.48198557,0
-2.0706663,0.72024262,1.9661684,-0.70314485,0.24457581,0.66766006,0
0.55121785,-0.0084048277,3.0630281,0.17711276,-0.0027005698,0.98418683,0
-2.6779015,0.89962929,-1.0824829,-0.88517767,0.29737157,-0.35781366,0
-2.1671543,-0.18393782,-1.9926003,-0.73469836,-0.062357724,-0.67552185,0
0.15281032,1.4712197,2.6397767,0.050500263,0.48620394,0.87238491,0
0.65887779,2.9640954,0.6864413,0.21164912,0.95214653,0.22050326,0
-2.4116828,1.6322027,0.55135024,-0.81370491,0.55070734,0.18602629,0
-0.48036981,1.1355581,2.8801153,-0.15332878,0.36245769,0.91930115,0
-0.69250327,0.52855653,3.0075073,-0.22116655,0.16880646,0.96051532,0
0.65618181,-0.71668816,2.8889711,0.21528198,-0.23513308,0.9478218,0
-1.5973792,1.3306463,-1.9732469,-0.55728751,0.46423078,-0.68841881,0
0.39525127,1.3228143,-2.8352685,0.12533577,0.41946977,-0.89907509,0
-0.68080825,-2.1536386,2.0726707,-0.22208326,-0.7025283,0.67611617,0
-1.0139766,1.1789594,2.5420799,-0.34026322,0.39562699,0.85305351,0
2.3194113,-1.6001956,0.9868325,0.77685183,-0.53596139,0.33052468,0
2.7748208,-0.42251593,-0.85961246,0.94526762,-0.14393385,-0.2928347,0
-2.3149199,-1.7071086,-0.81517214,-0.7743299,-0.57101983,-0.27267125,0
-1.3721306,2.8479171,-0.23629838,-0.43284211,0.89838266,-0.074540928,0
-0.70288402,0.76171958,-2.9818051,-0.2226567,0.2412944,-0.94456393,0
-2.0176873,0.74370265,-1.7768893,-0.72330666,0.26660478,-0.63698465,0
-2.1896186,1.349769,1.8477705,-0.69136256,0.4261837,0.58342546,0
2.6385903,0.52813262,0.95234758,0.9243685,0.18501893,0.33363274,0
-1.8905699,1.6070356,-1.7320551,-0.62476987,0.53107131,-0.57238603,0
-0.10780522,-2.9668937,-0.67510182,-0.035408184,-0.97446406,-0.22173442,0
0.96349299,-2.2949867,1.8307875,0.31182691,-0.7427544,0.59252,0
-2.4464514,-0.59188271,-1.1307096,-0.88660765,-0.2145016,-0.4097755,0
1.7865083,-1.4862443,-1.528445,0.64228499,-0.53433418,-0.54950613,0
-1.6604784,0.49007937,-2.3154547,-0.57433319,0.16951071,-0.80087918,0
2.5207973,-1.3651414,-1.2574118,0.80527556,-0.43609813,-0.40168363,0
-0.26792085,2.9492989,0.40550953,-0.089633293,0.98669207,0.13566378,0
-2.8702486,-0.39954337,0.13219464,-0.98942107,-0.13772906,0.045569628,0
-0.78275025,1.8520266,-2.2503095,-0.25938523,0.61371851,-0.74570024,0
-1.0136684,-2.5313315,-1.4967518,-0.32588232,-0.81379294,-0.48118788,0
0.35697672,-2.8663902,0.8533473,0.11852024,-0.95167339,0.28332078,0
1.1281056,1.7442105,2.1617384,0.37628606,0.58179134,0.72106016,0
2.8343966,-1.190634,-0.48677531,0.91061628,-0.38251904,-0.15638795,0
-2.2322052,0.79399759,1.7483028,-0.7581082,0.26965985,0.59376383,0
1.5101666,1.2702665,2.2454066,0.50518745,0.42493501,0.75114304,0
2.2383521,-1.7058982,1.2612485,0.72579509,-0.55314463,0.40896511,0
-2.7592981,-0.2102042,-1.5893707,-0.86464769,-0.06586913,-0.49804178,0
-1.5363673,1.3135375,-2.1737185,-0.51759017,0.4425205,-0.73230875,0
-3.0961974,0.67831135,-0.38818461,-0.96958858,0.21241635,-0.12156181,0
1.9406445,-1.5356317,1.7780703,0.63684881,-0.50393832,0.58349788,0
2.3230462,-1.6815296,-0.57353926,0.79432416,-0.57496899,-0.1961115,0
1.4176619,1.8514295,-1.4913515,0.51216573,0.66887504,-0.5387879,0
1.8707123,-2.0153975,0.93155038,0.64433897,-0.69417363,0.32085866,0
1.5232596,2.4514408,-0.61129141,0.5163278,0.83094633,-0.20720482,0
0.06373477,3.0204329,1.1211268,0.019778531,0.93731767,0.34791434,0
-2.753087,-0.43822002,-0.38357225,-0.9783501,-0.15572795,-0.13630806,0
1.4689729,-1.7626243,1.8061024,0.50306314,-0.60362673,0.61851621,0
-1.1738222,0.51279926,2.5395668,-0.41268829,0.18028817,0.89285195,0
0.40164092,0.20506878,2.8036864,0.14143667,0.072214365,0.98730987,0
0.21672535,-1.2823999,2.8192987,0.069802664,-0.41303393,0.90803665,0
1.0610484,0.67995441,-2.7811992,0.34749773,0.22268787,-0.91085422,0
-0.15207177,-0.1243847,-2.9178147,-0.052000638,-0.0425331,-0.99774086,0
-0.94795722,-1.2363733,2.6290445,-0.31019574,-0.40457281,0.86029029,0
1.4876283,2.434171,-0.49398699,0.51382375,0.84075755,-0.17062208,0
2.8260443,0.00012523652,-0.81801963,0.96056849,4.2567714e-05,-0.27804372,0
-1.9150119,-2.1528404,0.67840314,-0.64694047,-0.72728509,0.22918211,0
-0.82737643,1.7836832,2.1849868,-0.28147519,0.60681278,0.74333709,0
0.79973912,1.1169834,2.7951443,0.25677988,0.35864055,0.89746368,0
-2.7466931,-0.39983901,-0.94268054,-0.93700469,-0.13640076,-0.32158527,0
2.6737616,1.000283,-0.2737571,0.93232566,0.34879309,-0.095457569,0
0.66560835,-2.3728168,-1.7960694,0.21827143,-0.77811247,-0.58898097,0
0.16947298,2.9713035,0.34053299,0.056574885,0.99190539,0.11367957,0
1.6622417,-0.63109261,-2.2509017,0.57949555,-0.22001335,-0.78471595,0
0.84210896,1.9225909,-2.3576393,0.26677933,0.60907501,-0.74689794,0
-1.9016112,1.400528,1.7020011,-0.65323126,0.48110184,0.58466226,0
1.984316,2.0421326,-0.97907466,0.65901196,0.67821348,-0.32516089,0
0.16784365,-2.3404438,-1.8209656,0.056510244,-0.78798956,-0.61308968,0
1.0133992,-2.7119632,-1.3180815,0.3185741,-0.85253787,-0.41435459,0
3.0317574,-0.46045029,-0.75159729,0.96024114,-0.14583729,-0.23805158,0
3.110065,-0.52366,0.0062941313,0.98611724,-0.16603838,0.0019956983,0
1.1875926,-1.1033846,2.5563762,0.39232969,-0.36451098,0.84451711,0
-2.8959279,-0.053458307,-0.27640551,-0.99530786,-0.018373204,-0.094998427,0
-3.0455313,0.19843686,-0.26236376,-0.99421716,0.064779937,-0.085648946,0
2.5049403,1.5050782,0.25639433,0.8538934,0.5130567,0.087400652,0
0.017132327,1.1268928,-2.6286871,0.0059901127,0.39400455,-0.9190889,0
0.5437665,2.1340337,-1.9222214,0.1860217,0.73004967,-0.65758902,0
2.5969,-0.28212786,1.092883,0.91711855,-0.099635988,0.38596144,0
1.9038398,2.2662179,-0.10947929,0.64279544,0.76514554,-0.036963604,0
0.8663404,-1.4572475,2.6441028,0.27582353,-0.46395522,0.84182358,0
-0.41849619,1.9950577,-2.335603,-0.13499571,0.64355242,-0.75340325,0
-1.8199033,-2.5199053,0.44287947,-0.57963073,-0.80257815,0.14105506,0
2.1484556,-2.2247193,-0.34991556,0.69026607,-0.71476841,-0.11242254,0
-2.9831052,0.80614859,0.30763358,-0.96062255,0.25959679,0.099064477,0
-2.0706286,-0.12586577,-2.0323868,-0.71299571,-0.043340344,-0.69982761,0
-1.3767924,0.46468478,2.7235694,-0.44600275,0.15053155,0.88228214,0
2.0671344,-2.180011,0.27464005,0.68521374,-0.72263014,0.091037691,0
-0.53347105,2.1544549,-1.736481,-0.18930231,0.76450878,-0.61619061,0
1.4596158,-2.4524724,-0.92466277,0.48653591,-0.81748629,-0.30821919,0
-2.6898725,-0.80503786,-0.5977751,-0.93701398,-0.28043401,-0.20823427,0
-0.6940909,2.1437151,-1.8623496,-0.23743486,0.73332286,-0.63707322,0
2.1638,2.0003445,-0.38040572,0.72825432,0.67324132,-0.12803037,0
0.41454405,-2.8691521,-0.05329698,0.14297409,-0.98955572,-0.018381853,0
1.0541217,0.066921212,2.9030962,0.34121978,0.021662433,0.93973386,0
1.7444905,-0.54607821,-2.3099868,0.59220433,-0.18537785,-0.78417408,0
-0.26854175,0.32822338,3.01706,-0.088141292,0.10773011,0.99026525,0
-0.17199565,-1.8623834,-2.4145682,-0.056314301,-0.60977596,-0.79057068,0
0.35607541,2.8794262,-0.57437664,0.12039064,0.9735465,-0.19419923,0
0.66707605,2.4406357,1.6796101,0.21965665,0.80365926,0.55306667,0
2.0918245,-0.40112069,2.239898,0.67676497,-0.12977399,0.72467095,0
2.9757104,0.87196529,0.54348361,0.94523931,0.2769812,0.17263846,0
0.76571208,-1.7475461,2.5424025,0.24088952,-0.54977,0.79982823,0
-1.000831,2.7051537,0.30432406,-0.34507039,0.93269336,0.10492603,0
0.71811557,0.59158069,2.8824911,0.23708563,0.19531018,0.95165348,0
2.5560966,0.75767457,1.381014,0.85132772,0.25234938,0.45995739,0
-1.6023394,-2.5348439,-0.54982853,-0.52556241,-0.83142102,-0.18034206,0
2.4090858,1.5355366,-0.075152434,0.84297615,0.53730786,-0.026296992,0
2.6769135,1.3336705,0.37043056,0.88827878,0.4425512,0.12291978,0
-2.5866728,1.0834976,0.51186204,-0.90736175,0.38007295,0.17955269,0
0.89379054,2.7920706,0.52090812,0.30017546,0.93770415,0.17494461,0
-2.485775,-0.22654814,-1.7612025,-0.81370872,-0.074159645,-0.57652271,0
2.7011378,1.2145975,0.85255104,0.87644619,0.39410403,0.27662978,0
-1.6082412,1.4516025,-2.2114451,-0.51948857,0.46889165,-0.71433342,0
-2.5430448,-1.1559993,-0.84104198,-0.87170547,-0.39625371,-0.28829256,0
-2.6423295,0.058591533,-1.2400755,-0.90508121,0.020069448,-0.42476496,0
-1.9466916,0.49093044,-1.9376369,-0.69769603,0.1759499,-0.6944508,0
-2.4571238,1.1778588,0.89695746,-0.85653377,0.4105922,0.31267223,0
2.1266489,-0.44654956,-1.9199129,0.7334097,-0.15399994,-0.66211343,0
1.4695296,0.15674157,-2.6799757,0.48016781,0.051215205,-0.87568027,0
0.43938363,2.836617,0.57522875,0.15008759,0.96895063,0.19649048,0
-1.8378105,2.3770123,-1.0101824,-0.57977104,0.74987209,-0.31868055,0
1.4176992,-2.300421,-0.6689477,0.50927562,-0.82637298,-0.24030398,0
0.58569497,-2.9099143,0.99029076,0.18717635,-0.92995018,0.31647703,0
-2.7876968,-0.52393198,0.60585278,-0.96111387,-0.18063596,0.20887978,0
-0.95145041,-2.2877729,-1.5348203,-0.32644397,-0.7849381,-0.52659905,0
2.5051768,-1.0430406,0.76085275,0.88890058,-0.3700974,0.26996994,0
0.31214514,2.5787725,-1.5850588,0.10257773,0.84744114,-0.52088505,0
-0.82114029,-2.9860184,0.054025486,-0.26511171,-0.96405989,0.01744256,0
-0.65541375,2.9285264,-0.27731335,-0.21747392,0.97171921,-0.092015803,0
-1.5936238,-0.67790425,2.3634977,-0.54388583,-0.23136108,0.80663514,0
2.7858582,-1.0811385,-0.5653159,0.91601187,-0.35548675,-0.18588027,0
-1.0257032,2.7035227,-0.47413537,-0.35004884,0.92264992,-0.16181146,0
-1.7950023,2.0685606,1.4681363,-0.57764018,0.66567248,0.47245312,0
1.2622796,-1.0031803,2.5924397,0.41346315,-0.32859445,0.84916073,0
1.8840623,-2.1944399,0.15807723,0.65044099,-0.75759369,0.054573517,0
0.69528353,0.35092807,-2.8013787,0.23912407,0.12069228,-0.9634589,0
2.3392198,-1.255528,1.3974211,0.77969289,-0.41848409,0.46577895,0
0.23083843,0.55651128,-3.0088787,0.07522583,0.18135639,-0.98053604,0
1.6185374,-2.6631908,-0.1202963,0.51896679,-0.85392374,-0.038571727,0
0.69253719,-2.1322396,-1.9737955,0.23185362,-0.71384966,-0.66080439,0
