-1.9581244,-0.17193925,2.7802355,-0.5750857,-0.050497204,0.81653327,0
-2.2484202,-0.64706713,-1.7869941,-0.7637164,-0.219788,-0.60698473,0
1.1253817,-2.682687,1.466827,0.34541595,-0.82340324,0.45021653,0
1.3125397,-0.56059968,-2.8727734,0.40917373,-0.17476246,-0.89556402,0
1.1608592,-1.8406963,2.2804277,0.3682743,-0.58394778,0.72344941,0
-1.1651284,-3.042522,-0.43989867,-0.35440645,-0.92546833,-0.13380751,0
2.6710358,-1.1023793,1.2467554,0.84873641,-0.35028711,0.3961634,0
3.2681155,-0.76406807,0.43089843,0.96581435,-0.22580227,0.12734185,0
0.36288404,3.0737946,0.068045609,0.11721481,0.99286336,0.021979345,0
2.0480664,0.53115106,2.3069863,0.65426809,0.16967966,0.73698175,0
-0.36764157,1.0491806,3.002022,-0.11484271,0.32773972,0.93776214,0
-3.212805,0.78762841,-0.47984964,-0.96117997,0.23563604,-0.14355738,0
-2.7882271,1.2534754,0.8614977,-0.87787861,0.39465913,0.2712442,0
-1.0516428,-0.27899325,-3.1741295,-0.31341553,-0.083146878,-0.94596899,0
2.9489038,0.49568918,0.69434446,0.96060818,0.16147122,0.22618337,0
-2.8325965,-1.0649316,-0.65466106,-0.91487134,-0.34395137,-0.21144228,0
2.9067268,-0.99822646,-0.20758413,0.94363266,-0.32406178,-0.0673896,0
-0.51087743,2.4818919,-2.0717585,-0.15608525,0.75827718,-0.63297164,0
2.2141912,-2.0741253,0.85890257,0.70221573,-0.65779477,0.27239513,0
-1.0913234,-3.0990319,-0.91941881,-0.31986821,-0.90832996,-0.26948276,0
-1.5691097,-0.18244085,-2.6676576,-0.50611734,-0.058846418,-0.86045474,0
-0.15940426,-2.4076145,-2.3047671,-0.047772165,-0.72154254,-0.69072002,0
1.2053049,2.8788748,-0.2069692,0.38534474,0.92039722,-0.06616956,0
-1.6744092,1.9965415,-1.8824136,-0.52088511,0.62109596,-0.58559239,0
0.61827183,-2.6658051,-1.4617723,0.19928131,-0.85924202,-0.4711583,0
-2.6709187,-1.1720321,1.2508794,-0.84158748,-0.36929896,0.39414319,0
-1.4191291,-2.6826556,0.56209666,-0.45978492,-0.869156,0.1821142,0
0.76649976,1.6601388,2.3834653,0.255153,0.55262828,0.79340971,0
1.0650812,2.717711,1.3734975,0.33015904,0.84244919,0.4257634,0
0.75611758,-0.62174881,-3.0870171,0.23347685,-0.19198595,-0.95322078,0
0.14430866,-0.92566979,-2.9667983,0.04638356,-0.29752797,-0.95358568,0
-1.9953721,-0.16580588,-2.3205097,-0.65103453,-0.054097854,-0.75711787,0
-1.0219009,-2.8983731,-0.88886982,-0.31942299,-0.90596557,-0.2778405,0
-1.5591794,-2.8903077,-0.3202838,-0.47253284,-0.87595129,-0.097066835,0
-1.4512342,2.2872674,-1.2520489,-0.48631006,0.76646566,-0.41956285,0
0.2483028,-3.1649311,-0.14069527,0.078137375,-0.99595898,-0.044274811,0
-1.5427579,-2.7823675,1.0165339,-0.46191573,-0.83306611,0.30435947,0
-2.2531714,-2.4923441,-0.47006726,-0.66414905,-0.73464799,-0.13855791,0
2.5235326,-1.6208378,1.2518445,0.77647352,-0.49872056,0.3851839,0
0.96828401,-1.8093574,-2.5282285,0.29735997,-0.55565357,-0.77641881,0
-2.8048911,0.11782538,1.3118576,-0.90516782,0.03802349,0.42335021,0
0.83345759,-2.1929331,-1.8528664,0.27880105,-0.73356104,-0.61980492,0
-1.9502788,-2.5114818,0.46553373,-0.60686451,-0.78149295,0.14485924,0
0.14502151,3.1615219,-0.71596587,0.044693232,0.97432882,-0.22064884,0
-2.6691415,1.4075634,1.4644786,-0.79577547,0.41964969,0.43661833,0
1.7501714,-2.2651069,0.97317481,0.57887745,-0.74919474,0.32188213,0
-2.3389623,-2.0223272,-0.94560528,-0.7233808,-0.62545371,-0.29245135,0
2.7473743,-0.74047887,-1.5133979,0.85246795,-0.22975919,-0.46958408,0
0.96114504,-2.45421,1.4016029,0.32196975,-0.82212502,0.46951675,0
-2.3795812,2.0886497,-0.6352933,-0.73686922,0.6467784,-0.19672708,0
0.8443163,-2.7591951,1.617624,0.25523618,-0.83410257,0.48900652,0
1.7659385,-0.94486701,2.6124463,0.53645998,-0.28703341,0.79361361,0
-2.5631533,-1.452829,1.1500407,-0.81041622,-0.45935461,0.36361918,0
-1.0356855,1.8146842,-2.1727524,-0.34357992,0.60200614,-0.72079223,0
2.2087584,-0.60425699,2.3872588,0.66770566,-0.18266635,0.72166622,0
-2.8316331,0.42333445,-1.4581928,-0.88129157,0.13175474,-0.45383459,0
-2.1809599,-1.4606938,-1.694587,-0.69804257,-0.4675127,-0.542373,0
0.28491372,-3.2484844,-0.88554025,0.084317587,-0.96135902,-0.26206747,0
2.9904985,0.76698667,1.0408379,0.91788834,0.23541497,0.31946945,0
-0.48424947,2.9644833,0.18347378,-0.16091378,0.98508358,0.06096746,0
-2.5654781,1.9399352,-0.49900702,-0.78820217,0.59601414,-0.15331194,0
-0.66685027,-2.6783257,-1.5149614,-0.21179749,-0.85065973,-0.48116502,0
0.055548351,0.81988537,-2.949439,0.01814251,0.26778075,-0.96330905,0
-1.2967182,-0.71445423,3.0182896,-0.38571635,-0.21251856,0.89780772,0
-2.1119044,-2.2663291,-0.31904107,-0.67815548,-0.72774291,-0.10244755,0
1.0105041,-2.0167222,-2.27775,0.31522229,-0.62910753,-0.71053404,0
2.9695029,0.031797171,1.4297831,0.90095705,0.0096473675,0.43380094,0
1.0908911,2.2718806,2.0614591,0.33504719,0.69776642,0.63313931,0
-2.9196329,-1.2933037,0.15636665,-0.91321766,-0.40452614,0.048909158,0
-0.27064082,2.6579738,1.8024358,-0.083975278,0.82472444,0.55926538,0
0.57194632,-3.0042048,-0.34274635,0.18585911,-0.97624344,-0.11137852,0
3.31177,0.68182695,0.27171424,0.97631025,0.20100267,0.080101393,0
-0.51435429,2.3720744,-2.2079928,-0.15675612,0.7229203,-0.67291433,0
-0.60820073,3.0213568,1.090991,-0.18603006,0.92414099,0.3337009,0
-1.2820951,-1.9521561,2.4349613,-0.37999526,-0.57859206,0.72168887,0
-3.0862777,0.11317387,-1.1735941,-0.93415368,0.034255438,-0.35522315,0
2.5649586,1.7611864,-0.42335832,0.81684828,0.56087536,-0.1348246,0
-1.366768,-2.9033608,-0.75839585,-0.41450107,-0.88050508,-0.22999945,0
0.24030502,2.2448468,-2.0646477,0.078546762,0.73375684,-0.67485642,0
-1.3053224,-1.0331703,-2.6895981,-0.41267097,-0.32663149,-0.85030264,0
0.74945509,2.736155,1.1625556,0.24444839,0.89244664,0.37918863,0
2.9570396,-1.0405455,0.36686841,0.93690753,-0.32968611,0.11623847,0
2.1405835,0.096246645,-2.4933944,0.65110636,0.02927557,-0.75842166,0
1.3472842,-0.90958142,2.776509,0.41875234,-0.28270897,0.8629728,0
1.5143867,1.7896454,-2.2985911,0.46124646,0.54508382,-0.70009667,0
-0.42859602,1.7789675,-2.6968026,-0.131511,0.54586089,-0.82749069,0
-1.4689401,0.81042612,-2.6916373,-0.46314415,0.25552034,-0.84864998,0
0.090995774,2.0440419,-2.3049827,0.029523965,0.66319805,-0.74786139,0
-0.85023928,0.51646137,-3.141932,-0.25798753,0.15670954,-0.95335436,0
-0.91155076,2.008224,1.9972004,-0.30636775,0.6749543,0.67124927,0
1.3116493,1.2597107,2.7361825,0.39923331,0.38342446,0.8328256,0
1.3401546,-1.8938706,-2.0490963,0.43294916,-0.61183214,-0.6619792,0
-1.3234134,-0.051003147,3.015157,-0.40186188,-0.015487392,0.91556931,0
1.6724209,1.5150284,-2.5461404,0.49156684,0.4453052,-0.74837512,0
0.7721743,2.3937039,-2.0091066,0.23987299,0.743595,-0.62412131,0
-3.010772,1.5163821,-0.25967517,-0.89048064,0.44849259,-0.076802798,0
1.6638786,-1.8095815,2.230463,0.50126737,-0.54516244,0.6719591,0
1.2951854,-2.6547666,1.5473084,0.38840985,-0.79613113,0.46401837,0
2.5634277,1.4757351,-1.1566303,0.80713367,0.46465731,-0.36418238,0
2.1664114,-1.4287524,2.0107927,0.65989172,-0.43519983,0.61249006,0
1.144815,-2.1601803,2.4777298,0.32889208,-0.6205948,0.71182305,0
0.60097569,-2.8641262,1.008505,0.19415151,-0.925286,0.32580811,0
-3.0589724,-0.47062191,0.4911792,-0.97615463,-0.15018107,0.15674114,0
-1.9334811,-1.9571451,1.7001286,-0.59784782,-0.60516489,0.52569336,0
1.5480975,-2.6117384,1.3443229,0.46623969,-0.78657585,0.40486902,0
-1.5396707,2.1965384,-1.2702153,-0.51876318,0.74008244,-0.42797521,0
3.2591906,0.27391136,0.32217315,0.99168748,0.083344147,0.098028965,0
-3.1059563,0.23784083,-0.70930201,-0.9721961,0.074446619,-0.22201879,0
-0.36880517,-1.2089016,2.9506803,-0.11489327,-0.37660715,0.91922063,0
-1.5405844,2.6727355,0.19422667,-0.49840036,0.86466688,0.062835015,0
-2.2786517,-2.3542011,-0.49392021,-0.68771261,-0.71051389,-0.14906847,0
1.5352178,-1.4319936,-2.2462909,0.49931863,-0.46574569,-0.73059011,0
-0.79894006,1.0959452,-2.8650091,-0.25204688,0.34574509,-0.90384334,0
-0.6876145,1.9906284,-2.4914153,-0.21077634,0.61019272,-0.76370031,0
-2.4355135,1.4406101,-1.2439767,-0.78792548,0.46605918,-0.40244532,0
0.04213354,1.1855062,-2.8465958,0.013662515,0.38442051,-0.92305696,0
2.4347191,0.73592538,2.1457527,0.73164856,0.22115025,0.64481235,0
0.19572552,-3.0565593,-0.48659763,0.063112177,-0.98559517,-0.15690462,0
-3.06669,0.07177446,1.0200851,-0.94864827,0.022202674,0.31555259,0
0.43172964,2.2591515,1.9447402,0.14333633,0.75004917,0.64566314,0
3.1377604,-0.87683129,0.081366859,0.96280247,-0.26905027,0.02496692,0
-1.8227066,2.2067976,-1.5936311,-0.55638957,0.67363513,-0.48646322,0
2.0235693,-2.5472753,0.61646366,0.61114466,-0.76931083,0.18618017,0
-1.1769817,-2.1424375,-2.1471064,-0.36175644,-0.65849841,-0.65993345,0
-2.941483,-1.3493563,-0.060858794,-0.90876639,-0.41688141,-0.018802226,0
1.5920639,-2.649688,0.66417551,0.50353932,-0.8380456,0.21006601,0
-2.1194186,-2.1926091,0.51489455,-0.68530458,-0.70897037,0.16648886,0
-2.7465167,-1.4595886,0.48098171,-0.87267572,-0.46376836,0.15282668,0
1.8614153,-2.7362816,-0.022123834,0.56245112,-0.82680351,-0.0066850078,0
3.0103278,-0.12617539,-0.12667148,0.99824089,-0.041840438,-0.042004943,0
1.4322803,-2.1753449,-1.6672904,0.46314996,-0.70343137,-0.5391441,0
-0.70941341,-1.9224916,-2.3752594,-0.22614011,-0.61283374,-0.75716275,0
2.0957167,2.3655722,0.36802217,0.65867221,0.74348634,0.11566734,0
-0.71630085,2.7802691,-1.7258841,-0.21382916,0.82996219,-0.5152086,0
1.9121792,2.3109636,1.3892475,0.57846665,0.69910568,0.42027092,0
-1.2038341,-2.1532397,1.807657,-0.39362675,-0.70406115,0.59106332,0
0.41150174,-0.72256023,3.31405,0.1204357,-0.21147431,0.96993494,0
-0.84912896,0.15781739,2.8451355,-0.28558129,0.053077564,0.95688349,0
-0.22062261,3.1929255,0.84335363,-0.06665764,0.964692,0.25480598,0
1.9974668,-0.9272911,-2.6188393,0.58376366,-0.27100268,-0.76536101,0
-2.3268299,1.6078274,1.0257626,-0.77340311,0.53441751,0.34094796,0
-3.0716949,-0.53883433,0.19261439,-0.98308694,-0.17245236,0.061645672,0
-0.97914898,-2.4623978,-1.9208586,-0.29916921,-0.75236106,-0.58689916,0
1.4677142,1.6806896,2.3503952,0.45287612,0.51859158,0.7252351,0
1.4906965,1.560261,-2.0249517,0.50374538,0.52725303,-0.68428421,0
2.4242642,2.1181233,-1.0830549,0.7137444,0.62361133,-0.31886968,0
-1.3448999,-2.8646853,-0.39500943,-0.42170003,-0.89823627,-0.12385716,0
-0.43432862,-0.56137311,-3.1315417,-0.13526395,-0.17482971,-0.97526318,0
-1.2332249,-2.4739001,1.462762,-0.39432776,-0.7910378,0.46772304,0
1.9539914,0.80218798,2.5222137,0.59394443,0.24383682,0.76666391,0
2.6998274,1.084456,1.12771,0.86522079,0.34753844,0.36140019,0
-2.8060634,-0.23641482,1.6764265,-0.85622811,-0.072138429,0.51153636,0
2.3668041,0.72290283,-1.8904597,0.76000601,0.23213179,-0.60704672,0
2.9000764,-0.70358855,-0.46121892,0.96040589,-0.23300441,-0.1527399,0
0.68614489,2.8723409,-1.0102723,0.21983483,0.92027295,-0.32368243,0
2.8695333,0.9687556,-0.77217847,0.9180935,0.30994874,-0.24705482,0
-2.7061074,1.7188808,1.0872277,-0.79939181,0.50776225,0.32117015,0
-1.753154,2.7884569,-0.31244072,-0.52988213,0.84279728,-0.094433658,0
0.54244286,0.44743472,2.9604297,0.17827138,0.1470474,0.9729318,0
0.55052686,2.684206,1.2511882,0.18276405,0.89110339,0.41536978,0
-1.8563066,1.8205435,-2.1156986,-0.55377769,0.54310882,-0.63116014,0
-2.4095423,-0.20578149,-1.9406191,-0.77710021,-0.066366479,-0.62586802,0
-3.161562,0.78980279,1.0022584,-0.92731637,0.23165672,0.29397199,0
1.1170757,-2.5247507,-1.1926088,0.37144059,-0.83950883,-0.39655623,0
0.56871331,-3.1444685,0.94201398,0.17071083,-0.94387603,0.28276461,0
2.5279915,-0.33680242,-1.8871362,0.79681736,-0.10615938,-0.59482116,0
2.9250629,1.3673388,-0.037478141,0.90584785,0.42344418,-0.011606415,0
1.2670506,-0.7985605,-2.7941861,0.39966688,-0.25189063,-0.88137251,0
1.8513471,-0.005123483,-2.8674111,0.54241675,-0.0015011032,-0.84010822,0
1.3263242,-1.2156248,-2.7102509,0.40771702,-0.37368762,-0.83314127,0
2.082737,2.4696062,-0.25769544,0.64265007,0.76202255,-0.079514593,0
-0.54886222,1.6680642,2.4500275,-0.18208294,0.55337393,0.81278723,0
0.68160343,-0.24291688,-3.1636889,0.21002242,-0.074849963,-0.97482723,0
2.3377657,-2.0510869,-0.98622203,0.71652848,-0.62866104,-0.30227843,0
-2.2114329,2.1100373,-1.1965765,-0.6737138,0.64282358,-0.36453742,0
1.6329269,-1.7177653,-2.2036126,0.50457954,-0.53079486,-0.68092316,0
2.967242,-0.48463804,-1.3470554,0.90065593,-0.14710365,-0.40887582,0
-2.2069192,0.37282288,2.3193586,-0.68470168,0.11566914,0.71958625,0
2.5412083,-1.7276505,1.1852908,0.77157265,-0.5245567,0.35988313,0
-1.8694772,-2.3683445,-1.3153979,-0.5679633,-0.71952355,-0.39962924,0
0.60735416,1.8991923,2.5770557,0.1863977,0.58286434,0.79090136,0
1.0456021,0.25040856,3.0276425,0.32544059,0.077938929,0.9423449,0
-2.6105671,-1.5552996,-0.30859232,-0.8546958,-0.50920278,-0.10103267,0
1.3945118,1.6921734,1.9199815,0.47847006,0.5806005,0.65876359,0
-1.2607144,-0.99208117,2.9614606,-0.37431392,-0.29455507,0.87927604,0
2.6929622,0.75116593,-1.4892459,0.85013908,0.23713498,-0.47013885,0
2.0549669,-1.8294696,-1.7365896,0.63160753,-0.56229943,-0.53375214,0
-0.068298869,-1.4018072,-2.833147,-0.021601832,-0.44336903,-0.89607877,0
1.650087,-0.8041814,-2.4477634,0.53931785,-0.2628403,-0.80003202,0
1.7668958,2.2699246,1.8827212,0.51394707,0.66026598,0.54763788,0
-2.7545147,0.83084279,1.2321326,-0.88008595,0.26545987,0.39367464,0
-0.37028289,2.2686238,-1.9146261,-0.12377498,0.75833607,-0.64000475,0
-0.054052625,2.7442687,-1.7898015,-0.016495626,0.83748811,-0.54620653,0
-1.6263508,-2.0593848,1.7066108,-0.51955569,-0.65789324,0.54519564,0
2.8607388,-0.30351397,0.87875974,0.95103812,-0.10090169,0.29213923,0
0.067462727,3.143744,0.62421316,0.021043791,0.98063469,0.19471213,0
0.32894173,-1.8207756,-2.5530195,0.10432698,-0.5774762,-0.80971426,0
1.0506871,-0.31970966,-2.9536769,0.33341932,-0.10145493,-0.93730378,0
1.562397,-1.5660737,-2.4672675,0.47148606,-0.47259557,-0.74454975,0
0.27575684,3.0911982,0.73115909,0.086486481,0.96950215,0.22931571,0
2.0413353,-1.8806059,0.95352769,0.6955663,-0.64079922,0.32490581,0
1.8388593,-2.5145812,-0.046593372,0.59021854,-0.80710495,-0.014955071,0
-2.0448003,-0.479855,-2.5945678,-0.61255479,-0.14374875,-0.77724701,0
1.967541,1.7193334,-1.9131132,0.60756308,0.5309183,-0.59075618,0
2.9469943,-0.31521985,-1.4038379,0.89862007,-0.096119247,-0.428069,0
-0.74385017,-3.2310679,0.38022524,-0.22288868,-0.96816331,0.11393141,0
-0.86488336,1.818691,2.5818942,-0.26413316,0.55542356,0.78850389,0
0.79267251,1.5751942,-2.6883347,0.24654865,0.48994005,-0.83616537,0
2.1827445,1.0952638,-2.063719,0.68267745,0.34255588,-0.64545095,0
-1.8128846,-2.1367848,1.5715483,-0.56426716,-0.66508234,0.48915035,0
0.65343487,-3.0008833,-0.56520373,0.20924804,-0.96096641,-0.18099397,0
2.5655971,1.5522939,0.81778032,0.82543874,0.49942508,0.26310739,0
-0.63070226,-3.0222225,0.071695536,-0.20423214,-0.97864717,0.023216236,0
0.23943143,-2.8473394,1.3168579,0.076100975,-0.90499943,0.41855064,0
2.83726,-0.84016228,-1.5355684,0.85107166,-0.2520172,-0.46061295,0
-1.2035327,0.036130626,-2.7570369,-0.40004462,0.01200953,-0.916417,0
-1.7388743,-2.3109596,-0.73748714,-0.58260679,-0.77428293,-0.24709377,0
2.9497936,-1.252898,-0.072120748,0.92018378,-0.3908397,-0.022497961,0
0.17390877,-3.2673638,-0.61746985,0.052228905,-0.98126644,-0.18544076,0
1.2870734,-0.088459566,-2.8571815,0.41055715,-0.028217278,-0.91139817,0
1.1499876,-2.7141871,-1.7707844,0.3344208,-0.78929603,-0.51495093,0
0.53092688,-0.078399703,2.9799018,0.17534812,-0.025892906,0.98416591,0
1.0306032,1.4271286,-2.5993769,0.32828417,0.45459178,-0.82799506,0
1.909911,2.0375557,-1.9211608,0.56344092,0.60109723,-0.56675971,0
-1.6106558,1.1412253,-2.599246,-0.49348408,0.34965667,-0.79637533,0
1.2423369,-2.1346066,1.9267116,0.39660391,-0.68145233,0.61508387,0
2.998203,0.14853728,1.1824217,0.9292832,0.046038643,0.36648771,0
-0.19084586,-1.0601171,3.1172571,-0.057865132,-0.32143122,0.94516325,0
-0.41355005,-0.67581981,-3.2084332,-0.12513563,-0.20449553,-0.97083604,0
1.3163611,-2.1467643,1.9973015,0.40955472,-0.66791511,0.62141323,0
-1.9663872,1.4144659,2.0745497,-0.61657232,0.44351417,0.65048736,0
-0.10056949,-3.0713165,-1.313729,-0.03009258,-0.91900474,-0.39309633,0
-1.50728,-2.1029468,-1.5610424,-0.49880597,-0.69593066,-0.51659763,0
-0.2997084,-3.0180991,0.61498272,-0.096846804,-0.97525877,0.19872354,0
-1.6665324,2.2416501,1.2128372,-0.54726368,0.7361235,0.39827713,0
-0.75139427,2.4011853,1.7046591,-0.24724212,0.7900967,0.56090862,0
-0.85601068,2.7779846,-1.399524,-0.26532772,0.86105973,-0.43379423,0
2.1004622,-2.5816152,0.1634164,0.63035786,-0.77475399,0.049041975,0
-1.9658458,-0.81830823,-2.2823272,-0.62979436,-0.26215988,-0.7311849,0
1.502021,-2.4759972,-0.89231789,0.49566355,-0.81707358,-0.29446292,0
-2.1420493,-1.037884,2.0565815,-0.6809563,-0.32994276,0.65378612,0
2.7392612,-0.20332326,1.9400282,0.81457108,-0.060462017,0.57690406,0
-0.7367689,2.9249113,0.18545434,-0.24380384,0.96788096,0.061368607,0
0.79883695,2.8384793,1.3411727,0.24659868,0.87623042,0.41401616,0
2.4785116,1.7335997,0.97908545,0.77961451,0.54530287,0.30797082,0
-0.57625347,0.52712739,3.1689653,-0.17656003,0.16150814,0.97094882,0
-1.1723303,-2.9216812,1.3893932,-0.34068727,-0.84906071,0.40376726,0
-0.4768253,3.2248845,0.23022437,-0.1459045,0.98678732,0.0704467,0
2.9591513,-0.96675265,0.1118002,0.94994575,-0.3103466,0.035890065,0
1.1987561,0.74713182,2.7377915,0.38911784,0.24251999,0.88869077,0
-1.247106,3.0336044,0.84315675,-0.36824909,0.89577156,0.24896979,0
-1.1887543,0.98162431,-2.8957024,-0.36236757,0.29922819,-0.88269597,0
-2.2448161,-2.1116302,-0.13541161,-0.72768217,-0.6845085,-0.043895181,0
-2.7936223,-1.1133478,0.11362431,-0.92828387,-0.3699508,0.037755862,0
-1.9043639,-0.54350263,2.500217,-0.59706783,-0.17040227,0.78388333,0
0.9724071,0.39622933,2.9472702,0.31079894,0.12664208,0.94200099,0
2.8608613,1.119066,-0.29557338,0.92700607,0.36261141,-0.095774762,0
-1.6094581,1.8793058,-1.8566725,-0.52028078,0.60751301,-0.60019648,0
-1.6156685,-1.5624436,-2.2914052,-0.50337106,-0.48678854,-0.7139008,0
0.83444673,0.4998605,3.0579226,0.26004118,0.15577306,0.95294976,0
-0.1882921,-3.1259596,-0.10522526,-0.060092084,-0.99762774,-0.03358189,0
0.19355953,-0.030043429,-3.141247,0.061499242,-0.0095456326,-0.99806148,0
-2.7122641,-1.4426504,-0.5080505,-0.8710472,-0.46330908,-0.16316108,0
-1.9315171,1.7185423,1.855305,-0.60697824,0.54005104,0.58302861,0
3.0852945,-0.98136073,0.22009434,0.95076036,-0.30241483,0.067823984,0
2.8230262,-1.7350011,0.25293297,0.84948945,-0.52208698,0.07611119,0
-1.130906,-1.1565284,2.8622241,-0.34398308,-0.35177654,0.8705911,0
-1.2202141,0.2522006,-2.8979344,-0.38682318,0.07995075,-0.9186815,0
-3.1303005,0.68351978,-0.95693624,-0.93612099,0.2044076,-0.28617319,0
-0.60987109,2.5875919,1.830687,-0.18894058,0.80164665,0.56715441,0
-1.4759798,-2.1606944,2.0908954,-0.44066051,-0.64508516,0.62424636,0
-0.50714254,-0.86133927,-2.9004064,-0.16531096,-0.28076687,-0.94543231,0
-0.21242289,3.2862198,-0.86448187,-0.062391851,0.965213,-0.25391155,0
2.3187883,0.18553217,2.2944539,0.70967996,0.056783304,0.70223224,0
0.46064186,1.7434233,-2.786423,0.13878867,0.52528316,-0.83953279,0
2.6097586,-1.8945261,0.024191756,0.80922633,-0.58744913,0.0075013088,0
1.3986951,2.3836775,1.5466623,0.4416348,0.75264072,0.4883551,0
-1.0011796,1.8100401,-2.5434463,-0.30538923,0.5521155,-0.77582598,0
0.30462465,-3.1085491,1.190544,0.091132842,-0.92996716,0.35616836,0
-1.4285992,0.35643327,-2.7420692,-0.45900601,0.11452128,-0.8810212,0
-0.6543206,2.0804243,-2.6413829,-0.1910215,0.60735637,-0.77112192,0
-1.2570726,2.8600702,0.76436442,-0.39084619,0.88924664,0.23765448,0
-3.1425343,-0.80881041,-0.99870849,-0.92559224,-0.23822451,-0.29415649,0
2.3165121,1.5783218,1.5016849,0.72846347,0.49632797,0.47222829,0
-2.7923086,-1.0809306,-0.93462229,-0.89020449,-0.34460706,-0.29796311,0
1.0161211,-1.0503693,-2.9214504,0.31106421,-0.32154855,-0.89434087,0
2.6559374,1.3923267,-1.77266,0.76242959,0.39968979,-0.5088706,0
-2.2037785,0.51448429,-2.1572309,-0.70487159,0.16455618,-0.68998349,0
-2.515141,0.90353656,-2.0066311,-0.75258839,0.27035904,-0.60043043,0
1.6561831,-2.3783367,-1.1802843,0.52925092,-0.7600227,-0.37717235,0
0.66421527,-0.7223261,-2.9675112,0.21251151,-0.2311037,-0.9494366,0
2.5346198,2.117213,0.41839847,0.76138586,0.63599914,0.1256846,0
-2.2179642,0.93476522,-2.2016506,-0.67994726,0.28656507,-0.67494613,0
-0.6917516,2.2135792,-2.2222321,-0.21536659,0.689165,-0.69185895,0
-0.43903103,-0.50931185,-3.2872405,-0.13084668,-0.15179284,-0.97971326,0
0.12762117,3.0791659,1.2635722,0.038315579,0.92445499,0.37936106,0
-0.80939859,-2.766006,-1.189124,-0.25961566,-0.8872,-0.38141307,0
-0.54762167,-3.1463981,0.55328268,-0.16895281,-0.97073001,0.17069934,0
1.111421,2.8183582,0.067548171,0.36676443,0.9300468,0.022290623,0
-2.151072,1.274166,-1.9296644,-0.6811074,0.40344718,-0.61100173,0
-2.6973863,1.8593057,1.1826942,-0.77443099,0.53381455,0.33955652,0
1.3749956,1.0584344,2.5080023,0.45085528,0.34705618,0.82236338,0
-2.2714221,-2.0800397,-0.36669832,-0.73232102,-0.67061812,-0.11822588,0
0.96411449,-1.4394236,-2.8495033,0.28910407,-0.43163258,-0.85446596,0
3.3546512,-0.070886225,0.11046228,0.99923551,-0.021114575,0.032902922,0
2.8552747,-0.96405214,-0.37475079,0.94021082,-0.31745186,-0.12340135,0
-0.38855064,0.26179689,-3.346875,-0.11497251,0.077465959,-0.99034357,0
-2.2320795,1.7555416,1.5401301,-0.69094014,0.54342782,0.47674724,0
-2.4642115,0.98076433,-1.3563951,-0.82721263,0.32923338,-0.45532909,0
-1.4909259,2.6537466,-0.28330103,-0.48770252,0.86807728,-0.092671692,0
1.5999994,-1.6989368,-2.1593385,0.50322592,-0.53434336,-0.67914718,0
2.6496849,1.2433263,1.0772952,0.84956986,0.39864835,0.34541371,0
3.1387858,-0.55931795,-0.50396258,0.97241807,-0.17328066,-0.15613118,0
-0.59352428,2.8700712,-0.90057123,-0.19358,0.93608367,-0.29372445,0
0.66808784,-0.31720176,-3.2425971,0.20087627,-0.095374145,-0.97496283,0
2.1776888,1.3100649,-1.8240002,0.69614971,0.4187932,-0.58308476,0
0.69313055,-3.1845064,0.4009138,0.21108651,-0.96981204,0.1220946,0
-0.1203228,-2.120142,2.2973452,-0.038460687,-0.67769462,0.73433691,0
1.1202042,-2.9804254,0.67815155,0.34410563,-0.9155305,0.20831537,0
-1.0950109,-0.3537195,-2.9189055,-0.34900266,-0.11273774,-0.93031573,0
-1.5973687,1.4324278,-2.4241419,-0.49343121,0.44248053,-0.74882352,0
1.9737206,-0.62003452,2.6187301,0.5914073,-0.18578766,0.78467852,0
-2.5736027,-1.2451402,-1.9742243,-0.74073571,-0.35837692,-0.56822234,0
2.4482718,-1.7653623,1.2079403,0.75305927,-0.54300445,0.37154809,0
-2.9631646,1.4869623,-0.58821225,-0.88003337,0.44161451,-0.17469378,0
-2.0677972,-0.24626723,2.4912298,-0.63684368,-0.0758458,0.76725322,0
-0.32883865,-2.9416676,-0.67315346,-0.10832851,-0.96906632,-0.22175528,0
2.9015536,1.0325457,0.57544363,0.92609751,0.32956067,0.18366605,0
-2.8677692,-1.2089667,0.31579167,-0.91675723,-0.38647774,0.10095105,0
-0.24189919,-2.3115454,-2.1070843,-0.077108532,-0.7368353,-0.67166066,0
-0.32840186,-2.7632835,-1.665212,-0.10126741,-0.85209799,-0.51349193,0
1.7097776,-1.5543454,-2.2496479,0.5301733,-0.48197636,-0.69757801,0
-0.0044393754,-3.1862018,-0.4490869,-0.0013796743,-0.99021155,-0.13956776,0
-1.4320275,-1.4346691,-2.3486602,-0.46157986,-0.46243131,-0.75703454,0
-1.7058942,-2.5047703,-0.60552502,-0.55199677,-0.81049871,-0.19593704,0
2.3165514,-0.71940011,-1.9911784,0.73816198,-0.22923462,-0.63448286,0
2.5408683,0.34870866,-2.0593278,0.77250236,0.10601819,-0.62609923,0
1.0432847,1.7621983,2.5736833,0.3172026,0.53578269,0.78250843,0
-1.6885544,-0.70208931,-2.4233878,-0.55618769,-0.23125902,-0.79823214,0
2.7185521,2.0198073,0.34198391,0.79863852,0.59336585,0.1004658,0
0.25607821,-3.0268466,1.2192521,0.078234404,-0.92473131,0.37249348,0
1.9733274,-1.3691623,2.231267,0.60193819,-0.41764539,0.68061936,0
3.0418611,-1.0026984,0.98679245,0.9076308,-0.29918525,0.29443923,0
-2.1880305,1.6368369,1.4845895,-0.70359701,0.52635169,0.47739404,0
0.67237079,-2.6142931,1.857886,0.20518237,-0.79778433,0.56695718,0
1.7884539,-2.5509934,0.63638353,0.56244254,-0.80225003,0.20013328,0
2.3026652,-0.25970858,2.0803654,0.73943132,-0.08339756,0.66804647,0
0.96244711,2.1726367,1.9611815,0.31237602,0.70516044,0.63652962,0
1.6553949,0.029872872,-2.9372389,0.49096233,0.0088597918,-0.87113571,0
0.53251272,0.91878617,3.0999372,0.16251051,0.2803922,0.94602883,0
1.325766,1.387542,-2.1906071,0.4552246,0.47643647,-0.75218272,0
-0.25541475,-3.0064797,0.079114079,-0.084620751,-0.99606842,0.026211066,0
1.3908296,-0.0086768102,3.0910378,0.41032961,-0.0025598765,0.91193366,0
-0.74854732,0.44942141,-2.9246299,-0.24525058,0.14724636,-0.95821226,0
-2.3589239,-0.7353484,-2.0302596,-0.73762441,-0.22993998,-0.63485265,0
2.2101552,-0.94619048,2.1881368,0.67987061,-0.2910597,0.67309749,0
-2.5224104,0.89360273,-2.0654202,-0.746189,0.26434895,-0.61100042,0
-3.2453024,0.39459226,0.74730462,-0.96772766,0.11766479,0.22284128,0
1.3709519,-2.6873085,0.034346588,0.45440832,-0.89072078,0.011384334,0
-0.093834333,2.3233588,-2.0878439,-0.030026574,0.74346459,-0.66810089,0
1.5573334,0.36442241,-2.7009897,0.49612114,0.11609439,-0.86045682,0
3.0435028,-0.010927327,1.3025349,0.91933936,-0.0033007762,0.39345178,0
0.16476975,2.763293,1.8972726,0.049097404,0.82339454,0.56534141,0
2.8210115,-1.4775025,-0.22032474,0.8837409,-0.46285859,-0.069021337,0
3.1368809,-0.01964923,1.021235,0.95086128,-0.0059561366,0.30955997,0
-1.8923477,2.0034704,1.5385079,-0.59955674,0.63476402,0.4874489,0
2.0251389,2.4330938,0.29192662,0.63702655,0.76535267,0.091828279,0
-2.5204809,-0.24030457,1.9231814,-0.79272962,-0.07557945,0.60486984,0
2.1547291,-2.1203158,-0.83919239,0.68680346,-0.67583448,-0.26748616,0
0.47339889,3.3393614,0.24023959,0.1400052,0.98759836,0.071049578,0
-3.1287482,-0.32800257,-0.71482992,-0.96982777,-0.10167197,-0.22157805,0
-2.523423,1.9344329,-0.3480393,-0.78892314,0.60478127,-0.10881104,0
-1.0900166,2.0634985,2.0153003,-0.35350677,0.66921979,0.65358847,0
-1.0081891,0.36120233,2.882993,-0.32781547,0.11744594,0.93741316,0
-1.9792702,2.6696908,-0.16302782,-0.59484667,0.80234456,-0.048996117,0
-2.1191061,0.99730945,2.2045667,-0.65884018,0.31006825,0.68541032,0
-2.614584,0.66262746,-1.7386004,-0.81475902,0.20648856,-0.54178423,0
-0.44797984,2.8370202,0.95438051,-0.14801499,0.93736702,0.31533256,0
0.13336845,-2.234123,-2.5488887,0.039318081,-0.65863729,-0.75143272,0
2.8741043,-0.30677095,1.0598234,0.93357354,-0.099646084,0.3442544,0
2.9089622,-0.28746378,0.66302019,0.97050136,-0.095904991,0.22119984,0
2.3931198,-1.2767164,-1.2237794,0.80422658,-0.42905048,-0.4112606,0
2.6261754,-1.7232766,-0.55029029,0.82352769,-0.5403927,-0.17256247,0
-2.7406609,0.94429773,1.6863865,-0.81722271,0.28157499,0.50285435,0
-2.8556349,1.1138091,-0.18335597,-0.92997986,0.36272845,-0.059712589,0
0.66108871,2.1317945,2.1866417,0.21157695,0.68226635,0.69981986,0
1.2936002,-2.835361,-1.42957,0.37728015,-0.82693666,-0.41693589,0
-1.7604836,-2.1570079,-1.326071,-0.57086241,-0.69944119,-0.4299978,0
-1.4861765,1.3767459,2.5232391,-0.45928121,0.42546329,0.77977031,0
-3.2148399,-0.75110078,0.83076161,-0.94433647,-0.22063053,0.24403034,0
2.5653818,-0.3913545,1.7953763,0.81296545,-0.12401962,0.5689519,0
1.1698885,-0.27142286,-3.0614643,0.35574088,-0.082534537,-0.93093318,0
-1.4944981,-1.8489869,2.2217917,-0.45927772,-0.5682165,0.68278402,0
-1.8317027,0.19867532,2.4542358,-0.59686816,0.064739205,0.79972321,0
2.7917843,0.94840252,1.3496959,0.86094016,0.29247168,0.41622391,0
-2.2046137,-1.0008708,-2.1462226,-0.68138671,-0.30934224,-0.66333961,0
-1.7636536,1.0164834,-2.3155282,-0.57204276,0.32969737,-0.7510438,0
-0.1652682,-2.435003,2.2882521,-0.049399529,-0.72783518,0.68397051,0
-0.88709098,2.8660066,0.72199976,-0.28747451,0.92877036,0.23397434,0
-1.646745,1.0876579,-2.373116,-0.53353244,0.35239264,-0.76887101,0
-0.55110556,-1.6236404,-2.6101532,-0.17646948,-0.51990581,-0.83579695,0
-1.6323322,2.5047648,-1.3614873,-0.49688688,0.76245803,-0.41444087,0
-1.7135447,1.4469919,1.9360065,-0.57835448,0.48838776,0.65343964,0
-0.96990508,-3.2438495,-0.2356063,-0.28577608,-0.95577866,-0.069419831,0
1.8381205,-2.3860025,-0.57474303,0.59946424,-0.77814442,-0.18744032,0
-0.6340189,1.4094276,-2.7832198,-0.19915676,0.44272664,-0.87425953,0
1.2773064,-2.529588,1.5299957,0.39662522,-0.78547978,0.47508949,0
0.3529155,-2.6466596,-1.7709587,0.11014822,-0.82604718,-0.55273271,0
-2.1907818,-2.1602943,0.46368736,-0.70409292,-0.69429457,0.14902397,0
2.3495147,-1.2314647,-1.5749204,0.76159817,-0.39918086,-0.51051241,0
0.35368741,-0.79950362,-2.9058034,0.11655665,-0.26347411,-0.95759904,0
-1.5743772,-0.44168735,2.6529171,-0.50519693,-0.14173166,0.85128623,0
0.74984223,1.3375171,2.9202671,0.22733794,0.40550983,0.8853696,0
-1.0583844,-2.499342,-1.6598175,-0.33266938,-0.78558838,-0.52171063,0
-0.0031596299,-1.8726417,-2.4962006,-0.0010125244,-0.60010046,-0.79992402,0
-2.8184524,1.0941234,1.1325489,-0.87298143,0.33889145,0.3507933,0
-2.3953996,-0.37812665,-2.236037,-0.7261861,-0.11463237,-0.67787397,0
-1.104627,-1.0485703,-2.7810328,-0.34837708,-0.33069792,-0.87708169,0
-2.2005312,-1.1935511,-2.2130384,-0.65858078,-0.35720912,-0.66232401,0
-1.0564964,0.17412345,-3.2386792,-0.30972385,0.051046256,-0.94945538,0
1.3821641,-2.749135,-0.87757379,0.43196306,-0.85917783,-0.27426517,0
-1.9812388,-1.8214625,1.6030076,-0.63247496,-0.58146918,0.51173139,0
0.55737555,-3.2739341,0.46583802,0.1662045,-0.9762584,0.1389088,0
1.9376636,-1.9582769,1.7720557,0.59154421,-0.59783721,0.54098624,0
1.3584775,-2.5731556,0.73990506,0.45247278,-0.85704982,0.24644274,0
0.63102108,-1.8669493,-2.3705595,0.20469537,-0.60561508,-0.76897997,0
0.93327105,1.5878186,2.6313081,0.29057169,0.49436349,0.81925142,0
-2.5794122,0.90062904,1.5771884,-0.81764555,0.28548959,0.49995151,0
-0.84229332,3.14362,0.45933419,-0.25626856,0.95644945,0.13975286,0
-0.58493787,0.88724536,-3.0515442,-0.18102264,0.27457872,-0.9443714,0
2.1922421,-1.9298389,1.2470107,0.69031197,-0.6076842,0.39266941,0
0.98318231,3.1216035,-0.2636241,0.29944256,0.95073003,-0.080290578,0
-0.228403,0.61253399,-3.0822852,-0.072489358,0.19440286,-0.97823966,0
1.6854978,0.14883758,2.8097966,0.51388055,0.04537813,0.85666072,0
-1.7212154,-2.1007674,-1.2097852,-0.57892752,-0.7065891,-0.40690893,0
-1.1247993,2.1488347,-2.1761346,-0.34518272,0.65944266,-0.66782057,0
-1.1760527,-0.10691925,2.729701,-0.39541966,-0.035949048,0.91779685,0
-0.99676901,-1.7442081,-2.4603927,-0.31380734,-0.54911947,-0.77459198,0
-2.6177521,0.28112984,2.0319612,-0.78711939,0.08453159,0.61098075,0
1.0706594,-2.7588539,1.4902985,0.32313079,-0.83263701,0.44978014,0
0.92350179,-2.4911466,1.3835603,0.30829832,-0.83163488,0.4618825,0
-3.1028621,1.1376401,-0.33223298,-0.93417513,0.34250802,-0.10002501,0
0.52135307,3.077342,1.3314663,0.15364084,0.90688139,0.39237821,0
-1.6964524,2.28861,0.95637375,-0.56453347,0.7615875,0.31825534,0
-2.1969233,-1.5639489,1.5197505,-0.70971775,-0.5052349,0.49095657,0
1.0171119,-2.7846427,-0.90475231,0.32814622,-0.89839673,-0.29189616,0
-2.7471418,0.43629143,-1.0835094,-0.92026871,0.14615385,-0.3629663,0
1.4038589,-0.96643651,-2.69187,0.44062528,-0.30333275,-0.84488976,0
2.870975,1.1374087,0.028770342,0.92965752,0.36830711,0.0093161957,0
-2.1005251,-1.7606844,1.2643323,-0.69590634,-0.58331668,0.41887471,0
1.4063872,-1.0349506,2.7756152,0.42888248,-0.31561166,0.84643316,0
0.71540481,-1.0803416,3.0030591,0.21873316,-0.33031163,0.91817755,0
0.06756299,-3.0554762,0.87217188,0.021258017,-0.96137494,0.27442014,0
2.5517802,1.6517546,0.11247465,0.83890563,0.54301947,0.03697639,0
-0.44154933,-0.092456341,3.1929832,-0.13692749,-0.028671347,0.99016601,0
1.7996967,-1.802299,-1.8609935,0.57052827,-0.57135326,-0.58996016,0
-3.1919558,-0.37835425,0.66011953,-0.97274631,-0.1153032,0.20117097,0
-2.1211033,2.034533,1.1262639,-0.67389697,0.6463927,0.35782596,0
1.7158227,1.6451585,2.1030333,0.54061186,0.51834738,0.66261202,0
1.95188,2.3830554,-1.327168,0.58193392,0.71048468,-0.39568216,0
1.9877646,-0.73167086,-2.3860273,0.62301421,-0.22932361,-0.74783951,0
1.5822247,1.3128436,-2.2449508,0.51976055,0.4312689,-0.73746598,0
0.35277387,3.1425879,-0.34423661,0.11090006,0.98792231,-0.10821623,0
-2.5571394,1.6075739,1.1899315,-0.78768164,0.49518475,0.36653739,0
0.88094413,-2.1418037,2.0335732,0.28583398,-0.69493663,0.65981978,0
0.027077749,2.9147031,1.5053856,0.0082538724,0.88846332,0.45887345,0
0.374253,2.3900321,1.9268227,0.12101065,0.77279097,0.62301725,0
0.28000912,3.0939229,-0.05757156,0.090119086,0.99575865,-0.018529026,0
1.8027432,-2.1851149,-1.680449,0.54732925,-0.66342074,-0.51019961,0
-2.9146967,-1.4008241,-0.63634181,-0.88435078,-0.42502531,-0.19307305,0
0.072657183,-3.2088425,1.1872839,0.021231005,-0.93764925,0.34693378,0
-1.4589353,-2.8722627,-0.0012712502,-0.45286742,-0.89157778,-0.00039460819,0
-2.928266,-0.53938311,0.84833878,-0.94581556,-0.17421809,0.27400926,0
2.1806829,-2.4749837,0.87307912,0.6390819,-0.72533119,0.25586897,0
1.9544389,2.039058,1.275205,0.63066971,0.65797508,0.41149056,0
2.3648195,-2.5164382,0.13560338,0.6842854,-0.72815788,0.039238263,0
-2.0700595,-2.0201337,-1.054338,-0.67240506,-0.65618801,-0.34247431,0
-2.3842065,-0.15780208,2.2993319,-0.71898723,-0.047587186,0.69339222,0
2.4227052,1.6819264,-1.3496842,0.7469511,0.51855952,-0.416125,0
1.0526245,2.796015,1.4095156,0.31864882,0.84640521,0.42668632,0
1.6315907,-0.93423587,-2.6105809,0.507155,-0.29039291,-0.81145906,0
-0.037601709,-3.1142468,1.0682707,-0.0114201,-0.94583493,0.32444692,0
-2.4658117,-1.6486758,0.55161047,-0.81729037,-0.54645163,0.18283063,0
-0.90553159,0.46030894,-2.9346952,-0.29158694,0.14822242,-0.94499058,0
-2.4947512,1.0864542,1.4849555,-0.80478948,0.35048258,0.47903639,0
-2.005316,0.41970393,-2.7083714,-0.590496,0.12358824,-0.79752141,0
-0.77614057,-1.256722,-2.8003769,-0.24514496,-0.39693719,-0.88450253,0
-1.07319,-3.1115232,0.80784518,-0.31666028,-0.91810006,0.23836644,0
-1.1948136,2.6716211,0.99675018,-0.38645765,0.86412507,0.32239482,0
2.595284,-1.1863606,-1.1287742,0.84572023,-0.38659707,-0.3678315,0
-0.33020684,2.7185712,-1.6303539,-0.10360672,0.85298735,-0.51154494,0
-0.79583853,2.5549822,1.7367631,-0.24946029,0.80087429,0.54439867,0
2.6417339,2.084991,-0.52307022,0.77565491,0.61218637,-0.15358169,0
1.6827285,-2.3639889,1.6122707,0.50691408,-0.71214062,0.48568901,0
0.18993171,-3.1474104,-0.38681722,0.059787605,-0.99075675,-0.12176416,0
2.1412108,2.1823137,-0.56952465,0.68850875,0.70172542,-0.18313129,0
1.3396069,0.46214828,2.9942143,0.40439504,0.13951144,0.90388113,0
1.4559528,-2.5892186,-0.3257314,0.48721731,-0.86645126,-0.10900214,0
0.32663012,-1.1386859,-3.1700044,0.096518673,-0.33647987,-0.93673122,0
0.70114785,-1.8966335,2.6319115,0.21125251,-0.57144666,0.7929824,0
-2.9269495,-0.65615928,-1.1330007,-0.91283411,-0.20463783,-0.35335141,0
0.057488091,3.2413256,0.32092717,0.017646933,0.9949792,0.098513968,0
2.3541934,-1.8564599,0.55509973,0.77210307,-0.60886174,0.18205564,0
0.8781774,1.8039861,-2.5069575,0.27349195,0.56181782,-0.78074515,0
1.6257633,-0.92475104,2.533206,0.51630002,-0.29367679,0.80448014,0
2.0630386,0.08703389,2.4193447,0.64860898,0.027363017,0.76062977,0
-1.9616969,2.3650143,1.1285377,-0.59928429,0.72249484,0.34476012,0
2.1338241,-0.83390421,-2.2140992,0.66974223,-0.26173708,-0.69493812,0
2.6773002,1.3997625,-0.60152286,0.8691296,0.45440367,-0.19527183,0
1.824483,2.2938344,-1.0919389,0.58332348,0.73338449,-0.34911457,0
3.1378105,-0.16999453,0.89845353,0.96006584,-0.052012682,0.27489695,0
0.71174014,0.81204361,2.8281307,0.23511022,0.26824364,0.93422085,0
-1.8962311,-1.3287024,2.2875535,-0.58258647,-0.40822244,0.70281398,0
2.0110972,0.26151934,2.6128025,0.60803914,0.079068281,0.78995991,0
-2.0508308,0.69116223,-2.6813719,-0.59517252,0.2005825,-0.77816218,0
0.34193239,2.1551445,2.4358573,0.10455638,0.65900195,0.74483854,0
-2.8034685,1.2669004,-1.1293539,-0.85545135,0.38658243,-0.34461144,0
0.51365012,1.7358557,2.4969769,0.16654561,0.56283283,0.80961829,0
2.7338688,-1.3090252,1.0898979,0.84873855,-0.40639117,0.33836237,0
-1.631357,2.4847076,-0.77792484,-0.530954,0.8086921,-0.25318941,0
-0.071139447,3.2075589,-0.27546993,-0.022091953,0.99608928,-0.085545629,0
0.30368298,1.8252573,2.6461442,0.094051212,0.56528574,0.819516,0
0.14219841,2.6161816,1.6593783,0.045850988,0.84357136,0.53505611,0
1.6174861,-2.2448659,-1.648679,0.50219345,-0.69698095,-0.51187819,0
-1.5465206,-1.7840599,-2.1561801,-0.48367259,-0.55796272,-0.67434293,0
0.58086479,-2.9133744,-1.334389,0.17836285,-0.8945933,-0.40974322,0
-1.391019,-2.384176,-1.884328,-0.41620567,-0.7133674,-0.56380826,0
2.7412446,-0.38150039,1.4382536,0.87886864,-0.1223126,0.4611176,0
-2.7875972,-1.7534211,0.22365966,-0.8445245,-0.53121275,0.067759454,0
-0.40239784,-1.0985385,-3.1099939,-0.12110328,-0.33060968,-0.93596542,0
2.7381947,-1.4694127,-0.84773397,0.85007852,-0.45618239,-0.26318085,0
3.0107906,0.082077213,0.3969709,0.99105769,0.027017239,0.13067035,0
-2.2223041,1.3217651,1.9490249,-0.68632811,0.40820897,0.60192955,0
-1.0024016,3.1152866,0.70270866,-0.29947639,0.93071955,0.20994045,0
0.80509049,-2.9029133,-0.27494976,0.2661449,-0.95963824,-0.09089224,0
0.73675543,3.306345,0.60488695,0.21410964,0.9608621,0.17578714,0
0.32617527,3.1459322,-0.78188944,0.10011487,0.96559924,-0.23998988,0
-2.7503347,1.623492,0.054626424,-0.86103445,0.50825906,0.01710164,0
2.5121591,1.7013277,-0.68912864,0.80742359,0.5468173,-0.22149023,0
-0.63457841,-1.5662991,-2.5729239,-0.20614584,-0.50881976,-0.83582669,0
1.1121157,2.226763,2.2730536,0.32992989,0.6606108,0.67434382,0
1.4313729,-1.4993608,2.2840889,0.46405753,-0.48609951,0.74051189,0
2.6277695,-1.2486544,-1.0515757,0.84943181,-0.40363005,-0.33992398,0
-2.1788669,-0.63528478,2.4472528,-0.6528092,-0.19033735,0.73322016,0
1.7885839,-2.4411702,1.067297,0.55737066,-0.76073402,0.33259833,0
2.1962702,-1.8546878,1.0814966,0.71508628,-0.60387003,0.35212579,0
2.2212064,0.55265313,-2.3542807,0.67646116,0.16830871,-0.7169885,0
1.1587404,-1.629253,2.2593467,0.38408089,-0.54003894,0.74889237,0
1.9601471,-0.97902787,2.1372347,0.6404053,-0.31986102,0.6982621,0
-1.9434304,1.5327954,2.1050122,-0.59812135,0.47174194,0.64785063,0
-3.0969241,-0.80755138,0.87015522,-0.93374723,-0.24348317,0.26235873,0
2.9069879,0.70134616,1.4685407,0.87256902,0.21051788,0.44080096,0
0.78043234,-2.7411439,1.0146509,0.25796828,-0.90607238,0.33538812,0
0.62409401,2.9641953,-0.71551204,0.20050956,0.95233971,-0.22988045,0
-1.6822222,-1.8928832,2.1192176,-0.50943786,-0.5732336,0.64177591,0
0.27342021,-2.8541758,1.0061784,0.089980431,-0.93928665,0.33112535,0
1.90771,-1.7774211,-2.1543241,0.56403381,-0.52551258,-0.63694775,0
2.8556511,-1.262742,0.4330591,0.90590334,-0.40058193,0.13738011,0
-1.9742795,-1.3545152,2.3061278,-0.59390008,-0.40746343,0.69372624,0
1.4780593,2.6073263,-0.046123549,0.49309924,0.86983693,-0.015387398,0
-2.2649715,-2.4159617,-0.10226555,-0.68361646,-0.7291885,-0.030865913,0
1.5652953,2.795043,1.2046782,0.4573513,0.81666154,0.35198542,0
-0.61246067,1.5361462,2.5288737,-0.20269428,0.50838864,0.83693248,0
-1.315025,-2.5110447,1.3051293,-0.42140448,-0.80467331,0.41823336,0
-0.48652002,-2.7065396,-1.3723636,-0.15830317,-0.88064986,-0.44653764,0
-3.3581474,-0.04104317,-0.31792614,-0.9954747,-0.01216666,-0.094244651,0
1.4639564,1.5110148,2.4290423,0.45556447,0.47020847,0.75588691,0
1.960403,-0.016257364,-2.611918,0.60027951,-0.0049780393,-0.79977477,0
0.26196885,1.6355704,2.849798,0.079475537,0.49619576,0.86456543,0
-0.78168732,-2.9099283,0.94714439,-0.24749088,-0.92131561,0.29987642,0
-2.0301969,1.9569798,-1.7184265,-0.61480319,0.59263086,-0.52038991,0
-1.3560326,-1.2062981,-2.65782,-0.42133978,-0.37481502,-0.82582474,0
-3.2894621,0.24433772,-0.21591018,-0.99512315,0.073916681,-0.065316826,0
0.069475211,0.55696392,3.3265183,0.020594167,0.16509785,0.98606211,0
-1.4270114,-1.5350435,2.4326608,-0.44441256,-0.47805688,0.75760084,0
-2.371994,-0.9690159,-2.1588383,-0.7079497,-0.28921428,-0.64433086,0
2.7341218,1.7416511,-0.84995556,0.81583983,0.51969457,-0.25361985,0
-1.7077649,1.9368949,1.6846141,-0.55389875,0.62821507,0.54639,0
-2.515049,-1.6796688,-1.2681663,-0.76690423,-0.51217496,-0.38669708,0
0.52350634,-2.9737475,-0.056115862,0.17334664,-0.98468554,-0.018581429,0
0.72887063,-2.7947743,0.80045968,0.24319002,-0.9324854,0.26707593,0
-1.6455688,-0.84086287,-2.6737328,-0.50629789,-0.25871119,-0.8226366,0
1.9733766,-1.7735417,-1.8684419,0.60810775,-0.54652739,-0.57577145,0
-0.56911236,-2.9698808,-0.90410978,-0.18031661,-0.94097209,-0.28645664,0
1.0047628,1.7856964,-2.2151372,0.33298245,0.59178704,-0.73410547,0
0.72008681,-3.2200763,0.13734247,0.2180452,-0.97505218,0.041587856,0
0.32078528,-1.1779953,2.8565667,0.1032615,-0.37919933,0.91953516,0
2.2460117,1.4069722,1.6708266,0.71688443,0.44907889,0.53329623,0
0.9927991,0.041480925,3.1893897,0.29719225,0.012417225,0.95473689,0
-1.6150278,-2.1009076,1.9799346,-0.48823208,-0.63511628,0.59854549,0
2.993366,0.77720338,0.28085253,0.96394014,0.25027931,0.090441674,0
-1.5422658,1.5373329,-2.5071945,-0.4644199,0.46293446,-0.75498724,0
-2.8556077,0.97276688,0.78428835,-0.91613078,0.31208128,0.25161394,0
-0.59266979,3.0398076,-0.33179927,-0.19027735,0.97593391,-0.10652456,0
-0.26431641,3.2013276,-0.20645775,-0.082115211,0.99455678,-0.064140253,0
2.0078807,-2.5133352,-0.64680737,0.61191994,-0.76596183,-0.19712044,0
2.0764282,-0.83732456,-2.4614484,0.62404478,-0.2516475,-0.73975784,0
-2.2811368,-0.19366592,2.2428489,-0.71176267,-0.060427841,0.69981599,0
0.94079208,2.0613356,2.2513399,0.29453409,0.64534301,0.70482773,0
1.9573796,1.7577556,-1.7965386,0.61442971,0.55176693,-0.56394106,0
1.0807202,-2.9436851,0.46880704,0.34085137,-0.92841703,0.14785837,0
2.1202083,-0.8203308,-2.0739541,0.68899286,-0.26657856,-0.67396194,0
2.5857542,-1.2415673,-1.0563383,0.84592772,-0.40617788,-0.34558037,0
2.3095071,0.51631802,2.0026894,0.74495691,0.16654405,0.64598948,0
2.4962704,0.83066833,1.7043725,0.79633802,0.26499245,0.54371381,0
-1.0703644,-2.6404023,1.6062431,-0.32725939,-0.80729187,0.49110204,0
2.4184616,0.76211184,1.4983963,0.82111764,0.2587527,0.50873649,0
0.49519613,-2.9442985,-1.2237402,0.15346785,-0.91247714,-0.37925333,0
-1.0941288,1.470381,-2.4552178,-0.35710806,0.47991142,-0.80134815,0
2.08918,-2.304776,-0.83368403,0.64871061,-0.71565527,-0.25886697,0
3.1594088,0.10514445,0.17850193,0.99785709,0.033208471,0.056377452,0
-1.873011,2.3970904,-1.0423369,-0.58245963,0.74543524,-0.32414073,0
-0.63327092,1.1300023,-3.0489941,-0.1911618,0.34110719,-0.92038202,0
-1.7041097,2.435837,0.64956009,-0.56002873,0.80049938,0.21346767,0
3.3113036,-0.52271676,0.087390758,0.98743302,-0.15587451,0.026059985,0
1.6239009,0.7765553,-2.5148046,0.52508807,0.25109902,-0.81316161,0
-2.7946441,-1.1399536,0.58328539,-0.90910971,-0.37083179,0.18974523,0
-1.6382571,2.659503,-0.39334133,-0.52036858,0.84475249,-0.12493916,0
-2.4577909,1.9526894,-0.79710352,-0.75888449,0.6029259,-0.2461192,0
2.0281885,2.4256124,-0.2953684,0.63868034,0.76382989,-0.093012065,0
1.0213553,2.5291526,1.4583831,0.33021489,0.81770164,0.47151059,0
2.7078223,1.0446397,1.1509134,0.86727828,0.33458376,0.36862174,0
-0.83762056,3.1797366,0.23238157,-0.25410068,0.96460527,0.0704953,0
0.52375555,-0.82090133,-3.1261079,0.15996172,-0.25071388,-0.95475382,0
3.0651634,0.56324232,0.18623768,0.98178124,0.18040824,0.0596525,0
1.0822459,-2.6781993,-1.0507789,0.3520892,-0.87130386,-0.34185195,0
-2.3532057,1.8309375,0.957412,-0.75145304,0.58467627,0.30573195,0
-0.77166617,1.4141883,2.8697433,-0.23447616,0.42971098,0.87199157,0
1.0908465,-2.7181945,1.1514454,0.34661758,-0.86370903,0.36587292,0
0.25445336,1.0181409,-3.1767726,0.076055437,0.30431962,-0.94952893,0
-2.1199019,-2.5375357,-0.0098548764,-0.64112502,-0.7674306,-0.0029804248,0
-1.3482168,1.9537417,-2.145247,-0.42138195,0.61063731,-0.67049181,0
0.9451701,1.3729378,2.6159976,0.30470741,0.44261271,0.84335488,0
0.15560657,-1.8464435,2.5284464,0.049639352,-0.58902562,0.80658829,0
-0.001734441,-1.330916,-3.0751712,-0.00051761634,-0.39719072,-0.91773593,0
-2.7784834,-1.7271973,-0.24863085,-0.84683895,-0.52642316,-0.075778857,0
-2.781893,-1.5275935,-0.75136435,-0.85296351,-0.46837944,-0.23037779,0
-0.39656186,-2.1463895,2.2799122,-0.12564126,-0.68003279,0.72233629,0
-1.886399,-2.4887009,-1.3514371,-0.55437946,-0.73138535,-0.39716354,0
-1.4358815,-2.938591,-0.71370602,-0.42892817,-0.8778193,-0.21319908,0
-2.5984721,-0.33575228,2.1317391,-0.76929408,-0.099401578,0.63111484,0
-2.7241745,1.3424698,0.36076051,-0.89073366,0.43895245,0.11795923,0
0.93730289,2.332962,1.9068767,0.29703417,0.73932284,0.60429507,0
2.1135833,-1.5896078,-1.7364604,0.66806036,-0.50244248,-0.5488596,0
-2.78075,1.7772125,0.44757733,-0.83496672,0.53363776,0.13439257,0
2.9677501,-1.2770056,0.63102508,0.90153641,-0.38792586,0.19169137,0
1.4087954,-2.3908472,-1.9705155,0.41392595,-0.70246804,-0.57896805,0
-0.14596069,-2.7679236,1.7664768,-0.044407956,-0.84212971,0.53744346,0
-1.276807,-1.4758919,-2.7325819,-0.38023964,-0.43952817,-0.81377685,0
2.8445385,-1.0822779,-0.92740977,0.89404875,-0.34016386,-0.29148826,0
-2.6534069,-1.5285356,0.90130228,-0.83124858,-0.47885346,0.28235635,0
0.53821385,2.9852204,0.52418667,0.17484075,0.96975982,0.17028396,0
0.66722399,0.16310604,3.3443708,0.19542745,0.04777316,0.97955394,0
-1.1523447,-2.5636096,1.8371056,-0.34318247,-0.76347458,0.54711276,0
-0.63757581,3.2470877,0.59253025,-0.18965752,0.96590018,0.17625797,0
1.621655,0.19638352,2.7937436,0.50109029,0.060682371,0.8632648,0
-0.33074936,1.0723877,-2.9213428,-0.10568823,0.34267265,-0.93349099,0
3.0409582,-0.28821838,0.2929531,0.99099141,-0.093924984,0.09546794,0
2.0003195,-2.3116603,-1.2177827,0.60788906,-0.70250428,-0.37007928,0
-1.6485649,1.8408993,-2.1823161,-0.50004333,0.55838233,-0.66194093,0
1.4711834,1.6285052,-2.0997009,0.48437309,0.53616977,-0.69130647,0
-2.331291,-2.2449248,-0.93201196,-0.69219381,-0.66655046,-0.27672777,0
0.64428866,-1.1226516,-2.6758604,0.21675065,-0.37768081,-0.90020907,0
-0.086890049,1.6056861,-2.6613231,-0.027944243,0.51639611,-0.85589385,0
0.29970545,-1.7821176,2.8023186,0.08988072,-0.53445148,0.84040654,0
-0.4802396,1.1256418,-3.1710503,-0.14128815,0.3311677,-0.93293393,0
-2.0234649,-1.8029412,1.7592835,-0.62624407,-0.55799401,0.54448235,0
1.6550804,-1.7578624,2.0737565,0.52001739,-0.55231094,0.65156317,0
-2.0690641,2.1117404,1.1570741,-0.65171677,0.66515899,0.36445686,0
-0.82937139,1.9098945,-2.5257545,-0.25336882,0.58346325,-0.77160543,0
-1.410579,-1.935918,-1.9731916,-0.4545292,-0.62380856,-0.6358192,0
-1.9544384,-1.778809,-2.1695862,-0.57160288,-0.52023757,-0.63452584,0
-2.9376588,-0.43467739,1.3325616,-0.9025287,-0.13354473,0.40939918,0
-2.3171909,1.7956851,-0.96295089,-0.75096118,0.58195025,-0.31207561,0
2.7488952,-0.97840047,-1.1161355,0.87992465,-0.31318718,-0.35727632,0
0.49519637,-1.0688491,-2.9380519,0.15643999,-0.33766553,-0.92817485,0
-0.6095193,1.1507894,3.0431004,-0.18414322,0.34766752,0.91935772,0
2.7583144,-1.8453366,0.75804669,0.81028122,-0.54208523,0.22268346,0
-1.1203333,2.780406,1.0896419,-0.35125303,0.87172812,0.34163052,0
0.73994803,-2.0726252,2.5144675,0.22143966,-0.62026167,0.75248909,0
1.2294741,2.7499063,-1.2920339,0.37510923,0.83898896,-0.39419606,0
2.0728111,0.63600266,2.5999873,0.61227834,0.18786596,0.76799852,0
-1.8794444,0.43467405,2.3391485,-0.61987478,0.14336337,0.77149349,0
-0.75184464,1.5321575,-2.5028076,-0.24818866,0.50577486,-0.82619256,0
-1.1264845,1.6315876,2.2438643,-0.3762067,0.54489356,0.74937272,0
-0.15812452,0.72605497,3.2817311,-0.046993654,0.21577916,0.97531068,0
0.017993951,2.9793925,-1.2939274,0.0055395248,0.91722035,-0.3983418,0
2.7275183,-1.6413025,1.1088716,0.80914152,-0.48690635,0.32895619,0
-1.6292162,-1.6446161,2.2451315,-0.50520521,-0.50998062,0.69619501,0
0.37942025,1.6974368,2.5112796,0.12420478,0.55566293,0.82207775,0
-2.3871527,-1.2725036,2.1528647,-0.69047695,-0.36806795,0.62270981,0
-1.4314924,0.7950263,2.7531168,-0.44688579,0.2481927,0.85947281,0
-1.9310725,1.1339862,2.3502276,-0.59485137,0.34931535,0.72396874,0
-0.29307845,2.9681413,1.4069391,-0.088871919,0.90004712,0.42663452,0
-2.9203732,-0.57273048,-0.87809378,-0.94119203,-0.18458235,-0.28299633,0
-1.8688716,2.2591777,-1.5251592,-0.56547701,0.68357456,-0.46147764,0
-1.6329501,-1.1194211,-2.5585439,-0.50476259,-0.34602523,-0.79087371,0
1.2753941,1.5991697,2.3921292,0.40521884,0.50808901,0.76002848,0
0.73795867,2.437577,2.0630765,0.22515227,0.74370831,0.62944764,0
