2.1644711,2.1011508,2.386456,0.56272364,0.54626149,0.62043571,0
1.0020651,1.2171651,-3.5106089,0.26038647,0.31628019,-0.91223121,0
-2.4541318,0.92022407,2.93663,-0.62348342,0.23378715,0.74606431,0
-3.0674117,-0.47244844,1.9450531,-0.83747023,-0.12898873,0.53104192,0
-0.58275342,-1.9962246,3.3030026,-0.14930454,-0.51144338,0.8462469,0
-1.2086416,-2.8829017,2.0502107,-0.32330838,-0.77116841,0.54842585,0
-3.543293,1.3973137,-0.026165372,-0.93025464,0.36685017,-0.0068694456,0
1.5740499,-3.3075926,-1.0169266,0.41405252,-0.87005943,-0.26750168,0
-2.8654215,-1.4731922,2.0556481,-0.74974501,-0.38546458,0.53786564,0
0.97570658,-3.7059474,0.11543467,0.25448948,-0.96660674,0.030108342,0
-1.4370145,2.8489957,2.0704575,-0.37778801,0.74899483,0.5443188,0
-1.3373678,-1.8732508,-3.0351541,-0.35109159,-0.49177393,-0.79680181,0
-0.19569738,0.84078485,3.8351917,-0.049781252,0.21387778,0.97559118,0
2.7603836,1.2379589,-2.3692658,0.71836096,0.32216585,-0.61657661,0
-0.79424059,-3.69033,-0.48868701,-0.20866294,-0.96952373,-0.12838788,0
-1.7899433,3.1960678,-0.96158588,-0.47262132,0.84389812,-0.25389966,0
0.10707876,1.7905661,3.4113605,0.02778225,0.4645735,0.8850987,0
-2.6116638,-2.5345356,-1.3930818,-0.670201,-0.65040851,-0.35749045,0
2.1879232,1.226734,2.9322782,0.5669995,0.31790769,0.75989884,0
-3.5063953,-0.69153011,1.5332197,-0.90163475,-0.1778201,0.39425221,0
-0.98677844,1.0121284,3.5722589,-0.2568554,0.2634539,0.92984807,0
2.3845623,-1.381834,2.7958713,0.6073963,-0.35198113,0.71216506,0
1.5034229,-2.6249511,-2.589237,0.37757289,-0.65923595,-0.65026665,0
1.9700204,-2.6077156,1.6762445,0.53635132,-0.70996815,0.45636886,0
0.56864214,1.0638018,3.56459,0.15110785,0.28268886,0.94723463,0
-1.0823543,-2.7227631,2.1062064,-0.29994851,-0.75454837,0.5836845,0
2.8922892,-2.0278327,0.6103791,0.80684489,-0.5656926,0.17027387,0
-0.22619398,-3.0133519,2.0198634,-0.062231209,-0.82904303,0.55571127,0
-3.4858825,-1.403091,-0.85161114,-0.90472901,-0.36415944,-0.2210279,0
1.0309744,2.8381405,2.0349824,0.28313321,0.77942944,0.55886072,0
1.5154992,-0.59545469,3.4913392,0.39339402,-0.15456842,0.9062835,0
0.66708839,-3.4491527,0.95398939,0.18325113,-0.9474923,0.26206368,0
2.7411134,-1.4433143,2.1661952,0.72514045,-0.3818177,0.57305026,0
-1.2866417,-2.8300481,1.8221492,-0.35705835,-0.78537196,0.50566804,0
-3.6792147,-1.2857116,-0.39708012,-0.93915755,-0.32819119,-0.1013588,0
-1.5867755,3.110184,1.5075508,-0.41722867,0.81779552,0.39639723,0
-3.5852029,-0.28155816,-0.74856478,-0.97601068,-0.076649435,-0.20378406,0
-3.2787199,-0.6877656,1.9402469,-0.84691244,-0.17765385,0.50117707,0
-3.2474656,-1.6219093,0.83890522,-0.87165338,-0.43533722,0.22517084,0
0.16604783,3.4534998,1.2504913,0.045162462,0.93929899,0.34011444,0
3.6956635,-0.6936782,0.29157701,0.97989482,-0.18392684,0.07731083,0
3.1010489,2.5262439,0.76255059,0.76158386,0.62041801,0.18727413,0
2.9199307,-2.7080588,0.28144637,0.73138297,-0.67831343,0.070496567,0
-3.5440292,-1.1513307,-0.82820225,-0.92841744,-0.30161026,-0.21696137,0
-0.23152135,-3.4388008,-2.0191476,-0.057960253,-0.86088717,-0.50548387,0
-0.22354715,1.7235575,-3.5542326,-0.056502499,0.43563655,-0.89834756,0
-3.7444837,-0.07498952,0.50005138,-0.99100542,-0.019846532,0.13234231,0
1.5904934,-0.16152152,-3.5140126,0.41198352,-0.041838717,-0.91023028,0
-3.3234382,-0.59448159,1.8323033,-0.86517406,-0.15475842,0.47699437,0
1.0169914,2.8753116,2.1230078,0.27367714,0.77375978,0.5713113,0
1.090834,-3.4006784,0.57621795,0.30154067,-0.940054,0.15928468,0
-2.4824433,1.9357949,1.8572992,-0.67918187,0.52962208,0.50814611,0
-2.8573184,-0.90376228,-2.1984208,-0.76877135,-0.24316035,-0.59149265,0
3.9318244,-0.71356738,-0.22934431,0.98231101,-0.17827477,-0.057298448,0
-2.0035427,-3.3348303,0.27716637,-0.51369351,-0.85502577,0.071063399,0
0.72068918,-0.78989339,-3.5028384,0.19678037,-0.21567622,-0.95643151,0
-3.1676528,-0.86305898,2.209285,-0.80046803,-0.21809559,0.5582878,0
0.73315287,-2.2480855,3.0524385,0.18987748,-0.58222622,0.79054362,0
-2.3929639,2.276768,-1.7715141,-0.63844818,0.60744679,-0.47264394,0
2.0232928,-1.9727191,-2.5305345,0.53338933,-0.5200569,-0.66711062,0
2.3944297,-2.9577909,0.16417687,0.62861788,-0.77651906,0.043101918,0
1.9675349,-3.0390925,0.88605428,0.52787888,-0.81537199,0.23772353,0
3.462867,-1.3972239,1.2486964,0.87948608,-0.35486174,0.31713927,0
0.64779818,3.4940677,0.49443829,0.18055364,0.97386295,0.13780932,0
-2.4845171,2.8724313,-0.71094644,-0.64302033,0.74341679,-0.18400076,0
2.040153,-0.36098289,3.2381909,0.53069967,-0.093901537,0.84234214,0
2.3589952,-1.9608372,-2.5023758,0.59589541,-0.49531847,-0.63211417,0
-3.253396,-1.1229414,1.1684402,-0.89510053,-0.30895266,0.32147068,0
-2.2178571,-2.2696178,2.1940305,-0.57487875,-0.5882954,0.56870282,0
0.79521543,0.37717089,-3.6485541,0.21187618,0.10049293,-0.97211611,0
-2.5444334,0.64886153,-2.6820195,-0.67789179,0.17287067,-0.71454769,0
2.5211034,1.7152172,2.3080945,0.65923351,0.44850546,0.60353464,0
0.74410617,3.5217953,-1.0781413,0.19803001,0.93726027,-0.28692725,0
1.1869495,-0.38454089,3.4675794,0.32208398,-0.10434686,0.94094294,0
2.1766043,-3.1102273,0.61953276,0.56587803,-0.80860329,0.1610674,0
2.7289915,2.7746842,0.2878648,0.69930172,0.7110104,0.073765106,0
0.94838345,1.9736165,-3.1188741,0.24886924,0.51790488,-0.81843668,0
0.5086211,3.7062995,0.99677563,0.13137396,0.95731628,0.25746152,0
3.0926514,0.772264,-2.0768101,0.81289846,0.20298836,-0.54588622,0
2.738518,1.4225893,-2.0629756,0.7377429,0.38323835,-0.5557552,0
3.4069738,-1.5280669,-0.44232941,0.9060936,-0.40639338,-0.11763866,0
-2.028275,-3.054651,1.4518204,-0.51431084,-0.77456963,0.36813891,0
1.7200985,3.0404778,1.2667174,0.46290386,0.81823742,0.34089234,0
-2.3721383,-2.1867065,2.0737231,-0.61851132,-0.57016188,0.54070252,0
1.3525735,0.80825043,-3.3226047,0.3678185,0.21979542,-0.90354824,0
-3.6085505,-0.81642044,0.18738729,-0.97410017,-0.22038636,0.050583743,0
-2.3788548,-1.2517684,-2.617584,-0.63402051,-0.33362558,-0.69764745,0
0.55781204,-3.3264372,-1.8742366,0.14456183,-0.86207503,-0.48572466,0
1.3635913,-1.9911419,-2.9584947,0.35715303,-0.52152163,-0.7748915,0
2.4461169,2.7165346,1.4320294,0.62305009,0.69192815,0.36475199,0
-2.1903965,-2.5577791,2.0743666,-0.55381125,-0.64669883,0.52447468,0
3.3571818,1.3391781,-0.37515524,0.92386562,0.3685295,-0.10323928,0
3.4454198,-1.6063983,-0.98497885,0.87735873,-0.40906122,-0.25081989,0
-0.19404039,2.3211696,2.9531147,-0.051590491,0.61714101,0.78515947,0
0.017310115,-2.9499397,2.1932795,0.0047089639,-0.80248803,0.59664965,0
-1.2314135,1.9336731,-3.0521033,-0.32259834,0.50657213,-0.79957175,0
3.2622743,1.6203973,-0.9907009,0.86420941,0.42925963,-0.26244667,0
-0.024503578,-3.6269233,-0.31807026,-0.0067300401,-0.99615413,-0.087359719,0
-0.16017266,-3.691982,0.53645128,-0.042893562,-0.98869723,0.14365938,0
2.4044633,-2.2967322,-2.2256064,0.60093278,-0.57400823,-0.55623221,0
0.043138143,3.3156331,-1.9118096,0.01127037,0.86624992,-0.49948376,0
-3.2957242,0.79770237,-1.473382,-0.89142084,0.21576093,-0.3985174,0
2.3707776,2.9534845,-1.0736959,0.60224652,0.75027102,-0.27275002,0
2.0268891,3.1636329,0.23780233,0.53838497,0.8403284,0.063165374,0
-1.2594111,1.4116781,3.1466894,-0.34301478,0.38448638,0.85703623,0
-2.572418,2.7814817,0.86831331,-0.66181844,0.71560532,0.22339517,0
3.7692046,-0.60569543,-0.90483844,0.96071613,-0.15438306,-0.23063032,0
-2.953284,-0.65461165,2.3509984,-0.77086401,-0.17086624,0.61365587,0
0.60069674,-0.3182776,-3.935287,0.15041588,-0.079697467,-0.98540521,0
2.1056705,-2.8156936,1.8095121,0.53250444,-0.71206266,0.45760876,0
3.4142957,0.51891387,-1.849244,0.87156147,0.13246226,-0.47205338,0
-3.3376451,-0.25622424,-1.8033551,-0.87779242,-0.067386344,-0.47427794,0
3.9552937,0.46513945,-0.33253169,0.98971206,0.11638936,-0.083207637,0
0.068598263,3.5418835,-0.71597207,0.018980339,0.97999781,-0.19810112,0
-0.4901275,3.4338136,-1.5636925,-0.12881851,0.90249729,-0.41097987,0
-2.1957603,-2.2249842,-2.41587,-0.55578458,-0.56318164,-0.61149812,0
-1.3807689,3.5374789,0.87185359,-0.35438821,0.90792948,0.22376998,0
0.9079212,3.6492038,-0.38056818,0.24021231,0.96548432,-0.10068843,0
-1.1370159,3.6320922,0.35408968,-0.29746598,0.9502275,0.092636898,0
-0.58301508,1.8858923,3.3563962,-0.14972803,0.48432866,0.86197865,0
-1.72427,-3.4956672,-0.71414495,-0.43512771,-0.88214815,-0.18021786,0
-1.2513049,0.94978166,-3.38674,-0.33517,0.25440508,-0.90715992,0
0.9632861,-2.990041,2.1301677,0.25379637,-0.78778416,0.56123388,0
-0.86397159,-1.6011815,-3.3030722,-0.22910881,-0.42460284,-0.87591183,0
3.4580238,-0.10300452,-1.0863681,0.95364338,-0.028406274,-0.29959533,0
-0.88231409,2.404439,-3.1354613,-0.21793224,0.59389824,-0.77446133,0
0.80986285,-2.9538789,-2.3660266,0.20924969,-0.76321352,-0.61132616,0
2.7523625,2.3192904,0.97247142,0.73823291,0.6220752,0.26083425,0
-3.1790915,-0.31758031,2.1611443,-0.8241958,-0.082334325,0.56028777,0
-2.669076,-1.8809444,-1.3479606,-0.75556618,-0.53246069,-0.3815828,0
1.9095857,1.5126511,-2.8130405,0.51315475,0.40648818,-0.75593621,0
-2.9047518,-1.390811,-2.0421991,-0.76170927,-0.36471054,-0.53552324,0
-1.0154032,2.2205803,2.9350235,-0.26595834,0.58162302,0.76875275,0
2.1807172,2.6303475,-1.9461409,0.55458796,0.66893548,-0.49493182,0
0.29714349,-1.7488515,-3.4928386,0.075850554,-0.44642189,-0.89160204,0
1.2482562,3.744899,0.24835901,0.31559384,0.94681448,0.062792055,0
0.97727191,-1.7656556,3.1541629,0.26098803,-0.47153202,0.84234363,0
0.95805031,3.5028613,0.46077126,0.26171738,0.95690131,0.12587214,0
-0.16089436,3.6854486,-1.2698001,-0.041240312,0.94465119,-0.32547411,0
2.0239425,2.5007718,-1.786585,0.54999071,0.67956537,-0.48549065,0
1.6744665,3.2339733,-0.17725505,0.45925218,0.88697463,-0.048615348,0
-2.475117,-2.8710158,-0.17861715,-0.65223157,-0.75655699,-0.04706838,0
-0.57907283,3.014307,2.2209606,-0.15284321,0.79561037,0.58621079,0
-2.334121,0.0076690703,3.1229324,-0.59867197,0.0019670178,0.80099195,0
-0.88949782,3.8723092,-0.12232224,-0.22377075,0.97415584,-0.030772576,0
1.4598323,-2.1558919,-2.5006886,0.40438068,-0.59719259,-0.69270295,0
-3.8994541,0.16925541,0.64945304,-0.98550975,0.042775948,0.16413638,0
0.1960561,-1.2795019,-3.4082513,0.053776115,-0.35095385,-0.9348473,0
-0.84857076,-2.8772235,2.2058475,-0.22789766,-0.77272582,0.5924167,0
-1.7717944,-0.15623358,3.406635,-0.46104184,-0.040653821,0.88644665,0
1.8213131,2.3044896,-2.4157374,0.47890106,0.60594881,-0.63520062,0
2.1880322,-3.2199168,0.087394647,0.56190294,-0.82689863,0.022443596,0
-0.8751514,1.1347793,-3.5025408,-0.23125458,0.29986003,-0.92552972,0
-0.74287158,-2.6089709,-2.4187615,-0.20439905,-0.7178511,-0.66551548,0
3.2120795,-1.7189276,-1.073073,0.84576297,-0.45260563,-0.28254762,0
2.6277006,2.4690247,0.86022425,0.70887333,0.66606742,0.23206221,0
0.62596899,0.29584879,3.777827,0.16298103,0.07702896,0.98361766,0
0.16576931,2.9718149,2.1411529,0.045211066,0.81051743,0.58396697,0
0.11822391,-2.6138644,2.6522372,0.031732243,-0.70158213,0.7118817,0
-1.1632152,-0.63119721,3.6778071,-0.2975983,-0.16148622,0.94093436,0
-1.7652165,2.0338657,2.3945034,-0.48984215,0.56439149,0.66446733,0
-1.6052643,-3.1372612,1.1640339,-0.43252623,-0.84531111,0.31364006,0
1.732483,3.3383114,-0.84469897,0.44943747,0.86601841,-0.2191302,0
0.91494429,-2.0256898,-3.0530131,0.2422775,-0.53640324,-0.80843872,0
-2.2569633,-2.8069208,-1.3382742,-0.58739114,-0.73052162,-0.34829563,0
-1.2595993,-3.6613927,0.23092759,-0.32473269,-0.94393027,0.059534598,0
2.7101562,1.5994216,-2.4910083,0.67525929,0.39850998,-0.62065667,0
-3.0428946,1.6891006,-1.5353624,-0.79994208,0.44404519,-0.40362915,0
-0.52417308,-1.5892177,-3.4369869,-0.13712016,-0.41572869,-0.89909273,0
1.4914237,2.6136577,-2.4636409,0.38348842,0.67204744,-0.63347375,0
-3.8783805,-0.40976962,0.098321743,-0.99414897,-0.10503663,0.025202906,0
0.72314459,-3.5810969,1.20399,0.1879929,-0.93096292,0.3129963,0
0.025784707,-3.5294785,1.4375271,0.0067657134,-0.92610866,0.37719631,0
-2.9036219,-2.4400482,-0.23590891,-0.76409757,-0.64210665,-0.062080197,0
3.2870314,1.4164534,-0.33699638,0.91431797,0.39399952,-0.093738638,0
1.774829,2.6782579,1.6578877,0.4908976,0.74077582,0.45855296,0
-0.2491193,-2.9280155,2.4150774,-0.065494388,-0.76978618,0.63493288,0
-2.0344069,3.1839044,0.016300838,-0.53843045,0.84265894,0.0043142145,0
0.69494665,0.82375306,-3.8390954,0.17428119,0.20658372,-0.96278203,0
2.8333883,-2.2097104,-0.72466379,0.77298373,-0.60283655,-0.19769733,0
-1.6262704,-0.82380962,-3.2545185,-0.4359597,-0.22084138,-0.87244958,0
-1.8327874,-0.13516439,3.3639977,-0.47812799,-0.035260979,0.87758207,0
2.3128531,-1.9236943,-2.3821602,0.60273534,-0.50131959,-0.62079692,0
1.0610725,-1.505097,-3.2246637,0.28573829,-0.40531054,-0.86837602,0
-1.0577663,2.160289,-2.8398409,-0.28422242,0.58047092,-0.76306689,0
-1.384124,-3.5462458,-0.73779416,-0.35695121,-0.91453993,-0.19026946,0
3.0236223,-2.5239754,-0.50346082,0.76148927,-0.63565487,-0.12679495,0
2.3721116,-2.8099065,0.33232296,0.64245182,-0.76102221,0.090004824,0
0.64896774,-0.12834185,3.9311688,0.16279373,-0.032194588,0.98613477,0
1.3085344,-3.4719913,0.48210663,0.34972787,-0.92794818,0.12885112,0
1.8309183,3.0960798,-0.5569309,0.50302714,0.85061812,-0.1530114,0
2.356571,-1.8311491,-2.1799779,0.6376372,-0.49546939,-0.58985496,0
-3.2285633,-1.8708168,-0.096148185,-0.86494756,-0.5012008,-0.025758559,0
2.7312202,-0.57200402,-2.7449329,0.69776207,-0.14613348,-0.70126534,0
0.29886419,-2.1787331,3.0753553,0.079049088,-0.57627136,0.81342643,0
1.6842198,-1.5791305,-2.9247007,0.45200112,-0.42379788,-0.7849142,0
-2.1361885,-1.0700496,3.1682091,-0.53833973,-0.26966265,0.7984187,0
0.50745827,-1.473399,3.2933116,0.13928175,-0.40440288,0.90391308,0
-2.224642,-3.3273294,-0.32203177,-0.55402029,-0.82863128,-0.080198132,0
2.8698437,0.28997836,2.4070456,0.76389527,0.077186465,0.64070761,0
0.27722424,0.44703114,3.9635444,0.069335587,0.1118054,0.99130827,0
-3.0768723,2.1625512,1.3138417,-0.77236336,0.54284841,0.3298035,0
-3.505794,-0.28964832,1.264598,-0.93784428,-0.077484593,0.33829597,0
-1.8351662,-0.01236481,-3.2794607,-0.48833093,-0.0032902302,-0.87265235,0
-2.9441686,-2.318002,0.35997322,-0.78210461,-0.61576641,0.095625199,0
3.0751541,-0.34272131,-2.2370508,0.80539989,-0.089760609,-0.58589596,0
0.839508,3.8702376,-0.16390328,0.21180272,0.97643721,-0.041351791,0
0.92070287,2.6993895,-2.1871178,0.25616738,0.75105178,-0.60852236,0
-2.1366241,2.7648065,-1.5772886,-0.55732876,0.72118729,-0.41142863,0
0.66472816,3.5947695,1.0451397,0.17482832,0.94545043,0.27487931,0
-2.4003828,-2.6504989,0.097368561,-0.67102015,-0.74093938,0.027219102,0
-3.298748,-2.0141006,-0.50249022,-0.84636623,-0.51676172,-0.12892489,0
3.4023826,1.6879647,-0.74804008,0.87893111,0.43604875,-0.19323979,0
0.95424461,2.6695323,-2.4804897,0.25332108,0.70867455,-0.65848982,0
0.26749289,-0.088386379,3.6689036,0.072694145,-0.024019973,0.99706501,0
-0.63950163,2.3090041,-2.6792319,-0.17792276,0.64241332,-0.74541843,0
-2.6779015,2.7217624,0.1558295,-0.70075655,0.71223408,0.040777653,0
-2.3593597,2.9989333,-0.46902364,-0.61369777,0.78005856,-0.12199868,0
2.2009869,-2.2771549,1.9814332,0.58916813,-0.60955703,0.53039718,0
0.069255523,3.4123099,-1.3100744,0.01894396,0.9333936,-0.35835406,0
2.1256769,-2.685817,1.255492,0.58268619,-0.73623067,0.3441529,0
-0.27138412,-3.2642026,2.0549872,-0.070184305,-0.8441754,0.53145283,0
-0.7311067,0.32647973,-3.8726079,-0.18487893,0.082558706,-0.97928745,0
-0.2278861,3.2494719,-2.2028818,-0.057951048,0.82633519,-0.56018913,0
-0.12621784,2.3677886,-3.1022043,-0.03232529,0.60640752,-0.79449666,0
-0.3475275,-1.7292118,-3.2908428,-0.093078323,-0.46313494,-0.8813867,0
-1.9684778,1.2936999,-3.1426098,-0.50121504,0.32940269,-0.80017328,0
2.9720681,0.67584431,2.1107671,0.80164438,0.18229286,0.56932902,0
0.90722424,1.0126432,3.5230861,0.24023992,0.26815566,0.93294013,0
0.19428064,-1.3502437,3.3806946,0.053292617,-0.37038183,0.92734957,0
-1.9066538,-2.8624263,0.9829405,-0.53303039,-0.80022925,0.27479407,0
1.1255085,-0.56084335,-3.6302757,0.29295602,-0.14598063,-0.94491607,0
3.3398268,1.1463006,-1.1826681,0.89687169,0.30782571,-0.31759179,0
-1.9592217,-1.2868527,3.0879631,-0.50536281,-0.33193156,0.79651105,0
2.0625305,-1.6371596,2.7350631,0.54324365,-0.43120649,0.72038001,0
-1.1454859,-3.5284703,-1.4102501,-0.28862572,-0.88906139,-0.3553378,0
-0.46758887,-1.3511605,3.3701441,-0.12772532,-0.36907938,0.92057949,0
-3.2107217,0.36578467,-1.8245322,-0.86519265,0.09856794,-0.49165639,0
2.7145679,-1.6648773,-2.267956,0.69434875,-0.42585248,-0.58011162,0
-0.88295341,1.8402561,-3.0536742,-0.24038896,0.5010199,-0.83137971,0
-2.1372046,2.1629198,2.376771,-0.5537672,0.56043017,0.61584079,0
-0.75269759,-3.7399182,0.12720241,-0.19719453,-0.97979778,0.033324964,0
0.10042594,-2.4613235,2.9330747,0.026218882,-0.64259446,0.76575774,0
1.7523577,2.4893157,2.4635706,0.44746366,0.63564551,0.62907153,0
-0.021756697,3.6591117,1.3960137,-0.0055552367,0.93429768,0.35645056,0
-3.4563839,0.59827602,0.84647322,-0.95785356,0.16579778,0.23457967,0
1.9682485,1.3713384,-3.2700438,0.48531821,0.3381359,-0.80630666,0
1.2279139,2.4443047,-2.8993564,0.30805209,0.61321336,-0.7273742,0
-3.536129,1.4884323,0.5203793,-0.91331583,0.38443416,0.13440423,0
2.1229072,-1.868232,2.628118,0.54989421,-0.483926,0.68075842,0
-1.7767782,-2.9634128,1.2969292,-0.48142895,-0.80295485,0.35141093,0
-1.8171123,3.4291072,-1.1234692,-0.44976297,0.84875625,-0.27807575,0
-1.4671457,-1.4779632,3.2731793,-0.37817815,-0.38096651,0.84370959,0
-0.6607759,-3.4791985,-0.65575975,-0.18346772,-0.96601677,-0.18207495,0
-0.84273833,2.5561702,2.7896597,-0.21740276,0.65941995,0.71965367,0
1.4212993,3.276372,-0.19652165,0.39736888,0.91601264,-0.0549438,0
-2.5651538,-0.71495146,-2.4853411,-0.70422137,-0.19627832,-0.68231004,0
-2.175941,3.0752544,0.80722976,-0.56477898,0.79820138,0.2095215,0
0.20769668,3.210309,-2.2144947,0.053180072,0.82198942,-0.56701434,0
-1.7597827,-3.467659,-0.41943926,-0.44993514,-0.88659906,-0.10724077,0
-3.4291272,0.5323118,1.2911571,-0.92613661,0.14376645,0.34871495,0
-1.6248971,-2.1257007,2.7222598,-0.42569855,-0.55690151,0.71319103,0
0.11860593,-3.2376239,2.2598989,0.030025933,-0.81962746,0.57210946,0
0.37553266,-0.47989914,-3.7910495,0.097802311,-0.12498312,-0.98732668,0
-2.9036222,-1.3383729,2.0021117,-0.76970929,-0.3547838,0.53073156,0
1.1477836,3.4985409,0.085689805,0.31164309,0.94991434,0.023266263,0
-2.7567282,-1.695878,2.3227792,-0.69198036,-0.42569098,0.58305264,0
2.9027648,-1.9187317,-1.3908937,0.77463102,-0.51203221,-0.3711735,0
1.9254109,2.5724492,1.8893455,0.51654083,0.69012541,0.50686532,0
-3.082207,0.52976012,1.9955679,-0.83081865,0.14279853,0.53791165,0
2.8149648,-2.5792928,0.54668611,0.72985244,-0.66874838,0.14174251,0
1.3310875,3.0584633,-1.7156945,0.3548671,0.81538439,-0.45740309,0
1.6976806,-0.17605369,-3.2999711,0.45695186,-0.047387041,-0.8882283,0
3.1532395,-1.5474139,-1.4673865,0.82834888,-0.40650213,-0.38547909,0
1.1050924,2.3296878,-2.5089023,0.30716848,0.64755368,-0.69736767,0
-2.2557292,-2.8357797,-0.52245533,-0.61615115,-0.77459162,-0.14270838,0
-1.846948,3.3372972,-0.87808239,-0.47187629,0.85264522,-0.22434105,0
-0.61388284,-2.5780501,2.5981591,-0.16540985,-0.6946519,0.70007026,0
0.44864899,-2.0461206,2.9890296,0.12291894,-0.56058741,0.81892163,0
-2.4649022,0.83910722,2.9663827,-0.62449092,0.21259052,0.75154263,0
2.2246201,-0.7987476,-2.7756824,0.61019886,-0.21909128,-0.76135164,0
1.3963282,-0.71666074,-3.2820885,0.3838118,-0.19699012,-0.90215486,0
-2.1492796,-2.9751675,-1.0693873,-0.56221086,-0.77824754,-0.27973148,0
2.4594777,-2.3203635,-1.3069891,0.67845821,-0.64008296,-0.36053893,0
0.65444356,-2.7042727,-2.5640249,0.1729686,-0.71473581,-0.67766851,0
-0.12456614,0.98298603,3.6699226,-0.032769091,0.25859001,0.96543115,0
-0.62083715,-0.71378368,-3.7625763,-0.16002283,-0.18398011,-0.96981645,0
1.0013471,0.12155899,-3.5995274,0.26786944,0.032518137,-0.9629063,0
-3.5203211,-1.2790473,-0.54172462,-0.93020594,-0.3379741,-0.14314474,0
2.0413554,1.9315538,2.2556405,0.5664764,0.53600645,0.6259405,0
1.9634697,3.1562006,-0.53229707,0.5228923,0.84052885,-0.14175622,0
-1.5896534,-3.0714219,1.7537422,-0.40995178,-0.79208142,0.45226824,0
2.5916483,-2.1299462,-1.6901354,0.68994516,-0.56703144,-0.44994557,0
-1.453015,3.3435404,1.7035906,-0.36108544,0.83089566,0.42335543,0
0.86225021,-3.4101582,-1.2282357,0.23142993,-0.91529429,-0.32966131,0
-3.356137,0.63552254,1.6647651,-0.88322496,0.16724864,0.43811145,0
1.9510061,-2.9736114,-1.1570232,0.5216614,-0.79508632,-0.30936569,0
-0.042391669,-3.8125343,-0.037661724,-0.011117796,-0.99988937,-0.0098773036,0
2.8914158,-0.47175381,-2.4254162,0.7602284,-0.12403634,-0.63770503,0
-3.1925683,0.45576301,-1.678851,-0.87810194,0.12535563,-0.46176064,0
0.13490556,1.5789493,-3.4751971,0.035320584,0.41339594,-0.90986603,0
-3.3843327,-0.83804774,1.57622,-0.88449436,-0.21902354,0.41194466,0
3.7287188,-0.40715203,-0.10057846,0.99373394,-0.10850933,-0.02680498,0
0.69742203,-3.0942681,2.0941074,0.18349287,-0.81410694,0.55096304,0
1.2613493,2.460032,2.8332534,0.31863958,0.6214484,0.71573091,0
-2.0523868,-1.9192003,-2.4539444,-0.55014747,-0.51444656,-0.65778607,0
-1.6668574,-3.5272219,0.060014885,-0.42721245,-0.90402043,0.015381703,0
-1.520214,-3.241092,-1.7739501,-0.38049814,-0.811221,-0.44400638,0
-0.6442253,-2.8621807,-2.5667605,-0.1652655,-0.73424584,-0.65846062,0
2.0743716,-2.3428571,-2.4043233,0.52565843,-0.59369433,-0.60927022,0
1.679039,1.4608995,3.0308032,0.44652817,0.38851556,0.80602002,0
-0.49972007,1.2959948,-3.4065468,-0.13583621,0.35228327,-0.92598325,0
0.75423783,-1.7669097,-3.0407426,0.20969698,-0.49124509,-0.84540254,0
-0.42343503,-3.9477856,0.55521756,-0.10561948,-0.98471558,0.13849065,0
-1.7033175,-3.1133804,-1.5111964,-0.44159207,-0.80715668,-0.39178386,0
-3.1640942,-1.8998053,-0.41391087,-0.85199022,-0.51155734,-0.11145307,0
-3.4192677,0.7330007,1.2267398,-0.92265922,0.19779378,0.33102491,0
3.370748,0.69837642,1.6079006,0.88719207,0.18381499,0.42320478,0
3.6584373,0.30072135,1.1857141,0.94838929,0.077957027,0.30737674,0
3.215657,0.75919384,2.0899088,0.82251436,0.19418982,0.53456575,0
2.338032,0.15314101,-2.9894826,0.61555189,0.040318623,-0.78706431,0
3.3210716,1.9976685,0.6175878,0.84624314,0.50902647,0.15736772,0
-2.6118777,-2.2906475,-1.6130998,-0.68190217,-0.59803623,-0.42114386,0
-2.7628036,-1.2031118,-2.298214,-0.72901636,-0.3174631,-0.60642588,0
-1.0870591,-1.320785,-3.3981721,-0.28573453,-0.34716961,-0.8932128,0
1.2271322,0.84078658,3.5540719,0.31850255,0.21822642,0.9224605,0
3.17537,1.7129651,-0.022560935,0.8800891,0.47476736,-0.0062530143,0
-1.5584568,3.6611676,-0.10817831,-0.3915197,0.91976833,-0.027176844,0
2.7701623,-1.4054149,2.3531334,0.71085382,-0.36064476,0.60383964,0
-1.2815632,-3.6820331,-0.5415678,-0.32559019,-0.93544656,-0.13758913,0
-0.54149848,-2.1273479,-3.2446685,-0.13822599,-0.54303896,-0.82825255,0
-2.3624494,-2.7200627,-0.26838771,-0.65392053,-0.7529071,-0.074289098,0
-0.26942095,3.7349715,-1.0647742,-0.069204465,0.95937866,-0.27350184,0
-1.0736816,3.7292004,0.024196176,-0.27666774,0.96094543,0.0062349034,0
3.7133553,-0.33280864,1.4956467,0.92439753,-0.082848921,0.37232423,0
-1.064692,-3.3642406,-1.3815401,-0.28095818,-0.8877787,-0.3645702,0
3.7269821,-0.46798697,0.036294512,0.99216217,-0.1245831,0.0096619837,0
3.2599816,-2.3718331,-0.25991184,0.80695027,-0.58710492,-0.064336531,0
-3.2706602,-0.24831969,-2.0539024,-0.84511787,-0.064164229,-0.53071535,0
1.4926344,-0.97375691,3.5211046,0.37822363,-0.24674352,0.89222449,0
-0.12870315,2.5346637,-2.8379018,-0.033805199,0.66575533,-0.74540395,0
-2.0561817,-2.8337615,-1.298965,-0.55061251,-0.75883585,-0.34784198,0
1.8847401,-1.0166868,3.3602114,0.47300789,-0.255155,0.84330273,0
1.7869809,3.3051856,0.02346777,0.47558892,0.87964547,0.006245736,0
1.5810279,0.53754216,3.3748939,0.41987908,0.14275694,0.89628232,0
-2.625195,2.4978702,-0.56471747,-0.71581674,0.68109888,-0.15398255,0
-0.32220247,0.73415363,-3.6691504,-0.085789718,0.19547594,-0.97694898,0
-2.2411425,0.59257275,3.1353972,-0.57475436,0.15196882,0.80409133,0
2.3585863,1.9788972,1.9494203,0.64724058,0.54304677,0.53495777,0
-1.5123084,-2.7598922,-2.3353236,-0.38590071,-0.70425081,-0.59591222,0
-2.4469798,2.2684865,2.1890888,-0.61316741,0.56844032,0.54854476,0
0.032796569,3.1982961,1.8825128,0.0088368589,0.86176366,0.50723296,0
0.73945791,-1.4176761,3.259558,0.20367324,-0.39047885,0.89779919,0
2.0553427,-1.1120007,3.2604449,0.51237297,-0.27720883,0.81279093,0
3.5629632,-0.45953381,0.83212489,0.96620411,-0.12461634,0.22565556,0
1.6524832,-0.50618577,3.5620327,0.41738155,-0.12785159,0.89969254,0
3.2304616,1.6498555,-0.7679345,0.87126583,0.44497132,-0.2071144,0
0.96175408,2.6741369,2.6320319,0.24829428,0.690377,0.67950684,0
0.72985703,-0.19803089,-3.7563856,0.19047596,-0.051681522,-0.98033053,0
1.7236387,3.0729258,-0.68946183,0.48010242,0.85593295,-0.19204274,0
3.6756139,-1.3865845,-0.78278553,0.9175995,-0.34615421,-0.19541867,0
-0.70993143,-1.5691789,-3.5229666,-0.18103887,-0.40015468,-0.89838803,0
2.3083344,-2.6709347,1.5034232,0.6015985,-0.69609946,0.39182243,0
-1.0019801,-3.5037317,1.1503841,-0.2621989,-0.91685915,0.30103335,0
-1.8564631,-1.9352807,-2.7202051,-0.4860037,-0.50663739,-0.7121228,0
-2.4400344,-2.0235374,1.9962192,-0.65135098,-0.54016989,0.53287745,0
-2.2624652,2.731925,0.78146583,-0.62289172,0.7521413,0.21514964,0
-3.67535,0.82770395,0.21856129,-0.97392952,0.21933295,0.05791647,0
-1.3267963,2.9772172,-2.1325822,-0.34062862,0.76434147,-0.54749817,0
2.9455314,1.4709181,-1.9754871,0.76715124,0.3830944,-0.51450729,0
3.3726144,0.88970023,1.8907632,0.85005975,0.2242469,0.47656253,0
-3.293365,0.7076658,1.3744541,-0.90522957,0.19451229,0.37778884,0
-0.32141292,-0.79061639,3.8252923,-0.082006857,-0.20172171,0.97600371,0
-2.5198166,-1.4911056,-2.2340882,-0.68418682,-0.40486863,-0.60660511,0
3.8128188,0.34484428,0.93289369,0.96762097,0.087514922,0.23675069,0
0.31754917,3.7016339,-0.61531478,0.084323615,0.98295063,-0.16339381,0
1.0293657,-2.1970809,2.9190626,0.2711893,-0.5788272,0.76903534,0
-2.0825393,-1.9004294,-2.5076351,-0.55193317,-0.50366873,-0.66459584,0
0.9122808,-1.7169927,-3.3740332,0.23426943,-0.44091567,-0.86643589,0
-1.3099177,3.6615913,0.29300025,-0.33588755,0.93890095,0.075130783,0
0.43318647,-0.701056,3.5119884,0.12008339,-0.19433936,0.97355646,0
-2.3649323,0.92698449,2.6999047,-0.63796765,0.2500647,0.72833025,0
-0.59929723,-3.5826082,1.3385153,-0.15481086,-0.92546171,0.34576616,0
3.4033201,-1.3105356,-1.3423913,0.87575787,-0.33723301,-0.34543025,0
3.3054318,1.4164146,-0.3807652,0.91405559,0.39168307,-0.10529353,0
-1.8496419,0.4315522,-3.1422653,-0.50375885,0.11753531,-0.855811,0
-1.0661323,2.21207,3.0085216,-0.27453309,0.56961638,0.77470565,0
1.5890892,2.5168557,2.6742852,0.39712876,0.6289866,0.66832972,0
-3.0825562,-1.3475505,-1.4268417,-0.84354174,-0.36875731,-0.39045537,0
-1.2144994,2.2047555,2.8919253,-0.31677479,0.57506084,0.75429356,0
-0.8927111,-3.6851366,-0.41941997,-0.23400952,-0.96599787,-0.10994404,0
0.46159977,-3.7290211,0.67895275,0.12089046,-0.9766103,0.17781402,0
-3.2186732,1.5841221,1.3578383,-0.83912355,0.41298822,0.35399494,0
2.7302403,2.9140348,0.32272235,0.68149692,0.72737396,0.08055491,0
-3.5317109,0.23975644,0.46005702,-0.9893828,0.067166001,0.12888159,0
1.2779191,1.9685485,-3.0396302,0.33276871,0.51260787,-0.79151636,0
0.27864942,-1.2750003,-3.5871022,0.072999492,-0.33401963,-0.93973505,0
-2.4887199,-1.1035072,-2.5622339,-0.6656974,-0.29517257,-0.68536133,0
-0.87380898,-3.6185758,-0.83424187,-0.22905058,-0.9485333,-0.21867889,0
-3.6777751,-0.31184953,0.85886526,-0.9704963,-0.082291283,0.22663854,0
-0.37217408,0.032904811,3.6059802,-0.10266065,0.0090764761,0.99467504,0
-2.4943607,2.2600389,1.6036016,-0.66901195,0.60616457,0.43010166,0
1.8850367,-1.74613,2.4910469,0.52672642,-0.48791242,0.69606084,0
0.83510071,-2.1469724,-3.0232849,0.21970907,-0.56485319,-0.79540479,0
0.42864114,-3.4059362,1.6341773,0.11274305,-0.8958441,0.42982838,0
0.48027813,1.8898962,-3.2642753,0.12631086,0.49703369,-0.85848886,0
-3.8152039,0.41171923,0.51206273,-0.98549205,0.10634976,0.13226914,0
-3.4486578,0.84132546,-0.99468839,-0.9354763,0.22821634,-0.26981726,0
-1.1306667,-1.074432,-3.548388,-0.29170489,-0.27719671,-0.91546178,0
3.3794765,1.4466357,0.73981237,0.90124375,0.38579094,0.19729425,0
-0.42972025,-0.37519225,3.6362858,-0.11674766,-0.10193334,0.98791683,0
-1.3361717,0.46141371,-3.7461069,-0.33371383,0.11523978,-0.93560398,0
3.5467761,0.70343804,1.7316098,0.88468045,0.17546016,0.43191937,0
1.3330803,-1.3509679,-3.1463878,0.36279199,-0.36766002,-0.85627574,0
-2.7604754,-2.1674447,-1.453475,-0.72667664,-0.57056528,-0.38261756,0
-3.0216265,-2.4296694,-0.63095987,-0.76919222,-0.61850226,-0.1606186,0
-1.3909172,-3.5794978,0.31758758,-0.36096299,-0.92893106,0.082418539,0
2.0148113,1.7950773,-2.3289635,0.56523979,0.50359511,-0.65337276,0
0.022462973,-1.998616,-3.2437966,0.0058955732,-0.52455151,-0.85135835,0
-1.9409474,-1.308331,-3.2289729,-0.48667967,-0.32805532,-0.80964351,0
-1.956257,2.369628,2.0329759,-0.53095156,0.64314538,0.55177397,0
-1.4531956,-0.78376001,-3.2609096,-0.39758274,-0.21443051,-0.89215893,0
0.92013901,3.3704574,-1.6586795,0.23791331,0.87147343,-0.42887208,0
-2.9883728,-1.5999197,-1.8385655,-0.7749486,-0.41489318,-0.4767791,0
3.8038957,-0.090856947,0.91844535,0.97180492,-0.02321179,0.23464096,0
0.50701797,-3.0687654,2.2499025,0.13207692,-0.79940575,0.58609402,0
-2.7809019,1.1411263,-2.1524062,-0.75218773,0.30865568,-0.5821901,0
-3.1165648,1.0589584,1.9714848,-0.81227994,0.27599961,0.51383418,0
2.8986855,2.1125708,-0.1263881,0.80764616,0.588615,-0.035214882,0
3.502579,0.91787547,-0.15781687,0.96641862,0.2532568,-0.043544248,0
-2.8029277,-2.2019577,1.1079458,-0.75092465,-0.5899204,0.29682669,0
1.8072988,-3.4097807,-0.60194236,0.46272185,-0.87300456,-0.15411502,0
-1.4996446,2.8288436,-1.8701394,-0.40444303,0.76291811,-0.5043627,0
2.9976103,-1.794258,-0.82975769,0.83481324,-0.49968812,-0.23108163,0
2.5748,-1.7859489,-2.5200124,0.64031386,-0.4441385,-0.62668902,0
-1.0667896,-3.6554265,-0.75226527,-0.27483913,-0.94175476,-0.19380759,0
-3.0848918,-0.4892531,2.32482,-0.79228258,-0.12565325,0.59707582,0
2.4456229,-0.69717902,2.8632596,0.63862032,-0.18205288,0.74767691,0
2.9841523,-1.5441748,1.8040574,0.7824834,-0.40490261,0.4730472,0
3.2702034,-1.5818373,-1.3688027,0.84239787,-0.40747812,-0.35260084,0
3.8836055,-0.69322908,0.18499552,0.98335886,-0.17553096,0.046842292,0
0.14241067,2.5513849,-2.5851946,0.039177842,0.70189798,-0.71119916,0
1.0709481,-1.8055488,3.4573815,0.26477143,-0.44638741,0.85477144,0
-2.8320353,-1.1631613,-2.2401946,-0.74651837,-0.3066068,-0.59051043,0
3.055028,-1.0734644,1.8452256,0.81970602,-0.28802526,0.4950994,0
3.2912996,-0.97650272,-1.288936,0.89752299,-0.26628801,-0.35148719,0
2.9688036,0.73205161,-2.1395936,0.79550701,0.1961572,-0.57331568,0
-3.4702384,0.54896253,1.6281323,-0.89616913,0.14176641,0.42045581,0
0.4958322,1.4492369,3.4895515,0.13010828,0.38028535,0.91567183,0
0.94333553,3.198987,1.2749666,0.26419777,0.89593279,0.35707691,0
0.39843246,-3.6182675,0.73142576,0.10731044,-0.97451371,0.19699606,0
1.7591683,0.63842887,3.526633,0.44062722,0.15991031,0.88333249,0
2.351589,0.64097875,2.671258,0.65030426,0.17725512,0.73870498,0
0.92193359,0.38859975,-3.8044283,0.23436312,0.098785266,-0.96711707,0
2.6176357,0.70441943,2.7591631,0.67674637,0.18211597,0.71333593,0
-2.5330703,-0.12262388,-3.1018994,-0.63221616,-0.03060507,-0.77418733,0
3.5394232,0.16264574,-1.0683969,0.95641083,0.043949574,-0.28869855,0
1.3319213,3.6073563,0.18381615,0.34597316,0.93702865,0.047747154,0
-0.96574539,-2.7318664,2.2268376,-0.26426995,-0.74755752,0.60935968,0
-1.8553343,-3.2697067,0.70410258,-0.48508152,-0.85487252,0.18408927,0
-1.7977865,-3.2958682,-1.0100564,-0.4624173,-0.84774613,-0.25980148,0
3.3139765,1.3492535,1.6039923,0.845146,0.34409302,0.40905774,0
3.340343,-2.2680242,-0.047332007,0.82726204,-0.56169391,-0.011722142,0
-1.3269155,0.57163161,-3.3001699,-0.36832359,0.15867281,-0.91605717,0
-1.6775295,-0.13581342,3.5282795,-0.429131,-0.034742609,0.90257382,0
1.5121468,-3.500638,0.16380021,0.39618289,-0.91716814,0.042915702,0
-0.12112922,3.1157544,1.8514385,-0.033402506,0.85919821,0.51055139,0
-0.54133874,-2.7026772,-2.4952178,-0.14559892,-0.72691429,-0.67111588,0
-0.92729217,-0.95609605,3.4358814,-0.25163922,-0.25945574,0.93239498,0
1.1169758,-3.7665682,-0.39951804,0.28285316,-0.95381266,-0.10117044,0
-3.0941124,1.9752301,1.2495822,-0.79792559,0.50938249,0.32224867,0
-0.85004443,-3.4272726,0.78875345,-0.23493992,-0.94724828,0.21799998,0
-2.2528887,0.42903256,-2.9483495,-0.60313731,0.11485945,-0.78932422,0
0.77720273,3.4297593,0.52479631,0.21858196,0.96459198,0.14759471,0
-0.043474495,1.7905731,-3.144892,-0.012012285,0.49474695,-0.86895406,0
2.2262588,-0.46056458,2.7785749,0.62011027,-0.12828735,0.77395451,0
-1.6851761,-0.23270157,-3.431618,-0.43997774,-0.060755376,-0.89595115,0
-1.9274362,0.79730105,-3.1918409,-0.50549811,0.20910376,-0.83710653,0
2.4383519,1.8632749,-2.5970876,0.60652107,0.46347517,-0.64600539,0
3.3980327,-0.13084963,-1.679073,0.89598823,-0.034502238,-0.44273549,0
-3.0704594,2.1128564,0.39612544,-0.8191883,0.56370306,0.10568494,0
-3.7441616,-0.82449585,0.13643979,-0.97598392,-0.21491987,0.035565514,0
-3.7071207,0.17751801,-1.123343,-0.95602298,0.045779813,-0.28969699,0
1.6611643,-3.341306,1.1741691,0.42465073,-0.85415274,0.30015799,0
-0.40414003,0.43928763,3.5610549,-0.11192732,0.12166151,0.98624068,0
-3.5902879,0.48738173,-0.49441361,-0.9818126,0.1332811,-0.13520406,0
2.9401262,2.0545492,-0.66007024,0.80615848,0.56334054,-0.18098585,0
-1.215905,2.8818789,-1.9477613,-0.32998252,0.78210849,-0.52859986,0
1.9099431,2.8119688,-1.9868063,0.48508769,0.71418434,-0.50460941,0
2.5434103,2.298234,1.7308547,0.66232228,0.59847665,0.45072702,0
3.2278051,-1.7754259,-1.0213951,0.8443473,-0.4644258,-0.26718223,0
2.6034489,-1.270762,2.3941479,0.69272208,-0.33812261,0.63703156,0
-1.1486661,0.21614575,-3.7472026,-0.29263428,0.055065311,-0.95463765,0
0.72896421,2.6995461,2.7103775,0.1871905,0.69321561,0.695997,0
-0.88896334,3.6532965,1.408075,-0.22141548,0.9099322,0.35071141,0
-0.62405193,1.3106906,-3.6097674,-0.16039461,0.33687535,-0.92778695,0
-0.022191076,-1.2302619,3.467248,-0.0060316436,-0.33439124,0.94241506,0
3.5625815,1.2465661,-0.33576909,0.94017333,0.32897159,-0.088610224,0
-2.4439998,2.2506719,-2.0144334,-0.62901586,0.57925874,-0.51845771,0
-0.085496105,2.8797905,-2.8252447,-0.02118779,0.7136746,-0.70015693,0
-3.5709765,0.24867412,0.33999595,-0.99311453,0.069158085,0.094555348,0
3.0643864,0.16198659,2.6437936,0.75654984,0.039991997,0.65271199,0
0.13521595,3.5332677,-1.9233772,0.033592969,0.87780291,-0.47784266,0
3.5815489,-0.38329765,-1.7051309,0.89871073,-0.096180089,-0.427865,0
1.5642899,-0.88895011,3.4370892,0.4032155,-0.22913812,0.88595313,0
2.5125425,2.544363,-1.6424258,0.63851166,0.64659816,-0.41738915,0
2.6023045,-1.8980702,1.8057963,0.70472819,-0.51401502,0.48902637,0
1.1902797,3.6142144,0.67727804,0.30796584,0.93512022,0.17523487,0
-2.7179079,2.5903993,-0.083732456,-0.72370315,0.68975115,-0.02229562,0
0.58127242,-2.6963842,2.2767296,0.16252224,-0.75390196,0.63656759,0
2.8529458,2.0416527,1.795148,0.72394401,0.51807582,0.45552447,0
1.8229104,-1.5030597,-2.8394554,0.4934957,-0.40690619,-0.76869333,0
-2.9713345,1.0275172,1.9306113,-0.80536449,0.27850312,0.52328199,0
3.332948,-1.2431709,0.87668288,0.90972555,-0.33932251,0.23928991,0
-2.7066147,-2.4526672,-1.2813673,-0.69923562,-0.63362998,-0.33103257,0
-2.454963,-2.0580654,2.3654602,-0.61648482,-0.51681679,0.5940091,0
2.7070105,-0.40621275,-2.6118958,0.71547681,-0.10736412,-0.69033748,0
2.8559947,2.2341838,1.6934829,0.71363825,0.55826396,0.42315698,0
3.0411551,-0.51336741,-2.2497301,0.79663116,-0.13447669,-0.5893172,0
-2.5451303,2.0751467,-1.6424009,-0.69317436,0.56517285,-0.44731313,0
0.85999036,0.86789411,-3.7560079,0.21773359,0.21973468,-0.95095152,0
3.2057693,1.7113659,-0.75463456,0.86374044,0.46109867,-0.20332354,0
-1.3181244,-3.4393842,-0.9090836,-0.34743774,-0.9065699,-0.23962075,0
-0.61375397,-3.5481,-1.0922436,-0.16311075,-0.94294012,-0.29027376,0
0.56580317,2.9714375,-2.6905532,0.1397635,0.73399824,-0.6646148,0
-0.27586845,-3.3333523,1.4409431,-0.075747862,-0.91527069,0.39565364,0
2.0440447,-3.1089568,-1.275678,0.51967281,-0.79041338,-0.3243252,0
2.2018793,-0.37503126,3.3603258,0.54570359,-0.092946015,0.8328076,0
-2.3735561,-1.8536682,2.2884398,-0.62752074,-0.49007279,0.60501766,0
-1.7787154,-3.2729959,-0.74098724,-0.46831992,-0.86175066,-0.19509535,0
-2.4890029,-2.903625,-0.73270959,-0.63919342,-0.74567127,-0.18816496,0
-1.8057568,-0.65568507,-3.324621,-0.47027811,-0.17076182,-0.86584002,0
-2.2403042,-2.9435058,-0.010027852,-0.60563606,-0.79573715,-0.0027108947,0
-0.91776556,1.9521039,2.9786835,-0.24954803,0.53079319,0.80992866,0
1.4898018,2.1178224,2.8160708,0.38943329,0.55359751,0.73611921,0
-0.5536769,-0.87019253,3.6769373,-0.14498502,-0.22786734,0.9628374,0
0.05311811,-3.4719782,1.2377077,0.0144093,-0.94184029,0.33575183,0
-2.3489563,1.7186542,2.3994253,-0.62272125,0.4556247,0.63610089,0
-1.3364015,0.27072161,3.6006222,-0.34710276,0.070314363,0.93518746,0
3.8470302,0.8093251,-0.18537444,0.97749317,0.20564169,-0.047101855,0
-1.0349058,0.40597749,3.4217753,-0.28764707,0.11283948,0.9510659,0
3.3441281,0.5082671,-1.9201245,0.85977799,0.13067588,-0.49366555,0
-1.5926288,3.1627543,-1.2674239,-0.42344806,0.84091288,-0.33698258,0
1.9954755,-1.1558684,2.9879329,0.52869421,-0.30624327,0.79164231,0
2.9612823,1.729292,-1.0098138,0.82837147,0.48374185,-0.28247929,0
-2.6673534,2.1097214,1.7143403,-0.70036876,0.55395097,0.45013547,0
1.6006891,-0.4899151,3.4614863,0.41630286,-0.12741579,0.90025395,0
0.98238897,-2.1184616,3.1960361,0.24818872,-0.53520375,0.80743992,0
1.6262692,-2.5925694,2.3668373,0.42034829,-0.67011178,0.61176586,0
-2.8957531,1.7910948,-1.1538814,-0.80546892,0.49820241,-0.32095817,0
-2.8835571,-0.80344003,-2.5279415,-0.73597246,-0.20506261,-0.64520842,0
-0.25253424,-2.5053945,2.7852755,-0.067256346,-0.66725081,0.74179035,0
-3.6278992,-0.56809014,-1.3324245,-0.92871344,-0.14542657,-0.34109011,0
-2.1993878,-2.6800349,-1.7431561,-0.56677562,-0.69063693,-0.44920608,0
3.9047189,0.28115723,-0.21583331,0.99590528,0.071709633,-0.055048659,0
-3.0110817,0.19218007,2.3583412,-0.78627914,0.050183687,0.61583006,0
-3.7631729,-0.45148,-0.58813024,-0.98113799,-0.11771029,-0.15333788,0
-2.2850919,-3.1889088,-0.74274719,-0.572303,-0.79866463,-0.1860216,0
-1.2181908,-0.89078683,-3.7218363,-0.30332214,-0.22180052,-0.92671472,0
-2.903734,-2.3405044,-1.1748568,-0.74259877,-0.59855884,-0.300457,0
-1.8247367,0.0082229376,3.3667488,-0.47650033,0.0021472864,0.87917173,0
0.46994495,-2.8766119,2.268852,0.12722871,-0.77878833,0.61424881,0
-0.14170754,3.433511,-1.7166448,-0.036890063,0.89382988,-0.44688612,0
-3.5098648,0.2337105,1.5784906,-0.91033667,0.060616363,0.40940547,0
1.1097006,-3.690444,0.0095050381,0.28795815,-0.95763981,0.0024664791,0
-2.8445351,2.2461519,-0.61032683,-0.77392423,0.61111969,-0.1660541,0
1.1118487,-1.3305064,-3.3149028,0.29720676,-0.35565585,-0.88610214,0
0.71498066,1.1201183,-3.4265003,0.19454433,0.3047812,-0.93234164,0
2.5128086,-1.8546801,-1.9080479,0.68658298,-0.50676036,-0.52134228,0
-2.7861624,-2.4524066,-0.83656323,-0.7322672,-0.64454854,-0.21986794,0
0.60711485,3.2411299,1.6670821,0.16430925,0.87717772,0.45117822,0
2.2835238,1.4420029,2.8928518,0.5769999,0.36436474,0.73096472,0
-2.0740397,3.2588072,-0.18785471,-0.53628838,0.84263593,-0.048573948,0
-3.7320297,0.36810362,-0.088128835,-0.99489617,0.098130219,-0.023493662,0
-1.6554483,-1.8510106,3.1333239,-0.4140631,-0.46297741,0.78371143,0
0.62555152,-0.97502112,3.7504566,0.15936439,-0.24839464,0.95545959,0
2.3942997,-2.7894924,-0.99372756,0.62874287,-0.7325204,-0.26095274,0
-2.4421451,-2.7646897,0.91254926,-0.64266247,-0.72754169,0.24014182,0
0.27641279,-2.6995275,2.6699126,0.072608866,-0.70911932,0.70133996,0
-3.3539503,1.3904407,-1.0397375,-0.88806683,0.36816418,-0.27530414,0
3.8263988,0.34393993,-0.76991391,0.97656745,0.087779805,-0.1964962,0
0.19434853,3.3062627,-1.5733724,0.053003751,0.90170133,-0.42909837,0
-1.2905158,3.1006889,-1.3992809,-0.35469675,0.85222077,-0.38459072,0
0.19998601,-2.7981577,-2.368026,0.054475263,-0.76220518,-0.64503932,0
1.6110817,-1.4143149,2.9280949,0.44394696,-0.38972622,0.80686086,0
-0.45194188,-2.7269793,-2.7928119,-0.11501445,-0.69398749,-0.71074122,0
-2.3521929,2.730262,1.3766981,-0.60972762,0.7077294,0.35686311,0
3.1521688,-2.11568,-0.34011027,0.82700354,-0.55507016,-0.089231387,0
3.2406847,0.36382538,-2.0227082,0.84449679,0.094810009,-0.5271017,0
-1.7582573,2.7666914,2.0499897,-0.4547613,0.71558595,0.53021592,0
-1.6476916,-0.63098526,-3.4585834,-0.42437494,-0.16251484,-0.89078325,0
-1.0690546,3.4920032,0.66737241,-0.28796402,0.94061732,0.1797656,0
3.7524753,0.92370641,-0.19724974,0.96975124,0.23871322,-0.0509752,0
2.5587084,-1.5331986,-2.0674443,0.7050091,-0.42244712,-0.56964952,0
-1.5309746,3.3898008,-0.08178395,-0.41150889,0.91114056,-0.021982612,0
1.0572591,-1.0217688,3.5785036,0.27327937,-0.26410589,0.92496836,0
0.67173463,1.5087054,-3.3116014,0.18152256,0.40769681,-0.89489263,0
3.5119042,-0.5782631,1.1772772,0.93679625,-0.15425099,0.31403729,0
-1.2647461,-0.50507605,3.421026,-0.3434819,-0.13716942,0.92908812,0
0.29611835,2.2726324,-3.1917481,0.075360626,0.57837343,-0.81228375,0
2.2053308,-1.7784147,-2.7331936,0.56021619,-0.45176747,-0.69430822,0
2.7303603,1.4917083,2.3674283,0.69837773,0.38155252,0.60554618,0
3.3837705,1.0291013,-0.72685415,0.93714672,0.28501308,-0.20130472,0
-2.6239233,0.05722791,-2.7927098,-0.68466407,0.014932561,-0.72870576,0
3.2208946,0.8000133,2.2271936,0.80586421,0.20016243,0.55724132,0
2.4604843,1.7089924,-2.3898733,0.64204711,0.44595024,-0.62362164,0
3.1837628,0.72263879,-2.1698644,0.81217211,0.18434384,-0.55352849,0
3.1750662,1.8011297,-0.75231785,0.85189199,0.48325542,-0.20185202,0
-1.7049438,-0.34693819,3.2597654,-0.46141502,-0.093893126,0.88220197,0
2.8799181,-0.88006938,-2.0543814,0.79001456,-0.24141923,-0.56355464,0
1.0362704,-3.6078801,-1.1217413,0.26450485,-0.92090034,-0.28632104,0
1.0931789,-1.3833271,3.2652178,0.29459125,-0.37278077,0.87991506,0
2.7667422,1.1879804,-2.3221796,0.72761965,0.31242442,-0.61070502,0
-1.0641719,-0.26550665,3.4555464,-0.29352969,-0.073234491,0.95314062,0
-0.1191938,-3.9223614,-0.74126661,-0.029846428,-0.98216915,-0.18561502,0
-1.6060662,-0.6478672,-3.2760217,-0.43341553,-0.17483445,-0.8840723,0
0.099125661,-3.3268137,1.686229,0.026567623,-0.89165139,0.45194247,0
2.2818642,-0.42529213,-2.9094665,0.61308604,-0.11426652,-0.78170884,0
-1.9678559,2.8201599,-1.8523042,-0.50380409,0.72200823,-0.47422093,0
-2.7989593,-0.19733661,-2.7828953,-0.70825416,-0.049934447,-0.7041893,0
-2.1489639,-1.1380349,2.8612843,-0.57229209,-0.3030709,0.76199067,0
3.8795693,-0.51491094,-0.52097154,0.98263872,-0.13041948,-0.13195454,0
-3.6307302,-1.3457483,-0.48105952,-0.9305082,-0.34489751,-0.1232892,0
-2.5550504,-2.772511,-0.63253039,-0.66833955,-0.72522205,-0.1654547,0
2.3495276,-2.7718751,0.73102748,0.63389778,-0.74784625,0.19722973,0
-3.0009551,2.3637521,-0.24991901,-0.78389692,0.6174494,-0.065282792,0
-3.6259632,1.6258441,-0.16169259,-0.91171616,0.40880403,-0.040656161,0
-2.5417562,-2.883698,-0.34249452,-0.65862,-0.74722397,-0.088747196,0
2.8654363,2.5482984,-0.59902489,0.7382943,0.65658212,-0.15434183,0
-1.8290871,1.9907696,2.6375377,-0.48427662,0.52708435,0.69832534,0
3.4167247,0.92718917,0.65593684,0.94894594,0.2575134,0.18217698,0
3.2823801,0.44580403,1.5538801,0.89710301,0.12184212,0.42468894,0
0.79336494,2.4752045,-2.987618,0.2003426,0.62504512,-0.75444114,0
2.5006821,-2.9902391,-0.30941227,0.63950676,-0.76470256,-0.079126902,0
1.3772546,2.0057592,-2.8624501,0.36660346,0.53390145,-0.76193905,0
2.6798053,2.2804816,1.499277,0.7006228,0.59622145,0.3919791,0
3.6395192,-1.3431766,0.72759765,0.92207354,-0.34029427,0.18433714,0
-1.2211335,2.5735514,-2.7070215,-0.31074715,0.65490282,-0.68886751,0
2.2027266,-0.56569332,-3.2035868,0.56067032,-0.14398856,-0.81542391,0
0.44170037,-1.5858363,-3.4941177,0.11435636,-0.41057348,-0.90462816,0
1.5977701,-1.1116128,-3.1414335,0.4323487,-0.30079693,-0.85005635,0
1.6100519,3.5496075,-0.49018896,0.40985009,0.90357769,-0.12478106,0
3.4690497,-1.1463006,1.3790478,0.88833016,-0.29353669,0.35313696,0
-1.4177424,-3.7200487,-0.53229791,-0.35298148,-0.92619669,-0.13252853,0
-2.7922969,0.89964736,-2.1512687,-0.76755947,0.24729921,-0.59135067,0
-0.60249949,3.7070789,1.3070397,-0.15150908,0.93221015,0.3286781,0
-1.8200285,2.9445639,1.5770583,-0.47845691,0.77407962,0.41458386,0
2.5525413,1.2370354,-2.3162591,0.69702083,0.33779648,-0.6324994,0
-0.9950853,-3.5413284,0.37060514,-0.26915291,-0.95786649,0.10024212,0
2.8878562,1.8870841,1.6129695,0.75832355,0.49553034,0.42355046,0
-1.8836361,-3.0604601,0.93068862,-0.50741309,-0.8244254,0.25070849,0
1.1108385,2.4678206,2.6481678,0.29337519,0.65175754,0.69938767,0
-2.3175054,-3.2331583,-0.018085603,-0.58258075,-0.81276006,-0.0045464076,0
2.2705326,2.8618798,-0.075523034,0.62139064,0.78322822,-0.020668853,0
-3.2937708,1.7942985,0.8110615,-0.85831606,0.46757206,0.21135263,0
-3.3103008,-0.89895606,1.647458,-0.86991781,-0.2362377,0.43293738,0
-0.90879267,1.0446979,-3.6035886,-0.23541048,0.27061489,-0.93346101,0
-1.5234452,2.9267182,-2.2987454,-0.37884465,0.72780532,-0.57164341,0
2.3788042,-3.103651,0.56298399,0.60211682,-0.7855882,0.14250107,0
3.617996,0.66829407,-0.37275416,0.97835654,0.18071602,-0.10079792,0
0.405985,0.17650443,3.7122977,0.10859278,0.047211368,0.99296457,0
-2.166961,-0.87570679,-2.7758267,-0.59716529,-0.24132492,-0.76495486,0
-3.6846504,-0.51052076,-0.034057904,-0.99049604,-0.13723657,-0.0091553377,0
1.5827756,0.21146736,-3.3834424,0.42305115,0.056521915,-0.90434116,0
-1.1817199,-0.16714296,3.714134,-0.30291361,-0.042844225,0.95205444,0
3.1835711,-0.29561386,1.7479248,0.87367976,-0.081126451,0.47968978,0
-0.78056544,0.99824709,3.7178242,-0.19872594,0.25414601,0.94652939,0
-3.7426026,-0.17298418,0.68534029,-0.982629,-0.045417398,0.17993768,0
-3.1458232,2.2560763,0.60567009,-0.80285811,0.57578224,0.15457548,0
0.36957467,-0.45949927,3.6262379,0.10059544,-0.12507224,0.98703468,0
1.4035774,0.97816354,3.4525516,0.36426532,0.25385919,0.89602804,0
0.95575529,-1.0805011,3.7190852,0.23959452,-0.27086654,0.9323228,0
-1.3763342,-1.6485161,3.0688107,-0.36745384,-0.440121,0.81931144,0
2.1470637,-2.9579017,-1.1909083,0.55853063,-0.76945955,-0.30979925,0
0.043672442,2.6413739,2.6778741,0.011610014,0.70219082,0.71189415,0
1.8697294,-3.1982496,0.40574202,0.50169337,-0.85816723,0.10887033,0
0.79039782,-2.4477527,2.9744594,0.20099719,-0.62246048,0.75640136,0
-2.3343906,-1.5068564,2.7441423,-0.59777004,-0.38586244,0.70269561,0
3.1253829,-1.8038419,0.67488384,0.85133654,-0.49135628,0.18383452,0
-2.1486835,0.15405504,3.1668928,-0.56099707,0.040222038,0.82684004,0
0.98236108,3.6044192,0.41223598,0.26136601,0.95898813,0.10967909,0
-3.5883331,-1.0002906,-1.1553031,-0.9200418,-0.25647262,-0.29621753,0
3.2173474,-2.247788,-0.23215075,0.81832266,-0.5717181,-0.059046846,0
0.7441749,-2.554661,3.0600128,0.18351619,-0.62998855,0.75461006,0
-0.41811758,-3.2197781,1.8548176,-0.11181796,-0.86107123,0.49603733,0
-1.4547765,-2.8443129,2.2038767,-0.37482834,-0.73284733,0.56783664,0
3.8083892,-0.27904621,-0.72669923,0.97974294,-0.071787186,-0.18695003,0
-0.14885682,2.8678794,-2.4916046,-0.03915254,0.75431389,-0.6553455,0
-3.2577319,2.0360384,-0.50094825,-0.84088439,0.52554137,-0.12930454,0
2.9497619,-2.3756309,-0.31739604,0.77610648,-0.62504792,-0.083509497,0
-0.95742679,3.0165126,2.2347949,-0.24712151,0.77859235,0.57682312,0
-0.50109589,-2.7377665,2.4610777,-0.13487403,-0.7368921,0.66241908,0
3.0844932,2.2435176,0.25624856,0.80688596,0.58689153,0.067033172,0
-3.2177749,-0.53972423,2.1952026,-0.81825876,-0.13724828,0.55822539,0
3.571183,-0.24745902,-0.90190905,0.96737677,-0.067032725,-0.24431285,0
0.31679526,3.6885161,0.12100653,0.085526206,0.9958002,0.032668512,0
0.62288892,-3.4340901,-1.5402634,0.16327839,-0.90018088,-0.40375054,0
2.3581104,-2.9843905,0.39357632,0.61667758,-0.78045821,0.1029255,0
-3.284847,-1.786052,-1.4779592,-0.81702089,-0.44423431,-0.36760417,0
