-2.3068342,2.1202595,-2.0893886,-0.61254716,0.56300491,-0.55480754,0
1.0869588,3.3607364,0.88101655,0.29858553,0.92318803,0.2420136,0
0.45663464,-2.9167407,2.0839293,0.12636292,-0.80713952,0.57667851,0
-2.1817985,1.8408719,-2.2435019,-0.60092205,0.50702232,-0.6179167,0
-1.4049604,-3.2707729,-1.1546577,-0.37542304,-0.87399155,-0.30853903,0
3.2013204,0.66652006,1.7981194,0.8578611,0.17860806,0.48184389,0
3.3765311,0.28865948,1.5115294,0.90995395,0.077791922,0.40734771,0
-3.0412543,1.8925049,-0.23745491,-0.84717607,0.52717882,-0.06614577,0
-0.26711315,-0.073637024,3.8346274,-0.069477037,-0.019153241,0.99739963,0
-3.6131277,-0.28201261,0.20884117,-0.99531657,-0.07768666,0.05752996,0
-0.27808666,3.1370111,1.6038626,-0.078684546,0.88761646,0.45381251,0
2.4830284,-1.3787851,-2.7135408,0.63212329,-0.35100776,-0.69080657,0
3.2153707,1.8281865,1.166939,0.82902813,0.47136652,0.30087522,0
3.0379622,2.1327746,0.0049539097,0.81844556,0.57458252,0.0013346135,0
-2.1912627,2.1519809,2.3849056,-0.56352401,0.55342191,0.61332285,0
2.5804768,-2.632072,-1.0691063,0.67236286,-0.68580639,-0.2785638,0
-0.54171455,-3.4548528,-1.237614,-0.14603035,-0.93132693,-0.33362442,0
1.2972822,3.5712297,-0.48889843,0.33863813,0.93222165,-0.12762038,0
-1.0583274,-0.083727233,3.4170187,-0.29577589,-0.023399655,0.95497072,0
-3.4965255,0.11388177,0.80211234,-0.97419149,0.031729396,0.22348213,0
-2.7014678,0.93606842,-2.2695327,-0.74006063,0.2564337,-0.62173307,0
-1.8682547,-3.3783576,-0.67354351,-0.47673619,-0.86208022,-0.17187302,0
2.7366498,2.4619973,-0.48107481,0.73715919,0.66317725,-0.12958498,0
2.6000392,1.8048645,-1.879537,0.7063238,0.49030751,-0.51059294,0
0.62528181,2.5317266,2.6282604,0.16888182,0.68379182,0.70986456,0
-1.9332172,2.9237027,1.0304744,-0.52915734,0.80027163,0.28205994,0
0.40156981,1.2391394,-3.3970723,0.1103746,0.34058714,-0.93371183,0
-2.9981987,0.51823354,1.9476684,-0.82991886,0.14345005,0.53912598,0
1.0306659,3.5488384,1.0561137,0.26816353,0.92335355,0.27478465,0
-3.119509,-1.5765595,-1.4072436,-0.82791305,-0.41841656,-0.37348038,0
-3.1601033,1.4154062,-1.2549484,-0.85802317,0.38430747,-0.34074038,0
2.9909322,-0.61479408,2.3351526,0.77807158,-0.15993468,0.60747474,0
2.3510425,-1.6018181,2.3929973,0.63242912,-0.43088815,0.6437149,0
-3.2345796,-0.19997032,-1.8519535,-0.86657792,-0.053574152,-0.49615782,0
2.2639279,-2.7973113,0.73260659,0.61645925,-0.76169759,0.19948609,0
-1.7626219,-2.8757141,1.1071024,-0.49651828,-0.81006861,0.31186301,0
-1.3591667,-3.2522182,0.76772112,-0.37676722,-0.90152973,0.21281579,0
0.92180413,0.72114503,3.6121223,0.24277176,0.189925,0.9513098,0
-3.5085022,0.0026995395,-1.1346192,-0.95148271,0.00073209737,-0.30770126,0
-0.05680643,3.5440671,1.2483217,-0.015116465,0.94309336,0.3321844,0
3.1969612,-1.3369777,1.0466574,0.88316667,-0.36934268,0.28914115,0
-3.3625331,-1.5616474,0.34575185,-0.90304202,-0.41939607,0.092855126,0
-1.6215549,-1.6960593,-2.7551279,-0.44807348,-0.46866083,-0.76130623,0
-0.48048863,-3.1404965,-1.6533895,-0.13415775,-0.87686139,-0.46164465,0
-0.34965786,-3.4594157,-1.2435807,-0.094687983,-0.93681604,-0.33676389,0
-0.21784784,3.251991,1.5098196,-0.060648073,0.90534288,0.4203285,0
-2.8465014,0.51759589,2.0615785,-0.80125678,0.14569718,0.58031017,0
1.3586446,-3.1710906,-1.3721663,0.36593947,-0.85410649,-0.3695814,0
-0.35732242,-2.355181,2.9949994,-0.093373112,-0.61544019,0.7826333,0
-3.1088049,-1.0024281,1.3726729,-0.87741798,-0.2829217,0.3874183,0
-0.97102743,-1.7332175,2.8338423,-0.28057346,-0.50080442,0.81882441,0
-0.28247997,-1.7602417,-3.3213589,-0.074936889,-0.46696067,-0.88109714,0
-2.6130018,2.0097041,-1.4910617,-0.72222191,0.55547315,-0.41212273,0
2.2618663,0.40920591,-2.9951715,0.5990876,0.10838403,-0.79331392,0
3.0274174,-1.8593069,-1.4217906,0.79112643,-0.48587513,-0.37154311,0
2.2933977,-2.6284504,0.10301407,0.65716267,-0.75317055,0.029518215,0
-0.97603983,-0.45544618,3.6727302,-0.25501344,-0.11899606,0.95958745,0
-3.6068339,-0.84141731,-1.2530769,-0.92248398,-0.21520093,-0.32048699,0
0.16246285,2.6106927,-2.6125731,0.043944765,0.70616937,-0.70667797,0
-2.7606118,-2.3494265,-0.98920089,-0.73468089,-0.62525225,-0.26325577,0
3.8118773,-0.38600907,-0.17390729,0.9938885,-0.10064594,-0.045343656,0
-3.1657989,-0.44808033,1.6009895,-0.88534421,-0.12530971,0.44773114,0
-0.41856551,-3.7503469,-0.29337049,-0.1105848,-0.99083978,-0.077508338,0
1.8435875,-0.31198469,3.3302686,0.48270652,-0.081686951,0.87196422,0
-0.21781179,-0.080643766,3.6984251,-0.058777329,-0.021762023,0.99803388,0
-0.30010659,3.8354068,0.65369314,-0.076905616,0.98286515,0.16751605,0
-3.5129874,0.82737827,0.17602199,-0.97221261,0.22897537,0.048713751,0
3.8103437,-0.20103434,-0.34366769,0.9945851,-0.052474465,-0.089704968,0
1.0272709,-2.2528138,-2.6335673,0.28419176,-0.62323493,-0.72856933,0
-2.9165089,1.8202063,1.219919,-0.79949743,0.49896994,0.33441424,0
-0.55591339,-0.72462159,3.7610087,-0.14363535,-0.1872257,0.9717589,0
0.74067843,-3.4520938,0.99531728,0.20191486,-0.94106835,0.27133143,0
2.0470533,-2.9871986,0.7046923,0.5548737,-0.80970919,0.19101369,0
2.5280464,-2.0923595,-1.1933655,0.7239821,-0.59921008,-0.34175611,0
2.0512161,-1.8210328,-2.6983299,0.53310484,-0.47328085,-0.70128769,0
-1.0717486,-3.3603864,0.13563657,-0.30363175,-0.95201427,0.038426518,0
0.25214076,-3.8013327,0.54414314,0.065519191,-0.98778254,0.14139649,0
-0.74501508,3.6540101,0.59551001,-0.19727995,0.96758157,0.157691,0
0.68506688,3.5049443,1.0373075,0.18421397,0.94247687,0.2789312,0
-2.2510629,-0.30700222,-2.8748982,-0.61433464,-0.083783582,-0.78458476,0
1.8781821,-2.8445771,-0.62326032,0.54201192,-0.8208974,-0.1798625,0
0.1211488,2.9498744,-2.2224176,0.032784164,0.7982676,-0.60141003,0
3.3865211,1.3565148,0.12707441,0.92773372,0.37161574,0.034811895,0
-3.3210135,1.9113826,0.37592882,-0.86256206,0.49644062,0.097639449,0
0.096975654,3.6416607,0.20431057,0.026578311,0.99807721,0.055995803,0
-1.470158,2.3426762,2.3040273,-0.40840814,0.65079266,0.64005607,0
-0.4110305,1.9683162,-3.0911438,-0.11146291,0.53376639,-0.83825386,0
2.6722348,-1.5898874,-2.0400541,0.71855038,-0.42751265,-0.5485602,0
-3.6975625,-0.708902,-0.75502181,-0.96294057,-0.18461636,-0.19662714,0
2.6402295,-2.8832228,-0.36763823,0.67237931,-0.73426175,-0.093625329,0
0.012315059,-0.3767581,3.5095916,0.003488905,-0.10673706,0.99428117,0
1.1575844,3.3869255,0.62154478,0.31864381,0.93230593,0.17109023,0
-2.8751838,-1.9679521,1.2043605,-0.77993041,-0.53383219,0.32669821,0
1.2052066,-2.5533442,-2.3535013,0.32788146,-0.69464785,-0.64027977,0
-3.1801102,-1.6956297,0.51406771,-0.87356013,-0.46578088,0.14121179,0
-3.5896792,1.4466851,-0.36587793,-0.92339301,0.3721388,-0.0941168,0
-2.0539744,-0.020798374,-3.1017213,-0.55211335,-0.005590654,-0.83375031,0
-3.0686479,2.0667887,-0.31713223,-0.826388,0.55658698,-0.08540383,0
-3.6812818,0.4955295,0.30506217,-0.98773611,0.13295706,0.081852175,0
2.450036,2.5616903,-0.6231426,0.6807431,0.7117663,-0.17314033,0
0.9251678,-0.83954805,-3.5678244,0.24473843,-0.22208908,-0.94381118,0
-1.0850987,-3.2583346,-1.1035507,-0.30081335,-0.90328234,-0.30592862,0
-2.0773869,2.1455972,-2.0313959,-0.57515353,0.59403855,-0.56242031,0
2.701077,-1.8096002,-1.5331005,0.7514345,-0.50342733,-0.42650566,0
-1.2816024,1.7527623,3.125612,-0.33674958,0.46055001,0.82127547,0
-0.65677762,-0.13400587,-3.430109,-0.18791969,-0.038342264,-0.98143572,0
-2.7172945,2.0365932,1.328176,-0.74522114,0.55853802,0.36425379,0
0.81326902,3.1146374,2.0668719,0.21259242,0.81418115,0.54029024,0
1.5677933,3.4384522,-0.78345639,0.40623042,0.89093626,-0.20300113,0
-1.7542514,3.0632715,1.222167,-0.46960336,0.82002079,0.32716733,0
0.88924032,1.6096747,-2.9808502,0.25388977,0.45958322,-0.85107177,0
-1.355703,-3.4346018,0.91807503,-0.35630429,-0.90267807,0.24128741,0
-0.34914562,2.4538999,2.9230287,-0.091102608,0.6402964,0.76270622,0
-1.7825533,3.2167585,-0.031725101,-0.48468235,0.87464768,-0.0086261639,0
-0.59962934,-1.0626627,3.6861761,-0.1544293,-0.27367949,0.94934249,0
0.74193984,3.4820638,1.0339375,0.200128,0.93923855,0.27889031,0
2.3222637,1.8523438,-2.2355728,0.62463754,0.49823949,-0.60131961,0
-2.2860293,-0.22490691,3.1910789,-0.58141214,-0.057201196,0.81159592,0
-3.0421605,0.87182224,1.7744898,-0.8384831,0.24029246,0.48908654,0
-2.2260709,-2.7334526,-1.1928788,-0.59815305,-0.73448831,-0.32053071,0
0.50163615,3.4753616,0.010877278,0.1428595,0.98973817,0.0030977083,0
3.4936738,-0.56282711,1.1482137,0.93907392,-0.1512838,0.30863145,0
3.2460608,0.72990519,-1.6703863,0.87192112,0.19605909,-0.44868076,0
0.61570036,1.5277209,-3.2879241,0.16742699,0.41543213,-0.89408296,0
-0.97610313,1.114689,3.2074306,-0.27627248,0.31549728,0.90781879,0
-1.5269679,2.4184432,2.3777864,-0.41053507,0.6502139,0.63928306,0
2.1754572,-0.18378688,-2.8078029,0.61164963,-0.05167336,-0.78943944,0
1.3423291,3.3365312,0.51683402,0.36944428,0.91830111,0.14224632,0
0.25086835,-3.8534126,-0.46020955,0.064508878,-0.9908756,-0.11833937,0
0.87289155,2.6447244,-2.1559207,0.24783956,0.75091499,-0.61212927,0
3.5541985,-0.33709225,0.52478701,0.98494846,-0.093415856,0.1454303,0
-3.5783641,-0.14839618,1.3314761,-0.93651545,-0.038837668,0.34846869,0
2.0607255,-0.34061396,-2.8351288,0.58519346,-0.096725672,-0.80510426,0
-2.0936456,1.8442184,-2.5631154,-0.55260634,0.4867714,-0.67652035,0
2.8762834,-0.66919136,2.4548063,0.74899918,-0.17426091,0.63924438,0
3.6502287,0.81385034,-0.62114137,0.96284497,0.21467468,-0.16384257,0
2.4340401,2.0328395,2.1090546,0.63909787,0.53375596,0.5537675,0
-0.33112743,1.9902409,-3.2292476,-0.086962089,0.52268553,-0.84807867,0
-0.12204963,0.46156242,3.4952035,-0.034597903,0.13084097,0.99079955,0
-1.6221236,1.9060907,2.6215646,-0.44754294,0.52588934,0.72328812,0
-2.9723783,0.29887334,-2.169472,-0.80508316,0.080951303,-0.58761209,0
-1.9865341,1.7513438,2.9310153,-0.50288987,0.4433516,0.74198467,0
1.4716032,-2.0788715,2.6713684,0.39869964,-0.5632261,0.72375059,0
-3.2372336,0.39891633,-1.2762166,-0.92426223,0.11389456,-0.36437249,0
-0.37301654,1.5757021,3.140698,-0.1055643,0.44592631,0.88882273,0
-1.1702877,2.2859194,2.8576868,-0.30459955,0.59497339,0.74379152,0
3.4610391,0.18067668,1.0312754,0.95716375,0.049966838,0.28520322,0
-0.69395089,-3.4115896,-0.23781642,-0.19886455,-0.97765452,-0.068150721,0
0.048573393,-3.694545,-0.321172,0.013096807,-0.99615735,-0.086597361,0
2.8275919,-1.888407,-1.7797008,0.73677456,-0.49205482,-0.46372968,0
3.0730247,-0.86663598,-1.7619203,0.84267122,-0.23764507,-0.48314598,0
-3.5857613,0.11744189,-1.087312,-0.95650154,0.031327616,-0.29004037,0
2.9997404,-0.95187712,-1.9419732,0.81116229,-0.25739789,-0.52513057,0
3.404676,-1.2691287,0.14250697,0.93629748,-0.3490147,0.039189901,0
2.3115385,-1.9979804,-1.9925007,0.63370997,-0.54774773,-0.54624552,0
2.6442187,0.39394659,-2.5323551,0.71807367,0.10698157,-0.68769556,0
-1.1045607,-1.1382611,3.3016944,-0.30155316,-0.31075358,0.90138668,0
-0.81121844,3.4670238,0.64738023,-0.2241531,0.95799613,0.17888188,0
-0.77853709,-3.5264187,-0.65372527,-0.21213382,-0.96086973,-0.17812541,0
1.8058144,-0.37942541,-3.1714058,0.49215999,-0.1034093,-0.86434078,0
-0.6226517,3.680057,0.9927907,-0.16121922,0.95285362,0.25705695,0
3.0477145,-0.92308205,-1.5082966,0.86494875,-0.2619729,-0.42805824,0
-3.3518994,0.10768992,1.6624479,-0.89549512,0.028770495,0.44414043,0
1.4713907,-0.97966325,-3.2782249,0.3950631,-0.26303604,-0.88019156,0
0.82097155,-2.7664585,-2.3459778,0.22075112,-0.7438733,-0.6308102,0
-0.21132323,-3.5490673,0.43297479,-0.059002131,-0.99091113,0.12088796,0
-1.5033554,-0.43535557,3.492763,-0.39278743,-0.11374702,0.91256762,0
-1.5002098,2.1769254,-2.5217597,-0.41060966,0.59582776,-0.69020939,0
1.6578165,-3.1637223,0.41190386,0.46108916,-0.87992734,0.11456298,0
-1.4703875,-3.4281595,-0.30308938,-0.39289087,-0.91601199,-0.080986172,0
-2.8730974,-2.303987,-1.0331115,-0.75114328,-0.60235488,-0.2700969,0
1.4950718,-3.4686947,-0.16072901,0.39545912,-0.91749907,-0.042514183,0
1.9450041,3.0882206,-0.8311255,0.51962167,0.82504004,-0.22204109,0
0.53746903,-2.8665268,2.241399,0.1461198,-0.77931249,0.60936123,0
0.020826014,0.15887445,3.8463039,0.0054098601,0.041269951,0.99913335,0
1.2527052,2.7646306,-1.987095,0.34530628,0.76206619,-0.54773968,0
0.39917794,-2.6405582,2.4716678,0.10969974,-0.72566271,0.67924923,0
-0.81470197,-2.6671884,-2.4191947,-0.22067273,-0.72244298,-0.65527064,0
-0.650805,2.9546967,2.3786101,-0.16910264,0.76773691,0.61804885,0
2.1020677,-2.7127798,0.57207686,0.60417384,-0.77970397,0.16442566,0
3.1750667,-1.5541236,-0.81645501,0.87513745,-0.42836007,-0.2250379,0
3.5967655,-1.4721137,-0.065764569,0.92535049,-0.37873504,-0.016919445,0
-3.439786,0.76050246,1.2863293,-0.91719037,0.20278166,0.34298903,0
0.90122855,-3.4661715,1.1708851,0.23918203,-0.91990644,0.31074765,0
-2.8479788,1.2773471,-1.7473372,-0.79616535,0.35708815,-0.48847601,0
-1.0732683,3.5544679,-0.72383267,-0.28371823,0.93962282,-0.19134501,0
-1.2770181,-2.344177,2.6326635,-0.34060651,-0.62523931,0.7021845,0
0.56649661,-3.0284405,-1.9359746,0.15568519,-0.83227915,-0.53204656,0
3.2429647,-0.93938214,1.4061339,0.88668925,-0.25684524,0.3844642,0
-1.037204,-2.8469748,-2.1620703,-0.2786451,-0.76484048,-0.58084071,0
-1.8103055,0.040726807,-3.2034407,-0.49195814,0.011067681,-0.87054849,0
-1.3910959,-3.4180143,0.81521577,-0.36809018,-0.90442187,0.21570975,0
0.46100137,-2.8788185,-2.5380683,0.1192612,-0.74475121,-0.65659904,0
0.072138205,-3.1489744,-1.8884422,0.01964266,-0.85744071,-0.51420778,0
2.6528621,-1.1075103,-2.2753432,0.72358859,-0.302082,-0.62061739,0
0.085244544,2.5354455,-3.0277939,0.021580353,0.64186877,-0.76651078,0
3.4969766,-0.76846725,-0.5122264,0.96685106,-0.21246736,-0.14162138,0
-2.6094332,1.1110333,2.2146335,-0.72517449,0.30876169,0.61545765,0
3.7505662,0.069942512,0.46787629,0.99213874,0.018501921,0.1237675,0
3.3134921,-0.92467159,-1.6388144,0.86956733,-0.2426637,-0.43007785,0
0.79399222,3.6603403,-0.58724582,0.20942904,0.96547741,-0.15489614,0
-3.6394808,1.1135937,-0.88381791,-0.93145514,0.28500289,-0.2261962,0
-0.021190489,-3.2594082,-2.0296063,-0.0055187508,-0.84886485,-0.52858108,0
-3.2485366,0.28412738,-1.4623053,-0.90898633,0.079502851,-0.40917364,0
1.8905219,3.1873138,1.1217595,0.48827085,0.82319725,0.28972027,0
-3.6096704,0.6283437,-0.042992547,-0.98511744,0.17148167,-0.011733123,0
-3.3529849,1.4193485,0.62980837,-0.90741539,0.38411707,0.17044449,0
-0.20933858,3.7438786,0.54483449,-0.055247542,0.98806489,0.14378987,0
-2.8896108,2.1036274,-1.2400963,-0.76379174,0.55603796,-0.32778648,0
-1.8438994,2.1520801,-2.3952606,-0.49692515,0.57997888,-0.64551526,0
-0.61735833,-0.39071214,3.7288399,-0.16247378,-0.10282598,0.98134047,0
-2.6967263,0.67292976,-2.3953481,-0.73496759,0.18340074,-0.65282977,0
0.45798343,-1.7317705,3.139081,0.12671699,-0.47915432,0.86853552,0
-1.8767507,-0.43168795,3.1613204,-0.5069986,-0.11661921,0.85402131,0
-1.374853,1.8988687,2.887337,-0.36966112,0.51055485,0.77632749,0
-2.3697166,-2.6424603,-0.082555659,-0.66746044,-0.74428213,-0.023252837,0
3.7316973,0.47116292,0.013647133,0.99211675,0.12526435,0.0036282551,0
-1.9857802,-0.59931678,-2.905793,-0.55621397,-0.16786771,-0.8139081,0
-1.0087186,-2.6559341,2.7399747,-0.25556466,-0.67289621,0.69418836,0
0.21454942,-2.3330438,2.63921,0.060794353,-0.66108727,0.74784195,0
2.2560229,-1.1969875,-2.4997995,0.63128281,-0.33494237,-0.69949663,0
1.402137,-0.020668713,3.4062474,0.38064274,-0.0056110034,0.92470515,0
0.92430073,-2.7021117,2.1553848,0.25833556,-0.75522125,0.60241491,0
-2.9994709,-2.0602956,0.8324194,-0.80352229,-0.55192846,0.22299518,0
-3.5225768,0.42270896,-0.061952587,-0.99272555,0.11912699,-0.017459353,0
-1.2695429,2.1162453,-3.0107498,-0.32611561,0.54361343,-0.77339059,0
3.1911979,1.138474,-1.6854515,0.84328216,0.30084467,-0.44538486,0
1.0762588,1.5601556,-3.238637,0.28681183,0.41576532,-0.86306322,0
-1.0043094,-2.374876,2.6325681,-0.27254122,-0.64447433,0.7144047,0
0.44774199,-1.0698315,-3.400002,0.1246374,-0.29780769,-0.94645447,0
1.996343,3.2013769,-1.0565557,0.50953472,0.81710041,-0.269669,0
0.19043489,-3.2114253,1.9844688,0.050380953,-0.84960622,0.52500582,0
-3.7715473,-0.30507508,0.7734549,-0.97655165,-0.078991868,0.20026758,0
-0.10951113,0.73863864,3.6417387,-0.029458238,0.19869207,0.97961915,0
-3.0486214,1.9447238,0.82531971,-0.82193696,0.52431583,0.22251394,0
-0.23028556,0.74757791,-3.7333879,-0.060371764,0.19598536,-0.97874665,0
3.4170201,-1.0290678,-0.073721834,0.95731592,-0.28830472,-0.020653987,0
-3.3394902,1.4238921,0.84347701,-0.89600736,0.3820397,0.22631048,0
1.5628767,2.2399821,2.514688,0.42096004,0.60333806,0.6773299,0
-1.2946733,-0.38721731,-3.4298804,-0.35119423,-0.10503691,-0.93039232,0
1.680953,-1.4164349,2.8714564,0.46483517,-0.39168778,0.79404593,0
3.6604524,0.63652724,0.34884045,0.980901,0.17057188,0.093479685,0
0.79435688,2.8659768,2.0985103,0.21823838,0.78738683,0.57653618,0
-1.0994192,-3.6605926,-0.17989984,-0.28732777,-0.95667768,-0.047015931,0
-2.3282981,-2.6087186,0.32318926,-0.66304398,-0.74290109,0.09203662,0
-3.5427167,1.232816,0.80478799,-0.92343581,0.32134277,0.20977406,0
-1.9859558,-2.304601,-2.0690422,-0.53978664,-0.62639499,-0.5623697,0
1.4666866,-2.9385092,1.7508448,0.39408463,-0.78954923,0.4704352,0
-2.7364233,2.3244653,0.64703453,-0.75006247,0.63714343,0.17735425,0
-2.9723673,-2.4098349,-0.46786654,-0.77103835,-0.62511623,-0.12136556,0
-3.6850016,1.0535811,0.32988867,-0.95793217,0.27388299,0.085755989,0
0.15067658,-3.1675966,-1.6864375,0.041951109,-0.88191664,-0.46953496,0
-0.53280133,-2.8817153,-2.6248415,-0.13542803,-0.73247755,-0.66718507,0
2.2331302,2.7959476,0.74262869,0.61105579,0.7650606,0.20320694,0
-1.3966558,-3.391398,-0.81300592,-0.3717719,-0.90274674,-0.21641177,0
3.4381261,1.4735156,-0.93457007,0.89173084,0.38217893,-0.24239512,0
2.1011567,-2.5211098,-1.6535487,0.57175493,-0.68603015,-0.44995433,0
2.8149929,-2.2332923,0.7201876,0.76812524,-0.60939699,0.19651711,0
0.38705838,-3.5715699,1.2765652,0.10152215,-0.93679267,0.33483228,0
2.2943139,1.8616475,-2.1051903,0.63241363,0.51315176,-0.58028287,0
3.4898384,-0.32520327,-0.64838284,0.9790746,-0.091235816,-0.18190388,0
1.5043324,-0.017732317,3.2272651,0.42248246,-0.0049800114,0.90635741,0
-1.2698029,-0.47985348,3.4581702,-0.34179965,-0.12916473,0.93085414,0
3.1505373,1.1796937,1.7624675,0.82955265,0.31061941,0.46406674,0
-1.6400249,-0.087038241,3.412998,-0.43299997,-0.022979869,0.90110093,0
-1.9175769,-0.1862085,3.282707,-0.50378996,-0.048921097,0.86243987,0
-2.76086,-1.8806225,1.7608937,-0.73111743,-0.49801725,0.46631125,0
2.6515441,1.2025297,-2.2242103,0.72370225,0.32821381,-0.60706741,0
-2.8678498,2.2499065,-1.0550337,-0.75575167,0.59290785,-0.27802831,0
-1.2088599,-0.95635086,3.4526219,-0.31971306,-0.25293076,0.91313171,0
2.473253,0.056094807,-3.0274394,0.632599,0.01434771,-0.77434659,0
3.3612785,0.48069346,1.4959066,0.90590966,0.12955333,0.40316692,0
2.2284343,-0.562998,-2.9993048,0.58973277,-0.14899178,-0.79373592,0
0.33926889,1.4072052,3.6450574,0.086504929,0.35880148,0.92939681,0
1.7370596,-0.52446443,-3.1775687,0.47471663,-0.14332956,-0.86838973,0
-1.8149041,1.5493453,3.1729002,-0.4571439,0.39025408,0.7992003,0
-1.8231347,-2.966608,-1.0526067,-0.50118351,-0.81552666,-0.28936377,0
0.13996983,3.5491014,-0.26683509,0.039296731,0.99641538,-0.074914336,0
2.3830657,1.0917765,-2.7179852,0.6311031,0.28913325,-0.71979922,0
0.42027754,-3.5969419,1.2690102,0.10952377,-0.93735826,0.33070236,0
-0.41238302,-3.4174433,-0.5758909,-0.11815876,-0.97918886,-0.16500813,0
-2.9538732,2.4212687,-0.55445802,-0.76536173,0.62736154,-0.14366254,0
-0.060775567,2.8580589,2.0695157,-0.01722089,0.80983722,0.58640182,0
3.4193709,-1.2596598,0.062082008,0.93821657,-0.34562898,0.017034236,0
-2.190094,-0.12116046,2.9246666,-0.59907401,-0.033141989,0.80000752,0
-0.60748649,-3.4090738,0.43073195,-0.17409167,-0.97696221,0.12343788,0
-3.5311491,1.0165139,0.74848056,-0.94163853,0.27107003,0.19959454,0
-1.4873726,-3.3467884,0.46116504,-0.4029364,-0.90666109,0.12493183,0
-0.15575935,1.1455954,-3.6045194,-0.041147459,0.3026357,-0.9522177,0
1.2340776,0.84151506,-3.2783124,0.34255588,0.23358819,-0.90999568,0
1.2727718,2.7438352,-2.3179691,0.33399802,0.72003126,-0.60827643,0
-3.6082788,0.85010844,0.72888774,-0.95506459,0.22501267,0.19292714,0
-2.7473438,-0.79279453,-2.6414506,-0.70575494,-0.20365803,-0.67855245,0
0.38247249,-0.34749666,-3.7919014,0.099941827,-0.090802483,-0.99084133,0
2.0204475,2.4053154,1.630999,0.57083195,0.67956775,0.46080205,0
3.2668967,-0.49251044,-1.5998137,0.88997477,-0.13417071,-0.43582457,0
1.0400231,2.7405043,2.6569986,0.26288322,0.69270825,0.67160082,0
0.97082132,-2.7457867,2.3415177,0.25979209,-0.7347734,0.62659091,0
-0.72996026,-0.08063212,-3.5295613,-0.20247678,-0.022365782,-0.97903162,0
1.3802913,-1.7491738,2.7818761,0.38726351,-0.49075952,0.78050119,0
-3.4785156,-1.123278,1.0870764,-0.91213387,-0.29454517,0.28505242,0
-2.1382067,-2.5900044,1.7542334,-0.56430256,-0.68353826,0.46296662,0
1.8881065,-3.1362,-0.40518126,0.51264733,-0.85152221,-0.11001238,0
0.80164403,-3.2611797,-1.3884844,0.22059667,-0.89741254,-0.38208359,0
2.8847082,1.9500068,-0.75595111,0.80961114,0.54728144,-0.21216235,0
-2.6046753,-0.73115855,2.2817519,-0.73596847,-0.20659375,0.64472431,0
-1.3214861,3.3397553,1.181067,-0.34951621,0.88332266,0.31237715,0
2.6127484,2.6998277,0.59609491,0.68683201,0.70972317,0.15669976,0
1.2333101,-2.2824087,2.8543718,0.31974351,-0.59172904,0.74001414,0
-2.3225417,2.828856,-0.27783778,-0.63272959,0.77066469,-0.075691298,0
3.5205693,0.55372053,-0.22561105,0.98588258,0.15506113,-0.063178986,0
-1.5904793,0.40025914,3.5029638,-0.41120055,0.10348251,0.90565199,0
-0.62605697,-1.3726255,3.4223237,-0.16739044,-0.36700237,0.91503537,0
-0.12780818,2.8704941,-2.015976,-0.036412396,0.81780028,-0.57434911,0
3.265193,-0.84291685,-1.7084967,0.86373043,-0.22297393,-0.45194283,0
-2.1670241,0.68108177,-3.0665128,-0.56784898,0.1784713,-0.80355185,0
-3.3591628,0.30838478,-1.520822,-0.90781629,0.083341219,-0.41100332,0
-3.3654296,-0.47114873,-1.0246484,-0.94817758,-0.13274164,-0.28868487,0
-2.5666928,2.4355054,-0.4861033,-0.71865165,0.68192029,-0.13610469,0
2.8065987,-0.98622143,1.8146578,0.80542344,-0.28302082,0.52076125,0
-1.8977447,-1.3542237,-2.582952,-0.54540551,-0.38919941,-0.74233186,0
-0.74152011,2.2175846,-2.9254661,-0.19799663,0.59212726,-0.78114188,0
-1.9443692,-3.1194367,-0.23144211,-0.52792042,-0.84696591,-0.062839411,0
-2.4466016,-2.2206619,-1.8880169,-0.64291251,-0.58354056,-0.49612889,0
-3.0339539,-0.52468717,1.9465617,-0.83288562,-0.14403792,0.5343731,0
-2.769371,0.19509163,2.5859661,-0.72992772,0.051420629,0.6815874,0
2.4059055,2.6324825,0.18373029,0.67373276,0.73718178,0.051450528,0
1.8404297,-2.9085441,-1.732397,0.47762287,-0.75481677,-0.44958654,0
-2.3857677,-2.9692533,0.036596663,-0.626324,-0.77950364,0.0096075442,0
-0.65010101,0.98875427,-3.513437,-0.17535424,0.26670048,-0.94769287,0
2.4159122,-0.56866467,2.4993844,0.6858812,-0.16144478,0.70957911,0
1.7670492,2.1812673,-2.448612,0.47436768,0.58556533,-0.65733451,0
-0.53664142,2.3031254,2.8542354,-0.14477919,0.62135464,0.77003729,0
-3.0064125,0.84091759,-1.4614428,-0.87219465,0.2439598,-0.42398128,0
1.3953699,-3.2000985,0.98339128,0.38472298,-0.88231188,0.2711347,0
-1.2307441,3.4948568,0.21463519,-0.33160782,0.94164318,0.057830628,0
1.1178442,-1.5563097,3.2629337,0.29541591,-0.41129044,0.86230487,0
-2.9951522,0.5726645,-2.1510406,-0.80261624,0.15345792,-0.57641816,0
-2.6987479,-1.6925155,1.9981048,-0.71768427,-0.45009458,0.53136063,0
2.9481761,1.8234984,1.2954388,0.79665744,0.49274653,0.35005403,0
2.0607774,1.6360575,2.6156647,0.55544364,0.44096839,0.70500302,0
-3.4388614,1.1161668,0.13724108,-0.95046842,0.30849785,0.037932124,0
1.4280862,-1.9005401,2.8751793,0.38279286,-0.50943226,0.77068049,0
0.58740622,-3.0710523,1.6503211,0.16614377,-0.86862588,0.46678191,0
-0.18124425,1.5193288,-3.3341141,-0.049406219,0.41416097,-0.90886176,0
0.00027980804,3.6547799,-1.2396686,7.2502284e-05,0.94700599,-0.32121596,0
1.3587099,-2.1825502,-2.6170955,0.37035948,-0.59492326,-0.71337235,0
2.834094,2.4218826,0.54675907,0.75218189,0.64277899,0.14511243,0
1.4580383,1.2597257,-3.3014398,0.38142556,0.3295466,-0.86366284,0
-3.0410323,-0.03105209,-2.327147,-0.79412353,-0.0081088245,-0.60770226,0
1.4314978,3.4671981,-0.77088362,0.37381005,0.90539676,-0.20130247,0
-2.5732484,2.5718777,0.77517557,-0.69176698,0.6913985,0.20839062,0
-2.9080095,-2.2079041,-0.33630666,-0.79309297,-0.60215527,-0.09171994,0
-1.8663796,-2.6885424,1.3817674,-0.52535707,-0.75678319,0.38894621,0
-0.18393432,1.3261956,3.3528171,-0.050947603,0.3673403,0.9286902,0
-2.7229321,2.4301732,0.68045771,-0.7334373,0.65458101,0.18328516,0
-0.98779845,1.8742458,-3.2516022,-0.25452757,0.48293981,-0.83784539,0
2.9320352,-0.40989161,2.3841677,0.77134526,-0.10783225,0.62721503,0
-1.5752634,-3.1857853,-1.2960321,-0.41641614,-0.84215277,-0.34260219,0
2.7129931,-2.0885975,1.6623812,0.71280909,-0.548756,0.43677235,0
-2.664243,-0.33231655,2.7004173,-0.69964325,-0.087267958,0.7091428,0
-0.61172652,-0.6566726,-3.6615617,-0.16226417,-0.17418639,-0.97125149,0
3.6579032,0.78939128,-0.54863673,0.96715802,0.20871687,-0.14506081,0
-0.04314157,-1.5743926,3.4095547,-0.011486814,-0.41919556,0.90782332,0
1.2428272,2.079396,2.8641129,0.33131281,0.55432528,0.76351506,0
-3.0685353,-1.877786,0.98285198,-0.82280886,-0.50351679,0.26354572,0
2.4241369,-0.50978363,2.9377358,0.63083637,-0.13266167,0.7644909,0
-0.68153524,-3.1048644,2.0381486,-0.18048786,-0.82224703,0.53975356,0
0.46867755,-1.3480285,-3.5143199,0.12356194,-0.35539365,-0.92651373,0
0.2162879,3.5796607,-1.0688305,0.05779887,0.95659691,-0.28562483,0
1.7093192,3.2213893,0.64438933,0.46156773,0.86987221,0.17400454,0
0.86439514,2.6935132,2.374299,0.23405251,0.72932327,0.64288956,0
3.4185722,-0.024087304,0.76986921,0.97554451,-0.0068736994,0.21969455,0
0.43686709,2.6700921,-2.5302877,0.11793185,0.72078878,-0.68304873,0
1.2500355,-3.6176145,-0.6854893,0.32147849,-0.93036175,-0.17629103,0
-0.65216732,-2.8736155,-2.3988574,-0.1716378,-0.75627995,-0.63133281,0
2.7171152,0.9835555,1.9561104,0.77865922,0.28186312,0.56057376,0
-2.9386408,-1.7104881,-1.4297563,-0.79668736,-0.46372604,-0.38761756,0
-3.2913396,-1.9623802,-0.79656315,-0.84094286,-0.50139147,-0.20352323,0
-2.1327813,-1.585145,2.8236415,-0.55005151,-0.40881428,0.72822672,0
-1.0396088,-0.56378824,3.3989625,-0.28887397,-0.15665868,0.94446278,0
-0.6981318,-1.1380361,-3.3433375,-0.19392236,-0.31611603,-0.92868984,0
-1.6782099,1.3363645,3.0796649,-0.44713974,0.35605896,0.82054132,0
1.2207704,-0.47317743,-3.711349,0.31019318,-0.12023262,-0.94303989,0
-2.6650004,2.3934155,-0.11169331,-0.74363816,0.66785544,-0.031166751,0
-1.1134268,-2.4193192,2.667731,-0.29537281,-0.64180344,0.70770276,0
2.6210928,-1.6280036,2.155385,0.69639492,-0.43254226,0.57266158,0
-1.6266257,0.91532362,3.398912,-0.41948524,0.23604986,0.87653446,0
-2.6174071,-2.4768152,-0.61985946,-0.715832,-0.67738163,-0.16952473,0
2.2680976,0.65696716,2.530354,0.65532899,0.18981971,0.7311036,0
-0.48986366,-2.9266245,-1.9661227,-0.13761771,-0.82217842,-0.55234408,0
2.1888266,-1.0602883,-2.709075,0.60122025,-0.29123679,-0.74412054,0
-3.4424293,0.51582843,-0.65795755,-0.97175139,0.14561141,-0.18573254,0
-1.2983024,-1.278481,-3.3664894,-0.33916211,-0.33398408,-0.87944508,0
-0.55854434,3.4745684,-1.3199254,-0.14860579,0.9244405,-0.35117817,0
-3.0755389,1.9166151,0.19982356,-0.84740436,0.52808565,0.055057459,0
-3.1515675,-1.5282282,1.0995271,-0.8584854,-0.41628858,0.29951063,0
-3.485059,1.043981,-0.51814198,-0.9483723,0.2840935,-0.14099948,0
-0.010033307,-2.3641214,-2.6812208,-0.0028067948,-0.66135764,-0.75006545,0
-3.3624184,-1.0490324,0.38261721,-0.94903624,-0.29608741,0.10799298,0
2.8285239,-2.0637393,-1.1158878,0.76969063,-0.56157941,-0.3036525,0
-1.1277134,0.78795266,-3.2711029,-0.31778908,0.22204466,-0.92179513,0
-0.40137938,-2.8553894,2.2299097,-0.11011438,-0.78334725,0.61175317,0
-1.8492987,-1.7879999,2.7787282,-0.48838246,-0.47219402,0.73383611,0
-1.127206,-2.864995,1.8943503,-0.31182396,-0.79255617,0.52404249,0
-0.29485747,3.175211,-1.6099534,-0.082541481,0.88885862,-0.45068532,0
3.850111,0.19478555,0.30925533,0.99552447,0.050365765,0.07996425,0
-2.9762008,-2.1578608,0.98518199,-0.78200084,-0.56698084,0.25885791,0
2.580822,1.504297,2.3988013,0.67363954,0.39264774,0.62612897,0
0.20137571,1.2305498,-3.2993236,0.057094064,0.34888563,-0.93542457,0
1.0536757,-1.7446196,-3.027231,0.28872639,-0.47805768,-0.82951665,0
0.84895515,3.2611899,-1.6202101,0.2270456,0.87217659,-0.43331093,0
-0.609308,-0.43552244,3.74876,-0.15938604,-0.11392628,0.98062062,0
-1.8043495,0.67470437,3.0087266,-0.50505483,0.18885626,0.84217155,0
0.59368336,3.4270122,-1.6901274,0.15352702,0.88622832,-0.4370684,0
-0.92454594,3.7043762,0.22834542,-0.24172205,0.96850723,0.059700791,0
-1.7293813,-2.625967,1.8448,-0.47438654,-0.72032893,0.50604701,0
-1.4718068,3.1925278,1.5049063,-0.38488385,0.83485991,0.39353955,0
-1.0514469,-2.748014,-2.3780634,-0.27792814,-0.72638041,-0.62859166,0
2.7100072,0.91234148,-2.3757999,0.72895676,0.24540803,-0.63905936,0
3.1471922,-1.6675568,0.69903004,0.86708367,-0.45942897,0.19258994,0
-1.8457149,-2.0838666,2.2902632,-0.51201814,-0.57808357,0.63533986,0
1.2266257,-0.16121329,-3.3382013,0.34454978,-0.045283582,-0.93767524,0
-2.983541,2.0442555,0.07241904,-0.82476991,0.5651139,0.020019516,0
1.2306107,3.4491441,-0.86233884,0.32709318,0.91677368,-0.22920746,0
-0.81036496,0.64117837,-3.3584561,-0.23062129,0.18247259,-0.9557811,0
1.6089008,-3.1268163,-1.4820689,0.42161658,-0.81939024,-0.38837996,0
2.8244801,-2.3102376,0.26533681,0.77201307,-0.63145554,0.072524317,0
-3.2606986,-0.83637261,-0.96461236,-0.93116647,-0.23884517,-0.27546695,0
0.82413977,-2.268553,3.05864,0.2115209,-0.58223909,0.78502011,0
-2.3261626,0.94419414,2.4984896,-0.65675741,0.26657918,0.70541137,0
0.55925435,-0.01592561,3.5790319,0.15438364,-0.0043963068,0.98800123,0
-2.5347219,1.357376,2.2828135,-0.69041336,0.36972517,0.62179798,0
-2.9669836,1.5276,1.7640465,-0.78601688,0.40469366,0.46733338,0
3.2398889,1.2478008,1.4488777,0.86119956,0.33167976,0.38512829,0
-3.3089213,0.20049471,-1.2378155,-0.93510622,0.056660108,-0.34980854,0
1.7483076,-0.65803403,-3.1549852,0.47682756,-0.17946999,-0.86048007,0
1.2757554,-0.53541899,-3.5263679,0.33678219,-0.14134337,-0.93091345,0
3.1714056,-0.91176164,-1.3758813,0.88705277,-0.25502279,-0.38483861,0
-1.362957,-1.6192849,3.0224671,-0.36937937,-0.43884763,0.81912857,0
0.69709498,-2.9289587,2.1246743,0.18917266,-0.79483992,0.57657897,0
-1.7160059,-1.2009093,3.0897746,-0.45971391,-0.32172072,0.82774329,0
-1.9132507,2.8878894,-1.1330261,-0.52493376,0.7923429,-0.31086549,0
0.00077455043,-3.1985514,-2.0479734,0.00020393553,-0.84216374,-0.53922188,0
-0.037367105,-1.3859349,-3.4642358,-0.010014306,-0.37142766,-0.92840791,0
-3.4230614,1.2928581,-0.28788173,-0.93261707,0.35224071,-0.078433715,0
-3.2808287,-1.0282857,-1.5689312,-0.86811566,-0.27208704,-0.41514322,0
2.5988362,-2.5983448,-0.49149433,0.70093268,-0.70080018,-0.13256104,0
-1.2242502,-0.77919918,-3.5477948,-0.31938761,-0.20328081,-0.92556387,0
-1.7224563,2.1329057,-2.811465,-0.438631,0.5431537,-0.7159518,0
-1.855036,-3.075907,-1.1425172,-0.49214187,-0.8160395,-0.30311033,0
1.8201176,2.8199739,1.5285515,0.49352053,0.76462919,0.41446307,0
2.2982132,-1.1645334,-2.3431292,0.65992194,-0.3343907,-0.67281932,0
2.8092122,-1.7105855,-1.0725372,0.8120293,-0.49446088,-0.310027,0
0.73300457,-2.4242139,2.8221927,0.19330548,-0.63930547,0.74425906,0
1.3380765,1.1761343,-3.1983325,0.36549276,0.3212586,-0.87361777,0
-2.7918947,0.87427264,-2.274164,-0.75344288,0.23593816,-0.61372393,0
3.2792344,-1.3176436,-0.045981318,0.92781651,-0.37281004,-0.013009813,0
1.6437315,-2.377667,2.423003,0.43580079,-0.63038832,0.64240819,0
-0.78093827,-3.0710156,2.0348573,-0.20737357,-0.81549013,0.54034442,0
3.1138294,-0.25044614,1.8497349,0.85769761,-0.068984851,0.50950551,0
-0.63635594,2.6012077,2.4503834,-0.17531325,0.71662122,0.67506981,0
2.6884217,2.323705,-1.4928797,0.69750577,0.60288072,-0.38732475,0
0.69820452,1.3609607,3.4101315,0.18681194,0.36413932,0.91241646,0
3.0650108,1.8942947,0.49192306,0.84283042,0.52090168,0.13527121,0
-3.0072403,-1.8276666,1.4698304,-0.78853744,-0.47923791,0.38540861,0
3.0681443,1.6769302,0.78326786,0.85626513,0.46800172,0.21859629,0
1.6507562,2.4562919,-2.3975458,0.43341133,0.6449073,-0.62948328,0
2.7821314,1.3927001,1.7841766,0.77571803,0.38831472,0.4974668,0
-0.65557861,-3.1794741,-1.8178978,-0.17619777,-0.85453707,-0.48859057,0
0.18305351,-1.2264727,-3.6476324,0.047513574,-0.31834465,-0.94678354,0
3.3367968,-1.3757625,-0.025699629,0.92448026,-0.38116354,-0.0071202414,0
-0.26457638,3.6840208,1.2217914,-0.06800846,0.9469651,0.31405735,0
-0.30101112,3.6492746,-0.88799399,-0.079890333,0.96854156,-0.23567946,0
3.1926296,-0.65432054,1.7558792,0.86242789,-0.17675219,0.47431719,0
3.5528915,-0.11732502,-0.42063174,0.992531,-0.03277576,-0.11750712,0
2.6712461,-2.5725796,-1.045387,0.69326782,-0.66766095,-0.27130905,0
-0.44921371,-1.9256862,-3.0473084,-0.12366004,-0.53010505,-0.83886641,0
-0.87147492,3.1683636,-2.0003891,-0.22653253,0.82358932,-0.51998425,0
-2.3715553,-2.3480325,-1.3051054,-0.66181517,-0.65525079,-0.36420763,0
-0.59850061,-0.40466887,-3.4357677,-0.170469,-0.11526053,-0.97859865,0
-0.976152,3.6814702,0.6075567,-0.25309628,0.95453,0.15752704,0
0.82930517,-3.1773164,1.9108261,0.21828096,-0.83629972,0.50294751,0
2.1942387,2.1778812,1.9152746,0.60334748,0.59884971,0.52664107,0
-3.5842171,1.3997934,0.20074692,-0.93021792,0.36329076,0.052100189,0
-2.8973179,-1.8786402,0.59167945,-0.82700133,-0.53623313,0.16888712,0
-0.78588533,2.6373441,-2.4142475,-0.21467316,0.72041935,-0.65947807,0
1.206057,3.5705431,0.048040874,0.31999052,0.94733495,0.012746184,0
-1.9434609,-2.0938344,2.3002315,-0.52988106,-0.57088012,0.62715387,0
-2.0091817,1.7409308,2.6974769,-0.53049779,0.45966971,0.71223301,0
-2.1589851,2.8037922,-0.52682608,-0.60345435,0.78368336,-0.14725229,0
2.1933756,0.74508083,-2.9097078,0.58974409,0.20033368,-0.78234798,0
-0.9172017,-3.5150297,1.2568814,-0.2386052,-0.91441649,0.32697108,0
-2.0808997,0.75150448,3.0389903,-0.55357248,0.19991937,0.80844897,0
3.5680828,0.091394901,1.2554283,0.94303787,0.024155507,0.33180743,0
1.9744904,2.7577965,1.4632035,0.53452492,0.74657798,0.39611173,0
-1.9586591,-3.0323546,-0.075030372,-0.54245979,-0.8398248,-0.020780012,0
3.6604226,-0.67139864,-0.56965232,0.97226673,-0.17833421,-0.15130876,0
3.6994505,-1.1776893,0.53162128,0.94407207,-0.3005375,0.13566577,0
0.077188976,3.2641191,-2.0894752,0.019912634,0.842053,-0.53902715,0
1.8514789,-0.56924593,-3.1010196,0.50638407,-0.15569018,-0.8481366,0
2.8341444,1.9608206,1.5520761,0.74983317,0.51877677,0.41063473,0
-2.527705,2.365432,1.161482,-0.69223356,0.64779371,0.31808174,0
-3.4095745,-0.99156421,-1.0857923,-0.91824782,-0.26704261,-0.29241958,0
0.31398931,3.6502962,0.98911172,0.082738869,0.96188432,0.2606394,0
-3.2150664,1.3081894,-1.2510561,-0.87138599,0.35456124,-0.33907628,0
1.3794208,-2.8857193,2.2180681,0.3543973,-0.74139166,0.56986046,0
1.7292881,0.17280582,3.2858365,0.46522191,0.046489105,0.88397253,0
-2.3529184,2.0181603,1.9804546,-0.63963991,0.54863608,0.53838575,0
-2.0755994,-1.3490453,-2.6497438,-0.57239288,-0.37202936,-0.730726,0
3.0310802,2.2617245,0.68748152,0.78854543,0.588395,0.17885056,0
1.8692375,0.24329896,-3.2383075,0.49886474,0.064931974,-0.86424404,0
0.1997667,1.5272653,-3.3357887,0.054369744,0.41567001,-0.90788901,0
0.99223429,-2.5886626,2.3730154,0.27190211,-0.70937157,0.65027773,0
-0.81421107,-3.5845513,1.0693126,-0.21268581,-0.93634588,0.27932265,0
-0.11094794,0.93322414,3.6546764,-0.029401273,0.24730498,0.96849155,0
-1.1892409,-3.1258821,-1.1219469,-0.33712146,-0.88611311,-0.31804523,0
3.5482516,0.51608187,0.55530959,0.97792894,0.14223664,0.15304814,0
0.85112643,3.5314345,0.82225311,0.22852391,0.94817549,0.22077154,0
3.3325751,-1.7421479,-0.21529359,0.88476354,-0.46252188,-0.057158176,0
1.4772562,-1.5257273,2.7204168,0.42804104,-0.44208574,0.78825194,0
-0.25595656,-3.3251383,1.6353449,-0.068910152,-0.89521354,0.44027728,0
3.0927768,-0.69988406,1.9530427,0.83045954,-0.18792994,0.52442288,0
-1.6313939,3.4105384,-0.74434698,-0.42338505,0.88511485,-0.19317552,0
-0.27732959,3.0462232,2.2002487,-0.073602162,0.80845541,0.58393717,0
2.4030352,1.8970317,-2.2288356,0.63455635,0.50093877,-0.58855641,0
2.5395145,1.671367,1.819616,0.716748,0.47172362,0.51356512,0
-3.4577124,0.78521615,1.1823362,-0.92509568,0.21008112,0.31632882,0
1.9870743,-0.21052243,-3.3286011,0.51182717,-0.054226004,-0.85737532,0
-2.4949746,1.6784685,2.0517793,-0.68537176,0.46107677,0.56362557,0
2.3809881,-0.090402447,-2.6937411,0.66206235,-0.025137486,-0.74902707,0
1.0127108,3.249459,1.8673464,0.2608594,0.83701283,0.48100096,0
-2.3220181,0.25106052,-3.161061,-0.59080213,0.063878521,-0.8042838,0
0.58412135,1.5341719,3.2569735,0.16015196,0.42063287,0.89298344,0
-3.2224998,1.466813,-1.5529364,-0.8335014,0.379392,-0.40166789,0
2.3405855,1.1156558,2.6379001,0.6327861,0.30162174,0.71316624,0
-0.65042746,2.6755817,-2.1919334,-0.18481062,0.76023221,-0.62280977,0
-1.4948978,-3.4065671,0.44523135,-0.39899209,-0.90922159,0.1188334,0
2.4422922,2.6679864,-0.71954614,0.66224265,0.72344106,-0.1951094,0
-1.7907633,3.1959026,-0.92704099,-0.47388569,0.84572452,-0.24532078,0
0.012533999,3.382627,1.1897844,0.0034954611,0.94334149,0.33180511,0
-2.1273475,-2.7476163,1.3110846,-0.57278836,-0.73979574,0.35300958,0
-3.2757254,-0.010263201,-1.8335721,-0.87259746,-0.0027339419,-0.48843241,0
-0.32466644,-3.4405656,0.94185609,-0.090640895,-0.96054262,0.2629489,0
-3.1597719,-1.9228234,-0.75932819,-0.83680958,-0.50922567,-0.2010946,0
-0.83883238,3.5100977,-0.13796432,-0.23226234,0.97190279,-0.038200621,0
0.89025676,-3.6030247,-0.99770653,0.23164798,-0.93751985,-0.25960681,0
3.0807366,1.9998758,-0.70389152,0.8237763,0.53475857,-0.1882177,0
1.2274848,-0.72539306,-3.5075288,0.32419559,-0.19158627,-0.92638648,0
2.0435405,2.8065424,-1.450992,0.54310089,0.74587983,-0.38562241,0
-2.7414286,-1.6843654,-1.407722,-0.78058732,-0.47960186,-0.40083113,0
-0.34646642,-2.647296,-2.2548511,-0.099141993,-0.75752854,-0.64522976,0
2.7658627,-1.9944073,1.3183192,0.75654721,-0.5455308,0.36060023,0
-0.63168514,-3.4271979,1.2086145,-0.17125531,-0.92914301,0.32766584,0
0.65129352,-3.7184651,0.51446629,0.17094471,-0.9759838,0.13503173,0
-3.154202,-2.0727298,0.42721057,-0.83040667,-0.5456875,0.11247171,0
3.6557314,0.9570111,-0.21897005,0.96578085,0.25282574,-0.057848088,0
0.94322836,-3.5434208,0.84379882,0.25068218,-0.9417364,0.22425675,0
2.1308324,-0.096170746,2.9164553,0.58973116,-0.026616305,0.80716091,0
-1.1457484,1.1879822,3.1941621,-0.31867296,0.33041966,0.8884089,0
-1.3954229,1.4981008,3.2085178,-0.36663184,0.39360929,0.84300232,0
2.8057077,1.2444978,-2.1765234,0.74566042,0.33074462,-0.5784449,0
1.2869569,-3.3880076,1.20722,0.33690163,-0.88691807,0.31602797,0
3.5092425,-0.14297394,0.38757598,0.99314225,-0.04046271,0.10968694,0
1.3267376,-0.1706102,3.6695981,0.33968377,-0.043681219,0.93952483,0
-2.3372762,-1.5146528,-2.4621353,-0.62873769,-0.40744835,-0.66232532,0
-3.7872734,0.47622243,0.5480212,-0.9821167,0.12349412,0.14211299,0
2.6480031,-0.70683825,2.4756894,0.71697181,-0.19138312,0.67031628,0
1.5710086,1.3914528,-2.975168,0.4314943,0.38217738,-0.81716168,0
-1.7550677,2.0761421,-2.7568798,-0.45329234,0.53621823,-0.71203661,0
2.235769,-1.5150527,2.5041819,0.60704017,-0.41135639,0.67991775,0
0.97925574,3.3735971,-0.18942994,0.27835965,0.95896637,-0.053846661,0
3.363821,-0.92779803,-1.1083373,0.91877115,-0.25341243,-0.30272371,0
2.3333902,2.6644998,-1.1316123,0.62756354,0.7166152,-0.30434626,0
0.019092465,-0.585298,3.6232147,0.005201974,-0.15947154,0.98718882,0
-1.1244979,-3.0370996,-2.178813,-0.28808954,-0.77808654,-0.55819869,0
0.017136097,-2.7865884,-2.1777585,0.00484527,-0.7879141,-0.61576605,0
2.3623459,2.9768276,-0.26175243,0.62015378,0.78146505,-0.068714216,0
-1.9660447,2.5396349,-1.6432936,-0.54495806,0.70394868,-0.45549634,0
-2.4212687,-2.8202331,-0.7122578,-0.63976043,-0.74517697,-0.18819654,0
3.409972,1.4076157,0.32900342,0.92068863,0.38005468,0.08883056,0
-3.2915375,0.80874175,1.5126458,-0.88681138,0.21789251,0.40753949,0
-0.2473501,-3.155055,-1.6687776,-0.069135442,-0.88185185,-0.46643072,0
-2.3158748,1.8026603,-2.6107874,-0.58958334,0.45892742,-0.6646632,0
-2.6494911,-1.5190729,-1.9107934,-0.73544455,-0.42166358,-0.53039718,0
-1.5086607,-1.4889582,2.7112908,-0.43836877,-0.43264386,0.7878148,0
-0.71641248,2.8920281,2.4895961,-0.18451519,0.74485457,0.64120644,0
0.70254087,-3.5682042,1.1621457,0.18401322,-0.93460292,0.30439535,0
-0.70474726,-0.45713258,-3.7930079,-0.1814062,-0.11766869,-0.97634315,0
2.9829111,0.16848011,-2.3392692,0.78611183,0.04440099,-0.61648738,0
2.331274,2.6423793,-0.51106471,0.6547336,0.74210691,-0.14353149,0
-1.8078246,2.9755273,1.1142547,-0.494533,0.81395972,0.30480596,0
1.451735,-1.2072392,-3.3741667,0.37546316,-0.31222904,-0.8726629,0
-0.31470543,-1.772352,-3.4103882,-0.081608213,-0.45959955,-0.8843689,0
-3.2149541,0.6210711,-1.4951031,-0.89314646,0.17253977,-0.41535464,0
-0.51037067,-3.4671059,1.4669337,-0.13433972,-0.91261131,0.38612616,0
-0.26731956,2.2531528,2.6488149,-0.076645344,0.64601964,0.75946307,0
-1.5636226,-2.768168,1.6611035,-0.43590754,-0.77171135,0.46308333,0
2.6239419,0.25383946,2.739243,0.6902014,0.066769905,0.72053021,0
-1.6515541,2.7334962,1.1354481,-0.48725247,0.80645424,0.33498746,0
-2.0254872,-2.0265968,2.4088979,-0.54109305,-0.54138947,0.64351821,0
-1.0441434,3.2160203,-1.8384891,-0.27129245,0.83559597,-0.4776817,0
-2.8702257,0.44111931,-2.3148098,-0.77288735,0.11878353,-0.6233263,0
1.053638,3.0982571,-1.4157087,0.29549998,0.86892742,-0.3970452,0
1.3452984,3.4681919,-0.13326579,0.36141035,0.9317193,-0.035801455,0
-3.25562,1.4692521,0.91859919,-0.88275236,0.39838365,0.24907564,0
-2.5530999,-2.1773882,1.2656263,-0.71191466,-0.60714996,0.35291135,0
-1.2756234,3.3717113,1.2329237,-0.3348133,0.88497418,0.3236059,0
2.7207739,-1.7020161,1.3963445,0.77738786,-0.48630527,0.39896783,0
1.3478278,-3.4166927,0.39805067,0.36482617,-0.92482066,0.10774322,0
-1.9795212,-0.40878135,-2.83409,-0.56865722,-0.11743065,-0.81414926,0
-0.97093809,-3.237992,1.2043051,-0.27056587,-0.90231305,0.33559692,0
2.2946393,-2.5320849,-1.3643653,0.62363732,-0.68817031,-0.37080735,0
-1.0315725,-2.5605905,2.5221415,-0.27587712,-0.68478787,0.67450529,0
-2.0418246,2.3109217,1.989733,-0.55636489,0.62968957,0.54217076,0
3.0627375,1.8923756,-1.2774316,0.80173963,0.49537137,-0.33439612,0
1.3368641,-2.3796284,-2.4478872,0.36463261,-0.64904886,-0.66766655,0
-2.0439174,-2.7846336,-0.94821602,-0.57060403,-0.77739108,-0.26471514,0
-1.3773783,1.5310129,2.8849409,-0.38858706,0.43193054,0.81390178,0
0.12061232,-3.3723218,-1.6525383,0.032100022,-0.89751697,-0.43981007,0
2.7439494,2.5953307,0.5924921,0.71773005,0.67885613,0.15497713,0
-2.1149883,2.9451103,1.1191095,-0.55736274,0.77612472,0.29491886,0
2.1304235,0.95908976,-3.1482477,0.54341137,0.24463692,-0.80302978,0
-0.18442625,-0.10128914,-3.8531454,-0.047792614,-0.026248286,-0.99851239,0
1.6032065,-2.9372318,1.6854976,0.42788696,-0.7839309,0.44984999,0
2.6936083,-1.162111,2.5338051,0.69488019,-0.29979411,0.65365517,0
0.78766239,-0.013205405,-3.5270324,0.21795131,-0.0036540215,-0.9759528,0
-3.5308623,0.44131279,0.61772662,-0.97765702,0.12219466,0.17104171,0
1.8031763,-0.80800295,-2.9793108,0.50438535,-0.22601497,-0.83337426,0
-0.66629851,-0.14938201,3.4760087,-0.1880901,-0.042169202,0.98124611,0
0.2267458,-2.8638198,2.4963887,0.059577528,-0.75246954,0.65592688,0
-0.8081609,-3.4786315,-1.5278393,-0.20805481,-0.89554697,-0.39333048,0
-3.5333374,0.049476273,1.6059457,-0.91030383,0.012746714,0.41374439,0
1.2426902,-0.58050889,3.5026929,0.33035639,-0.1543223,0.93115479,0
2.5449281,-2.1821015,1.0089288,0.7269395,-0.62330079,0.2881929,0
1.1333859,3.2030144,-1.7287008,0.29731107,0.84021831,-0.4534747,0
2.7564862,1.8210607,-1.4588021,0.76326269,0.50424623,-0.40393791,0
1.622382,-3.3410726,0.27418518,0.43562606,-0.89711189,0.073621504,0
3.1618218,0.31747702,1.9910181,0.84316564,0.084661856,0.53094643,0
0.49408376,0.55062252,-3.4546642,0.13984868,0.15585177,-0.97783059,0
0.10718918,-3.6477616,-0.56043226,0.029031891,-0.98798609,-0.15179151,0
0.88972282,3.1701035,-1.8551117,0.23542418,0.83882195,-0.49086991,0
1.940588,2.8488615,1.1928769,0.53202051,0.78102756,0.32703233,0
-3.1853318,1.8309175,-1.028579,-0.83488202,0.47988725,-0.26959267,0
-2.687587,0.67287785,-2.2706118,-0.75027883,0.18784359,-0.63387418,0
-0.12478402,1.8261521,3.150641,-0.034246009,0.50117332,0.86466902,0
0.13209081,1.4795227,3.6435716,0.033570543,0.37601694,0.92600447,0
-2.8429582,-0.61017531,-2.0738595,-0.79601222,-0.17084563,-0.58066893,0
0.89375627,-0.95679229,-3.5571446,0.23579144,-0.25242165,-0.93844855,0
-1.0763527,-1.1054784,3.4460928,-0.28507105,-0.29278496,0.91269457,0
-3.4840786,0.65573025,1.210367,-0.93003803,0.17504027,0.3230947,0
-3.4042645,-0.83990735,-1.2019998,-0.91842043,-0.22659464,-0.32428184,0
-1.4150747,1.7490609,2.9110858,-0.38462105,0.47539937,0.79124081,0
2.671499,-0.35995036,2.5366127,0.72174013,-0.097245261,0.68529886,0
1.0142797,2.7586894,-2.2686763,0.2731733,0.74299061,-0.61101663,0
3.5626371,0.8506183,-0.44889906,0.96543664,0.23050848,-0.12164686,0
-0.44505399,2.0203805,-3.306535,-0.11410446,0.51799208,-0.84774077,0
3.4619994,0.49945411,-0.074459076,0.98952895,0.14275689,-0.021282328,0
0.041924264,3.4757593,1.4898283,0.011085704,0.91906774,0.39394361,0
3.5753038,-1.3164972,0.51855898,0.9298315,-0.34238225,0.13486196,0
2.3164825,-0.7172026,2.7009697,0.63817835,-0.1975854,0.74410242,0
0.12313908,1.1853365,-3.4381714,0.033840135,0.32574505,-0.94485182,0
0.48874459,3.0095921,2.0064671,0.133903,0.82454807,0.54971856,0
2.1346507,2.3978617,-1.6654273,0.59022951,0.66300714,-0.46048954,0
-3.598017,0.60071176,0.018036664,-0.98633552,0.16467497,0.0049444465,0
1.9581217,-2.6770904,1.6296586,0.52986413,-0.72441578,0.44098264,0
-3.6876373,0.47847047,-0.34158337,-0.98752964,0.12813184,-0.091474205,0
2.5615652,-0.34793374,2.748502,0.67888641,-0.09221217,0.72842991,0
-1.6437695,-3.0535929,-1.5233153,-0.43397224,-0.80618024,-0.40217108,0
0.37366575,3.739779,-0.17278016,0.099316597,0.99399561,-0.045923226,0
0.78646654,3.0699246,2.0726404,0.20769392,0.81072068,0.54735297,0
-1.8682526,3.353734,-0.06289091,-0.48658592,0.87347919,-0.016379921,0
0.97675443,-0.67438579,-3.6793494,0.25264823,-0.17443727,-0.95170403,0
0.31547725,1.658975,3.3883197,0.083331279,0.43820754,0.89500278,0
1.3070188,-1.8050147,-2.9300611,0.35504711,-0.49032599,-0.79594094,0
3.2938848,-0.1693884,-1.7805116,0.87880397,-0.045192592,-0.47503808,0
-2.89346,0.16376796,2.5579355,-0.7485376,0.042366743,0.6617375,0
-3.0716519,2.0404108,-0.40082261,-0.82809252,0.55007821,-0.10805853,0
-0.69747561,-3.0892155,1.7792894,-0.19200587,-0.85042048,0.489815,0
1.6594021,-3.2712145,0.34436443,0.45041513,-0.88791287,0.093471587,0
0.61818343,-2.2521007,-2.779175,0.17029186,-0.62038934,-0.76558328,0
3.2112498,-0.95006126,-2.0342572,0.81955528,-0.24246876,-0.51917052,0
1.3926265,-0.37420422,-3.584738,0.36041918,-0.096846052,-0.92774934,0
2.5663633,-0.43817103,-2.812269,0.66965413,-0.11433417,-0.73381948,0
2.9181688,0.73244351,2.1532094,0.78873765,0.1979686,0.58198053,0
3.1415174,-1.9205762,-0.57978439,0.84280568,-0.51525182,-0.15554444,0
3.6183991,0.46299034,0.44305304,0.98467708,0.12599383,0.12056828,0
-3.5079458,0.18572481,1.2572216,-0.9402017,0.049778074,0.33696127,0
-0.57356197,3.0659735,-1.6339121,-0.1628883,0.87071884,-0.46402165,0
1.9130865,-2.8665459,-1.0390732,0.53148144,-0.79636538,-0.28866866,0
-1.2952852,0.2760042,3.6422725,-0.33421746,0.0712163,0.93980151,0
0.64696938,3.6569705,-0.97930747,0.1684505,0.9521603,-0.25498092,0
0.36342341,-1.9401578,3.0480266,0.10007922,-0.53427899,0.83936292,0
1.3037056,3.1301606,-1.0435601,0.36747333,0.88229316,-0.29414657,0
3.6023779,-0.21987091,-1.3074826,0.93845719,-0.057278678,-0.34061292,0
2.8511291,2.4731174,-0.6367768,0.74488157,0.64612281,-0.16636331,0
-3.2040973,-1.442223,-1.5085523,-0.83792019,-0.37716326,-0.39450938,0
-2.7565868,-1.1812319,2.0791156,-0.75539082,-0.32369441,0.56974256,0
-0.57928294,2.9123695,2.225364,-0.15610915,0.78484535,0.59970641,0
