0.24212149,-2.5966554,2.6266515,0.065413065,-0.70152873,0.70963269,0
3.0484114,1.0129633,-1.7303982,0.83547336,0.27762127,-0.47424755,0
0.5127753,-3.5349538,0.334869,0.14292933,-0.98532164,0.093340307,0
3.2165973,-0.053140312,-1.6898043,0.88517964,-0.014623753,-0.46501946,0
2.2475946,2.6814809,0.7124911,0.62946069,0.75097471,0.19954005,0
-2.7026286,1.0193026,-2.3912067,-0.72073817,0.27182806,-0.63768804,0
1.3281115,1.8216686,2.7317178,0.37497771,0.51432812,0.77127051,0
-2.2215381,-2.5775692,1.547071,-0.59431452,-0.68956137,0.41387844,0
0.39961889,-1.9173501,-3.0225365,0.11095537,-0.53235793,-0.83921623,0
-2.9268115,1.4758581,-1.2260038,-0.83631825,0.42171732,-0.35032299,0
-2.7359865,0.62704951,2.5614855,-0.71999592,0.16501291,0.67407465,0
-3.2562797,-1.028998,1.3089174,-0.89036351,-0.2813586,0.35789686,0
2.7908657,1.9505485,1.2578896,0.76886392,0.53736246,0.3465398,0
-3.1779191,-1.2339132,-0.9153707,-0.90030676,-0.34956849,-0.25932518,0
2.298389,-2.4534647,1.0968561,0.64994806,-0.69380105,0.31017357,0
-0.92491704,-0.032037441,3.4120505,-0.26162082,-0.0090620685,0.96512818,0
-0.19916134,3.5888581,-1.1226302,-0.052889436,0.95305991,-0.29812655,0
-1.9464444,2.3260353,1.8377882,-0.54885954,0.65589678,0.5182206,0
2.8966334,2.0608604,-0.3758716,0.81030148,0.5765031,-0.10514596,0
1.5743594,-3.3523107,-0.35270694,0.42317519,-0.90107423,-0.094804794,0
3.295543,0.55392432,1.1523104,0.93229729,0.1567032,0.32598448,0
0.44298247,1.5869122,3.4367285,0.11623023,0.41637579,0.90173262,0
-2.1412294,2.9531949,-0.65307146,-0.57780969,0.79691815,-0.17623101,0
-1.6236787,1.446797,3.0858498,-0.43009248,0.3832387,0.81740355,0
-1.9682145,-2.7766571,-1.5671521,-0.52528399,-0.74104398,-0.41824704,0
2.7992675,0.92291266,-1.9785908,0.78852648,0.25997552,-0.5573498,0
0.045549791,0.56187224,3.7877219,0.011894635,0.14672439,0.98910594,0
3.5978091,-1.0513922,-0.37354884,0.95512283,-0.27911672,-0.099167302,0
3.012337,1.3431259,0.96256703,0.87675077,0.39092129,0.28015834,0
-1.2721312,2.3051083,2.5845654,-0.34480521,0.62478882,0.70053434,0
-0.76238352,3.5038071,-1.0109795,-0.20463467,0.94047201,-0.27136138,0
-1.678838,3.0005043,0.97166282,-0.46988034,0.83979392,0.27195314,0
0.98646319,-0.74104148,3.3473637,0.27651343,-0.20771979,0.9382925,0
-1.8639861,2.0579362,2.2443345,-0.52209049,0.57641464,0.6286236,0
-3.6698196,0.20157239,-0.32457295,-0.99462402,0.05463177,-0.087968372,0
-3.0733328,-0.58227152,1.526448,-0.8829937,-0.16729137,0.43856102,0
-0.78297812,-2.9983099,-1.4215261,-0.22965626,-0.87943792,-0.41694954,0
0.62965453,-2.6962233,-2.0189245,0.18375057,-0.78683233,-0.58917785,0
2.6671727,0.019192839,-2.2938266,0.75816578,0.0054557226,-0.65203905,0
-1.1751176,-2.4643929,-2.0024192,-0.34706971,-0.72785574,-0.59141237,0
-1.1172825,-2.2330713,2.4197602,-0.32132673,-0.64222389,0.69591498,0
1.6680461,-2.9765828,1.3861129,0.45291683,-0.80821776,0.37636483,0
2.3968749,0.41601345,-2.7108014,0.65806204,0.1142165,-0.7442506,0
3.6332755,0.59377527,0.85446036,0.96135348,0.15711111,0.22608757,0
-2.8871896,1.4639986,1.8430524,-0.77507406,0.39301446,0.49477252,0
0.34410974,0.10228042,3.4414351,0.099450581,0.029559894,0.99460334,0
-2.800622,2.3801148,-0.39685538,-0.75759131,0.64384067,-0.10735265,0
1.5320184,1.063512,-3.2606053,0.40785456,0.28312859,-0.86803967,0
1.0357229,-1.607923,3.0714533,0.28624713,-0.44438854,0.84887069,0
-0.13997585,-1.1528865,-3.4373004,-0.038580056,-0.31775787,-0.94738668,0
3.1982191,-0.46311921,1.3166265,0.91652721,-0.13271804,0.37731126,0
-0.18772173,-3.1811583,1.7200117,-0.051838938,-0.87846982,0.47497743,0
0.45501804,-3.5684838,-0.29269713,0.12606947,-0.98870116,-0.081096061,0
-1.5201275,1.224461,3.1815507,-0.40725622,0.32804441,0.85236686,0
-2.3443356,0.27945027,2.909452,-0.6256811,0.074582651,0.77650535,0
-1.742029,-2.9393587,0.30105817,-0.50787514,-0.85694748,0.0877712,0
1.11825,3.3355644,0.46169063,0.31516096,0.9400757,0.13012016,0
0.5669542,-3.3414357,-1.1682363,0.15815127,-0.93208992,-0.32587826,0
2.1102457,2.6048999,-1.4335006,0.57877839,0.7144475,-0.39316711,0
2.3859136,-2.8555405,-0.37642178,0.63792682,-0.76349199,-0.1006447,0
1.0805812,2.4313707,2.5586667,0.29273409,0.65866882,0.6931538,0
-1.597756,-1.3602128,3.0111773,-0.43533498,-0.37061241,0.82044494,0
-2.2882695,0.14719054,2.82177,-0.62934345,0.040481858,0.7760722,0
-0.35361132,-1.2072766,3.4867201,-0.095397361,-0.32569942,0.94064832,0
-0.97768825,1.2984285,3.1391211,-0.27657768,0.36731172,0.88802415,0
-3.4781721,0.32871893,0.20012051,-0.99393445,0.093935855,0.057187129,0
-0.065148868,2.7469871,-2.6063917,-0.017202038,0.72532004,-0.6881969,0
1.4299564,2.8066821,1.6537364,0.40193513,0.78890806,0.46483564,0
2.656353,2.721998,0.53876728,0.69152051,0.7086097,0.14025569,0
1.4792492,1.490289,-2.9483652,0.40866986,0.4117198,-0.81454021,0
2.7347267,1.4990864,1.8955169,0.74933934,0.41076294,0.51938844,0
0.75342411,-2.7954614,-2.1365342,0.20938927,-0.77690589,-0.59377891,0
1.7678051,-2.1928999,2.0386212,0.50841999,-0.6306771,0.58630663,0
1.9213355,-3.0003798,1.0681676,0.51655537,-0.80665892,0.28717926,0
1.6975318,-1.7689943,-2.5485673,0.48001641,-0.50022411,-0.72066641,0
1.3652312,-2.4782732,-2.2846034,0.37541068,-0.68147445,-0.62821925,0
-2.5705249,0.41136992,2.4991655,-0.71231502,0.11399421,0.69254071,0
-1.9557157,1.8586937,-2.3164618,-0.54996705,0.5226835,-0.65141249,0
-2.0115654,-1.4877257,-2.6020987,-0.55725151,-0.41213545,-0.72084332,0
2.7252784,1.9826351,-1.1630832,0.76440817,0.55610561,-0.326231,0
2.6896374,0.18188766,-2.6977205,0.70524162,0.047692206,-0.70736104,0
0.97944802,1.3272747,3.3173933,0.26436761,0.35825118,0.89541382,0
-2.0508928,-0.56011474,-3.0279405,-0.55432951,-0.15139169,-0.81841272,0
1.9323301,3.2839134,0.46881846,0.50334448,0.85541266,0.12212054,0
-2.9556308,-0.19714913,2.3154011,-0.78612477,-0.052436795,0.61583948,0
-1.4615813,-0.61818665,-3.2456825,-0.40454856,-0.17110682,-0.89836681,0
1.3317962,-3.3779404,-1.4232497,0.34148842,-0.86614424,-0.3649382,0
1.3461702,1.6693778,-3.1662052,0.3520214,0.43653971,-0.82795769,0
1.5373615,-2.0666962,2.5105734,0.42741287,-0.57457697,0.69798243,0
0.67805934,-2.4305203,-2.823668,0.17905591,-0.64183033,-0.74564928,0
-1.8120694,1.5179604,2.9716671,-0.47721404,0.39975953,0.78259766,0
2.3106372,1.5969715,-2.5004973,0.61443883,0.42466265,-0.66492599,0
3.5127141,1.4298447,0.26537976,0.9239493,0.37609211,0.069802843,0
-1.9918183,3.0118749,-0.4587065,-0.5472123,0.82745242,-0.12602045,0
-0.45325932,0.54789948,-3.4007919,-0.13045919,0.15769897,-0.97883165,0
-2.0856354,-2.1209531,2.0404093,-0.5781936,-0.58798456,0.56565571,0
-1.7872539,-2.5924592,-1.2801813,-0.52579969,-0.76268643,-0.3766219,0
-2.9305284,-2.3058329,-0.1594184,-0.78517431,-0.61780012,-0.042712856,0
-0.47116971,1.6930401,3.0776782,-0.13294563,0.47770959,0.86840022,0
-1.7644565,-3.0664775,0.59661746,-0.49178895,-0.85468799,0.16628909,0
-0.64577591,-1.1991284,3.57918,-0.16862965,-0.31312501,0.93462121,0
2.2731087,-3.0130305,-0.32284883,0.60006762,-0.79539621,-0.085227393,0
-1.437032,-0.69476575,3.0393898,-0.41859075,-0.2023772,0.88533902,0
-2.8127084,0.92777002,-2.3003416,-0.75002474,0.24739516,-0.61339921,0
-1.2301198,3.1356304,0.93326545,-0.35194641,0.89712715,0.26701418,0
1.8588341,-3.1966355,-0.50865626,0.49799678,-0.8564046,-0.13627315,0
-0.60179913,-3.6081266,-1.065866,-0.15794867,-0.94699168,-0.27974802,0
-0.1626094,-3.5114014,-1.4551249,-0.042741999,-0.92297441,-0.38248062,0
-3.4139509,-0.73856807,0.65284646,-0.96075237,-0.20784745,0.18372372,0
-2.3836303,-0.580024,-2.9064865,-0.62671185,-0.15250181,-0.76418287,0
0.47070155,0.73460418,3.5367072,0.12921661,0.20166294,0.97089398,0
1.4821544,2.5886919,2.2808824,0.39470777,0.68938625,0.60741448,0
1.2594861,2.6655653,-1.9221852,0.35786718,0.75738698,-0.54616481,0
-0.024652056,-0.15553458,-3.479485,-0.0070777275,-0.044654749,-0.99897742,0
-1.3546563,-3.1744363,1.32164,-0.36654028,-0.85893279,0.35760677,0
3.1490855,1.3078283,-0.70299459,0.9045006,0.37564284,-0.20191862,0
3.3740437,0.28339699,-1.163571,0.94239748,0.07915505,-0.32499471,0
-0.089768589,-1.2829076,3.4063928,-0.024654424,-0.35234314,0.93554604,0
2.9879415,-1.052642,1.8646215,0.81283355,-0.28635859,0.50724787,0
2.8217869,-2.3799782,1.1493568,0.72985333,-0.61557978,0.2972804,0
-1.3932474,3.3012395,0.57807541,-0.38386434,0.90955001,0.15927003,0
1.8389821,2.274471,1.8480198,0.5315277,0.65739864,0.53413987,0
-2.944263,1.7439852,1.3108808,-0.80345505,0.47591323,0.3577241,0
1.1090775,3.3660765,1.0760984,0.29943901,0.90880454,0.29053503,0
0.61630708,-3.4882586,-0.17299557,0.17377864,-0.98357594,-0.048779145,0
-1.8935237,3.2243359,-0.15476523,-0.50596201,0.8615638,-0.041354291,0
-3.0257132,-1.7979244,-1.4651141,-0.79366034,-0.47160494,-0.38430709,0
-2.0916185,-2.7263939,-1.0937325,-0.58001375,-0.75603932,-0.30329615,0
-0.47796455,-0.45526177,3.4569788,-0.13580722,-0.12935653,0.98225421,0
0.90777689,3.4145176,1.0380315,0.24651384,0.9272387,0.28188547,0
-1.4569286,-3.3115075,0.60791975,-0.39713973,-0.90267378,0.165711,0
0.92444515,-3.5432706,0.060485478,0.25241655,-0.96747774,0.01651535,0
-2.0507162,2.2670426,-2.3581483,-0.53116345,0.58719492,-0.61079258,0
-1.1438684,1.9808145,-2.6362021,-0.32773551,0.56753314,-0.75531155,0
0.37578076,1.675743,3.2850769,0.10137352,0.45206133,0.88620764,0
2.542913,2.3398025,1.1060239,0.70086026,0.64488035,0.30483475,0
1.2986289,0.22706221,3.4490328,0.35170317,0.06149447,0.9340896,0
-0.83614522,2.9410918,1.6259677,-0.24144547,0.84927022,0.46951476,0
3.3082161,-0.94643223,0.92382115,0.92854643,-0.26564357,0.2592971,0
0.13694523,-3.3602912,1.3100314,0.037943132,-0.9310289,0.36296767,0
-2.2576487,0.49896002,-2.6867533,-0.63691628,0.14076404,-0.75797307,0
0.95502043,-3.2505336,-0.70294005,0.27601102,-0.9394387,-0.20315713,0
1.5228828,-3.4315243,0.82034618,0.39628991,-0.89296329,0.21347335,0
-2.1195116,-2.6112883,1.5292957,-0.57368177,-0.70678949,0.41392982,0
-1.1645634,1.9258106,-2.8726642,-0.31912249,0.52772522,-0.78718925,0
3.5048299,0.043646526,-0.83313626,0.97281897,0.012114759,-0.23124968,0
-3.6408851,0.38529319,1.0743451,-0.95421332,0.10097871,0.28156736,0
1.6673911,2.2837057,2.3433657,0.45402727,0.62184852,0.63809383,0
1.671432,0.23938891,-3.1360276,0.46928012,0.067212097,-0.88048774,0
0.67299718,1.0523552,-3.5778325,0.17758936,0.27769369,-0.94411236,0
-2.6651289,1.8963028,-1.8170953,-0.71226752,0.50679535,-0.48562679,0
-3.0214906,-1.8773175,-0.77423292,-0.82996827,-0.51567727,-0.21267276,0
3.5610137,-1.050917,-0.46121126,0.95179021,-0.28088984,-0.12327287,0
0.18449941,3.5163217,-0.039610878,0.052394044,0.99856317,-0.011248676,0
-3.1765325,-0.26904804,1.9467287,-0.85040796,-0.072028413,0.52117002,0
0.79927367,0.13661638,3.3710949,0.23052129,0.039402004,0.97226918,0
0.80344903,3.2224822,1.1375135,0.22886795,0.91794604,0.32402849,0
-1.2749975,3.1544719,1.0816348,-0.35712332,0.88355899,0.30296296,0
0.45499033,3.6702292,0.7609753,0.12050164,0.97203958,0.20154004,0
1.315627,-0.17447361,3.5048835,0.35104582,-0.046554405,0.93520027,0
-2.7296731,-1.1844876,-2.2966051,-0.72621012,-0.31512448,-0.61099541,0
3.5513272,0.99887222,0.024964219,0.96262455,0.27075481,0.0067668138,0
2.9689951,2.090899,0.33479577,0.81414539,0.57335752,0.091806293,0
1.0174439,1.3959692,3.1133933,0.28575894,0.39207143,0.8744266,0
-2.6296914,-1.7808616,-1.948887,-0.70572144,-0.47792387,-0.52301627,0
-1.6502361,3.1612897,1.3100493,-0.43437403,0.83211249,0.34483027,0
-1.9848299,-1.3924044,-2.5617661,-0.56272459,-0.39476442,-0.72629339,0
2.0504105,3.0023644,0.095730253,0.56376916,0.82551295,0.026321443,0
2.0371513,2.6158273,1.6448729,0.55041772,0.70677012,0.44442806,0
-0.5275594,3.4826722,0.78916407,-0.14614953,0.96480304,0.21862175,0
-2.5485318,2.3396256,-0.79987621,-0.71772081,0.65888834,-0.22526217,0
2.8574197,-2.0092785,0.51451313,0.8092767,-0.56906664,0.14572009,0
3.0075719,1.5377682,1.5548595,0.80879664,0.41353685,0.41813302,0
2.3816018,0.95111382,2.3233726,0.68823498,0.27485275,0.67140788,0
-1.3025734,-1.9287144,2.7380731,-0.36247426,-0.53671396,0.76193863,0
0.37549114,2.4624462,-2.4860764,0.10669596,0.69970512,-0.70641965,0
-2.2833891,-1.0795925,-2.3699424,-0.65926719,-0.31170329,-0.68425715,0
-0.84425813,2.6844556,2.036732,-0.24303526,0.77277005,0.5863108,0
-2.8039687,-2.368546,0.11929415,-0.76352602,-0.64495957,0.032484025,0
1.3705519,-0.45019814,3.262228,0.38423499,-0.1262133,0.91456747,0
-3.2233939,-1.7729937,-0.28404599,-0.8736012,-0.48051509,-0.07698188,0
2.2909286,0.74681753,2.6703906,0.63693261,0.20763303,0.74243212,0
-1.120029,3.4903531,-0.28920346,-0.30460021,0.94922745,-0.078651033,0
-0.90254861,0.95238286,3.4706197,-0.24325044,0.25668153,0.93538427,0
-2.4456801,-1.7549371,1.6994945,-0.70749921,-0.50767738,0.49163869,0
2.2025118,-2.2686276,-1.9749362,0.59079999,-0.60853487,-0.52975529,0
-2.1688576,-3.0050931,-0.25154322,-0.58388335,-0.8090083,-0.067718551,0
0.37582228,3.6733134,-0.7043674,0.099977463,0.97718674,-0.18737811,0
-0.19036919,-1.8922266,-2.9619701,-0.054082967,-0.53757244,-0.84148139,0
2.1048954,-2.7802827,-0.90391546,0.58429611,-0.77177632,-0.25091714,0
-1.9727439,0.1220582,-3.2995775,-0.51289731,0.031734135,-0.85786319,0
-3.4094832,-0.45350897,1.309718,-0.92638034,-0.12322155,0.35585952,0
-0.73333502,-1.645267,3.2988534,-0.19510826,-0.43773332,0.87768006,0
-2.6514986,1.3560312,2.0479951,-0.73360252,0.3751795,0.5666284,0
-1.2173035,-0.87336844,-3.1823876,-0.34607923,-0.24829854,-0.90475243,0
-0.89568996,3.0216389,-1.4057089,-0.259554,0.87561375,-0.40734783,0
-2.2324135,1.5112292,2.6609669,-0.58935302,0.39896169,0.70249033,0
2.1577876,-2.7808475,0.18565263,0.6121875,-0.78895634,0.052671649,0
1.2972617,1.9683082,-2.6351752,0.36690235,0.55669332,-0.74530214,0
-1.9029204,0.95950526,2.9231062,-0.52603185,0.26523986,0.80804592,0
-0.12684692,-1.4444656,3.2422578,-0.035714094,-0.40669319,0.91286641,0
1.1909932,1.166785,3.4124799,0.31358358,0.30720964,0.8984918,0
-0.90442318,-3.5461655,-0.89782512,-0.24001439,-0.9410758,-0.23826341,0
2.3717206,-1.9248508,2.1114707,0.63871378,-0.51836997,0.56862748,0
1.5171677,-0.70849937,-3.2022123,0.41985214,-0.19606599,-0.88616157,0
0.9483071,-3.3296695,1.2195147,0.25835305,-0.90712208,0.33223981,0
0.56891221,-3.3102856,1.7825497,0.14961465,-0.87055117,0.46878153,0
-1.6304597,0.23283869,-3.2058914,-0.45237607,0.064601809,-0.88948447,0
-3.3298712,-0.67308336,1.2430947,-0.92048746,-0.18606269,0.34363285,0
-2.7479489,-1.6777754,-1.8888499,-0.73615998,-0.44946656,-0.5060122,0
-3.3316827,1.0854602,1.1528563,-0.90318322,0.29425654,0.31252691,0
-2.0461667,-2.9070928,0.82681161,-0.56061244,-0.79649055,0.22653134,0
3.3995891,-0.56331331,0.83766633,0.95863104,-0.15884556,0.23620883,0
-2.7128015,2.3463933,-0.64969307,-0.74422675,0.6437068,-0.17823604,0
2.0049396,0.20869339,3.105006,0.54159087,0.056373984,0.83874989,0
-3.4343643,1.6751949,-0.45243663,-0.89254457,0.43536037,-0.11758213,0
3.472451,0.61063725,-0.88878638,0.95501089,0.16794053,-0.24443848,0
1.0003951,-0.17509037,3.43591,0.27921647,-0.048868809,0.95898384,0
-1.4621789,-3.2237613,1.2808321,-0.38841698,-0.85636824,0.34024352,0
1.5302064,-0.0079435054,3.1326604,0.43890423,-0.0022784104,0.89853096,0
2.9455297,-1.6151727,-1.7679851,0.77592701,-0.42547733,-0.46573198,0
-2.0766406,-2.8652201,-1.3277007,-0.5494467,-0.75809258,-0.35128891,0
-3.6173983,0.091752104,-1.0965031,-0.95671892,0.024266329,-0.28999996,0
-2.9235415,2.0229623,0.56513453,-0.81213093,0.56195891,0.15698878,0
-0.71600324,-1.3592813,3.3461809,-0.19445963,-0.3691678,0.90879077,0
-2.7964351,-1.5730784,1.9802419,-0.74167955,-0.41721693,0.52520615,0
3.2905679,1.8284454,0.34438604,0.8704825,0.48369455,0.091103435,0
1.5395366,1.2572173,2.974869,0.43030325,0.35139447,0.83148122,0
1.9513495,-1.3719845,2.6053669,0.55241036,-0.3883971,0.73755711,0
2.3795085,0.027268052,2.775835,0.65080816,0.0074579567,0.75920558,0
-0.70348877,3.2695482,1.1377079,-0.19914225,0.92553741,0.3220602,0
2.5962605,0.32171202,-2.2443228,0.75321823,0.093333989,-0.65111524,0
2.9477077,1.8417994,0.81348145,0.82575136,0.51594949,0.22788332,0
3.0416636,0.27072048,-1.937886,0.84100872,0.074853212,-0.53581834,0
2.5378082,-1.5968522,1.9445401,0.71012598,-0.44682896,0.54411852,0
2.8117275,2.1135612,0.60687447,0.78771162,0.59211874,0.17001721,0
3.4048219,-0.41501278,-1.3981346,0.91922128,-0.11204362,-0.37746322,0
-2.0000858,-1.5400405,-3.0178857,-0.50835526,-0.39142704,-0.76704609,0
2.3500841,0.71898186,2.760397,0.63586372,0.19453537,0.74688238,0
-3.6805182,-0.87208998,0.17369874,-0.97203285,-0.23032086,0.045874212,0
-2.8687277,1.3410175,1.9523385,-0.77113128,0.36047357,0.52480036,0
-2.3338673,1.7837417,-2.1622994,-0.63985509,0.48903218,-0.59281784,0
-1.2981476,3.1286802,1.6247691,-0.34554419,0.83279997,0.43248513,0
1.0442835,-3.0343494,1.9143846,0.27946931,-0.8120473,0.51232427,0
-0.088597044,-1.2603168,-3.2043262,-0.025721986,-0.36590219,-0.93029779,0
3.6785207,-0.48214364,0.19692717,0.9901256,-0.12977575,0.053005718,0
2.9837832,-1.6800557,1.6686811,0.78330857,-0.44105148,0.43806541,0
0.73834926,3.3082576,1.4800435,0.19962491,0.89444202,0.4001542,0
-0.61861485,-1.7455233,-3.0413787,-0.17372763,-0.49020106,-0.85412037,0
1.2773019,-2.4639151,2.1044612,0.36672696,-0.70741624,0.60421318,0
-2.8666685,0.081304707,-2.0921748,-0.80754125,0.022903558,-0.5893662,0
-3.0160549,-1.412663,-1.6312597,-0.8132745,-0.38092238,-0.43986663,0
-0.033894788,0.45233351,3.4463599,-0.0097508579,0.13012737,0.9914493,0
-2.8066826,-0.5483824,-1.9514586,-0.81067961,-0.15839428,-0.56365752,0
0.32899094,-1.3700843,-3.2811239,0.092131779,-0.3836832,-0.91885746,0
-1.1814939,3.5148525,0.73057729,-0.3126142,0.93000293,0.19330513,0
3.2027309,1.4849595,-0.59779918,0.89449358,0.41473565,-0.16695987,0
1.5087848,2.8873439,1.1492859,0.43675056,0.83580446,0.3326858,0
2.1172271,-0.54741365,-3.1760118,0.54906183,-0.14196113,-0.82363719,0
-1.633916,-2.0059788,2.6073391,-0.44482991,-0.54612315,0.70984215,0
-3.1073925,0.13280414,1.7514678,-0.87054563,0.037205491,0.49067914,0
-1.6145164,2.8189607,-1.7096574,-0.43980467,0.76790309,-0.46572173,0
0.14139192,-0.9304533,3.6375744,0.037630752,-0.24763548,0.96812224,0
-3.0745509,-1.6617064,0.27781481,-0.87696558,-0.4739747,0.079242155,0
1.6819141,3.0541384,0.58259845,0.47579291,0.86397839,0.16480997,0
2.1925845,-0.24808386,-2.9373183,0.59681642,-0.067527846,-0.79953122,0
1.4171965,-2.5032575,-2.2463789,0.38829544,-0.68586355,-0.61548179,0
1.9317504,-2.2571235,-2.2745655,0.51628363,-0.60324347,-0.60790509,0
-0.6654743,-3.635432,0.093826018,-0.18000244,-0.98333871,0.02537876,0
1.0033022,3.0013115,2.0673783,0.26542258,0.79399389,0.5469228,0
1.0679096,-2.9008615,1.8770926,0.29529005,-0.80212367,0.51903903,0
-2.5631351,-2.3054538,-0.032238197,-0.74345887,-0.66871625,-0.0093509601,0
3.4719853,0.59338838,1.3496695,0.92044926,0.15731169,0.35780746,0
1.7725837,3.25861,0.16371419,0.47738159,0.87758923,0.044090521,0
-2.1105499,-2.5548413,1.5387632,-0.57764941,-0.69925022,0.42115355,0
-3.1496789,-0.38437721,1.3804027,-0.91023064,-0.11108177,0.39892474,0
-2.2434118,1.9425126,2.2867732,-0.59881651,0.51849985,0.6103906,0
1.0463861,2.3278306,-2.765862,0.27803755,0.61853296,-0.73492324,0
2.01598,-3.0810025,-0.33192387,0.54531926,-0.83340603,-0.089784853,0
-2.5505655,1.6530443,-1.8299298,-0.71892333,0.46594062,-0.51579905,0
3.4729788,-0.42483556,0.79978025,0.96764332,-0.11836792,0.22283521,0
0.085612871,1.5754744,-3.4561799,0.022533895,0.41467568,-0.90969026,0
-0.59875166,1.0051171,-3.4884779,-0.16272923,0.27317157,-0.94810152,0
0.48043495,2.756084,-2.6744525,0.12413257,0.71210432,-0.69101274,0
3.6805084,-0.94303858,-0.070705868,0.9685393,-0.24816407,-0.018606508,0
-1.0284029,3.442513,-0.77398795,-0.27981743,0.9366709,-0.21059383,0
2.9014888,2.2097824,0.27536574,0.7932896,0.60417169,0.075287141,0
-2.7152283,-1.5420079,1.8080713,-0.75250828,-0.4273577,0.50109547,0
-1.9350305,1.454731,2.7084272,-0.53267705,0.40045974,0.74557841,0
-1.396924,3.266654,-0.95152807,-0.37980327,0.88815558,-0.2587066,0
3.4971404,-1.5304354,-0.46053535,0.90952039,-0.3980287,-0.11977394,0
-2.3777843,-1.0525804,2.586591,-0.64829874,-0.28698421,0.70522958,0
-0.87353849,-0.88404596,3.2057228,-0.25406805,-0.25712416,0.93238223,0
-0.92078906,-2.9640813,1.6028972,-0.26358971,-0.84851283,0.45885339,0
2.775131,-2.2879512,-1.0303283,0.7417472,-0.61153203,-0.27538994,0
-2.635844,0.77184057,2.4897923,-0.71102881,0.20820689,0.67163086,0
3.2079709,0.30493549,-2.1423068,0.82902604,0.078803539,-0.55362976,0
0.81515342,2.8243437,-2.0987649,0.22568217,0.78194356,-0.58106095,0
1.0919676,1.7959868,-2.8228552,0.31026724,0.51030439,-0.80207461,0
-0.71852493,-1.1352366,-3.3494146,-0.19910218,-0.31457236,-0.92811775,0
1.7756401,-0.29531753,-3.1859472,0.48524234,-0.080703609,-0.87064737,0
2.0228987,-3.2489247,-0.30326676,0.52690369,-0.8462463,-0.078991786,0
2.3912904,-2.3028386,-1.7980027,0.63337612,-0.60994804,-0.47623324,0
3.1243658,-0.39964807,-1.5968006,0.88472557,-0.1131682,-0.45216545,0
1.5851567,3.0998065,1.6489578,0.41147807,0.80465388,0.4280397,0
-2.0112529,-2.93964,-0.10438704,-0.5644263,-0.82496345,-0.029294573,0
-1.4469794,-2.2411945,2.3922281,-0.40382111,-0.62546962,0.66761988,0
-2.3873076,0.18415061,2.8699117,-0.63872999,0.049269944,0.76785189,0
0.90604419,3.3416293,-1.2556391,0.24601126,0.90732706,-0.3409341,0
0.66528499,0.46826687,3.5133319,0.1844787,0.12984701,0.97422147,0
-3.2639823,-1.4688767,0.86916637,-0.88615936,-0.39879471,0.23597552,0
-2.444591,1.1250557,-2.4528708,-0.67136925,0.30897921,-0.67364317,0
3.6501739,-0.27245468,0.70831281,0.97906321,-0.073078804,0.18998629,0
-1.7819227,-2.7000244,1.6470056,-0.49086717,-0.7437771,0.4537015,0
3.0773318,1.3897707,0.84050041,0.88438296,0.39940107,0.2415483,0
0.25756273,-1.6211271,3.2671065,0.070443943,-0.44338167,0.89356047,0
1.1812359,2.7785194,2.0886567,0.32175425,0.75683481,0.56892461,0
-2.808898,-2.2066581,-0.75081074,-0.76954764,-0.60455328,-0.20569798,0
1.2481911,0.31976244,3.516392,0.33329278,0.085383169,0.93894923,0
-2.3736951,2.1288311,-1.3066821,-0.68885952,0.61779863,-0.37920642,0
-0.40372905,0.60626274,3.5295875,-0.11202368,0.16822119,0.9793632,0
3.4722955,1.3185422,-0.21261893,0.9333387,0.35441872,-0.05715109,0
-3.1000845,1.5710952,1.0350981,-0.85488135,0.43324623,0.28543931,0
1.812822,-3.0006149,0.63848692,0.50873661,-0.8420698,0.17918013,0
0.55648249,-3.4279113,1.3474568,0.14938985,-0.92023587,0.36172992,0
-2.5000954,0.94614142,2.7795062,-0.64830875,0.24534735,0.7207638,0
2.4781237,0.9605763,-2.7186105,0.65180731,0.25265512,-0.71506125,0
2.4444869,0.18347882,2.7368331,0.66531897,0.049937651,0.74488717,0
1.1497217,-3.4486785,0.90866065,0.30682811,-0.92035443,0.24249575,0
-0.99871957,-1.4781533,-3.2608228,-0.26869693,-0.39768448,-0.87729645,0
3.4272642,0.71977144,-1.3359442,0.91437751,0.19203153,-0.35642344,0
1.4274247,-3.3815212,-1.2859735,0.36702174,-0.86946225,-0.33065161,0
-3.4453206,-0.1611397,-0.3781853,-0.99295688,-0.046441186,-0.10899471,0
0.17012212,-3.3716357,1.4909,0.046097543,-0.91360325,0.40398526,0
1.6729207,-0.54088241,-3.1460838,0.46418005,-0.15007694,-0.87293404,0
0.69129884,2.9466612,-1.8296877,0.19546269,0.83315969,-0.51733875,0
-1.4033117,-3.2487526,1.0626099,-0.37978956,-0.8792361,0.2875827,0
-1.3040433,-3.3738713,0.5743078,-0.35605994,-0.92121208,0.15681075,0
-3.4840543,-0.48878601,-1.07494,-0.94708115,-0.1328682,-0.29220423,0
0.55404246,-3.4272232,-0.43543133,0.15834683,-0.97950965,-0.12444745,0
2.3853371,1.8198767,2.0472007,0.65672117,0.50104094,0.56362689,0
1.0463611,-2.1349699,-2.9940531,0.27368289,-0.55841601,-0.78311509,0
2.1451077,0.82347369,2.7404969,0.59981209,0.23025858,0.76629394,0
-1.6911857,3.0979729,0.54651123,-0.47351128,0.86739445,0.15301645,0
-1.1683804,2.6693945,-2.2588384,-0.31690165,0.72402406,-0.61266834,0
2.8373988,2.3158565,0.3932431,0.77028573,0.62869948,0.10675608,0
-3.6015646,-0.67791355,-0.76719004,-0.96189189,-0.18105452,-0.20489813,0
-1.8998854,-1.883267,-2.7137494,-0.4985787,-0.4942176,-0.71215749,0
3.1052146,0.78132641,-1.8481359,0.83990896,0.21133582,-0.49989009,0
0.02051538,3.8177273,-0.53086638,0.0053224289,0.99045604,-0.13772587,0
-3.6439919,-0.085175619,-0.31430259,-0.99603087,-0.023281485,-0.085909925,0
-3.1182435,-2.2377338,0.41126004,-0.80782342,-0.57971543,0.10654251,0
-2.2536821,1.4690286,2.3854725,-0.62680662,0.4085744,0.66346091,0
0.23257546,3.5549827,-1.1473036,0.062139992,0.94982761,-0.30653894,0
2.5219636,-0.56368119,2.5707767,0.69187313,-0.15463978,0.70526451,0
2.7742236,-1.5924658,1.7908286,0.75675035,-0.43439144,0.48850068,0
3.0646951,-1.6541913,1.1289554,0.83710951,-0.4518359,0.30836976,0
-0.78106278,1.8495845,2.9008186,-0.2213987,0.52427995,0.82226098,0
3.3620827,-0.84243619,1.2951669,0.90864593,-0.22767918,0.35003543,0
1.2908101,3.3406029,-0.8678807,0.35029015,0.90654713,-0.2355188,0
0.18536352,-1.3482292,-3.3028224,0.051890366,-0.37742111,-0.92458677,0
-2.0011954,1.7913982,-2.6118579,-0.53416151,0.47816217,-0.69716024,0
-1.0042396,3.0090663,-1.4440714,-0.28812385,0.86332369,-0.4143149,0
-1.5065042,-1.8608052,2.6621859,-0.42076221,-0.51971745,0.74354076,0
-1.2376351,3.035785,1.3567393,-0.34882382,0.855627,0.38239297,0
2.67521,-1.3683496,-2.0369046,0.73693866,-0.37693852,-0.56110501,0
1.8636521,-2.1956575,2.2787297,0.5074715,-0.59787643,0.62049693,0
-1.257827,-3.5037663,0.58474571,-0.33378753,-0.92978883,0.15517303,0
-2.9478576,1.0996416,-1.9526825,-0.79607755,0.29696143,-0.5273276,0
0.8393724,-2.7221479,2.1997859,0.23321575,-0.75633627,0.61120039,0
-0.47901627,0.85003656,3.5664186,-0.12955208,0.22989617,0.96455383,0
-0.8666743,1.8513989,-2.8888681,-0.244894,0.5231452,-0.81630021,0
3.3958473,-0.1903276,0.87150174,0.96718669,-0.05420807,0.24821638,0
-2.6240993,0.99509555,-2.4062977,-0.70982862,0.26917705,-0.65091246,0
-1.8789004,0.38331646,2.9424772,-0.53496784,0.10913935,0.83779353,0
-3.6558063,1.0594121,0.0027349994,-0.96048307,0.27833736,0.00071856123,0
0.67484128,1.5674509,3.2627764,0.1832751,0.42569226,0.88611305,0
3.24488,0.91073328,-0.62385088,0.94671458,0.26571229,-0.1820125,0
0.70853138,2.8716943,2.3078973,0.18885754,0.76544404,0.61516517,0
1.5792329,-1.297999,-3.2280972,0.41331279,-0.33970898,-0.84484929,0
2.6006415,0.026494037,-2.587781,0.70883882,0.007221296,-0.70533353,0
1.8325174,-3.0072186,0.98474264,0.50114441,-0.82239372,0.26930073,0
1.6577928,1.5082599,2.8673625,0.45551851,0.41443074,0.7878769,0
-1.9727241,-2.5290809,-1.5090955,-0.55651981,-0.71347207,-0.42572683,0
-3.3416977,-0.83518827,0.72381914,-0.94942266,-0.23728856,0.20564705,0
-0.14728017,-3.5790608,-0.32262927,-0.040949952,-0.99512631,-0.089704223,0
-1.757316,3.142911,0.17804518,-0.48743397,0.87176216,0.049385123,0
-3.1475163,1.9721937,-0.80560404,-0.82813877,0.51890123,-0.21196139,0
-3.0602622,-1.8621883,0.54906964,-0.84440941,-0.51382834,0.15150322,0
-2.279274,-2.7705364,0.71113157,-0.62319297,-0.75751257,0.19443567,0
-0.48595923,-3.276921,-1.8717787,-0.12771641,-0.8612175,-0.4919278,0
0.36812139,3.0629218,2.2906346,0.095805153,0.79713839,0.59614736,0
-2.9449697,-0.58591551,2.1089048,-0.80260128,-0.15968129,0.57474607,0
-0.029624611,2.9220266,-1.9619327,-0.008416797,0.83019167,-0.55741453,0
1.6264983,3.1926944,-0.26888642,0.45265996,0.88853765,-0.074832,0
-2.7813947,-2.1404045,-1.1524401,-0.75295013,-0.57942796,-0.31197655,0
-3.4530096,0.26646015,1.2453952,-0.93821788,0.072399937,0.33838657,0
3.3789039,-1.5193273,-0.48363847,0.90436709,-0.4066495,-0.12944633,0
3.2433007,-0.89578563,-1.5529641,0.87519026,-0.24172376,-0.41906044,0
3.290453,1.1589013,-0.30571002,0.93960828,0.33093113,-0.087297298,0
-1.3700179,1.4541703,-3.0967925,-0.37174866,0.39458308,-0.84030175,0
2.710732,2.1646919,-1.8263011,0.6914472,0.55216461,-0.46584865,0
-3.1566842,1.9008633,-0.40727115,-0.85148621,0.51274019,-0.1098576,0
0.12370701,2.3392911,-2.9242573,0.033016291,0.62433577,-0.78045803,0
1.0515548,3.1451004,1.5710222,0.28656301,0.85708266,0.42812493,0
2.2890649,2.2204051,1.9139072,0.61545885,0.59699833,0.5145905,0
3.1924231,0.52431816,-1.9670972,0.84315467,0.13847829,-0.51953238,0
-1.1119701,1.9704486,2.7211797,-0.31421158,0.55679357,0.76892912,0
1.0577096,-0.067823216,-3.3278787,0.30284461,-0.019419221,-0.95284206,0
1.0803297,-0.42282259,-3.3075962,0.30821201,-0.12062892,-0.94363868,0
-3.4826419,-0.73743951,1.4457622,-0.90640831,-0.19192937,0.37628067,0
-3.3779519,0.33432391,0.83232212,-0.9665072,0.095657513,0.23814589,0
0.40921149,-2.9993639,1.9399673,0.11381436,-0.83421582,0.53956485,0
2.6516316,1.0451207,1.9031678,0.77370942,0.30495179,0.55531806,0
-0.301797,-1.0194339,3.2576673,-0.088070512,-0.29749155,0.95065367,0
0.97949219,3.2849011,-1.4103739,0.26425382,0.88622212,-0.3804999,0
-0.68691713,-3.2274847,1.8470396,-0.18164995,-0.85348356,0.48843542,0
-2.3631072,2.5292146,-1.0086073,-0.65544605,0.70151865,-0.27975357,0
-1.0263147,3.1861744,1.362205,-0.28398702,0.88163221,0.37692973,0
2.9558203,1.6948539,-1.763783,0.77040517,0.44174683,-0.45971251,0
0.073897205,-1.3250746,3.3974347,0.020259999,-0.36328855,0.93145639,0
-0.81090891,-0.65185755,-3.5712588,-0.21800217,-0.1752433,-0.96008581,0
-0.91122812,0.89515382,-3.456218,-0.24729989,0.24293746,-0.93798947,0
2.1804419,-1.6173779,2.4463665,0.59665519,-0.44257861,0.66942275,0
-1.1872131,0.87584448,-3.4248197,-0.318367,0.23486938,-0.91841108,0
-3.1451373,-0.83597553,-1.88106,-0.83672339,-0.22240055,-0.50043184,0
-0.84613317,-0.19963007,3.4362938,-0.23871315,-0.05632012,0.96945554,0
0.67649704,-1.5809397,3.1775951,0.18723713,-0.43756378,0.87947726,0
1.5471382,3.1685822,0.62212747,0.43209085,0.88493413,0.17375021,0
-2.0433369,-2.5326033,-1.7968677,-0.54968864,-0.68130875,-0.4833847,0
1.5497847,-1.1459042,3.157938,0.41889897,-0.30973211,0.85357469,0
-0.85969043,-1.8171208,2.903652,-0.24342811,-0.51453203,0.82219189,0
-0.024529953,3.1548653,1.335493,-0.0071599875,0.92086589,0.38981375,0
-0.97746557,-3.2242899,1.6165859,-0.26156738,-0.86281204,0.43259439,0
3.7166808,0.29554439,-0.18723454,0.99559873,0.079168387,-0.050155092,0
-1.4627953,3.2797756,0.47108927,-0.40386799,0.90552408,0.13006459,0
-1.6520063,-2.8650346,-1.7011025,-0.44420174,-0.77036834,-0.45740303,0
-1.1819646,1.3451291,-3.1088059,-0.32945558,0.37493533,-0.86653477,0
-2.4382906,0.40174034,-2.5391262,-0.68817288,0.1133855,-0.71663225,0
2.6236494,1.5918113,1.9590851,0.72062469,0.43721488,0.53809214,0
3.3893683,-0.22179966,1.0305971,0.95487881,-0.062487099,0.29034773,0
1.5498296,-2.7561421,-1.4483826,0.44561642,-0.79246277,-0.41644779,0
-1.3110992,2.9279287,-1.8135972,-0.35577184,0.79450476,-0.49212661,0
-0.65534395,-1.9005549,3.0654578,-0.17876892,-0.51844555,0.8362152,0
-3.4672022,0.78155458,-1.3043975,-0.9157964,0.20643298,-0.34453213,0
2.4420009,-2.5996075,0.90452456,0.66365844,-0.70649093,0.24582112,0
-3.2563727,1.6262745,1.0151318,-0.86175096,0.43036953,0.26863965,0
1.5798012,2.8865919,1.2786436,0.447496,0.81765878,0.36218983,0
3.2281692,0.83922309,-1.4648089,0.88614309,0.23036951,-0.4020949,0
-0.19520688,3.3148942,1.2892418,-0.0548006,0.93059313,0.36192998,0
-0.91625726,1.1855018,-3.3550487,-0.24936169,0.32263726,-0.91308486,0
-3.5029924,1.006785,0.21517256,-0.95942253,0.27574489,0.058932871,0
0.47054151,-2.1431365,-2.8786435,0.13000055,-0.59210277,-0.79530764,0
-0.22985494,-3.3534713,1.5143667,-0.062346719,-0.90960819,0.41076255,0
-2.121356,-2.9990802,0.2369868,-0.57627684,-0.81471491,0.064378634,0
-0.1928599,-3.0581,-1.7480817,-0.054669511,-0.86687189,-0.49552432,0
3.2644002,-1.5300883,0.057934787,0.90535265,-0.42435652,0.016067702,0
-0.38052824,1.3062329,3.5577323,-0.099902309,0.342933,0.93403232,0
0.064200208,-3.2756665,-1.3071086,0.018200364,-0.92863131,-0.37055725,0
-3.1135483,0.44334963,-2.159179,-0.81617332,0.11621793,-0.56599867,0
1.1964755,-3.2049568,1.2998353,0.32693917,-0.87576038,0.35518241,0
-2.9231839,1.901868,-0.32150501,-0.83466852,0.54304802,-0.091800623,0
3.3177903,-0.58616209,-1.5973397,0.88981068,-0.15720502,-0.42839655,0
0.35654643,-3.4506326,0.42104009,0.10203185,-0.98745745,0.12048782,0
-0.099349231,3.3003817,-1.2892035,-0.02802806,0.9310922,-0.36370564,0
-1.8736632,0.9859764,2.8173594,-0.53165007,0.27976981,0.79942292,0
3.4934323,-1.0878606,-1.0346212,0.91875339,-0.28610131,-0.27209967,0
3.6591842,0.010692197,0.15557048,0.99909317,0.0029193668,0.04247652,0
1.1959057,-3.4686441,-0.012915186,0.3259452,-0.94538212,-0.0035200457,0
-2.4507987,0.41729894,2.638763,-0.6760053,0.11510383,0.72785157,0
-2.9601445,0.33872199,2.3407407,-0.78125411,0.089396968,0.61777836,0
-1.8747357,-1.3572588,-2.7026711,-0.52686864,-0.38143888,-0.75954849,0
2.4977729,-2.0050378,-1.6857673,0.69008583,-0.55395275,-0.46574453,0
-1.079886,-2.888813,2.1295683,-0.28813401,-0.77078998,0.56820911,0
1.713227,2.9898853,0.4745636,0.49252278,0.85953969,0.13642873,0
0.8225826,1.7906035,-2.9534132,0.23168534,0.50433427,-0.83184659,0
3.5873284,-0.72818941,0.27072993,0.9773438,-0.19839036,0.073758572,0
-3.0497708,1.9447426,0.31754047,-0.83993238,0.53559834,0.087453298,0
-2.5085714,0.043060474,-2.4478981,-0.71565503,0.01228446,-0.6983459,0
3.136585,-1.8909321,-1.3210776,0.80560338,-0.48566875,-0.3393068,0
-2.0018811,2.4816868,-1.5929061,-0.56166077,0.69627815,-0.44691607,0
-2.8536603,-1.7089518,-0.84670043,-0.83140951,-0.49790046,-0.24668485,0
1.2067821,-2.2543113,2.8114092,0.31754935,-0.59319329,0.73978651,0
-1.7793448,3.0666964,-0.44247767,-0.49799445,0.85829222,-0.12383851,0
2.5160427,-0.62100989,-2.5331821,0.6942786,-0.17136191,-0.69900805,0
1.1736751,2.3427367,-2.2216263,0.34164754,0.68195218,-0.64669788,0
1.7416072,-1.6511331,2.5716188,0.49512935,-0.46940807,0.7310971,0
-2.9297063,1.66282,0.96430504,-0.83610278,0.47454873,0.27520102,0
3.1543314,0.32917193,-2.0776467,0.83196831,0.086820491,-0.54798812,0
-1.0203166,-2.2428527,2.6021202,-0.28471529,-0.62585914,0.72611129,0
1.4111139,-0.371842,3.5285902,0.36955279,-0.09738069,0.92409289,0
-1.4889393,3.2393417,-0.7280246,-0.40919295,0.89024168,-0.20007703,0
0.51375329,-2.7389228,-2.2978961,0.14223827,-0.75830108,-0.63619792,0
1.0596379,-0.47509098,-3.3208826,0.30119878,-0.13504314,-0.94395053,0
-0.90943539,-3.3515723,0.83771348,-0.25457433,-0.93819124,0.23449753,0
-0.035349742,-3.4783518,-0.83370316,-0.0098823896,-0.97240967,-0.23307043,0
2.4530377,-1.7445323,-1.6694404,0.71266437,-0.50682712,-0.48501116,0
-1.7687396,2.3770275,-2.0641377,-0.48981905,0.65827292,-0.57162398,0
0.28197652,-0.019412532,-3.6958232,0.076073855,-0.0052372669,-0.99708843,0
-2.1323278,0.33390045,3.0166755,-0.5748654,0.090017974,0.81328136,0
2.6937535,-2.3189304,-0.35521409,0.75410849,-0.64917785,-0.099441156,0
0.047839243,-2.519537,-2.6727049,0.013023228,-0.68589097,-0.72758776,0
-2.7025073,1.4272376,1.9158713,-0.74922043,0.39567536,0.53114009,0
0.27601641,0.82023293,-3.6663218,0.073270679,0.21773714,-0.97325331,0
1.6245886,-2.0900726,-2.4052093,0.45421547,-0.58435917,-0.67246759,0
2.512424,-2.349247,0.67684627,0.71668506,-0.67013776,0.19307475,0
3.3159423,-1.4109802,0.94921392,0.88981009,-0.37862676,0.25471497,0
-0.49762985,2.7904744,2.038111,-0.1425395,0.79929453,0.58378994,0
-2.8825796,-1.0603392,-1.9302496,-0.79462546,-0.29229811,-0.53210169,0
-3.6200764,1.1552246,-0.41089937,-0.94714701,0.30224982,-0.1075066,0
3.1169312,0.15838993,-1.7845172,0.86699075,0.044056989,-0.49637282,0
-2.2335563,1.6086609,-2.5695791,-0.59315675,0.42720577,-0.68239301,0
2.9142337,1.6678293,1.3990228,0.80115569,0.45850506,0.38460714,0
-0.37799186,-1.7180707,3.3379397,-0.10018,-0.45534402,0.88466144,0
-1.5881193,-1.2516838,-3.2945743,-0.41083121,-0.3237986,-0.85227472,0
-3.4315233,-0.86283231,-1.0807853,-0.92750889,-0.23321556,-0.29212624,0
1.165455,-3.254462,1.1691369,0.31937239,-0.89182794,0.32038134,0
2.8344862,-2.506223,-0.6286034,0.73902482,-0.65343797,-0.16389337,0
0.1453588,-0.095338844,3.6084368,0.040236376,-0.026390487,0.99884164,0
3.008882,0.97626489,2.0939772,0.79315233,0.25734699,0.55198008,0
-3.0934961,-0.83675045,-1.1619115,-0.90750337,-0.24546786,-0.34085661,0
2.6825411,-0.51986337,2.1820312,0.76714379,-0.14866871,0.62400967,0
0.66977209,2.5802524,-2.2992885,0.19025601,0.7329486,-0.6531378,0
2.4727056,-0.59944099,-2.5726097,0.68339324,-0.16567032,-0.7110042,0
-1.4847884,-3.0998456,0.43716109,-0.42853671,-0.89467132,0.12617257,0
-2.9106801,1.7069545,-1.0158472,-0.82598835,0.48439693,-0.28827557,0
-0.77899963,-2.391345,2.6154397,-0.2146901,-0.65904796,0.72080785,0
-0.18586832,-3.349025,1.7458714,-0.049154002,-0.88566995,0.46170628,0
0.99133813,0.50887573,-3.2797036,0.28619659,0.14691103,-0.94684142,0
-2.783143,1.0579764,-2.279635,-0.74218637,0.28213269,-0.60791487,0
-3.0016184,2.3173678,-0.46837887,-0.78557867,0.6064977,-0.12258335,0
2.6654792,-0.94963896,-2.4289334,0.71477497,-0.25465521,-0.65134281,0
-3.3080473,0.20445903,1.9426042,-0.86108851,0.05322092,0.50566208,0
-1.0274355,-3.0018456,1.4849309,-0.29329312,-0.85691082,0.42389032,0
-0.85771376,0.59639055,3.4959176,-0.23507571,0.16345422,0.95813471,0
0.81891179,0.82108831,-3.4061248,0.22759415,0.22819906,-0.94663936,0
-2.0223985,-2.7371657,1.5436568,-0.54118472,-0.73245317,0.4130756,0
1.1775135,-3.4991443,0.11369544,0.31878904,-0.94732577,0.030780844,0
-1.2479781,-2.7019246,-1.7962207,-0.35900214,-0.77725458,-0.51671344,0
-2.1919219,1.8857725,2.2426913,-0.59900373,0.51533991,0.61287791,0
-3.1347623,1.5092821,0.28444165,-0.89801091,0.4323619,0.081483595,0
1.6442727,-2.8633394,-1.6503073,0.44544277,-0.77569485,-0.44707757,0
-0.17372753,2.6415043,-2.7729957,-0.045315929,0.68902272,-0.72332162,0
-0.61270469,2.6183543,-2.3786056,-0.17066421,0.72932255,-0.6625424,0
0.6225822,-2.4912765,-2.5420957,0.17230041,-0.68946397,-0.70352823,0
2.1830544,0.88888484,2.9347522,0.5799638,0.23614666,0.77966446,0
-3.0441678,-1.8182216,0.60445094,-0.84631264,-0.50548589,0.16804412,0
-3.4042912,0.44600922,-0.91372764,-0.95817548,0.12553424,-0.25717875,0
-0.87253761,2.3190663,2.6217246,-0.24187906,0.64287609,0.72677702,0
0.13411728,2.4576697,2.8877265,0.035346575,0.64771825,0.76105958,0
-0.17916451,2.4278901,2.9305522,-0.047026772,0.63726813,0.76920599,0
-3.1609426,0.23104016,-1.6337657,-0.88648891,0.064795405,-0.45819092,0
-1.4558698,1.5518916,3.0891407,-0.38811859,0.41371694,0.82353038,0
-2.1164172,-2.9552875,1.2622912,-0.55001897,-0.76802629,0.32804689,0
2.6860354,1.9280354,-1.9762986,0.69731027,0.50052911,-0.51305848,0
0.83074671,-1.8968325,2.8742518,0.23450738,-0.53544748,0.81135833,0
0.62145799,-2.3348825,-2.8977687,0.16471525,-0.61885238,-0.7680434,0
1.1359727,1.6932453,-3.1222575,0.30462581,0.45406568,-0.83727384,0
1.8838983,1.1753252,-2.6213372,0.54838055,0.34212327,-0.7630403,0
1.9354535,3.1205566,-0.38682595,0.52417856,0.8451398,-0.10476401,0
-3.0995128,1.014177,-1.742671,-0.83824402,0.27427787,-0.47129458,0
1.2941351,2.2785892,2.4590769,0.36012423,0.6340723,0.68429732,0
2.2487018,-2.4239233,1.8456089,0.59385782,-0.64013189,0.48740536,0
1.0563332,-1.1923441,3.418555,0.2800847,-0.31614774,0.90642327,0
-0.24142613,-3.3813055,-0.82696158,-0.069189951,-0.96904325,-0.23699768,0
-0.12530638,-3.3941715,1.5918044,-0.033406194,-0.90487295,0.42436889,0
1.6551934,-2.2440372,2.2698107,0.46035516,-0.62412888,0.63129723,0
0.051814962,3.6378798,0.77656007,0.013927998,0.97787166,0.20874138,0
0.69544947,-3.0545199,-2.0542207,0.18564428,-0.81537795,-0.54835659,0
-1.040711,2.6043804,-2.3674948,-0.28355137,0.70958751,-0.64504588,0
-2.0405676,-2.6401305,1.6757818,-0.54648906,-0.70705932,0.44879493,0
-2.1226885,-0.80189133,3.0114157,-0.56295705,-0.21266915,0.79865587,0
0.023683382,-2.4339139,-2.8138373,0.0063656317,-0.65418863,-0.75630462,0
-0.61306423,3.4472504,0.85719955,-0.17007154,0.95630956,0.23779768,0
0.57243305,3.5799816,0.52047604,0.15629025,0.97743523,0.14210454,0
3.2725954,-1.1863961,0.42441973,0.93321788,-0.33831435,0.12102812,0
-3.439208,0.86778581,0.5763607,-0.95705789,0.24148619,0.16038883,0
3.6212809,-0.84087867,-0.42227459,0.96786028,-0.22474176,-0.11286139,0
1.4324728,-1.4688835,-3.1103275,0.38444415,-0.39421597,-0.83474338,0
-2.3369589,-1.2373494,2.2549195,-0.67246586,-0.35605043,0.64885879,0
-3.3635931,-0.58996046,0.525114,-0.97352189,-0.17075175,0.15198331,0
-3.0981853,-1.078652,-1.5847982,-0.85037267,-0.29606241,-0.43498659,0
1.5561739,2.4665885,-2.3212421,0.41748998,0.66173577,-0.6227423,0
0.44349527,-3.3960142,1.7414479,0.11542845,-0.88388008,0.45324638,0
-0.061020229,3.4401417,1.1721302,-0.016787518,0.94643104,0.32246941,0
1.4265847,2.7404296,-1.8398243,0.39673218,0.76211154,-0.51165384,0
2.4868593,-1.3386731,2.5572982,0.65271473,-0.35135549,0.67120254,0
0.12673418,-2.4189894,2.8295133,0.034024939,-0.64943779,0.75965315,0
2.5989571,1.7597282,-1.4130803,0.75505096,0.51123756,-0.41052917,0
-0.18032466,-0.74313152,3.5454452,-0.049717654,-0.20489021,0.97752142,0
1.3708676,-1.9855143,2.9707143,0.35820016,-0.51880395,0.77623129,0
-1.4234562,-2.0169928,2.9514523,-0.36994037,-0.52419388,0.76704949,0
-2.8934813,1.2607782,1.5319885,-0.82473242,0.35936111,0.43666452,0
0.64264679,0.44000405,-3.4874346,0.17984456,0.12313504,-0.97595781,0
-2.1108067,0.13273181,-3.0074837,-0.57410449,0.036100853,-0.81798577,0
-1.0390998,-3.2785318,-1.0304219,-0.28941849,-0.91316324,-0.28700143,0
2.09603,-1.0003648,3.0384786,0.54806042,-0.26157084,0.7944876,0
2.2269199,0.96601748,-2.9879298,0.57846785,0.25093406,-0.77614886,0
-3.3490484,-1.4215289,1.1135997,-0.88020235,-0.37360856,0.29267809,0
0.36381951,3.5312829,-0.25391659,0.10222393,0.99219972,-0.07134404,0
0.72514844,2.4294789,2.7452018,0.19405137,0.65013403,0.73462224,0
1.6840519,2.8765817,-0.82839495,0.49030897,0.83751208,-0.24118584,0
-2.3297489,-0.90477788,2.67415,-0.63649988,-0.24719018,0.73059213,0
-2.1644492,2.9041286,-0.92904294,-0.57884717,0.77666253,-0.24845761,0
0.59792995,1.4826769,3.2948642,0.16326904,0.40485549,0.89968616,0
0.44049603,-1.6928617,3.1829789,0.1212831,-0.46610072,0.87637919,0
-2.7244508,1.4383478,2.000824,-0.74164522,0.39154449,0.54466075,0
3.400229,0.69025302,-0.33512738,0.97547102,0.19802248,-0.096142657,0
-3.6644001,0.59747148,0.42610115,-0.98053074,0.15987314,0.11401737,0
-0.81778193,1.836219,3.1291559,-0.21988404,0.49371994,0.84136295,0
-3.7364779,0.6105423,-0.76134527,-0.96754253,0.15809692,-0.19714661,0
-3.3412809,-0.99256504,-1.1888165,-0.90727943,-0.26951754,-0.32280698,0
2.3237119,-1.3954586,-2.3708119,0.64528406,-0.38751242,-0.65836358,0
3.6425142,0.44341654,-0.85829675,0.96658206,0.11766555,-0.22775868,0
2.3844662,1.1884353,-2.366909,0.66908902,0.33347884,-0.6641624,0
3.3846862,0.20432259,-0.86804086,0.96700019,0.058374681,-0.24799807,0
-2.7126741,-1.7339474,1.2474763,-0.78565973,-0.50219548,0.36130103,0
2.1694415,0.12099549,-2.7000248,0.62597042,0.034912027,-0.77906489,0
0.96347928,1.2362188,3.18963,0.2711041,0.34784761,0.89749908,0
-0.32831332,-1.5721399,-3.2402663,-0.090783216,-0.43471864,-0.89597887,0
-3.6093533,-0.18423963,1.0218977,-0.96102089,-0.04905536,0.27208892,0
2.7462354,1.1086184,1.9567556,0.77367228,0.31232113,0.55125922,0
2.5981262,-1.1235621,-2.256695,0.7176891,-0.31036532,-0.6233744,0
3.740761,-0.58753002,-0.10927773,0.98747832,-0.15509495,-0.028846908,0
-2.8778818,-2.0446067,-0.73513174,-0.79808754,-0.56700563,-0.20386504,0
2.6056876,-2.3471243,1.3654242,0.69238073,-0.62367553,0.36281914,0
0.17874096,-3.0633769,2.0244765,0.048620608,-0.83329105,0.55069232,0
-1.404762,3.4037545,1.0503799,-0.36686239,0.88891178,0.27431327,0
-2.3614323,-1.1407712,-2.5529094,-0.64521289,-0.3116923,-0.69753009,0
1.1921034,-3.2693067,-0.90694332,0.33149782,-0.90912253,-0.25220105,0
2.9992862,0.3049078,-2.1339533,0.81202954,0.082551025,-0.57774854,0
-0.81601769,0.27899837,3.7137058,-0.21403611,0.073179446,0.97408074,0
2.4126902,2.218025,-1.4226314,0.67530215,0.62081617,-0.39818874,0
3.3296869,0.53808171,-0.73047608,0.96482503,0.15591697,-0.21166603,0
-1.0654709,1.5324197,3.0460739,-0.29824999,0.42895976,0.85266662,0
-1.7622596,-3.3515773,0.7002815,-0.45762908,-0.8703481,0.1818513,0
-2.6373291,-1.7024211,2.1222024,-0.69602543,-0.44929108,0.56007683,0
2.8814452,-0.47854528,-2.4134459,0.76047826,-0.12629887,-0.63696271,0
-1.953711,-2.2300186,2.4722805,-0.50609958,-0.57767576,0.64043254,0
-1.2235906,3.2722435,-0.84116656,-0.34051332,0.91063344,-0.23408845,0
2.8084135,-2.2455266,0.58731669,0.77081776,-0.61632365,0.16119924,0
0.71305978,-3.3042397,0.99278837,0.20239678,-0.93788415,0.28179568,0
3.5890114,-0.68406016,-1.1459998,0.93729097,-0.17864625,-0.29928443,0
-2.671345,-2.4516349,-0.30992946,-0.73407847,-0.67370272,-0.085167781,0
-1.0763057,1.8737237,-2.9701095,-0.29303291,0.51013643,-0.80863625,0
0.063037381,-3.4043303,-1.1463329,0.017545946,-0.94756788,-0.31907251,0
-0.87448514,1.4431334,-3.2169471,-0.24072962,0.39726797,-0.88556612,0
-0.87561494,-1.9898143,-3.2067986,-0.22601035,-0.51360321,-0.82772648,0
3.0540028,1.561512,-0.63005733,0.87571526,0.44775331,-0.18066481,0
-2.0558984,-2.9077833,0.13313641,-0.57690704,-0.81595504,0.037359498,0
0.72898775,-3.5823975,0.20954747,0.19907814,-0.97831142,0.057224996,0
-3.658886,-0.32982546,-0.27058342,-0.99327111,-0.089537121,-0.07345479,0
1.3733718,-2.9449966,-1.3954244,0.38834935,-0.83275884,-0.39458516,0
-2.0357342,-1.0666194,2.7015162,-0.57395703,-0.30072379,0.76166826,0
-0.36690155,-3.393882,-0.84628791,-0.10432245,-0.96499479,-0.24062811,0
-1.8822787,-0.3991285,3.2600369,-0.49723199,-0.10543574,0.8611874,0
-0.78019583,0.59926558,3.5832295,-0.20996568,0.16127387,0.96431589,0
1.0485709,3.2880304,0.98994637,0.29205227,0.91579574,0.27572393,0
2.2947533,2.510206,-1.0101463,0.64679641,0.70752364,-0.28471863,0
0.82283586,0.46248546,-3.4785137,0.22829255,0.12831476,-0.96509987,0
1.0318919,-1.0190562,-3.2003934,0.29368022,-0.29002711,-0.91084367,0
2.455821,-2.1654835,1.6260148,0.67177469,-0.5923546,0.44478631,0
-3.3920991,0.68006057,1.0832765,-0.9356916,0.18759091,0.29881579,0
-2.1519799,3.0000005,0.10582342,-0.58263385,0.81222957,0.028650967,0
3.553097,1.2532094,-0.020356912,0.94304526,0.33262056,-0.0054030302,0
0.48621342,-2.8490214,2.2446449,0.13286425,-0.7785328,0.61337894,0
0.50869256,-3.0807514,-2.0928557,0.13532771,-0.81957364,-0.55676329,0
3.6415873,-0.82709748,0.65879804,0.96033424,-0.21811643,0.17373367,0
-1.6160281,-3.1915212,0.51578254,-0.44711685,-0.88301861,0.14270486,0
-3.1574831,1.552542,-1.4233372,-0.83189732,0.40904588,-0.3750045,0
1.5340368,0.29695255,-3.2328305,0.42723301,0.082702011,-0.90035123,0
0.9731428,2.2774944,-2.5747986,0.27238953,0.63748676,-0.72070426,0
-0.55032969,2.7357268,-2.6489415,-0.14303228,0.71102333,-0.68846756,0
1.3546083,-3.0637729,0.92119586,0.38990182,-0.88185686,0.26515114,0
-2.915168,-1.5909284,-1.4473643,-0.80468976,-0.43915269,-0.39952388,0
-2.9890244,1.5378739,0.91462511,-0.85801357,0.44145393,0.26254746,0
-0.50872034,3.6875198,0.4775013,-0.13555226,0.9825666,0.12723371,0
1.5836821,-0.52216136,3.2020106,0.43866831,-0.14463486,0.88693345,0
-3.142287,1.5149698,1.2368957,-0.84898734,0.4093166,0.33418614,0
2.8709989,0.31051058,2.4845922,0.75364298,0.08150965,0.65221041,0
1.8658639,0.61868727,-3.0325599,0.51629478,0.17119415,-0.83912593,0
-1.5716068,-2.0558546,2.7756817,-0.41414189,-0.5417484,0.73143363,0
1.8606627,-3.0059578,-0.53356367,0.52042615,-0.84076446,-0.14923741,0
0.69288403,-3.2483284,1.442237,0.19135059,-0.89707595,0.39829597,0
0.79523569,-1.1871911,-3.151629,0.22980823,-0.34307602,-0.91076177,0
-0.22598709,-1.9407042,-3.3155167,-0.058722604,-0.50429076,-0.86153489,0
0.10361888,-0.30045885,3.7224185,0.027735529,-0.080423422,0.99637485,0
0.55255979,1.5154237,3.1143587,0.15754622,0.43207863,0.88796806,0
1.3712933,-1.5630041,-3.0623322,0.37046689,-0.42225924,-0.82731581,0
2.036552,-1.79766,-2.2106614,0.58148885,-0.5132789,-0.63120162,0
3.1577694,-0.78135318,-1.4807622,0.88349777,-0.21861121,-0.41429564,0
-1.9719445,2.5987029,1.8708506,-0.52437353,0.6910392,0.49749094,0
2.2171853,1.0694308,2.8464096,0.58917618,0.28418157,0.75638098,0
-0.64207077,3.2195396,1.4261539,-0.17938294,0.89948106,0.39844155,0
1.9579377,-2.8252783,1.0423285,0.54508919,-0.78655648,0.29018387,0
-0.58086872,-0.036814798,3.459121,-0.16559601,-0.010495286,0.98613781,0
-3.0446739,-0.37608311,-1.9956322,-0.83192706,-0.10276099,-0.54528677,0
-2.9370654,2.2392972,0.51476216,-0.7876184,0.60050136,0.13804124,0
2.3850403,2.4573052,1.1794575,0.65851218,0.67846459,0.32564947,0
-2.6853859,1.7811937,1.5261625,-0.75314856,0.49955705,0.42803049,0
0.74299687,-3.27841,-1.369301,0.20469707,-0.90320832,-0.37724507,0
