1.3306097,0.99953061,3.2080045,0.36818367,0.27657309,0.88766444,0
-1.5717957,-2.2165122,2.8661313,-0.3979781,-0.56122011,0.72570342,0
-1.3105001,2.5114331,-2.3221142,-0.35777554,0.68563849,-0.63395309,0
-0.2623916,0.89783788,-3.4902902,-0.072615065,0.24847046,-0.96591377,0
2.3161426,0.81284279,-3.0001912,0.59750032,0.20969082,-0.77396584,0
-2.9900808,-2.2420564,0.13754214,-0.79952347,-0.59950781,0.03677766,0
-0.78289551,-2.0152836,3.1595724,-0.20449299,-0.52639383,0.82528305,0
-3.36022,-1.6796814,0.51766878,-0.88609928,-0.44293663,0.13651069,0
2.9761577,1.4516214,-1.4297909,0.82515138,0.40246773,-0.39641511,0
0.055696059,2.5600097,-2.8649938,0.014494679,0.66623241,-0.74560332,0
-0.00069726707,-0.91071206,3.4727166,-0.00019421685,-0.25366983,0.96729082,0
-1.3898429,-1.3197364,3.2137752,-0.37142834,-0.35269275,0.85886484,0
-1.5406221,0.8514806,3.4964178,-0.39356595,0.21751848,0.89319175,0
-0.42545953,3.1336448,-1.8619063,-0.11593531,0.85390043,-0.50735891,0
-1.6945662,2.3695362,-2.7039957,-0.42634341,0.59616208,-0.68031025,0
-0.10610991,1.396338,3.6794126,-0.02695273,0.35468054,0.93459898,0
2.9984,2.4849768,-0.3854183,0.766204,0.63500506,-0.098488875,0
0.64333349,0.54752845,-3.7266312,0.16835974,0.14328766,-0.97525573,0
0.53495228,-3.484045,1.2534302,0.1429933,-0.93128884,0.33504322,0
3.5816057,0.015753461,-1.1361972,0.95317888,0.0041924957,-0.30237812,0
-1.1520034,-2.9763746,1.9061733,-0.30989099,-0.80065012,0.51276404,0
-3.821902,-0.56052369,-0.24907479,-0.98736525,-0.14480789,-0.064346962,0
2.6926444,-2.378849,0.81126583,0.73102218,-0.64583033,0.2202494,0
-0.55293882,-1.7693152,3.19701,-0.14962287,-0.47876909,0.86509717,0
-2.2915735,2.7491531,0.23863898,-0.63886678,0.76643521,0.066530056,0
-0.54966646,3.1096842,-1.7265136,-0.15272568,0.8640306,-0.47971448,0
-0.22113712,3.1493878,1.9512331,-0.059582416,0.84856009,0.52573347,0
-2.2839367,-2.7596021,-1.0351011,-0.61252892,-0.74009758,-0.27760372,0
0.8864851,-3.3699558,-1.3329072,0.23761064,-0.90327221,-0.35726818,0
2.6700189,2.6312609,-0.613002,0.70292127,0.69271761,-0.16138168,0
-2.1701682,-2.7045853,-1.3115742,-0.58536494,-0.72951466,-0.35377425,0
-3.6094778,-0.27665761,-1.0151453,-0.96004254,-0.073584907,-0.27000657,0
2.7129862,-2.5119936,1.1536059,0.70046175,-0.64856774,0.29784775,0
-3.2735102,1.8776958,-0.38692603,-0.86290574,0.49496546,-0.1019947,0
1.0073806,-3.0811119,1.6555248,0.27676097,-0.84648395,0.45482776,0
0.35293844,3.8029983,-0.32310617,0.092079312,0.99217719,-0.084296271,0
3.1665411,-0.94014919,1.4284973,0.87988442,-0.26123857,0.39693549,0
1.4870418,3.3456171,-1.0610811,0.39010841,0.87768435,-0.27836248,0
2.86674,0.99667883,-2.2685809,0.75655574,0.26303157,-0.59869677,0
-3.5055721,0.51846099,0.89718872,-0.95898193,0.14182983,0.24543434,0
-2.1287429,-2.883338,-0.56441706,-0.58672339,-0.79470462,-0.15556443,0
-1.3982222,2.2658107,2.799876,-0.36188623,0.58643448,0.72466063,0
1.7881535,1.7236925,2.7133977,0.48611349,0.46858963,0.73764318,0
-1.5852845,1.629232,2.9208529,-0.42831597,0.44018984,0.78916305,0
-2.2256556,2.9021759,0.57729483,-0.60110193,0.78381562,0.15591498,0
-0.18349743,-1.3035933,-3.2872541,-0.051819995,-0.36813703,-0.92832631,0
3.6919463,-0.22703749,-0.93471044,0.96769583,-0.059508782,-0.24499691,0
-0.42811349,3.6731355,-0.31488293,-0.1153515,0.98969477,-0.084842496,0
3.4287663,-0.078535199,-1.5791401,0.90810198,-0.020799894,-0.41823214,0
2.9821641,-2.3519287,0.96923614,0.76080841,-0.60002303,0.24727109,0
0.55257058,-2.9384074,2.52722,0.14114565,-0.75057095,0.64553946,0
1.8505623,-3.1162121,-1.5042998,0.47159332,-0.79412878,-0.38335252,0
-2.4751782,0.15730385,2.7272375,-0.67144668,0.042672139,0.73982328,0
1.6824611,0.89271432,-3.0538058,0.46747035,0.2480399,-0.84849727,0
2.7033782,-1.5112834,-2.1559973,0.71637982,-0.40048149,-0.57132697,0
2.2062566,-0.53585905,-2.8292277,0.60819185,-0.14771858,-0.77992427,0
0.10330383,3.5440121,-1.0612844,0.027912799,0.95759571,-0.28676015,0
3.0747304,-1.9633535,0.40439969,0.83769661,-0.53490692,0.1101769,0
-3.0635064,-0.51122171,2.2989075,-0.79280907,-0.13229978,0.59493744,0
-0.38975674,3.5216823,-1.667576,-0.099529594,0.89930862,-0.42583781,0
-0.78895485,3.074312,-1.5349535,-0.22377826,0.87199438,-0.43537247,0
2.632566,2.4973421,1.1472548,0.69174379,0.65621185,0.30145738,0
-3.5628598,0.9038645,-0.77255267,-0.94857007,0.24064344,-0.20568319,0
-3.5220721,-0.29437038,1.3864566,-0.92769957,-0.077535972,0.36518708,0
1.2191836,-3.1356931,-2.0827899,0.30811647,-0.79246372,-0.52637017,0
0.62200165,3.1159356,1.8903031,0.16823649,0.84278566,0.51128155,0
-0.068249986,-0.18942298,-3.6479647,-0.018680627,-0.05184675,-0.99848026,0
-2.2607105,-2.632035,-1.2307459,-0.61407971,-0.71494305,-0.3343091,0
-0.86028963,-3.5104151,-0.17079176,-0.23775902,-0.97017658,-0.047201872,0
1.8252283,2.6232898,-1.7557682,0.50056386,0.71943003,-0.4815146,0
3.1380692,0.18264914,1.9965312,0.84269738,0.049048614,0.53614867,0
1.1039077,3.4436576,-1.4215615,0.28409904,0.88625151,-0.36584967,0
-2.6902869,-2.8450248,0.2051122,-0.6861307,-0.72559506,0.052311812,0
3.4123032,1.0046319,0.69597375,0.94143778,0.27717301,0.19201575,0
-2.0580642,-1.135574,2.8904989,-0.5524106,-0.30480248,0.77584666,0
0.21285646,3.7448177,-0.22424881,0.056647524,0.99660897,-0.059679374,0
3.1976111,0.80830985,1.4458379,0.88793319,0.22445667,0.40148953,0
-1.1360373,-3.1296852,1.8887622,-0.29677707,-0.81759524,0.49341804,0
-3.0571623,-0.050488684,2.3449252,-0.79340029,-0.013102914,0.60855919,0
3.6508565,-0.5364036,1.1278772,0.94616741,-0.13901603,0.29230422,0
3.6679997,-0.5753085,0.067056052,0.98776108,-0.15492567,0.018057624,0
-2.0862916,2.140137,-1.8363857,-0.59474695,0.61009687,-0.52350533,0
2.6530433,0.85878503,2.5004797,0.70833379,0.22928628,0.66760093,0
-3.6734912,-1.3118188,0.37026185,-0.93753922,-0.33479911,0.094497301,0
-2.3337109,1.3940117,2.4740901,-0.63490653,0.37925312,0.67309791,0
-1.1680254,0.044829957,3.3424246,-0.32986519,0.012660549,0.94394314,0
-3.5642567,-0.22872692,-0.46086109,-0.98974162,-0.063514099,-0.12797435,0
-0.53812045,3.406178,-1.3471694,-0.14535046,0.92003483,-0.36388078,0
-1.035951,-3.2849457,1.3505633,-0.28000635,-0.88788527,0.36504266,0
-1.7122934,-3.4184036,-1.1883755,-0.42767701,-0.85380965,-0.29681879,0
-3.3439891,2.0456419,-0.80303329,-0.83568972,0.51122236,-0.20068447,0
2.3657675,2.0424683,2.062027,0.63181579,0.54547364,0.55069709,0
-2.3048143,3.1796584,-0.3970817,-0.58391714,0.80555606,-0.10059935,0
-3.3011432,0.35870934,-1.2043006,-0.93458098,0.10155359,-0.34094751,0
3.2528226,-0.73391497,-1.3451518,0.90464723,-0.20411016,-0.37410212,0
-3.2336047,-0.6778062,-1.5209247,-0.88904995,-0.1863566,-0.41816428,0
0.22869644,1.288071,3.4383452,0.062165864,0.35013247,0.93463504,0
1.6734078,-0.11554442,-3.5887547,0.42242685,-0.029167466,-0.9059276,0
-1.3011221,0.25181907,3.7365766,-0.32818201,0.063516326,0.94247669,0
-0.39063036,-3.8051443,-0.84325099,-0.099727258,-0.97144675,-0.21528052,0
3.4244351,-0.067906231,1.2582531,0.93848079,-0.018609988,0.34482953,0
3.0213649,1.9064395,1.2413695,0.79886258,0.50407124,0.32822371,0
-3.251581,0.25597852,-1.8531374,-0.86678249,0.068236873,-0.49399573,0
1.1472067,1.8935074,-2.8630679,0.31697795,0.52318394,-0.79107749,0
-1.928357,-0.036882624,-3.0320296,-0.53662604,-0.010263751,-0.84375775,0
-0.29029882,-1.3071556,-3.5110848,-0.077253468,-0.3478564,-0.93435955,0
3.0477808,-2.2037702,0.67157346,0.79773408,-0.57682055,0.17577939,0
2.6784925,-2.9433348,-0.15541241,0.67253619,-0.73903477,-0.039022122,0
-3.2208056,-1.5416917,-1.2492845,-0.85138851,-0.40753114,-0.33023617,0
-0.97827393,3.5136864,-0.4682149,-0.26603341,0.95551771,-0.12732713,0
-0.56313533,-2.8883398,-2.5495057,-0.14463347,-0.74182987,-0.65480506,0
-3.7882922,0.29401624,-1.0069158,-0.96373665,0.074797355,-0.25615808,0
0.035645567,2.6999705,2.4246166,0.0098223332,0.74399185,0.66811657,0
2.8444631,1.3009603,-2.2607763,0.73703182,0.33709317,-0.58579212,0
-0.28514236,1.8262911,3.1157608,-0.078707941,0.50411171,0.86004448,0
-1.8837082,1.8554207,2.7270329,-0.49592477,0.4884775,0.71794724,0
-3.8190534,0.33983356,-0.066940032,-0.99591255,0.088619992,-0.017456267,0
3.4393835,-0.35021853,1.4633677,0.91616106,-0.09328898,0.38980258,0
1.8773184,-1.8019009,-2.853472,0.48612565,-0.46659651,-0.73889756,0
2.8632193,-1.9918367,-1.3641337,0.7645098,-0.53184146,-0.36423811,0
3.5466709,1.0547178,-0.63879341,0.94454175,0.28089017,-0.17012209,0
-3.6637447,0.83281732,-0.53813529,-0.96527374,0.2194194,-0.14178059,0
2.8311179,-0.87103409,2.1203606,0.77718574,-0.23911236,0.58207184,0
1.4747885,1.7912147,3.2242839,0.37126476,0.45092219,0.81168449,0
-1.5380347,3.151835,-0.49726626,-0.4342083,0.88980627,-0.14038509,0
3.3839099,0.49625474,1.6050082,0.89569187,0.13135436,0.4248319,0
-3.2489393,1.0908326,-1.2471631,-0.89084154,0.29910037,-0.34196535,0
2.4084618,-1.9131556,-1.9822644,0.65818179,-0.522825,-0.54171103,0
1.3180259,-0.059892781,3.5937326,0.34428713,-0.015644846,0.93873405,0
2.3421445,-2.3327894,-1.7787416,0.62392956,-0.62143743,-0.47384328,0
3.0242915,-1.3531194,1.7533535,0.8067928,-0.36097279,0.46774358,0
-2.945055,-2.5205038,0.56491226,-0.7518031,-0.64342517,0.14420877,0
3.7492418,0.4955782,-0.00032958295,0.99137694,0.13104111,-8.7148539e-05,0
-1.5528696,-1.0354797,-3.282547,-0.41123915,-0.27422121,-0.8693015,0
1.5097473,1.2041897,-3.0532165,0.41790095,0.33332202,-0.84513617,0
-0.079769872,-2.9321594,2.2617896,-0.021536143,-0.79161978,0.61063439,0
-2.4579351,-0.013212061,3.1684639,-0.6129384,-0.0032947084,0.79012388,0
-0.88527817,-3.1496253,-1.7319986,-0.23914495,-0.85082525,-0.46787408,0
2.7772467,-1.9377191,1.4809374,0.75140268,-0.52426285,0.4006775,0
0.30517182,3.0657864,-2.0985596,0.081864864,0.8224225,-0.56295598,0
0.77260625,1.5898986,-3.2767832,0.20751294,0.42702803,-0.88010538,0
-1.3214563,-2.256176,-2.7927029,-0.3454181,-0.58974636,-0.72999018,0
-0.24197596,3.0897455,2.043787,-0.065179922,0.83227009,0.55052525,0
-2.8700237,-2.1387897,1.011899,-0.77159548,-0.57500583,0.27204537,0
-3.1247845,1.6560987,-0.99131823,-0.85078472,0.4509058,-0.2699061,0
-2.2569158,-0.36325935,-3.0909803,-0.58705842,-0.094489321,-0.80401134,0
3.4034173,-0.069182493,-1.0845119,0.95261711,-0.019364191,-0.30355504,0
3.750668,-0.29854068,0.78224987,0.97597724,-0.077684537,0.20355254,0
-3.723983,-0.82336438,0.48597565,-0.96858752,-0.21415254,0.12639959,0
-0.10376251,-0.43233261,3.782335,-0.027245861,-0.11352147,0.99316186,0
-0.57254946,3.4822037,1.6175706,-0.14748746,0.89700788,0.41668257,0
-3.2733178,-1.2041522,-1.9092306,-0.82323837,-0.3028439,-0.48017091,0
-0.3202695,0.6384865,-3.6905227,-0.085200377,0.16985473,-0.98177916,0
1.8642747,1.5299374,-2.886924,0.49559069,0.40671188,-0.76744729,0
-0.85861433,0.81956172,-3.6392498,-0.22430259,0.21410057,-0.95070988,0
-1.670956,-0.3527115,-3.3234031,-0.44719699,-0.094395973,-0.88944042,0
-2.31896,-2.9230173,0.26080614,-0.61999792,-0.78149885,0.069729216,0
0.98174977,3.4318364,0.45014957,0.2728771,0.95387805,0.12511896,0
0.58624524,-3.7102678,0.85051942,0.15221679,-0.96335977,0.22083478,0
-1.2976458,2.3439043,2.8893001,-0.32932812,0.59485692,0.73327231,0
0.84717125,-2.8661885,2.2060654,0.2280553,-0.77156711,0.59386444,0
0.17683503,0.58407694,3.5644181,0.048899688,0.16151313,0.98565835,0
3.5601976,1.4771183,-0.009951626,0.92365283,0.38322154,-0.0025818362,0
-0.57872611,2.1979885,-3.0930235,-0.15077502,0.57264,-0.80582273,0
0.74734473,1.9882113,-2.9672046,0.20480341,0.5448522,-0.81313694,0
2.8725383,-2.2759211,-0.86168361,0.76299697,-0.60452491,-0.22887841,0
1.6715137,2.9378624,-1.7326436,0.44006944,0.77346867,-0.4561635,0
1.69538,3.1743693,1.4245142,0.4380348,0.82016081,0.36805129,0
1.9905998,-2.0211685,-2.1714275,0.55720186,-0.56575853,-0.60781854,0
3.3900366,0.72640496,1.0709141,0.93425006,0.20018777,0.29513004,0
1.2913762,-2.1436279,-2.7921746,0.34440947,-0.57170463,-0.74467176,0
-0.31940222,2.4524248,3.029017,-0.081679866,0.62715197,0.77460235,0
-0.12761934,-1.6056169,3.3696768,-0.034169979,-0.4299027,0.90222836,0
1.9168754,-0.13653019,3.3198984,0.49970883,-0.035591956,0.86546189,0
0.90590054,1.2496588,-3.3913419,0.24312577,0.33538368,-0.91016901,0
-0.87415624,1.4582704,3.2205005,-0.24003758,0.40043151,0.88432831,0
0.76486713,-3.4618602,0.52291965,0.21342914,-0.96600026,0.14591593,0
-1.0399995,0.99819314,3.3729613,-0.28352645,0.27212915,0.91954249,0
-2.1444743,-0.053028144,3.3558695,-0.53842115,-0.013313974,0.84257072,0
-2.1480246,-1.0251859,3.1583188,-0.5431515,-0.25922945,0.7986154,0
0.56991827,3.5018864,-1.4436243,0.14878766,0.91423196,-0.37688473,0
-1.5007262,2.6410809,2.367769,-0.38965029,0.68573326,0.61477029,0
-3.0612819,2.0283208,-0.98368508,-0.80523342,0.53352541,-0.25874653,0
0.31347075,-3.7502646,-0.61633956,0.082200721,-0.98342341,-0.16162133,0
0.12164643,0.77865016,3.7816427,0.031491045,0.20157194,0.97896731,0
-2.5988903,2.2156291,-1.1231468,-0.72289908,0.61629236,-0.31241095,0
-3.7214549,-0.015815755,0.41332081,-0.99387997,-0.0042238757,0.11038459,0
-2.8762765,-0.036561333,-2.6398835,-0.73670107,-0.0093644587,-0.67615372,0
3.3836384,0.66957599,-1.6079272,0.88911539,0.17594384,-0.42251346,0
2.3483145,2.5594923,1.1537415,0.64158958,0.6992861,0.31521696,0
0.77025801,-0.26456833,-3.6073232,0.2082838,-0.071541347,-0.97544843,0
-1.9802643,1.4561059,3.0938208,-0.5011574,0.36850551,0.78297186,0
-0.32076347,2.3088126,3.0720398,-0.083179399,0.59871423,0.79663199,0
-2.7997179,-1.8060224,1.8242592,-0.73707271,-0.47546569,0.48026681,0
2.9905047,2.0108736,0.23012632,0.82815355,0.55686653,0.063728347,0
-1.7579795,0.98086905,-3.0687182,-0.47900057,0.26725957,-0.83614045,0
1.3267225,-2.1430268,2.3204522,0.38725483,-0.62552452,0.67731291,0
-1.0971789,1.8526433,2.863483,-0.30624497,0.51711047,0.79925638,0
-2.7361164,-0.17640118,-2.6160073,-0.72200978,-0.046548963,-0.69031525,0
1.9727077,-2.6641176,1.7810839,0.524216,-0.70794731,0.473295,0
3.7092686,-0.33429393,-0.87877572,0.96934438,-0.087361142,-0.22965075,0
3.4129629,-0.73452961,1.9651612,0.85191834,-0.18334781,0.49052888,0
-1.9774438,-0.96301013,-3.0309715,-0.52803296,-0.25715074,-0.80935442,0
-0.91902548,2.6032763,2.6836452,-0.238699,0.67615044,0.6970247,0
1.4445577,-1.1327391,3.1399965,0.39715904,-0.31142926,0.86329401,0
0.57709056,-3.4040689,-1.0858194,0.15944573,-0.94051838,-0.30000365,0
-0.57144886,-2.815089,-2.4875693,-0.15038502,-0.74083138,-0.65463984,0
-2.9089019,-2.1493535,-1.2661217,-0.75910103,-0.56089085,-0.33040452,0
-3.2820058,0.12927961,-1.7124946,-0.88602883,0.034901053,-0.46231472,0
0.42861953,2.1094873,3.1449039,0.11246768,0.55351925,0.82520753,0
-2.3959162,-0.85767001,-2.8410282,-0.62817138,-0.22486752,-0.74487269,0
-3.4099884,0.73952621,-1.114852,-0.93091923,0.20188901,-0.3043521,0
-2.9223976,-0.96542507,-2.3925941,-0.74965417,-0.24765107,-0.61374885,0
-2.1863556,-3.0698195,-0.60313827,-0.57282907,-0.80429816,-0.1580233,0
1.7064482,1.8921583,-2.7463644,0.45550257,0.5050742,-0.7330876,0
1.3727872,3.4342434,-0.25525117,0.37029767,0.92635792,-0.068851829,0
2.1039772,-1.9832282,2.3264029,0.56694579,-0.53440827,0.62688142,0
-2.5827677,2.0161066,-1.8724802,-0.68439466,0.53423798,-0.49617913,0
-2.6633441,-1.6418928,-2.1300807,-0.70365191,-0.43378586,-0.56276441,0
-1.6767532,2.0040228,2.6689181,-0.44892171,0.53654253,0.71455675,0
2.1754174,-0.9793101,-3.0286059,0.56425524,-0.25401142,-0.78555351,0
1.1685855,-3.0951223,-1.6374773,0.31656659,-0.83846009,-0.44358805,0
1.4736418,3.2888758,0.28403118,0.40763435,0.90975899,0.078567855,0
2.2561016,2.7849214,-0.67188692,0.61869746,0.76371729,-0.18425356,0
-0.25861481,0.55641407,3.8205636,-0.066833824,0.14379407,0.9873482,0
0.20770736,-3.2293215,-1.9472708,0.054996934,-0.85506254,-0.51560003,0
0.67319065,-3.5048146,-1.1175368,0.1800091,-0.93717653,-0.29882586,0
3.4574831,-0.88053894,-1.518708,0.89164859,-0.22708175,-0.39165884,0
-0.36773041,-3.5509169,-0.23808867,-0.10278007,-0.99247569,-0.066545404,0
0.72988677,-3.7601764,0.7082395,0.18737687,-0.96531421,0.18181957,0
2.2157359,1.5731525,2.4362156,0.60712063,0.43105018,0.66753298,0
-0.70470089,-3.6407931,1.0932802,-0.18227383,-0.94170636,0.28278151,0
-0.14486632,-2.4688215,2.8890498,-0.038092818,-0.64918041,0.75968003,0
3.132822,2.1579094,-0.33654928,0.82033503,0.56505245,-0.088126034,0
-0.86224347,2.9623947,-2.1299467,-0.22998542,0.79015684,-0.56811875,0
-0.24709895,2.6891506,2.5107491,-0.067012861,0.72929353,0.6809113,0
2.9820871,-2.1209002,0.12501892,0.81444085,-0.57924122,0.034144044,0
-3.3232245,0.84379607,-1.6547782,-0.872899,0.22163677,-0.43465444,0
-0.7029528,-0.94369036,3.6158133,-0.18486728,-0.24817806,0.95091099,0
-0.55193567,0.022693383,3.6822724,-0.14823127,0.0060946755,0.98893392,0
3.6030819,-0.33147928,-1.2359684,0.94233429,-0.086693637,-0.32324976,0
3.760381,-0.72732204,0.65959376,0.96756089,-0.18714283,0.16971608,0
-0.97911209,2.2799256,-2.7170553,-0.2660954,0.61962026,-0.73841995,0
0.38432747,-1.6684525,3.3784533,0.10147178,-0.44051194,0.89199364,0
-0.34243974,-2.6767938,-2.2421219,-0.097602777,-0.76294446,-0.63905352,0
0.88538289,2.6328824,2.806947,0.22420201,0.66671437,0.71079206,0
-2.1233907,-1.5650156,-2.788528,-0.55318487,-0.40771723,-0.72646618,0
2.8825264,1.143275,-1.8135418,0.80240715,0.3182528,-0.50483453,0
2.4903281,-1.8637139,2.1169436,0.66187638,-0.49533561,0.5626387,0
-3.8926294,0.49585167,0.071644895,-0.99181896,0.12634008,0.018254695,0
1.2796758,-3.5343983,-1.214933,0.32393634,-0.8946954,-0.30754739,0
2.2675622,-1.5346985,-2.4252417,0.61993825,-0.4195776,-0.6630469,0
-1.7366433,-3.0126457,-1.6189824,-0.45275056,-0.78540999,-0.42207587,0
-0.81242764,-3.3455267,-0.96954763,-0.227146,-0.93537319,-0.27107507,0
-0.19951095,3.2578645,-2.0064993,-0.052072775,0.85030949,-0.52370054,0
3.7587869,0.27063024,-0.33983421,0.99338722,0.071523242,-0.089812741,0
1.7575656,1.5808706,2.8403876,0.47560889,0.42779404,0.76862764,0
-1.962237,0.61073589,-2.963347,-0.54412627,0.16935642,-0.821733,0
3.6729631,0.90788907,0.81946415,0.94878387,0.23452196,0.21168041,0
3.4635994,-0.079511508,-1.9950424,0.86635923,-0.019888423,-0.49902523,0
-0.59912276,-3.0905299,1.9297454,-0.16225584,-0.83698463,0.52261823,0
-0.7629593,3.5127034,-1.3699977,-0.19833465,0.91314286,-0.35613698,0
0.52303833,-1.4892521,-3.5150206,0.13574284,-0.38650191,-0.91224462,0
-0.86081415,-3.7558608,-0.12154603,-0.22328879,-0.97424233,-0.031528134,0
0.53474253,-3.6319411,1.0754129,0.13978843,-0.94943517,0.28112647,0
0.96911824,3.204421,-1.337703,0.26881653,0.88885063,-0.37105554,0
3.3704417,-1.3013699,-0.54485327,0.92244655,-0.35616821,-0.14911933,0
2.3437622,-1.4303504,2.6035256,0.61941314,-0.37801525,0.6880638,0
3.4861002,0.94036293,-0.020670597,0.96547484,0.26043335,-0.0057247179,0
-1.7134422,-1.2021717,3.3642147,-0.43244702,-0.30341002,0.84907711,0
3.0686054,-0.75560969,1.7500267,0.84944999,-0.20916754,0.48444161,0
-1.06495,3.461482,-1.2091591,-0.27891997,0.90659326,-0.31668964,0
1.6638694,1.013238,-3.1855419,0.4455992,0.27135423,-0.85311675,0
-1.1537899,3.3063395,-1.4566889,-0.30420825,0.87174946,-0.38407058,0
1.8235521,0.38635534,-3.1217067,0.50154275,0.10626169,-0.8585822,0
-2.1646566,1.0382804,2.8860211,-0.57661921,0.27657616,0.76877558,0
-3.3455765,0.17339292,2.0051489,-0.85689503,0.044410743,0.5135743,0
0.13343967,2.0862358,-3.2762134,0.034335427,0.53681028,-0.84300399,0
-1.6084373,-3.2897763,-0.72040153,-0.43097213,-0.88147789,-0.19302772,0
0.54910189,-3.4574704,-0.81065452,0.15280697,-0.96216303,-0.22559321,0
0.34732047,-3.8833406,-0.10888182,0.089048274,-0.99563605,-0.027915828,0
-1.1785637,3.3432305,-0.61076331,-0.3276414,0.92941999,-0.16979255,0
-3.6923187,-1.0795764,0.16188987,-0.95896584,-0.28038666,0.042045899,0
1.0586305,-3.002594,2.2969639,0.26965624,-0.76482612,0.58508676,0
-2.5350201,-1.6050782,2.3901417,-0.66083902,-0.41841808,0.62307155,0
3.3987093,-1.6626092,-0.00086551439,0.89827818,-0.43942729,-0.00022875528,0
2.3343656,0.82077676,-2.8907545,0.61347038,0.21569982,-0.75968915,0
1.5553321,-0.29050875,-3.3360894,0.42123869,-0.078680001,-0.90353048,0
0.27549845,3.4875069,0.50713611,0.077935852,0.98658204,0.14346391,0
-2.2018359,2.6023433,1.0939748,-0.6150223,0.72689301,0.30557176,0
-0.8317982,-1.8027838,-3.408514,-0.21087,-0.45702553,-0.86409581,0
-3.5628028,0.70115018,-0.17288038,-0.98007017,0.19287522,-0.047556635,0
3.607007,1.1021173,-0.50923121,0.94775385,0.28958523,-0.13380231,0
2.1512811,-0.73837417,-2.9528723,0.57717091,-0.19809967,-0.7922312,0
3.590647,0.70077926,0.57991207,0.96937877,0.18919168,0.15656076,0
1.4984292,1.0807837,3.0954018,0.41567108,0.29981434,0.85867858,0
2.359118,1.0886384,2.8782411,0.60841542,0.28075933,0.74229705,0
1.9199945,-2.4108508,-1.5378866,0.55743003,-0.69993985,-0.44649303,0
3.409292,0.1801594,1.2081217,0.94140244,0.049747132,0.33359674,0
-1.0638939,0.40760836,3.6547306,-0.27791011,0.10647536,0.95468789,0
0.1510345,0.91920084,3.6901178,0.039684534,0.24152134,0.96958375,0
-0.28471521,1.194857,3.524874,-0.076274753,0.32010031,0.94430816,0
-3.7381947,0.08037179,0.32001847,-0.99612713,0.021416895,0.085276216,0
-3.4855824,1.272822,-0.90202719,-0.91274977,0.3333067,-0.23620877,0
2.3659282,-2.1767213,2.2118635,0.60628814,-0.55780238,0.56680787,0
0.41202211,-3.482126,1.1684556,0.11147851,-0.94213927,0.31614247,0
0.90360236,1.8285955,-3.1147985,0.24269499,0.49113524,-0.83659142,0
1.1676462,0.93192071,3.4317,0.31197256,0.24899125,0.91688406,0
3.601131,-0.70820224,-1.3080624,0.92425692,-0.18176535,-0.33572391,0
-1.9406559,2.7762356,1.4778911,-0.52511972,0.7512182,0.39990073,0
-1.1533014,-3.5322828,1.2204229,-0.29488042,-0.9031474,0.31204233,0
-3.7521398,-0.43472022,0.92416984,-0.96489441,-0.11179197,0.23765807,0
-3.4329956,-0.86210018,-0.94819963,-0.93685305,-0.23526427,-0.25876051,0
-1.2901154,3.6238363,-0.34263065,-0.33406559,0.93836486,-0.088721603,0
-0.87551749,2.8466091,-2.6721621,-0.21880989,0.71142638,-0.66782844,0
3.2130404,1.9757135,-0.16524602,0.85102445,0.52329892,-0.043768018,0
-2.2638631,1.825449,-2.0460696,-0.63666707,0.51337171,-0.57541692,0
3.3877599,-0.69154364,1.321303,0.91524345,-0.18682869,0.35696563,0
-3.5739284,0.1312416,-0.14128083,-0.99854755,0.03666861,-0.039473545,0
-1.2110006,0.80844265,3.3939314,-0.32791033,0.21890716,0.91899639,0
1.7013949,-3.2265594,-0.60283053,0.46019232,-0.87271798,-0.16305326,0
3.3538642,0.14124811,1.8411257,0.87600505,0.036892984,0.48088872,0
0.75132918,-2.6989675,-2.647074,0.19493081,-0.70024151,-0.68677789,0
-0.96247655,-1.4901192,3.2654941,-0.25899366,-0.40097746,0.87871462,0
3.3880563,0.42206728,1.4977255,0.90873933,0.11320625,0.40171766,0
-1.2826778,3.7493806,-0.17839094,-0.32335904,0.94520712,-0.044971798,0
-1.2862331,-0.66430956,3.5837049,-0.33278528,-0.17187588,0.92720693,0
-3.4008117,-1.7636627,0.50377274,-0.8801474,-0.45644489,0.13037895,0
-0.41970125,-3.6480095,-0.28289241,-0.11395778,-0.99051183,-0.076811276,0
3.578301,-0.68419999,-1.454201,0.91221863,-0.17442355,-0.37072042,0
-0.816773,-2.3631461,-2.6400833,-0.22462551,-0.64990258,-0.72606474,0
-2.5181508,2.7303574,0.62549859,-0.6685496,0.72488886,0.16606505,0
3.0556002,1.535677,-1.2341447,0.84044993,0.4223915,-0.33945435,0
-2.8149273,0.0075596385,-2.442595,-0.75529015,0.0020283724,-0.6553874,0
2.6954315,1.2836124,-2.1661355,0.73076302,0.34800231,-0.58726466,0
-2.4748249,1.8978586,2.1909196,-0.64932209,0.49794289,0.57483357,0
1.9494522,2.8443789,-1.3149157,0.52823389,0.77072805,-0.35629654,0
-3.2541902,-0.58069235,-1.6977932,-0.87569851,-0.15626357,-0.45687401,0
1.4997663,-0.02179699,3.4094329,0.40264532,-0.0058518825,0.91533738,0
-2.9815083,0.30431506,2.1713896,-0.80560911,0.0822265,0.58671355,0
2.416961,-0.8827374,2.7344687,0.64370537,-0.23509803,0.72826666,0
-2.5278392,-2.6624403,-0.90634048,-0.66846895,-0.70406324,-0.23967524,0
-0.61315072,1.0713855,-3.5349891,-0.16375467,0.28613582,-0.94409251,0
-2.8345456,-1.8933834,1.6472358,-0.74871385,-0.50011629,0.4350991,0
1.8811063,2.9682565,-0.95545554,0.51654577,0.81507373,-0.26236501,0
-3.4085464,1.6130229,0.57333893,-0.89362723,0.42289031,0.15031372,0
-2.8633766,2.5849593,0.47945479,-0.73660469,0.66498172,0.12333992,0
-1.6256109,-3.5948579,-0.58006239,-0.40765196,-0.90147704,-0.14546135,0
-0.69606501,3.4889603,0.10793966,-0.19555937,0.98022288,0.030325633,0
0.77342832,3.4111104,0.61084801,0.21782823,0.96070462,0.17203914,0
-0.94898218,3.5677488,0.34981287,-0.255905,0.96208847,0.094331451,0
-1.0870484,-3.411808,1.1282026,-0.28954571,-0.90876758,0.30050752,0
-0.56226492,-3.6077945,-0.10637561,-0.15392312,-0.98765361,-0.029120911,0
-3.4614613,1.4066045,0.050921433,-0.92634451,0.37643072,0.013627421,0
-2.0584216,-2.026093,2.4187169,-0.54639572,-0.53781426,0.64203393,0
1.7260096,2.8551147,1.8009393,0.45525193,0.75306445,0.47501537,0
2.5063291,0.68047452,-2.6033587,0.68157601,0.18504956,-0.70796245,0
0.52765298,0.27709681,-3.6112075,0.14416522,0.075708322,-0.98665327,0
-2.2222571,2.4911935,1.8008381,-0.58587074,0.65677249,0.47476879,0
-0.29427332,-3.7190304,0.099665202,-0.078851677,-0.99652863,0.026705677,0
3.3287427,-1.6706697,-0.17705312,0.89274162,-0.44805995,-0.0474842,0
-3.3855267,-1.5982057,-0.61653394,-0.89228338,-0.42122024,-0.16249259,0
-1.6809394,1.3693001,2.9366624,-0.46049634,0.37512219,0.80450386,0
-3.2715135,1.4179851,1.0558668,-0.87975901,0.38131744,0.28393844,0
2.4756732,2.5606499,0.023394924,0.69506198,0.71891981,0.0065682833,0
1.3891521,-1.4841392,-3.1094871,0.37392926,-0.39949772,-0.83700567,0
-3.2842438,-1.7938797,-1.0611041,-0.84433156,-0.46118051,-0.27279449,0
-3.3711488,-0.67984468,-1.5445402,-0.89421844,-0.18033308,-0.40969902,0
3.3094602,-0.52571696,-2.0631051,0.8410024,-0.13359557,-0.52427775,0
3.087728,1.7955759,-0.85922796,0.84048426,0.48875847,-0.23388316,0
2.9055486,-2.3554797,-0.99150431,0.75087106,-0.60871863,-0.2562311,0
1.0490727,3.4984992,0.9354766,0.27824643,0.92790985,0.24811724,0
-0.29786837,3.5530448,-0.27983427,-0.083285503,0.99344927,-0.078243077,0
2.08741,2.8844097,-0.74080116,0.57397813,0.79313034,-0.20369917,0
-2.225594,3.1612172,-0.072354034,-0.57557142,0.81753737,-0.01871182,0
0.033014137,-0.092058606,3.6655247,0.0090034567,-0.02510578,0.99964428,0
-2.0213943,-1.0242922,3.0758955,-0.52908933,-0.26810309,0.80509949,0
0.46247074,-3.2892671,-1.3443897,0.12906028,-0.9179256,-0.37517467,0
-3.0294888,-1.1279324,1.5240582,-0.84766942,-0.31560236,0.42644078,0
-3.2104895,-1.6169379,-0.068854831,-0.89295846,-0.44973153,-0.019151131,0
0.22855687,-3.4856212,-0.82971132,0.063659646,-0.97084552,-0.23109841,0
1.6562358,0.32535201,3.3062112,0.44616705,0.087645344,0.89064765,0
-3.5327432,-1.268453,0.1607597,-0.94030821,-0.33762339,0.042789314,0
2.3631973,2.6377466,1.9129181,0.58711094,0.65531969,0.4752439,0
3.15485,1.6784964,-0.94811505,0.853306,0.45399019,-0.25644079,0
-1.1756558,3.3376839,1.3144511,-0.31143793,0.88417155,0.3482056,0
-0.20487602,3.0455151,1.9716307,-0.056380734,0.83810872,0.54258174,0
-3.1838291,-2.111644,0.28008023,-0.83113533,-0.55124253,0.073114656,0
-1.1529291,0.011725082,3.528466,-0.31058937,0.003158638,0.95053893,0
-3.5449717,1.7817365,-0.056236472,-0.89340287,0.44903278,-0.014172702,0
-3.6542649,-0.15896468,-1.4566026,-0.92816585,-0.040376268,-0.36997011,0
3.6329908,0.61921334,0.013663658,0.98577702,0.16801757,0.0037075018,0
2.4456055,-2.8968043,-0.34727198,0.64240122,-0.76092023,-0.091219924,0
-3.1408958,-1.8963844,0.10128686,-0.85573906,-0.51667112,0.027595669,0
-3.0481141,-0.4283222,-2.0378988,-0.82570189,-0.11602795,-0.55204523,0
0.76389039,2.6778772,-2.6074059,0.200241,0.70196038,-0.68348753,0
3.4692292,-0.93432081,-0.45783058,0.9578495,-0.2579647,-0.1264064,0
2.995836,2.2792621,1.197381,0.75840813,0.57700449,0.30312189,0
-2.6567378,1.4662826,-2.4197927,-0.68451631,0.377792,-0.62346667,0
-0.75103575,0.65066558,3.774193,-0.19243445,0.16671707,0.96704417,0
-3.4036222,-1.1594507,1.1647228,-0.90051901,-0.30676359,0.30815849,0
2.3127501,-2.8231072,0.95739812,0.61297745,-0.74824387,0.25375137,0
-1.5737281,-1.9665833,-2.5758402,-0.43682623,-0.54587263,-0.71498662,0
2.7718456,-2.1871946,0.51902777,0.77668828,-0.61286545,0.14543478,0
-1.6996346,-3.1127234,0.80513453,-0.46734816,-0.85590488,0.22138768,0
2.0355382,-1.5730864,-2.7771752,0.53770649,-0.41554552,-0.73361683,0
0.67978132,-2.3009987,2.9557319,0.17856212,-0.60441673,0.77639931,0
1.4827828,3.6146772,-0.16843453,0.37916875,0.92432463,-0.043071117,0
1.4193672,1.7094851,3.1172736,0.37077606,0.44656247,0.81431389,0
-1.276141,3.611028,0.13227706,-0.3330071,0.94229233,0.034517501,0
2.5762002,-1.5668323,-1.9007157,0.72277141,-0.43958601,-0.53325939,0
0.71615022,-2.9263389,2.5367236,0.18183608,-0.74302012,0.64409375,0
-1.5510005,2.9094758,-1.4642634,-0.42992681,0.80648696,-0.40588391,0
-0.48364106,-0.23651499,3.7010787,-0.12931472,-0.063238777,0.98958504,0
2.4191685,-2.6176412,1.3147492,0.63677794,-0.68902028,0.34607071,0
-2.6471391,2.203162,-1.40892,-0.71139288,0.59207839,-0.37863356,0
2.7325878,1.5657797,-2.1834085,0.71305454,0.40858203,-0.56974906,0
1.9385585,-3.2668402,-0.5526908,0.50500214,-0.85102475,-0.14397813,0
0.33665976,3.312815,-1.6571043,0.090514071,0.89068079,-0.4455277,0
0.74123359,-0.093570963,3.8801606,0.18758599,-0.023680257,0.98196274,0
-3.2955644,-0.49137852,-1.3121316,-0.92027992,-0.13721649,-0.3664102,0
-2.667387,2.2828312,-1.3261821,-0.71073407,0.6082679,-0.3533656,0
1.454963,1.9660506,2.9654422,0.37850508,0.51146328,0.77145261,0
2.7175839,-0.036581863,2.722157,0.70648015,-0.0095100505,0.70766896,0
-1.138198,2.2693412,-2.9728258,-0.29114687,0.58048916,-0.76043791,0
-1.6845911,-0.47942886,3.4309895,-0.43730706,-0.12445609,0.89065886,0
1.3325959,3.2298667,1.1126225,0.36341721,0.88082904,0.30342743,0
1.5588739,-2.6382422,1.8896364,0.43300155,-0.73281294,0.524876,0
-3.5428643,-1.344093,0.46517491,-0.92800921,-0.35206842,0.12184678,0
-0.24544454,-3.0931318,2.30251,-0.063523471,-0.80053306,0.59591234,0
-1.8709366,2.7811539,1.6398751,-0.5013842,0.74530941,0.43946302,0
-0.11205363,3.9342527,0.24083798,-0.028416855,0.99772847,0.06107663,0
-1.5424443,0.976825,3.2679148,-0.41205037,0.26095015,0.87299454,0
2.1972482,3.1518829,0.81931329,0.55930197,0.80230099,0.20855339,0
0.4774332,-0.11354201,3.6910775,0.1282196,-0.030492878,0.99127692,0
-1.8654381,-1.254113,-2.7962072,-0.51995695,-0.34956118,-0.77939188,0
-0.17667386,-3.6061225,0.9621526,-0.047283862,-0.96511954,0.25750437,0
0.5909912,-3.5399818,-1.1647469,0.15662678,-0.93817973,-0.30868575,0
1.6031753,1.895007,2.8316791,0.42574403,0.50324374,0.75198919,0
-2.5426292,2.1769669,1.7277293,-0.67500055,0.57792693,0.45866627,0
1.6883838,-2.5108356,2.1512859,0.4547784,-0.67631173,0.57946444,0
-2.3098986,0.77550763,-2.7025948,-0.63479209,0.21312022,-0.74271041,0
-1.8150792,-0.072673656,-3.3336105,-0.4781037,-0.019142715,-0.87809479,0
-3.6614819,-0.29694703,0.06941662,-0.99654961,-0.080820404,0.018893199,0
-1.9432878,1.137972,-3.1530766,-0.50153345,0.29369351,-0.81376183,0
2.7275357,0.42572615,2.3331816,0.75461465,0.11778367,0.64551049,0
-2.6727042,2.4769571,0.81157809,-0.71591455,0.66348147,0.21739052,0
0.10196757,-2.9278669,2.2128878,0.027772974,-0.79746503,0.60272568,0
-0.41313958,3.0264969,-2.2674954,-0.10860104,0.79556823,-0.59605122,0
1.6902429,-2.9117842,1.5737337,0.45479962,-0.78348404,0.42345008,0
-1.7804576,-2.787981,-1.1922452,-0.50634503,-0.79287505,-0.33906311,0
1.0166603,1.4612691,3.2421863,0.27486667,0.39507213,0.8765651,0
-0.59515786,-3.2330794,-1.8890774,-0.15697075,-0.85271317,-0.49823743,0
3.0863919,0.042576056,2.0560412,0.83218873,0.011479849,0.55437368,0
-2.8555908,-2.432766,-0.098105155,-0.76095337,-0.64827967,-0.026142908,0
0.78213298,-2.5735757,2.6161246,0.20844556,-0.68588138,0.69722104,0
3.2717037,-1.2874759,-1.224856,0.87874407,-0.34580204,-0.32898301,0
-3.1766407,0.081332929,-2.1139061,-0.83232713,0.021310437,-0.55387485,0
3.4925683,-0.68272579,0.6144644,0.96711379,-0.189051,0.170149,0
-0.14699459,1.5876536,3.2561636,-0.040543709,0.43790296,0.89810753,0
-3.2030494,-0.21826608,1.8257599,-0.86725628,-0.059097633,0.49434197,0
-0.77959067,-2.2026043,2.7120483,-0.21777947,-0.61529982,0.75761354,0
-1.0936044,2.9915612,2.0420878,-0.28903905,0.79066795,0.53972268,0
-2.9585252,0.32857704,-2.0761352,-0.81519789,0.090536773,-0.57206243,0
1.1802506,2.9699459,1.7468332,0.32405645,0.81544554,0.47962064,0
2.0605161,2.414005,1.7513288,0.5684253,0.66594064,0.48313117,0
0.83695585,0.34207228,-3.5526347,0.22830929,0.093312301,-0.96910667,0
3.4229865,-1.1314379,-0.026032943,0.94945085,-0.31383258,-0.0072208876,0
0.9821766,-1.3499269,3.4833655,0.254269,-0.34947336,0.90178472,0
2.666863,2.2849584,-1.232398,0.71654665,0.61393458,-0.33112714,0
0.088832989,2.1885281,-2.8628724,0.02464392,0.60713834,-0.79421395,0
1.6571008,-2.5370069,2.2506099,0.43901318,-0.6721254,0.59625065,0
1.9430614,-3.0758672,-0.73130727,0.5236001,-0.82885927,-0.19706663,0
-2.4871452,1.924361,1.9263968,-0.67442042,0.52181447,0.52236652,0
-3.3701134,-0.86900461,1.5243751,-0.88697785,-0.22871274,0.40119925,0
3.4004083,-1.489529,-0.043420106,0.91591156,-0.40120971,-0.011695353,0
-3.1546776,-0.94435173,1.5437603,-0.86741018,-0.25965896,0.42447233,0
-1.6659732,0.99841142,-3.2135179,-0.44368425,0.26589829,-0.85582846,0
0.58999455,0.3610459,-3.6960335,0.15690506,0.096017711,-0.98293507,0
-0.76992702,-3.4654,-0.86019611,-0.21078689,-0.94874048,-0.23550034,0
3.4744716,0.83892244,-0.66034693,0.95588958,0.23080264,-0.18167332,0
-0.8165617,2.2253759,3.0149176,-0.21291213,0.58024949,0.78611636,0
1.9796251,-2.5989301,1.7713653,0.53268319,-0.69932759,0.47664407,0
-0.35224712,0.24697489,-3.8954144,-0.089879639,0.0630183,-0.99395686,0
-1.3888595,-2.0731804,2.9314647,-0.36076716,-0.53852487,0.76147097,0
-0.5412519,-2.8630745,-2.6333587,-0.13781315,-0.72899389,-0.67050385,0
-3.3861887,1.8945888,0.22023022,-0.87128794,0.48748976,0.056666639,0
1.9481957,-3.2055991,-0.5069586,0.51467687,-0.84685934,-0.13392898,0
3.5223703,0.3075183,-0.26591483,0.99340516,0.08672861,-0.074995287,0
-0.15446232,-3.7740066,-0.23850237,-0.040812425,-0.99717754,-0.063017696,0
2.8882284,0.96136773,2.4131227,0.7435286,0.24748889,0.62122017,0
-2.1096611,-2.9722223,0.24142046,-0.57754385,-0.81367987,0.066091612,0
2.763397,-0.68630165,-2.2649152,0.75953007,-0.18863259,-0.62252051,0
-2.632874,-2.1585917,2.040297,-0.66333014,-0.5438388,0.51403546,0
3.0374875,1.1324506,1.8740413,0.81120014,0.30243552,0.50048685,0
-0.86964667,0.10368012,3.7650278,-0.22497365,0.026821576,0.97399557,0
-2.6516855,-0.54982013,2.7063556,-0.69260108,-0.14360905,0.70688057,0
1.4907039,-3.2613313,1.4382002,0.3858394,-0.84413147,0.37224987,0
-0.19096464,-3.6245797,-1.2765899,-0.049632646,-0.94204605,-0.33179197,0
-3.29795,-1.7414708,0.96053571,-0.85634112,-0.4521879,0.24941137,0
-2.5856333,1.4082953,-2.444839,-0.67562693,0.36798805,-0.63883734,0
-3.6057775,1.5937775,0.38602346,-0.91028368,0.40235141,0.097452171,0
-1.53874,3.3611512,0.19574139,-0.41567272,0.90797585,0.052877255,0
0.45262665,-2.9808056,1.8401538,0.128144,-0.84390163,0.52096951,0
-2.5573614,0.11298163,2.7279265,-0.6836192,0.030201603,0.72921371,0
0.46487612,-2.5569437,2.9379113,0.11851762,-0.65187877,0.74900442,0
-0.29693368,3.3201339,1.4516138,-0.081670657,0.91319215,0.39926171,0
-3.1184206,-0.85733461,2.2279804,-0.79404241,-0.21830283,0.56730992,0
1.2542261,3.4385023,-1.2874409,0.32325968,0.88622713,-0.33182034,0
-3.2362852,2.0837286,0.015055749,-0.84078664,0.54135251,0.0039114822,0
-2.6695919,-0.37362593,2.5639896,-0.71758139,-0.10042997,0.68919569,0
1.3416457,-0.14739439,3.6698873,0.34311271,-0.037694667,0.9385376,0
-1.2895676,3.6167967,0.77701366,-0.32916895,0.92320651,0.19833685,0
-1.5167475,3.2663586,0.76324403,-0.41201118,0.88727772,0.20732856,0
-0.64290565,0.78629309,-3.6461968,-0.16985552,0.20773846,-0.96332437,0
1.9454737,3.2835262,0.62080079,0.50312805,0.84916806,0.1605482,0
-3.0609086,-1.9614046,1.0380576,-0.80961025,-0.5187915,0.2745662,0
2.1855881,-1.7909312,2.2598045,0.60406381,-0.49498656,0.62457609,0
1.6644262,1.832727,-3.0043824,0.42754239,0.47077391,-0.77173787,0
-0.39321759,1.6865638,3.0878096,-0.11106917,0.47639081,0.87219,0
-2.36064,-0.98450464,2.8744762,-0.61352623,-0.25587103,0.74707133,0
0.76779556,2.0526781,-3.1367757,0.20065042,0.5364328,-0.81974345,0
-0.042858314,-3.5453579,-1.0637568,-0.011577842,-0.95775098,-0.28736567,0
-3.8067923,-0.10364906,-0.52197307,-0.9903698,-0.026965195,-0.13579579,0
-3.0139971,-2.1059041,-1.3355563,-0.77047491,-0.53833705,-0.34141126,0
1.6572942,-3.0296094,-1.6810256,0.43150795,-0.78881621,-0.43768689,0
-0.50664312,2.3840702,-2.8580172,-0.13488325,0.63470936,-0.76088798,0
-2.2775128,2.5799685,-1.6462276,-0.59700656,0.6762895,-0.43152717,0
-2.2611973,-1.5606009,2.5888293,-0.59899479,-0.41340566,0.685785,0
0.3920742,-3.1968844,1.8342878,0.10577916,-0.86249936,0.49487934,0
-3.5555878,-0.094650768,1.4159402,-0.9287588,-0.024723826,0.36985922,0
1.9505725,0.51144701,2.980185,0.54208058,0.14213546,0.82821864,0
0.56720728,-2.4006035,-2.8010128,0.15197133,-0.64319152,-0.75047278,0
-2.9102771,0.84954554,2.3609972,-0.75736743,0.22108483,0.61442339,0
3.4123142,0.45578143,1.9559172,0.86181539,0.11511233,0.49398723,0
-0.90896338,-1.826584,-3.3183212,-0.23334476,-0.46891198,-0.85186368,0
-3.0146425,-0.00078187411,-2.1707413,-0.81150895,-0.000210472,-0.58433992,0
-0.96476805,-3.4355142,-0.39195782,-0.26874736,-0.9570024,-0.10918441,0
-3.3506019,0.65471941,-1.662843,-0.88234133,0.1724126,-0.43788999,0
1.4305179,1.0319197,3.1762068,0.39374411,0.2840316,0.87423772,0
3.4614856,0.23421954,-1.9730129,0.8672837,0.058684278,-0.49434319,0
-0.70896012,-3.4656007,-0.97041029,-0.193279,-0.94480324,-0.26455638,0
3.1161954,-0.37188134,-1.6070371,0.88381684,-0.10547316,-0.45578861,0
0.10467006,-3.5944607,-0.074816734,0.029101186,-0.99936002,-0.020801133,0
-0.72029036,-3.4662914,-0.65968198,-0.20000987,-0.9625181,-0.18318017,0
1.0022615,3.3880136,-0.54598206,0.28034589,0.94767255,-0.15271845,0
-1.7482704,1.0561583,-3.380909,-0.44260061,0.26738214,-0.85592729,0
-2.0201674,1.8569398,-2.6337581,-0.53114533,0.4882293,-0.6924715,0
-1.8653997,-0.85648674,3.087961,-0.50308305,-0.23098747,0.83279783,0
1.9543172,-2.7623067,-1.4932121,0.52839893,-0.74685925,-0.40372753,0
2.727304,-0.06144803,-2.2958753,0.76490837,-0.01723391,-0.6439085,0
-1.0154203,0.2820814,3.5662975,-0.27305394,0.07585375,0.95900351,0
-1.4674268,-1.7940986,-2.9424655,-0.39176348,-0.4789761,-0.78555918,0
3.1633115,0.10507689,-1.8042372,0.86827999,0.028841978,-0.49523517,0
-1.6118991,-1.7781953,2.9318018,-0.42542821,-0.46931872,0.77378988,0
1.0040903,2.4452941,-2.8004234,0.26073644,0.63498002,-0.72719795,0
2.4438255,-0.13479678,-2.9124994,0.64237601,-0.035432246,-0.76557016,0
-2.0995674,3.0356333,-0.124785,-0.56851429,0.82197922,-0.03378889,0
-0.84380132,-3.8207719,-0.45382357,-0.21421345,-0.96996856,-0.11521091,0
3.3169756,1.5601038,-1.2600989,0.85575223,0.40249386,-0.32509509,0
1.0013678,-3.4199667,0.11691657,0.28085151,-0.95919085,0.032791346,0
-3.5582657,1.0062582,0.92110682,-0.9337303,0.26405385,0.24170914,0
-0.67536217,-3.1161015,2.2201278,-0.1738272,-0.80203366,0.57142466,0
2.604512,2.9922118,-0.064342141,0.65646386,0.75418311,-0.016217353,0
3.5541539,-0.43011218,0.45652926,0.98478234,-0.11917517,0.1264948,0
1.0999267,0.82524592,3.4959233,0.2927953,0.21967657,0.93059826,0
-0.40707567,-0.7915771,3.5931752,-0.1099674,-0.2138366,0.97066015,0
3.6621614,-0.086157486,-0.92910773,0.96903974,-0.02279802,-0.24584998,0
-2.0222626,-2.1240191,-2.2698481,-0.54529995,-0.57273841,-0.61206096,0
-1.9764533,2.8815744,-0.95974082,-0.54542947,0.79521012,-0.26485369,0
0.6183638,-0.74266458,3.6660545,0.16310115,-0.19588704,0.96696758,0
3.189326,-0.74247998,1.5136564,0.88407606,-0.20581426,0.41958314,0
-3.3483181,1.6508248,-0.89933765,-0.87196779,0.42990717,-0.23420519,0
2.7865901,-0.97620684,2.2266805,0.75351316,-0.26397306,0.60210973,0
-1.8817824,-2.8759809,1.3140372,-0.51141691,-0.78161281,0.35711929,0
1.604646,2.9373083,-1.7896085,0.42278254,0.77390444,-0.47151536,0
0.86329091,3.4961367,-1.1751453,0.2278994,0.92294204,-0.31022558,0
-3.2000048,-1.4210355,-1.3052226,-0.85637027,-0.38029087,-0.34929755,0
-3.3623602,-0.79678679,-1.9521519,-0.847202,-0.20076355,-0.49187681,0
-3.1790166,1.4026052,-1.7182448,-0.82011318,0.36183989,-0.44326764,0
-2.0545747,1.6497788,-2.6269894,-0.5521909,0.44339728,-0.706034,0
1.0313611,-3.5389321,-0.38405666,0.27828676,-0.95489144,-0.10362799,0
3.0861511,-0.7019552,1.773376,0.85066265,-0.19348601,0.48881102,0
0.70170945,-2.3579538,2.764092,0.18963356,-0.63722557,0.7469824,0
-2.7212358,2.4855711,0.22685394,-0.73696041,0.67313814,0.061436195,0
-2.3258672,0.91835105,2.8484752,-0.61362678,0.24228589,0.75150496,0
0.15245058,2.5269201,2.9592047,0.039147254,0.64887899,0.75988388,0
2.0121539,-2.977237,-0.65568048,0.55085921,-0.8150661,-0.17950298,0
-1.8208586,3.1650579,-0.045216545,-0.49862847,0.86672735,-0.012382212,0
-3.4257059,1.4504673,0.23283744,-0.91905987,0.38913622,0.062466405,0
-0.92769217,-2.1877699,-2.7599328,-0.25472039,-0.60070527,-0.75780648,0
-1.3562351,2.8775401,-2.0489571,-0.35842335,0.76047105,-0.54149467,0
0.94038129,-0.30281451,3.5184574,0.25731966,-0.082860142,0.96276724,0
-0.24727909,-2.0398848,3.0362592,-0.067448027,-0.55640048,0.82817227,0
-2.3598585,-0.80673593,2.8583119,-0.62209982,-0.21266964,0.75350082,0
-2.4042952,2.2883139,1.4056952,-0.66701126,0.63483512,0.3899748,0
-3.3232102,0.39293936,-1.2059498,-0.93426621,0.11046848,-0.33903307,0
-1.2012579,3.0869608,-1.7662948,-0.31999832,0.82232326,-0.47051626,0
-2.9276414,1.2834398,2.0869076,-0.76689547,0.33619696,0.54666531,0
0.28157046,0.73064399,3.8732989,0.071253829,0.18489575,0.98017162,0
0.58919597,-1.8568339,3.2989304,0.15378976,-0.48466393,0.86107463,0
-3.8261509,0.016757157,-0.58832759,-0.98837447,0.0043287226,-0.15197727,0
3.0431812,0.29890928,-2.1700704,0.81160146,0.079717636,-0.57874709,0
-2.4478266,-1.9542838,2.1798787,-0.64143986,-0.51210964,0.57122558,0
-3.4974883,-0.85993445,0.21286482,-0.96938682,-0.23834507,0.058999009,0
1.7283539,3.1611359,0.83214986,0.46742219,0.85490888,0.22504959,0
0.7880159,3.4057436,-1.4561933,0.20809036,0.8993504,-0.38453513,0
2.3277009,-2.4905357,-1.838554,0.60098493,-0.64302701,-0.474693,0
0.49314582,-3.1179037,1.6582061,0.13830295,-0.87441742,0.46504459,0
-2.1803126,-0.81725931,2.8503187,-0.59239769,-0.22205189,0.77444041,0
3.1249924,1.6372356,-1.4193345,0.82177961,0.43054405,-0.37324259,0
-0.86759222,-3.582319,0.62217647,-0.23209912,-0.95834547,0.16644526,0
-0.21154296,-2.9925096,-2.0367072,-0.058340222,-0.8252871,-0.56169182,0
0.72126251,-3.6447203,-1.0876312,0.18630901,-0.94146615,-0.28094557,0
-0.10291536,-3.4151871,1.522423,-0.027513281,-0.91301239,0.40700293,0
-2.1939452,2.9660504,-0.36959881,-0.59171784,0.79995841,-0.099682622,0
-0.80831409,3.0805223,-2.3937178,-0.20288613,0.77320844,-0.60082108,0
0.93433625,1.0650537,-3.4924674,0.24790649,0.28258961,-0.92665285,0
2.825645,2.6113791,0.063827991,0.73430187,0.67862046,0.016587013,0
-2.9972377,0.58573103,2.0682716,-0.81261289,0.15880375,0.56075102,0
0.087697342,1.6006336,3.2149577,0.024411593,0.4455553,0.89492154,0
0.46252042,-3.5031593,1.1300169,0.12467361,-0.94428593,0.30459908,0
-0.19077206,2.9356143,-2.4112997,-0.050153542,0.77176636,-0.63392526,0
1.2967515,2.6086485,-2.3871017,0.34430563,0.69263262,-0.63380885,0
2.0546002,-0.95815349,-2.8302009,0.56659549,-0.26422924,-0.78048223,0
1.6903515,-1.0379977,3.1082733,0.4584268,-0.28150713,0.84297013,0
3.2377141,-0.96644032,1.7491359,0.85096186,-0.25400755,0.45972183,0
1.493313,1.4492627,2.920094,0.41646263,0.4041777,0.81437051,0
-3.3636377,0.93049872,-1.4174567,-0.89296049,0.24702381,-0.37629882,0
3.0325189,1.1751431,-1.4867581,0.84802628,0.32862195,-0.41576326,0
2.7492673,0.50336778,2.4471009,0.7400738,0.1355013,0.65873379,0
-0.96723986,2.8230078,2.4916458,-0.24880299,0.72616196,0.64092577,0
-2.2471797,2.955833,0.52238387,-0.59930867,0.788302,0.13931648,0
1.3264152,-3.4366269,0.26149368,0.35917124,-0.93058163,0.070808157,0
1.8919111,-0.96293354,2.9046938,0.52585936,-0.26764873,0.80736369,0
2.6321018,-1.8832587,-2.1286938,0.67947078,-0.48615873,-0.54951721,0
-1.2818418,-0.1022584,-3.6648817,-0.33003709,-0.026328571,-0.94360077,0
3.4313602,1.2183985,1.3595109,0.88283032,0.31347308,0.34977889,0
-1.678785,1.1896056,-2.8300362,-0.47979811,0.33999023,-0.80882663,0
-0.70787549,0.63341343,3.4711676,-0.19669808,0.17600723,0.96453685,0
-3.6606283,-0.47724655,-0.3422482,-0.98737407,-0.12872677,-0.09231393,0
-3.4921472,-0.50543964,0.37963668,-0.98400855,-0.14242153,0.10697308,0
-3.136976,-2.2192233,-0.50527477,-0.80940074,-0.57260275,-0.13037071,0
-0.88070732,-3.3087227,1.3475523,-0.23935102,-0.89921606,0.36622611,0
-0.78403568,-0.43044931,3.6724501,-0.20742783,-0.11388151,0.97159904,0
-0.27774444,-3.4749074,1.0580487,-0.076240174,-0.95385367,0.2904318,0
-0.3747704,1.1269615,-3.3683867,-0.10492986,0.31553161,-0.94309574,0
-3.2653282,-1.3127109,1.4620354,-0.85683417,-0.34446019,0.38364351,0
0.80261248,0.5976162,-3.4679885,0.22236295,0.16556895,-0.96080261,0
1.4781886,0.52588618,3.3445954,0.40012589,0.14235036,0.90533727,0
0.14914535,-2.2265377,-3.1215937,0.038868334,-0.58025146,-0.8135094,0
2.3173649,0.27096465,3.0246918,0.60664082,0.070933245,0.79180515,0
3.2784884,0.91111749,1.9894072,0.83176184,0.2311531,0.50471824,0
-2.7444663,2.5055709,0.18044358,-0.73764938,0.6734398,0.048499085,0
2.7098005,0.33443898,2.6694365,0.70965499,0.087584414,0.69908428,0
-1.2814786,2.2520285,-2.8497474,-0.33271268,0.58469832,-0.73988521,0
-1.8052971,-1.1730332,2.9128079,-0.49841276,-0.32385513,0.80417824,0
0.33062196,-2.0207198,3.0693448,0.089608014,-0.54767287,0.83188027,0
-3.0572445,-2.2050295,-0.88078177,-0.78978068,-0.56962723,-0.22753313,0
-0.58262831,-2.3143442,3.0216784,-0.15131322,-0.60105366,0.78475398,0
-1.1987243,1.782602,3.0720713,-0.31977656,0.47553414,0.81951827,0
0.65967268,-3.283715,1.714828,0.17531477,-0.8726809,0.45573312,0
-0.57951146,1.9860991,3.1279304,-0.1545261,0.5295912,0.83405924,0
-1.7562274,3.4608328,-0.40410653,-0.45009282,0.88695574,-0.103566,0
-0.26503906,1.4289627,-3.5832314,-0.068543173,0.36955169,-0.92667866,0
-3.0665755,-0.67265284,-2.1659231,-0.80400443,-0.17635824,-0.56786853,0
-0.80740839,2.3727748,-2.7984614,-0.21492064,0.63159895,-0.74491066,0
-3.4967773,0.068225816,1.1713097,-0.94805491,0.018497553,0.31756839,0
3.0948772,1.609198,1.1605552,0.84186155,0.4377304,0.31569162,0
-0.14613394,0.72772521,3.8331788,-0.037428189,0.18638678,0.98176324,0
-2.8318372,-1.1710616,2.1013119,-0.76213378,-0.31516841,0.56552714,0
-0.11114996,1.5091785,3.2602081,-0.030924026,0.41988206,0.90705168,0
0.93997782,0.83633327,-3.62938,0.2447045,0.21772271,-0.9448368,0
0.7756511,-3.4494064,1.2505856,0.20682923,-0.91979253,0.33347166,0
-3.1218305,0.56786603,2.2788351,-0.7991206,0.14536133,0.58333212,0
1.9757015,3.2795293,-0.19951802,0.515329,0.85541087,-0.052040972,0
-0.62545305,-2.746712,-2.4461887,-0.16764228,-0.73621047,-0.65566015,0
3.5128949,0.67620319,-0.41924068,0.9752984,0.18773687,-0.11639539,0
1.3501599,3.2821591,0.16004494,0.38004616,0.92386979,0.04504982,0
3.337101,-1.5715486,0.44632807,0.89814764,-0.42296672,0.12012477,0
-1.3910449,-3.586477,0.58557594,-0.35749325,-0.92171097,0.15049079,0
1.3333445,-3.3852255,-0.43405539,0.36388958,-0.92387855,-0.11846019,0
-1.5052071,0.60054392,3.513572,-0.38901266,0.15520735,0.90806377,0
-0.096616171,-2.9757376,-1.9098834,-0.027314069,-0.84126186,-0.53993744,0
3.8189294,-0.81081349,0.035272513,0.97815585,-0.20767651,0.0090344725,0
-1.9227036,2.8746822,0.99057233,-0.53445935,0.79908347,0.27535218,0
-3.5813777,0.65883404,-1.0779091,-0.94304872,0.17348424,-0.28383511,0
2.3454139,3.1006436,0.34661371,0.6008926,0.79438168,0.088802077,0
0.06984061,-1.5469143,-3.3020627,0.019149555,-0.42414752,-0.90539062,0
-0.22858165,3.8316462,-0.7754792,-0.058371067,0.97845685,-0.19802792,0
-3.5275609,-1.2306291,0.77802056,-0.92436266,-0.32247424,0.20387264,0
-1.7491227,0.89274943,-3.0054994,-0.48719513,0.24866362,-0.83714235,0
-2.5582621,2.4642386,0.23755877,-0.71861261,0.69220155,0.066729963,0
1.3615899,2.696203,2.4243789,0.3515487,0.69613224,0.62595004,0
-0.23888604,-3.3604903,1.462845,-0.065040939,-0.9149527,0.39828533,0
0.49155226,-1.0940005,-3.5638747,0.13072245,-0.29093632,-0.94776988,0
1.3965629,-0.39318499,3.5170584,0.36707601,-0.1033457,0.92443222,0
-3.5307913,1.3518919,-0.54981768,-0.9241643,0.35384992,-0.14391162,0
