-2.4621143,-3.0532901,-0.019563731,-0.62771118,-0.77843028,-0.0049877344,0
-2.6247478,0.51723784,-3.2209826,-0.62686962,0.12353213,-0.76926863,0
-2.1052461,3.2387419,-1.5458399,-0.50598794,0.77841938,-0.37153679,0
2.730026,-0.46109593,-2.958348,0.67377299,-0.11379891,-0.7301231,0
1.2680359,-3.7782416,-1.5857362,0.2956318,-0.88086498,-0.36970094,0
-3.2062793,-2.3808908,1.4874529,-0.75236201,-0.55868244,0.34903479,0
3.5508363,0.89025438,1.990986,0.8521049,0.21363702,0.47778291,0
-3.4199884,0.25296709,2.0261443,-0.85861158,0.063509129,0.50867742,0
-3.4557426,-1.2620012,1.9855819,-0.82661587,-0.30187151,0.47495249,0
-3.1931679,1.0115089,2.1905408,-0.79784477,0.25273558,0.54732841,0
-3.4195042,-2.3718488,-0.47506461,-0.81638372,-0.56626302,-0.1134185,0
0.6625182,0.17809613,4.0761704,0.16028023,0.043086044,0.98613071,0
2.5959878,-3.173692,-0.77286357,0.62218332,-0.76064229,-0.18523307,0
-0.59859407,-0.59993911,-4.1914454,-0.13998052,-0.14029507,-0.98016465,0
-2.6205387,-1.0851531,3.0957179,-0.62414575,-0.2584559,0.73732132,0
1.6037055,-3.8161476,0.20478046,0.38694894,-0.92077643,0.049410306,0
0.86408567,3.8254607,1.7960478,0.20031963,0.88685054,0.41637495,0
1.7495184,0.7385509,3.694685,0.42114946,0.17778625,0.88939595,0
1.5770669,-3.7522523,-0.68941808,0.38202512,-0.90893716,-0.16700308,0
-3.3774693,1.3740724,1.7411119,-0.83587301,0.34006232,0.43089908,0
2.2714863,1.574361,3.2547276,0.53198421,0.36871681,0.76226026,0
-3.6202519,2.3147898,-0.26063454,-0.8409552,0.53770691,-0.060543295,0
-1.2492036,0.99679154,-4.0043693,-0.28973722,0.23119339,-0.92876363,0
-0.53746289,2.4466016,-3.2415299,-0.13119687,0.59722543,-0.79127067,0
2.0020509,2.409204,2.6321759,0.48931295,0.58882356,0.64331919,0
2.2790725,-0.84528476,-3.0851665,0.58025432,-0.21521041,-0.7854867,0
1.319659,3.768858,0.3170867,0.32943809,0.94085324,0.079157144,0
-1.492816,-3.9033771,-1.2152017,-0.34300333,-0.89687634,-0.27921608,0
-1.5566294,1.7258177,-3.6315784,-0.36103278,0.40027303,-0.84228069,0
3.8624883,0.64943367,-1.6190039,0.91136593,0.15323587,-0.38200894,0
-4.3034058,0.5913015,-0.22542228,-0.98936051,0.13594125,-0.051824976,0
-3.5394018,0.080727868,1.9362792,-0.87712574,0.020005779,0.47984388,0
3.6535523,-1.8991544,-0.7210505,0.8739869,-0.45430747,-0.17248657,0
-3.5513859,2.0977247,0.030512955,-0.86099023,0.50856775,0.0073974938,0
0.26461658,-2.7894716,2.8460329,0.066255517,-0.6984365,0.7125985,0
3.290761,-1.08928,-2.6480672,0.75439864,-0.24971469,-0.6070627,0
-0.77314454,-2.0366423,-3.6091735,-0.18339817,-0.48311338,-0.85613465,0
3.099957,-0.11362071,-2.8767416,0.7327401,-0.026856646,-0.67997843,0
-1.978092,-3.1408322,1.560727,-0.49125558,-0.78002,0.38760373,0
2.8223367,-2.5971119,-1.3378655,0.69480163,-0.6393559,-0.32935515,0
-0.13002771,2.9371285,3.1438663,-0.030208364,0.68236107,0.73039091,0
0.73249668,0.71248746,4.1362586,0.17192282,0.16722649,0.97081292,0
1.6832546,-3.7362444,-0.54908621,0.40712085,-0.90366787,-0.1328049,0
0.61440349,-3.85765,1.0114875,0.15226461,-0.9560225,0.25067198,0
1.1132009,1.9934392,-3.4170496,0.27087471,0.48506272,-0.83146924,0
3.3855097,-0.24873795,2.1519163,0.84232587,-0.061886813,0.53540379,0
-3.1674695,2.8317599,0.43427998,-0.7416451,0.66304058,0.1016842,0
0.46301186,-0.89820844,3.8245673,0.11704588,-0.22706027,0.96682155,0
3.8674214,-0.49878967,1.8160657,0.89906412,-0.11595424,0.42218298,0
-0.87822735,2.5311482,-3.0390794,-0.21677029,0.62475592,-0.75012714,0
-2.7827816,-3.3429074,-0.3967649,-0.63713545,-0.76537979,-0.090841837,0
-2.9420943,0.64428484,2.8293471,-0.7119683,0.15591288,0.68468416,0
-2.4490969,-3.1803539,-0.80614245,-0.59818482,-0.77679223,-0.19689795,0
-2.3302429,-3.0291696,-1.9109395,-0.5453552,-0.70892757,-0.44722411,0
0.51893592,-3.9760098,-0.63508397,0.12782572,-0.97938168,-0.15643564,0
-4.1880507,-0.75062054,-0.54808265,-0.97624898,-0.17497222,-0.12775995,0
-3.1462274,1.7130184,-1.818902,-0.78309971,0.42637232,-0.45272687,0
-2.5114954,0.50387651,-3.2540436,-0.60645211,0.12167133,-0.78575563,0
-0.29016492,4.0779057,-0.12423737,-0.070943177,0.9970178,-0.030375117,0
-1.8450569,3.0447192,-2.0899439,-0.44693485,0.73753339,-0.50625473,0
2.393908,2.5917811,-1.6828083,0.61241555,0.66303599,-0.43050024,0
2.632797,-1.6254766,2.8642931,0.62441927,-0.38551354,0.67932308,0
3.8639841,-1.4417659,0.10493827,0.93660098,-0.34947333,0.025436254,0
-0.61163116,-3.9434264,0.98003423,-0.1488459,-0.95966798,0.23850006,0
2.6394353,-2.4789608,1.8229854,0.65106493,-0.61148101,0.44967267,0
0.0042528394,2.241837,3.7838328,0.00096697302,0.50972909,0.86033446,0
2.1702623,2.7486696,-2.4205289,0.50978023,0.64564431,-0.5685662,0
-2.0459635,2.5401461,2.614332,-0.489456,0.60767931,0.62542683,0
-2.1281333,3.125648,-1.9197972,-0.50182545,0.73704493,-0.45269868,0
-1.0190437,-3.6577151,-1.9391558,-0.2390143,-0.85790849,-0.45482445,0
-3.1844242,2.6044257,0.058393992,-0.77399993,0.6330266,0.01419313,0
-0.33503887,-4.070034,-0.20787063,-0.081934877,-0.99534041,-0.050835457,0
1.0029514,2.6280973,-3.1819382,0.2361518,0.61880356,-0.74920923,0
-0.94488752,0.7232945,-4.1257997,-0.22004978,0.16844417,-0.96083534,0
-4.0110617,-0.51188183,1.0126821,-0.96223772,-0.12279841,0.2429384,0
3.4984188,2.2581136,0.59693295,0.83167684,0.53681988,0.14190848,0
-1.063428,-3.2827954,-1.87221,-0.27087405,-0.83618641,-0.47688523,0
-2.9673555,-1.7516207,2.3114178,-0.71515983,-0.4221566,0.55707288,0
-3.0612173,0.58030242,-2.9541588,-0.71297491,0.13515574,-0.68804038,0
2.2416561,-1.7359579,-3.1540477,0.52856034,-0.40932173,-0.74369329,0
2.4534233,0.70697045,-3.0749075,0.6138519,0.17688558,-0.76934868,0
0.72529829,0.72343087,-4.0605278,0.17319499,0.17274907,-0.9696191,0
1.0173899,-1.1194,4.0518336,0.23523547,-0.2588217,0.9368434,0
-1.076055,-2.9026895,3.0742395,-0.24664046,-0.66531974,0.70464039,0
-1.7809062,-3.4871197,-1.460165,-0.42616007,-0.83444661,-0.34940866,0
-0.16847,-2.4291778,-3.1057148,-0.042688608,-0.6155293,-0.78695703,0
-1.3418419,-3.810729,-0.56796932,-0.32889879,-0.93404752,-0.13921492,0
-1.2307997,2.9057021,-2.7355804,-0.29471147,0.69576204,-0.65502691,0
-2.8136063,0.59787226,-3.0257936,-0.67394412,0.14320855,-0.72476941,0
-0.22855006,-2.8870585,2.6957386,-0.057764877,-0.72968948,0.68133438,0
-2.183394,-2.8355653,-2.3234594,-0.51170963,-0.66455537,-0.54453599,0
-2.6583483,-3.2699635,-0.53078169,-0.62586272,-0.76985711,-0.12496348,0
-0.46589878,-3.8545468,-0.94860595,-0.11656782,-0.96440715,-0.23734109,0
-3.7670431,0.083571784,-2.0203552,-0.88108784,0.019546919,-0.47254848,0
2.4493382,0.75622737,3.1745887,0.60027838,0.18533453,0.77802122,0
-2.2491777,-3.0712414,-0.64351296,-0.58257449,-0.79550272,-0.16668059,0
-2.2255728,-0.068606853,-3.3618503,-0.55192822,-0.017014073,-0.83371794,0
0.49513,4.0854578,0.84075439,0.11787812,0.9726457,0.20016268,0
-2.4124293,2.7822292,-1.8175697,-0.58745158,0.67750168,-0.44259709,0
-0.011567641,-3.2266695,-2.6060479,-0.0027889616,-0.77795094,-0.62831891,0
-1.4147793,1.3216776,3.8031285,-0.33151811,0.30970207,0.89116794,0
-3.6924851,0.79215163,1.7751997,-0.88486785,0.18983138,0.4254092,0
-3.6035204,1.5634968,-1.7084512,-0.84124881,0.36500138,-0.39884123,0
-1.00658,0.26852566,4.1166635,-0.23704107,0.063235521,0.96943939,0
-3.0413768,2.6862564,0.096803144,-0.74929583,0.66180575,0.02384913,0
-3.647603,1.8856527,1.0797614,-0.85911423,0.44412482,0.25431451,0
2.1657369,-2.8425636,-2.2261605,0.51439381,-0.67514992,-0.52874523,0
-2.6903076,2.2289774,2.0067403,-0.66773045,0.55322897,0.49807006,0
4.2602177,0.67858613,-0.37414122,0.98385733,0.15671311,-0.086404406,0
-3.6238894,0.52258891,2.0683475,-0.86176318,0.12427197,0.49185431,0
-3.8202767,0.92378354,1.1543077,-0.93259859,0.22551227,0.2817874,0
4.3207812,0.040862661,-0.29885685,0.99757206,0.0094342772,-0.068999387,0
0.75112295,3.5923924,-1.6506575,0.18665177,0.89269859,-0.41018337,0
0.15824968,-3.3513706,-2.7501366,0.036478188,-0.77252561,-0.63393492,0
1.0994371,-3.6700764,-1.0625179,0.27653071,-0.92309862,-0.26724479,0
4.1066966,-1.148808,-0.29851502,0.96067804,-0.26874024,-0.069831505,0
2.5859032,-1.6062646,-2.9307866,0.61194754,-0.38011852,-0.69356334,0
-0.77817023,2.709918,2.9783709,-0.18974178,0.66076112,0.72621816,0
1.3420637,-2.9236226,2.8353598,0.31297255,-0.68179601,0.66121292,0
-0.91000468,0.50801998,-4.0257382,-0.2188323,0.12216551,-0.96808463,0
0.97918868,-3.7766013,1.6217158,0.23175502,-0.89384848,0.38382876,0
-0.5778445,-0.55050385,4.0058851,-0.14146855,-0.134775,0.98072547,0
-0.68055123,-0.45886713,3.9289095,-0.16955574,-0.11432432,0.97886705,0
0.43601161,-3.3860276,2.518121,0.1027797,-0.79817808,0.59358907,0
-3.4375587,-1.3646079,-1.4577472,-0.86470252,-0.34326103,-0.3666898,0
3.6685665,-2.0696883,-0.80302286,0.8555451,-0.48267129,-0.18727268,0
-1.1786706,3.1394386,2.5952001,-0.27796668,0.74037588,0.61202776,0
3.1025031,-2.1598985,1.695976,0.74879807,-0.52129775,0.40932873,0
2.1301489,-2.9248946,-1.3910882,0.54949552,-0.75450897,-0.35884663,0
0.79558909,3.2472868,-2.3679345,0.19419087,0.79261196,-0.57797581,0
-0.065856211,-3.6494393,-2.4462578,-0.01498788,-0.83055735,-0.5567314,0
1.2144613,-0.72820723,-3.8536031,0.29581034,-0.17737184,-0.93863481,0
-1.8374165,3.5064487,0.24041401,-0.46329322,0.88412941,0.060618907,0
-3.0457106,1.0466404,-2.5054994,-0.74643183,0.25650689,-0.61403883,0
2.2598112,-0.00766348,-3.3871791,0.55498683,-0.0018820735,-0.83185703,0
-1.6150274,3.205277,2.2630408,-0.38062897,0.7554183,0.53335249,0
-3.9755275,-0.16217475,-0.11434592,-0.99875665,-0.040742546,-0.028726691,0
0.22771719,-3.7971153,-1.2671154,0.056795418,-0.9470464,-0.31603387,0
3.9033344,-1.0136642,0.66198909,0.95511264,-0.248035,0.16198309,0
1.6194783,3.1797817,-2.4068298,0.37625119,0.73875433,-0.55917549,0
0.51249701,3.9795048,-0.71923172,0.12572533,0.97624874,-0.17644131,0
3.2886493,-2.6758039,1.0766455,0.75181544,-0.61171335,0.24613103,0
2.5252159,0.60963809,3.420403,0.58793509,0.1419394,0.79635769,0
-2.9283166,1.4371125,2.8771186,-0.67325372,0.33040872,0.66148275,0
0.42817977,2.6738987,-3.4672771,0.097325943,0.60778141,-0.78811759,0
-0.73725271,-0.55417919,-3.9916348,-0.179958,-0.1352711,-0.97432894,0
2.9723587,-1.1127042,2.5483527,0.73026013,-0.27337328,0.62608874,0
-1.7309387,3.4187322,1.7510208,-0.41084978,0.81145877,0.41561642,0
-1.5905304,-3.530956,1.3764588,-0.38699061,-0.85911393,0.33490503,0
-4.0092859,1.1921549,0.32354096,-0.95566827,0.28416646,0.077120423,0
2.5635145,-3.0518341,0.18725954,0.64247948,-0.76486433,0.046931826,0
0.98560059,-1.7408553,-3.5237999,0.24323472,-0.4296228,-0.86963272,0
1.8880979,2.5763369,-2.8033156,0.44427672,0.60622203,-0.65963101,0
-0.80451083,0.59367269,3.8972471,-0.19995505,0.14755283,0.96863109,0
0.27822483,-2.0070963,-3.7059855,0.065871313,-0.4751915,-0.87741321,0
-3.5747259,-0.8728444,1.7480252,-0.87748462,-0.2142563,0.42908612,0
0.32055989,-3.9354169,1.6582981,0.074852608,-0.91894287,0.38722232,0
3.6037014,0.9864971,1.9585289,0.85426295,0.23385064,0.46427226,0
-0.35852504,-3.8325505,-1.6151632,-0.0858863,-0.91810489,-0.38691968,0
-0.14415796,2.774931,3.2527854,-0.033697188,0.64864516,0.76034456,0
3.8860719,-0.35217318,-1.3195595,0.94343209,-0.085498028,-0.320353,0
-3.5383677,-1.9068989,-0.12169553,-0.87989914,-0.47419569,-0.030262485,0
2.0974116,3.1411092,-2.1096544,0.48481178,0.72606003,-0.48764166,0
-2.2751966,3.4783258,-0.6093334,-0.5416128,0.82801896,-0.14505243,0
-0.35939363,3.3241074,2.0829699,-0.091234237,0.84384471,0.52877444,0
-0.73278707,-2.497144,2.9790168,-0.18525027,-0.63128376,0.7531023,0
-0.054596473,4.3299527,-0.41403583,-0.012550781,0.995381,-0.095179647,0
1.001675,2.0160296,-3.416662,0.2448117,0.4927223,-0.83504009,0
-0.85647553,-0.31693509,3.9373517,-0.21190065,-0.078412928,0.97414041,0
-1.0144045,-2.8080866,-2.8907056,-0.2440946,-0.67570555,-0.69558603,0
3.0361452,-1.8235828,2.1862521,0.72946906,-0.43813688,0.52527237,0
-3.9820123,0.18626069,-1.4406959,-0.93943822,0.043942709,-0.33988965,0
3.7442887,0.38600656,1.5019811,0.92389226,0.095245987,0.37060946,0
-3.7314007,1.5596143,-0.73474008,-0.90778965,0.37942901,-0.17875041,0
-0.32628378,-3.1779644,-2.6152005,-0.079030462,-0.76974714,-0.63343787,0
-1.1366317,-3.9247389,1.1697017,-0.26743382,-0.92343712,0.27521473,0
1.6985625,3.4470127,-1.7677238,0.40156311,0.81492031,-0.41791376,0
-0.33684537,-2.6064203,3.1370237,-0.082309805,-0.63689148,0.76654702,0
-0.15038045,4.1762338,1.3401756,-0.03426633,0.95161444,0.30537814,0
-2.9909377,2.9945633,-0.36059049,-0.70412743,0.70498097,-0.084890321,0
3.2694058,2.1686954,1.0487813,0.80506247,0.53402221,0.25825319,0
-2.1564896,-3.5455203,0.048817072,-0.5196203,-0.85431629,0.011762793,0
-0.86384183,3.8073215,-0.83865529,-0.21633083,0.95346272,-0.21002339,0
0.8351571,-3.4843111,-2.4327664,0.19283907,-0.80453283,-0.56172955,0
2.079427,1.9727111,3.0751004,0.49465534,0.46926969,0.73150671,0
-2.6997011,-2.4084573,1.9423828,-0.65744948,-0.58652383,0.47302222,0
-2.1839929,0.94715619,3.3052912,-0.53617108,0.23252721,0.8114503,0
0.20338325,3.6383209,1.6307005,0.050944727,0.91134971,0.40846822,0
1.3897581,3.9036541,-0.51562494,0.33282667,0.93486792,-0.12348461,0
-2.989255,2.1253095,-1.2471465,-0.77161759,0.54860699,-0.32192644,0
-3.2391102,2.4694762,-0.26299724,-0.79359174,0.60502911,-0.064435117,0
-0.047807768,-3.8839877,1.5797424,-0.011401162,-0.92625058,0.37673584,0
-4.1385555,-0.98940283,-0.18401548,-0.97168416,-0.23230015,-0.043204669,0
-2.8519719,2.4102008,-2.0943999,-0.66615003,0.56296325,-0.48919997,0
1.2915996,1.1130912,3.7997582,0.31012458,0.26726311,0.91235578,0
-4.0829368,-0.64020318,0.81501865,-0.96926147,-0.15197988,0.1934799,0
0.059149303,2.5090728,-3.3711245,0.014073825,0.59700203,-0.80211627,0
0.13200514,-1.473115,3.9959295,0.030980853,-0.34573168,0.93782187,0
2.4441304,-1.9930269,-2.6014938,0.5978443,-0.48750252,-0.63633603,0
1.3750401,3.0675833,2.4824383,0.32904261,0.73406273,0.59403944,0
-2.2346978,-3.4076879,-0.82941782,-0.53736484,-0.81942695,-0.19944529,0
-2.5711341,2.6227438,-2.1418571,-0.60472888,0.61686748,-0.50376326,0
1.8022627,3.4292939,-1.1812985,0.44498724,0.84670895,-0.29166824,0
-0.48354858,-4.172163,-0.63873029,-0.1138195,-0.9820596,-0.15034677,0
0.4028475,-4.1947536,0.87615508,0.093594663,-0.97457862,0.20355952,0
-0.20257209,2.5995448,3.1866376,-0.049198527,0.63134944,0.77393621,0
3.3972609,0.78725201,2.1507046,0.82917565,0.19214603,0.52492642,0
-3.4318614,1.4288594,-1.7929342,-0.83151937,0.34620401,-0.43441716,0
-3.9833906,0.48258409,-0.58925307,-0.98220664,0.11899342,-0.14529538,0
1.7991935,0.50747001,3.7998204,0.42486235,0.1198342,0.8972913,0
1.7939794,-0.39854416,-3.6974795,0.43448386,-0.096523412,-0.89549255,0
3.0055742,1.8651285,2.0678096,0.73354667,0.45520714,0.5046739,0
-2.5015795,0.97780454,3.3647754,-0.58104479,0.22711581,0.78154033,0
2.8580492,0.46261233,-3.0925727,0.67465276,0.1092013,-0.73001289,0
-1.9850917,-2.7942584,2.3596637,-0.47703552,-0.6714856,0.56704861,0
1.647477,0.48632404,3.7581856,0.39869747,0.11769278,0.90949923,0
-3.6579206,-2.4069495,-0.20509514,-0.83445787,-0.54908192,-0.046787035,0
-1.4033707,-1.6152338,3.5740635,-0.33689389,-0.38775384,0.85799152,0
-2.6178322,-2.4461806,-2.3454485,-0.6113165,-0.57123238,-0.54770941,0
-2.2073097,-0.1322234,-3.3178163,-0.55360174,-0.033162136,-0.83212101,0
-2.3450372,3.2441957,-0.46656221,-0.58188105,0.80499184,-0.11576946,0
-0.3874037,2.871954,-2.805968,-0.096039049,0.71196979,-0.6956116,0
-1.2865777,-1.4674188,3.5512826,-0.31750217,-0.36213019,0.876387,0
2.1176126,-2.6249764,-2.2903104,0.51942998,-0.64388144,-0.56179106,0
-2.3006477,1.1171865,-3.2301426,-0.55840135,0.27115774,-0.7840035,0
4.1014299,-0.22553378,-0.3278569,0.99532604,-0.054732043,-0.079563595,0
2.9885278,2.025378,-1.956961,0.72775954,0.4932155,-0.47655475,0
0.23486502,-3.844418,1.2015769,0.058211818,-0.95284754,0.2978135,0
2.0382059,1.4861822,-3.6342969,0.46072319,0.33594182,-0.82150918,0
-2.3182108,2.9144866,-1.5283617,-0.57588905,0.72401565,-0.37967503,0
0.3967492,0.97651243,-4.0252695,0.095349871,0.23468311,-0.96738428,0
4.1740446,0.39669752,0.019478755,0.99550343,0.094611771,0.004645654,0
3.7581632,1.724007,0.22789018,0.90754849,0.41632569,0.05503257,0
-2.0241907,1.2326559,-3.2307651,-0.50518596,0.30763921,-0.8063159,0
0.59738338,1.0710015,-3.8811398,0.14676724,0.26312742,-0.95353204,0
-1.3845639,-2.9977965,-2.6350949,-0.3277359,-0.70959926,-0.62374526,0
-0.68134105,1.6518209,3.872016,-0.15977359,0.38734984,0.90798265,0
-2.4439995,2.8321991,1.9113057,-0.58177978,0.67418844,0.45497513,0
-4.1491423,0.32344666,-0.26888743,-0.99490088,0.077557564,-0.064475097,0
3.1273372,1.0237014,-2.7007365,0.73463142,0.24047399,-0.63442022,0
-2.3120525,1.8281062,2.6907423,-0.57932436,0.45806333,0.67421162,0
-0.92809045,3.996969,0.45994315,-0.22477353,0.96802288,0.11139328,0
-1.3150221,-2.8448248,2.8785403,-0.30902538,-0.66852343,0.67644644,0
3.4473486,1.8174521,-1.3024718,0.83897763,0.44231144,-0.3169812,0
-1.1329904,3.7806921,-0.47989014,-0.28496617,0.95090783,-0.12070046,0
-0.17664292,3.3068094,-2.1214356,-0.04491565,0.84083468,-0.53942531,0
0.52657878,-2.1912606,3.20011,0.1345363,-0.55984801,0.81760025,0
-4.0665359,-0.99139488,-0.0599312,-0.97144514,-0.23683198,-0.014316822,0
3.8205023,-0.58537847,1.5172222,0.92011237,-0.14097989,0.36540088,0
-2.0732644,3.5614817,-0.31119546,-0.50167,0.86177558,-0.075300306,0
4.0980139,0.32130456,1.0909394,0.96358252,0.07554964,0.25651699,0
-3.2748275,-0.61228913,-2.2788565,-0.81132239,-0.15169163,-0.56457549,0
-2.7015889,-3.1036413,0.14136751,-0.6561749,-0.75382733,0.034336023,0
0.78455907,2.064894,3.3612378,0.19506235,0.5133878,0.83569354,0
-2.4515243,-3.3171339,0.7441501,-0.58490598,-0.79143065,0.17754582,0
-3.1476517,-1.2344825,2.6041105,-0.73755658,-0.28926349,0.61019421,0
-1.8594627,2.2660539,-2.9358149,-0.44820502,0.54620981,-0.70764899,0
3.2927141,2.2128377,-1.0820928,0.80073375,0.53812563,-0.26314712,0
0.81287509,-3.3287749,1.9739776,0.20555681,-0.84176815,0.49917206,0
0.80422539,-0.54764706,4.1266251,0.18968566,-0.12916876,0.97331125,0
-0.95547199,-4.0496292,-0.66459358,-0.22676109,-0.9610939,-0.15772724,0
1.6206371,2.4872708,2.5150037,0.41653192,0.63927191,0.64639974,0
-1.1800981,-3.6809006,-1.1383666,-0.2928586,-0.91346937,-0.28250232,0
1.5459564,2.0363054,-3.4947624,0.3570244,0.47026601,-0.80708325,0
-0.69608921,-1.2192292,3.8899965,-0.16831665,-0.2948136,0.94061387,0
-0.70374066,-3.895359,0.56902164,-0.17597444,-0.9740572,0.14228716,0
-2.8702488,-2.6582868,1.1594187,-0.70343596,-0.65148866,0.28414848,0
-0.88336104,1.5573739,3.9921048,-0.20190047,0.35595244,0.91243303,0
-2.5677919,-2.0107639,-2.2105105,-0.65173465,-0.51035464,-0.56105262,0
-2.6447816,-0.12722652,-3.1935282,-0.63753408,-0.030668408,-0.76981145,0
-2.258261,2.1289027,2.6314378,-0.55499715,0.52320564,0.64671022,0
-0.70714658,-1.1651175,-3.9919422,-0.16764204,-0.27621242,-0.94636297,0
-1.4651541,-3.8910069,-0.63973409,-0.34829506,-0.92496657,-0.152077,0
1.4744693,-3.3213952,1.5113171,0.3746388,-0.84391278,0.38400123,0
1.6437525,0.031959537,-3.8694279,0.39097735,0.0076017864,-0.92036891,0
1.6339431,-2.1822536,-2.9771562,0.40476561,-0.54059482,-0.73751062,0
-0.21442176,-2.3874884,3.1457007,-0.054216258,-0.60367328,0.79538625,0
1.7439082,1.4330202,3.3533781,0.43141857,0.35450923,0.829579,0
-1.0463003,3.2056167,-2.4082134,-0.25250414,0.77361292,-0.58117521,0
-1.1093593,-1.5270253,-3.6887751,-0.26772738,-0.36852488,-0.89023107,0
-2.1077833,-2.0180202,-2.8660407,-0.51533127,-0.49338511,-0.70071739,0
1.3496157,3.9227567,-0.79279929,0.31954855,0.92879122,-0.18771112,0
3.3499889,-1.596293,-1.8854164,0.80482614,-0.38350523,-0.45296639,0
-1.8313606,2.2624025,3.0521662,-0.43421969,0.5364207,0.72367543,0
-1.3813121,2.6671777,3.1287339,-0.31848413,0.6149615,0.72138083,0
-0.43716088,4.0375762,-1.3579714,-0.10208797,0.94287473,-0.31712019,0
-3.8242385,1.044594,1.3768582,-0.91126388,0.24891251,0.32808653,0
-1.6351261,0.66447479,3.9850545,-0.3751649,0.15245773,0.91433471,0
2.793139,1.9094512,-2.7800238,0.63783997,0.43604141,-0.63484496,0
-1.4781469,-3.8383949,0.15443169,-0.35911596,-0.93253851,0.037519198,0
3.1521466,2.1384509,1.1539868,0.79198951,0.53729439,0.28994381,0
-3.3789735,-2.0637155,0.23462163,-0.85192364,-0.52031428,0.059153978,0
1.050483,-3.5188005,1.4188268,0.26683551,-0.89381832,0.36039934,0
-2.4958253,0.27737701,-3.2939222,-0.60256809,0.066967241,-0.79525292,0
1.5363281,1.4911849,-3.4191568,0.38082829,0.36963812,-0.84754789,0
1.9743364,3.382045,1.3331255,0.47725698,0.81754285,0.32225686,0
3.7326379,-1.4514536,1.0822062,0.89974499,-0.34987,0.26086366,0
-2.4294174,1.5275217,3.0194497,-0.58320534,0.36669651,0.72484839,0
3.1404555,-2.2637286,-1.2067813,0.77445972,-0.55825233,-0.29760125,0
-3.0015323,1.5550474,-2.4375889,-0.72019982,0.37312436,-0.58488494,0
-3.4058878,0.64134741,2.3282857,-0.81574208,0.15360872,0.55764627,0
-2.5418885,2.8795135,1.3278284,-0.62546796,0.70854545,0.32673115,0
2.236239,-1.022945,3.632231,0.5098148,-0.23320967,0.82807124,0
2.0673897,-1.3623343,-3.3243403,0.49876323,-0.32866672,-0.80200589,0
2.6930022,0.54902798,2.9567013,0.66711265,0.13600565,0.73243642,0
0.75406927,-2.0874701,3.5255334,0.18100567,-0.50107324,0.84626383,0
3.8844755,1.2166623,0.54782403,0.94575995,0.29622287,0.13337967,0
3.1235354,0.66114384,2.6056967,0.75794232,0.16043003,0.63228601,0
2.9639921,-0.27610004,-2.8858597,0.71489674,-0.06659364,-0.69605166,0
-2.2823894,-0.93383849,-3.0325603,-0.58392847,-0.23891404,-0.77585286,0
-1.6514918,-2.4468477,2.7231448,-0.41120574,-0.60924178,0.67803717,0
4.2121191,-0.466497,-0.13658629,0.99340719,-0.11002098,-0.032213192,0
0.81200594,2.6675944,-3.126054,0.19384295,0.63681108,-0.7462551,0
-2.7729166,2.4821591,-2.2268145,-0.63937449,0.57233214,-0.51345521,0
-0.33299214,-0.42811751,4.1140542,-0.0802458,-0.1031695,0.99142152,0
-0.75301576,2.959945,2.7519536,-0.18316425,0.71997976,0.66938776,0
-1.7156401,3.8401642,-1.1500379,-0.39346159,0.88069588,-0.26374748,0
0.91621482,-3.4325988,1.7926145,0.23023926,-0.86259133,0.45047319,0
-0.038136482,-4.1861639,-0.34263313,-0.0090793893,-0.99662608,-0.081572801,0
1.4996349,2.8089221,-2.6699097,0.360888,0.67596877,-0.64251536,0
-1.0034299,1.4466144,3.6275179,-0.24885562,0.35876757,0.89964253,0
1.2314099,3.6670277,1.5600641,0.29523116,0.87917179,0.37402618,0
-2.6142533,-0.59415877,2.9800279,-0.65218067,-0.14822546,0.74343091,0
1.0858995,2.1465063,-3.4801147,0.25667819,0.50737786,-0.82260799,0
0.72153503,3.8296661,-1.616353,0.17102236,0.90772933,-0.38311723,0
-1.4231818,0.95160431,-3.6442497,-0.35346636,0.23634374,-0.90509844,0
2.2816527,1.9588339,-2.7102478,0.56361318,0.48387057,-0.66948456,0
-0.99016732,-2.0111232,-3.5352407,-0.23654005,-0.48043513,-0.84452999,0
3.2709517,-2.2723715,1.4198109,0.77358258,-0.53741759,0.33578634,0
2.7724011,0.8547284,-3.0579567,0.65771604,0.20277317,-0.72546035,0
1.152517,-3.9470687,-0.99776524,0.27238441,-0.93284523,-0.23581058,0
-2.9980955,0.21756016,-2.903301,-0.71739835,0.052058812,-0.69471544,0
-2.3867569,2.8804557,-1.8956826,-0.56912708,0.68685061,-0.45202941,0
-2.3960876,2.1037118,2.4092784,-0.59955686,0.52639765,0.60285747,0
-0.45499963,3.881772,0.82312804,-0.11391835,0.97188002,0.20608674,0
-1.8738478,-3.442167,-1.5332905,-0.44526157,-0.81792378,-0.36433873,0
-2.008796,3.4406047,0.60853881,-0.49842307,0.85368389,0.15099083,0
2.1429424,0.30650991,3.3773975,0.53418595,0.076405831,0.84190702,0
-3.922138,1.2230183,-1.2441305,-0.91368794,0.2849102,-0.28982842,0
0.56403655,-2.4826972,3.2207546,0.13738538,-0.60472375,0.78449631,0
2.1250174,1.9480608,-3.1387494,0.49862725,0.45710504,-0.73649561,0
2.8670955,2.685163,1.608945,0.67542374,0.63256454,0.37903157,0
-1.3735144,2.4775686,-3.1989703,-0.32144234,0.57982314,-0.7486521,0
3.0593908,1.8465188,2.236007,0.72577274,0.43804571,0.53044319,0
2.1117246,-3.4297726,0.61274505,0.51833087,-0.84185076,0.15040061,0
0.68669868,0.64447296,4.1244664,0.16231641,0.15233544,0.97490883,0
-0.56510919,-2.3948481,-3.1560872,-0.14120877,-0.59842163,-0.78863907,0
1.6459888,-0.19577198,-3.7958701,0.39738902,-0.047264982,-0.91643214,0
-0.28773805,2.7602856,-2.9583189,-0.070935979,0.6804924,-0.72931349,0
-2.0785713,0.069840014,-3.4992504,-0.51062548,0.01715702,-0.85963202,0
1.8855695,0.85037524,-3.4970124,0.46408814,0.20929967,-0.86070657,0
3.2151129,-1.0066454,-2.4752705,0.76905906,-0.24079084,-0.59208781,0
-2.7892334,-3.3945751,0.52515537,-0.63036537,-0.76717228,0.11868485,0
-1.4537054,-3.3197398,-2.0065196,-0.35092726,-0.80139148,-0.48437765,0
3.6514313,2.3265362,0.13413627,0.84295374,0.53709412,0.030966124,0
3.0756478,0.22846612,-2.9190066,0.72428548,0.053801574,-0.68739796,0
2.9361215,-1.5905198,2.3257091,0.72152364,-0.39085495,0.57152069,0
-1.2919776,-3.2326796,-2.3514946,-0.30753571,-0.76949042,-0.55973762,0
-0.88109112,-1.3495228,-3.9331017,-0.20729077,-0.31749681,-0.92532504,0
-0.93048877,3.7952683,-0.52333903,-0.23601151,0.96264136,-0.13274102,0
3.516161,-1.5104351,-1.0398886,0.88666028,-0.38088211,-0.26222575,0
0.68873143,3.9103622,-0.70072138,0.17082016,0.9698537,-0.17379393,0
-4.1305237,-0.28600529,1.2989581,-0.9518671,-0.06590908,0.29934108,0
2.4852777,2.2766495,2.3366246,0.60599309,0.55512267,0.56974655,0
3.5927007,-0.78591579,-2.1035883,0.84798044,-0.18549868,-0.4965072,0
0.58201659,-4.0349813,0.70030016,0.14070429,-0.97546911,0.16929971,0
-2.4597056,-3.5118814,0.26001325,-0.57262772,-0.81757778,0.060531959,0
3.3540037,2.3067968,-0.28412303,0.82193685,0.5653069,-0.06962759,0
-1.6360123,3.4988689,-1.464632,-0.39604917,0.84701329,-0.35456109,0
-2.1194818,3.2658863,1.6675638,-0.5004155,0.77108473,0.39371639,0
0.76760358,4.0263705,-1.3460594,0.17792284,0.93327254,-0.31200317,0
-3.4483886,-1.6811268,1.2860813,-0.85225779,-0.41548491,0.31785071,0
-2.3975763,1.4858586,-2.9646068,-0.58590788,0.36310679,-0.72447598,0
-0.21194999,-1.4216799,4.1279469,-0.048489533,-0.32524934,0.94438422,0
2.0907683,1.9053651,3.1123943,0.49711588,0.45303309,0.74002492,0
-3.3560843,2.0109134,0.44049793,-0.85241568,0.51075417,0.11188257,0
-0.49251655,0.37972027,4.1433806,-0.11755154,0.090629846,0.9889226,0
-2.8940744,-2.7705603,0.86986625,-0.70590675,-0.67577982,0.212173,0
3.6028903,-1.9931679,-1.2149996,0.83924967,-0.46428433,-0.28301945,0
2.2924726,-3.1572621,2.0950685,0.51764452,-0.7129156,0.47307032,0
1.9806858,3.5490136,-1.0469129,0.47193122,0.84561127,-0.24944434,0
-1.9630988,1.3408478,-3.609549,-0.4542011,0.31023124,-0.83513939,0
-1.2220951,-1.4981849,-3.7738101,-0.28821301,-0.35332471,-0.88999718,0
-2.1810858,0.44837904,-3.5800688,-0.51732934,0.10635053,-0.84915251,0
3.707942,-0.91584891,1.6109345,0.89451355,-0.22094177,0.38862601,0
2.4264905,3.392885,0.96690178,0.56668925,0.79238367,0.2258129,0
2.6047573,2.9983675,0.48656014,0.65095115,0.74931777,0.12159555,0
1.4045795,0.65364319,-3.7965744,0.34253889,0.15940587,-0.92588168,0
-0.9409737,2.7527568,-3.2261918,-0.21660838,0.63367361,-0.74265641,0
0.89330065,3.9134705,1.3804971,0.2104419,0.92192721,0.32521462,0
-3.4202099,0.31160444,2.703007,-0.78256905,0.071297377,0.61846775,0
3.0137632,1.7903242,-2.3537495,0.71376586,0.42401218,-0.55745125,0
-2.2487845,-2.1999507,-2.6344659,-0.54804045,-0.53613937,-0.64203298,0
1.3601327,-1.4464502,-3.5052416,0.3376267,-0.35905334,-0.8701086,0
2.8292952,-0.26017469,2.7665374,0.71345162,-0.065607175,0.69762629,0
3.1700563,-2.3978019,0.44709158,0.79254872,-0.59947664,0.11177777,0
1.2917714,-2.7715962,-2.6346788,0.32003623,-0.68666261,-0.65274137,0
-0.72545928,-2.7456436,-2.8336112,-0.18083327,-0.68439913,-0.7063266,0
3.0863781,-2.6293757,-1.6260598,0.70651448,-0.60190034,-0.37222749,0
1.0645211,-3.7750807,-1.6457858,0.25026399,-0.8875041,-0.38691667,0
3.4557152,-2.5024431,-0.93569708,0.79113752,-0.57289928,-0.21421473,0
-1.8355849,-3.5667012,-0.43081477,-0.45498413,-0.88407373,-0.10678551,0
1.4679796,2.0390744,3.3891392,0.34795377,0.48331982,0.80332434,0
-1.2186966,3.2850666,2.2050073,-0.29437682,0.79350966,0.53262073,0
-0.22084743,-1.5280608,-3.7049055,-0.055022925,-0.38070795,-0.9230569,0
1.2810893,0.41571501,3.9821587,0.30474848,0.098891243,0.94728506,0
0.87204695,-1.5242656,-3.5589182,0.21973692,-0.3840819,-0.89677024,0
-0.48584828,3.1813343,-2.356096,-0.12181231,0.79762691,-0.59072244,0
-0.17885904,3.6937029,-1.8176453,-0.043406166,0.89640135,-0.44111282,0
3.6774778,1.6159178,0.90507644,0.89312333,0.39244667,0.21980959,0
-0.41573763,-3.862757,-1.2290057,-0.10202593,-0.94795692,-0.30160958,0
0.60366809,-1.6154459,-3.8355484,0.14354543,-0.38413474,-0.91204995,0
1.6566972,-1.5779589,-3.4831407,0.3975414,-0.37864736,-0.83581519,0
-0.26971045,3.9926348,-0.094740294,-0.067379519,0.99744672,-0.023668179,0
1.1949763,-2.4554901,2.9445007,0.29756099,-0.61144143,0.73320991,0
2.5086904,-3.4237375,-0.40891078,0.58832556,-0.8029179,-0.095895723,0
0.68562782,-3.8855631,-0.76747531,0.17057368,-0.96666855,-0.19093609,0
-1.9934243,1.5386057,3.1839929,-0.49106187,0.37902147,0.78434753,0
1.6178128,-3.1568687,-2.2680488,0.38424513,-0.74978483,-0.53868204,0
1.2893394,2.4000309,-3.0012424,0.31808886,0.59210402,-0.74042702,0
3.331666,0.63351637,2.2435048,0.81933945,0.15579742,0.55173361,0
-1.4518675,3.1863573,2.3162129,-0.34582359,0.75896561,0.55170399,0
0.16033609,-4.0224433,-0.295109,0.039722156,-0.99653244,-0.073111206,0
1.9505225,-1.4445493,-3.3721261,0.46946061,-0.34768069,-0.81161863,0
2.0538478,0.1353205,3.5647433,0.49895379,0.032874234,0.86600482,0
2.5437372,-1.4109166,-2.9690902,0.61198509,-0.33944541,-0.71431863,0
3.1416719,1.4108602,-2.2325928,0.76546276,0.34375355,-0.54396725,0
2.8485482,1.9284347,2.5147252,0.66850144,0.45256788,0.59015936,0
3.6754818,0.53232533,1.7225559,0.89780229,0.13003001,0.42076516,0
-0.27435023,0.53594095,-3.9708064,-0.068311021,0.13344502,-0.98869914,0
-1.8611411,-3.8284221,-0.29289722,-0.43618089,-0.89723694,-0.068644002,0
-3.080797,1.6606356,2.5168266,-0.71466094,0.3852222,0.58383518,0
3.738539,1.866749,0.90968513,0.87419337,0.43650731,0.2127143,0
-0.74076831,-4.0582347,-0.46776125,-0.1784243,-0.97748196,-0.11266676,0
-2.7937872,0.39312273,-2.854578,-0.69609255,0.097949408,-0.71123904,0
-3.6684742,0.7533446,1.7432972,-0.88805741,0.18236826,0.42201415,0
-3.2460294,0.67945683,2.105408,-0.8263306,0.172967,0.53596652,0
-0.67804307,-4.202198,0.3297694,-0.15881817,-0.98428172,0.077241957,0
-3.7855456,-0.25848797,-2.1878414,-0.86429286,-0.05901641,-0.49951473,0
3.2800424,-2.1913486,1.1552076,0.79799086,-0.53312606,0.28104672,0
1.6390496,1.4714984,-3.5771372,0.39016476,0.35028028,-0.85151345,0
1.7473062,-3.3088851,1.8944212,0.41660869,-0.78893459,0.45168519,0
-3.167681,2.8752789,0.57835215,-0.73378015,0.66604644,0.13397288,0
3.0347159,2.5718925,-0.18162277,0.76208937,0.64586341,-0.045609798,0
2.9582477,0.31273818,2.9781625,0.70278293,0.07429637,0.70751405,0
-2.7253373,-1.4108082,3.1546125,-0.61924416,-0.32056022,0.71678299,0
0.46259981,2.9149482,-2.9174423,0.11147019,0.70239943,-0.70300037,0
-2.754986,-2.4203827,-2.0950012,-0.65231252,-0.57308674,-0.49604443,0
-2.6927946,0.26028293,3.0909283,-0.65555716,0.063365526,0.7524823,0
3.0644395,-0.5886851,-2.8794713,0.72172028,-0.13864394,-0.67815751,0
-1.7364402,3.9633455,0.56528217,-0.39791799,0.90822965,0.12953855,0
3.2670038,2.3257375,0.90714639,0.79458147,0.56565219,0.22063082,0
2.1817799,3.1984718,1.3763787,0.53096139,0.7783851,0.33495766,0
-2.4129992,-2.1479986,2.5586393,-0.58552939,-0.52122533,0.62086987,0
1.2835997,1.9754496,3.4902914,0.30482373,0.46912122,0.82885933,0
-1.1386298,-3.9322259,-0.77638763,-0.27326685,-0.94371939,-0.18633009,0
-3.572171,-1.4356703,1.7810434,-0.84211683,-0.33845022,0.41986978,0
-0.74344665,-3.8967226,1.1497641,-0.17999959,-0.94345498,0.27837512,0
3.0184512,2.5260582,-1.6312792,0.70844942,0.59288174,-0.38287148,0
-1.4128578,-3.2599137,-2.1441724,-0.34046564,-0.78556287,-0.51669538,0
-1.670374,0.067614809,-3.9305501,-0.39106986,0.015830055,-0.92022485,0
-0.13373676,2.7405131,-3.1200299,-0.032188009,0.65959167,-0.75093448,0
2.1713336,-2.5998721,-2.4443355,0.51980895,-0.62239945,-0.58516461,0
3.452791,2.0784063,-1.1831166,0.82206267,0.49484035,-0.28168401,0
3.837116,1.3891791,-0.12674764,0.93982214,0.34025067,-0.031044209,0
-2.91237,-2.8439023,-0.020808727,-0.7154575,-0.6986376,-0.0051119053,0
-2.7380729,-2.3982856,-2.2672498,-0.63850325,-0.55926681,-0.52870995,0
2.0736253,-3.3569074,1.4879616,0.49173427,-0.79604852,0.35285145,0
3.220531,2.0377998,1.6654196,0.77433461,0.48996234,0.40042838,0
-0.9314729,2.3328807,3.1477323,-0.23129646,0.57928371,0.78162163,0
-0.14669776,3.2280111,2.3559101,-0.036683738,0.80720741,0.58912688,0
0.81107098,-0.6055482,4.0776014,0.19304998,-0.14413175,0.97054505,0
-0.44976404,2.9895127,-2.8571904,-0.10812444,0.71868658,-0.68687594,0
0.28780684,3.5096271,-2.4464633,0.067121774,0.81850868,-0.57055962,0
0.89016467,2.8110542,2.9318833,0.21407618,0.67603195,0.70509017,0
-3.5755246,-0.77113789,1.6277417,-0.89308405,-0.19261256,0.40657255,0
3.0358279,2.780457,-0.57415217,0.73037338,0.66893512,-0.13813215,0
-1.5920122,-0.26487687,-3.8612154,-0.38041541,-0.06329301,-0.92264736,0
3.93133,-0.78367686,-0.33698481,0.97725773,-0.19480793,-0.083768345,0
-1.7567238,1.6471114,-3.1557825,-0.44254017,0.41492748,-0.79498011,0
0.83972073,-3.5699191,-2.0011764,0.20099506,-0.85449374,-0.47900039,0
-1.7711132,2.0484958,3.0765707,-0.43212715,0.49980468,0.75064075,0
-0.53750557,2.9854972,2.9784257,-0.12643471,0.70226341,0.70060003,0
3.1983438,1.9262334,-1.3206184,0.80760562,0.4863883,-0.33346599,0
-3.6552913,-1.4696001,1.4382099,-0.87156022,-0.35040843,0.34292382,0
-0.34965429,-3.8859582,0.88699806,-0.0873871,-0.97119534,0.22168237,0
-3.6458848,-1.8068724,0.19122304,-0.89501357,-0.44356182,0.046942573,0
-0.13187206,3.4526749,2.4280083,-0.031227237,0.81759167,0.57495117,0
-3.2214041,-2.3006032,0.95194846,-0.7912246,-0.56506222,0.23381266,0
1.3240368,-3.7463901,-0.106573,0.33309898,-0.9425106,-0.026811458,0
3.3797946,-1.6996008,1.1613296,0.85406256,-0.42948332,0.29346403,0
-1.1381599,3.2670953,-2.3028166,-0.27385986,0.78611648,-0.55409527,0
0.93891394,0.59589684,4.0107412,0.22558905,0.14317372,0.96364456,0
-0.34231663,3.1119692,-2.4857967,-0.085630767,0.77846152,-0.62182397,0
4.065249,-1.0247461,0.55517173,0.96127552,-0.24231316,0.13127683,0
-1.3884234,3.5122893,-1.1157123,-0.35256088,0.89187181,-0.28331161,0
-0.36424327,1.2895484,-3.8880239,-0.088570632,0.31357098,-0.94542509,0
4.0403104,0.11768091,0.37499753,0.99530196,0.028989861,0.092377998,0
3.5964227,0.98858917,-1.8406124,0.86467916,0.23768409,-0.44253394,0
-1.0865713,-2.6670833,-2.9392245,-0.26405302,-0.64814097,-0.71427536,0
-3.5631886,-1.3277048,1.4902079,-0.87245488,-0.32509154,0.3648808,0
-2.7647009,0.073809937,-3.0974519,-0.66579247,0.017774835,-0.74592525,0
0.14677639,3.0516953,2.8094814,0.035362598,0.73523998,0.67688376,0
1.7921078,-2.4388804,2.6508143,0.44543698,-0.60619545,0.6588726,0
-2.866272,-2.0439348,-2.1644571,-0.69358253,-0.49459282,-0.52375686,0
-1.8235941,-1.2914652,3.5693362,-0.43304247,-0.3066797,0.84759772,0
1.2548355,-2.4671714,-2.9972954,0.30756766,-0.60471839,-0.7346549,0
-2.5776789,3.1438737,1.1737578,-0.60915607,0.74295902,0.27738199,0
-0.13486071,-3.6978934,-1.8688416,-0.032531831,-0.89202589,-0.4508121,0
-1.4878409,-3.6603718,-0.37690094,-0.37485251,-0.92220855,-0.09495791,0
-3.8070834,-0.84524029,1.5302649,-0.90876895,-0.2017629,0.36528152,0
2.748493,2.0636697,-2.2877092,0.6656965,0.49982941,-0.55409271,0
3.0744607,-2.1115203,1.9103673,0.73367316,-0.50388211,0.45588002,0
-0.85952139,-2.5653145,3.1999321,-0.20511837,-0.61219317,0.76363993,0
1.8774781,3.3684714,1.7193207,0.44466054,0.7977863,0.40720263,0
2.7810419,1.4461038,2.5412688,0.68918252,0.35836548,0.62976325,0
2.4565847,-3.3258588,-0.26592839,0.59290653,-0.80270934,-0.064182885,0
3.3204646,-0.080405332,-2.3096647,0.82076901,-0.01987499,-0.57091445,0
-0.17497799,3.1079352,-2.7325456,-0.042244166,0.75033516,-0.65970647,0
1.202656,-0.52107215,3.923861,0.29070884,-0.12595479,0.94848496,0
-3.4966617,1.886144,-0.54496068,-0.87195659,0.47034454,-0.13589592,0
-1.4056859,-0.12862399,-3.8660271,-0.34154564,-0.031252332,-0.93934542,0
1.0624077,2.7265387,-2.9222863,0.25689855,0.65929848,-0.70663184,0
2.4928081,0.51180178,-3.4012206,0.58683825,0.12048455,-0.80068994,0
2.7806957,0.38422891,2.853622,0.6946736,0.095988095,0.712892,0
-0.52904999,-0.89096814,3.8967795,-0.13120641,-0.22096348,0.96641606,0
0.52822417,1.5689145,-3.7264025,0.12954383,0.38476691,-0.91387796,0
-3.9308619,-1.2121717,0.39622617,-0.95119357,-0.29332241,0.095879167,0
-1.9562767,1.6373341,3.4545958,-0.4555383,0.3812694,0.80443668,0
2.9878376,-2.7482734,-0.68191683,0.72582805,-0.66763133,-0.16565639,0
-1.0448107,0.88934886,-4.0055251,-0.24676649,0.21004906,-0.94603682,0
-1.2178494,-4.0375476,-0.73608065,-0.28447932,-0.94313699,-0.17194222,0
3.8957455,-0.008204883,-1.8239197,0.90565479,-0.0019074118,-0.42401165,0
-0.4392786,-2.9709647,2.7856603,-0.10723846,-0.7252838,0.68004656,0
2.4080262,2.9464097,1.7848451,0.57292408,0.70101774,0.42465517,0
-0.86169302,-4.0186901,-1.0065386,-0.20363823,-0.94971049,-0.23786862,0
-3.411773,2.0015044,-0.89875537,-0.84109426,0.49342495,-0.2215675,0
3.8139801,-0.42337444,-1.7051101,0.90826839,-0.10082319,-0.40605813,0
0.0026935816,4.0472836,-1.5334156,0.00062235695,0.93513227,-0.35429844,0
-2.3097608,-0.4297435,-3.3987007,-0.55903566,-0.10401161,-0.82259381,0
-2.5572455,-2.7215843,-1.5893883,-0.63007212,-0.67056304,-0.39160463,0
0.087390825,2.0363262,-3.4957809,0.02159626,0.50322253,-0.86388695,0
-2.2139554,-2.7662477,-2.4894054,-0.51127928,-0.63882279,-0.57489032,0
-0.44328284,0.85047507,-4.085125,-0.10563923,0.20267768,-0.97353077,0
0.4954575,-3.1727135,2.4700544,0.12229695,-0.7831412,0.60969937,0
-2.1213796,-3.0543728,1.6436257,-0.5217585,-0.75123042,0.40425375,0
-2.7080154,0.74155438,-2.8404758,-0.67803115,0.1856699,-0.71119648,0
-1.4442137,1.4603035,3.5096223,-0.35515699,0.35911372,0.86307645,0
3.5977032,-1.9831442,-1.2994682,0.83498466,-0.46026447,-0.30159131,0
-0.84945965,-2.6835203,3.2762051,-0.19666588,-0.62128544,0.75850308,0
1.4902575,-1.9778428,-3.2873008,0.36208996,-0.48055923,-0.79872006,0
3.301224,0.3842569,-2.305892,0.81610352,0.09499307,-0.57004511,0
-4.2207656,0.60852873,-0.42005214,-0.98499912,0.14201221,-0.098027475,0
0.69976735,2.2194235,-3.5856786,0.1637018,0.51920629,-0.83882451,0
-2.094826,0.1773096,3.6139138,-0.50104403,0.042409211,0.86438203,0
-3.3486061,-1.1203724,-1.9211781,-0.83301437,-0.2787089,-0.47792092,0
-1.547569,-1.9660294,-3.3628998,-0.36920905,-0.46904263,-0.80229896,0
0.58371145,2.7572086,3.1142452,0.13897324,0.65645146,0.74145669,0
-1.4254067,-3.5441208,-1.3334011,-0.3522957,-0.87594545,-0.32955611,0
-3.650121,1.5213025,-0.48202574,-0.91625744,0.38187903,-0.12099864,0
3.7750165,1.9696995,-0.048838925,0.88651448,0.46255881,-0.011469198,0
-3.8298178,1.2859751,1.1025057,-0.91454172,0.30708453,0.26327294,0
-2.989646,-2.1334562,-1.6391166,-0.74332696,-0.53044927,-0.40753976,0
4.0851283,-0.2649653,-1.0229207,0.96813655,-0.062794253,-0.24242248,0
-1.9285569,0.083309464,3.5898414,-0.47315711,0.020439358,0.88074094,0
0.34603393,0.20445265,4.1775837,0.082450412,0.048715468,0.99540383,0
-2.1024022,-0.70402718,3.2631185,-0.5329169,-0.1784568,0.82713526,0
3.2374058,2.6864924,0.410478,0.76590872,0.63557309,0.0971113,0
3.812928,-1.2465818,0.50235862,0.94312549,-0.30834126,0.12425811,0
-1.3566111,2.6909292,-2.8858182,-0.32513446,0.64492601,-0.69163442,0
-3.314424,2.1133664,0.73112118,-0.82896197,0.52856857,0.18285881,0
-3.1967416,-0.74060571,-2.5006895,-0.77484298,-0.17951189,-0.60613024,0
-3.3267634,0.95172334,2.1085422,-0.82100815,0.23487471,0.5203647,0
1.8496861,-3.8017979,-0.44672447,0.43507496,-0.89424199,-0.10507654,0
1.5417295,-2.7653518,-2.6363246,0.3742072,-0.67120367,-0.63988632,0
3.1651738,2.3714426,-0.98841685,0.77641636,0.58171427,-0.24245842,0
0.34786201,2.9123256,2.8743122,0.08470764,0.70917845,0.69992185,0
-2.818521,2.651943,1.5299222,-0.6772958,0.63726681,0.36764315,0
-2.9393971,-2.8565023,-0.33221245,-0.71480262,-0.69464421,-0.080787428,0
3.5715835,0.87940246,-1.6822011,0.88303459,0.21742254,-0.41590565,0
-2.9492254,2.901654,0.69925052,-0.70286471,0.69152743,0.16664664,0
2.7042851,0.66151708,-3.3760295,0.61799783,0.15117346,-0.77150851,0
3.3065274,2.3412402,1.0273836,0.79108852,0.56014305,0.24580209,0
3.1712511,2.3254731,1.1065147,0.77627403,0.56924039,0.27085796,0
2.1180823,3.580879,-0.18434022,0.5086059,0.8598609,-0.044264816,0
-4.0514503,0.68220001,-0.76380408,-0.96950608,0.16324946,-0.1827772,0
0.50579304,2.7817316,-2.9610493,0.12354188,0.67944854,-0.72324759,0
-3.0764804,-0.93181437,-2.5914884,-0.74508703,-0.22567438,-0.62762773,0
-3.9298592,0.26721552,0.84659016,-0.97542107,0.066324934,0.21013014,0
-0.80519098,4.1202765,-0.7663191,-0.18867616,0.96548265,-0.17956752,0
3.7386119,0.63824791,1.5495621,0.91251576,0.15578276,0.37821519,0
-4.15309,0.81286383,-0.47560871,-0.97523952,0.19087881,-0.11168368,0
0.49884707,-4.0203128,0.86425948,0.12042735,-0.97054917,0.20864205,0
3.6809175,-1.6409363,0.41943312,0.90844631,-0.40498123,0.10351562,0
-1.0884392,-4.0711126,-0.54960608,-0.25611594,-0.95795596,-0.12932543,0
-0.61685342,2.037142,3.5738015,-0.1482953,0.4897413,0.85916358,0
3.9099722,0.6976766,0.78848779,0.96560627,0.17229813,0.19472486,0
3.9727864,1.2773092,0.93979698,0.92874426,0.29860491,0.21970248,0
2.2127018,-2.7647986,-2.6645522,0.49928916,-0.62386805,-0.60124779,0
0.24820578,-3.4827454,-2.184377,0.060265027,-0.84561992,-0.53037256,0
3.5097497,1.9032086,1.004168,0.85252154,0.46229121,0.24391338,0
0.57832038,-0.70084292,-4.0449233,0.139498,-0.16905195,-0.97568536,0
3.3697183,-0.18834181,2.5179055,0.80026764,-0.04472892,0.59797233,0
-3.8165371,0.85561532,-1.5528244,-0.90691972,0.20331897,-0.36899602,0
1.1738256,-2.2439668,-3.121552,0.29202408,-0.55825353,-0.77657896,0
-2.0803938,-0.31943694,3.4542935,-0.51430935,-0.078970335,0.85396111,0
-0.60352075,-1.3380014,-3.8090417,-0.1478468,-0.32777533,-0.9331156,0
-2.8246253,1.4937165,2.6079726,-0.68484628,0.36215997,0.63231766,0
2.1388035,3.1146066,1.6239598,0.52007616,0.75735462,0.39488566,0
-2.0824964,-3.5527115,1.0304675,-0.49057102,-0.83690774,0.24274592,0
3.4645073,-1.4647669,1.319277,0.86915118,-0.36747038,0.33097094,0
-4.2094202,-0.77623689,0.084412932,-0.98322791,-0.18131186,0.019717004,0
-1.8432678,-3.8105984,-0.040920299,-0.43543145,-0.90016997,-0.0096665202,0
-3.6810975,-0.74419135,1.317906,-0.92487621,-0.18697818,0.33112404,0
0.70372856,-3.3062353,2.4781468,0.16789915,-0.78881848,0.59124887,0
-0.87226504,-2.125046,-3.4954646,-0.20854138,-0.50805658,-0.83569664,0
-1.657901,3.1845996,-1.9263775,-0.40690061,0.78160006,-0.4727931,0
2.7570117,-2.1834989,-2.2145307,0.66336972,-0.52537572,-0.53284234,0
0.98049468,0.56272966,3.902298,0.24133749,0.13850944,0.96050578,0
-0.16714406,-1.7352581,3.7133162,-0.040745307,-0.42301008,0.90520841,0
3.1371007,-0.9095031,2.4082708,0.77304226,-0.22411916,0.59344453,0
2.8564355,2.2571182,-1.6326864,0.71591276,0.56570494,-0.40920264,0
-2.2193851,0.60737872,-3.43397,-0.53691208,0.14693664,-0.83074361,0
-3.8675635,1.7155676,-0.53084242,-0.90699422,0.40232304,-0.12448949,0
1.665049,2.5437748,2.738085,0.4069542,0.62172335,0.66921467,0
2.381448,-3.4568863,0.082329176,0.56720221,-0.82334507,0.019608781,0
-3.042413,1.2947373,-2.3854439,-0.74621493,0.31756121,-0.58507961,0
1.5796859,1.2915418,3.6971581,0.37408048,0.30584598,0.87551248,0
4.0561457,1.5353249,-0.56209373,0.92748576,0.35107023,-0.12852938,0
3.9043429,-1.2471912,0.71289176,0.93848991,-0.2997883,0.17135833,0
-2.0116296,-3.3802581,0.18278871,-0.5108521,-0.85841447,0.04641908,0
2.3255455,-0.10680737,3.3376446,0.57148129,-0.026246924,0.82019526,0
0.51759309,1.2510262,-3.7372696,0.13021404,0.31472826,-0.9402076,0
0.41880858,-3.7893808,-2.1296024,0.095904738,-0.86774623,-0.48766661,0
0.99134922,1.2041805,-3.6715972,0.24851036,0.30186269,-0.9203921,0
3.1826799,0.55235088,2.7225311,0.7533794,0.13074824,0.64445657,0
2.3962846,-2.3089318,2.3032434,0.59211254,-0.57052803,0.56912243,0
1.711365,-2.8070264,2.8044448,0.39603603,-0.64958882,0.64899141,0
4.0081491,0.47235483,-1.3644818,0.94081295,0.11087351,-0.32027805,0
-3.0843718,-0.42646587,-2.9998832,-0.71336132,-0.098634101,-0.69382054,0
-0.063411944,2.1300333,3.46928,-0.015574658,0.52315915,0.85209262,0
-1.0315546,-4.0026302,-0.91524833,-0.24366261,-0.94545776,-0.21619001,0
0.48643792,2.2101605,-3.5776131,0.11490776,0.52209049,-0.84511405,0
4.0040236,0.53101939,0.76728654,0.9739033,0.12916046,0.186628,0
1.6712791,3.5233276,-0.97683305,0.41573063,0.87642759,-0.24298719,0
3.8725247,-0.71654558,-1.0501847,0.95010829,-0.17580156,-0.25765857,0
-0.93950689,2.8530195,2.7285588,-0.23151925,0.70305914,0.67238873,0
-1.6477602,0.38803968,-3.898176,-0.38771939,0.091306075,-0.9172442,0
-2.0978212,-2.8026783,-2.4299984,-0.49226797,-0.65766746,-0.57021558,0
-3.4716425,-1.5895553,1.6968647,-0.83087093,-0.38042951,0.40611196,0
-2.8031178,-2.9983582,-0.83334738,-0.66926897,-0.71588433,-0.19896899,0
-3.2305999,0.27789629,-2.4324365,-0.79699302,0.068557359,-0.60008508,0
-2.8498983,-2.1833706,2.0055115,-0.69301617,-0.53093511,0.48768476,0
4.2101283,-0.27647966,-1.0464605,0.96850604,-0.063601919,-0.24072979,0
0.76866788,-4.0306458,0.53327858,0.18576753,-0.97410488,0.1288799,0
-2.9758947,-0.67723548,2.8915291,-0.70783371,-0.16108437,0.68776691,0
3.2761719,1.1393459,-2.2999558,0.78718638,0.27375779,-0.55262482,0
-0.52763271,0.42129496,4.0724382,-0.12781705,0.10205713,0.98653293,0
-0.34540692,-0.8024171,4.0792599,-0.082796551,-0.19234522,0.97782826,0
-3.5317175,2.3421891,-0.0070091775,-0.83338523,0.55269021,-0.0016539672,0
-0.88520819,3.9344478,-1.1967119,-0.21043251,0.93530059,-0.28448346,0
3.951704,0.14400165,0.43584174,0.99332136,0.036197022,0.10955551,0
2.2899292,2.9254196,1.4929496,0.57193291,0.73065305,0.37287921,0
-0.15935351,2.5886698,3.0118649,-0.040092345,0.6512931,0.75776637,0
1.9084711,-3.0207586,2.0267925,0.46458158,-0.73534715,0.49338472,0
3.4862955,0.17067988,-2.124763,0.85316271,0.04176861,-0.51996988,0
1.5755413,-0.89406955,-3.4826345,0.40134916,-0.22775288,-0.88715702,0
-1.4493185,-3.6527119,1.6732491,-0.33932871,-0.85520881,0.39175755,0
-2.0117302,-2.8788507,2.032012,-0.4957962,-0.70950037,0.50079471,0
-0.9064365,-1.2333641,-3.9325283,-0.21480024,-0.29227298,-0.93189985,0
3.7341282,1.1245058,-0.98349404,0.92845428,0.27959731,-0.24453612,0
2.9264863,-1.2991786,2.418618,0.72930288,-0.32376531,0.6027382,0
3.0848596,1.4093927,2.3991404,0.74256134,0.33925712,0.57750082,0
-2.9661565,-0.13468379,-2.7703984,-0.73040909,-0.033165567,-0.68220413,0
2.2529202,2.057456,2.7086771,0.55219781,0.50428891,0.66390526,0
0.38234061,-1.1874372,3.9767132,0.091737106,-0.28490841,0.95415491,0
-1.2386053,2.0371783,-3.1869621,-0.31120178,0.51184469,-0.80072993,0
-2.897748,-1.9937787,-2.3053627,-0.68902671,-0.47408086,-0.54816931,0
-3.6673863,-0.47790015,-1.900835,-0.88194811,-0.11492739,-0.45712063,0
0.57881999,4.3036737,-0.046343051,0.13328665,0.99102008,-0.010671556,0
3.3721671,-1.7599361,-1.1071941,0.85120016,-0.44424188,-0.27947718,0
-3.1257863,-0.49999461,-2.8019729,-0.73939705,-0.1182725,-0.66279978,0
0.18399517,1.9822172,-3.538394,0.04531946,0.48823571,-0.87153435,0
-1.6515644,3.3707922,2.2512622,-0.37732837,0.77011561,0.51433969,0
0.89302665,3.8836803,1.1076505,0.21591008,0.93897057,0.26780042,0
3.4774821,1.9258879,0.94156879,0.85124892,0.47143593,0.23048556,0
-2.942992,1.7681558,-2.6677537,-0.67687213,0.40666622,-0.61356884,0
-0.30392697,4.1108007,0.98171043,-0.071726367,0.97014356,0.23168236,0
-1.2396837,1.7659872,-3.6819685,-0.29048726,0.41381261,-0.86277241,0
2.0437057,2.9784482,1.6888081,0.51253122,0.74695086,0.42352816,0
2.4568493,-3.0384238,-0.9850899,0.60968453,-0.75400633,-0.24445702,0
4.0439162,0.076880246,-1.6031381,0.9294709,0.017670482,-0.36847207,0
-0.97510141,-0.33990818,-3.8788457,-0.24292806,-0.08468169,-0.96634102,0
-2.4397197,2.4298577,2.24895,-0.59321755,0.59081966,0.54683197,0
1.6532012,0.2181171,-3.7171192,0.40579128,0.053538565,-0.91239625,0
1.2213988,2.0621147,-3.6121826,0.28175464,0.4756926,-0.83326524,0
3.1508172,3.0239677,-0.24650963,0.72033405,0.69133401,-0.056356579,0
-2.0374925,-3.1270258,1.4264433,-0.50994062,-0.7826274,0.35700813,0
2.3505609,-3.1810887,0.87609994,0.58021718,-0.78522635,0.21625827,0
1.9753953,1.6856666,-3.1846311,0.48072493,0.41021761,-0.7750001,0
