1.4257941,-1.9180044,-3.1735244,0.35889187,-0.48278791,-0.79881942,0
1.1243223,-3.2625325,-2.4238493,0.2666153,-0.7736581,-0.57477766,0
-3.0206404,-2.1879575,1.3844273,-0.75925052,-0.54995227,0.34798157,0
-3.6966066,-0.91742969,0.68897504,-0.95505637,-0.23702741,0.17800379,0
3.5728323,-0.60612941,-2.1741838,0.84542835,-0.14342654,-0.51447046,0
-2.813834,3.0623524,-0.19502318,-0.67585391,0.73554552,-0.04684256,0
-3.7486005,-0.91426665,-1.3440881,-0.9174512,-0.22376218,-0.32895881,0
-0.029680829,-0.15674298,3.8895762,-0.0076244543,-0.040264361,0.99915993,0
-2.8457985,0.80964297,-2.9660017,-0.67928189,0.19325887,-0.70797396,0
-1.8326335,2.2106955,-2.6375618,-0.47002265,0.56698567,-0.67646575,0
-2.734828,-2.6450932,-1.5918072,-0.66310495,-0.64134723,-0.3859604,0
-1.9425118,-3.5542257,-0.072260201,-0.47950697,-0.87735683,-0.017837353,0
-3.9589617,0.24379642,0.33919105,-0.99447972,0.061240952,0.085203804,0
1.525211,-2.9990897,-2.3002281,0.37421468,-0.73583484,-0.56436723,0
-1.4670029,-3.1828806,-2.3368073,-0.34826624,-0.75561535,-0.55475765,0
2.4420893,1.0783502,-3.2254364,0.58326995,0.25755373,-0.770365,0
-3.193233,-0.59804505,2.5136898,-0.7773813,-0.14559194,0.61194885,0
1.6870785,-3.3026006,1.6936611,0.41380435,-0.81005746,0.41541895,0
4.1283026,0.31119251,0.4983272,0.99002469,0.074628316,0.11950583,0
-1.542858,0.28242823,-3.7117682,-0.38288444,0.070088997,-0.92113352,0
2.0957317,-3.2912006,-0.62172347,0.5304268,-0.83299828,-0.15735735,0
-2.6923659,-1.1854334,2.6836374,-0.67614108,-0.29770106,0.67394906,0
-0.9898985,4.0157843,0.63210803,-0.23659055,0.95979196,0.1510769,0
-0.83026701,-3.7959306,-1.3769566,-0.20140225,-0.9207989,-0.33401561,0
0.1311129,-3.2169251,2.7304516,0.031058282,-0.76203156,0.64679474,0
-1.837895,-2.9041722,1.484614,-0.490915,-0.77572531,0.3965511,0
-0.11218835,-1.1879878,3.763361,-0.028416427,-0.30090797,0.95322973,0
3.4417837,1.8110441,-0.42948443,0.87961572,0.46284804,-0.10976322,0
2.2542982,0.70999211,3.2205927,0.56431276,0.17773053,0.80620283,0
-0.17467766,-0.099034488,-3.8157413,-0.045714915,-0.025918331,-0.99861825,0
-3.636138,-0.66403455,-1.3174243,-0.92663246,-0.1692224,-0.33573207,0
0.6098178,2.7103465,3.0281277,0.14839475,0.65954322,0.73687297,0
3.4412446,-1.5446619,1.7202103,0.83006507,-0.37258899,0.41493315,0
-0.98797375,-3.641855,1.0437031,-0.25234538,-0.93019199,0.2665796,0
0.38432351,3.8495324,0.72629273,0.097636834,0.97796816,0.18451363,0
-0.047389805,3.5899923,-1.7283026,-0.011893134,0.90095872,-0.43374169,0
3.9999852,0.70136267,-0.95329773,0.95890743,0.16813609,-0.22853191,0
-2.3958426,3.2068071,0.026793445,-0.5985046,0.80109137,0.0066932607,0
-1.1303029,1.2231718,-3.7363074,-0.27631122,0.29901373,-0.913369,0
-0.62948787,-2.1196585,-3.3084996,-0.15818787,-0.53266197,-0.83141315,0
-0.55584425,3.7996063,0.35732964,-0.14412664,0.98521209,0.092653148,0
0.20583336,-1.6008122,-3.7912362,0.04995361,-0.38850045,-0.92009354,0
-1.0079373,-2.3481126,-2.776355,-0.26712427,-0.62229848,-0.73579162,0
-0.6716038,-2.3678463,-3.0265098,-0.17216361,-0.60699028,-0.77583665,0
-0.32731262,-2.826735,-2.6276929,-0.084505178,-0.72980303,-0.67841458,0
-2.4179373,-3.0818422,1.4844993,-0.57720798,-0.73569483,0.35437846,0
2.3499291,0.31187508,-3.0806613,0.60453832,0.080232397,-0.79252511,0
-2.0011001,-3.729105,0.12699486,-0.47262642,-0.88075233,0.029994065,0
3.6162968,1.9037472,-0.32084948,0.88216007,0.46440044,-0.078268081,0
-3.6026332,1.3404129,0.22912963,-0.93556988,0.34809259,0.059502803,0
1.3571401,0.31493697,3.6244612,0.34950763,0.081106491,0.93341643,0
0.94098258,-4.0868363,-0.2370673,0.22401884,-0.97294927,-0.056438386,0
2.21016,-2.9577169,1.2726456,0.56591713,-0.75733101,0.32586417,0
1.803378,2.8382199,1.9085406,0.46640518,0.73404497,0.49360326,0
-1.8028775,2.3977885,2.6983919,-0.44681183,0.59425014,0.66874945,0
3.8736427,0.84426284,-0.03655684,0.97702122,0.21294239,-0.0092204707,0
1.4962524,-2.7151444,2.6695142,0.36573368,-0.66367126,0.65251774,0
-1.8859214,3.3449452,1.5153946,-0.45684209,0.81027329,0.36708635,0
-1.9980462,-0.46235323,3.1522629,-0.53129905,-0.12294402,0.83821601,0
1.6302079,-2.9560378,-2.2039189,0.40436754,-0.73323518,-0.54667461,0
3.8864365,-0.62933177,0.91992253,0.96125031,-0.15565553,0.22752869,0
-3.7700548,-1.0629483,-0.7106477,-0.94701701,-0.26700678,-0.17851079,0
2.8207459,-1.8539261,-2.2554674,0.69482446,-0.45667109,-0.55558133,0
2.1340637,0.61572576,3.3913727,0.52641195,0.15188178,0.83655381,0
-1.3935769,2.5335145,-2.5315545,-0.36261663,0.65923488,-0.6587249,0
1.5669756,1.8935276,-3.1840885,0.38956743,0.47075188,-0.79159957,0
3.4957681,-1.4257109,-0.93356979,0.89887786,-0.36659753,-0.24005175,0
3.679841,-0.84624445,-1.2881519,0.92236459,-0.21211404,-0.32287961,0
-3.2428813,1.2178937,-1.4497448,-0.86357766,0.32432449,-0.38606632,0
-2.0220613,-0.8111878,-3.3026807,-0.51106399,-0.2050229,-0.83473295,0
-0.89218789,-3.0967724,-2.1208732,-0.23125707,-0.80269021,-0.54973501,0
3.5375724,1.460778,-1.1453885,0.88549495,0.36564949,-0.28670388,0
-1.5828964,3.3593552,-1.7109275,-0.38713193,0.82160383,-0.41844475,0
-1.0468599,-2.6054094,-2.8040309,-0.26381186,-0.65657103,-0.70662427,0
-1.2802268,3.2689757,-2.0035112,-0.31671673,0.80871552,-0.49565086,0
-0.7876206,-2.3065476,-2.9919901,-0.20409533,-0.59769332,-0.77531135,0
-0.41701996,-0.96117133,3.8006644,-0.10577722,-0.24380136,0.9640395,0
-2.3960769,-2.1216798,-2.0626445,-0.62930113,-0.55723399,-0.54172909,0
1.7674199,-1.3171695,-3.3324983,0.4423494,-0.32966086,-0.83405679,0
2.3745463,2.3113832,2.4329126,0.577613,0.56224841,0.5918107,0
3.4166651,0.34107405,-1.9423389,0.8660863,0.086458445,-0.49236113,0
3.2698827,-0.11582618,2.4294116,0.8023777,-0.028421922,0.59613937,0
2.1681471,-2.2977743,-2.4069686,0.54590374,-0.57854176,-0.60603511,0
-3.8043623,-0.77255899,1.1835861,-0.93739641,-0.19035885,0.29163608,0
-0.81371433,0.46927276,4.0106483,-0.19754279,0.11392383,0.97365206,0
-0.6973781,-2.2821074,3.1575997,-0.17620006,-0.57659894,0.79780149,0
3.7163956,0.74831706,-1.4482569,0.91577345,0.1843961,-0.35687137,0
0.61306447,-3.7885778,-0.716555,0.15702772,-0.9703902,-0.18353535,0
-0.39788043,-3.166018,2.6629996,-0.095733039,-0.7617678,0.64073783,0
2.6366444,2.9096937,1.1332259,0.64515191,0.71196347,0.27728534,0
1.6317128,-3.5014181,1.6687137,0.38776711,-0.83209175,0.39656016,0
-2.4774468,2.8386629,0.89226121,-0.63984722,0.73313808,0.23044324,0
1.4000036,3.2036443,1.8662293,0.35325974,0.80836838,0.47090146,0
0.37107545,3.1823344,-2.357173,0.093291558,0.80006617,-0.59261352,0
3.1779263,-0.36545509,2.0572004,0.83557779,-0.096089758,0.54090339,0
-3.2999074,-0.29789427,2.183912,-0.8315618,-0.075068012,0.550336,0
1.6993997,-3.4872904,-0.015778234,0.43806234,-0.89893538,-0.0040672305,0
-0.12187725,-3.8474817,-1.0602726,-0.030524546,-0.96361411,-0.26554868,0
2.5023932,-2.8598113,0.50127518,0.65285766,-0.74610561,0.13077934,0
1.4580215,-2.9866383,-2.0132482,0.37522331,-0.76861435,-0.51811141,0
-2.0249357,3.4492555,0.43108281,-0.50335479,0.8574096,0.10715777,0
-3.6985753,0.50659567,-1.3943936,-0.92811823,0.12712482,-0.34990829,0
-3.582243,-1.4007717,0.32747051,-0.92797172,-0.36286667,0.084830478,0
3.9196582,0.089266136,0.27507725,0.99728924,0.022712225,0.069988646,0
-3.2968705,1.7840633,1.5952759,-0.80925471,0.43791884,0.39157879,0
-2.4491675,-2.7432418,-1.7266469,-0.60285008,-0.67523497,-0.42500532,0
-2.2560828,2.59974,1.6433904,-0.59147191,0.68156773,0.4308438,0
-2.3917568,-1.9035947,2.5899577,-0.59696889,-0.47512642,0.64643872,0
0.46332809,-3.1315768,2.5147789,0.11460109,-0.77457452,0.62201369,0
-4.0091405,0.36507812,-0.52482826,-0.9875229,0.089925259,-0.12927458,0
-2.4000065,2.3624973,2.0122473,-0.61176574,0.60220456,0.51292527,0
3.6933913,-1.2987778,1.2209102,0.90059716,-0.3166942,0.29770693,0
-0.79796368,-3.8192511,-0.96506357,-0.198533,-0.95022792,-0.24010737,0
-2.9849789,-0.81516218,-2.6367462,-0.73425007,-0.20051494,-0.64859116,0
2.7472494,2.3335352,-1.6816825,0.69069064,0.58667809,-0.42279467,0
-1.0722537,3.7960722,-0.63449115,-0.26837835,0.95013297,-0.15880914,0
-3.0827475,2.5718746,0.52489018,-0.76138389,0.63520741,0.12963857,0
3.7445719,-1.790466,-0.15448943,0.90154892,-0.43107536,-0.037195113,0
0.23666775,0.7073161,-3.9631867,0.05868629,0.17539254,-0.98274785,0
-3.5493073,1.327019,0.10045306,-0.93634433,0.35008147,0.026500568,0
0.54611206,-1.8700472,-3.4389811,0.13817032,-0.47313553,-0.87008715,0
2.1201355,-0.67957824,-3.1621847,0.54821736,-0.175723,-0.81766689,0
0.73146665,-1.5768152,3.7245445,0.1779644,-0.38363606,0.90617442,0
2.6400883,2.7578039,-1.1597675,0.66166568,0.69116783,-0.2906639,0
-2.8636711,1.9998329,2.0686522,-0.70543051,0.49263448,0.50958729,0
3.0973401,-1.8537093,0.97787511,0.82821339,-0.49567267,0.26147896,0
2.7632957,2.5318086,1.4652506,0.68669862,0.62917244,0.36412519,0
3.8913276,0.88561034,0.17126302,0.97417027,0.22170718,0.042874657,0
-3.013257,2.5277207,-0.68424809,-0.75479501,0.63317233,-0.17139827,0
-3.4814956,-1.8085916,-0.30290279,-0.88476992,-0.45962647,-0.076978207,0
-1.722788,-3.4635503,1.3683357,-0.41986108,-0.84410268,0.33347744,0
-0.12503064,-1.338918,-3.641736,-0.032207094,-0.3448967,-0.93808794,0
1.7370497,-2.5202506,-2.7435954,0.42258707,-0.61312312,-0.66745812,0
-0.15910824,-2.3791888,-3.1943254,-0.039915044,-0.59686053,-0.80135161,0
2.2640016,0.56862664,-3.2595146,0.56470525,0.14183137,-0.81301403,0
-1.6654927,-1.0750842,-3.520612,-0.41221553,-0.26608729,-0.87136436,0
-0.11328813,3.6715872,1.6749729,-0.028061118,0.90944076,0.41488558,0
-0.98831677,-3.1601939,-2.0043728,-0.25534314,-0.81647289,-0.51785308,0
-1.1480211,2.5911243,2.8116331,-0.28757057,0.64905697,0.70429277,0
2.548429,3.0442963,0.069211744,0.64179707,0.76667637,0.017430304,0
-0.74434584,4.0747795,-0.48094469,-0.17849873,0.97715729,-0.1153335,0
2.7557204,-1.0220447,-2.7152064,0.68869519,-0.25542405,-0.67857015,0
-0.88830823,2.9677026,-2.48722,-0.22360125,0.74701774,-0.6260727,0
1.6192764,-3.3349888,-1.0336345,0.42073169,-0.86652005,-0.26856613,0
-2.7683387,-2.7525208,1.3179191,-0.67187577,-0.66803682,0.31985897,0
1.8606681,3.6961105,-0.10290623,0.44951135,0.89292854,-0.024860706,0
0.67805183,-1.2706231,-3.535105,0.17762953,-0.33286569,-0.92609298,0
2.1987844,2.4550858,-2.0800245,0.56418788,0.62995249,-0.53371519,0
0.48161787,-3.8067179,0.1726263,0.12539047,-0.99108893,0.044943709,0
2.9923525,-2.5395234,-0.97354335,0.74001199,-0.6280269,-0.24075833,0
1.8892652,-2.4739439,-2.7108479,0.45769724,-0.5993427,-0.65673554,0
-0.71898258,-2.403091,-3.024303,-0.18298697,-0.61160636,-0.76970994,0
1.8934741,-2.7841301,2.2494283,0.46760923,-0.68756413,0.55551511,0
0.23992199,3.9111042,1.1465132,0.058764897,0.95795989,0.28081933,0
-3.3271084,-1.903357,1.2759547,-0.82356995,-0.47114417,0.31584123,0
1.5620136,-3.1103134,-1.5991001,0.40780646,-0.81203252,-0.4174889,0
3.8977611,1.1353029,-0.219249,0.95870507,0.27924252,-0.053927142,0
-3.3269274,-1.9604949,1.2023071,-0.82259202,-0.48473778,0.29727376,0
-3.577853,1.5000173,1.1685011,-0.8830443,0.37021691,0.28839594,0
2.120559,-0.45638511,-3.5979359,0.50474906,-0.10863172,-0.85640383,0
1.1241647,-0.061474115,4.0561986,0.26705131,-0.014603504,0.96357161,0
0.91541272,3.8386612,-1.0125127,0.2246895,0.94220543,-0.24852283,0
-3.1977763,1.3706173,-2.2036316,-0.7764805,0.33281177,-0.53508341,0
1.2021562,-2.5982232,-2.7400262,0.30336124,-0.65565538,-0.69143903,0
1.3663859,1.4828644,3.433455,0.34316024,0.37241316,0.86229318,0
3.712229,-1.1455731,-0.042061951,0.9554804,-0.29485592,-0.01082621,0
-2.933085,-2.559809,-0.076580048,-0.75327563,-0.6574108,-0.019667307,0
-3.8967376,0.13821197,-1.5502813,-0.92866272,0.032938402,-0.36945996,0
1.4159107,2.3158052,2.6436756,0.37368646,0.61118621,0.69771761,0
1.3962967,-0.038944669,-3.7579353,0.34827799,-0.0097139608,-0.93734097,0
2.7652462,1.9206718,2.2841825,0.67966467,0.47207832,0.56142491,0
1.8740011,1.949084,-2.798317,0.48160061,0.50089622,-0.71914107,0
3.1818233,-2.5973458,0.066765517,0.77456611,-0.63228405,0.016253041,0
1.6902868,3.3956454,-0.77143931,0.43668357,0.87726092,-0.19930042,0
-3.508755,1.8773692,0.46611711,-0.87573564,0.46856481,0.11633624,0
3.053879,1.9573166,2.1164386,0.72718459,0.46607298,0.50396281,0
-2.7942054,2.8605165,-0.9930923,-0.67816579,0.69425982,-0.24102782,0
-0.68006867,-3.2474611,2.3987098,-0.16610621,-0.7931897,0.5858829,0
1.2410786,0.27013177,3.5509057,0.32909116,0.071629614,0.94157749,0
-3.3189135,-2.2436211,-0.88572025,-0.80892533,-0.54684222,-0.21587834,0
-0.97506052,-3.4104829,1.6068258,-0.25039423,-0.8758074,0.41263071,0
2.1612451,3.2259004,-0.6700722,0.54848969,0.81868231,-0.17005369,0
0.21971236,4.0403876,0.73009706,0.05343594,0.98265713,0.1775659,0
-4.1345787,-0.41459009,-0.59259766,-0.98504359,-0.098774105,-0.14118356,0
-0.4530766,-1.9936475,-3.3258238,-0.11605524,-0.51067132,-0.85190731,0
2.5197871,2.826411,-1.5179253,0.61767608,0.69283891,-0.37208945,0
1.3139139,1.1036839,-3.7733872,0.31697002,0.26625392,-0.91029602,0
-1.0806158,-1.849709,3.6810782,-0.25372237,-0.43430105,0.86429602,0
3.6735163,-1.3200614,0.97361046,0.9131096,-0.32812178,0.24200602,0
3.4319417,1.7558538,1.1968937,0.85021484,0.43498784,0.29651344,0
3.4210708,1.2662789,-2.0037737,0.82197636,0.30424723,-0.48144418,0
0.41462517,-3.6933258,-1.3044345,0.10526697,-0.93767875,-0.33117592,0
3.1950579,0.98692244,-2.2457139,0.79319096,0.24500902,-0.55751103,0
-2.8932717,-2.3439434,-0.73793304,-0.76218909,-0.61747676,-0.1943974,0
1.4741987,0.43507582,-3.6182253,0.37500241,0.11067333,-0.92039376,0
0.82347751,-4.0067677,0.34585026,0.20059824,-0.97604436,0.084248751,0
-3.0875134,1.7847165,1.8484008,-0.76865351,0.44431502,0.46016958,0
0.704391,3.723175,1.4683013,0.17333499,0.91619068,0.36131635,0
-2.6205549,-2.0062952,-1.9636712,-0.68236834,-0.52242076,-0.51132184,0
1.0575566,3.1883833,2.1087201,0.26664081,0.80388427,0.53166974,0
1.8804833,-2.5016742,-2.4302933,0.47457734,-0.63134718,-0.61333281,0
3.9234769,-0.27258351,-1.5561645,0.92762095,-0.064446457,-0.36792129,0
-1.1794724,3.6961577,-1.060046,-0.29325569,0.91898644,-0.26356232,0
0.31732851,4.0355048,-0.62316239,0.077479452,0.9853155,-0.15215236,0
3.4050992,-1.6780287,1.0942684,0.86190116,-0.42474383,0.27698201,0
1.5699099,3.2188241,-1.8811451,0.38808602,0.7957021,-0.4650242,0
-3.7316272,-1.1068779,-1.1311948,-0.92062294,-0.27307585,-0.27907503,0
-2.9220705,2.1867509,-1.4709351,-0.74258941,0.5557217,-0.37381056,0
-0.1188096,-3.3571613,1.9327221,-0.030656014,-0.86623621,0.49869332,0
0.58167738,-3.830662,1.2882056,0.14245936,-0.93817246,0.31549612,0
-3.1197917,-1.4568743,-2.0216827,-0.7813462,-0.36487153,-0.50632679,0
-0.073199116,1.5745363,3.4854071,-0.019135742,0.41161591,0.91115648,0
0.37819043,3.3409171,-2.2581968,0.093375489,0.82487482,-0.55755043,0
3.4264455,-2.1802237,-0.20121245,0.84265482,-0.53617549,-0.049483538,0
3.2141762,-1.7264608,1.1896889,0.83755469,-0.44988367,0.31001088,0
0.36370185,-0.64054793,-4.013669,0.089127302,-0.15697008,-0.98357344,0
-3.2426417,1.8265799,1.2113416,-0.82849765,0.46669269,0.30949879,0
-3.3422894,-1.8781251,-0.46458533,-0.8654573,-0.48632446,-0.1203004,0
1.2619553,3.7663829,-1.0262295,0.30759898,0.91804802,-0.25014129,0
0.21011017,-2.1066041,-3.2627811,0.054020811,-0.54162282,-0.83888406,0
0.6549598,-0.74717379,4.0480328,0.15713288,-0.17925616,0.97117269,0
0.30782917,3.8071537,0.26610085,0.080397576,0.99433696,0.069499142,0
0.024401149,-0.65545559,4.1553788,0.0058003692,-0.1558076,0.98777038,0
1.860895,-1.0564607,-3.4753306,0.45595711,-0.25885436,-0.85152662,0
3.4823036,2.0036428,1.3092598,0.8241086,0.47417441,0.3098444,0
-1.7399092,-0.48915362,3.4808247,-0.44361922,-0.12471798,0.88749504,0
3.1462576,-2.717788,0.1306861,0.75638211,-0.65337503,0.031417843,0
-1.7474536,0.95677119,3.4355617,-0.44000849,0.24091481,0.8650738,0
2.9388349,0.6879133,2.5252297,0.74678385,0.17480484,0.6416831,0
-3.1912148,-2.1142282,-1.1989702,-0.7955361,-0.52705473,-0.29889059,0
3.3113034,-2.0847142,0.57676131,0.83720762,-0.52708507,0.14582443,0
-3.3872015,-1.4123183,1.4203238,-0.86076397,-0.3589018,0.36093616,0
3.0358095,-2.6668081,0.25659895,0.74978042,-0.65864491,0.063374482,0
3.4955897,-0.6838026,1.7612067,0.87972891,-0.17209141,0.44323981,0
2.4191432,2.3120656,-1.8991523,0.6287269,0.60089785,-0.49358308,0
-3.8506229,-0.6775437,1.0803812,-0.94929391,-0.16703482,0.26634634,0
4.0048318,-0.5194031,0.3375527,0.98824811,-0.12816995,0.083295837,0
-2.085746,-2.9987311,1.9016547,-0.50647861,-0.72817743,0.46177599,0
-1.709775,-0.026735706,3.648814,-0.42430112,-0.0066347853,0.90549684,0
-1.8757042,-0.86349833,-3.6534321,-0.44695792,-0.20576134,-0.87056923,0
-3.1062245,1.9495972,2.2391219,-0.72290134,0.45372328,0.52110338,0
1.8432432,-3.2318885,1.3965801,0.46381968,-0.8132478,0.35142475,0
3.4512706,-2.2632365,-1.0794191,0.80902028,-0.53053045,-0.25302911,0
-1.5074668,-2.8568876,-2.2525361,-0.38279593,-0.72545874,-0.57199377,0
3.3611012,-2.3130901,-0.37085003,0.82039303,-0.56458968,-0.09051878,0
3.3921015,-0.56222063,2.0081432,0.85189205,-0.14119604,0.50432491,0
1.4929745,0.2514666,3.613869,0.38103622,0.064179182,0.92232984,0
3.2444777,2.114428,-1.4951117,0.78156817,0.50934845,-0.3601602,0
-3.6054263,-0.89817756,1.0862185,-0.93136138,-0.23201914,0.28059426,0
-2.0996959,3.2940555,0.86748052,-0.52472651,0.82320404,0.21678855,0
-2.3425152,3.1134779,0.099810243,-0.60101879,0.79882455,0.025608297,0
3.2915444,1.0452102,1.825655,0.84260899,0.26756546,0.46735305,0
1.7353107,-2.7045739,-2.3091598,0.43853649,-0.68348241,-0.58355594,0
0.85524839,3.7176123,-1.1927571,0.21398094,0.93013698,-0.29842475,0
0.62303531,-3.9598863,-0.3830936,0.15471973,-0.98336726,-0.095134474,0
2.852515,-2.6406713,0.21305594,0.73273093,-0.67831421,0.054728083,0
2.9930344,-0.57686186,2.4547119,0.7647686,-0.14739752,0.62721848,0
3.3255959,-1.8898588,-0.35450241,0.86571109,-0.49196351,-0.092283212,0
2.8382518,-2.2360635,1.4336618,0.73013598,-0.57522392,0.36880732,0
2.1955152,0.68761337,3.4258952,0.53202367,0.16662449,0.83017296,0
-1.3177649,-0.98888063,-3.7545083,-0.32139915,-0.24118522,-0.91571403,0
1.3736963,3.8232424,-0.79324871,0.33187008,0.92365378,-0.19164026,0
-3.5118597,-1.4352585,-0.78225261,-0.90660584,-0.37051985,-0.2019428,0
3.6902969,0.35940725,-1.6177055,0.91224349,0.088845678,-0.39989772,0
-1.6106445,-0.46130434,3.7605953,-0.39122531,-0.11205076,0.9134481,0
3.0038843,2.3436537,-1.2229615,0.75069743,0.58569992,-0.30562899,0
1.9075346,3.0363939,-1.4876977,0.49135166,0.78212851,-0.38320813,0
-0.90493888,2.7124636,3.1793416,-0.21162975,0.63433897,0.74352342,0
0.56355268,0.16947222,3.8952992,0.14305179,0.043018702,0.98877984,0
0.95910418,3.1050436,-2.4563689,0.23543884,0.76221949,-0.60298419,0
-0.84354466,-3.5574088,-1.7808089,-0.20742758,-0.87476665,-0.43790081,0
-2.5436695,3.2320251,0.45720342,-0.6146698,0.78100878,0.11048178,0
-3.9876232,-1.2207531,-0.40464324,-0.95172679,-0.29135737,-0.096576281,0
0.79315865,-3.9982219,0.15068404,0.19445314,-0.98021597,0.036942147,0
-2.0584049,-2.8471065,2.0092685,-0.50859386,-0.70346743,0.49645317,0
3.9277236,0.092771366,1.2956638,0.94942474,0.022425057,0.31319293,0
3.0944047,-0.023075517,2.5521746,0.7714473,-0.0057528173,0.63626719,0
0.59055459,-3.2083001,2.1918366,0.15026255,-0.81632984,0.55769771,0
-2.8607156,2.7867324,-0.23739061,-0.71504653,0.69655418,-0.059336666,0
2.361119,-2.7647424,1.6832263,0.58932412,-0.69006658,0.42012531,0
1.8967353,3.7441638,0.58422196,0.44759127,0.88354713,0.13786459,0
1.6325086,-3.164427,-1.5805342,0.41904995,-0.81227928,-0.40570858,0
3.2263272,2.2982476,1.0034671,0.7895419,0.56242365,0.24556695,0
-2.0726163,3.2858033,0.57328618,-0.52779353,0.83673269,0.14598782,0
-0.68115109,2.5863748,-3.2148545,-0.16287936,0.61846346,-0.76874787,0
-2.2462955,-2.8802984,-1.4751215,-0.57022959,-0.73117334,-0.37446451,0
-0.87640846,-3.446877,-1.6312037,-0.22398591,-0.88092703,-0.4168908,0
0.18550852,-1.2268962,3.8540783,0.045816995,-0.30301946,0.9518823,0
1.7051606,-1.6234053,3.2755227,0.42271137,-0.40244415,0.81200606,0
-3.1721001,0.26780859,2.711014,-0.75863385,0.064048626,0.64836133,0
1.1414691,-3.6454647,0.062762655,0.29877394,-0.95418251,0.016427817,0
3.5379491,-1.8429154,0.022104263,0.88687646,-0.4619734,0.0055409931,0
3.115005,0.93826705,-2.107388,0.80362982,0.24206041,-0.54367805,0
3.5842302,-1.5197847,0.22732975,0.91908985,-0.38971233,0.058293261,0
-1.5423663,-2.5608618,3.0549023,-0.36084953,-0.5991351,0.71472001,0
-3.6631804,0.064913824,1.5059918,-0.92476505,0.016387409,0.38018563,0
1.385969,2.7299323,2.5135298,0.3498843,0.68916434,0.63453412,0
-3.4108133,-2.2888043,0.77432811,-0.81599677,-0.54756933,0.18524884,0
-2.3732347,-3.1958013,1.1210977,-0.57387072,-0.77277517,0.27109209,0
1.903641,0.86961198,-3.2023063,0.49761227,0.2273168,-0.8370837,0
-3.3716862,2.0886426,0.099660099,-0.84983796,0.52644509,0.025119459,0
2.1541982,3.2463403,0.51876682,0.54807967,0.82594681,0.13198672,0
1.6606134,-3.7302628,-0.42375979,0.40452179,-0.90868384,-0.10322695,0
3.2231557,2.1277196,-0.58909887,0.82501507,0.54462177,-0.15078869,0
-3.6327019,0.75287223,-1.6315669,-0.89633924,0.18576501,-0.4025757,0
-0.31330019,0.84489971,3.8668556,-0.078907706,0.21279621,0.97390521,0
2.7348812,-2.7687001,1.0455713,0.67868078,-0.68707323,0.25946617,0
-2.3402557,3.2003751,-1.2623703,-0.56244487,0.76916146,-0.30339152,0
2.7749271,2.1075764,-1.6284307,0.721457,0.54795158,-0.42337787,0
2.2208364,-0.38865662,3.2868137,0.55719221,-0.097511202,0.82463837,0
3.5647681,-1.6666909,-0.96781498,0.8796643,-0.41128302,-0.23882404,0
1.8937322,-1.549817,-3.0705974,0.48230585,-0.39471567,-0.78203619,0
-3.1357458,2.1720874,1.5061433,-0.76460379,0.52963042,0.36725008,0
0.33179703,-1.5790379,-3.6789544,0.082593434,-0.39306611,-0.91579324,0
0.68573022,-2.5784211,-3.1967032,0.1646878,-0.61924422,-0.7677334,0
2.9308481,-1.7866658,1.8554108,0.75113922,-0.45789978,0.47551826,0
2.8035743,1.9775548,-1.9682946,0.7088024,0.49996734,-0.49762616,0
2.9889283,2.6151354,0.39189762,0.74896115,0.65529668,0.098201111,0
0.8202827,-2.5200181,-3.0277376,0.20386034,-0.62628621,-0.75246692,0
3.17273,0.46617511,-2.7155046,0.75503749,0.11093906,-0.64622825,0
-3.0253565,2.5716944,0.22568537,-0.76069403,0.64662546,0.056746211,0
-1.8163489,1.0796688,-3.5095596,-0.44338378,0.26355487,-0.85670865,0
-1.4748802,3.4539995,1.0438286,-0.37836149,0.88607907,0.26778078,0
-2.3795948,0.56994098,-2.9885812,-0.61607599,0.14755745,-0.77374226,0
0.93214762,3.5538859,-1.4853708,0.23521292,0.89676768,-0.37481016,0
-3.2738063,0.51499718,-2.3188224,-0.8093974,0.127325,-0.57329255,0
1.6514438,-1.0483608,3.3845899,0.42245156,-0.26817846,0.86580312,0
-2.0748081,-0.39554298,3.4218521,-0.51596254,-0.098363489,0.850945,0
-3.3697629,-1.9368267,-1.4599909,-0.81162184,-0.46649301,-0.35164505,0
1.5506717,3.5100052,-0.072800688,0.40403426,0.91454715,-0.018968537,0
2.0848925,1.490298,-3.1846282,0.51003546,0.36457747,-0.77906811,0
0.465341,3.061389,-2.4665968,0.11754354,0.77329636,-0.62305391,0
0.6799922,-1.074277,-3.6453571,0.17613135,-0.27825886,-0.94421917,0
3.3596909,1.6603484,1.3384926,0.84426492,0.41723299,0.33635306,0
-1.7172189,-3.5632811,-0.57912457,-0.4295572,-0.89134419,-0.14486629,0
1.6895623,-1.9119959,-3.364337,0.4001376,-0.45281637,-0.79677308,0
-2.6353283,-0.97290349,-3.112339,-0.62856203,-0.23205087,-0.74233568,0
-0.70003968,3.8257756,0.71038061,-0.17706214,0.96765947,0.1796777,0
0.66708457,-3.7884533,-1.0592793,0.16719252,-0.94950634,-0.26548892,0
-0.0068960786,3.7875614,1.542487,-0.0016862424,0.9261418,0.37717187,0
-2.4842958,-1.2981,2.7214792,-0.63588703,-0.33226514,0.6965971,0
-3.4180796,2.097023,0.75948364,-0.83748323,0.5138036,0.18608543,0
2.9043798,-1.0803148,-2.2323627,0.76047707,-0.28286746,-0.58451742,0
-3.8696082,0.14081222,-0.43206716,-0.99317485,0.036140908,-0.11089449,0
2.1904376,0.4156332,-3.2081828,0.56067091,0.10638671,-0.82117599,0
0.11435944,-3.4368372,1.7842726,0.029519062,-0.88713455,0.46056587,0
-2.2830958,1.9265064,-2.3459256,-0.60107863,0.5071981,-0.61762005,0
2.0011811,0.63107103,-3.3340347,0.50799316,0.16019528,-0.84633356,0
1.9229836,-1.9565961,3.1916289,0.45691356,-0.46490011,0.75835204,0
-1.967677,3.2993155,0.34307721,-0.51018333,0.85545325,0.088953763,0
3.7076442,1.3976446,-0.078700639,0.93553942,0.35266373,-0.01985831,0
-2.4862604,-0.11854482,-3.058533,-0.63049126,-0.030061804,-0.77561396,0
-0.83680129,-0.6640318,3.7029169,-0.21712941,-0.17229997,0.96081609,0
-2.2522535,-1.6956273,2.7204618,-0.57488549,-0.43280718,0.69439518,0
-2.0890057,0.7279582,3.2150598,-0.53528231,0.18653043,0.82381994,0
0.30533966,0.82817125,3.8451443,0.077396147,0.20992118,0.97465014,0
-1.8312483,-2.2143776,-2.7254198,-0.46238849,-0.55912828,-0.68816596,0
-3.1861434,0.14108591,2.4833207,-0.78824621,0.034904405,0.61436915,0
-3.0810962,-1.3811713,-1.9187188,-0.79336292,-0.35564294,-0.49405807,0
-3.0577044,1.7788569,-1.9025096,-0.76125854,0.44287142,-0.47365651,0
0.85875618,-3.9607303,0.25216299,0.21148531,-0.97540641,0.062100012,0
-2.6100094,-2.7609622,-1.3566749,-0.6469537,-0.68437093,-0.33628455,0
-0.88197726,0.62853456,-4.039691,-0.21088085,0.15028268,-0.96589053,0
-1.3220755,-1.9283876,2.9654255,-0.35009971,-0.51065761,0.78527635,0
0.46714887,4.095068,-0.58804816,0.11220463,0.98359561,-0.14124347,0
-2.1441507,2.7804823,-2.0016398,-0.53051221,0.68795532,-0.49525174,0
-2.3340123,-3.2838151,-0.91813278,-0.56485271,-0.79471385,-0.22219668,0
0.65247494,1.0761076,-3.7878137,0.16347025,0.26960665,-0.9489941,0
4.0685735,-0.50452876,0.41788727,0.98728317,-0.12242933,0.10140485,0
2.3031752,-2.003969,-2.6229086,0.57222569,-0.49788767,-0.65166372,0
-2.9094372,-1.8396143,-2.2170715,-0.71058303,-0.44929606,-0.54148388,0
-2.2128839,3.1246784,0.76799053,-0.56665629,0.8001408,0.19666041,0
-2.0171866,3.404042,-0.16991617,-0.5093286,0.85950202,-0.042902905,0
4.0173054,-0.21173219,0.7433089,0.98199201,-0.051755916,0.18169478,0
-2.219384,0.19395904,-3.599766,-0.52425677,0.04581647,-0.85032678,0
-1.4397982,-3.1080604,2.2004108,-0.35365242,-0.76342154,0.54047889,0
-2.480336,2.9208462,-1.3185936,-0.61206311,0.72076613,-0.32538435,0
2.2348299,2.8252516,-1.551096,0.56981289,0.72035229,-0.39548177,0
-0.18689789,1.8957371,-3.6386242,-0.04550596,0.46157467,-0.8859334,0
2.6656234,2.7375059,1.0423734,0.67304218,0.69119179,0.26318845,0
-3.2239382,-0.30861175,2.4308224,-0.79614538,-0.07621108,0.6002869,0
-1.0376867,2.6982503,-2.4884243,-0.27204496,0.70738631,-0.65237731,0
-1.5636064,1.2238101,3.6068194,-0.37976986,0.2972399,0.87602693,0
0.56931782,3.1020989,2.2106528,0.14781679,0.80542415,0.5739705,0
1.4332451,1.045256,-3.4750454,0.36734551,0.26790261,-0.89066577,0
-2.4781649,-3.1055574,0.079537965,-0.62360567,-0.78148282,0.020014942,0
0.89981419,-2.1648602,3.0956788,0.23171769,-0.55748892,0.79719073,0
-2.2361667,-3.0286555,-0.78972787,-0.58132541,-0.78734487,-0.20530172,0
-2.9101312,1.5955963,-1.7447423,-0.77613389,0.42554656,-0.4653239,0
-2.5759814,2.2127519,-2.1927626,-0.63725692,0.5473997,-0.54245466,0
1.2210817,1.7562453,3.1688898,0.31938252,0.4593583,0.82884538,0
-1.7113726,3.218554,-1.8940151,-0.41660106,0.78349566,-0.46106189,0
0.25149694,2.6879787,-2.6458375,0.066532329,0.71109211,-0.6999439,0
-3.2005198,1.7725575,1.8207365,-0.78317261,0.43374783,0.4455373,0
-2.0105815,-3.3785868,0.86120415,-0.49954903,-0.83944356,0.21397476,0
-0.33230451,3.4906104,-1.5811298,-0.086393744,0.9075017,-0.41106793,0
1.9162767,-0.70668942,-3.3854218,0.48466593,-0.17873634,-0.85624307,0
-0.90057701,3.5946302,1.214722,-0.23093271,0.92176205,0.31148812,0
-1.2886397,3.5150783,-0.86264241,-0.3354136,0.91492224,-0.2245329,0
-1.8754439,1.3119631,3.130882,-0.48357776,0.33828586,0.80728883,0
0.61928004,3.030606,-2.4821556,0.15614715,0.76414621,-0.62585825,0
-0.00024010353,-3.4316103,2.4322016,-5.7084151e-05,-0.81585878,0.57825124,0
-2.1474984,1.9402206,2.7741218,-0.53567141,0.48396808,0.69197619,0
1.5413659,-2.1777554,2.8730447,0.39312357,-0.55543393,0.73276669,0
3.0223033,2.141201,1.7601392,0.73699051,0.52213317,0.42921102,0
-1.9086059,-1.1021285,-3.307251,-0.48023227,-0.27731112,-0.83215117,0
2.4179988,2.4046545,2.2229846,0.59399813,0.59072,0.54609156,0
2.9135699,-2.1207175,-1.5573282,0.74216682,-0.54020542,-0.39669457,0
2.9352396,2.1732256,-1.399834,0.7504558,0.55563092,-0.35789704,0
1.0583628,-3.7889163,0.95919615,0.26137537,-0.93571818,0.23688495,0
-2.4648252,2.8586354,1.6734912,-0.59697038,0.69234961,0.40531263,0
-0.43048701,-1.9774053,-3.4325559,-0.10803479,-0.4962486,-0.86143243,0
-3.9438169,1.1458446,-0.56587905,-0.95130181,0.27639318,-0.13649766,0
-3.6980135,0.93098223,0.40236208,-0.96438807,0.24278662,0.10493017,0
0.58738506,-1.9257841,3.3565445,0.15006959,-0.49201393,0.85755545,0
-2.8288503,-0.92336363,-2.775631,-0.69517046,-0.22691025,-0.68209219,0
-3.9443214,-0.95388609,0.37191495,-0.96792388,-0.2340806,0.091266744,0
0.33607554,-4.0179582,-0.77200574,0.081865184,-0.97874087,-0.18805411,0
2.8755603,2.6171627,1.8532481,0.6676001,0.60760963,0.43025655,0
-1.4314394,3.6111531,0.86023045,-0.35978261,0.90763891,0.21621311,0
1.5177572,2.404079,2.9507322,0.37040508,0.58670986,0.7201193,0
3.2072232,1.0886216,-2.0227616,0.81298649,0.27595046,-0.51274192,0
2.1670597,-2.1138151,-2.4278543,0.55843824,-0.54471743,-0.62564343,0
-0.32203504,-3.878576,0.46537122,-0.082159206,-0.98952192,0.11872786,0
-1.5815684,-3.2859013,1.9883518,-0.38077429,-0.79110503,0.47871041,0
-1.9598476,0.91448587,3.4983759,-0.4765127,0.22234592,0.85058683,0
-0.91083324,-2.5148075,-2.8840108,-0.23156567,-0.63935202,-0.7332164,0
4.087687,0.63063216,0.32766783,0.98522085,0.15199597,0.078975022,0
-0.28967693,3.359308,2.5610118,-0.06841515,0.79339266,0.60485315,0
-2.2454948,1.4787028,3.0660462,-0.55064684,0.36261186,0.75186491,0
3.2493184,-1.6584367,1.9080102,0.78926063,-0.40283486,0.46345639,0
-4.0645223,-0.53249258,0.89188427,-0.96886045,-0.1269303,0.21259852,0
2.4237239,2.872951,0.98935854,0.62358028,0.73915827,0.25454402,0
0.78232938,-3.6633551,1.6848,0.19046812,-0.89189076,0.41018617,0
0.77255303,-3.5851848,-1.5395625,0.19422998,-0.90136254,-0.38706622,0
2.9793963,2.4303041,1.604478,0.7151289,0.58333313,0.38511443,0
-2.1520407,-0.48268634,-3.2595017,-0.54681969,-0.12264749,-0.8282184,0
-1.6396362,1.4889491,-3.5225561,-0.39405024,0.35783592,-0.84656835,0
-1.5135961,0.91556895,-3.5715666,-0.37976235,0.22971691,-0.89610869,0
-0.70672274,-3.785249,1.496563,-0.17106731,-0.91624671,0.36225381,0
3.4535778,0.21750623,-1.8477236,0.88037932,0.055446263,-0.47101808,0
3.1154087,-0.17883343,2.661988,0.75954103,-0.043599844,0.64899647,0
-0.80101824,-0.06316831,3.8841221,-0.20195289,-0.015926009,0.97926575,0
-1.9617591,-1.7874612,3.1575787,-0.47560319,-0.4333469,0.76551425,0
-3.4105976,2.05463,-1.0859443,-0.8263908,0.49783868,-0.26312527,0
-0.9040491,2.5509002,-2.9402595,-0.22622785,0.63833332,-0.73576599,0
1.9690231,-1.1423187,2.9977298,0.52310818,-0.30347854,0.79640359,0
-2.8233795,-3.0107853,1.0774707,-0.66186047,-0.70579237,0.25258213,0
2.1809728,-1.5169146,2.932899,0.55113798,-0.38332862,0.74115187,0
-3.4650855,1.8557017,-0.71252221,-0.86740696,0.46453357,-0.17836405,0
1.3362532,-0.40841436,-3.7087812,0.33716008,-0.1030501,-0.93579048,0
2.908391,-2.5686321,-0.45840529,0.74435407,-0.65739846,-0.11732117,0
3.1875844,-1.9998262,1.1492256,0.81015134,-0.50827259,0.29208532,0
2.9392781,-1.6885762,1.9713093,0.74956453,-0.43061486,0.50271648,0
-2.7836502,0.27729478,-2.9788959,-0.68118322,0.067856431,-0.72896153,0
3.3760538,0.074101932,-2.0899298,0.85011804,0.018659474,-0.52626145,0
-1.3051008,-3.7377038,0.20748037,-0.329202,-0.94280803,0.052335385,0
1.1780955,-2.3809566,2.9383304,0.29741305,-0.60107827,0.74178863,0
-3.8860939,-0.32915655,-0.25896159,-0.99424267,-0.08421348,-0.066254362,0
-3.4968505,-0.4391211,-2.1304574,-0.84911937,-0.10662916,-0.5173263,0
-2.3145006,-1.0123128,3.2308443,-0.56434375,-0.2468318,0.78777546,0
3.2453873,-1.6269457,-1.9057218,0.79152805,-0.39680108,-0.4647927,0
-2.1592872,-3.2588861,0.99297386,-0.53534269,-0.80796146,0.24618369,0
2.2432621,1.7780359,-2.6253841,0.57754916,0.45777228,-0.67593014,0
3.9309666,0.6662786,0.21330424,0.98453009,0.16687277,0.053423103,0
-1.1463454,3.9989188,0.34904584,-0.2746,0.9579165,0.083611794,0
2.3537591,3.34009,-0.90282106,0.56247175,0.79817271,-0.21574482,0
1.6567719,-2.8457048,-2.1986544,0.41843799,-0.71871752,-0.55529702,0
2.6536868,0.90108454,3.0474808,0.64095825,0.21764345,0.73607326,0
1.5443032,-3.7149863,0.40730423,0.38189903,-0.91869891,0.10072445,0
3.0147867,1.1019858,-2.3013194,0.76331341,0.27901161,-0.58267069,0
-2.3267169,-3.1760721,-0.34924835,-0.58865529,-0.80354065,-0.088359214,0
3.0897214,1.4943265,-2.062722,0.77160585,0.37318283,-0.51513004,0
2.0743048,-3.4015112,0.46198744,0.51718086,-0.84808969,0.1151861,0
2.7082446,1.9783012,-2.1844943,0.67663252,0.49426219,-0.5457778,0
0.07710664,3.6468832,1.603815,0.01935062,0.91521889,0.40249214,0
2.9445302,-2.2933099,-0.9844678,0.76285452,-0.59413958,-0.25505111,0
3.5954673,-0.81885517,1.5877225,0.895549,-0.20395817,0.39546552,0
1.5453671,-1.8108915,-3.4295664,0.3701607,-0.43376157,-0.82148159,0
2.314971,-2.8897228,-1.5402,0.5772689,-0.72059095,-0.38406944,0
-2.5319998,-3.1070533,0.12603836,-0.63140982,-0.77481204,0.031430434,0
-3.1816418,-1.4145921,1.7532402,-0.81613386,-0.3628619,0.44972968,0
3.6410258,-1.0137647,1.1245822,0.92334908,-0.25708655,0.28518939,0
-3.5331969,1.4945973,0.56123912,-0.91128719,0.38548866,0.14475559,0
-3.5984867,-1.6227875,-0.91233242,-0.88817972,-0.40053695,-0.22518221,0
3.5684524,1.5152215,1.4076461,0.86519146,0.36737403,0.34129176,0
-3.5230429,1.1927238,1.0730915,-0.91007221,0.30810431,0.27720091,0
-4.1584864,-0.18955517,0.321381,-0.99599886,-0.045400348,0.076973945,0
2.2671065,-1.8989452,-2.4814761,0.58725667,-0.49189052,-0.64278555,0
1.4047917,1.9910942,-3.0797169,0.35771224,0.5070067,-0.78421056,0
-1.6236432,-0.86441791,3.56319,-0.40490285,-0.21556786,0.88858551,0
2.800935,-2.8323226,0.87999755,0.68660092,-0.69429505,0.21571623,0
1.5634564,-3.6829815,-0.45506603,0.38825417,-0.91459727,-0.11300685,0
3.4896698,-1.3174523,1.0714869,0.89918566,-0.33946884,0.27609077,0
3.7724454,0.81898069,-1.0732073,0.94152832,0.20440151,-0.26785147,0
-0.83931559,0.43702605,3.8264847,-0.21292946,0.11087095,0.97075677,0
-3.7720075,-1.4154571,-0.089207187,-0.9360218,-0.35124499,-0.02213672,0
0.82079244,3.9249957,0.35045233,0.20391425,0.97510958,0.087064922,0
0.82474333,-1.7004956,-3.3216319,0.21580732,-0.44496194,-0.86915827,0
-0.30843833,2.4472337,-3.211333,-0.076170973,0.60436124,-0.79306084,0
1.7413796,2.1508665,-2.9666536,0.42922297,0.53015512,-0.73123395,0
-3.2345309,-2.1060069,-0.84532648,-0.81861854,-0.53300351,-0.21394137,0
-2.328527,2.9977856,1.3845669,-0.57629424,0.74193114,0.34267071,0
-2.3162732,1.3163518,-2.9067197,-0.5874455,0.33384874,-0.73719257,0
3.5269718,-1.1218474,-1.5274208,0.88088763,-0.28018978,-0.38148478,0
0.40788668,-4.0025434,0.16009682,0.10130163,-0.99406081,0.039761212,0
-2.4317851,-2.6789908,1.8641095,-0.59747982,-0.65821725,0.45800421,0
-2.5015314,-1.8592733,-2.3645799,-0.63940793,-0.47524256,-0.60440224,0
2.8794296,-0.10759325,-2.8368919,0.71209669,-0.026608324,-0.70157695,0
1.4691423,1.2325987,3.5360248,0.36522388,0.30641991,0.879044,0
2.2687039,2.5849907,-2.1957471,0.5559864,0.63349813,-0.53810704,0
2.7893918,-0.88429457,-2.8113875,0.68739724,-0.21791905,-0.69281769,0
0.70902252,3.0596921,2.1760912,0.18556094,0.80076349,0.56951296,0
3.7552431,0.80549496,-0.31361362,0.97451621,0.20903252,-0.081385292,0
3.5412207,-1.7832,1.0042082,0.86581433,-0.43598527,0.2455249,0
3.0462134,-2.0191596,-0.79762769,0.81434911,-0.53978515,-0.21323109,0
0.92144477,-3.5659828,1.8031844,0.2246974,-0.86957687,0.43971255,0
3.1026144,1.4165299,2.1348994,0.77107531,0.3520422,0.5305745,0
3.7439344,1.8839906,-0.1218844,0.89289933,0.44931716,-0.029068485,0
2.6061184,-1.4324785,2.8187506,0.63603216,-0.34960133,0.68792582,0
-1.0853844,-3.9772472,-0.34323391,-0.26236337,-0.9613958,-0.082967848,0
3.6289568,0.99301296,1.7101142,0.87809032,0.24027707,0.41379243,0
-0.87365913,3.1144359,2.1949203,-0.22349657,0.79672468,0.56149721,0
2.385638,1.4861885,-2.9253292,0.58805996,0.36634561,-0.72109389,0
-0.4384329,1.4087212,3.8813126,-0.10558885,0.33926573,0.93474585,0
-2.1220646,0.67070651,3.4611804,-0.51569688,0.16299281,0.8411243,0
2.9803321,-1.3401828,-1.9603879,0.7820915,-0.35168752,-0.51444024,0
-0.80741459,-3.0711432,2.2564352,-0.20726569,-0.78837144,0.57923353,0
-1.3852754,-2.553983,2.8523502,-0.34023085,-0.62727153,0.70055211,0
-0.23547308,1.1756661,-3.8573174,-0.058294456,0.2910516,-0.95492965,0
0.65627122,2.1363735,-3.2248068,0.16726509,0.5445016,-0.82191265,0
-2.2927904,1.8635545,2.7369916,-0.56928223,0.46270624,0.67957395,0
-0.3802481,2.7072659,2.9278412,-0.094925284,0.67584288,0.73090738,0
0.52853531,-3.2811141,-2.2967319,0.13083184,-0.8121959,-0.56852525,0
-2.3189118,-2.3403659,-2.2565141,-0.58069927,-0.58607173,-0.56507367,0
3.9045362,0.24038994,-0.64852673,0.9846707,0.060623061,-0.16354959,0
-2.5813367,-0.9505648,3.129025,-0.61958224,-0.22815818,0.75104046,0
-1.5182633,-1.9649564,-3.2666786,-0.3700071,-0.47886804,-0.79610312,0
-2.8123374,-0.70742661,2.7332666,-0.70572603,-0.17752115,0.68588406,0
3.6413331,1.0738598,-0.41267884,0.95354277,0.2812078,-0.10806672,0
3.3837047,1.4593272,-1.3138795,0.86490917,0.3730188,-0.33584091,0
-2.4540179,-2.8110077,-1.8395349,-0.58986968,-0.67567897,-0.44216707,0
1.3910136,2.2778487,3.2199576,0.33259529,0.54464006,0.76990098,0
-1.6096576,0.74984753,-3.6184113,-0.39935398,0.1860362,-0.89772314,0
0.055913161,-2.6674762,3.2156916,0.0133814,-0.63839293,0.76959437,0
1.8764354,-3.460376,-1.2934307,0.4528679,-0.83514369,-0.31216276,0
2.5100708,-2.2999306,-1.9518842,0.63962549,-0.5860768,-0.49738634,0
-1.5443745,-3.620939,-0.67192769,-0.38672522,-0.90671563,-0.16825673,0
-2.8169181,0.14835945,2.6857312,-0.72323376,0.038090765,0.68955201,0
0.33991557,-0.65152103,-3.959501,0.084406681,-0.1617835,-0.98320991,0
2.488317,-2.2341459,-2.3366487,0.60994285,-0.54763979,-0.57276553,0
-0.74726009,1.1439834,3.5702741,-0.19547352,0.29925117,0.93393731,0
-1.0974264,-3.67802,0.48036638,-0.28370509,-0.95083642,0.12418362,0
-2.7711554,-2.0028446,-2.1632206,-0.68491036,-0.49501696,-0.53465503,0
-1.955886,0.48100841,3.4621837,-0.48830703,0.12008869,0.86436969,0
3.4129078,0.15161069,2.3389041,0.82433063,0.036619015,0.56492305,0
2.8473773,-2.2311649,-2.0149229,0.68765259,-0.53883493,-0.4866116,0
-3.3954921,2.1926534,-0.90863883,-0.81961459,0.52926958,-0.2193301,0
3.0696452,-2.2352676,-0.37500945,0.80447185,-0.58580381,-0.098279938,0
2.4757593,2.1489961,-2.3803096,0.61109477,0.53043944,-0.58753484,0
-1.2425548,2.871398,-2.3878424,-0.31570438,0.72955567,-0.60669541,0
2.5510528,2.8003874,1.3088937,0.6365065,0.69871736,0.32657865,0
1.1704135,3.5534582,-0.98253119,0.30257994,0.91865414,-0.25400788,0
-2.2074697,0.8896054,3.0968776,-0.56518298,0.22776748,0.79289985,0
3.0276058,-2.3252909,0.57717609,0.78417212,-0.60226744,0.14949284,0
-2.3558071,-1.5670428,2.7418683,-0.5979265,-0.39773056,0.69591254,0
0.60452569,-2.0486889,-3.2247927,0.15628666,-0.52964288,-0.83369833,0
2.044805,-2.2027831,2.8329837,0.4950757,-0.53332436,0.68590468,0
1.9853891,3.1979184,1.9760299,0.46701279,0.75222975,0.46481127,0
-0.1776742,-0.31254983,3.808646,-0.046443768,-0.081700049,0.99557424,0
-1.9562098,-1.6046335,3.2071767,-0.47887111,-0.39280686,0.78510207,0
-0.5514968,1.7051859,3.5436049,-0.13888064,0.42940831,0.89236802,0
-0.22956377,3.9354413,-0.59614611,-0.057578765,0.98708016,-0.14952427,0
3.6891594,-0.69168949,1.4249635,0.91888326,-0.17228366,0.35492507,0
2.2998579,-3.4658494,0.24437991,0.55196476,-0.83180219,0.05865106,0
-0.43630838,2.3270171,-3.4535174,-0.10420196,0.55575311,-0.82479113,0
-2.2949877,-2.4651897,2.0922663,-0.57880265,-0.62172812,0.52767575,0
1.8708421,-2.7045286,-2.4485478,0.45630413,-0.65964282,-0.59720832,0
1.634143,1.4428519,3.1831722,0.42356309,0.37398124,0.82506508,0
3.1258831,0.066619366,2.7424312,0.75161159,0.016018478,0.65941143,0
-0.52734643,1.5047685,3.7133453,-0.1304923,0.37235618,0.91887027,0
2.9734311,-1.2823405,2.064229,0.77430135,-0.33393005,0.53753901,0
-2.786382,-0.87559456,-2.551491,-0.71846676,-0.22577149,-0.65790027,0
3.2288599,1.0809888,-2.5196095,0.76226795,0.2551994,-0.59482837,0
0.79920685,2.4049139,3.1317358,0.19838026,0.59695113,0.7773639,0
-1.6092592,1.1684568,-3.2782063,-0.41970396,0.30474019,-0.85497487,0
1.9903517,2.9906321,-1.8205014,0.49420789,0.74257928,-0.45203379,0
-1.0700768,1.0761727,-3.7583046,-0.26401085,0.26551482,-0.92725414,0
2.1979628,3.3042881,-0.32463482,0.55200201,0.8298474,-0.081529617,0
2.8071697,1.5774233,-2.7593355,0.66197997,0.37198415,-0.65069985,0
-1.7125804,-1.4796827,-3.2776163,-0.42996067,-0.37148935,-0.82287878,0
2.9657109,0.95109409,2.6450872,0.72579843,0.23276125,0.64733219,0
2.7858002,-2.7951024,-0.27940339,0.70416451,-0.70651579,-0.070624568,0
1.4826999,3.6260614,0.55263728,0.37477148,0.91653371,0.1396862,0
-4.0484123,0.50300699,0.087561682,-0.99214095,0.1232715,0.021458667,0
2.0991323,-3.0964952,-0.9787159,0.54285342,-0.80077994,-0.25310424,0
-3.5029414,1.4959366,-0.41027498,-0.91436148,0.39047951,-0.10709275,0
3.7102776,-1.6071875,0.39355302,0.91329384,-0.3956131,0.096874028,0
1.8073027,-3.0312271,1.735899,0.45952955,-0.77072781,0.44137424,0
-3.7470336,0.85652626,1.2115027,-0.92976397,0.21253271,0.30061421,0
-1.6792957,2.5359192,2.6582491,-0.41572317,0.62778723,0.65807104,0
2.5557339,0.72454739,-2.9814036,0.64002424,0.18144608,-0.74662328,0
0.16119209,0.81928438,3.9289105,0.040130891,0.20397161,0.97815388,0
3.7544088,0.91371036,-0.23231779,0.96988791,0.23604159,-0.060015365,0
-3.1070378,-2.1508696,1.3594511,-0.77367014,-0.53557885,0.33851108,0
3.5889781,-1.89817,-0.83461362,0.86587316,-0.45795053,-0.20135802,0
-1.6909281,2.6305413,2.5575907,-0.41856381,0.65115094,0.63309312,0
3.5456278,1.7439553,0.58037746,0.88780373,0.43667582,0.14532299,0
-2.2370205,1.6343989,2.8662214,-0.56117439,0.41000196,0.71901441,0
3.254988,-0.73828703,-1.9434085,0.84277338,-0.19115545,-0.50318247,0
-4.0122676,-0.021800471,-0.47657475,-0.9930051,-0.0053954474,-0.11794855,0
0.31371796,3.8017859,0.63733685,0.081114747,0.9829877,0.16478947,0
-0.76611304,-2.3833973,2.945591,-0.19817969,-0.6165421,0.76197153,0
1.1643857,3.7085066,0.28487477,0.29875723,0.95152587,0.07309296,0
2.3932264,2.9649689,1.2446975,0.59704214,0.7396757,0.31051672,0
3.8480275,-1.0116217,0.4429307,0.96119976,-0.25269324,0.11063977,0
0.16849481,1.5934956,-3.6462879,0.042305164,0.40009004,-0.91549891,0
-3.5978713,-0.59990126,-1.0379726,-0.94871724,-0.15818706,-0.27370143,0
3.8545461,-0.045835275,0.37140098,0.99532032,-0.011835578,0.095903106,0
-2.1518748,-3.1496041,0.67582053,-0.55547649,-0.81302637,0.17445365,0
0.097695693,0.067033485,-3.9917483,0.024463637,0.016785622,-0.99955976,0
-0.60306448,1.9540257,-3.5052857,-0.14860418,0.4815014,-0.86375529,0
3.7364478,-0.36574185,-1.0947311,0.9554525,-0.093524382,-0.27993527,0
-2.7952447,-0.10621261,-2.903482,-0.69331074,-0.026344148,-0.72015703,0
0.54293191,3.437598,-1.9290713,0.13644619,0.86391526,-0.48480192,0
2.7267299,-2.8717074,-1.550616,0.64116353,-0.67525357,-0.36461201,0
-2.4038024,-2.5360663,-1.9372255,-0.60165155,-0.63475609,-0.48487127,0
-0.46112809,-1.9667481,3.2286241,-0.12107833,-0.51640874,0.84773934,0
1.8697367,3.4935222,0.61928809,0.4662101,0.87109339,0.15441659,0
1.4694871,3.6699445,0.3597866,0.37018979,0.92452395,0.090636611,0
0.54478633,-1.1056719,-3.9507842,0.13163547,-0.26716095,-0.95461887,0
-2.943465,-2.3842285,-1.4169382,-0.72780842,-0.58953023,-0.35035565,0
-1.888419,-3.3546944,-0.74113649,-0.48169279,-0.85570627,-0.18904708,0
0.96518838,-1.363345,-3.4382787,0.25249711,-0.35665643,-0.89946729,0
0.97482413,-1.4606016,3.6875064,0.2386771,-0.35761544,0.90285349,0
-1.5901408,-1.1531219,3.622772,-0.38586202,-0.27981544,0.8790983,0
3.5895736,1.6467118,1.4086989,0.85609007,0.39273012,0.33596557,0
-2.6151025,2.943404,-1.0303532,-0.64254844,0.72321439,-0.2531648,0
-3.3286977,1.1604252,-1.624436,-0.85759264,0.29896739,-0.41851333,0
2.3699207,0.9256959,3.0205731,0.60007995,0.23439246,0.76482958,0
-0.098989837,-2.981441,-2.6665363,-0.024740342,-0.74514592,-0.66644239,0
3.2852619,1.3713477,-1.8909175,0.81499553,0.34019881,-0.46909177,0
-1.4417399,2.7311387,-2.830955,-0.34413046,0.65189844,-0.67572373,0
0.93567526,3.7720208,1.15678,0.23075485,0.93025023,0.28528339,0
0.99639308,3.7410283,-1.0673652,0.24811272,0.93155676,-0.26578555,0
-3.9823871,-0.27559948,0.068684921,-0.99746627,-0.069029249,0.017203474,0
-1.9761709,2.7783756,2.2075016,-0.48653379,0.68403679,0.54348749,0
3.2078509,1.8684485,-1.570295,0.79583764,0.46354452,-0.38957542,0
3.7580435,-1.1834292,-1.1539261,0.91537321,-0.28825623,-0.28106993,0
3.8768117,0.39710417,0.11500605,0.99436206,0.1018531,0.02949786,0
-3.8197041,-1.3926247,-0.34155068,-0.93620759,-0.34133163,-0.083713904,0
0.50724411,3.4197512,1.7690773,0.13061495,0.88058317,0.45553598,0
-3.6058273,-1.3575844,-1.0118053,-0.9051764,-0.3407965,-0.25399503,0
2.8900309,2.6095498,1.1544001,0.71159142,0.64253056,0.28423959,0
2.6654162,-3.0035105,0.15814503,0.66324145,-0.74737018,0.039351579,0
-3.0558596,-2.5470092,-0.37582263,-0.7647593,-0.63741446,-0.094053358,0
-1.0004877,2.8254893,2.2325039,-0.26769349,0.75599641,0.59733546,0
-2.5687172,0.46486068,-3.0038323,-0.64546722,0.11681018,-0.75480288,0
-2.1685917,-3.4246283,-1.0670279,-0.51736748,-0.81702387,-0.25456408,0
-2.1969676,-2.67114,-1.8007306,-0.56343085,-0.68503636,-0.46181253,0
1.0861871,2.8736134,-2.4595115,0.27601066,0.73021299,-0.62498569,0
-3.5446062,1.6067574,-1.475343,-0.85165209,0.38605088,-0.3544763,0
0.23828499,-3.865181,1.0739127,0.059294518,-0.96180648,0.26723102,0
2.7336671,0.066824667,-3.061219,0.66598654,0.016280083,-0.74578601,0
-3.8923073,0.59779274,-0.098139547,-0.98810393,0.15175609,-0.024913775,0
3.1019683,-0.39065292,-2.1120155,0.82215202,-0.10353944,-0.55977291,0
3.5841553,1.2678137,-0.94763958,0.91476768,0.32357833,-0.24186175,0
2.3146381,2.0199423,-2.786201,0.55809855,0.48704237,-0.67180037,0
1.4866349,-3.3767524,-1.0519096,0.38749346,-0.88015521,-0.27418169,0
2.2696962,3.3025863,1.5128404,0.52988529,0.7710247,0.35318905,0
2.2142372,2.1605537,-2.4142292,0.56425196,0.55057186,-0.61521572,0
-0.99538249,3.5070508,-1.2628366,-0.25799799,0.90900946,-0.32732072,0
2.8287728,-2.36303,1.7537211,0.69301444,-0.57891321,0.42964005,0
-0.47672468,-3.0901816,-2.7496998,-0.11449233,-0.74215186,-0.66038024,0
3.7220693,0.90538335,0.37466705,0.96705198,0.2352328,0.097344376,0
3.4016209,1.017242,1.5693729,0.87628925,0.26205102,0.40428507,0
-0.80848861,3.8682058,-0.41928396,-0.20344587,0.9733848,-0.10550747,0
-3.0175354,-2.4052114,1.3627182,-0.73735493,-0.58772945,0.33298928,0
1.3774538,1.2174673,-3.7693448,0.32845372,0.29030496,-0.89879984,0
-3.3569851,-1.6403438,1.3506584,-0.84495974,-0.41287774,0.33996338,0
-2.6190302,1.9988077,-2.2194726,-0.65929323,0.50316346,-0.55871189,0
-0.95034122,-3.7499945,-0.12592173,-0.2455288,-0.96884328,-0.032532956,0
3.1703525,-2.5703573,-0.11338605,0.77648002,-0.62952971,-0.027770415,0
2.6354644,2.6276748,-1.4070625,0.66239089,0.66043305,-0.35364747,0
0.96235102,1.3050213,-3.7666426,0.23467234,0.31823355,-0.9185077,0
1.0857177,3.9645076,-0.59162945,0.26143944,0.95464838,-0.14246362,0
-2.3376443,-3.1785033,-0.43984294,-0.58882678,-0.80062985,-0.11079158,0
-3.4586341,1.5173589,-0.51974666,-0.90719807,0.39800251,-0.13632929,0
1.442778,3.4612503,1.8018497,0.34679234,0.8319611,0.43310037,0
-0.089467771,3.1234465,-2.5507934,-0.022180257,0.77434415,-0.63237578,0
0.9264487,-2.6904173,-2.5619707,0.24196316,-0.70266372,-0.66911697,0
-1.457219,-2.727561,-2.6842012,-0.35586399,-0.6660912,-0.65550238,0
-0.94198859,-0.42353863,-3.8476033,-0.23645392,-0.10631484,-0.96580881,0
3.0911982,-2.2966709,1.3458487,0.75775784,-0.56299222,0.32991332,0
0.5654974,-2.3416181,3.2212687,0.14058778,-0.58214748,0.80083662,0
-3.8714893,0.94407791,-0.83044791,-0.95109791,0.23192897,-0.20401381,0
-3.2512629,-1.914387,-1.6578517,-0.78891701,-0.46452484,-0.40227672,0
2.3416419,-2.0500054,2.5210252,0.58465499,-0.51183993,0.62944293,0
-2.1972854,2.6511312,2.1886518,-0.5385446,0.64978009,0.53642851,0
-3.6979938,-0.72106427,-1.1267689,-0.94036275,-0.18335941,-0.28652605,0
3.9976475,-0.58316857,0.15017155,0.98884374,-0.14425048,0.037145894,0
