-1.5182703,3.8375919,-1.6906261,-0.34042898,0.86047101,-0.3790749,0
-2.5636938,2.0170035,2.7945035,-0.59685254,0.46957782,0.65058726,0
-2.8624251,3.0297472,1.4730216,-0.64750409,0.68535376,0.3332096,0
3.3457222,2.1486645,2.3712692,0.72267497,0.46411085,0.51219344,0
-0.1187651,-1.3445445,4.021215,-0.027999369,-0.316982,0.94801825,0
4.0377655,1.4350916,-0.3316251,0.93944693,0.33389565,-0.077157572,0
-0.32846335,2.440429,-3.9031539,-0.071173042,0.52880406,-0.8457545,0
-3.991308,-1.8913174,0.12294399,-0.90332675,-0.42804956,0.027825113,0
-3.9837329,1.4153222,-0.72642493,-0.92868835,0.32994011,-0.16934428,0
-2.2444761,2.1794646,3.1099737,-0.50880009,0.49406266,0.70499969,0
1.4883884,-1.6314912,3.5176048,0.35835549,-0.39280999,0.84692478,0
3.7094014,1.2931771,1.4976668,0.88231665,0.30759457,0.3562344,0
2.7747738,-3.6279905,0.2806288,0.60636586,-0.79281759,0.061325256,0
-0.55536222,4.3273864,0.42267022,-0.12669946,0.98724312,0.096427321,0
3.7407374,-0.24037057,-2.2681825,0.85380161,-0.054863188,-0.51769948,0
-3.1579068,-2.3948877,2.2145312,-0.69556725,-0.52750301,0.48777732,0
-3.6183908,0.14287092,2.3462508,-0.83858734,0.033111334,0.54376,0
2.5431571,-3.721632,-1.3053735,0.54192966,-0.7930547,-0.27816629,0
1.9275696,3.608356,-0.78441399,0.46275064,0.86625618,-0.18831387,0
1.5107759,4.1012545,-0.37474209,0.34439895,0.93492866,-0.085426822,0
0.16787629,0.54860044,4.4269586,0.037606873,0.12289495,0.99170691,0
3.5683098,1.6913943,-1.8024064,0.82204455,0.3896527,-0.41522697,0
3.8022404,1.9843413,1.1540823,0.8560794,0.44677702,0.25984314,0
-3.6744649,1.0210077,-1.6351386,-0.88553339,0.24605933,-0.39406279,0
1.3650619,4.01372,1.6866541,0.29917917,0.87968278,0.3696622,0
1.5828203,0.83788097,-4.200294,0.34664127,0.18349786,-0.91987407,0
1.0534619,-4.2551317,-1.2132719,0.23161146,-0.9355225,-0.26674688,0
2.8334076,1.2447664,-3.0649912,0.65051097,0.28578103,-0.70367932,0
-2.8294511,3.391504,0.22864415,-0.63975495,0.76683831,0.051697738,0
-3.7677391,-1.8458077,-0.60631657,-0.88879365,-0.43541822,-0.14302751,0
1.9590964,3.9491854,-1.1450456,0.43012676,0.86705804,-0.25139895,0
0.35896957,-4.2928753,0.34991872,0.083055474,-0.99325079,0.080961362,0
-2.5378153,-3.1390457,-1.6621859,-0.58134371,-0.71906912,-0.38076112,0
2.8461013,-2.8256478,-1.630106,0.6574223,-0.65269774,-0.37653896,0
-1.7932262,-3.8580172,-1.4603999,-0.3986648,-0.85770309,-0.3246718,0
-3.5096352,0.47970203,2.5817513,-0.80068803,0.1094392,0.58900064,0
-2.6900637,1.0982922,3.6574507,-0.57588905,0.23512249,0.78298736,0
1.3134042,4.2424622,0.47340548,0.29407141,0.94988793,0.10599556,0
-4.3276544,-0.48712739,1.1093392,-0.96297342,-0.10839376,0.24684601,0
-3.9147587,1.7939038,-0.67214781,-0.89822048,0.41160166,-0.15422073,0
-0.37283814,3.797431,2.2058659,-0.084593318,0.86159986,0.50048935,0
-3.3603992,-0.59683466,-3.0960522,-0.72924691,-0.12952028,-0.67188042,0
2.8719125,-0.49109185,-3.347141,0.64717513,-0.11066578,-0.7542662,0
3.1053755,-3.2326384,-0.33618894,0.69082874,-0.71913987,-0.074789338,0
2.8134909,0.74248791,-3.3619237,0.63277179,0.16699021,-0.75611782,0
-1.1126229,0.24105042,4.0692444,-0.26331198,0.057046704,0.96302253,0
0.3902716,3.8850441,-1.995519,0.08900208,0.88599068,-0.4550814,0
-3.728687,-2.1035197,-0.28411451,-0.86905098,-0.49027067,-0.066219017,0
0.090841167,2.9561179,-3.1434577,0.021047337,0.68491423,-0.7283197,0
-2.3029172,1.2508361,3.358166,-0.54062515,0.29364213,0.78835189,0
-4.3475676,-0.24802102,0.94611317,-0.97561556,-0.055657137,0.21231246,0
0.59490705,3.5753164,2.3827209,0.13715345,0.8242749,0.54932678,0
-4.1435242,1.3933945,-1.0124043,-0.92340195,0.31052387,-0.2256186,0
1.4626982,4.0232253,1.4858956,0.32279068,0.88785207,0.32790992,0
2.9399235,0.20490415,3.277559,0.66700214,0.046488117,0.743604,0
-1.6700711,-2.2363584,3.5437069,-0.37022942,-0.49576673,0.78558606,0
-3.1098726,1.9001572,2.2145159,-0.7292462,0.4455753,0.51929051,0
-1.4001971,-2.6638269,3.1271386,-0.32262674,-0.61378628,0.72054034,0
2.3278124,-1.4176828,-3.2253435,0.5512588,-0.33572727,-0.76380682,0
-2.2300887,-3.6307433,1.3405069,-0.49925557,-0.81282365,0.30010265,0
0.64581257,-3.7326272,2.3861866,0.14425141,-0.83373529,0.53298867,0
1.5999188,3.7129805,1.6882519,0.3651664,0.84745282,0.38532758,0
1.0055933,3.5400801,2.4173386,0.22838525,0.80400503,0.54901367,0
3.4669712,-0.72796011,2.5026805,0.79931617,-0.16783246,0.57699734,0
-2.7664471,3.433188,0.79570687,-0.61746806,0.76628393,0.17760094,0
3.6713541,2.4284852,-0.69425792,0.8238619,0.54495871,-0.15579338,0
-2.1804881,1.6585863,3.2250879,-0.51528418,0.3919504,0.76213974,0
-2.8088336,3.0138285,1.2910564,-0.65059161,0.69807327,0.29903889,0
-0.8828398,-0.23298891,4.3683,-0.19782618,-0.052208006,0.97884583,0
4.0351934,-0.075804353,-1.8709775,0.90709221,-0.017040458,-0.42058682,0
-4.3490052,-0.27506569,-0.38334286,-0.99416649,-0.062878996,-0.087630756,0
-3.3205309,-2.7716436,-1.0766213,-0.74497354,-0.62182862,-0.24154402,0
-1.9285094,-0.59306848,3.7919044,-0.44898355,-0.13807452,0.88280755,0
1.7973373,4.0274968,0.53770691,0.40453205,0.90648067,0.12102329,0
-0.95005369,-0.26451033,4.4359469,-0.20906729,-0.058207717,0.97616732,0
0.049386345,4.0773029,-1.7122707,0.011167007,0.92194045,-0.38717055,0
0.9578703,-3.1227248,2.7821388,0.22324872,-0.72780657,0.64842695,0
-3.0876632,-2.5905263,-2.0747688,-0.68113458,-0.5714668,-0.45769134,0
-0.90932184,4.3561378,0.96572614,-0.1996922,0.95663244,0.21207891,0
3.8840842,0.1483376,1.6086955,0.92331713,0.035262533,0.38241604,0
-2.4192235,-0.099127166,-3.5339282,-0.56473511,-0.0231399,-0.82494783,0
-0.39161235,4.5033932,0.80446827,-0.085292332,0.98082936,0.17521146,0
2.4930704,-3.6889067,0.77966404,0.55155194,-0.81611162,0.17248821,0
-1.8922731,1.2824018,3.6834109,-0.43650422,0.29582083,0.84967881,0
-1.8008789,-2.1032274,3.3097317,-0.41733268,-0.48739842,0.76699173,0
4.3995175,-0.24316688,-1.0449109,0.97153151,-0.053697772,-0.23074436,0
1.3523208,-3.9399126,0.97960645,0.31602395,-0.92071843,0.2289243,0
2.5379257,-0.73969871,-3.2239265,0.60873741,-0.17742139,-0.77327907,0
3.2523124,2.313355,1.8067107,0.74236393,0.52804011,0.41239485,0
-1.7052145,4.0554461,0.17105906,-0.38731214,0.92112958,0.038853321,0
-0.5602892,-4.2035699,-0.79827404,-0.12984011,-0.97412539,-0.18499015,0
-4.1352439,1.2115128,-0.55889422,-0.95169079,0.27881926,-0.12862469,0
3.3198209,2.8542767,-0.34813127,0.7558862,0.64988697,-0.079265609,0
0.57733935,2.2811036,3.5837059,0.13466722,0.53207856,0.83591694,0
-3.230022,2.2485414,-1.899124,-0.73915958,0.51455718,-0.43459636,0
-2.4341102,2.2480175,2.9143457,-0.55161524,0.5094431,0.66044563,0
-4.1922574,0.69312894,-0.88629615,-0.96582025,0.15968437,-0.2041866,0
0.51982152,1.7669417,-3.904711,0.12040436,0.40927023,-0.90443391,0
-3.7534645,-0.55595058,2.664084,-0.80958861,-0.11991356,0.574619,0
3.0100002,2.0622859,2.1516626,0.7105943,0.48685998,0.50795984,0
1.9198822,0.67573828,3.6233876,0.46196538,0.16259731,0.87186581,0
-0.60745472,3.8436537,-1.6471548,-0.14375545,0.90960884,-0.38980269,0
1.3888046,0.27152035,-4.056478,0.32326189,0.063199803,-0.9441967,0
0.27413461,0.5717482,-4.2640042,0.063591175,0.13262878,-0.9891237,0
1.8731828,3.032975,2.5949194,0.42483166,0.68786865,0.58851916,0
-2.0808864,3.2017484,-1.954953,-0.48506799,0.74634814,-0.45571211,0
-2.124902,3.4669602,1.5422158,-0.48860005,0.79719293,0.35461715,0
2.853235,-2.9857457,-1.3115543,0.65847343,-0.68905443,-0.30268228,0
0.99649864,4.3256135,-0.19941318,0.22426546,0.97349423,-0.044878624,0
2.2933617,1.9919515,3.2291167,0.51729792,0.4493109,0.72836983,0
-3.8640127,2.0752394,0.83638865,-0.86538881,0.46477306,0.18731858,0
2.4060183,3.5681052,1.1579269,0.5398801,0.80063778,0.25982419,0
0.93675327,-3.9132869,-2.0820541,0.20676173,-0.86374718,-0.45955446,0
-3.7653348,0.44121581,2.2752254,-0.85160965,0.09979023,0.51459002,0
1.310576,2.5637474,-3.5686991,0.28581408,0.55910921,-0.77827191,0
3.4135487,-0.23954244,-2.6737723,0.78604901,-0.055160217,-0.61569828,0
-3.2852523,1.2961079,2.7377334,-0.73519385,0.29005095,0.61266673,0
2.8645623,-2.9414933,-1.405539,0.66007173,-0.67779869,-0.32387379,0
-0.94871986,3.7404335,-2.2305329,-0.21285345,0.83919841,-0.50043923,0
-1.6839215,0.36667407,-4.1438622,-0.37521008,0.081702031,-0.92333215,0
-3.2469389,2.6651561,0.74580669,-0.76105452,0.62468964,0.17481066,0
-3.6155496,-2.546212,-0.46717307,-0.8130756,-0.57259977,-0.10505928,0
-1.3772745,-3.3367121,2.3171964,-0.32107937,-0.7778765,0.54020017,0
-1.1376231,3.7026489,-1.894009,-0.26384342,0.85873747,-0.43926835,0
-0.30434901,3.1230979,-3.1288798,-0.06868194,0.70478433,-0.70608914,0
1.1333027,4.3838186,0.16333073,0.25012833,0.9675414,0.036048308,0
4.0480995,-0.13806403,1.4374224,0.94186801,-0.032123245,0.3344439,0
-3.4844422,1.0526228,2.3973351,-0.79945809,0.24151005,0.55003607,0
4.1520982,0.42188907,0.50125021,0.98777866,0.10036685,0.11924676,0
-0.11458362,2.0103147,3.8209372,-0.026529917,0.4654547,0.88467401,0
-2.6882727,2.6774318,-2.3316414,-0.60365671,0.60122234,-0.52357447,0
-4.0175252,1.9253832,-0.63479471,-0.89277071,0.42785686,-0.14106348,0
-3.6241722,0.88126546,-2.3474727,-0.8223623,0.19996828,-0.53266591,0
1.8649272,0.60143042,-3.8933034,0.42787197,0.13798675,-0.89324421,0
-3.1689301,2.2808399,-2.250365,-0.70319182,0.50612289,-0.49936041,0
0.09686166,4.3576002,-1.1501561,0.021487219,0.96666437,-0.25514385,0
3.6338077,-0.089740187,-2.8233838,0.78950858,-0.019497633,-0.61342973,0
1.6363043,-1.6000355,-3.8440011,0.36576122,-0.35765412,-0.85924518,0
1.3419112,-3.9966588,-0.58490467,0.31527618,-0.93899757,-0.1374208,0
-1.8390911,3.606545,1.6650331,-0.42013177,0.82389838,0.38036907,0
-1.6630955,-0.42072228,-4.1295624,-0.37191498,-0.094085351,-0.92348641,0
2.0886014,-0.54575747,-3.820085,0.47599742,-0.12437948,-0.87060684,0
-3.2836101,2.5713909,-1.4838748,-0.74176699,0.58087677,-0.33520707,0
3.1146877,-1.8125811,2.2018502,0.73752964,-0.42920268,0.52137804,0
-3.1709824,2.1244969,2.3076751,-0.71094,0.47631609,0.51738495,0
-1.8400662,-4.0922284,0.416264,-0.40834486,-0.90814149,0.092376709,0
0.30860251,-3.0079396,3.4946709,0.066779464,-0.6508975,0.75622278,0
0.074719645,-0.15175211,-4.5475669,0.016419332,-0.033346899,-0.99930894,0
2.9232092,3.2323508,0.24917515,0.6696558,0.7404747,0.05708164,0
4.3439355,-0.28028691,1.1445682,0.96511948,-0.062273104,0.25429592,0
-2.8971314,-1.9933337,-2.4210579,-0.67857128,-0.46688217,-0.56706452,0
0.71496713,-3.9571474,-1.8307722,0.16181725,-0.89561421,-0.41435543,0
-2.4250231,1.5889193,-3.2387054,-0.55788779,0.36553824,-0.74507916,0
0.43782631,4.288713,-0.83072406,0.099725522,0.97685802,-0.18921748,0
2.3914385,2.1484756,3.2727897,0.52128303,0.46832228,0.71339899,0
0.26314771,-1.2274834,-4.1833868,0.060248759,-0.28103742,-0.95780379,0
2.9120209,0.74432743,3.1166594,0.67254812,0.17190672,0.71981055,0
0.037041731,3.9230444,1.683751,0.0086763622,0.91890287,0.3943885,0
-0.58399516,4.0878005,0.83465713,-0.13862348,0.97032499,0.19812334,0
3.1907597,1.9771452,-2.2816491,0.72637475,0.45009607,-0.51941621,0
-1.1145799,-2.1330378,-3.5700216,-0.25887445,-0.49542344,-0.82918006,0
0.1508064,-1.5162201,-4.1173482,0.034350365,-0.34536141,-0.93784094,0
-3.0879328,0.92737871,-2.8833876,-0.71390307,0.21440184,-0.666614,0
2.8447652,-1.7564029,-2.780849,0.65417194,-0.40389606,-0.63947403,0
3.0852954,-1.1597267,-3.0718522,0.68477142,-0.25739765,-0.68178779,0
-2.1169889,-2.1692877,3.2156596,-0.4790608,-0.49089566,0.72768283,0
3.887872,1.3996136,1.1834469,0.90452296,0.32562354,0.27533183,0
-0.59871572,-4.2058139,1.4476269,-0.13340099,-0.93710542,0.32254851,0
-4.491581,0.30712229,0.88784635,-0.97881824,0.066928975,0.19348203,0
-1.7430481,-3.7970231,0.96528518,-0.40648967,-0.8854894,0.22511052,0
-0.27285153,4.241859,-1.2829775,-0.061452664,0.95536768,-0.28895709,0
0.15215878,4.2529998,1.0140985,0.034780122,0.97214139,0.23180042,0
3.7565901,0.44127062,-2.3254974,0.84605688,0.099382691,-0.52374703,0
1.5043429,4.1488595,0.70143366,0.33664998,0.92845416,0.15697061,0
1.7231729,4.0289874,0.9227646,0.38479829,0.89970511,0.20606072,0
-3.3818903,2.1789069,-1.2598276,-0.80221647,0.51685739,-0.29884306,0
-4.3277526,-0.97516638,0.83278072,-0.95879376,-0.21604364,0.18449876,0
-3.1775684,-0.62524056,-3.081198,-0.71085209,-0.13987222,-0.68929315,0
3.5238724,1.6963751,1.4115335,0.84752095,0.40799248,0.33948568,0
-0.17918104,0.8614707,-4.4861317,-0.039194301,0.18843926,-0.98130244,0
-0.62910527,2.8365674,3.4835763,-0.13868524,0.62531674,0.76794881,0
-1.4373708,-2.9773531,-2.9610081,-0.32385841,-0.67083651,-0.66715378,0
-1.2221414,1.7208534,-3.8920774,-0.27603084,0.38866913,-0.87905824,0
2.7238967,3.3300664,0.59008706,0.62726712,0.76685768,0.13588701,0
0.40313545,-2.0883403,-3.8916051,0.090900838,-0.47088858,-0.87749702,0
-2.2575252,0.32561636,3.7061772,-0.51875621,0.074823312,0.8516416,0
-1.185398,-3.8380907,1.6977453,-0.27181703,-0.88009125,0.38930055,0
-0.16870545,-4.1810155,1.7623098,-0.037156645,-0.92085057,0.3881411,0
2.080754,-0.99606574,-3.6984708,0.47735304,-0.22851092,-0.84847909,0
-1.4764295,-3.2597754,-2.2933686,-0.34736612,-0.76694185,-0.53957105,0
3.1908274,2.3683035,-1.9464347,0.72112364,0.53523409,-0.4398922,0
-2.8646867,-3.1153529,1.3052464,-0.64681071,-0.70340806,0.29470843,0
1.8669337,-3.3494127,1.7945263,0.44096833,-0.79112875,0.4238658,0
-3.308017,0.14604615,-3.0497172,-0.73484135,0.032442622,-0.67746276,0
3.7373455,-0.33703688,2.4163668,0.83736867,-0.075514592,0.54139757,0
3.6965952,2.3893139,0.20302832,0.83894747,0.54225814,0.046077564,0
-0.19599301,3.7467442,2.5572906,-0.043165404,0.82518113,0.56321645,0
-3.8953836,-2.2159595,-1.060858,-0.84582555,-0.4811632,-0.23034979,0
-4.3405638,-0.95517033,-0.61685199,-0.96736002,-0.2128741,-0.13747476,0
1.7462002,3.8670437,-0.92126721,0.40217552,0.89063686,-0.21218134,0
-3.0985739,-2.7116227,-1.7376236,-0.69332355,-0.60674101,-0.38880315,0
2.0602536,-0.32679859,-3.6460392,0.49046645,-0.077798061,-0.86798048,0
-1.18826,1.8111324,-3.8014154,-0.271586,0.41394833,-0.8688429,0
-0.78812236,-2.5019064,3.5305591,-0.17918575,-0.56882787,0.80270004,0
4.0033412,-1.3793559,0.76758575,0.93029165,-0.32053307,0.17837065,0
1.6891532,1.1855037,-3.8796318,0.38439316,0.26977986,-0.88287073,0
0.34332097,2.3377516,-3.6907175,0.078343064,0.53345597,-0.84219182,0
2.1155381,0.21152404,3.8548019,0.48055917,0.048049156,0.87564504,0
2.5647666,-0.62609446,3.5092497,0.58403605,-0.14257115,0.79910904,0
3.4881837,1.1157445,2.754549,0.76118678,0.24347626,0.60109401,0
-0.69366783,2.1812706,-3.8803463,-0.15397285,0.48417476,-0.86131716,0
0.69837022,-1.3711643,4.2463388,0.15462478,-0.30358678,0.94017351,0
2.509515,-2.7943017,-2.245502,0.57349193,-0.63857335,-0.51315784,0
-4.2804294,-0.47024202,-0.50267541,-0.98731548,-0.10846511,-0.11594613,0
2.6664889,0.26108792,3.3778372,0.61847496,0.060557667,0.78346765,0
1.8543662,-1.3585151,-4.042192,0.39877874,-0.29214668,-0.86926746,0
3.2653127,-0.67339575,-2.7476904,0.75579596,-0.15586556,-0.63598609,0
0.25354284,4.1300917,0.93946856,0.059753083,0.97334915,0.22140692,0
-0.92911822,3.5877964,1.9609393,-0.22159059,0.85567361,0.46767536,0
-3.2647786,3.1022422,0.10688473,-0.72471744,0.68863755,0.023726335,0
-0.70307845,-0.67751217,4.2443328,-0.16143452,-0.15556422,0.97454536,0
1.6040601,2.3084476,3.4147923,0.36266506,0.5219214,0.77205706,0
-0.036429033,-0.55096328,4.1981907,-0.0086032236,-0.13011765,0.99146122,0
1.8199382,-3.8384764,1.2505933,0.41097668,-0.86680102,0.28240776,0
-2.675916,-0.064278327,3.5020828,-0.60707808,-0.014582656,0.7945084,0
3.9215181,-0.89834183,-2.1125274,0.86300683,-0.19769771,-0.46490303,0
3.868042,2.1063232,-0.35189387,0.87544137,0.47671729,-0.079642996,0
-0.80514008,-3.9432454,1.5021217,-0.18742542,-0.91793269,0.34967303,0
-0.014646758,3.0765913,-2.9567857,-0.003432479,0.72100151,-0.69292498,0
-0.8754794,3.3428497,2.93576,-0.19307965,0.73723751,0.6474573,0
-1.4962659,-1.4378942,3.7512167,-0.34902772,-0.33541161,0.8750307,0
3.3458323,1.2238346,2.6617739,0.75234932,0.27519345,0.59853083,0
4.2483292,-0.69008791,1.3218688,0.94356406,-0.15327017,0.29359022,0
-0.67465723,1.5725887,4.1337328,-0.15079784,0.35150141,0.92396247,0
1.0363033,4.0983548,-1.6017855,0.22923835,0.90658802,-0.35432744,0
-4.0089655,-0.346917,1.5680215,-0.92828864,-0.080329731,0.36308035,0
-2.6576738,-3.7098963,-0.16747418,-0.5819701,-0.81238282,-0.036673032,0
2.1600785,3.4331961,1.7376332,0.48951125,0.77802175,0.39377782,0
0.40319037,4.0637636,1.8142011,0.090228178,0.90941155,0.40599197,0
-2.0400126,-3.4155676,-1.6716572,-0.47273466,-0.79149371,-0.38737521,0
0.65968871,-4.2425523,-1.1614648,0.14831606,-0.95384169,-0.26112902,0
-1.1885414,-2.8444164,3.3332012,-0.26178077,-0.62649357,0.73415029,0
0.48139599,1.4913584,4.1378164,0.10879897,0.33705777,0.93517643,0
-0.47103992,3.7785988,2.2270861,-0.10678021,0.85657191,0.50485897,0
1.9421149,-3.2341089,-2.0605407,0.4518123,-0.75238091,-0.47936279,0
-1.6924919,-3.871938,0.64263803,-0.3959718,-0.90587038,0.15035023,0
0.98446739,-1.127916,-4.3091278,0.21580712,-0.24725278,-0.9446128,0
2.3066459,-2.1656518,3.0038381,0.52871209,-0.49639452,0.68851727,0
3.2378685,-2.2675655,-1.9741048,0.73280573,-0.51320332,-0.44678628,0
-4.2616973,-1.2825837,0.011599836,-0.95757073,-0.28818673,0.0026063942,0
0.84397316,2.907727,3.1669333,0.19262654,0.66365308,0.72281373,0
-2.5198383,3.3431067,1.5125128,-0.56609654,0.75104862,0.3397949,0
-2.6482315,2.0006027,2.588737,-0.6291579,0.47529644,0.61502337,0
-2.4750261,-1.5113753,3.3393292,-0.55960655,-0.34172389,0.75502664,0
2.5728087,-3.1279531,-1.7022027,0.58562332,-0.71198541,-0.38745579,0
-0.36927575,-4.4885602,0.04062983,-0.081990071,-0.99659228,0.0090210168,0
2.9466732,-3.0166774,-0.35635749,0.69627625,-0.71281767,-0.08420454,0
-1.0841507,2.1632137,3.8013258,-0.24059612,0.4800632,0.84359515,0
0.50001693,-0.92923671,4.4108191,0.11025035,-0.20489042,0.97255576,0
-2.8269548,-1.1253314,3.0911794,-0.65175569,-0.25944564,0.71267277,0
3.066283,-3.1333849,-1.1954982,0.67477417,-0.6895408,-0.26308444,0
-0.98559225,-4.4063578,-0.13972104,-0.21817689,-0.97541904,-0.030929526,0
-1.0594355,0.48940754,4.2713675,-0.23926239,0.11052756,0.96464354,0
0.070964813,1.5795331,-3.9883482,0.016540665,0.36816171,-0.92961466,0
3.1486628,1.4243855,2.9153566,0.69640476,0.31503814,0.64480335,0
4.0175304,-2.0293365,-0.7930066,0.87905234,-0.44402725,-0.17351313,0
-4.0995183,-0.62104368,-0.49695477,-0.98169291,-0.14871849,-0.11900348,0
1.7049474,4.0954256,-0.077285819,0.38427278,0.92305523,-0.01741921,0
1.6374618,3.8547242,1.9406198,0.35474667,0.83510381,0.4204241,0
1.6820168,-3.7261062,-1.6743364,0.38074124,-0.84344119,-0.37900269,0
-0.49091455,-1.5915569,-3.8935857,-0.1159222,-0.37582257,-0.91941255,0
-2.855993,2.082689,2.7291796,-0.63953608,0.46637183,0.611139,0
3.1752512,-2.7884018,1.281859,0.71904236,-0.63143951,0.29027969,0
1.5857968,-4.0922666,-0.045154799,0.36131054,-0.93238872,-0.010288144,0
3.947598,1.0263209,1.643888,0.897663,0.23337997,0.37381148,0
1.0588166,-0.52291936,4.3483696,0.2349861,-0.11605295,0.96504575,0
1.4468946,3.772428,1.7954786,0.32725072,0.85322714,0.40609154,0
-0.41326195,3.2960539,-2.7039173,-0.096484065,0.76952809,-0.63128221,0
-2.2936108,-0.03582117,-3.6470547,-0.53234887,-0.0083141215,-0.84648424,0
0.50898826,-4.1262674,1.5341359,0.11485533,-0.93110943,0.34618416,0
1.3964679,-2.664851,3.1267774,0.32182926,-0.61414015,0.72059548,0
3.4378459,-1.4913584,2.2364011,0.78777552,-0.3417418,0.51246685,0
-3.2644074,-1.2322915,2.4442661,-0.76625621,-0.28925648,0.573744,0
1.0295317,4.3400044,-0.15602402,0.23067258,0.97240329,-0.034958091,0
-4.1071873,0.26311204,1.1660904,-0.96015841,0.061509065,0.27260298,0
-3.8372374,1.3845875,1.312395,-0.89544052,0.32310113,0.3062546,0
-4.2839999,0.096077561,0.7511515,-0.98473346,0.022084685,0.172662,0
-0.14989962,2.1150594,3.9467628,-0.033457667,0.47208229,0.88091934,0
-2.1145048,3.6317225,1.4099478,-0.47702822,0.81930959,0.3180815,0
0.13770197,-0.86136979,4.1432219,0.032522496,-0.20343858,0.97854745,0
-2.2244728,-3.1353362,-2.141988,-0.50547421,-0.71245271,-0.48673096,0
1.3158587,4.2626476,-0.70952594,0.29129979,0.9436487,-0.15707216,0
-0.16183329,-2.9539852,-3.3726172,-0.03607288,-0.65844774,-0.75176144,0
-2.2491138,-2.6398888,2.8075063,-0.50405735,-0.59163541,0.62920082,0
3.1644125,-1.0677325,2.8847184,0.7170552,-0.24194795,0.65367657,0
1.5039772,4.1036897,-0.054785244,0.34408462,0.93885499,-0.012533939,0
-1.1550059,-4.2020192,-0.26110232,-0.26456481,-0.96251148,-0.059807908,0
-1.8632238,3.4824564,-2.233258,-0.41065136,0.76752746,-0.49220628,0
-3.9074826,-1.7822759,-0.45321721,-0.90480244,-0.41269732,-0.10494532,0
3.263936,3.0267408,0.33811793,0.73114157,0.67800838,0.075740479,0
-3.7789474,1.6246023,-1.2402226,-0.87958819,0.3781426,-0.28867432,0
-1.8950461,3.8013408,-0.72433734,-0.43980479,0.88222021,-0.16810517,0
1.9666816,2.9938788,-2.4060163,0.45576766,0.69381499,-0.55758107,0
-0.63690341,-4.3075695,-0.1566142,-0.14617211,-0.98860592,-0.035943639,0
-3.1537657,-2.1558475,-2.5170701,-0.68936527,-0.47123551,-0.55019325,0
-2.2984972,2.2140779,-2.9621944,-0.52786982,0.50848222,-0.68029362,0
-1.6688077,-2.1283531,3.7631044,-0.36010736,-0.4592714,0.81202984,0
-0.89256728,-4.1115623,1.4756082,-0.2001904,-0.92216611,0.33095834,0
0.43150261,2.8565264,-3.3884785,0.096905179,0.64150763,-0.76097137,0
3.6149909,-2.3138437,1.5246005,0.79366171,-0.50799829,0.33472201,0
2.2087467,-0.61354452,-3.8338013,0.4944717,-0.13735411,-0.85827237,0
2.1090937,0.28816774,-3.6032894,0.50395375,0.06885574,-0.8609817,0
4.2822704,-0.66784734,-0.32874447,0.98522604,-0.15365228,-0.075634554,0
-1.8384029,-1.2686937,-3.899837,-0.40905914,-0.28229436,-0.86774451,0
3.2138898,-1.9916006,2.1648211,0.73766619,-0.45712098,0.49687931,0
0.45820424,-2.9948063,-3.1341972,0.10511371,-0.68701935,-0.71899617,0
3.8386922,2.1807237,-0.76214772,0.85681719,0.4867495,-0.17011556,0
2.936867,3.4483781,0.1918309,0.64780384,0.76063114,0.042313389,0
2.9392803,0.50205183,3.5130911,0.63787115,0.10895333,0.76239735,0
0.038320579,2.652118,-3.5330644,0.0086739575,0.60031343,-0.79971784,0
-3.763732,-0.54531372,2.5608139,-0.82090694,-0.11893828,0.55853868,0
3.3063967,-1.7026718,2.0423954,0.77926612,-0.40129316,0.4813607,0
-3.0014122,-1.9071095,2.5592523,-0.68505907,-0.43528932,0.58413804,0
-1.3454195,0.010759719,-4.2429409,-0.30226275,0.0024172848,-0.95322162,0
-1.352301,-3.8621974,1.2956655,-0.31505108,-0.89979184,0.30185646,0
-3.9650209,1.5526683,1.4355583,-0.88235855,0.34552407,0.31946293,0
-0.85040402,0.24120575,4.2932281,-0.19401072,0.055028554,0.97945482,0
1.3080012,-3.0919852,-2.6631811,0.30522996,-0.72153342,-0.62146938,0
-2.7542596,3.1392949,-1.5266227,-0.61941671,0.70600885,-0.34332842,0
0.61860818,-3.923919,-2.1686249,0.13668521,-0.86701357,-0.47917074,0
2.4321125,-2.8805573,-1.7515736,0.58506191,-0.69293851,-0.42135346,0
1.8874985,-3.6539519,-1.6563921,0.42571682,-0.82413244,-0.37359181,0
-0.12472805,0.78059942,-4.3682122,-0.028097199,0.17584382,-0.98401701,0
0.77666193,-4.123116,0.39474866,0.18429831,-0.97839648,0.093672045,0
-2.4085352,0.80454135,3.6790607,-0.53878284,0.17997374,0.82299596,0
0.61741006,4.1499743,0.58961987,0.14572288,0.97948879,0.13916376,0
2.2776628,-3.458173,1.603163,0.51294494,-0.77880383,0.3610431,0
-0.3777914,-4.2439122,0.91073722,-0.086710192,-0.9740572,0.20903121,0
-1.9308642,4.1348829,-0.31004161,-0.42213765,0.90399408,-0.067783244,0
-0.010736101,0.84469867,4.1551881,-0.0025319853,0.19921242,0.97995305,0
-3.7539127,-1.866928,-1.5718071,-0.83839792,-0.41695923,-0.35104701,0
-2.5443943,-0.53412092,-3.4541924,-0.58853453,-0.12354556,-0.79897666,0
3.5493305,-1.4750377,-2.4434435,0.77929378,-0.32386044,-0.53648436,0
0.83383435,-2.2850547,3.5980818,0.19198839,-0.52612847,0.8284499,0
4.366374,0.16805778,-0.076223984,0.99910814,0.038454767,-0.017441476,0
-3.5901096,-0.15607518,-2.5925212,-0.81021214,-0.035222881,-0.5850774,0
-3.2892923,0.06928362,2.8349793,-0.75738394,0.015953066,0.65277499,0
-0.96919632,-4.1354179,0.59269476,-0.22599228,-0.96427578,0.13820156,0
2.5022171,0.05153789,-3.5807917,0.57275599,0.011796992,-0.81964105,0
3.8082666,0.6054951,-2.3265109,0.84560996,0.13444771,-0.5165922,0
0.83558208,-0.36389491,4.4002686,0.18594688,-0.08097963,0.97921705,0
3.3737509,-2.9369915,0.40854886,0.75111413,-0.6538763,0.090957172,0
1.6810515,-4.1789994,0.1266547,0.3730514,-0.92738479,0.028106643,0
-1.9670999,-0.6788767,-3.8350253,-0.45083573,-0.15559042,-0.87894189,0
-2.0450449,-2.3963377,-2.9469972,-0.47406319,-0.55549663,-0.68314534,0
2.9985654,3.3768997,0.68829542,0.65639752,0.73921633,0.15067051,0
-1.2279885,-2.6666675,-3.12796,-0.28625137,-0.62161595,-0.72914594,0
-2.607316,-3.1931202,1.5348573,-0.59272641,-0.7258985,0.34892219,0
-2.4629633,-2.7411649,-2.5140598,-0.55210811,-0.6144709,-0.5635621,0
2.8481052,3.0747166,-1.6235644,0.63367081,0.68408924,-0.3612245,0
2.9045818,3.158294,-0.36557031,0.67448068,0.73339581,-0.084890053,0
1.9225615,-4.1892104,-0.05611356,0.41707319,-0.90879142,-0.012173062,0
-1.1284132,-3.3614275,2.6260104,-0.25574228,-0.76183015,0.59515601,0
-0.074239776,4.2192183,1.64474,-0.016391834,0.93158585,0.36315176,0
2.3266573,-3.1398475,1.5605834,0.55291075,-0.74615866,0.37085965,0
-2.4379995,-1.7594939,3.2357111,-0.55196393,-0.39835003,0.73256612,0
3.7438402,1.3897289,2.0598226,0.83318835,0.30928293,0.45841169,0
-2.7356126,-1.3238689,3.3518848,-0.60461861,-0.29259834,0.74082559,0
-1.6701865,-2.4969301,-3.3781734,-0.36945751,-0.55233926,-0.74727672,0
-0.48585379,-1.278438,4.2404413,-0.10904498,-0.28693247,0.95172417,0
3.7679651,-2.6278653,0.38332495,0.81738299,-0.57006168,0.083154514,0
-2.4663467,2.2117805,2.9511669,-0.55589783,0.49852031,0.66517299,0
-2.3931258,-3.3826373,-1.9134033,-0.52434456,-0.74115092,-0.4192352,0
-0.11233287,-2.3730071,-3.892436,-0.024633668,-0.5203808,-0.85357898,0
4.385778,-0.67775083,0.62759846,0.97853261,-0.15121634,0.1400266,0
-3.930491,2.0760918,-0.79303282,-0.87048531,0.45979178,-0.17563288,0
-1.8613309,-0.053378917,-3.9313278,-0.42788944,-0.012270938,-0.9037478,0
0.61818707,4.2871375,-0.71683598,0.14080447,0.97648132,-0.16327374,0
-2.8820384,1.0673903,2.906208,-0.68135935,0.25234792,0.68707347,0
2.212801,-1.1837602,3.4228139,0.52136773,-0.27891091,0.8064642,0
3.2113056,2.4198956,-1.8709511,0.72408962,0.54564142,-0.42186463,0
-1.8856317,-2.0527048,3.2492387,-0.44046769,-0.47949454,0.75899482,0
-4.3372798,0.74374324,1.5665337,-0.92853498,0.15922229,0.33536717,0
-0.45705959,1.642875,-3.9590971,-0.10602835,0.38111293,-0.91842848,0
4.0014262,2.1439722,-0.9039005,0.86447757,0.46318883,-0.19528081,0
-1.3192877,-0.42181224,-4.3005714,-0.29199961,-0.093360238,-0.95185089,0
1.9163053,3.1454272,2.4281278,0.43438399,0.71299875,0.55040282,0
3.3948977,2.3195112,1.5134377,0.77485746,0.52940935,0.34542972,0
-1.9545877,-2.8458071,2.8409653,-0.43716714,-0.63649911,0.63541621,0
2.0314617,-2.2664402,-3.3464229,0.4490898,-0.50103587,-0.73978472,0
1.6743734,4.018887,-0.52359325,0.38183215,0.91648632,-0.11940272,0
2.0517066,3.8211508,-1.6136619,0.44336385,0.82573217,-0.34870452,0
-3.9276545,-0.02464756,1.9650518,-0.89430153,-0.0056120902,0.4474296,0
4.0297513,-2.1850991,-0.38034731,0.87606978,-0.47504154,-0.082687683,0
-2.1781654,0.54247171,3.9842827,-0.47630018,0.11862247,0.87124449,0
0.36465934,-3.2017379,3.1288333,0.081188507,-0.71284151,0.69660991,0
1.7767959,4.0428724,0.65316403,0.3980163,0.9056353,0.14631389,0
-2.2793674,3.3338745,1.8289772,-0.51413065,0.75198364,0.4125413,0
-0.7514528,-3.176255,-2.7902958,-0.17499785,-0.73968422,-0.64980233,0
3.0724475,-2.5739074,-1.2614784,0.73119819,-0.61255282,-0.30021366,0
-3.6050401,2.4171615,-0.98788613,-0.8098678,0.54301238,-0.2219274,0
4.4097357,-0.96328706,-0.48263478,0.97142464,-0.21220337,-0.10632005,0
2.0940161,-3.0621059,-2.1212423,0.49002355,-0.71656758,-0.49639478,0
4.2219462,0.06766554,-0.11801322,0.99948132,0.016018784,-0.027937828,0
-2.7474518,-2.8244402,1.9726611,-0.62349814,-0.64096963,0.44766954,0
1.5592883,-1.0248771,-4.1485443,0.34278622,-0.22530392,-0.91199553,0
-3.7231317,2.640815,-0.36178032,-0.81310278,0.57673329,-0.079009987,0
1.9397424,2.9710178,2.6075199,0.44052404,0.67473125,0.59217924,0
-3.5038142,-0.93377507,2.0628581,-0.83987784,-0.22382951,0.4944751,0
-3.6662807,0.67707604,-2.427829,-0.8240518,0.15218304,-0.54569113,0
0.64578986,1.355536,4.113039,0.14748977,0.30958629,0.93936312,0
0.63446784,3.4126074,2.4714851,0.14889887,0.80088127,0.58001578,0
2.1675906,3.8075747,-0.54108638,0.49100304,0.86249256,-0.12256699,0
4.0484381,-1.1009744,1.0507971,0.93604136,-0.25455683,0.24295531,0
2.2113004,-0.54031491,-3.6695523,0.51208085,-0.12512317,-0.8497749,0
4.0244069,0.52799916,1.0612274,0.95925748,0.12585387,0.25295413,0
0.012597322,4.3030686,0.63595372,0.0028960512,0.98925048,0.14620206,0
2.7315261,-0.45493585,-3.3306291,0.63062906,-0.1050313,-0.76894432,0
3.8681819,2.1359854,0.61501718,0.86704582,0.47877717,0.13785496,0
-1.5012865,-1.0179576,-3.9896326,-0.34255537,-0.232272,-0.91033262,0
-2.136308,-3.2598426,-2.6127095,-0.45529029,-0.69473815,-0.55682105,0
3.1447735,-2.8141985,-1.2717195,0.71349537,-0.63849354,-0.28853142,0
1.2440641,4.2830472,-0.97133321,0.27254546,0.93831581,-0.21279646,0
-0.27255577,-3.0561018,2.9481864,-0.064053953,-0.71822143,0.69286001,0
3.8644359,1.4744551,-1.0320114,0.9065122,0.34587494,-0.2420873,0
-4.0311918,1.0545764,1.4485605,-0.91380024,0.23905391,0.32836318,0
-2.992095,1.5538423,2.8327641,-0.67946708,0.35285804,0.6432851,0
-1.9211417,1.0970529,-3.9183187,-0.4269464,0.2438044,-0.87079054,0
-4.5240068,0.13838823,0.72698802,-0.98688322,0.030188508,0.1585878,0
-0.034732204,2.6949317,3.2877233,-0.0081699118,0.63391757,0.77335751,0
-0.22459024,-1.8483753,-3.9436109,-0.051498793,-0.42383453,-0.9042744,0
-2.4288747,2.4996192,2.8574512,-0.5389182,0.55461496,0.63401067,0
-4.0970416,-0.23404266,-1.7173903,-0.92097527,-0.052610524,-0.3860527,0
0.0051335292,3.4215012,2.6587043,0.0011847354,0.78962713,0.61358595,0
0.29138803,-4.2175326,-0.44035682,0.068554483,-0.99225342,-0.10360218,0
1.4360057,-4.1903515,-1.2093152,0.31274027,-0.91259497,-0.26337048,0
-2.8736641,1.8770736,-3.1141694,-0.62004739,0.40501416,-0.67194098,0
-0.79360533,0.83699751,4.147047,-0.18436816,0.19444892,0.96343035,0
2.2403185,-3.0747702,2.0069408,0.52084869,-0.71484923,0.46659103,0
4.1061153,1.6929767,-0.10132442,0.92426127,0.38107863,-0.022807503,0
-1.7148157,-1.5026991,-3.5638845,-0.40531373,-0.35517788,-0.84235954,0
-0.093011253,3.7702281,-2.2655768,-0.021141045,0.85695612,-0.51495552,0
-3.6993368,-1.80266,-1.253785,-0.85992378,-0.41903463,-0.29144672,0
-3.9379621,-2.0108104,0.75387561,-0.87794203,-0.44829661,0.16807148,0
-2.3039505,3.5543046,-0.10860538,-0.54375571,0.83885199,-0.025631972,0
3.9498427,0.34435782,-2.2234414,0.86891544,0.075754367,-0.48912898,0
1.9993973,-0.76330942,3.8981457,0.4496063,-0.17164609,0.87657958,0
-0.64758408,0.46609733,4.2855129,-0.14855725,0.10692377,0.98310632,0
-4.3594728,0.57857299,1.0482196,-0.96429366,0.12797746,0.23186095,0
2.2141094,3.8395326,0.20713873,0.49900758,0.86533928,0.046684142,0
0.87833267,3.5086167,-2.5867698,0.19752412,0.78903633,-0.58172655,0
2.0345435,3.7284157,1.0870047,0.46405277,0.85040283,0.24793154,0
-1.1222188,4.4230456,-0.042703927,-0.2459178,0.96924555,-0.0093579385,0
3.1712589,-0.88515836,2.6547239,0.7498104,-0.20928627,0.6276812,0
0.0037964527,2.8164818,3.1879644,0.00089246308,0.66209334,0.74942082,0
1.2516916,3.1981547,2.6444008,0.288775,0.73783916,0.61008388,0
3.7516737,2.5573542,0.17997552,0.82564098,0.56280386,0.0396077,0
2.9162002,-1.5875853,2.941386,0.65742236,-0.35790208,0.66310024,0
4.3445034,0.97572917,-0.90203452,0.95627069,0.2147682,-0.19854724,0
2.1704953,-0.85061598,3.5465846,0.51140797,-0.20042053,0.8356396,0
2.0053372,-1.375174,-3.5101922,0.46962073,-0.32204571,-0.82203585,0
0.64415038,3.769942,-2.1174152,0.14734907,0.86237234,-0.48435766,0
-3.8617229,-0.49141052,-2.1764994,-0.86585855,-0.11018191,-0.48800513,0
-4.2794247,-0.033718932,-1.0181197,-0.97281808,-0.0076651396,-0.23144355,0
3.9261503,-1.4867913,-1.1081728,0.90421939,-0.34241822,-0.25521979,0
0.48362818,-1.4023263,4.306304,0.10618382,-0.30789018,0.94547796,0
-0.23891671,2.5785108,-3.5031457,-0.054843258,0.59189636,-0.80414599,0
-0.34719804,3.4125552,2.5709789,-0.080993772,0.79607511,0.59975362,0
0.70936739,-1.6871692,4.1202984,0.1573399,-0.37421939,0.91389501,0
1.2090536,1.318697,-3.8607616,0.28413931,0.30990654,-0.90731633,0
-2.6151142,-3.6429601,0.43183079,-0.58047104,-0.80861968,0.095852509,0
1.5999047,3.1906323,2.2193987,0.38065398,0.75912452,0.52804583,0
-2.1509712,-3.5777795,-1.6386354,-0.47962698,-0.79777902,-0.36538553,0
2.6149459,-0.74321812,-3.3363001,0.60761428,-0.17269571,-0.77522969,0
1.8750154,-0.49857628,-3.9757955,0.42383417,-0.11269969,-0.89870089,0
-3.530412,-2.261246,-0.83237141,-0.82595706,-0.52902949,-0.19473734,0
2.5367653,-3.1963046,1.4737842,0.58469474,-0.73671085,0.33969003,0
3.2690079,-2.6930091,-0.83936214,0.7571035,-0.62370199,-0.1943966,0
-1.1726179,-3.0903556,-2.660502,-0.27636105,-0.72833097,-0.62702364,0
3.9505641,1.2112981,1.8568833,0.87206125,0.26738617,0.40989488,0
-1.3724446,3.9010615,1.5814404,-0.3099812,0.88109618,0.35718513,0
-2.5411339,2.1070783,2.5892015,-0.60570002,0.50223935,0.61715734,0
-3.2311983,-2.49772,-1.5877259,-0.73741442,-0.57002217,-0.36234605,0
3.8602192,1.6346774,1.7927003,0.84666884,0.35853675,0.3931962,0
0.74385244,-4.0057821,-2.0381413,0.16328256,-0.87930655,-0.44739103,0
-2.1936557,1.1327176,3.7542927,-0.48820418,0.25208944,0.83552825,0
-1.0820643,-4.2501917,-0.88654649,-0.24183027,-0.94987428,-0.19813405,0
-2.3417723,-1.8535602,3.0188653,-0.55145377,-0.43648681,0.71089947,0
2.8158686,-2.9943061,-1.4545642,0.64582205,-0.68674684,-0.33360565,0
3.7267857,-1.6517963,1.7181898,0.84244996,-0.37339303,0.38840148,0
1.5404774,3.9434757,-0.67729819,0.35929358,0.91975743,-0.15796979,0
3.6815968,2.0352077,0.46466428,0.86988628,0.48087811,0.1097907,0
-1.1250117,-2.1865351,-3.6572182,-0.25527716,-0.49614814,-0.82986182,0
-0.079778053,1.3399777,4.3596601,-0.017488906,0.29374924,0.95572257,0
0.90009356,-2.3356557,3.3254673,0.21625252,-0.56115437,0.79896218,0
0.90799814,3.8179891,1.9810361,0.20654462,0.8684876,0.45063126,0
-2.4066105,-1.3417252,-3.5071371,-0.53959316,-0.30083212,-0.78634542,0
-1.5666071,-4.0502729,-0.35899207,-0.35951933,-0.92949373,-0.082384787,0
0.92270023,-3.491374,2.3660352,0.21372096,-0.8086915,0.54803425,0
-2.1501145,3.5418987,-1.7145658,-0.47949001,0.78986728,-0.38235971,0
-0.24717589,-4.2356362,-1.5913577,-0.054546636,-0.93471783,-0.35117993,0
-3.2634361,0.25347641,-2.8099694,-0.75648385,0.058757335,-0.6513676,0
-1.6499584,2.6849351,-3.1837082,-0.3683233,0.59936309,-0.7107051,0
1.9885495,-4.0313969,-0.66866958,0.4375608,-0.88706934,-0.14713418,0
1.3997068,-3.6572545,1.9198704,0.32094091,-0.83857739,0.44020998,0
-2.4805908,-1.8230996,3.1074777,-0.56709862,-0.4167867,0.71041393,0
-2.0433307,0.32792136,-4.0823717,-0.44643918,0.071646228,-0.89194113,0
-2.772459,-3.1982026,-1.4169617,-0.62114048,-0.71652389,-0.31745544,0
-3.8039124,1.9789834,0.03756636,-0.88709211,0.4615092,0.0087606702,0
-1.1230457,-2.3322816,-3.7546732,-0.24625388,-0.51140696,-0.82329941,0
-0.16908205,3.2866952,-2.8425994,-0.038880918,0.75578535,-0.65366417,0
1.3997999,-3.4728973,-2.0684881,0.32722849,-0.8118524,-0.48354641,0
-3.8848929,1.6513114,1.5832201,-0.86169815,0.36627313,0.35117,0
-2.0625226,3.506108,-1.9619386,-0.45669499,0.7763415,-0.43442312,0
-3.958497,1.3923072,-1.2489061,-0.90415335,0.31801444,-0.28526047,0
-1.2092166,-4.3699703,-0.83232898,-0.26230592,-0.94794357,-0.18055063,0
-3.5060236,-1.2023154,-2.265511,-0.8070963,-0.27677634,-0.52152687,0
0.1758143,1.6688129,-3.9432471,0.041025907,0.38941407,-0.92014867,0
2.4680464,0.82386047,3.4039512,0.57604158,0.19228889,0.79448158,0
0.84415531,-2.6688242,-3.1529214,0.20021826,-0.63299644,-0.74781549,0
-1.4789037,4.1571908,-1.2563088,-0.3223573,0.9061448,-0.27383819,0
1.9194674,-3.4315412,-2.1638775,0.4276883,-0.76460272,-0.48214677,0
-1.3888055,-4.1854601,-0.67993808,-0.31125394,-0.93802977,-0.15238519,0
4.5126996,0.2089988,0.77760351,0.98445171,0.045593381,0.1696353,0
-1.6736844,-1.5185137,3.9470968,-0.36798337,-0.33386689,0.86782557,0
2.8277791,-2.3003306,-2.2577012,0.65949702,-0.53648508,-0.52654296,0
-3.0862074,2.5983229,-1.4689324,-0.71881747,0.60518289,-0.34213328,0
3.0922756,-2.2464011,1.9922531,0.71743715,-0.52118629,0.46222153,0
2.028379,-3.2109032,2.1684389,0.46380252,-0.73419464,0.49582815,0
-3.5071852,0.779154,-2.7207506,-0.77822411,0.17288977,-0.60371882,0
3.1969776,-0.82914561,-2.6543479,0.75450557,-0.19568326,-0.62644178,0
1.5602533,-1.7532437,3.6381664,0.36037782,-0.40495357,0.8403216,0
-3.6356409,2.3427868,0.35887545,-0.83771139,0.53981656,0.082690805,0
-2.3298321,0.82756507,3.6220312,-0.5312652,0.18870738,0.82592183,0
3.3566022,-1.9971149,2.2657833,0.74336427,-0.44228768,0.5017879,0
2.2637901,-1.9831955,3.3025482,0.50664699,-0.44384861,0.73912603,0
-3.4390159,-1.8551325,-2.1181531,-0.77374268,-0.41738543,-0.47656232,0
-3.3125045,1.0036427,2.6361711,-0.76135683,0.23068051,0.60590619,0
1.0368459,-4.1123409,-0.98219752,0.23817539,-0.9446519,-0.22562203,0
-4.3266587,1.4882872,0.73180968,-0.93375158,0.32119256,0.15793444,0
1.4756123,3.6772275,-2.2803316,0.32277948,0.80436683,-0.49880597,0
1.7516071,2.7720513,-2.8851171,0.40104181,0.63467914,-0.66056627,0
3.4908099,-0.82475114,2.7327406,0.77413464,-0.1828998,0.60602248,0
-2.0281084,-2.9162922,-2.7998064,-0.4484058,-0.64477932,-0.61902481,0
-3.860446,0.33218074,2.1789927,-0.86841768,0.07472495,0.49017027,0
2.1472859,1.1967119,3.5016026,0.50189722,0.2797142,0.81844926,0
-3.99929,1.6262677,-0.67253691,-0.9153018,0.37219751,-0.15392087,0
-0.42608976,4.2530141,1.172855,-0.096132912,0.95955044,0.26461554,0
-2.5877702,2.3381071,-2.8416491,-0.57522672,0.51972991,-0.63166058,0
4.1776462,0.52724957,1.2709432,0.94980806,0.11987274,0.28895509,0
0.85469693,-3.9038444,-1.7874763,0.19523208,-0.8917262,-0.40829995,0
-1.3719596,3.5514634,2.1513629,-0.31373093,0.81212586,0.49195987,0
0.50076085,-4.1914735,-0.10557736,0.11859062,-0.9926284,-0.025002923,0
4.1286268,-0.90738493,1.0561674,0.94756114,-0.20825392,0.24240097,0
-1.1156049,4.2238035,-0.62072217,-0.25282681,0.95723027,-0.14067274,0
0.0091955662,2.061491,4.0974822,0.0020047673,0.44943506,0.89331079,0
-4.1636653,1.3381671,0.58226401,-0.9437117,0.30330104,0.13197251,0
-2.0736799,2.17172,2.8405986,-0.50168103,0.52539968,0.68722004,0
3.8393798,2.1092103,0.30339083,0.8743574,0.48033893,0.069092415,0
-4.4712753,0.28643098,0.20540687,-0.99690729,0.063862123,0.045797139,0
-3.4977081,2.5696542,0.093039103,-0.80570668,0.59192693,0.021431813,0
2.7784357,-2.6382461,2.1685319,0.63109475,-0.59925205,0.49256101,0
-3.3722863,0.40229601,2.8376665,-0.76198411,0.090900689,0.64118421,0
-0.35677841,-3.4108937,2.9240856,-0.079163454,-0.75682306,0.64880812,0
-4.1708684,0.26066959,1.3364832,-0.9506222,0.059411682,0.30461058,0
-4.3378868,0.47437766,0.59300286,-0.98502004,0.1077187,0.13465536,0
2.4874432,-3.3242202,-0.84458035,0.58709347,-0.78459203,-0.19934028,0
-2.8260195,1.3397763,-2.7831979,-0.67501622,0.32001573,-0.66478795,0
1.2315915,2.6896293,-3.2138035,0.28195751,0.61575711,-0.73576021,0
-0.42808563,-0.71548349,-4.1139889,-0.10198276,-0.1704495,-0.98007476,0
-0.82063955,4.2026172,-0.052461289,-0.19163471,0.98138988,-0.012250694,0
-0.87582624,-3.5774746,-2.5058787,-0.19660489,-0.80306911,-0.562518,0
1.5425315,0.94418645,-4.0904007,0.34490097,0.21111453,-0.91458952,0
3.8740864,-1.6661153,-1.2123808,0.88288647,-0.37970001,-0.27629599,0
2.4868186,-1.2581613,-3.5635436,0.54970133,-0.27811155,-0.78770709,0
-1.3688514,3.2908185,2.2157331,-0.32616937,0.78413492,0.527964,0
1.0854886,1.2249051,4.1701789,0.24230458,0.27342537,0.93087429,0
-4.1034689,0.6484136,0.58907443,-0.97796196,0.15453361,0.14039156,0
-2.7816083,3.4475555,0.37248862,-0.62572497,0.77553028,0.083791606,0
3.2126501,1.5842431,2.8223679,0.70447588,0.34739575,0.61889404,0
0.960657,-3.9515545,0.85713589,0.23114949,-0.95080745,0.20624065,0
1.1091325,-1.059545,4.0547943,0.25584203,-0.24440375,0.93531364,0
-3.7728517,0.9914161,1.4681187,-0.90518266,0.23786058,0.35223109,0
2.8383992,0.35314313,3.3114786,0.6486671,0.080704756,0.75678122,0
0.81562829,3.8795803,2.0206301,0.1833019,0.87188542,0.45411044,0
3.695689,2.3364437,-0.70773655,0.83438843,0.52750695,-0.15978812,0
-0.6835795,-0.47375655,4.1551638,-0.16131353,-0.11179876,0.98055035,0
3.8295932,-1.0365471,-1.7237936,0.88531184,-0.23962529,-0.39850053,0
-0.51235092,3.4879799,2.7439864,-0.11468571,0.78075683,0.61421973,0
-4.3890624,0.19138722,-0.66010273,-0.98796052,0.043080505,-0.14858651,0
-1.9182482,0.75069928,3.8969283,-0.43518758,0.17030904,0.88408524,0
0.79722446,1.8935118,-3.8759017,0.18173468,0.43164349,-0.8835476,0
-2.4044771,0.48980257,3.5970004,-0.55220896,0.11248739,0.82608223,0
3.0994389,3.0842891,1.0263505,0.6900816,0.68670851,0.22851413,0
0.24103345,-2.4699397,3.5799396,0.055333771,-0.56702119,0.82184261,0
2.1194754,-3.8649449,-0.3592118,0.47924209,-0.87391639,-0.081222653,0
-2.2399442,2.7013564,2.5572057,-0.51586455,0.6221289,0.58893067,0
-2.4214108,3.7097716,-1.1522281,-0.52898413,0.81044084,-0.25171703,0
0.18661779,1.87642,3.8599741,0.043440413,0.43678826,0.89851487,0
3.6524518,-2.145287,1.0052572,0.83896375,-0.49276984,0.23090637,0
-0.82155091,-3.5012608,-2.6891997,-0.18294868,-0.77968514,-0.59884971,0
-1.3622439,0.9012596,-4.1812696,-0.30346364,0.20077133,-0.9314509,0
-3.3099957,2.5852165,0.017523672,-0.78810042,0.61553258,0.0041723358,0
1.4521444,-2.2768383,-3.2686663,0.34249359,-0.53700072,-0.77092701,0
0.96856809,3.8969584,-1.9406942,0.21717262,0.87377721,-0.43514305,0
-2.8721595,-2.8565292,2.1582441,-0.62575799,-0.62235266,0.47021711,0
1.5823956,0.59409815,-3.8192844,0.37887305,0.14224495,-0.91445148,0
0.88955122,1.1418157,-4.1929717,0.20054042,0.25741091,-0.94526356,0
0.93027264,1.5620292,3.959065,0.21353419,0.35854721,0.90876126,0
-4.2275429,-0.96876103,0.62909162,-0.96464014,-0.22105175,0.14354603,0
-3.001394,1.6543112,2.4110579,-0.71627808,0.39479882,0.57539529,0
-1.4167231,4.237874,-0.76439583,-0.31251344,0.9348281,-0.16861726,0
-2.345902,3.1564267,-1.57063,-0.55396384,0.74536204,-0.37089026,0
-0.18286747,1.1340737,4.2715335,-0.041341882,0.25638646,0.96568978,0
2.0363383,-0.37173253,3.9569514,0.45599705,-0.083242036,0.88607979,0
2.8876772,-3.4046152,-0.38660493,0.64442396,-0.75978559,-0.086276084,0
3.167429,-1.0210706,-2.864018,0.72140354,-0.23255579,-0.65229964,0
0.41572767,-1.5548179,3.9640441,0.097171009,-0.36341873,0.92654443,0
2.5881383,0.26539907,3.5090086,0.59248191,0.060755696,0.80328941,0
0.057574321,-3.5899177,2.8477695,0.012563564,-0.78337282,0.62142521,0
2.3819933,-3.712512,0.14626139,0.5397194,-0.84119242,0.033140358,0
-2.8826334,-1.553501,-2.8536084,-0.66366553,-0.35766083,-0.65698308,0
-1.2103624,4.2654028,-0.92964232,-0.26717535,0.94154477,-0.2052092,0
1.5204165,-2.779423,-3.1060576,0.34268957,-0.62645942,-0.70008028,0
-0.67599183,3.8862677,-1.5662711,-0.15927421,0.91566515,-0.36903787,0
1.55799,-0.065946855,-4.0054359,0.36246833,-0.015342619,-0.93186975,0
0.59568006,1.8104383,-3.9585733,0.13558219,0.41207218,-0.90100724,0
-0.12318685,-4.1727819,-0.51259542,-0.029288691,-0.99211341,-0.1218738,0
0.77433944,-3.3998585,-2.622016,0.17748874,-0.77929211,-0.60100037,0
-1.4254446,2.2740407,-3.2136912,-0.3404454,0.54311943,-0.7675404,0
2.5105429,2.631057,-2.9020047,0.53959715,0.56549954,-0.62373495,0
-1.6457908,-2.974623,3.0162563,-0.3621296,-0.65451759,0.66367835,0
1.5280931,1.3655201,3.8205388,0.35246372,0.31496531,0.88122988,0
3.2795794,2.1083477,-2.035476,0.74566841,0.47936887,-0.46280026,0
-3.0454206,0.99220932,-2.7808251,-0.71797103,0.23391762,-0.65559149,0
0.66186827,2.7564163,-3.4400771,0.14848149,0.61836594,-0.77173626,0
3.0921967,-2.2419441,2.2674396,0.69616401,-0.50474173,0.51048172,0
-3.4261832,-1.1056113,2.4472027,-0.78705847,-0.25397965,0.5621683,0
3.4534011,0.026319707,2.3809705,0.82327288,0.0062744813,0.56761098,0
-2.6543455,-0.13849053,3.5832734,-0.59495068,-0.031041563,0.80316252,0
-0.6368528,2.387136,3.5889678,-0.14616296,0.5478673,0.82369763,0
-2.7111535,0.9375357,-3.1029027,-0.64157265,0.22186027,-0.73427695,0
2.7932334,0.46256664,3.1690881,0.6572907,0.10884903,0.74573505,0
-3.8050013,1.8245579,1.2712623,-0.86336595,0.41399756,0.28845316,0
-2.942286,1.8824739,2.5996284,-0.67573929,0.43233788,0.59704298,0
-1.6027147,2.1477947,3.4941237,-0.36396566,0.48774967,0.79349184,0
4.0508657,-0.66632742,1.4299475,0.93183064,-0.15327695,0.32893437,0
1.5929065,4.0722022,-1.1844844,0.35161543,0.89889091,-0.26146102,0
-1.4469401,4.1773534,0.26471397,-0.32671386,0.94323134,0.05977146,0
3.5409427,2.0919037,1.8401321,0.78589833,0.46428981,0.4084101,0
-1.2533163,3.479573,-2.5730987,-0.27817792,0.7723034,-0.57110822,0
2.7826326,-3.4898396,0.33797428,0.62165242,-0.77964556,0.075504944,0
1.251779,1.8855923,3.8153546,0.28217751,0.42505249,0.86006182,0
-4.0129123,-1.1398283,0.91437793,-0.93964112,-0.26689583,0.21410562,0
3.1949041,-3.0085468,0.94855952,0.71158761,-0.67008108,0.21126869,0
3.0076826,-0.15330312,3.2274899,0.68134451,-0.034728479,0.73113853,0
3.2295015,2.3179915,1.8900747,0.73369062,0.52661026,0.42939448,0
-2.5177677,-0.98159933,3.6234319,-0.55700707,-0.21715975,0.80161381,0
-2.9074607,-2.8994553,-1.9895797,-0.63721818,-0.63546365,-0.43604934,0
-0.47944474,-0.77079135,-4.4268918,-0.10609533,-0.17056681,-0.97961766,0
-4.374414,-0.45083591,0.49963731,-0.98837221,-0.10186363,0.11289001,0
3.2367501,-2.9348023,-0.87761807,0.726309,-0.6585536,-0.19693269,0
-1.7522086,3.9425228,-1.3015056,-0.38882673,0.87487197,-0.28881273,0
0.52423048,-4.4540071,-0.14940012,0.11682695,-0.99259406,-0.033294439,0
-2.2597823,-0.10600446,3.5150421,-0.54060268,-0.025359211,0.84089571,0
1.2242495,3.7981408,-1.4470726,0.28840876,0.89476621,-0.34090143,0
-2.5005345,3.5274012,-1.123245,-0.55973977,0.78960186,-0.2514362,0
0.91012079,-4.2441211,-0.11354055,0.20960414,-0.9774366,-0.026148804,0
3.0937667,3.0882783,-0.66299796,0.69973201,0.69849062,-0.14995341,0
-0.016920451,4.0583248,1.9227953,-0.0037677898,0.90369427,0.42816165,0
-3.369993,-2.6867039,-0.1699464,-0.78131199,-0.62289566,-0.039401021,0
0.6382215,-2.1887124,3.9920852,0.13882737,-0.47609362,0.86836737,0
-3.8080287,-1.8133785,0.64860207,-0.89236796,-0.42494449,0.15199247,0
4.1840243,1.6600534,0.21243626,0.92847812,0.36838296,0.047141794,0
-2.9694223,-1.9322495,2.8266275,-0.65518278,-0.42633766,0.62367606,0
-1.8474197,3.9117994,-1.0762923,-0.41440785,0.87748349,-0.24143076,0
-3.4982779,2.2962275,-0.98156315,-0.81390363,0.53423649,-0.22836888,0
4.4907136,0.68213648,-0.10343723,0.98840296,0.15013777,-0.022766463,0
-1.9814163,-4.0515037,0.54407841,-0.43616965,-0.89185852,0.11976811,0
-1.1123607,-3.5266275,2.0755689,-0.26231396,-0.83163995,0.48945516,0
-4.2125282,0.98318756,0.00026935738,-0.97382772,0.22728758,6.2268467e-05,0
-1.0212127,-0.5562287,4.1468506,-0.23711565,-0.12915088,0.96285832,0
-2.3204846,-2.5134609,-2.7957313,-0.52524054,-0.56892067,-0.63281244,0
1.9444507,-0.035384815,3.8133833,0.45424107,-0.0082662087,0.89084041,0
1.9706452,3.4909985,1.5976974,0.45664829,0.80895257,0.37022686,0
-4.521317,0.3064701,0.38610005,-0.99410897,0.067384057,0.084892415,0
2.949934,3.3908644,-0.54492152,0.65157896,0.74897128,-0.1203618,0
0.19629149,-0.7209428,4.4106007,0.043879293,-0.16116062,0.98595226,0
4.073842,0.99357444,1.0236344,0.94380808,0.23018654,0.2371507,0
2.5889533,2.5676558,2.3679638,0.59547192,0.59057343,0.54464328,0
-1.8871721,1.0086058,3.7316301,-0.43871394,0.23447223,0.86749804,0
3.4544592,-2.5603554,-0.66294229,0.79400897,-0.58849883,-0.15237758,0
0.076179884,3.7252045,-2.1263199,0.017757505,0.86834389,-0.49564445,0
-2.4002757,-3.2619712,-1.640682,-0.54930943,-0.74651068,-0.37547439,0
-3.0516713,1.7960204,-2.7264845,-0.68285084,0.40188274,-0.61008608,0
3.7588575,-2.3282907,0.2260049,0.84901708,-0.52589351,0.051047966,0
2.0343235,2.4024289,-3.2264447,0.45129165,0.53295165,-0.71575028,0
-1.3441501,-0.21553944,4.0894823,-0.3118597,-0.050007857,0.94881123,0
-0.80784023,2.7494745,3.2830391,-0.1853773,0.63092941,0.75336796,0
3.3505702,-2.7208464,0.3822884,0.77325606,-0.62792623,0.088225819,0
-0.44598168,0.68847901,-4.3999357,-0.099644013,0.15382428,-0.98306113,0
2.9458995,-1.8234406,2.8008065,0.66124439,-0.40929428,0.62867641,0
