0.80483824,-2.6498818,3.4543719,0.18178365,-0.59851182,0.78021681,0
3.8450572,-1.8659652,0.59527713,0.8910569,-0.4324204,0.13795005,0
-1.5785613,3.8691146,1.1986064,-0.36311743,0.89001477,0.27571616,0
-2.3006501,2.7648668,-2.8505683,-0.50128901,0.60243726,-0.6211108,0
-0.86047488,2.9043753,3.4308755,-0.18800966,0.63459218,0.74962997,0
-2.7544105,2.0621202,2.6097457,-0.6378088,0.47750267,0.60431039,0
2.0007131,3.9678836,-0.28139296,0.44933039,0.89112759,-0.063196674,0
1.5532166,-1.5624696,-3.7392161,0.35788465,-0.3600167,-0.86157209,0
1.7768842,0.28200236,4.0141044,0.40394294,0.064108208,0.91253507,0
0.6783855,-2.5154288,3.9040391,0.14453669,-0.53593677,0.83179384,0
0.076443657,-2.376905,-3.7167184,0.017324626,-0.53868419,-0.84232962,0
4.1944904,-1.1334242,0.79913664,0.94945079,-0.25655809,0.18088989,0
-0.11405224,3.5881956,-3.0326352,-0.024269164,0.76353174,-0.6453141,0
1.0091492,3.109988,2.9122002,0.23047796,0.71028519,0.66511273,0
2.9056134,0.74146533,-3.3821187,0.64282405,0.16403826,-0.74824381,0
-2.7745254,0.86434495,-3.4097495,-0.61929709,0.19292897,-0.76108438,0
-3.0115926,-0.13349079,-3.4351091,-0.65895104,-0.029208429,-0.7516185,0
0.60033298,0.67209202,4.521399,0.13021471,0.14577954,0.98071015,0
0.77635992,-4.4679651,-0.23198467,0.1709726,-0.98395038,-0.051088449,0
3.9595339,0.42043132,2.0283146,0.88607156,0.094084874,0.45389986,0
-1.9113866,-3.8715181,-1.5035709,-0.4180676,-0.84679693,-0.32886821,0
3.2103524,-0.28032628,3.3363163,0.69210565,-0.0604343,0.71926165,0
-3.3957896,-0.69994044,-3.1983604,-0.7198928,-0.14838436,-0.67803866,0
3.3615994,0.14110748,3.1565669,0.72864759,0.030585926,0.68420553,0
0.47452357,-4.3500924,0.65359265,0.10725056,-0.98319638,0.14772329,0
-4.0473433,-1.593292,-0.50987035,-0.92416817,-0.36381143,-0.11642352,0
3.5667338,-2.6861598,0.5940159,0.7918278,-0.5963372,0.13187367,0
2.7059343,-0.64831293,3.2261121,0.63515049,-0.15217528,0.7572493,0
-4.4452896,-0.24602558,1.587849,-0.94044888,-0.052049361,0.33592656,0
-2.876375,-0.90431988,-3.4906723,-0.62359017,-0.19605407,-0.75676817,0
-2.0647523,-1.4208596,-3.6138802,-0.46947807,-0.32307139,-0.82171476,0
-2.4396892,-2.4974089,-2.6792998,-0.55436343,-0.5674789,-0.60880947,0
1.6996586,2.0273232,3.7111583,0.37292972,0.44482407,0.81428188,0
-1.6049769,1.5361533,-3.9487605,-0.35423458,0.33904451,-0.87153119,0
-3.5958316,0.052325852,-2.5395021,-0.81677443,0.011885545,-0.57683468,0
0.47806171,3.3642471,-3.2339003,0.10191195,0.71718144,-0.68939441,0
0.008688326,4.5801888,0.40228286,0.0018896582,0.99616325,0.087494083,0
1.4483657,1.993758,-3.7122519,0.3250559,0.447458,-0.83313864,0
2.7340329,-3.3248224,-1.1752421,0.61271966,-0.74512058,-0.2633816,0
1.5307518,3.5465302,2.4000962,0.33659941,0.77985209,0.52776092,0
1.1750098,2.7847559,3.2688451,0.26392484,0.62549794,0.73423159,0
3.5058081,-2.3371863,-1.2670512,0.79680443,-0.53119862,-0.28797698,0
-3.5882394,-1.7787776,2.1593788,-0.78862542,-0.39094082,0.47458956,0
1.0064381,-3.3449066,-2.9151156,0.22121273,-0.73520261,-0.64073557,0
3.4051199,-3.244683,-0.23045139,0.72308874,-0.68901944,-0.048937134,0
-2.7051549,2.1479027,-2.6225538,-0.62374586,0.49525648,-0.60469997,0
-3.0507991,-3.3430676,0.6765095,-0.6666739,-0.73054171,0.14783379,0
4.2276068,1.2448682,0.61105502,0.95018613,0.27979338,0.13733917,0
2.6171935,2.765919,-2.4272254,0.5795781,0.61251336,-0.53750962,0
1.3440686,-4.1057806,-1.8519917,0.28594729,-0.87349468,-0.39400667,0
-1.8011934,-1.9338061,3.5712805,-0.40542391,-0.4352732,0.80384624,0
-0.063976452,-1.4709015,-4.3775668,-0.013852152,-0.31847891,-0.94782877,0
3.9439759,1.2768422,-2.2652001,0.8348763,0.27028698,-0.47950646,0
0.27369061,-0.36283475,4.2989373,0.06331189,-0.083933286,0.99445808,0
-1.9061269,3.2479892,2.2340901,-0.43530777,0.7417528,0.51020569,0
1.5857761,-1.6986601,3.6586714,0.36586815,-0.39191261,0.84412384,0
1.2439249,-4.2719402,0.59705997,0.2770901,-0.95159477,0.13299792,0
-2.5587165,0.33488494,-3.9030223,-0.54685462,0.071572356,-0.83416265,0
-2.1219373,-3.816134,1.1055477,-0.47110292,-0.84724081,0.24544869,0
0.13213611,3.5708563,2.8878882,0.028760346,0.7772218,0.62856901,0
-2.7813973,-2.3589928,-2.6554134,-0.61653388,-0.52290231,-0.58860785,0
-3.9372861,-1.3588027,2.0836711,-0.84540474,-0.29175889,0.4474009,0
-0.5709191,-3.1499362,-3.162185,-0.12687887,-0.70002973,-0.70275187,0
-0.78215742,1.9691205,4.0345898,-0.17163508,0.43209991,0.88534236,0
0.79251581,-0.76782703,4.2331038,0.18116453,-0.17552082,0.96766305,0
-3.772948,0.55035704,-2.204818,-0.85662025,0.12495454,-0.50058782,0
-1.6309372,0.99441564,-3.9879429,-0.36883831,0.22488824,-0.90187782,0
-1.5732889,-0.22996362,4.4303131,-0.33424491,-0.048855722,0.94121909,0
1.8033199,3.2493424,-2.7900739,0.38806027,0.69923294,-0.600402,0
-3.1912756,2.5622292,2.0626137,-0.69633323,0.55907589,0.45006028,0
2.214184,1.5138658,-3.6376188,0.48990843,0.33495665,-0.80485636,0
-3.6336217,2.0304623,-1.9858713,-0.78787869,0.44026542,-0.43059674,0
-3.4736602,-2.3956072,1.7713183,-0.75904888,-0.52347749,0.38706067,0
-3.6101193,-1.4947268,2.2334266,-0.8021425,-0.33211753,0.49625129,0
-4.3896842,0.9143669,0.69056189,-0.96757954,0.20154586,0.15221448,0
4.0618081,-1.8963096,-0.026860463,0.90609854,-0.42302427,-0.0059919688,0
-0.15636939,-2.9616601,3.50758,-0.034042452,-0.64476919,0.76361889,0
-2.3279586,-0.051636446,-3.6464503,-0.53806895,-0.011934906,-0.84281641,0
-2.3011715,-2.2894115,2.9914119,-0.52130872,-0.51864463,0.67767614,0
-4.2032504,-0.36932158,1.8020341,-0.91611189,-0.080494821,0.39275911,0
-1.0382454,-0.80256969,-4.2317219,-0.23433921,-0.18114555,-0.95512903,0
-3.6301613,-1.5929612,1.7344171,-0.83893615,-0.36813593,0.4008266,0
3.6653171,1.5908395,2.4279072,0.78394562,0.34025204,0.51928586,0
0.78029734,1.292151,4.2450247,0.17319106,0.28679964,0.94220531,0
-0.54488468,-3.8298664,-2.4652922,-0.11878362,-0.83490217,-0.53742808,0
-1.1925424,3.8579121,1.9007629,-0.2672053,0.86441749,0.4258917,0
-4.2147365,-1.3446648,0.90071142,-0.93353808,-0.29783493,0.19950201,0
-2.2270391,1.3645742,-3.5615432,-0.50424284,0.30896485,-0.80639929,0
1.2552615,0.95588207,4.3238525,0.27272129,0.20767736,0.93941116,0
2.4043093,-0.55396289,-3.4918146,0.56233889,-0.12956522,-0.81669325,0
-0.5390833,-4.2519326,-0.14596903,-0.1257057,-0.99148345,-0.034037672,0
1.4257748,4.2824364,1.0700058,0.30736896,0.92320889,0.23067217,0
-1.7463473,2.7645466,-2.9748626,-0.395042,0.62536931,-0.67294496,0
-2.7352872,2.5509374,2.2166059,-0.62913561,0.58673382,0.50983518,0
4.2605963,0.38682848,1.3051864,0.95255953,0.086484879,0.29180604,0
4.233253,1.2953529,-0.97222924,0.93397647,0.28579184,-0.21450153,0
3.300276,-1.1394795,2.5875585,0.75942308,-0.26220444,0.59542036,0
-0.91795671,-0.19509143,-4.5799298,-0.19635062,-0.04172999,-0.97964543,0
-2.6011193,0.32753295,3.4629476,-0.59886736,0.075409375,0.79728997,0
-4.4748344,0.57065135,0.17842355,-0.99119163,0.12640129,0.039521448,0
1.6466031,4.0736041,-0.38646206,0.37331408,0.92355824,-0.087617792,0
-1.2105671,3.1482499,-2.7858343,-0.27672133,0.71965265,-0.63680875,0
-4.5670352,0.090625145,0.69662333,-0.98837584,0.019612659,0.15075988,0
-1.2112,-3.9618192,-1.9724344,-0.26396939,-0.86344039,-0.42987311,0
-1.9044455,-1.4086639,-3.6811368,-0.43505883,-0.32180056,-0.84093297,0
1.9969293,-3.7908986,1.4991472,0.43991119,-0.8351115,0.33025286,0
-0.1824111,-2.5377202,-3.5754969,-0.041567277,-0.57828778,-0.81477314,0
-0.61962342,0.9870252,-4.2429786,-0.14081979,0.224318,-0.96428788,0
1.8681439,3.8421545,-1.6597029,0.40759715,0.8382926,-0.36211887,0
-0.33903798,-2.7055371,-3.581203,-0.075323381,-0.60108364,-0.79562855,0
1.1663932,-4.046227,0.85069525,0.27150318,-0.94184661,0.19801767,0
2.2062585,3.9981804,0.071664669,0.48307928,0.87543601,0.015691595,0
-1.7855052,2.9530354,2.7837913,-0.40270969,0.66603893,0.62786698,0
-0.73885846,2.1533399,3.7948537,-0.16696055,0.48659229,0.85752672,0
-2.5909116,3.263483,-1.2526612,-0.59545761,0.75003171,-0.28789353,0
-0.87730116,-0.083058059,4.394217,-0.19575156,-0.018532684,0.98047841,0
0.4263365,1.1439773,-4.5212522,0.091035694,0.24427365,-0.96542364,0
-3.7234645,2.7229772,0.11744175,-0.8069247,0.59010571,0.025451204,0
3.1178606,-3.3110867,0.75263578,0.67634606,-0.7182619,0.16326651,0
4.0863123,0.68237233,1.62238,0.91843021,0.15336844,0.36464244,0
-3.8251977,-1.3205284,1.4152929,-0.89226341,-0.30802569,0.3301304,0
2.12515,-4.0900741,-0.052858427,0.46103403,-0.88730836,-0.011467206,0
-0.0060409093,-3.258425,2.9131033,-0.0013821188,-0.74550539,0.66649812,0
-2.8769782,0.68233114,-3.2140191,-0.65876842,0.1562397,-0.73594385,0
-0.74691945,-2.8257127,-3.5137239,-0.16342446,-0.6182602,-0.76879561,0
-3.9283731,1.796721,-1.6236731,-0.85125023,0.38933653,-0.35183829,0
0.37554494,-4.1448369,-1.3072436,0.086088896,-0.95015115,-0.29966897,0
3.9351077,-0.98623323,1.9814972,0.87158805,-0.21844105,0.43888232,0
4.0107713,-1.7745125,1.4322067,0.86931425,-0.38461655,0.31042352,0
-0.38430691,-4.1785512,1.0086275,-0.08904846,-0.96821976,0.23371094,0
3.8224497,-1.9835799,-1.4236034,0.84275192,-0.4373284,-0.31386796,0
-3.2335751,1.1350167,-2.7436798,-0.73657846,0.25854629,-0.62498486,0
3.4006414,-0.58026087,-2.4705472,0.80143499,-0.13675107,-0.58223808,0
3.280385,-0.62981546,3.0806568,0.72191387,-0.1386034,0.67795968,0
2.0903964,1.4658065,3.5625079,0.47694376,0.33443764,0.8128199,0
4.1245122,-1.762453,-0.54589397,0.91282803,-0.39006221,-0.12081606,0
-2.035598,-2.3769553,-3.2912145,-0.44821668,-0.52337986,-0.72468984,0
0.14732714,4.3149199,0.34019187,0.03401833,0.99632949,0.078551441,0
-0.38220078,-2.640121,3.5769229,-0.08565414,-0.59167147,0.80161601,0
-1.4214069,4.3775349,0.83130527,-0.30391461,0.9359718,0.17774348,0
1.9785041,-3.6064525,1.8784568,0.43751684,-0.79751348,0.41539288,0
-2.8990686,-2.0522406,2.4983859,-0.66758734,-0.47258279,0.57531953,0
3.3451314,-2.5656133,-1.7355601,0.73374295,-0.56275839,-0.38068908,0
-3.2704833,-0.042107739,3.1111889,-0.72449982,-0.0093279937,0.68921185,0
3.2389963,-2.8939862,1.2311572,0.71744233,-0.64102215,0.27270311,0
-1.5579326,-1.8181216,-3.6604328,-0.35618389,-0.41566986,-0.83687013,0
3.608078,0.76363373,-2.2517493,0.83499438,0.17672285,-0.52110791,0
-4.5678864,-0.88950992,-0.46460104,-0.97670728,-0.19019537,-0.099341184,0
-3.9764857,-2.2397897,0.034774031,-0.87126768,-0.490749,0.0076191621,0
1.2695611,3.8583884,-1.7170159,0.28788981,0.87494075,-0.38935611,0
-0.034321364,-4.0028691,-2.0308166,-0.0076461839,-0.89176744,-0.4524295,0
-2.4132736,3.3843541,1.9089677,-0.52760148,0.73990381,0.41734773,0
-2.0622344,-3.5204847,1.7608231,-0.46407282,-0.7922287,0.39624503,0
1.7260305,0.93861127,4.2364864,0.36960739,0.20099163,0.90718949,0
1.7570666,-3.0251436,2.8297572,0.39049491,-0.67231554,0.62889236,0
3.2037299,-3.1513333,-1.0005288,0.69587386,-0.68449295,-0.21732226,0
-3.1316071,-2.9964035,-0.97512186,-0.70491189,-0.67447811,-0.21949592,0
3.9540489,1.263217,-1.6203983,0.88735449,0.28348693,-0.36364439,0
-4.2089739,-0.23617503,-1.1094655,-0.96555007,-0.054179195,-0.2545144,0
3.873611,1.5410547,1.0753807,0.89971751,0.35793835,0.24977697,0
1.0674734,4.2039657,-1.3792627,0.23453766,0.9236654,-0.30304179,0
0.010858746,-4.4373193,0.51083755,0.002431077,-0.9934355,0.11436728,0
0.72078544,0.71100807,-4.183682,0.16745138,0.16517992,-0.97194427,0
-3.204587,2.8081028,0.84230798,-0.73782212,0.64653587,0.19393247,0
-1.4269825,-0.42881808,4.3373318,-0.31115162,-0.0935032,0.94574934,0
1.0754786,4.4274683,-0.97977024,0.2307709,0.95002443,-0.21023428,0
3.0862291,0.71528721,3.362772,0.66801053,0.15482305,0.72786796,0
0.18296055,4.3304744,-1.2846011,0.040471777,0.95792234,-0.28416011,0
0.60875773,4.2036271,-1.0228572,0.13933885,0.96217018,-0.23412228,0
2.2002702,2.0344737,-3.1619809,0.50506383,0.46700585,-0.72582096,0
-0.042343281,-2.7868011,-3.4286661,-0.0095830178,-0.63070136,-0.77596653,0
0.71809608,4.3576059,0.81273013,0.1599132,0.97039759,0.1809873,0
-1.3672698,-2.3774464,3.6943336,-0.2971639,-0.51671678,0.80293047,0
-1.418943,-0.96894991,-4.0244966,-0.32426029,-0.22142677,-0.91968769,0
1.1502565,-3.6303782,-2.0259552,0.2666575,-0.84161019,-0.46966583,0
0.76787406,4.2072573,1.2372909,0.1724731,0.94499707,0.27790937,0
-3.3349276,-3.0021176,1.1975995,-0.71808267,-0.64642143,0.2578693,0
3.1386487,-2.7786868,0.64620298,0.73999637,-0.65512848,0.1523547,0
-4.0609965,2.1449163,0.73804575,-0.87303847,0.46111697,0.15866606,0
0.16608521,2.7967174,3.4391038,0.037441686,0.63048249,0.77529991,0
3.3123951,-1.5756807,2.4693222,0.74910623,-0.35634404,0.55844325,0
2.4560421,1.8357152,3.1106696,0.56229788,0.4202773,0.71217138,0
-2.011991,-1.4406917,3.7912002,-0.44440812,-0.31821966,0.83739942,0
2.4132364,2.4758797,3.1699831,0.51447469,0.52782953,0.67580456,0
3.0889416,0.67049295,-3.220896,0.68448567,0.14857608,-0.71372575,0
-3.6340611,1.8265525,1.943391,-0.80618763,0.40520617,0.43112585,0
0.97463888,1.2731134,4.2150879,0.2161189,0.28230339,0.93466431,0
0.065768957,-3.0098422,-3.1023924,0.015213735,-0.69623947,-0.71764827,0
2.033025,-0.30656233,-4.1379352,0.43999431,-0.066347279,-0.89554626,0
-1.4767475,1.4920763,3.8844349,-0.33445254,0.33792418,0.87974358,0
1.8412678,-1.3752834,3.9310896,0.40435565,-0.3020221,0.86329556,0
-3.4009163,-1.3046972,2.6626191,-0.7537517,-0.28916258,0.59012145,0
2.8609483,1.0211595,3.3382642,0.63386285,0.22624494,0.7396155,0
3.0369232,-1.241557,-3.2625349,0.65635782,-0.26833266,-0.70511836,0
3.6670847,-0.022523396,2.9402292,0.78017843,-0.0047918903,0.62553871,0
4.4377456,-0.54658222,-1.4176564,0.94608569,-0.1165262,-0.30223104,0
-2.9993367,0.11963421,3.3774064,-0.66378444,0.026476296,0.74745518,0
0.94971478,-3.6646192,-2.5516977,0.20802607,-0.80270028,-0.55892533,0
-0.72597849,4.4061294,-1.0298901,-0.15841511,0.96145749,-0.22473139,0
2.4487548,1.1020563,-3.5202298,0.55307579,0.24891044,-0.79507917,0
-1.8924621,1.5556217,3.8137765,-0.4175041,0.34319231,0.84137344,0
3.9964147,2.1169934,0.092146702,0.88349074,0.46800551,0.020370949,0
0.59593719,-1.7122004,-4.0765886,0.13357206,-0.38376886,-0.91371769,0
3.3460305,-3.1996593,0.18100964,0.72218627,-0.69059443,0.039067987,0
-2.1165862,2.8389246,2.5157204,-0.48727015,0.65356338,0.57915688,0
3.1821828,-2.1507249,2.3594303,0.70595318,-0.4771288,0.52342921,0
3.0504923,2.0134413,2.977191,0.64709413,0.42710683,0.63154489,0
-2.5690882,-3.7949736,-0.78278112,-0.55259067,-0.81626898,-0.16837007,0
2.0393047,-2.3110111,-2.9913476,0.47480038,-0.53806031,-0.69645935,0
-2.1827173,3.3655326,2.1024196,-0.48194957,0.74311823,0.46421963,0
2.5261431,-3.8936901,0.15921222,0.54394794,-0.83841836,0.034282763,0
4.4373722,-0.21771862,0.84060693,0.98138583,-0.048151463,0.18591177,0
-1.3293881,-3.6139503,-2.6278872,-0.28515762,-0.77520281,-0.56368947,0
-3.1127267,-3.187218,0.90261972,-0.6847834,-0.7011711,0.19857156,0
1.6951529,4.1581545,-0.6750111,0.37331077,0.91571909,-0.14865261,0
-1.9122574,3.8534837,1.6930569,-0.4136363,0.83353877,0.36622152,0
-2.6406291,-3.4096894,0.68765724,-0.60466081,-0.78076303,0.15746224,0
3.6075826,1.9996768,1.6544905,0.81175518,0.44995448,0.37228286,0
-0.01989845,3.1114101,3.3904974,-0.0043240394,0.67612606,0.73677325,0
-3.6422966,-1.9855131,-2.1014166,-0.78325272,-0.42697194,-0.45189628,0
3.2086427,-1.9526069,-2.3718483,0.72229862,-0.43955201,-0.53392756,0
-0.81135285,-3.9822648,1.9661883,-0.1797131,-0.88206398,0.43550694,0
-3.1048594,-2.9367459,0.034691088,-0.72647756,-0.68714225,0.0081170499,0
3.9872894,-1.2373556,1.2778522,0.91324776,-0.28340361,0.29267892,0
-4.0683036,0.58257711,1.5892099,-0.92327827,0.13221255,0.3606621,0
-3.5917599,2.2059309,1.2314222,-0.81793153,0.50234443,0.28042492,0
-2.6941631,-2.1062346,-2.8797877,-0.60261524,-0.4711107,-0.64413476,0
-2.2315211,3.7733717,-0.32590979,-0.50763297,0.8583777,-0.074138917,0
-3.190954,1.3800251,-3.1690552,-0.67831916,0.29335976,-0.67366403,0
-1.3918761,-4.2847104,0.45274848,-0.30740619,-0.94631016,0.099992871,0
-4.2833738,-0.036341164,-1.4542837,-0.94688112,-0.0080335652,-0.32148346,0
-3.8306341,-2.1428633,-0.0085283937,-0.87272686,-0.4882049,-0.0019430094,0
0.53152466,4.1290832,1.2419329,0.12234569,0.95042723,0.28586656,0
1.1145494,-2.4022484,3.6736429,0.24611075,-0.53045577,0.8112005,0
-3.6042147,-0.71252882,2.5591128,-0.80497926,-0.15913895,0.57156217,0
4.0770507,-1.5433912,0.40971428,0.93112803,-0.35248393,0.09357167,0
1.4005429,1.8327509,-4.0696306,0.29939809,0.39179245,-0.8699767,0
0.99119824,4.4708714,-0.53431302,0.21498743,0.96971631,-0.11589062,0
-3.9567645,-1.6717244,-1.8514972,-0.8459205,-0.35739961,-0.39583337,0
0.9290657,3.9507248,-2.2689319,0.19981322,0.84967834,-0.48797685,0
1.3534285,3.1075451,-2.6553583,0.31433007,0.72171891,-0.61669976,0
1.3611534,1.5149783,3.8346882,0.31348726,0.34891468,0.88316715,0
3.824404,1.4451565,2.0666661,0.83483863,0.31546679,0.45113766,0
-0.88819993,-3.7903492,-2.6308107,-0.18903513,-0.80669808,-0.55991411,0
4.0095859,0.28011185,-2.3323078,0.86282736,0.060277589,-0.50189197,0
1.7944214,-0.58452213,-4.0923529,0.39818102,-0.1297051,-0.90809059,0
1.7448466,4.3348126,-0.73764509,0.36883733,0.91632164,-0.15592834,0
-3.9142911,-1.8443972,1.0200738,-0.88047177,-0.41487449,0.22945307,0
4.1751685,-0.72427398,1.7344526,0.91185814,-0.15818167,0.37880501,0
-1.6806256,3.1734385,2.5177245,-0.38320789,0.72359169,0.57407904,0
-1.6788591,0.037423067,-4.3852658,-0.35752368,0.0079694791,-0.93387014,0
-1.7308135,2.8078845,-2.7694278,-0.40186697,0.65194547,-0.64301646,0
-1.1110462,-2.31879,-3.4635475,-0.25756663,-0.53755003,-0.80293173,0
-1.3541026,1.021929,-4.0199547,-0.31034252,0.2342127,-0.92132074,0
-2.4696956,0.94713014,3.5919492,-0.55364668,0.21232392,0.80522913,0
4.3341956,-0.62146628,-0.14785594,0.98931205,-0.14185426,-0.033749208,0
0.49357793,-1.4357183,-4.4085507,0.10585801,-0.3079195,-0.94550496,0
3.1619315,-0.60361278,-3.2734258,0.68872076,-0.1314768,-0.71300608,0
-1.7983962,2.0467918,3.658175,-0.3942692,0.44872591,0.80199552,0
2.1108713,-3.2937341,-1.8052399,0.48992947,-0.7644698,-0.41899297,0
0.74516553,3.9879961,-2.2433329,0.16073671,0.86023486,-0.48390046,0
-2.4835517,-3.1903787,-2.0929027,-0.54551566,-0.70077121,-0.45970905,0
4.1126204,-0.2924217,1.6246674,0.92803055,-0.065986216,0.36661321,0
1.2299172,3.9949291,1.9468988,0.26672763,0.86636561,0.4222168,0
-3.381038,-2.7864325,-1.7836092,-0.71474355,-0.58904535,-0.37705082,0
-0.99586415,1.7258246,-4.105505,-0.21822453,0.37818134,-0.89964265,0
4.3171401,0.22204126,-0.63135737,0.98819596,0.050825376,-0.14451808,0
1.4781096,0.75479066,4.2201738,0.32594833,0.1664442,0.93062019,0
0.75498372,-4.4011707,1.2469863,0.16284186,-0.94928515,0.26896152,0
-0.41094476,4.2731447,1.1102206,-0.092678308,0.96370083,0.25038245,0
0.9040128,-2.1185462,3.7480352,0.2054933,-0.48157179,0.85197479,0
0.16964151,3.8160472,-2.3500702,0.037825514,0.85087627,-0.52400273,0
3.6704631,2.4321277,0.91806525,0.81605375,0.54073471,0.20411336,0
0.86155015,4.2351861,-1.4500107,0.18899097,0.92903692,-0.31807655,0
1.9266517,3.4560418,2.5172696,0.41083023,0.73695022,0.53677082,0
-4.3448706,1.5306697,0.48230416,-0.93805456,0.33047053,0.10412914,0
0.70926481,-4.3385186,1.7803473,0.1495413,-0.91473275,0.37536824,0
-0.11348433,-4.3995838,-0.76861972,-0.025401285,-0.98476225,-0.17204075,0
0.1922991,-3.8742492,-1.7682744,0.045108356,-0.90879792,-0.41479111,0
-1.6464381,-1.3857753,-4.0323577,-0.36021799,-0.30318856,-0.88222432,0
0.50296199,4.3573732,-0.84326941,0.11260438,0.97553957,-0.18879324,0
0.73402607,-4.3949018,0.44156474,0.16393279,-0.98152983,0.098616302,0
-0.44552845,4.0920267,1.4471023,-0.1021111,0.9378556,0.3316628,0
0.59950405,-0.86467344,-4.4696717,0.13055845,-0.18830636,-0.97339362,0
1.9702085,-2.5946398,-2.994688,0.44522887,-0.58633822,-0.67674136,0
-0.15537152,-1.5626247,-4.1017027,-0.035375811,-0.35578668,-0.93389744,0
0.95693797,3.317894,2.7472742,0.21686138,0.75190151,0.62258756,0
4.6658325,-0.40938222,-0.62522447,0.9874143,-0.086636171,-0.13231413,0
1.2070709,2.5282807,3.6794121,0.26100859,0.5466978,0.79561043,0
-2.9083691,-2.9443722,1.5112836,-0.66010845,-0.66828007,0.34301394,0
-2.2482007,-0.19262381,3.7112513,-0.51761621,-0.044348892,0.8544628,0
-2.2718847,0.97302151,3.8411517,-0.49739483,0.21302837,0.84096217,0
1.6896148,3.4261122,-2.5298445,0.36876425,0.74776077,-0.55214727,0
-3.0655849,-2.2482231,-2.5834978,-0.66695529,-0.48912829,-0.56207138,0
0.99695301,-3.4513156,-2.6781726,0.22249146,-0.77023512,-0.59769166,0
-0.83099842,2.6094451,3.3860762,-0.19081858,0.5991956,0.77753001,0
1.8037367,0.018221315,3.9293857,0.41718006,0.004214345,0.90881407,0
-4.1037722,-1.2707809,0.79527467,-0.93928999,-0.29086208,0.18202607,0
1.5429287,-2.1033738,3.7372193,0.33854055,-0.46151018,0.81999922,0
-2.7189875,-3.6795459,1.1554972,-0.57620251,-0.77976215,0.24487071,0
-4.1904736,-1.1176859,-0.53481603,-0.95895809,-0.25577396,-0.12238859,0
-3.12606,3.2831178,-0.032564167,-0.68955421,0.7241984,-0.0071830861,0
0.24702552,-0.54030764,4.4527192,0.054990146,-0.12027743,0.99121612,0
1.6444705,-2.4001133,3.4624679,0.3636153,-0.53069842,0.76559979,0
0.62416428,4.2795734,-1.7984512,0.13325788,0.91368073,-0.38396588,0
-3.2421651,-1.9592249,-2.7067003,-0.69637203,-0.42081431,-0.58136165,0
2.5776646,-3.4742708,1.5548912,0.56072503,-0.7557658,0.33823889,0
2.2469645,1.2023236,-3.6020052,0.50924385,0.27249023,-0.81634539,0
-3.0766354,-0.34480572,-3.1756577,-0.69371444,-0.077746198,-0.7160418,0
2.9283769,-1.3240887,-3.1835682,0.64734352,-0.29270148,-0.7037558,0
2.7096381,0.37766901,3.5210681,0.60767823,0.084698111,0.78965396,0
1.9194369,3.1823907,-2.4990613,0.42858717,0.71058953,-0.55801028,0
3.7762182,0.57951045,-2.3843572,0.83852178,0.12868223,-0.52945447,0
3.3506565,-2.2192018,-1.7266489,0.76601547,-0.50734621,-0.39474049,0
-1.8514684,3.8878937,-0.71507418,-0.42414272,0.89065617,-0.16381241,0
-4.2908764,1.5331988,-1.0735047,-0.91659594,0.32751441,-0.2293168,0
-3.1876097,2.7730646,-1.1169745,-0.72940195,0.63454407,-0.25559071,0
0.78377199,3.2532978,2.8855295,0.17737789,0.73626405,0.65303326,0
-3.3462033,-0.9126671,2.9825802,-0.73149449,-0.19951296,0.6520049,0
-2.4923122,3.602906,-0.58831775,-0.56383878,0.81508976,-0.13309583,0
1.6246482,0.36532447,-4.0474291,0.37121242,0.083472215,-0.92478848,0
3.4016607,-0.70897543,2.8625705,0.75558418,-0.15747914,0.6358403,0
-4.4793468,-0.58126509,0.26177889,-0.99002403,-0.12847106,0.057858303,0
1.817826,-0.75135064,3.9718268,0.41014048,-0.1695208,0.89612919,0
-0.91285473,-3.6175201,-2.8114679,-0.19540399,-0.77435964,-0.60181761,0
2.2272742,2.227638,-3.0461612,0.50827408,0.50835711,-0.69514781,0
-1.0240239,3.5438159,-2.7687659,-0.22202018,0.76834011,-0.60030037,0
-3.810035,1.4759604,-1.874703,-0.84752584,0.32832101,-0.41701958,0
-2.2315352,3.3367491,-2.0904682,-0.49305972,0.73725772,-0.46189085,0
2.2673316,1.0713574,-3.7165265,0.50571328,0.23895916,-0.82894665,0
2.4020753,0.84820002,4.0097065,0.5056479,0.17855,0.84406161,0
-2.3330455,1.1911024,3.5806603,-0.52586955,0.26847506,0.80708259,0
0.35158348,2.2569101,-3.5611997,0.083101578,0.53345168,-0.8417384,0
3.9893138,1.5110747,1.6351745,0.87320977,0.33075491,0.3579188,0
2.0450788,-4.1081185,-0.20700066,0.44519466,-0.89429927,-0.045062121,0
1.6801988,-3.3302464,-2.2257543,0.38681421,-0.76668704,-0.51241159,0
-0.5123294,-4.5393395,-0.50576264,-0.11147114,-0.9876563,-0.11004236,0
1.798798,1.3135362,-4.180202,0.37976769,0.27731773,-0.88253695,0
2.3460536,-3.7590954,0.14641376,0.52916133,-0.84787834,0.033024181,0
-2.6617031,-1.9305766,-3.3194625,-0.56967419,-0.41319397,-0.71045196,0
4.3769169,0.96941638,-0.24008164,0.97494239,0.21593398,-0.053477313,0
-0.85399169,4.426878,1.0521477,-0.18446179,0.95620346,0.22726341,0
2.7931712,-2.8375123,2.0818446,0.62166697,-0.63153583,0.46334934,0
-3.5925188,0.4627341,-2.8518405,-0.77926606,0.10037331,-0.61860287,0
-2.7889779,2.2301929,2.7663677,-0.61741519,0.49371311,0.61240983,0
-2.9105344,2.7045977,-2.3889537,-0.62780184,0.58338135,-0.515297,0
0.70062655,-1.4403577,4.1693048,0.15686652,-0.32248834,0.93348497,0
-0.21451701,4.4121108,-0.94631308,-0.047485266,0.97666031,-0.20947489,0
-3.8774838,0.75503445,1.7986603,-0.89332187,0.17395012,0.41438794,0
-1.8557044,-2.3659801,3.3055956,-0.41527563,-0.52946681,0.73973709,0
1.8813984,3.1332572,-3.0517724,0.39514127,0.65806329,-0.64094943,0
2.5598598,-1.8619571,3.3139863,0.558577,-0.40629038,0.72313201,0
-0.29800329,-4.337769,0.39116555,-0.068262428,-0.99363554,0.089602739,0
-3.2393878,2.6358473,1.800984,-0.71225673,0.57955396,0.39598933,0
0.51773494,4.0514407,-1.6254958,0.11777519,0.92162836,-0.36977044,0
2.3116019,3.7677889,0.97152793,0.51075178,0.83249837,0.2146605,0
-0.15959805,1.6351756,-3.9849591,-0.037026651,0.37935975,-0.92450809,0
0.28207141,4.3754063,1.0297989,0.062629625,0.97149175,0.22865102,0
1.3781693,-2.6613777,3.4626424,0.30094063,-0.58114535,0.75611162,0
-3.5733612,-2.2268932,-1.0529803,-0.8233304,-0.51309365,-0.24261491,0
2.0037217,-3.8891802,-1.328254,0.43824157,-0.85061729,-0.29050747,0
-2.9026597,-1.6872584,3.0868065,-0.63644028,-0.36995009,0.67681652,0
4.3791633,1.0277082,-1.1732407,0.94203335,0.22107771,-0.25238425,0
-1.242048,3.130619,-2.6407561,-0.29020882,0.73148,-0.6170218,0
1.6064025,-4.1184893,-0.99763405,0.35446867,-0.90878558,-0.22013786,0
-2.4797413,-1.4287752,3.637634,-0.53575629,-0.30869159,0.78592283,0
-2.4032042,-1.2990211,-3.4483593,-0.54626709,-0.29527763,-0.78383899,0
3.931042,-1.0203322,1.8743007,0.87885016,-0.22811233,0.41903126,0
1.589851,-3.3069131,-2.7499475,0.34672338,-0.72118962,-0.59972358,0
-1.5898821,-1.0077422,4.1953888,-0.34575275,-0.21915437,0.91237408,0
4.2184086,0.29441786,1.1507517,0.96256822,0.067181088,0.26258174,0
3.6312184,1.1285344,2.3925009,0.80826771,0.25119886,0.53254336,0
1.2478276,-3.9709337,1.7951157,0.27527809,-0.87601119,0.39601302,0
-4.4065909,-0.095435217,1.2761191,-0.96032578,-0.020798141,0.27810389,0
1.3915405,-3.7687049,2.3747184,0.29818019,-0.8075605,0.50885618,0
-4.383357,-0.4621599,0.41366464,-0.99013662,-0.1043952,0.093440823,0
-0.54924214,-4.4247365,0.58885783,-0.12212405,-0.98384064,0.1309326,0
4.117599,0.19731423,-1.1625266,0.96135747,0.04606799,-0.27142119,0
0.65143901,4.2472506,0.48088968,0.15066548,0.98230845,0.11122066,0
1.1943339,-3.9725301,1.0888487,0.27848333,-0.9262765,0.2538873,0
-0.59728301,1.5993029,-4.3432736,-0.12798697,0.34270176,-0.93068516,0
4.0593729,1.9391158,-0.25248995,0.90091735,0.43035784,-0.056036383,0
-3.427017,-2.4707325,-0.81835735,-0.79636347,-0.57414395,-0.19016826,0
-1.1952435,-1.4264054,4.0743942,-0.26683843,-0.31844541,0.90960968,0
4.0685525,-1.8592541,0.79518366,0.89549112,-0.40922308,0.17502046,0
-3.7091911,-0.59407502,-2.3156073,-0.8405472,-0.13462453,-0.52474439,0
1.7135301,1.0234669,-4.1259222,0.37386149,0.2233021,-0.9002021,0
-3.3410223,1.4921663,2.5781476,-0.74640691,0.33336002,0.5759756,0
-4.4326463,-0.88253659,0.18354008,-0.97994256,-0.19510584,0.040575925,0
2.560966,3.6126199,-1.2110773,0.55783641,0.78691041,-0.26380005,0
-0.016890438,1.9175723,-4.2418747,-0.0036282963,0.41192067,-0.9112125,0
3.6270878,-0.79626864,-2.7266355,0.78730112,-0.17283925,-0.59184754,0
1.673272,3.9583433,0.15958501,0.38909319,0.92045069,0.037108995,0
-3.5341954,0.49556464,-2.7791119,-0.78134376,0.10955997,-0.61440909,0
-1.7002368,-0.073608108,4.3665252,-0.36279887,-0.015706599,0.9317351,0
-3.4326906,1.6981895,2.2720382,-0.7708683,0.38135695,0.51022434,0
0.18949924,-2.8426914,-3.6405203,0.04099239,-0.61492974,-0.7875157,0
-1.3110505,3.0517681,2.7787309,-0.302746,0.70471013,0.64166075,0
3.9626501,2.0901556,0.6743241,0.8746472,0.46134499,0.1488387,0
-1.5859824,4.1653328,-0.37270933,-0.35459879,0.93129784,-0.083331488,0
0.17155208,-3.7908728,-2.3015692,0.038653772,-0.85415184,-0.51858497,0
-0.096298277,-3.706959,2.3703001,-0.021880807,-0.84229183,0.53857744,0
-3.5713677,-1.54568,1.96275,-0.81941032,-0.35463896,0.45033097,0
-1.9758301,-2.8881619,2.9624026,-0.43094388,-0.62993056,0.64612299,0
-1.1584419,-4.2107553,-0.55656463,-0.26313135,-0.95644128,-0.12641945,0
-2.5151525,-1.0256498,-3.4329934,-0.57455039,-0.23429494,-0.78421795,0
-3.3649769,-2.5670595,-1.2808017,-0.76097763,-0.58053142,-0.28964877,0
1.6244152,-4.3384948,-0.78662759,0.34569815,-0.9232921,-0.16740531,0
-4.050427,0.39357266,-1.9103087,-0.90098208,0.087546803,-0.4249315,0
2.9835763,-0.80971366,-3.4057622,0.64865595,-0.17603892,-0.74044287,0
2.2449212,-0.90779513,3.8865287,0.49024546,-0.19824412,0.84873939,0
4.1717372,-1.8314872,-0.038395938,0.9156121,-0.40197447,-0.0084271329,0
3.1444399,-2.4428835,-2.4286993,0.67418039,-0.5237639,-0.52072275,0
-0.88809055,4.5409575,0.47505954,-0.19093345,0.97627509,0.10213458,0
-3.1185544,1.7980787,-2.7963893,-0.68414593,0.39446104,-0.6134696,0
-3.2963507,-0.75764567,3.0231729,-0.72663397,-0.16701229,0.66641575,0
0.83331293,1.9897922,-3.9760628,0.18421544,0.43987131,-0.87896407,0
-1.4126745,1.425622,4.3020048,-0.29758465,0.30031207,0.90623182,0
-2.9324951,0.49608755,-3.5608013,-0.63207173,0.10692701,-0.76749724,0
4.4592166,-1.1460111,0.1034315,0.9682824,-0.24884693,0.022459304,0
1.221751,-2.1657107,-3.8760483,0.26530525,-0.47028768,-0.84169036,0
4.0966492,2.1321816,0.10754803,0.88680577,0.46155548,0.023281028,0
-0.48190185,3.975405,-2.1278839,-0.10626865,0.87665343,-0.46923941,0
-1.9655139,2.8795214,-2.652514,-0.44867361,0.65731674,-0.60549712,0
2.005754,3.4332957,2.4510517,0.42940587,0.73502398,0.52473831,0
4.182745,1.5398505,0.43432039,0.93400383,0.34384745,0.096983418,0
1.2502607,-4.440968,-0.55672246,0.26904261,-0.95564836,-0.11980066,0
2.4545233,1.5855391,-3.386806,0.54872364,0.35445693,-0.75714111,0
1.6273298,4.3240905,0.32689661,0.35134467,0.93358219,0.070577815,0
-0.89784896,-1.1993766,-4.2624183,-0.19872454,-0.26546288,-0.94341826,0
2.2915013,0.31143993,3.8140864,0.51374269,0.069823213,0.85509837,0
-4.1487675,-1.8471973,0.44851223,-0.90911877,-0.40477607,0.098282419,0
0.88336849,4.3098245,0.72562605,0.19811518,0.96657473,0.16273791,0
-2.0287764,1.0855284,3.6388178,-0.47123155,0.25213978,0.84520191,0
-0.20611425,-2.7800717,-3.5363655,-0.045772478,-0.61737978,-0.7853325,0
4.6178021,0.63468719,0.080909781,0.99053717,0.13614295,0.017355474,0
2.2942002,-1.7526073,-3.3279932,0.52073008,-0.3978011,-0.75537699,0
-0.10107715,-0.19107306,-4.574841,-0.02206951,-0.041719507,-0.99888557,0
2.7984288,0.9094159,-3.3952465,0.62285906,0.20241284,-0.75569546,0
-0.095865846,-1.6585219,4.2782893,-0.020888014,-0.36137196,0.93218774,0
1.6828421,-3.9165525,1.4345288,0.37415701,-0.87079209,0.31894794,0
-4.4482055,-1.533067,-0.28355554,-0.94371289,-0.32524914,-0.06015797,0
3.3901913,1.5702196,2.7937033,0.72670341,0.33658394,0.5988434,0
2.2987974,-0.036752164,3.7646847,0.52112764,-0.0083315605,0.85343814,0
-2.5521495,-1.3252178,3.5842862,-0.55538267,-0.28838554,0.77998972,0
-0.9896341,-3.8486423,1.9701507,-0.22312091,-0.86770713,0.44418621,0
3.4397416,1.1199639,-2.8989425,0.74200618,0.24159376,-0.62534732,0
2.7500012,-2.9163258,-2.0851879,0.60862976,-0.6454407,-0.4614934,0
-1.3133669,-3.8882093,1.7496935,-0.2943812,-0.87151253,0.3921805,0
-0.90438545,-3.8164573,1.99604,-0.2055027,-0.86721021,0.45355839,0
3.2674656,3.0993271,0.54636073,0.72024667,0.68318391,0.12043417,0
-4.2935715,0.37220389,0.46984825,-0.99039519,0.085856013,0.10837957,0
0.15806225,4.131258,1.7630651,0.035167802,0.91917753,0.3922703,0
1.7072232,-3.5230484,-1.8577669,0.39397457,-0.81301111,-0.42871541,0
-3.8046834,0.33922094,-2.7494192,-0.80841011,0.072076857,-0.58419007,0
1.1505321,4.3020344,-0.50815594,0.25669342,0.95982021,-0.11337388,0
-3.0098472,-3.1652057,0.29956794,-0.68748349,-0.72296917,0.068424739,0
1.6805428,-3.6283662,-2.0337377,0.37460864,-0.80879664,-0.45333907,0
0.40528992,4.1184897,-1.1185172,0.094542034,0.96072072,-0.26091665,0
2.0402553,3.1191628,-2.6712732,0.44492877,0.68021154,-0.58253801,0
2.3417253,0.00014208879,-3.8955746,0.51520425,3.1261028e-05,-0.85706741,0
-1.4592617,-1.2007525,4.1085572,-0.32267898,-0.26551619,0.90850395,0
0.39407557,-4.1968136,0.98159534,0.091051407,-0.96967638,0.22679821,0
0.059595276,-1.0406241,-4.2643518,0.013575569,-0.23705007,-0.97140253,0
-0.16651824,2.8740199,-3.3782175,-0.037516985,0.647524,-0.76112103,0
-3.2277305,2.8550649,-1.2488509,-0.71942133,0.63635874,-0.27835345,0
-1.9868045,-4.0897455,0.18741538,-0.43659672,-0.89871424,0.041184191,0
1.8341675,-4.0702071,-0.27336606,0.41007608,-0.91000122,-0.06111813,0
2.3035767,1.5407878,3.7324431,0.49551746,0.33143559,0.8028779,0
-0.49344313,2.7223952,3.5071602,-0.11046132,0.60943061,0.78510672,0
2.9275379,1.8316381,-2.7924345,0.65919715,0.4124321,-0.62877578,0
-3.565042,-0.79594684,2.6301947,-0.79201686,-0.17682914,0.58432931,0
2.1659288,-3.8094714,-1.1102126,0.47912341,-0.84269017,-0.24558924,0
-2.0875177,0.54706907,4.0666599,-0.4534362,0.11883056,0.88333178,0
-4.4478593,1.0377992,1.2771508,-0.93786627,0.21882817,0.26929733,0
1.9561373,-3.2337904,-2.9063704,0.41029045,-0.67827207,-0.60959727,0
0.41157445,2.9765666,-3.2547033,0.092912033,0.67195338,-0.73474216,0
1.261749,2.4208062,-3.5681927,0.28084457,0.53883159,-0.79422092,0
3.471792,2.9982562,0.3079572,0.75513506,0.65213823,0.066982493,0
-2.4302247,-1.0906764,-3.3826668,-0.56443638,-0.25331709,-0.78564757,0
0.57986975,3.7160773,2.5472007,0.12765616,0.81808054,0.56075668,0
-1.7282404,-1.6665493,-4.0127368,-0.36958721,-0.35639447,-0.85813069,0
-0.91954911,-0.13712566,-4.3797011,-0.20538057,-0.030626908,-0.97820282,0
0.29844689,-4.5855775,-0.083114497,0.064935789,-0.99772561,-0.018083973,0
3.3318849,-0.65059459,-3.1421053,0.7202909,-0.14064632,-0.67926413,0
-1.2933069,-1.737146,4.0674067,-0.2806626,-0.37698081,0.88267434,0
0.55705851,4.2150421,-1.0281978,0.12734942,0.9636029,-0.2350568,0
-2.2985225,1.0315948,3.8219132,-0.50212401,0.22535716,0.83491653,0
3.0191104,0.81802523,3.2933309,0.66470212,0.18010043,0.72507584,0
1.0710437,3.8500998,-2.1627333,0.2357057,0.84729546,-0.47595498,0
-1.8173596,4.2308559,-0.47646752,-0.39258182,0.91393971,-0.10292541,0
0.62761575,-3.3987863,-2.7293646,0.14251089,-0.77175254,-0.61974889,0
-0.87296563,2.0789964,-3.8381376,-0.19610721,0.4670358,-0.86221778,0
1.5311639,1.5009121,4.0848608,0.33189625,0.32533881,0.88543749,0
-1.3619965,-0.52772641,4.1654434,-0.30855453,-0.11955418,0.94366354,0
0.61000365,2.2716,3.7026088,0.13906315,0.51785892,0.84408742,0
1.3714445,1.3244066,-4.0420246,0.30687246,0.29634735,-0.90443766,0
-4.2866035,0.36665615,0.94465488,-0.97317857,0.083241172,0.21446301,0
2.6693354,-0.83912724,3.3019722,0.6167444,-0.19387861,0.76291382,0
-1.7270429,-2.8994169,3.0853071,-0.37769616,-0.63408881,0.6747421,0
2.0381622,3.9568117,0.49297971,0.45513865,0.88358915,0.11008649,0
-1.4245812,3.9646654,1.3599987,-0.32179978,0.89558148,0.30721122,0
3.9367456,2.0232062,1.4115405,0.84737104,0.43548822,0.30382928,0
-3.6048706,-1.7199961,-1.7115169,-0.82957727,-0.39581716,-0.39386585,0
-2.7431114,3.7352874,0.96003437,-0.57960492,0.7892465,0.20285019,0
-2.809972,3.6821809,0.71356875,-0.59958458,0.78569424,0.15225945,0
2.8191659,-1.0924301,3.5805781,0.60157293,-0.2331102,0.76404822,0
4.0244045,-1.8586273,0.71176457,0.89637423,-0.41398063,0.15853462,0
3.0873044,3.4643908,-0.19855073,0.66469961,0.74588668,-0.042748164,0
3.7478349,-0.31089222,-2.3713477,0.84298289,-0.069927529,-0.5333761,0
-3.2260015,2.952713,-0.66754794,-0.72921503,0.66744006,-0.15089452,0
0.1815834,-3.6260927,-2.4530492,0.041441664,-0.82756084,-0.55984437,0
-3.8775613,-1.4110371,-1.3404918,-0.89373618,-0.32522887,-0.30896893,0
-3.633445,-2.6077065,-1.5000556,-0.77025038,-0.55280507,-0.31799528,0
0.18252347,3.7082303,2.2647488,0.041969541,0.8526724,0.5207575,0
-3.8784111,2.1620197,-0.058006,-0.87337941,0.48686525,-0.013062372,0
1.6269937,0.1393643,4.0585442,0.37190676,0.031856626,0.92772335,0
2.1906121,-3.7805934,-1.3253189,0.47976863,-0.82799238,-0.29025972,0
4.5276294,0.56505626,0.85673708,0.97525883,0.12171406,0.18454258,0
-3.5880382,1.0910178,-2.7427001,-0.77225995,0.23482174,-0.5903163,0
-4.1721048,0.51146746,1.6672481,-0.92263979,0.11310843,0.36870345,0
2.7061095,2.8957591,-2.1264565,0.60165089,0.64381576,-0.47277629,0
0.26858857,1.9120779,-3.9671965,0.060875129,0.4333691,-0.89915812,0
1.479028,-1.2405344,4.1104631,0.32569212,-0.2731742,0.9051522,0
-0.28433451,3.6812906,2.7623012,-0.061661877,0.79833889,0.59904331,0
-0.19649427,-3.3596296,2.826268,-0.044711504,-0.76447064,0.64310622,0
3.0405593,-0.71885502,3.2316878,0.67642248,-0.15992114,0.71894217,0
1.8593285,2.7173393,-2.7747207,0.43181723,0.6310848,-0.64441127,0
1.3527746,4.1568122,-0.84349471,0.30385572,0.93368924,-0.18946296,0
0.77354246,4.1986065,-1.4532232,0.17152382,0.93099093,-0.32223493,0
-4.1582685,-0.31798202,-1.2458447,-0.95537013,-0.073056974,-0.28623521,0
4.4618282,-0.97102135,0.13105142,0.976726,-0.2125635,0.02868809,0
3.9451852,2.0962672,-0.03194797,0.88305718,0.46921086,-0.0071509657,0
0.60324532,0.36436814,4.2767797,0.13917439,0.084063165,0.98669344,0
-3.8460143,-2.2789674,-0.16984406,-0.85968632,-0.50940973,-0.037964657,0
-0.10885889,2.2022197,-3.9390683,-0.02411484,0.48784417,-0.87259752,0
-2.7318485,-0.24129176,-3.7211816,-0.59097689,-0.052198306,-0.80499792,0
2.191313,1.057686,-3.7108436,0.49382323,0.23835476,-0.83625692,0
-4.4251037,-0.36793375,-0.32115808,-0.99396473,-0.082645111,-0.072138377,0
2.8486993,3.4297712,-0.6007123,0.63321203,0.76237333,-0.133527,0
-3.3431323,-2.6434634,1.5921794,-0.73480815,-0.58102351,0.34995517,0
-1.9233023,-0.16364172,-4.2774282,-0.40984213,-0.034870896,-0.91148973,0
4.0754337,0.34690166,1.5350726,0.93286109,0.0794053,0.35137597,0
-4.4198594,-0.54202616,0.5112204,-0.98608708,-0.12092806,0.11405517,0
-2.3262227,3.1576416,-2.3395739,-0.50937748,0.69143492,-0.51230103,0
4.1493483,-1.5437995,-0.61663979,0.92827159,-0.34537119,-0.1379516,0
2.0178504,-2.1991332,-3.1747825,0.46308324,-0.50468642,-0.7285915,0
3.2133336,1.9931273,2.1501751,0.73872042,0.45820448,0.49430853,0
4.2917514,-0.52971625,-1.565118,0.93322492,-0.11518477,-0.3403289,0
-3.1407764,-0.87862867,3.0212181,-0.70647556,-0.19763574,0.67958248,0
0.71471184,4.1663871,-0.75946403,0.16640846,0.97007221,-0.17682825,0
4.3556376,-0.88129485,-0.17666557,0.97936463,-0.19815905,-0.039723236,0
-0.73626459,-2.4234886,3.6817622,-0.16475427,-0.54230517,0.82386965,0
-0.90331918,-3.2051914,-3.2777522,-0.19332391,-0.68595922,-0.70148832,0
-3.5865958,0.82323211,2.8784685,-0.76768988,0.17620802,0.61611938,0
-1.6889726,-2.1869256,3.3465059,-0.38917688,-0.50391632,0.77110946,0
1.0434176,-4.1026888,1.4640238,0.23294203,-0.91592157,0.32684201,0
-0.32396847,-2.9968824,-3.0792875,-0.075182542,-0.69547892,-0.71460247,0
1.1709,-3.7672343,-2.492691,0.2509141,-0.80728686,-0.53416288,0
1.7597522,3.8833227,-1.7430177,0.38205829,0.8431049,-0.37842509,0
1.7422075,4.0751991,-0.045811675,0.39307725,0.91944736,-0.010336041,0
1.5457118,-0.34222013,-4.410255,0.32987174,-0.073033504,-0.9411965,0
-0.021313783,-4.0686841,-2.0056396,-0.0046985843,-0.89693391,-0.44213954,0
-4.3083797,1.5206841,0.96920919,-0.92245775,0.32559034,0.20751527,0
2.0496645,0.26571086,-4.2589312,0.43297189,0.056128863,-0.8996582,0
-2.4583142,-3.5999441,1.1751869,-0.54449385,-0.79735434,0.26029304,0
-0.76505822,4.2402186,1.5765305,-0.16675015,0.9241873,0.34361658,0
2.9242823,2.9013584,-1.4458925,0.66982114,0.66457027,-0.33118871,0
1.2750552,3.5252488,2.4628253,0.28426903,0.78594166,0.54907817,0
-2.2531929,3.7641506,-1.6140062,-0.48202047,0.80525625,-0.34528068,0
-3.2363136,-1.6024514,2.8313301,-0.70524824,-0.34920165,0.61699533,0
-3.812439,-1.6260304,-1.8786329,-0.83778888,-0.35732251,-0.41283226,0
4.051743,-1.714373,1.3931855,0.87798309,-0.37149209,0.30189312,0
0.31754878,3.9112608,1.8061479,0.073509485,0.90541917,0.41810584,0
2.54003,-3.1382687,-2.0163279,0.56284046,-0.69540304,-0.44679427,0
-2.4072185,1.63473,-3.3419108,-0.54324472,0.36891475,-0.75417972,0
-1.5396725,2.896019,-3.1575813,-0.33818269,0.63609856,-0.69354963,0
-2.5694711,-2.3058779,3.0786257,-0.55547607,-0.49849167,0.6655466,0
3.3029144,0.30884799,-3.0822699,0.72940248,0.068204761,-0.68067622,0
-2.144063,-3.9021997,0.12790719,-0.48134995,-0.87605804,0.028715629,0
-1.1546762,-1.7695322,-3.7914472,-0.26602623,-0.40768313,-0.8735128,0
-4.4890342,-0.62032491,1.1450099,-0.96040463,-0.13271517,0.24496868,0
-1.4831599,4.1550045,1.3765527,-0.32092261,0.89905,0.2978552,0
-2.9053016,1.8713039,-2.690799,-0.66333586,0.42725441,-0.61436081,0
3.3649669,1.6839439,-2.6189241,0.73399138,0.36731425,-0.57125902,0
3.1829977,2.8929183,0.76602328,0.72855896,0.66216248,0.17533571,0
-0.17476314,-0.19700672,-4.4312372,-0.039369438,-0.044380318,-0.99823868,0
3.3522549,1.7588999,-2.6313686,0.72711307,0.38151011,-0.57075089,0
-2.3809042,-0.20976783,-3.7416592,-0.53625166,-0.047246061,-0.84273481,0
0.94490004,4.4547939,-0.6136663,0.20563371,0.96947384,-0.13354903,0
-0.2139139,0.93883586,-4.4776621,-0.046705835,0.20498487,-0.97765011,0
-3.7350259,1.5474697,2.0354011,-0.82517201,0.34187946,0.4496772,0
1.874424,-1.2319654,3.947222,0.41286707,-0.27135694,0.86942869,0
-2.345933,1.7364428,3.3603435,-0.52706897,0.39013267,0.75498009,0
-2.6137376,-1.0017728,-3.4468222,-0.58864743,-0.22561216,-0.77626884,0
2.6997898,2.3041816,2.6568153,0.60893893,0.51970929,0.59924597,0
2.6915059,-1.0917642,3.3245153,0.60968494,-0.24730848,0.75307548,0
0.16249715,4.0078406,-1.552119,0.037781589,0.93184769,-0.36087725,0
-1.721984,-4.0451899,-1.739871,-0.36419386,-0.85554415,-0.3679769,0
0.84377652,4.2362113,1.3288237,0.18670903,0.93737966,0.29403922,0
0.15688047,-1.237751,-4.4690738,0.033810712,-0.2667588,-0.96317011,0
-3.3403134,2.7748187,0.26368833,-0.76780003,0.63781613,0.060611051,0
3.6527851,2.3383775,0.70896518,0.83117765,0.53208905,0.16132239,0
-2.0918181,-1.881478,3.3211517,-0.48058304,-0.43225861,0.76301527,0
-1.0461835,-3.9200833,-1.5866928,-0.24014276,-0.89982271,-0.36421221,0
3.494602,1.6297759,1.7340852,0.82654983,0.38547766,0.4101491,0
0.60578859,-0.58909118,-4.3604159,0.1363917,-0.13263233,-0.98173612,0
-0.01972522,-1.5002961,4.2930636,-0.0043373955,-0.3299014,0.94400537,0
-0.76291788,2.6780221,-3.4986722,-0.17061685,0.5989055,-0.78243345,0
3.3799026,-0.19678256,-2.6233978,0.78913099,-0.045944288,-0.61250418,0
1.0789962,-4.5162578,-0.40806815,0.2314817,-0.96889222,-0.08754462,0
-1.326739,4.3682165,0.44871229,-0.28922293,0.95225096,0.097817197,0
-1.3162651,2.8875735,3.5498991,-0.27643591,0.60643482,0.74553341,0
2.9539793,3.4661055,1.2374921,0.62594324,0.73446196,0.2622225,0
-3.7435853,0.97767174,-2.1624386,-0.84459031,0.22057253,-0.4878678,0
2.6615548,-0.9864437,3.3452172,0.60666525,-0.22484644,0.76249683,0
2.7667282,0.3318553,-3.4734492,0.62130916,0.074522942,-0.78001368,0
-0.77557927,-3.2104709,2.6973166,-0.18187773,-0.7528736,0.63253599,0
-2.0639508,0.59521049,4.1842155,-0.43882242,0.12654939,0.88961792,0
-0.96103114,1.1913217,-4.4047103,-0.20609371,0.25547966,-0.94459283,0
-1.0072845,-1.6040488,4.280611,-0.21518837,-0.34267643,0.91447622,0
-0.2227326,4.318584,0.48443326,-0.051186733,0.99246454,0.11132881,0
-0.51062739,-3.7735386,2.7395062,-0.10885318,-0.80442554,0.58399528,0
3.003197,1.105526,3.0501633,0.67930901,0.25006476,0.68993258,0
-1.3168705,4.2344565,-0.53955317,-0.29478645,0.94789922,-0.12078103,0
-1.4125105,-0.70186585,4.1011157,-0.32146585,-0.15973397,0.9333514,0
-1.6970177,-4.0749097,-1.1750793,-0.37151062,-0.8920781,-0.25724804,0
-0.99638867,4.1860294,0.95015353,-0.22611104,0.949938,0.21561888,0
2.8313184,-2.5230842,2.2163002,0.64457607,-0.57440364,0.50456142,0
0.14726262,2.9141836,3.3966687,0.032886598,0.65079373,0.758542,0
-2.3759296,0.3461464,3.9007676,-0.51870698,0.075569808,0.85160571,0
0.062230203,0.14088404,-4.5481248,0.013674769,0.030958548,-0.99942714,0
0.3511973,-3.248528,3.2664518,0.076013915,-0.70311856,0.70699805,0
4.6653895,0.20717123,-0.044346444,0.99897051,0.044360273,-0.0094956253,0
0.19907513,1.441106,4.3695736,0.043226577,0.31291744,0.94879615,0
3.0707412,3.1484187,-0.80470562,0.68681818,0.70419192,-0.1799847,0
-1.711585,-0.12731636,4.3909936,-0.36304659,-0.027005242,0.9313795,0
-0.91724354,1.509634,-4.073102,-0.20660269,0.34003448,-0.91743773,0
3.1011045,3.2322943,-0.019329093,0.69230485,0.72159225,-0.004315116,0
-1.3047091,-0.5482654,-4.0978541,-0.30094659,-0.1264639,-0.94521856,0
0.12591517,1.7816633,3.9491549,0.029050983,0.41106305,0.9111439,0
0.5146116,-1.1149251,-4.3635983,0.11352344,-0.24595274,-0.96261084,0
-2.887192,-2.0253546,2.9883811,-0.62458289,-0.4381426,0.64647299,0
4.142096,-1.8708119,0.48757675,0.90615577,-0.40927276,0.10666592,0
4.2348528,0.20916663,1.7982746,0.91950148,0.045415752,0.39045423,0
-0.28229201,-1.4762633,4.1205707,-0.064360142,-0.3365753,0.93945456,0
-3.1629169,2.8846533,0.7127043,-0.72882879,0.66470873,0.16422796,0
1.5847224,-2.172935,3.6517234,0.34942693,-0.47912619,0.80519497,0
3.5634305,-2.236887,-1.709093,0.78468537,-0.4925738,-0.37635088,0
3.8042154,-2.5196524,-0.18063511,0.83306205,-0.55176342,-0.039556187,0
1.4740288,4.2330642,1.0089939,0.32082286,0.92132783,0.21960786,0
-4.1790137,-0.38456926,-1.5158633,-0.93656814,-0.086186677,-0.33972353,0
1.8721893,3.9063375,-1.0822425,0.41930765,0.87488866,-0.24238604,0
-1.0715848,-1.9084325,-3.816937,-0.24354567,-0.43374118,-0.8674987,0
-4.0188947,-1.050082,1.1338893,-0.93336821,-0.24387629,0.26334015,0
2.7317419,-0.29624727,-3.6858745,0.59419614,-0.064438365,-0.80173475,0
-0.62276876,3.1862528,-3.1309936,-0.13807578,0.70643294,-0.69418126,0
1.6486709,2.5873823,3.2141914,0.37103924,0.58229959,0.72336519,0
-0.80133969,1.4569554,-4.2685409,-0.17492786,0.31804502,-0.93179804,0
1.7365292,1.3143225,-3.8539896,0.39227986,0.29690385,-0.87061161,0
-1.1134009,2.2301617,4.0003734,-0.23621964,0.4731521,0.84872103,0
0.0041245404,1.4689194,-4.1474934,0.00093740906,0.33385012,-0.9426257,0
-2.0272269,-0.81798273,3.9970555,-0.44497842,-0.17954805,0.87735784,0
1.6176616,-2.200696,3.5577295,0.36066374,-0.49065349,0.7932092,0
-4.3170986,-0.35417253,-1.2318612,-0.9586392,-0.078646265,-0.27354261,0
3.32149,-3.1456006,-0.13483666,0.72575468,-0.68732238,-0.029462181,0
2.9509671,-3.1789091,-0.56817383,0.67457962,-0.7266863,-0.12988234,0
-3.7124555,2.0191925,-1.0290037,-0.85353249,0.46423352,-0.23657876,0
1.982734,-3.8023324,1.5383267,0.4352099,-0.83461154,0.33766255,0
3.1836636,2.894897,0.84048009,0.72614223,0.66027921,0.19169992,0
-1.417977,-4.0344772,-1.621926,-0.31003156,-0.8821125,-0.35462368,0
-2.8992748,-3.1633406,0.16199607,-0.67518616,-0.73668206,0.037725814,0
3.1390629,1.0361505,-2.8728416,0.71675313,0.23658782,-0.65596586,0
2.3088169,3.246417,-1.5864133,0.53844231,0.75710136,-0.36996961,0
3.1857319,-2.9808989,1.0443453,0.71013021,-0.66447097,0.23279458,0
2.7504754,-3.4477394,-1.2408581,0.60032088,-0.7525062,-0.27083063,0
4.3575163,-0.18352266,-1.0845723,0.96958441,-0.040835351,-0.24132657,0
3.7999828,-2.1639364,0.1652188,0.86835968,-0.49449566,0.037755262,0
4.2237434,0.79101872,-1.7232816,0.91228718,0.17085229,-0.37221193,0
2.5686085,3.6985116,0.34889853,0.56872088,0.81889504,0.077250339,0
0.59135103,0.81120938,-4.425581,0.13031068,0.17875889,-0.97522533,0
2.3829305,-3.7993209,-0.49113765,0.52818012,-0.84212524,-0.1088614,0
1.8480636,2.2812011,-3.0265079,0.43829212,0.54101628,-0.71777534,0
3.1273606,-2.7522175,1.1563348,0.72334886,-0.63657939,0.26745665,0
-2.3119996,-3.4693227,1.4517,-0.52371287,-0.78586906,0.32883829,0
1.8190814,-4.0392141,-1.2857798,0.39435872,-0.87566137,-0.27874425,0
1.9972665,-3.1070061,-2.5992427,0.44221717,-0.68792593,-0.57550144,0
3.1139722,-2.9254031,-0.36301541,0.72621328,-0.68223685,-0.084659271,0
4.2489076,-0.84430397,1.0038521,0.95550376,-0.18986896,0.22574849,0
2.6802607,1.6142222,3.1890717,0.59992945,0.36131537,0.71381783,0
-0.93369687,-0.66886562,-4.4841685,-0.20170927,-0.14449701,-0.96872807,0
0.76182568,-0.89794964,4.2597561,0.17237721,-0.20317779,0.96384895,0
0.27628925,4.5935903,-0.42402253,0.059784945,0.99398559,-0.091752261,0
-2.4814746,0.80786139,3.9117942,-0.52770478,0.17179796,0.83187324,0
3.0653884,-3.1060357,-0.40193933,0.69947368,-0.70874876,-0.091716267,0
4.3652306,-1.0804332,0.15279184,0.97014898,-0.24012047,0.033957165,0
-1.6570681,2.4605248,3.172332,-0.38152796,0.56651807,0.73040652,0
3.4985113,2.7175462,0.14007184,0.78934246,0.61313927,0.031603344,0
-2.0120709,-3.9464686,0.36325049,-0.45269409,-0.88791251,0.081727408,0
-0.25390032,-1.6443418,-4.1372018,-0.056938104,-0.36874986,-0.92778313,0
2.3322859,3.8406446,-1.0297197,0.50593871,0.83314437,-0.22337531,0
