-1.08707,-4.0791554,1.9507545,-0.23375593,-0.8771531,0.41947663,0
-4.3245993,-0.99113661,1.0545837,-0.94830734,-0.21733855,0.23125134,0
3.4726174,1.1564324,2.6535282,0.76814246,0.25580266,0.58696008,0
3.9819524,2.5004699,-0.12622419,0.84656829,0.53160316,-0.026835427,0
1.7612987,1.9435182,3.9658656,0.37043026,0.40875405,0.83408719,0
1.4431121,1.461558,4.1967802,0.30885628,0.31280407,0.89819902,0
0.74947685,-4.5028467,-0.42723405,0.16347192,-0.98213708,-0.093186028,0
-2.9008543,-3.3246415,-1.5510645,-0.62024295,-0.71085453,-0.33163911,0
-2.9011238,-2.5765719,2.5157948,-0.62736034,-0.55717689,0.544034,0
-2.5455344,2.22416,3.1668477,-0.54955238,0.48017123,0.68368697,0
3.3251085,-0.95920134,2.7033784,0.75718105,-0.21842568,0.61560303,0
-0.7906912,0.80397463,-4.2743921,-0.17886381,0.18186867,-0.96691859,0
3.0813162,-2.4035604,2.4981065,0.66434604,-0.51821876,0.53860331,0
2.9153681,-0.66637552,3.3163195,0.65285325,-0.14922486,0.74264032,0
-3.9376583,-0.7205444,-1.9388139,-0.88529545,-0.1619985,-0.43589947,0
3.5080369,0.9845652,-2.7348032,0.77002436,0.21611494,-0.60029727,0
-1.4534451,1.1838084,4.3596525,-0.30627379,0.24945524,0.91867751,0
3.7748601,-0.20315067,-3.083962,0.77374393,-0.041640375,-0.63212854,0
2.3470356,-3.8841925,1.1019975,0.50256544,-0.83171332,0.23596822,0
-0.97098237,4.5138893,1.131101,-0.20425946,0.9495585,0.23794261,0
3.2143703,-0.88414133,-3.2667968,0.68866616,-0.18942378,-0.6998983,0
4.4520602,0.26015925,1.6629161,0.93538499,0.054659873,0.34938133,0
3.6654441,-0.086469106,2.6647806,0.80869353,-0.019077362,0.58792078,0
-3.4600096,-2.3817661,1.9049615,-0.75016934,-0.5163939,0.41301727,0
4.0717354,-1.1091852,2.2787969,0.84897423,-0.23126985,0.47513887,0
-2.9931469,0.93464839,-3.5790896,-0.62902367,0.19642068,-0.75216228,0
-3.7262862,0.73983663,2.4585826,-0.82345706,0.16349353,0.54331231,0
-3.6005468,2.1301353,-2.1424878,-0.76604491,0.4532032,-0.45583129,0
-3.1666296,2.1920249,-2.6956964,-0.67360926,0.46629018,-0.57343179,0
-3.8658967,0.93430412,-2.573473,-0.81607604,0.19722804,-0.54325032,0
-0.80443931,-2.5725965,3.8615963,-0.17082009,-0.54628259,0.81999749,0
-3.4222856,-2.7040701,1.6272215,-0.73513639,-0.58085757,0.34954119,0
-2.8170846,0.39885837,-3.4704173,-0.62774402,0.088879459,-0.77332914,0
-3.1317976,-0.50281012,-3.6679676,-0.64583498,-0.10368881,-0.75640321,0
-2.1228526,4.2667851,-0.30151397,-0.44455457,0.89352357,-0.063141175,0
4.7033172,-0.69359332,0.16848986,0.98867989,-0.14579961,0.035418097,0
-0.67322224,-2.3393152,3.9635389,-0.14473626,-0.5029301,0.85212243,0
3.7660921,-0.95043147,2.4378014,0.82124919,-0.2072549,0.53159678,0
-0.64321733,4.509552,-0.74746454,-0.13934179,0.9769156,-0.16192512,0
-3.9578636,2.5795374,-0.63196337,-0.83037651,0.54119784,-0.13258858,0
2.0688188,3.862417,-1.822737,0.43594536,0.8138957,-0.38409051,0
1.8018384,-0.44522122,-4.3233871,0.38296682,-0.094628327,-0.91890252,0
0.66279644,-4.3877664,-1.3819697,0.14260569,-0.94406134,-0.29734129,0
-1.9870226,-2.6806948,3.5163963,-0.40989649,-0.55299187,0.72538602,0
0.79300863,-0.60836709,-4.6274891,0.16750644,-0.1285048,-0.97746009,0
-2.1181099,3.3959665,-2.5184736,-0.44791561,0.71814328,-0.53258032,0
0.13409378,-2.1670167,4.1508856,0.028625481,-0.46260086,0.88610446,0
4.4920173,0.03846122,-0.046022434,0.99991083,0.0085613625,-0.010244469,0
-3.1417696,3.4585917,-1.4906676,-0.64058197,0.70517945,-0.30393532,0
-0.52447057,-0.62462282,-4.5550237,-0.11333854,-0.13498154,-0.9843446,0
-1.2789714,-4.6172376,-0.30087093,-0.26642245,-0.96181649,-0.062674403,0
-1.6121269,-1.5777743,-4.190413,-0.33875477,-0.33153626,-0.88052768,0
0.82973242,1.0936239,-4.4499235,0.17817447,0.23484179,-0.95556438,0
-4.5238733,-0.19960219,1.6731887,-0.93710321,-0.041346837,0.34659469,0
1.0798221,4.2270241,1.8779566,0.22734119,0.88993984,0.39537707,0
0.12475128,-4.2697697,-2.0545406,0.026318816,-0.90079463,-0.43344706,0
4.1179032,0.052128959,2.169821,0.88464099,0.011198761,0.46613836,0
-1.2668986,-4.1504045,-1.054674,-0.28369007,-0.92937869,-0.23616771,0
1.387301,3.0434165,-3.1442115,0.30220869,0.66297579,-0.68493289,0
-3.0053968,2.4048712,2.7018418,-0.63907355,0.51137656,0.574525,0
2.185324,3.9076464,-0.78944033,0.4806852,0.8595283,-0.17364578,0
-2.76981,-3.3879652,0.85697383,-0.62114352,-0.75976789,0.1921806,0
0.31598166,-4.1134024,2.3509204,0.06654568,-0.86628181,0.49510342,0
1.7185886,-3.0068767,3.0102367,0.37452435,-0.65527523,0.65600747,0
-1.9944485,-0.9066667,-4.2276492,-0.4188605,-0.19041197,-0.88786209,0
2.5634093,3.6161864,-1.0265625,0.56339753,0.79478151,-0.22562246,0
0.11988132,-2.8285449,3.6612625,0.025902579,-0.61115944,0.79108351,0
0.25993961,-1.908796,4.0049386,0.058490086,-0.42950606,0.90116781,0
-3.6168466,1.1139115,-2.8429997,-0.76411259,0.23533037,-0.60062593,0
-0.7065894,-0.19773632,4.7328777,-0.14753145,-0.041286107,0.9881953,0
4.3524137,-1.4791174,-0.62501979,0.938187,-0.31883198,-0.13472649,0
4.2553935,2.1592822,0.26446214,0.89039755,0.45180771,0.055335999,0
-2.3525941,-0.65548003,4.2583241,-0.47924703,-0.13352786,0.86746335,0
3.43483,-1.9959618,2.5594697,0.72683126,-0.42235783,0.54159957,0
2.4191973,3.0637612,2.4621551,0.52416456,0.66382146,0.53347218,0
-1.2748308,0.77263433,-4.5487294,-0.26632422,0.16141061,-0.95027262,0
-4.5168028,-1.2565433,0.13421655,-0.96302015,-0.26790553,0.028616089,0
-3.5114405,-2.1254051,1.6669555,-0.79262191,-0.47975829,0.3762745,0
-0.75173134,0.8276642,-4.4335527,-0.16440757,0.18101448,-0.96964109,0
-2.3637352,0.12070109,3.7250478,-0.53558564,0.027348991,0.84403795,0
3.320915,3.0544326,-1.5136033,0.6978032,0.64180893,-0.31804407,0
-0.85847974,-4.2909331,-1.1341845,-0.18990558,-0.94920373,-0.25089464,0
-2.7408049,3.1440353,-1.9795502,-0.59364861,0.68098688,-0.42876354,0
0.81391805,-1.7023864,-4.2974668,0.17341442,-0.36271262,-0.91562378,0
-1.6743416,0.097537883,4.112504,-0.37698901,0.021961296,0.92595732,0
1.7966747,-2.3982074,-3.4469919,0.39336881,-0.52507001,-0.75469369,0
-3.2791407,3.1661615,0.74869341,-0.7098791,0.68542099,0.1620796,0
2.598201,-2.6593013,-2.9586704,0.54682291,-0.55968219,-0.62268806,0
-0.38272542,-3.2664959,3.3031418,-0.082107954,-0.70077729,0.70863914,0
3.7075002,2.1133287,1.6568165,0.80987716,0.46164167,0.36191982,0
1.0060226,-3.9176993,-2.2323534,0.2177566,-0.84799773,-0.4831996,0
2.3884301,1.2431945,-3.6559179,0.52603149,0.27380306,-0.80518496,0
-1.318844,-2.3494029,-3.7781992,-0.28420568,-0.50628704,-0.81418699,0
4.4580588,1.5858319,-0.021745857,0.94215506,0.33514577,-0.0045957151,0
-3.274848,0.96887654,3.1771753,-0.70207536,0.20771173,0.68113583,0
0.63100475,-3.0647724,-3.5948031,0.1324005,-0.64306545,-0.75427914,0
1.0120203,4.4456692,-1.4855729,0.21104339,0.92708516,-0.30979648,0
-3.9642022,-1.8223757,-1.350978,-0.86793512,-0.39899674,-0.29578745,0
-1.3102101,3.8562183,2.1888988,-0.28337002,0.83401632,0.47341129,0
-0.71736467,0.92458349,-4.3902726,-0.15788595,0.20349307,-0.96626222,0
4.2355137,1.4243613,-0.12062829,0.94749403,0.31863287,-0.026984822,0
4.3429217,1.5586944,1.2199143,0.90995026,0.32658529,0.25560245,0
3.6873951,-1.2403024,2.4963446,0.79771584,-0.26832193,0.5400489,0
-3.5581985,-2.0266206,-2.5362511,-0.73872215,-0.42074931,-0.52655435,0
-3.5384579,1.293568,-2.8375125,-0.75022781,0.27426374,-0.60161257,0
-3.1488171,-0.37557551,-3.1809685,-0.70104229,-0.083616905,-0.7082004,0
-1.0681621,-2.729059,-3.7145638,-0.22575736,-0.57678998,-0.78507763,0
0.95375067,4.5700188,0.2909393,0.20390017,0.97701383,0.062199246,0
-2.5645552,-3.44701,1.819867,-0.54963642,-0.73876446,0.39003456,0
-0.093665257,-2.6219029,3.8877757,-0.019970432,-0.55901766,0.82891524,0
4.7464743,-0.63304645,0.42501718,0.9873414,-0.13168363,0.088410266,0
-0.2860983,1.2866145,-4.3308229,-0.063198939,0.28421235,-0.95667613,0
3.3679886,-0.34104824,-3.203315,0.72265637,-0.073177412,-0.68732297,0
2.1893804,-2.24786,-3.2563496,0.48414314,-0.49707487,-0.72008467,0
2.0178547,1.8210949,3.7183495,0.43810284,0.39538369,0.80730265,0
4.068543,-0.98338389,2.2264616,0.85815871,-0.20742056,0.46961713,0
1.154887,0.50955784,-4.6176004,0.24125338,0.10644553,-0.9646067,0
3.2337787,-3.4495008,0.13623662,0.68364298,-0.72924811,0.028801356,0
-3.8492093,-0.14802469,2.5087192,-0.83733892,-0.032200597,0.545735,0
3.1448812,1.4947304,2.9804294,0.68614751,0.32611901,0.65026754,0
3.6389816,0.96872056,-2.8620734,0.769355,0.2048073,-0.60510075,0
-3.7779603,1.7377954,2.438535,-0.78369164,0.36048439,0.50584424,0
2.1046507,1.0152184,-3.9780257,0.45618826,0.22005109,-0.86224693,0
3.5242345,-1.1874462,2.9053807,0.74677563,-0.2516166,0.61564219,0
3.898669,-2.1905937,-2.0083191,0.79528803,-0.44685838,-0.40967625,0
3.234482,-3.3685484,-0.67576301,0.68546784,-0.71387988,-0.14321113,0
-2.0584021,-1.9370987,-3.886235,-0.42834887,-0.40310591,-0.80871677,0
-1.3216982,-1.249988,-4.0908451,-0.29521343,-0.27919629,-0.91372782,0
0.33137506,2.4302769,-3.9103866,0.071788825,0.52649319,-0.84714293,0
1.7664287,-3.4457633,-2.5282245,0.38197652,-0.74511963,-0.54670894,0
0.54839891,-4.273562,-1.4934021,0.12026083,-0.93716836,-0.32749477,0
-3.6924112,0.38167846,2.4585385,-0.82930547,0.085723937,0.55218101,0
3.938205,-0.093627587,2.1655691,0.87606752,-0.020827785,0.48173845,0
2.1853902,3.5839894,2.3788126,0.45293999,0.74281108,0.49302834,0
1.7882506,0.85748571,4.159409,0.38807389,0.18608569,0.90264648,0
-3.4201915,-0.0277366,-3.2384336,-0.7261253,-0.0058886316,-0.68753713,0
1.6467173,3.9804344,-1.2056777,0.36813256,0.88984764,-0.26953578,0
-1.2959549,3.8852701,-1.8816776,-0.28752512,0.86199969,-0.41747561,0
2.1932364,-3.9631498,1.1705066,0.46880588,-0.84712613,0.25019664,0
-3.9633434,-0.84819853,1.9556131,-0.88070053,-0.18847947,0.43455973,0
1.186039,2.847472,-3.632237,0.24889156,0.59754509,-0.76222885,0
-3.2821856,-1.7889287,-2.7458148,-0.70764852,-0.38569811,-0.59200549,0
-3.272125,-2.2002013,-2.3874667,-0.70986229,-0.47731668,-0.51794249,0
-0.24571541,-1.3734035,4.368803,-0.053577349,-0.29946566,0.95260161,0
0.73370206,4.3978214,-1.6579596,0.15423994,0.9245165,-0.3485387,0
-2.0098593,4.2462754,0.28043166,-0.42705938,0.90225804,0.059586745,0
-1.8000312,2.0347345,4.0585384,-0.36856806,0.41662508,0.83101207,0
3.3668628,3.0822778,-1.080798,0.71774697,0.65707922,-0.23040426,0
-2.2660758,-2.9029853,-3.1735439,-0.46613061,-0.59714258,-0.65279633,0
4.3788519,-0.40037745,1.6640122,0.93138433,-0.085160516,0.35393634,0
-2.8698695,-2.8440235,2.2792621,-0.61864924,-0.6130777,0.49133375,0
-4.2435079,1.4703515,-0.25506675,-0.94336629,0.3268711,-0.056703415,0
-2.0494289,-0.81619906,-4.1525807,-0.4358488,-0.17357977,-0.8831228,0
-2.8590784,-3.4414442,1.1415756,-0.61918676,-0.74530888,0.24722947,0
1.5197352,-3.4358258,-2.4799283,0.33759779,-0.7632429,-0.55089748,0
0.096339419,-4.167418,-2.2428761,0.020352172,-0.88038737,-0.47381848,0
-1.9695102,-1.6924596,4.0918736,-0.40639293,-0.3492257,0.8443259,0
-2.0265832,-2.1994152,3.6631043,-0.42854983,-0.46509764,0.77461547,0
-3.3645811,2.6140223,1.6523693,-0.73625082,0.57201058,0.36157793,0
0.33652514,2.6326644,3.8188066,0.072362706,0.56609952,0.82115465,0
0.91379797,4.6433897,0.22346623,0.19287698,0.98008865,0.04716742,0
-0.24975879,-2.6674111,4.0623946,-0.051324565,-0.54814368,0.83480793,0
-1.0838306,3.2381256,-3.0417368,-0.2370066,0.70809692,-0.66515166,0
-3.2433183,-3.1997435,-0.38525823,-0.70934117,-0.69981098,-0.084259234,0
-4.4612136,0.47814831,0.79249305,-0.97914898,0.10494418,0.17393669,0
-3.042557,-3.4056718,-1.4726287,-0.63408089,-0.70975542,-0.30690163,0
0.12079271,-4.526494,-1.3257301,0.025601503,-0.95937121,-0.28098288,0
-4.1854539,-1.6603785,-1.0189004,-0.90660864,-0.35965359,-0.22070341,0
-3.7587693,1.7575788,1.6951047,-0.83858472,0.39211738,0.37817934,0
0.5120731,2.121485,4.0422316,0.11147166,0.46181971,0.87994128,0
2.2859313,-0.90949816,4.1853776,0.47085035,-0.18733613,0.86209351,0
3.9492626,-0.51069027,-2.5950847,0.83088171,-0.10744365,-0.54597747,0
1.8414452,-4.3804979,-0.4724668,0.38562366,-0.91733587,-0.098940976,0
3.3414056,2.1529071,-2.5670488,0.70616257,0.4549889,-0.54251236,0
-4.2998109,-0.41524625,1.3979802,-0.94701338,-0.091456056,0.30789864,0
-0.034004986,-3.0840476,-3.637774,-0.007130024,-0.64665025,-0.76275331,0
-1.6604906,3.9976895,-1.9783652,-0.34888047,0.83994198,-0.4156681,0
0.17377394,2.2600279,4.0954885,0.037123937,0.48281771,0.8749336,0
-0.65694487,-2.35376,4.1717043,-0.13587959,-0.48684138,0.86285704,0
-1.7685387,-4.1811695,0.35984734,-0.38834393,-0.91812056,0.079016946,0
0.40674937,-1.5007451,4.4792399,0.085786007,-0.31651661,0.9447,0
2.3480587,-0.40371069,4.0821295,0.49678212,-0.085413642,0.86366194,0
4.3767471,1.1654428,1.3425759,0.92648131,0.246704,0.28419998,0
-3.798357,2.3575673,1.7743615,-0.78971505,0.490161,0.36890689,0
-0.77002239,-2.3621533,-3.7219908,-0.17207079,-0.52785164,-0.83172369,0
-4.1309519,-1.3827316,-2.0965109,-0.85447937,-0.28601533,-0.4336592,0
0.054683205,-3.8001189,-2.8496926,0.011511707,-0.79998708,-0.5999068,0
-0.53781104,-3.3158331,3.3401334,-0.11353078,-0.69996542,0.70509517,0
1.7745498,3.657021,2.6546557,0.3655175,0.75326437,0.5467996,0
-4.4980745,-0.75063771,1.4335443,-0.94096249,-0.15702762,0.29988641,0
-3.660095,-2.8192067,-1.0145658,-0.77379286,-0.5960179,-0.21449274,0
1.7924674,2.5118673,-3.2066123,0.40277851,0.56443208,-0.72054559,0
-0.44688055,-4.5129452,1.4226756,-0.094022043,-0.94950724,0.29932576,0
0.16180277,-4.4555826,-0.068354994,0.036286429,-0.99922383,-0.015329519,0
1.5922117,-4.0772176,-1.8696202,0.33452249,-0.85662031,-0.39280578,0
3.9988756,-0.74466312,-1.9667963,0.88506627,-0.16481538,-0.43530864,0
-3.2129881,2.8142045,-1.6131812,-0.70372677,0.6163829,-0.35332805,0
2.4637246,-1.7078944,3.7200258,0.51568282,-0.35747981,0.7786395,0
0.46196637,-0.071203269,4.7179713,0.097439274,-0.015018399,0.9951281,0
3.4302006,0.87903863,3.151464,0.72362095,0.18543836,0.66481984,0
1.6498411,1.0208009,-4.3443799,0.34675798,0.21454847,-0.91308701,0
2.9594364,2.6572726,-2.1408501,0.65518844,0.58829254,-0.47396195,0
3.7236483,-1.9765098,1.7555705,0.81540275,-0.43281516,0.38443398,0
2.614614,2.28511,-2.8808391,0.57949394,0.50646383,-0.63849914,0
-1.916078,3.4784153,2.0901885,-0.42696041,0.77509665,0.46575752,0
3.7077489,1.7493795,-2.525171,0.77004135,0.36331874,-0.5244385,0
-2.0707259,-2.0620921,3.3164067,-0.46846268,-0.46650943,0.75027448,0
3.3946283,-2.9558494,-0.44440758,0.75051636,-0.65350699,-0.098253809,0
1.9553134,3.8594308,-1.9200453,0.41308901,0.81536204,-0.40563807,0
3.0062239,-0.21911576,-3.5190578,0.64880443,-0.047289651,-0.75948441,0
2.2824945,1.7326484,3.6270275,0.49378303,0.37483215,0.78465229,0
3.447644,3.1546936,-0.70159054,0.72957927,0.66758609,-0.14846832,0
-4.0096498,0.47818866,-1.9750507,-0.89198565,0.10637773,-0.43936926,0
0.54905474,2.3353384,4.0714865,0.11618478,0.494178,0.86156213,0
2.6872616,2.4469349,-2.9486704,0.57418644,0.52283597,-0.6300416,0
2.0381689,3.7454357,2.0706313,0.4299711,0.79013526,0.43681934,0
1.04345,2.9258149,3.4054346,0.2263765,0.63475561,0.73880911,0
3.0957241,0.66525435,3.3433104,0.67228818,0.14447108,0.72605562,0
3.1177413,2.7135625,1.8173524,0.69050801,0.60099167,0.40250176,0
1.4350365,-4.2830343,1.3857594,0.3037222,-0.90649444,0.29329279,0
4.1097717,0.84156376,2.0154951,0.88304275,0.18082191,0.4330577,0
-4.4105072,-1.1427592,0.57910019,-0.96030855,-0.24881525,0.12608865,0
-2.1826391,-3.0856123,-2.8076634,-0.46357471,-0.65535885,-0.59632474,0
3.5862277,2.3985064,1.7667576,0.76922798,0.51446772,0.37896073,0
4.2464786,-1.50659,-1.1420219,0.91355705,-0.324117,-0.24568643,0
-0.60355228,-4.2017889,1.4056137,-0.13497509,-0.93966478,0.31434363,0
-3.7403934,2.3699689,-0.68105304,-0.83489412,0.52900136,-0.15201801,0
0.90092754,2.9432843,-3.2065434,0.20269112,0.6621815,-0.72140968,0
-3.1182699,0.07421805,-3.5999675,-0.65464699,0.015581275,-0.75577414,0
-1.2730907,4.2803168,-0.6212194,-0.28236726,0.94935989,-0.13778438,0
1.305655,0.50140315,4.5698757,0.27320036,0.10491556,0.95621872,0
1.8978859,0.77623636,4.2669601,0.40089902,0.16396792,0.90132928,0
4.3646007,0.58496034,1.2323929,0.95446527,0.12792106,0.26950374,0
-2.2337539,-3.299974,-2.2614305,-0.48751992,-0.72022396,-0.49356037,0
-0.65947056,-2.0610602,-3.9172769,-0.14735925,-0.46054563,-0.87531877,0
0.85769653,-3.9408295,2.638818,0.17795782,-0.81765682,0.54751098,0
0.37420872,1.1725048,-4.4898348,0.08038041,0.25185519,-0.96442097,0
3.4697969,1.1989237,3.0710697,0.72494805,0.2504923,0.64164162,0
1.5040817,3.6472375,2.3519731,0.32746693,0.79407239,0.51206887,0
-2.2224307,-3.1771903,-2.884356,-0.45989069,-0.65746039,-0.59686381,0
3.916064,2.24334,1.2393016,0.83673525,0.47932863,0.26479834,0
-4.4272313,0.43526164,0.49695644,-0.98904967,0.097238056,0.11102076,0
-4.2172065,-0.9530502,-1.3735327,-0.92961913,-0.21008544,-0.3027744,0
-4.0413413,0.8719663,1.6473792,-0.90807205,0.19592708,0.37015903,0
0.49239719,4.298758,2.0470724,0.10286827,0.89806724,0.42766041,0
-3.7929597,1.1794634,-2.408927,-0.81648165,0.25389412,-0.51855141,0
-1.9255003,-0.0092375996,-4.4247437,-0.39902142,-0.0019143077,-0.91693962,0
0.33886695,-0.94023585,4.6573858,0.071139507,-0.19738695,0.97774106,0
1.4455962,3.3168254,2.6993423,0.32023683,0.73476231,0.59797388,0
-3.7722535,2.5833647,-0.854469,-0.81102562,0.55541736,-0.18370883,0
2.1186945,2.151161,3.4512117,0.46203765,0.46911782,0.75262845,0
-2.8988917,3.526053,-0.44113526,-0.63212031,0.76887649,-0.096192129,0
-2.6416366,1.8332285,-3.3961494,-0.56483406,0.39198044,-0.7261638,0
3.211097,-3.2810912,0.44154692,0.69622993,-0.71140605,0.095736183,0
-3.2960479,-1.8124694,-2.7622962,-0.70627201,-0.38837308,-0.59190047,0
2.4721553,-2.4138782,3.1699665,0.52722049,-0.51479208,0.67603815,0
0.20713839,0.6242888,-4.577755,0.044788923,0.13498813,-0.98983443,0
0.69676751,-2.5203538,3.6119571,0.15625614,-0.56521112,0.81001258,0
4.1379929,1.3375877,-1.898706,0.87203205,0.28188047,-0.40012938,0
-2.3733284,1.3317803,-3.8437002,-0.50393391,0.28277975,-0.81614107,0
3.1586919,2.690414,2.0035825,0.68553907,0.58390749,0.43484268,0
-0.14556752,-1.3077635,-4.3689175,-0.031903319,-0.28661612,-0.95751423,0
-3.0412834,-3.1512067,-1.1796045,-0.67054731,-0.69478339,-0.2600812,0
3.6494753,1.6525437,2.2564282,0.79371989,0.35940969,0.49074781,0
0.9709276,1.1318399,4.4945531,0.20503257,0.23901272,0.94912308,0
3.6018066,-1.986315,1.9414982,0.79188567,-0.43670705,0.42685372,0
-0.13535528,3.4968221,-3.3208675,-0.028056752,0.72482926,-0.688357,0
3.2869153,1.3663857,3.1490395,0.69160259,0.28750235,0.66259205,0
4.110908,-2.5189235,-0.071565159,0.85256881,-0.52240419,-0.014842031,0
-2.5030406,-3.4739816,1.9123695,-0.53376025,-0.74080831,0.40780273,0
3.0151112,-2.8355,-2.5177534,0.62236685,-0.58529228,-0.51970428,0
1.3796782,-1.0092093,-4.2497478,0.30119693,-0.22032002,-0.92776048,0
4.5227685,-1.2221458,0.61905646,0.95705646,-0.25861651,0.13099764,0
-0.5725618,-3.7455711,2.6820951,-0.12333633,-0.80683869,0.57775384,0
0.50098079,4.3649387,1.6345426,0.10686923,0.9311288,0.34868065,0
-0.77437657,4.2422771,-1.6681715,-0.16747683,0.91749054,-0.36078066,0
0.31469706,2.3333743,-4.1215973,0.066297963,0.49157739,-0.86830652,0
-0.43045977,-3.7321773,-2.7475464,-0.092484444,-0.80185974,-0.59031141,0
-0.15370998,-2.2549477,-4.0429811,-0.033185381,-0.48683432,-0.87286371,0
-3.1695831,1.9286854,-2.6512756,-0.69505483,0.42293957,-0.58139569,0
3.0557816,1.5654795,-3.3111587,0.64063352,0.32819709,-0.69417238,0
-2.0900159,-4.3234119,-0.18289796,-0.43491524,-0.89966673,-0.03805957,0
3.1462631,1.0663177,3.1549866,0.68673533,0.23274532,0.6886394,0
-0.93028849,0.33566543,4.4047766,-0.20606954,0.074353732,0.97570837,0
-2.491627,0.0019910336,3.8658881,-0.54174381,0.00043290193,0.84054351,0
-3.863817,2.0069125,-1.8183818,-0.81888306,0.42533758,-0.3853811,0
0.88057035,0.049914528,4.4611273,0.19363929,0.010976311,0.98101133,0
-3.0279188,3.2018676,-0.9904564,-0.67037189,0.70888364,-0.219284,0
4.0862012,-1.9301125,-1.0923504,0.87889308,-0.41514415,-0.23495151,0
0.90108633,-0.13987498,4.7734575,0.18541728,-0.028782189,0.98223829,0
-3.3790698,0.85725725,-3.3553822,-0.69836372,0.17717224,-0.69346809,0
0.35579655,-0.27494082,4.8139558,0.073589072,-0.056865759,0.99566609,0
-1.9207139,-2.5677235,3.5985587,-0.39849204,-0.53272766,0.74659586,0
-3.6171453,2.7335117,1.0233511,-0.77823037,0.58811623,0.22017443,0
1.5628031,-2.6862755,-3.3697879,0.34091878,-0.58599943,-0.73510474,0
2.2713585,-1.3049083,-3.879679,0.48520717,-0.27875426,-0.8287763,0
3.110038,0.69226217,3.3420098,0.67354417,0.14992394,0.72378254,0
3.0347059,-2.6109118,-2.7267992,0.6265223,-0.539029,-0.56295425,0
2.4001067,-2.4512935,-3.3362639,0.50154829,-0.51224476,-0.69717628,0
0.13978639,-4.4210448,1.840613,0.029177282,-0.92279416,0.38418677,0
3.9761806,-2.1003706,0.94513398,0.86531079,-0.45709026,0.20568348,0
1.6286809,1.2295769,4.0511737,0.3590464,0.27106303,0.89309043,0
2.2202196,1.6297959,-4.1028686,0.44929412,0.32981321,-0.83027589,0
1.1416472,-4.3489575,1.3183461,0.24365027,-0.92815423,0.28136134,0
1.1994983,-3.8471258,-2.6119976,0.24977785,-0.80110729,-0.54391003,0
-1.6556031,-0.72534579,4.0799084,-0.37101379,-0.16254699,0.91429055,0
-1.4617215,-0.038635913,-4.4572644,-0.31160235,-0.0082362071,-0.95017689,0
-0.28486696,-3.8963914,2.5725398,-0.060898799,-0.83296973,0.54995704,0
-0.82708502,-2.8973391,3.6328771,-0.17523758,-0.61387002,0.7697112,0
-1.2121212,4.3265333,-0.53484493,-0.26788148,0.95617348,-0.11820192,0
2.5532904,0.10117971,3.882843,0.54930437,0.021767385,0.83533883,0
0.94326442,-4.4590812,-0.50750554,0.20568681,-0.97234052,-0.11066589,0
-3.346441,-1.524537,2.7059939,-0.73295832,-0.33391356,0.59268361,0
-0.45001718,3.2527745,-3.0086403,-0.10104464,0.73036194,-0.67554528,0
0.4215138,4.3359518,1.951791,0.088300288,0.90831143,0.40886849,0
3.8065703,-0.98661727,-2.849853,0.78381836,-0.20315631,-0.58681881,0
1.7035882,2.8325114,-3.3574374,0.36158502,0.6011979,-0.71261299,0
0.50393581,4.5867577,-0.74063236,0.10783026,0.98145682,-0.15847768,0
2.7816942,0.51954794,3.6723263,0.60000306,0.11206493,0.79210973,0
-3.9263453,-2.2155058,1.1631891,-0.84330034,-0.47584629,0.24982971,0
-4.3732677,-0.80725592,0.4018985,-0.97939557,-0.18078539,0.090005383,0
3.2093883,0.66301376,3.4034474,0.67927229,0.14032795,0.72034526,0
2.3889029,3.6193838,-1.7893704,0.50921577,0.77150369,-0.38142014,0
2.0179238,-0.074975148,4.0910091,0.44231027,-0.016433861,0.89671147,0
-4.3810687,-0.72848696,1.0833967,-0.95835316,-0.15935558,0.23699163,0
-3.0865452,-0.91243744,-3.1558609,-0.68473738,-0.20242049,-0.70011479,0
-0.72107732,-4.6427722,-0.55335611,-0.15241838,-0.98137021,-0.11696616,0
-2.6442926,0.67503768,3.8449252,-0.56082326,0.14316753,0.81546324,0
-2.1712177,-2.5708442,3.2707171,-0.46268421,-0.54784423,0.69698644,0
1.2118744,1.3618429,4.1190906,0.26903874,0.30233207,0.91444707,0
-3.7601721,-1.5352086,-2.2676575,-0.80834895,-0.3300339,-0.48749325,0
4.5042586,0.75943822,1.0943987,0.95894349,0.16168217,0.23299429,0
-0.25460875,-1.6030139,-4.2339606,-0.056150325,-0.35352182,-0.93373954,0
-4.1155071,-2.0893354,0.62514442,-0.88360524,-0.4485833,0.13421939,0
-1.5074598,-1.1862755,-4.3130345,-0.31935161,-0.25130954,-0.91370571,0
0.6025576,-4.4521446,1.6261917,0.12611116,-0.93180323,0.34035075,0
0.14953828,-2.8310728,3.6611276,0.032294452,-0.61140168,0.79066122,0
-2.1841273,-2.1605494,-3.6129568,-0.46053797,-0.45556641,-0.76181626,0
1.9847013,2.4165874,-3.3589096,0.43246755,0.52657574,-0.73190832,0
1.7915947,4.1539292,1.5401524,0.37490407,0.86923951,0.32228795,0
1.6682355,3.9288659,-1.8954895,0.35719952,0.84124154,-0.4058587,0
4.2851348,0.027537633,2.0257034,0.90405673,0.0058097551,0.42737299,0
-1.4341937,4.2270913,-1.4536462,-0.30550534,0.90043545,-0.30964899,0
-3.8055413,-2.5843863,0.86840427,-0.81291008,-0.55205649,0.18550175,0
3.211314,3.1568711,-0.0065813446,0.71312517,0.7010352,-0.001461496,0
3.1806197,-1.7597288,-3.2702599,0.65049487,-0.35989672,-0.66882795,0
-3.8890083,2.0028191,1.7125946,-0.82784873,0.42633781,0.36455804,0
-2.3816612,3.2826948,2.254982,-0.51324451,0.70741594,0.48594531,0
0.86515945,-1.3304284,-4.1925769,0.19299175,-0.29677963,-0.93524122,0
-1.6962724,3.322772,2.8530154,-0.36117193,0.70748782,0.60746676,0
0.8385371,-3.9896536,-2.5420361,0.1745346,-0.83041358,-0.52910388,0
-3.9955473,0.97806031,-1.7075485,-0.89710093,0.21959916,-0.38338763,0
-3.1831951,3.3681591,1.2017915,-0.66487724,0.70351082,0.25101942,0
0.7987563,-4.5721378,-0.91148281,0.16886891,-0.96661764,-0.19270097,0
3.3330936,-2.3926713,2.202527,0.71575212,-0.51380485,0.47297305,0
4.5170341,-0.44915801,-1.7363356,0.9294191,-0.092418171,-0.35726619,0
1.3777413,2.4175477,-3.9036705,0.28739545,0.50429797,-0.81430173,0
2.1596816,-3.7938919,1.6537048,0.4626317,-0.81270069,0.35424492,0
-3.9662304,2.0785692,1.1176813,-0.85937274,0.45036861,0.24217071,0
-1.5282156,2.5843861,-3.4324129,-0.33511606,0.56671929,-0.75267953,0
2.2614689,-3.7533007,-1.2337379,0.49677283,-0.82448083,-0.27101302,0
-0.6832723,4.6585236,-0.16615309,-0.14502852,0.98879874,-0.035266958,0
4.0184984,-2.472863,0.74193966,0.8413263,-0.51772684,0.15533496,0
1.5422899,-4.1966443,1.752154,0.32116738,-0.87391174,0.36486962,0
-1.2024136,-4.1136479,1.8398023,-0.25780809,-0.88200253,0.39446989,0
-0.41119972,0.047487665,4.7030296,-0.087096252,0.010058367,0.99614912,0
0.11685172,1.8196862,4.2225614,0.025405588,0.39563128,0.91805798,0
0.15707964,-1.7636095,-4.1622767,0.034727372,-0.38990113,-0.92020166,0
-2.747931,-3.9085805,-0.18471459,-0.57470685,-0.81744707,-0.038631517,0
1.3059827,-0.81456476,-4.3524609,0.28288826,-0.17644246,-0.94278431,0
2.3802805,-4.1110735,-0.085940294,0.50098348,-0.86526775,-0.018088065,0
2.5917437,-3.5674357,1.6681266,0.54974043,-0.75669664,0.35382998,0
1.361429,0.73280358,4.6027393,0.28039011,0.15092295,0.94794708,0
0.65355086,-3.9448662,2.2900872,0.14182983,-0.8560921,0.49698153,0
-3.6222231,2.6711164,0.88147962,-0.78982538,0.58243662,0.19220655,0
4.4046044,1.2855747,-0.30840254,0.95778632,0.27954969,-0.06706249,0
-0.029297775,4.1281848,2.3393443,-0.0061744144,0.87000203,0.49300948,0
3.8946838,-1.7243016,-2.1690283,0.81482202,-0.36074787,-0.45379087,0
1.830961,4.0991836,-0.072499789,0.40777752,0.91293854,-0.016146595,0
-2.2606425,-3.9080727,1.3268647,-0.48039982,-0.83048838,0.28196654,0
-0.91191649,1.4822404,-4.1170325,-0.20401999,0.33161664,-0.92108977,0
2.5607028,-3.2228079,-1.7973982,0.57011127,-0.71752143,-0.40017021,0
-3.5149741,1.9333012,-2.3576694,-0.75540549,0.41548708,-0.50668836,0
-1.1374247,-3.3934836,-3.145817,-0.23870189,-0.71216226,-0.66018653,0
-2.6990333,3.4054008,-1.1014715,-0.60209727,0.75967294,-0.24571504,0
-3.9632001,-2.5866959,-0.21234332,-0.83657551,-0.54601496,-0.044822674,0
-2.3382671,-1.4314213,3.6461906,-0.51256138,-0.31377566,0.79926562,0
-1.1973191,4.0064416,1.7036381,-0.26517197,0.88731229,0.37730712,0
0.44111243,4.0287457,1.8411877,0.099094264,0.90504271,0.41361594,0
-2.2268176,3.0385239,2.7113998,-0.47976798,0.65465015,0.58417124,0
-2.5668771,3.6214693,-0.95020449,-0.56545746,0.79777366,-0.20932059,0
-1.2769604,4.3604312,0.49140322,-0.27941862,0.95412964,0.10752661,0
-0.59728754,-2.5249746,3.9134662,-0.12720497,-0.53774655,0.83345515,0
2.9926727,1.7683754,-3.0941358,0.64307392,0.37999347,-0.66487658,0
1.007498,2.948195,3.5598626,0.21297015,0.62320477,0.7525022,0
-1.3990847,-1.2115941,4.311141,-0.29820904,-0.25824621,0.91890162,0
-1.8569189,1.2977757,-3.8031056,-0.41947824,0.29316771,-0.85912204,0
-4.2463923,0.69827706,2.1313658,-0.88423997,0.14540449,0.44382116,0
-2.1798766,-0.37552598,4.1288838,-0.46538034,-0.08017078,0.88147253,0
1.9003779,-4.0035481,-0.94160092,0.41945279,-0.8836661,-0.20783085,0
-4.0832009,0.35939851,2.330188,-0.86599749,0.076224074,0.49420467,0
0.6305663,-1.9290489,4.1883087,0.1354858,-0.41448253,0.8999154,0
4.6940484,0.036733627,-0.36773309,0.9969151,0.007801434,-0.078098617,0
-0.50546938,-0.66706508,4.5210748,-0.10993508,-0.1450807,0.98329341,0
-2.3759978,-0.49352863,-3.8239708,-0.52462059,-0.10897118,-0.84433317,0
-2.2801344,-3.9576464,1.0239065,-0.48711967,-0.84549725,0.21874368,0
4.2372327,-1.5302373,1.0052662,0.91796905,-0.331516,0.2177844,0
3.7933302,-2.7044814,0.064079925,0.81416786,-0.58046669,0.013753565,0
-4.4077744,-1.0719963,-0.26970327,-0.96996313,-0.23590067,-0.059350185,0
2.3251812,3.7077646,0.82478541,0.52209413,0.83253819,0.18519659,0
-1.7315148,-1.708541,-4.1137819,-0.36230457,-0.35749751,-0.86077344,0
-3.1767027,-3.2843637,-0.5248903,-0.69068557,-0.71409345,-0.11412279,0
3.3565722,1.0900022,-2.9981546,0.72484809,0.23538478,-0.64744824,0
-4.7429099,-0.72365177,0.11650277,-0.98826838,-0.15078552,0.024275392,0
-2.5230398,3.8693254,0.67848372,-0.54040366,0.82876122,0.14532274,0
-3.3580804,2.4101119,2.0715303,-0.72630996,0.52127647,0.44804558,0
0.80787003,0.5104965,-4.4593377,0.17714168,0.11193658,-0.97779906,0
1.0048133,0.52106637,-4.4567437,0.21852174,0.11331889,-0.96923018,0
1.5253423,-4.3998756,-1.0788928,0.31910101,-0.92045224,-0.22570395,0
-3.6404693,0.82369792,-3.0984335,-0.75046414,0.16980112,-0.63872623,0
0.54434514,-0.967888,-4.5671916,0.11581194,-0.20592263,-0.97169107,0
-2.4113533,0.7289142,4.1170869,-0.4995937,0.15101932,0.85299432,0
-1.2393448,2.3794904,-3.9284172,-0.26052293,0.50019318,-0.82579339,0
-0.56762201,-4.4441738,1.0179516,-0.12354476,-0.96728879,0.22156046,0
-4.0045123,1.0664945,2.4024837,-0.83599037,0.22264361,0.50154752,0
-2.8660917,1.7910112,-3.4943726,-0.58956552,0.36841753,-0.71880519,0
3.4290247,-2.2770631,-1.9670984,0.75163388,-0.49912673,-0.43118319,0
3.3111804,-2.9582701,-0.52691495,0.74053359,-0.66160643,-0.11784264,0
-3.1171708,1.9753379,2.6458437,-0.68647492,0.43501621,0.58267748,0
0.45086622,3.9519389,2.1934125,0.099260256,0.87003732,0.48288977,0
2.8893642,-3.5244403,0.13230203,0.63372386,-0.77301496,0.029017786,0
3.6606855,-2.3284857,-2.2873888,0.74638557,-0.47476032,-0.46638095,0
-3.3451202,-3.2100971,-1.032557,-0.70426357,-0.6758365,-0.21738897,0
-3.8837864,-2.1836772,1.5231054,-0.82480633,-0.46375123,0.32346448,0
3.2595587,-3.077992,0.67732811,0.71890801,-0.67886281,0.14938729,0
-2.8062387,-3.5089591,-0.86578184,-0.61328703,-0.76686245,-0.18921155,0
-3.1040938,-1.6661918,-3.016818,-0.66924715,-0.35923341,-0.65043038,0
4.2920403,-1.4819403,0.55774426,0.93819106,-0.32393524,0.12191653,0
4.1503267,-1.3886586,1.1789086,0.91568482,-0.30637917,0.26010209,0
4.6215749,-0.0073057176,-0.62094611,0.9910931,-0.0015667054,-0.1331614,0
4.0935764,-0.80500048,-2.0046265,0.88440955,-0.17391886,-0.43309581,0
2.9906127,-1.4325016,3.3100238,0.63829625,-0.30574349,0.70646918,0
-1.7347806,4.3786354,-0.82095027,-0.36286548,0.91588283,-0.17171885,0
-3.1545858,-1.8116945,-2.9469738,-0.67381221,-0.38697374,-0.62946677,0
-2.0757952,3.9731648,-0.73018283,-0.45704037,0.87479573,-0.16076878,0
3.1016989,-3.3172989,-1.236316,0.65898967,-0.7047962,-0.26266876,0
-1.1174406,-3.6069219,2.312665,-0.25235918,-0.81457567,0.52228481,0
3.8257699,-1.7162652,-2.1713414,0.81020987,-0.36346543,-0.45984006,0
-3.185281,-1.1115949,3.2092555,-0.68408221,-0.23873006,0.68923104,0
2.4041381,-0.45633575,-3.9760864,0.51494068,-0.097742245,-0.85163522,0
-2.606993,-3.9670031,0.65008342,-0.54411471,-0.82796729,0.13568121,0
3.1250978,3.2060511,1.0840886,0.67840397,0.69597751,0.23533663,0
2.2654655,-3.351145,2.5655079,0.47295487,-0.6996091,0.53559387,0
-3.3190007,-2.5580802,1.8476696,-0.72472405,-0.55857241,0.40344992,0
2.4971511,0.01449299,-3.7499163,0.55426806,0.0032168664,-0.83233207,0
-1.2711535,-3.7632654,-2.3048322,-0.27679428,-0.81945288,-0.50187838,0
-4.6460977,0.76749682,0.6510334,-0.97733301,0.1614473,0.13694857,0
-4.1401601,-0.19335881,1.8317542,-0.91365916,-0.042670824,0.40423533,0
0.64222127,-2.7504694,3.9472613,0.13231583,-0.56667483,0.81324798,0
3.3878775,0.63967234,-3.1773572,0.7225855,0.1364329,-0.67768455,0
-4.1383672,-2.0548563,-0.41567379,-0.89206141,-0.44294232,-0.089602135,0
-1.9851431,-3.8086491,-1.96064,-0.42046499,-0.80669433,-0.4152751,0
-3.704685,-1.2889004,2.5241265,-0.7942369,-0.27632371,0.54114032,0
1.3520206,4.2001982,0.83580595,0.30105773,0.9352684,0.18611096,0
4.3903904,-1.1677796,-0.75867057,0.95319879,-0.25353691,-0.16471516,0
4.5082245,-0.71214718,-0.16643734,0.98709601,-0.15592782,-0.036442202,0
-3.5977573,-0.10991298,2.7343462,-0.79592139,-0.024315728,0.60491145,0
0.61478996,4.1865082,1.6589315,0.13526782,0.92112738,0.36500281,0
-2.7268553,1.6094762,-3.3597691,-0.59064639,0.34861818,-0.72773772,0
-2.1720746,-1.8244938,-3.5228117,-0.48023626,-0.40338764,-0.77887833,0
-1.964437,2.4906449,-3.4157484,-0.42141658,0.53430021,-0.73275602,0
0.77351981,4.3600106,-0.81022698,0.1718318,0.96854466,-0.17998603,0
-2.7617707,3.7157505,-0.27496505,-0.5954833,0.80117708,-0.059287,0
3.879374,2.1259813,1.1478018,0.84883994,0.46518275,0.25114876,0
3.8964758,2.3295975,-0.70733345,0.84806514,0.5070352,-0.15395062,0
-0.030902097,-4.5034714,1.1589661,-0.0066451649,-0.96842331,0.24922325,0
-4.4960527,-0.55651784,1.6605686,-0.93180305,-0.11533785,0.34415141,0
0.25691089,1.6487154,-4.4279013,0.054293755,0.34842798,-0.93576175,0
2.1521358,-1.688676,3.8340819,0.45693526,-0.35853478,0.81404114,0
-0.32370839,1.2817686,4.3800488,-0.070752688,0.28015515,0.95734382,0
1.3188093,0.8781532,-4.4603219,0.27861896,0.18552352,-0.94231236,0
1.3908244,3.7872283,2.6455209,0.28828073,0.7849912,0.5483458,0
-0.66175032,2.3074262,4.2702413,-0.1350874,0.47102994,0.87171215,0
2.8269572,2.2851002,2.9738216,0.60193026,0.48655528,0.63320136,0
-2.2380402,0.97190863,-4.1101942,-0.46822232,0.20333384,-0.85989726,0
-4.2809105,-1.7176794,-1.1619077,-0.89996594,-0.36110377,-0.24426517,0
-1.9971604,-0.25210291,4.1121306,-0.43621284,-0.055063441,0.8981573,0
-1.9601209,3.7938159,-1.6805735,-0.42712939,0.82670933,-0.36621329,0
-0.42760772,0.94134766,-4.6827302,-0.089168295,0.19629759,-0.97648156,0
0.6935578,4.3464246,1.5517958,0.14861023,0.93131846,0.3325069,0
-2.9790227,-3.5183527,0.7231192,-0.63838387,-0.75395858,0.15495943,0
3.2379026,-0.061553705,3.0342402,0.72961247,-0.013870198,0.68372023,0
-2.0786614,-0.16832469,-4.032433,-0.45787627,-0.03707765,-0.88824242,0
-0.94094086,1.7294817,-4.2369447,-0.20139728,0.37017515,-0.90686798,0
0.11472156,0.58047855,4.7051315,0.024191678,0.12240724,0.99218512,0
-3.9056656,1.5027138,2.0733254,-0.8362897,0.32176438,0.44394499,0
4.0012674,1.94923,1.0367451,0.87555969,0.42653164,0.22686116,0
4.4690866,-0.066190526,-0.58440006,0.99145144,-0.01468414,-0.12964714,0
0.97497231,-3.9245353,-2.4605975,0.20596792,-0.82907826,-0.5198139,0
4.2775369,-0.45672381,1.7338907,0.92225367,-0.098471433,0.3738336,0
1.2679188,4.0310841,-2.2961438,0.26363802,0.83818221,-0.47743654,0
0.78672427,-0.88210791,4.5562649,0.16713637,-0.18740024,0.96795994,0
-4.1114192,-0.2853567,2.2320344,-0.87721217,-0.06088369,0.47622675,0
1.4180859,4.1510296,1.10295,0.31352019,0.91773814,0.24384776,0
0.047928166,4.200294,2.3901401,0.0099169314,0.86909288,0.49454957,0
0.012433645,1.6249397,-4.2560911,0.0027292178,0.35667852,-0.93422318,0
2.2531452,-2.2791317,-3.5368323,0.47207344,-0.47751805,-0.74102843,0
-0.55737108,4.6809649,-0.3334358,-0.11794192,0.9905107,-0.070556335,0
3.5975983,-0.1357841,2.7843266,0.79046857,-0.029834645,0.61177558,0
-0.14296682,-1.1698269,-4.4125128,-0.03130303,-0.25613725,-0.96613342,0
0.37233925,4.4919195,-0.93954444,0.080869354,0.97561198,-0.20406216,0
-3.6784434,0.14463766,3.1406419,-0.7601729,0.02989026,0.64903289,0
2.505861,0.85571617,-3.5615542,0.56463152,0.19281371,-0.80250496,0
0.06073935,-3.2753787,3.2410274,0.013180541,-0.71076268,0.7033084,0
0.23131724,1.3640933,-4.566752,0.048476521,0.2858693,-0.95704174,0
-2.2199154,-3.9204977,-0.99124622,-0.48121759,-0.84985781,-0.21487536,0
-0.88805729,3.9456892,-2.2303588,-0.1922778,0.85430127,-0.48290634,0
2.1395876,-3.027775,-2.9711614,0.45033416,-0.63727725,-0.62536138,0
3.423018,-2.8459296,-1.4248935,0.73234612,-0.60887951,-0.3048524,0
0.50795007,-0.67826676,4.6756496,0.10689598,-0.14273842,0.98397106,0
-4.5209808,-0.39577585,1.3027893,-0.95751768,-0.083823048,0.27592328,0
0.75190037,4.4439588,1.6411564,0.15675646,0.92647809,0.34214887,0
2.2039299,0.58819002,3.846163,0.49285999,0.13153563,0.86010897,0
0.18736814,-2.4261868,-4.0596595,0.039586689,-0.51259893,-0.85771513,0
-3.2020023,0.67871767,-3.4712875,-0.67112577,0.14225627,-0.72756672,0
-2.8705854,-1.7528733,3.4253349,-0.59796405,-0.36513641,0.71352243,0
-3.908124,1.2447985,1.9237192,-0.86266261,0.27477154,0.42463356,0
-2.5312746,-3.8847518,1.397312,-0.52270585,-0.80219769,0.28854364,0
0.76168776,-3.7128341,-2.6338198,0.16503027,-0.80443728,-0.5706538,0
2.9657757,-3.2382851,0.6160897,0.66884542,-0.73030204,0.13894132,0
1.979393,3.8847353,-1.636868,0.42502773,0.83415478,-0.35147858,0
-4.3262973,-0.98622072,0.51087606,-0.96858954,-0.22079922,0.11437707,0
4.2938938,-0.86071897,-1.4356141,0.93170989,-0.18676297,-0.31150651,0
-1.6704293,-3.801044,-2.3619232,-0.34970298,-0.79574531,-0.49446663,0
2.6878815,-3.4283667,1.0630076,0.59940648,-0.76453716,0.23705423,0
1.2588509,-4.1906028,-1.6048254,0.27010411,-0.89915252,-0.34433776,0
3.9562893,0.17878437,-2.6807764,0.8272711,0.037384309,-0.56055778,0
4.3426671,0.28344229,-1.6506003,0.93302101,0.06089751,-0.3546311,0
-1.6700752,-3.2720733,-2.6202674,-0.37011105,-0.72513527,-0.58068639,0
-4.3125949,1.6855632,1.0909076,-0.90656608,0.3543283,0.22932361,0
4.1743121,-1.6295451,1.0204828,0.90828186,-0.35457009,0.22204521,0
-2.3672962,3.4339223,-2.2323537,-0.50041372,0.72588372,-0.47188872,0
0.99169606,2.6375816,3.4256444,0.22357205,0.59462726,0.77229136,0
2.9749479,2.4348781,2.2878001,0.66500288,0.54427874,0.51140177,0
3.9696794,-2.2459903,-1.2483624,0.8394745,-0.47496319,-0.26399323,0
1.9002795,-3.9508693,-0.9876461,0.4228498,-0.87914664,-0.2197708,0
3.2222252,-2.7502489,-1.9801779,0.68905556,-0.58812594,-0.42345041,0
-0.15816487,-4.4495673,0.90420753,-0.034813043,-0.97937661,0.19902153,0
-0.7776596,1.2731209,-4.4010758,-0.16734484,0.27396333,-0.94706905,0
4.3356261,-1.8839352,-0.22890061,0.91608334,-0.39806053,-0.048364881,0
-3.5324602,2.5722084,1.3184825,-0.77393079,0.56354815,0.28886786,0
0.55553609,3.9805152,-2.4264169,0.11833149,0.8478663,-0.51683688,0
-0.36488295,3.0116007,-3.3513918,-0.080717809,0.66621315,-0.74138021,0
-4.2904797,0.61737865,1.9390991,-0.90351963,0.13001198,0.40834925,0
1.3357825,-4.5347342,0.39368793,0.28158817,-0.95593965,0.082990952,0
-1.3029925,4.4979692,0.15375711,-0.27809516,0.95999283,0.032816082,0
2.0072818,-1.3838011,3.8332081,0.4418543,-0.30461016,0.84378761,0
0.68931365,-4.0875764,1.5979824,0.15515883,-0.92007983,0.35969272,0
-1.3863078,3.4132853,3.1853282,-0.28465211,0.70085359,0.65404695,0
1.1627458,4.5609288,-0.33348817,0.24641711,0.96658349,-0.070675112,0
-3.3175669,-1.5055538,-2.4980462,-0.75102723,-0.34082568,-0.56550503,0
1.0352182,-0.072418116,4.5712352,0.22084427,-0.015449038,0.97518671,0
-4.2992206,0.54310524,1.3618088,-0.94647861,0.11956527,0.29980385,0
0.30502826,-3.0909488,-3.2687144,0.067648061,-0.68549943,-0.72492361,0
-2.0560846,-1.9163557,3.5544062,-0.45374027,-0.42290467,0.78439242,0
4.2957439,1.6744517,-0.98488343,0.91116291,0.35516509,-0.20890194,0
2.8407249,2.4712191,-2.769007,0.60780281,0.52874315,-0.59245801,0
-2.3158739,2.1076248,3.3635428,-0.50394201,0.4586263,0.73191833,0
-4.4267211,-0.55463207,0.89021361,-0.97305948,-0.12191642,0.19568226,0
3.3982043,3.0845249,0.71207446,0.73170006,0.66415876,0.15332361,0
0.6289497,0.83272904,-4.4812245,0.13669464,0.18098363,-0.97394019,0
3.5329595,-2.5686913,0.74510759,0.79729933,-0.57968849,0.16815189,0
-0.91945326,-4.4737759,1.1890215,-0.19481936,-0.94793093,0.25193712,0
1.1804917,4.101357,-1.725323,0.25643826,0.89093792,-0.37479198,0
-2.212034,2.5830076,3.1905177,-0.47437069,0.55392599,0.68420649,0
-0.82167822,-2.7816455,3.7385674,-0.17365155,-0.58786649,0.7901001,0
2.5566723,3.61167,1.6782064,0.54023045,0.76315379,0.35460868,0
-2.7387989,-1.185614,3.4107993,-0.60430646,-0.26160163,0.75258106,0
0.19407463,3.7509651,-3.0567796,0.040076084,0.77456796,-0.6312198,0
1.0330015,2.3951864,4.1072712,0.21230881,0.49227339,0.84415156,0
2.3824384,2.7698176,-3.0416181,0.50115699,0.58264399,-0.63981849,0
1.1478984,3.3285599,-3.0421746,0.24669276,0.71533471,-0.65378821,0
3.613204,0.31219089,3.1443067,0.75276113,0.065040655,0.65507287,0
-0.68030322,3.6318986,3.0010631,-0.14291365,0.7629655,0.63044369,0
-2.8313038,2.6741691,2.5827103,-0.60587287,0.57224745,0.55267614,0
-1.6201822,-4.1874213,0.73836458,-0.3560653,-0.92026412,0.16226941,0
-4.2102985,-1.6562858,1.3690414,-0.89069861,-0.35039118,0.28962395,0
-0.48257488,4.5540924,0.89691818,-0.10341051,0.97589213,0.19219974,0
3.3545995,3.151448,-0.43276045,0.72563064,0.68168712,-0.093610056,0
4.3359938,-0.63317418,1.9481708,0.90417379,-0.13203421,0.40624711,0
2.7282712,-3.6820788,-0.37519124,0.59335572,-0.80079377,-0.081598148,0
-1.6673726,-1.3960416,3.9898279,-0.36694068,-0.30722857,0.87804621,0
-1.3848609,1.4101852,-4.0683904,-0.30617645,0.31177539,-0.89947331,0
-3.8351891,-1.1651564,-2.4712548,-0.81446224,-0.24743915,-0.52480954,0
1.4319528,-3.5999663,-2.7762589,0.30043119,-0.75529176,-0.58247364,0
-4.2979875,1.4568994,0.0086142328,-0.9470672,0.32102969,0.0018981575,0
2.7537539,3.4312069,-1.6623232,0.58551216,0.72955441,-0.3534486,0
-0.45790401,4.5415602,0.71827728,-0.099097252,0.98286134,0.1554459,0
1.067342,2.6101761,-3.5871308,0.23391923,0.57204753,-0.78615743,0
0.79486418,-3.9316244,2.5055735,0.16806813,-0.83131284,0.52978492,0
-2.376049,1.8146144,-3.7351649,-0.49663067,0.37928224,-0.7807067,0
-2.3657784,2.1469157,3.5330844,-0.49667001,0.4507221,0.74173343,0
-4.5011601,-0.38097009,-0.6928091,-0.98492092,-0.083361931,-0.15159696,0
1.7935462,-4.1951156,1.2368786,0.3794162,-0.88745677,0.26165581,0
4.2155418,-0.18332392,-1.4956723,0.9416489,-0.040950079,-0.33409661,0
-2.9243999,-3.6750371,0.35443804,-0.62089819,-0.78027081,0.075253025,0
1.5343701,2.5948808,-3.8113317,0.31575179,0.53399003,-0.78431851,0
-2.1016922,-0.42964932,3.9876428,-0.46415216,-0.094886713,0.88065845,0
-0.9770174,1.7090354,-4.3147178,-0.20600927,0.36035913,-0.90978098,0
-4.12186,1.5393934,-1.4471713,-0.88990051,0.33235165,-0.31244111,0
-0.83322304,2.7555344,-3.7729554,-0.17557138,0.5806284,-0.79501277,0
1.0946815,3.290782,3.2192416,0.23133969,0.69544291,0.68032426,0
-1.3082083,4.4435048,1.3000119,-0.27191758,0.92360449,0.2702139,0
-0.53174579,2.7508395,3.7994368,-0.11263983,0.58271092,0.80483556,0
4.5285592,0.95509619,0.84619415,0.96251941,0.20300025,0.17985374,0
-0.31325787,4.2104549,-1.7677096,-0.06843859,0.91987348,-0.38619798,0
0.44982702,2.2253096,-4.1509557,0.095075615,0.47034231,-0.87734759,0
1.7109455,2.1321261,3.8539877,0.36209765,0.45123461,0.81564248,0
-2.6085253,0.20332423,3.9073296,-0.554717,0.043237999,0.8309148,0
0.58411402,2.5590131,-3.7400441,0.12783702,0.56005609,-0.81853217,0
3.3465528,-1.2905086,-2.8775456,0.72776783,-0.28064421,-0.62577385,0
1.3463668,-0.84872276,-4.3038998,0.29340628,-0.18495746,-0.9379251,0
4.3848863,-0.63062781,1.3287692,0.94808525,-0.13635221,0.28730199,0
-3.634027,-2.6359193,-1.2906482,-0.77796638,-0.56429315,-0.27629977,0
1.9447037,-4.1438937,1.1324196,0.41240519,-0.87877822,0.24014749,0
2.5998383,-3.239821,1.9133484,0.56846249,-0.70839661,0.4183594,0
-2.8700194,-0.6946398,3.7485492,-0.60143995,-0.1455684,0.78554428,0
0.061530802,-0.30370721,4.7460976,0.01293696,-0.063854977,0.99787539,0
-0.62541139,4.2338281,-1.8400372,-0.13424996,0.90882778,-0.39497989,0
2.7520108,-3.6103394,1.0024029,0.59196132,-0.77658898,0.21561825,0
2.2861946,1.0678574,3.862438,0.4955323,0.23145792,0.83718282,0
-1.1777933,2.9631636,-3.0805914,-0.26564649,0.66832948,-0.69481486,0
4.0208998,1.7602196,1.782753,0.84873289,0.37154776,0.37630412,0
0.4620128,-1.3532637,-4.267334,0.10265704,-0.30068877,-0.94818127,0
-3.6813316,-0.57953042,2.9565568,-0.77387273,-0.12182624,0.62151384,0
1.5455964,3.4478409,-2.4861484,0.34172028,0.76229292,-0.54966956,0
-1.5482479,-3.8840115,1.3925421,-0.35131434,-0.88132453,0.31598297,0
-1.6854478,3.0341852,3.2652974,-0.35368332,0.63670951,0.68520731,0
-0.96041793,3.9539707,2.4766307,-0.20162444,0.83007312,0.51992911,0
4.0935473,-1.0165828,1.4144199,0.9201619,-0.22851105,0.31793824,0
-1.6183336,-4.4024601,-1.5264512,-0.32808822,-0.89252013,-0.3094607,0
0.59335446,1.1257954,-4.4977536,0.12693919,0.24084684,-0.96222615,0
-1.5733531,0.93852168,-4.1952024,-0.34369415,0.20501719,-0.9164291,0
1.2698358,-1.4748886,4.4215422,0.26285577,-0.30530164,0.91525835,0
3.7188406,-2.5459201,-1.6594553,0.77433383,-0.53010929,-0.34553036,0
-0.91806501,-3.0369334,3.3495774,-0.19899021,-0.65825409,0.72601956,0
2.7788382,-2.5147686,-2.8240287,0.59216583,-0.53589302,-0.60179585,0
2.3190262,-2.8051677,-2.8936596,0.49874282,-0.60329515,-0.62232673,0
0.76911438,3.6247892,-2.931078,0.16278929,0.76721597,-0.62038636,0
4.0496569,-0.79645121,-1.6424522,0.91166633,-0.17929858,-0.3697519,0
-1.6392587,1.1855562,4.1629844,-0.35416514,0.25614178,0.8994211,0
4.025167,1.7056192,1.7364424,0.85571498,0.36259958,0.36915234,0
3.6996911,-2.5842428,0.92042696,0.80327129,-0.56108689,0.19984171,0
0.96337748,2.2016776,-3.99735,0.20654945,0.47204268,-0.85703731,0
3.8711939,2.4085033,0.31011087,0.84712291,0.52704626,0.067860723,0
-1.5540954,-2.7576723,3.4947345,-0.32959247,-0.58484703,0.74116313,0
0.66314036,1.0827985,-4.4009471,0.14477617,0.23639552,-0.96081054,0
0.38370723,3.3373992,-3.1718245,0.083050519,0.72235477,-0.68651736,0
-2.3173013,0.98657948,3.9962296,-0.49057201,0.20885859,0.84600067,0
-1.0536652,4.0121684,2.4245446,-0.21929419,0.83503306,0.50460863,0
0.553047,2.6953044,-3.6258156,0.12150605,0.5921663,-0.79660237,0
-3.8176465,2.1513238,-1.2641186,-0.837062,0.47170198,-0.27717224,0
-2.7284775,-3.6942377,1.5973982,-0.56112939,-0.75974435,0.32851547,0
4.4218111,-0.93433535,0.31327224,0.97605455,-0.20624179,0.069150575,0
-1.0899832,-0.41835579,4.6413331,-0.22774775,-0.087413818,0.96978849,0
-1.7547896,2.1486647,-3.6644719,-0.38179728,0.46749443,-0.79729527,0
-3.4876115,-3.0321989,-0.21906289,-0.75381339,-0.65538037,-0.047348317,0
-0.47703239,3.7316976,2.8356428,-0.10125818,0.79211581,0.60191303,0
-2.9616053,2.0001483,-2.8542774,-0.64753145,0.43731651,-0.62406504,0
-1.7317129,-2.142138,3.8023775,-0.36881989,-0.45623216,0.80982965,0
-1.1731681,-2.5538657,3.9853454,-0.24056935,-0.52369463,0.81723326,0
-1.3281293,-4.4091597,-1.0983651,-0.2805495,-0.93137586,-0.23201489,0
-0.3141357,1.993337,4.2436213,-0.066851921,0.4242065,0.90309453,0
-3.1763225,3.5938213,-0.35907066,-0.66039509,0.74719805,-0.074655049,0
2.9878824,1.2092984,-3.5214067,0.62587833,0.25331441,-0.73763686,0
4.2415915,0.84583485,-2.1416926,0.87884557,0.17525455,-0.44375259,0
0.3700684,4.6012859,-1.0759408,0.078075536,0.97076064,-0.22699764,0
0.14769773,0.95459509,4.3762274,0.032956723,0.21300481,0.97649515,0
1.5463121,3.4935646,2.8189733,0.32568243,0.73581046,0.59372884,0
-4.7315345,-0.056175042,0.5171178,-0.99401146,-0.01180138,0.10863727,0
-0.55086142,2.5618832,3.9475839,-0.11626074,0.54069215,0.83314794,0
1.1812522,4.0641656,-1.8136899,0.25653785,0.88263309,-0.39388719,0
-1.9300694,-3.7890573,1.8026352,-0.41788912,-0.82038802,0.39029768,0
2.1129994,3.413058,-2.6629689,0.4386391,0.70851922,-0.55280769,0
-3.1456685,0.073018879,-3.5110593,-0.66720879,0.015487595,-0.74470967,0
3.7478421,-0.64045721,-2.8673396,0.78700507,-0.13448888,-0.60210937,0
0.46338466,-0.47705176,4.5045485,0.1017672,-0.10476874,0.98927599,0
-0.73698139,-4.3757877,0.17353962,-0.1659566,-0.98535848,0.039078392,0
0.88572454,2.1393692,4.1434193,0.18660554,0.45072496,0.87294072,0
-2.3683846,2.3912125,3.2960632,-0.50276154,0.50760746,0.69968951,0
4.6604781,0.72049397,-0.1446633,0.98779535,0.15270978,-0.030661603,0
-2.6789818,-2.7630527,2.6837616,-0.57097942,-0.58889771,0.57199818,0
-0.2139575,-4.2240553,1.6994658,-0.046939693,-0.92670673,0.37284225,0
1.3467396,-2.8581426,-3.6967483,0.27693677,-0.58773404,-0.76018071,0
-0.21850371,2.2750063,-4.1230993,-0.046350468,0.48258951,-0.87461936,0
3.5244217,-2.6964037,1.2136751,0.76608539,-0.58610344,0.26381034,0
-1.355453,3.9970331,-2.0829492,-0.28798908,0.84923774,-0.44255802,0
-2.4178839,-1.1080964,-3.6590738,-0.53450561,-0.24495952,-0.80888724,0
3.1266177,-3.321825,-1.4335041,0.65386385,-0.69468719,-0.29978609,0
1.822065,-1.1889789,3.9368289,0.4050813,-0.26433367,0.87523538,0
2.7985423,-0.90496784,3.5280855,0.6092692,-0.19702008,0.7680977,0
2.3341615,-2.6923227,2.6765981,0.52375644,-0.60412329,0.60059488,0
