3.8072581,-2.0888717,2.3475716,0.771236,-0.42314261,0.47554743,0
3.4286137,-1.7554812,-3.4596434,0.66221744,-0.33906132,-0.66821069,0
0.36106682,1.0822268,-4.774859,0.073548079,0.22044589,-0.97262245,0
1.4754803,0.83751065,4.6203609,0.29977179,0.17015617,0.93871391,0
0.72846955,-4.9155765,0.38643113,0.14615388,-0.98621917,0.077530228,0
-4.4312572,-2.149982,1.3775442,-0.86644411,-0.42038614,0.26935133,0
0.48242867,2.1666851,-4.7582259,0.091882043,0.41266093,-0.90623868,0
-4.6492114,-1.9755321,-0.24493185,-0.9192782,-0.39061755,-0.048429828,0
1.3489157,2.8529134,-4.003089,0.26462856,0.55968094,-0.78532088,0
-4.7283111,1.0362126,-0.75248522,-0.96522492,0.21152969,-0.15361033,0
-2.4783185,3.8992903,2.0594411,-0.48993719,0.77084821,0.40712959,0
-2.9447925,-3.8866026,1.7577997,-0.56812298,-0.74982136,0.33912286,0
-2.5161541,-4.1501527,-1.409568,-0.49786603,-0.82118183,-0.27890819,0
-2.6189449,-3.2106054,-2.7991621,-0.52376622,-0.64209324,-0.55980814,0
-2.1600521,-4.4571762,0.052441776,-0.43608508,-0.8998431,0.01058728,0
-3.6057444,0.74627078,-3.4578192,-0.71383625,0.14774069,-0.68455124,0
4.39291,-2.1856956,-1.7700804,0.8421765,-0.41902554,-0.33934686,0
-1.3883873,-2.1403828,-4.3251538,-0.27648664,-0.42624074,-0.86132109,0
-2.8613605,2.5566909,3.4837687,-0.55209517,0.49330962,0.67218786,0
-1.7845488,-3.8857472,2.5814273,-0.35728571,-0.77796811,0.51682931,0
-2.8577373,-3.6140292,-2.2341506,-0.55809969,-0.70579916,-0.43631679,0
-4.3229623,-2.2872486,1.0659808,-0.86362875,-0.45693982,0.21295851,0
-0.18680042,2.5520964,-4.2325797,-0.037768051,0.515993,-0.85575974,0
0.77761865,-4.507432,-2.2778511,0.15218128,-0.88211203,-0.44577929,0
-0.52751285,5.2265954,0.10647778,-0.10039779,0.99474096,0.020265164,0
3.1184809,3.516829,-0.99329269,0.6491254,0.73204327,-0.2067582,0
-2.9049826,3.529156,2.2245202,-0.57144904,0.69423229,0.43759295,0
1.7006893,-1.108126,4.6295195,0.33643895,-0.21921508,0.9158349,0
-1.7846462,2.8567519,-3.8490829,-0.34891638,0.55852389,-0.75253469,0
-1.5152169,4.7633624,-0.24614801,-0.30276442,0.95179546,-0.049184281,0
4.414125,2.3818486,-1.2635195,0.85339236,0.46048796,-0.24427898,0
1.4866079,1.8253043,4.2749372,0.30461726,0.3740187,0.87596709,0
-2.6767638,1.846846,-3.6062865,-0.55122262,0.38031867,-0.74263805,0
-0.97419339,3.6292624,3.5969026,-0.1872815,0.69769895,0.69147801,0
1.0425498,-4.7122359,-1.3311034,0.20824395,-0.94124478,-0.26588103,0
1.132255,4.7799659,1.8561921,0.21561667,0.91025466,0.35347691,0
-0.027143812,5.212563,-0.673895,-0.0051643336,0.99173301,-0.12821408,0
-1.8676591,3.0665612,3.6507962,-0.36473641,0.59887081,0.71296644,0
1.9566216,4.1573305,2.3514404,0.37908036,0.80545074,0.45557347,0
-0.074742101,-2.1444955,-4.4932327,-0.015010516,-0.43068075,-0.90237957,0
-0.5310958,-4.9723077,1.1605361,-0.103457,-0.96860123,0.22607142,0
-1.3350165,2.7978106,-4.0065799,-0.26353329,0.55229002,-0.79090202,0
-2.179009,-4.309865,-0.56387877,-0.44815299,-0.88640249,-0.11597197,0
-3.499074,-3.308322,-1.70758,-0.684852,-0.64751732,-0.33421403,0
3.0009091,-3.8765166,-1.7284395,0.57730782,-0.74575514,-0.33251312,0
1.3866774,4.9030004,0.9917931,0.26713374,0.94452888,0.19106203,0
0.86957198,-5.0553069,0.06827496,0.16950706,-0.98543912,0.013308948,0
1.1362399,-1.7118418,4.5938573,0.22578526,-0.34016463,0.91285759,0
1.8721987,3.9500434,-2.7158492,0.36379918,0.76755881,-0.52773446,0
0.34528041,2.1221819,4.5313816,0.068841226,0.42311585,0.90345663,0
1.2636151,-2.1612108,-4.2351818,0.25684336,-0.43928933,-0.86084628,0
4.9409146,0.10531592,0.33212414,0.99752289,0.021262268,0.067052655,0
-3.8119056,-0.72924501,2.8583217,-0.79085135,-0.15129556,0.59301245,0
0.48611173,4.6784472,2.1195612,0.094223425,0.90682721,0.41083625,0
2.6962943,4.1568298,1.1129835,0.53095627,0.81856596,0.21916951,0
-2.0821638,-0.44390553,4.509469,-0.41753846,-0.08901684,0.90428853,0
3.0567749,1.8050331,-3.5000417,0.61316884,0.36207771,-0.70208526,0
4.5709066,0.99659342,1.9770041,0.89998472,0.19622341,0.38926053,0
0.1359397,4.4079328,2.6259527,0.026485346,0.85880446,0.51161849,0
4.587934,0.22121532,-1.6640851,0.93910891,0.045280788,-0.34062329,0
4.9310207,0.21695024,0.15759221,0.99852467,0.043932114,0.031912196,0
-0.53226477,-3.5895641,3.4041152,-0.10697568,-0.72143805,0.68416619,0
1.5987209,-1.4170895,-4.3856888,0.32771742,-0.29048529,-0.89901036,0
0.66223717,-1.853308,4.8189545,0.12722249,-0.35603932,0.92577016,0
-0.92816699,-4.2559319,2.0566552,-0.19268242,-0.88350832,0.42695042,0
0.72050428,-2.7032919,-4.0305357,0.14685181,-0.55097979,-0.82149607,0
-2.1167345,-2.4394569,-3.7341654,-0.42873561,-0.49410167,-0.75633943,0
-3.774018,-3.1730406,0.44462842,-0.76232535,-0.64093208,0.089811839,0
3.5996716,-2.1477025,3.1570129,0.68596923,-0.40927562,0.60161424,0
-0.27188846,4.8562994,1.4023142,-0.053711448,0.95935982,0.27702656,0
-4.6811824,-1.8890769,0.43305132,-0.92394453,-0.37285501,0.08547315,0
-2.2159655,-4.1708527,-2.1923416,-0.42557412,-0.80100834,-0.42103717,0
2.2993405,2.5731204,-3.5670233,0.4632946,0.51845855,-0.71872026,0
-0.73428583,1.0862527,-5.0081162,-0.14183876,0.20982665,-0.96739578,0
0.52131104,-3.6027737,3.4014373,0.10463639,-0.72314066,0.68272889,0
4.2309217,-2.1899838,1.0051044,0.86895454,-0.44978294,0.2064302,0
-2.9783223,-2.5158515,-3.4478378,-0.57225192,-0.48339322,-0.66246414,0
2.5355115,3.8233619,1.8583994,0.51224482,0.7724269,0.37544906,0
0.075388595,0.66568446,4.9105496,0.015211463,0.13431786,0.99082154,0
1.9032477,3.1907182,-3.5402765,0.37086472,0.6217398,-0.68985432,0
2.2877049,-3.9086866,2.5250125,0.4411923,-0.75380456,0.48695794,0
-1.053509,-3.5785604,-3.599771,-0.20322141,-0.69030267,-0.69439423,0
-2.5925615,4.352387,0.26948503,-0.51103169,0.85791898,0.053119432,0
-1.1975753,-2.8021939,-4.1849561,-0.23133042,-0.5412876,-0.80838978,0
0.75699985,4.8685904,-0.92028046,0.15102848,0.97132885,-0.18360448,0
-4.4032536,2.2030361,-0.59967357,-0.88775241,0.44416031,-0.12090188,0
-0.11866558,-0.63281924,-5.0497441,-0.023310613,-0.12431073,-0.99196953,0
-3.81247,1.1238077,2.9717102,-0.76821649,0.22644836,0.59880257,0
-3.2924483,1.3687261,-3.5772486,-0.65186983,0.27099326,-0.70825726,0
4.9610066,-1.4711655,-0.37603706,0.95621133,-0.28356043,-0.072479427,0
1.4476919,-0.71257359,-4.8422914,0.28363577,-0.13960937,-0.94871491,0
5.0357928,-0.41728696,-0.89027941,0.9814676,-0.081328534,-0.17351396,0
4.0844922,-0.62498379,-2.9665749,0.80297899,-0.12286689,-0.58320528,0
-4.9137759,-0.61300719,-0.73560077,-0.98153728,-0.1224495,-0.14693783,0
3.3213871,1.5440928,3.6413915,0.64307654,0.29896241,0.70503479,0
-4.6563635,-2.0190942,0.67111307,-0.90954214,-0.39439604,0.13109063,0
2.6276388,4.2089863,1.0870742,0.51729804,0.82861477,0.21401012,0
3.5819244,-1.6525302,-3.2412894,0.70156991,-0.3236711,-0.63485175,0
1.4783598,-4.866806,-0.64605314,0.28833365,-0.94920319,-0.12600373,0
-4.1331153,2.2670145,1.4420455,-0.8384189,0.45987293,0.29252467,0
-3.1951475,2.7233598,-2.6976128,-0.64027578,0.54573423,-0.54057473,0
-4.376781,-2.4862583,0.20120065,-0.86880964,-0.49353284,0.039939184,0
2.8398721,2.5852811,-3.2659373,0.56331921,0.51281834,-0.64783382,0
-0.30094045,-4.6885867,1.3022459,-0.06172666,-0.96168792,0.26710695,0
-3.3876128,3.6590655,-0.89858657,-0.66859442,0.72216952,-0.17734906,0
3.4847968,3.4900994,-1.0256324,0.69176942,0.6928221,-0.20359901,0
3.0897937,0.93752676,3.7808728,0.62143886,0.18856131,0.76043302,0
1.1482943,1.5903677,4.5590382,0.23136486,0.3204363,0.91858089,0
-0.051327076,-2.6895423,4.3869038,-0.0099741919,-0.52264833,0.85249001,0
-0.29749498,3.1825798,3.8512797,-0.059439972,0.63588452,0.76949185,0
4.5313015,-2.2888041,-1.4057962,0.86022174,-0.43450627,-0.26687616,0
3.6998436,-2.542423,2.1841974,0.74110389,-0.50926465,0.43750963,0
-2.1292336,0.60304409,-4.5837607,-0.41831654,0.11847611,-0.90054137,0
-2.8431458,3.4331417,2.0960553,-0.57719618,0.69697309,0.42552689,0
-4.9525957,1.055555,1.2801946,-0.94820088,0.20209163,0.2451001,0
-0.15669495,0.92187613,-4.9537282,-0.031082783,0.1828679,-0.98264599,0
3.2061336,-2.6621058,2.7612362,0.64134824,-0.53252208,0.55235189,0
4.1672492,1.7974135,-2.3627932,0.81445891,0.35129154,-0.46179095,0
-2.7745984,-2.1743708,3.241689,-0.57936513,-0.45403132,0.67689854,0
0.85141671,4.7155604,1.6447496,0.16805747,0.93078411,0.32465002,0
0.29717711,4.0324483,3.2004569,0.057628971,0.78197759,0.62063676,0
-2.9715304,-3.8452322,-1.7412369,-0.57563907,-0.74489087,-0.337309,0
3.8642023,-0.76431227,2.8407478,0.79566813,-0.15737762,0.58493119,0
-0.17296524,2.6816909,-4.3364377,-0.033904277,0.52565932,-0.85001928,0
-0.40535873,4.7874351,1.685446,-0.079612941,0.94025803,0.33102363,0
0.27275386,3.2632787,3.7686701,0.054631405,0.65362042,0.75484812,0
4.3857384,-1.6773009,-2.1397102,0.84993654,-0.32505342,-0.4146663,0
0.24850515,4.4536309,2.1972663,0.049977101,0.89567387,0.44189426,0
-3.6548307,-0.66546822,-3.1178656,-0.75358582,-0.13721222,-0.64286953,0
2.3672605,-4.3921118,-1.7647241,0.44729972,-0.82990038,-0.33344901,0
-0.41102237,-4.6550722,-1.3838989,-0.084333241,-0.95512402,-0.28394726,0
3.5689681,2.6460035,-2.2700624,0.71533966,0.53034693,-0.45499587,0
-2.3111479,2.5959513,3.7131248,-0.45441133,0.51040858,0.73006403,0
0.0091655357,1.4323987,4.9599066,0.0017753693,0.2774564,0.96073657,0
-2.2642848,-1.584745,-4.0091667,-0.46499532,-0.32544449,-0.82332563,0
-1.8263701,4.3516755,-1.8162403,-0.36116964,0.86055559,-0.35916644,0
4.8682532,-0.20177384,-1.2340853,0.96855843,-0.04014371,-0.24552621,0
-3.9407747,-2.6271336,1.5585746,-0.79036009,-0.52689677,0.31258705,0
1.2682315,1.3835758,4.7263708,0.24938686,0.27206832,0.92940032,0
3.2362466,-2.2808475,-3.0948851,0.64398777,-0.45387083,-0.61585796,0
-3.2084627,-0.92918873,3.6359408,-0.64983141,-0.18819481,0.73641139,0
-1.108143,-4.719769,0.89842141,-0.22474557,-0.9572295,0.18221135,0
-0.68844479,4.4852519,-2.2144337,-0.13634533,0.88829654,-0.43856484,0
-4.9963336,-0.70026881,-0.23502526,-0.98924768,-0.13864952,-0.04653376,0
-4.3363795,-2.2720749,0.60549736,-0.87907964,-0.46059963,0.12274764,0
-0.26408207,4.8367901,0.80116475,-0.053786721,0.98512965,0.16317664,0
3.1529078,3.3272097,-2.2073574,0.61972517,0.65398532,-0.43387088,0
-3.4187713,2.6920249,-2.453469,-0.68437725,0.53889555,-0.49114087,0
-1.7078514,1.8020093,4.5765638,-0.32801515,0.34609941,0.8789888,0
3.0233893,-1.1234642,-3.917695,0.59579074,-0.22139047,-0.77202314,0
-2.8587141,-1.5748007,-3.8495626,-0.56642777,-0.31203219,-0.76275522,0
-3.114255,3.7343397,-0.45214733,-0.63771307,0.76468927,-0.09258724,0
-0.16592249,3.081109,3.9029093,-0.033349343,0.61928284,0.78445935,0
-4.6273208,0.62092447,2.1343272,-0.90139383,0.12095498,0.41576311,0
0.35429776,2.7876849,-4.0907645,0.07138826,0.56169695,-0.82425737,0
-1.8258705,4.2543273,2.1791961,-0.3568359,0.83143723,0.4258875,0
1.149982,-4.3330541,-1.9928375,0.23440132,-0.88320827,-0.40620095,0
3.315696,-0.99414235,3.6327236,0.66077989,-0.19812109,0.72395986,0
-4.3703136,-1.7746685,2.1692078,-0.84177601,-0.34182292,0.41781604,0
4.3988414,1.5641636,-1.6100065,0.89072877,0.31673011,-0.32601291,0
2.4670589,-3.5068922,2.4997106,0.4970715,-0.7065807,0.50365025,0
-3.6280746,-1.6762947,2.9868863,-0.72715265,-0.33596942,0.59864318,0
-0.91215676,2.2008615,4.4836259,-0.17965478,0.43347293,0.88307714,0
-1.319923,0.75925201,4.6221952,-0.27122334,0.15601429,0.94978809,0
-0.87446201,-0.71793014,-4.8000984,-0.17731676,-0.14557642,-0.97332746,0
2.1082475,-4.5989819,-0.57702887,0.41403261,-0.90318066,-0.11332102,0
4.1481276,-2.7162182,1.1565789,0.81473029,-0.53349018,0.2271627,0
5.0847554,-0.25058496,-0.51065999,0.99380076,-0.048976108,-0.099807024,0
-0.53453493,4.7159977,-1.5100154,-0.10732312,0.94687086,-0.30317861,0
0.90441811,2.6586108,-4.1624627,0.18012053,0.52947897,-0.82898051,0
-2.5363562,1.6439844,4.0523338,-0.50171101,0.32519293,0.80158317,0
2.3258808,1.0381182,-4.4146352,0.45634976,0.20368414,-0.8661741,0
1.7818898,2.7333345,3.8774004,0.35162461,0.53937548,0.76513678,0
-0.86929709,-4.400928,1.7627242,-0.18035737,-0.9130823,0.36572111,0
2.0908039,0.38535959,4.6113653,0.41174909,0.075890169,0.90813184,0
1.0311723,-3.9565446,2.7914815,0.20828606,-0.79918081,0.56385016,0
0.5365113,3.3283696,3.9920247,0.10267872,0.63699079,0.76400256,0
-3.1122048,3.4087334,2.3096559,-0.60297978,0.66043127,0.44748849,0
0.092315577,3.0115304,4.1820502,0.017910207,0.58426905,0.81136239,0
-2.8305104,3.406101,-2.2867014,-0.56789589,0.68337876,-0.45878944,0
-2.9182029,-3.5911109,2.0395133,-0.57708067,-0.71014965,0.40331799,0
-1.7280655,-2.4385688,-4.0430083,-0.34370232,-0.48501733,-0.80413115,0
-1.3324261,0.51397449,4.9950976,-0.2564705,0.098931789,0.96147561,0
2.2725787,2.2622316,3.947258,0.44686693,0.44483232,0.77616632,0
-2.4720345,-2.4559126,3.4293849,-0.50562322,-0.50232571,0.70143712,0
-4.8604927,1.7758174,-0.018903788,-0.93926692,0.3431682,-0.0036530665,0
0.19109367,-3.7483957,-3.2181957,0.038651131,-0.75816083,-0.65092111,0
3.6501253,3.4582009,0.20108315,0.72535425,0.68721497,0.039959319,0
-4.1206899,-2.567384,-1.0018342,-0.83123004,-0.51789552,-0.20209108,0
0.73993421,2.5966687,-4.3256459,0.14510912,0.50923485,-0.84830606,0
-4.1201906,2.5380142,-0.58302671,-0.84531349,0.52070832,-0.1196159,0
-1.9695413,-3.7861924,-2.8629386,-0.38324335,-0.73673654,-0.55708516,0
2.1177697,-4.6312671,-0.82459533,0.41051349,-0.89773571,-0.15984151,0
4.7024517,0.7759136,1.1717443,0.95812738,0.15809287,0.23874362,0
0.50134152,-4.8169417,-0.66952074,0.10254435,-0.98525685,-0.13694371,0
1.6868516,-1.9650241,4.2078943,0.34140104,-0.39770022,0.85163361,0
-0.84369338,-4.9024353,1.2219586,-0.16470701,-0.95706028,0.23855247,0
0.27573425,-4.5862465,2.0666039,0.054731872,-0.91034704,0.41021055,0
-2.0152831,4.1766047,-2.1306641,-0.39488703,0.81838977,-0.41749549,0
1.8594707,-4.1575599,-2.0615489,0.37194681,-0.83162975,-0.41236818,0
0.59041119,4.1723304,-2.7827687,0.11691716,0.82623273,-0.55106246,0
0.12855466,-0.84820157,4.8193865,0.026261657,-0.173274,0.98452348,0
-3.8054109,0.0015257286,-3.6768212,-0.71915287,0.00028833473,-0.69485182,0
-3.8810396,-0.29147738,3.2876382,-0.76177949,-0.057211857,0.64530528,0
2.3311458,-3.7342324,-2.2492807,0.47155967,-0.75538534,-0.45499945,0
4.4541941,0.65089887,-2.3197412,0.87956959,0.12853298,-0.45807922,0
-2.9338074,0.69863933,3.9754689,-0.58794236,0.14000908,0.79669398,0
3.0446298,3.2515574,-2.5882308,0.59098047,0.63114631,-0.50239074,0
-1.8880267,-4.4757409,-0.90367877,-0.38211384,-0.90583599,-0.18289369,0
1.8852655,3.694051,-2.9790604,0.36919859,0.72341985,-0.58340055,0
-3.4700167,1.5886588,-3.6188078,-0.65978217,0.30206448,-0.68807298,0
-1.9556786,-0.66232002,4.4081984,-0.40175751,-0.13606124,0.90558171,0
4.8845816,0.17777716,1.5419017,0.95304233,0.034686524,0.30084413,0
4.3043551,0.0060564922,3.0444806,0.81642079,0.0011487543,0.57745636,0
-2.474159,-4.2751017,0.92706084,-0.49230394,-0.8506524,0.18446498,0
4.4522057,0.74034774,2.1433017,0.89108306,0.1481763,0.42896938,0
4.6945739,-1.6400647,-0.30380395,0.94229168,-0.32919267,-0.060979322,0
3.4926531,3.6152129,-1.419122,0.66867483,0.69213909,-0.2716935,0
4.8632455,-1.0665529,-0.43919948,0.97300744,-0.21338917,-0.087872259,0
1.4338773,0.75049573,-4.7720399,0.28455541,0.14893717,-0.94701952,0
-3.9530454,-2.8916833,1.2665966,-0.78140116,-0.57160097,0.25036898,0
-0.68620515,3.8167949,3.3555326,-0.13381022,0.74427623,0.65432996,0
-2.4585497,-4.4703112,1.2661265,-0.46771243,-0.85042822,0.24086684,0
-0.202608,3.4160688,-3.4216459,-0.04186774,0.70591033,-0.70706278,0
4.4906816,1.3911841,1.9437898,0.88273567,0.27346578,0.38209179,0
4.7382741,-0.51440316,1.1323856,0.96723348,-0.10500616,0.23115617,0
-0.83808124,3.9558294,3.367312,-0.15926728,0.75175792,0.63991725,0
-1.7590206,1.7801487,-4.3985553,-0.34758657,0.35176155,-0.86916476,0
-3.2126722,1.7614796,3.3831961,-0.64421046,0.35321486,0.67840415,0
-0.1367835,4.8146715,1.8620112,-0.026487915,0.93235379,0.36057562,0
-0.2584078,2.4960809,-4.4303408,-0.050751079,0.49022824,-0.87011528,0
3.9611168,-3.2711833,-0.037828296,0.77104056,-0.63674343,-0.007363366,0
-1.4084511,-4.8840656,-0.64774382,-0.27486274,-0.95313758,-0.12640882,0
2.0263989,1.3772664,-4.37218,0.40431774,0.27479941,-0.87236029,0
0.30580795,2.6948442,4.3201528,0.05995148,0.52830511,0.84693533,0
3.2516549,-2.0953503,-3.201757,0.64755249,-0.4172796,-0.6376155,0
1.3468044,4.0779228,-2.6713903,0.26629141,0.80629063,-0.52818972,0
-4.5339036,0.88537461,-2.0583913,-0.89649171,0.1750657,-0.40700704,0
-3.8944616,1.8841856,-2.4268413,-0.78509486,0.37983796,-0.48923334,0
3.4816329,-2.1258755,3.0944333,0.67997754,-0.4151924,0.60435581,0
-0.2018532,-4.7207217,1.4779629,-0.040771909,-0.95352882,0.29853067,0
-3.8463645,-1.0500929,-2.9129262,-0.77895546,-0.21266201,-0.58991802,0
4.1508231,1.5941249,-2.0262244,0.84947783,0.32624224,-0.41467261,0
-0.52570724,-4.3706536,-2.5800502,-0.10302908,-0.85656881,-0.50564301,0
-3.2949259,-3.3010886,-1.9294326,-0.65279424,-0.65401524,-0.38226128,0
3.0657082,-2.0354996,3.2244389,0.62658405,-0.4160251,0.65902621,0
4.7053585,1.7054683,0.86938977,0.92627937,0.33573213,0.17114483,0
0.073686212,-3.2612672,3.7668226,0.014787533,-0.65447927,0.75593537,0
-2.0511835,-4.5928097,0.56819564,-0.40521002,-0.90730667,0.11224669,0
1.6530162,2.278862,4.1521916,0.32950866,0.45426342,0.82768887,0
-2.4541688,-4.4247136,-0.88084,-0.47785091,-0.86153549,-0.17150825,0
4.5293851,-0.75174934,-2.0576727,0.90023273,-0.14941308,-0.40897036,0
-0.50199217,-5.0346818,-0.40660241,-0.098896056,-0.99186844,-0.080103591,0
4.516603,-1.3012015,1.5484098,0.91267043,-0.26293391,0.31288734,0
2.3695321,-0.27758604,-4.4597416,0.46849352,-0.054883096,-0.8817606,0
-0.54422218,-0.92947012,-4.7450671,-0.111847,-0.19102207,-0.97519273,0
2.1625519,-2.1633434,-3.8741438,0.43810409,-0.43826443,-0.7848497,0
1.7364904,-0.17725581,-4.5437174,0.35675478,-0.036416475,-0.93348795,0
-2.1398835,1.3854507,-4.1470675,-0.43958795,0.28460774,-0.85191596,0
-3.1013055,-2.6800199,2.9036334,-0.61740673,-0.53353739,0.57805425,0
0.28634214,2.2357166,4.3645115,0.058292434,0.45513859,0.88851047,0
-4.40027,0.97153503,-1.8142779,-0.90582234,0.1999964,-0.37348014,0
0.192494,3.6264939,-3.6834135,0.037213992,0.70109361,-0.71209759,0
-4.7350092,-0.13755697,1.4505553,-0.95577121,-0.027766155,0.29279754,0
1.9105878,3.4718494,3.3800237,0.36681995,0.66657162,0.6489417,0
-2.0494745,4.4690714,-0.26464221,-0.41624546,0.90766227,-0.05374847,0
-1.1032559,-4.7164721,-0.49495408,-0.22658728,-0.96867162,-0.10165393,0
-3.8927059,-2.813035,1.5381737,-0.77189595,-0.55780488,0.30500892,0
-5.0347733,0.9797278,-1.2175587,-0.9550494,0.1858452,-0.23095949,0
0.57665998,0.82430106,5.1244001,0.11042449,0.15784523,0.98127025,0
4.643889,-0.83293629,1.5232444,0.93668377,-0.16800529,0.30724213,0
-4.5963998,1.3355454,1.0014755,-0.93993104,0.27310953,0.2047946,0
-2.4410818,-4.3071847,0.75770867,-0.48739001,-0.85997891,0.15128523,0
4.6117458,1.8368623,0.51298821,0.92409885,0.36806938,0.10279227,0
4.8928466,0.67216116,-0.655734,0.982077,0.1349141,-0.13161689,0
1.3527048,4.9328337,0.91584808,0.26032123,0.94929904,0.17625037,0
2.3380976,4.1082826,-2.1119349,0.45160121,0.79351068,-0.40791813,0
4.5587249,-1.3333228,1.0566413,0.93688709,-0.27401805,0.21715583,0
-4.6915026,-1.2489984,-1.1921545,-0.93846142,-0.24984252,-0.23847179,0
-1.1571289,-5.0117264,0.81981379,-0.22216177,-0.96222121,0.1573993,0
-1.6427934,0.37831977,-4.8916192,-0.31751198,0.073120005,-0.94543093,0
3.3200624,0.92835575,-3.6679943,0.65955782,0.18442553,-0.72867733,0
-0.53530186,3.9952514,2.9446428,-0.10723315,0.80033982,0.58987898,0
0.37987256,0.99313676,-4.8079257,0.077145562,0.20168893,-0.97640675,0
-4.0770421,-0.56024241,2.5473437,-0.84237301,-0.11575379,0.52631629,0
-3.7287967,-2.8080113,1.9888182,-0.73490059,-0.55342495,0.39197192,0
-4.4537563,-2.05424,0.59648651,-0.90142155,-0.41576955,0.12072636,0
-4.7559247,-1.4454776,1.0741591,-0.93519801,-0.28423658,0.21122107,0
1.9490253,4.6646395,-0.13444015,0.38539341,0.92236942,-0.026583724,0
0.40760973,2.9695199,-3.9413486,0.082318656,0.59970814,-0.79597342,0
2.0706811,-4.3771811,-1.2287451,0.41449076,-0.87618566,-0.2459594,0
1.8739558,-4.5505319,-1.2732227,0.36864796,-0.89518881,-0.25047067,0
-2.99963,-1.9835505,3.4596114,-0.60111541,-0.39749664,0.69329411,0
1.695985,-4.6490016,-0.0040425621,0.34271348,-0.93943959,-0.00081689429,0
-1.8625678,0.52275407,4.63166,-0.3710714,0.10414605,0.92274576,0
-1.8096461,-4.7963119,0.63856506,-0.35030168,-0.92844456,0.12361003,0
-1.1921306,4.5290365,1.9260789,-0.23541728,0.8943764,0.38035452,0
0.70479375,0.25672689,5.1455202,0.13553971,0.049371451,0.98954105,0
4.7957187,1.6576822,-0.34975797,0.94289333,0.32591933,-0.06876643,0
-2.8827059,1.5387269,3.6192243,-0.59118956,0.31556436,0.74223584,0
-4.0802965,-1.9576579,-2.3542068,-0.79985011,-0.38375467,-0.46148914,0
2.2850995,-3.9427257,2.3651886,0.44506675,-0.76792109,0.46066561,0
3.5770428,-0.46196046,-3.6213849,0.69986135,-0.090384237,-0.70853704,0
1.6720531,1.4171323,-4.7189679,0.32135451,0.27236089,-0.90694588,0
1.9616864,-2.9325616,3.8647156,0.37486932,-0.56039912,0.7385295,0
0.82471424,3.8797326,3.3853405,0.15815206,0.74400038,0.64919281,0
-3.0829682,3.9167535,1.257099,-0.59972721,0.76192278,0.24454242,0
-1.3979073,4.1756096,-2.1281307,-0.28583056,0.85378826,-0.4351396,0
4.7496481,0.66237903,1.901016,0.92071372,0.1284014,0.36850971,0
2.7495642,2.9534724,-3.1666389,0.53604054,0.57579339,-0.61735123,0
3.9044995,3.045965,-1.0956739,0.76983947,0.60056454,-0.21603103,0
-2.9326856,3.6531916,-2.048296,-0.57358313,0.71450174,-0.40061164,0
1.3769572,4.6621127,1.4046512,0.27212194,0.92135262,0.27759495,0
4.8471518,-0.75974208,-1.3562967,0.95222425,-0.14925154,-0.26644483,0
4.3385463,-1.4831117,2.0926135,0.86082208,-0.29426801,0.4152008,0
-1.4422463,-0.30000904,-4.8304677,-0.28558773,-0.059406567,-0.95650953,0
-1.7591996,-3.8501534,2.9313967,-0.3416627,-0.74775702,0.5693208,0
3.1346462,3.4112694,-2.0302799,0.61972284,0.67441154,-0.40138847,0
-4.2500911,2.4882991,-1.2664438,-0.8357842,0.48932624,-0.24904731,0
0.3873924,4.161952,-2.8369017,0.076685168,0.82386744,-0.56157082,0
-0.035728678,2.5947027,-4.3353519,-0.0070713079,0.51353544,-0.85803926,0
1.8146173,-4.5874228,1.1221986,0.35866895,-0.90672904,0.22180864,0
-4.7093916,-1.965589,0.31848928,-0.92105222,-0.38442546,0.062289417,0
3.3387725,-2.3550658,-2.9686038,0.66109324,-0.46631452,-0.58779806,0
0.94473249,-4.7140183,2.053952,0.18070225,-0.90166658,0.39286649,0
-2.527791,-4.0830774,1.0391132,-0.51447409,-0.83101708,0.21148773,0
-0.26893812,2.419776,-4.4944696,-0.052613851,0.47339416,-0.87927794,0
1.3389529,3.9209299,3.1672902,0.25674093,0.75182873,0.60732013,0
0.53501546,4.9635205,-0.46023884,0.10671621,0.99004257,-0.09180098,0
2.58283,3.0241344,3.2293665,0.50416279,0.59030449,0.63036531,0
-4.5135317,1.8207674,-1.6055926,-0.88069803,0.3552753,-0.31328955,0
-0.88558036,3.9558027,2.9831655,-0.17595194,0.78596044,0.59271157,0
1.341188,-2.6349409,-4.1636996,0.26263449,-0.51598012,-0.81534511,0
-2.3852811,-3.4169242,-2.5220821,-0.48969853,-0.70149499,-0.51778382,0
0.064425536,1.5022533,5.0084186,0.012320199,0.28727832,0.95776796,0
-4.092948,-2.66765,-0.93839443,-0.82272738,-0.53622687,-0.18862757,0
-1.3446261,-2.5210161,-4.3236418,-0.25945938,-0.48645589,-0.83429098,0
0.035781369,-3.7366166,-3.7088716,0.0067961928,-0.70972043,-0.70445061,0
2.949286,0.64741349,4.0678515,0.58216691,0.12779456,0.80296338,0
0.0085735917,-0.50253618,5.1111732,0.0016693698,-0.097849153,0.99519992,0
3.0011027,-2.2468426,-3.2899828,0.6016795,-0.45046082,-0.65959597,0
-1.7134455,-4.4248433,1.2863775,-0.34852415,-0.90003723,0.26165619,0
-0.18396862,2.5039577,-4.2801104,-0.037074331,0.50461084,-0.8625505,0
-3.3732791,-3.7422814,-0.57209736,-0.6652624,-0.73803532,-0.11282638,0
-4.1113486,-0.56989115,2.9982626,-0.80294967,-0.11130019,0.58556306,0
1.3097157,-4.7325625,1.0856628,0.26043096,-0.94104838,0.21587908,0
3.7147295,-3.2011373,-0.95242435,0.74363625,-0.64082235,-0.19066186,0
-4.4487653,-1.6997887,-1.7328532,-0.87783271,-0.3354032,-0.3419275,0
0.44871265,-2.0014641,-4.7304688,0.087026954,-0.38818011,-0.91746533,0
4.2012515,0.15660541,-2.9505374,0.81796634,0.030490426,-0.57445747,0
3.8865547,-3.4246094,0.22878382,0.74955744,-0.66046709,0.044123042,0
2.9368424,2.0466363,3.294172,0.60370439,0.42071149,0.67715794,0
1.802032,-3.8347604,2.7060158,0.35843873,-0.76276487,0.53824842,0
-5.0698633,-1.0264835,-0.40834421,-0.97707307,-0.19782574,-0.078696825,0
1.068476,4.336894,-2.1469536,0.21560222,0.87511939,-0.43322262,0
-4.0216236,-0.012133172,3.0142131,-0.80018908,-0.0024141571,0.59974295,0
1.9501376,1.4738209,4.3619604,0.39001283,0.29475307,0.87235922,0
1.9048424,-3.6466327,-3.0493906,0.37196335,-0.71208715,-0.59546214,0
4.6213727,-0.39953825,1.929624,0.91986668,-0.079526573,0.38408431,0
2.7996757,-4.1437287,0.9812029,0.54936349,-0.81309891,0.19253553,0
1.9699938,4.1635833,-2.0645247,0.39028099,0.82485914,-0.40900877,0
-0.18642379,4.7048097,-1.3001305,-0.038164817,0.96317208,-0.26616368,0
-1.9387605,-3.7259386,2.7921605,-0.38440263,-0.73875064,0.5536083,0
1.6456902,-3.1532321,3.2952754,0.33940771,-0.65032363,0.67961872,0
-2.3388481,-2.6313081,-3.3806074,-0.47919068,-0.53911078,-0.69262964,0
1.8175358,-1.3286479,4.5477438,0.35816926,-0.2618275,0.89619255,0
0.90120846,-3.5839782,3.4018667,0.17941906,-0.71352416,0.67726809,0
-0.37907997,-0.52477324,5.0617533,-0.074285954,-0.10283656,0.99192047,0
-2.4363711,-1.1557842,-4.4455295,-0.46858078,-0.22228892,-0.85499686,0
4.4138827,0.30790144,2.5481741,0.86446482,0.060302909,0.49906331,0
-3.1446984,-4.0328588,-0.68496829,-0.60947585,-0.78161079,-0.13275412,0
-2.0250781,1.2706074,-4.4027581,-0.40421072,0.25361645,-0.8788017,0
4.7182565,0.74550134,1.758665,0.92692083,0.14645679,0.34549692,0
0.89120597,-1.2291673,4.8064446,0.17680775,-0.24385643,0.95355809,0
0.41098806,-4.5080886,-1.9621406,0.083301559,-0.91372681,-0.39769858,0
2.4035261,-3.748759,2.4790511,0.47158951,-0.73553413,0.48640808,0
2.6097527,2.6636069,3.4976952,0.51044726,0.52098072,0.68412185,0
-2.0779278,-3.5079744,-3.4115322,-0.3908655,-0.65986228,-0.64172113,0
1.2657807,-4.0971198,2.6424804,0.25129691,-0.81340599,0.52461469,0
-2.9279969,-3.975929,-0.029717421,-0.59297365,-0.80519933,-0.0060183289,0
-0.7277227,-4.8812084,0.11600362,-0.14741613,-0.9887954,0.023499068,0
-1.0657792,1.809152,4.6045542,-0.21059856,0.35748944,0.9098624,0
-0.081527978,5.0382447,1.2212167,-0.015724488,0.97173774,0.23553884,0
-3.2581201,0.59074956,-3.8401487,-0.64255011,0.11650467,-0.75733489,0
-1.0128003,-0.8768028,-4.9809475,-0.19635738,-0.16999076,-0.96568471,0
-3.5509632,-3.5714929,-0.64936322,-0.69927716,-0.70332003,-0.12787654,0
3.2657619,-0.097737372,3.9826398,0.63396513,-0.018973241,0.77312887,0
1.9147657,3.7090399,2.5939965,0.38961706,0.75471646,0.52782714,0
-4.6814342,-1.3906581,-0.89763165,-0.94280535,-0.28006801,-0.18077621,0
4.0106263,-2.5662358,1.8932055,0.7827208,-0.50083101,0.36948127,0
-2.6470461,2.4359066,3.4615722,-0.53022665,0.48793358,0.69338346,0
-0.25048485,1.0288092,4.9877419,-0.049125291,0.20177089,0.97820002,0
2.0785904,2.450048,-3.6901,0.42482087,0.5007391,-0.75418007,0
3.3566763,0.35226187,3.7296381,0.66732252,0.070031263,0.74146903,0
2.0168366,-0.6307106,-4.7303543,0.38928342,-0.12173776,-0.91303802,0
0.56825382,-3.0823338,4.0580606,0.11082412,-0.60113436,0.79142624,0
1.5517167,0.2144818,-4.9270468,0.3001346,0.041485287,-0.95299435,0
2.8930206,3.4435391,2.312993,0.57203525,0.68088889,0.45734671,0
2.4994235,1.7924199,4.0405698,0.49220622,0.35297748,0.79570091,0
-0.29876992,-1.7186984,4.7365274,-0.05919094,-0.34050071,0.93837929,0
0.043664407,3.8732111,-3.3291202,0.0085490504,0.75833571,-0.65180814,0
1.6362027,-3.8650441,-2.4950278,0.33510113,-0.7915771,-0.51099205,0
2.03531,-3.9657855,-2.5763655,0.39531687,-0.77027178,-0.50040573,0
-3.5858617,2.4251153,2.0913434,-0.74586886,0.50443053,0.43500507,0
0.20013182,-1.8321962,4.6208978,0.040228259,-0.36828756,0.92884111,0
2.7062056,4.2882638,-0.085272908,0.53361136,0.84556264,-0.016814167,0
-1.925543,3.2362561,-3.2574077,-0.38672245,0.64996362,-0.6542117,0
-0.38826716,-4.1172962,-2.8672955,-0.077154674,-0.81817025,-0.56977588,0
-2.9417331,3.9400821,0.9771837,-0.58678865,0.78592974,0.19491923,0
5.0921178,-0.25400671,-0.60956818,0.99169552,-0.049468085,-0.11871406,0
3.453963,-3.7407243,-0.48900783,0.67527729,-0.73134142,-0.095604926,0
4.6575284,-1.4699584,1.6068861,0.90586251,-0.28589848,0.31253013,0
0.97877216,0.51011044,4.902926,0.19475637,0.10150193,0.97558564,0
-4.4174557,1.8546844,-2.0651317,-0.84671998,0.35549837,-0.39583606,0
1.4083637,-0.31403619,-4.9330621,0.27401313,-0.061099302,-0.9597832,0
1.3231256,3.0934746,-3.8607728,0.25836673,0.6040628,-0.75389314,0
4.5064907,-0.56307262,-2.6091373,0.86040115,-0.10750457,-0.49814919,0
2.887007,-1.1908932,-3.747884,0.59178287,-0.244111,-0.76824665,0
4.0372543,1.5262421,-2.4472301,0.81369519,0.30760902,-0.49323109,0
-1.527869,-1.5884417,-4.495203,-0.30518109,-0.31728008,-0.8978852,0
-1.1240546,2.2939234,4.3246598,-0.22379155,0.45670441,0.86101013,0
-1.5481367,4.8133073,0.6976862,-0.30331481,0.94303519,0.13669242,0
-0.98885316,0.66064411,-4.8328028,-0.19868563,0.13274013,-0.97103244,0
-2.2829955,4.5716362,-0.77988243,-0.44165757,0.88440728,-0.15087239,0
-2.0461714,-4.6996117,-0.90137613,-0.39316279,-0.90300959,-0.17319544,0
2.4959438,2.751302,-3.4513152,0.49223843,0.54259902,-0.68065232,0
-1.9433266,-1.8715043,4.3325419,-0.38075203,-0.36668003,0.84886611,0
-2.1443183,0.69538951,-4.7120657,-0.41051161,0.13312644,-0.90208519,0
4.2477355,2.9079261,-1.031117,0.80909252,0.55389071,-0.19640325,0
3.9904723,0.1813169,3.3103676,0.76917452,0.034949329,0.63808244,0
-3.5269129,3.979219,0.34840596,-0.66187537,0.74675703,0.06538333,0
-1.8464241,-1.1843303,4.3695917,-0.37764591,-0.24222903,0.89370501,0
1.4786671,-3.6036115,-3.3145223,0.28911042,-0.70458162,-0.64805859,0
-1.9927897,4.2429719,1.9518203,-0.39245465,0.83559948,0.38438624,0
-1.1182636,-5.0364056,-0.57601273,-0.21541873,-0.97019708,-0.11096126,0
3.8310139,-2.6613953,1.4734008,0.78313553,-0.54404217,0.30119246,0
-0.72670698,-3.9162672,-2.8659585,-0.148095,-0.79809278,-0.58405125,0
-3.791791,0.04671764,-3.2178483,-0.76241881,0.0093935579,-0.64701563,0
0.84471434,-5.0240445,-0.88771969,0.16334578,-0.97151953,-0.1716619,0
0.26504683,4.8607755,-1.965832,0.050485674,0.92587233,-0.37444836,0
-1.599412,-3.6479108,-3.2083728,-0.31271559,-0.71323627,-0.62729818,0
-4.6818142,2.1546149,-0.30233932,-0.90685916,0.41734511,-0.058562592,0
2.9250729,1.5950015,-3.6405141,0.59272969,0.32320723,-0.73770493,0
3.1555467,-0.53962392,-3.9583242,0.61984378,-0.10599829,-0.77753329,0
-2.7683313,1.8174603,-3.8331666,-0.54649955,0.358787,-0.75670999,0
0.77654928,3.1984155,3.7862806,0.15478814,0.63753426,0.75471234,0
1.0398881,4.5836563,-2.1906848,0.20053409,0.88392138,-0.42245603,0
2.8615406,1.4894462,-3.9311473,0.56270278,0.2928896,-0.7730338,0
4.7487369,-0.81177098,1.2181243,0.95562726,-0.16335933,0.24513313,0
1.3597844,0.98788917,4.9765511,0.25887275,0.18807216,0.94742477,0
-0.38333562,-3.6680164,-3.2406499,-0.07808052,-0.74712765,-0.66007859,0
-4.8790851,-1.6590352,0.21896183,-0.94591063,-0.32163799,0.042450238,0
0.59947181,4.82513,-1.1816741,0.11980431,0.96430117,-0.23615731,0
3.7482028,-1.8618981,-3.0438154,0.7242921,-0.35978791,-0.58817828,0
4.2469168,1.9861976,-1.4432334,0.86574101,0.40488967,-0.29420552,0
-2.553406,-0.9417721,4.2014804,-0.51007706,-0.1881316,0.83930206,0
1.0767179,0.74990636,4.8789697,0.21311319,0.14842787,0.96568733,0
2.3261263,-4.3901501,0.52891701,0.46556026,-0.87866223,0.10585957,0
3.7173998,-3.2802293,-0.70163465,0.74242264,-0.65511292,-0.14012738,0
-3.5182369,0.52399856,3.8018196,-0.67575485,0.10064546,0.73022318,0
-1.6525073,3.8043425,3.1725457,-0.31645358,0.72852796,0.60753947,0
-1.1666791,-2.9246173,-3.9902558,-0.22952668,-0.57537472,-0.78502321,0
-1.8325766,2.9516888,-3.8226767,-0.3547639,0.57141,-0.74002236,0
-2.7608631,-4.3448749,-0.011893763,-0.53631294,-0.84401602,-0.0023104295,0
0.062456746,3.303071,-4.0780258,0.011900416,0.62936223,-0.77702093,0
2.5226145,3.967479,-1.598322,0.50799823,0.7989617,-0.32186639,0
0.53113848,-2.906203,4.0211563,0.10644545,-0.58243203,0.80587977,0
4.9137001,-0.96751577,0.78131199,0.96943408,-0.19088319,0.15414666,0
1.0810711,2.4434566,4.2793508,0.2142856,0.4843322,0.84823579,0
3.3856997,3.5060015,1.3420465,0.66973215,0.69352931,0.26547295,0
0.40020877,3.2339511,3.9819603,0.077780686,0.6285193,0.77389508,0
-5.1018782,-0.32034492,0.73973566,-0.98774618,-0.062020194,0.1432161,0
-4.9443674,0.71452695,0.62230247,-0.98212826,0.14193061,0.12361153,0
-0.87465,-2.0255737,-4.5126271,-0.17412473,-0.40324986,-0.89837074,0
-0.78751165,0.97583437,-4.746419,-0.16041322,0.19877388,-0.96682805,0
3.3436682,3.6299524,1.0253351,0.66334289,0.72013819,0.20341395,0
2.7974904,2.8894336,2.9717176,0.55943221,0.57781875,0.59427357,0
-2.2960947,-1.3882684,4.1915917,-0.46135738,-0.27894664,0.84222215,0
-4.0694942,2.238342,-2.1590288,-0.7945509,0.43702644,-0.42154089,0
-1.0404031,0.77653068,-4.8302937,-0.2080092,0.15525281,-0.96572709,0
3.4481719,2.3848453,2.9449432,0.67301339,0.46547356,0.57479334,0
-0.98502803,4.8081722,-0.70518488,-0.19865701,0.96969533,-0.14221922,0
-1.4424572,3.7402265,-2.6961019,-0.29858112,0.77420741,-0.55807906,0
-1.327612,1.4395766,4.4888802,-0.27108252,0.29394436,0.91657573,0
-4.5816584,0.22554238,1.8402498,-0.92697924,0.045632627,0.37232661,0
1.0230914,4.7516098,1.4612293,0.20157841,0.93620366,0.28790417,0
3.9446094,2.6759789,-1.6665877,0.78117478,0.52994025,-0.33004442,0
1.9469261,3.0734794,-3.670337,0.37672755,0.59471411,-0.7102052,0
0.57556188,-4.6784863,1.8521469,0.11364458,-0.9237662,0.36570603,0
2.107666,4.3219948,-0.80945176,0.43223736,0.88634896,-0.16600129,0
0.17563818,-3.8294981,-3.0019052,0.036072608,-0.78650314,-0.61653197,0
-1.5126075,3.5078795,3.1690562,-0.30474749,0.70673817,0.63847488,0
1.8793011,3.4168952,3.3143244,0.36721009,0.66765159,0.64760959,0
-3.2056403,-3.2037916,-2.3617105,-0.62725496,-0.62689322,-0.46212131,0
1.6887494,-3.8293338,-2.4774611,0.34723032,-0.78736418,-0.50940037,0
1.8227818,1.0597954,4.5983925,0.36032283,0.20949763,0.90899843,0
-3.007669,-3.8426397,1.3052142,-0.59542584,-0.76072437,0.25839221,0
1.1662902,0.86245841,-4.8760481,0.22925839,0.16953398,-0.95848781,0
-4.062892,3.3123229,-0.66602015,-0.76888394,0.62684214,-0.12604131,0
4.739924,0.67740542,1.7168709,0.93184704,0.13317476,0.33752882,0
2.8815382,-3.974364,0.10919037,0.58683902,-0.80939823,0.022237143,0
-2.6835115,-4.3991404,-0.46452057,-0.5186612,-0.85025287,-0.089781165,0
-4.4430614,1.6248431,1.8751286,-0.87308687,0.31929094,0.36847344,0
-1.1078374,3.0806928,-3.7715299,-0.22182314,0.61684948,-0.75517631,0
1.3465486,3.8624182,-3.013911,0.26502383,0.76019001,-0.5931893,0
-1.9841272,-0.10917487,4.7125831,-0.3879489,-0.02134655,0.92143363,0
2.729825,4.0406809,0.87320071,0.55104113,0.81564987,0.17626387,0
4.2572722,2.4272876,1.8623487,0.81205982,0.46299663,0.3552365,0
-4.0341973,2.4580913,1.210799,-0.82722545,0.5040397,0.24827832,0
3.6777167,0.80558556,3.4791882,0.71741629,0.15714647,0.67868912,0
-0.26852483,1.8776919,-4.7711868,-0.052299168,0.36570817,-0.929259,0
-0.29683125,2.9252796,-4.1698475,-0.058176491,0.57333082,-0.81725591,0
2.4981177,-3.0613909,-2.9320698,0.50771248,-0.62219101,-0.59590805,0
0.4702251,-4.8825283,-1.0452521,0.09375903,-0.97353613,-0.2084147,0
-0.87964123,0.48146787,-4.9591174,-0.1738597,0.095161371,-0.98016179,0
-3.0347815,-4.0143571,-0.54516393,-0.59954184,-0.7930637,-0.10770086,0
-4.5073609,-2.7135024,0.024587009,-0.85672069,-0.51575941,0.0046732887,0
0.56921649,0.093984693,5.0130424,0.11280257,0.018625101,0.99344283,0
4.5374866,-2.5389001,-0.039239433,0.87265265,-0.4882831,-0.0075465557,0
3.4534531,-1.2677883,-3.4750156,0.68242389,-0.25052288,-0.68668479,0
0.30002779,1.1052448,4.8160801,0.060607087,0.22326487,0.97287184,0
0.32296374,-5.1937861,-0.61119664,0.061639152,-0.99125856,-0.11664975,0
-4.9960246,0.58017647,-0.89762336,-0.97787362,0.11355814,-0.17569213,0
2.506459,-1.8189435,3.9425581,0.49994716,-0.36281291,0.78639656,0
3.3673172,-1.6235713,-3.5016673,0.65740228,-0.31697029,-0.68363148,0
3.9235792,-0.99425399,-3.2474144,0.75609195,-0.19159736,-0.62579179,0
-4.0843649,2.7323771,1.0114059,-0.81409568,0.54461747,0.20159346,0
2.6969051,-1.9540375,3.5854557,0.55111176,-0.39930698,0.73268676,0
4.7972097,-1.016021,0.5887804,0.97132236,-0.20572039,0.11921421,0
-4.29949,-1.839008,2.3138239,-0.82406634,-0.35247543,0.44348153,0
-2.2533898,-0.46071485,4.5130277,-0.44486645,-0.090954781,0.89096636,0
-2.5862207,4.0573597,-0.56525141,-0.53383499,0.83750027,-0.11667643,0
-4.4464493,2.6356761,-0.56152928,-0.85519683,0.50692624,-0.10800035,0
3.5712955,1.0305175,-3.6747007,0.68326485,0.19715993,-0.70304847,0
-3.4095583,-3.2747135,-1.5499622,-0.68533015,-0.65822601,-0.31154644,0
-1.4076579,1.5827844,-4.7034326,-0.27288708,0.30683693,-0.91180253,0
-3.0862677,-2.0216167,3.6120782,-0.59773809,-0.39154002,0.6995753,0
-0.83910263,-1.9178288,-4.6233835,-0.16533333,-0.37788108,-0.91097248,0
-3.7744534,1.2877805,3.1758265,-0.74036288,0.25259948,0.62294161,0
-3.2277968,-3.0639529,-1.9904591,-0.66207343,-0.62846643,-0.40827543,0
-0.24441791,3.9584539,3.2366242,-0.047746584,0.77327663,0.63226855,0
-1.0201523,2.1339314,-4.4342732,-0.20298915,0.42460808,-0.88232839,0
-4.5674481,0.8052873,2.203912,-0.88948947,0.15682599,0.42920172,0
2.2070837,0.18918668,4.3660822,0.45080388,0.038641982,0.89178622,0
-0.28426298,-5.1826525,0.16925839,-0.054737523,-0.99796867,0.0325923,0
-0.89363432,4.5920534,-2.3414271,-0.17082042,0.8777824,-0.44756958,0
1.4412332,-3.1413527,3.9771235,0.27352872,-0.59619093,0.75481021,0
-5.1399865,0.55538642,0.19674531,-0.99349385,0.10734911,0.038028359,0
4.7001171,0.28747004,-1.9821341,0.91995555,0.05626661,-0.3879638,0
-1.2784051,0.41669977,-4.6416836,-0.26454249,0.086228371,-0.96051127,0
-4.5503306,-1.8602344,1.7489583,-0.87208802,-0.35652092,0.33519447,0
1.2250967,4.7467728,0.37762278,0.24916345,0.96541137,0.076801933,0
2.5657139,-2.2763097,3.4925435,0.52413565,-0.46501485,0.71347255,0
-1.7751949,-0.17833041,4.6213884,-0.35834858,-0.035998553,0.93289357,0
3.8093064,0.92375427,-3.187851,0.75396293,0.18283552,-0.6309604,0
-0.004733236,-5.0920062,-0.48711988,-0.00092531764,-0.99545497,-0.095228851,0
2.2003205,-0.47089154,4.493248,0.43785909,-0.093706414,0.8941468,0
-2.090075,4.6156259,0.16678324,-0.41228104,0.91046256,0.032899093,0
1.8804804,0.087021068,-4.5028934,0.38530043,0.017830154,-0.92261893,0
2.5994165,-4.3205061,-0.95923758,0.5064494,-0.84177262,-0.18689013,0
1.7040536,2.123816,-4.2682858,0.33657855,0.41948852,-0.8430565,0
-2.4470754,3.0085838,-2.8264403,-0.50993443,0.62694454,-0.58898854,0
-4.1825738,-1.2873679,2.5383549,-0.82674277,-0.25446585,0.50174046,0
-2.1259215,-4.3853469,-1.3450853,-0.42050025,-0.86740714,-0.26605344,0
2.7531369,4.1136465,-1.1911474,0.54076004,0.8079859,-0.23396039,0
1.5013946,-4.4373856,2.1277034,0.29181254,-0.86245465,0.41354254,0
-2.3514843,-2.3925221,3.6099505,-0.47716615,-0.48549357,0.73253572,0
3.1630242,0.27710041,4.1988287,0.60085708,0.052638784,0.79762143,0
-1.5113518,3.7637022,3.0820069,-0.29669499,0.73885614,0.60503191,0
1.7312416,3.8152373,-2.6557841,0.34900644,0.7691257,-0.53538787,0
-2.849123,-3.9966772,-0.033894863,-0.5804624,-0.8142578,-0.0069055259,0
-1.7613292,4.6767368,-1.038663,-0.34507376,0.91625071,-0.2034914,0
1.8159626,4.4634604,-0.37494731,0.37571901,0.92348099,-0.077575848,0
1.2565345,-4.7808657,-0.1279383,0.25410774,-0.96682978,-0.025872838,0
-0.78104323,4.2745948,-2.574132,-0.15464431,0.84635746,-0.50967073,0
-0.39234275,4.8306584,-0.66747743,-0.080195762,0.98739779,-0.13643393,0
-4.8460331,0.60216212,0.52268726,-0.98673189,0.12261009,0.10642771,0
-2.6195354,4.1087441,-0.26615864,-0.53678799,0.84195256,-0.054540496,0
1.3130352,3.5272157,3.5177429,0.25487506,0.68467265,0.68283385,0
-3.1072612,3.9832981,-0.62077206,-0.61047578,0.78258854,-0.12196152,0
-1.830397,-1.6150806,-4.5903759,-0.35206202,-0.31064764,-0.88292152,0
3.305892,-3.5936153,-0.43569583,0.67435139,-0.73304254,-0.088875279,0
-2.7764044,3.9124629,2.20697,-0.52575773,0.74088907,0.41792598,0
0.68104762,-3.5984743,-3.5221539,0.13403331,-0.70819628,-0.69317609,0
0.70426565,4.5330648,-1.7006611,0.14394693,0.92652649,-0.34760314,0
2.0773602,2.4324963,-3.8106589,0.41753486,0.48891476,-0.76591581,0
1.2879554,4.9158635,-0.41200477,0.25261655,0.96418601,-0.080809653,0
-1.1490315,-1.1790614,4.7304029,-0.2294067,-0.23540224,0.94443548,0
-1.1897928,3.7585952,-2.9945805,-0.24032463,0.7591936,-0.60487127,0
-4.2011752,1.3203477,-2.4575064,-0.83305949,0.26181439,-0.48730388,0
0.58724153,-4.6228552,1.4654038,0.12021365,-0.94634026,0.29998142,0
-1.3481371,-4.6509542,0.35927421,-0.27763951,-0.95783174,0.073990032,0
1.3935287,2.4185593,-4.1224914,0.27990469,0.48579273,-0.82804513,0
-0.75055563,4.2292562,2.4864428,-0.15122725,0.85214043,0.5009861,0
-0.8179338,-4.8723555,1.0004603,-0.16226231,-0.96658146,0.19847204,0
-2.4828286,-4.3365064,0.55186647,-0.49386397,-0.86258239,0.10977276,0
4.8588624,1.3840973,-0.80350161,0.94980329,0.27056134,-0.15706731,0
-4.5388923,-1.4212054,-2.0391998,-0.8770957,-0.2746338,-0.39405504,0
-2.3504972,-2.0959024,-4.1336679,-0.45231274,-0.40332037,-0.79545325,0
-3.0332549,2.5038583,-3.1018162,-0.60554737,0.49986067,-0.61923468,0
-0.64176607,4.8441014,0.34271735,-0.13101459,0.98890853,0.069964699,0
2.6804206,-0.29458705,-4.3923411,0.52006239,-0.057156563,-0.85221374,0
2.3680356,-4.1640587,-1.447301,0.47321299,-0.83211869,-0.28921932,0
3.1230342,3.8226111,-0.7839911,0.6248526,0.76482302,-0.1568599,0
1.7716243,-3.3804073,-3.4004302,0.34658715,-0.66131729,-0.66523439,0
1.9467788,-2.6134908,4.125401,0.37030002,-0.49711642,0.78469938,0
1.3999766,2.7079935,-3.9898989,0.27881312,0.53931195,-0.79461056,0
-3.8107183,1.1061585,3.012357,-0.7649107,0.2220349,0.60465872,0
2.8246372,4.0998063,-0.1964235,0.56690866,0.82283688,-0.039422471,0
4.0050063,-2.7018316,-1.6913788,0.78243178,-0.52783906,-0.33043358,0
3.6430213,-1.5843397,-3.0451629,0.7278077,-0.31652153,-0.60836679,0
-4.191721,-1.5241991,-2.7214608,-0.80225164,-0.2917158,-0.52085918,0
0.31740439,3.9445662,-3.0266848,0.063709147,0.79175013,-0.60751373,0
-1.3660146,-3.6494274,3.1926711,-0.27116349,-0.72443694,0.6337676,0
0.013449819,0.43111613,-5.0634446,0.0026466735,0.084835619,-0.99639148,0
-3.8768592,2.2942138,-2.0888615,-0.7807495,0.46202511,-0.42066979,0
0.40131858,-0.030570993,5.1849403,0.077168666,-0.0058784289,0.99700075,0
3.5974638,3.1199098,0.71353185,0.74712896,0.64794952,0.14818782,0
1.5485817,2.1137569,4.4882874,0.29796511,0.4067114,0.86359864,0
3.8280978,0.16862439,3.1137273,0.77532434,0.034152366,0.6306392,0
-3.4505618,4.0068092,0.05449919,-0.65251601,0.75770479,0.010306031,0
-0.48924729,-4.6983485,-1.9849887,-0.095483974,-0.91695344,-0.38740045,0
2.9149351,2.6625738,2.8019803,0.60210973,0.54998195,0.57877779,0
2.2960691,3.3952103,2.858115,0.45950612,0.67947429,0.57198685,0
-2.8808873,3.5150051,-2.3609757,-0.56251687,0.6863336,-0.46099988,0
-1.5188123,-2.6187189,-4.1371851,-0.29626817,-0.51082218,-0.80702287,0
-4.4410253,-1.6415474,1.8157041,-0.87578404,-0.32371828,0.35806251,0
3.907402,-3.1287451,0.19861232,0.77997983,-0.62454748,0.03964619,0
3.4552925,3.1212468,1.4604614,0.70805508,0.63960278,0.29927629,0
-2.493681,4.2836061,0.45772713,-0.50097317,0.86056381,0.091956027,0
3.1298132,-3.8476419,-0.11866777,0.63084972,-0.7755363,-0.023918848,0
-3.2106619,-2.3475273,-2.8833005,-0.65356988,-0.47786817,-0.58693141,0
4.3211608,2.873621,-0.010680261,0.83268416,0.55374444,-0.0020580776,0
3.534348,-3.1420038,-1.9043099,0.69327337,-0.61631382,-0.37353632,0
-1.3600364,-3.5915458,3.2388859,-0.27071482,-0.71489602,0.64469922,0
-1.9824241,2.1779907,4.0727148,-0.39443392,0.4333449,0.81032956,0
3.8433571,2.9096365,-1.4736214,0.76246071,0.57722545,-0.29234296,0
-4.8611083,0.18776171,-1.597502,-0.94937652,0.036669943,-0.31199282,0
-2.664772,-3.9465034,2.2011056,-0.50796038,-0.75228471,0.41957599,0
3.6443143,3.6904483,0.23377676,0.70193267,0.71081859,0.045027826,0
3.076051,-1.5677682,3.4715655,0.6282661,-0.32020783,0.70904773,0
-4.6902738,1.756969,0.60896814,-0.92960674,0.34822917,0.12069677,0
-4.7610497,-1.1199199,-0.99116379,-0.95403928,-0.22441429,-0.19861358,0
-2.4137924,-3.7487218,2.1660054,-0.48695573,-0.7562629,0.43696746,0
4.3654432,0.27834195,-2.6857133,0.85046726,0.054226045,-0.52322555,0
-2.2610672,2.368674,-3.8470252,-0.44755936,0.46885926,-0.76148653,0
-1.6203049,3.8936214,2.9262443,-0.31565896,0.75853407,0.57007492,0
4.3368425,2.2424033,2.0110295,0.82133615,0.42467919,0.3808603,0
-2.2394009,4.5142555,0.5834806,-0.44144776,0.88988441,0.11502014,0
-0.88325167,-0.48372898,4.8403115,-0.17865266,-0.09784241,0.97903532,0
-0.68031633,-1.6951894,-4.7240705,-0.13431945,-0.33469272,-0.93270522,0
-2.2441037,1.9246286,4.0375371,-0.44844508,0.38460353,0.80683154,0
-0.55033404,-3.7530513,-3.1415045,-0.11173906,-0.76201433,-0.63784677,0
-3.4559388,3.5355766,0.8213259,-0.68955696,0.7054469,0.16387761,0
2.4053445,4.3727546,0.65006304,0.47793204,0.86884832,0.12916484,0
-4.7279539,0.89454192,-0.75404936,-0.97072107,0.1836631,-0.15481783,0
-3.7988734,-3.5729761,0.58622217,-0.72387397,-0.68082929,0.11170442,0
3.9577837,2.3748209,2.4296422,0.75877297,0.45529267,0.46580282,0
0.90451247,-4.6861167,1.2951767,0.18290599,-0.94760311,0.26190418,0
0.53487062,-4.7419505,1.962693,0.10365954,-0.91900432,0.38037583,0
4.4557643,1.0487359,-2.6761084,0.84033281,0.19778585,-0.50469941,0
-4.9278393,-0.79907185,-0.30368987,-0.98528522,-0.15976854,-0.060720555,0
-3.2958238,2.2787511,3.2427893,-0.63938338,0.44207326,0.62909478,0
4.8535714,1.448981,0.83990765,0.94530302,0.28220996,0.16358413,0
-2.1481662,2.2289274,-4.1937366,-0.41211817,0.42761192,-0.80455369,0
1.2755773,-4.8564816,-0.7994411,0.25087821,-0.9551639,-0.15723261,0
0.67406827,4.8367262,0.88005465,0.1358424,0.97472686,0.17735404,0
-0.31815594,1.3229281,-4.8700767,-0.062919192,0.26162505,-0.96311659,0
-2.7291625,-2.1296067,3.7567527,-0.53423977,-0.41687539,0.73539293,0
0.50731283,-0.33067033,5.1553302,0.097733557,-0.06370347,0.99317169,0
-3.3887827,4.0228276,0.28859755,-0.64329481,0.76365596,0.054784659,0
0.64175564,0.88386422,-4.9291549,0.12711239,0.17506678,-0.97631657,0
0.0175735,4.4053764,2.8746736,0.0033407402,0.83746654,0.54647839,0
-0.042646613,-3.2299881,-4.0974965,-0.0081734918,-0.61904752,-0.78531098,0
0.3851839,-5.1704822,-0.034355015,0.07428921,-0.99721473,-0.0066259443,0
-3.0106518,-2.7258031,2.9111991,-0.60250276,-0.54549778,0.58259994,0
3.6633022,-1.0786763,-3.2816112,0.72755206,-0.21423107,-0.65174609,0
-2.6944745,-3.4763269,-2.389123,-0.53832507,-0.69453025,-0.47731936,0
0.24640444,1.8221124,4.7051549,0.048776902,0.3606956,0.93140721,0
-3.3470693,0.90948039,-3.5015152,-0.67911804,0.18453294,-0.710455,0
-2.490592,-3.266345,3.1982458,-0.47842211,-0.62743783,0.61435652,0
-3.6223297,-3.17823,-0.63519841,-0.74523604,-0.65386969,-0.13068184,0
0.2802273,3.0121646,-3.9894259,0.055970304,0.60162508,-0.79681522,0
3.1065896,1.0734524,-3.7531364,0.62269896,0.21516769,-0.75229579,0
1.8295188,-4.7483215,-0.45430675,0.35810953,-0.92943519,-0.088925883,0
-1.184521,4.8706875,-1.6974062,-0.22382194,0.920344,-0.3207345,0
-3.7760782,1.2056652,3.3096044,-0.73124522,0.23347953,0.64091164,0
-1.4850644,-2.580812,4.3333249,-0.2824536,-0.49086064,0.82418191,0
-4.0650897,-2.1538796,2.2324505,-0.79497051,-0.42121354,0.43657887,0
3.2636042,2.320833,3.3490181,0.62515533,0.44456404,0.64151663,0
2.268641,-3.667794,2.6126955,0.44991449,-0.72739303,0.51814699,0
-1.6392407,-3.5734355,3.2984991,-0.31942028,-0.69631487,0.64274114,0
-2.9592173,3.1722698,-2.7766623,-0.57452279,0.61588627,-0.53908032,0
-3.5625792,-0.042871434,-3.6775939,-0.69576174,-0.008372671,-0.71822381,0
0.45027301,1.5539843,-4.7041368,0.090514652,0.31238458,-0.94563365,0
-0.42668507,4.919332,0.97769445,-0.084766291,0.97728646,0.19423117,0
-4.6530867,-2.0908697,-0.58970362,-0.90610874,-0.40716097,-0.11483465,0
-3.7263999,-2.7570136,2.1923718,-0.72671449,-0.53766686,0.42755166,0
-2.1112046,3.3803437,-3.3557959,-0.40521285,0.64880437,-0.6440928,0
-4.8875175,0.94190937,-0.71496361,-0.97195601,0.18731278,-0.14218122,0
3.214622,3.8671288,-0.69238508,0.63327241,0.76181459,-0.13639811,0
3.7641854,-1.2962266,3.1950696,0.7373988,-0.25392905,0.62590981,0
