0.68328995,-1.6276014,-4.925447,0.13059305,-0.31107354,-0.94137067,0
-2.2629793,-4.2351837,1.6258487,-0.44637877,-0.83540142,0.32070303,0
2.732358,-1.2345899,-4.4274735,0.51098883,-0.23088543,-0.82799894,0
5.0817795,1.4673645,-0.21282601,0.95997298,0.27719232,-0.040203873,0
-3.8373528,-2.6758845,2.2878485,-0.73686481,-0.51383471,0.43932241,0
-3.9562383,-0.3264946,3.074228,-0.78795612,-0.065027282,0.61228794,0
-1.7123897,-1.399253,-4.5992327,-0.33554909,-0.27418879,-0.90123659,0
-2.7534866,4.163918,1.7297907,-0.52117896,0.78814489,0.32741416,0
4.7457714,1.6237837,-1.0735018,0.92519784,0.31655997,-0.20928138,0
-4.8020926,1.3669465,-1.2295458,-0.93389142,0.26583818,-0.23911707,0
-2.3275886,0.93740398,4.5921493,-0.44479099,0.17913339,0.87753761,0
-3.1848929,-3.6342146,2.4623585,-0.58724022,-0.67008752,0.45401713,0
-1.0068427,4.4482069,2.7837567,-0.18843509,0.83250171,0.52099246,0
4.9207349,-0.17030202,1.9764315,0.92746842,-0.032098811,0.37252113,0
2.9950042,-0.22574623,4.4706531,0.55608404,-0.041914422,0.83006853,0
1.6429265,1.4203176,-4.5656967,0.32495251,0.28092298,-0.90304381,0
1.2336191,-4.1984038,-2.7971032,0.23753244,-0.80839956,-0.53858012,0
2.0030324,4.1955719,2.5642853,0.37725624,0.79020476,0.48296404,0
-1.6677703,-4.2282715,2.618011,-0.31795201,-0.80609864,0.49911061,0
-2.4271412,3.4571104,-2.9329009,-0.47198376,0.67227238,-0.5703342,0
-3.5958316,3.6570005,-1.4207629,-0.67567158,0.68716544,-0.26696721,0
1.1457438,-3.2850649,-3.686384,0.22603376,-0.64808166,-0.72725439,0
1.925603,-3.9968121,-2.5294645,0.37705752,-0.78262657,-0.49530125,0
4.2340651,1.0323257,-2.9097562,0.80799699,0.19700125,-0.55527586,0
2.3705308,-3.6755705,-3.1306348,0.44072795,-0.68336028,-0.58204609,0
-1.1164672,-3.9842658,-3.4720342,-0.20669687,-0.73762596,-0.64279413,0
-3.5272598,-0.91331458,-3.9299297,-0.65818024,-0.17042282,-0.73331767,0
-0.17598377,3.0883441,4.1682367,-0.033903878,0.59498006,0.80302507,0
-0.0026907821,5.1939054,0.36262459,-0.00051680719,0.99757153,0.069647782,0
1.6423128,-1.2561274,-4.795301,0.31449491,-0.24054229,-0.91827685,0
4.865911,2.2648163,-0.79784095,0.89675307,0.41738966,-0.14703646,0
-2.1939981,-4.8355389,0.95633209,-0.40664029,-0.89622909,0.17724863,0
-4.4363723,1.2395886,-1.9671108,-0.88572574,0.24748498,-0.39273542,0
-4.9105959,0.8016355,1.7392094,-0.93165898,0.15208967,0.32997015,0
1.2826421,4.8387227,-0.56761825,0.25459775,0.96046114,-0.11266925,0
-0.29700837,1.7441171,-4.8324475,-0.057714839,0.33891785,-0.939044,0
3.7547874,0.30858266,-3.7326646,0.70799142,0.058185421,-0.70381999,0
-0.012660849,4.7819514,-2.3401504,-0.0023781317,0.89821076,-0.43955866,0
1.0960602,1.9003211,-4.6027522,0.21496378,0.37269872,-0.9027105,0
-2.5956752,1.7404838,3.9609809,-0.51446247,0.34496364,0.78506589,0
0.52855092,4.7034569,2.0218809,0.10269443,0.91385484,0.39283991,0
2.0723741,-4.5894723,-2.0167646,0.3820388,-0.84606183,-0.37178731,0
1.3622104,-3.5387053,3.5593863,0.26192826,-0.68042862,0.68440521,0
-4.7124515,1.9996715,1.353559,-0.88996583,0.37764618,0.25562519,0
-3.8294861,-0.34513679,3.3829374,-0.74774754,-0.067391597,0.66055423,0
-0.65440172,-4.619051,2.0912693,-0.12800126,-0.90348834,0.40905315,0
2.2515488,0.76737058,4.5427027,0.43908548,0.14964867,0.88589454,0
2.7061238,-0.24723797,4.4130192,0.52215922,-0.047705721,0.85151267,0
-3.9159982,-3.0091774,-1.4852835,-0.7593329,-0.5834955,-0.28800437,0
0.83975935,3.1787465,-4.0619993,0.16069348,0.60827404,-0.77729028,0
0.33525291,1.9539945,4.7227683,0.065453336,0.38148949,0.92205298,0
0.8584007,4.9245939,1.7016464,0.16255935,0.93259329,0.32224873,0
4.2768083,-2.9225957,0.2097789,0.8249585,-0.56374288,0.040464494,0
3.0141444,2.4988406,3.7469451,0.5561865,0.4610998,0.69140691,0
-4.824111,-1.1871424,1.8497145,-0.91000235,-0.22393812,0.34892327,0
2.6248639,-1.9196937,4.29526,0.48722011,-0.35632834,0.79727453,0
3.3135366,4.0377274,-0.25992846,0.63359314,0.77206826,-0.049701847,0
-0.17234145,-1.9224733,4.972858,-0.032308072,-0.3603974,0.93223923,0
-3.6300802,-1.6393971,3.4653871,-0.68756932,-0.31051633,0.65637499,0
0.96200722,-3.8467176,-3.414115,0.18385291,-0.73516107,-0.65248466,0
-0.63700306,5.1520219,-1.4709513,-0.11805911,0.95485121,-0.27261913,0
2.6331708,3.8571143,-2.1929533,0.51035845,0.7475819,-0.42503595,0
-0.7821694,-2.0724702,4.5445704,-0.15471059,-0.40992793,0.8989014,0
4.5418749,-2.5877566,1.5950178,0.83104289,-0.47349095,0.29184604,0
-5.0283985,-0.62733239,1.8923653,-0.92960209,-0.11597519,0.34984237,0
-3.1510081,-3.174778,2.9181075,-0.58999556,-0.59444624,0.5463872,0
-2.2318428,4.6082411,-0.44361705,-0.43425828,0.89664328,-0.086316288,0
0.053613901,4.1291409,-3.4536955,0.0099591678,0.7670176,-0.64154875,0
-1.9763715,-0.69028831,-4.6605086,-0.38683376,-0.13510962,-0.91219795,0
-2.110992,-4.4872074,1.5064259,-0.40731314,-0.8658008,0.29066288,0
3.9860628,3.0694146,1.0509889,0.7755723,0.59721911,0.20449199,0
1.6836848,-4.8812795,-0.97536129,0.3204084,-0.92891675,-0.1856131,0
-1.5545914,5.1258812,0.35839501,-0.28958118,0.95482242,0.066759959,0
-3.5889475,-3.29738,1.5688398,-0.70096475,-0.64401811,0.30641335,0
-1.6360568,-4.8670149,0.43812388,-0.31747767,-0.9444468,0.085018173,0
-4.2728424,-2.3011482,-2.6711431,-0.77132308,-0.41539767,-0.48218825,0
4.3213773,1.6314213,-2.7227221,0.80595428,0.30426666,-0.50779861,0
-4.2177916,2.6200368,1.3601576,-0.81926847,0.50891882,0.26419851,0
-0.12344628,-4.972374,-1.701641,-0.023482576,-0.94587016,-0.32369477,0
-1.3733126,4.4138522,1.9553027,-0.27361774,0.87941247,0.38957298,0
3.247457,-3.5671492,2.2904453,0.60812658,-0.66799289,0.42891428,0
1.1363517,0.75680399,-5.2044959,0.21119435,0.14065428,-0.96727109,0
-3.3247895,-2.8662164,2.7096879,-0.64450574,-0.55561197,0.52526915,0
4.0841136,3.1364391,0.96541941,0.77952927,0.59864789,0.18426831,0
0.5021885,5.0870156,1.0941577,0.096066058,0.97311968,0.20930669,0
0.94160545,-4.9653811,0.69664252,0.18456842,-0.97328722,0.13655211,0
-2.402391,3.6803057,-3.0586669,-0.44866055,0.68731862,-0.57122391,0
-1.6321998,4.7486844,1.2699608,-0.31512889,0.91682875,0.2451914,0
1.2381164,4.7145433,1.6171247,0.24108252,0.91800255,0.31488195,0
-1.5214599,-2.0716701,-4.5196748,-0.29262027,-0.39844143,-0.86926281,0
2.2196441,4.0857029,-2.6836343,0.41345066,0.76103938,-0.4998776,0
1.5016268,-3.8328264,3.2593687,0.28599083,-0.72997713,0.62075979,0
-3.2248039,0.44354066,-4.3803749,-0.59089923,0.08127249,-0.80264115,0
3.4689951,-4.1246519,0.32595915,0.64248437,-0.76391703,0.060370125,0
4.0605226,-3.2058318,1.4580982,0.75543791,-0.59642738,0.27127114,0
3.6844389,3.4336631,1.2475671,0.71010292,0.66177082,0.24044393,0
3.5209324,-1.6715684,-3.5146782,0.67087817,-0.31850049,-0.6696865,0
1.3323262,4.2386346,2.7712665,0.25443017,0.80943888,0.52922016,0
0.89052659,-5.3067727,0.36342815,0.16511928,-0.98396885,0.067385964,0
-1.6351488,-4.7433581,1.8707346,-0.30536705,-0.88583088,0.34936312,0
-3.9326818,0.71038628,-3.5503311,-0.73568517,0.13289167,-0.66415894,0
0.48397645,-5.0748835,-0.51078886,0.094463281,-0.9905237,-0.099696569,0
-0.12532048,-3.4334769,4.0334029,-0.023652611,-0.64802414,0.7612524,0
-0.31043902,-1.4702586,-5.1252007,-0.058124337,-0.27528051,-0.95960522,0
-0.79119235,1.0642078,5.1659913,-0.14834455,0.19953355,0.96859711,0
-4.0986619,-2.7629635,1.3366919,-0.80043834,-0.53958637,0.26104602,0
-5.1481247,0.19696872,-0.97702891,-0.9817701,0.037562802,-0.18632372,0
4.4181886,-0.4090637,2.5094244,0.86672926,-0.080247246,0.49228129,0
-3.4186988,3.8785527,1.0546683,-0.6478923,0.7350412,0.19987473,0
-0.82671511,-4.46803,-2.734482,-0.15588927,-0.84251267,-0.51562679,0
4.5606055,-0.69055343,2.0877261,0.90076047,-0.13639049,0.41234463,0
3.9828427,-3.2740974,0.33782434,0.77083766,-0.63366741,0.065382376,0
-3.1969149,-2.7428536,3.2303841,-0.60223931,-0.51670259,0.60854429,0
-3.8445263,-3.1631093,0.83410311,-0.76160794,-0.62661797,0.1652374,0
2.959054,-3.9502854,-1.3513303,0.57824421,-0.77194589,-0.26407051,0
-0.69494468,3.9080701,3.4135175,-0.13274282,0.74648857,0.65202308,0
-0.7256943,1.6879209,-5.1013632,-0.13383907,0.31130156,-0.94083923,0
-3.6642594,3.3153448,-1.2264236,-0.71969485,0.65116477,-0.24088109,0
2.7245212,-1.3121336,-4.2177019,0.52497911,-0.25283074,-0.81269521,0
0.36071149,-0.098956682,-5.3058405,0.06781555,-0.018604347,-0.99752438,0
4.984262,0.8795647,-0.15960601,0.98429459,0.17369689,-0.031519078,0
-2.7814608,0.22127038,-4.4265809,-0.53156376,0.042286888,-0.84596199,0
-3.021966,4.1908917,-1.4313625,-0.56365198,0.78167802,-0.26697531,0
-1.1642268,3.5926306,-3.4366043,-0.22800525,0.70359027,-0.67303365,0
0.37583998,-4.7047205,2.3370273,0.071362577,-0.89330828,0.44374281,0
3.7871454,0.66757303,3.7092772,0.70881486,0.12494522,0.69424081,0
-4.5754848,-1.7404329,-1.7672288,-0.87913293,-0.3344065,-0.33955508,0
-2.3651075,-0.60071683,4.5848947,-0.45536882,-0.11565974,0.8827582,0
1.1195517,-3.6203356,3.878432,0.20646778,-0.6676625,0.71526062,0
3.9496441,-0.7015518,3.2178442,0.76802403,-0.13641953,0.62572265,0
1.3097763,5.0756345,-1.1325332,0.24423116,0.9464426,-0.21118103,0
-4.3218622,2.8781741,-0.65097356,-0.82585818,0.549986,-0.12439356,0
4.4192324,2.0394073,-1.8718739,0.84746271,0.3910909,-0.35896352,0
2.3245544,-4.6682324,0.4946411,0.44375449,-0.89115965,0.094426356,0
0.34618148,-4.4007893,-2.4034061,0.068874761,-0.87556183,-0.4781712,0
3.1351979,-3.386338,-2.4347236,0.60087472,-0.64900684,-0.46662569,0
-0.50909364,0.89570624,-5.0427532,-0.098912209,0.17402749,-0.97976059,0
0.37001517,5.1297464,-0.10523356,0.071929306,0.99719995,-0.020456938,0
-1.2777439,-4.7943068,2.0841212,-0.23742847,-0.89087093,0.3872683,0
-1.4425015,4.6671801,-1.6777724,-0.27927831,0.90359849,-0.32482839,0
5.1253214,1.2349094,-1.0300989,0.95413619,0.22989227,-0.19176449,0
4.4260039,2.5117908,-0.32877228,0.867899,0.49253926,-0.064469248,0
-4.5359907,-1.2855653,1.974349,-0.88743418,-0.25151166,0.3862673,0
3.7999196,2.3860466,-2.5750322,0.73452026,0.46122015,-0.49775085,0
-3.5967703,0.097494587,-3.5188572,-0.71467233,0.019372014,-0.69919115,0
-1.7045367,4.5720696,-1.4683628,-0.33451009,0.89725465,-0.2881617,0
4.659873,2.0860004,0.91669935,0.8983556,0.40215048,0.17672627,0
2.5704622,3.7008264,2.6918378,0.48972839,0.70508713,0.51285303,0
4.0183887,3.1860535,0.96137136,0.77017069,0.61064398,0.18425794,0
-5.1251035,-0.080693983,1.3607682,-0.96640068,-0.015215834,0.25658941,0
-1.8270544,-3.9792926,-3.1903977,-0.33723766,-0.73449779,-0.58888358,0
-0.89147335,-1.1736312,5.0939245,-0.16811217,-0.2213209,0.96060157,0
4.4629793,2.1559653,1.5290828,0.86042434,0.41565171,0.29479411,0
-4.0664749,3.0242124,0.83366519,-0.79178041,0.58884221,0.16232236,0
3.6090083,-3.6914077,0.70959532,0.69256943,-0.70838189,0.13617149,0
2.9076276,-4.2628617,-0.12568544,0.56331933,-0.82588035,-0.024350105,0
-3.8987973,-3.1029363,-0.32373372,-0.78079647,-0.62141258,-0.064832851,0
4.8410821,-0.35441327,-1.7185209,0.94014895,-0.068827845,-0.33374059,0
-4.233108,2.8450372,0.88331163,-0.81779253,0.54963166,0.17064664,0
-1.7535323,-1.8057863,4.7180128,-0.32791841,-0.33769014,0.88228959,0
-4.1511745,3.0850873,-1.9174252,-0.75256628,0.55929536,-0.34760994,0
-4.534349,-1.5481492,-1.8950522,-0.88002807,-0.30046535,-0.3677924,0
0.54589033,-5.0160174,-1.1506759,0.1054824,-0.96924514,-0.22234511,0
2.2282557,-3.0865459,-3.8826628,0.40979031,-0.5676353,-0.71404624,0
-0.6882568,-4.1354914,3.2257092,-0.13011204,-0.78179711,0.60980666,0
-2.4763019,-3.4488273,-3.424545,-0.45397401,-0.63226455,-0.62781292,0
1.7947758,-3.4362533,3.5010397,0.3435877,-0.65782833,0.67023087,0
0.73879075,-5.1343856,-0.4332386,0.14192976,-0.98637146,-0.083229862,0
1.7945169,3.9589753,-3.031729,0.3386173,0.74704093,-0.5720737,0
-2.3187087,4.3287244,2.1218214,-0.43344975,0.80919373,0.39664444,0
-4.43011,-2.5629427,-1.5751059,-0.8272922,-0.47861174,-0.29414007,0
-3.9148519,1.0270603,-3.396349,-0.74094832,0.19438758,-0.64281338,0
-0.019820137,-4.2064142,-3.3513281,-0.0036852302,-0.78211391,-0.6231246,0
3.8047538,-2.3123269,-3.2201347,0.69243443,-0.4208248,-0.58603847,0
-1.7694191,3.6207616,3.4920397,-0.33182061,0.67900437,0.65486503,0
-1.7516243,-4.9639421,-0.63717884,-0.33034873,-0.93617791,-0.12016916,0
2.6028121,1.8119828,3.9843073,0.51111621,0.35582045,0.7824015,0
0.7576704,-5.1639748,-0.82762682,0.14337669,-0.97719753,-0.1566148,0
2.7840188,0.27761897,-4.3583331,0.53755051,0.053603888,-0.84152603,0
-4.8668365,-1.6535316,-0.31714457,-0.94504631,-0.32108411,-0.061583392,0
4.6270776,-2.6103179,-0.26188123,0.86990833,-0.49074981,-0.049234677,0
1.3564807,4.798223,1.2398307,0.26400387,0.93384993,0.24130097,0
-0.76891017,4.7311311,2.0910001,-0.14703473,0.90470982,0.39985117,0
-1.6663029,-2.6484208,-4.0530305,-0.32542896,-0.51723659,-0.79155689,0
4.3602114,-2.3912187,1.9528195,0.81612879,-0.44757977,0.36552176,0
1.1230882,0.38763261,-5.280489,0.207499,0.071618043,-0.97561008,0
0.30845311,-3.7734523,3.4965782,0.059851348,-0.73218971,0.6784659,0
-3.6284108,-1.9389876,-3.2403364,-0.69285852,-0.37025687,-0.61875427,0
-2.6063163,4.3966236,-1.2987633,-0.49422747,0.83371776,-0.24628034,0
2.1319108,-1.5034831,4.5817475,0.40435511,-0.28516251,0.86901057,0
0.28151321,2.4336047,4.721015,0.05292793,0.45754746,0.88760859,0
4.7700405,0.87933427,2.4068313,0.88093704,0.16239655,0.4444966,0
4.4578624,2.6563313,-1.5273185,0.82409936,0.4910607,-0.28234658,0
-2.1882608,-4.8163915,0.58576363,-0.41113237,-0.90490788,0.11005379,0
3.0050721,1.2748058,4.0809598,0.57503653,0.24394087,0.78091341,0
4.7361546,1.1299107,-1.5839007,0.92499137,0.22067642,-0.30934262,0
-1.7493576,-4.8869305,0.026295934,-0.33701977,-0.94148397,0.0050660023,0
1.3646773,1.3991703,4.9276915,0.25743055,0.26393723,0.92955184,0
1.6591709,0.92203605,5.0819979,0.30584276,0.16996323,0.9367885,0
-1.7561033,-3.0786328,3.9329581,-0.33169445,-0.58149511,0.74286085,0
3.370908,-3.5642121,1.4290279,0.65971124,-0.69754225,0.27967116,0
0.97970653,4.5195498,2.361248,0.18867867,0.87040621,0.4547455,0
1.7062804,3.8009732,3.5113156,0.31315473,0.69759506,0.64443403,0
2.3069394,-4.5876684,0.38090113,0.44802326,-0.89095628,0.073973581,0
0.53739101,2.0676551,4.8412247,0.10155474,0.39074004,0.91488189,0
4.3567681,2.3606882,-1.6355512,0.83492249,0.45239767,-0.31343383,0
1.7890024,3.6226602,3.6555133,0.32834315,0.66488206,0.67091173,0
-0.11946647,2.4855082,4.4846077,-0.02329364,0.48462582,0.8744114,0
0.91547638,0.48495439,-4.9505858,0.18100204,0.095882028,-0.97879761,0
-4.6024933,-2.5017035,-0.56825143,-0.87347245,-0.4747794,-0.10784414,0
1.0487052,-5.1592994,-0.21553569,0.19902501,-0.9791404,-0.040904719,0
-2.5601983,4.3011208,1.6723189,-0.48512533,0.81500822,0.31688336,0
-1.5777255,-5.1014242,0.083066754,-0.29542807,-0.95523834,0.015554195,0
-1.8507196,0.034351215,-4.6854739,-0.36736244,0.0068186158,-0.93005288,0
5.0860009,-0.089772575,0.22398469,0.99887639,-0.017631084,0.043989968,0
0.23103806,0.2935755,5.1792488,0.044492818,0.056536142,0.99740869,0
-4.1220827,0.87977713,2.9607816,-0.80026412,0.17080057,0.5748083,0
0.14278081,0.65618837,5.1185384,0.027657818,0.1271091,0.99150306,0
-0.58497584,-3.2622399,-3.8343315,-0.11542116,-0.6436702,-0.75654918,0
4.3912125,-2.8808537,0.22636428,0.83534914,-0.54803056,0.04306173,0
-4.4554958,2.9891253,-0.20077945,-0.82984912,0.55673331,-0.03739576,0
-0.52117389,5.223597,0.15577807,-0.099236384,0.99462169,0.0296616,0
-0.34346148,-5.1094279,-0.35432023,-0.06690979,-0.99536854,-0.069025189,0
0.087739661,-5.0926871,-0.10637973,0.017222248,-0.99963367,-0.020881072,0
2.8432333,-3.9850745,2.1905742,0.53014213,-0.74304694,0.40844893,0
-4.4933305,1.0127532,-2.5132172,-0.85634726,0.19301239,-0.4789736,0
4.2648869,1.7626861,2.2160246,0.83310187,0.34432265,0.43287766,0
4.8628621,0.61671793,-2.3354464,0.89559752,0.11358148,-0.43012118,0
-4.3585448,-2.045855,2.132781,-0.8276701,-0.38849962,0.40500653,0
-4.222765,2.1901898,-2.1322062,-0.8100509,0.42014301,-0.40902004,0
4.3721747,-2.7881565,-1.1638809,0.82268149,-0.52462786,-0.21899933,0
2.6751983,-0.0095169675,4.542644,0.50744969,-0.0018052427,0.86167943,0
-1.5132937,-4.3860354,-2.1091571,-0.2969189,-0.86057109,-0.4138315,0
0.21449639,3.8888116,-3.7599247,0.039622553,0.71835542,-0.694547,0
0.30197129,-3.9505723,-3.1974761,0.059310406,-0.77593488,-0.62801868,0
-4.7107859,-0.18119442,-2.2776806,-0.89974964,-0.034607735,-0.43503195,0
-1.4234219,4.6854439,2.0446742,-0.26823518,0.88294333,0.38530636,0
0.12904242,4.6723175,2.424777,0.024506599,0.88732535,0.46049228,0
-4.5270634,-0.031731497,-2.7131684,-0.85773391,-0.0060121049,-0.51405877,0
4.3136973,0.84349495,-2.8731349,0.82147974,0.16063112,-0.54714596,0
-3.4793904,-1.5397727,3.8272555,-0.64471924,-0.28531468,0.70917743,0
-0.11670371,2.6412988,-4.3500943,-0.022925694,0.51886618,-0.85454804,0
-4.8839135,1.7325767,-1.2776279,-0.91505331,0.32461673,-0.23937723,0
2.0049005,0.18073268,-4.8223557,0.38366535,0.034585692,-0.92282432,0
-4.8495755,-1.2614405,0.90803033,-0.95228696,-0.24770278,0.17830539,0
-0.69008809,0.99558818,5.3281822,-0.12629375,0.18220364,0.97511625,0
-0.62235868,-1.4775029,5.0210624,-0.11807653,-0.28031811,0.95261723,0
-3.0411074,-2.1387341,-3.9363158,-0.56165707,-0.39499927,-0.72699165,0
-4.2087984,-0.15216579,-2.7252345,-0.83901149,-0.030333798,-0.54326743,0
5.235693,0.58534527,0.71059412,0.98488986,0.11010971,0.13367036,0
0.85650718,2.9834023,4.2428765,0.16292627,0.56750792,0.80708724,0
4.3050213,-0.19935332,-2.9085102,0.82800537,-0.03834258,-0.55940771,0
-1.6923478,-0.10362197,4.9681368,-0.32238317,-0.01973943,0.94640338,0
4.5152273,2.6820869,1.2319822,0.83703423,0.49720609,0.22838524,0
-3.4765494,-3.5707717,0.49811038,-0.69413197,-0.71294451,0.099453308,0
3.9001617,-1.7121488,2.758173,0.76858526,-0.33740455,0.54353929,0
-1.6555961,-0.74813789,-4.949728,-0.31399879,-0.14189112,-0.93876064,0
5.1416225,1.1018907,0.64520955,0.97051936,0.20799004,0.12178808,0
4.2222738,-0.49656621,2.9512858,0.81584287,-0.095948301,0.57025802,0
3.3407841,-4.0360017,0.2586436,0.6368652,-0.76939696,0.049306124,0
-2.9941516,-4.1270909,-1.3611971,-0.56735629,-0.78203493,-0.25793076,0
-0.064976238,-2.9432003,4.3887358,-0.01229525,-0.55693257,0.83046675,0
-0.045229986,-1.5370376,-4.9394522,-0.008743017,-0.29711145,-0.95480275,0
-2.4908872,1.9845169,4.3238707,-0.46383804,0.3695448,0.80516523,0
2.1526563,4.3155451,-1.5702243,0.42443383,0.85088515,-0.30959716,0
-4.5200491,-0.21677765,-2.9157667,-0.83964843,-0.040268812,-0.54163545,0
0.96220738,-4.8853879,-1.3845998,0.18617953,-0.94528401,-0.26790914,0
0.18851012,-5.1945968,0.26654631,0.036218192,-0.99803084,0.051211182,0
0.34128943,3.0322046,-4.0917163,0.066864394,0.59406036,-0.8016367,0
-0.5222398,5.0215249,1.0078286,-0.10144085,0.97539061,0.19576254,0
-2.1513205,-2.956027,-3.8379529,-0.40586504,-0.55767983,-0.72406268,0
3.0957844,0.40246445,4.225162,0.58929539,0.076610774,0.80427712,0
3.3435678,-1.693011,3.4966717,0.65231884,-0.33030075,0.68218887,0
3.7718534,-3.5405071,-1.4607098,0.70167804,-0.65864068,-0.27173591,0
4.9733067,0.44754559,-1.4074711,0.95862257,0.086266004,-0.27129507,0
4.283421,-1.1222889,2.7243931,0.82389408,-0.21586654,0.52402306,0
-0.42274731,-1.4269481,-5.0126181,-0.08084847,-0.27289721,-0.95863998,0
-0.043005068,-5.0170774,-1.1093062,-0.0083692996,-0.97638315,-0.21588422,0
4.2160735,-1.5900387,2.9160166,0.78552824,-0.29625201,0.54330486,0
-0.47959358,3.510828,-3.8750024,-0.091336131,0.66861916,-0.73797429,0
-3.2108836,3.8156917,0.47167784,-0.64100146,0.76174176,0.094162926,0
2.4285688,0.24953939,-4.4557657,0.47799376,0.049114633,-0.87698901,0
-3.0004921,1.3047282,4.1176486,-0.57051104,0.24807991,0.78292626,0
-1.3667352,4.4667954,2.5630417,-0.25651112,0.83833557,0.48103592,0
0.4915759,-0.42834955,-5.3920131,0.090508096,-0.078866974,-0.99276805,0
-0.086009644,-3.9178989,-3.6167686,-0.016128538,-0.73468482,-0.67821687,0
1.9801725,-3.4459782,-3.2866418,0.38395441,-0.66817337,-0.63727814,0
-3.8734591,2.342041,2.5133879,-0.74814069,0.4523544,0.48544925,0
3.8781419,-3.0061533,2.2100139,0.72063631,-0.55860341,0.41066477,0
1.6540588,4.057631,-2.728579,0.32043478,0.78607005,-0.52859765,0
2.5553885,1.2710488,-4.2979259,0.49530342,0.24636365,-0.83305436,0
-0.19469292,-4.7183418,2.4426475,-0.036619205,-0.88745868,0.45943019,0
-1.8423462,4.7046871,1.1056772,-0.35620707,0.90962422,0.21377635,0
-1.6882249,-4.7954264,-1.1811049,-0.32345733,-0.91878504,-0.2262951,0
-4.7169685,-1.4860221,-1.9632074,-0.88649422,-0.27927893,-0.36895984,0
-4.4513254,2.6156607,-0.83513957,-0.85110545,0.50012141,-0.15968095,0
4.9724946,-1.8085338,1.459231,0.90595084,-0.32950115,0.26586086,0
0.48919195,5.1442385,-0.045536265,0.094664365,0.99547029,-0.0088117998,0
4.1633306,-2.3208144,-2.3237171,0.78512663,-0.43766236,-0.43820977,0
3.3783312,4.007134,-0.87448436,0.63578248,0.75411958,-0.16457292,0
4.2914333,1.1443058,2.6963716,0.82594401,0.22023703,0.51895291,0
1.3694758,-4.7740397,-1.1002734,0.26921114,-0.9384793,-0.21629141,0
5.0442758,-1.1773038,1.2457769,0.94682956,-0.22098435,0.23383701,0
-1.6484669,1.8468237,4.6497016,-0.3129428,0.3505986,0.88269329,0
-4.6250753,-1.8159983,-1.6194354,-0.88500172,-0.34748873,-0.30987671,0
4.6910877,-0.46442759,-2.8157353,0.85433322,-0.084580794,-0.51279712,0
0.79144174,-4.4476752,2.6732466,0.15077284,-0.84730005,0.50926423,0
-3.3831506,-1.8494254,3.7981253,-0.62509787,-0.34171459,0.70177191,0
0.12141693,-1.1346458,5.0779452,0.023328844,-0.21800895,0.97566789,0
-0.94114101,4.9438281,-1.3317146,-0.18078603,0.9496718,-0.25581226,0
5.0637064,-1.1635866,1.5144109,0.93566412,-0.2150058,0.27983057,0
4.4733648,-2.0587869,2.2693005,0.82502228,-0.37970188,0.41852689,0
-4.1172991,-3.4535475,-0.3431482,-0.76460421,-0.64134204,-0.063724436,0
-0.84761214,5.1007943,1.5237063,-0.15723984,0.94624418,0.28266153,0
-4.2341981,0.17968172,3.1124232,-0.80526739,0.034172192,0.59192622,0
1.856503,0.29079345,4.7586303,0.36286601,0.056837536,0.93010628,0
-0.28570276,4.5811863,2.8457251,-0.052901529,0.84826535,0.52692246,0
3.6319377,1.2805316,3.8938572,0.66317701,0.23381986,0.71100247,0
-2.2172267,-0.16736396,-4.7032609,-0.42619461,-0.032170646,-0.90405929,0
1.2461704,4.1610937,3.1359746,0.23260632,0.77669692,0.58535135,0
2.6867609,0.68602061,4.3075962,0.52445501,0.13391104,0.84084165,0
2.1779158,-4.5829139,-0.047366325,0.42920402,-0.90315938,-0.0093345288,0
-4.1815801,-3.3646336,-0.68281364,-0.77287579,-0.62188071,-0.12620352,0
-0.449633,1.3227364,-4.8695226,-0.088755563,0.26110229,-0.96122217,0
2.4878693,-2.3773973,3.8712783,0.48032027,-0.458992,0.74740803,0
-2.0383959,4.1196957,-2.5745444,-0.3869155,0.78197479,-0.48868388,0
5.0544,-0.55981427,-1.0479021,0.97346908,-0.1078193,-0.20182422,0
1.0256656,-4.1763711,-2.8595707,0.19860238,-0.80868191,-0.55370635,0
0.5950681,0.96480995,-5.1770973,0.11228239,0.18204835,-0.97685772,0
-3.2783597,-3.9583867,1.4635646,-0.61346388,-0.74071407,0.2738699,0
-4.2635951,2.5168154,-1.9799455,-0.79958791,0.47199959,-0.37131587,0
-4.726459,-2.1915703,0.18993963,-0.90661597,-0.4203808,0.036433682,0
-5.321949,-0.29548407,0.5210253,-0.9937259,-0.055173427,0.097286977,0
-0.19650361,5.0280499,-1.9951808,-0.036302116,0.9288829,-0.36859009,0
0.5620144,-1.555752,-4.9288321,0.10810047,-0.29924059,-0.94803447,0
2.1135588,-4.9321041,-0.64519215,0.39107099,-0.91258538,-0.11937966,0
-0.93693268,0.17233126,5.2903194,-0.17429979,0.032059189,0.98417056,0
3.3381753,-0.79037738,-4.179697,0.6173557,-0.14617087,-0.7729851,0
-4.1113868,2.2902741,2.1214917,-0.79642177,0.4436518,0.41095674,0
-0.16074103,5.1941395,-0.252298,-0.030895416,0.99834561,-0.048493229,0
-0.76508737,-4.7189045,1.8010942,-0.14976583,-0.92372549,0.35256416,0
1.7851892,-4.9238248,0.7310437,0.33757782,-0.93109131,0.13823977,0
1.1555673,4.9948573,-0.88147062,0.22213854,0.96017802,-0.16944803,0
3.8339672,-1.6497703,3.3168662,0.71914446,-0.30945054,0.62215084,0
3.5263739,2.0695798,3.1564207,0.68268996,0.40066126,0.61106873,0
0.11001466,-5.0916748,-1.092051,0.02112161,-0.9775458,-0.20966183,0
4.4139156,1.7549282,-2.2679973,0.83856213,0.33340383,-0.43087745,0
-4.2262816,-1.4091005,2.8611684,-0.79821759,-0.26613674,0.5403887,0
3.3357236,-0.38571677,3.7665372,0.66105628,-0.076439328,0.74643266,0
3.0829189,-3.6140242,2.3407953,0.58215052,-0.68243963,0.4420146,0
4.5108442,2.9476221,0.19099818,0.83659518,0.54667515,0.035423115,0
3.4062307,2.0879784,-3.0619609,0.67669159,0.41480377,-0.60829794,0
-3.4305925,-1.8300111,-3.4136856,-0.66303366,-0.35368785,-0.65976602,0
3.6986058,-1.6291432,3.4532037,0.69576764,-0.30646822,0.64960349,0
-1.7892702,2.0862584,4.6307774,-0.33227023,0.3874214,0.8599425,0
1.1545222,-5.1292458,0.71862304,0.21756925,-0.96660435,0.13542423,0
-1.0993832,-4.0327163,-3.3062901,-0.2062847,-0.75668579,-0.62038153,0
-2.8125978,-4.1516609,1.7195396,-0.53054839,-0.78313971,0.32436171,0
-1.4884881,4.528893,2.5157781,-0.27614066,0.84018916,0.466721,0
-2.8653042,-4.3982773,-0.8241151,-0.53924328,-0.82774502,-0.15509644,0
-3.9401839,0.28615606,3.4168451,-0.75436276,0.054785635,0.65416759,0
0.26840168,0.13669589,5.390934,0.049710073,0.025317138,0.99844277,0
-0.7050786,-2.5097718,-4.7299242,-0.13055159,-0.46470666,-0.87578768,0
-4.5358815,1.0176289,2.6486993,-0.84778541,0.19020139,0.49505892,0
0.31150818,4.9791732,0.80002809,0.061652467,0.98545825,0.15833838,0
-3.6390538,2.8387301,-2.7166495,-0.67949957,0.5300597,-0.50726432,0
2.2817276,3.230561,-3.2907591,0.44347715,0.62789267,-0.63959277,0
-3.7255743,0.22261824,4.06248,-0.67533517,0.040354025,0.73640609,0
3.7441025,-3.0226963,2.1357589,0.71117884,-0.57415032,0.40567973,0
-1.4901119,0.81499314,-5.0493393,-0.27971068,0.15298334,-0.9478175,0
-4.5736189,1.6925563,-1.5697513,-0.8927325,0.33037296,-0.30640242,0
-1.4112227,-1.9647576,-4.5096035,-0.27576652,-0.38393256,-0.88121998,0
-5.3088441,-0.15147445,-0.79425341,-0.98859936,-0.028207185,-0.14790384,0
-0.2909441,3.3947437,3.791826,-0.057073236,0.66593206,0.74382597,0
1.7036864,-0.79156566,-4.7710886,0.33225724,-0.15437314,-0.93046981,0
-2.3552437,-4.7662482,-0.89094961,-0.4369204,-0.88418502,-0.16527975,0
-3.0639076,3.7795913,-1.9438003,-0.58478332,0.72138011,-0.37099749,0
-0.44276795,5.1802802,-0.34912333,-0.08496996,0.99412841,-0.066998966,0
1.6637648,0.29774734,-4.9773316,0.31651682,0.056643847,-0.94689411,0
-4.6601729,-2.7087438,-0.39741111,-0.86222005,-0.50116879,-0.073528565,0
-3.6518207,1.2189716,-3.5751638,-0.69506836,0.23201264,-0.68047792,0
1.6717716,0.60904807,4.8511009,0.32354146,0.11787035,0.93884367,0
2.1795456,4.6257563,-0.70827121,0.42220163,0.89605916,-0.13719982,0
4.0078392,-0.044411767,3.411664,0.76144314,-0.0084377229,0.64817679,0
-1.9968789,-4.3883257,1.9267913,-0.38460267,-0.84519988,0.37110367,0
-1.9120121,-0.76363128,-4.9304338,-0.35785082,-0.14292069,-0.92277646,0
0.37008038,3.1032748,4.2280059,0.070388392,0.59023535,0.80415648,0
-4.7772961,-2.2442131,0.81524205,-0.89449817,-0.42020518,0.15264545,0
-4.9591284,0.8382262,1.2017014,-0.95901936,0.16210009,0.23239061,0
1.5929476,2.5915396,4.4016571,0.29771784,0.48435214,0.82265848,0
-4.2246599,-2.7877138,-1.4568971,-0.80209464,-0.52927583,-0.27660674,0
0.42705879,-4.9563999,2.1456468,0.078825772,-0.91484368,0.39603975,0
4.0071492,1.9675069,2.9591079,0.74818802,0.3673597,0.55250478,0
1.7654635,-2.9663441,-3.7509453,0.34633145,-0.58190852,-0.73582399,0
-3.0021048,-0.40747198,-4.2588377,-0.57439995,-0.077962592,-0.81485367,0
2.3721707,-3.7245977,2.8328776,0.4521496,-0.70993006,0.53996301,0
4.3102059,-1.8459387,-2.8497424,0.78554064,-0.33642471,-0.51936924,0
2.4848092,-0.88605237,-4.3071547,0.49195996,-0.17542687,-0.85276073,0
3.3177335,3.2742212,2.5213985,0.62603951,0.61782891,0.47577512,0
-3.5724626,4.031033,-0.67006934,-0.65818214,0.74266809,-0.12345201,0
-1.1410865,-3.4866621,-3.7821219,-0.21656224,-0.66171968,-0.71779376,0
2.0882034,-1.2839149,4.6332293,0.39837977,-0.24494056,0.88391042,0
-4.897275,0.54215389,1.2582418,-0.96302336,0.10661171,0.24742661,0
4.0654359,2.9934154,-1.1897107,0.78379232,0.57711297,-0.22936928,0
5.2656035,0.63898462,0.36458939,0.99038059,0.12018336,0.068573765,0
-0.79705936,-3.9464223,-3.2416985,-0.15420106,-0.76348454,-0.62714696,0
4.4728231,1.6760749,-1.8984321,0.87020206,0.32608572,-0.36934605,0
-5.0146742,-0.9951179,0.86383599,-0.96716464,-0.19192529,0.16660535,0
-0.96235019,4.8694119,2.069464,-0.17895103,0.90547729,0.38482115,0
3.4962027,1.7399969,3.6034946,0.65795094,0.32745031,0.67814225,0
1.6478448,-4.6633391,1.5151665,0.31855956,-0.90151167,0.29291034,0
-4.2245517,2.7405896,2.0321834,-0.7779687,0.50469095,0.374235,0
-2.7068102,-0.068809859,4.4837093,-0.51677763,-0.013137011,0.8560189,0
1.8914782,4.8232055,0.25027072,0.36466649,0.92988724,0.048250806,0
0.19904292,-5.1736307,1.3040841,0.037279766,-0.96899575,0.24424857,0
-2.0800524,-3.1296878,3.5986695,-0.39977372,-0.60150743,0.69164288,0
3.9473956,-3.0790839,-0.21162565,0.78778756,-0.61449736,-0.042234443,0
-1.0112687,0.52355516,-5.1579504,-0.19144981,0.099117599,-0.97648484,0
-2.0931323,4.7671776,0.69978601,-0.39844337,0.9074679,0.1332095,0
-2.8974335,-2.5626936,-3.5588613,-0.5512374,-0.48755303,-0.67707413,0
-1.5039217,-1.1854583,-4.8358026,-0.28915113,-0.22792184,-0.92975438,0
1.3207569,-4.8934641,-1.221763,0.2533223,-0.93857062,-0.2343352,0
-1.3603524,4.5545812,2.4516733,-0.25434715,0.85157692,0.45839307,0
2.0447094,0.10606363,4.9831243,0.37953854,0.019687507,0.92496645,0
-1.4397628,-2.138283,-4.5802345,-0.27393648,-0.40684041,-0.87145829,0
2.5695076,0.79839259,-4.5369163,0.48712987,0.15136008,-0.8601132,0
2.8048947,-4.3556476,0.45141402,0.53937417,-0.83758003,0.086805776,0
0.980766,-0.66681325,-4.9588318,0.1923568,-0.13078152,-0.97257143,0
-0.62108666,0.54562306,-5.2461905,-0.11694501,0.10273589,-0.98781025,0
0.61637861,-0.77511573,5.0955057,0.11874333,-0.14932352,0.98163253,0
-2.1521697,4.6859064,1.4207563,-0.40237594,0.87609071,0.26562876,0
3.7021887,3.3595099,1.6353971,0.70384538,0.63869667,0.3109152,0
3.4654901,0.62026376,3.7875705,0.67016792,0.11994866,0.73245287,0
-1.0562465,2.9138482,-4.2354407,-0.20125327,0.55519372,-0.80700505,0
-4.6520677,2.0079632,1.3199174,-0.88847518,0.38349086,0.25208446,0
1.2660598,-4.6856732,1.3277273,0.25160033,-0.93116999,0.26385534,0
1.0566268,-2.8787117,4.0992661,0.20639989,-0.56232321,0.80074447,0
-4.5220838,0.32016414,-2.7529051,-0.85261297,0.060365111,-0.51904446,0
-3.7520113,3.7541933,0.020543177,-0.70689589,0.70730698,0.0038704274,0
-1.5702938,0.28979558,4.9797983,-0.30027318,0.055415008,0.95224214,0
-2.8372374,-3.6681814,-2.2314739,-0.5513103,-0.71277303,-0.43360299,0
2.5822806,-2.2898455,-3.9995852,0.48880672,-0.43345091,-0.75709206,0
-2.4023478,1.3027864,4.5670929,-0.45137408,0.24477887,0.8581053,0
4.1091585,1.4758641,3.0615942,0.77057195,0.27676213,0.5741269,0
4.8587923,0.74145818,-1.3684065,0.95233542,0.14532766,-0.2682111,0
-1.6449283,-1.2954699,-4.9569416,-0.30569121,-0.24074833,-0.92119116,0
3.4039958,1.8136605,3.3023012,0.67039824,0.35719046,0.65037,0
0.022443915,3.9698713,3.1923456,0.004405729,0.7792837,0.62665582,0
4.5803642,1.6384447,1.9331249,0.87501431,0.31300187,0.3692964,0
4.0290194,-1.8317279,2.7712858,0.7715618,-0.35077798,0.53070438,0
-1.0462443,4.6915159,-1.7502061,-0.20452501,0.91712075,-0.34213895,0
-0.24314252,2.3302305,4.5509577,-0.047501542,0.45524552,0.88909793,0
-2.0712581,0.80829006,4.6657324,-0.40075314,0.15639035,0.90273976,0
-0.88985157,1.3212649,4.930656,-0.17173308,0.25499183,0.95157075,0
-4.1292877,2.6542151,-1.7568769,-0.79200971,0.50908637,-0.33697423,0
-3.6530211,-3.1864259,2.0178437,-0.69572437,-0.60686052,0.38430193,0
3.1973233,-2.0904717,-3.8266714,0.5913232,-0.38661849,-0.70771682,0
4.7709956,0.49763367,-2.2563713,0.90000767,0.09387435,-0.4256452,0
-3.8096063,2.7828987,-2.1133809,-0.73693526,0.53832757,-0.40881518,0
-4.1904454,0.37279326,2.9532208,-0.81525064,0.072526887,0.57454878,0
2.211457,-4.3280001,-1.9962119,0.42089036,-0.82371646,-0.37992436,0
-0.44287825,2.4603078,4.4352498,-0.086988337,0.48324361,0.87115365,0
4.4932742,-2.7590878,-0.7803008,0.84298539,-0.51763386,-0.14639263,0
2.849194,1.1938084,4.2119179,0.54547304,0.22855246,0.80636406,0
-4.766582,-1.954812,1.4817786,-0.8891691,-0.36465511,0.27641436,0
0.61221832,3.6520889,3.9500639,0.11307254,0.6745159,0.72954983,0
-4.2839508,2.2367077,-2.1793282,-0.80808312,0.42191094,-0.41108742,0
3.2773557,2.9298382,2.6218724,0.6402939,0.57239974,0.51223272,0
-1.8608314,-3.108686,-3.38293,-0.37540239,-0.62714338,-0.68246913,0
2.3292196,4.2084789,2.1465466,0.44220555,0.79898548,0.40752482,0
0.13532327,5.2545261,-0.75726235,0.025482032,0.9894529,-0.1425962,0
-1.9149252,-1.7956316,4.7579732,-0.3523899,-0.33043715,0.87557554,0
3.4106908,3.6584964,0.81228328,0.67308265,0.72198582,0.16030002,0
-4.2266026,-2.423116,-1.7856573,-0.81455374,-0.46698457,-0.34413311,0
4.71595,0.27280563,1.8605572,0.92887884,0.053733263,0.36646536,0
3.8489034,2.4355547,-2.5164163,0.73964959,0.46804425,-0.48358354,0
-2.0226076,1.3039362,-4.7728415,-0.37839672,0.24394509,-0.89292037,0
3.7376807,0.58450902,3.4970827,0.72550344,0.11345627,0.67880213,0
0.26451597,1.1406746,5.1129508,0.050428953,0.21746524,0.97476447,0
-1.1200769,1.0079554,-4.9224758,-0.21757758,0.19579773,-0.95620257,0
3.2551794,-2.2196596,3.6597226,0.60534221,-0.41277406,0.68057215,0
4.2007914,-2.9715354,-1.6157264,0.77889663,-0.5509721,-0.29958257,0
1.5524975,2.8463545,-4.1860938,0.29320934,0.53757107,-0.79059827,0
1.3227891,-1.37617,-4.7006321,0.26072943,-0.27125114,-0.92652196,0
-2.3594854,-2.5036373,-3.9416296,-0.4509885,-0.47854149,-0.75339723,0
-3.6835063,-2.8827162,-2.3921723,-0.70113379,-0.54870808,-0.45533594,0
1.7668666,4.8713212,-1.5771997,0.32619706,0.89933819,-0.29118094,0
1.5400717,-4.799242,1.1816897,0.29748562,-0.92703831,0.22825931,0
5.1956501,-0.76456577,-0.011387312,0.98934311,-0.14558676,-0.0021683443,0
3.6517868,-2.6325011,2.5482476,0.70594209,-0.50889975,0.49261233,0
-5.3643775,-0.69614077,-0.55379701,-0.98652816,-0.12802276,-0.10184524,0
-3.5264719,-3.3434565,2.2007565,-0.66105556,-0.62674838,0.41254333,0
-2.6202857,-3.2559268,-3.3741865,-0.48782048,-0.6061582,-0.62817472,0
-3.9375608,-2.9220545,2.467546,-0.71732569,-0.53232569,0.44952554,0
0.10598586,-2.4759619,4.4397931,0.020844391,-0.48695099,0.87318051,0
4.6829057,-2.6915884,-0.42752138,0.86428982,-0.49676687,-0.07890451,0
-2.9681191,4.3292227,-0.39797664,-0.56384641,0.82241195,-0.075602658,0
1.4185896,-0.68774796,-5.0913029,0.26616192,-0.12903824,-0.95525229,0
-3.7842672,3.3308518,2.048471,-0.69542724,0.612104,0.37644342,0
-4.8333387,0.75177425,-2.1694295,-0.90326607,0.14049339,-0.40542826,0
-3.7088406,-0.89850986,3.6109362,-0.7059443,-0.17102323,0.68730909,0
1.2048626,-4.6491551,2.0125577,0.23137632,-0.89280254,0.38648242,0
-3.7247176,1.4162576,-3.2242939,-0.72663927,0.27629167,-0.62901378,0
-0.15076177,5.4059367,-0.20933641,-0.027856486,0.99886334,-0.038679413,0
-3.7671347,2.7367344,-2.838763,-0.69078618,0.50183982,-0.520549,0
-3.8753383,2.2360826,-3.0016963,-0.71927899,0.41502628,-0.55712736,0
1.8145043,4.7041793,-1.384827,0.34702671,0.89968151,-0.26485029,0
-0.95701343,-0.55919838,5.2216601,-0.17928293,-0.10475791,0.97820413,0
1.3720918,4.8527417,0.81469458,0.26859668,0.9499585,0.15948223,0
4.1989641,-2.9331062,0.35929537,0.81778771,-0.57124996,0.069976151,0
1.0613526,4.6660995,-2.623491,0.19448461,0.85502642,-0.48073432,0
-3.3157563,-0.95526904,3.7685997,-0.64891297,-0.18695176,0.73753709,0
-4.307322,2.8062627,-0.76823705,-0.82866341,0.53988236,-0.14779715,0
-0.10083554,-0.16573909,5.4001555,-0.018660672,-0.030671753,0.99935532,0
-3.9287622,2.9387615,0.97180527,-0.78550273,0.58756554,0.1942993,0
3.3265128,-4.2398391,-0.0075591095,0.6172713,-0.78674912,-0.0014026766,0
2.3408966,-4.4131436,-1.2787651,0.45395827,-0.85581869,-0.24798447,0
2.1658719,-3.9233794,-2.9191039,0.40495917,-0.73356533,-0.54579306,0
3.1001,-3.9169424,1.3490036,0.59913993,-0.7570067,0.26071477,0
1.8694005,3.6103816,3.1199198,0.36477646,0.70449442,0.60879052,0
3.8489099,-2.5563536,-2.1476464,0.75539374,-0.50171441,-0.4215008,0
4.7436633,-0.12595278,-2.3971708,0.89226156,-0.023691148,-0.45089695,0
3.0801425,-2.4645135,3.6268189,0.57480031,-0.4599148,0.67681825,0
-3.0022612,-3.0490074,3.056756,-0.57091475,-0.57980406,0.58127755,0
0.032266561,-5.2893834,-1.0634478,0.005980466,-0.98036408,-0.19710541,0
-1.3180376,0.57349527,5.0023818,-0.25323501,0.11018584,0.96110928,0
-3.9509609,1.3433247,3.106607,-0.75944048,0.25820938,0.59714162,0
3.5254164,-2.5257716,-3.2653844,0.64940304,-0.46526241,-0.60150355,0
2.9455051,-4.0130229,-1.6474416,0.56174278,-0.76533109,-0.31418666,0
-2.0398715,4.4558325,1.3879455,-0.40049934,0.87483847,0.27250308,0
1.8913879,-0.78019971,4.9547639,0.35283315,-0.14554408,0.92429739,0
-4.370883,-0.17889205,3.2070532,-0.80581337,-0.032980431,0.59125042,0
-3.2390919,-3.5877693,-2.5179808,-0.59431344,-0.65828931,-0.46200293,0
2.6744685,-0.96360117,4.4610033,0.50559086,-0.18216252,0.84332359,0
3.9937992,3.5109873,-0.51647067,0.74752766,0.65715873,-0.096668884,0
2.2707582,3.3329382,3.4636908,0.4271394,0.62694001,0.65153515,0
-3.5858586,3.5888534,1.6635383,-0.67162675,0.67218769,0.3115786,0
-5.3714862,0.69653583,0.15504225,-0.99129105,0.12854351,0.028612563,0
-1.0069685,3.3399956,-4.12919,-0.18628484,0.61788481,-0.7638824,0
4.964839,-1.3785475,-0.73514068,0.95388728,-0.26485834,-0.14124151,0
4.6911993,-1.5107105,-1.1213206,0.92814171,-0.29889017,-0.2218504,0
3.4167144,1.6428082,3.8423116,0.63298416,0.30434841,0.71183079,0
4.5127697,1.8961089,-1.602646,0.87616205,0.3681328,-0.31115648,0
-3.9682686,3.4370687,1.2572823,-0.73509961,0.63669777,0.23290451,0
4.2834396,-1.6924564,-2.6175666,0.80857164,-0.31947976,-0.49410996,0
-4.0638556,2.5905554,2.0783794,-0.7743057,0.49359083,0.39600351,0
-1.4850031,-3.6562717,3.51633,-0.28094977,-0.69173503,0.66525924,0
-2.5467529,2.3084936,3.9808824,-0.48421806,0.43891743,0.75689131,0
5.055234,-1.4521803,-0.69664133,0.95280874,-0.27370644,-0.13130271,0
3.933548,2.8129971,2.2614613,0.73682159,0.526923,0.42361081,0
-0.79251444,-4.3470354,-2.8804278,-0.15025041,-0.8241412,-0.54609156,0
0.0094442237,-4.516499,-2.426162,0.001842092,-0.88094133,-0.47322193,0
4.2155147,1.3882673,3.094352,0.77914447,0.25659043,0.57192236,0
2.6659453,-2.5174618,-3.5918353,0.51938879,-0.49046069,-0.69977391,0
0.54999995,0.10297442,-5.0643773,0.10794481,0.0202101,-0.99395144,0
-2.7286694,-4.357769,-0.80684274,-0.52429074,-0.83730847,-0.15502802,0
-0.35867101,0.38687718,-5.1207809,-0.069673471,0.07515265,-0.99473494,0
0.7839902,-5.3026123,-0.085236438,0.14624138,-0.9891212,-0.015899554,0
-4.8248992,1.4362539,-1.1793599,-0.93317139,0.27778217,-0.22809698,0
0.73910046,3.4675474,-4.0064764,0.1381508,0.64814526,-0.74888051,0
1.4731213,1.8643032,-4.5483832,0.28706759,0.36329734,-0.88634485,0
-5.0363231,1.3308688,-0.11654645,-0.96657133,0.25542042,-0.0223676,0
3.1375883,4.1167698,0.87191844,0.59774435,0.78428894,0.16610985,0
2.134449,-3.751025,-3.152452,0.39937067,-0.70184362,-0.58984631,0
3.02823,-3.8720627,2.1601143,0.56399208,-0.72115153,0.40231004,0
-2.0653012,-3.6357582,3.0027368,-0.40119475,-0.70626366,0.58329618,0
-0.95652276,4.8273106,2.2207251,-0.17716581,0.8941077,0.41131958,0
1.5186567,3.7686868,-2.8774557,0.30502084,0.75693733,-0.57793438,0
-1.4791611,-4.7283854,1.4902005,-0.28590503,-0.91394311,0.28803882,0
-3.8197315,0.17726637,3.6020129,-0.7271226,0.033744358,0.68567777,0
-5.1515231,0.43977755,1.6253885,-0.95051277,0.081143804,0.29990208,0
-0.14770527,-2.8360288,4.353745,-0.028415386,-0.54559225,0.83756888,0
1.2966336,-3.6864586,3.5959134,0.24416232,-0.69417781,0.67712772,0
2.4848075,-4.4386482,-1.3004497,0.47325772,-0.84538722,-0.24768433,0
2.0174444,3.7005289,3.2218151,0.38028392,0.69754171,0.60730523,0
3.6926384,-2.7551954,-2.4147127,0.70989287,-0.52967376,-0.46421748,0
-0.69562298,3.4287462,-3.9965308,-0.13096449,0.64552778,-0.75242424,0
-0.56712848,4.6129665,-2.4180143,-0.10824977,0.88049287,-0.46153474,0
4.13976,0.87408161,3.0708759,0.79184496,0.16719258,0.58739096,0
1.8341906,-3.5303602,-3.1694698,0.36059448,-0.6940546,-0.62310499,0
1.994818,-2.6679311,-4.2293496,0.37052709,-0.49555436,-0.78557974,0
-2.6412883,3.4836786,2.5695107,-0.52086383,0.68698376,0.50670922,0
-3.634361,-2.8646324,2.21157,-0.70860267,-0.55852628,0.43119669,0
0.74912584,5.1937914,0.31454048,0.14250182,0.98798448,0.059833188,0
-5.1664338,1.2172258,-0.92705154,-0.9588356,0.22590426,-0.17205098,0
-3.3654966,3.590723,1.4617546,-0.6555481,0.69941884,0.28472778,0
1.4524131,4.9335079,0.5979389,0.28052387,0.95287406,0.1154879,0
-4.4769435,-1.4815116,1.992879,-0.87448531,-0.28938496,0.38927081,0
3.898788,-1.6833375,3.0703626,0.74399334,-0.32122597,0.58590758,0
-4.8604169,1.980306,-1.2507507,-0.90085542,0.3670404,-0.23182075,0
-4.072217,0.41705921,-3.5018883,-0.75592965,0.077419117,-0.65005898,0
-0.45766515,-3.7023971,3.8369637,-0.085519508,-0.69183153,0.7169767,0
-1.5059978,-0.83689809,-4.9050145,-0.2896814,-0.16097887,-0.94348842,0
-3.9739997,-3.625978,1.3557589,-0.71631545,-0.65358436,0.24437621,0
3.8604712,-3.5126824,1.0385075,0.72541833,-0.66006559,0.19514517,0
0.22694665,-0.75923467,5.3089995,0.042279165,-0.14144209,0.9890433,0
-4.0980358,-3.043175,1.0023043,-0.78780085,-0.58501583,0.19268163,0
0.04563899,-2.6054106,4.5447159,0.0087117786,-0.49733269,0.86751616,0
-1.3272002,3.1292686,4.1214333,-0.24843311,0.58575487,0.77147406,0
0.070996895,5.2094617,1.3246385,0.013206994,0.9690752,0.24641208,0
-4.3863087,-3.0277915,-0.31037304,-0.82157958,-0.56712192,-0.058134567,0
-3.2297561,-2.27422,-3.0866942,-0.6442644,-0.45365623,-0.61572677,0
2.4930923,4.3369646,1.1182041,0.48636883,0.84608358,0.21814661,0
1.8816878,4.742269,0.84175211,0.36389807,0.91710359,0.16278575,0
3.5111065,-0.52106869,3.7784295,0.67727083,-0.10051095,0.72883582,0
-4.2446404,1.5703988,-2.5388763,-0.81795728,0.30262145,-0.48925051,0
-4.1884618,1.5933207,-2.4839685,-0.81747317,0.31097263,-0.48480272,0
1.4462988,-4.7959747,-0.23175332,0.28841388,-0.9563899,-0.046215117,0
0.82590306,3.2234924,3.8426287,0.16247733,0.63414758,0.75594836,0
-0.23629247,2.5327506,4.5224786,-0.045539092,0.48812035,0.87158751,0
-5.3173203,-0.29221576,0.9445008,-0.98314989,-0.05402945,0.17463417,0
-3.1534662,3.8593805,1.5308046,-0.6048438,0.74024016,0.29361269,0
-4.1612601,-1.7290946,-3.0030928,-0.76844037,-0.31930378,-0.55456704,0
-0.75140262,-0.38066652,-5.21803,-0.14216088,-0.07201983,-0.98722011,0
0.6030578,-3.3615055,3.9650612,0.11523959,-0.64235717,0.75769192,0
-0.5810011,0.85675734,-5.2394261,-0.10878725,0.16042013,-0.98103559,0
-4.0496469,-0.49905628,3.4006271,-0.76241744,-0.09395615,0.64022803,0
4.269125,-0.97261113,3.0667377,0.7986123,-0.18194343,0.57368535,0
-2.7738426,-0.78396481,-4.3556304,-0.53107649,-0.15009695,-0.8339237,0
-2.5959089,0.32044506,4.5560546,-0.49413121,0.060996711,0.8672449,0
-4.08603,-1.0983092,-3.2283721,-0.76775366,-0.20636924,-0.60660213,0
-3.3153517,-0.11529468,-4.2146316,-0.61812317,-0.021495853,-0.78578734,0
-0.66184592,1.763164,5.0183582,-0.12347634,0.32894218,0.93624288,0
3.2379189,-3.532851,2.0831659,0.61965072,-0.67609286,0.39866203,0
-0.11589414,3.9414017,3.3922851,-0.022280877,0.75774229,0.65217352,0
-3.5671737,-3.6778336,0.10587133,-0.69607669,-0.7176702,0.020659093,0
4.8756208,-2.0848298,0.75583559,0.91026652,-0.38923264,0.14111266,0
5.1852388,-0.44108301,-0.49971595,0.99183905,-0.084370919,-0.0955863,0
0.53057694,4.944921,2.2184646,0.097430952,0.90804613,0.40738127,0
-4.3592372,1.5727295,2.6529825,-0.81634885,0.29452306,0.49682069,0
2.0615051,-1.1306779,-4.6592379,0.39500889,-0.21665135,-0.8927654,0
0.9597683,5.0564938,-0.28559431,0.18619315,0.98094982,-0.055404734,0
4.5452881,-0.64850295,2.4708426,0.87175542,-0.12437847,0.47389084,0
-4.1830626,0.86554867,3.4248779,-0.76401246,0.15808752,0.62553436,0
-2.909678,-0.51800591,-4.1133676,-0.57446617,-0.10227141,-0.81211406,0
3.910497,3.2205782,-1.3448638,0.74607193,0.61444443,-0.25658253,0
0.59687412,-2.1225538,-4.7113681,0.11474428,-0.40804398,-0.9057228,0
5.1935835,1.1152269,-0.90655047,0.9637785,0.20695376,-0.16822948,0
2.4808545,4.0877128,2.3715479,0.46480224,0.76585627,0.44432303,0
-0.84111816,4.9128642,2.0334232,-0.15624958,0.91263396,0.37773708,0
4.3886676,2.1702917,1.9233593,0.83431309,0.41258597,0.36564258,0
0.93669033,-4.2109666,2.9667025,0.17890973,-0.80430305,0.5666461,0
3.8075891,-0.16888532,3.8438344,0.70340669,-0.031199548,0.71010256,0
4.6620975,-0.79642445,-1.7016048,0.92751837,-0.15844764,-0.33853212,0
-0.85009515,1.1975141,5.1037927,-0.16006684,0.22548334,0.96100771,0
-4.9253135,-1.6816363,0.98105645,-0.92998195,-0.31752121,0.18523994,0
-2.9691238,-3.6606643,2.176645,-0.57189614,-0.70509684,0.41925329,0
-1.1311805,4.2242332,-2.8860331,-0.21589263,0.80622035,-0.55081683,0
0.5755049,-5.2086501,0.15349023,0.10977482,-0.99352521,0.029277531,0
-0.35295174,-5.2493443,0.56904227,-0.066696845,-0.99196196,0.1075312,0
0.10801746,2.1593299,-4.8883839,0.020208485,0.403979,-0.91454506,0
3.555742,2.8062289,-2.7433143,0.67144477,0.52991128,-0.51803082,0
-2.4551728,-4.0541883,-2.3072264,-0.46575388,-0.76909208,-0.43768799,0
-1.2608018,-3.8326061,3.3870966,-0.23933607,-0.72753775,0.64296734,0
-3.685905,0.20816164,3.8392556,-0.69202417,0.039082095,0.72081554,0
1.8888953,4.7350597,0.91884148,0.36464763,0.91409421,0.17738059,0
1.4025723,2.6344805,-4.0768919,0.2775943,0.52141112,-0.80689031,0
-0.83597565,-3.1546781,4.3639426,-0.15340981,-0.57891464,0.80082667,0
-2.0662796,0.3526583,4.7519207,-0.39784265,0.06790103,0.9149375,0
-2.579757,1.1802294,-4.2236352,-0.50703317,0.23196584,-0.83012593,0
3.0372539,4.3905149,0.63475162,0.56493545,0.81664473,0.1180651,0
1.4882981,4.1345859,-2.9816585,0.28026214,0.77858591,-0.5614776,0
-0.40080795,-4.5592337,2.7090607,-0.075361319,-0.85724312,0.50936711,0
0.17628329,-3.8477213,-3.8630521,0.032314721,-0.70533091,-0.70814121,0
-4.7784963,2.0434508,1.7725385,-0.87023389,0.3721422,0.32280514,0
3.4854617,1.5943434,3.4939134,0.67205048,0.30741388,0.67368013,0
5.0130596,1.7027092,0.59524262,0.94094402,0.31959605,0.11172618,0
-0.10848652,-5.1713781,0.44371134,-0.0208969,-0.99612164,0.085468605,0
-1.0720112,4.8827705,2.1624103,-0.19681805,0.89646202,0.39701205,0
0.76392102,-3.8648267,3.4085376,0.14664079,-0.74188465,0.65429628,0
3.1104565,-3.255368,-2.9720337,0.57655102,-0.60341167,-0.55089313,0
-5.0308108,0.83447111,-0.51386487,-0.98155004,0.16281176,-0.10025901,0
2.4157386,1.8050413,4.2341213,0.46472195,0.34724051,0.814529,0
0.034670942,-0.0028587519,-5.0987191,0.0067997733,-0.00056066737,-0.99997669,0
-2.2448661,-3.5005157,3.0129719,-0.43714637,-0.68166101,0.58672082,0
0.77459592,-4.9946098,1.0155779,0.15025119,-0.96882272,0.19699536,0
4.1823406,-0.036490895,-3.1426797,0.79943663,-0.0069750794,-0.60070986,0
3.9173448,-3.1544032,-1.192284,0.75787014,-0.61026746,-0.23066553,0
-0.66795594,4.9823461,-1.3386571,-0.12840098,0.95775497,-0.25732967,0
2.5209308,-3.3392797,3.3987322,0.46766362,-0.61947739,0.63050658,0
2.7932577,-2.9155831,-3.1114573,0.54797065,-0.57196802,-0.61039388,0
0.8761701,0.93566978,-5.051856,0.16810799,0.179524,-0.9692837,0
-1.7808858,-4.2234054,2.3413808,-0.34601009,-0.82056963,0.45490924,0
-4.4927168,-2.1065841,1.0572408,-0.88553375,-0.41521674,0.2083867,0
-1.2766689,0.46463391,4.9404764,-0.2491609,0.090680212,0.96420741,0
2.6709318,0.51685351,4.4872346,0.508991,0.098495126,0.85511804,0
-2.1425958,4.1564193,2.5394564,-0.40265128,0.78110278,0.47723204,0
-3.7766035,3.0580075,2.1266298,-0.7119751,0.57650352,0.4009178,0
-1.7809933,1.1424146,5.0240316,-0.32670286,0.20956288,0.92160112,0
-5.32517,-0.58495843,-0.51877296,-0.9893927,-0.10868265,-0.096385688,0
0.72653204,1.0061423,5.1166463,0.13799275,0.19110009,0.97182244,0
1.7810493,4.4199929,1.9100664,0.34692001,0.86094421,0.37205049,0
-3.3595064,-3.4514692,-1.9138427,-0.64819938,-0.66594309,-0.36926603,0
-2.0157001,3.1623344,-3.5196166,-0.39192593,0.61487365,-0.68434238,0
1.3080698,1.7428869,4.6614537,0.25420821,0.33870986,0.90589947,0
-1.5759355,4.6099858,-1.4768398,-0.30956328,0.90554619,-0.29009777,0
-0.27926838,1.3527019,-5.1599712,-0.052281413,0.25323728,-0.96599042,0
-1.7541362,-4.9299092,0.36267632,-0.33442444,-0.93988264,0.069143906,0
5.3833675,-0.43111336,0.39369968,0.99417055,-0.07961563,0.072706275,0
2.8798578,4.4217854,0.71181166,0.54084867,0.83042878,0.13368104,0
-1.8587962,-0.054216623,-4.7002892,-0.36773053,-0.010725817,-0.92987055,0
-3.3752878,1.7786574,-3.7670891,-0.6295256,0.33173776,-0.70260054,0
