-2.1960087,-4.5579309,0.12976326,-0.43390545,-0.90059346,0.025639692,0
-2.1731822,-4.4640546,0.37592137,-0.43645748,-0.89655161,0.075499281,0
2.0531244,4.5496445,0.19754864,0.41100639,0.91077429,0.039546438,0
-3.4768839,-3.1403942,1.7734649,-0.69404584,-0.62687671,0.3540141,0
0.089031048,3.6599176,-3.316993,0.018021828,0.74084717,-0.67143178,0
1.1232319,4.9198298,-0.48648453,0.22155274,0.97041565,-0.095957018,0
-3.5952399,3.1700268,1.311963,-0.72345906,0.63789475,0.26400226,0
2.7807782,-4.0144501,0.80182719,0.56189996,-0.81118274,0.16202179,0
-3.5447378,1.4049841,-3.2759659,-0.70513469,0.27948555,-0.65166938,0
-3.2081301,3.1955028,-2.3822002,-0.62702084,0.62455285,-0.46559495,0
-4.7452631,-1.6679834,0.56376016,-0.93754423,-0.32955143,0.11138478,0
-0.54743338,-3.5904777,-3.6098051,-0.10690528,-0.70116484,-0.70493919,0
-0.5565834,3.6462312,-3.2602866,-0.11306167,0.74067783,-0.66227889,0
-0.78505611,3.4111362,-3.6177235,-0.15595405,0.67763376,-0.71867299,0
0.0090905903,-5.185276,0.20570494,0.001751774,-0.9992125,0.039639734,0
-0.26816237,3.9638758,2.9402258,-0.054255486,0.80198425,0.59487605,0
-1.9441451,-4.6948128,0.6635806,-0.37937659,-0.91613638,0.12948979,0
4.1470833,2.2313211,1.0428922,0.85979289,0.46260804,0.21621734,0
1.3190243,-4.9440074,-0.66609079,0.25561953,-0.958121,-0.12908468,0
-3.8958004,1.7201363,2.6306624,-0.77828091,0.34363908,0.5255388,0
0.96221644,-0.039952576,5.0331478,0.18776953,-0.0077964542,0.98218215,0
2.057626,-2.0864413,-3.920964,0.42035264,-0.42623931,-0.80101418,0
4.197803,1.9604076,1.2365005,0.87542272,0.40882942,0.25786361,0
-4.2226567,-2.631984,-0.015811758,-0.84864157,-0.52895874,-0.0031777425,0
0.47075129,-4.9447637,-0.51588869,0.0942664,-0.99017268,-0.10330501,0
4.884438,-0.31986302,1.5191733,0.95301914,-0.06240955,0.29641101,0
-4.0158696,0.60838372,2.8138983,-0.81273323,0.12312493,0.56947786,0
-2.5816393,-2.3207488,-3.7684605,-0.50386494,-0.45294628,-0.73549974,0
-3.9881732,-1.5210985,-2.465102,-0.80910832,-0.30859578,-0.5001123,0
2.658448,-0.70343417,-4.1041985,0.53811419,-0.14238679,-0.83075815,0
-3.980464,-1.0221703,-2.5913193,-0.81929857,-0.21039322,-0.53337103,0
4.5687823,2.0027087,0.8117128,0.90398312,0.39625764,0.16060618,0
3.9231019,3.1351004,-0.54651016,0.77661198,0.62062025,-0.10818642,0
2.4017875,4.2506881,-0.50649154,0.48931095,0.86598343,-0.10318642,0
3.1382315,0.093829989,-3.9013901,0.62666762,0.018736737,-0.77906132,0
-0.33638421,2.3895953,-4.5051398,-0.065819152,0.46756396,-0.88150537,0
-3.7576017,3.0843852,-1.6273795,-0.73297101,0.60165101,-0.31744236,0
-2.3388169,-3.4377897,2.3865991,-0.48784339,-0.7170732,0.49781007,0
1.3372825,4.7485862,0.94926447,0.26618981,0.94521928,0.18895373,0
-0.60413617,4.3030138,-2.5072529,-0.12042514,0.85773885,-0.49978185,0
2.5870061,-0.10638723,-4.164854,0.52752197,-0.021693649,-0.84926432,0
-3.5852602,-0.00072623382,3.599977,-0.70565701,-0.00014293857,0.70855361,0
-2.0659266,-1.9087574,4.0275717,-0.42054412,-0.38855046,0.81986052,0
-2.1984069,4.4251842,-0.54206777,-0.44226214,0.89023167,-0.10904989,0
-0.62795883,4.2785149,2.7603788,-0.12240259,0.83397388,0.53805679,0
4.1178966,-1.4626594,-2.2685299,0.83634448,-0.297066,-0.46073827,0
-3.6519587,-1.1247578,-3.0362046,-0.74825764,-0.23045403,-0.62209445,0
-2.5744219,-4.0374212,0.86665535,-0.52904594,-0.82969356,0.17809843,0
2.620034,0.41979682,-4.3384514,0.51519036,0.082546748,-0.85309142,0
-3.2032521,3.9201949,0.68550903,-0.62702072,0.76735872,0.134185,0
-4.9000983,0.48301128,-0.79557508,-0.98243541,0.096840382,-0.15950724,0
-2.8641114,1.4879769,3.6066363,-0.5917657,0.30743697,0.7451818,0
0.78536439,-2.4408476,-4.1726713,0.16035955,-0.49838421,-0.85199642,0
2.8061171,-1.3747021,3.9056146,0.56102234,-0.2748419,0.78084308,0
-1.1532962,-4.5743484,1.1822816,-0.23713844,-0.94056827,0.24309835,0
-0.43417701,1.0617609,-4.9362841,-0.085673414,0.20951059,-0.97404587,0
2.9848056,1.2116992,3.6073368,0.61716247,0.2505407,0.74588197,0
4.89713,-1.1427308,1.0792884,0.95215493,-0.22218254,0.20984735,0
-0.21018241,1.6694328,-4.6376286,-0.042603664,0.33839157,-0.94004047,0
2.6250453,-0.8557412,-3.9410419,0.54552507,-0.17783628,-0.8190096,0
3.1557739,3.9812114,-0.031238724,0.62117285,0.78364944,-0.0061489344,0
-4.6056285,0.70136005,2.3885252,-0.87971932,0.13396651,0.45623127,0
-3.8410258,3.5123158,-0.33626017,-0.7364437,0.67341977,-0.064471491,0
1.0168109,0.12559147,4.9227085,0.20222189,0.024977451,0.97902119,0
2.3672302,-1.8992075,4.0045094,0.47112566,-0.37797987,0.79697669,0
-2.7394314,2.733418,3.1557491,-0.54860198,0.54739773,0.63197428,0
0.11038222,-1.4044534,4.9149733,0.021589011,-0.27468878,0.96129078,0
2.6203501,1.2796001,4.1933532,0.51302719,0.25052747,0.82099879,0
-4.692596,-0.1949541,-1.3713377,-0.95909107,-0.039845482,-0.28027934,0
1.7567751,-0.52203399,-4.5088291,0.36095169,-0.10725849,-0.92639601,0
0.98616803,-1.1746548,4.8544421,0.19370934,-0.23073311,0.95354015,0
3.6553748,0.99115157,-3.0190871,0.75470436,0.20463741,-0.62333369,0
2.4030924,2.6650372,-3.4128432,0.48525268,0.53814679,-0.68915009,0
4.3226848,2.9882488,0.36671832,0.82058638,0.56726694,0.069615081,0
-3.1574452,2.1989694,-3.6058609,-0.59876651,0.41700462,-0.68380243,0
1.811361,-4.4269633,-1.5482962,0.36028707,-0.88054103,-0.30796242,0
-0.098594487,1.2114064,4.6966133,-0.020323187,0.24970604,0.96810842,0
0.22114156,-4.5978894,1.9576236,0.044209056,-0.91917753,0.39135426,0
1.7651613,-4.6514421,0.26290944,0.35430413,-0.93364,0.05277133,0
4.583097,1.1258807,-2.2325411,0.87785542,0.2156534,-0.4276253,0
-3.0832586,1.4692272,-3.8472283,-0.59932661,0.28558969,-0.74782771,0
-4.1384978,0.54998469,-2.8996029,-0.81417692,0.10819985,-0.57044601,0
0.0064268112,-3.517941,3.8899,0.0012253828,-0.67075634,0.74167675,0
-0.27930596,1.0196086,-4.8477082,-0.056293052,0.20549823,-0.97703713,0
-3.2720056,-3.3234951,-2.2078037,-0.63410443,-0.6440829,-0.42786545,0
-1.8222531,-3.2549527,3.331316,-0.36435598,-0.65082145,0.66609019,0
3.4038484,3.6069245,-0.077242695,0.68625343,0.7271958,-0.01557298,0
-2.434196,-4.4333253,-0.41614914,-0.47967023,-0.87360847,-0.082004227,0
1.6830844,0.81317306,-4.7992282,0.32678714,0.15788543,-0.93181664,0
-1.5480351,-2.1235039,-4.2893972,-0.30773792,-0.42213681,-0.85270035,0
-3.4008377,1.6305166,3.3109603,-0.67764139,0.32489219,0.6597327,0
-0.76548213,-4.696178,1.001173,-0.15743066,-0.9658258,0.20590334,0
-4.0635667,-2.4844048,1.7707098,-0.79970002,-0.4889248,0.34847137,0
3.8267281,-3.1274192,-1.5332434,0.73953605,-0.6043908,-0.29630762,0
-4.8633657,0.51095307,1.1621286,-0.96757889,0.1016554,0.23120841,0
2.5912104,4.0919065,-1.1981546,0.51934797,0.82012767,-0.24014227,0
-4.3758135,1.6008703,-1.8944992,-0.86996442,0.31827229,-0.37664926,0
1.587322,3.5863581,2.9736028,0.32251006,0.72867173,0.60417283,0
-1.1898673,-1.0791354,4.677403,-0.24059375,-0.21820353,0.94578105,0
-2.6729608,0.73845035,-4.1261153,-0.53766721,0.1485396,-0.82996988,0
4.1863403,-1.2512113,-2.2726736,0.85001141,-0.25405097,-0.46145281,0
-1.9145048,-1.91088,4.4009204,-0.37061563,-0.36991394,0.85194355,0
0.93161279,2.6316688,-4.1179662,0.18725657,0.52897221,-0.82772183,0
3.9878855,-1.0270222,-3.3032677,0.75540084,-0.19454256,-0.62571788,0
-0.075423755,-4.6977854,-2.1373684,-0.014612173,-0.91012245,-0.41408172,0
-4.399333,-2.0469091,0.14744526,-0.90624708,-0.42165604,0.030373203,0
-4.874804,-1.1632314,-0.93914455,-0.95604956,-0.22813365,-0.18418561,0
-0.23765664,-2.1905982,4.6557193,-0.046139594,-0.42529133,0.90387964,0
3.573957,3.5851898,-0.58940136,0.70125937,0.70346344,-0.11564863,0
3.5389612,-2.7176363,-1.8273335,0.73396313,-0.56362438,-0.37897995,0
0.28368822,1.053363,4.8368363,0.057214469,0.21244308,0.97549701,0
1.4856374,2.0718098,-4.2744389,0.29850173,0.41627839,-0.85884166,0
-3.8403275,3.3824267,0.40825817,-0.74805206,0.65885818,0.07952404,0
0.18993436,-2.4652126,4.3946643,0.037666988,-0.48889068,0.87153149,0
-1.263391,-3.4195607,-3.3099077,-0.25658208,-0.69447857,-0.67220914,0
4.3331337,-0.68948573,-2.1103992,0.8899796,-0.14161304,-0.43345356,0
-2.3454478,-1.0396974,-4.1992226,-0.47662681,-0.21128061,-0.85333902,0
-1.3406701,1.4990968,-4.6880579,-0.26281297,0.29386953,-0.91900492,0
2.9278831,-3.6854007,1.0572177,0.60692257,-0.7639488,0.21915126,0
-1.2505237,-2.7251916,3.8287807,-0.25714377,-0.56037802,0.7873078,0
-0.96998405,4.7499347,0.35597408,-0.19954354,0.97714877,0.073230401,0
1.0733513,-2.238009,4.2778201,0.21702467,-0.45251092,0.8649475,0
1.2329776,2.4823258,-3.8986688,0.25775683,0.51893598,-0.81502575,0
4.164782,-2.3525736,-1.8577099,0.81162947,-0.45846772,-0.36202905,0
-2.9182336,-3.9168236,1.3633595,-0.57546043,-0.77237713,0.26884735,0
-0.82320428,3.5424304,3.2713532,-0.16828768,0.72417915,0.66876286,0
4.8911276,0.0093202116,1.1362696,0.97405916,0.0018561032,0.22628601,0
0.41358665,-4.6736975,-1.5857941,0.083507299,-0.94366646,-0.32018775,0
2.6704214,2.2128744,-3.8893561,0.5124535,0.42465031,-0.74636692,0
4.253253,2.3137665,1.6458304,0.83169705,0.45244259,0.32183185,0
0.86481047,2.7416399,3.9643579,0.17660001,0.55986094,0.80954808,0
1.3180946,-0.2169328,4.880466,0.26049411,-0.042872276,0.96452308,0
0.27505726,-5.1259713,0.20418499,0.053540118,-0.99777442,0.039744772,0
-1.6102923,-0.63218683,4.4338369,-0.33834141,-0.13282992,0.93160146,0
3.4911058,-1.5294858,3.2986,0.69259375,-0.30343175,0.65440291,0
4.3140674,-0.95070297,2.1372709,0.87908763,-0.19372697,0.43551672,0
-1.9541899,-3.6098058,2.3796146,-0.41186845,-0.76080894,0.50153172,0
-4.7653279,-0.45701361,1.3505912,-0.95803523,-0.091879331,0.27152672,0
-4.8270478,-0.034717131,0.74921387,-0.98814315,-0.0071069309,0.15337129,0
4.592083,1.1910183,1.5386086,0.92075711,0.2388107,0.30850592,0
3.4052231,0.35187337,3.6929758,0.67622775,0.069876924,0.7333712,0
4.6227012,2.1579692,-0.58219659,0.90028638,0.42027166,-0.11338472,0
-2.3815365,3.0453587,3.1352215,-0.47846004,0.61182451,0.62987834,0
1.5324756,1.8085272,4.5175538,0.3003841,0.35449365,0.88549626,0
-4.6491027,1.4654905,0.24580126,-0.9525283,0.30025604,0.050360825,0
3.9702733,1.7689949,2.4436336,0.79622722,0.35476699,0.49006388,0
5.0519309,0.36798945,-0.094340377,0.99718463,0.072636269,-0.018621549,0
1.5766681,-4.5647564,-0.20195438,0.32618934,-0.94438064,-0.041781377,0
-3.5549972,0.1944,3.5145059,-0.71060801,0.038858596,0.70251417,0
-0.53247184,-4.6829767,1.6584787,-0.10657038,-0.93726385,0.33193249,0
3.3866682,2.2341316,2.8966374,0.6793561,0.44816047,0.58105731,0
-1.4233346,-4.5964932,1.7577356,-0.2778421,-0.89725876,0.34311888,0
4.7649388,-1.541325,0.97493613,0.93392795,-0.30209967,0.19108747,0
-4.1066294,1.4073123,2.5575197,-0.81506026,0.27931529,0.50760186,0
0.63869339,2.0952015,4.6515908,0.12422299,0.40750727,0.90471345,0
-1.6764096,-2.5310016,-3.676765,-0.35158753,-0.5308181,-0.77111506,0
-0.64979374,-4.6563754,2.1273718,-0.12591915,-0.9023276,0.41224903,0
4.8678861,-1.6443093,0.26069233,0.94619274,-0.31961173,0.050671931,0
-4.7809348,1.1534538,-0.13439226,-0.97174561,0.23444447,-0.027315807,0
-0.72430891,-0.78678346,5.0102921,-0.14137957,-0.15357412,0.97797072,0
-2.2062311,-4.2069588,1.1891227,-0.45053306,-0.8591004,0.24282999,0
0.87365079,3.337724,3.8170671,0.1697973,0.64869916,0.74186134,0
-1.8224449,-0.78360432,-4.6220503,-0.36233091,-0.15579295,-0.91893679,0
-3.9228024,0.41393724,-2.992619,-0.79227537,0.083601527,-0.60440928,0
2.6412117,2.3044951,3.400089,0.54085845,0.47190672,0.69625872,0
-4.9721351,-0.76976544,-0.13401355,-0.98787689,-0.15293902,-0.026626164,0
-4.3666492,2.0629323,-1.2548209,-0.87511885,0.41343161,-0.25147828,0
1.7693323,-4.0472741,2.2969265,0.3553848,-0.81292796,0.46135637,0
1.6779001,2.3622165,4.1146154,0.33341667,0.46939763,0.81761801,0
-0.11423604,-5.076972,0.38942796,-0.022429276,-0.99682027,0.076460868,0
-2.1096516,-4.6216655,0.33241493,-0.41436732,-0.90776467,0.065291293,0
-1.554685,-3.2668636,-3.458967,-0.31060237,-0.65266955,-0.69104886,0
3.476032,-3.6885087,-0.066268899,0.68577617,-0.72769505,-0.013073997,0
1.7434578,-1.4531896,4.4515548,0.34891674,-0.29082561,0.89088589,0
1.942636,4.3171301,0.42422396,0.40871421,0.90828764,0.089253135,0
-2.7562821,1.0188543,3.9904604,-0.55618459,0.20559254,0.80522692,0
0.53821331,1.8731904,-4.4250727,0.11131,0.38740182,-0.91516656,0
4.6851654,0.082700856,1.4982409,0.95234925,0.016810525,0.30454606,0
-4.3492088,0.80068099,2.4425149,-0.86089045,0.15848829,0.48347592,0
3.2776189,2.349304,-2.7573061,0.67093432,0.48090664,-0.56442535,0
-1.6960635,-3.8732002,-2.8296826,-0.33336082,-0.76127642,-0.55617332,0
-0.1484981,-3.2575564,-3.8038652,-0.029638559,-0.65017182,-0.75920892,0
-0.049152773,2.6018512,-4.2903376,-0.0097955409,0.51851684,-0.85501128,0
-2.7586668,-4.2290621,-0.83666497,-0.53899932,-0.82629108,-0.16347095,0
-0.49592897,-2.0210257,4.6920247,-0.096619666,-0.39374757,0.91412657,0
-2.8001776,-3.4303756,-1.9590303,-0.57829398,-0.70844281,-0.40457985,0
-2.2805722,-3.9059162,-2.0695896,-0.45850128,-0.78527117,-0.41608393,0
-3.4632504,0.30616072,-3.718996,-0.6802628,0.060137074,-0.73049718,0
-3.4271479,-1.2996979,-3.6156101,-0.6656577,-0.25244138,-0.70226288,0
2.4431293,-2.2882185,3.8403776,0.47956774,-0.44915992,0.75383699,0
-1.3595226,4.3981833,-1.50397,-0.28072155,0.90816057,-0.31054783,0
4.1699982,2.6724963,-0.11268135,0.8417145,0.53944361,-0.022744741,0
0.90210819,-2.902065,3.7313869,0.18745562,-0.60304117,0.77537203,0
-1.4613318,-4.471559,1.666804,-0.2928023,-0.89595175,0.3339721,0
0.17146017,-3.0321417,-3.9592047,0.034361802,-0.60766214,-0.79345196,0
2.0690136,-3.225343,-3.019136,0.42411682,-0.661147,-0.61887765,0
-3.1157668,0.23824048,3.8052411,-0.63278657,0.048384681,0.77281314,0
-1.9104084,-1.9981604,4.1326718,-0.38422951,-0.40187857,0.83118063,0
-0.22735879,4.8581791,1.4405046,-0.04482324,0.95777839,0.28399202,0
-2.6736202,-3.982312,1.692982,-0.5256229,-0.78290641,0.33283341,0
-3.0576897,3.7383649,-0.96007514,-0.62096649,0.75920039,-0.19497547,0
-1.3404635,-1.0294404,4.7618971,-0.26528361,-0.20373078,0.94240034,0
-0.12579836,-4.2729092,2.2823501,-0.025959777,-0.88175845,0.47098625,0
-4.5174012,1.2686542,1.2341365,-0.93108672,0.26148376,0.25436929,0
1.6949842,-2.4331012,4.156857,0.3319518,-0.47650728,0.81409383,0
1.029753,0.7482931,4.7832589,0.20804194,0.15117835,0.96636617,0
-0.38484132,-2.6180427,-4.4595709,-0.074214041,-0.50487179,-0.85999805,0
1.5301465,-4.668468,0.14827958,0.31131724,-0.94982708,0.030168345,0
4.5195518,-0.75286335,2.3808587,0.87528998,-0.14580511,0.4610948,0
0.92567039,5.053648,-0.69853932,0.17852867,0.97466773,-0.13472322,0
-3.0122893,4.1069398,-0.40059313,-0.58961082,0.80387241,-0.078410149,0
-0.99338973,3.7852609,2.7986782,-0.20647451,0.78676063,0.58170092,0
0.89240372,1.380452,-4.7928972,0.17612277,0.27244288,-0.94591528,0
-0.010600233,5.0059991,-0.67579108,-0.0020984665,0.99100852,-0.13378243,0
-1.8083905,-4.719564,0.66324049,-0.35476068,-0.92585963,0.13011108,0
3.5967607,3.2624402,1.1165971,0.72185421,0.6547575,0.22409616,0
4.6256399,2.153249,0.091410868,0.90644157,0.42195123,0.017912898,0
-2.1860785,-2.22579,3.9076059,-0.43719417,-0.44513607,0.78148264,0
0.018782973,1.8811399,-4.8264761,0.0036259545,0.36314419,-0.93172592,0
5.1407213,0.11884978,-0.03783568,0.99970579,0.023112478,-0.0073578288,0
2.6780932,-0.18484026,4.0363326,0.55246806,-0.038130991,0.83266145,0
-1.7736192,-4.1603799,1.6368452,-0.36875457,-0.86498785,0.34031779,0
-3.9960914,2.8854916,-1.2473733,-0.78595716,0.56752276,-0.24533522,0
-0.70762014,2.8762069,3.9533579,-0.14324667,0.5822432,0.80029565,0
-1.8879511,3.8328767,2.4736121,-0.38240784,0.77635598,0.5010345,0
2.076956,4.4877934,-0.17663126,0.41973498,0.90694457,-0.035695661,0
-2.9058526,2.6638367,2.9394259,-0.59093994,0.54172313,0.59776753,0
2.6737397,3.5310059,-1.7972822,0.55937558,0.73872507,-0.3760111,0
-1.9789993,1.6295844,4.2728715,-0.39715716,0.32703456,0.8575049,0
-4.5012946,2.1966755,0.76121294,-0.88849354,0.43359348,0.15025294,0
-3.3542464,-3.4336603,1.2274396,-0.67700273,-0.69303119,0.2477397,0
-2.9095035,-3.6964293,2.0169511,-0.56845224,-0.72220004,0.39406738,0
3.6751044,2.9745765,2.2152591,0.70386904,0.56970143,0.42427427,0
1.4924335,1.3629282,-4.7095227,0.29121259,0.26594272,-0.91895032,0
-3.5077224,2.717298,1.8838726,-0.72767431,0.56370139,0.39080793,0
3.7918034,-0.38634568,3.0761867,0.77416062,-0.078878984,0.62805539,0
1.0848826,-2.9718282,3.8289933,0.21842325,-0.59832865,0.77090472,0
-4.8080955,1.0938749,-1.2641615,-0.94453681,0.21488865,-0.24834095,0
-1.0075394,4.4487643,2.43103,-0.19492695,0.86069494,0.47032729,0
2.6679184,-1.3203887,4.0001607,0.53505707,-0.26480696,0.80224133,0
-4.0059476,1.0338322,2.53913,-0.82524776,0.21297526,0.5230751,0
-0.53985715,1.4347606,-4.6253877,-0.1107899,0.29444265,-0.9492256,0
0.7530793,3.7944129,3.3213279,0.1477026,0.74420404,0.65141714,0
-4.4295783,-0.53562635,2.0449426,-0.9024961,-0.10913019,0.41664299,0
0.93815285,-2.3277626,4.3859334,0.18565451,-0.46064946,0.86794841,0
2.3796034,0.33469155,4.1473565,0.49645045,0.069825828,0.8652522,0
-0.23496829,-3.2062056,-4.0245719,-0.045616619,-0.62245107,-0.78132826,0
2.83162,-3.9968677,-0.0091499286,0.57808506,-0.81597441,-0.0018679897,0
-0.79864752,-0.59149343,-5.0053773,-0.1565028,-0.11590892,-0.98085266,0
-0.57977134,1.5270875,-4.7139125,-0.11621231,0.30609715,-0.94488055,0
1.9405204,0.83489013,4.6174846,0.38215941,0.16442038,0.90935153,0
2.5828927,0.11707506,-4.3139696,0.51355362,0.023277901,-0.85774165,0
1.2253855,-3.9719198,3.0346675,0.23809868,-0.77176434,0.58965141,0
-2.4338095,0.27138367,-4.1717472,-0.50312227,0.056101006,-0.86239237,0
-2.3039441,4.0247402,0.87117666,-0.48826358,0.85294342,0.1846242,0
-4.5424161,1.0294952,-1.4221526,-0.9327535,0.21139967,-0.29202914,0
-2.5181184,3.9052892,-2.4707015,-0.4784793,0.74206203,-0.4694694,0
-3.1006582,-3.7548161,-1.2309141,-0.61732459,-0.74756396,-0.24506846,0
3.6137252,2.7665031,-1.8441646,0.73591059,0.56337959,-0.37555161,0
2.562289,-2.487716,3.590148,0.50598991,-0.49126354,0.70896709,0
-3.170706,2.6681337,-2.3783803,-0.66360927,0.558424,-0.49778038,0
-3.6960428,-2.7003963,1.6162235,-0.76138228,-0.55627978,0.33294094,0
-2.7725821,-4.1276774,1.1836953,-0.54243463,-0.80754876,0.231581,0
-2.4402385,4.0764623,1.1890208,-0.49825609,0.83234578,0.24277826,0
3.3868036,-0.47331262,-3.4043794,0.70187336,-0.098088212,-0.70551574,0
-0.77418995,2.1257789,4.3629127,-0.15752852,0.43254346,0.8877449,0
1.9463638,2.7328844,3.7244329,0.38827702,0.54517877,0.7429812,0
-4.72787,1.3025503,-1.7396028,-0.90860766,0.25032565,-0.33431894,0
-3.5287595,-0.43405282,-3.7263262,-0.68515015,-0.08427646,-0.72351003,0
-4.0056138,-2.4149375,1.6074347,-0.80990589,-0.48828274,0.32501158,0
-3.154675,-1.2387998,3.8261094,-0.61719233,-0.24236341,0.74855429,0
2.28227,-0.44417724,-4.3615651,0.46175486,-0.089867108,-0.88244337,0
-1.2281815,4.7454538,-1.4269871,-0.24057005,0.92951578,-0.27951109,0
-2.2902422,2.0156362,-4.204412,-0.44087917,0.38801661,-0.80936313,0
-5.0083137,-0.12364705,0.80896187,-0.98691177,-0.024365233,0.15940975,0
-1.8111504,-1.3892117,4.548924,-0.35586107,-0.27295709,0.89378822,0
-2.2249722,-3.9245553,-2.3689189,-0.43665192,-0.7701959,-0.46490151,0
-1.8000865,-4.000216,-2.1994448,-0.36683333,-0.81519002,-0.44821715,0
-0.15314911,-0.071709812,-5.0554023,-0.030277215,-0.014176859,-0.99944097,0
-1.7918456,-4.8371224,-0.14711829,-0.34722751,-0.93734753,-0.028508883,0
3.326632,-2.8900194,-2.3677058,0.66499764,-0.57771826,-0.47330716,0
1.127768,-0.55221361,-4.9593005,0.22044781,-0.10794266,-0.96940762,0
1.6702641,-4.6479788,1.0945209,0.33016998,-0.91879064,0.21635976,0
-2.1293645,-4.7218432,-0.26275471,-0.41056475,-0.91042298,-0.050661977,0
-1.1666273,-4.6637406,-1.3886735,-0.23313946,-0.93200451,-0.2775133,0
-2.3549879,-3.0605915,3.382278,-0.45874751,-0.59619784,0.65886182,0
-4.2395568,0.72844303,-2.7238748,-0.83266395,0.14306879,-0.53497863,0
-2.9392843,3.8876631,-1.0547436,-0.589441,0.77962792,-0.2115172,0
2.1601512,3.8445399,2.1136725,0.44172794,0.78616744,0.43222353,0
1.8701745,4.17837,-2.3626587,0.3630313,0.81108958,-0.4586305,0
-4.5783129,1.8266072,-0.53273827,-0.92342883,0.36841995,-0.10745135,0
-4.1570492,-1.8633859,-2.0298872,-0.83351785,-0.37362209,-0.40700677,0
2.2856271,2.3281975,-3.8946183,0.44987217,0.45825115,-0.76656443,0
0.26269549,-0.25376883,-5.1220503,0.051157273,-0.049418896,-0.99746716,0
-2.7796962,3.2463498,-2.6143119,-0.5548293,0.64797366,-0.52181846,0
-2.6830683,0.84285671,4.1404047,-0.53605419,0.16839559,0.82721758,0
-0.84889805,-4.1552024,2.5031812,-0.17237708,-0.84375465,0.50829554,0
3.0602243,1.6079483,-3.8361516,0.59261137,0.31137863,-0.74286944,0
4.7024674,-0.31752422,1.797716,0.93221843,-0.062946089,0.35637972,0
-3.0577149,3.1074326,2.3291988,-0.61862439,0.62868309,0.47123399,0
-0.025629684,-2.7444587,-4.0522346,-0.0052367328,-0.56075591,-0.82796454,0
-2.198334,1.3813761,-4.1513824,-0.44896835,0.28212008,-0.84784174,0
-1.5488448,-0.75755286,-4.8745732,-0.29955304,-0.14651388,-0.94276279,0
0.083949901,-1.7684742,4.5990105,0.017035196,-0.35886052,0.9332357,0
0.72468066,-2.2667384,-4.5771408,0.14047395,-0.43939036,-0.8872447,0
-3.5933263,3.5373843,-0.59191346,-0.70777237,0.69675356,-0.11658835,0
3.9045291,2.8792863,1.1869032,0.78177601,0.57649899,0.23764518,0
-0.091062687,-2.0277584,4.4397764,-0.018653607,-0.4153733,0.90945971,0
-0.07206732,-3.4401875,3.8418951,-0.01397319,-0.66702068,0.74490809,0
-0.88783431,-3.4100108,-3.473809,-0.17942904,-0.68915445,-0.70204788,0
-3.3871434,1.7664456,-3.4590814,-0.65725416,0.3427678,-0.67121327,0
2.9423764,-1.0304759,-3.7120149,0.60698509,-0.21257766,-0.7657544,0
-1.8653916,-2.3694739,-4.0558624,-0.36908349,-0.46882045,-0.80248666,0
-1.3797973,4.0414724,2.902113,-0.26723203,0.78273153,0.56206626,0
-3.7528427,-2.0131738,2.1281869,-0.78826833,-0.42285845,0.44701645,0
4.4002943,-0.43526405,-2.4290597,0.87220293,-0.086275727,-0.48147532,0
-4.3671036,-2.1060193,-0.062701456,-0.900657,-0.43433845,-0.01293134,0
2.5590277,1.3766431,4.1064672,0.50869328,0.27365437,0.81629926,0
-3.219492,0.40316126,-3.809216,-0.64341223,0.080571376,-0.76126802,0
4.0420041,-2.5637319,0.58544296,0.8382138,-0.53165597,0.1214067,0
-1.3998773,2.5009665,4.0179372,-0.28363928,0.50673896,0.81410342,0
-4.3549175,-1.5632826,-2.0259027,-0.86217499,-0.30949453,-0.40108284,0
3.9441867,2.6554148,-1.2410039,0.802634,0.54037154,-0.25254178,0
1.532656,-0.28564349,4.7406964,0.30711633,-0.057237748,0.9499492,0
-0.65389752,-3.0502515,3.81336,-0.13272263,-0.61911446,0.7740038,0
-1.516019,-2.2284751,4.3324208,-0.29711995,-0.43675205,0.84909797,0
-2.2179375,-4.1738954,1.5562801,-0.44570825,-0.83877009,0.31274411,0
-3.6266563,-3.0000279,-2.0861282,-0.70444107,-0.58272487,-0.40520918,0
1.9767354,-3.5091951,-3.2476175,0.38206112,-0.67825317,-0.62769574,0
-5.0054941,1.0583341,1.1633489,-0.95401734,0.20171218,0.22172737,0
1.4267701,-2.0605469,-4.2711072,0.2881107,-0.41609058,-0.86247367,0
4.5887313,-0.11602788,1.5065396,0.94983053,-0.02401684,0.31184161,0
4.2933784,-1.8904011,1.964793,0.84416062,-0.37168917,0.38631603,0
-0.15807092,-4.9906006,-1.4863563,-0.030342013,-0.95795524,-0.2853089,0
0.66255999,-4.8588881,-0.97357434,0.13252358,-0.97186261,-0.19473189,0
4.4685211,-0.020484164,1.8260002,0.92568594,-0.0042434405,0.37826896,0
-0.61879438,4.7515802,1.5844109,-0.12260982,0.94149268,0.31394005,0
-4.5045991,-2.1699228,-0.20897247,-0.90013433,-0.43360621,-0.041758057,0
-3.8143928,-0.07691659,3.4075272,-0.74567664,-0.015036444,0.66613835,0
1.1984056,4.6679416,0.30250576,0.24817848,0.96668661,0.062646084,0
2.8217306,1.4177538,-3.940136,0.55882031,0.28077435,-0.78031117,0
0.12625903,-0.19832632,-4.9448166,0.0255048,-0.040062662,-0.99887156,0
2.4448049,-1.5428338,-4.2678123,0.47428036,-0.29930231,-0.82793498,0
4.4814439,-0.096043877,2.5351968,0.87022781,-0.018650251,0.49229643,0
-2.2782218,0.84501201,-4.0711808,-0.48051718,0.17822795,-0.85868388,0
0.092043541,-0.81033522,4.8811426,0.018599145,-0.16374362,0.98632759,0
-0.99340546,0.11952043,5.0601683,-0.19258973,0.023171211,0.98100573,0
-0.97399235,0.77420068,-4.810461,-0.19602318,0.15581363,-0.96814096,0
2.2405269,-3.6560693,-2.6843278,0.44288859,-0.72270113,-0.53061545,0
-3.8078408,-1.4239296,2.9310603,-0.759772,-0.28411424,0.58482951,0
1.9656636,3.4754672,3.0165238,0.39280194,0.69450861,0.60279715,0
-0.34071839,4.4192729,2.1988449,-0.068862244,0.89317471,0.44440627,0
4.9921412,-1.0225414,0.52390796,0.97452319,-0.1996118,0.10227284,0
-0.40698761,-2.7755489,-4.2265706,-0.080229521,-0.54714435,-0.83318442,0
1.6068155,-2.7066514,-3.8937421,0.32092023,-0.54058433,-0.77767527,0
2.1876409,2.7550192,3.3333552,0.45139918,0.56847239,0.68780661,0
-2.9102616,-2.0363441,-3.4573057,-0.58713204,-0.41082314,-0.6974957,0
1.5014179,-4.6559997,0.14047074,0.30678052,-0.95134741,0.028701996,0
1.6159545,2.2948992,-4.2222109,0.31872848,0.45264253,-0.83278263,0
3.4140325,-3.1826901,1.7481686,0.6849851,-0.638569,0.35074928,0
-3.0049899,3.5528247,-2.0041895,-0.59311098,0.70124012,-0.39557764,0
4.7955723,-1.8086829,0.30529678,0.93400848,-0.35226771,0.059461053,0
-2.2358851,4.0812845,2.3964493,-0.42715141,0.77970302,0.45782617,0
-3.4273968,-3.6570768,-0.78934747,-0.67549729,-0.72076434,-0.15557057,0
1.755983,-3.692703,-2.8686795,0.35155642,-0.73929727,-0.57432371,0
-1.8423843,3.3513522,-3.2132976,-0.36883685,0.67092526,-0.64328736,0
-4.5063577,1.77379,0.15522695,-0.93003225,0.36607876,0.032036085,0
-1.8406286,-1.6778214,-4.4761581,-0.35932928,-0.32754591,-0.87383991,0
3.2197697,0.58531064,-3.7513578,0.64677757,0.11757543,-0.75356138,0
-3.0889277,-4.0506501,-0.1430006,-0.60614198,-0.79486132,-0.028061086,0
3.3856285,-3.0816619,-1.8589147,0.68519431,-0.6236766,-0.3762131,0
-3.7987456,-2.3881075,-2.1963503,-0.76039606,-0.47802821,-0.4396441,0
-1.1830903,4.5836697,1.7072003,-0.2350983,0.91084588,0.33924705,0
4.9132199,-0.5947904,0.73056781,0.98210919,-0.11889334,0.14603405,0
-1.5710553,3.4434774,3.2786472,-0.31373906,0.68766093,0.65474445,0
0.42362317,3.3801405,3.7102475,0.084103316,0.67107058,0.73660779,0
-4.8832302,0.048032198,-1.5341351,-0.95398498,0.0093835415,-0.29970774,0
-4.0677547,2.6695662,1.696625,-0.78942019,0.51807678,0.32926026,0
-2.3969345,-4.1237483,1.4055234,-0.48203483,-0.82930523,0.28265738,0
3.0056136,-2.4473217,-3.0191343,0.61175859,-0.4981246,-0.6145106,0
4.2613177,2.4996459,0.62783653,0.85567188,0.50192845,0.12606947,0
-3.6114631,3.6423926,-0.31662807,-0.7027477,0.70876622,-0.061612055,0
-0.028575886,-4.7793145,-0.52130675,-0.0059437174,-0.99408621,-0.10843059,0
1.9400012,4.4278078,-0.68932295,0.39729232,0.90676951,-0.14116625,0
3.0609062,3.3685737,2.5907867,0.58445102,0.64319718,0.49468616,0
4.5248809,-2.4336591,0.79433143,0.87035924,-0.46811345,0.15278937,0
-1.79053,0.62471998,-4.4720306,-0.36861125,0.1286093,-0.92064404,0
1.4701078,0.37736318,-4.9055624,0.28629202,0.073488533,-0.95532,0
-4.3657813,2.1188557,1.4572407,-0.86163324,0.41817865,0.28760192,0
-0.021703124,-2.1876376,4.616116,-0.0042485981,-0.42825136,0.90364969,0
1.0920141,-4.0424967,2.5842307,0.221926,-0.82154173,0.52518368,0
-1.1148061,-4.6203775,1.9986964,-0.21621069,-0.8960976,0.38763651,0
2.9895134,4.1009264,-0.23408331,0.58845061,0.80721921,-0.046076551,0
2.5165811,-2.7041497,3.2871082,0.50893861,-0.54687136,0.66476548,0
-0.75449508,-4.5650153,-1.7179643,-0.15286833,-0.92491823,-0.34807694,0
4.3030415,1.6482748,1.7644583,0.87208563,0.33405134,0.35759795,0
0.063816644,3.4418736,3.8563259,0.01234528,0.66582781,0.74600327,0
2.185626,-3.9714329,-2.1253333,0.43654689,-0.79323572,-0.42450431,0
1.8821971,4.219449,-1.7679138,0.38047922,0.8529461,-0.35737726,0
4.655962,1.3651969,-1.1817589,0.93234366,0.27337697,-0.23664398,0
-1.711051,-2.697942,3.8418317,-0.34244138,-0.53995293,0.76888543,0
-2.3993223,-4.019938,1.3800074,-0.49159557,-0.82364243,0.28274879,0
-4.8670192,0.88290709,1.1041194,-0.96030849,0.17420584,0.21785311,0
2.7062352,1.5819461,4.0148335,0.53129709,0.31057292,0.78820544,0
-3.7850332,-3.4983542,-0.80316609,-0.72561318,-0.67065507,-0.15397167,0
-1.196447,-4.4940858,-1.6768911,-0.24201405,-0.90905148,-0.33919698,0
1.2827951,3.5977602,3.0262997,0.26323545,0.73827696,0.6210106,0
0.72397351,-4.6657443,1.6506766,0.14474249,-0.93281233,0.33001626,0
4.3625016,-2.2725763,-0.8643747,0.87349373,-0.45503277,-0.17307177,0
-4.7734723,-0.88320464,-0.94937372,-0.9650293,-0.17855312,-0.1919302,0
2.6195114,2.0365069,-3.8033011,0.5190022,0.40349185,-0.7535457,0
2.0706551,-3.118365,-3.3096066,0.41441867,-0.62410617,-0.66238105,0
1.2179508,-2.0157437,4.349854,0.24622481,-0.40750915,0.87938029,0
-2.0245113,3.7767105,-2.2695394,-0.41750935,0.77886051,-0.46804079,0
2.9124398,-3.430455,2.5240133,0.56447542,-0.66487467,0.48919243,0
-4.1047316,2.6927834,-0.022567187,-0.83612758,0.54851586,-0.0045969016,0
0.29170087,4.8745418,-0.31723505,0.059609186,0.99611449,-0.064827107,0
-1.3372068,-4.0150099,2.4184792,-0.27434593,-0.82373315,0.49618348,0
-4.4442501,-1.8721312,0.79189193,-0.90939188,-0.38307944,0.16203859,0
-2.8762853,0.41810244,-4.0845284,-0.57375348,0.083401926,-0.81477052,0
4.017005,-2.96983,0.36422092,0.80197674,-0.59291303,0.072715044,0
-2.1689105,-2.1569362,4.0857596,-0.42495009,-0.42260399,0.80051434,0
-1.726701,-2.7655127,3.6607249,-0.35223788,-0.56414998,0.74676853,0
1.7743982,-4.5653334,-1.0332153,0.35446662,-0.91200399,-0.20640256,0
-4.4596815,-1.0759863,1.4795886,-0.92517966,-0.22321787,0.30694687,0
2.1885457,-4.1405859,-1.5854139,0.44262549,-0.83741862,-0.32064426,0
3.9620416,1.216859,-2.4165578,0.82581484,0.25363192,-0.50368708,0
-0.31982014,4.8143563,-0.38681108,-0.066072427,0.99460965,-0.079912245,0
4.1563158,1.7520651,2.6963711,0.79092473,0.33340862,0.51310503,0
-2.6196523,-3.4754,2.3372579,-0.53029227,-0.70352,0.4731276,0
-4.5963168,-1.7760093,1.1296334,-0.90920132,-0.35131389,0.22345375,0
0.57287109,-3.8880627,-2.9590139,0.11645026,-0.79034519,-0.601493,0
2.8290064,0.88311303,-4.0280046,0.5657109,0.17659439,-0.80547225,0
0.23491219,-4.3379054,-2.5585849,0.04659364,-0.86040151,-0.50748229,0
-3.6345615,0.10194124,-3.5680463,-0.71346349,0.020011039,-0.70040655,0
1.5367202,-4.7997136,-0.40592203,0.30393755,-0.94930303,-0.080284588,0
-2.2922597,-1.5588681,3.9367437,-0.47608435,-0.32376465,0.81763077,0
-1.8092266,4.7596002,0.0077088978,-0.35531664,0.93474478,0.0015139617,0
2.779439,-2.3761449,-3.587991,0.5425424,-0.46381998,-0.70037055,0
-0.99383461,2.8028328,3.9756794,-0.20017467,0.56453675,0.80076736,0
4.6177316,-1.1830872,1.5399895,0.92180192,-0.23617052,0.30741614,0
1.9293108,-4.7715034,0.73072189,0.37113497,-0.91787791,0.14056648,0
-3.4520938,0.53466791,3.6222162,-0.68599778,0.10624885,0.71980435,0
-1.6261942,-1.3579879,-4.6492825,-0.31828415,-0.2657899,-0.90997303,0
-1.8555088,-2.7264526,3.6924491,-0.37478805,-0.55070704,0.74582547,0
-0.18763541,5.0227084,0.88421941,-0.036766775,0.98418945,0.17326099,0
1.5226742,-4.1314917,-1.8089625,0.31987187,-0.86791247,-0.38001314,0
-0.62601411,4.6690817,1.3536943,-0.12771888,0.95258218,0.27617958,0
4.5861096,-0.74524784,-2.1160824,0.89827758,-0.14597109,-0.41447535,0
-4.679492,-1.0972245,1.3321365,-0.93822557,-0.21999057,0.26708978,0
1.5688285,-3.2787642,3.7073939,0.30216587,-0.63150984,0.71406651,0
-2.9752896,-3.1763425,2.7150307,-0.58002269,-0.61921728,0.52928609,0
-1.8055499,-4.545939,0.579759,-0.36656329,-0.9229179,0.11770285,0
2.4668834,-2.976902,3.1614318,0.49394888,-0.59607089,0.63301969,0
2.9765711,-3.446209,-2.252058,0.58591998,-0.67836529,-0.44330394,0
4.8755212,0.44629869,-1.3584253,0.95958453,0.087839082,-0.26736093,0
3.8018699,-1.1767516,-2.7855105,0.78263527,-0.24224062,-0.57341224,0
3.2987545,3.3773193,-1.1092066,0.68021476,0.69641513,-0.22872229,0
3.9667346,-1.4135941,-2.9331875,0.77295011,-0.27545017,-0.57155514,0
0.57381672,4.1705551,-2.8533905,0.11282882,0.82005072,-0.5610584,0
-0.51244402,5.1242833,0.24244177,-0.099396653,0.99393606,0.047025431,0
1.5178472,-4.3086448,-2.4463689,0.29290825,-0.83146554,-0.47209078,0
0.77213341,3.9703741,-2.6706667,0.15930431,0.81915599,-0.55100411,0
1.2543837,-4.011951,2.381259,0.2596471,-0.83044082,0.492901,0
3.6743116,-3.3332782,0.78351015,0.73157477,-0.66367322,0.15600099,0
3.2339125,3.8858135,-0.39862281,0.637707,0.7662577,-0.078605883,0
-2.7198765,3.0876012,-2.8402545,-0.54399645,0.61754429,-0.56807303,0
-5.1099272,-0.38723958,-0.0022117482,-0.99714077,-0.075565144,-0.00043159604,0
-3.7365632,3.2291131,1.4117607,-0.72747374,0.62867796,0.27485654,0
1.8621849,1.4932634,-4.2989473,0.37871107,0.30368379,-0.87427348,0
4.4704194,-0.57986224,-2.2121794,0.89027053,-0.11547782,-0.44054887,0
4.8750014,-1.2497612,0.77645516,0.95734817,-0.24542694,0.15247953,0
-2.1720545,3.4663389,-2.6926267,-0.44352067,0.70780587,-0.54981846,0
4.9728222,-0.89285016,0.99552888,0.96569264,-0.17338622,0.19332582,0
3.4400039,-1.7068539,2.9650652,0.70903671,-0.35180834,0.61114466,0
-3.0661902,4.0037298,0.21825075,-0.60744619,0.79318315,0.043237887,0
-3.4364512,-3.3069549,0.37648654,-0.7183181,-0.69124961,0.078696623,0
0.6195935,1.1961485,-4.8614354,0.12282256,0.23711357,-0.96368659,0
-4.6637883,0.039101269,-1.8087353,-0.93231082,0.0078165075,-0.36157376,0
-0.18882336,2.9592328,4.0688157,-0.037504561,0.58777016,0.80815822,0
-2.4082518,-2.8041706,3.6906149,-0.46105245,-0.53684992,0.70655698,0
3.6262126,2.8583326,2.2336018,0.70697737,0.55726922,0.43546978,0
-2.7593615,-3.8618188,1.5957435,-0.55105603,-0.7712214,0.31867668,0
1.5418259,1.8749191,-4.4844351,0.30236119,0.36768273,-0.87942427,0
0.059826564,-4.7776661,-1.5050337,0.011942691,-0.95372671,-0.30043766,0
-0.57614511,3.90851,-3.3158729,-0.1117026,0.75777906,-0.64287907,0
-3.040844,-0.0022864894,3.9357643,-0.61139351,-0.00045972262,0.79132664,0
-4.4955182,1.5383363,-0.74909574,-0.93459481,0.31981209,-0.15573311,0
-4.5174232,0.003078256,-2.0258644,-0.91244793,0.00062175893,-0.4091925,0
4.6600389,1.0943451,1.5625325,0.92545909,0.21733114,0.31031069,0
4.4484086,-0.64880705,1.7771009,0.920237,-0.13421795,0.36762676,0
2.7703419,-0.45106143,3.9925809,0.56763875,-0.092421785,0.81807363,0
-3.4759481,-3.4785364,-1.080673,-0.69036996,-0.69088399,-0.21463616,0
-2.1418481,4.5023971,-0.13395081,-0.429427,0.90270215,-0.02685629,0
-2.2996194,-2.9696827,3.5565562,-0.44457239,-0.57411194,0.68756884,0
-1.7235073,-4.7076197,-0.3099077,-0.3431389,-0.93725598,-0.061700575,0
1.0576122,4.4939985,1.7941884,0.21352322,0.90730143,0.36223191,0
4.0639267,-0.50001121,-2.4674654,0.85009164,-0.10459228,-0.5161441,0
-0.91699046,-1.4818534,4.4714599,-0.19107819,-0.30878168,0.93174189,0
-1.1617353,-4.7545681,0.33065689,-0.23681834,-0.96921301,0.067404009,0
-4.831254,0.14422657,-0.65579981,-0.99047929,0.029568601,-0.13444877,0
-5.0473313,0.10983104,-0.54464149,-0.99399585,0.021629568,-0.10725894,0
-3.7835014,3.0180323,-0.12813777,-0.78147799,0.62337124,-0.026466714,0
-3.7133224,-0.83446014,3.4454024,-0.72330898,-0.16254245,0.67112154,0
3.8935318,3.3153162,-0.27399272,0.76028746,0.6473797,-0.053502385,0
2.7084727,-3.1673021,2.9236631,0.53204119,-0.6221717,0.57431227,0
-0.42899162,-4.3031034,-2.8228161,-0.083070196,-0.83325559,-0.54661185,0
-2.9217567,0.38779688,-3.9881721,-0.58917207,0.078199215,-0.8042146,0
-3.8656793,3.0662484,0.95797002,-0.76910001,0.61004847,0.19059387,0
3.3253503,-1.0699582,3.2784224,0.69412595,-0.22334062,0.68433034,0
3.6329396,-1.1833045,-3.0665483,0.74153703,-0.24153006,-0.62592816,0
-4.911828,-0.69143647,-1.0018764,-0.97063559,-0.13663606,-0.19798268,0
3.7573051,-2.8111675,1.3823665,0.76806247,-0.57465452,0.28258124,0
-0.057731673,-1.8360528,-4.6423111,-0.011563583,-0.36775911,-0.92984921,0
0.98139518,4.5564046,1.9312416,0.19452207,0.90312368,0.38279086,0
-1.949245,2.7724125,3.6981382,-0.38859159,0.55269408,0.73724204,0
-1.2496104,-2.6928174,4.1658564,-0.24428479,-0.52641553,0.81437808,0
4.3142338,-1.5017849,-2.1720679,0.85291106,-0.29689837,-0.42941132,0
-2.7607982,-3.4758608,2.6582406,-0.53359485,-0.67179894,0.51377296,0
3.3993793,-3.4507339,-1.4625964,0.67182809,-0.68197745,-0.28905669,0
0.14188853,-4.7737846,1.6142807,0.028145032,-0.94692874,0.320209,0
-2.9471354,3.8169689,-1.3079494,-0.58983314,0.76391971,-0.2617701,0
1.8630719,4.3371668,0.87272495,0.38810882,0.90350384,0.18180309,0
-3.7462902,2.7125823,-1.4897444,-0.77096355,0.55823278,-0.30658025,0
-0.3587338,-0.79456329,4.8271141,-0.073133267,-0.16198365,0.98407966,0
3.2083404,-3.2628019,-2.5562239,0.6121003,-0.6224907,-0.48768684,0
-0.17632461,-2.0716939,-4.3177714,-0.036793303,-0.43229622,-0.90098071,0
-1.120791,0.053622913,4.8533263,-0.22499754,0.01076474,0.97429991,0
-2.1467035,-1.9245396,-3.9824793,-0.43662924,-0.39144215,-0.81001729,0
2.8195522,1.2465653,4.0836449,0.55105591,0.2436299,0.79811138,0
-2.674736,1.7490609,-3.8458896,-0.53490132,0.34978214,-0.76911187,0
-0.11174972,-5.1878228,0.19798042,-0.021520121,-0.99904114,0.038125932,0
-2.0697067,-3.8617597,2.0488155,-0.42790931,-0.79841405,0.42359009,0
-1.3756012,-4.8233719,0.84246182,-0.27047059,-0.94837099,0.16564478,0
-4.451642,1.7076433,-0.87526488,-0.91831833,0.35226554,-0.18055625,0
1.0828356,1.94391,4.5220375,0.21485448,0.3857075,0.89725542,0
3.6537092,-2.9397783,1.7621207,0.72932893,-0.58681881,0.35174271,0
-2.1527429,0.33113527,4.6189976,-0.42154694,0.064842418,0.90448529,0
3.6555688,-3.4804745,0.13291185,0.72398788,-0.68931031,0.026323279,0
0.14718248,2.9933264,-4.0805073,0.029071212,0.59123629,-0.8059743,0
-2.8431191,-4.2618794,-0.25560492,-0.55426294,-0.83084869,-0.049829897,0
-4.6355271,0.94134778,-1.1393793,-0.95274723,0.19347671,-0.23417842,0
1.0842465,-2.7381799,4.0636415,0.21604536,-0.54560572,0.80971527,0
1.3406384,1.7239814,4.4229727,0.27178267,0.34949639,0.89665294,0
-1.8643967,-2.420037,-3.7992342,-0.38243142,-0.49640626,-0.77931184,0
0.59218162,4.7207103,-1.6055211,0.11793386,0.94013655,-0.31974193,0
-1.2283539,-3.4656196,3.5654714,-0.23983255,-0.67665225,0.69614798,0
-2.7410536,3.71258,1.3908874,-0.56869811,0.7702648,0.28857335,0
0.51484966,-4.086566,-2.7625065,0.10381103,-0.82398927,-0.55701429,0
1.5952355,4.5951605,-0.85946411,0.3229529,0.93028295,-0.17399715,0
0.67599416,1.5689317,-4.6511197,0.13642833,0.3166399,-0.93868339,0
1.2551639,4.5786304,-1.5322633,0.25160143,0.91780043,-0.30714685,0
-1.1725895,-1.4845996,4.7407494,-0.22972658,-0.29085368,0.92877865,0
4.3237972,-0.43222928,2.4621983,0.86572152,-0.086542033,0.49298751,0
-1.834776,4.6936316,-0.68702698,-0.36074197,0.92283195,-0.13507888,0
1.5345808,4.6664548,0.17231159,0.31220326,0.9493683,0.035055984,0
0.61326021,-1.4337559,-4.6201773,0.1257648,-0.29402855,-0.94748634,0
2.8915687,2.0173986,3.5198665,0.58040082,0.40493584,0.70651388,0
2.3036439,4.247416,0.57323575,0.47343674,0.8729139,0.11780938,0
-4.2606888,-2.2958381,-0.074177168,-0.88022786,-0.47430375,-0.015324473,0
-4.3362069,2.9550292,-0.052743081,-0.82631642,0.56311637,-0.010050829,0
3.3246212,0.64522368,3.6972802,0.66307944,0.12868671,0.73740447,0
-3.7873549,-2.9021327,-0.1121397,-0.79353964,-0.60806483,-0.023495896,0
-1.4518682,-4.9570279,0.34514734,-0.28045714,-0.95754826,0.066672057,0
3.4608884,-2.1214349,-2.9864357,0.68674594,-0.42095748,-0.59260005,0
1.7908235,1.4495159,-4.5211072,0.35292006,0.28565809,-0.89098084,0
-4.4354577,-0.69501662,-2.1307611,-0.89252615,-0.13985491,-0.42876297,0
-0.64180607,4.5732074,-2.2001684,-0.12546651,0.89401519,-0.43011039,0
0.61334425,-3.3640869,3.4065874,0.12707028,-0.69695842,0.70576352,0
0.17446998,-4.9925895,1.0273409,0.034208603,-0.9789049,0.20143235,0
1.7466701,4.87675,0.17706758,0.33699098,0.94088793,0.034162249,0
-0.52495611,2.961426,4.1997395,-0.10162536,0.57329744,0.81302047,0
-2.9534061,-3.2155037,2.7980001,-0.56953537,-0.62007833,0.53956681,0
-2.1938887,3.5965497,2.7313385,-0.43695915,0.71632862,0.54400361,0
0.2029784,-2.3350172,-4.4382191,0.040441252,-0.46522692,-0.88426715,0
-1.8474549,-4.0647111,-2.6595645,-0.35548857,-0.78213453,-0.51175523,0
-1.358163,-0.35659879,4.8094854,-0.27107519,-0.071173407,0.95992321,0
-1.524182,3.2449107,3.4332471,-0.3070567,0.65370905,0.69165069,0
2.0171001,4.6295724,-1.1528856,0.38941333,0.89376688,-0.22257151,0
-4.4672422,-2.5923903,0.29317313,-0.86352444,-0.50111282,0.056670792,0
-3.2101457,-1.5551761,-3.3586748,-0.65520948,-0.31742054,-0.68552512,0
3.2658114,3.83953,-0.71324766,0.64151251,0.75420964,-0.14010523,0
4.7788053,-1.1555901,-0.95308995,0.95422119,-0.23074566,-0.19031088,0
1.9525218,-4.7705736,0.031953011,0.37877902,-0.92546636,0.0061987173,0
4.2775655,1.9692767,-1.3011879,0.87555259,0.40308097,-0.26633337,0
1.5923158,0.99980527,-4.4419961,0.33011442,0.20727681,-0.92090213,0
-4.6394396,-0.30549386,2.0492275,-0.91308695,-0.060124174,0.40330794,0
2.7202103,-3.9622307,-1.8415098,0.52852035,-0.76983738,-0.3577942,0
-1.765588,-4.2547617,-2.1847734,-0.34630337,-0.83453119,-0.42852262,0
3.0301001,-3.7997351,-1.4135165,0.59867126,-0.75073171,-0.27927518,0
-4.5166545,-0.15527591,-1.6996245,-0.93544394,-0.032159183,-0.35200912,0
0.92304641,4.4154201,2.3029964,0.18224898,0.87179345,0.45471033,0
-4.1419034,1.0654517,-2.0519292,-0.87317115,0.22461213,-0.43257537,0
2.392503,0.83182007,-4.1584105,0.49136207,0.17083566,-0.85403663,0
1.3606071,2.4574101,4.3407626,0.26315662,0.47529054,0.83955193,0
-4.5978894,1.4467394,0.089103661,-0.95373052,0.3000941,0.018482585,0
2.7516325,1.0163937,-3.9376426,0.56039691,0.20699853,-0.80193949,0
-1.9450887,0.151219,-4.6362414,-0.38669699,0.030063374,-0.92171663,0
-2.8650045,-1.1512254,-3.8291638,-0.58244234,-0.23403887,-0.7784515,0
1.0337918,-3.5392077,-3.2720346,0.20971122,-0.7179507,-0.66375297,0
-2.000664,3.4285977,3.0943329,-0.39749554,0.68119997,0.61478764,0
2.3555613,-4.1318145,1.4045168,0.47499236,-0.83316886,0.28321689,0
0.28783038,4.9474583,1.0058342,0.056918733,0.97836459,0.19890468,0
-0.25601116,5.1147346,-0.66825879,-0.04957081,0.99035347,-0.12939331,0
-2.7498205,3.0126994,3.0172935,-0.54198068,0.59379327,0.59469873,0
-4.4373322,2.4963906,0.17155704,-0.87104839,0.49004152,0.03367665,0
-4.7442527,0.7256788,0.71507215,-0.97771084,0.14955021,0.14736436,0
-4.1499319,2.1493938,-2.3187356,-0.79544467,0.41198841,-0.44444725,0
-3.6809812,-0.7622599,-3.6270015,-0.70468533,-0.14592668,-0.69435149,0
-4.0099444,-3.2825015,0.37138811,-0.77182275,-0.63180661,0.071483731,0
-4.9175563,0.7826643,0.15135777,-0.98711425,0.1571063,0.030382451,0
3.9761059,2.9509671,-0.39661449,0.80044228,0.59406835,-0.0798437,0
0.84442586,3.8251903,-2.8102534,0.17515342,0.79343277,-0.58291143,0
-0.057314146,3.6161668,-3.4920409,-0.011400458,0.71929812,-0.69460803,0
4.5402932,2.3425422,-0.51447105,0.88421547,0.45620668,-0.10019249,0
2.9976063,1.4383768,3.7851825,0.59499067,0.28550139,0.75131559,0
-4.6332989,0.37917304,-1.9330313,-0.92027974,0.075312488,-0.38394448,0
-1.2212822,-4.524888,1.5179757,-0.24790065,-0.91847944,0.30812463,0
-2.4818752,1.4803344,-4.037148,-0.49989003,0.29816341,-0.81314725,0
4.1348844,1.0797886,-3.0350566,0.78885329,0.20600209,-0.57902813,0
4.5320706,-1.7915264,-0.37334651,0.92725921,-0.36654535,-0.076386489,0
1.6956903,0.67518592,-4.9159842,0.32336637,0.12875725,-0.93747312,0
4.2268605,1.1943009,2.3970585,0.8447203,0.23867601,0.47904205,0
-0.53810281,-3.5522313,3.3865657,-0.10898771,-0.71947134,0.68591732,0
-0.10993894,-4.4157648,2.1068242,-0.022464711,-0.90230882,0.43050438,0
-3.6983142,2.2414067,-2.3384516,-0.75225896,0.45591536,-0.4756549,0
3.4780948,-3.7634799,0.49095023,0.67561996,-0.73105597,0.095367081,0
-2.707232,2.8097451,-2.9536395,-0.55321383,0.57416207,-0.60356641,0
-1.6744268,3.2491584,3.376189,-0.33650863,0.65298158,0.67851084,0
4.1136122,2.3295674,1.9180311,0.80631894,0.45662406,0.37595785,0
-3.3463068,3.0775867,2.3302526,-0.65501404,0.60241407,0.45612916,0
-1.2129912,-4.7028508,1.1374962,-0.24317257,-0.94279683,0.22803782,0
-1.8431938,1.2115542,-4.5738587,-0.36298105,0.23859195,-0.90073228,0
-4.8856964,0.75702089,0.030989338,-0.98818827,0.15311618,0.0062679499,0
-2.4342253,-3.0268838,3.3693399,-0.47340259,-0.58866143,0.65526152,0
4.8683815,-0.15397197,-1.8850371,0.9321304,-0.029480424,-0.36092085,0
2.8912897,-4.1308064,-0.67418522,0.56836748,-0.81203073,-0.13253081,0
0.5903694,-4.4880357,2.5010624,0.1141542,-0.86780936,0.48360699,0
0.65205216,-4.7375913,-1.5339077,0.12983315,-0.94332385,-0.3054235,0
1.9038382,2.7156403,3.8790653,0.37304029,0.53210574,0.76006866,0
-3.8342938,2.2461936,2.3403082,-0.76344258,0.44723746,0.46597651,0
-1.3905119,-1.7862681,-4.610373,-0.27073151,-0.34778494,-0.89763588,0
-4.4359775,0.73889178,-2.0592203,-0.89685744,0.14938772,-0.41632921,0
-3.097044,3.502579,1.7697496,-0.61951095,0.70063132,0.35400829,0
1.9485065,1.4761714,4.2842937,0.39502308,0.29926601,0.86856002,0
-1.3768948,4.852025,0.85824525,-0.26912931,0.9483819,0.16775352,0
-4.0977936,-1.3648465,-2.4670854,-0.82383353,-0.27439311,-0.49599075,0
4.6331477,-1.0054992,-1.9285958,0.90521955,-0.19645339,-0.37680703,0
0.63242096,-4.8149877,-1.6891158,0.12299819,-0.93645662,-0.32851249,0
0.055503368,4.4576859,-2.1557937,0.011208459,0.90019381,-0.43534517,0
0.12712465,2.0243742,4.4869328,0.0258168,0.41111511,0.91121781,0
-1.8295553,3.5640154,3.0496857,-0.36337581,0.7078644,0.60571116,0
3.8574293,-1.0778235,2.7066541,0.79798073,-0.22296776,0.5599215,0
1.2072625,-3.8136396,-2.7775531,0.24790186,-0.7831009,-0.57034868,0
-4.4501362,2.0526655,0.84546471,-0.89483726,0.41275176,0.17000678,0
1.0208222,2.2755826,-4.2205324,0.20823027,0.46417996,-0.8609165,0
1.8135648,-2.5231104,-3.8554144,0.36625099,-0.50954437,-0.77860433,0
-4.2065172,1.9913944,1.2759668,-0.87166905,0.41265419,0.26440418,0
4.6903253,-0.11755494,1.0539914,0.9753775,-0.02444616,0.219183,0
3.6002741,1.4646791,3.4970949,0.68858993,0.28013515,0.66885585,0
-4.4877262,0.019188672,-2.2004931,-0.89786446,0.0038390993,-0.44025514,0
-3.334342,0.58475316,3.6199543,-0.67276281,0.11798435,0.73039019,0
-4.1193342,2.3416388,-1.9342145,-0.80488032,0.45753488,-0.37792787,0
-1.2361796,4.7801838,-0.97429216,-0.24563205,0.94983476,-0.19359435,0
-0.32964799,-3.1831129,-3.756315,-0.066802695,-0.64505333,-0.76121187,0
-1.469337,-2.0692282,4.5509887,-0.2819806,-0.39710581,0.87338072,0
-1.6828513,1.5005829,-4.4418397,-0.33783153,0.30124125,-0.89169705,0
-4.7562408,-1.4515923,0.46533123,-0.95228714,-0.29063556,0.093167894,0
3.0636623,-3.8032849,-0.49099532,0.62417126,-0.77485728,-0.10003229,0
2.6025524,4.0646949,0.22462368,0.53863937,0.84125286,0.046489421,0
2.4005821,-4.4853983,1.0671128,0.46181846,-0.8628906,0.20528871,0
1.8576386,-3.7969396,-2.9155726,0.36176082,-0.73942477,-0.56778532,0
2.1680226,-4.2440028,0.55939746,0.45182037,-0.8844589,0.11657958,0
-0.59215283,2.7855868,-3.885848,-0.12291268,0.57820201,-0.80658233,0
-4.5225768,-1.0006963,1.8157961,-0.90903157,-0.20113856,0.36497247,0
-1.4365408,3.1175165,-3.8406432,-0.27888423,0.60522205,-0.74560696,0
0.99189252,0.19400148,4.8600612,0.19981562,0.03908138,0.9790538,0
2.751312,-1.1416812,3.8496447,0.56523699,-0.23455007,0.79088145,0
4.4929042,0.28781825,-1.8361541,0.9240573,0.05919569,-0.37764251,0
2.2593346,2.0788252,-3.9437587,0.45205376,0.41593698,-0.78907788,0
1.1463438,2.1309958,4.1218777,0.23983808,0.44584697,0.86237931,0
-3.8193312,-1.6532075,-2.9139655,-0.75176144,-0.3254019,-0.57355773,0
-3.4469926,0.70742375,3.5098615,-0.69355381,0.14233753,0.70620334,0
0.046052076,2.0342088,4.3909383,0.0095159346,0.42033714,0.90731812,0
4.5062671,-1.9108573,1.1299601,0.89705378,-0.38039064,0.22493894,0
-4.1811037,1.9620806,1.6209952,-0.85419393,0.40085045,0.33116716,0
2.9786925,3.4308209,2.2499616,0.58750683,0.67668307,0.44377452,0
2.5988226,3.3543229,2.4004524,0.53307045,0.68803865,0.49238074,0
-2.8046176,-2.2236149,-3.2869043,-0.57714927,-0.45758739,-0.67639679,0
3.5086794,-0.78151751,3.5187306,0.69752073,-0.15536462,0.69951892,0
0.90831435,-3.942065,-2.9710624,0.18096884,-0.78540093,-0.59194231,0
-0.33537823,2.9738059,4.126358,-0.065794811,0.58340394,0.80951267,0
-2.3379703,1.5687058,-4.2726736,-0.4569113,0.30657336,-0.83501184,0
-4.904974,1.5409883,-0.48189801,-0.94986242,0.29841685,-0.093320943,0
1.3005784,3.6785648,-2.8077118,0.27056313,0.7652626,-0.58409649,0
1.3021063,-3.9637239,-3.0840309,0.25097263,-0.76398236,-0.59442717,0
-4.5197067,-0.15434839,2.2398751,-0.89558667,-0.030584363,0.4438346,0
-4.7989049,1.5104555,0.37020195,-0.95129496,0.29942012,0.073385753,0
0.61655366,-0.30579925,4.8174553,0.12669691,-0.062839329,0.98994905,0
-2.1039011,-2.2767751,4.0184002,-0.41454554,-0.44860804,0.79177195,0
3.4679916,-3.5356274,-1.4813981,0.67087591,-0.6839599,-0.28657344,0
