2.4931893,-2.0272322,-4.6648664,0.4401423,-0.35788321,-0.82352555,0
3.3230267,1.3922738,4.6796994,0.56265527,0.23573995,0.79236722,0
3.3057308,-4.9178557,-0.36874831,0.55679232,-0.82832646,-0.062109176,0
5.9578657,0.81333417,-0.60996228,0.98575157,0.13456923,-0.10092058,0
-2.7260785,1.4319205,4.8251987,-0.47625217,0.2501598,0.84297329,0
1.4947357,0.98596567,-5.5921435,0.25456029,0.16791444,-0.95236748,0
-2.731576,1.4831475,4.9534464,-0.4671042,0.25362077,0.84704787,0
-2.3864141,-3.9142663,3.7114697,-0.40458474,-0.66361171,0.62923026,0
-1.8221817,0.48583969,5.4063101,-0.31824157,0.08485125,0.94420475,0
2.3246605,-5.1394739,-1.6646603,0.3952651,-0.87387151,-0.2830444,0
2.1582735,4.9498143,-1.6851373,0.38154143,0.87503242,-0.29790002,0
-5.6055069,1.3107526,-1.4790293,-0.94310409,0.22052889,-0.24884075,0
-5.6069217,1.6867079,-0.50421566,-0.95407718,0.28701124,-0.085797638,0
-5.4877853,-1.427156,-0.37301716,-0.96572089,-0.25114581,-0.06564223,0
1.8001578,-2.8213897,4.5999608,0.31644869,-0.49597046,0.80862445,0
2.258651,-4.9840741,2.3803124,0.37850621,-0.8352344,0.39889431,0
-0.87902731,1.3357549,5.6561222,-0.14955014,0.22725384,0.96228397,0
3.8074403,-4.6777587,-0.23202536,0.63080102,-0.77499181,-0.038441006,0
5.5785608,-0.70874,1.9626089,0.93662149,-0.11899505,0.3295154,0
-3.5629892,4.8920121,0.21712008,-0.58835095,0.80781049,0.035852704,0
0.71986639,3.2002468,-4.6744304,0.12605961,0.56041211,-0.81856418,0
-0.033044349,-5.4839211,1.5923394,-0.0057865758,-0.96031922,0.27884319,0
-5.9849987,0.72000337,0.17803201,-0.99240869,0.1193881,0.02952056,0
-5.2103195,-2.816612,0.5846858,-0.87543565,-0.47324592,0.098238654,0
-3.6055751,3.1669397,3.4084687,-0.61254728,0.538028,0.57906109,0
-4.2665792,-0.092491277,-4.2134871,-0.71143526,-0.015422556,-0.70258236,0
3.297869,-4.0405397,2.7783318,0.55807155,-0.68374765,0.47015446,0
1.7529843,5.5259662,-1.5736494,0.29181719,0.91990095,-0.26196355,0
-5.4263811,1.0869595,2.3113203,-0.90478277,0.18123722,0.38538444,0
4.1486607,4.1268301,0.57524085,0.70556867,0.7018559,0.097832032,0
0.63237703,4.3890667,-3.7482593,0.10891201,0.75591302,-0.64554912,0
4.3226628,-3.8886139,1.80111,0.71015471,-0.6388464,0.29589787,0
-1.2939333,3.1015635,4.8676691,-0.21875164,0.52434862,0.82292545,0
2.3772399,-4.0544524,3.181107,0.41887304,-0.71440023,0.56051552,0
-2.2899714,-4.3415823,3.3146489,-0.38663307,-0.73302197,0.55963707,0
2.2686427,5.5679364,-0.62009525,0.3753379,0.92119288,-0.10259229,0
2.195112,4.8115673,2.389854,0.37823662,0.82907432,0.41179234,0
-3.9403005,-3.7877951,-1.1355089,-0.70584852,-0.67852938,-0.20341019,0
5.6277523,0.89040357,-0.80867237,0.97791374,0.15472214,-0.14052001,0
3.9946561,4.0474792,1.2657171,0.68566895,0.69473583,0.21725598,0
-1.8287834,5.5032859,-0.84899294,-0.31202549,0.93896604,-0.14485447,0
-2.9205649,-0.13303906,5.2490244,-0.48608848,-0.02214255,0.87362903,0
3.357197,4.4890037,1.8023443,0.5701611,0.76237863,0.30609661,0
-3.0053194,0.54412228,5.1743584,-0.50017846,0.090558849,0.86117393,0
-4.5674992,3.6423326,-0.46425709,-0.77938491,0.62151712,-0.07921949,0
-0.13208534,5.822114,-0.40582174,-0.022626128,0.99732417,-0.069516987,0
5.1962819,2.0199797,2.0053887,0.87703931,0.34093639,0.33847368,0
-5.9358153,-0.45078921,-0.52075762,-0.99333507,-0.075437777,-0.087146714,0
0.045072295,-5.5403924,-1.995634,0.0076536182,-0.94080073,-0.3388738,0
1.3445575,1.0946034,5.7787304,0.2228591,0.18142945,0.95781893,0
5.2104936,2.904819,0.027129792,0.87342852,0.48693117,0.0045477329,0
-4.8678722,1.3400105,3.1428423,-0.81851405,0.22531764,0.52845693,0
3.3136361,-3.7062585,3.1009588,0.56552553,-0.63253289,0.52922869,0
0.64706117,5.8903394,0.40362862,0.10894196,0.99172246,0.067956626,0
-2.2188239,-5.1239686,1.086603,-0.39005485,-0.90076047,0.19101778,0
5.5715652,-1.5235219,-0.019194636,0.96458232,-0.26376113,-0.0033230891,0
0.29061598,-5.8870592,-0.91014212,0.048727691,-0.98708546,-0.15260388,0
1.0105733,1.2099425,-5.8181458,0.16764824,0.20072244,-0.96519661,0
3.0212216,4.7742271,-1.4044253,0.51894915,0.82005936,-0.24123529,0
-3.4080222,-2.2572544,-4.2431407,-0.57842857,-0.38311383,-0.72016954,0
-1.4441479,2.8128984,-4.9004698,-0.24762358,0.48231897,-0.84026837,0
3.5057948,3.0787332,3.7753098,0.58411938,0.51296437,0.62902474,0
-1.040144,-2.4968336,-5.140892,-0.17905635,-0.42981926,-0.88498265,0
-5.1048036,2.423492,1.4997936,-0.87313646,0.41451922,0.2565279,0
1.7635576,0.44404545,5.7629666,0.29182979,0.073479705,0.95364356,0
-5.3142104,0.1426845,-1.861425,-0.94347507,0.025331942,-0.33047396,0
0.92329043,5.7555304,-0.050866704,0.15838684,0.9873386,-0.0087259831,0
4.1654854,-3.3934631,2.1855412,0.71815032,-0.58504987,0.37679812,0
-1.1927352,-4.949523,2.3962953,-0.21196812,-0.87960941,0.42586002,0
-5.3246942,2.7326901,-0.3127794,-0.88846403,0.45596924,-0.052189521,0
-0.043425549,4.9282031,3.2717659,-0.0073409365,0.83309543,0.55308056,0
2.7241259,-4.638114,-2.6022053,0.45589632,-0.77621198,-0.43549228,0
4.7208543,-3.2326095,-0.61579216,0.82036179,-0.5617435,-0.10700867,0
2.82757,0.10982683,4.9489317,0.49599516,0.019265156,0.86811161,0
-5.1513963,0.60072607,3.0393925,-0.85695291,0.099932902,0.50561363,0
3.2749434,-4.204289,-2.5188468,0.55558699,-0.71324849,-0.42731687,0
-5.1422501,2.8559344,0.74669355,-0.86726028,0.48166433,0.12593275,0
1.3820283,-3.4426246,-4.7289567,0.22994016,-0.5727796,-0.78679794,0
5.3967414,1.2981187,1.5219544,0.93765986,0.22554237,0.26443282,0
-1.9865935,4.9163218,-2.4169359,-0.34090683,0.84365904,-0.4147552,0
-5.9111176,0.92043698,0.27702075,-0.98703516,0.15369406,0.046256773,0
-3.6871731,4.5899301,0.89560771,-0.61914825,0.77073878,0.15039,0
2.5429568,4.6102047,-2.7606339,0.42775506,0.77549034,-0.46437091,0
-1.244761,-4.7489047,2.9523032,-0.21728635,-0.8289721,0.51535612,0
-1.5492374,5.4257216,2.0274882,-0.25838825,0.90492439,0.33815292,0
-2.1531801,-2.6777678,-4.6594024,-0.37192041,-0.46253282,-0.80482209,0
-5.2277241,0.41184908,-3.0265617,-0.86342287,0.068021938,-0.49987388,0
5.4620857,-0.45222211,1.5503576,0.95896196,-0.079395279,0.27219161,0
-3.141567,-0.095690429,5.037149,-0.52912432,-0.016116839,0.84839123,0
-4.2512841,-3.2181361,2.7265892,-0.70988852,-0.53737122,0.45529169,0
0.48957098,-5.5098739,1.8438314,0.083963074,-0.94496197,0.31622332,0
-0.12159079,5.8363247,-0.66283184,-0.020695947,0.9933998,-0.11282049,0
2.3335402,3.551755,-3.7985697,0.40939614,0.62311965,-0.66642082,0
-4.3051233,-0.28280646,-3.8976583,-0.74044013,-0.048640009,-0.67036003,0
0.36285558,5.3294415,2.2939932,0.062415816,0.91673231,0.39459625,0
3.9252355,-0.11589386,4.6412764,0.64563328,-0.019062534,0.76340961,0
-0.57708871,-5.7073827,-0.55046982,-0.10013972,-0.9903776,-0.09552066,0
-5.5829272,-1.0147583,2.0673099,-0.92443997,-0.16802712,0.34231216,0
-4.4447689,-0.28457621,-3.7460606,-0.76373386,-0.048898041,-0.64367652,0
4.8793874,1.7332873,2.8501577,0.82552081,0.29324681,0.48220491,0
-5.3132639,1.4287542,-2.1349459,-0.90029323,0.24209182,-0.36175075,0
4.3455791,-3.6397243,0.39867854,0.76473266,-0.6405167,0.070159234,0
-2.4352164,5.1833014,-1.2745306,-0.41507235,0.88347185,-0.21723837,0
4.255919,0.017103026,-4.1323199,0.71744496,0.0028831563,-0.6966092,0
-2.2856884,5.1672215,-0.13590248,-0.40441668,0.91425872,-0.02404581,0
5.2622123,-1.1866653,-1.7525659,0.92776757,-0.20921801,-0.30899054,0
0.23753536,2.6782775,-5.1932116,0.040618259,0.45798224,-0.88803291,0
-3.2326217,0.78842914,-4.8718719,-0.54792875,0.13363859,-0.82578135,0
-0.98441803,4.9845572,2.393259,-0.17527944,0.88751972,0.42612904,0
0.46702033,5.883925,0.13086197,0.079103962,0.99661994,0.022165416,0
5.9189353,1.121348,-0.20718956,0.98194265,0.18602999,-0.034372441,0
4.9011292,0.30893186,-3.3641665,0.82335156,0.051898148,-0.56515378,0
0.47622812,1.8180045,-5.5308099,0.081526555,0.31122825,-0.9468317,0
4.7210674,0.57446998,3.2775326,0.81737727,0.099460281,0.56745231,0
2.2649763,-5.5745053,-0.68366796,0.37401813,-0.92052442,-0.11289487,0
-4.1187906,2.4921577,3.408246,-0.69828641,0.42251232,0.57782298,0
3.8272958,-3.4009364,-2.7078304,0.66079354,-0.58718133,-0.46751463,0
3.1304321,4.6974111,1.5558451,0.53462142,0.80223316,0.26571032,0
2.900466,4.9396987,-1.639553,0.4867934,0.82904357,-0.2751708,0
-1.8185436,3.7268643,-4.2194748,-0.30738741,0.62994981,-0.71321547,0
3.8462858,3.854033,-2.2597313,0.65243906,0.65375322,-0.38331446,0
4.7489691,3.1164834,-1.5883527,0.80516404,0.52838427,-0.26929727,0
-3.5479529,-4.1792159,-1.9004799,-0.61148304,-0.72028005,-0.32754415,0
-5.6886292,0.52115887,1.5167341,-0.96248114,0.088176884,0.25662211,0
4.835546,-0.83958024,-2.9986613,0.84075004,-0.14597672,-0.52137333,0
-2.643038,-1.9509689,4.7857809,-0.45531991,-0.33609617,0.82445329,0
4.5259027,-3.6870236,0.43183488,0.77318519,-0.62987477,0.073772758,0
3.8365481,1.4556023,4.1866617,0.65444934,0.24830081,0.71417272,0
-4.4786029,-2.912699,2.5514364,-0.75646544,-0.49197397,0.43095437,0
4.5498981,-1.3198088,3.3401084,0.78493446,-0.22768937,0.57622522,0
-2.228549,0.60126305,-5.4878459,-0.37432462,0.10099287,-0.92178172,0
-4.3219695,2.6342359,2.6055267,-0.75920612,0.46273533,0.45769221,0
4.7612944,1.5674363,-3.2653236,0.79588354,0.26200792,-0.54582161,0
5.4648609,1.6325709,-0.83652377,0.94801557,0.28320989,-0.14511579,0
1.4985077,5.102169,-2.3854783,0.25711238,0.8754248,-0.40929785,0
-1.8063866,4.7310686,2.8347881,-0.31125143,0.81519198,0.48845127,0
-1.2301254,-2.5167518,4.9621406,-0.21587764,-0.44167075,0.87081784,0
1.656047,4.088532,3.7855668,0.28489468,0.70336229,0.65124226,0
3.0294125,-4.9625144,0.83707845,0.51572716,-0.84481835,0.14250423,0
-1.8663898,5.1615963,1.3789582,-0.32979506,0.91206509,0.24366486,0
5.4432731,-1.229623,1.4058816,0.94586694,-0.21366918,0.24429731,0
-5.2543192,-1.3504702,-2.6843853,-0.86806685,-0.22311138,-0.4434877,0
2.9457786,4.4783697,2.6836581,0.49140403,0.74706525,0.44767803,0
0.43498564,5.6596684,-1.7871478,0.073093973,0.95103753,-0.30030814,0
-4.9661527,-2.8649178,0.16646707,-0.86583358,-0.49948967,0.029023027,0
-5.3788123,-1.5485128,0.80664223,-0.95114315,-0.27382576,0.14263971,0
-5.56598,-2.16767,-0.73311681,-0.92488784,-0.36019742,-0.12182056,0
4.0833769,-4.2473645,-0.22727127,0.69253838,-0.72035056,-0.038545076,0
4.292376,3.8750932,-0.22193751,0.74171931,0.66961312,-0.038350631,0
-2.7572265,1.2016864,-5.0098391,-0.4718565,0.20564997,-0.85735619,0
-5.1625066,-2.5986974,-1.0934325,-0.87764871,-0.44178993,-0.18588832,0
0.60100532,-4.3769302,3.7969227,0.1031697,-0.75135207,0.65178686,0
-3.4140804,-4.0953021,-2.3454611,-0.58612543,-0.70307678,-0.40266609,0
2.9291553,-3.2218189,4.060288,0.4919928,-0.5411498,0.68198246,0
5.179409,-1.4772457,2.1031501,0.89577824,-0.25548947,0.36373958,0
1.8784248,5.3465614,2.0321789,0.31201541,0.88808966,0.33755472,0
-0.038383998,5.2968841,2.7911777,-0.0064107808,0.88466978,0.46617419,0
5.4158106,1.5319339,-0.60354608,0.95676005,0.27063227,-0.10662278,0
-5.4878826,-0.73869509,1.4550886,-0.95852095,-0.12902148,0.25414774,0
-4.3799834,-4.212079,0.87302607,-0.71346176,-0.68611157,0.14220846,0
1.2024564,3.6194918,4.273591,0.20992534,0.63189238,0.74608529,0
2.6774209,-3.2570179,3.8417501,0.4693923,-0.57100439,0.67351681,0
0.91622323,1.8869905,5.30375,0.16064215,0.33084756,0.92991072,0
-3.7244055,-4.5669837,0.72941113,-0.62720895,-0.76910347,0.12283657,0
-3.6881435,-4.6752672,-0.74776644,-0.61452264,-0.77899832,-0.12459369,0
-4.1616669,2.8110917,2.8522115,-0.72056806,0.48672393,0.49384359,0
4.7107015,2.8699899,2.3570476,0.7852999,0.47844312,0.39293283,0
-0.87499887,1.6446997,-5.6068301,-0.14809826,0.27837425,-0.94898617,0
-1.1880122,-4.5806909,-3.2540219,-0.20686042,-0.79760426,-0.5666005,0
-0.65019906,2.3270085,-5.2368937,-0.11273714,0.40347689,-0.90801799,0
3.7469225,4.5585618,-0.13207293,0.63482219,0.77233416,-0.02237645,0
0.62607294,-4.0239959,4.1831188,0.10723982,-0.68926889,0.71652496,0
-0.24015693,5.0188456,2.9859328,-0.041088633,0.8586781,0.51086551,0
-0.36710817,4.6062198,-3.346612,-0.064343736,0.8073408,-0.58656698,0
-2.1596739,2.1027164,5.163939,-0.36119255,0.35166675,0.86363792,0
-1.2357607,-3.3493416,-4.7486558,-0.20800714,-0.56377172,-0.79930872,0
3.0768232,0.82408476,4.8939109,0.52692503,0.14112961,0.83811247,0
-3.5216393,4.5493402,-0.71755427,-0.60742009,0.78468019,-0.12376533,0
-3.049021,1.8685132,4.3810134,-0.53915471,0.33040693,0.77468932,0
3.7894213,1.3285482,3.9427581,0.67336142,0.23607644,0.70060861,0
-0.15811487,-5.1727977,2.3630381,-0.0277922,-0.90923411,0.41535643,0
-2.7096138,-5.0468006,-0.7934587,-0.46855727,-0.87271297,-0.13720806,0
-3.3921423,-3.589304,-3.2739096,-0.57249236,-0.60576737,-0.55253822,0
1.7013923,-1.8092794,-5.4910107,0.28231567,-0.30021763,-0.9111352,0
-1.8477545,2.2914383,5.0934639,-0.31409019,0.38950971,0.86581147,0
-5.408988,-2.3623106,1.1915796,-0.89829081,-0.39231774,0.19789007,0
4.5586481,-1.9424168,2.9758079,0.78867823,-0.33605179,0.51483572,0
4.0624938,-3.8636398,1.0866181,0.71138048,-0.67655933,0.19027694,0
-5.336174,1.9023187,-0.7698465,-0.93335652,0.33273682,-0.13465476,0
-2.5342643,-5.0294166,1.5086224,-0.43466449,-0.86262065,0.25875145,0
-4.0243082,3.8698964,0.077373683,-0.72073078,0.69307649,0.013857188,0
2.7013524,-4.741807,1.8263307,0.46940997,-0.8239767,0.31735876,0
5.4294448,-0.31453115,-2.4230778,0.91191167,-0.052827615,-0.40697217,0
3.1739655,-4.1959233,-2.216593,0.55595452,-0.73496157,-0.38826036,0
5.2947016,2.2590687,0.78562593,0.91133046,0.38883364,0.13522288,0
-1.3587705,5.5312414,0.46222442,-0.23777945,0.96794534,0.080887444,0
-4.8913908,-0.39891255,-3.1266181,-0.84059191,-0.068553641,-0.5373134,0
0.83462989,3.7167778,-4.546814,0.1407077,0.62660015,-0.76653343,0
3.442189,-4.5805001,1.5857221,0.57899642,-0.77046704,0.26672778,0
-5.2803969,1.6767565,1.556071,-0.91759527,0.29137656,0.27040458,0
5.2819514,0.63800943,-2.7027349,0.8851223,0.10691434,-0.45291045,0
2.441503,-0.86249858,-5.2532921,0.41686752,-0.14726488,-0.89695853,0
-0.035361122,4.9813671,2.9298589,-0.006118671,0.86194509,0.50696474,0
-1.2306941,4.3576589,3.9614651,-0.20455673,0.7242974,0.658445,0
3.5110002,1.0985787,-4.5298829,0.60165542,0.18825571,-0.77625418,0
2.6910002,4.9229808,1.795137,0.45682582,0.83572817,0.30474353,0
5.1935115,2.3106213,0.96082318,0.90087622,0.4008047,0.16666619,0
2.7573349,2.2471087,4.6973796,0.46796528,0.38137147,0.79722291,0
0.50492644,2.600209,-5.5110793,0.082577519,0.42524767,-0.90130204,0
3.4123921,-3.1229339,3.3777766,0.59577036,-0.54523379,0.58972687,0
-3.3393111,-1.3589805,4.5379887,-0.57616162,-0.23447724,0.78298032,0
-4.132443,3.8376715,1.7379603,-0.70026004,0.6503098,0.29450479,0
5.4793816,1.5124699,-1.6399404,0.92617673,0.25565192,-0.2771982,0
-1.128827,-0.41435108,-5.568799,-0.19813907,-0.072729602,-0.97747189,0
-1.3007941,5.1679935,2.7098143,-0.21757607,0.86441946,0.45325449,0
0.15725771,0.77091753,5.8075533,0.026833003,0.13154225,0.99094731,0
4.7399273,-3.0525539,-0.4279584,0.83832604,-0.53988916,-0.075690754,0
-5.03477,-0.54548854,-2.8364618,-0.86739385,-0.093977168,-0.48866773,0
3.4612017,4.0924907,-2.8520079,0.57007951,0.67405635,-0.46974182,0
0.90911698,-5.1130528,-2.9464216,0.15225889,-0.85633397,-0.49346665,0
1.5420697,4.5936246,3.0561383,0.26917765,0.80184519,0.53346753,0
5.5946875,1.8160539,-0.072978079,0.95107174,0.30872101,-0.012405946,0
4.0902476,-3.9729555,-0.13118057,0.71712714,-0.69656277,-0.022999376,0
-1.0901111,3.3044193,-4.6706104,-0.18716697,0.56735331,-0.8019219,0
1.143289,-5.5847855,-1.3804781,0.19492163,-0.95216125,-0.23536047,0
-2.2961705,3.8540778,-3.6455455,-0.39721426,0.66671646,-0.63064247,0
-0.24204166,0.8881579,-5.575026,-0.042835325,0.15718174,-0.98664021,0
2.9145827,-3.3412137,3.725225,0.50329435,-0.57696557,0.64327723,0
4.1247854,-1.0008937,-4.2063026,0.69026333,-0.16749483,-0.70390487,0
-5.6877556,-1.1240046,1.3318428,-0.95612442,-0.18894768,0.22388574,0
-4.6096168,-0.87034237,3.245662,-0.80807835,-0.15257338,0.56897336,0
4.6583953,-3.3319952,1.0033618,0.80115491,-0.57303947,0.17255904,0
-4.57693,3.356441,-1.1328877,-0.79080355,0.57992703,-0.19574073,0
-2.5574768,-3.5565948,3.7670233,-0.44265479,-0.61558479,0.65200627,0
4.223958,-3.5886459,-1.8867048,0.72143978,-0.6129303,-0.32224372,0
5.0177736,-0.3818576,-3.3528371,0.8298049,-0.063148983,-0.55446917,0
-4.2794294,-0.88441247,3.9435115,-0.72703135,-0.15025264,0.66996235,0
0.7436108,5.6780143,0.03500342,0.12985191,0.99151462,0.0061124191,0
3.1673322,-0.81948984,4.5334868,0.56653464,-0.14658058,0.81089616,0
4.9235654,-0.39322487,-2.700841,0.87460923,-0.069851428,-0.4797703,0
-5.6032715,1.8366423,0.24123837,-0.94946015,0.31121439,0.04087723,0
3.5358202,-3.2980525,3.4433999,0.59565634,-0.55560118,0.58008689,0
-4.3483605,2.8416369,-2.2104502,-0.77026433,0.50336474,-0.39155698,0
2.1476729,3.9996824,3.6219106,0.36980397,0.68869823,0.62365037,0
5.4489951,-2.2818658,0.68468946,0.91625369,-0.3836979,0.11513118,0
3.267967,4.4280491,1.6123253,0.56985807,0.77214968,0.28115237,0
-0.59521085,-4.2036667,-4.1092219,-0.10073745,-0.71145654,-0.69547212,0
1.3951944,-5.4989986,1.7938648,0.23448314,-0.92418838,0.30148563,0
5.8350253,-0.023908097,-0.43879491,0.99717605,-0.0040857717,-0.074987814,0
-2.5076039,0.90697205,-5.0941257,-0.43611628,0.15773834,-0.88595778,0
-3.6720662,-4.0163102,-1.8577026,-0.63858759,-0.69845307,-0.32306221,0
-0.81836355,-6.0075927,-0.11602933,-0.13495027,-0.99066758,-0.019133538,0
2.6958828,-5.157867,1.3456454,0.45131066,-0.86346495,0.22527097,0
-2.5754988,-2.880234,-4.3232837,-0.44418541,-0.4967418,-0.74561852,0
4.8782229,3.3557584,0.31766441,0.82270259,0.56594199,0.053573471,0
-1.7786764,-3.6753137,4.293973,-0.30018058,-0.620269,0.7246778,0
4.2002091,-3.7054672,2.1794031,0.69885129,-0.61653376,0.36261973,0
-3.3736162,3.4591048,-3.5558863,-0.56233954,0.57658941,-0.59272164,0
1.7519927,1.783522,-5.3335218,0.29743156,0.3027842,-0.90545911,0
-2.8761277,4.8806186,1.3733008,-0.49340785,0.83728391,0.23559363,0
1.1675115,1.5358869,-5.7489028,0.19253205,0.25328013,-0.94804043,0
3.907968,-2.0834954,-3.6468449,0.6811921,-0.36317101,-0.63567615,0
4.2819152,4.1190548,-0.58945191,0.71715862,0.68988186,-0.098724633,0
5.0990181,2.9532471,1.2463565,0.84660828,0.49033821,0.20693704,0
-2.3566418,-2.9040658,4.7469039,-0.38996485,-0.48054975,0.78549302,0
-4.0322428,2.9497693,-3.194113,-0.67999691,0.49744871,-0.5386548,0
-5.5069566,-1.4173996,1.2095124,-0.94724619,-0.24380551,0.20804703,0
-1.7115833,4.9455714,-2.7108893,-0.29040304,0.83911133,-0.45995453,0
-2.5943055,-2.1486647,-4.8198762,-0.44118297,-0.36539808,-0.81965953,0
0.45631865,3.9828496,4.131053,0.079270601,0.69189131,0.71763682,0
3.419754,-2.0570371,-4.2379804,0.5874635,-0.35336876,-0.72802275,0
4.903338,1.6057448,-2.4283891,0.85986149,0.28158739,-0.42584834,0
-3.7602425,-3.8201492,2.4634788,-0.63740534,-0.64756018,0.41758862,0
-0.34650278,5.7381945,-0.59860075,-0.059951395,0.99281389,-0.10356901,0
3.271373,-3.1488008,-3.654232,0.5612815,-0.54025137,-0.62697005,0
-2.1418259,-1.5197465,5.2549596,-0.36458713,-0.25869516,0.89451277,0
2.6764963,4.928864,-1.6152989,0.45856696,0.84446752,-0.27675086,0
-4.5031171,1.5881628,3.4134207,-0.76719809,0.270576,0.58154601,0
5.3460422,0.7349807,-2.4553554,0.90172702,0.12397058,-0.41414943,0
-2.2354996,-3.6041844,-4.0273323,-0.38222322,-0.61623937,-0.68858874,0
2.5928864,-5.4032068,0.49918997,0.43114951,-0.89845431,0.083006144,0
0.75216395,-5.5580144,1.6624773,0.12857765,-0.95010734,0.28418994,0
-2.1258926,-2.9971046,-4.5377021,-0.36409107,-0.51329923,-0.77714968,0
-4.8431034,-3.0700736,-1.1162449,-0.82903844,-0.52553266,-0.19107789,0
3.3269794,-4.4555173,2.1241205,0.55892092,-0.74851137,0.35684481,0
2.071913,2.7410271,4.7955194,0.35120672,0.46462721,0.81288093,0
3.5411701,2.6000183,3.7210824,0.61507541,0.45160422,0.64632487,0
4.2117991,1.2612935,3.8205914,0.72309393,0.21654254,0.65593022,0
3.9081233,2.8567183,2.9834583,0.68727392,0.5023762,0.5246644,0
-4.0080009,-4.0996561,-0.5013833,-0.69641054,-0.71233612,-0.087117903,0
-0.27466649,-5.969625,0.29660735,-0.045905542,-0.997715,0.049572561,0
-2.3064814,4.6113257,2.5678856,-0.40042707,0.80056995,0.44580933,0
1.8914893,4.8595419,-2.5298355,0.32634714,0.83843863,-0.43648389,0
-4.7341661,3.5164504,-1.0738432,-0.7897861,0.58663839,-0.1791459,0
-5.1926985,2.5581501,0.19962403,-0.89651823,0.44166404,0.034465045,0
-3.4139671,-4.3406,-1.4382659,-0.59825528,-0.76063615,-0.25203821,0
1.6384147,-1.4147865,5.4479375,0.27948534,-0.24133822,0.92932439,0
-3.8076346,1.1299804,-4.3816547,-0.64384842,0.19107299,-0.74091184,0
-1.9006194,-4.6558046,3.2527797,-0.31734586,-0.77737832,0.54311568,0
2.9206743,-4.8529463,1.2163792,0.50415683,-0.837699,0.20996721,0
-0.35738662,4.5583625,-3.8639677,-0.059700046,0.76145673,-0.64546078,0
4.3269391,-3.891161,-1.7592317,0.71174431,-0.64006257,-0.28937849,0
5.6115751,0.15809835,1.8478341,0.94948936,0.026750546,0.31265709,0
3.0254979,-3.5245724,-3.3606753,0.52770895,-0.61475778,-0.58617073,0
2.6168616,3.6713669,3.8752985,0.44016728,0.61753958,0.65184176,0
-2.4408138,-4.4203792,2.8286107,-0.42171869,-0.76374388,0.48872143,0
0.038877603,5.5780272,-1.2109843,0.0068109557,0.97721297,-0.21215199,0
-3.8238988,-1.1115243,3.9989502,-0.67757368,-0.19695595,0.70859182,0
-1.8480664,3.953418,-3.5068107,-0.33010355,0.70616359,-0.62639016,0
1.034735,0.75795847,5.6613693,0.17825353,0.13057332,0.97528267,0
0.70732731,-3.954824,4.3676505,0.11919069,-0.66642159,0.73598635,0
1.6164839,-5.1383662,1.8775508,0.28337124,-0.90076077,0.32913655,0
0.84148437,1.4669102,5.7188969,0.14110108,0.24597323,0.95895129,0
5.4390187,1.4371661,-0.97289634,0.95267713,0.25172836,-0.1704087,0
-5.1172128,2.7197332,0.74492049,-0.87582272,0.46548858,0.12749486,0
-4.5041194,1.1786116,-3.1884604,-0.79819012,0.20886572,-0.56503773,0
-5.1841402,-0.47766486,2.8515892,-0.87335211,-0.080470361,0.48039624,0
-1.6562968,-1.8879383,-5.2800202,-0.28327775,-0.32289556,-0.90304601,0
-5.2097907,-2.6830895,-0.72445905,-0.88230944,-0.45439735,-0.1226915,0
-3.2461898,2.4518516,-3.9784911,-0.57049364,0.43089461,-0.69919008,0
-5.7214804,-0.62938273,-0.44572949,-0.99103701,-0.10901751,-0.077206314,0
1.4455061,-1.647997,-5.3822718,0.24872944,-0.28357223,-0.92613196,0
5.5957336,1.7504406,0.68278211,0.94798744,0.29654658,0.11567185,0
-4.7345915,0.10782652,3.3141861,-0.81909162,0.018654155,0.57335931,0
2.4244232,3.4825358,-4.1074448,0.4105244,0.58969319,-0.69550824,0
-4.9228935,-2.4975069,2.1322801,-0.83189464,-0.42204091,0.36032313,0
1.6807059,-3.3448434,-4.5456977,0.28541479,-0.56801599,-0.77194315,0
3.6230071,-3.0514135,3.5227349,0.61374319,-0.51691431,0.59675694,0
3.4741116,-3.7164085,-2.9355953,0.59148175,-0.63273382,-0.49979717,0
1.0671691,3.5696018,4.7037606,0.17784601,0.59488183,0.7838918,0
4.9138012,2.6476414,-1.1610717,0.86189085,0.46440178,-0.20365436,0
0.97630292,-5.1840138,2.6523037,0.1653519,-0.87799239,0.44920838,0
5.447969,1.2874098,0.5869658,0.96789032,0.2287222,0.10428079,0
-3.8441706,4.0702338,1.5947458,-0.66036159,0.69919533,0.27394956,0
5.6934781,-0.73901427,0.25902438,0.99067324,-0.12858953,0.045070607,0
-1.2130731,-0.15434198,5.6531634,-0.20973234,-0.026684711,0.97739464,0
-1.4620446,-3.184747,-4.5082245,-0.25604916,-0.55774754,-0.78952932,0
5.3156013,1.8430957,1.6857129,0.90506351,0.31381559,0.28701875,0
-1.4721326,-5.6494756,1.062268,-0.24808504,-0.95205444,0.17901431,0
-2.4387975,-5.3124428,-1.0036342,-0.41119322,-0.89570391,-0.16921765,0
-5.8692446,-0.77652454,-0.49729228,-0.98788226,-0.13070078,-0.083701782,0
1.7939541,5.2240686,-2.4715762,0.29645917,0.8633014,-0.40843934,0
-4.6974168,-2.7266309,2.3009508,-0.79634833,-0.46224299,0.39007786,0
3.8889782,1.3181337,4.2538104,0.65776587,0.22294374,0.71947211,0
-2.8613646,-4.7486978,-2.4493804,-0.47208625,-0.78347051,-0.40411445,0
4.9128842,0.93728328,3.4029624,0.81212926,0.15493855,0.56253016,0
-2.2133727,0.8429032,-5.4089899,-0.37484291,0.14274879,-0.91603255,0
-2.2317257,4.6682076,-2.5860984,-0.38581002,0.80701733,-0.4470723,0
0.49725559,-5.7319345,0.15157758,0.086397201,-0.99591261,0.026336312,0
4.1357398,-0.23788142,-4.0705295,0.71210515,-0.040959198,-0.70087701,0
0.17433514,-0.52606815,5.7979693,0.029931882,-0.090321489,0.99546272,0
2.4913762,3.3040018,4.2936039,0.41779965,0.55407566,0.72003025,0
-2.5678632,2.9271381,-4.557559,-0.42837361,0.48830822,-0.76029676,0
0.92804998,5.5916748,1.4072673,0.15890591,0.95743781,0.24096018,0
-1.1652155,-5.8338237,-1.2017176,-0.19198789,-0.96121579,-0.1980022,0
4.4820299,3.1882446,-1.4738611,0.78709954,0.55989492,-0.25882813,0
0.83841538,-0.2047964,5.625443,0.14731619,-0.035984341,0.98843461,0
1.8393809,5.1631269,-2.6291218,0.30258262,0.84934694,-0.43249694,0
1.706791,0.33395278,5.7090487,0.28598693,0.05595655,0.95659828,0
2.4924126,4.8417459,1.7508522,0.43572512,0.84643704,0.30608508,0
-1.143031,4.3754606,-3.4809005,-0.20029196,0.76670671,-0.60995406,0
-2.2485158,0.8791191,5.5821147,-0.3697103,0.1445484,0.9178344,0
-0.83536106,-5.7484856,0.12324467,-0.1437756,-0.98938292,0.021211877,0
5.8828034,1.1874287,-0.62727594,0.97492003,0.19678509,-0.10395449,0
-1.8937519,0.94566655,-5.6647444,-0.31315628,0.15637815,-0.93673849,0
5.6068292,0.80578506,0.77207166,0.98076183,0.14095011,0.13505287,0
-0.94639498,-4.6971231,-3.3895988,-0.16124652,-0.80029458,-0.57751894,0
-1.814046,-4.0704265,-3.8138967,-0.30927008,-0.69395214,-0.65021729,0
-3.7758934,-1.6560726,-4.2397361,-0.63846773,-0.28002614,-0.7168991,0
0.62743109,-2.0328567,-5.2521682,0.11072256,-0.35873756,-0.92684841,0
-5.1417603,-2.8003476,0.85349542,-0.86901557,-0.47329038,0.14425036,0
5.0124292,2.8239341,1.2065781,0.85269463,0.48039651,0.20525829,0
-3.5890288,0.96303278,-4.5375185,-0.61194539,0.16420136,-0.7736671,0
-5.5339293,1.3855191,-0.37132812,-0.96800989,0.24235876,-0.064953722,0
-3.4161932,-3.192517,3.7061009,-0.5725736,-0.53508419,0.62116379,0
2.6445725,2.2066181,-4.8143544,0.44675314,0.37276861,-0.81329894,0
-4.8109841,0.94669539,2.9990396,-0.83702791,0.1647086,0.52178091,0
0.16254745,5.4047251,1.8770933,0.028398925,0.94426811,0.32794997,0
0.61469841,1.0745472,5.784482,0.10391378,0.18165047,0.97785741,0
-0.96963781,-4.7090278,3.1641707,-0.16846812,-0.8181622,0.54975361,0
-1.2407993,5.7217765,1.0418508,-0.20865189,0.96216965,0.17519686,0
1.9523339,0.61184132,-5.3713059,0.33966795,0.10644843,-0.93450224,0
-2.0790408,2.0557661,5.0922823,-0.35406244,0.35009876,0.8672201,0
-3.2158329,-4.7752275,1.0334464,-0.54979622,-0.8163988,0.1766836,0
3.1820955,4.3318286,-1.8143873,0.56092334,0.7635923,-0.31983081,0
-0.7836448,4.3303437,3.7548795,-0.13546379,0.74855947,0.6490826,0
-2.7507596,-4.9068022,-1.1422068,-0.47922331,-0.85483807,-0.19898945,0
3.0814295,-4.5813856,1.8595568,0.52891016,-0.78636926,0.31918254,0
-2.314188,-3.5390043,-3.9574015,-0.39958608,-0.6110726,-0.68331641,0
0.76053166,-4.060431,4.1848054,0.12933519,-0.69051254,0.71166348,0
-5.4503188,0.93257743,-1.9099774,-0.93166226,0.15941218,-0.3264862,0
-3.0744245,-1.1057585,-4.6869979,-0.53810936,-0.19353835,-0.82035434,0
-1.2840996,-3.8101289,4.3015933,-0.21808393,-0.6470899,0.73055732,0
-5.3753529,0.048287727,2.4056871,-0.91272902,0.0081992028,0.40848303,0
4.1685128,2.4824042,3.659265,0.68595731,0.40849659,0.60215706,0
-5.8774142,0.52322477,1.3141843,-0.97223943,0.086551629,0.21739183,0
-1.6563089,1.4378844,5.3107967,-0.28825897,0.25024503,0.92427492,0
-1.1998968,5.6478744,0.40217629,-0.20731065,0.97580427,0.069485493,0
-2.277827,-2.2102566,-5.0189767,-0.38357991,-0.37220123,-0.84518206,0
3.588325,-1.0596122,-4.6549964,0.6008324,-0.17742242,-0.77943683,0
3.0744321,4.6356773,0.55101657,0.55001289,0.82931817,0.098576322,0
-1.465961,-4.9883595,-2.6108053,-0.25197008,-0.85740167,-0.44874647,0
-5.2104383,1.770614,-2.1504076,-0.88188475,0.29968256,-0.36396393,0
-4.3531494,-3.9779758,0.17745541,-0.73786759,-0.67427492,0.03007905,0
-2.5091131,-3.7191544,3.7423911,-0.4294686,-0.63658351,0.64056081,0
4.5003543,0.65059721,-4.0497084,0.73908901,0.10684697,-0.66507983,0
3.7037625,1.4139106,3.9463391,0.66211927,0.2527639,0.70548457,0
3.9829617,3.6374638,-2.256516,0.68120164,0.6221115,-0.3859295,0
6.0120249,-0.076998986,0.26082474,0.99897844,-0.012794413,0.043339524,0
0.90855736,-5.7688446,-1.3143709,0.1517795,-0.96371716,-0.21957287,0
-1.80925,-2.4811506,-4.7767282,-0.31860784,-0.43692911,-0.84117895,0
-5.5627437,-0.62980413,-1.8180096,-0.94506776,-0.10699892,-0.30886596,0
-1.9219134,-4.7502527,-2.5718508,-0.33520749,-0.82850784,-0.44856527,0
-0.22860485,-1.3417891,-5.7259374,-0.038842097,-0.22798249,-0.9728902,0
3.826515,3.819669,-2.1164205,0.6590457,0.6578666,-0.36451387,0
2.852957,-4.8759708,-1.4909821,0.48829186,-0.83453655,-0.2551859,0
-2.2312756,-2.4020417,5.0836048,-0.36886165,-0.39709172,0.84039235,0
-3.2152259,1.2282743,4.506948,-0.56697094,0.21659313,0.79475242,0
0.29973179,2.3956435,-5.4094548,0.050598077,0.40441141,-0.91317648,0
4.5256262,-3.048986,-1.9190711,0.78237116,-0.52709585,-0.33176091,0
-1.6980796,4.754807,-2.5244813,-0.30081767,0.84232211,-0.44721612,0
-4.5685396,1.0997541,3.5852635,-0.77294081,0.18606488,0.60658258,0
-3.3984647,-4.693119,-0.29135016,-0.58576971,-0.80892026,-0.050218001,0
2.4639959,2.3610766,-4.5579534,0.43274045,0.41466519,-0.8004927,0
0.11051328,3.5406041,4.4472494,0.019437378,0.62273115,0.78219444,0
-3.9506567,3.7320893,-2.0992172,-0.67810178,0.64058626,-0.36031553,0
-5.7315512,-0.67358619,0.59566391,-0.98791635,-0.1161024,0.10267136,0
-5.2586265,1.7580643,1.7762874,-0.90318763,0.30195373,0.30508363,0
-4.487648,-2.0847616,3.2155066,-0.76045775,-0.35327485,0.54488605,0
1.0305048,5.3897872,-2.2475662,0.17378217,0.90892243,-0.37902486,0
4.4173951,-1.3690399,-3.4193099,0.76804715,-0.23803331,-0.59451127,0
-1.7625239,4.3137021,3.4377046,-0.30437091,0.74493486,0.59365851,0
5.1646671,-2.6337647,-1.2404356,0.87113351,-0.44424173,-0.20922646,0
-4.048717,2.4652543,3.4095759,-0.69338328,0.42219946,0.583924,0
1.0174125,-5.2629375,-1.962576,0.1782321,-0.92197061,-0.34380749,0
1.4881555,-3.5568657,-4.4754372,0.25192076,-0.6021201,-0.7576195,0
-3.8458989,-4.1252637,1.3719054,-0.66258526,-0.71071523,0.23635679,0
3.6136057,4.5281444,1.8457227,0.59432274,0.74473512,0.30356243,0
2.6395872,-4.5676689,2.7171419,0.44481465,-0.76972872,0.45788392,0
-1.5564983,5.2578845,-1.619488,-0.27223003,0.91959882,-0.28324685,0
4.4836187,3.3247306,-1.8753458,0.76142871,0.56462103,-0.31847984,0
-4.455132,-3.3319845,-0.49796197,-0.79761845,-0.59653729,-0.089151941,0
3.7942858,-1.9454056,4.1501155,0.63767558,-0.32694894,0.69747704,0
-0.61169642,-3.7639334,4.5427365,-0.10313391,-0.63461083,0.76591939,0
0.8362,3.9575605,-4.1119971,0.1449718,0.68612134,-0.71289599,0
3.7666712,3.5495679,-2.2309809,0.66832322,0.62980247,-0.39584458,0
1.7232754,-3.3658986,4.2813797,0.3016836,-0.58924788,0.74951577,0
4.5807033,2.8584974,2.0800726,0.79165483,0.49401653,0.35948616,0
3.0836098,-1.6551989,4.8917117,0.51267493,-0.27519014,0.81328642,0
-3.6871545,-1.3272065,4.6752329,-0.60441595,-0.21756202,0.76638645,0
-5.930171,0.17265935,0.85512024,-0.98935205,0.02880539,0.14266282,0
5.1729698,-0.44650894,2.7930467,0.87740368,-0.075733781,0.47373742,0
2.9600043,4.747508,0.76526231,0.52419364,0.84074658,0.13552198,0
-1.0999116,-4.8912082,3.2055702,-0.18484107,-0.82197165,0.53869879,0
-1.3966743,4.6340594,-3.2067831,-0.24056053,0.79816163,-0.5523302,0
5.0308394,2.8965926,-1.4824282,0.83967316,0.48345628,-0.24742493,0
-2.68332,3.9248433,-3.3369291,-0.46195737,0.67569661,-0.57448196,0
-2.4821603,1.333432,-5.0348234,-0.43021148,0.23111229,-0.87264264,0
-0.83249807,5.9290466,-0.73084772,-0.13802165,0.98298937,-0.12116881,0
-2.2809379,-5.3828478,0.54146016,-0.38849649,-0.91682351,0.09222319,0
-2.5992372,-3.8166778,3.45592,-0.45065343,-0.6617322,0.59918433,0
5.7129426,1.4448633,1.0747478,0.95374233,0.24121147,0.17942286,0
3.2482355,-4.3500719,-2.005944,0.56122661,-0.75160074,-0.34658483,0
0.51141715,4.691349,-3.5232553,0.086838633,0.7965911,-0.59824878,0
4.5206375,-0.65620774,-3.6344948,0.77441424,-0.11241259,-0.6226123,0
3.9533186,2.6580112,-3.4026921,0.67529213,0.45403221,-0.581236,0
0.12447304,-3.7871556,4.3837295,0.021481592,-0.65358841,0.75654531,0
-1.5498087,5.6830006,-0.71727741,-0.26117241,0.95769423,-0.12087496,0
0.095795415,5.7733154,0.93911123,0.016375339,0.98689479,0.16053236,0
-4.7176037,2.5401909,2.4408929,-0.80124921,0.43143216,0.41456714,0
0.95362991,5.5486417,1.8628579,0.16080952,0.93566108,0.31413159,0
2.8021426,-1.04768,5.0031152,0.48069924,-0.17972639,0.85826957,0
4.2543478,0.41656125,-4.3093457,0.70089471,0.068627574,-0.70995551,0
-4.5281191,2.2477374,-2.9590833,-0.77302325,0.38372517,-0.50516343,0
5.6635303,-0.4405978,-1.7383838,0.95334715,-0.074166223,-0.2926237,0
-3.0872371,4.6213326,-1.0602102,-0.54565102,0.81679344,-0.18738593,0
4.6262035,2.9838512,-2.08413,0.78592503,0.50691313,-0.35406351,0
-0.89006466,1.8145109,5.7389436,-0.14628592,0.2982226,0.94321984,0
3.7409918,1.666828,-4.1177192,0.64414752,0.28700495,-0.70901483,0
0.98484409,1.074024,5.4909844,0.17335594,0.1890537,0.96654356,0
-3.8880291,-2.951179,-3.3772371,-0.65502989,-0.49719548,-0.56897497,0
-0.1716056,5.6990285,1.4901048,-0.029119683,0.96706575,0.25285527,0
-0.070637859,-0.25183773,-6.006103,-0.011749878,-0.041890603,-0.99905312,0
1.8381875,-4.1785202,3.7633345,0.31070307,-0.7062822,0.63610464,0
3.6878953,-3.1984267,2.9204936,0.64829963,-0.56225532,0.51339716,0
-3.4078593,-4.3185368,2.5797849,-0.56086624,-0.71074575,0.42458159,0
-0.12228251,-3.8014157,4.474607,-0.020822432,-0.6473102,0.76194215,0
-3.9538221,-1.2186054,4.3479743,-0.65876371,-0.20303722,0.72443515,0
3.5982699,1.7050912,4.4092836,0.60565722,0.28699926,0.74216622,0
-0.61955047,1.8334674,-5.648788,-0.10375787,0.30705595,-0.94601846,0
4.5219555,2.4564688,-2.787998,0.77261418,0.4197084,-0.47635293,0
-0.24897908,-5.8961501,0.052727014,-0.042188115,-0.99906969,0.0089342976,0
-2.679184,-4.5531297,-2.4381614,-0.46046835,-0.78254133,-0.41904408,0
5.2505002,-1.1622283,2.5301292,0.88346601,-0.19556026,0.42572764,0
5.0053349,0.58230418,3.1949835,0.83889157,0.097593881,0.53547764,0
3.8233497,1.934164,4.34829,0.62630236,0.31683511,0.71229273,0
0.91011304,-3.4222469,4.7734714,0.15312546,-0.57578909,0.80313104,0
0.051820885,5.7407022,-1.3273585,0.008794548,0.97425741,-0.22526667,0
-1.992896,5.6807337,-0.36293787,-0.33043689,0.94190764,-0.060177781,0
-4.7843618,3.2277603,-1.3099775,-0.80842078,0.54539949,-0.22134885,0
0.64781278,-5.4087191,2.1358576,0.11071573,-0.92438787,0.365033,0
2.5655127,-4.273025,-2.6991961,0.45263079,-0.75388545,-0.47621641,0
1.2538072,-1.1038005,-5.5651393,0.21578532,-0.18996857,-0.95778316,0
5.0028453,-2.7168911,0.003662368,0.87877512,-0.47723567,0.00064331351,0
-4.2218404,-4.0454459,-0.29067251,-0.72113913,-0.69100893,-0.049650222,0
-3.4849415,-4.2063875,2.3292494,-0.58685416,-0.70834363,0.39223894,0
-0.62178665,-1.0157132,5.6329556,-0.10799648,-0.17641655,0.97837317,0
4.5165911,-2.9818707,-2.0087492,0.78237998,-0.51653028,-0.34796271,0
-3.8444502,4.4850245,1.1368912,-0.63907731,0.74556231,0.18898967,0
-2.8764708,-2.1355014,4.6479936,-0.49016145,-0.36389747,0.79203564,0
4.8529406,3.2023056,-0.40765399,0.83261561,0.54941732,-0.06994091,0
2.5748613,1.3053105,4.8820133,0.4539867,0.23014584,0.86077225,0
-5.5601606,0.81011927,1.8030443,-0.94222891,0.1372834,0.30554521,0
-5.8305645,-0.022017812,-0.23367506,-0.99919075,-0.0037732187,-0.040045172,0
2.7776246,-4.3690453,2.4977026,0.48321298,-0.76006645,0.43451598,0
0.11766832,4.7642498,-3.6462853,0.019609394,0.79396093,-0.60765243,0
3.7181139,4.4250197,0.68483281,0.63883454,0.76029283,0.1176658,0
-0.08154884,5.6633873,-0.18754451,-0.014389926,0.99934864,-0.033093683,0
-1.1371702,-5.4087534,2.4512033,-0.18808109,-0.89457518,0.40541425,0
-1.3484545,4.0040836,-4.2174602,-0.225881,0.67072815,-0.70647109,0
3.3875921,-4.9348946,-0.83336169,0.56053817,-0.81656724,-0.1378947,0
-4.6209564,3.3126855,1.326324,-0.79148412,0.56740159,0.2271747,0
-3.9499812,2.6466477,3.4790258,-0.67044514,0.44922546,0.5905081,0
1.38208,-5.0154295,2.4900346,0.23962919,-0.86959028,0.4317297,0
3.4934957,-2.2786765,-4.0709853,0.59939587,-0.39096349,-0.69847852,0
-0.5240925,5.3692069,-2.3558578,-0.08903008,0.91209269,-0.40020075,0
5.4591184,-1.8163708,-1.5127693,0.91766548,-0.30532783,-0.25429311,0
-4.6888905,-1.8794799,3.3123386,-0.7762199,-0.3111375,0.54833937,0
1.0897223,-5.5491996,-0.28375706,0.19245228,-0.98002595,-0.050113402,0
-2.6423638,-0.97286355,-5.2925997,-0.44076043,-0.16227885,-0.88283396,0
1.8599919,-3.4408171,-4.1646719,0.32554731,-0.60223311,-0.72892666,0
-3.0010226,1.4650345,-4.5710335,-0.53012323,0.25879472,-0.8074618,0
1.0788627,-5.7507858,0.33736655,0.18408026,-0.98122424,0.057562955,0
1.98355,5.6662192,-0.096082203,0.33036351,0.94371814,-0.016002649,0
0.38822865,5.5315995,-1.2027888,0.068420544,0.97487664,-0.2119768,0
-5.3201895,-0.13711245,-1.9594207,-0.93810594,-0.024176961,-0.34550354,0
-4.1485848,-3.5086138,1.9808688,-0.71735573,-0.60669464,0.34252346,0
-2.4947202,4.3336506,-3.0085671,-0.42749137,0.74260765,-0.5155434,0
1.0134071,5.4945707,1.3792571,0.17609258,0.95475268,0.23966374,0
3.7549355,-3.7759585,2.7492664,0.62655514,-0.63006312,0.45874745,0
-2.5030456,-0.59057111,5.3766766,-0.4199678,-0.099087626,0.90211344,0
2.8250628,4.3289299,-2.5445235,0.49033213,0.75135088,-0.44164032,0
-1.49034,3.3558939,-4.8372321,-0.24540217,0.55258775,-0.79650766,0
-4.4233479,3.5424304,1.2346698,-0.76265496,0.61077088,0.21287654,0
-3.3450818,4.6958861,-0.60609108,-0.57701045,0.8100177,-0.10454778,0
2.7194526,3.4558382,-3.7151349,0.47239161,0.60030794,-0.64534992,0
-1.3291086,-0.82398182,5.5329103,-0.23116304,-0.1433097,0.96230239,0
-0.095806062,5.6954899,-1.1190809,-0.016503545,0.98110461,-0.19277278,0
-0.49352509,3.3637984,-4.7648129,-0.084314436,0.57467544,-0.81402653,0
5.5075626,2.3805075,0.46883127,0.91513681,0.39554521,0.077901021,0
5.8510008,-0.53814572,0.57855296,0.99100441,-0.091147617,0.097991534,0
2.529258,-1.5753516,-5.0266848,0.43283308,-0.26959062,-0.86021882,0
-3.4171829,-3.8707421,-3.0760472,-0.56856906,-0.64403462,-0.51180911,0
2.1191342,2.0574412,4.9791312,0.36604571,0.35538927,0.86006337,0
1.8998723,3.2585599,-4.3415422,0.33034158,0.56658429,-0.75488853,0
-5.4673495,-1.3835428,-1.4412841,-0.93925458,-0.23768352,-0.24760309,0
1.1733166,3.7874379,4.0317192,0.20749249,0.66978079,0.71298015,0
2.4676759,-4.4279313,-3.3039196,0.40782803,-0.73179567,-0.54603243,0
3.2875779,1.5000578,-4.5092382,0.56892842,0.25959095,-0.78034163,0
1.603861,4.3585591,-3.6574938,0.27130878,0.73729295,-0.61870086,0
3.4402182,3.2241817,3.5486555,0.58297557,0.54636627,0.60135126,0
-0.15519467,0.65043306,5.6163993,-0.027438622,0.11499742,0.9929868,0
-4.4162464,3.3711331,1.7994593,-0.75620407,0.5772469,0.30812559,0
-0.37672889,-1.5388628,-5.4593506,-0.066271983,-0.27070791,-0.96037763,0
-2.7220497,-5.1870408,-0.1629293,-0.46450081,-0.88513619,-0.02780287,0
-4.1558356,-2.8084052,-3.2379928,-0.6961022,-0.47040769,-0.54236358,0
5.3289008,-0.48607102,-1.8742729,0.9398787,-0.08573021,-0.33057272,0
0.88227373,0.36550128,5.6901202,0.15291494,0.063348375,0.98620689,0
4.4437084,-2.8121667,-2.3467255,0.7716592,-0.48833859,-0.40751374,0
4.5276718,-3.5828586,-0.47581831,0.78152698,-0.61844158,-0.08213158,0
-4.7037663,2.0779908,2.8673487,-0.79891247,0.35293689,0.48700559,0
1.694241,4.4518213,-3.4103146,0.28920466,0.75991988,-0.58213609,0
2.6786556,-5.3342843,-0.072609529,0.44872281,-0.89358824,-0.012163397,0
0.18982449,5.8135986,-1.5914936,0.031477455,0.96403414,-0.26390782,0
-0.13990702,-4.8405361,-3.045181,-0.024457365,-0.84618169,-0.5323329,0
-3.9542162,-4.1864171,-1.6995312,-0.65857595,-0.69724905,-0.28305745,0
1.5809866,5.6329279,0.81558567,0.26763889,0.95357579,0.13806723,0
-3.8237715,-3.0617082,2.7855873,-0.67855865,-0.54332441,0.49432459,0
5.3604317,-0.76104826,-2.6949112,0.88634306,-0.12583873,-0.4456014,0
-0.61017954,5.8025837,-0.50466633,-0.10419087,0.99081695,-0.086174019,0
-4.1278629,2.5530965,2.9485853,-0.72685683,0.44956329,0.51920313,0
-1.0262109,-3.9803147,-4.2766566,-0.17300269,-0.67101717,-0.7209757,0
1.4517981,-0.090216912,5.8081541,0.24247029,-0.015067467,0.97004181,0
-2.8217041,4.9696798,-1.450803,-0.47856736,0.84286886,-0.24605946,0
1.0730443,-1.5169041,5.7080293,0.17875628,-0.25269797,0.95088905,0
-1.6825097,5.4702783,-0.19328743,-0.29381412,0.95526648,-0.033753492,0
1.5605179,0.9982788,-5.6431408,0.2627387,0.16807656,-0.95011508,0
0.76928014,-4.5329885,-3.3855283,0.13473028,-0.79389906,-0.59293509,0
2.8898697,4.7212439,2.4294193,0.4780494,0.78099984,0.40188053,0
2.9209723,3.3051043,-3.6089485,0.51252782,0.57992941,-0.63324338,0
1.2084121,-4.2563391,3.7305195,0.20880218,-0.73545516,0.64459854,0
3.4429917,3.3720806,-3.2855196,0.59029675,0.57813907,-0.56329829,0
4.1033301,-4.081326,-0.92825121,0.70005792,-0.69630384,-0.1583664,0
-5.587224,2.3233333,0.071949162,-0.92328584,0.38392961,0.011889561,0
-3.4557393,1.9267446,-4.4737372,-0.57862437,0.32261154,-0.7490766,0
-1.6122017,-4.9889202,-2.3323526,-0.28095332,-0.86940342,-0.40645173,0
4.1920738,3.8182971,-0.32134926,0.73811275,0.67230064,-0.056581061,0
1.2278246,5.2935867,-1.8511838,0.21387786,0.92210323,-0.32246238,0
2.9744048,0.98868334,-4.744421,0.52308184,0.17387085,-0.83435863,0
-1.2465899,-2.0752335,5.3085113,-0.21366002,-0.35568589,0.90985548,0
-2.3868408,0.23652744,-5.2506104,-0.41348413,0.040974807,-0.90958893,0
5.8045201,-0.11436141,1.4856015,0.96859723,-0.019083429,0.24790156,0
-4.6842418,-1.745885,-3.3612046,-0.77760345,-0.2898241,-0.5579738,0
-0.0097811818,5.2575655,-2.6848905,-0.0016568585,0.89059198,-0.45480022,0
2.8406246,-4.2431998,2.861196,0.48530865,-0.72493267,0.48882321,0
-1.9012908,-5.4083595,0.57187295,-0.33001211,-0.93874341,0.099261515,0
3.7501209,3.455209,3.0630262,0.63043708,0.58085912,0.51492882,0
4.7677259,3.2710216,-1.4271775,0.80056244,0.54924655,-0.23964144,0
0.71486509,-4.7544007,2.9964044,0.12618668,-0.83923817,0.52891988,0
-2.4108214,-5.3781567,-0.57219797,-0.4071309,-0.90824383,-0.096630745,0
0.37286469,-3.8574622,4.2394385,0.064915396,-0.67158061,0.73808235,0
-4.1977358,3.5428052,1.7715296,-0.72731537,0.61383963,0.30694184,0
-1.4472643,-4.7583547,-3.2610855,-0.24334532,-0.80007732,-0.54832411,0
1.5076038,-5.4250226,-1.5040854,0.25868124,-0.93084908,-0.25807753,0
0.049132846,-1.8808893,-5.6598282,0.0082377139,-0.31535375,-0.94893843,0
-3.03988,1.6474591,-4.7959523,-0.51415569,0.27864602,-0.81117219,0
-5.349514,8.8983383e-05,2.7347989,-0.89039403,1.4810742e-05,0.45519063,0
0.96197313,-2.6136618,5.1974206,0.16314052,-0.44324955,0.88142788,0
-2.8712008,1.499037,-4.9350405,-0.48639601,0.25394452,-0.83602095,0
4.2918305,-0.071063668,3.8709521,0.74252313,-0.012294617,0.6697076,0
4.0626369,-4.0423255,0.2902756,0.70796907,-0.70442957,0.050584428,0
-1.3210864,4.766263,3.1717353,-0.22484358,0.81119877,0.53981656,0
0.19047111,-3.0501826,-5.0486956,0.032274332,-0.51683742,-0.85547501,0
5.5640159,1.5639513,-0.24158219,0.96185291,0.27036068,-0.041762378,0
-1.2820683,-4.4417787,3.1990769,-0.22804376,-0.79006708,0.56902552,0
-3.9233065,4.1579227,-0.61366147,-0.68236852,0.72317457,-0.10673223,0
1.7480077,-4.8572927,2.710176,0.29980785,-0.83309388,0.46483323,0
-1.3681731,5.3927283,-1.9728885,-0.23177491,0.91355336,-0.33421651,0
-3.4231374,3.0991633,3.7798917,-0.57363647,0.51934612,0.63341999,0
2.9309638,4.3861394,2.3238971,0.50845218,0.76089036,0.4031406,0
3.4487364,4.7430234,-1.1345794,0.57738286,0.79407066,-0.18994977,0
1.1465265,-5.7363248,-0.60448366,0.19495663,-0.975411,-0.10278707,0
-2.9965277,4.8838463,1.5457395,-0.50491804,0.8229332,0.26045871,0
1.3236419,-5.6977234,-0.80743152,0.22415933,-0.96491194,-0.13673888,0
0.5117051,-2.6131151,5.2077227,0.087486185,-0.44676408,0.89036399,0
-5.523211,-1.6965456,0.56225175,-0.95142609,-0.29224625,0.096853256,0
5.6176887,-0.79790503,0.54545289,0.98552006,-0.13997774,0.095689669,0
2.9556026,-5.0734935,0.95870632,0.49679226,-0.85277784,0.16114409,0
0.98753929,2.6686094,-5.3215051,0.16364904,0.44222581,-0.88184762,0
3.3102353,-1.2949679,-4.5537643,0.57302272,-0.22416715,-0.78828549,0
-0.18069707,4.5444698,-3.7559135,-0.030634655,0.77045119,-0.6367625,0
0.79575104,-1.479501,5.6070924,0.13594812,-0.25276169,0.95792985,0
-1.4289955,3.726903,-4.019238,-0.25227392,0.65794498,-0.7095536,0
-5.9384117,0.36560825,1.2331507,-0.97733837,0.06017147,0.20295082,0
5.0088806,-2.2906067,-2.0548303,0.85205144,-0.38965088,-0.34954339,0
-0.66225153,1.5887156,5.5106444,-0.11471142,0.27518821,0.95452231,0
-1.1082194,-0.26293418,5.545537,-0.19575368,-0.04644417,0.97955269,0
2.0789804,-1.6999465,-5.1491256,0.35799041,-0.29272258,-0.88665462,0
-5.1892772,-0.49742997,-2.6034062,-0.89055949,-0.085366607,-0.44678441,0
-0.091491044,-3.5882463,-4.3883123,-0.016137928,-0.63292378,-0.77404588,0
3.2850144,-2.5773833,4.1895595,0.55537486,-0.4357405,0.70830005,0
4.8532066,-1.4369245,-2.8092465,0.83837837,-0.24822484,-0.48528978,0
5.1173811,-0.87085247,3.0442114,0.85038251,-0.14471421,0.50587285,0
2.5009425,-5.0429506,2.2472653,0.41262561,-0.8320266,0.37077191,0
-4.2251763,-1.3457284,3.9484251,-0.71161622,-0.2266514,0.66500497,0
-1.408832,-5.6839471,0.65607941,-0.23908576,-0.96459395,0.11133993,0
-2.1619792,-0.18404499,-5.6340308,-0.35809708,-0.030484093,-0.93318659,0
-5.1033878,-2.9943204,-0.42479807,-0.86028618,-0.50475734,-0.071608879,0
4.2133775,3.9839609,-1.53363,0.70245874,0.66421014,-0.25568843,0
4.9682746,-3.0794709,-0.4226476,0.84775531,-0.52546161,-0.07211794,0
-3.2021182,4.8943276,0.67710412,-0.54385424,0.83126253,0.11500074,0
5.4988575,-1.051764,2.1422467,0.91733205,-0.17545769,0.35737452,0
5.2153873,2.8053944,-0.9600876,0.86932456,0.46761593,-0.16003178,0
-1.1283333,-0.34679022,5.8329978,-0.18959633,-0.058271922,0.98013139,0
4.4998965,-3.7523971,-1.0876163,0.75511336,-0.62967783,-0.18250944,0
-3.4046252,0.016297627,4.7292142,-0.58425623,0.0027967808,0.81156445,0
-3.3641808,-1.5010591,-4.361506,-0.58926821,-0.26292473,-0.76395917,0
-1.1760436,-3.3535464,4.6791282,-0.20015454,-0.57075053,0.79635543,0
-3.9882779,1.0138497,4.1851335,-0.67950612,0.17273548,0.71304554,0
4.7513866,-1.6883835,-2.8806276,0.81817973,-0.29073641,-0.49603859,0
-0.3578648,4.4734063,3.6247478,-0.0620353,0.77545798,0.62834436,0
-1.6941539,-5.6378102,-0.5469768,-0.28655165,-0.95358741,-0.092516452,0
-2.3519921,-5.4583979,0.91859806,-0.39107752,-0.90759516,0.1527399,0
4.1002169,-1.2271291,3.85993,0.71142429,-0.21291788,0.66973239,0
2.6085458,-3.0453641,-4.4774833,0.43399513,-0.50667053,-0.74493843,0
1.7296489,-5.6505394,-0.93004656,0.28913844,-0.94457787,-0.15547213,0
-0.89607072,3.5488362,4.3220711,-0.158213,0.62659347,0.76311821,0
-0.31278548,6.0038166,0.0054644314,-0.052027192,0.99864525,0.00090892654,0
2.6421583,3.3131015,-3.8008623,0.46414986,0.58201492,-0.66770023,0
-4.1007419,-3.9431486,-0.52893937,-0.71772629,-0.69014376,-0.092576832,0
-4.0772834,4.1899028,-0.95868254,-0.688218,0.70722735,-0.16181916,0
-2.4049103,1.7250906,-4.8707666,-0.42195371,0.3026759,-0.85460073,0
-3.1876619,0.55875921,-4.7296076,-0.55622888,0.097500309,-0.82528967,0
-1.0614418,-5.5271888,-1.7997135,-0.17963353,-0.93539608,-0.30457526,0
-0.5820843,4.9501677,-2.8852901,-0.1010711,0.85953003,-0.50099182,0
-2.9938867,-4.1552873,2.2666306,-0.53455967,-0.74192822,0.40470782,0
0.043820526,0.75318033,5.8268824,0.0074581504,0.12818952,0.99172163,0
4.5487452,0.74738067,-3.3768463,0.79603416,0.13079223,-0.59095091,0
-2.702333,-2.1323216,4.4864626,-0.47787571,-0.37707591,0.793378,0
1.5716623,-5.57939,-0.29452696,0.27078933,-0.96130019,-0.050745483,0
-4.1146135,-3.8923514,0.055847794,-0.72641993,-0.68718034,0.009859723,0
-4.8817239,-2.7697663,-1.5539651,-0.83822459,-0.47558737,-0.26682618,0
-5.4221444,1.56309,0.98724997,-0.9464941,0.2728543,0.17233519,0
-2.865804,-4.8608394,-1.9976144,-0.47875869,-0.8120476,-0.3337197,0
2.91155,4.0416903,-2.8851366,0.5057916,0.70211846,-0.50120306,0
0.53775507,4.2129378,4.2101121,0.089922242,0.70447838,0.70400584,0
3.1405003,3.2850459,3.6383762,0.53944844,0.56427723,0.6249693,0
5.4102464,1.0625262,-1.6667272,0.93927735,0.18446606,-0.28936189,0
-0.51638746,2.3829293,5.1266828,-0.090961955,0.41975439,0.90306818,0
-5.698698,0.54505748,-1.8142716,-0.94894212,0.090762489,-0.30211088,0
2.0902991,-3.3151352,4.3132944,0.35867339,-0.56884241,0.74011606,0
1.7151948,-2.2532589,5.1122403,0.29348928,-0.38555816,0.8747623,0
0.11334103,4.7369781,3.4729972,0.019292679,0.80631876,0.5911665,0
