-0.41481569,-2.8248847,-5.2014513,-0.069910079,-0.47608593,-0.87661552,0
-0.64219117,-2.4277475,5.4215922,-0.10748059,-0.40632096,0.90738702,0
4.840899,1.6949506,3.0116718,0.81388593,0.28496698,0.50634336,0
1.3633305,2.5816622,-5.0790424,0.23271558,0.44068038,-0.86697417,0
-5.4966607,0.17172749,-2.359184,-0.91855621,0.02869767,-0.3942472,0
2.9657607,4.954392,1.1936983,0.50298458,0.84025079,0.20244785,0
1.5721194,5.7121935,0.30530286,0.26500353,0.96287316,0.051463231,0
-4.4910378,3.7000968,-1.6863613,-0.74129367,0.61074042,-0.2783519,0
-4.4494839,-2.9529727,-2.293014,-0.76560789,-0.50810814,-0.39455128,0
-1.8215516,2.5817456,5.0041146,-0.30779016,0.43624124,0.84555238,0
-0.71072072,3.0696814,-4.9760656,-0.12067053,0.52118939,-0.84486705,0
0.084522799,-2.7218223,5.2278466,0.014339118,-0.46175152,0.88689339,0
2.9279041,-4.3712611,2.6266875,0.49790233,-0.74335122,0.44667917,0
-1.4172615,4.7355933,3.543498,-0.23302515,0.77862298,0.58261949,0
1.9166634,2.0470128,5.0851836,0.33005252,0.35249892,0.87567681,0
1.0130597,-3.5263219,-4.3814211,0.17727181,-0.61705881,-0.76668966,0
-0.29748178,-2.7421713,5.1579204,-0.050859284,-0.46881819,0.88182926,0
3.2722833,4.9867139,1.250832,0.53694707,0.81826705,0.2052483,0
-5.0556269,-2.9685187,-0.90950775,-0.85214186,-0.50035322,-0.1533004,0
-4.999486,-1.7932684,-2.8955777,-0.82644552,-0.29643822,-0.47865665,0
-3.7681813,0.31002736,4.5648904,-0.63572735,0.05230451,0.77013963,0
-4.4974699,-2.4102185,2.9678247,-0.76190698,-0.40831009,0.50277299,0
0.10888722,2.5202053,5.4649501,0.018090431,0.41870478,0.90794224,0
-1.3304466,-3.9360857,-4.1200547,-0.22737625,-0.67268568,-0.70412642,0
5.6677904,0.92555547,-1.3410889,0.96107018,0.15694366,-0.22740442,0
-0.045879852,-1.1257377,5.7621322,-0.0078143263,-0.19173737,0.98141521,0
3.9969473,3.4570804,2.3171842,0.69267613,0.5991165,0.40157101,0
-4.5138426,1.8114396,-3.3005695,-0.76793301,0.30817741,-0.56152076,0
0.37154388,-0.86623544,5.9791265,0.061382148,-0.14310932,0.98780155,0
-2.6008623,-3.5249202,3.898994,-0.44349682,-0.60106641,0.66485316,0
-5.3579855,1.9729326,-1.4556166,-0.90931869,0.33483189,-0.24703676,0
-0.4975706,-3.410661,-4.8772521,-0.083313756,-0.57108474,-0.8166523,0
5.598639,-1.2232885,1.2868135,0.9532159,-0.20827527,0.21909094,0
3.7063494,-4.5341883,1.6552721,0.60902542,-0.74505544,0.27199346,0
4.7705321,-2.3097501,2.5654886,0.81014127,-0.39224637,0.4356764,0
5.6439514,-1.6035999,-0.12120036,0.96172106,-0.27325106,-0.020652363,0
-4.5094328,-3.6568947,-0.20408483,-0.77622598,-0.6294753,-0.035129905,0
-3.124305,-3.915992,3.259573,-0.52274644,-0.65520841,0.54537892,0
5.600317,-1.3448292,-0.035880189,0.97233874,-0.23349205,-0.0062295934,0
-3.8018372,-4.7842407,-0.75887263,-0.61739933,-0.77693671,-0.12323711,0
-0.39127931,-4.1358371,3.83248,-0.069227338,-0.73173559,0.67806393,0
-1.2867647,-3.7789719,4.4330063,-0.21569879,-0.63346446,0.74309945,0
-4.8147287,-2.1204722,-2.3529284,-0.83542866,-0.36793417,-0.40826887,0
-3.2271872,-3.5602577,-3.2838271,-0.55448896,-0.61171645,-0.56422073,0
4.0184307,3.9750428,-1.8686142,0.6750046,0.66771644,-0.31388453,0
-4.9378304,3.126399,0.59644902,-0.84052235,0.5321787,0.10152814,0
2.2842479,-5.095562,-1.6900038,0.39152279,-0.87338537,-0.28966865,0
-0.18244228,-5.9492216,-0.24660838,-0.030625893,-0.99867326,-0.041397214,0
1.5217769,3.0175822,-4.9156818,0.25510222,0.50585073,-0.82403761,0
4.4906802,1.6466854,3.3837512,0.76646215,0.28105363,0.57753325,0
-0.27661783,5.6967506,1.4396987,-0.047024935,0.96844566,0.24474829,0
-5.561419,-1.113351,-0.66635144,-0.97384655,-0.19495618,-0.11668318,0
-5.6408997,-0.8850255,1.4154665,-0.9588908,-0.15044458,0.24061371,0
-1.6611894,-5.2871556,1.103958,-0.29397076,-0.93563634,0.19536085,0
2.0797534,-5.5334988,-1.012341,0.34677097,-0.92263663,-0.16879427,0
2.2799778,-4.895196,2.7794533,0.37540174,-0.80600131,0.45764112,0
5.3751369,-0.21167326,-2.280911,0.91994363,-0.036227446,-0.39037323,0
4.7106142,3.2709072,2.0671184,0.77273351,0.53656262,0.33909202,0
2.7714307,-1.7648759,-4.7568827,0.47937763,-0.30527267,-0.82280356,0
-2.4877119,-4.74508,2.187638,-0.42987368,-0.81994426,0.37802127,0
-3.5161905,2.8410358,-3.8589029,-0.59159416,0.47800031,-0.64925504,0
-1.2409171,-5.4811635,1.5872545,-0.21249576,-0.93859935,0.2718029,0
-5.3553824,-2.1489449,0.053619552,-0.92803019,-0.37238905,0.0092916917,0
4.6648798,-3.6908636,-0.94533122,0.77450353,-0.61278898,-0.15695204,0
5.0628328,1.7442904,-2.2418625,0.87211478,0.30046842,-0.38617933,0
4.6972833,-1.2716638,3.249126,0.80276775,-0.21732789,0.55527705,0
0.32908738,5.5319643,-2.0915926,0.055557951,0.9339301,-0.35311168,0
-1.8928189,3.1927748,4.5016866,-0.32441661,0.54722041,0.77155924,0
-4.3571596,-4.0462055,-0.15353394,-0.7325266,-0.68024892,-0.025812156,0
-2.74594,-4.2953143,-2.8797457,-0.46897814,-0.73359525,-0.4918308,0
-1.7849263,-4.4421444,3.5370672,-0.2998735,-0.74629486,0.59423894,0
-1.3088455,5.4799228,1.9476722,-0.21956028,0.91926306,0.32672417,0
1.5585136,5.1961236,2.6848755,0.25748345,0.85845631,0.44357073,0
3.6138821,-0.46295175,4.6714611,0.61001271,-0.078144901,0.78852892,0
5.2646723,0.65311563,-2.5352297,0.89540005,0.11107999,-0.43118444,0
1.094999,0.62026924,5.5992861,0.19080065,0.10808026,0.97566062,0
-4.0729756,-3.5473957,2.2853062,-0.69447923,-0.60486311,0.38966542,0
0.82828784,3.5371547,-4.6468,0.14042756,0.59968764,-0.78781646,0
1.9586095,-0.024996353,5.462625,0.33750549,-0.0043073446,0.94131368,0
2.832335,-5.010798,1.2911011,0.48014534,-0.84944445,0.21887106,0
2.5215597,-5.2974753,0.70605445,0.4267092,-0.89646161,0.11948158,0
-5.1438789,0.5823766,2.8710933,-0.86895514,0.098380841,0.4850136,0
-1.8939034,1.5347368,5.3796206,-0.32066631,0.25985402,0.91085064,0
1.1661078,-3.7990391,4.2644267,0.20005104,-0.65174222,0.73158157,0
-5.5708981,0.071352676,-1.4348456,-0.96832073,0.012402358,-0.24940157,0
-4.5660586,2.8938119,-2.6458747,-0.75865644,0.48081052,-0.43961543,0
-1.4808952,0.76840872,5.7528253,-0.24723341,0.12828478,0.96042627,0
-4.2975111,-4.0351391,-0.31058946,-0.72800058,-0.68355459,-0.052614011,0
5.0711503,-1.7378387,2.4551628,0.86007959,-0.29474175,0.41640165,0
-0.50505686,5.6130376,1.9816093,-0.084543236,0.93958604,0.33170852,0
-4.1015797,-3.0008817,-2.6480522,-0.71572596,-0.52365404,-0.46208531,0
-0.64356726,-2.6248276,5.3221483,-0.10781796,-0.43974203,0.89162892,0
5.3894491,-0.012859225,-2.5466359,0.90414172,-0.0021572821,-0.42722729,0
-3.0613275,5.2017093,-0.65917575,-0.50420648,0.85673147,-0.10856751,0
2.0744474,3.8663139,4.0612035,0.34697184,0.64667922,0.67927647,0
-3.9526801,-4.3280363,0.46277192,-0.67226988,-0.73611027,0.078708015,0
3.5329123,2.8913004,3.691345,0.6017698,0.49248245,0.62875605,0
-1.4447471,2.475754,5.0200281,-0.24992283,0.42827389,0.86840087,0
-4.8236108,-2.0652618,-2.0896008,-0.85405141,-0.36566794,-0.3699773,0
-0.69800204,-0.89440048,-5.9283762,-0.11564062,-0.14817868,-0.9821763,0
1.024472,-2.3327489,-5.217587,0.17643791,-0.40175363,-0.89858985,0
-2.4880097,4.7653031,2.5720398,-0.41749775,0.79963648,0.43159834,0
-5.4867096,1.3682139,1.3511957,-0.94371873,0.23533395,0.23240681,0
2.5123055,-0.77157319,5.2717185,0.42650107,-0.13098598,0.89495224,0
-0.12471538,-4.1916418,4.0535755,-0.021383202,-0.71868217,0.69500989,0
2.6263089,-3.7544856,-3.8889129,0.43700674,-0.62473059,-0.64709872,0
1.3589544,5.3607116,-1.7843955,0.23385781,0.92250651,-0.30707049,0
-0.77810609,-5.7201853,-0.087582991,-0.13477132,-0.99076062,-0.01516975,0
0.97125471,2.6138802,-5.2559028,0.16324136,0.43932176,-0.8833735,0
-2.930212,-1.403852,-5.0254526,-0.48964807,-0.2345883,-0.83976966,0
5.2563591,2.5835619,-0.78844535,0.88943082,0.43716565,-0.13341318,0
3.6536021,-1.5657339,4.5535178,0.60446,-0.25903848,0.753344,0
1.991748,5.0350146,-2.0206673,0.34462851,0.87119937,-0.34963238,0
4.1260056,-0.11855487,-4.0346994,0.71482271,-0.020539409,-0.69900405,0
4.1992593,-2.604794,3.7015958,0.68013191,-0.42188478,0.59952801,0
4.2623253,-3.8521256,-0.59000057,0.73802334,-0.66699713,-0.10215884,0
5.086782,-3.108496,0.054054998,0.85325372,-0.5214172,0.0090671526,0
4.5128403,-0.71083087,3.8888943,0.75219744,-0.11848085,0.64819849,0
1.2617831,-2.5946319,5.112483,0.21493958,-0.44198489,0.8708905,0
1.3563578,5.7779078,-1.0327767,0.22515287,0.95912188,-0.17143901,0
-1.3575956,4.0239453,-3.9906583,-0.23296089,0.69050157,-0.6847896,0
-0.38896006,-5.9423614,-0.05615785,-0.065312795,-0.99782026,-0.0094298273,0
-4.488884,1.4979901,3.3221211,-0.77636629,0.25908199,0.57457107,0
3.5491681,4.0941525,-2.5872362,0.59109741,0.68186206,-0.43089214,0
0.40519482,-1.5912955,5.8201065,0.067004062,-0.26314074,0.96242785,0
0.87039697,-5.8947325,0.083951093,0.14605846,-0.98917568,0.014087557,0
-3.7879777,-4.5521541,0.045616869,-0.63961875,-0.76865369,0.0077026337,0
-5.2990212,-1.1993589,-2.1051862,-0.90944499,-0.20584008,-0.36130276,0
4.8724794,-2.4907832,-1.7453924,0.84829962,-0.43364584,-0.30387318,0
2.8351274,1.7882817,4.6472487,0.49478725,0.31209144,0.81103921,0
-1.7434958,-5.5775533,-1.1326735,-0.29290321,-0.93701583,-0.19028649,0
-0.61687189,-0.14196238,5.6974072,-0.10761026,-0.024764638,0.99388462,0
-0.64512867,-5.8259435,0.78419256,-0.10908909,-0.98514748,0.13260433,0
3.0774729,4.7356257,2.2778981,0.50534779,0.77763087,0.37405065,0
-0.83123487,-5.6720204,1.2830945,-0.14150016,-0.9655416,0.21841972,0
-1.3360419,5.2711616,-2.0586445,-0.22977842,0.9065578,-0.35405484,0
-4.4123964,3.9536231,-1.1527407,-0.73105454,0.65504408,-0.19098835,0
0.59725952,1.664742,5.5414257,0.10267787,0.28619415,0.95265424,0
-4.5799141,0.62964523,-3.3008089,-0.80626041,0.11084444,-0.5810833,0
0.41685537,-3.8526433,4.6445899,0.06891457,-0.63691932,0.76784402,0
4.8970079,0.64255947,2.9977868,0.84758979,0.11121625,0.51886654,0
4.0899549,1.0642672,-4.1380925,0.69148457,0.17993459,-0.69962317,0
1.1600323,-5.4547048,-1.5660836,0.20026739,-0.94169754,-0.27036789,0
-0.9950766,3.944191,4.4674916,-0.16469429,0.65279973,0.73941076,0
1.4862794,4.3424134,-3.7413149,0.25100121,0.73334193,-0.63182908,0
-1.2560238,2.7785442,-4.7800713,-0.22152753,0.49005765,-0.84307116,0
0.1985082,0.83900642,-5.7939849,0.033887953,0.1432294,-0.98910916,0
-2.2928081,-3.4616404,4.3405395,-0.38170969,-0.57629848,0.7226187,0
1.5561454,4.2259607,3.7142231,0.26657981,0.72393996,0.63627529,0
-4.6171479,2.7497969,2.8338964,-0.75997508,0.45261213,0.46645477,0
-0.731318,5.4146357,-1.611457,-0.12838066,0.95052284,-0.28288639,0
2.040833,4.5038147,3.2355754,0.3453671,0.76217383,0.54755157,0
-2.4717202,0.12155307,5.2276998,-0.42734796,0.021015912,0.90384293,0
4.4749923,-3.2122729,1.6973233,0.77635217,-0.55728698,0.29446322,0
-2.3674774,-3.7600999,3.9029791,-0.40031087,-0.63578594,0.65994501,0
3.163213,1.9543614,4.5576167,0.53778321,0.3322643,0.7748481,0
5.3911939,2.188412,-0.53459114,0.92268568,0.37453973,-0.091493569,0
-3.081203,-5.134553,-1.2363747,-0.50392443,-0.83974564,-0.20220655,0
-0.72330022,-2.5442915,5.3467116,-0.1212528,-0.42652065,0.89631355,0
3.9048963,4.1014934,0.90786517,0.68084246,0.71512038,0.15829183,0
1.2657589,-5.5884719,0.6689471,0.21940932,-0.96871752,0.1159567,0
-3.4461935,-4.7188148,0.98449534,-0.58157748,-0.79634422,0.16614282,0
2.8903742,1.4302591,-5.0112443,0.48502442,0.24000719,-0.84092087,0
4.3201203,3.9609022,1.2362087,0.72121906,0.6612497,0.20637788,0
-2.278089,0.13498199,-5.356317,-0.39127615,0.023184007,-0.91998118,0
-4.5185227,2.572978,2.5442951,-0.78055716,0.44447193,0.43951705,0
4.7909789,2.1845696,-2.2672579,0.83569723,0.38105759,-0.39548102,0
4.0172958,-4.1230803,0.91396201,0.68922633,-0.70737523,0.15680365,0
0.79551232,-0.73876226,-5.8487291,0.13373026,-0.12419024,-0.98320544,0
-4.7522287,-3.1672366,-1.642261,-0.7997157,-0.53298968,-0.27636337,0
5.5687623,0.48036003,-1.4241818,0.96545327,0.083279759,-0.24690963,0
-2.1888435,1.4535307,-5.1840854,-0.37661219,0.25009432,-0.8919732,0
2.5109634,-4.7290902,1.8922945,0.44215593,-0.83274621,0.33321443,0
1.9318835,-0.044801768,5.3926921,0.33724281,-0.0078209033,0.94138527,0
3.119889,5.0245357,0.79846436,0.52276826,0.8419106,0.1337906,0
1.248238,-4.7927885,3.2572315,0.21057457,-0.80853122,0.5494867,0
-3.7661543,0.021655343,-4.5258446,-0.63964039,0.0036779246,-0.76866549,0
3.1970439,-0.18631937,-5.0710764,0.53305084,-0.031065475,-0.84551275,0
-1.8994154,-4.650208,2.8270178,-0.32952806,-0.80676085,0.49045706,0
3.7272322,-3.1507213,3.2645471,0.63478172,-0.53659666,0.55598223,0
3.5245624,-4.580389,0.08104188,0.60977978,-0.79244691,0.014020946,0
4.3175893,4.1696401,-0.017023444,0.71932089,0.69467223,-0.0028361473,0
3.276896,1.3630263,4.9792438,0.53591037,0.22291213,0.81431586,0
1.8971907,-1.6397318,-5.5881643,0.3097454,-0.26771128,-0.91235328,0
-0.69701725,3.336575,5.0783877,-0.11396142,0.54552573,0.83030987,0
-4.8278089,-3.0131469,-0.20415296,-0.84778714,-0.52912354,-0.035850272,0
1.7965976,-3.8695624,4.0076222,0.30693221,-0.66107923,0.6846655,0
-2.1166096,2.586529,-4.7707634,-0.36336792,0.4440411,-0.81901848,0
-1.1771777,-5.8025975,0.33881485,-0.19849592,-0.97843516,0.05713103,0
-2.9008119,0.76351768,-4.9705606,-0.49966386,0.13151567,-0.85617733,0
3.8972752,-4.504108,0.44210145,0.65253264,-0.75413644,0.07402239,0
-0.67834324,-1.9719867,5.614747,-0.11325516,-0.3292399,0.93742967,0
-0.42175722,1.6658585,5.7565064,-0.070204847,0.27729541,0.95821637,0
0.21791019,-5.5857692,2.1970351,0.036280457,-0.92998987,0.36579034,0
2.3517311,-5.3254743,-0.41007149,0.40296626,-0.91251355,-0.070265248,0
-3.5644674,-3.7930465,-3.027868,-0.59193915,-0.62989849,-0.50282788,0
-2.7210083,-0.068178155,5.4338551,-0.44772255,-0.01121823,0.89410216,0
3.7657521,4.4914165,0.8363266,0.63604552,0.7586121,0.14125778,0
-2.8152802,1.1029555,-5.1308951,-0.4727166,0.18519838,-0.86153388,0
2.4590461,5.3180242,-1.3582767,0.40885866,0.88421285,-0.22583683,0
-2.8480604,4.2306662,-2.4363058,-0.5038994,0.74852002,-0.43104881,0
2.957823,-3.1838553,-3.9810407,0.50187171,-0.54022396,-0.67548722,0
1.8325658,0.02316957,-5.4065838,0.32100922,0.0040585967,-0.94706738,0
-4.6933737,1.4579997,-3.1491363,-0.8040728,0.24978577,-0.53951275,0
2.1499989,-5.3410983,-1.6746287,0.35856125,-0.89074975,-0.27928245,0
-2.2535708,-0.16136362,5.5125213,-0.37827083,-0.027085526,0.92529863,0
-2.2220666,-5.2882285,1.6153523,-0.37287879,-0.88740283,0.27106774,0
-5.4158273,0.60257262,2.6012044,-0.89691901,0.09979248,0.43078732,0
0.61902297,3.6900175,4.4048963,0.10710681,0.63846743,0.76215976,0
-4.4358473,-3.5880749,1.5851488,-0.74911344,-0.60594404,0.26769549,0
-5.2925024,-2.6625683,-1.0910274,-0.87854987,-0.44198358,-0.18110941,0
-4.6057558,3.6299131,0.52822244,-0.78223062,0.61649579,0.089712039,0
-2.7577581,0.29096162,-5.274416,-0.46279088,0.048827484,-0.8851217,0
1.493909,3.1616006,-4.7458425,0.25342157,0.53632307,-0.80506837,0
-4.4156098,3.5061672,-0.67848361,-0.77753156,0.61739051,-0.11947215,0
-3.5356107,0.50694984,-4.4863744,-0.61654514,0.088402681,-0.78234076,0
-3.44993,-3.3014991,-3.4877429,-0.58342582,-0.55832434,-0.58982044,0
-0.42597154,0.40187624,5.7685094,-0.073466681,0.069311,0.99488628,0
4.0027919,1.1964746,-4.131856,0.68122268,0.20362428,-0.7031877,0
-5.3449397,-1.9454628,-1.0485065,-0.92411935,-0.33636299,-0.18128271,0
5.8398204,-1.07868,0.22285128,0.9826737,-0.18151081,0.037499458,0
-4.6741853,-1.6049768,-3.1935589,-0.79437387,-0.27276447,-0.54274267,0
0.72820663,0.31227672,5.6915302,0.12672357,0.054342847,0.99044836,0
-4.2141571,-3.5944145,-2.4360173,-0.69645393,-0.59403199,-0.40258911,0
3.4027612,0.66514242,-4.75108,0.57853729,0.11308748,-0.80777836,0
5.8288875,0.36346838,0.87741745,0.98698491,0.061544817,0.14857,0
-0.30963269,-5.0249906,3.0744588,-0.05248864,-0.85183161,0.52117932,0
2.4120545,-1.5865387,-5.2874699,0.4003861,-0.26335558,-0.87768722,0
5.5638852,0.68115354,-1.6247128,0.95335084,0.11671311,-0.27838844,0
-3.8633573,-4.0950375,-1.0163432,-0.67531496,-0.71581268,-0.17765683,0
-4.4828529,0.63560134,3.4778602,-0.78519201,0.11132845,0.60916299,0
3.0991418,3.2562172,-3.7578478,0.52894503,0.55575383,-0.64136946,0
-0.82103491,-3.646039,4.4795775,-0.14073533,-0.62497526,0.76785386,0
4.6040411,3.1313014,-1.702304,0.79074931,0.5378046,-0.29237264,0
4.6933928,3.1206691,-1.5507922,0.80288815,0.5338459,-0.26529056,0
5.2236233,2.9733167,-0.83537465,0.86079997,0.48997232,-0.13766123,0
5.2612872,-0.30347702,2.809922,0.88094163,-0.050813712,0.47048891,0
1.6018289,-0.35714281,5.8406038,0.26403195,-0.058868404,0.9627158,0
-4.649888,-2.8932054,-2.1433344,-0.79066491,-0.49195939,-0.36445165,0
5.6737719,0.0052852747,1.8637226,0.95005703,0.00088500429,0.31207505,0
-5.4682012,-0.12130552,1.5905639,-0.95998621,-0.021296149,0.27923614,0
-0.73978543,5.6586356,0.3659226,-0.12936686,0.98953003,0.06398917,0
3.9279284,4.4088678,0.34986544,0.66404408,0.7453503,0.059147228,0
1.5201026,2.3420863,-5.2313929,0.25634599,0.39496312,-0.88220793,0
-1.0473654,-1.1070799,-5.8329029,-0.17372958,-0.18363459,-0.96752077,0
5.222054,1.8089057,1.9952496,0.88876516,0.30786592,0.33958063,0
3.1554379,-0.05846379,5.1201792,0.52462226,-0.0097201737,0.85127962,0
3.2599397,4.5091743,2.0327132,0.5503093,0.76119214,0.34314162,0
5.2587895,-0.64673549,-2.6057243,0.89064336,-0.10953294,-0.44131276,0
3.6607692,4.3940511,-1.5278244,0.61840171,0.74227262,-0.25809035,0
5.5342474,-2.1533628,0.62558335,0.92681044,-0.36061978,0.10476532,0
-1.7002932,5.5449004,0.80359972,-0.29039314,0.9470138,0.13724683,0
-3.1704733,3.5330162,3.26476,-0.5503037,0.61323076,0.56666917,0
-2.2952151,-0.79485005,-5.1604505,-0.40242139,-0.13936152,-0.90478474,0
4.444447,1.7608783,-3.4055293,0.75720614,0.30000308,-0.58020437,0
5.7230878,0.008998136,0.10445986,0.99983221,0.0015719882,0.018249298,0
-4.4274764,-3.2142694,-1.6326109,-0.77544469,-0.56295907,-0.28594154,0
0.65830547,5.7894301,0.38755608,0.11273102,0.99140662,0.066366754,0
4.255796,1.6101063,3.9100726,0.70936918,0.26837748,0.65174294,0
-1.2614954,-5.0951896,-2.5976138,-0.21539672,-0.86998904,-0.44353512,0
2.6857095,4.6037264,2.7432241,0.4480378,0.76800692,0.45763257,0
-3.7382162,0.77083617,-4.4233394,-0.6398356,0.13193683,-0.75710177,0
4.127634,0.29885095,4.0740256,0.71077043,0.051461544,0.70153916,0
-5.3154621,-1.834365,2.2340815,-0.87849694,-0.30316913,0.36923108,0
3.9383879,-2.3608346,-3.2912221,0.69712442,-0.41788557,-0.58257121,0
3.423722,-1.5824294,4.7821345,0.56213701,-0.25981727,0.78517324,0
-4.2668157,-2.1745136,-3.2416651,-0.73782563,-0.37602088,-0.56055468,0
-1.7133157,1.0822645,5.2915297,-0.30236903,0.19099998,0.93385863,0
3.9156632,0.076268964,-4.3282714,0.6708191,0.013066159,-0.74150586,0
-2.4893754,0.14353088,-5.6331372,-0.40409687,0.023299169,-0.91441941,0
5.5302014,-0.2286914,1.9065363,0.94467396,-0.039065268,0.32567623,0
0.8272292,-4.617178,-3.6282592,0.13949504,-0.77859128,-0.61183065,0
2.6545553,-1.4119538,4.9107356,0.46101317,-0.24521218,0.85284108,0
0.39607897,2.2917786,-5.3477516,0.067919418,0.392993,-0.91702968,0
1.3013268,4.7884026,-2.8331559,0.22774626,0.83802223,-0.49583292,0
5.0860472,2.9422758,0.88047194,0.85603684,0.49521691,0.14819297,0
-2.9960573,-4.9319019,-1.17392,-0.50877112,-0.83750379,-0.19934753,0
-1.1684173,1.7143421,5.6409988,-0.19439891,0.28522879,0.93853801,0
5.711463,-0.78056169,1.9497019,0.93856031,-0.12826909,0.320393,0
1.4826603,5.6909695,1.5651615,0.24363217,0.93514556,0.25718883,0
-5.2277479,2.4073448,-1.7821183,-0.86767626,0.39955944,-0.29578736,0
-0.098567918,-3.2477992,4.8433599,-0.016900271,-0.55686158,0.83043343,0
-1.9267991,-1.0302557,-5.4196944,-0.32973096,-0.17630649,-0.92746621,0
-1.8584373,5.4730449,-1.8299068,-0.30653527,0.90273762,-0.30182937,0
-0.33631873,4.71733,-3.8498585,-0.055150732,0.7735644,-0.63131338,0
3.8107765,-2.5949595,-3.3785443,0.66670895,-0.45399743,-0.59108841,0
5.4123192,2.3586841,0.69016528,0.91052872,0.39680764,0.11610832,0
-2.1349018,-5.0598702,-2.3175011,-0.35815808,-0.84886032,-0.38879153,0
4.6398759,2.1138036,3.0909173,0.77818745,0.35452142,0.51840031,0
-4.1306753,3.0732934,2.9837465,-0.69415414,0.51646262,0.50141436,0
4.2589836,3.2681913,-2.8521762,0.70059949,0.53761494,-0.46918076,0
1.4117781,-5.589901,0.61672401,0.24348074,-0.96405607,0.10636263,0
-5.1529512,-0.66030282,2.9056993,-0.86568171,-0.11092906,0.48814952,0
5.2122321,0.96829814,-2.9504716,0.8590914,0.15959701,-0.48630315,0
-0.34654689,3.4252,-4.6998324,-0.059484359,0.58793145,-0.80672061,0
4.984437,-1.8310959,2.5107422,0.84859031,-0.31174037,0.42744878,0
4.3680539,-2.5863681,-3.0241461,0.73923767,-0.43770999,-0.51179832,0
-0.31667304,1.9326714,5.5129328,-0.054127853,0.330345,0.94230694,0
4.9549761,-3.16536,0.29859704,0.8416363,-0.53765786,0.050718732,0
3.8560474,-3.0493143,-2.9143472,0.67472792,-0.53356647,-0.50995004,0
-1.8406608,-1.6554694,-5.4199662,-0.30890942,-0.27782962,-0.90960741,0
-1.4643661,5.707459,-0.93987757,-0.24541858,0.95653433,-0.1575176,0
-2.9529219,-0.10733917,5.0857592,-0.50203925,-0.018249206,0.86465234,0
3.4012094,0.26892951,4.7348652,0.58279288,0.046080731,0.81131315,0
4.7830648,-2.4610407,-2.6520736,0.79753286,-0.41035631,-0.44220933,0
5.6842132,0.14504838,-1.8161192,0.95228034,0.024300061,-0.30425578,0
-3.9600277,0.22651102,3.998693,-0.70309389,0.040216517,0.70995885,0
5.0441303,-2.9957547,0.45134896,0.85726136,-0.50913531,0.07670778,0
1.2759128,-3.6225417,4.2311187,0.2232845,-0.63394415,0.74044502,0
0.64838445,5.5259223,1.8457628,0.11060803,0.9426682,0.31486905,0
-0.48506132,3.2583365,-4.8340092,-0.082919873,0.5570035,-0.82636034,0
-3.109251,-3.9693687,2.8708045,-0.53587991,-0.68412131,0.49478361,0
1.4948773,5.2815247,2.5638654,0.2467501,0.87178844,0.42320132,0
-3.7224026,-1.3388966,3.969264,-0.66424912,-0.2389212,0.70830059,0
0.12320986,-4.885375,3.4150858,0.020666024,-0.81942534,0.57281327,0
1.3753879,-2.5518293,-5.1641474,0.23224443,-0.43089527,-0.87200451,0
-4.896112,-0.74348634,-3.1449111,-0.8345964,-0.12673546,-0.53608483,0
-1.0790828,-4.2626657,-3.848233,-0.18467152,-0.72950184,-0.65857691,0
0.26263833,5.5366168,2.204442,0.044029001,0.92816502,0.36955526,0
-5.6147175,0.033932637,-1.2972131,-0.9743169,0.0058883,-0.22510423,0
-3.6481488,2.1408062,-4.1831598,-0.613235,0.35985848,-0.70316762,0
-3.4466841,-4.8690519,0.076047212,-0.57772171,-0.81613427,0.01274678,0
-3.947118,4.3423328,-1.0152512,-0.66278398,0.72914684,-0.17047684,0
0.67359465,-1.8372014,5.5177193,0.1150574,-0.31381428,0.94248736,0
5.8865776,1.130205,-0.84843457,0.97237062,0.18669221,-0.14014813,0
2.0123036,-4.9495878,2.3973653,0.34361899,-0.84518677,0.40937176,0
1.9246042,-0.74470258,5.3525739,0.33549485,-0.12981571,0.93305469,0
-2.4106028,-4.9702144,-1.9151219,-0.41231453,-0.85011584,-0.32756644,0
5.5090384,1.0781239,1.2838124,0.95668358,0.18722387,0.22294313,0
-2.1368062,4.1430411,-3.5765288,-0.36367661,0.70513046,-0.60871214,0
-4.9724236,2.3077805,2.5408964,-0.82296246,0.38194993,0.42053184,0
3.2247469,0.82899541,-4.8165317,0.55073452,0.14157897,-0.82258552,0
-5.7794223,-1.3228688,-0.79263318,-0.96619421,-0.22115502,-0.13251109,0
2.9209123,0.27050173,-5.136848,0.49377999,0.045728296,-0.86838377,0
-5.6206026,-1.3622639,0.026957389,-0.97185171,-0.23554744,0.0046611698,0
-1.5642644,5.3995962,-0.96041125,-0.27428484,0.94678843,-0.16840264,0
-1.0766814,5.7218928,-0.48758897,-0.18427832,0.97932482,-0.083452806,0
1.5876559,-5.0473919,-1.9783965,0.28105226,-0.89350647,-0.3502225,0
0.96411932,2.6362314,5.1844311,0.16353326,0.44715577,0.87937963,0
-1.1035379,-0.90906054,-5.7169452,-0.18726197,-0.15426064,-0.97012198,0
-4.0900631,2.6652741,-2.8793781,-0.72164094,0.47025457,-0.50803059,0
-1.2450711,-3.6438205,4.3648071,-0.21390834,-0.62602341,0.74989188,0
-2.2009833,4.991384,-1.7905993,-0.38334835,0.86935633,-0.3118712,0
1.3464403,2.1527779,5.3629999,0.22691306,0.36280361,0.90381628,0
-0.90663671,1.5849832,-5.5199556,-0.15593687,0.272609,-0.94940406,0
1.416355,1.5905666,5.3984036,0.2440587,0.27407792,0.93022394,0
-1.691805,5.4983702,-0.25394422,-0.29379955,0.95484924,-0.044100057,0
-0.80758929,0.74753499,5.8412123,-0.135867,0.12576361,0.98271239,0
4.4095583,-2.4807682,2.9248281,0.75453681,-0.42449397,0.5004788,0
3.4929872,3.1346619,-3.5076201,0.59615219,0.53499639,-0.59864962,0
0.42938554,-3.121649,5.2083778,0.070536941,-0.51280618,0.85560173,0
-3.7401264,-2.9065306,-3.2823486,-0.64900798,-0.5043577,-0.56957173,0
-4.5310893,0.24742073,3.4292746,-0.79662269,0.043499686,0.60290974,0
3.7701492,3.9360893,2.258076,0.63904756,0.6671747,0.38274822,0
5.2275925,0.56767291,2.932631,0.86825228,0.094284952,0.4870815,0
2.1096971,0.3549279,-5.539969,0.35524613,0.059765339,-0.93286026,0
-1.2876636,-4.9418068,2.9936655,-0.21752575,-0.8348223,0.50572163,0
3.3240025,-1.2687539,4.9997211,0.54168224,-0.2067572,0.81475872,0
1.2851987,4.0305834,-4.2397962,0.21457799,0.67295003,-0.70788038,0
0.66870546,-4.5366259,-4.0076466,0.10980197,-0.74491757,-0.65805876,0
-2.6166618,3.7713187,-3.4739671,-0.45455146,0.65513182,-0.6034776,0
-3.7473857,4.7671046,0.29052866,-0.61729729,0.78527296,0.047858041,0
3.3976789,-4.5814185,-1.3821187,0.57893044,-0.78062779,-0.23549917,0
-3.6301756,3.0429983,3.393883,-0.62296903,0.5222044,0.58241922,0
-0.31370926,4.0644541,-4.2661643,-0.05316468,0.68880785,-0.72299188,0
4.1190839,1.4735042,4.3718047,0.6660099,0.23824918,0.70687205,0
3.7215405,4.3111882,0.052346658,0.65341538,0.75694376,0.0091908481,0
-5.2950854,2.7631831,-0.70698422,-0.88040209,0.45942834,-0.1175487,0
-0.34564984,1.7867061,5.6697793,-0.058046773,0.30005082,0.95215547,0
-4.3054657,-0.16410503,4.0110264,-0.73139858,-0.027877633,0.68138021,0
1.1270502,0.47667474,-5.9061713,0.18685727,0.079029433,-0.9792031,0
4.2176547,-3.1343198,2.4712079,0.72632474,-0.53976303,0.42556813,0
-2.1851797,5.5177708,-0.20312771,-0.36798769,0.92920125,-0.034207024,0
2.3403721,-1.5277413,4.910511,0.4142125,-0.27038842,0.86909044,0
-0.29801923,2.7504263,5.137454,-0.05107452,0.4713679,0.88045657,0
-0.16961215,5.6452441,-1.6087961,-0.028882647,0.96130842,-0.27395612,0
-3.431731,2.0607753,-4.5004077,-0.56976545,0.34214759,-0.74719632,0
1.9536179,-3.5866897,4.1656408,0.33487761,-0.6148091,0.71404946,0
3.9236546,-1.8117194,-3.9744179,0.66826504,-0.3085666,-0.67691094,0
4.6031766,-3.2212007,1.9339169,0.77470624,-0.54212219,0.32547471,0
-2.5719066,-4.215095,-3.2376037,-0.43557984,-0.71387136,-0.54832274,0
4.9925914,-0.73838502,-3.0512729,0.84654921,-0.12520136,-0.51737714,0
-3.0678926,2.2284055,-4.7133927,-0.50714976,0.36837515,-0.77916551,0
1.717957,0.9581967,5.6731329,0.28611183,0.1595799,0.94481438,0
2.5762656,2.6416752,4.8179116,0.4245241,0.43530247,0.79390866,0
0.3469519,-4.5331163,3.6117406,0.05975344,-0.78071135,0.62202835,0
4.2153683,3.7168736,-1.9642051,0.70806456,0.6243313,-0.3299318,0
-3.2201173,4.8974423,-1.5607682,-0.53089207,0.80742812,-0.25731966,0
3.8676858,-4.0913472,2.0671453,0.64487225,-0.68216407,0.34466207,0
4.9586549,1.0861248,3.1640031,0.82899278,0.18157941,0.52896112,0
5.2374239,-2.8035533,-1.1065193,0.86672759,-0.46395272,-0.18311499,0
3.1853898,4.3809838,1.9148947,0.55445021,0.76255578,0.33330733,0
-0.83777642,-4.6611071,-3.8320181,-0.13752133,-0.76512259,-0.62902731,0
-0.17789571,0.29655454,-5.8421621,-0.030397113,0.050672393,-0.99825263,0
-2.6560063,2.4176955,4.6968327,-0.44920468,0.40889966,0.79436529,0
2.8336446,0.41897255,5.0307112,0.48948327,0.072373249,0.86900419,0
-1.6475382,-4.656611,3.1926928,-0.2801235,-0.79174262,0.54283917,0
4.891633,-3.0551565,-0.88241303,0.83840638,-0.52364165,-0.15124206,0
2.6597977,3.6635349,-3.855886,0.44726893,0.61605638,-0.64840198,0
-1.8110735,5.6118221,1.0858305,-0.30204886,0.93593353,0.18109362,0
-2.1240134,2.7994468,-4.8412495,-0.35505897,0.46796721,-0.80928349,0
1.5093277,4.0072064,-3.6003213,0.26978925,0.71628004,-0.64355016,0
-1.6314696,-1.4127791,-5.4274888,-0.27932164,-0.24187994,-0.92923278,0
0.55857962,-3.0644929,-5.056078,0.094059035,-0.51602894,-0.85139126,0
-0.38699055,2.3634443,5.3447943,-0.066075087,0.40353644,0.91257459,0
5.3640928,-2.6269274,-0.7495141,0.89109933,-0.43639311,-0.12451155,0
5.0554996,-1.5332787,2.6125035,0.85779887,-0.26016116,0.44328013,0
0.65891629,0.31400084,-5.8613524,0.11155546,0.053160787,-0.99233526,0
4.7498965,3.2516134,1.727975,0.79032886,0.54103154,0.28751543,0
-3.769855,-2.1720152,-3.74878,-0.6564185,-0.37819782,-0.65274888,0
3.9799063,-4.189774,-1.097424,0.67662197,-0.71230149,-0.18657254,0
-1.8484335,4.3500028,-3.9082375,-0.30139196,0.70927942,-0.6372484,0
-4.8756628,3.7482772,-0.1999899,-0.79238051,0.60916066,-0.032501858,0
0.24721546,-5.5411239,-2.2652009,0.041262046,-0.92485356,-0.37807837,0
-4.0241914,-3.4623241,-2.5276113,-0.68442369,-0.58886284,-0.42988935,0
4.8008747,-2.5904374,2.8543897,0.77976662,-0.42074347,0.46361506,0
-3.6626737,-3.9690213,2.1774149,-0.62898153,-0.68158984,0.37392187,0
0.87869966,-5.9662242,0.30110052,0.14552595,-0.98809689,0.049866796,0
1.3903929,-1.6241766,-5.6325474,0.23078299,-0.26958734,-0.9349128,0
2.6263776,0.69483489,-5.3484921,0.43780851,0.11582669,-0.89157605,0
-0.033349562,5.6068916,1.1957127,-0.0058170529,0.9779914,0.20856418,0
4.3521204,2.7943184,-2.8294842,0.73822939,0.47398689,-0.47995192,0
3.084764,2.7090852,-4.3448172,0.51604927,0.45320207,-0.72684318,0
5.0501876,0.68107945,-2.4525628,0.89298815,0.12043036,-0.43366894,0
2.377044,3.6464345,-4.1767511,0.39403412,0.60445648,-0.69236517,0
3.1922865,2.4871471,4.4334841,0.53180867,0.41433823,0.73858196,0
-4.8115153,-2.2108207,-2.565424,-0.81774807,-0.37574324,-0.43601036,0
1.7384484,5.4919586,0.71176481,0.29950809,0.94618058,0.12262621,0
5.3870883,1.2844886,-2.428133,0.89086652,0.21241675,-0.40154204,0
-4.8187509,-3.0070083,1.3620709,-0.82498229,-0.5148074,0.23318999,0
-5.2292233,-1.7381605,-2.1082661,-0.88629925,-0.29460022,-0.35732931,0
1.819699,-0.2378865,5.7831669,0.29991588,-0.039207552,0.95315957,0
4.7269835,1.0683408,-3.2096443,0.81321579,0.18379408,-0.55217737,0
-5.817183,1.2663838,0.1771397,-0.97668207,0.21262084,0.029741056,0
2.6229277,1.8568726,-5.284513,0.42408118,0.30022356,-0.85441262,0
-3.2719226,4.8592277,0.3649143,-0.55744725,0.82788116,0.062171541,0
-5.9111557,-1.1867537,-0.89478922,-0.96981376,-0.19470476,-0.14680359,0
0.5041303,-1.4383024,5.587275,0.087047845,-0.24835072,0.96475106,0
-4.6130624,-3.2508385,2.0318758,-0.76909149,-0.54198098,0.3387551,0
-1.5008221,5.2935796,2.0793443,-0.25515431,0.89995992,0.35350871,0
5.6661358,-1.6111776,-0.13844582,0.96160376,-0.27343404,-0.023495734,0
-2.1501691,5.447433,-1.3455935,-0.35782331,0.90654194,-0.22392876,0
1.2530893,4.2325859,-4.0429401,0.20934197,0.70709872,-0.67541641,0
0.96329415,3.2257729,-5.0226965,0.15931246,0.53348792,-0.83066851,0
-4.3934331,-3.8322806,0.84971035,-0.74571472,-0.65046811,0.14422469,0
3.614327,3.8576941,2.6971028,0.60902578,0.65003395,0.45447055,0
-2.3795693,2.7070663,-4.7940416,-0.39674154,0.45134455,-0.7993024,0
-5.4238553,0.95673007,1.9239949,-0.92970109,0.16399275,0.32979128,0
5.162137,2.8271081,0.44088727,0.87462968,0.47900176,0.074700281,0
3.4544086,-4.6561866,-0.26210204,0.59521878,-0.80229354,-0.045162018,0
5.0375457,-2.7705855,-0.81195658,0.86761069,-0.47717476,-0.13984235,0
-0.27206582,-0.29771701,5.8158269,-0.046668172,-0.051068187,0.99760419,0
0.084683694,-2.3167527,-5.2758503,0.014695054,-0.40202317,-0.91551161,0
-4.9823613,2.5787199,-2.0884559,-0.83229882,0.43077275,-0.3488746,0
4.5681529,1.4084306,3.4459238,0.7751981,0.23900528,0.58476007,0
-2.7353201,5.0208807,-0.61519349,-0.47565618,0.87310177,-0.10697855,0
-1.9072187,1.0076813,-5.4109921,-0.32741416,0.17298965,-0.92891043,0
3.5843074,3.9222336,2.5730724,0.60714465,0.66438586,0.4358519,0
1.0264018,-4.7106886,3.4161656,0.17370643,-0.79722863,0.57814586,0
5.5551434,-0.91568881,-1.9228605,0.93372989,-0.1539125,-0.32320181,0
-2.9983187,4.9395261,-0.041842125,-0.51887864,0.85481727,-0.007241053,0
0.74814415,3.6124561,-4.5314212,0.12803607,0.61822933,-0.7754994,0
-5.7179289,-1.7787476,-0.87721938,-0.94478106,-0.29390484,-0.14494413,0
-2.9905179,-5.0186892,0.93720704,-0.50542629,-0.84820676,0.158397,0
2.0055439,2.2119119,-4.8961306,0.34972042,0.38570622,-0.85377181,0
1.0308148,3.9339771,-3.9537253,0.18173994,0.69358802,-0.69706976,0
-3.5033245,3.6915236,3.0649078,-0.58969593,0.62137449,0.5158996,0
4.936202,-1.6753083,2.6466322,0.84435159,-0.28656632,0.45271409,0
3.0391598,2.1615067,-4.7054667,0.5061751,0.36000109,-0.78370017,0
3.1773689,2.168788,-4.5469103,0.53347534,0.36413616,-0.76341921,0
-0.73249274,-3.0939348,-5.1686292,-0.12070898,-0.50985587,-0.851749,0
1.3461869,3.8035336,4.0882916,0.23436514,0.66217828,0.71175337,0
-2.3610916,-1.3695891,-5.2547326,-0.39874008,-0.23129559,-0.8874169,0
1.7951498,-4.4877095,-3.6067944,0.29766151,-0.74412644,-0.5980581,0
0.86498404,-4.5277891,-3.3675094,0.15152046,-0.79313916,-0.58989131,0
4.7476239,-2.6434348,2.1017101,0.81487173,-0.45371333,0.36073288,0
0.47721586,-0.43474686,5.9769478,0.079381071,-0.072316684,0.99421781,0
-4.8013768,3.3027163,-0.66329771,-0.8186146,0.56309927,-0.11308948,0
0.58418256,5.422112,2.4985132,0.097386576,0.90389711,0.41651645,0
1.957499,5.4264612,-1.1131787,0.33318251,0.92362851,-0.18947221,0
1.1059132,-5.3464189,2.1668303,0.18827663,-0.91020322,0.36889291,0
-5.4049311,-2.0803132,1.000689,-0.91963214,-0.35395882,0.17026411,0
4.1362691,-3.8240383,-1.1521348,0.71938479,-0.66508126,-0.20038064,0
-4.3865056,0.94739377,-3.5278149,-0.76844609,0.16596834,-0.61801714,0
5.645576,-1.7756922,-1.3136885,0.93126088,-0.29290771,-0.2166983,0
2.3776546,5.5920205,0.23034503,0.39100558,0.91960847,0.037880268,0
-0.033170842,5.6836905,-2.0914843,-0.0054770075,0.93846321,-0.34533566,0
-3.1805439,-4.5196571,1.980772,-0.54175395,-0.76985008,0.3373923,0
1.9682828,2.1226819,5.0558167,0.33785,0.36435217,0.86781621,0
1.1721263,-5.0421276,3.0293303,0.19542557,-0.84066087,0.50507236,0
5.9442134,0.54928237,-0.71045613,0.98877966,0.091369405,-0.11817957,0
4.0618968,-2.1214693,-3.6669776,0.69208145,-0.36146399,-0.62479359,0
2.4040287,-5.5103583,0.41101307,0.39894456,-0.91443479,0.068206936,0
-1.2224728,5.4544358,-2.4646716,-0.20011003,0.89285201,-0.40344906,0
0.44692472,-3.5355976,4.8099422,0.074657977,-0.59061527,0.80349225,0
1.4508144,3.3933721,-4.7805576,0.24022749,0.56187838,-0.79157019,0
4.8291755,-0.088695318,3.2690885,0.82800508,-0.015207602,0.56051433,0
-3.0876179,4.8904819,-1.3310288,-0.52025652,0.82403499,-0.22427531,0
-4.8453212,-1.0320512,3.1522126,-0.82517689,-0.1757623,0.53683394,0
3.9681106,-0.12593232,-4.7219052,0.64322054,-0.020413307,-0.76540875,0
-5.1479969,-0.25869888,-2.7971869,-0.87781489,-0.04411225,-0.47696459,0
2.4287195,3.3624942,-4.1728806,0.41278747,0.57149267,-0.70922673,0
-5.6891589,-1.5689759,0.51846856,-0.96031326,-0.26483852,0.087515965,0
-0.22893864,-2.4505131,-5.3933187,-0.038617611,-0.41335514,-0.9097507,0
-3.3378332,-2.8945642,3.7761497,-0.57430375,-0.49803537,0.64971995,0
4.0158749,-2.2420609,-3.6486149,0.68404037,-0.38189939,-0.62148345,0
-1.2938575,-5.3877587,-1.7603571,-0.2225474,-0.92671078,-0.30278674,0
-0.90193963,3.8793101,4.6286778,-0.14770581,0.63529378,0.75801373,0
1.3754897,5.1097517,-2.8560936,0.22874431,0.84975308,-0.47496915,0
-0.29041651,0.15363233,6.0489178,-0.047940653,0.025360934,0.99852818,0
3.5975215,0.45437402,-4.5128531,0.62142295,0.078486934,-0.77953404,0
-5.1996908,-2.4158664,-1.5338576,-0.87608522,-0.40704438,-0.25843653,0
-5.6439953,-0.81706995,-1.3680694,-0.96237856,-0.13932163,-0.23327458,0
1.8199226,-0.83537292,-5.6069131,0.30567539,-0.14030978,-0.94174075,0
4.6878381,3.5832071,-0.62421447,0.79008061,0.60390788,-0.10520409,0
-2.4756823,4.0801253,-3.2969062,-0.42680362,0.70340699,-0.56838131,0
4.9256334,3.2218897,0.81429547,0.82897383,0.54223728,0.13704422,0
5.8316059,-0.57055092,0.099404611,0.99510479,-0.097358763,0.016962394,0
-1.0168844,-3.6738918,-4.2948704,-0.17707738,-0.63976109,-0.74789655,0
-0.98777634,3.4355388,4.829711,-0.16439043,0.57175869,0.80378342,0
-0.86734354,5.7800765,1.4251875,-0.14417185,0.9607777,0.23689796,0
4.4729071,3.6288259,-2.0347002,0.73222834,0.59404969,-0.33308652,0
-1.1793954,3.2888355,-4.5878935,-0.2045141,0.57030344,-0.79556769,0
-4.5927196,2.8127527,2.738394,-0.76015639,0.46554813,0.45324078,0
-3.3197269,-1.093514,-4.9794583,-0.54567593,-0.17974497,-0.81849217,0
2.6345015,5.4488807,-0.10819865,0.4352164,0.90014839,-0.017874284,0
3.6087098,-3.2367392,3.2846982,0.61627942,-0.55275595,0.56094617,0
-4.5578017,2.4344811,3.0250237,-0.76121032,0.40658903,0.50521708,0
2.1804378,5.2187877,-1.9784852,0.36388949,0.87095445,-0.33018598,0
-0.83167088,-3.6936066,-4.5630898,-0.14026541,-0.62294501,-0.76958764,0
-2.1415565,5.5871005,-0.35313052,-0.35729021,0.93213344,-0.058915131,0
-1.8360809,-4.6097269,-3.4209466,-0.30464709,-0.76485735,-0.56761193,0
-5.4469309,-1.8611653,0.10934049,-0.94611341,-0.3232781,0.018992072,0
4.19559,3.1969469,-2.6699774,0.70966864,0.54075181,-0.45161688,0
-0.86675256,-4.7975664,-3.065433,-0.15050694,-0.83307177,-0.53229606,0
-2.7508597,-5.290895,-0.24342252,-0.46091536,-0.88650638,-0.040786222,0
1.6053858,2.7765379,-4.850008,0.27609798,0.47751546,-0.83411568,0
2.284579,-0.42469612,-5.4306746,0.38676211,-0.071897872,-0.9193725,0
-1.1451939,-4.6364245,-3.6069217,-0.19135053,-0.77470052,-0.6026808,0
2.6214314,4.9968019,-2.195924,0.43294263,0.82524705,-0.36266795,0
-4.1248908,1.5534319,-3.8403928,-0.70558399,0.26572257,-0.65691912,0
-1.8862181,2.7030718,-5.0304112,-0.31363243,0.44945541,-0.83643562,0
-3.648077,3.899935,-2.2901101,-0.62783611,0.67118096,-0.39412922,0
-5.9267874,-0.41267005,1.091114,-0.98117501,-0.068317205,0.18063308,0
-0.19956957,-5.3380942,2.1737449,-0.034604423,-0.92560035,0.37691712,0
-2.5671923,-4.2213607,-3.4300008,-0.42682764,-0.70185369,-0.57028025,0
-2.4646323,-5.4999037,-0.17329273,-0.40877068,-0.91218448,-0.028741401,0
1.9853663,-4.2693086,-3.6256876,0.33409151,-0.71842647,-0.61011982,0
-4.8209267,3.2759581,0.009969743,-0.82710654,0.56204265,0.0017104677,0
1.4767101,-3.574543,-4.4528155,0.25037763,-0.60606724,-0.75497919,0
4.5028186,-0.65755349,3.8846102,0.7525847,-0.1099011,0.64925963,0
2.6883619,5.1934943,-0.46149421,0.45827764,0.88532066,-0.078669645,0
-3.3981879,-2.6623776,-3.7635167,-0.5933494,-0.46487132,-0.65713859,0
-4.6069565,-3.4805403,-0.88867325,-0.78860408,-0.59578776,-0.15212025,0
-5.2083797,1.2631013,-2.1501577,-0.90194887,0.21873459,-0.37234849,0
-5.9306955,0.81482762,-0.34863061,-0.98901761,0.13588269,-0.058138512,0
-1.5604339,5.6606545,0.64139414,-0.26417938,0.95834136,0.10858718,0
-2.3497343,-5.3771081,-1.3082702,-0.39083007,-0.89437157,-0.21760389,0
0.2117373,2.104073,-5.579277,0.035487112,0.35264203,-0.93508518,0
3.0806477,5.0203323,-1.383433,0.50915962,0.82974452,-0.22864939,0
4.9838891,3.131578,-1.8143942,0.80915439,0.50842428,-0.2945742,0
-1.287423,-0.49761981,5.6947975,-0.21970892,-0.084922753,0.9718622,0
3.0939343,-5.0032663,-0.8194226,0.52091634,-0.84238476,-0.1379637,0
2.9959507,1.2219508,-4.8918691,0.51081079,0.20834309,-0.83406562,0
0.10417278,-5.8699079,0.97958279,0.017502159,-0.98620832,0.16458055,0
5.5775647,-1.307456,0.083801143,0.97350383,-0.22820236,0.014626587,0
4.27671,3.2928197,1.9276696,0.74619085,0.57452387,0.33633551,0
2.5274217,-2.3434587,4.6751976,0.43513462,-0.40346256,0.80490738,0
1.6771511,4.0911846,3.8008196,0.28764233,0.70166481,0.6518653,0
0.69547606,-2.7981906,-5.2966862,0.11532404,-0.46399677,-0.87829798,0
-3.6814334,2.6701102,3.5550845,-0.63776034,0.46256176,0.61587203,0
0.85575587,-5.9350471,0.66099298,0.14185181,-0.98380536,0.10956752,0
-1.2245445,-4.2157345,3.6863832,-0.21361507,-0.7354117,0.64306933,0
-1.5545492,4.438201,3.705096,-0.25966203,0.7413289,0.61887568,0
3.3297865,-1.9528649,4.3882728,0.56973064,-0.33413762,0.75083894,0
-3.5886159,4.2828674,1.5802846,-0.618007,0.73756629,0.27214587,0
0.072808482,-4.4486065,4.0275717,0.012131928,-0.74126214,0.67110598,0
2.7328277,-3.0563405,4.3246565,0.45858869,-0.51287657,0.72570938,0
-0.77559102,-1.5649176,-5.5908494,-0.13241415,-0.26717332,-0.95450765,0
-5.8258553,-1.7892481,-0.40188518,-0.95386046,-0.29295149,-0.06580019,0
4.3491917,3.8494768,-1.3558203,0.72921109,0.64542592,-0.22732481,0
-2.276614,-4.4991689,3.0995033,-0.38463995,-0.76014644,0.52366924,0
0.10758884,0.4564105,5.7233353,0.018735498,0.079479232,0.99666047,0
3.9017036,2.814604,-3.4497876,0.65907228,0.47544041,-0.58273506,0
-5.0726013,-0.27376172,-2.8088741,-0.87385935,-0.047161058,-0.48388603,0
-0.49719805,-4.3737655,-3.7599177,-0.08588478,-0.75551361,-0.64947903,0
2.3742826,5.4806356,-0.66860753,0.39504701,0.91190022,-0.11124683,0
2.3372674,0.93258125,-5.1500573,0.40775904,0.16269788,-0.89847761,0
3.934128,4.3188586,-0.059851993,0.6733768,0.73922843,-0.010244441,0
-3.0469031,4.2716188,3.1156721,-0.49930611,0.70000434,0.51057553,0
-5.5380898,2.2944455,-0.80101925,-0.9157114,0.37938172,-0.13244684,0
-4.3839889,-3.7323475,-1.2444476,-0.74424267,-0.63361758,-0.21126217,0
-2.8398945,4.0000415,-3.1946652,-0.48510686,0.6832816,-0.5457083,0
5.5014081,-2.7396421,0.28953823,0.89415431,-0.44527924,0.047059197,0
-3.7197235,4.0237694,-1.4975277,-0.65480733,0.70833051,-0.26361963,0
-5.445272,2.336729,0.94760358,-0.90742886,0.38940486,0.15791367,0
-1.2388719,0.77857727,5.8066988,-0.20688497,0.13001822,0.96968752,0
-4.5659256,3.1918192,-2.0643442,-0.76852947,0.53724205,-0.34746718,0
-2.5259614,5.1884665,-0.61095649,-0.43529108,0.89411235,-0.10528424,0
-2.7444315,4.3864822,2.8016462,-0.46641672,0.74548358,0.47614038,0
1.4295692,-4.5969172,-3.5410438,0.23921262,-0.76921111,-0.59252977,0
2.3501191,-3.7608852,4.0597525,0.39087895,-0.62552184,0.67523032,0
-5.0116444,-3.0453625,1.1252366,-0.83928221,-0.509996,0.18843937,0
1.9296087,-2.7333212,4.7358232,0.33277795,-0.47138521,0.81673425,0
0.8902095,-2.4060872,5.0885663,0.1562126,-0.4222165,0.89293385,0
-1.6653714,-2.3097091,-4.9177184,-0.293064,-0.40645143,-0.86539632,0
-0.88237345,-4.3575377,3.8851261,-0.14944555,-0.73802608,0.65801483,0
1.744184,-4.8136268,-3.1220498,0.29085746,-0.80271304,-0.52062827,0
-0.56409079,1.8907182,5.4786825,-0.096870527,0.3246904,0.9408465,0
5.242331,-2.9635456,0.59536004,0.8663047,-0.48973125,0.098384321,0
2.1814253,-5.1639452,1.834721,0.36983326,-0.87548202,0.3110539,0
4.4009943,-3.1125042,-2.4806511,0.7416814,-0.5245375,-0.4180539,0
-3.4533997,0.53737956,4.6733594,-0.5917744,0.092085339,0.80082667,0
-1.6944616,-4.0852299,3.810858,-0.29024395,-0.69975811,0.65276104,0
-4.901566,3.2457602,1.0143136,-0.82162964,0.54407364,0.17002527,0
1.4714055,-5.0310946,2.9837806,0.24395047,-0.83412623,0.49469346,0
0.54517907,-2.1516488,-5.4291511,0.092948891,-0.36683977,-0.92562902,0
-0.75254822,-4.0428023,-4.4123678,-0.12476867,-0.67027605,-0.73154813,0
-0.035809614,-4.3172083,3.7431214,-0.0062669255,-0.75554073,0.65507162,0
-1.397002,3.6903231,4.4529243,-0.23480307,0.62025625,0.7484315,0
-0.41527721,1.096495,-5.9167099,-0.068848349,0.1817867,-0.98092484,0
5.2982144,-2.4998305,-0.72033447,0.89762723,-0.42352304,-0.12203957,0
0.061713174,5.77668,-1.1140693,0.010489282,0.98185241,-0.18935646,0
2.7635412,1.0777179,-5.3622832,0.45096749,0.17586702,-0.87504232,0
3.7650154,0.38539562,4.2630625,0.66045207,0.067605391,0.74781859,0
-0.72185332,-5.2648473,-2.2345784,-0.1252172,-0.91327339,-0.38762397,0
3.8946538,3.4981773,-2.8356867,0.65415549,0.58756232,-0.47628883,0
-3.093365,-4.9222994,-0.78190094,-0.52734298,-0.83913153,-0.13329497,0
-1.6098258,1.0176436,5.4156971,-0.28041783,0.17726476,0.9433679,0
-4.1461482,-3.1208143,2.5860498,-0.71509039,-0.53825003,0.44601864,0
-0.48192716,2.8066266,-5.1277471,-0.082164086,0.47850364,-0.87423301,0
-5.0187116,-0.077269375,-2.7089651,-0.87990814,-0.013547292,-0.47495067,0
-5.2308817,-2.2493515,1.5702355,-0.88560683,-0.38082319,0.26584643,0
-4.6583767,-3.0692644,1.8590558,-0.79221177,-0.52196449,0.3161543,0
0.48733607,-5.3349504,-2.6906526,0.081291802,-0.88991511,-0.44882372,0
2.7016366,2.4352868,4.5685635,0.46263862,0.41702783,0.78233832,0
-0.0093361745,-3.1070848,-4.9426041,-0.0015991805,-0.53220832,-0.84661192,0
2.4478436,-4.4204931,-2.5454898,0.43263912,-0.78129107,-0.44989741,0
3.3781538,4.4355087,1.7729169,0.57740825,0.7581358,0.30303442,0
-4.1665573,3.4429374,-1.8368684,-0.7298739,0.60311425,-0.32177219,0
1.4907922,4.4073801,3.473695,0.25675082,0.75905848,0.5982551,0
-4.4118996,-2.2012987,-3.5079634,-0.72910136,-0.36378205,-0.57971877,0
1.9408576,-1.6118116,-5.5282912,0.31939083,-0.26524246,-0.90974498,0
0.74339712,3.8909888,-4.6390252,0.12186348,0.6378414,-0.76046538,0
-4.7678118,3.2673283,-0.67687535,-0.81929356,0.56145275,-0.11631324,0
1.7442139,2.0911739,5.3661108,0.28985637,0.34751478,0.89174926,0
5.0382037,2.6625257,0.90985733,0.87307417,0.46139109,0.15766987,0
4.6936426,-0.50554395,-3.5907862,0.79134262,-0.085234113,-0.60540229,0
-1.2817377,-2.9716887,4.8757267,-0.21902367,-0.50780296,0.83316547,0
-2.5964541,4.589643,-2.4963369,-0.44503897,0.7866767,-0.42787862,0
1.027539,0.94632131,5.7342634,0.17410131,0.16034016,0.97158623,0
0.63754839,5.9068537,-0.21233307,0.10724195,0.99359125,-0.035716522,0
-1.3143563,-4.7138162,-2.9728463,-0.22954763,-0.82325113,-0.51919699,0
-1.9273565,2.1901116,5.0124564,-0.33232257,0.37762785,0.86426789,0
-2.0401576,5.0569639,-2.3025634,-0.34466779,0.85433233,-0.3889991,0
4.014699,2.1978951,3.3669739,0.70656502,0.38681749,0.59256899,0
4.7112098,3.4077075,-0.61674702,0.80573714,0.58280498,-0.10547949,0
1.4669973,-5.4126606,-1.4778793,0.25295648,-0.93331301,-0.25483289,0
-5.9006538,0.55927873,1.3587667,-0.97036636,0.091973752,0.22345006,0
-2.3394179,2.8827384,-4.4858255,-0.40176448,0.49507269,-0.77038199,0
1.235665,-5.4157143,-1.9432962,0.20996855,-0.92025727,-0.33021176,0
-4.0769658,1.1433276,-4.0913701,-0.69242334,0.19418037,-0.69486976,0
5.5526009,2.1146326,0.95273173,0.92273653,0.35141167,0.15832587,0
-3.8267756,4.658627,-0.41918388,-0.63321525,0.77086139,-0.069362216,0
2.1553195,-5.5917249,1.1451373,0.35326397,-0.91650218,0.18769179,0
5.5611978,-0.73802632,-1.2777345,0.96655536,-0.12827152,-0.22207466,0
-4.7774959,2.4126046,-2.0454988,-0.83381593,0.42107168,-0.35700074,0
2.8610713,3.2820644,3.7509754,0.49784127,0.57109624,0.65268922,0
-1.2201807,-3.9999909,-4.2399731,-0.20488831,-0.67166394,-0.71196085,0
-2.6015253,5.0348434,1.4586761,-0.44455698,0.86037016,0.24926324,0
-1.2092723,-0.43795449,-5.8717251,-0.20117885,-0.072859667,-0.97684115,0
-3.3771312,-2.4029093,4.2476354,-0.56904244,-0.40488726,0.71572131,0
-3.9198325,4.0083117,-2.1481736,-0.65288568,0.66762275,-0.3577989,0
0.94924444,4.4687257,3.7762635,0.16015275,0.75394565,0.63711613,0
5.1284966,-2.1993213,-1.483001,0.8882224,-0.38090819,-0.25684616,0
3.2109132,-4.0907369,-2.9467356,0.53719038,-0.68438613,-0.49299309,0
1.1697658,2.1028159,-5.1855912,0.20462292,0.367838,-0.9070968,0
4.9248986,2.903517,-0.94002634,0.8500219,0.50113785,-0.16224557,0
4.7356114,-1.8945885,2.7264519,0.81881225,-0.32758436,0.47141796,0
4.6203179,-3.4932642,0.40223026,0.79575521,-0.60164326,0.069275931,0
-5.105598,2.5333202,-1.5700506,-0.86362189,0.42851606,-0.26557714,0
1.2482114,3.0200889,4.8282032,0.21409635,0.51801324,0.8281455,0
3.8791819,-4.2042294,-0.96513486,0.66867459,-0.72470468,-0.16636527,0
3.0152237,4.5984731,1.9161438,0.51779902,0.78968757,0.32905594,0
-3.8852575,-0.1267315,-4.7175212,-0.63559401,-0.020732161,-0.77174509,0
-1.5759066,2.5393188,5.0613432,-0.26811054,0.43201679,0.86109126,0
-1.7605165,1.6499659,5.3508821,-0.29993135,0.28109735,0.91160595,0
3.3267982,0.28085425,-5.183835,0.53954577,0.045549423,-0.84072322,0
3.3176124,3.6435857,3.0747421,0.57118505,0.62730712,0.52937073,0
1.6859105,-0.46813977,5.4999714,0.29210556,-0.0811112,0.9529404,0
1.4530916,-5.6861925,-0.04540256,0.24758342,-0.96883565,-0.0077358652,0
-4.7485199,3.2752118,1.0643833,-0.8095175,0.5583511,0.18145378,0
2.1215613,-4.8586326,1.9097431,0.37648985,-0.86220741,0.33890083,0
1.6037005,5.0698004,2.5172184,0.27259347,0.86175346,0.42787123,0
-1.5964581,2.5664129,-5.0124416,-0.2727505,0.43846464,-0.85636199,0
-2.8864863,2.6015122,-4.3561006,-0.49448118,0.44566253,-0.74623936,0
-0.33959183,-0.59762597,5.829021,-0.057857923,-0.10182047,0.99311888,0
-0.24242215,-5.6615686,1.1513574,-0.041923136,-0.97908014,0.19910935,0
-3.0944231,3.6398685,3.349571,-0.5303483,0.62383133,0.57407773,0
4.0262246,4.1961398,1.2533323,0.67680627,0.70536894,0.21068451,0
-3.6281469,3.5711703,-2.7240055,-0.6283797,0.61851162,-0.47178626,0
1.6747137,4.9784727,-2.6155839,0.28540719,0.84843868,-0.44575167,0
-0.99890631,2.3338182,-5.4296327,-0.16665708,0.38937315,-0.90587741,0
