-3.5319846,0.41705355,4.6395006,-0.60418797,0.071341969,0.79364175,0
-5.9043274,-0.11202078,0.91430348,-0.98804802,-0.018745895,0.15300231,0
0.7430169,4.1435242,-4.0681224,0.12692249,0.70779872,-0.69491851,0
-4.3061318,3.9406877,0.97967356,-0.72754133,0.66579777,0.16552047,0
-3.7875421,0.01076132,-4.5980659,-0.63579619,0.0018064502,-0.77185488,0
1.6828218,-5.5267038,0.89319503,0.28786531,-0.94540393,0.1527909,0
-1.0199758,-4.7471166,-3.2264926,-0.17496115,-0.81429482,-0.55345517,0
2.4885118,4.6671166,2.1626353,0.43549889,0.81676292,0.37846929,0
-3.683691,2.2441092,-3.5368538,-0.66038728,0.40230876,-0.6340633,0
1.3052262,5.3220739,1.4798567,0.22995141,0.9376294,0.26071739,0
3.1162767,4.3346539,2.3707454,0.53348988,0.74206954,0.4058589,0
-1.5524814,5.4565144,-0.54973054,-0.27238211,0.95734286,-0.096449964,0
3.3751323,-4.1110768,-2.2011757,0.58631361,-0.71415877,-0.38237888,0
2.1549904,-5.1423922,-1.741822,0.36891586,-0.88033336,-0.29818496,0
3.0471938,-0.95334077,4.7853026,0.5296995,-0.16572104,0.83183831,0
-5.094789,2.6692529,-0.32396907,-0.88439012,0.46334812,-0.056236882,0
-0.097482242,4.9855838,-2.9360366,-0.016845921,0.86155951,-0.50737697,0
-0.36182553,-1.0446472,5.8000941,-0.061279468,-0.17692347,0.98231512,0
2.4463325,-3.1334019,4.1151981,0.42755502,-0.54763681,0.71922916,0
-5.2305179,1.8464425,-0.50832552,-0.9390341,0.33149156,-0.091259606,0
1.8961424,-2.3611615,4.7311349,0.33755395,-0.42033732,0.84224337,0
0.91232586,0.73326629,-5.5959663,0.15957935,0.12825917,-0.97881764,0
2.3358767,5.1156955,-1.5527194,0.40037823,0.87684983,-0.26614204,0
0.47645304,5.8484473,-0.12030776,0.081180528,0.99648863,-0.020498656,0
-4.9061751,1.1003138,-2.9926538,-0.83848208,0.18804738,-0.51145476,0
-1.6704756,-2.1303353,5.3422933,-0.27892089,-0.3557041,0.89200771,0
-2.1059804,5.2198749,-1.7398733,-0.3574627,0.88600564,-0.29532078,0
0.2802034,-3.185986,-5.0218916,0.047062498,-0.53511292,-0.84346855,0
1.1196526,0.31218481,-5.5303378,0.19812758,0.055242512,-0.97861826,0
-0.99444485,1.1122369,-5.4490433,-0.17602018,0.19686978,-0.96449947,0
-0.11461883,0.8866533,5.5552316,-0.02037048,0.15757929,0.98729616,0
1.510337,0.34100077,-5.6374283,0.25834528,0.058328666,-0.96429014,0
-1.2104709,-5.3823528,-1.7762538,-0.20885703,-0.92868173,-0.30647832,0
5.71173,-0.33032882,-1.7448938,0.95490879,-0.055225629,-0.29171798,0
3.7593095,-4.3955116,-0.29677671,0.64911258,-0.75896436,-0.051243849,0
-5.4199314,1.5067462,0.87022561,-0.95213741,0.26469511,0.15287542,0
3.2598968,-4.0526218,2.6825762,0.55704892,-0.69250923,0.45839676,0
4.0172734,-3.6981165,-2.4481986,0.67133605,-0.61800098,-0.40912423,0
-4.337738,-2.2936871,-3.1267543,-0.7455231,-0.39421391,-0.53739244,0
-0.77246058,-0.02604386,-5.8753843,-0.13035102,-0.0043948437,-0.99145812,0
-1.2794956,5.8098149,-0.21300589,-0.21493831,0.97597194,-0.035782166,0
-5.5581288,-0.48648655,-2.0526023,-0.93493003,-0.081831656,-0.34526718,0
-3.2952018,-2.3398604,4.3354483,-0.55596387,-0.39477941,0.73147345,0
-2.3161006,4.8718853,1.7953955,-0.40738153,0.85692137,0.31579414,0
5.5404544,1.6047816,-1.1163703,0.94302034,0.27314398,-0.19001327,0
-3.4290636,-2.3160999,-4.1891694,-0.58235323,-0.39334011,-0.71144098,0
-5.2827029,-0.6989069,2.4125178,-0.90311635,-0.1194832,0.41243738,0
5.4120846,-0.66210544,1.7228851,0.94647276,-0.11578991,0.3013005,0
2.6977837,-3.0832834,4.0394959,0.46889833,-0.53590155,0.70209962,0
-1.3215507,-0.40289563,5.8447227,-0.22004582,-0.067084447,0.97318006,0
-3.0585573,4.2033424,2.3661723,-0.53550529,0.7359392,0.41427958,0
-3.5610771,-4.4124961,0.75022572,-0.62260562,-0.77146459,0.1311667,0
-1.0848284,-4.2534237,3.9085643,-0.18457219,-0.72367555,0.66500133,0
4.5941858,-3.4173393,-1.4644997,0.77734226,-0.57821828,-0.24779528,0
4.7044139,-1.701811,2.6532187,0.83075833,-0.30052492,0.46853521,0
-1.9263153,3.241935,-4.3313375,-0.33542344,0.56450826,-0.7542026,0
0.38577774,-3.6383536,-4.5225091,0.066317022,-0.62545019,-0.77744073,0
1.8845855,-4.8077412,2.5169134,0.32805979,-0.836909,0.43813246,0
2.823595,0.26748979,-4.9229951,0.49697536,0.047080345,-0.86648655,0
-1.6564745,2.1624351,5.1726456,-0.28334939,0.36989683,0.88481045,0
1.0268092,5.6328306,0.6055001,0.17834036,0.9783327,0.1051657,0
0.18569002,-4.8374605,-3.0157316,0.032557089,-0.84815347,-0.52874917,0
3.7374401,2.7039812,3.3856919,0.65315425,0.4725472,0.59168285,0
-4.8539252,0.76087409,-3.0762098,-0.83734941,0.13125819,-0.53067619,0
-4.5866127,0.60584998,-3.3241997,-0.80511039,0.10634779,-0.5835129,0
2.3532052,0.7608757,5.188571,0.40940619,0.13237572,0.9026978,0
-5.2914753,0.84711123,-2.166528,-0.91544241,0.14655299,-0.37481639,0
4.6266103,3.3571126,-1.3367953,0.78811204,0.57186162,-0.22771412,0
-4.2805171,-3.8954,0.30749479,-0.73855257,-0.67210513,0.053054586,0
0.75934088,-0.076785646,5.5934076,0.13451,-0.013601845,0.99081886,0
-1.0994354,-1.4598724,-5.4365954,-0.19168782,-0.2545304,-0.94787663,0
-3.6756756,-0.85704333,4.3768058,-0.63599527,-0.1482926,0.75731051,0
5.5548072,2.3281715,0.15292417,0.9219721,0.38642371,0.025381945,0
3.775192,-3.488801,2.990551,0.63480258,-0.58664566,0.50286436,0
2.1012986,1.3994815,5.3634462,0.3544732,0.23608197,0.90477288,0
-5.355793,-0.24198626,-1.9565063,-0.93844378,-0.042400911,-0.34281966,0
2.8903677,-3.7881482,-2.9015391,0.51809675,-0.67902333,-0.52009916,0
3.5489945,-3.0942752,3.6122842,0.5980258,-0.52140301,0.6086905,0
2.8248427,5.1354561,-0.79184055,0.47762442,0.86830294,-0.1338844,0
1.1732612,5.7379804,-0.55171251,0.19944498,0.97541058,-0.093786694,0
2.8543103,-4.3262415,2.3445909,0.50175667,-0.76050615,0.41215357,0
0.95854545,4.4464111,-3.5117319,0.16680665,0.77376711,-0.61111367,0
-1.5109979,-4.1534448,-3.5869863,-0.26545244,-0.72967815,-0.6301626,0
0.48682496,3.0859184,4.6498289,0.086904213,0.55087423,0.83005136,0
3.3819308,4.4077487,2.359406,0.56029952,0.73025131,0.39089328,0
0.82523596,1.5585284,-5.7159405,0.13795766,0.26054481,-0.95555437,0
3.6648893,4.2336249,1.1980402,0.64001215,0.73933238,0.20921785,0
-0.28600043,-5.5705347,-2.0458009,-0.048138428,-0.93760973,-0.34434089,0
3.0780609,-3.9840026,-2.9969993,0.52534944,-0.67997146,-0.51151425,0
5.2033739,-2.0522952,2.1962171,0.86590248,-0.341526,0.36547631,0
3.5186391,-4.1346426,2.5142128,0.58809733,-0.69105476,0.42021984,0
-3.7902963,1.4138218,3.9429827,-0.6709556,0.25027373,0.69798398,0
-4.7408137,0.30644178,3.3904061,-0.81227779,0.052504878,0.5809027,0
-0.56991404,5.6847029,0.33624443,-0.099581607,0.9932934,0.058752302,0
3.0542538,-3.877279,2.9130304,0.53291011,-0.6765126,0.50826925,0
-5.6242952,-0.74697924,-1.0564996,-0.97454345,-0.12943199,-0.18306379,0
-3.4822652,0.70718336,-4.5161042,-0.60598737,0.12306478,-0.78589714,0
3.7948303,-2.486578,-3.475486,0.66399616,-0.43508619,-0.60811925,0
2.6549168,2.0625343,4.466208,0.47492868,0.36895946,0.79894412,0
3.1975765,4.2911606,-2.3788643,0.54599595,0.73272872,-0.40619832,0
-2.2268882,-2.7825558,-4.6451263,-0.38035166,-0.47525948,-0.7933858,0
-0.17969432,5.6679726,-1.7552561,-0.030270653,0.95480603,-0.29568404,0
4.209271,-4.0051956,-0.86518186,0.71654981,-0.68180978,-0.14728107,0
1.7604198,-5.6930184,0.23110694,0.29520071,-0.95464903,0.038753785,0
3.9667194,-4.4037743,0.66205114,0.66513759,-0.73842275,0.11101242,0
-2.6104541,0.12616682,5.3028784,-0.44155708,0.021341057,0.89697933,0
-2.8563819,1.8270202,4.7772412,-0.48758379,0.31187195,0.81547403,0
0.3498691,5.7888818,0.506733,0.060099054,0.99438995,0.087044477,0
-4.4032569,3.9335613,0.37188092,-0.74428761,0.6648944,0.062859461,0
-4.527173,3.9603102,0.20413372,-0.75222319,0.65803474,0.033918325,0
-0.73007619,-3.8573058,-4.2270241,-0.12655504,-0.66864461,-0.73273343,0
-3.3208234,1.0448604,4.4794755,-0.58535182,0.18417448,0.78958404,0
5.6069283,-1.6991131,1.1647094,0.93865371,-0.28444788,0.19498356,0
0.20286809,-3.0834401,4.9635534,0.034697007,-0.52736801,0.84892821,0
-0.21899763,5.6368332,1.8164084,-0.036953434,0.9511534,0.30649889,0
0.4154484,-4.5119667,-3.7296588,0.070791401,-0.76882821,-0.63552481,0
-2.861043,-4.5318308,1.9503303,-0.50165296,-0.79460758,0.34196934,0
4.6576428,-3.5775166,-0.17590992,0.79270321,-0.60887212,-0.029938826,0
-5.6570282,-0.54917985,1.4956464,-0.9625513,-0.093443722,0.25448632,0
1.787789,-5.3294759,-1.5176017,0.30704331,-0.91530931,-0.26064008,0
-2.1142402,-5.464746,-0.068270475,-0.36079961,-0.93257058,-0.011650503,0
-5.397603,-0.69259822,2.0162332,-0.93008208,-0.11934431,0.34742504,0
-2.9056308,-4.8442507,-1.8843906,-0.48794258,-0.81349504,-0.31644571,0
1.0714405,4.664834,3.4518821,0.18156317,0.79048914,0.58494586,0
-4.2983403,-1.8882482,-3.3820233,-0.74286973,-0.32634047,-0.58450532,0
-1.4881412,0.5162124,5.4659019,-0.26161292,0.090749346,0.96089709,0
-4.1509881,-1.5304148,-4.0829725,-0.68950307,-0.25421074,-0.67820531,0
-5.1351123,-1.7791852,-1.6279459,-0.90515429,-0.31361282,-0.28695422,0
0.9356212,4.8567576,-3.4354534,0.15536432,0.80648756,-0.57047331,0
-2.9235146,4.817091,1.5143121,-0.50105125,0.82558489,0.25953281,0
-1.4968495,5.3491206,-1.4323589,-0.26094273,0.93250132,-0.2497002,0
-5.7022781,-1.6704888,-0.35428819,-0.95796669,-0.28063741,-0.059519418,0
-1.3345125,-5.511169,-0.41540346,-0.23471645,-0.96931428,-0.073061906,0
1.3224291,-0.51031321,5.7343507,0.22387694,-0.086392052,0.97078091,0
4.3418756,0.54603988,3.8782723,0.74254233,0.093383081,0.66325748,0
-1.5457851,-2.0831566,-4.9356756,-0.27722958,-0.37360471,-0.88519114,0
3.9926226,0.51607347,-4.2192144,0.68463713,0.088493973,-0.72349209,0
5.7259607,-0.69555455,-0.48749867,0.98917609,-0.12015904,-0.084216788,0
-1.4647706,-3.2455571,4.3746676,-0.25968125,-0.5753873,0.77556121,0
-4.6097283,3.6871543,0.12815258,-0.78073674,0.62448299,0.021704843,0
-3.839184,-4.0477014,-0.85968554,-0.68014348,-0.71708405,-0.15230046,0
4.7453198,-1.7228565,-2.8120017,0.82117093,-0.2981379,-0.48661295,0
5.7707882,-0.21657813,0.39755574,0.99693692,-0.037415121,0.068680048,0
2.6418068,-3.4492958,4.0339613,0.44559538,-0.5817951,0.68041104,0
-4.8381271,-3.2495267,-0.80137354,-0.82239819,-0.55236351,-0.13621968,0
0.73115879,3.1804292,4.7582817,0.12672096,0.5512169,0.82468277,0
-5.5808411,1.112571,-1.555643,-0.94599187,0.18858862,-0.26369244,0
0.69869685,5.9020281,0.19563529,0.11749795,0.99252802,0.032899454,0
3.6924624,1.7463712,4.0651393,0.64074504,0.30304402,0.70541483,0
-4.8451343,-3.4057209,0.10805837,-0.81797355,-0.57496649,0.018242816,0
3.9724023,0.819525,4.1318669,0.68608159,0.14154181,0.71362305,0
-3.7867818,-2.4209166,3.6428421,-0.65454108,-0.41845277,0.62966126,0
-0.37213001,2.8506889,5.1527228,-0.063067935,0.48312974,0.87327439,0
0.12921342,5.8946705,-0.82153255,0.021705432,0.99019414,-0.13800207,0
-5.2428007,1.7641369,1.7577838,-0.9032743,0.3039405,0.30284593,0
1.8861542,0.5070647,5.3367987,0.33189604,0.089225352,0.93908674,0
4.0069327,-1.7559016,-3.7675419,0.69402385,-0.30413228,-0.65256,0
-2.0304844,-2.6145864,4.8226113,-0.34712175,-0.44697699,0.82445019,0
-5.0475168,0.35979915,2.6757762,-0.88178295,0.062855609,0.46744844,0
-4.4324431,-0.2630446,3.5400984,-0.78053343,-0.046320979,0.6233955,0
-4.9796205,1.3566375,-2.8687105,-0.84331834,0.2297519,-0.48582742,0
5.5134292,0.052062657,1.6987392,0.95562804,0.0090238815,0.29443794,0
5.0639701,0.038269244,-2.7793269,0.87662446,0.0066247932,-0.48112959,0
4.0114894,3.8547685,0.4214451,0.71899152,0.69090194,0.075536892,0
4.800622,3.0252779,-0.1930887,0.84553164,0.53284103,-0.034008637,0
5.0520115,-2.8807077,-0.00039305526,0.86869878,-0.49534076,-6.7586268e-05,0
-4.1629024,-3.4076369,-1.9315315,-0.7282905,-0.5961585,-0.33791715,0
-2.532325,-4.9171724,1.8600821,-0.43396378,-0.84265441,0.31876174,0
0.69215631,-4.0098343,4.0529232,0.1205181,-0.69819146,0.70569408,0
3.7435281,1.8019257,4.16996,0.6359641,0.30611762,0.70840788,0
1.5463614,4.9179111,-2.964082,0.26003829,0.8270027,-0.49844411,0
-5.3581448,0.52867728,-1.8571659,-0.9407745,0.092824318,-0.32607824,0
4.2058549,-2.5280168,2.8056514,0.74405813,-0.44723165,0.49634799,0
-3.664088,-4.4494891,-0.82936573,-0.62920678,-0.7640779,-0.14242086,0
-4.931015,-2.4958231,-0.87569797,-0.88122869,-0.44603208,-0.15649723,0
-3.6202419,-2.9177117,-3.3972604,-0.62867558,-0.50667721,-0.5899536,0
4.7379293,2.0136993,2.5845797,0.8224901,0.34957206,0.44867516,0
0.37475267,-4.9085112,2.9352374,0.065385297,-0.8564167,0.51212806,0
4.1436081,3.0026252,-2.8280323,0.70871806,0.51356566,-0.48370346,0
-5.1459851,2.2111261,-0.13830473,-0.91849595,0.39465919,-0.024685716,0
2.4893303,-4.8447161,1.7799506,0.43441585,-0.8454569,0.3106212,0
3.1202815,4.7001572,1.5157553,0.53414172,0.80459088,0.25947279,0
-0.71185285,-5.8237739,0.24741416,-0.12122148,-0.99173093,0.042132176,0
-2.799053,4.4040709,2.3891094,-0.48770812,0.76736712,0.41627941,0
-1.2573261,5.4672065,-1.728513,-0.2141888,0.93135297,-0.29445672,0
2.3599398,-0.07529702,5.3108077,0.40604416,-0.01295538,0.91376162,0
0.15324311,5.4830532,-1.5401651,0.026897399,0.9623915,-0.27033144,0
2.7123706,-3.946207,3.0648947,0.47708157,-0.69410229,0.53908736,0
-1.9540792,-1.2208558,5.2844486,-0.33896029,-0.21177322,0.9166559,0
2.5394683,-3.5636687,3.5662689,0.4498553,-0.63128775,0.63174838,0
2.932982,-4.597146,-1.481827,0.51903504,-0.81353378,-0.26223147,0
0.70920539,-1.4647001,5.5463166,0.12269706,-0.25340247,0.95954818,0
5.0445323,2.0428669,-1.5912085,0.88963765,0.36027351,-0.28062046,0
-1.1230662,5.4175105,-1.3122107,-0.19750817,0.95275116,-0.23077209,0
-0.014812929,-2.3390105,-5.3586688,-0.0025334568,-0.40004122,-0.91649371,0
1.4858381,1.9103645,5.343359,0.25330129,0.32567328,0.91092002,0
2.5802467,5.178534,1.6023592,0.42978784,0.86258072,0.26690257,0
3.2807143,-3.8765287,2.1635785,0.5943203,-0.70225549,0.39194471,0
3.587564,2.3658199,3.9556978,0.61422187,0.40504876,0.67724955,0
-5.6218886,-1.485703,-0.2647987,-0.96580821,-0.25523525,-0.045490898,0
-0.92096549,-0.30933556,5.557703,-0.16323447,-0.054827489,0.98506266,0
-3.5797472,4.2242942,-1.2871506,-0.62971419,0.74309665,-0.22642298,0
3.9452307,-3.1127024,-2.8507073,0.68285316,-0.53875649,-0.49340954,0
-2.8523054,-1.1663095,4.7052336,-0.50712043,-0.20736185,0.8365584,0
-2.6298034,4.4705076,2.2870636,-0.46393237,0.78865713,0.40346849,0
5.1703463,-0.43481401,-2.3518806,0.90759683,-0.076326765,-0.41284648,0
-0.0085086757,4.0391531,-4.0275321,-0.0014916981,0.70812392,-0.70608658,0
5.6969075,0.18659334,-0.94279045,0.98606658,0.032297075,-0.16318575,0
-4.0613303,-3.6549149,-1.3546858,-0.72147459,-0.64927697,-0.24065301,0
-2.3032267,1.8258802,5.0902219,-0.39184892,0.31063774,0.86600155,0
-3.0084951,0.77216774,-4.7507143,-0.53004122,0.13604169,-0.83698803,0
1.2965425,2.5010741,-5.0071478,0.22567199,0.43532887,-0.87152797,0
-1.7359315,-4.2539325,-3.1757197,-0.31080851,-0.76164204,-0.56859428,0
4.6400347,3.5722349,0.12201129,0.79220623,0.60989779,0.020831333,0
-2.8917809,-3.8790743,3.0748649,-0.50443184,-0.67665178,0.53636837,0
3.8208838,-2.1811914,3.7972345,0.65744799,-0.37531105,0.65337873,0
-5.6715493,0.63330346,0.68383008,-0.98676431,0.11018528,0.11897615,0
-2.838496,4.9729295,1.4953667,-0.4796344,0.84029996,0.25267935,0
-5.7961392,0.89158905,-0.19322662,-0.9878388,0.15195395,-0.032931704,0
3.9938195,-2.0523696,-3.7066751,0.68592107,-0.35248554,-0.63660526,0
3.0254955,4.6086936,1.8736908,0.51959926,0.79149801,0.32178807,0
-3.5343726,2.9419751,3.736825,-0.59647405,0.49649882,0.63064069,0
2.3160713,-5.3372412,-1.0299957,0.39198497,-0.90330482,-0.17432228,0
-0.027120272,-3.2546,-4.8408208,-0.0046492629,-0.55794024,-0.82986814,0
-2.9087956,-4.129015,2.8768334,-0.50043148,-0.71035904,0.49493271,0
-1.7525575,1.738502,-5.4115639,-0.29464585,0.29228279,-0.90981025,0
-0.36441833,-1.25555,-5.7107615,-0.062203366,-0.2143126,-0.97478247,0
-4.2935452,-3.454988,-1.0372183,-0.76563966,-0.61610526,-0.18496032,0
2.1276076,0.59720081,5.4292951,0.36296198,0.10188024,0.92621762,0
-5.2320194,-2.3681388,-0.40845579,-0.9087292,-0.41131288,-0.070943102,0
-5.0924821,-2.7847054,1.3621942,-0.85417962,-0.46708828,0.22848554,0
-0.95418215,-5.0443454,-2.7388566,-0.16398558,-0.86692029,-0.4706994,0
3.9935615,-3.0493345,2.9957929,0.68266755,-0.52125949,0.51210696,0
1.5421891,-4.6543603,-2.6637514,0.27637535,-0.83410686,-0.47737026,0
4.0170374,-1.6904128,-3.6998272,0.70266157,-0.29568759,-0.64717501,0
-0.85606343,4.4683185,-3.8441858,-0.14372611,0.75019449,-0.64540768,0
-1.9502354,-5.1700859,-1.629894,-0.3385205,-0.89741993,-0.28291586,0
1.3795316,5.4535317,-1.2911788,0.23902105,0.94489235,-0.22371282,0
4.3290958,-0.44298011,4.0690002,0.72664005,-0.074354343,0.68298292,0
1.0516779,-5.0326233,2.2241786,0.1877389,-0.89839208,0.39704627,0
2.0794551,-1.9372908,4.9318871,0.36531886,-0.34034342,0.86643434,0
-5.0624843,0.778238,2.8407543,-0.86434972,0.13287346,0.4850198,0
0.6826539,5.5852108,0.48352283,0.12087693,0.98896837,0.085616961,0
-0.88871109,5.1507583,-2.3977559,-0.15454245,0.89569128,-0.41695783,0
4.1566072,2.0389216,3.3167028,0.72984618,0.35800815,0.58236992,0
3.0847659,-0.43043926,-4.9395967,0.52825147,-0.07371068,-0.84588248,0
-2.4703405,-5.4355559,0.69399953,-0.41098496,-0.90430117,0.11545913,0
4.0918975,-3.4019182,-2.381165,0.70189273,-0.58353901,-0.40844682,0
-2.2876828,-5.3495331,-1.5041265,-0.3806814,-0.89018804,-0.25029388,0
0.51015729,4.77983,-3.3748183,0.086859435,0.8138144,-0.57459694,0
5.2286215,0.38326141,2.2234426,0.91816336,0.067301981,0.39044392,0
-5.1930938,-2.2444229,0.20487046,-0.91733551,-0.3964667,0.0361894,0
0.035430055,5.6907992,-0.2413867,0.0062201349,0.99908227,-0.042378083,0
-4.4086218,3.6680958,-0.73104322,-0.76254451,0.63445818,-0.12644608,0
5.6029172,1.2538456,1.1087095,0.95816201,0.21442173,0.18960182,0
1.4284327,-2.3453376,-5.0951819,0.24678856,-0.40520111,-0.8802883,0
0.64116859,5.5753865,-0.97891235,0.11254757,0.97867584,-0.17183344,0
-4.3758531,3.7426522,-0.78677356,-0.75295317,0.64399827,-0.13538015,0
5.2301702,1.8015186,-0.89920992,0.93323421,0.32145008,-0.1604486,0
2.1173432,5.3730574,1.171555,0.35930848,0.91179597,0.19881031,0
4.302289,-1.1145641,-3.2503479,0.78137332,-0.20242496,-0.59032184,0
-4.3066692,-3.7647166,-0.45088562,-0.75056207,-0.65611112,-0.078579903,0
-1.9046794,-5.560956,0.38022304,-0.32335413,-0.94407386,0.064549804,0
-1.8697917,-2.0587413,-4.8497519,-0.33445373,-0.36825156,-0.8674857,0
3.2202168,0.93731713,4.8548517,0.54573715,0.15884918,0.82276231,0
0.45804277,1.5337561,5.5314064,0.079544008,0.2663531,0.96058768,0
2.9182541,-0.97886038,-4.9175696,0.50302118,-0.16872674,-0.84764439,0
1.9484347,-5.4646273,-0.77423096,0.33289322,-0.93364042,-0.13227861,0
-2.4868557,2.2938492,4.6320028,-0.43355256,0.39990428,0.80753249,0
-1.7747002,-1.3734133,-5.2702985,-0.30982003,-0.23976499,-0.92006755,0
0.45964703,-5.7733378,0.85820192,0.078507118,-0.98607862,0.14657977,0
-2.2152212,3.9780078,3.6541507,-0.37943569,0.68137586,0.62590373,0
-1.5346297,-1.2897872,5.6597047,-0.25559101,-0.21481273,0.94261801,0
-5.1590438,-0.71799278,2.5514476,-0.88947535,-0.12378978,0.43989736,0
-1.8081897,-2.9151337,4.3712287,-0.32541618,-0.52463061,0.786681,0
0.67904294,-3.6465695,-4.5507512,0.11566176,-0.62112218,-0.77513194,0
1.5272496,3.0642147,4.813385,0.25855678,0.51875836,0.81488538,0
0.52540869,-4.561049,3.732059,0.08880078,-0.77087557,0.63076568,0
-1.2817856,-4.6537738,-3.429575,-0.21646792,-0.7859292,-0.5791865,0
-2.4653273,5.231184,1.3003163,-0.41592124,0.88254434,0.21937419,0
3.0317855,4.7131987,0.92809385,0.53372437,0.82972521,0.16338435,0
-0.56971318,-3.7909036,4.4554105,-0.096929528,-0.64497453,0.75803202,0
5.8379822,0.062220242,-1.0875256,0.98303401,0.010477013,-0.18312401,0
-1.3161639,2.4374394,-4.8871975,-0.23429044,0.43388876,-0.86997038,0
0.60411936,5.3646069,2.2257843,0.1034565,0.91869831,0.38116947,0
-2.0220451,-5.4522052,-0.12815392,-0.34763971,-0.93736929,-0.022032838,0
-0.80094415,-4.9193931,2.9748986,-0.13798729,-0.84751689,0.51251787,0
-4.1304808,-0.59600425,4.0904365,-0.7068373,-0.1019925,0.69998467,0
-0.62724602,2.6284657,5.0069623,-0.11024364,0.46197444,0.88001478,0
0.062745295,1.4685358,5.595737,0.010845139,0.25382739,0.96718878,0
-3.0256248,1.8858529,-4.4437327,-0.53107619,0.33101645,-0.77999115,0
3.8219786,-0.84287161,4.2616186,0.660541,-0.14567095,0.73652267,0
-4.5655818,0.74644256,-3.6981223,-0.77086765,0.12603179,-0.624403,0
-4.9571018,-2.2490482,-1.3296945,-0.88464457,-0.40136522,-0.23729733,0
4.3805609,1.2783351,-3.4932561,0.76225418,0.22244099,-0.60785574,0
3.4476738,-3.6361604,-2.7922249,0.60103208,-0.63389087,-0.48676783,0
-0.19650468,5.1774373,-2.4406414,-0.034310576,0.9040032,-0.42614666,0
-3.9304507,-0.30457348,-3.9821517,-0.70143306,-0.054354556,-0.71065968,0
3.6925564,4.412663,0.46771145,0.63964641,0.76438755,0.081019737,0
5.1623697,-1.567299,-2.121608,0.89049125,-0.27035376,-0.36597019,0
-1.5521232,-2.22769,-5.3317938,-0.25940982,-0.3723188,-0.89111459,0
3.9852681,2.2278397,-3.4369078,0.69736952,0.38984266,-0.60141367,0
-0.49868375,-5.8249979,-0.83301258,-0.08444605,-0.98639286,-0.14106059,0
-3.0902443,4.5590415,-1.0058558,-0.55195063,0.8142935,-0.17965659,0
-3.3951502,-2.3746817,4.3861365,-0.56270707,-0.39357615,0.7269516,0
-2.066741,3.0188148,-4.3228059,-0.36494523,0.53306252,-0.76332134,0
-5.4385395,-1.2217224,-0.9894371,-0.96066725,-0.21580586,-0.17477483,0
4.5718641,-3.5885265,-1.02294,0.77471566,-0.60808623,-0.17334016,0
-1.8255444,3.2893467,-4.4503341,-0.31327236,0.56446797,-0.76369911,0
0.41575515,-5.187686,-2.5209289,0.071895942,-0.89709908,-0.43594059,0
-4.5346909,2.6253502,-2.5495076,-0.77819818,0.45053628,-0.43752095,0
-3.2115252,-4.6554437,-1.2790077,-0.5538519,-0.80286664,-0.22057459,0
1.7844086,5.560986,0.78611386,0.30280486,0.94367045,0.13339944,0
-0.97993314,-3.2694795,-4.5932951,-0.17123921,-0.57132787,-0.80265909,0
-3.68419,3.418592,2.8569436,-0.637272,0.59133023,0.49417922,0
-1.9161167,2.2736738,-5.0217867,-0.32832447,0.38959146,-0.86047757,0
3.2808428,-4.7839198,-0.56802106,0.56288785,-0.82076788,-0.09745428,0
-3.9541643,2.0446596,-3.7170653,-0.68182719,0.35256618,-0.64094359,0
-1.3722363,-5.4994202,0.32464102,-0.24170463,-0.96866357,0.057182018,0
-1.2367443,-3.0816324,4.8477817,-0.21047504,-0.5244469,0.82501858,0
-1.3914376,2.7271872,-5.0030437,-0.23722403,0.46495387,-0.85296106,0
5.3773637,-0.14390774,-2.4224951,0.91148001,-0.024392813,-0.41062054,0
5.5329275,-1.9043162,0.022669079,0.94555479,-0.3254399,0.0038740532,0
-5.0499716,2.3205421,-1.4466071,-0.87935644,0.40407822,-0.25189909,0
1.2026435,3.666508,4.3147478,0.20776443,0.63341296,0.74540055,0
5.5117021,0.50951695,1.958445,0.93872863,0.086778663,0.33355364,0
-5.8355169,-0.41230991,-1.1007398,-0.98031092,-0.069264114,-0.18491374,0
-5.5421629,-1.3233308,-0.63392782,-0.96669269,-0.23082219,-0.11057296,0
-3.4294596,0.3844094,4.7296505,-0.58575284,0.065657258,0.80782592,0
0.50280005,5.8639417,-0.59157079,0.085002594,0.9913488,-0.10001004,0
1.1393099,1.8926837,5.4784698,0.19287105,0.3204079,0.92743707,0
-1.386624,5.2354751,1.7499943,-0.24362227,0.91984445,0.30746445,0
5.3887591,-1.7729101,1.8075156,0.90507901,-0.29777238,0.30358464,0
1.9970362,-4.8160763,-2.2086611,0.35269386,-0.85056067,-0.39006862,0
3.1144972,1.0413927,-4.7983809,0.53563809,0.17910101,-0.82523608,0
-2.0575562,4.4355507,-2.7705138,-0.366119,0.78925645,-0.49298182,0
-3.199224,4.6035972,1.088083,-0.56021595,0.80613571,0.19053417,0
3.7953134,-3.6953902,2.5652568,0.64484203,-0.6278646,0.43584949,0
5.370852,-2.1519258,0.96971738,0.91549402,-0.36680868,0.16529416,0
-1.2918161,-3.9330184,3.8345098,-0.22893284,-0.69700098,0.6795435,0
3.5567334,-4.2565513,1.5695655,0.61698174,-0.73837817,0.27227041,0
0.41467497,-4.9507933,-2.8087378,0.072659127,-0.86747533,-0.49214551,0
-4.5339069,2.037714,-2.6935954,-0.80193973,0.36042288,-0.47643262,0
-4.1952896,3.8262901,2.0088336,-0.69654644,0.63528121,0.33352783,0
-1.5741673,5.6128883,1.1752595,-0.26471081,0.94385922,0.19763078,0
-0.67973399,-1.5556267,-5.4380217,-0.11931753,-0.27306792,-0.95456654,0
-4.6841111,3.5207219,-0.67794728,-0.79407692,0.5968526,-0.11492945,0
-3.2666626,-4.6832628,0.49297357,-0.56997526,-0.81714714,0.086015232,0
2.7508743,-4.7192721,-1.6654118,0.48170274,-0.82638681,-0.29162854,0
-2.0160692,-5.0647435,1.9049274,-0.34913281,-0.877087,0.32988581,0
-5.1610608,-2.7257385,0.28269204,-0.88321882,-0.46645907,0.048377447,0
2.8495874,-2.106374,4.750401,0.48082221,-0.35541686,0.80155402,0
5.4102488,-2.1886444,0.56928545,0.92264038,-0.37324193,0.097083479,0
-3.0748224,-2.4832771,4.2644053,-0.52883583,-0.42709652,0.7334311,0
4.0680618,3.5312073,-2.2786701,0.69551319,0.60372758,-0.38958234,0
3.7936814,-1.653437,4.2266769,0.64133465,-0.27951911,0.71453404,0
4.6430616,1.8750869,-2.9637702,0.79794765,0.32224885,-0.50934786,0
-2.6906147,4.9683537,-0.8847174,-0.47047153,0.86874902,-0.15469861,0
-3.6943235,3.7626469,-2.7104931,-0.62310034,0.63462406,-0.4571633,0
-5.2428913,-1.4307953,-2.3834548,-0.88348913,-0.24110591,-0.4016403,0
2.6335361,-2.7258399,4.3785801,0.45475006,-0.47068876,0.75607836,0
-0.353515,-4.0620904,3.8963931,-0.0626821,-0.72025335,0.69087338,0
-2.803386,3.1546764,-4.0513978,-0.4791953,0.53924298,-0.69252354,0
2.8865764,-4.6484418,1.0849169,0.51746571,-0.8333087,0.19448899,0
-0.7811799,-5.0022168,-3.0986483,-0.13160424,-0.84271616,-0.52202475,0
-0.91220844,4.2907152,-3.4224608,-0.16395493,0.77118766,-0.61513281,0
3.5015018,2.6994255,-3.9662426,0.58952111,0.45448163,-0.66776597,0
5.3269491,1.6083606,1.3711809,0.92951161,0.28064656,0.23926051,0
-2.2641563,0.15256628,-5.4765301,-0.38193795,0.025736231,-0.92382962,0
0.62581939,-5.4726777,-0.9268586,0.11203799,-0.97975206,-0.16593187,0
-4.0577693,-4.0641418,0.32980856,-0.70538956,-0.70649731,0.057332858,0
4.6142564,3.2532234,0.80146658,0.80918038,0.57050246,0.14054941,0
-3.5654907,0.85987145,-4.576055,-0.60797846,0.1466231,-0.78029728,0
-2.0962861,-0.37989759,5.3686857,-0.36293393,-0.065772384,0.92949063,0
0.39271817,-3.2183161,4.7719836,0.068071567,-0.55784488,0.82714897,0
2.1111407,4.9351745,2.2676122,0.36229789,0.846937,0.38915032,0
-5.2938457,1.8009255,-0.37381977,-0.94460881,0.32134864,-0.066702634,0
-4.8444242,3.0569518,1.0996492,-0.83053559,0.5240885,0.18852556,0
2.0801265,-5.1575537,-0.94293559,0.36877728,-0.91436195,-0.16716926,0
0.6795333,-5.0374751,-2.6810277,0.1182453,-0.87656885,-0.46652445,0
-4.0193377,2.6129668,-3.3404744,-0.68788141,0.44719091,-0.57169873,0
1.1791316,-3.9660075,4.1290426,0.20172,-0.67848492,0.70637614,0
2.3776567,-4.5996604,-2.7464337,0.40566418,-0.78477156,-0.46858311,0
5.6459637,-0.36016512,-1.8318279,0.94944179,-0.060566422,-0.30804554,0
-0.57486945,-5.0254927,-2.8804328,-0.09875945,-0.86335236,-0.49484274,0
4.21174,-3.9673121,0.51201463,0.72508007,-0.68300009,0.088146843,0
-0.17917439,4.195106,4.1617713,-0.030307068,0.70959562,0.70395708,0
3.1664982,-4.3912067,1.890817,0.55218291,-0.76575106,0.32972604,0
-1.9819527,1.2451365,5.479599,-0.33262244,0.20896581,0.91961712,0
-4.2565589,3.9949415,-0.84293491,-0.72167468,0.67731899,-0.14291468,0
-2.5766904,-4.8803926,1.1158239,-0.45763013,-0.86677647,0.1981746,0
-3.7298923,-4.2067928,2.0524521,-0.62319338,-0.7028743,0.34292531,0
-5.3478923,-2.2333021,-0.85105538,-0.91297805,-0.38126343,-0.14528993,0
-4.3497295,-2.1565797,3.3931131,-0.73435569,-0.36409083,0.57285219,0
-2.5913572,-3.3048089,4.0748568,-0.44284508,-0.56476903,0.69636494,0
-0.89825815,3.7347829,-4.3267035,-0.15525138,0.64550507,-0.7478103,0
0.26900637,-5.6190648,-2.1702034,0.044614322,-0.93191385,-0.35992512,0
0.70845783,-5.589509,-0.99002409,0.12384439,-0.97709328,-0.17306454,0
4.141664,1.9059122,3.7382112,0.70248061,0.32326773,0.63404971,0
1.9771913,5.301456,2.001302,0.32944068,0.88333148,0.33345804,0
-2.0462551,1.7168342,-4.9890656,-0.36158642,0.30337563,-0.88159996,0
1.4241691,5.5624804,1.2039108,0.24275231,0.94813532,0.20520888,0
-1.0746287,-4.2620082,3.779671,-0.18537603,-0.7352066,0.65200227,0
4.4027505,0.57670826,-3.5048058,0.77829796,0.10194784,-0.61956346,0
3.2180018,-2.229399,-4.3333888,0.55104053,-0.38175526,-0.74203587,0
-5.1430063,2.9526465,-0.67390573,-0.86169416,0.49470639,-0.11291073,0
2.2660899,4.8801394,1.6443077,0.40277106,0.86738783,0.2922565,0
-5.0012846,1.3734888,-2.5634437,-0.8644703,0.23740706,-0.44309035,0
-4.7511048,3.174845,-1.0494319,-0.81777221,0.54646236,-0.18063088,0
-3.1738765,0.098133832,-4.884377,-0.54479414,0.016844617,-0.8384006,0
-4.3656392,-3.6723766,1.5698985,-0.7378251,-0.62065864,0.26532438,0
2.9725826,-0.63280696,-5.165206,0.49600914,-0.10559102,-0.86187327,0
1.6939433,5.2965889,-1.4247761,0.29508662,0.92267108,-0.24819742,0
3.8287172,-3.4665041,2.3785079,0.67333335,-0.60963315,0.4182938,0
-3.9193923,1.1454101,-4.2183032,-0.66759443,0.19509897,-0.71850824,0
5.1271296,2.4252095,-0.61161655,0.89876127,0.42512763,-0.10721345,0
5.3194394,1.5290751,1.3785805,0.93258953,0.26807326,0.24168894,0
0.49954909,-2.9413543,4.8374949,0.087894224,-0.51752281,0.85114324,0
4.1259174,-1.6555511,-3.8423719,0.70215929,-0.28174597,-0.6539048,0
-2.4265079,-3.7082474,-3.8324423,-0.41415793,-0.63292605,-0.65412372,0
3.0385582,2.386097,4.70157,0.49932638,0.3921074,0.77260917,0
-1.0560896,-0.52116692,-5.7197433,-0.18084574,-0.089245088,-0.97945398,0
3.583046,4.7493935,-0.18322799,0.60197133,0.7979241,-0.030783305,0
5.0655651,0.95399815,2.7514803,0.86694527,0.16327184,0.47090161,0
-0.58652717,-2.0365717,-5.4010744,-0.10109045,-0.35101181,-0.93089819,0
-3.6542258,1.4047439,-4.3967695,-0.62071472,0.23861285,-0.74684483,0
-4.0199876,-4.0176082,-1.5075237,-0.68367428,-0.68326962,-0.25638267,0
5.3054156,1.4281301,2.0225761,0.90617675,0.24392779,0.34546047,0
-5.160584,-1.9720708,1.8645209,-0.8850702,-0.33822164,0.31977621,0
-0.84123629,-2.1932268,5.5308032,-0.13999678,-0.3649922,0.9204247,0
4.9054408,1.6943694,2.4834273,0.85261554,0.29449865,0.43164492,0
3.6613119,-3.3668764,-2.61043,0.65177822,-0.59936351,-0.46470267,0
-1.0181479,-5.7357817,-1.285515,-0.17066987,-0.96147633,-0.215488,0
-3.4409924,-1.7664068,-4.3047032,-0.59459198,-0.30522919,-0.74383831,0
0.52784353,-2.0239577,5.5851235,0.088505782,-0.33936566,0.93648154,0
3.2402077,4.6709228,-1.4769404,0.55166703,0.7952559,-0.251459,0
-0.59104007,4.9756351,3.1685946,-0.099695906,0.83928394,0.53447461,0
5.8607464,0.5893032,0.41814557,0.99248511,0.099795252,0.070810646,0
5.17625,2.1374125,0.99955285,0.90991938,0.37573013,0.17570877,0
-5.5119157,1.4651116,-0.62236023,-0.960738,0.2553719,-0.10847864,0
-0.54192966,0.8909688,5.6281877,-0.094676979,0.15565531,0.98326373,0
-5.1608796,-2.0858684,1.2865652,-0.90332389,-0.36509565,0.22519128,0
2.0455217,5.3358727,-1.3418039,0.34847435,0.90901738,-0.22858925,0
5.3696666,-1.5601134,-1.8949528,0.90948457,-0.26424342,-0.32095668,0
-2.9220438,-1.8078346,4.7939777,-0.49541232,-0.30650586,0.8127858,0
-5.2933288,-1.8828839,1.4977506,-0.9103747,-0.32382834,0.25759107,0
2.4541464,4.1500759,-3.1335034,0.42679316,0.72172713,-0.54493809,0
-0.80102873,0.52428353,5.8522625,-0.13507958,0.088411309,0.98688245,0
-1.3143659,-5.6288509,-1.2419535,-0.22231463,-0.95207578,-0.21006665,0
1.9879671,-3.1440959,-4.2163215,0.35356113,-0.55917931,-0.74987531,0
3.0791636,4.9673791,-0.4159297,0.52553487,0.8478052,-0.070988618,0
3.0283132,4.5631561,-2.0027838,0.51931924,0.78252625,-0.34345329,0
-0.91315532,4.5566053,3.4728646,-0.15740012,0.78541976,0.59861588,0
-5.5332956,1.4487907,1.5036751,-0.93559986,0.24496944,0.2542496,0
-5.6980944,0.85538977,0.80326229,-0.97944736,0.14703323,0.13807303,0
-0.14923373,4.1639271,-4.1943235,-0.025242092,0.70430613,-0.7094475,0
-1.2440617,5.5632696,0.50837743,-0.21736808,0.97203958,0.088826001,0
0.96535224,-1.0598428,-5.7641454,0.16252425,-0.17843245,-0.97043693,0
5.3679852,1.1790541,-1.6043072,0.93758768,0.20593697,-0.28021288,0
4.2580004,-2.7660232,2.8651402,0.73034334,-0.47443551,0.4914363,0
3.9855545,0.51708084,-4.2209978,0.68383038,0.088719293,-0.72422707,0
1.8627666,-4.1201334,-3.9967532,0.30866817,-0.68272322,-0.66227865,0
2.7575285,-5.1707602,-0.63544071,0.46781799,-0.87722564,-0.10780327,0
0.21060503,2.8555551,-4.9011788,0.037102681,0.50306845,-0.86344981,0
-0.20412529,5.3460932,2.6805134,-0.034112189,0.89340693,0.44795129,0
3.9356105,-1.2519007,4.2935791,0.66062093,-0.21014066,0.72070861,0
-2.8533943,-5.0229387,-1.2178867,-0.48331374,-0.85079557,-0.20628813,0
-1.3840249,4.5589762,3.5065203,-0.23395804,0.77065748,0.59274846,0
4.8019667,-2.1147108,1.9817107,0.85615647,-0.37703788,0.35332489,0
-5.1120205,2.8424275,-0.3789444,-0.8721534,0.48494187,-0.064651079,0
-1.1727235,-2.8891671,4.6822524,-0.20846631,-0.51358563,0.83232903,0
-4.8189888,3.3593879,-1.3755388,-0.79873687,0.55681121,-0.22799256,0
-5.7285476,-0.80266994,0.96941447,-0.97670496,-0.13685349,0.16528307,0
-1.6999245,-4.6664109,-3.2219162,-0.28715155,-0.78825098,-0.54424667,0
-4.8253255,2.7468486,-0.5528416,-0.86477894,0.49228117,-0.099078454,0
-2.3907526,3.6767697,3.8070138,-0.41166255,0.63310122,0.65552789,0
-0.37804991,5.9604783,-0.27357447,-0.063232608,0.99694926,-0.04575805,0
3.5453453,-4.1275735,1.4419979,0.62983519,-0.73326874,0.25617278,0
3.262671,1.6934825,4.5176306,0.56018728,0.29076403,0.77565873,0
-0.85268259,4.2802181,3.6028731,-0.15066843,0.75631166,0.63662523,0
3.7119091,-1.9735518,-3.7118633,0.6618802,-0.35190916,-0.66187203,0
5.4623203,1.556848,-1.2349997,0.9397431,0.2678417,-0.21247059,0
0.10940468,5.4116879,-1.5067836,0.019471856,0.96317273,-0.26817751,0
-4.8367476,-2.8985407,-0.93452847,-0.84622419,-0.50712079,-0.16350256,0
-5.1587119,-1.4467225,-2.2195408,-0.88954312,-0.24946578,-0.38272679,0
1.8730226,1.10247,-5.415978,0.32095429,0.18891524,-0.9280622,0
-0.055496957,3.6284752,4.7611961,-0.0092703877,0.606112,0.79532528,0
-0.075157076,-0.63902366,5.897727,-0.012668229,-0.10771172,0.99410141,0
-2.3223569,3.9426351,3.2817478,-0.41242731,0.70017242,0.58280551,0
-0.97914279,4.9010592,-2.6746173,-0.17273191,0.86460245,-0.47183284,0
-4.9547744,0.45109007,-2.6986802,-0.8753944,0.079697214,-0.47679457,0
4.872571,2.8233771,-2.2284179,0.80454057,0.46618539,-0.36794797,0
-1.8517975,3.4904675,-4.1209016,-0.32435629,0.61138171,-0.721807,0
-4.3970857,-2.4061079,-3.3096864,-0.73205763,-0.40058568,-0.55101979,0
0.61518168,4.737947,3.6100111,0.10273199,0.79121137,0.60285217,0
-5.5536451,1.3048958,0.26596603,-0.97243303,0.22848484,0.046570159,0
-3.8927245,-3.0559833,-3.0504341,-0.66959387,-0.52566469,-0.52471012,0
-2.0370202,-2.0636001,-4.8446517,-0.36078301,-0.36549065,-0.85805136,0
-5.8543358,0.47184417,-0.16255008,-0.99638623,0.080306128,-0.02766542,0
-0.11369856,5.5382438,-1.242884,-0.020027462,0.97553539,-0.21892813,0
-2.3616176,-3.0113556,4.6267657,-0.39331645,-0.50152731,0.77056634,0
1.9135747,1.2349442,-5.372602,0.3279261,0.21163033,-0.92069381,0
-0.83477646,-1.9364856,5.5490646,-0.14062376,-0.32621416,0.93477762,0
-2.0111818,4.8988633,2.3031192,-0.34826994,0.84832048,0.3988238,0
-1.9420438,-1.597499,-5.0266542,-0.34552446,-0.28422377,-0.89433205,0
-1.0637412,-5.4196825,-1.0364811,-0.18929458,-0.96444184,-0.18444361,0
-3.0782731,4.9324365,-1.5414946,-0.51176131,0.82001501,-0.2562727,0
2.38728,5.3425989,-0.61821413,0.40570524,0.90794557,-0.10506213,0
-0.59127295,-5.0962086,-3.1378188,-0.098317914,-0.84740657,-0.52176207,0
2.2318599,3.0480247,-4.2826786,0.39081538,0.53373194,-0.74992907,0
-4.7298088,-3.164304,-0.40527242,-0.82904935,-0.55464488,-0.071036875,0
-4.2125034,-3.8276484,0.76719129,-0.73347318,-0.66646296,0.13358191,0
-2.7143557,-0.45358437,-4.8112321,-0.48971805,-0.081834689,-0.86803186,0
5.0663605,2.4802001,1.4485455,0.86992735,0.42586663,0.24872476,0
2.3108268,-2.7507558,4.5863466,0.39664695,-0.47215953,0.78723353,0
-1.896857,4.304111,3.3629501,-0.32805583,0.74438334,0.58161229,0
0.73888987,-4.6789093,-3.3367705,0.12752339,-0.80752277,-0.57588601,0
4.7641554,3.5193415,-1.2185137,0.7878381,0.58198589,-0.20150299,0
5.909584,0.59805512,0.64597207,0.98908621,0.1000964,0.10811625,0
2.5386965,-2.9856253,-3.991343,0.45384723,-0.53374547,-0.71353942,0
-4.1393123,1.8231214,-3.6703923,-0.7106238,0.3129876,-0.63012111,0
0.58541524,-4.6530342,-3.2147553,0.10296129,-0.81836343,-0.56540275,0
0.37420404,3.9659851,-4.1450996,0.065090366,0.68985736,-0.72101319,0
2.4552889,0.52836919,5.0480604,0.43546543,0.093710572,0.89531451,0
-0.12382465,-5.280931,2.7565656,-0.020781618,-0.88630402,0.46263722,0
-3.7028956,0.65398633,-4.3698525,-0.64231092,0.11344164,-0.75800246,0
-4.228806,2.0674062,3.0065773,-0.75712049,0.37014598,0.53829408,0
-2.4550905,-2.2484231,-4.7867818,-0.42106837,-0.38562319,-0.82097274,0
2.9499128,-4.7724924,1.6419091,0.50461233,-0.81638294,0.2808651,0
-1.9321673,3.7990603,4.1037893,-0.3265622,0.64209217,0.69359547,0
-3.7832041,-2.575227,3.279377,-0.67195278,-0.45739827,0.58246565,0
-3.6331549,-0.057170104,-4.5427604,-0.62455446,-0.0098277787,-0.78091937,0
1.0121639,4.4876604,3.4406495,0.17619073,0.78118193,0.59892529,0
1.3097932,-5.717104,-0.30430233,0.22301522,-0.97343701,-0.051812798,0
-4.2624574,4.1428838,-0.25397351,-0.71643984,0.69634169,-0.042688224,0
-3.7262807,3.5279567,-2.9455676,-0.62978429,0.59626526,-0.4978348,0
1.0330764,-5.7806239,0.94857836,0.17367496,-0.97180575,0.15946962,0
-5.8112974,-0.27256823,1.35697,-0.97278988,-0.045626923,0.2271518,0
-4.905169,-1.4562379,-2.9094374,-0.83334833,-0.24740298,-0.49428976,0
-4.8572621,0.21244933,-3.0590079,-0.84559637,0.036985114,-0.5325399,0
-4.974052,2.8271146,0.81023586,-0.86079645,0.48925307,0.1402173,0
-5.1837745,2.5438006,-1.4563712,-0.87047356,0.42716193,-0.24455783,0
-5.8590651,0.60996515,-0.92274106,-0.98264211,0.10229916,-0.15475579,0
-0.52334344,5.5189366,-1.1088037,-0.092569917,0.97619927,-0.19612718,0
3.4492061,-1.0730124,-4.4646974,0.60059446,-0.18683872,-0.77741724,0
-2.2464933,4.538537,-2.6476004,-0.39312562,0.79422235,-0.46331745,0
4.2919793,1.4995197,-3.8637421,0.71935606,0.25132662,-0.64758152,0
-2.7234371,4.7063985,-1.2543237,-0.48803806,0.84338337,-0.22477394,0
1.3134861,-2.6323764,-4.8851647,0.23033167,-0.46161103,-0.85665786,0
4.6708312,-0.80011278,-3.2169275,0.81549454,-0.13969411,-0.56165308,0
-2.7984757,4.2827344,-2.269928,-0.50000006,0.76519066,-0.40556514,0
2.5914161,2.8197696,-4.3799672,0.44540352,0.4846521,-0.7528134,0
-2.1628132,-4.2826004,3.4846656,-0.36474252,-0.72222906,0.58766323,0
-5.2709079,0.56193519,-1.9845768,-0.93123859,0.09928,-0.35062546,0
3.1757302,3.9588587,2.5833457,0.55764788,0.69516271,0.45362711,0
3.1147804,-1.3803788,-4.5093393,0.55112505,-0.24424239,-0.79787648,0
5.1897516,-1.1495435,1.7409008,0.92784107,-0.20551921,0.31124401,0
-5.1225796,-2.4201977,-1.194428,-0.88471907,-0.41799158,-0.20628928,0
-4.6072698,-0.49588305,3.5678477,-0.78779918,-0.084791273,0.6100679,0
-2.9852901,4.8864017,-0.78996044,-0.51645124,0.84534109,-0.13666213,0
-4.8857045,1.7729824,2.707804,-0.83366299,0.30252951,0.46204102,0
2.0837438,-2.1110249,-4.7632747,0.37134475,-0.37620652,-0.84886491,0
-2.7751999,-3.6115863,3.6223185,-0.47688013,-0.62060171,0.62244588,0
-4.5092759,2.4854398,-2.6072578,-0.78131741,0.43064949,-0.45175678,0
1.793165,-0.3762477,-5.596221,0.30451867,-0.063895099,-0.95036083,0
-5.1553264,1.0434462,1.9476049,-0.91913944,0.18603528,0.34723708,0
2.8788483,-3.6227818,3.6297729,0.48950684,-0.61600202,0.61719078,0
-0.7306661,5.7395525,-0.33476454,-0.12607363,0.99033779,-0.05776234,0
-2.0733311,4.9109025,-1.9035218,-0.36629316,0.86760378,-0.33629313,0
-0.91518021,3.6838417,4.4851313,-0.155755,0.62695497,0.76332682,0
-1.036913,-2.3083777,-5.3379884,-0.17552646,-0.39075732,-0.90360343,0
2.4262161,2.2369792,4.7621951,0.41875464,0.38609317,0.82193476,0
2.0654912,5.4017053,-0.57903951,0.35538065,0.92939711,-0.099627361,0
1.5944573,5.5196943,0.88473964,0.2742871,0.94952744,0.15219766,0
-2.6812501,4.9544458,0.36880738,-0.47493592,0.87759221,0.065327689,0
-5.3793368,-0.20987897,1.4629587,-0.96426862,-0.037621681,0.26224145,0
1.6644487,0.4648037,-5.382606,0.29442498,0.082219303,-0.95213121,0
-0.34799328,-1.4127717,5.7976551,-0.058217749,-0.23635051,0.96992224,0
-1.5495164,-5.5925961,-1.0795369,-0.2625035,-0.9474414,-0.18288429,0
-5.1936078,-0.12389442,2.9758115,-0.86747843,-0.02069385,0.49704412,0
-4.6633906,2.011008,2.307009,-0.83603853,0.36052743,0.41359356,0
-0.16114435,-2.1540093,-5.2524376,-0.028374255,-0.37927741,-0.92484784,0
-0.7449894,5.2386489,-2.1722314,-0.13024561,0.91586673,-0.37976864,0
-5.6122456,-0.31562483,-1.4825429,-0.9654091,-0.054293256,-0.25502455,0
4.1094685,-1.4647655,3.8218141,0.708534,-0.25254753,0.65893805,0
-4.0908647,1.2788085,3.611979,-0.72984952,0.22815171,0.64441174,0
4.2454543,3.8324556,-0.61358905,0.73805428,0.66625625,-0.10666987,0
2.9196677,3.8722973,-3.4354036,0.49126524,0.6515553,-0.57804328,0
4.8402109,-3.0866134,0.18725079,0.84270167,-0.5373928,0.032601174,0
-0.49776402,2.6269412,-5.2126236,-0.084966876,0.44841126,-0.88977975,0
4.2893515,3.5780249,1.3163017,0.74743432,0.62348318,0.22937012,0
5.7039127,-0.82626754,1.7243118,0.94814563,-0.13734816,0.28662759,0
-1.2405926,3.991996,-3.8744433,-0.21765983,0.70038885,-0.67976439,0
-4.0117569,-3.2638547,-2.2939129,-0.7090857,-0.57689255,-0.40545347,0
-2.4466794,0.023316598,5.2607136,-0.42170405,0.0040187957,0.90672457,0
4.8563361,-2.6358056,1.7388163,0.83835977,-0.45502481,0.30017561,0
4.9978986,2.7456164,-0.90999949,0.86550349,0.47546795,-0.15758778,0
0.96465307,-5.5123291,-1.2411019,0.16829044,-0.9616642,-0.21651886,0
4.1026478,4.0558157,-0.73584318,0.70543867,0.69738603,-0.12652616,0
0.41570753,2.947422,5.0768023,0.070637673,0.50083053,0.86265814,0
1.0372587,-1.0758222,-5.3925786,0.18536314,-0.19225462,-0.96367979,0
-5.3508801,1.3848631,-1.9861099,-0.91106826,0.2357939,-0.33816525,0
-5.260272,-2.8437059,-0.037707992,-0.87966692,-0.47554842,-0.0063058478,0
-2.9337759,-5.0723658,-0.19635938,-0.50039017,-0.865152,-0.033491414,0
-0.83846569,-2.6024284,-5.0672898,-0.14562076,-0.45197749,-0.880063,0
-0.10323147,2.1682954,-5.3825188,-0.017786987,0.37360162,-0.92741871,0
-3.656564,1.5772128,-4.2347493,-0.62903041,0.27132434,-0.72849429,0
-3.3030601,-0.0077864169,4.9795122,-0.55277324,-0.0013030714,0.83333063,0
-5.4635525,-0.026591921,-1.5617617,-0.96147865,-0.0046796594,-0.27483961,0
2.5665255,-3.6713564,-3.4783273,0.452539,-0.64734679,-0.61331117,0
-4.3093071,3.6238284,0.31589827,-0.76415223,0.64259899,0.056016978,0
-0.91883671,-2.9608219,4.7842445,-0.16117531,-0.51936471,0.83921558,0
-5.1435366,-0.62025869,2.4435771,-0.89793956,-0.10828246,0.42659062,0
3.4084167,-4.8003726,-0.22356959,0.57852209,-0.81478345,-0.037947223,0
0.5097909,-0.36744413,-5.7664199,0.08788649,-0.063346311,-0.99411428,0
-2.2707453,3.1610823,-4.2404466,-0.39450902,0.54919213,-0.73671603,0
0.38606173,-5.4975705,1.0634639,0.068782642,-0.97947407,0.18947193,0
3.4860964,-4.5119691,2.0206947,0.57628167,-0.74586725,0.3340382,0
1.2659326,0.30303761,-5.8242369,0.21212266,0.0507777,-0.97592294,0
-2.1762877,-4.1459651,-3.1693547,-0.38489702,-0.73325306,-0.5605303,0
1.8372183,5.6727767,0.1794512,0.30797052,0.95092022,0.030081173,0
-2.7368567,3.8165927,-3.7825773,-0.45384997,0.63290143,-0.62726068,0
3.5043733,4.33039,-0.37159315,0.62767529,0.77562481,-0.066556789,0
4.1551347,4.1450171,0.043933503,0.70794839,0.70622456,0.0074853539,0
3.9315541,-2.6652331,-3.4133546,0.67216784,-0.45566815,-0.58357257,0
3.7141695,-2.0392776,-4.0483036,0.63379085,-0.34798506,-0.69080794,0
-3.8040273,-1.7307538,3.9042597,-0.66513145,-0.30262107,0.682657,0
3.1559021,-1.4733447,4.4752502,0.55651492,-0.25981107,0.78917009,0
-5.4606843,-2.0555284,-0.418881,-0.93348807,-0.35138658,-0.071606487,0
5.1444492,2.1543503,1.7713504,0.8791135,0.36814794,0.3026987,0
2.4182603,0.048981618,5.1234846,0.42682251,0.0086452467,0.90429413,0
-3.3130963,3.9646089,-2.8056371,-0.56351751,0.6743319,-0.47720486,0
5.220818,-0.61069655,-2.1308763,0.9204697,-0.10767042,-0.3756896,0
1.464512,-2.9206114,-4.619266,0.25884148,-0.51619613,-0.81642061,0
2.1963239,4.3373113,-2.9376101,0.38665721,0.76357257,-0.51715875,0
-3.0350935,-0.36032498,4.8531027,-0.52919072,-0.062825292,0.84617388,0
3.4723914,2.2539554,-3.8899016,0.61127251,0.39678159,-0.68477017,0
5.3412194,2.4035668,-0.090859137,0.91181064,0.41031787,-0.015510751,0
-1.0996616,-1.5725173,-5.6623292,-0.18393198,-0.26302293,-0.94709444,0
1.1875631,-5.0222259,2.3796828,0.20896938,-0.88373536,0.41874057,0
2.9534152,1.667031,4.8144369,0.50151289,0.28307486,0.8175289,0
-3.4388125,-4.5819397,0.84247553,-0.59387606,-0.79129183,0.14549385,0
-4.9734788,-3.2354479,-0.013117194,-0.83823454,-0.54530531,-0.0022107835,0
3.9057379,-0.86396086,-4.070374,0.68438393,-0.15138777,-0.71323234,0
3.5058331,2.0366232,-3.883672,0.62443471,0.36274922,-0.69173276,0
-1.0258461,-4.1926641,3.6828108,-0.18079878,-0.73893011,0.64907169,0
-0.3979525,5.6559167,-0.76758516,-0.069552407,0.98851651,-0.13415518,0
-1.4883101,2.7624764,4.8606524,-0.25724724,0.47748077,0.8401404,0
0.94950747,-4.3726811,-3.4293537,0.16842449,-0.77563012,-0.60830182,0
4.0056977,-3.6006691,2.2672031,0.68545467,-0.61614621,0.38796362,0
-3.8756733,-0.54512119,3.9103777,-0.70052266,-0.098529913,0.70679545,0
-1.9659261,3.2717578,-4.3614368,-0.3391979,0.56450415,-0.75251573,0
-3.6876471,0.85628396,-4.409997,-0.63448203,0.14732884,-0.75876665,0
-2.8043683,1.7997935,4.5143228,-0.49980208,0.32076403,0.80455476,0
-1.0692277,-4.6040697,3.4574766,-0.18258107,-0.78618985,0.59039789,0
-0.84383786,-2.276937,-5.084455,-0.14976127,-0.4041025,-0.90237063,0
0.11926483,-3.0775301,-4.9383621,0.020492107,-0.52878183,-0.84851038,0
-2.8892696,-4.5836706,-1.9430351,-0.50194454,-0.79630798,-0.33755794,0
-1.1802759,2.0227613,5.3510413,-0.20206454,0.34629899,0.91610426,0
-0.34065959,4.5766225,-3.7580128,-0.057431065,0.77156293,-0.63355523,0
3.3754478,-4.1524105,-2.5406883,0.56981242,-0.7009722,-0.42889592,0
-0.43786082,-3.5245018,4.596458,-0.075379878,-0.6067602,0.79130268,0
-2.3516266,1.3866823,-5.0132766,-0.41195807,0.24291907,-0.87822604,0
1.6623771,-3.9139702,4.2066898,0.27791762,-0.65434086,0.70327795,0
3.1978991,-4.5524883,2.079767,0.53841615,-0.76648235,0.35016119,0
0.17599647,-1.4641432,5.6211338,0.030284932,-0.25194526,0.96726745,0
3.9510286,4.1655498,-0.15902123,0.68791384,0.72526413,-0.027687196,0
5.406517,2.4746497,0.12350211,0.90908122,0.41610107,0.020766318,0
-3.4176977,-4.6821861,-0.17671303,-0.58930415,-0.80733645,-0.03047014,0
1.4446435,-2.6495225,-5.0326099,0.24618758,-0.45151591,-0.85762751,0
-4.3152103,-3.8711202,0.62283462,-0.74011195,-0.66394496,0.10682384,0
1.6217276,5.6093745,-0.87297755,0.27468303,0.95009786,-0.14786214,0
4.340929,3.2541864,1.6939472,0.76376939,0.57256126,0.29804334,0
-2.4626653,5.0513101,-1.3115909,-0.42675492,0.87534082,-0.2272854,0
5.0428233,2.7483027,-1.098613,0.86242831,0.47001728,-0.18788582,0
0.027105445,-3.6090984,-4.5600104,0.0046608979,-0.62060004,-0.78411347,0
-0.084893048,5.6587324,-1.6817696,-0.014378988,0.95846301,-0.28485423,0
-3.5695763,4.0841832,1.5234154,-0.63356495,0.72490269,0.27039137,0
3.8724835,1.8108467,-3.9045579,0.66885495,0.31276923,-0.67439485,0
-1.1915126,-3.4691982,-4.5210023,-0.20466049,-0.59588778,-0.77655119,0
-1.2646829,-3.5191634,-4.4735169,-0.21690316,-0.6035645,-0.76724368,0
-4.0809879,-2.7263319,3.2581468,-0.69275975,-0.46280289,0.55308002,0
2.6159499,1.3515359,-5.1741214,0.43941423,0.22702427,-0.86912316,0
0.48459738,-1.8810136,-5.5702462,0.082146138,-0.3188585,-0.9442358,0
2.4712269,0.81382042,-5.2349734,0.4227303,0.13921285,-0.89549923,0
-2.6436684,3.5779886,3.557055,-0.46413285,0.62816578,0.62449062,0
-1.8370667,-0.0033470155,5.3612013,-0.32415697,-0.00059059286,0.94600314,0
3.5946569,-3.7853515,2.8125453,0.60621649,-0.63837594,0.47431824,0
4.7874308,-0.39548802,-3.1327059,0.83478034,-0.06896092,-0.54624736,0
-4.7431827,-0.19542134,3.1579361,-0.83190012,-0.034274671,0.55386597,0
-1.6359522,3.1762025,-4.6769357,-0.27796629,0.53967178,-0.79466289,0
-4.6459432,-0.24691257,-3.5944629,-0.79022336,-0.041997086,-0.61137819,0
-3.5602486,4.2288041,-2.2075911,-0.59811521,0.71043134,-0.37087125,0
1.434737,-3.7239039,3.9896932,0.25425023,-0.65991426,0.70701486,0
-0.51006562,5.0124941,3.1134226,-0.086120099,0.84631562,0.5256741,0
0.3265349,5.7770238,0.2333706,0.056387115,0.99759537,0.0402992,0
1.3845222,-5.0038447,-2.6225491,0.23802844,-0.86026597,-0.45087126,0
1.018787,-5.5455475,1.5050064,0.17457666,-0.95027035,0.25789392,0
-3.6780918,0.76680624,4.6633592,-0.61418277,0.12804443,0.77870673,0
-3.0382137,3.5294976,3.45856,-0.52375418,0.60844606,0.59621722,0
5.4341884,-1.1577786,-1.2038357,0.95586926,-0.20365231,-0.21175371,0
