-1.8310213,1.6097782,-5.2188039,-0.31787446,0.27946553,-0.90601045,0
-2.2780819,2.4659822,4.7726192,-0.39040875,0.42261037,0.81791282,0
-4.6542778,3.1161423,-1.5701956,-0.80010861,0.53569049,-0.26992953,0
-2.9798472,-2.0567007,-4.7437029,-0.49933779,-0.34464464,-0.79490995,0
-1.1587484,3.3062739,-4.5066299,-0.20299619,0.57921207,-0.78949732,0
-5.1820946,-0.28305408,-2.5599647,-0.89549476,-0.048913319,-0.44237611,0
0.69987762,3.3570478,-4.6966643,0.12035012,0.57727391,-0.8076328,0
1.3650608,-5.5082135,-1.0402664,0.23660365,-0.9547292,-0.1803076,0
1.656947,-5.2485156,-1.5289367,0.290068,-0.91881424,-0.26765832,0
3.1986144,-1.2023031,-4.469286,0.56854773,-0.21370712,-0.79440719,0
-1.7970307,-3.5515721,4.4112434,-0.30245134,-0.59775144,0.74243945,0
1.6873513,-5.3469763,0.79280132,0.29797798,-0.94424987,0.14000483,0
2.1830039,-4.6731181,2.1105742,0.3917124,-0.83853185,0.37871581,0
-3.240226,4.3844666,-1.4555908,-0.57422161,0.77699995,-0.25795475,0
-3.2330401,-2.356261,-4.118814,-0.56306338,-0.4103643,-0.71732897,0
-3.1825166,3.3824558,-3.509491,-0.54671484,0.58106178,-0.60288477,0
2.6014867,-4.8596745,1.8984134,0.4462291,-0.83357263,0.32563201,0
-0.57345462,-5.7927861,-1.0311011,-0.097003065,-0.97988224,-0.17441654,0
-0.39856809,3.9908488,4.3690414,-0.067203224,0.6729036,0.73667127,0
-2.6084931,4.7040319,2.1596634,-0.45003262,0.81156731,0.37259787,0
-3.5445888,4.6972594,-0.44260848,-0.60065472,0.79598266,-0.07500302,0
-0.84126395,1.2297127,-5.4836693,-0.14804529,0.21640435,-0.96501392,0
-5.1036096,-2.7426219,0.41465291,-0.87861806,-0.47215939,0.071385071,0
-2.5853276,2.1981947,-4.7861443,-0.44064641,0.37466303,-0.81575632,0
-3.9547925,3.6305881,-2.1613424,-0.68335593,0.62733608,-0.37346238,0
2.0906842,-0.061232831,5.3768821,0.36237684,-0.010613444,0.93197125,0
3.7134619,3.6222501,-2.4202905,0.6487121,0.63277811,-0.4228054,0
-1.3892961,2.3916118,4.975348,-0.24405923,0.4201372,0.87402511,0
-3.1671495,0.98738831,-4.6640096,-0.55335629,0.17251398,-0.81488389,0
3.9503467,2.1430771,-3.5216937,0.69186944,0.37534162,-0.61679453,0
-0.9470765,2.2096736,5.3457999,-0.16157576,0.37698087,0.91201895,0
-0.9865405,4.4930115,-3.5019236,-0.17064221,0.77715755,-0.60572881,0
-0.34757373,4.3139324,-3.4794722,-0.062590301,0.77684331,-0.62657559,0
-4.6715574,2.9311364,1.5538594,-0.81532288,0.51156867,0.27119371,0
3.0428526,3.1751943,3.815887,0.52260011,0.54532939,0.6553663,0
5.565721,1.0751054,0.13187256,0.98158437,0.18960826,0.023257373,0
3.9963963,-3.8881342,1.6471663,0.68738145,-0.66876036,0.28331313,0
-3.6491852,1.766479,-4.1890764,-0.62596482,0.30301389,-0.71857536,0
-1.5562477,1.2315712,-5.4893017,-0.26661563,0.2109922,-0.94042456,0
4.8795967,0.88864374,-3.027199,0.83976245,0.15293264,-0.52097094,0
2.2968314,-2.6248214,-4.6763215,0.39371172,-0.44993418,-0.80159241,0
1.3097475,2.2629168,5.0004597,0.23211081,0.40102959,0.8861714,0
2.2465277,5.2078791,-1.62509,0.38076845,0.88269377,-0.27543974,0
-0.8736394,4.6999078,2.9104378,-0.15609908,0.83976442,0.5200277,0
0.40793222,-3.1207342,4.9644108,0.069399953,-0.5309186,0.8445763,0
0.77048606,5.4396782,-2.2112055,0.13009998,0.91851372,-0.37337181,0
-2.8329468,-4.0668468,-2.9128089,-0.49278489,-0.7074191,-0.50667673,0
2.2860889,-4.6307149,-2.0801578,0.410615,-0.83174413,-0.37362677,0
-0.94336194,1.7962253,-5.4934869,-0.16108848,0.30672342,-0.93806779,0
4.9844737,-2.9809186,-0.79570496,0.85029078,-0.50850856,-0.13573761,0
2.234261,-5.2101259,-0.56983674,0.39214435,-0.91445065,-0.10001439,0
-3.1099043,4.7543273,-0.66395354,-0.54370981,0.83120704,-0.11608011,0
-5.0594335,2.0246975,1.5471822,-0.89312035,0.35741127,0.27311751,0
-3.4454715,-1.3831047,4.0319281,-0.6286279,-0.2523481,0.73562717,0
3.0334249,1.1309766,-4.7901134,0.52467608,0.19561927,-0.82852161,0
-3.0086534,1.096821,4.8230085,-0.51968873,0.18945536,0.83308476,0
-1.5318208,-5.602191,-0.318434,-0.26335493,-0.96314436,-0.054746065,0
-3.6595113,-3.9138491,-2.7204473,-0.60897982,-0.65130424,-0.45271006,0
-4.1533589,-2.5301194,-2.9465353,-0.73041546,-0.44495031,-0.5181818,0
3.8674424,3.8871121,-0.92460829,0.69549257,0.6990298,-0.1662748,0
-5.1557131,1.612318,2.100107,-0.88955891,0.27818692,0.36234927,0
5.4220357,0.044578601,-1.8014011,0.94896609,0.0078021581,-0.31528169,0
-1.5214787,0.094557852,5.6184211,-0.26135266,0.016242716,0.96510673,0
-2.6696486,3.3353555,-3.7838295,-0.46779114,0.58444011,-0.66302431,0
-5.2986155,2.1560876,-0.35054278,-0.92451739,0.37620026,-0.061163694,0
-5.3630853,-1.3234755,1.1339957,-0.95104188,-0.23469338,0.20109272,0
-2.4895642,5.0014443,-0.14549401,-0.44546407,0.89492124,-0.026033616,0
-2.3361056,5.3434563,-1.047444,-0.3942714,0.90183085,-0.17678021,0
3.0835838,1.7059708,4.6726131,0.5268802,0.29149273,0.79839164,0
-2.1379497,5.2739987,-0.70817792,-0.3728058,0.9196555,-0.12348879,0
1.4944112,0.97421962,5.3770719,0.26378471,0.17196353,0.94912916,0
-0.74610472,-3.9840574,4.3115602,-0.12608062,-0.67324656,0.72858965,0
2.2798865,-5.3747878,-0.20869021,0.39025322,-0.92001432,-0.035721965,0
5.6775694,-1.1762552,0.97582102,0.96562612,-0.20005441,0.16596508,0
-3.8363006,-3.5899265,2.232249,-0.67202544,-0.62886673,0.39103508,0
-0.98289174,5.4906054,0.96163279,-0.17365046,0.97004187,0.16989458,0
-2.5474527,-5.0286961,-0.83205593,-0.44706178,-0.88250428,-0.14602053,0
-2.0336857,-3.4525018,4.2123837,-0.34980547,-0.5938499,0.72455388,0
3.5988646,4.4569912,1.1747745,0.61542267,0.76216632,0.20089193,0
-1.0845304,-3.083488,4.796886,-0.18683748,-0.53120792,0.82638359,0
1.1967835,5.5648174,0.57623434,0.20918593,0.97267503,0.10072006,0
1.8787891,-0.95784193,-5.4350734,0.32226971,-0.16429915,-0.93228108,0
-3.9421787,-1.6335435,-3.9339933,-0.6792264,-0.28145498,-0.67781609,0
0.17920928,-5.2748895,-2.503865,0.030677384,-0.90296561,-0.42861637,0
3.5363607,-4.4084649,1.9555061,0.59133148,-0.73716009,0.32698935,0
-2.7554464,-5.1368661,0.62476027,-0.47000331,-0.87620795,0.1065669,0
-1.8885051,-5.2242026,0.25323913,-0.33960825,-0.93946385,0.045539774,0
-0.63088787,4.6519256,-3.4136403,-0.10869081,0.80144447,-0.58810979,0
-4.3187408,-1.3640336,3.8812137,-0.72406745,-0.22868986,0.65071291,0
-0.091300242,3.0960462,4.5815911,-0.016508933,0.55982786,0.82844448,0
4.5851207,-2.6991241,2.4336269,0.78368241,-0.4613305,0.41595209,0
-1.8103325,5.3598304,-1.1448003,-0.313642,0.9285962,-0.19833784,0
-3.7522309,3.2218819,-2.7476749,-0.66320878,0.56946927,-0.48565298,0
-1.0261335,5.6920733,0.076588571,-0.17739874,0.98404998,0.01324069,0
4.8880816,3.1896939,0.059826784,0.83742434,0.54645717,0.010249502,0
2.0824282,-5.3650846,0.42422208,0.36086434,-0.92971647,0.073513523,0
-5.2446952,2.6374772,0.14178747,-0.89313352,0.4491432,0.024145376,0
-5.5858293,1.1892755,0.77382779,-0.96922064,0.20635617,0.1342701,0
-2.023885,-5.5203109,-0.68285549,-0.34192207,-0.93262023,-0.11536395,0
-4.0411277,-4.0029869,-0.054013003,-0.71041948,-0.70371443,-0.0094953422,0
3.7637842,-3.5225916,-2.4428363,0.65978348,-0.61750293,-0.42822409,0
-0.57726407,5.1512012,-2.6130939,-0.099445008,0.88739496,-0.45015645,0
-4.4449234,-2.5256665,-2.8493316,-0.75945514,-0.43153283,-0.48683393,0
1.1724004,5.0147891,-2.9072883,0.19824277,0.84795749,-0.49159732,0
1.4123496,-3.2122347,-4.6455479,0.24259335,-0.55175203,-0.79794621,0
-1.9441584,5.4414268,-0.25245851,-0.33613724,0.94080096,-0.04364907,0
5.5454311,2.0832369,0.70234221,0.9296127,0.34922504,0.11773769,0
3.2463167,-3.8235943,2.8680141,0.5618521,-0.66176373,0.49637789,0
-3.5242085,4.2842941,1.5698006,-0.61127186,0.74310821,0.27228096,0
2.4436123,0.61557162,5.1114802,0.42878708,0.10801597,0.89692485,0
-3.4998338,4.4506807,0.27102819,-0.61742795,0.78517294,0.047813807,0
3.4736991,0.2484571,4.8235621,0.58387625,0.041761879,0.81076777,0
-4.631422,-1.0116013,-3.2236636,-0.80787617,-0.17645738,-0.56231558,0
0.039958503,-3.9347789,3.8981314,0.0072141471,-0.71038878,0.70377243,0
-1.0436884,-5.259922,1.3888786,-0.18841152,-0.94954574,0.25072688,0
-0.8494333,0.65555567,-5.4845166,-0.15199694,0.11730462,-0.98139518,0
1.0646709,-5.4918213,-1.3332775,0.18513566,-0.95497298,-0.23184365,0
1.0586805,-1.7972403,-5.1566563,0.19032283,-0.32309639,-0.92703074,0
-0.22861725,-3.956681,3.9008555,-0.041111119,-0.7115106,0.70147175,0
1.2253047,-5.2449684,2.2223752,0.21029265,-0.90016657,0.38141465,0
-3.9718633,3.9855742,0.26062313,-0.70513135,0.70756549,0.046268847,0
-0.3785345,-5.5399151,-1.7001399,-0.065182827,-0.95396149,-0.29276043,0
-5.2237473,1.5941271,-2.0608985,-0.89486462,0.27308518,-0.35304642,0
-1.0456052,-4.8976684,3.041012,-0.17846054,-0.83591831,0.51903015,0
0.43775269,-5.0588942,-2.6329827,0.076532252,-0.88444591,-0.46032408,0
-4.9535084,-0.03267502,-2.5619342,-0.88821888,-0.0058589927,-0.45938316,0
-3.0625196,-0.15409707,4.8475475,-0.53391373,-0.026864985,0.84511209,0
-4.5324793,3.2042396,1.7395599,-0.77918851,0.55084789,0.29905158,0
1.4784106,-2.6240547,-4.733511,0.26350874,-0.46770588,-0.84369087,0
1.1840327,4.9188352,-3.1378264,0.19888385,0.82622457,-0.52706569,0
5.6118493,-0.5370481,1.6992729,0.95309585,-0.091210276,0.28859827,0
-5.1430283,0.46543753,2.6346059,-0.88714421,0.080285423,0.45445508,0
5.2766857,0.44761801,2.5287936,0.89916348,0.076275483,0.43091419,0
-0.51466721,0.10480876,5.8837247,-0.087126568,0.017742781,0.99603927,0
4.6290822,-2.2353859,2.2697048,0.82377779,-0.39780265,0.40390995,0
1.6210207,-5.1648769,-2.1259222,0.27872837,-0.88808107,-0.36554429,0
-2.5219512,-1.3463588,-4.837625,-0.44880876,-0.23959924,-0.86090821,0
-0.43267715,5.5550833,1.6606874,-0.074418277,0.95544618,0.28562984,0
2.7268062,-2.8769178,-4.0248837,0.48270133,-0.50927424,-0.71248806,0
-3.0069385,-1.3533375,4.594893,-0.53167093,-0.23928997,0.81244463,0
-3.2236278,-2.3845387,-3.906878,-0.5758177,-0.42593616,-0.69786268,0
-2.5357215,-2.8468633,4.2390823,-0.44476533,-0.49933955,0.74353468,0
-2.6153231,2.9758062,4.1765866,-0.45431206,0.51693219,0.72552168,0
3.8770311,-4.0387049,0.14332907,0.69229335,-0.72116226,0.025593232,0
3.9966726,-3.8833189,0.83183354,0.70934492,-0.68922645,0.14763702,0
2.7093074,-0.71160787,5.0279021,0.47072831,-0.12363823,0.87357229,0
-0.74349701,-2.6569421,-5.0820637,-0.12857287,-0.45946476,-0.8788408,0
-0.53812641,-2.0350664,-5.1953034,-0.095998764,-0.36304456,-0.9268133,0
4.4086223,2.0610662,3.1460707,0.76076674,0.35566452,0.54289657,0
0.16239889,-0.081942454,-5.9211411,0.027414026,-0.013832438,-0.99952847,0
-5.3531342,-1.4728817,-0.0038708034,-0.96416968,-0.26528531,-0.00069718249,0
-3.6788046,0.25234112,4.2773762,-0.65141457,0.044682637,0.75740504,0
0.29046473,3.3991489,4.4303341,0.051946245,0.60789835,0.79231381,0
1.2662168,-3.719487,4.1914711,0.22039895,-0.6474176,0.72957164,0
-1.6596625,-2.4696586,4.883214,-0.29023474,-0.43188345,0.85395581,0
3.1842008,-1.2909468,4.5964007,0.5548653,-0.22495492,0.80094928,0
4.4795547,2.3155723,-3.1290736,0.75482094,0.3901822,-0.52726007,0
-2.4530101,2.7935362,4.376112,-0.42719904,0.48650268,0.76211298,0
-0.14164698,5.550766,-1.0227665,-0.025088102,0.98313558,-0.18114942,0
-3.1571395,0.61560571,-4.8723102,-0.54076225,0.10544238,-0.83454067,0
-3.8556769,2.9896193,-3.0959179,-0.66726816,0.51738715,-0.53578335,0
1.2135516,5.23177,-1.9684236,0.21215802,0.91463929,-0.3441278,0
-5.0810776,-2.7170596,-0.85910165,-0.87219554,-0.46639857,-0.14746964,0
-2.2011158,3.2528708,-4.1911097,-0.38321456,0.56632525,-0.72967273,0
-0.028039636,3.7425075,-4.2598009,-0.0049449424,0.66001159,-0.75123912,0
0.25438857,2.7368333,5.0492039,0.044250239,0.47606513,0.87829608,0
-5.6680074,-1.3038871,0.79401881,-0.96558911,-0.2221273,0.13526727,0
-2.1176562,-2.6812861,4.4392424,-0.37802851,-0.47864363,0.79246116,0
-0.75094622,-4.2525339,-3.9626,-0.12812811,-0.72557676,-0.67610759,0
-1.9672085,5.1970582,1.8422612,-0.33602592,0.8877281,0.3146832,0
2.0509727,5.2065587,0.32172117,0.36590546,0.92888033,0.057396926,0
2.3697145,-1.3191761,-5.1349206,0.40806726,-0.22716346,-0.88423854,0
5.5222001,1.652213,-0.26714113,0.9570111,0.28633264,-0.046296228,0
3.4722033,1.2414241,4.3777137,0.60662717,0.21688868,0.76482856,0
3.242377,-1.850046,4.4414911,0.55884349,-0.31886673,0.76551807,0
-3.6191835,4.3040891,0.18402031,-0.64323854,0.76496696,0.032705981,0
-4.8132257,0.84745753,3.1924591,-0.82452685,0.14517322,0.54688233,0
-2.6599178,-5.012208,1.1452277,-0.45950252,-0.86586213,0.19783881,0
4.4549437,1.4907287,-3.1985917,0.783867,0.26230031,-0.56280637,0
1.6043073,-1.658353,-5.2125549,0.28143722,-0.29091823,-0.91441762,0
2.166981,-5.2212481,0.6521886,0.38080207,-0.9175263,0.11460865,0
1.4169807,4.4462619,-3.1750424,0.25104693,0.78774559,-0.56252325,0
1.4501572,0.80657333,-5.6658449,0.24562952,0.13661845,-0.95968825,0
0.90253836,-2.2036521,-5.0660777,0.16122979,-0.39366123,-0.90500599,0
-3.4662054,-1.1619354,-4.3135452,-0.61301881,-0.20549512,-0.76287585,0
-3.627598,-1.3768048,4.2406263,-0.6311208,-0.23953319,0.73777395,0
5.3269186,-0.62043744,-2.2883596,0.91359133,-0.1064079,-0.39246431,0
0.011478993,-2.2460015,-5.1868901,0.0020308539,-0.39736071,-0.91766024,0
-0.46227336,5.6742845,1.2543281,-0.079297259,0.97335309,0.21516442,0
1.2303325,3.825156,4.1589723,0.21275146,0.66145337,0.71917748,0
5.5972338,0.52734882,0.057297405,0.99553931,0.093795702,0.010191074,0
2.3102183,2.9489443,-4.5082407,0.39413184,0.50310087,-0.7691226,0
1.3072494,4.8966999,-2.8926656,0.22401331,0.83910996,-0.49569395,0
-3.2093759,-4.8831096,0.75731099,-0.54467934,-0.82873708,0.12852706,0
0.78586936,2.946923,5.0061121,0.13406153,0.50271589,0.85399312,0
4.8953385,1.0281348,-3.00453,0.83894426,0.17619778,-0.51490474,0
2.4138336,-4.8315711,2.3215349,0.41060024,-0.82186455,0.39489996,0
3.593838,4.0455017,-1.6393951,0.63561106,0.71549296,-0.28994566,0
-4.7197008,-3.0896966,-1.4790351,-0.80931079,-0.52980578,-0.25361758,0
4.0376072,-4.1379876,-0.71533477,0.69308716,-0.71031827,-0.12279287,0
-3.9178748,-2.3406551,3.6143119,-0.67298305,-0.40206012,0.6208393,0
2.6069758,-4.807209,-2.0125792,0.44738185,-0.82496279,-0.34537774,0
4.2211227,2.2023411,-3.0489273,0.74661458,0.38954091,-0.53928155,0
0.22479406,5.4717946,0.9048385,0.040498633,0.9857921,0.16301465,0
0.51013756,-5.5027313,-2.0898273,0.086342946,-0.93136066,-0.35371214,0
-4.0562239,2.9528496,-2.6759498,-0.71334404,0.51930016,-0.47060344,0
-1.1223326,-2.4231851,-4.9040861,-0.20098931,-0.43394828,-0.87823248,0
5.8366404,0.51306558,-0.90780163,0.98441297,0.086534098,-0.15311064,0
-4.1066408,-3.8656065,1.9876217,-0.68675178,-0.64644372,0.33238912,0
1.4163677,-3.3561919,-4.170733,0.25577232,-0.60607219,-0.75316465,0
-4.7464876,2.2940085,2.6086853,-0.80696374,0.39001086,0.44350994,0
-1.2027724,5.6014643,-1.4394603,-0.20361096,0.94824219,-0.2436786,0
2.7729127,-1.0122998,-4.9541903,0.48082769,-0.17553447,-0.85906482,0
-5.2081642,2.5689254,1.2013797,-0.87823939,0.4331913,0.20258558,0
-4.9343271,0.88191867,2.7128291,-0.8657406,0.15473494,0.47597298,0
3.7047281,-2.4054132,-3.7458718,0.63967317,-0.41532823,-0.64677715,0
1.497372,-3.7628033,4.0161161,0.26253527,-0.6597349,0.70414841,0
-2.0588286,-5.3128786,0.74274373,-0.3583031,-0.9246136,0.12926155,0
4.0207305,1.7177023,-3.9432614,0.68289286,0.29173967,-0.66973525,0
4.3672357,-3.5788066,-0.88576174,0.76412445,-0.62617499,-0.15497956,0
-3.5567925,-2.2515063,3.9891155,-0.61330307,-0.38823059,0.68784916,0
2.9312334,-2.4924264,-4.1271696,0.51949161,-0.4417235,-0.73144293,0
-3.8650641,4.0048366,1.5235465,-0.66979754,0.69401944,0.26402345,0
-2.1549242,4.2369094,3.1799896,-0.37679815,0.74084258,0.5560354,0
0.74240428,-3.5371468,-4.4366236,0.12973584,-0.61811972,-0.77530414,0
1.5899326,0.39841032,-5.3883171,0.28229824,0.07073918,-0.95671505,0
1.0296239,0.56847,-5.3939958,0.18650135,0.10297005,-0.97704369,0
0.13420379,4.6800122,-3.5653923,0.022804605,0.79525197,-0.60584998,0
0.18639113,2.3907142,-5.2940702,0.032070957,0.41135266,-0.91091186,0
-4.0449333,-4.1704516,-0.76601666,-0.69024825,-0.71166736,-0.13071704,0
2.6384375,1.9297787,4.6074343,0.4670434,0.34160006,0.81558561,0
-2.0274684,-0.63275319,5.2137084,-0.36013657,-0.11239512,0.92610419,0
3.7169828,4.5153565,1.0456551,0.62562883,0.76000816,0.1760008,0
-0.44214681,5.7240829,-0.95848173,-0.075962499,0.98341912,-0.1646708,0
1.8877147,-5.3687954,-0.96412277,0.3270421,-0.93013108,-0.16703199,0
-2.5980105,3.0685265,-4.2511153,-0.4440071,0.52441955,-0.72652721,0
-3.0721195,-0.72501564,4.8792572,-0.52864969,-0.12476054,0.83962154,0
1.096976,5.4006338,-1.6759646,0.19044304,0.93758941,-0.29095969,0
1.6028581,-4.7637606,2.7604539,0.27951911,-0.83074236,0.48138985,0
-5.4332709,0.11124854,2.2728336,-0.92237073,0.018885933,0.38584402,0
-3.2314832,-3.0357175,3.7458243,-0.55674475,-0.52301675,0.6453594,0
-4.9980106,2.0193348,1.6745842,-0.88544232,0.35774323,0.29666758,0
-0.68374807,3.9623437,-4.0876703,-0.1192482,0.69104743,-0.71290481,0
-3.1838951,3.3369496,3.3422959,-0.55897939,0.58585036,0.58678901,0
3.8664255,-2.3156624,-3.6227107,0.66865987,-0.40047079,-0.62651181,0
2.5904481,5.2737103,-0.48872462,0.43936652,0.89447522,-0.082892694,0
-3.7401402,-4.2555795,0.10826962,-0.66003281,-0.75099379,0.019106636,0
-4.2053437,-2.1376417,-3.2524338,-0.73391855,-0.37306222,-0.56761622,0
-4.7394547,1.4487358,2.6826968,-0.84100956,0.25707611,0.47604075,0
2.4198837,0.055212762,5.3346791,0.41308126,0.0094249807,0.91064543,0
4.0737963,-1.5019597,3.7122126,0.71314198,-0.26292685,0.64984459,0
-0.31941786,-3.9687388,3.8720312,-0.0575126,-0.71458894,0.69717634,0
-3.2094803,-3.5213101,-3.5636663,-0.53942668,-0.59183681,-0.59895575,0
5.4386539,-1.09348,0.24436495,0.97943109,-0.19692159,0.044006962,0
-4.154685,0.95420867,-3.8993285,-0.71914506,0.16516642,-0.6749447,0
5.2525063,-1.1896993,-1.9058822,0.91942048,-0.2082499,-0.33361354,0
0.82042557,-1.6086644,5.4353056,0.143245,-0.28087023,0.94899565,0
-3.9576583,-3.7847517,2.1549234,-0.67251992,-0.64313811,0.36618343,0
-1.9697376,4.662703,-2.8814952,-0.33818701,0.80054599,-0.49472794,0
5.169066,2.0745516,-1.2226495,0.90646487,0.36380038,-0.21440794,0
-2.5144167,-3.9503729,-3.5982358,-0.42577475,-0.66893011,-0.60930157,0
-1.4110643,-2.6360302,5.0539184,-0.24029876,-0.44890571,0.86066264,0
-3.9578257,4.0236545,-1.5145885,-0.6772874,0.68855244,-0.25918567,0
-0.91147381,3.4194531,-4.4727178,-0.15981266,0.59954756,-0.78422105,0
1.456058,-4.6140742,2.9297037,0.25742549,-0.81575066,0.51796043,0
2.2513838,-4.744534,-2.2347703,0.39447284,-0.83130646,-0.39156193,0
-1.9232432,-2.5482914,4.816946,-0.33280468,-0.44096521,0.8335411,0
1.6707634,4.8404088,2.661978,0.28949848,0.83871305,0.46124941,0
2.3552523,-4.7890038,-2.5467255,0.39829481,-0.80986458,-0.4306747,0
2.4572611,3.4930639,3.5703082,0.44143164,0.62750715,0.64138359,0
-5.3173709,-0.91104978,1.6767775,-0.94122297,-0.16126409,0.29680485,0
-0.40999642,3.3533657,-4.5713687,-0.072128639,0.58994102,-0.80421823,0
-0.036840722,3.0556424,4.8089838,-0.006465809,0.53628701,0.84401089,0
5.7766638,-0.74421769,-0.58700031,0.98680419,-0.1271317,-0.1002749,0
3.7125311,0.073775455,4.4300799,0.64225322,0.012762862,0.76638633,0
-5.0369234,2.5365682,1.3239701,-0.86949968,0.43787545,0.22855054,0
4.5453396,-1.4168586,3.2755866,0.7865243,-0.24517281,0.56680661,0
-5.1296,1.6383498,1.7009951,-0.908351,0.29011944,0.3012127,0
0.23724359,-5.4571509,1.6624528,0.041551065,-0.95577055,0.29116356,0
1.0645326,0.25653666,-5.7946544,0.18051469,0.043501377,-0.98260987,0
-1.3903821,0.63317597,-5.432837,-0.24636605,0.11219439,-0.96266103,0
-2.8733895,-5.0088558,-0.26709029,-0.49706715,-0.86648107,-0.046203904,0
-2.4178946,3.7978864,-3.3920894,-0.42892843,0.6737355,-0.60174817,0
-2.9737871,4.6965022,1.747745,-0.51033694,0.8059752,0.29993367,0
-4.8310633,-2.953826,0.1860981,-0.85270286,-0.5213626,0.032847092,0
-1.2681613,-0.83721334,5.4343557,-0.22473904,-0.14836797,0.96305722,0
3.8477812,-3.6944661,-2.2637188,0.66401356,-0.63755596,-0.39065114,0
4.863544,-2.2735696,-1.9633623,0.85079575,-0.39772299,-0.34345743,0
-4.602304,3.0401444,1.8575069,-0.79075509,0.52234918,0.31915167,0
-1.4125675,4.1510954,-3.5486925,-0.25041369,0.73588771,-0.62909639,0
3.4957018,0.71042246,4.2367101,0.63117057,0.12827118,0.76496422,0
1.4160786,0.49656036,-5.6812859,0.24098845,0.084504716,-0.96684206,0
-3.0879419,-4.6867604,1.2387159,-0.53725255,-0.81542146,0.21551678,0
4.656846,-3.2006621,1.0758232,0.80957597,-0.5564236,0.18702799,0
-5.2796764,-0.71913719,2.3899479,-0.9040755,-0.12314283,0.40924731,0
4.1469617,-3.4661038,1.6586136,0.73351991,-0.61308891,0.2933777,0
4.6715765,3.1179037,1.7494236,0.79412943,0.53001791,0.29738757,0
1.0457312,-0.90826905,-5.7493649,0.17682727,-0.1535832,-0.97218531,0
1.1959174,5.6840205,-0.48132133,0.20518875,0.97523218,-0.082582399,0
3.2499833,1.563814,4.5973835,0.55619228,0.26762637,0.78678221,0
4.8027506,-1.7525935,2.3091345,0.85613245,-0.31241518,0.41162351,0
5.3228869,-1.3564055,-1.5403769,0.93304002,-0.23776206,-0.27001011,0
-0.46831742,-3.6880491,4.2703228,-0.082714379,-0.65138447,0.75422585,0
1.7367315,-4.435185,3.5389566,0.29267901,-0.74743015,0.59639519,0
3.6913218,-2.6489418,-3.4412138,0.6476531,-0.46476451,-0.60377097,0
-1.1251884,-2.4813983,4.8963737,-0.20080531,-0.44283959,0.87382507,0
-1.3647995,5.3236737,-0.97958577,-0.2444803,0.95364439,-0.1754759,0
2.8385665,5.0296559,-1.1927333,0.48133767,0.85288221,-0.2022526,0
2.1306736,1.7037599,-4.9585934,0.37647575,0.30104294,-0.87615019,0
4.6006131,-3.183368,1.80573,0.78257871,-0.54150087,0.30716032,0
1.1892622,-5.4108615,-1.533327,0.20688966,-0.94129902,-0.26674479,0
5.4997468,-0.74532503,1.6692263,0.94895124,-0.12860176,0.28801587,0
4.66818,-3.1365092,2.043489,0.780141,-0.52416986,0.34150559,0
4.5810719,2.4551651,1.908172,0.82739937,0.44343382,0.34463996,0
5.2696099,-0.52889651,2.3130512,0.91182929,-0.091517843,0.40023983,0
3.7879663,-1.9264226,3.7005651,0.67221326,-0.34186333,0.656703,0
2.891252,-1.2206291,5.0000615,0.48976219,-0.20676786,0.8469829,0
3.6593664,4.6325593,-0.47150967,0.61789393,0.78222018,-0.079615682,0
2.5011027,4.8834243,-1.4349849,0.4410181,0.86109161,-0.25303012,0
2.023201,-2.398926,5.1072264,0.33751932,-0.40019941,0.85201001,0
2.4462874,-4.6936069,-1.7001054,0.4400436,-0.8442964,-0.30581874,0
-4.4082208,3.295599,-1.5223563,-0.77193654,0.57710207,-0.26658431,0
1.3416053,3.7629488,-4.3435082,0.2273393,0.63764369,-0.73602134,0
5.3535156,-1.8943549,-0.88370806,0.93150908,-0.32961681,-0.15376477,0
3.1020696,1.3475809,4.4131575,0.55791563,0.24236608,0.79371834,0
1.1341027,5.1910758,2.3347588,0.19540559,0.89442092,0.4022783,0
-4.3587413,-1.8203573,-3.2439175,-0.76065975,-0.31767714,-0.56610781,0
1.3983694,3.482789,4.3681121,0.24281617,0.60475969,0.75848925,0
1.6914351,3.6209326,-4.1618605,0.29314175,0.62754196,-0.72128987,0
0.58100283,-3.8512144,4.2313251,0.10102712,-0.66966474,0.73575991,0
-0.68843079,-5.3656015,-1.4938525,-0.1226699,-0.95608419,-0.26618615,0
3.5329926,-3.3097675,3.0398805,0.61804277,-0.57899296,0.53178036,0
-3.8398321,-4.1400585,-0.72370481,-0.67450494,-0.72724271,-0.12712599,0
4.34867,3.1799273,-1.7837189,0.76629859,0.56034923,-0.31431708,0
-4.3230391,1.413108,-3.2536933,-0.77305597,0.25269526,-0.58183306,0
0.12053936,4.1339579,-4.0503182,0.020823166,0.71414095,-0.69969219,0
1.3599769,3.7952237,-3.9514842,0.24091154,0.67230052,-0.69998109,0
-0.77698189,-0.36094347,5.5020561,-0.1395352,-0.064820454,0.9880932,0
-0.21722767,2.8651512,-4.8986897,-0.038249619,0.50449806,-0.86256516,0
-0.58775866,5.7911811,-0.2810061,-0.10085585,0.99373186,-0.048218954,0
3.1591063,-4.6835604,-1.67954,0.53600758,-0.79466265,-0.28496864,0
2.8658628,5.0362058,-0.83270562,0.4895519,0.86029387,-0.14224429,0
-3.6079385,-3.6903043,-2.446461,-0.63170195,-0.64612311,-0.42834273,0
4.4596753,-0.47940505,-3.7407525,0.76357406,-0.082082488,-0.64048195,0
-1.2903016,-4.9796848,-2.3615069,-0.22795691,-0.8797583,-0.4172062,0
-5.4322252,-1.7130638,-1.2660434,-0.93098217,-0.29358724,-0.21697626,0
-1.5602019,3.3914526,-4.5787377,-0.26409593,0.57407242,-0.77504462,0
-2.0142665,3.3396573,4.4764891,-0.33926591,0.56250346,0.75398177,0
4.3149581,-2.2922895,2.911674,0.75863123,-0.40301719,0.51191384,0
-0.3179844,5.4876585,-2.1356032,-0.053921759,0.93056202,-0.36214194,0
-4.4375191,-3.6560857,0.60266113,-0.76758367,-0.63241458,0.10424583,0
-1.1825666,-0.025552552,-5.7522707,-0.20136932,-0.0043511288,-0.97950572,0
1.9267628,5.271348,-0.73214185,0.34041768,0.9313342,-0.12935378,0
-1.698433,5.483398,-1.5203604,-0.28601167,0.92338979,-0.25602469,0
-2.6840923,5.0501657,0.97557259,-0.46263519,0.87045604,0.16815153,0
3.0812054,-2.1537204,4.5431952,0.52251625,-0.36523172,0.77044308,0
2.7912781,4.1972218,2.8492093,0.4820731,0.72488934,0.49207821,0
3.4669538,3.2243598,-3.2081265,0.60620403,0.56378597,-0.56094754,0
-3.3109229,0.11034274,4.3873987,-0.60224831,0.020071059,0.79805648,0
-2.3151782,-4.4546185,2.7159321,-0.40561041,-0.78043222,0.47582099,0
-0.97927117,0.5474686,-5.6056323,-0.17129706,0.095764861,-0.9805541,0
-0.16695192,1.3039021,-5.7852058,-0.028141083,0.21978314,-0.97514278,0
-3.930162,2.7872429,-3.3719521,-0.66829288,0.47394857,-0.57337373,0
-1.3614906,-5.4172912,0.92383319,-0.24047635,-0.95684129,0.16317412,0
1.8050603,5.3971372,-0.021069018,0.31717661,0.94835931,-0.0037021479,0
1.3827623,-3.6091068,4.3068547,0.23895244,-0.62368268,0.74425912,0
1.2433295,-1.7433928,5.1764717,0.22194831,-0.31121525,0.92405844,0
0.65022516,-0.42331356,5.7755899,0.11157929,-0.07264103,0.99109703,0
3.6481378,2.5522039,3.941582,0.61351186,0.4292073,0.66286069,0
-3.307549,-4.5400124,-0.94396847,-0.58069491,-0.7970742,-0.16572927,0
-5.0226226,-2.1318469,2.4913163,-0.8373577,-0.35541561,0.41534534,0
0.15869105,3.0796995,-4.7003465,0.028228536,0.54782808,-0.83611459,0
-4.0802197,3.7247791,1.6129259,-0.70894754,0.6471889,0.28024957,0
1.0421591,3.4242992,4.547461,0.18008098,0.59170544,0.78578335,0
-1.1702838,-2.2898936,5.2149577,-0.20126824,-0.39382148,0.8968811,0
4.3398962,3.5793035,-0.1623368,0.77114922,0.63600069,-0.028845364,0
-0.26088437,5.5037494,2.1604173,-0.044080682,0.92994851,0.36503786,0
4.892591,-2.011838,-2.1630244,0.85606509,-0.35201478,-0.37846813,0
5.8467307,0.078870013,0.26257816,0.99890238,0.013474786,0.044860959,0
4.5672297,1.8274735,-2.8760448,0.80150419,0.32070374,-0.50471777,0
4.7414112,0.94873583,3.0872917,0.82647079,0.16537322,0.5381428,0
-3.6576073,1.4199427,4.3801384,-0.62199223,0.24146751,0.74486178,0
-5.5374594,0.82832092,0.058272261,-0.98894292,0.14793104,0.010406928,0
-1.5256782,5.4091091,-1.6068196,-0.26100749,0.92537081,-0.2748889,0
-0.50402129,5.0768466,2.3183234,-0.089942113,0.90595841,0.41370258,0
4.3224378,-2.5604305,3.000453,0.73866796,-0.43755585,0.512752,0
-3.8486044,-4.5573368,0.42810264,-0.64354384,-0.76205438,0.071585119,0
1.5301374,2.2952108,4.9959569,0.26811981,0.40218052,0.87542135,0
-4.8387594,2.6253431,1.8868687,-0.83147693,0.45113057,0.32423347,0
2.1333523,-2.3821459,4.9816084,0.36038497,-0.40241343,0.84153789,0
1.5048546,-4.3782625,-3.6138103,0.25622797,-0.74547625,-0.61531484,0
-0.99517339,0.44477484,-5.6133852,-0.17403486,0.077781752,-0.98166281,0
-2.2465529,5.0210886,2.1365993,-0.38069847,0.85086834,0.36206585,0
4.4537592,-1.1856786,-3.4383242,0.77455068,-0.20620069,-0.59795696,0
-2.2236941,-2.179055,-4.8294277,-0.38699889,-0.37923017,-0.84048575,0
-3.2139986,3.3580201,-3.2663844,-0.56573129,0.5910821,-0.5749523,0
-3.0852776,4.2068815,-2.3941052,-0.53749722,0.73289585,-0.41708562,0
-4.2135468,-2.0106266,-3.2781351,-0.73861921,-0.35245541,-0.57464498,0
0.39109904,1.2147014,-5.4969835,0.069304936,0.21525188,-0.97409624,0
5.1281614,-1.801319,-2.3368795,0.86677051,-0.30446199,-0.39498332,0
-1.1665449,-5.0994248,-1.8959306,-0.2096546,-0.91648239,-0.34074178,0
3.9138188,-0.92426181,-4.0464859,0.68604088,-0.16201092,-0.70929569,0
3.0935392,-2.5108297,3.8574033,0.55783552,-0.45275971,0.69557756,0
-3.8084431,4.0777321,1.1760539,-0.66788852,0.71511388,0.20624514,0
-1.8203818,5.1900387,0.97133166,-0.32593313,0.9292587,0.17391361,0
2.7745676,5.1242938,0.40858483,0.47497219,0.8772167,0.069944747,0
3.9657731,-1.7200694,-3.4946353,0.7134431,-0.30944073,-0.62868536,0
5.5967546,-0.13465607,0.71325177,0.99169469,-0.023859847,0.12638181,0
-2.8298144,5.0881472,-0.95481241,-0.47963813,0.86241323,-0.16183551,0
0.0067171408,5.7057524,0.13856925,0.0011769098,0.99970448,0.02427871,0
-2.8138423,2.4239099,-4.5412455,-0.47964489,0.4131774,-0.77409643,0
1.6516489,1.3838838,5.1277394,0.29694778,0.24880666,0.92190957,0
-2.9505379,-3.5463202,3.327749,-0.51870924,-0.62344867,0.58502352,0
-1.7536807,-4.9909725,-1.8129996,-0.31359673,-0.89249575,-0.32420424,0
3.0903475,-3.6678441,-3.1995029,0.53601366,-0.63617915,-0.55494642,0
4.0147457,-1.794607,3.8001652,0.69076115,-0.30877292,0.65384126,0
1.2452999,-5.310214,0.97772044,0.22473402,-0.95831192,0.17644508,0
-5.1239052,0.88627601,-2.5809667,-0.88262838,0.15266722,-0.44458953,0
-3.2685814,-0.59700257,-4.5799222,-0.57766712,-0.10551023,-0.8094247,0
-2.7125311,4.9393935,0.098094329,-0.48128232,0.87639284,0.017404802,0
-3.1564031,-4.1643157,1.9178798,-0.56706524,-0.7481423,0.3445577,0
-4.3328714,-1.8025037,3.2293739,-0.76060188,-0.31641549,0.56689149,0
-1.9060999,-5.4218798,-0.99229008,-0.32682312,-0.92964464,-0.17013973,0
-5.3967395,1.6920321,-0.094021805,-0.9540683,0.29912767,-0.016621744,0
3.3750226,4.6643958,-1.2287958,0.57329655,0.79231524,-0.20872878,0
2.8575399,-4.9927535,0.85117048,0.49138379,-0.85855603,0.14636764,0
-3.9722342,-4.2067041,-0.099301994,-0.68645263,-0.72697198,-0.017160648,0
5.5349751,1.6964948,0.31135982,0.95471787,0.29262534,0.053705893,0
-1.5661377,-3.4835856,-4.3437066,-0.27076548,-0.6022681,-0.75097221,0
2.1585467,-2.7082729,-4.5400801,0.37801591,-0.47428682,-0.79508239,0
-3.8793483,3.3884408,-2.6368175,-0.6704126,0.58557606,-0.45568368,0
-5.5257058,-0.93074161,-0.66237462,-0.97929114,-0.16495034,-0.1173891,0
-4.4673648,-0.097706094,-3.5702698,-0.78106368,-0.017082706,-0.62421769,0
5.7778249,-0.32248235,1.3301438,0.97307104,-0.054310787,0.22401586,0
2.4075699,-4.7803512,-2.4280174,0.40963423,-0.81334937,-0.41311324,0
-2.859803,3.4579635,3.6948936,-0.49198678,0.59489143,0.63565177,0
1.7414688,3.3043394,4.3769922,0.30264941,0.57426029,0.76067632,0
-1.1417284,5.4968796,-0.59515744,-0.20223127,0.97364748,-0.10541863,0
1.5875075,-4.8197885,-2.894141,0.27174985,-0.82505238,-0.49541965,0
1.9334095,-4.1272607,3.5132477,0.33597714,-0.71721244,0.61051267,0
0.074633874,-5.549613,0.53253549,0.013385789,-0.99533826,0.095511697,0
4.7978549,-2.7645893,-1.2462161,0.84530848,-0.48707825,-0.21956417,0
2.9135664,-3.5825198,-3.4213681,0.50696349,-0.62336212,-0.59532154,0
-2.7553732,1.5069362,-4.6839957,-0.48859397,0.26721603,-0.83058512,0
-2.2895615,-2.4363914,4.6058564,-0.40228459,-0.42808312,0.80926633,0
1.929978,4.8137136,-2.5630987,0.3336181,0.83210379,-0.44306004,0
-5.0292997,-2.6655872,1.0531538,-0.86882246,-0.46048599,0.18193461,0
-3.2674966,4.6155481,-0.30159563,-0.57697952,0.8150205,-0.053256214,0
-3.9677787,-3.4763262,2.110769,-0.69832474,-0.61182964,0.37149304,0
0.96468759,3.5039442,-4.4591599,0.16769606,0.60910666,-0.7751562,0
-5.450664,-0.96672326,-0.044583641,-0.98460162,-0.17462777,-0.0080535365,0
-0.95785862,4.4807673,3.2876532,-0.16984956,0.79453933,0.58297378,0
4.961905,-3.0486658,-0.31186479,0.85080802,-0.52274871,-0.05347484,0
0.61742288,3.3034163,4.6017475,0.10835341,0.57972652,0.80757457,0
5.4494915,0.31238577,1.47031,0.96400076,0.055260222,0.26009399,0
0.92685986,2.1346047,5.4561129,0.15625599,0.3598654,0.91982663,0
5.3811145,-0.40335491,2.0236368,0.93370652,-0.06998831,0.35113224,0
-5.3528709,-1.7118982,0.14934881,-0.95214063,-0.3045035,0.026565384,0
-1.3328824,0.21820448,-5.8245759,-0.22292285,0.036494415,-0.97415274,0
3.7486727,4.4126954,-0.079904087,0.64737433,0.76204723,-0.013798978,0
0.14405531,-3.8549671,-4.5999985,0.023995388,-0.64212441,-0.7662248,0
5.3698444,-0.1885878,-1.5632925,0.95959443,-0.033700753,-0.27936131,0
-4.9659276,-0.9128921,2.3305383,-0.89298469,-0.16415839,0.41908282,0
-5.5862479,-1.5459358,-0.71417689,-0.95654184,-0.26471296,-0.12228961,0
-5.489852,-1.0173345,0.56614882,-0.97824347,-0.18128008,0.10088275,0
4.4038877,0.54746705,-3.8330283,0.75100887,0.093361288,-0.65365845,0
-2.3180158,1.6800982,4.8463383,-0.41181654,0.29848468,0.86099595,0
-4.968977,-0.066027142,2.6804826,-0.88004988,-0.011693993,0.47473726,0
3.9200966,-3.9308777,1.5240453,0.68094116,-0.68281388,0.2647346,0
-4.4987073,-1.4047481,-3.3773694,-0.7758894,-0.24227607,-0.58249289,0
2.6162264,1.6296673,4.7435255,0.46247712,0.28808051,0.8385253,0
0.43341431,-5.4844422,-1.6878333,0.075315796,-0.95304906,-0.29330021,0
-4.5604048,2.5636203,2.1949635,-0.80382425,0.45186782,0.38688776,0
-4.1300354,2.8575511,-2.7423513,-0.72175974,0.49938202,-0.47924984,0
-1.0470986,-0.012823,-5.8439026,-0.17636877,-0.0021598507,-0.98432177,0
1.9588963,0.67002743,5.5415668,0.33113673,0.11326312,0.93676037,0
-4.3001904,-3.1517551,-1.6480312,-0.77058399,-0.56478709,-0.29532331,0
0.82273358,5.6503434,-0.05390181,0.14408186,0.98952079,-0.009439596,0
4.1218147,1.7646904,-3.4736779,0.72671384,0.31113115,-0.61244136,0
2.6555328,-2.5901566,4.2745452,0.46919811,-0.45764697,0.75525653,0
1.0519916,0.94548506,-5.5447392,0.18384057,0.16522804,-0.9689697,0
-4.4100008,-3.5412099,0.82101804,-0.77164048,-0.61962366,0.14365774,0
-3.7085567,-2.9609172,3.0732834,-0.65594018,-0.52370363,0.54357803,0
3.4395444,4.5848231,-1.121218,0.58894068,0.78504258,-0.19198206,0
1.4483633,4.6018972,-2.9968011,0.25501871,0.81027311,-0.52765793,0
-1.4467278,-3.040777,-4.6632957,-0.2515167,-0.52864558,-0.8107239,0
1.7137252,4.6402793,-2.7185938,0.30361253,0.82209617,-0.48164031,0
4.6116214,3.4867637,-0.39556888,0.79580474,0.60169363,-0.06826137,0
3.8568714,-0.16381425,4.5835009,0.64361,-0.027336271,0.76486528,0
-2.1860118,1.4424266,-4.9516931,-0.39024413,0.2575002,-0.88397008,0
2.2261469,-4.5983348,-2.5045776,0.39125526,-0.80817789,-0.4401907,0
1.45822,-5.369678,2.0216212,0.24631953,-0.90703499,0.34148812,0
-4.6435766,1.4559412,3.2012424,-0.79718173,0.24994737,0.54957032,0
1.8413937,5.3982701,-1.1544623,0.31642601,0.92764139,-0.19838338,0
4.6373243,-2.0617328,-2.3919675,0.82655281,-0.36748153,-0.42634228,0
-0.616175,-3.321698,4.592195,-0.10808158,-0.58265001,0.80550444,0
4.4964132,-3.5870934,-0.97648907,0.77069229,-0.61483341,-0.16737175,0
-1.3454149,2.8818281,-4.6822662,-0.23769434,0.50913233,-0.82721561,0
-2.1494212,5.2065473,-1.2728732,-0.37220684,0.90159738,-0.22041845,0
-0.12055426,-0.45326063,5.6020627,-0.021444594,-0.080627508,0.99651361,0
-2.6576693,-5.1047897,1.1190666,-0.45329759,-0.87068355,0.19087033,0
-2.0826542,4.6013193,-2.8143117,-0.36020473,0.79581952,-0.48674828,0
3.1668332,-4.2609482,1.7254021,0.56730402,-0.76330292,0.30908719,0
-4.0918274,-0.54217017,4.0638518,-0.70641321,-0.093600273,0.7015835,0
-1.360219,5.322876,0.96681494,-0.24383916,0.95420337,0.17331572,0
-3.2195647,-4.5359244,-0.34718961,-0.57768518,-0.81387901,-0.062296085,0
5.6982903,-1.5736884,0.21931306,0.96325421,-0.26602048,0.037073266,0
5.2882924,1.3875273,-1.8979027,0.91376907,0.23975217,-0.3279404,0
-0.94670123,2.7196312,4.9691,-0.16483802,0.47353759,0.86521131,0
-0.32952553,2.9838171,4.6975875,-0.059109185,0.53522712,0.84263754,0
-4.3132272,0.058849484,-3.9743555,-0.73536819,0.010033332,-0.67759347,0
-5.0552139,2.9165843,0.70192927,-0.85997957,0.49616155,0.11941034,0
3.2433808,-4.7045727,0.093937203,0.56751966,-0.82319582,0.016436925,0
-4.6827044,1.4830154,2.8837054,-0.8221243,0.26036727,0.50628102,0
-0.53164321,4.4421749,-3.5903838,-0.092678711,0.77438217,-0.62589371,0
1.002331,-0.6141696,5.6797662,0.17281154,-0.10588876,0.9792465,0
3.2117167,-3.8554969,-2.2547836,0.58381313,-0.70083696,-0.40986565,0
-4.2786093,-3.096977,1.8310667,-0.76537389,-0.55399901,0.32754818,0
-2.2670009,0.192362,5.1781831,-0.40081635,0.0340105,0.91552699,0
3.0402639,-1.2047002,4.633328,0.53609055,-0.21242511,0.81699598,0
-4.8409071,1.9570448,-2.2550559,-0.85112178,0.34408501,-0.39648092,0
-4.7176213,2.9773235,2.0593305,-0.79333991,0.50068229,0.34630778,0
5.5565295,0.02754705,0.51502055,0.99571991,0.0049363808,0.092290737,0
-0.79504395,-0.50642055,5.6849322,-0.13796733,-0.087881297,0.98653024,0
-2.7350428,-5.0113177,-1.0426052,-0.47127345,-0.8634969,-0.17965062,0
-2.4895346,-3.3571827,4.0049143,-0.43007603,-0.57996535,0.6918633,0
3.6290658,-4.6273136,-0.17740192,0.61683828,-0.78651214,-0.030153295,0
0.95367521,-0.78530735,-5.6423378,0.16510996,-0.1359604,-0.97685897,0
-3.126739,-3.9318171,-2.9210582,-0.53806812,-0.67661083,-0.50267333,0
2.0694962,-5.49547,0.84890908,0.34879541,-0.9262132,0.14307617,0
1.3199756,-1.7221396,5.3105645,0.23009154,-0.30019477,0.92571104,0
2.8553219,4.974896,-1.2733192,0.48595473,0.8466906,-0.21670954,0
-0.95932519,2.4768033,-5.0113187,-0.16914245,0.4366951,-0.8835656,0
-2.1370289,1.685149,-4.9567165,-0.37792069,0.29800844,-0.87656546,0
-1.6637592,5.2124906,-1.6330292,-0.29137266,0.91285878,-0.28599092,0
-2.3886409,5.3546095,0.55339265,-0.40559092,0.90921199,0.093966,0
3.709892,-3.1811607,2.9243345,0.65141171,-0.55857295,0.51347744,0
-3.6488574,-1.1126789,4.5158019,-0.61725748,-0.18822587,0.76391375,0
1.5344619,-1.0956151,5.5088162,0.26353809,-0.18816783,0.94611865,0
3.3920374,2.3125944,-3.8085742,0.60572827,0.41296825,-0.68011069,0
5.626873,-0.030471716,0.74966419,0.99122709,-0.0053678821,0.13206047,0
-1.5957454,-2.1111102,-5.205205,-0.27327713,-0.36153522,-0.89141005,0
-3.4365087,-4.6203809,0.83415216,-0.59063178,-0.79410356,0.14336549,0
-4.7779951,-1.7738553,2.44573,-0.84520102,-0.31378525,0.43263617,0
2.1703317,-5.3602543,0.61488068,0.37319392,-0.921709,0.10573026,0
-4.6920977,-3.0850425,0.70488274,-0.82906336,-0.54510707,0.12454823,0
2.1560426,-3.730227,-3.9284048,0.36978284,-0.63977122,-0.67376071,0
0.61130768,4.0580425,-3.7300074,0.1102317,0.73175085,-0.6725992,0
2.8846228,4.3813238,-2.2606142,0.50500727,0.76703286,-0.39576289,0
-0.90797108,-5.6307206,1.1071614,-0.1562793,-0.96915537,0.19056378,0
-2.0098114,2.6141684,-4.7178526,-0.34916905,0.45416534,-0.81964314,0
-0.59685886,5.5069342,-0.74162811,-0.10679914,0.98538512,-0.13270347,0
-4.8084097,3.310997,0.086713649,-0.82353383,0.56707275,0.014851402,0
5.5649452,1.2042987,-1.4606745,0.94671887,0.20487756,-0.24849269,0
-5.3166289,1.1329566,2.06622,-0.91422564,0.19481856,0.3552987,0
-1.2847047,-4.9765573,2.5439968,-0.22401713,-0.86777455,0.44360298,0
3.454035,-2.7992241,3.6034119,0.60355544,-0.48913428,0.62965745,0
-2.1607423,-4.082231,-3.376725,-0.37765241,-0.71348828,-0.59018064,0
1.5503135,4.7552643,-3.0678997,0.26421866,0.81043583,-0.52285969,0
0.23113352,0.24368419,5.697432,0.040497713,0.042696755,0.99826694,0
0.0019337416,-2.9887803,5.0411148,0.00032996098,-0.50998586,0.86018276,0
2.3773232,-3.6666505,-3.8425663,0.40854168,-0.63011187,-0.66034287,0
-3.2330604,-3.4162681,3.2089553,-0.5678072,-0.5999831,0.56357372,0
1.7293495,1.7153777,-5.2786088,0.29747087,0.29506755,-0.90799022,0
1.5310317,5.5493612,0.60417354,0.26450425,0.95871925,0.10437829,0
-0.91289932,4.5704393,-3.5966442,-0.15506728,0.77634591,-0.61093467,0
-3.6671495,1.1745589,4.2528081,-0.63920271,0.20473155,0.74128598,0
-4.7608547,3.3182056,0.41005057,-0.81835496,0.57037449,0.070484594,0
2.7214758,-3.207026,3.7939253,0.48045346,-0.5661732,0.66978532,0
3.1211812,1.0769498,-4.6746416,0.54536557,0.18817599,-0.8168025,0
3.143491,4.3856034,2.1280954,0.54195029,0.75609535,0.36689204,0
-1.0109586,-4.0718012,3.936259,-0.17573057,-0.70778364,0.68422294,0
-3.0814915,1.9903882,4.2283669,-0.55047417,0.35556072,0.75535071,0
4.2579374,3.5030193,1.7197998,0.73721385,0.60650831,0.29776394,0
4.793654,2.5335085,1.543157,0.85034615,0.44941902,0.27374059,0
-1.0893307,4.889852,2.9493334,-0.18738204,0.84113163,0.50733185,0
3.1152995,-3.2628891,3.1307645,0.56732631,-0.59420383,0.57014263,0
-3.2512069,4.8257389,0.4363389,-0.55718017,0.82701784,0.074778192,0
4.3622527,-3.7932222,0.26083928,0.753842,-0.65550768,0.045075703,0
-5.3272038,0.42228338,2.2105448,-0.92117178,0.073020585,0.38224399,0
-5.0574551,-1.8443692,-1.9818335,-0.8816303,-0.3215158,-0.34547898,0
2.714092,-3.5029297,-3.9322541,0.45811498,-0.59126389,-0.66373008,0
-4.2201166,-1.8184772,-3.6919076,-0.71592808,-0.30849829,-0.62631923,0
1.0016789,-5.7147841,1.1070964,0.16958673,-0.96752709,0.18743417,0
-5.7242713,-0.47591302,0.71845627,-0.98885655,-0.082213029,0.1241119,0
-3.7138612,-2.5942981,-3.5125237,-0.64786643,-0.45256367,-0.61274397,0
2.1299434,-4.7660489,2.0522845,0.37971944,-0.84967577,0.36587465,0
-5.7873092,-0.10497306,-0.37282419,-0.99776793,-0.018098006,-0.064277202,0
1.9957455,-1.8127615,5.2361341,0.33886504,-0.30779549,0.88906264,0
-1.8665329,0.19999485,5.557765,-0.31818253,0.034092549,0.94741631,0
-5.8139057,-1.1727009,-0.18205449,-0.97979623,-0.19763099,-0.030680977,0
-1.6078126,2.9048312,4.5489864,-0.28549179,0.51579732,0.8077423,0
-3.3336093,-3.5375314,-2.9418631,-0.58672816,-0.62261921,-0.51777929,0
-4.0475183,-0.8626132,3.9807303,-0.70487392,-0.15022379,0.69324285,0
1.8123378,3.7635312,4.0074544,0.3130849,0.65015739,0.69229561,0
-0.77580535,-2.554848,-4.9528298,-0.13787952,-0.45405874,-0.88023853,0
1.957594,2.9284708,-4.4516697,0.34484422,0.51587117,-0.78419352,0
-0.30693403,0.037489939,5.7675881,-0.053140733,0.0064907852,0.99856591,0
1.5843472,3.2524292,-4.7633386,0.2648764,0.54375184,-0.79635066,0
0.19405077,0.066352755,-5.7107649,0.033957932,0.011611407,-0.99935579,0
-2.8891051,4.3709273,2.45276,-0.49940017,0.75554252,0.42397514,0
-1.2956644,-1.6957551,-5.1368327,-0.23292853,-0.30485499,-0.92347592,0
0.61644357,5.5953808,1.4595857,0.10600223,0.96216893,0.25098702,0
4.8116579,-2.1733854,2.3767211,0.83102453,-0.37536681,0.41048506,0
-4.8337708,1.8664145,2.2294092,-0.85692346,0.33087513,0.39522624,0
-2.5326719,-3.4586637,3.8443596,-0.43984398,-0.60065907,0.66764212,0
1.8380598,-1.3024533,-5.3851819,0.31487739,-0.22312284,-0.92253369,0
-1.2640656,0.31358165,-5.4376884,-0.22606994,0.056082044,-0.97249532,0
0.12184065,-5.5072346,1.3433057,0.021488635,-0.97129285,0.23691441,0
4.2401433,2.3177643,3.5023103,0.7104798,0.38836533,0.58684826,0
0.62613511,5.2441473,-2.4068689,0.10788037,0.90354383,-0.41469309,0
-2.2027216,-3.7580059,-3.8950739,-0.37695411,-0.64311153,-0.66656816,0
2.0221317,4.0504446,3.7164977,0.3452352,0.6915257,0.63451147,0
1.7431324,-5.3547883,-1.3051658,0.30154693,-0.92633235,-0.22578247,0
1.7254244,5.0091519,2.5368435,0.29373759,0.85276192,0.43187422,0
-4.3028173,-2.8501267,2.9732101,-0.7223984,-0.47850671,0.49917114,0
-5.5003409,-1.3152372,0.67763019,-0.96567404,-0.23091121,0.11896897,0
5.2911687,-2.3879414,-0.1024625,0.9113332,-0.41129103,-0.017647799,0
0.51747924,0.10534012,5.673028,0.090824798,0.018488655,0.99569523,0
1.449699,1.1513305,-5.5836172,0.24644209,0.19572082,-0.94918895,0
-0.59071648,0.44223541,-5.4774776,-0.10687911,0.080014229,-0.9910472,0
-3.2273879,-0.29942468,4.9684215,-0.54404646,-0.050474543,0.83753556,0
2.1587346,4.6305704,-2.554661,0.37792006,0.81065339,-0.44723317,0
-1.11342,0.35016075,5.5450053,-0.19649111,0.061794717,0.97855639,0
-1.9894441,0.0031307035,-5.1882501,-0.35803244,0.00056342041,-0.93370897,0
-1.977739,3.6051388,3.8029037,-0.35310826,0.64366651,0.6789757,0
3.2067173,-4.4952002,1.8053483,0.55198759,-0.77378029,0.31076324,0
-0.54063433,5.7832742,-0.90921456,-0.091956824,0.98368067,-0.15464887,0
5.5169501,-0.12063517,1.5856605,0.96087855,-0.021010838,0.27617198,0
5.2686992,-1.4287325,-1.661101,0.92334294,-0.2503863,-0.29110903,0
-3.7103589,-0.68357849,4.4248028,-0.63807917,-0.1175566,0.76094377,0
2.9440563,-4.1682401,-3.2302973,0.48746052,-0.69015408,-0.53485471,0
4.0893273,-3.6027493,2.0028505,0.70428419,-0.62048334,0.34494081,0
-3.0431635,4.0992098,-2.554564,-0.53306729,0.71805364,-0.4474799,0
-5.6885533,1.3458853,0.19296554,-0.97260439,0.23011367,0.032992419,0
-0.21898291,5.3452539,2.2735279,-0.037672546,0.91956645,0.39112452,0
-0.35034063,-5.4927759,1.7351104,-0.060707554,-0.95179653,0.30066255,0
-0.25191769,5.6515484,-1.7791369,-0.042479556,0.95299089,-0.30000651,0
-4.5405979,-1.8108861,-3.2893605,-0.77063155,-0.30734411,-0.55827117,0
-3.7882574,-3.7068789,-2.3703804,-0.65246403,-0.63844794,-0.40825841,0
0.79704922,-5.1482854,1.986378,0.14295651,-0.92338198,0.35627115,0
1.8562549,-4.5467625,-2.4520569,0.33816496,-0.82831067,-0.44670573,0
1.9522905,-3.6033664,4.2690082,0.32990253,-0.60890508,0.72138679,0
4.7835813,-2.2669835,2.4013054,0.82294548,-0.39000148,0.41310963,0
-3.1427505,3.8854167,2.5699134,-0.55926669,0.69142753,0.45732772,0
2.5240071,-4.5739732,-2.5715652,0.43347099,-0.78553057,-0.44163856,0
-2.4445834,4.9452319,2.036413,-0.41572213,0.84097862,0.3463093,0
-1.4291394,3.1269538,4.5043001,-0.25220934,0.55183351,0.79490262,0
4.6123681,1.9077934,2.5595794,0.82226098,0.34010816,0.45630404,0
2.7954981,3.9127011,-3.1983886,0.48404643,0.6774925,-0.5538078,0
-4.8750734,2.4294932,2.2113347,-0.82928145,0.41327247,0.37616232,0
2.2228804,-0.0027208335,-5.1590824,0.39569986,-0.00048434161,-0.91837972,0
-0.78304899,2.5780289,5.1066527,-0.13562,0.44650114,0.88444561,0
3.9176741,-4.0833192,1.1066992,0.67944711,-0.70817512,0.19193622,0
5.3983288,2.2342606,-0.22477362,0.92330533,0.38213766,-0.038444247,0
1.8018657,-1.6382173,-5.0670652,0.32050899,-0.29139984,-0.90131021,0
-2.2391114,-5.4676337,-0.33906356,-0.37835136,-0.92388731,-0.057292886,0
0.40230504,-3.9092002,4.2791967,0.069244459,-0.67284876,0.73653227,0
-3.7026091,-3.8951101,-2.1739676,-0.63869107,-0.67189705,-0.37500414,0
-1.7919341,4.023984,3.3574119,-0.32353771,0.72653925,0.60618818,0
-0.18620934,-3.0189605,-4.902524,-0.032325119,-0.52407819,-0.85105652,0
0.30677164,-1.8910557,-5.4609599,0.053008169,-0.32676229,-0.94361883,0
5.1205511,-1.1704886,1.8806829,0.91779923,-0.20979647,0.33709055,0
2.588589,1.7197417,-4.8358459,0.45031735,0.29917052,-0.84125578,0
-1.7011795,-3.5320592,4.0400796,-0.30218813,-0.62741548,0.71765739,0
3.7051013,-2.9646101,-3.2195816,0.6461277,-0.51699442,-0.56145859,0
-1.922932,-3.2327781,4.600976,-0.32357052,-0.54397744,0.77420324,0
-5.3976393,1.3076801,-2.1572337,-0.90594274,0.21948175,-0.36207128,0
-0.2397764,-3.89996,4.2059908,-0.041766591,-0.67933309,0.7326405,0
4.0180707,0.11033063,-3.977246,0.71057278,0.01951134,-0.70335317,0
-2.3386531,-3.46964,-3.8875132,-0.40946874,-0.60749036,-0.68065464,0
4.1932607,3.8236742,-1.0599989,0.72635746,0.6623376,-0.18361321,0
1.9746355,0.44045791,-5.4664149,0.33877236,0.07556583,-0.93782896,0
1.4275477,3.8185523,4.1097012,0.24661,0.65965796,0.70995414,0
0.25070179,1.8120301,5.455224,0.043571804,0.31492963,0.94811434,0
-4.3965902,-3.570044,-1.7225918,-0.74270815,-0.60308117,-0.29099435,0
5.8425803,-0.58196843,-0.54421717,0.99082869,-0.098694585,-0.092292443,0
3.8992786,2.9210403,3.0249219,0.67994237,0.50936067,0.52747512,0
0.84988111,3.3944352,-4.447505,0.15018103,0.59982479,-0.7859109,0
1.5305697,-4.638999,-3.2072809,0.26191494,-0.79383719,-0.54883796,0
-0.63494027,1.6207877,-5.3923726,-0.11205409,0.28603616,-0.95164442,0
-2.160095,3.0994892,4.1577401,-0.38450924,0.55172676,0.74010146,0
-4.0403476,-1.1265115,-3.8486166,-0.70975882,-0.19789176,-0.6760779,0
-4.3214588,-2.1924298,-3.2234635,-0.74251789,-0.37670574,-0.55385911,0
4.0851874,-0.4866024,-4.1856995,0.69605732,-0.082910061,-0.7131831,0
-2.543819,-2.3640053,-4.69629,-0.4355275,-0.40474159,-0.80405229,0
1.0944898,4.4776444,3.2783353,0.19349635,0.79160887,0.57958138,0
4.5267701,3.1853459,-1.0098509,0.80453986,0.56612945,-0.17948012,0
4.6685925,-2.095464,-2.5659659,0.81553334,-0.36604625,-0.4482359,0
-5.3999581,-1.5877526,1.7791324,-0.91477662,-0.26897225,0.30139282,0
2.2175295,4.1937675,3.4847057,0.37672848,0.71246475,0.59200472,0
1.2986954,4.9328227,2.8617351,0.22204342,0.84338546,0.48928288,0
4.8414946,-2.4052835,1.7568399,0.85172206,-0.42314062,0.30906558,0
-0.85540617,2.1369767,-5.2113905,-0.15014759,0.37509885,-0.91474402,0
1.1398035,4.2754664,-3.8789551,0.1937023,0.72658807,-0.65920353,0
2.8294427,3.2922637,-3.9123085,0.48417217,0.56336975,-0.66947132,0
-1.4324036,4.9515014,2.0093029,-0.25891605,0.8950153,0.36319426,0
-4.9252496,1.146606,-2.8459203,-0.8487767,0.19759656,-0.49044234,0
-2.8784766,-0.24130334,-4.6747561,-0.52381676,-0.043911677,-0.85069841,0
3.545593,-2.5409009,3.8559394,0.60899919,-0.43643099,0.662305,0
-0.32569176,5.0370917,3.0702302,-0.055127069,0.85258561,0.51967174,0
-5.4066815,-1.7858922,1.1889073,-0.92949474,-0.30702335,0.20439211,0
-5.3805909,-1.6279199,1.3338443,-0.93129373,-0.28176674,0.23086698,0
