2.5308754,-4.9719787,0.96795672,0.44696113,-0.87806821,0.17094442,0
-4.5223594,-3.2836378,-0.5802657,-0.80486465,-0.58440381,-0.1032725,0
-1.6759052,-2.9004951,4.4515414,-0.30081835,-0.52062738,0.79903406,0
-1.4889473,1.7894406,-5.0863895,-0.26617891,0.31989807,-0.90929317,0
-1.8801452,-2.3302336,-4.940423,-0.3254585,-0.40337008,-0.8552013,0
-3.5546343,4.307405,0.75587964,-0.63074112,0.76431423,0.13412474,0
0.063184857,-1.950166,5.4141111,0.010979171,-0.33886608,0.94077051,0
3.1232278,-1.5726606,4.2440548,0.56795526,-0.28598642,0.77177626,0
3.4702597,1.3512743,-4.3063788,0.6095351,0.23734508,-0.75639558,0
2.5035391,4.8616772,-1.3254223,0.4449349,0.86402875,-0.23555718,0
-3.5999463,3.363348,2.9568551,-0.62653053,0.58535326,0.51460767,0
0.58214897,0.63475066,5.5437021,0.10376602,0.11314208,0.98814547,0
-5.2882681,-2.1468003,-1.3783461,-0.90066922,-0.3656314,-0.23475245,0
-1.3963877,-2.1407721,-4.9955335,-0.24884698,-0.38150197,-0.89024234,0
-2.7991397,-2.7653646,4.1929226,-0.48680303,-0.48092917,0.7291981,0
1.6388007,-2.2523773,4.6347303,0.30306828,-0.4165388,0.85711443,0
-5.094799,0.81004387,1.9761549,-0.92224574,0.14663179,0.35771781,0
-1.7288804,-1.2233638,-5.2623267,-0.30478057,-0.21566413,-0.92768413,0
2.4985592,4.0794678,2.9772868,0.4434289,0.72399884,0.52839053,0
5.0825233,-1.4788401,1.4789679,0.92476243,-0.26907417,0.26909742,0
0.95479447,-0.70603752,5.301949,0.17573002,-0.12994628,0.97582424,0
-2.0669117,-5.1363993,-1.0350754,-0.36695564,-0.91190672,-0.18376537,0
5.6079059,1.1890336,0.51947594,0.97426063,0.20657063,0.090248473,0
4.0370607,-1.6210976,-3.5032256,0.72276831,-0.29023045,-0.62719405,0
0.90869206,3.6288483,4.3335471,0.15872769,0.63387674,0.75697148,0
-3.7810972,-2.1410887,-3.8177481,-0.65370202,-0.37016609,-0.66003847,0
2.949991,-2.7498915,3.6822212,0.54018718,-0.503546,0.67426938,0
2.0735023,2.5777185,4.6346316,0.36414319,0.45269236,0.81392223,0
-2.2009001,4.1473722,3.4710081,-0.37693855,0.71030235,0.59446442,0
0.41127369,-3.8241515,-4.0527873,0.073608138,-0.68443149,-0.72535187,0
-0.56503433,-1.8199722,5.3363605,-0.099716298,-0.32118559,0.94175184,0
3.6275241,4.3612089,0.18249635,0.63914424,0.76841438,0.032154575,0
3.3273382,-1.5252473,4.3094373,0.58848274,-0.26975968,0.76217961,0
-0.32774559,-1.3006535,-5.412981,-0.058770623,-0.23323034,-0.97064394,0
-5.2778597,-1.2289897,-1.7319616,-0.92771363,-0.21602516,-0.30443484,0
-3.3310308,2.9546282,-3.548161,-0.58506668,0.51895481,-0.62320369,0
-3.6113906,4.1484065,0.91221958,-0.64775246,0.74407363,0.1636191,0
-5.4419198,-0.56439406,0.22571902,-0.99381948,-0.10307131,0.041221473,0
1.6646805,-5.0497046,-1.6596124,0.29886499,-0.90658832,-0.2979551,0
0.15463486,-5.7703276,0.67970079,0.026604861,-0.99278229,0.11694222,0
3.492135,-4.199378,1.0669874,0.62752748,-0.75461715,0.19173482,0
1.075662,-4.1833997,-3.844444,0.18601933,-0.72345519,-0.66483796,0
0.55744445,-4.4383941,-3.4626262,0.098543398,-0.78460628,-0.61211294,0
1.9805963,2.2485037,4.7713771,0.35152906,0.39907899,0.84685493,0
1.8937606,-2.7147799,-4.8539734,0.32233384,-0.46207818,-0.82618678,0
-4.4871473,2.9525862,2.2337248,-0.7713362,0.50754666,0.38397509,0
-2.4817653,-1.1446812,-4.8783679,-0.44382438,-0.2047081,-0.87241882,0
0.21414451,-2.1847203,-5.364337,0.036946204,-0.37692827,-0.92550534,0
4.3249254,-1.1952276,-3.4918976,0.7606706,-0.21021737,-0.61415714,0
4.0637035,2.8987854,2.7246482,0.71457803,0.50973409,0.47911313,0
2.7054596,-4.8727469,0.46724316,0.48372367,-0.87122464,0.083540916,0
0.40539885,-3.3282971,-4.7813997,0.069419555,-0.56992984,-0.81875575,0
2.7847435,3.9472873,2.7560575,0.50070637,0.70973575,0.49554855,0
-2.599381,-4.3125281,2.5068827,-0.46212304,-0.76668966,0.4456785,0
-4.5576272,-1.5639882,-2.8665996,-0.81288517,-0.2789484,-0.51127839,0
3.6064346,3.7976694,-1.8049402,0.65103531,0.68555713,-0.3258287,0
-2.0717695,5.0853224,-0.70197517,-0.37424675,0.91861832,-0.12680557,0
2.0220089,-2.338227,4.6491218,0.3621709,-0.41881013,0.83272463,0
-1.8707064,-2.5102992,-4.6575813,-0.33334219,-0.44731158,-0.82993698,0
-5.5245366,0.90602756,-1.0590423,-0.96962053,0.15901838,-0.18587427,0
4.8522615,2.4508567,-0.42534724,0.88988054,0.44947487,-0.078006558,0
-4.7387695,-2.5357637,-0.88345516,-0.87002599,-0.46555975,-0.16220012,0
3.7794733,3.9740391,-1.3051382,0.67042303,0.70493615,-0.23151235,0
-3.1162698,-3.244287,-3.4349194,-0.5505811,-0.57319915,-0.60687995,0
4.5174079,1.7088084,-2.7984037,0.80928987,0.3061316,-0.50133169,0
-0.053613208,-3.455503,4.2069554,-0.0098473448,-0.63468558,0.77270776,0
4.4768038,1.5016098,3.0324233,0.79774958,0.26758122,0.54036641,0
-0.43915957,5.4262967,0.4036527,-0.080447145,0.99401242,0.07394284,0
2.2178514,3.7569048,-3.5199645,0.39564547,0.67019928,-0.62793118,0
-2.2511065,-2.8097143,4.2458081,-0.40438333,-0.50473028,0.7627067,0
-5.3622293,0.32402658,1.7088362,-0.95121324,0.057479519,0.3031328,0
5.2484231,-2.4936602,0.36504629,0.90145636,-0.428305,0.062699467,0
3.124263,3.2378991,-3.1880898,0.56656146,0.58716851,-0.57813597,0
4.9033241,-2.698581,0.77448624,0.86781436,-0.47760808,0.13707237,0
3.3193996,-1.2879478,-4.4138584,0.58533674,-0.2271143,-0.77833152,0
-3.6673799,3.7517619,1.8690916,-0.65848023,0.67363107,0.3355965,0
4.1743054,-3.1138899,2.4270508,0.72652435,-0.5419625,0.42242035,0
0.94170475,-2.9327283,4.8033209,0.1650347,-0.51396358,0.8417868,0
3.9218817,-3.2965519,2.2124686,0.70276684,-0.59071326,0.39645499,0
5.4940791,0.87608737,-1.2642013,0.96297532,0.15355632,-0.22158302,0
3.286778,-2.5704694,-3.9163706,0.57435018,-0.44917837,-0.68436879,0
-1.414613,2.5422668,4.8440418,-0.25034851,0.44991297,0.85726535,0
-2.8453043,3.8632903,-3.0337274,-0.50123012,0.68055904,-0.53442287,0
0.37614956,-1.2075186,-5.3517308,0.068401448,-0.21958292,-0.97319299,0
4.0063391,2.8483243,2.6877875,0.71509963,0.50840318,0.47974867,0
5.5412421,0.83829021,1.0399768,0.97215307,0.14706926,0.18245308,0
-3.7452819,0.67183042,4.356976,-0.64745605,0.11614097,0.75320113,0
2.9486737,3.8415117,3.1659927,0.5096404,0.66395599,0.54720122,0
-4.7422094,-2.6269782,1.5149156,-0.84247512,-0.46669465,0.26913166,0
4.4760351,-1.2709987,2.9231794,0.81456131,-0.23129988,0.5319683,0
-4.544136,3.1606371,-0.71895117,-0.81410915,0.56624705,-0.1288044,0
3.2437372,3.8967597,2.8502238,0.55768949,0.66996241,0.49003348,0
-4.5156345,0.13454175,3.1411293,-0.82067525,0.024451733,0.57087147,0
0.35210064,-4.7385201,-2.9645696,0.062868878,-0.84608042,-0.5293349,0
5.3899069,0.86715281,1.5051701,0.95179045,0.15312839,0.26579431,0
-3.5531826,-0.45212737,-4.3439627,-0.63108969,-0.080303475,-0.77154207,0
1.0405998,0.83114594,5.5699043,0.18170358,0.14512995,0.97258478,0
4.5329185,-2.799793,1.6278549,0.81366253,-0.50256515,0.29220128,0
2.5288596,1.6500139,-4.829638,0.44398028,0.28968537,-0.84791738,0
3.1345618,-3.9474716,2.3122194,0.56522769,-0.7118125,0.416942,0
-5.0070906,-1.0229572,2.0467353,-0.90953076,-0.1858187,0.3717865,0
-4.6837659,-2.1422589,-2.0083325,-0.84725881,-0.38751888,-0.36329257,0
-4.6614885,-2.2614055,-2.5948131,-0.80446476,-0.39026612,-0.44780454,0
4.3234496,-3.8858478,0.47028494,0.74132162,-0.66628808,0.080637552,0
-2.397891,4.5148354,2.3352141,-0.42665452,0.80332041,0.41550246,0
2.4802091,-3.9048965,-2.9664969,0.45132208,-0.71057153,-0.53981155,0
-4.9456654,2.3178153,-0.13691978,-0.90520734,0.42423075,-0.025060488,0
-2.1006122,0.45509773,-5.2592649,-0.36972779,0.08010155,-0.92568082,0
2.2370551,-0.61868536,4.9942575,0.40620187,-0.11234017,0.90685153,0
3.6494246,0.973068,-4.0816064,0.65625381,0.17498089,-0.73397046,0
1.8685557,-4.2029099,-3.4882042,0.32369098,-0.72807252,-0.6042636,0
-2.003747,-5.1569743,1.6377401,-0.34727672,-0.89377409,0.28384274,0
5.2709942,-1.2213112,-0.99890691,0.95800167,-0.22197297,-0.18155105,0
0.80485064,3.9636097,3.9527705,0.14231803,0.70086676,0.69895011,0
1.205359,-5.4357066,0.52587873,0.21553034,-0.97195911,0.094032414,0
-1.2280413,2.7055092,4.625217,-0.22338919,0.49215081,0.8413589,0
2.7428555,-0.93142051,-4.9871163,0.47558475,-0.16149935,-0.86471796,0
-1.5821589,-3.013695,4.2949209,-0.28870776,-0.54993033,0.78372473,0
0.61494112,-4.3311324,3.7423372,0.10681801,-0.75233704,0.65006065,0
-4.1110926,2.8783882,-2.9688764,-0.70504212,0.4936364,-0.50915492,0
1.2023408,3.5891728,-4.3453374,0.2086387,0.62281871,-0.75403374,0
1.8520418,-5.1602035,-1.5722908,0.3247205,-0.90474409,-0.27567145,0
-3.6545689,3.9101853,2.2858706,-0.62794924,0.67187077,0.39277154,0
-2.4577618,-1.9936932,-4.6278815,-0.43837824,-0.35560474,-0.82545125,0
4.4080534,-3.245965,0.17134972,0.80484253,-0.59266317,0.031285815,0
3.6015754,4.1691771,-1.7571843,0.62280536,0.72095835,-0.30386254,0
-4.4170079,-0.62615168,-3.1181383,-0.81152219,-0.11504076,-0.57288522,0
-3.1285124,-4.4894872,-0.78290093,-0.56596488,-0.81217259,-0.14163104,0
-0.55595553,-4.8370376,-3.2436726,-0.095028289,-0.82678449,-0.554434,0
-3.2356515,-1.0684022,-4.5281434,-0.57096273,-0.18853013,-0.79903567,0
2.8265314,-3.057795,4.0223331,0.48821506,-0.52816027,0.69476092,0
0.56079704,4.3277946,3.9790595,0.094958715,0.73281741,0.67376673,0
3.9959402,-2.9844587,2.3601396,0.72420663,-0.54089016,0.42774132,0
-5.4436703,-1.7532358,-0.56121749,-0.94730067,-0.30509591,-0.097662367,0
-3.9730575,0.25630552,3.8053024,-0.72140646,0.04653858,0.6909464,0
2.5634172,1.9974059,-4.6892776,0.44930717,0.35009861,-0.82192087,0
2.1063178,3.2982187,-4.0333934,0.37479743,0.58688384,-0.7177006,0
-1.1641334,0.35582757,-5.4106197,-0.20991014,0.064160869,-0.97561324,0
1.4765494,-1.7076468,5.2748394,0.25734565,-0.29762328,0.91934407,0
-1.430858,-3.8405051,-3.7537804,-0.25745642,-0.69102782,-0.67542332,0
2.8699603,-5.0033765,0.082977146,0.49750978,-0.86733907,0.014384151,0
1.577291,1.4640366,-5.3030639,0.27560139,0.25581235,-0.92660886,0
-2.0639887,-4.4398751,-2.6743255,-0.36996081,-0.79582793,-0.479361,0
4.5572171,-0.063313439,-3.6103842,0.78378272,-0.010889097,-0.62093967,0
-2.7372172,1.7169516,-4.4385762,-0.49857295,0.31273574,-0.80846858,0
-5.2517495,-1.8243815,-1.5001396,-0.9120087,-0.31681857,-0.26051134,0
-4.2191405,3.4522498,1.51715,-0.74560207,0.61007792,0.26810914,0
-1.1591483,0.59511757,-5.6626215,-0.19948858,0.1024193,-0.97453302,0
2.9395847,-1.0351775,4.8627973,0.50895089,-0.17922753,0.84193021,0
-5.0681129,-0.7354452,-2.5005839,-0.88928539,-0.1290462,-0.43876937,0
-4.7645197,1.2725338,2.648577,-0.85114706,0.22732899,0.47314918,0
-1.6036572,-5.3694553,1.186336,-0.27996734,-0.93740237,0.20711118,0
3.6994386,3.1050582,-2.3776586,0.68719965,0.57678884,-0.44166869,0
4.9915652,1.9741575,1.8024763,0.88153964,0.34864777,0.31832787,0
5.0761776,2.6468747,-0.26712379,0.88573331,0.4618485,-0.04660996,0
-0.28921089,0.047930624,5.4310951,-0.053173531,0.0088123949,0.99854642,0
-4.5488367,-2.2424374,-2.1748688,-0.82433391,-0.40637141,-0.39412674,0
1.6727406,2.6436012,-4.6192465,0.29983342,0.47385707,-0.82798517,0
-1.185455,-4.1165519,-3.8179767,-0.20658593,-0.71737999,-0.66534817,0
-5.1411786,-0.48671129,-2.1631358,-0.91824681,-0.086929701,-0.38634965,0
0.52636266,5.5165811,1.5846848,0.091322757,0.95711464,0.27493933,0
-0.05791482,-4.5229206,-3.2057376,-0.010446229,-0.81580955,-0.57822621,0
2.4040689,1.0414221,4.9345779,0.4302997,0.18640216,0.88323063,0
0.034311801,-3.8991375,-4.0783539,0.0060809939,-0.69103426,-0.72279632,0
4.7982774,-2.7937932,1.3498263,0.83972788,-0.48893088,0.23622787,0
1.6766419,-5.2741246,0.68234408,0.30068254,-0.94584131,0.12236898,0
2.4733708,3.6485333,-3.6617641,0.43162015,0.63669407,-0.63900292,0
1.1713238,5.4600668,-0.4448953,0.20909075,0.97466606,-0.079417408,0
-3.2070401,4.6188612,-0.046194073,-0.57031631,0.82138413,-0.0082148127,0
-3.8506529,-3.5425642,2.4322817,-0.66735369,-0.61395901,0.42153686,0
1.3798542,-0.92361885,5.2787642,0.24935234,-0.16690642,0.9539212,0
-0.82822263,2.4056416,4.9014502,-0.1499742,0.43561253,0.8875525,0
-2.0359888,5.042994,1.3000422,-0.36410886,0.90187079,0.23249483,0
-4.8895316,-2.8777955,-1.2636116,-0.84119999,-0.49509886,-0.21739303,0
0.54840487,5.5545707,1.6676496,0.094140612,0.95351213,0.28627309,0
1.9630196,3.14926,4.2373362,0.34850973,0.55911195,0.75228631,0
1.7051724,4.7035418,2.8040376,0.29731235,0.82010537,0.48890951,0
-4.4560122,3.2925551,-0.4505991,-0.80161732,0.59231645,-0.081060827,0
0.24153945,5.056973,-2.3684049,0.043214347,0.90475404,-0.42373648,0
3.0565965,-2.5427253,3.8158028,0.55465871,-0.46141019,0.69242644,0
-4.7208161,0.74519038,3.0701969,-0.83106363,0.13118507,0.54048473,0
3.559947,-4.1354189,1.1805835,0.63765281,-0.74073052,0.21146448,0
-4.4548111,3.5490978,-0.93979806,-0.77169633,0.61480176,-0.16279899,0
-0.73189306,2.6531961,-5.065825,-0.12694985,0.4602077,-0.87868804,0
0.28419462,-5.1738644,1.9595178,0.051300548,-0.93394476,0.35371655,0
4.541574,-3.1533291,-0.7890119,0.81317753,-0.56460965,-0.14127409,0
0.67413616,0.29351604,5.47438,0.12204794,0.053139158,0.99110067,0
4.627038,-2.2495887,2.7360301,0.79404449,-0.38605121,0.46952924,0
-5.1869559,-1.9879732,-1.1715674,-0.91366786,-0.35017595,-0.20636834,0
2.1087236,-0.47676885,5.1729822,0.37611568,-0.085037336,0.92266226,0
-1.4397963,0.62006855,5.4767699,-0.25274172,0.10884678,0.96139175,0
0.52789086,-3.6094432,4.3292241,0.093247533,-0.63757813,0.76472145,0
-2.3852115,-5.1808434,-0.75409222,-0.41459045,-0.90051895,-0.13107409,0
4.1770425,-3.1761863,-2.1899328,0.7346068,-0.55858856,-0.38513842,0
2.6811042,-4.1449866,3.2536986,0.45347583,-0.70107353,0.55032313,0
-5.3248701,-1.2034017,1.3928397,-0.94512445,-0.21359476,0.24721858,0
1.6394786,5.2438574,-1.3102235,0.29026362,0.92840552,-0.23197022,0
5.4054842,1.7067224,0.44970334,0.95060968,0.30014458,0.079084933,0
0.90876335,1.5873851,-5.2942352,0.16224149,0.2833958,-0.94517958,0
0.51957947,-3.586138,-4.128819,0.094582409,-0.65280789,-0.75159562,0
-2.9968586,1.2728117,4.8845706,-0.51051337,0.21682282,0.83208412,0
3.4400723,3.8784213,-2.3646069,0.60372949,0.68065929,-0.41498628,0
4.1341028,-0.49080282,-4.0873199,0.7085982,-0.084125146,-0.70057946,0
-4.2225943,-2.6305401,2.3812993,-0.76558822,-0.47693679,0.43174753,0
0.90181231,-1.1387736,-5.2820797,0.16461903,-0.20787451,-0.96420372,0
3.6820142,1.3033036,-3.9747677,0.66072756,0.23387434,-0.71326143,0
3.8106821,-2.24494,3.3603425,0.68604773,-0.40416282,0.60497189,0
0.62889874,-3.2328587,4.8793316,0.10683148,-0.54916799,0.82885557,0
1.8541366,-4.7729692,-2.350152,0.32909608,-0.84716821,-0.4171353,0
-2.6881571,-0.17809242,5.0034537,-0.47304681,-0.031339705,0.88047975,0
3.6438332,4.2884631,0.16607158,0.64722627,0.76172698,0.029498028,0
-0.017573169,2.8791907,-4.81635,-0.0031317172,0.51310104,-0.8583225,0
-3.5555222,0.408099,4.4507747,-0.62255377,0.071456052,0.7793079,0
1.7256095,2.3730576,4.9357123,0.30052495,0.4132818,0.85958302,0
2.20309,-4.8790774,-1.2070329,0.40145242,-0.88907743,-0.21994849,0
-4.6389189,-1.7078378,2.4402912,-0.8414768,-0.30979329,0.4426567,0
-2.9787805,2.4195311,-4.4058428,-0.50981772,0.41410229,-0.75405914,0
2.452574,-1.5114238,4.7608113,0.44074526,-0.27161378,0.8555522,0
-1.8457098,2.086211,4.8120484,-0.33195615,0.37521094,0.86546052,0
-2.3437195,3.6917417,3.3125494,-0.42722705,0.67295247,0.60383105,0
-2.1088498,2.1674786,-4.7243323,-0.3759543,0.3864063,-0.84222835,0
-0.51735181,1.1749656,-5.68397,-0.088782944,0.2016363,-0.97542828,0
3.4236839,-3.7112901,-2.4096432,0.61194158,-0.66334766,-0.43069419,0
-2.6433182,-5.2389297,-0.30939591,-0.44983777,-0.89155686,-0.05265275,0
-4.6053882,3.1588509,1.420373,-0.7992118,0.54818201,0.24648929,0
0.6944859,-3.7004592,4.2924304,0.12163265,-0.6481005,0.75177866,0
0.40773427,5.0001569,-2.3964121,0.073337048,0.89935231,-0.43103024,0
2.4416814,-5.0529051,0.75222105,0.43123168,-0.8924067,0.1328517,0
0.20563395,5.2121348,1.7350911,0.037407055,0.94814408,0.31563196,0
2.1230931,-5.2208009,0.219684,0.37641752,-0.92563105,0.038949262,0
-1.8663437,0.24293706,-5.2072511,-0.33707124,0.043875676,-0.94045621,0
2.1779218,-4.7807231,1.3617482,0.40130761,-0.88090432,0.25091809,0
2.7298558,2.6255407,-4.2034874,0.48246267,0.46402651,-0.74290586,0
1.0271443,-3.8949635,-4.1436749,0.17774013,-0.67399615,-0.71703392,0
0.11675373,-4.0665927,-4.1189051,0.020167101,-0.70243055,-0.71146655,0
4.0748935,0.15745498,-4.090158,0.70552129,0.027261533,-0.70816416,0
4.3821654,0.37118641,-3.6590221,0.76598179,0.064881623,-0.63957971,0
-3.0230522,0.78902763,4.8058968,-0.5273813,0.13764845,0.83840436,0
-2.7207048,-2.8692188,3.9894271,-0.48437363,-0.51081395,0.71024734,0
-0.19337307,-3.8016503,-4.4763837,-0.032908693,-0.64697397,-0.76180166,0
5.3210201,0.50285363,-1.7725,0.94495553,0.089301355,-0.31477681,0
-5.0559745,2.3756278,0.86643857,-0.89437675,0.42023674,0.15326868,0
-2.0241916,1.4046232,4.9230142,-0.36769232,0.25514835,0.89426041,0
1.3707693,-3.6424856,4.2830644,0.23686343,-0.62940693,0.74009633,0
-3.3496792,4.0635266,2.0886133,-0.59126908,0.71727395,0.36867186,0
3.3378558,0.54783547,4.5654931,0.58744377,0.096415944,0.80350101,0
-2.5240943,-4.7132864,-1.2751826,-0.45921317,-0.85749698,-0.23199634,0
-4.2184615,-0.53660899,3.6617484,-0.75171912,-0.095622353,0.65251422,0
-0.95014811,-5.3067894,-1.2556776,-0.17164697,-0.95868665,-0.22684173,0
2.542208,1.321172,-4.7446718,0.45866844,0.23836756,-0.85603982,0
1.7445253,-2.3317897,4.6475449,0.31807998,-0.42515612,0.84738863,0
3.2847416,1.2949263,4.4662228,0.57695007,0.22744796,0.78447187,0
2.0679071,3.9729412,3.6437795,0.35814893,0.68808925,0.63108045,0
-0.87622619,0.17373717,5.436615,-0.15903877,0.031534031,0.98676866,0
-1.8112773,5.1805029,0.99069929,-0.3247925,0.92895138,0.17764907,0
3.5319393,0.32784089,4.3976431,0.6251334,0.058025993,0.7783581,0
5.4255595,-1.1005623,-1.2822552,0.9547646,-0.19367182,-0.22564527,0
-4.7760277,1.2930802,2.57073,-0.85654157,0.23190337,0.46103942,0
5.0720205,-2.1694162,0.6593973,0.9129287,-0.39047995,0.11868697,0
4.5062046,-3.3490846,-0.098062225,0.80248344,-0.59641874,-0.017463325,0
3.3916631,-0.039880548,-4.1763015,0.63039815,-0.0074124769,-0.77623653,0
-5.5286055,-0.41453883,-0.39867336,-0.99463242,-0.074578263,-0.071723953,0
-3.7118831,1.5295385,3.9351306,-0.66028494,0.27208057,0.69999713,0
-2.7177441,-5.153698,0.10191397,-0.46638346,-0.88440979,0.017489133,0
-0.47380963,5.0890598,2.7307103,-0.081764504,0.87821019,0.47123393,0
2.4542446,2.9131739,-4.0769138,0.43986604,0.52211839,-0.73069161,0
3.5148923,-1.8269849,-3.822207,0.63852686,-0.33189607,-0.69435465,0
0.44424856,-2.9172473,4.9122181,0.077524774,-0.50908196,0.85721964,0
4.7116899,-0.080823295,-2.9209788,0.84983408,-0.014577867,-0.52684861,0
-5.6671028,0.6036216,0.051832143,-0.99433416,0.10590977,0.009094324,0
1.4208452,4.5253134,3.0566969,0.2518,0.80196911,0.54170316,0
4.2233438,2.4055028,-2.8560333,0.74916846,0.42670617,-0.50662464,0
-4.4877315,2.7296534,-1.6782033,-0.81384051,0.49501678,-0.30433857,0
-1.1461499,-5.468267,-0.89964211,-0.20253362,-0.96628541,-0.15897377,0
5.1610117,0.8599748,2.0485828,0.91850555,0.15304977,0.36458641,0
-4.6481514,-2.3808272,1.9297742,-0.8348639,-0.42762521,0.34661064,0
5.7157536,-0.046643734,-0.27966863,0.99877191,-0.0081505356,-0.048869353,0
1.7217748,-3.3548024,-4.3651094,0.29848865,-0.58159196,-0.75673985,0
-1.409464,-3.9437654,-3.6260548,-0.25443017,-0.71191102,-0.65455931,0
3.4648733,3.4774451,2.9088964,0.60722202,0.60942525,0.50978661,0
-2.8600345,4.8773208,0.74404031,-0.50151616,0.85525382,0.13046984,0
2.3166935,0.46945551,5.258966,0.40180078,0.08142104,0.9121002,0
2.9683824,2.2248585,-3.9188647,0.55008924,0.41230229,-0.72622901,0
0.48017806,4.5589519,3.0933383,0.086827993,0.8243705,0.55935156,0
-1.0196993,-0.29374111,5.6543655,-0.1772441,-0.051058065,0.98284155,0
-2.203476,4.0551906,-3.2038491,-0.39220098,0.72179127,-0.57025933,0
2.0433772,2.804692,4.4107289,0.36409888,0.49975365,0.78592509,0
-1.342263,-2.9062047,4.6955523,-0.23619127,-0.51139027,0.82625276,0
-0.41864058,-0.76678985,5.5422416,-0.074615024,-0.13666625,0.9878031,0
-3.4935858,1.658856,-4.0700355,-0.62224817,0.29546151,-0.72492051,0
-2.1263266,-4.4884987,2.5400136,-0.38116524,-0.80460817,0.45532274,0
-1.8180659,-4.8698936,-2.2954884,-0.31994274,-0.85700256,-0.40395942,0
5.2998505,0.056385405,-2.0283163,0.93389386,0.0099357488,-0.35741237,0
0.28694648,-5.8100286,0.47830856,0.049162101,-0.99542332,0.081947878,0
-2.6535692,-0.25759521,4.9020877,-0.4755359,-0.046162643,0.87848425,0
0.46398225,1.3957804,-5.3083334,0.084232576,0.25339371,-0.96368897,0
2.0655122,0.55405325,-5.1392622,0.37106475,0.099534452,-0.92325723,0
5.3014522,1.6640911,0.08407557,0.95399153,0.29945171,0.015129323,0
-2.8361967,-3.427825,-3.611923,-0.49491987,-0.59815973,-0.63028508,0
-3.6603241,4.2932606,-0.48123467,-0.64643764,0.75821841,-0.08498925,0
3.6046679,-3.2527494,3.0617952,0.62798142,-0.5666725,0.53340572,0
2.2785354,-0.19829655,5.1753497,0.40269575,-0.035045836,0.91466272,0
-1.2696023,-1.0675229,-5.5023565,-0.22091761,-0.18575472,-0.95743954,0
-5.3895597,1.0035863,-1.508842,-0.9478569,0.1764998,-0.26535866,0
0.43756932,1.9246696,-5.25772,0.077914782,0.3427119,-0.9362039,0
4.3194904,1.1202755,-3.2995207,0.77832001,0.20186013,-0.5945338,0
2.7812688,4.4969068,1.7415674,0.49960572,0.80778974,0.31284177,0
-2.9320564,3.3852606,3.6581254,-0.50704539,0.5854187,0.63260567,0
-0.79669255,2.5821495,4.9111185,-0.14212768,0.46064812,0.87612957,0
-0.01014998,4.5307074,3.2576082,-0.0018189045,0.81191534,0.58377242,0
5.6212888,-1.4049019,-0.50745195,0.96646023,-0.24154279,-0.087245494,0
-3.5663826,3.1894979,-2.9471076,-0.63465774,0.56758898,-0.52445424,0
3.6783671,-4.182507,-0.90845257,0.65178883,-0.74111998,-0.1609734,0
-3.8959761,0.11375969,-3.9762557,-0.69971335,0.020431124,-0.71413147,0
2.0394478,-3.072176,4.3201957,0.35906157,-0.54088187,0.76060605,0
-2.4831536,-4.8769231,-1.8246745,-0.43044019,-0.84538615,-0.31629667,0
-5.1742778,-1.8629992,1.539516,-0.90604031,-0.32621989,0.26957646,0
4.0709023,-2.0197887,3.6551065,0.69803494,-0.34633183,0.62673873,0
1.1234239,2.5907152,-4.8101254,0.20141201,0.46447393,-0.86237884,0
-4.329165,2.1380961,-3.103086,-0.75427097,0.37252077,-0.54065108,0
-4.4496512,-1.1832931,3.4724107,-0.77158368,-0.2051868,0.60212708,0
0.59724385,3.2604363,-4.7325673,0.10336661,0.56429255,-0.81907827,0
2.7194798,4.4864497,-1.6188028,0.4953168,0.81714672,-0.29484323,0
5.460113,0.83365703,-1.3223298,0.96137726,0.14678431,-0.23282628,0
-2.7733727,4.2604942,-2.1018882,-0.5041551,0.77449012,-0.38208985,0
-4.2867241,3.2496233,-1.4029002,-0.77111101,0.58455366,-0.25235862,0
5.5279269,-1.0247413,-0.56515223,0.97831798,-0.18135603,-0.10001916,0
1.2254655,-1.0417435,5.432477,0.21630009,-0.18387234,0.95885623,0
-2.6026824,4.691628,-1.1120684,-0.47500828,0.85625595,-0.20296051,0
1.1279477,3.5197837,-4.5238805,0.19308218,0.60251689,-0.77439821,0
-1.4690826,5.2831078,0.29593426,-0.26751745,0.96204495,0.053889126,0
-4.2573175,3.3094871,1.1808653,-0.77123421,0.59952998,0.21391961,0
-3.870271,3.4912257,1.5608174,-0.71132421,0.64165878,0.2868655,0
-4.618022,1.6080511,2.7731164,-0.82148153,0.28604981,0.49329862,0
-2.442786,2.4316301,-4.4880948,-0.43167236,0.429701,-0.7931053,0
1.5331179,2.7209096,-4.9095678,0.26347968,0.46761203,-0.84375203,0
-3.392226,0.99292284,-4.3328223,-0.60666025,0.17757273,-0.77487499,0
3.8030064,-2.9170599,3.1619503,0.6623193,-0.50802571,0.55067503,0
2.0443809,-5.0611529,1.4460237,0.36204579,-0.89629537,0.25608087,0
-3.3170614,1.4514486,-4.3412404,-0.58678305,0.25675899,-0.7679587,0
-1.9238173,0.38299119,-5.1572084,-0.34866554,0.069411911,-0.93467343,0
-1.0211377,0.66430718,-5.4496002,-0.18286523,0.11896406,-0.97591382,0
4.2466464,-3.4998434,-1.2797595,0.75164008,-0.61945879,-0.22651251,0
-2.4559321,-1.9839662,-4.7422733,-0.43108508,-0.34824181,-0.83240217,0
3.1869419,-0.14468558,4.5948596,0.56973052,-0.025865484,0.82142442,0
2.9550791,-2.6595764,-4.1412153,0.51476043,-0.4632853,-0.72137958,0
3.6729155,0.97857451,-3.8899162,0.6753307,0.1799283,-0.71523017,0
-0.72010487,-3.1842687,4.5469494,-0.12864582,-0.56886554,0.8123067,0
4.3529034,-3.1447916,-1.9489218,0.76195973,-0.55048424,-0.3411516,0
-1.7046114,-1.6844778,-5.0061402,-0.3071267,-0.30349916,-0.90197647,0
-5.3086004,1.2087692,1.1521329,-0.95391798,0.21720728,0.20703013,0
-3.2578118,3.8528962,2.7067742,-0.56897068,0.67290103,0.47273302,0
-2.183569,-3.6329377,3.6454914,-0.39057234,-0.6498192,0.65206462,0
2.3574686,4.1088543,2.9427316,0.4227325,0.73678446,0.52767968,0
2.1697328,-0.78164065,-4.9787388,0.39543566,-0.14245467,-0.90737939,0
-5.4519472,0.022540629,-0.43133849,-0.99687648,0.0041215043,-0.078869291,0
-3.7045226,1.658476,-3.8004427,-0.66624016,0.29826874,-0.68349087,0
3.3421447,4.2951841,-1.4092031,0.59449953,0.76402587,-0.25066856,0
5.1510754,0.79976022,-1.9784689,0.92385703,0.1434388,-0.35484287,0
0.63587981,3.1112232,-4.6459298,0.11299515,0.55286098,-0.82557666,0
-5.2726068,-1.4105675,1.7537638,-0.9197154,-0.2460492,0.30591387,0
-0.37508932,2.9927723,4.8184791,-0.06598296,0.52646655,0.84763151,0
2.0225158,4.8111315,1.8770492,0.36466375,0.86745691,0.33843583,0
4.2298265,-1.4865279,-3.4423041,0.74831194,-0.26298633,-0.60898888,0
-3.1702344,-4.7051826,0.44364482,-0.55707419,-0.82679558,0.077957354,0
-0.6037119,-1.4127084,-5.3934832,-0.10765155,-0.25190863,-0.96174484,0
5.3957572,1.9037372,-1.2044002,0.92280358,0.32558462,-0.20598125,0
3.2475126,-2.8050349,3.7273319,0.57134539,-0.49349886,0.65576154,0
-4.7724776,-2.9569318,-0.30776832,-0.84878814,-0.5258922,-0.054736789,0
3.5347016,1.202729,-4.1034245,0.63712871,0.21679148,-0.73964083,0
5.6455355,-1.482975,0.28351283,0.96604908,-0.25376275,0.048513964,0
-3.4751921,1.5449594,4.2877207,-0.60634756,0.26956275,0.74811661,0
2.5731459,4.7899303,-0.46939293,0.47148377,0.87767059,-0.086008005,0
-1.8109344,-0.16538729,5.3024869,-0.32305577,-0.029503727,0.94591993,0
-4.5039101,-3.4212482,-0.32482421,-0.794999,-0.60389501,-0.057335719,0
4.8478203,2.7341673,0.06209857,0.87096274,0.49122241,0.011156673,0
5.4967332,-1.139125,-0.15944797,0.97879946,-0.2028432,-0.02839279,0
-4.2020888,3.6278746,1.8377522,-0.71858025,0.62038648,0.31426573,0
1.3589282,0.56922287,5.5265164,0.23759416,0.099522568,0.96625268,0
4.7475905,-0.46265507,-3.1001208,0.83452505,-0.081324883,-0.54493505,0
-4.073163,1.3519096,-3.688627,-0.71976721,0.23889549,-0.65181601,0
-4.6329284,0.40615675,3.0840635,-0.83022004,0.072783232,0.55266374,0
3.4199507,-1.9271742,-4.2488642,0.59120488,-0.33314949,-0.73449868,0
3.2185183,-1.1959863,-4.5472579,0.56485409,-0.20989712,-0.79804957,0
3.2226393,4.6384835,1.6123579,0.54865354,0.78970063,0.2745035,0
1.7316847,-3.4162517,3.8695648,0.31805885,-0.62746358,0.71072364,0
-0.0075346711,0.97375005,5.4708705,-0.0013559229,0.17523393,0.98452586,0
1.777424,-4.8464375,-2.4242127,0.31166574,-0.84980768,-0.42507812,0
-1.1831325,-4.5381556,-2.9415472,-0.21371593,-0.81975269,-0.53134829,0
0.3129597,2.5465975,5.1775045,0.054160472,0.44071144,0.89601338,0
1.8371882,-4.5351343,-3.1711619,0.31507996,-0.77778089,-0.54385805,0
-3.3673246,-4.5729766,-0.49092934,-0.5907405,-0.80225188,-0.086125299,0
-2.1377537,-5.0898547,-0.20535702,-0.38696712,-0.92134392,-0.037172858,0
2.9097962,2.3237264,4.339324,0.5088771,0.40638283,0.75887883,0
-0.94883806,-5.4986115,-1.5241016,-0.16403733,-0.95061272,-0.26349023,0
-4.6842589,0.74421477,-2.7509134,-0.85431874,0.13573046,-0.50171369,0
-4.3248358,-1.3928205,-3.6164186,-0.74474716,-0.23984705,-0.622756,0
-0.86943501,-0.1495482,5.647706,-0.15210035,-0.026162202,0.98801875,0
1.2128613,2.6069376,-4.9153175,0.21298763,0.457798,-0.86316699,0
-4.2942076,2.604619,-2.3734946,-0.77303827,0.4688805,-0.42727375,0
-1.3315415,5.3372884,-1.2776419,-0.23578365,0.94510412,-0.22623934,0
5.1008554,1.9500219,-1.447086,0.90290713,0.34517518,-0.25615004,0
2.321455,-4.4552197,-2.9450023,0.39864731,-0.76506388,-0.50572473,0
-0.10931275,-2.1827362,-5.2762222,-0.019140948,-0.38220277,-0.92388022,0
2.1375766,3.9155371,-3.4879491,0.37748197,0.69145811,-0.61594886,0
-0.17449515,-3.9019186,4.1503458,-0.030617524,-0.68464416,0.72823405,0
-4.1899157,3.758601,-1.6427861,-0.71456975,0.64101112,-0.28016919,0
2.7338502,-1.0588647,4.8765049,0.48047072,-0.18609414,0.85703957,0
-0.90854985,-1.5543709,-5.1123805,-0.16762465,-0.28677663,-0.94321847,0
0.5035606,2.485323,-5.2808857,0.085958689,0.42424902,-0.90145653,0
4.147613,3.3017492,-2.4499643,0.71019769,0.56536001,-0.41950849,0
-3.7009881,4.1153321,-1.3426009,-0.64983797,0.72259057,-0.23574057,0
2.3713894,-3.0700078,4.1480961,0.41754514,-0.54055518,0.73038083,0
0.84310246,5.3628502,-1.6057738,0.14892574,0.94729465,-0.28364411,0
-0.77250201,-3.7423809,3.9486616,-0.14058486,-0.68106246,0.71860272,0
-3.568924,-2.3862507,-3.5624981,-0.63973176,-0.42773691,-0.63857996,0
1.4124298,-5.3271923,0.41977143,0.25554079,-0.96381074,0.075946234,0
-5.1633759,-1.5871444,0.91120595,-0.94254559,-0.28972438,0.16633558,0
2.7587311,4.9133902,0.0024449215,0.48958012,0.8719582,0.00043388968,0
-1.427567,-4.9551988,-1.9883895,-0.25829852,-0.89657474,-0.35977161,0
4.4531684,2.7068939,-1.7128302,0.81179291,0.49345478,-0.31224138,0
2.5195007,4.0618534,2.957047,0.44826528,0.72267807,0.52611279,0
4.9817019,2.2035553,-0.0042407806,0.91452754,0.40452281,-0.00077851117,0
-5.404428,-2.2714007,0.21274519,-0.92128175,-0.38720104,0.036266237,0
4.7104845,2.7879801,0.31361279,0.85915625,0.50850618,0.05720057,0
3.4259796,-4.2430153,-0.55786592,0.62495685,-0.77399802,-0.10176421,0
4.4455023,3.1659555,0.69972092,0.80793434,0.575387,0.12716866,0
-1.9484152,-2.346807,-4.8729,-0.33892411,-0.40822384,-0.8476342,0
4.4176025,0.022753514,3.5186141,0.7821967,0.0040288195,0.62301856,0
3.2051442,-3.0265839,3.6671455,0.55895174,-0.52781224,0.63952106,0
1.9789373,2.2548747,-4.6407557,0.3581104,0.40804431,-0.83979565,0
4.6732774,-3.0591576,-1.5599353,0.80584091,-0.52750868,-0.26898891,0
-3.6183841,-2.8502095,-3.2443035,-0.64224124,-0.5058949,-0.57584423,0
-4.6777315,2.9779811,0.38427976,-0.84154165,0.53575009,0.069133386,0
-1.635245,4.1346807,-3.1697452,-0.29946882,0.7572003,-0.58048785,0
5.2662148,0.33384678,-2.0438623,0.93062645,0.058996197,-0.36118397,0
-0.43054116,5.3232446,1.3810829,-0.078048743,0.96500075,0.2503635,0
-2.193207,-0.13185678,-5.0919065,-0.39547715,-0.023776298,-0.91816807,0
4.4753208,3.2654963,-1.142339,0.79117072,0.57729161,-0.20194869,0
-2.0713272,-4.9617352,1.0798748,-0.3776969,-0.90474939,0.19691016,0
0.67802835,-3.6160204,4.1990833,0.12144957,-0.64770758,0.75214678,0
-4.1180367,2.8434117,2.8303022,-0.71627426,0.49457127,0.49229106,0
4.4323201,1.0220573,-3.2125397,0.79593372,0.1835359,-0.57689166,0
-3.3362992,-2.8164363,-3.3847775,-0.60391146,-0.50980985,-0.61268663,0
1.0669236,-5.4564157,-0.64559889,0.19062059,-0.97486371,-0.11534513,0
4.5838208,-2.3683248,2.2422254,0.81480718,-0.4209868,0.39857173,0
4.4963059,-2.6450963,-2.1923008,0.79460025,-0.4674491,-0.38742977,0
-2.8501241,2.4032891,-4.272975,-0.50260156,0.423805,-0.75351244,0
2.8222423,-3.6555955,-3.2513392,0.49969086,-0.64723986,-0.57566446,0
-1.243809,2.991595,4.5398979,-0.2230088,0.5363782,0.81398124,0
4.820138,1.6154613,-2.5538917,0.8472591,0.28395751,-0.44890997,0
-4.9116306,-0.20277177,-3.1249392,-0.84320021,-0.034810681,-0.53647143,0
3.7941816,0.30871803,-4.0680656,0.68101287,0.05541141,-0.73017198,0
3.0968502,1.3917167,4.5870962,0.54264933,0.24386525,0.80377948,0
3.5895369,0.74711937,-4.2617517,0.63849455,0.13289504,-0.75806576,0
-2.291997,2.5847297,4.6398711,-0.39621869,0.44682354,0.8020969,0
4.3966131,1.8242955,2.8461235,0.7927466,0.32893595,0.5131802,0
-1.9820848,0.49873751,-5.1531005,-0.35754269,0.089965858,-0.92955327,0
3.9006896,-1.1251235,-3.7987833,0.70158064,-0.20236546,-0.68325168,0
-2.9904168,1.0303017,4.520143,-0.54204994,0.1867549,0.81933171,0
5.5188365,0.32202259,1.9690907,0.94042671,0.054873638,0.3355391,0
1.6224551,5.4914112,0.32882276,0.28287894,0.95744067,0.057331033,0
5.4029517,-0.79148209,-1.9299284,0.93289,-0.1366597,-0.33322728,0
4.0034113,1.6738795,3.4952393,0.71850252,0.30041546,0.62729955,0
2.1443446,-5.2038274,-1.5241804,0.36774579,-0.89243382,-0.26139033,0
-4.3722968,-2.1000102,3.1743283,-0.75425488,-0.36226794,0.5475961,0
-2.1561756,0.089429781,-5.3604307,-0.37313622,0.015476239,-0.92764741,0
3.0599315,-3.2304406,3.3641777,0.54854912,-0.57911599,0.60309088,0
-0.19737567,-3.0379143,4.4341631,-0.036696259,-0.56481171,0.82440352,0
5.4942389,1.0540622,-0.47143665,0.97862136,0.18774718,-0.083971232,0
1.8041487,5.2160425,0.53796655,0.32534149,0.94060713,0.09701132,0
5.0201268,2.0984797,-1.2786462,0.89816803,0.37544617,-0.22876696,0
4.6239676,-2.3498545,2.0106018,0.83122128,-0.42241842,0.36143309,0
4.5614095,0.026459448,-3.5915213,0.78567743,0.0045574927,-0.61861956,0
0.83303034,-4.9222584,-2.6527052,0.14735383,-0.87069297,-0.46923414,0
0.8578254,-5.554502,1.0224048,0.15016404,-0.97232658,0.17897399,0
-0.033697225,-5.517149,-1.5944023,-0.005867518,-0.96067166,-0.27762476,0
-2.2596467,-5.2846808,0.61186355,-0.39094332,-0.91430694,0.10585901,0
-3.2668545,-3.7961824,-2.4498103,-0.58594251,-0.68088263,-0.43939757,0
-2.778404,-3.5362525,3.5611811,-0.48434383,-0.61645538,0.62080103,0
-2.4646976,-5.0263467,-0.30762815,-0.4396095,-0.8965115,-0.054869313,0
-2.1594055,1.0774311,-5.0783248,-0.38406035,0.19162615,-0.90320379,0
5.0090885,1.0850767,2.7529635,0.86098886,0.18650877,0.47319406,0
-4.0571537,0.72468418,-3.7354965,-0.7293973,0.13028412,-0.67156959,0
-5.3151908,-1.9824965,-0.53149927,-0.93286246,-0.34794545,-0.093282767,0
1.1477432,4.7806649,-3.0908093,0.19763672,0.82321107,-0.53222483,0
-2.9304605,-3.5624576,-3.1885662,-0.52258331,-0.63528615,-0.56861079,0
3.2334113,4.4856501,0.17925648,0.58444345,0.81078732,0.03240085,0
3.1543872,-4.2921619,2.0904932,0.55125928,-0.75009626,0.36533365,0
-1.304092,-4.7226567,-2.4346879,-0.23836444,-0.86321628,-0.44501692,0
4.5105071,-1.4903235,2.7267709,0.82348824,-0.27208999,0.49782956,0
1.6315821,-4.9828053,-2.151221,0.28789467,-0.87922204,-0.37958556,0
-2.1337965,-3.9946761,3.6591389,-0.36648339,-0.68609279,0.62846369,0
4.9939942,2.3154089,1.2805818,0.88363695,0.40968829,0.22658606,0
-2.1800961,-4.0553269,-3.4758298,-0.37790683,-0.70296705,-0.60251462,0
-5.791007,0.00084533694,0.70380139,-0.99269557,0.00014490783,0.12064578,0
-3.4191177,-1.3669484,-4.3521457,-0.59975213,-0.23977828,-0.76341581,0
-2.92011,2.3886018,-4.0797234,-0.52551419,0.42986193,-0.73420262,0
-0.76694572,1.9249279,-5.1909933,-0.13721745,0.34439686,-0.92874223,0
2.548914,-4.9150734,1.2841307,0.44846413,-0.86477381,0.22593409,0
1.9024097,-5.2986641,0.1758447,0.33775121,-0.94071758,0.031219227,0
-0.15779892,-5.797648,0.59275591,-0.027066676,-0.99444956,0.10167328,0
-4.015789,-0.795847,-3.9441624,-0.7064147,-0.1399969,-0.69381493,0
-1.7811469,5.284471,-1.8263118,-0.30353513,0.90055603,-0.31123194,0
-0.83934349,3.5840952,-4.4239783,-0.145842,0.6227625,-0.76869822,0
-1.190735,5.2936683,-1.7685626,-0.20864868,0.92759252,-0.30989957,0
-3.4604156,3.7224607,-2.3387322,-0.61851484,0.66535282,-0.41802511,0
2.5148966,5.0687356,-1.7018955,0.42562303,0.85783666,-0.28803009,0
0.30701089,-1.8499974,-5.3527303,0.05413007,-0.32617894,-0.943757,0
0.99306643,0.70172501,5.3144679,0.18215372,0.12871428,0.97480905,0
-3.9868929,-3.9670582,1.4465648,-0.68652433,-0.68310887,0.24909168,0
3.8610082,-2.2175031,3.5350184,0.67913789,-0.39005104,0.62179738,0
2.3771019,-5.049253,1.7044618,0.40736565,-0.8652941,0.29209483,0
0.60718149,2.2504582,5.2234364,0.10615204,0.39344206,0.91320044,0
-1.7690316,-5.3578229,-1.5697578,-0.3020573,-0.91483349,-0.26803184,0
3.3010986,-4.6710906,-0.076464765,0.5770818,-0.81657702,-0.013367193,0
1.3094049,-1.2234377,5.3841672,0.23075014,-0.21560055,0.94882596,0
-4.0606289,1.3483337,3.6365643,-0.72313982,0.24011892,0.64761996,0
2.6259608,2.807951,4.1575861,0.4637323,0.49587089,0.73421007,0
-0.62388545,1.1054165,-5.5087118,-0.11036243,0.19554304,-0.97446549,0
4.5717611,-3.3152277,0.48002139,0.80664265,-0.5849396,0.084695093,0
-3.3686805,3.4442918,2.6198075,-0.6142714,0.62805897,0.47771606,0
2.6601541,3.1557417,-3.7023475,0.4797745,0.56915665,-0.66774023,0
-1.9703587,-0.63102627,-5.4100976,-0.34017408,-0.10894401,-0.93403041,0
-4.6902542,-2.0210743,2.3336604,-0.83529508,-0.35993645,0.41560543,0
-0.54820943,-4.7543092,-3.0634887,-0.096476056,-0.83668202,-0.53912479,0
-0.95499057,-1.1292101,5.5735865,-0.16561142,-0.19582401,0.96655357,0
0.50880635,2.6632211,5.083375,0.088314831,0.46226215,0.88233453,0
5.1226411,0.66241407,-2.3926747,0.89988494,0.11636506,-0.42031676,0
0.56900465,4.4769139,3.2985177,0.10179196,0.80089647,0.59008753,0
-1.3847234,-1.1370965,5.2703404,-0.24875608,-0.2042716,0.94678056,0
-2.1340456,4.9521041,-1.0572318,-0.38836008,0.90119886,-0.19239824,0
-4.7490087,2.0608466,2.4647062,-0.82826716,0.359429,0.42986554,0
0.79312682,2.8130291,-4.7777481,0.14160934,0.50225407,-0.85304612,0
1.1058869,-2.9227905,-4.6980877,0.19599263,-0.51799637,-0.83262634,0
2.5975981,-4.493515,-1.8391351,0.4717325,-0.81603736,-0.33399308,0
-2.3122408,-2.8841975,-4.3998017,-0.40236738,-0.5018971,-0.7656368,0
-0.30812842,1.8372802,5.2822542,-0.055011746,0.32801905,0.94306791,0
3.2550998,4.4194932,-1.0136976,0.58317542,0.79178518,-0.18161149,0
2.7656131,-4.8898587,1.0198277,0.48438057,-0.85642946,0.17861672,0
-3.1597648,-4.0583091,-2.5694606,-0.54957741,-0.70586109,-0.44690588,0
-0.83091664,-3.2309451,4.5777345,-0.14669181,-0.57039803,0.80816311,0
-4.4960809,-3.2217314,1.3483592,-0.78973013,-0.56589252,0.23683736,0
-3.7541888,-3.8606651,1.3621659,-0.6758638,-0.69503266,0.24522972,0
1.6532367,-3.9721406,3.3530478,0.30308345,-0.72820181,0.6147052,0
-3.7369108,-3.207335,-2.8623219,-0.65605909,-0.56308579,-0.5025146,0
-4.5988235,-1.4392958,-3.035063,-0.80752778,-0.25273231,-0.53294015,0
4.9098663,-2.8186998,0.77205265,0.85929418,-0.49331129,0.13511984,0
-2.6142452,1.6749889,4.9107509,-0.44996122,0.28829736,0.84523344,0
1.4020772,4.1754103,-3.2145824,0.25712812,0.76573199,-0.58952498,0
0.90719283,-2.8386009,4.5293064,0.16732502,-0.52355897,0.83539712,0
-2.7519972,-4.6500726,-0.52007508,-0.50696617,-0.8566249,-0.095806949,0
-5.60743,-1.0446178,0.42662594,-0.98034835,-0.18263078,0.074587114,0
3.0179508,2.8355179,4.1084361,0.51736557,0.48609123,0.7043069,0
-3.6887593,-1.4188373,4.0215077,-0.65421045,-0.25163427,0.71322423,0
1.7075862,-0.14030953,5.4907818,0.29687399,-0.024393644,0.95460498,0
0.66413164,1.1846998,-5.6746264,0.11382072,0.20303713,-0.97253317,0
-3.8005736,3.444222,1.7016587,-0.70329559,0.63735276,0.3148917,0
1.7811509,-4.4988041,3.2585738,0.30533001,-0.77119792,0.55859411,0
-0.31202134,0.53890783,5.5773268,-0.055599127,0.09602806,0.99382466,0
-1.6727859,2.0956221,4.7440023,-0.30696985,0.38456374,0.87056315,0
-4.6442547,2.8465638,0.53634578,-0.84849119,0.52005851,0.09798874,0
1.674403,-0.76923358,-5.5669436,0.28554058,-0.13117954,-0.9493463,0
-1.3211708,-0.34995225,-5.5005713,-0.23310013,-0.061743654,-0.97049063,0
4.2037158,-3.7163444,0.55803061,0.74552441,-0.65908957,0.098966114,0
-0.041517001,5.2179823,2.1495636,-0.0073565361,0.92459172,0.38088837,0
-2.3013978,5.3910694,-0.52573258,-0.39104342,0.91602683,-0.089330174,0
1.2477161,3.7613742,3.8458552,0.22594309,0.68112969,0.696428,0
-0.84708178,4.6786084,-2.5934906,-0.15640342,0.86384851,-0.47885671,0
-3.3306561,-4.7094946,0.019651875,-0.57740939,-0.81644768,0.0034068895,0
-4.4377971,-1.186563,3.1906478,-0.79344851,-0.21214955,0.57046652,0
-3.7545748,0.67161083,4.337604,-0.65002513,0.1162752,0.75096434,0
-3.9379003,-3.5186465,1.0851531,-0.73042542,-0.65265971,0.20128073,0
1.7200609,-3.5110664,4.1319847,0.30237299,-0.61721742,0.72636992,0
-3.9430206,3.4094849,2.2048695,-0.69667011,0.60240269,0.389566,0
-2.1561947,-1.1798259,5.027566,-0.38529542,-0.21082583,0.89838743,0
-5.4716101,-0.55925763,-0.95878631,-0.98003787,-0.10017046,-0.17173134,0
-4.7336593,2.9070539,-0.14615586,-0.85184264,0.52313703,-0.026301386,0
1.0929281,4.8888869,2.4684753,0.19569977,0.87540442,0.44200537,0
-0.11435363,4.3149691,-3.659986,-0.020206366,0.76245803,-0.64672208,0
3.8549371,4.1004119,-0.51801866,0.68207866,0.72551209,-0.09165635,0
2.1800067,4.3916278,-2.5568931,0.39424279,0.79420286,-0.46240073,0
0.42508328,4.9861841,-2.4059312,0.076555885,0.89799279,-0.43329906,0
-1.1334773,-3.5844643,4.2464294,-0.19985679,-0.63201928,0.74873817,0
-0.9320311,5.0665112,2.028976,-0.16833717,0.91507906,0.36645997,0
-1.9540479,3.5885949,3.9055667,-0.34570158,0.63487846,0.6909557,0
-4.823595,-0.33855996,2.4896719,-0.88689166,-0.062249422,0.45776424,0
1.7990257,-0.081001967,5.1970878,0.32708058,-0.014726955,0.94488174,0
-4.041657,-2.0639381,-3.668932,-0.69256938,-0.35367188,-0.62870008,0
4.3737741,1.7919899,3.4325671,0.7487359,0.30676645,0.58761293,0
2.0877736,-5.0206165,-0.70970356,0.38073552,-0.91558158,-0.12942465,0
-0.46318787,-2.8849893,-4.6440024,-0.084419295,-0.52580988,-0.84640259,0
4.5641651,2.373795,2.657649,0.78821939,0.4099482,0.45896906,0
-1.2067735,-5.1983471,1.2454935,-0.22021426,-0.94860399,0.22727996,0
-4.4786344,1.0989907,-3.1960583,-0.79822099,0.19587164,-0.56962919,0
1.5027974,-2.7661569,4.6644831,0.26705089,-0.4915531,0.82889044,0
-2.805789,4.7118158,-0.64078772,-0.50817949,0.85339564,-0.11605833,0
-3.7965927,-2.3317518,3.7349145,-0.6530264,-0.40106896,0.64241755,0
2.1132929,3.3491757,-4.3773508,0.35800949,0.56737834,-0.7415598,0
0.36686662,1.9711303,-5.5070305,0.062598176,0.3363325,-0.93966055,0
-2.6335208,4.8097067,-1.5848491,-0.46137938,0.84263605,-0.27765745,0
3.8529825,4.0296788,-0.5524857,0.6877144,0.71925271,-0.098612532,0
-2.5767915,5.1069551,-0.18300526,-0.45024085,0.8923344,-0.031976372,0
-2.0691516,2.0100315,5.1014695,-0.35306156,0.3429738,0.87046915,0
-0.043409448,-2.0039089,-5.1117253,-0.0079060625,-0.36496732,-0.93098676,0
-4.7444797,0.67852581,3.0359359,-0.83626842,0.11959788,0.53511816,0
1.8825434,-3.9100189,-3.487783,0.33813199,-0.70229584,-0.6264562,0
5.2902145,-1.7379645,0.76655042,0.94116896,-0.30919695,0.13637508,0
-1.8592616,-2.3405948,-4.7204022,-0.33276826,-0.41891664,-0.84485155,0
4.5877976,3.0268462,-0.97677475,0.82182479,0.54220724,-0.17497234,0
-0.76113665,-5.3294411,-1.2362258,-0.13779637,-0.96484333,-0.22380663,0
4.7965641,-1.4469566,2.2883017,0.87085068,-0.26270539,0.41545764,0
1.9938799,2.9755011,4.4677992,0.34819752,0.51962113,0.78022581,0
-3.6354079,3.7212393,2.5613806,-0.62693906,0.64174104,0.44171923,0
2.8156166,-4.9257789,0.13908343,0.49610761,-0.86791515,0.024506301,0
2.7455785,-4.73558,-1.6170074,0.48102477,-0.82967263,-0.28329936,0
-0.037441127,-2.6838675,4.7746139,-0.0068356139,-0.48999277,0.87169963,0
-5.4990735,-1.6042992,1.3182021,-0.93552995,-0.27293143,0.22425915,0
-3.2759922,1.0052933,4.2866926,-0.59693408,0.18317926,0.7810986,0
4.0674014,-1.2600617,3.7946444,0.71313119,-0.22092468,0.66530913,0
-3.7896876,3.9711616,0.28320998,-0.6894666,0.72248256,0.051525041,0
0.62700212,4.9458671,2.6604085,0.11095644,0.87523752,0.47079498,0
2.03176,3.1430008,-4.0176592,0.37003475,0.57241976,-0.73171711,0
5.3437548,-1.0468112,1.8421512,0.92959404,-0.18210219,0.32045871,0
2.654145,-1.4446204,4.6626883,0.47768515,-0.2599985,0.83917683,0
5.5145431,1.018152,-0.50521505,0.97941279,0.18082933,-0.089728937,0
1.5157161,-0.2587004,-5.6108122,0.26053566,-0.044467881,-0.96443963,0
-4.8773913,-2.7873361,-0.7951225,-0.85965532,-0.49127662,-0.1401428,0
5.3103838,-2.1237161,-1.3838537,0.90246117,-0.36091012,-0.23517588,0
-2.3307192,0.97046393,5.1093292,-0.4089655,0.17028488,0.89652127,0
-1.6505891,-2.4263837,-4.8677931,-0.29039517,-0.42688403,-0.85641158,0
-5.136456,-1.4364589,1.4421679,-0.92966282,-0.25998908,0.26102236,0
-4.1616654,0.31061584,3.793915,-0.73788238,0.055073615,0.67267859,0
0.96640891,-5.0739622,2.353673,0.17025745,-0.89390719,0.4146592,0
-4.3784871,3.1202385,-1.0466152,-0.79936618,0.56965184,-0.19107714,0
3.8490837,-3.2780674,-2.145277,0.70083749,-0.59686738,-0.39060998,0
1.6491908,5.4372826,1.0201699,0.28568557,0.94188809,0.17672171,0
-4.3361492,3.5871441,-0.41774246,-0.7684018,0.63567185,-0.074027449,0
-2.239877,1.4460844,-4.8169436,-0.40683934,0.26265907,-0.874924,0
-0.11804385,-4.5120463,3.1690629,-0.021404063,-0.81813771,0.57462388,0
-4.2127647,-3.3639941,-1.6845672,-0.74586618,-0.59559208,-0.29825109,0
4.7636218,-2.4574654,1.1098419,0.87025148,-0.44894683,0.20275363,0
2.3382242,-4.0502625,2.953387,0.42273194,-0.73225456,0.53394842,0
-3.7670636,-4.1267152,0.64033085,-0.66980666,-0.73375487,0.11385469,0
2.2872548,4.2614083,-3.0068102,0.40163115,0.74828321,-0.5279817,0
-0.44034818,-2.5047538,-4.8696423,-0.080154628,-0.45592922,-0.88639939,0
1.3876017,5.1920233,-1.2430638,0.25155324,0.94124287,-0.22535047,0
2.3528719,4.4322662,2.3484092,0.42467555,0.79999048,0.42387009,0
-4.1611075,-1.1653295,3.5765247,-0.74182189,-0.20774923,0.63760531,0
-1.826988,5.138093,-1.6680458,-0.32037506,0.90100032,-0.29250342,0
-1.2386882,3.90239,3.8520987,-0.22034696,0.69418579,0.68523961,0
1.1438838,3.5678093,4.0753536,0.20662996,0.64448529,0.73616755,0
1.4682142,-3.9955311,-3.6641991,0.26140589,-0.71137804,-0.65238655,0
4.1684318,3.277384,-1.9112022,0.73954684,0.58146065,-0.33907801,0
-5.3044987,-1.545821,-1.5743965,-0.92331088,-0.26906845,-0.27404237,0
-1.5129666,-4.2812099,-3.4270351,-0.26595554,-0.75256878,-0.60241842,0
-3.5420518,4.1045485,0.95990872,-0.6433199,0.74548256,0.17434201,0
-1.486905,-5.1750827,1.9592959,-0.25950146,-0.90317911,0.34194526,0
1.3305166,2.2962716,5.035099,0.23376466,0.40344268,0.88464004,0
-3.6804078,1.8719945,3.9332089,-0.64538872,0.32826909,0.68971938,0
-4.5872688,-3.144032,-0.48020425,-0.82179868,-0.56324613,-0.086027496,0
-1.6012948,-0.93335581,-5.1946545,-0.29033113,-0.16922696,-0.94184399,0
-1.5246501,-4.8184109,2.040308,-0.2797429,-0.88408232,0.37435585,0
3.5613883,0.34913078,4.5869946,0.61216187,0.060011588,0.78845191,0
-0.79414141,-5.23244,-2.2482164,-0.13810933,-0.90997493,-0.39098787,0
-3.9909601,1.8534333,-3.4102778,-0.71687883,0.33292416,-0.61257339,0
-2.4057,4.2716985,-2.6746843,-0.43076715,0.76489478,-0.47893175,0
-2.0934954,-4.8739014,-1.8646491,-0.37233037,-0.86682856,-0.33162981,0
-3.6410959,1.1515398,3.9366167,-0.66387916,0.20995967,0.71776134,0
0.69348943,-3.4900072,-4.1624174,0.12664114,-0.63732547,-0.76011723,0
1.4167979,-3.3923562,-4.2929192,0.2506741,-0.60020971,-0.7595464,0
-1.2673992,3.9310977,3.8781388,-0.22369812,0.69384545,0.68449813,0
1.5143137,3.6233263,3.968338,0.27123892,0.64899832,0.7107957,0
-1.1067437,5.6158423,0.53703529,-0.19251072,0.97683853,0.093413725,0
-2.2055254,-5.0677619,-1.0767732,-0.391689,-0.90000623,-0.19122891,0
2.0269628,-4.8918624,-2.022078,0.35760698,-0.863047,-0.35674518,0
-5.6274142,-0.61583418,0.21078081,-0.99337691,-0.10870986,0.037207995,0
4.0823002,2.2845461,-3.0101523,0.73385,0.4106788,-0.54111654,0
1.9461441,-2.4151988,-4.743773,0.34336805,-0.42612576,-0.83696789,0
0.85577285,-5.0465565,-1.6804521,0.15884732,-0.9367345,-0.31192309,0
4.7542844,2.9488981,1.7487359,0.81110233,0.50309533,0.29834223,0
-4.5731163,3.4293652,0.21979102,-0.79944891,0.59950417,0.038422748,0
-0.65805185,5.4892974,-0.64440471,-0.11822646,0.9862144,-0.11577459,0
3.9950132,3.1526833,-2.406481,0.70966327,0.5600341,-0.42748076,0
4.2197828,3.9509287,-0.11950619,0.72982281,0.6833238,-0.020668918,0
-4.0517683,0.20264108,3.7076409,-0.73723996,0.036871582,0.6746242,0
-1.4932053,-4.1164498,3.3647535,-0.27039292,-0.74541581,0.60929698,0
1.6292731,5.1359515,0.97823805,0.29751539,0.93785667,0.17863235,0
-1.1288391,-4.5534902,-3.0489841,-0.20175588,-0.81383908,-0.54494077,0
4.6928196,-3.3162713,0.13772641,0.81643051,-0.57694632,0.02396087,0
1.3655059,-4.3352404,-3.5847325,0.23589101,-0.74891233,-0.61926216,0
-0.37199625,4.0484447,-4.033524,-0.064955734,0.70691496,-0.70430958,0
5.0126648,-1.4995737,2.3858898,0.87169528,-0.26077375,0.41490284,0
1.7907189,2.2412417,-5.1015177,0.30595911,0.38293466,-0.87163639,0
2.8221936,4.644455,1.871067,0.4910084,0.80804747,0.32553032,0
-0.26393026,5.0322666,-2.6098325,-0.046508279,0.88675719,-0.45988974,0
5.7761068,0.065748401,0.17469446,0.99947828,0.011376885,0.030228548,0
-3.9993124,-1.895566,-3.7549112,-0.68905514,-0.32659352,-0.64694643,0
2.5055816,-1.2306414,-4.9115205,0.44351476,-0.21783669,-0.86939168,0
3.2163625,4.4550428,1.8109251,0.55593646,0.77003783,0.31301177,0
-2.7917764,-2.8917372,3.7798998,-0.50597751,-0.52409422,0.68506354,0
-0.69583142,-2.0903907,5.1246152,-0.12474265,-0.37474722,0.91869682,0
-1.0058091,-3.2729859,-4.4522357,-0.17907709,-0.58273166,-0.79268861,0
-2.4045987,3.0632391,-4.2638917,-0.4164077,0.53046536,-0.73838407,0
