2.4061136,3.0634093,-3.7794871,0.44331425,0.56441766,-0.69635141,0
3.0995467,-2.14341,3.6881218,0.58782411,-0.40649429,0.69944644,0
1.9434233,1.3424709,4.7819753,0.36437929,0.2517046,0.8965894,0
3.8961077,3.6162019,0.63913554,0.72770351,0.67542356,0.11937585,0
-1.258773,-5.2190018,0.55838293,-0.23320898,-0.96690834,0.10344988,0
-0.52572757,0.33844045,5.5541377,-0.094060995,0.060552362,0.99372327,0
1.6884899,-5.0771232,1.003332,0.31016806,-0.93264484,0.18430762,0
-3.3181336,3.7268538,-2.3427908,-0.60192442,0.67606813,-0.42499286,0
-1.3591832,5.3213639,-1.5252484,-0.23845071,0.93356287,-0.26758465,0
0.27412859,-2.0409045,-5.1320105,0.049573548,-0.36907816,-0.92807525,0
4.8658028,-1.2109419,-2.5335503,0.86611807,-0.21554896,-0.45097464,0
-1.4002701,-0.72197771,5.4595733,-0.24642506,-0.12705649,0.96079725,0
-0.69147837,-1.6528194,-5.1787782,-0.12618366,-0.30161288,-0.9450435,0
-0.36691484,0.40207675,-5.7070975,-0.064000532,0.070133783,-0.99548239,0
0.69982064,0.90762639,-5.5261173,0.12400002,0.16082077,-0.97916323,0
4.2752638,-2.932981,-1.2115787,0.8029719,-0.5508669,-0.22755641,0
-0.66385281,-5.4312105,-0.041630067,-0.1213228,-0.99258399,-0.0076081268,0
4.8077517,0.66606903,2.7824607,0.85934663,0.11905444,0.49734229,0
-2.2934091,4.9970198,0.9153772,-0.4114584,0.89651072,0.16422698,0
-4.2296987,-1.9377589,-3.5500209,-0.72275716,-0.33111793,-0.60661602,0
-0.087856233,4.5788574,2.9893305,-0.016064461,0.83724147,0.54659736,0
-4.5693908,-2.1419842,2.0463071,-0.8390944,-0.39334059,0.37577105,0
-1.2281076,4.9827857,1.8523208,-0.22509471,0.91327399,0.33950415,0
2.5790222,2.7665987,-3.6767204,0.48893112,0.52449191,-0.69703281,0
-1.7756374,-1.8708504,4.9597573,-0.31762469,-0.33465633,0.88719767,0
-4.4953794,1.8117038,-2.3171463,-0.83679515,0.3372407,-0.4313266,0
-4.6016183,0.94105875,-2.9176297,-0.83222592,0.17019524,-0.52766806,0
-3.5037611,4.5189881,-0.66407436,-0.60864979,0.78500819,-0.11535852,0
-5.4073825,-0.15722953,0.42749372,-0.99647099,-0.028974215,0.078778431,0
4.9567037,2.5950115,-1.2650789,0.86411679,0.45239601,-0.22054493,0
-1.8908329,-4.7046294,2.1428471,-0.34350073,-0.85467291,0.38928324,0
5.2881932,1.4200324,-1.0219169,0.94939262,0.25493929,-0.18346538,0
-1.8309951,5.0317383,-0.98295844,-0.33633265,0.92427224,-0.18055812,0
3.2072263,-4.1861839,-1.2355233,0.59213686,-0.77287775,-0.22810954,0
-1.4690942,3.128855,-4.5477958,-0.25718066,0.54773957,-0.79614037,0
3.314199,3.721858,2.0265346,0.61603719,0.6918121,0.37668848,0
-5.3158178,0.12983862,-1.8359972,-0.94495904,0.023080584,-0.32637352,0
4.0932503,-3.7141957,-0.78662705,0.73317683,-0.66528118,-0.14089946,0
3.5684986,3.4228561,-2.7644045,0.62992197,0.6042127,-0.4879809,0
0.5785386,5.5494528,0.73895025,0.10279195,0.986,0.13129312,0
-3.6297145,4.1368442,0.10076208,-0.65942013,0.75155175,0.018305723,0
-1.2584091,0.82209164,-5.4624009,-0.22212014,0.1451063,-0.96416116,0
-5.2800961,1.0132705,1.6598194,-0.9383797,0.18007863,0.29498342,0
-1.4837155,-0.021834552,5.1469812,-0.27698761,-0.0040761861,0.96086484,0
-0.17773715,2.956027,-4.6903186,-0.032042257,0.53290927,-0.8455655,0
4.6766777,1.8522887,2.1356032,0.85579562,0.33895442,0.39079878,0
1.4329274,-5.3564296,0.38478017,0.25780803,-0.96371287,0.0692285,0
3.7124958,-1.5829606,4.0037808,0.6530394,-0.27844763,0.70427728,0
-2.1408627,1.1835096,-5.1518025,-0.37538746,0.20752133,-0.90333778,0
2.3487694,-4.7508421,-1.8153616,0.41927102,-0.84805703,-0.32405418,0
2.4655416,1.254328,4.8308973,0.44289717,0.22532101,0.86779749,0
-1.9805161,-4.5435452,-2.7773886,-0.34858662,-0.79970014,-0.48884252,0
-2.289124,-0.36814147,5.0203557,-0.41395536,-0.066573121,0.90785956,0
4.2661314,3.3575683,-1.0571686,0.77132815,0.60705745,-0.19113895,0
-3.4205856,-4.3416157,-0.44792348,-0.6168409,-0.7829321,-0.080774918,0
0.010636424,-5.1111388,-1.8254197,0.0019597861,-0.94173938,-0.33633786,0
1.0861853,5.0104222,2.2845113,0.19352056,0.89268351,0.40702072,0
2.4542928,-3.9099097,-3.1255951,0.44023424,-0.70133287,-0.56064785,0
-3.0853255,-2.4272163,3.6138046,-0.57823688,-0.4548972,0.67728186,0
-1.1739697,4.0860696,-3.4532702,-0.21433927,0.7460202,-0.63048595,0
-4.5927839,-0.039699461,3.0263085,-0.83499944,-0.0072176326,0.5502035,0
1.5025752,-1.1912806,5.3317332,0.2651886,-0.21024841,0.94099444,0
2.3381968,4.723896,1.8639098,0.41822574,0.84494805,0.33339155,0
2.8243349,1.2720376,4.6785622,0.50335222,0.22670221,0.83381218,0
-4.8484836,-2.6081686,0.80175024,-0.87147224,-0.46879536,0.14410755,0
-0.10702614,0.017723501,-5.4173651,-0.019752165,0.0032709532,-0.99979955,0
-2.039717,-1.8094151,4.7784605,-0.37074664,-0.32888609,0.86855096,0
2.1931148,-4.0393906,3.0422406,0.39788324,-0.73284161,0.5519349,0
4.7314105,-2.3697402,1.001163,0.87853664,-0.44001755,0.18589771,0
-1.648973,-2.2368498,4.8059368,-0.29702964,-0.40292391,0.86569375,0
5.2184577,-0.73898172,-2.2581651,0.91010487,-0.12887923,-0.39382651,0
-2.3761446,-2.1634851,-4.3527379,-0.43917623,-0.39987096,-0.80450451,0
-1.3612585,0.86674649,5.2796245,-0.2465712,0.15699789,0.95632333,0
-3.7950039,2.3616829,3.3865552,-0.67672658,0.42113623,0.60389185,0
3.5952902,-4.1423578,-0.16887347,0.65516621,-0.75485778,-0.030773647,0
-4.1595502,-2.9112515,-2.5398583,-0.73270452,-0.51281679,-0.44739589,0
-0.36015603,-0.67238933,5.4205317,-0.065794699,-0.12283468,0.99024373,0
-0.23211321,5.3630557,1.6412653,-0.041350015,0.95540637,0.29238468,0
3.1777523,-4.2889695,0.40478653,0.59361249,-0.80119079,0.075615183,0
4.6316161,1.8730183,-2.2397687,0.84594309,0.34209806,-0.40908331,0
-4.6687994,-1.2021118,-2.5495389,-0.85607833,-0.22042111,-0.46748742,0
2.8338628,-4.717288,-0.1668881,0.51472533,-0.85681909,-0.030312525,0
-2.7996223,-3.9907205,-2.7490518,-0.50024354,-0.713072,-0.49120748,0
2.1844671,3.3799419,3.8639567,0.39154655,0.60582489,0.69258028,0
1.8795897,-5.0991426,0.81618035,0.34202486,-0.92787993,0.14851858,0
-4.8454418,2.559027,-0.71104157,-0.87690419,0.4631201,-0.1286808,0
-0.28362346,-3.0007601,-4.8521218,-0.049653094,-0.52533388,-0.84944618,0
-3.8387375,-4.0515285,-1.4508784,-0.66566306,-0.70256245,-0.25159213,0
-3.8089073,1.5389996,3.5105019,-0.70487094,0.28480506,0.64964843,0
0.62726849,-3.1459069,-4.5009751,0.11348937,-0.56917727,-0.81434476,0
4.8771892,-0.25721678,2.2368267,0.90792,-0.047882549,0.4163996,0
-4.0204706,-3.5178869,1.2337536,-0.73327851,-0.6416142,0.22501968,0
-4.767128,-2.3282344,1.8522567,-0.84834224,-0.41432485,0.32962143,0
2.7778747,-3.0501444,3.5465534,0.51060069,-0.56064653,0.65189141,0
1.0125567,4.4799261,3.018645,0.18423152,0.81510854,0.54923302,0
-3.0201328,0.14298621,-4.5643597,-0.55162793,0.026116462,-0.83368129,0
4.1981831,-2.5070932,-2.8297722,0.74309516,-0.44376552,-0.50088102,0
0.13549976,0.088436194,-5.3559542,0.025287364,0.016504223,-0.99954391,0
4.1359644,-1.2445661,3.2629111,0.76406467,-0.22991711,0.60277963,0
3.0506148,4.708775,-0.32226998,0.54282886,0.83788323,-0.057344981,0
-4.3353004,0.66569608,3.4464078,-0.77719384,0.11934003,0.61784112,0
-1.3734443,-0.15172976,-5.4179039,-0.24563789,-0.027136579,-0.9689818,0
1.477029,1.0050776,5.459847,0.25711101,0.17495698,0.95041251,0
-3.7497489,-2.1838293,-3.7913349,-0.65073973,-0.37898657,-0.65795666,0
-4.0071335,3.4024706,1.6843534,-0.72592312,0.61638379,0.30513361,0
0.07746911,-5.2127676,-1.8579676,0.013997422,-0.94186318,-0.33570483,0
2.2167706,-0.96968317,4.7426586,0.41635704,-0.18212728,0.89077294,0
-1.8325783,0.28239852,-5.0952005,-0.33798319,0.052082878,-0.93970996,0
-1.800651,3.7481411,-3.5904076,-0.32776004,0.68224818,-0.65353703,0
-4.4393873,-1.8981913,2.9241457,-0.78647894,-0.33628231,0.5180397,0
5.0720224,-1.9875035,0.65195537,0.9244712,-0.36225978,0.11883109,0
-2.1883209,0.2076616,-5.0228367,-0.39912692,0.03787531,-0.91611308,0
1.2259257,5.3447232,-1.7095011,0.21343422,0.93051881,-0.29762495,0
-1.4760617,5.1732574,0.23015606,-0.27412462,0.96074384,0.042743094,0
-3.1910098,-4.7691441,-0.070671268,-0.55605441,-0.83105469,-0.012314932,0
1.7210146,-0.9451648,5.2130203,0.30894986,-0.16967231,0.93582118,0
1.3981024,-4.0631976,3.6320024,0.24849233,-0.72217417,0.64553547,0
2.9657419,4.1503057,-2.2128313,0.53337502,0.74641341,-0.39796752,0
-5.08251,-1.9092643,1.0617191,-0.91872597,-0.34512293,0.19191873,0
-2.2861254,-3.4390876,3.7261057,-0.41101441,-0.61830145,0.6699034,0
-3.7166481,0.62939191,3.9915287,-0.67696476,0.11463989,0.7270326,0
3.8510942,1.9110665,-3.6109617,0.68592441,0.34038305,-0.64315403,0
-2.1981704,-2.45649,-4.5118771,-0.39338857,-0.4396179,-0.80745369,0
-3.795445,-3.7412257,-0.96581858,-0.70076084,-0.69075024,-0.17832108,0
-0.24587964,3.8041899,4.0384488,-0.044274699,0.68500739,0.7271896,0
1.1004956,4.8637099,1.9695084,0.20525874,0.90715402,0.36734253,0
-2.7387292,-2.5582705,-4.0452943,-0.49664077,-0.46391642,-0.73357314,0
-2.2007434,0.83568299,-4.9029169,-0.40463981,0.15365291,-0.90147513,0
-2.0348482,3.856066,3.2279561,-0.37509409,0.71080852,0.59502578,0
3.8404984,1.7965168,3.7815621,0.67598999,0.31621608,0.66561621,0
1.8653555,-4.5341144,-2.5198102,0.3383891,-0.82252145,-0.45711195,0
-5.0738959,1.718506,1.6311567,-0.90607661,0.30688411,0.29128563,0
3.3323112,3.6432464,-2.7675235,0.58873719,0.64367181,-0.48895314,0
-4.898881,-0.190836,-2.5072851,-0.8896485,-0.034656271,-0.45532897,0
-1.1233807,2.1637173,-4.8346968,-0.20747231,0.39960757,-0.89289922,0
0.051355116,5.3152418,-2.0717223,0.0090018511,0.93168932,-0.36314464,0
2.6477668,2.9703791,-3.6851964,0.48820144,0.54768544,-0.67948514,0
-2.2092001,4.5000176,-1.996431,-0.40941691,0.83395946,-0.36998576,0
3.2047079,-1.3435581,-4.3157439,0.57837903,-0.24248259,-0.77889657,0
-1.8514642,4.7698655,-2.4874587,-0.32543495,0.83840722,-0.43722478,0
1.4974929,-4.5836854,2.397681,0.27807012,-0.85114658,0.44522643,0
-3.5276904,-0.93355697,4.2092061,-0.6332494,-0.16758114,0.75558704,0
4.90451,2.4605176,-0.18531173,0.89331478,0.44816235,-0.033752955,0
-1.7506759,5.1853395,0.86201197,-0.3159855,0.93591964,0.15558749,0
0.13687748,4.4250927,3.2251353,0.024989594,0.80788511,0.58880997,0
-5.4521365,0.73372114,-0.50972724,-0.98683894,0.13280383,-0.092260838,0
5.4195442,1.4464408,-1.0567099,0.94947892,0.25340968,-0.18513066,0
-4.9514489,-1.3762454,-2.5424721,-0.8635729,-0.24002838,-0.4434278,0
-2.2854733,4.6355662,-2.5296707,-0.39718184,0.80559361,-0.43961975,0
-3.7305527,2.2452598,-3.3257413,-0.68088967,0.40979829,-0.60700464,0
4.6534209,1.6825742,2.1583953,0.86198032,0.31167305,0.39981216,0
-0.55545086,2.2149034,-4.9585066,-0.10174883,0.40573135,-0.90831125,0
-4.1762214,3.435488,0.41444638,-0.77001262,0.63343602,0.07641571,0
-1.2483861,-4.4825644,-3.1660933,-0.22181137,-0.79645526,-0.56254667,0
0.82618153,-4.7408328,-2.7741559,0.14873722,-0.85349071,-0.49943045,0
-3.8260081,1.8500446,-3.6310737,-0.68446428,0.33096883,-0.64959091,0
-0.54679805,4.1583457,-3.3604045,-0.10174304,0.77374583,-0.62527245,0
-2.8365519,-1.0459218,-4.5642891,-0.51811683,-0.19104521,-0.83370054,0
-3.922302,0.8731066,-3.9325957,-0.69761294,0.15528902,-0.69944376,0
-1.1105745,-4.9160204,1.9452829,-0.20557469,-0.90998793,0.36008477,0
3.3415363,-2.5537937,-3.6822381,0.59778464,-0.45686132,-0.65873456,0
3.1825647,1.4314433,-4.3272047,0.57250696,0.25750029,-0.77841461,0
4.664681,-0.019485433,-2.8973925,0.84946561,-0.0035484107,-0.52763206,0
3.7496057,-0.0063645337,-4.2432876,0.66216999,-0.0011239591,-0.74935281,0
3.9756293,-1.7332102,-3.5946598,0.70576882,-0.30768606,-0.63813764,0
-4.4396892,2.0781789,-2.8011382,-0.78635806,0.3680872,-0.4961378,0
-4.5441842,0.76479685,-3.2410576,-0.8066023,0.13575307,-0.57529461,0
-2.8959992,2.8685262,3.9597042,-0.50960547,0.50477105,0.69678432,0
1.516562,2.9341762,4.5401978,0.27011466,0.52260572,0.80865407,0
0.32461983,-2.5038562,5.0305324,0.057673469,-0.44484675,0.89374781,0
-2.0976715,-5.0708194,1.0443866,-0.37551829,-0.90776151,0.18696268,0
-0.84197217,-2.2372413,5.0791988,-0.1499881,-0.39853999,0.90480351,0
-1.8928633,2.7371056,4.0835576,-0.35932449,0.51958799,0.77518654,0
1.3488785,2.0190165,-4.959137,0.24428774,0.36565265,-0.89812124,0
-5.3265963,0.71602494,-0.61447674,-0.98467082,0.13236387,-0.11359174,0
-4.4523468,-1.8342898,2.8871315,-0.79299694,-0.32670102,0.51422012,0
-5.0647378,2.6345372,-0.021569734,-0.88714784,0.46146989,-0.0037781904,0
-0.87076408,4.1824961,-3.7624335,-0.15296017,0.73470569,-0.66091663,0
3.1564322,-1.6630337,4.0917077,0.58143389,-0.30634087,0.7537173,0
-4.85989,-0.36840877,3.1521087,-0.83728951,-0.063471556,0.54306322,0
-5.2636046,-0.47767127,-1.7847954,-0.94355899,-0.085627824,-0.3199442,0
-0.94068706,5.1419272,-1.8634565,-0.16950892,0.92655951,-0.33578914,0
3.817956,2.3840921,3.2717288,0.68611377,0.42843828,0.58795285,0
-3.6644619,0.023487164,4.3547211,-0.64385557,0.0041267565,0.76513594,0
1.7373583,0.15032832,5.4298906,0.30463696,0.026359307,0.95210373,0
5.0865436,-2.3568597,1.4712807,0.8776117,-0.40664306,0.25384882,0
-1.0995557,-4.5627723,3.0033941,-0.1973324,-0.81886053,0.53900588,0
-1.9832402,-0.54690498,4.9385099,-0.37070733,-0.1022275,0.92310649,0
-1.6567075,-5.0969424,-0.90394258,-0.30481482,-0.93777788,-0.16631487,0
-2.5206797,-2.8696399,4.1211705,-0.44860259,-0.51070666,0.73344016,0
4.1689606,-3.3178568,-1.17199,0.76418233,-0.60817254,-0.2148291,0
-1.7178787,5.0672951,1.2592763,-0.31252572,0.92186952,0.2290943,0
3.5695977,2.8348525,2.8939829,0.66110969,0.52503073,0.53598201,0
-3.6222551,-1.8876914,3.5262661,-0.67126393,-0.34982052,0.65347558,0
2.4039488,4.5932112,2.0801015,0.43035257,0.82227218,0.37237772,0
1.0742357,-5.0636668,-1.6405045,0.1978299,-0.93251854,-0.30211326,0
0.85199642,1.1517645,-5.3507104,0.15381262,0.20793036,-0.96597445,0
1.4115417,2.5936463,4.6534319,0.25612003,0.4706094,0.84435135,0
-5.0599146,1.652164,-1.3599507,-0.92102259,0.30073243,-0.24754277,0
-4.6258197,-2.2676635,-2.1999393,-0.82577282,-0.4048093,-0.3927196,0
0.74566919,5.364923,-0.95881546,0.13555886,0.97531563,-0.17430776,0
-1.496243,-3.0438249,4.485466,-0.26607281,-0.54127508,0.79763818,0
1.9781845,-2.7587914,-4.2995005,0.36110616,-0.50360143,-0.78484899,0
-1.1146573,5.5298738,0.22986384,-0.19743204,0.97947079,0.040714294,0
1.016577,-0.54467559,5.5216198,0.18021926,-0.096560352,0.9788754,0
-2.3655713,4.2581611,-2.5544615,-0.43008158,0.77417099,-0.46442348,0
1.546755,-5.2308974,0.68097538,0.28137487,-0.95156831,0.12387829,0
-1.7359065,4.9437842,-1.4049673,-0.31999534,0.91133249,-0.25899035,0
4.3599644,-1.985671,-3.1791139,0.75829548,-0.34535268,-0.55291915,0
-3.6496248,0.29076758,-4.3902659,-0.63843334,0.050864331,-0.76799458,0
2.5555625,-4.4946446,-2.4785161,0.44570604,-0.78389406,-0.43226868,0
1.8700562,-1.5868237,-4.8508739,0.34403655,-0.29192993,-0.89242131,0
-5.0999265,-1.7842346,-2.0928757,-0.88017625,-0.30793405,-0.3612012,0
1.0308775,-1.0417068,-5.2222033,0.19006017,-0.19205675,-0.9628039,0
-2.857245,1.586006,4.5416536,-0.51066315,0.28346005,0.8117103,0
1.6132213,5.13762,-1.3976947,0.28997156,0.92347133,-0.25123131,0
1.9268891,5.0335312,0.63198102,0.35507768,0.92755449,0.11645836,0
-4.6915355,2.8366134,-1.3754674,-0.83001852,0.50184888,-0.24334538,0
-5.1639862,-1.4895887,-0.60728598,-0.95474923,-0.27540424,-0.11227873,0
-0.99350601,3.5080521,-4.0161691,-0.18315816,0.64672822,-0.74040234,0
-5.2088871,1.7480785,1.5489793,-0.91247004,0.30622074,0.27134341,0
5.2493215,-1.6670184,0.52776021,0.94874877,-0.3012926,0.095386013,0
-2.808017,-4.5490422,0.40946767,-0.52373064,-0.84845376,0.076370887,0
-1.0826046,5.5163393,-1.1496754,-0.18867528,0.96138227,-0.20036431,0
5.1779833,-0.46814018,-2.0272024,0.92789716,-0.083890952,-0.36327568,0
2.0750594,-1.133491,-5.1916628,0.36374316,-0.19869292,-0.91006154,0
-1.8382089,1.9324613,-4.9067464,-0.32914716,0.34602386,-0.87859529,0
-1.915936,-2.4432406,-4.6854181,-0.34086543,-0.43467855,-0.83358586,0
2.2867587,2.9296923,-4.2821412,0.40330717,0.51669902,-0.75522542,0
4.1553783,-1.4943902,-3.0974185,0.77038193,-0.27705088,-0.57424259,0
0.079809815,0.93772614,-5.3689632,0.014641793,0.17203389,-0.98498225,0
-0.88398135,-5.4932804,-1.2368455,-0.15509079,-0.96377289,-0.21699932,0
2.7746427,3.559068,3.3286412,0.49479818,0.63468367,0.59359199,0
-0.92234588,5.6051412,-0.266745,-0.1621912,0.98564386,-0.046906147,0
2.488564,-1.6857408,4.8778796,0.43433425,-0.29421586,0.85134649,0
5.181766,1.032317,-1.0716668,0.96115577,0.19148248,-0.19878142,0
-2.4626768,3.0148718,-4.0685978,-0.43734577,0.53540987,-0.72254062,0
-3.9808068,-1.1292686,-3.6082442,-0.72508466,-0.2056908,-0.65722418,0
5.0681181,-0.56157571,-2.5034857,0.89218819,-0.098859422,-0.44071198,0
-0.12557819,-2.0643902,-5.1983938,-0.022445884,-0.36898971,-0.92916244,0
-3.3182213,4.2697248,-1.2196779,-0.59859467,0.77024233,-0.22002532,0
2.1123896,3.0651815,3.8951244,0.39206138,0.56890041,0.7229386,0
-0.29102716,5.6143436,-0.68140393,-0.051390752,0.99140352,-0.12032506,0
5.4345245,-0.84782672,-1.7881864,0.9396376,-0.14659053,-0.30918017,0
1.4992847,-5.1938744,1.2430437,0.27028689,-0.93633729,0.22409247,0
2.9390795,-4.4658446,-1.0436126,0.5395661,-0.81985474,-0.19158991,0
0.28425702,-3.9165637,-3.8223841,0.051871296,-0.71469557,-0.69750965,0
-2.4906826,3.2436385,-3.6088541,-0.45665237,0.59470254,-0.6616627,0
-0.19521372,5.4090338,-0.66969764,-0.035793886,0.99178648,-0.12279403,0
3.5538082,-0.661843,4.0182428,0.65750569,-0.12245048,0.74343276,0
-1.5222832,4.7137723,-2.2907293,-0.27893355,0.86372185,-0.41973877,0
-0.0095436452,5.2907591,1.4572469,-0.0017390703,0.9640972,0.2655437,0
3.8559785,2.0524147,-3.0834594,0.72116959,0.38385564,-0.57668817,0
-3.8858771,-1.0335263,-3.8286517,-0.69988215,-0.18614757,-0.68957531,0
2.243156,-5.0542173,0.54152608,0.40372938,-0.90967196,0.097465351,0
3.391504,1.3655982,4.0031948,0.62556493,0.25188541,0.7383917,0
2.5066042,0.3286241,5.0333924,0.44501784,0.05834331,0.89361912,0
0.16905978,-1.164476,-5.2350097,0.03150795,-0.21702532,-0.9756574,0
2.0088425,2.8063185,-4.3499031,0.36177728,0.50539666,-0.78338456,0
-2.8845699,4.793901,-0.013076014,-0.51557547,0.85684097,-0.0023371498,0
1.8394116,3.2549627,4.367908,0.31992507,0.56612897,0.75970125,0
1.0692471,-1.8397119,5.0720248,0.19439809,-0.33447504,0.9221366,0
-4.6338944,0.70052063,2.5894301,-0.86544794,0.13083254,0.48361418,0
3.2401514,3.6842506,-2.1295929,0.60579509,0.68882608,-0.39815944,0
-4.3203735,0.94062227,3.5674429,-0.76045656,0.16556494,0.62792844,0
-3.6246669,-2.8382461,3.1215568,-0.65166169,-0.51027483,0.56120992,0
-1.1596876,-0.17984937,5.2766294,-0.21453623,-0.033271205,0.9761492,0
-4.1157389,-0.42858434,3.7015319,-0.74131197,-0.077195056,0.6667065,0
3.1743593,1.8973961,4.234776,0.56460387,0.33747825,0.7532137,0
-1.1438428,4.2277164,-3.6039255,-0.20166902,0.74538165,-0.63540208,0
-4.2938423,-3.1956832,-0.75752825,-0.79429406,-0.59115171,-0.14013094,0
-2.9157927,2.0065541,-4.3577013,-0.5193733,0.35741588,-0.7762121,0
-4.649199,-0.58035946,2.7941527,-0.85225159,-0.10638656,0.5122003,0
-0.95717812,4.4959297,-3.400717,-0.16740011,0.78628957,-0.59474868,0
3.6861408,3.6601648,2.0206606,0.66133076,0.65667039,0.36252683,0
-1.2722096,-0.83878607,-5.3956108,-0.22691022,-0.14960517,-0.96235651,0
0.55004454,-5.3353992,0.44920361,0.10219214,-0.99125767,0.083457023,0
4.8279099,2.0428309,1.9634715,0.86244184,0.36492455,0.35074806,0
-0.030273033,0.98328167,5.4340863,-0.005481848,0.17805289,0.98400563,0
-5.1313381,1.6494132,0.37322804,-0.94975132,0.3052873,0.069080189,0
-0.36870825,3.1714878,-4.5926194,-0.065918125,0.56700253,-0.82107425,0
4.5899396,1.3570322,2.6800971,0.83672249,0.24738002,0.48856798,0
2.5402312,4.6959662,-1.3264397,0.46175098,0.8536101,-0.24111381,0
-3.9461739,1.109959,3.7997797,-0.70599639,0.19857895,0.67980552,0
-1.5467213,5.5390887,0.51049089,-0.26789549,0.95938218,0.088418134,0
1.7686185,4.1960254,-3.1775291,0.31852093,0.755687,-0.57225996,0
-0.24383314,-3.6583846,4.0460372,-0.044656552,-0.67001081,0.74100703,0
4.0654001,-1.6677765,-3.4163616,0.73039734,-0.29963583,-0.61378992,0
-4.2018495,-0.42921749,-3.6818113,-0.74990588,-0.07660263,-0.65709448,0
3.4875209,1.1460332,4.1605034,0.62855065,0.20654784,0.74984127,0
-0.16242225,5.7040095,0.36958355,-0.028404053,0.99750483,0.064631969,0
-0.030084753,4.9977422,-2.2689929,-0.0054811412,0.91053861,-0.41338781,0
-2.071774,5.1172619,0.017860318,-0.37526882,0.9269104,0.0032351117,0
3.5913346,-1.7291464,4.0349822,0.63319725,-0.30487016,0.71141791,0
3.6201715,1.9360915,4.0691218,0.62629497,0.33494666,0.70396399,0
-4.8950233,1.8559958,1.3986319,-0.90336001,0.34251776,0.25811279,0
4.1599565,-2.4290607,-2.8045444,0.74629557,-0.43577313,-0.50313485,0
-3.1691611,-0.45661736,-4.4161372,-0.58099055,-0.08370997,-0.80959409,0
-0.66135269,2.1322689,-4.8749228,-0.12334543,0.39767829,-0.90919626,0
4.2420163,1.1882168,3.1318045,0.78482205,0.21983384,0.57942003,0
-4.9697199,1.5116042,-1.3329865,-0.92669773,0.28186703,-0.2485604,0
-4.8015652,-2.574986,0.88889748,-0.86977279,-0.46644223,0.16101809,0
0.010318446,4.5222044,-3.0155113,0.0018983728,0.83198863,-0.55478942,0
-3.8765352,-0.86813474,-3.7953146,-0.70557606,-0.15801097,-0.69079292,0
-1.292555,4.0089345,3.5440354,-0.23480655,0.72826618,0.64381224,0
4.8625026,-1.5665547,2.4435306,0.85865366,-0.27663285,0.43149519,0
1.8617413,4.5164924,-2.3661635,0.34298652,0.83206832,-0.43591565,0
0.58240777,-1.1548537,-5.3417115,0.10596807,-0.2101236,-0.97191501,0
-0.24122095,0.4774735,-5.5540338,-0.043231603,0.085572764,-0.99539351,0
-0.017086504,4.9068389,2.9444103,-0.0029858504,0.85746545,0.51453292,0
0.026234223,-3.4805491,-4.4071383,0.0046714605,-0.61977237,-0.78476775,0
4.9462824,-0.8013913,-1.9819608,0.91793036,-0.14872208,-0.36781198,0
3.2758536,-4.4496384,-0.76976979,0.58719653,-0.79759735,-0.13798118,0
5.6299419,-0.50698888,-0.21594177,0.99524391,-0.089623943,-0.038173527,0
-0.6002112,0.14053737,5.3719192,-0.11100277,0.025990913,0.99348015,0
-0.42811361,-4.5046363,-2.9783087,-0.079029523,-0.83155322,-0.54979402,0
0.57081896,-3.3944309,4.5199585,0.10047197,-0.59746641,0.79557472,0
-1.3203251,3.2883258,-4.1448083,-0.24212588,0.60302478,-0.76008958,0
-0.85814649,5.3946323,-1.4461228,-0.15186711,0.95469385,-0.2559219,0
-5.053565,1.323422,-1.9383821,-0.90695554,0.2375125,-0.34787846,0
-0.39936745,4.8499293,2.843081,-0.070860177,0.86052793,0.50445074,0
1.0754498,2.6870258,4.5386758,0.19978775,0.49917236,0.84315586,0
2.5477097,1.3730733,4.6102867,0.46803415,0.25224429,0.84694564,0
3.5573928,-4.0984569,-1.579939,0.6293698,-0.7250942,-0.27952096,0
4.055614,-3.5673773,-1.2953632,0.73015302,-0.64225322,-0.23321088,0
-1.2946264,-3.870364,-3.8991077,-0.2293663,-0.68570447,-0.69079697,0
-1.6368653,2.1516802,-4.7522378,-0.29938462,0.39354491,-0.86919004,0
-4.6305118,-3.4248638,0.22185406,-0.80338842,-0.59420991,0.038491424,0
1.5276979,-1.6044384,-5.2925344,0.26626503,-0.27964029,-0.92244476,0
0.2389992,-2.1096489,4.9296918,0.044527452,-0.39304438,0.91844076,0
5.6461978,0.75511527,-0.082879387,0.99107027,0.13254447,-0.014547719,0
1.2063631,3.3746588,-4.2422814,0.21722846,0.60767108,-0.7639029,0
-2.854846,4.7587528,-1.1800514,-0.50319117,0.8387711,-0.20799422,0
-1.5616894,0.84544891,5.4126034,-0.27414969,0.14841592,0.95016563,0
3.3293109,-4.2428274,1.6794971,0.5894053,-0.75112993,0.29733014,0
2.728905,4.6578164,1.7521751,0.48081452,0.82067561,0.30872136,0
-4.5124574,-1.2050545,-2.6526544,-0.84010321,-0.22435008,-0.49385586,0
2.2544837,-4.9832611,-1.6598872,0.39442745,-0.87183374,-0.29040134,0
4.5770912,2.1867933,2.2778368,0.82312769,0.3932651,0.40963802,0
0.78844059,5.4338789,0.77112693,0.14219804,0.98001927,0.13907547,0
0.71039897,5.3492622,-0.55950898,0.13094534,0.98601067,-0.10313232,0
5.0615025,-1.0564826,-1.9807597,0.91412359,-0.19080414,-0.35773155,0
2.1474113,4.9220896,2.1281769,0.37175223,0.85209465,0.36842242,0
3.0970068,4.6117096,-1.0446174,0.54790217,0.8158735,-0.18480688,0
4.2549939,-0.22657123,3.7992272,0.74533904,-0.039688043,0.66550326,0
-2.4893031,3.5707095,3.5515063,-0.44310915,0.63560522,0.63218695,0
2.5765576,-5.0952277,-0.37052485,0.4503172,-0.89051712,-0.064758383,0
0.64785123,0.026648268,5.6964827,0.11299863,0.0046480084,0.99358428,0
5.0214229,0.21230888,-2.5845752,0.88850683,0.037566621,-0.4573231,0
5.1662121,-0.89200968,-2.0133612,0.91991544,-0.15883465,-0.3585068,0
-3.477952,4.3083067,1.1386076,-0.61526245,0.76215523,0.20142385,0
1.7698876,2.6000621,4.3787422,0.32828534,0.4822692,0.81218541,0
-2.7354198,1.4332343,-4.7699265,-0.48139045,0.2522265,-0.83943135,0
0.96851397,-0.64898884,5.3726506,0.17616747,-0.11804758,0.97725624,0
-0.013579944,-2.8786635,-4.5610743,-0.0025178159,-0.53372419,-0.84565485,0
1.3896205,-2.8987424,4.4807248,0.25199005,-0.52565014,0.81252259,0
-2.431406,2.3437064,4.3191838,-0.44346839,0.42747271,0.7877835,0
-4.9388161,-2.0578108,1.3492966,-0.89505547,-0.37293449,0.24453135,0
-0.91287071,0.77487057,5.4665337,-0.16312516,0.13846526,0.97684056,0
-0.1289196,3.818285,4.0525503,-0.02314752,0.68557322,0.72763556,0
-5.6574588,-0.34247044,0.53299344,-0.99378836,-0.060158305,0.093625546,0
0.097448543,5.3799043,0.53175855,0.018022668,0.99498904,0.098346345,0
0.84819722,0.48308381,5.613194,0.14887355,0.084789716,0.98521441,0
3.3083138,-3.5174768,-2.861104,0.5894233,-0.62668866,-0.50974649,0
0.88490415,-1.6941082,-5.2681499,0.15790166,-0.30229548,-0.94004494,0
-4.5108967,-0.041497152,-3.54756,-0.78601974,-0.007230842,-0.61815917,0
-5.158987,1.0897729,2.0067284,-0.91442496,0.1931611,0.35569048,0
-4.5078974,-3.4400702,1.0438892,-0.78182817,-0.59662932,0.18104716,0
0.097450666,-3.9673715,3.8071411,0.017720101,-0.72141349,0.69227773,0
0.0068749394,5.0552053,-2.1889343,0.0012479982,0.91766441,-0.39735422,0
4.6634135,-0.091648333,2.8573632,0.85255146,-0.016754877,0.52237469,0
1.6289006,-2.5720618,4.7071762,0.29056799,-0.45881182,0.83967966,0
-4.7305303,0.2493173,3.0485837,-0.83974582,0.044257864,0.54117304,0
-1.0282848,4.9350538,-2.8218122,-0.17799361,0.8542459,-0.48844886,0
3.504854,1.1926786,4.3001165,0.61767346,0.21019018,0.75782555,0
3.4594133,4.417182,-1.3693699,0.59900039,0.76483887,-0.23710757,0
5.1370707,-1.9962702,-1.5548924,0.89707702,-0.34860492,-0.27152795,0
2.6701672,-4.1015186,-2.4808307,0.4866384,-0.74750239,-0.45213178,0
-5.3571143,-1.8298762,-0.61046135,-0.94086188,-0.32137838,-0.10721441,0
2.1961708,-0.81843382,5.0221133,0.39627212,-0.14767636,0.90617883,0
-2.835604,3.6564577,-3.0617442,-0.51106805,0.65901262,-0.55182588,0
-2.4835165,-0.46927172,4.7221427,-0.46368894,-0.087616138,0.88165528,0
2.9880867,-1.0135068,4.6055069,0.53524029,-0.18154415,0.82496029,0
-0.3730168,4.3785086,-3.0832644,-0.06948708,0.81564629,-0.57436293,0
-4.518271,3.0699089,-0.20475729,-0.82656008,0.56160069,-0.037457734,0
3.7921538,-1.3387308,-3.5260406,0.70902324,-0.25030398,-0.65926772,0
3.1194608,-3.6074312,-2.6955087,0.5694347,-0.65851009,-0.49204534,0
-3.4133208,2.3601429,-3.5488701,-0.62510931,0.43223226,-0.64993358,0
-5.6111207,-0.35859948,0.49491704,-0.99412018,-0.063532941,0.087684274,0
4.6414495,-3.0834286,0.69517547,0.82654232,-0.54909229,0.1237958,0
5.0437865,0.66908526,1.790812,0.93508589,0.12404415,0.33200514,0
-0.33103472,-0.45397827,5.4188123,-0.060764145,-0.083331443,0.99466759,0
-3.5662949,4.3311148,-0.72993386,-0.63034111,0.76552272,-0.12901551,0
-3.982305,-3.4286342,-1.9422184,-0.71082562,-0.6119976,-0.34667829,0
-1.0738062,4.811439,-2.4953134,-0.19434142,0.87079209,-0.45161107,0
-2.3952487,0.8195824,-4.987988,-0.42820829,0.14652006,-0.8917228,0
0.45713401,2.3428943,-4.9078746,0.083761051,0.4292905,-0.89927405,0
2.6306849,-4.6268129,-0.31369033,0.4934108,-0.86780423,-0.058835704,0
-2.4950337,-4.3325367,2.4515488,-0.44807678,-0.77806926,0.44026744,0
0.41600537,-5.4330001,0.50750482,0.076017611,-0.9927845,0.092737511,0
-3.4332318,4.420269,0.12106831,-0.61326766,0.78957909,0.021626061,0
-0.11245547,5.3845611,-0.26289842,-0.020855412,0.99859297,-0.048755787,0
1.3296766,1.8053813,-4.9004927,0.24673499,0.33500683,-0.90933615,0
1.2738998,-4.8004389,-2.4618812,0.22980998,-0.86599338,-0.44412038,0
-0.40204188,4.7420449,2.7189384,-0.073352046,0.86518031,0.49606699,0
-0.23829225,-4.0457673,-4.0188956,-0.041750096,-0.70884037,-0.70413232,0
2.1110225,-4.1327028,-3.0925522,0.37854365,-0.74106669,-0.55454928,0
-5.3004403,1.1562164,0.077043764,-0.97692657,0.21310277,0.014199971,0
-5.5768495,-0.57414258,0.92755693,-0.98140103,-0.10103627,0.16322932,0
-5.1412187,-1.8610867,0.7615723,-0.9312982,-0.33712372,0.13795385,0
5.362916,0.79791623,-0.31591424,0.98743743,0.14691491,-0.058167152,0
4.2459598,-3.5836499,0.44096267,0.76179659,-0.64296705,0.079116121,0
2.1970851,3.2965584,-3.9860206,0.39095008,0.58659071,-0.70927387,0
-1.520527,5.1549401,-1.7543812,-0.26894817,0.91179681,-0.31031188,0
-4.8887525,-2.3314981,0.82774293,-0.89224863,-0.42552289,0.15107177,0
4.5499368,-3.2042234,-0.084169917,0.81750852,-0.57571787,-0.015123205,0
4.2268634,3.5419793,0.48856369,0.76348078,0.63977301,0.088247225,0
-1.3926791,-3.2551339,4.4271317,-0.24567574,-0.57422233,0.78096873,0
-5.6544933,0.14063428,-0.52631181,-0.99539095,0.02475661,-0.092649505,0
-2.3770938,4.538096,1.8213394,-0.43719804,0.83465225,0.33498299,0
-5.2566276,1.5292137,-0.9275611,-0.9467023,0.27540663,-0.16705088,0
-2.5342565,4.1934061,3.0399666,-0.43950567,0.72724515,0.52720892,0
-0.46130177,-4.687613,2.9180918,-0.083253667,-0.8459993,0.52664405,0
0.64326155,-3.8771968,-3.8939762,0.11626782,-0.70079303,-0.70382589,0
-2.9313352,3.4587014,-3.2744393,-0.52414429,0.61844128,-0.58549386,0
5.301425,1.0583919,0.49695665,0.97653061,0.19495742,0.09154018,0
-3.3064864,2.2141471,-3.5458312,-0.62036139,0.41541719,-0.66526711,0
-0.54430801,-1.6835244,-5.2209983,-0.098737933,-0.30539274,-0.94709355,0
3.4139125,2.3882775,-3.4240005,0.63304836,0.4428629,-0.63491899,0
-2.4161179,2.3665137,-4.5558133,-0.42582819,0.41708571,-0.80293834,0
4.7780342,-2.940393,-0.54873145,0.84760857,-0.52161664,-0.097343266,0
0.80206627,-4.8736391,2.6315362,0.14331606,-0.87083924,0.47021228,0
4.861021,-1.4240686,2.409817,0.86659384,-0.25387445,0.42960781,0
-3.4145241,-3.8088849,1.6079351,-0.6367895,-0.71033555,0.29987082,0
-5.1385608,-0.31992555,-2.3720362,-0.90648586,-0.056437589,-0.41844738,0
4.5334344,1.540885,-2.714817,0.82362688,0.27994543,-0.49322346,0
-3.6488724,-1.4627895,-3.847863,-0.6633209,-0.26591748,-0.69949502,0
-3.2266455,-3.0337093,-3.1086259,-0.59631974,-0.56066298,-0.57450837,0
-5.4754233,-0.92892706,-0.6785199,-0.97863531,-0.16602932,-0.12127347,0
-2.3849673,0.70146281,-5.0116868,-0.42631462,0.12538698,-0.89584261,0
2.9678385,3.7720034,-2.6984727,0.53900301,0.68505114,-0.49008223,0
-0.95443016,-2.8085413,-4.7656665,-0.17002667,-0.50032675,-0.84897822,0
-0.12896912,-1.6495218,5.0955591,-0.024072854,-0.30789307,0.95111644,0
-3.064539,1.5516113,-4.2869,-0.55786788,0.28245494,-0.78038621,0
-0.56154472,-3.5191014,4.228476,-0.10154762,-0.63638097,0.76466161,0
-0.38245386,4.2693982,-3.4300399,-0.069664761,0.77767968,-0.62478882,0
-2.1792345,4.225565,2.9729419,-0.38863602,0.7535705,0.53018266,0
-4.4774733,-1.5594306,-2.6345966,-0.82548004,-0.28750119,-0.48572192,0
-3.7079954,2.5223062,-3.2235985,-0.67138094,0.45669642,-0.58367455,0
-1.0413024,-5.4102778,0.66243136,-0.18764725,-0.97495574,0.11937303,0
-3.6034331,-3.0654857,-3.2190073,-0.62972504,-0.53571498,-0.56254399,0
3.322701,-4.0779657,-2.1279163,0.58556569,-0.71866739,-0.37500662,0
-1.0609126,-5.4141397,-0.97276843,-0.18937404,-0.96642977,-0.17364021,0
1.1585286,2.3968523,-4.9521632,0.20605709,0.42630664,-0.88079685,0
5.0935221,-0.67912167,2.0265439,0.92210943,-0.12294528,0.36687684,0
5.6937566,0.37789333,-0.56018502,0.9930312,0.065907255,-0.097700208,0
5.1393538,1.9609433,-1.4566118,0.90317154,0.34460914,-0.25597972,0
3.290309,4.2782688,-1.3661875,0.59099329,0.76844704,-0.2453896,0
-4.3576808,2.3435311,2.4552834,-0.78892326,0.42427757,0.44450942,0
3.8112078,3.9459569,-0.74798161,0.6883502,0.71268755,-0.13509452,0
2.7847986,-3.9984334,-2.4288411,0.51149476,-0.73440778,-0.44611466,0
-0.21170439,-2.8976536,-4.6137986,-0.038827948,-0.53144836,-0.84620041,0
-0.42914706,-5.5899692,-1.3297578,-0.074479364,-0.97015071,-0.23078223,0
-2.1631768,5.1008,-0.98150307,-0.38444197,0.90651935,-0.17443372,0
-1.8563066,2.9120433,-4.2004423,-0.34137136,0.53551942,-0.77245361,0
-4.5865493,1.7805837,2.6953874,-0.81756765,0.31739497,0.48046178,0
4.4898515,2.0632415,2.2715666,0.82558942,0.37938678,0.41769341,0
2.4256711,-4.2667899,2.2219989,0.45022896,-0.79195911,0.41242534,0
-3.5345688,2.7859347,2.9714713,-0.65540159,0.51658523,0.55098861,0
-4.9717841,-0.52048594,2.8908923,-0.86096442,-0.090132609,0.50061613,0
0.23265871,5.5079412,1.6089774,0.040512744,0.959095,0.28017041,0
2.1399992,-5.0529709,0.30681923,0.38937244,-0.91938704,0.055825699,0
-3.8602421,3.8881397,1.0802077,-0.69124991,0.69624549,0.19343176,0
2.2584431,5.0147471,-0.38155907,0.40965322,0.90961212,-0.069210023,0
-2.1911824,-2.2895989,-4.2965879,-0.41041574,-0.42884949,-0.80476522,0
-2.4628737,2.8709357,-4.0769463,-0.44284895,0.51622254,-0.73307514,0
-3.2467158,-0.81058812,-4.4106846,-0.58642483,-0.14640918,-0.79666191,0
3.088402,-1.2691705,4.1752214,0.57768536,-0.23739824,0.78097481,0
-1.0566016,0.67531312,-5.5742159,-0.18493,0.11819559,-0.97561812,0
-1.5980659,-1.0716932,5.1516604,-0.29059613,-0.19487926,0.93679029,0
0.25254002,2.4148152,-4.9665651,0.045681484,0.43681133,-0.8983925,0
-1.1835525,1.6350138,5.1465421,-0.21409377,0.29575896,0.93096215,0
4.7854962,2.9107792,-1.0537368,0.83963865,0.51071042,-0.18488327,0
4.2394247,2.0670609,2.9494863,0.76210034,0.37158528,0.53021449,0
-5.1216764,-1.7016021,0.087968566,-0.94886941,-0.31524798,0.01629753,0
-3.2986693,-0.63761675,-4.2509327,-0.60879916,-0.11767792,-0.78454792,0
-4.2239194,3.3501668,0.43727693,-0.78091854,0.6193791,0.080843791,0
1.7652527,-4.9786358,1.53495,0.32090729,-0.90507185,0.27904031,0
3.6640415,2.7622612,-3.3748214,0.64326286,0.48494539,-0.5924871,0
4.6376576,2.4793167,1.8138747,0.83368754,0.44569385,0.32607082,0
1.0735894,-4.3636966,-3.483505,0.18881671,-0.76746172,-0.61265874,0
-2.8160565,-4.0386887,-2.4681864,-0.51130825,-0.73330021,-0.44814584,0
-1.2903142,4.0028162,3.8081729,-0.22742462,0.70551729,0.67121041,0
-0.75866234,-5.257884,-0.91134906,-0.14075521,-0.97549921,-0.16908328,0
2.4016554,-4.1261034,2.8414834,0.43228042,-0.74266845,0.51144624,0
-1.8641247,-4.8013892,-2.4265742,-0.32740965,-0.84330261,-0.42619672,0
3.6756959,4.058589,1.3395618,0.65205014,0.71997344,0.23763159,0
-4.5844822,-2.4991026,1.5964047,-0.83965021,-0.45771191,0.29238233,0
-2.3388553,1.3270558,-4.8267565,-0.42329952,0.24017823,-0.87357426,0
-0.71772873,-0.84395909,5.4731812,-0.12852885,-0.15113382,0.98012191,0
-4.5242429,-2.1426866,2.2998283,-0.82124567,-0.38894287,0.41746742,0
1.2045027,5.3028812,0.94053912,0.21825863,0.96089417,0.17042783,0
-1.9719249,-2.5233772,-4.5893683,-0.35236424,-0.45090351,-0.82007647,0
-3.8860686,-2.2839613,3.160953,-0.70586252,-0.414857,0.57415313,0
1.0492368,5.3704758,-0.27452332,0.19150524,0.98021179,-0.050105616,0
0.070376612,4.8346481,-2.8872652,0.012496704,0.85848361,-0.51268876,0
-0.18929282,0.37461844,5.5787649,-0.033835325,0.066961534,0.99718171,0
2.8875773,4.5466714,0.66326898,0.53209496,0.83781683,0.12222082,0
-3.6148376,3.3326373,2.3955355,-0.66094488,0.60934675,0.438005,0
-5.0746894,-0.10895436,2.2671866,-0.91284859,-0.019599,0.40782756,0
-0.3243013,-3.9670508,-3.8435898,-0.058610518,-0.71695954,-0.6946466,0
2.6503813,-0.95114779,4.8624206,0.47168821,-0.16927572,0.86536467,0
-5.5499849,0.16759515,0.69212055,-0.9918685,0.029951856,0.12369269,0
-4.7322292,1.9109809,2.0416505,-0.86091518,0.34765697,0.37142915,0
3.9947829,3.0857301,2.4686792,0.71092802,0.54914927,0.43933633,0
-1.8744763,5.3558021,-0.21994802,-0.33009401,0.94315308,-0.038732696,0
0.02914758,0.065721825,-5.5664296,0.0052358783,0.011805833,-0.99991655,0
3.7404134,-3.642755,1.7974193,0.6773814,-0.65969568,0.32550904,0
0.74560028,1.5566248,-5.1445494,0.13740338,0.28686351,-0.94806623,0
-4.7710013,3.1339896,0.64646387,-0.83049625,0.54553884,0.11253106,0
-1.7795165,3.5465343,3.8469629,-0.32198909,0.6417166,0.69607675,0
-1.8468379,2.2272084,4.7722731,-0.33092427,0.39908069,0.85511625,0
3.5850296,-3.7853532,-1.9726746,0.64313579,-0.6790728,-0.35388765,0
-4.2708573,3.6760874,0.8335492,-0.74975055,0.64533848,0.14632986,0
-2.4063215,-4.2060795,-2.492002,-0.44160819,-0.77189982,-0.45733228,0
3.82534,0.021871233,-3.8901765,0.70113426,0.0040087081,-0.71301794,0
-0.30841896,2.5985186,-4.719871,-0.057149321,0.48149949,-0.87458122,0
4.6269484,-2.5154724,-1.1127007,0.85958284,-0.46731815,-0.20671475,0
0.548729,-4.0403252,-3.8637896,0.09768533,-0.71926302,-0.68783599,0
0.46857959,5.0964189,1.923605,0.085703067,0.9321335,0.35182679,0
-2.2004275,-2.0828581,-4.903162,-0.38176802,-0.36137006,-0.85068494,0
1.4169174,4.8963385,-2.4004016,0.25148711,0.86904562,-0.42604458,0
-1.5199268,-3.3996212,4.1219792,-0.27361289,-0.61199015,0.74202698,0
-5.6207962,-0.44035295,-0.47360292,-0.99344635,-0.077830084,-0.083706841,0
3.8556151,3.7042933,1.4574314,0.69573206,0.66842657,0.26298833,0
5.5224624,-0.4049542,0.86284506,0.9854303,-0.072260179,0.1539664,0
3.5656915,-3.1714618,-2.6743581,0.65182376,-0.57975686,-0.48888418,0
-0.074618995,5.0103936,2.1168904,-0.013717368,0.92107129,0.38915244,0
0.70559955,4.9404483,-2.2575581,0.12881896,0.90196121,-0.41215488,0
0.16490228,2.0773771,5.3320823,0.028804699,0.36287078,0.93139416,0
-0.75356805,0.029650489,-5.4451852,-0.13708313,0.0053937817,-0.99054492,0
0.21765502,4.3371716,-3.3567412,0.039654907,0.79019606,-0.61156988,0
-2.6777408,2.3359544,-4.4369798,-0.47105837,0.41093254,-0.78053725,0
2.7884617,-2.1469998,-4.0984306,0.51618481,-0.39744088,-0.75867909,0
2.0967007,-0.18285947,-5.009635,0.38586366,-0.033652309,-0.92194182,0
3.4166582,1.3542657,4.1646466,0.61512136,0.24381652,0.7497862,0
-0.86964935,2.6186218,-4.9003515,-0.15463783,0.46563366,-0.87136239,0
4.7180185,1.9761044,2.5909853,0.82282531,0.34463382,0.45186943,0
3.3229952,0.94116598,-4.4694848,0.58830768,0.16662534,-0.79128385,0
3.1139624,-1.2198371,-4.3090982,0.57088327,-0.22363295,-0.78998774,0
2.0153315,5.0954552,-1.8370874,0.34871653,0.88167602,-0.31787461,0
-1.0186964,-5.292624,-0.84250361,-0.18673792,-0.97019446,-0.1544399,0
0.092160247,5.430068,0.90035164,0.016741261,0.98639262,0.16355231,0
5.4751625,0.91313714,-0.87932688,0.97422755,0.16247982,-0.15646376,0
-4.7626843,1.7658182,2.5543389,-0.83767647,0.31057787,0.44926548,0
2.2984693,-1.2142417,4.9307547,0.41235405,-0.21783954,0.88459599,0
2.7179673,4.9821916,-0.086138919,0.47885242,0.87776423,-0.015175984,0
4.6689901,-2.8791459,0.09775079,0.85104102,-0.52479684,0.017817544,0
3.1167734,4.4379873,1.6304948,0.55038393,0.78369409,0.28792539,0
-3.3365564,3.6381681,-2.6345708,-0.59629071,0.6501931,-0.47083578,0
3.5657511,2.2308562,3.5888481,0.64490432,0.40347424,0.64908165,0
5.2870183,1.1427042,0.21565716,0.97665483,0.21108828,0.039837692,0
4.973496,2.1320999,-1.1162616,0.90015191,0.38588828,-0.20203193,0
-0.36295149,-1.6933669,-5.4570379,-0.063394867,-0.29577169,-0.95315272,0
0.62809801,-1.4005303,5.3171058,0.11349348,-0.25306728,0.96076858,0
-3.2693901,3.8717425,-2.4244368,-0.58199275,0.68921906,-0.43158036,0
-3.912056,-2.9818358,-2.9432852,-0.68246669,-0.5201878,-0.51346254,0
1.4913682,-0.61800951,5.4874029,0.26073146,-0.10804477,0.95934635,0
1.0779048,3.6194253,-3.990489,0.19618995,0.65877324,-0.72631073,0
-3.3740215,1.5167248,-4.1354876,-0.60808748,0.27335373,-0.74532372,0
5.3374319,-1.877054,-0.2072811,0.94273144,-0.33153731,-0.036611319,0
-5.5886402,-0.079136744,-0.070408888,-0.99982041,-0.014157743,-0.01259631,0
-1.8013893,5.3410525,0.55729127,-0.31803435,0.94296002,0.098389484,0
-3.6675012,-1.3058771,3.708724,-0.68209106,-0.2428703,0.68975782,0
3.3538468,-2.7198398,-3.3849375,0.61127108,-0.49571717,-0.6169377,0
2.9122498,4.4319606,0.98128211,0.5399875,0.82177132,0.18194871,0
4.8816247,2.4484928,-0.8395716,0.88348496,0.44313249,-0.15194713,0
-2.7117708,-3.8043346,2.9863734,-0.48906332,-0.68610537,0.53858745,0
-2.3664336,-1.4496533,-4.7866797,-0.4276965,-0.26200253,-0.86511874,0
-5.5612516,0.10864811,-0.68778014,-0.99225259,0.019385271,-0.12271547,0
1.014522,1.5317795,5.1689453,0.18493725,0.27922815,0.94224727,0
-0.14330816,5.4165998,0.96805048,-0.02603572,0.98406875,0.175872,0
-2.370502,5.0059624,-1.2104363,-0.41810921,0.8829518,-0.21349679,0
3.6895583,-0.58406025,4.3351388,0.64474201,-0.10206322,0.75755578,0
5.0690455,-2.3933156,-0.26290062,0.9032833,-0.4264791,-0.046847824,0
-0.82377529,-0.92560142,5.4866858,-0.14645255,-0.16455543,0.97543484,0
-4.0648103,2.5515032,-2.5978327,-0.74484581,0.46754372,-0.47603324,0
3.7328148,3.4563463,-1.9449074,0.68537718,0.63461512,-0.35710186,0
-4.3446846,-2.9370763,-1.4308094,-0.79924536,-0.54030263,-0.26321074,0
-2.3108087,5.0377622,1.2590989,-0.40656912,0.88635576,0.22152883,0
3.8228145,4.0753369,-0.88931328,0.67564559,0.72027653,-0.15717755,0
2.7621713,-4.8480296,-0.44702095,0.49345884,-0.86609513,-0.079859793,0
4.1102624,-2.152189,-2.6866674,0.76664317,-0.40142474,-0.50111526,0
-3.8017297,-3.5061932,-2.1277783,-0.67981333,-0.62696642,-0.38048261,0
-0.77475637,-4.4281726,-3.2152486,-0.14017881,-0.80120158,-0.58174384,0
2.6562538,4.0742989,2.4568799,0.4874734,0.74771178,0.45088446,0
-0.77470827,3.0004137,4.6175098,-0.13931248,0.53955156,0.830347,0
4.1711035,-0.95134002,-3.414607,0.7620098,-0.17379823,-0.62380713,0
-0.38943329,3.593677,4.2837753,-0.069478653,0.64114666,0.76426685,0
3.8529069,3.7968185,0.85764742,0.70348495,0.69324398,0.15659398,0
1.6419849,-1.8746406,4.982553,0.29473704,-0.33649883,0.8943705,0
-2.1125524,-4.0858002,-3.2569995,-0.37483075,-0.72494465,-0.57789028,0
-2.7138035,3.3735173,-3.2480097,-0.50139761,0.62328517,-0.60009658,0
-4.5667696,-2.2521532,2.0817456,-0.83016753,-0.40940633,0.37842891,0
3.6737075,3.9892983,-1.5311235,0.65192664,0.70793056,-0.27170923,0
-4.4065499,2.4939327,-2.2795422,-0.79357123,0.44912988,-0.41052049,0
-0.85392779,4.2262325,3.5506442,-0.1528842,0.75664967,0.63569468,0
-2.6652699,-1.2319813,4.6388006,-0.4854787,-0.22440529,0.84495717,0
2.9842813,3.6496019,3.1417027,0.52676326,0.6442008,0.55455017,0
-4.5127659,3.286727,0.21787356,-0.80771923,0.58827615,0.03899619,0
-5.6110482,-0.34049827,-0.84912211,-0.98696762,-0.059892688,-0.1493582,0
-1.0756024,-5.2640533,1.4373499,-0.19339252,-0.94647294,0.25843444,0
-4.1047664,-3.2427788,1.760082,-0.74371219,-0.58753502,0.3188962,0
-2.6820333,-3.5719671,3.2956688,-0.48316151,-0.64348084,0.59370643,0
1.1676192,-2.9511847,4.5320139,0.2110355,-0.53339714,0.81911623,0
-4.2610612,1.9735391,3.0424759,-0.7615335,0.35270935,0.54374892,0
3.0322137,2.2085328,4.1147547,0.54457408,0.39664409,0.7389943,0
4.2918859,-3.0874617,1.3971201,0.78483582,-0.56458873,0.2554844,0
-0.43868047,-5.4079595,0.79346836,-0.080001041,-0.9862358,0.14470281,0
4.1341624,-0.58497852,3.7628593,0.73552048,-0.10407518,0.66946089,0
-2.2648807,-0.30173028,-4.8776417,-0.42048997,-0.056018203,-0.90556616,0
-0.19078642,4.8503337,2.5743151,-0.034723334,0.88276595,0.46852812,0
2.9605265,-4.5194898,-0.36421657,0.54671824,-0.83461088,-0.067259602,0
-4.780468,-3.2589681,-0.17464711,-0.82588667,-0.56302822,-0.03017251,0
0.43883637,-1.0762843,-5.2615428,0.081441022,-0.19974117,-0.97645831,0
-1.8996071,-4.2484136,2.6876521,-0.35347417,-0.79053426,0.50011164,0
3.4436982,2.050369,3.9450839,0.61234719,0.36458993,0.70150197,0
-2.0288732,-4.8177543,-1.2364274,-0.37769225,-0.89686656,-0.23017164,0
-2.0456264,1.9642043,4.8787665,-0.36249778,0.34806928,0.86454791,0
0.12317958,-0.91562366,-5.6612911,0.021474149,-0.15962255,-0.9869445,0
2.4138336,-1.0795884,-4.7243481,0.44584903,-0.19940622,-0.87261438,0
2.6418025,4.3674235,-2.1360455,0.4774465,0.78931373,-0.38604227,0
0.77005512,-4.3568773,-3.5895009,0.13516004,-0.76471895,-0.63002908,0
-3.6038635,1.667196,3.72962,-0.66153848,0.30603665,0.68462282,0
3.7698874,0.51441252,4.0763068,0.67607898,0.092253014,0.73103118,0
-2.7726026,-4.3638468,-2.32845,-0.48897037,-0.76959884,-0.41064054,0
3.6115906,-1.1003351,4.2921686,0.63179648,-0.192488,0.75085396,0
0.80641097,-4.2436237,3.569,0.14391845,-0.75735056,0.63695186,0
-4.2090011,2.4677088,2.7842379,-0.74925458,0.43928289,0.49562898,0
-4.1132975,0.64564055,-3.8101707,-0.72880572,0.11439642,-0.67509687,0
-1.9065841,-2.3934939,4.6151009,-0.34430903,-0.4322398,0.83343863,0
-3.4328749,4.6094494,-0.1377054,-0.59712905,0.80178744,-0.023953069,0
3.5481949,2.4722059,3.5736575,0.63247257,0.44067547,0.63701135,0
0.092711069,-5.6085863,-0.076338194,0.016526414,-0.99977082,-0.013607832,0
0.62740743,4.576231,-3.2388384,0.11121448,0.81118447,-0.57411772,0
5.0198307,1.4862583,2.3970623,0.87181419,0.25812444,0.41630745,0
-4.0032959,-2.9049287,2.2400386,-0.73728198,-0.53499711,0.41254511,0
4.4227781,0.77185625,-3.3219712,0.79190302,0.13820167,-0.59480238,0
-4.1772938,-0.5018757,3.638741,-0.75096571,-0.090223834,0.65414834,0
1.3176563,5.1655121,-0.86177039,0.24400464,0.95655364,-0.15958333,0
3.1121705,0.95182711,4.6048789,0.55191702,0.16879846,0.81663615,0
-4.3059559,-0.40735808,3.5037837,-0.77357596,-0.073182918,0.62946367,0
4.4589086,3.1061409,0.23834477,0.81974673,0.57104754,0.043818425,0
0.021338055,4.3993797,-3.3382432,0.0038637854,0.79661709,-0.60447192,0
-1.601594,0.36858943,5.2165985,-0.29283041,0.067391738,0.95378649,0
2.5349216,4.7570658,0.99597681,0.46244553,0.86783105,0.18169595,0
-2.4653468,-5.0671759,-0.25367174,-0.43705672,-0.89830899,-0.04497093,0
-5.6467991,-0.47052547,0.7395187,-0.98816621,-0.082339987,0.12941268,0
-3.2588155,-4.4881873,0.30339578,-0.58666706,-0.80798429,0.054618716,0
-2.6245141,-1.1962601,-4.7800264,-0.4701063,-0.21427563,-0.85620439,0
2.4962287,-4.7625904,0.74696237,0.45981607,-0.87728965,0.13759369,0
5.0916839,-1.8328358,-0.33343625,0.93911648,-0.33805048,-0.061499394,0
0.73155987,-0.2545726,5.3965869,0.13418457,-0.046694349,0.98985565,0
-0.24710278,-5.6176009,-1.0553402,-0.043190651,-0.98189038,-0.18446101,0
0.66973132,2.4251888,-5.1457872,0.11692376,0.42339692,-0.8983674,0
0.32564557,4.3585324,3.322993,0.059311178,0.79383761,0.60523051,0
-3.3787227,1.4856436,-4.1152587,-0.61120695,0.26875117,-0.74444544,0
2.8629575,4.646297,1.9412084,0.4942537,0.80212492,0.33512527,0
-1.0144714,4.7219076,-2.3218305,-0.18931034,0.88115442,-0.43327641,0
0.61317211,4.0519114,3.673785,0.11141098,0.73621649,0.66751242,0
-3.819818,2.3439143,-2.9663551,-0.71074277,0.43612552,-0.55194134,0
4.2779846,3.3186462,1.348765,0.76669675,0.59476495,0.24172451,0
-5.2581658,-1.2363409,-0.61166298,-0.96727145,-0.22743239,-0.11251911,0
0.052172679,-0.1595633,5.6848478,0.0091734994,-0.028055945,0.99956429,0
-0.35461551,5.455966,-1.6744,-0.06201607,0.9541533,-0.29282334,0
-1.5549372,-0.70376766,5.2856612,-0.27994704,-0.12670459,0.95161736,0
2.163451,4.060277,-2.9961433,0.39405066,0.73953831,-0.54571712,0
2.3986886,-3.1722922,-3.9283092,0.42909899,-0.56748819,-0.70273131,0
-0.15154795,-1.3994455,5.1534657,-0.028367819,-0.26195812,0.96466225,0
-0.39683452,4.6985273,3.0780442,-0.070473373,0.8344059,0.54662621,0
2.8001976,4.2751689,2.4693596,0.49334812,0.75321347,0.43505999,0
-0.91666639,-3.3679087,-4.1282496,-0.16956261,-0.62298715,-0.76363307,0
1.1457609,-1.4832287,-5.2737579,0.20471358,-0.26500911,-0.94226456,0
-5.1435838,2.1917872,0.44715491,-0.91703129,0.39076596,0.079721659,0
4.445478,2.7741909,1.5708051,0.81263459,0.50712287,0.28714359,0
4.5582733,-0.62346739,3.2055531,0.81291348,-0.11118795,0.57167202,0
-0.63231546,2.9681761,4.5620456,-0.11540188,0.54171234,0.83260441,0
-3.4088621,4.1395035,-1.4407778,-0.61391872,0.74550354,-0.25947675,0
3.7426381,3.5372219,-1.264644,0.70579886,0.66706085,-0.23849069,0
-0.84285605,5.4336967,-0.95104122,-0.15104087,0.97372532,-0.17042778,0
-3.2632983,4.5136147,0.3049964,-0.58502293,0.8091715,0.054677773,0
4.229753,2.6126654,-2.3756251,0.76764613,0.47416538,-0.43114561,0
-3.595135,-3.5502622,2.7716606,-0.62383711,-0.61605066,0.48094571,0
-0.64418197,-4.7935567,-2.5829365,-0.11748434,-0.87423724,-0.47106969,0
-2.4809899,3.8016727,3.4281363,-0.43613383,0.66829699,0.60263294,0
-4.9986382,-1.5322943,2.1457036,-0.88449508,-0.27113521,0.37967625,0
-4.3272343,-2.7431645,-2.2159705,-0.77519089,-0.4914169,-0.39697415,0
-5.3698907,1.1421,0.19948019,-0.97747678,0.20789552,0.036311217,0
-1.5563278,-4.9642377,1.573298,-0.28634387,-0.91335452,0.28946617,0
2.7035258,4.9074831,0.71266443,0.47866637,0.86888283,0.12617911,0
-3.1597953,-2.9884665,-3.417516,-0.57126313,-0.54028839,-0.61785674,0
