-5.4366083,-2.198266,-1.1588191,-0.9094938,-0.36774936,-0.19385961,0
-3.2856166,-4.8951354,-0.76410341,-0.55268097,-0.82342178,-0.12853156,0
-5.7952929,-0.96205539,-1.2567959,-0.9646703,-0.16014139,-0.20920317,0
5.5062628,-0.9520852,-2.0830891,0.92331016,-0.1596491,-0.34929997,0
5.2729988,-0.92680311,-3.2765253,0.84006816,-0.1476537,-0.52199984,0
-0.45946759,6.1189575,-0.86750919,-0.07414113,0.98737413,-0.139984,0
1.5264224,-5.8050475,-0.25136158,0.25408024,-0.96627772,-0.041840326,0
2.6217563,-2.9068842,-4.680922,0.42965406,-0.47638088,-0.76711065,0
3.8709333,-0.18235363,-4.5047445,0.65142769,-0.030687742,-0.75808984,0
5.2275028,0.42141619,-3.5579789,0.82485574,0.06649591,-0.56141895,0
-1.9560959,0.28729227,5.9187875,-0.31346366,0.046038482,0.94848353,0
1.227106,1.7469389,-5.5640893,0.20590454,0.2931309,-0.93363678,0
-2.1571691,-0.038655125,-5.6936946,-0.35428694,-0.0063486011,-0.93511522,0
-5.304729,1.2620603,-2.5791242,-0.87943357,0.20922805,-0.42757478,0
-1.8874665,-1.9839417,5.5805855,-0.30363536,-0.31915522,0.89774466,0
1.2392169,5.9264793,0.086208418,0.20465112,0.97873145,0.014236934,0
5.5597696,0.40899184,2.3258181,0.92041421,0.067708187,0.38503683,0
5.0099525,-1.5107212,3.1900389,0.81748718,-0.24650836,0.52052706,0
-0.029729081,-5.8470979,1.5870333,-0.0049068239,-0.96507114,0.26194191,0
3.6071866,4.7855554,-0.41547838,0.60048133,0.79664207,-0.069163874,0
-2.37641,5.0202746,-2.7954662,-0.38217452,0.80736113,-0.4495672,0
4.8258591,3.6984613,-0.65706909,0.78912002,0.60476899,-0.10744333,0
2.3450115,-3.1131809,4.7430229,0.38198632,-0.50711584,0.77260596,0
3.4898951,-4.4005513,-2.6478074,0.56204545,-0.70870608,-0.42642772,0
4.7920632,-2.3007665,-2.983443,0.78613013,-0.377437,-0.48942897,0
-1.4139667,-4.4447546,3.7250724,-0.2368772,-0.7446152,0.62404919,0
-0.57247937,-6.0788932,-0.86820382,-0.092826344,-0.98567998,-0.14077745,0
-4.3075233,-4.2886744,-1.4460669,-0.68941468,-0.68639797,-0.23144153,0
3.3768888,-5.345778,-0.50129706,0.53239113,-0.84280092,-0.079033136,0
5.5745511,-1.7250317,1.2787868,0.93316197,-0.28876477,0.21406481,0
4.9739857,-2.8369613,-2.1549201,0.81297982,-0.46369097,-0.35221383,0
3.7350767,0.86283207,4.9116359,0.59948027,0.13848464,0.78831816,0
3.6088545,-4.7226062,0.95485359,0.59949249,-0.78450572,0.15861753,0
-1.5348779,1.753987,-5.8171458,-0.24492608,0.27989012,-0.92826325,0
3.615664,-4.1599841,-2.3240499,0.60446298,-0.69546187,-0.38853228,0
4.8689609,3.3248706,-0.89802873,0.81640667,0.55750018,-0.15057765,0
0.10107642,5.0746236,3.420516,0.016514089,0.82910329,0.55885154,0
4.9214177,0.50844812,-3.7016611,0.79646307,0.082285263,-0.59906238,0
2.3861995,-5.4305849,1.4103543,0.39136803,-0.89068717,0.23131661,0
-3.136646,-4.1955771,3.2146089,-0.51034343,-0.68263531,0.52302831,0
-3.4849854,-2.6495221,-3.948566,-0.59113193,-0.44941854,-0.66976559,0
-4.6217852,0.98254728,3.7736092,-0.76430821,0.1624846,0.62404466,0
-1.8523256,-5.5058513,1.9527013,-0.30224761,-0.8984006,0.31862614,0
-1.304942,1.9380957,5.5387731,-0.2170774,0.32240266,0.92137617,0
-3.4737115,-1.0332961,-4.8125267,-0.57659602,-0.17151523,-0.79882389,0
3.7142272,-4.3705177,-1.9203748,0.61407077,-0.72257489,-0.31749433,0
5.5031896,2.9440267,0.54074126,0.87846297,0.46994901,0.086317427,0
-0.76722133,-2.512089,-5.3235722,-0.12924238,-0.42317432,-0.89678311,0
-3.9842188,4.4125667,-1.1720039,-0.65750897,0.72819853,-0.19341384,0
-3.7483761,0.066444844,-4.8887014,-0.60843414,0.010785287,-0.79353106,0
5.6158571,-2.4861197,-0.92043996,0.90430427,-0.40033224,-0.14821562,0
-5.6416755,-2.7663276,0.066997901,-0.89781934,-0.4402349,0.010662084,0
-1.6025906,3.4014721,-4.6864433,-0.26672432,0.56611794,-0.77997988,0
2.5527837,-1.9761578,-5.0419283,0.42639506,-0.33008042,-0.8421604,0
2.9771113,-4.1691809,-3.0456758,0.49951673,-0.69952893,-0.51102084,0
0.13360833,-2.4828861,5.5963302,0.021817716,-0.40544558,0.91385877,0
1.1827097,-5.9021969,-0.87345201,0.19444247,-0.97034603,-0.1435992,0
-1.1117365,-1.751532,5.723454,-0.18261604,-0.2877101,0.94014585,0
5.7196159,1.1513722,1.941371,0.93018997,0.18724944,0.31572816,0
2.8534093,-5.6399212,-0.43740028,0.45036507,-0.89017147,-0.069036648,0
-1.5206271,5.6698837,-1.668722,-0.24916758,0.92905825,-0.27343419,0
-3.0618014,4.4634609,2.7754507,-0.50335544,0.73378605,0.45627981,0
-3.2899697,-4.3304243,2.5990744,-0.54581976,-0.71843559,0.43119735,0
-4.0734215,4.4444761,0.76204681,-0.67032933,0.73139077,0.12540375,0
1.3462982,4.83741,-3.1529884,0.22706567,0.81587404,-0.53178072,0
-4.6765242,-0.52073097,3.9428678,-0.76177371,-0.084823504,0.64226615,0
-3.0271313,-4.3661399,2.9465799,-0.49827021,-0.71867293,0.48501134,0
0.40191633,5.7057581,1.7220675,0.067283198,0.95517802,0.28828439,0
-0.65976447,3.5100813,-5.0211883,-0.10707261,0.56964809,-0.81488436,0
5.7972112,-2.1651423,-0.41732299,0.93467361,-0.34908187,-0.067284212,0
0.90841967,-1.3067467,6.0443153,0.14533959,-0.20906861,0.96704018,0
2.1880574,5.2214127,1.6739056,0.37062991,0.88444287,0.28353894,0
-5.8040624,1.8918964,0.31658405,-0.94948924,0.30949619,0.051790129,0
-5.6744537,-0.04022136,2.5926261,-0.90954101,-0.0064469599,0.41556421,0
-2.5812049,0.36198643,5.5402822,-0.42157432,0.059121296,0.90486449,0
2.8160772,-4.9134068,-2.2851069,0.46113446,-0.80457354,-0.37418771,0
0.36386111,4.9436612,3.7713711,0.058417827,0.79370379,0.60549289,0
-3.4436405,-5.1075792,0.50954753,-0.55712664,-0.82632565,0.08243674,0
-0.4981361,-6.1199422,-0.96093363,-0.080151655,-0.98471785,-0.15461722,0
4.4946389,1.5610259,-4.0791402,0.71716708,0.24907814,-0.65086985,0
-1.4922086,-5.8282399,1.8010108,-0.2376119,-0.92806005,0.28678405,0
-0.057105735,-0.10337636,-6.2516003,-0.0091329496,-0.016533034,-0.9998216,0
-3.5378125,3.2233634,3.6044695,-0.5904693,0.53798699,0.60159451,0
-4.3809791,-4.0460544,-1.1490191,-0.72136235,-0.66621441,-0.18919496,0
-3.0687869,2.0712173,-4.7103543,-0.51221323,0.34570822,-0.78620827,0
-3.0588262,5.3033295,-1.3186721,-0.48842466,0.84682053,-0.2105618,0
4.5847158,-3.7237887,-2.1491759,0.729433,-0.59245861,-0.34193608,0
-1.362677,-5.6837196,1.0496416,-0.22947291,-0.95713043,0.17675819,0
-0.24992381,5.6346378,2.4448543,-0.040656071,0.91660827,0.39771387,0
-4.2059298,-3.0222774,-3.2308097,-0.68901414,-0.49510857,-0.52927029,0
2.6121519,2.6163044,5.0412211,0.41783842,0.41850266,0.80639106,0
2.8927996,4.195313,3.2197464,0.47990087,0.69598126,0.53413969,0
-0.47640261,4.9641395,3.8049207,-0.075948283,0.79138499,0.60658193,0
1.9009401,3.0394137,5.0716639,0.30607268,0.4893797,0.81659478,0
5.2178316,-1.2539577,2.7201076,0.86726701,-0.208423,0.45211491,0
-3.4073811,4.8770456,-1.2350773,-0.56076717,0.80263609,-0.20326191,0
3.2552032,-3.3444383,-3.9659617,0.53149831,-0.54606831,-0.64754844,0
-4.6367612,-3.4473431,-1.6780275,-0.77066106,-0.5729717,-0.27889952,0
-1.7214407,3.0248275,-4.7977848,-0.29043075,0.51033008,-0.80945235,0
-0.80294067,-5.5726776,2.6223361,-0.12927791,-0.89723206,0.42221069,0
2.6908062,-3.9543021,3.6658463,0.44651616,-0.65618241,0.60831571,0
0.56581104,-4.6583686,4.2967987,0.088927276,-0.73214555,0.67531836,0
5.7554927,-0.80558974,-1.3121977,0.96602762,-0.13521378,-0.22024512,0
0.91427147,-5.8457513,-0.42439842,0.15412492,-0.98545778,-0.071543708,0
0.51787603,3.1980054,-5.0936961,0.085788608,0.52976471,-0.84379482,0
-5.7228384,0.98484063,2.3826175,-0.91175109,0.15690282,0.37959382,0
-0.25200924,-0.0375898,6.0000262,-0.041963536,-0.006259298,0.99909949,0
3.9473064,3.5467079,-2.9673495,0.64923567,0.58334696,-0.48805666,0
-3.9239566,3.207556,-3.4524143,-0.63988411,0.52305984,-0.56298918,0
4.874402,-2.3772597,2.7935259,0.79902923,-0.38968882,0.45792466,0
5.4044895,-1.731342,-1.6617839,0.91394883,-0.29278585,-0.28102294,0
-5.5179405,2.4902921,0.6123479,-0.90684742,0.40926772,0.10063648,0
5.7802215,-1.2772824,-1.5555873,0.94438154,-0.20868437,-0.25415426,0
0.68012196,4.256722,4.476768,0.10943591,0.68493336,0.72034019,0
-4.3254676,-1.906791,-3.7050114,-0.7201851,-0.31747839,-0.61687994,0
-1.1723666,-4.6750169,-3.7417405,-0.19213744,-0.76618165,-0.61322832,0
-2.3079417,5.013556,-2.7039614,-0.37551716,0.81573826,-0.43995214,0
-3.469738,3.4451096,3.4671686,-0.57885981,0.57475102,0.57843113,0
-5.9944596,1.231612,1.003643,-0.96662563,0.19860134,0.16184062,0
-4.6757059,-3.3314996,-2.4050055,-0.75117028,-0.53521836,-0.38637346,0
0.58417308,-2.6719007,5.4440546,0.095884636,-0.43855876,0.89357281,0
1.6648527,-5.6791644,1.4401375,0.27333599,-0.93240684,0.23644219,0
3.5971205,4.7800956,-1.0110097,0.59288132,0.78786051,-0.16663571,0
-3.6166701,4.8537655,-0.053428795,-0.59747279,0.8018406,-0.0088264206,0
2.4423463,4.6936197,2.818346,0.40740761,0.78294235,0.47012809,0
-0.92205399,5.8859353,0.89917701,-0.15303314,0.97688764,0.14923625,0
0.88977838,-0.51797205,6.1214728,0.14334041,-0.083443619,0.98614943,0
5.3792772,-0.82456857,2.7449918,0.88254255,-0.13528153,0.4503527,0
1.9716187,-1.540746,-5.5016851,0.32621187,-0.25492233,-0.91027492,0
3.5240414,-2.9374778,-4.1220303,0.57138354,-0.47627887,-0.66834068,0
2.4223833,-5.4996638,0.72798866,0.40016598,-0.90851784,0.1202602,0
-1.5534072,-5.8170557,0.33561611,-0.25760269,-0.96464676,0.055655476,0
-3.1370168,-2.9257181,-4.0731411,-0.53031945,-0.49459895,-0.6885733,0
-2.5896327,-0.7683841,-5.3502989,-0.43207195,-0.12820242,-0.89268023,0
2.3367364,5.697021,-0.6380083,0.3774657,0.92027068,-0.10306094,0
5.3652349,1.94138,-2.3200941,0.87107223,0.31519258,-0.37667868,0
-0.57090288,5.6750822,1.61514,-0.096306175,0.95733529,0.27245957,0
0.19474985,-5.8965011,-0.42345482,0.032925334,-0.99689049,-0.07159128,0
0.29587626,5.8194818,1.0125042,0.050027173,0.98396617,0.17119564,0
-1.393587,-5.647018,-1.4605356,-0.23238051,-0.94163978,-0.24354419,0
-4.2678595,-1.0324305,4.4901271,-0.67956632,-0.16439272,0.71495777,0
-4.602427,4.1888814,-0.32903242,-0.73852003,0.67216116,-0.052797582,0
-4.3970742,-2.0280468,3.3547399,-0.74643087,-0.34427366,0.56948811,0
5.5273247,2.2040789,1.7917342,0.88942868,0.35466903,0.28831667,0
0.2565141,-5.4324884,-2.5811639,0.04261047,-0.90241003,-0.42876634,0
0.85061127,5.8312554,0.2207374,0.14424227,0.9888342,0.037431508,0
-3.4972777,1.28269,-4.934917,-0.5656268,0.20745388,-0.79814112,0
-0.13783769,6.1211848,-0.36894915,-0.02247167,0.99793637,-0.060149755,0
3.2537458,-3.1933393,4.1896658,0.52549827,-0.51574224,0.67665458,0
-2.6215942,-1.7964315,5.1299047,-0.43443045,-0.29769084,0.85008842,0
-5.6622114,-1.763552,-1.6367198,-0.92035508,-0.28665373,-0.266038,0
-3.7313716,1.2212884,-4.6970563,-0.60951722,0.1994967,-0.76726121,0
-3.3934648,2.1547074,-4.2296929,-0.58155829,0.36926505,-0.7248677,0
-0.098568574,5.2252946,-2.8501995,-0.016558068,0.87777245,-0.47879151,0
4.1730332,3.0213203,3.4038649,0.67581034,0.48929384,0.55124581,0
-1.7461091,-5.3883381,-2.3061857,-0.28551334,-0.88106889,-0.37709373,0
2.7742381,0.78837812,5.3038993,0.4595145,0.13058403,0.87851816,0
-0.72753817,4.2087774,-4.2450256,-0.12081525,0.69891107,-0.70493048,0
-3.9684389,-0.064739689,4.508502,-0.66067934,-0.010778085,0.75059086,0
3.8868067,-2.6147125,-3.8323045,0.64220142,-0.43201843,-0.63319623,0
-2.6613164,4.6586447,2.9518669,-0.43459639,0.76076263,0.48204365,0
2.551008,2.668416,4.7238441,0.42550623,0.44508979,0.78793365,0
0.67750353,-4.219945,4.2316079,0.11264621,-0.7016359,0.70357502,0
5.8613653,0.046533573,0.66397744,0.99361396,0.0078883339,0.11255693,0
4.4026299,-4.046731,-0.22371981,0.73572356,-0.67624927,-0.037385821,0
3.2590227,2.5797205,-4.6935563,0.5198282,0.41147658,-0.7486425,0
1.6358255,1.0971168,-5.6766319,0.27224562,0.1825899,-0.94474506,0
-4.6406465,1.6490949,-3.938498,-0.7358982,0.26150796,-0.62455386,0
-1.8724164,-5.7890453,-0.38584054,-0.30712745,-0.9495616,-0.063288391,0
5.8179007,1.6482431,0.54313034,0.95827597,0.27148482,0.089459889,0
-2.2231417,3.1747527,-4.7845697,-0.36105224,0.51559991,-0.77704436,0
2.0485611,-5.7152667,1.0506817,0.33247447,-0.92756826,0.17052205,0
-4.8430052,3.5564697,1.0237746,-0.79456234,0.58348835,0.16796447,0
-4.0076027,3.3566999,-2.6318805,-0.68473411,0.57352167,-0.44967991,0
0.7276758,5.633522,2.5973694,0.11650284,0.90194196,0.41584581,0
-3.3856139,-1.443112,-4.7611418,-0.56260377,-0.23980886,-0.7911818,0
2.5871105,4.9125123,2.6389048,0.42085072,0.79912871,0.4292762,0
-5.3040843,-1.5737232,-2.9399772,-0.8465876,-0.25118276,-0.46925125,0
-2.2477322,5.6836367,0.88061553,-0.36400098,0.9204163,0.14260815,0
-5.7113791,-1.9408699,-1.4790072,-0.91958529,-0.31249815,-0.23813397,0
-0.70360833,-4.7581697,-4.0827603,-0.11152357,-0.75418103,-0.64712709,0
5.1496372,-2.6293972,2.0510223,0.83937591,-0.42858413,0.33431068,0
0.56684852,4.1545458,-4.2333593,0.095133863,0.69725502,-0.71048224,0
6.1706057,0.49955294,-0.62714881,0.99166358,0.08028198,-0.10078762,0
0.59028083,-3.2924235,-4.9557066,0.098726958,-0.5506717,-0.82886285,0
0.3546209,-0.81787086,5.9483657,0.058958132,-0.13597658,0.98895615,0
-5.0646467,-3.5220659,-0.898691,-0.81241822,-0.56497335,-0.14415871,0
-0.86954665,-2.096256,5.6765041,-0.14223725,-0.34289786,0.92854166,0
3.457552,4.3161349,2.2942944,0.5774833,0.72088456,0.38319501,0
-2.2936161,-5.3637795,-1.4341903,-0.38180453,-0.89287621,-0.23874106,0
0.3370125,-5.7724276,-1.2689083,0.056929227,-0.97509688,-0.21434803,0
-0.32540613,-5.5635734,1.9189612,-0.055207811,-0.94390571,0.32556745,0
-0.41553515,-3.6748068,4.824688,-0.068355612,-0.60450643,0.79366207,0
-4.7975144,-2.5425465,-2.3752892,-0.80951035,-0.42901751,-0.40079531,0
4.6322803,0.54502469,4.0011606,0.75379592,0.088690095,0.65109587,0
-5.4906468,-2.7224295,0.19161259,-0.89547884,-0.44400564,0.031250421,0
3.5490265,-1.8150704,-4.5705986,0.58519518,-0.29928502,-0.75364113,0
-1.7042196,2.8073046,-5.1712017,-0.27819908,0.45826814,-0.84415382,0
-2.4783201,0.92768925,-5.66256,-0.39650705,0.14842123,-0.90595436,0
0.15716633,-5.6935754,-2.519949,0.02523425,-0.9141469,-0.40459698,0
4.2330661,4.3177567,1.3136095,0.68411148,0.69779843,0.21229419,0
4.764719,0.56977612,-3.870604,0.77285033,0.092419237,-0.62782246,0
4.5072145,3.9585547,0.24439901,0.75073475,0.65934837,0.040707808,0
-4.4712114,-2.7120278,3.4012411,-0.71674585,-0.43474454,0.54522705,0
-4.6252866,1.0153625,-3.6229293,-0.77574635,0.17029512,-0.60763246,0
2.8636787,-4.5974174,-2.5982764,0.47669786,-0.765302,-0.43251809,0
3.6326058,1.6133513,-4.638463,0.5946781,0.26411474,-0.75934267,0
-4.1675277,-0.6421175,-4.4039598,-0.68351853,-0.10531405,-0.72229588,0
5.4484816,1.5259572,-2.3665271,0.88837284,0.24880674,-0.38586134,0
-5.5641665,1.8408858,-1.8819212,-0.90393108,0.29906255,-0.30572897,0
4.6349044,0.62182468,-3.9870749,0.7542088,0.10118561,-0.64879161,0
3.1674695,-1.7787336,-4.7787805,0.52766615,-0.29631776,-0.79609311,0
-5.595439,-1.6776038,-1.4997294,-0.92778575,-0.27816531,-0.24867176,0
-1.2798541,4.5670452,3.9053879,-0.20831166,0.74334162,0.63564891,0
-0.046256807,1.8803265,-5.9232545,-0.0074431072,0.30256027,-0.95310116,0
1.8842647,5.7013612,0.95005339,0.30994478,0.93782318,0.15627533,0
0.51864707,5.9898305,-1.1161724,0.084815904,0.97953492,-0.18253101,0
-2.3976595,-5.2112989,2.5656948,-0.38154727,-0.82929075,0.40828726,0
-2.7966483,-1.7800095,-4.9970689,-0.46636477,-0.29683167,-0.83330357,0
-5.9022002,-0.41844043,-1.5920682,-0.96323794,-0.068289399,-0.25982523,0
1.0742599,-5.4747672,-2.645359,0.17398196,-0.88666701,-0.42842963,0
0.53996193,-5.166626,-3.1021113,0.089242376,-0.85391575,-0.51270241,0
2.2180805,-0.25515744,-5.6021771,0.36779803,-0.042309739,-0.92894268,0
4.6500521,0.75611722,-3.4844322,0.79356629,0.12903708,-0.59464449,0
-3.7431369,2.7878304,-4.2623496,-0.59220701,0.44106659,-0.67435241,0
3.33323,3.722038,-3.1797419,0.56281805,0.62846851,-0.53690147,0
-1.5843178,-5.7057891,0.9039517,-0.26448229,-0.95251101,0.15090357,0
4.64855,2.6986668,2.9091763,0.76057559,0.44154418,0.47598684,0
-0.18234134,2.988296,-5.1358852,-0.030672481,0.50267512,-0.86393106,0
0.80952811,-5.0507836,3.1237247,0.13506511,-0.84269422,0.5211755,0
0.33066174,5.9996815,-0.34876201,0.054937243,0.99680704,-0.05794448,0
-5.9125514,1.203526,1.3488617,-0.95630091,0.19465928,0.21816599,0
-3.2970636,-0.54908782,5.1743464,-0.53523487,-0.089137182,0.83998704,0
3.4371269,-4.8116212,0.0081820441,0.58126616,-0.81371236,0.001383698,0
2.8796301,-3.0321136,-4.5783401,0.46441308,-0.48900488,-0.73837298,0
5.4831223,-2.773586,0.71932811,0.8862806,-0.44831672,0.11627071,0
1.0729121,-5.1556048,-2.7025087,0.18126476,-0.87102145,-0.45657942,0
-3.9300141,-0.33839414,-4.81604,-0.631302,-0.054358304,-0.77362972,0
-5.1631312,-2.6932464,0.96067125,-0.87480056,-0.45632258,0.16276862,0
-4.545579,-1.0932114,-3.951448,-0.7425738,-0.17858894,-0.6455155,0
-1.1324908,-4.978652,-3.136168,-0.18899783,-0.83087164,-0.52338529,0
-5.8020048,1.2246357,0.16438207,-0.9780665,0.2064416,0.027710523,0
-1.5779223,2.6160681,-5.1665869,-0.26288751,0.4358463,-0.86077183,0
1.8860004,5.4709492,1.5929494,0.31422096,0.91149867,0.2653966,0
4.436151,-4.4549785,0.3054035,0.70477682,-0.70776796,0.048519831,0
-0.2632187,-3.6417205,4.8295293,-0.043475602,-0.6014998,0.79768908,0
-1.0512558,-0.37412697,5.9367619,-0.17402834,-0.061934207,0.98279107,0
0.91617411,5.7327347,-1.9713123,0.149432,0.9350341,-0.32152966,0
-0.36471677,2.5006692,5.4474859,-0.060734298,0.41642284,0.9071402,0
4.7751245,-1.7196232,-3.4927752,0.77505189,-0.27911255,-0.56691337,0
0.98272461,-3.214375,-5.0763631,0.16141194,-0.52795923,-0.83378971,0
-3.4371092,-0.21824586,-5.2312613,-0.54878008,-0.034845848,-0.83524024,0
-5.1564851,-2.3193698,-2.5932386,-0.82896012,-0.3728635,-0.41689083,0
-3.4726288,1.9510261,-4.4959645,-0.57813466,0.32481325,-0.74850297,0
-0.74332172,-3.8552969,4.5879431,-0.12309441,-0.63843888,0.75976545,0
5.5677724,0.12812734,2.8432758,0.89040804,0.020490352,0.45470172,0
-2.329376,-0.65818745,-5.5482183,-0.38481361,-0.10873276,-0.91656727,0
6.0505638,-0.17676404,-0.24945626,0.99872577,-0.029177248,-0.041176062,0
1.5321369,2.7605968,5.0571032,0.25699389,0.46305034,0.84825617,0
2.8213313,1.5151229,5.158783,0.46465012,0.24952832,0.84960926,0
-2.1765828,3.6836195,4.3793464,-0.35550445,0.60165095,0.71528506,0
-6.2251306,0.50328183,-0.64853877,-0.99141687,0.080152877,-0.10328656,0
-0.057823196,-5.2456436,-3.3711398,-0.009272838,-0.8412196,-0.54061407,0
5.7834139,2.0617156,0.80077547,0.93402696,0.33296907,0.12932602,0
5.4617114,1.267058,2.1424925,0.90995669,0.21110012,0.3569532,0
5.2351208,2.547029,-1.3737508,0.87518579,0.42580175,-0.22965796,0
-4.3565855,-0.66522747,-4.3249726,-0.7055465,-0.1077332,-0.70042682,0
-3.6749172,-4.4294629,-2.0877073,-0.60024208,-0.72348571,-0.34099537,0
-1.0333717,1.044314,-5.9930973,-0.16746838,0.1692417,-0.97124231,0
2.5487905,-2.9073319,4.7409525,0.41662955,-0.47523734,0.77496403,0
-4.1785522,-0.48742196,4.4174633,-0.68499142,-0.079903245,0.7241562,0
-2.2511487,4.1438665,3.6575749,-0.37720251,0.69434637,0.6128633,0
-2.0243392,5.6789722,0.65977883,-0.33377507,0.93635464,0.108785,0
-4.2222695,-2.9306633,3.1901486,-0.69798255,-0.48446742,0.52736288,0
1.7645912,-5.361989,-2.6426828,0.28311124,-0.86027819,-0.42399237,0
2.2337298,5.2613745,2.3831451,0.36069685,0.84959298,0.38482404,0
-2.5600152,-3.4746315,-4.3486109,-0.41784176,-0.56712407,-0.7097736,0
5.8270173,-2.0217767,0.60411596,0.94024926,-0.32623449,0.097480327,0
-1.4787401,-2.5603817,5.482255,-0.23740554,-0.41105855,0.88015306,0
-0.67772233,3.2825868,-4.8846431,-0.11440177,0.55411148,-0.82454389,0
-1.917775,5.7720089,1.5367535,-0.30569944,0.92007655,0.24496339,0
0.96578723,5.436162,-2.9001188,0.15485775,0.8716535,-0.46501535,0
3.1291707,-2.1353345,-4.8979635,0.50535345,-0.34485132,-0.79100919,0
-3.0643721,-3.6231763,3.9979899,-0.49385735,-0.58391482,0.64432013,0
0.92163187,5.1256986,-3.2541306,0.15007912,0.83467197,-0.52990466,0
3.5053976,4.8980203,0.23997578,0.58152544,0.81255358,0.039810613,0
4.0182362,-1.6445465,4.4615822,0.64545107,-0.26416424,0.71666598,0
-5.7194719,-1.6565611,1.3078001,-0.93816191,-0.27172485,0.21451774,0
3.8887506,-0.54069054,-4.3664131,0.66225404,-0.092079572,-0.74359995,0
0.031687215,5.8127918,1.6313558,0.0052484381,0.96278828,0.27020583,0
-5.0909081,-1.6336331,-2.7200031,-0.8486672,-0.27233076,-0.45343137,0
-4.0957108,1.0766208,-4.3672028,-0.67327231,0.17698002,-0.71790147,0
5.983604,0.61752403,-1.5089546,0.9648239,0.099572428,-0.24331081,0
-3.6971073,4.4275656,1.0383496,-0.63080919,0.75544167,0.17716566,0
-0.21441185,-2.4213288,5.6379795,-0.034922343,-0.39437404,0.9182862,0
1.1496015,5.278677,-3.0429382,0.18540636,0.8513388,-0.49076149,0
-0.17475888,5.6971574,-2.389925,-0.028275367,0.92177981,-0.38668138,0
-3.6808057,-3.5103128,3.4476731,-0.59902328,-0.5712769,0.56108272,0
3.1618299,5.1187167,1.1203682,0.51664406,0.83639997,0.18306853,0
1.3233209,-3.4288812,-4.8340101,0.2179179,-0.56465113,-0.79604077,0
-2.6502712,0.12754753,5.6716866,-0.42325458,0.020369641,0.90578175,0
4.8602509,3.7927103,0.06944447,0.78831744,0.61516571,0.011263675,0
3.3908772,1.2796346,-4.8273287,0.5617345,0.21198495,-0.79969782,0
2.0049052,5.7101378,0.71692193,0.32898569,0.93697876,0.11764,0
-5.4995532,2.059186,0.40994352,-0.93423164,0.34980237,0.069638789,0
5.7827048,2.2174392,0.14835568,0.93343866,0.35793692,0.023947431,0
-3.2004704,-4.4886909,2.8471265,-0.51581937,-0.72344166,0.45887098,0
-1.6999041,-5.6583605,-0.31413448,-0.28731409,-0.95636374,-0.053094324,0
-1.5884027,5.7252331,-0.99125326,-0.26369604,0.95046508,-0.16456127,0
1.6411496,-4.4481535,3.4436197,0.28006637,-0.7590887,0.58766246,0
-2.9616423,-2.9705381,-4.4096217,-0.4866268,-0.48808849,-0.72454399,0
4.1572313,2.900166,-3.8299258,0.65436274,0.4564963,-0.6028437,0
1.6656303,-5.624207,2.377707,0.26316357,-0.88860434,0.37566909,0
-0.82909733,4.1078596,-4.5828748,-0.13350908,0.66148633,-0.7379778,0
-2.6192396,2.0383449,5.1475086,-0.42765099,0.33280659,0.84044898,0
2.7114365,-3.255528,-4.3332381,0.44740921,-0.53718877,-0.71501976,0
3.9001462,3.7145057,3.1350694,0.62582958,0.59604108,0.50306296,0
-0.50280756,1.3719069,6.03338,-0.080996267,0.22099774,0.97190511,0
2.887604,1.976963,5.2005992,0.46066028,0.31538546,0.82965302,0
-2.1895995,-5.4616165,1.8792326,-0.3544772,-0.88418841,0.30423149,0
-1.5246035,-3.3721325,4.8060269,-0.25134534,-0.55592799,0.79231906,0
5.7052102,0.17599991,1.8840332,0.94915646,0.029280506,0.3134402,0
-5.8077178,2.3447182,-0.98282361,-0.91607082,0.36984026,-0.15502407,0
-2.1505415,3.1244888,-4.6036134,-0.36053026,0.5238089,-0.77177858,0
-1.8084115,-5.4954987,2.5170879,-0.28662875,-0.871023,0.39895222,0
1.9035234,-5.9835143,0.059476819,0.30314347,-0.95289785,0.0094719138,0
-2.9568443,1.36094,-5.2551532,-0.47833282,0.22016114,-0.85013342,0
-4.7025318,3.873445,-0.44310474,-0.76983464,0.63410777,-0.072539091,0
1.0752134,-0.52123427,-6.0500083,0.17435299,-0.084521599,-0.981049,0
0.83365923,5.944128,-0.71709329,0.13790917,0.98331523,-0.1186261,0
-2.1914654,-4.9441109,2.7739394,-0.36055988,-0.81345022,0.45639381,0
-4.1523256,-1.4699851,4.1567063,-0.68560117,-0.24271303,0.68632448,0
3.1540701,-2.7586632,-4.3558502,0.52183807,-0.45641834,-0.72067147,0
-1.2489848,-4.7137394,-3.7208385,-0.20362215,-0.76848149,-0.60660875,0
-1.1753461,-5.8501596,-1.5094532,-0.19095735,-0.95046985,-0.24523941,0
4.2141676,4.0620966,-2.1481287,0.67589706,0.65150684,-0.3445316,0
-3.3935835,-3.3366201,3.8796787,-0.55268806,-0.54341084,0.63185483,0
3.9118142,3.8485184,2.6240845,0.64310521,0.63269937,0.43140149,0
3.5914679,-4.8771815,0.66894466,0.58937514,-0.80036622,0.10977666,0
-4.4693389,3.8601131,1.7820203,-0.72453588,0.62577271,0.28888783,0
-5.4694533,1.9151993,2.0072808,-0.89182615,0.31228438,0.32729882,0
-3.5540478,0.6410743,-4.9429302,-0.58056873,0.10472219,-0.80744857,0
-1.1708815,-5.659554,-2.5461109,-0.1854012,-0.89615226,-0.4031595,0
-4.1096516,3.5333202,-2.9359894,-0.66672951,0.57322836,-0.47632036,0
-0.033460028,-6.0213022,-0.45855635,-0.0055408129,-0.99709743,-0.075934634,0
-3.1192706,0.53167123,-5.1974378,-0.51262563,0.087375656,-0.85415477,0
5.2948251,2.6007702,0.72548431,0.89085585,0.43758035,0.12206294,0
5.2077918,-0.4812963,-3.4647527,0.83012068,-0.076718509,-0.55228072,0
-5.3040195,2.9862289,-0.28843707,-0.87040794,0.49005052,-0.047333524,0
5.1971178,-3.4356329,0.11195773,0.83406609,-0.55137193,0.017967679,0
6.1699567,1.2344997,0.33297029,0.97919512,0.19591971,0.052843627,0
3.0740519,-4.8457193,-1.5589333,0.51695001,-0.81488365,-0.26215905,0
2.7165964,1.847885,-5.2305865,0.43980211,0.29916248,-0.84680337,0
0.17908126,5.7264218,2.2525132,0.029089963,0.9302001,0.36589828,0
4.2309842,-3.0278986,-3.2237253,0.69126898,-0.4947058,-0.5267005,0
5.2456894,1.8355172,2.3071771,0.87174934,0.30503348,0.38341579,0
0.22316223,-6.0152545,-0.76838011,0.036775466,-0.99126893,-0.12662329,0
-5.1076603,3.305115,1.341184,-0.81987184,0.53053069,0.21528429,0
3.653214,-4.7489128,0.7892015,0.60451049,-0.78581977,0.13059202,0
3.9477561,2.5497847,3.5196624,0.67236203,0.43426654,0.59945124,0
-4.8525934,-3.2787797,-1.0699074,-0.81509852,-0.55074233,-0.1797142,0
-2.3177269,-0.75543922,5.7063346,-0.37351224,-0.12174246,0.9196018,0
2.9768434,-2.5590236,-4.4976869,0.49864435,-0.42865628,-0.75339741,0
4.0039849,-3.4995716,2.8866515,0.66173297,-0.57836926,0.47707283,0
-0.34007311,5.9295015,0.13395368,-0.057244081,0.99810559,0.022548255,0
-0.32153255,-6.0803556,-0.29769793,-0.052743766,-0.99741334,-0.048833966,0
-0.80475867,-2.2848761,-5.615582,-0.13158675,-0.37360194,-0.91820836,0
-1.0851322,-5.3299508,2.7255597,-0.17835954,-0.87606609,0.4479911,0
2.4085295,-1.4915501,5.2421002,0.40420815,-0.25031734,0.87974823,0
-1.3977796,1.9915096,5.795526,-0.22238018,0.31683981,0.922041,0
-5.986197,1.669183,1.1914326,-0.94602519,0.26378837,0.18828736,0
3.2469075,5.0516191,0.18357894,0.54043889,0.84082824,0.030556215,0
-0.92335916,5.2422366,3.0468066,-0.15054992,0.85472512,0.49676928,0
5.5539947,2.1402166,0.85223502,0.92369622,0.3559438,0.14173695,0
2.0360143,-0.39808965,-5.6673684,0.33736002,-0.065961979,-0.93906194,0
-5.3664064,-0.22578341,-2.7802424,-0.88729364,-0.037331533,-0.45969149,0
-5.0454402,2.8377573,-1.1126704,-0.85592967,0.48140907,-0.18875809,0
-4.9385438,2.5623236,-2.3864996,-0.81575805,0.42324945,-0.39420652,0
4.1908054,-3.4275458,-2.984426,0.67789918,-0.55443531,-0.48275682,0
2.0625236,0.42752215,5.6977224,0.33953217,0.070378602,0.93795776,0
1.4083593,5.8182607,0.87742817,0.23277707,0.96165639,0.14502348,0
1.7372936,-4.8173742,-3.1217079,0.28966826,-0.80322665,-0.52049911,0
5.3419189,3.0531268,-0.063390426,0.86815494,0.49618632,-0.010302049,0
1.7298882,2.7736187,-5.1722546,0.28272453,0.45330679,-0.84532821,0
-1.3611856,4.9521079,-3.4295371,-0.22041382,0.80188406,-0.55533749,0
-0.53940314,-6.13588,-0.34619159,-0.087433942,-0.99458855,-0.056115534,0
1.7937049,-5.6732774,0.039069325,0.30145246,-0.95345861,0.0065660435,0
-1.7947878,-5.5612507,-1.4716158,-0.29783347,-0.92285377,-0.24420518,0
2.722209,-2.189477,-4.9647923,0.44841766,-0.36066303,-0.81782866,0
2.4560115,-2.8091359,4.8326702,0.4022578,-0.46009427,0.79151881,0
-2.4957459,2.290823,5.0770965,-0.40889958,0.37532529,0.83182454,0
-4.5079904,-3.4836457,2.231859,-0.73675162,-0.56934053,0.36475804,0
-0.088897511,5.774899,1.3699461,-0.014976418,0.97288769,0.23079257,0
-2.4847438,2.1709371,5.3449664,-0.39557365,0.34561533,0.8509239,0
5.6837873,0.61861342,-1.5952718,0.95755321,0.10421841,-0.26875702,0
3.0653858,5.2987542,0.15351102,0.50059575,0.86531812,0.025069263,0
6.0007467,-0.041511834,1.8740473,0.95451283,-0.0066031083,0.2980966,0
-0.78502625,5.1336503,-2.9653354,-0.13126896,0.8584286,-0.49585161,0
5.9742789,-0.18337609,1.22004,0.97933555,-0.030059984,0.19999544,0
1.9777036,-1.6470581,-5.4128723,0.32996896,-0.2748026,-0.903108,0
-1.1960051,-3.2846291,5.0757456,-0.19406256,-0.53296053,0.82358527,0
-5.2754569,2.6991394,1.4034101,-0.86628109,0.44322479,0.23045352,0
-3.4203024,2.3416274,4.2174158,-0.57839876,0.39598671,0.71319658,0
-5.0941019,-2.6876829,-1.4550407,-0.85750711,-0.45242661,-0.24493185,0
-3.6180422,4.5951591,2.2240708,-0.57822317,0.73438269,0.35544342,0
-1.2121477,4.9294538,3.6855006,-0.19322959,0.78580874,0.58750904,0
-4.2004805,-1.8095782,-4.0393391,-0.68837339,-0.29655308,-0.66196561,0
2.6409876,1.3906687,5.3131161,0.43336838,0.22819944,0.8718468,0
3.1717472,0.33542624,5.01126,0.53395194,0.056467768,0.8436271,0
-1.4802846,2.9514196,5.1386943,-0.24234971,0.48320147,0.8412984,0
5.8830695,1.8278198,0.95727414,0.94364572,0.29318273,0.15354699,0
-2.4447703,-5.5952306,0.39241913,-0.39956245,-0.91445971,0.064135246,0
4.6681814,1.5959564,-3.7779715,0.75125301,0.25683814,-0.60799104,0
3.4864144,-1.2355815,-5.1169515,0.55218351,-0.19569324,-0.81043041,0
-1.1453483,-4.2514234,4.000751,-0.1925229,-0.71462655,0.67249078,0
5.3563867,-2.1597922,-2.4168479,0.85555315,-0.34497455,-0.38603297,0
0.17737256,-1.1574417,6.0191865,0.028925605,-0.18875358,0.98159838,0
2.8839643,5.1619139,0.72334921,0.48413038,0.86652923,0.12142845,0
2.402386,2.3303685,4.9964967,0.39947188,0.38749674,0.83082402,0
-4.6766462,1.1189343,3.6550281,-0.77427214,0.18525234,0.60513163,0
4.7606487,2.435302,3.0167782,0.77539289,0.39665097,0.49135917,0
4.0167098,-0.079332538,-4.7708187,0.64400655,-0.012719533,-0.76491427,0
5.529717,-0.1544978,2.9101672,0.88466173,-0.02471705,0.46557781,0
-5.9206362,1.4736069,0.22858229,-0.9697144,0.24135545,0.037438467,0
-1.4199952,4.9179616,-3.5524933,-0.22789912,0.78929782,-0.5701499,0
-2.8321738,5.254118,0.27323177,-0.47399738,0.87933803,0.045728531,0
-3.8352332,2.223407,-4.4496832,-0.61059886,0.35398364,-0.70842403,0
2.0394676,-1.5479107,5.5542421,0.33346605,-0.25309333,0.90815425,0
1.6549155,-5.0186286,-3.3079059,0.26544943,-0.80499107,-0.53059012,0
5.6014671,-2.527091,1.0402638,0.89874297,-0.40546614,0.16690801,0
1.87971,5.6094337,0.58988607,0.31616548,0.94350153,0.099218294,0
-3.5493746,-4.8735557,-0.1559317,-0.58851397,-0.80807358,-0.025854692,0
-1.3189516,5.5059109,-2.2731636,-0.21618684,0.90246332,-0.37258989,0
-4.2672696,0.28712678,-4.2899261,-0.70443946,0.047398794,-0.70817959,0
-1.9395442,-5.0863209,-3.102191,-0.30956098,-0.81180233,-0.49512523,0
3.6396589,-3.1007345,3.884192,0.59083021,-0.50334597,0.63052559,0
-0.077790573,5.5939708,-2.2102509,-0.01293213,0.92995793,-0.3674385,0
2.5716197,4.4095159,3.4048831,0.41910478,0.71863234,0.55490428,0
2.3477359,-0.023857852,-5.605381,0.38631675,-0.003925777,-0.9223578,0
-4.1671491,4.5570922,0.65118855,-0.6711067,0.73390579,0.10487194,0
-3.3504689,5.0586534,0.23747703,-0.55176884,0.83307964,0.039108686,0
5.4646106,-2.5043328,-0.57992703,0.90488118,-0.41469076,-0.096029721,0
-1.9337745,4.9784999,2.7529695,-0.32183215,0.82855648,0.4581683,0
6.1669164,-0.74946851,0.72473675,0.98600888,-0.11983017,0.11587588,0
-5.3147092,-2.2351198,1.9372957,-0.87379175,-0.36747622,0.31851095,0
-1.7502066,-4.5488968,-3.7381365,-0.28493753,-0.74057055,-0.60857695,0
-2.3042138,2.4488604,-5.0309057,-0.38078985,0.40469387,-0.83139765,0
2.3308439,-0.55822355,-5.5839505,0.38357759,-0.091864601,-0.91892821,0
-5.7634411,1.6076187,-1.2471836,-0.94296366,0.26302445,-0.20405324,0
-1.8468828,-4.5200548,-4.0676975,-0.29061162,-0.7112419,-0.64006233,0
-4.8505821,-0.42465198,-3.3220637,-0.82290614,-0.072042637,-0.56359148,0
-1.8672744,-4.8605838,-2.9190803,-0.31281087,-0.81425816,-0.48901224,0
-3.7155223,-4.9457231,-1.0470873,-0.59222007,-0.78830272,-0.16689608,0
4.612751,-2.2211351,3.1813035,0.76527536,-0.36849594,0.52779204,0
2.8754754,1.685956,4.9783587,0.47994727,0.2814039,0.83094072,0
-4.1702452,4.3841085,-1.0091274,-0.67982364,0.71468711,-0.16450559,0
3.8570728,-3.3866508,-3.0475569,0.64613819,-0.56733292,-0.51052779,0
4.8677573,3.7759702,-0.84285128,0.7828505,0.60726529,-0.13555042,0
0.80599093,-5.3444619,2.3669803,0.13659786,-0.90576953,0.40115145,0
-3.0723705,-3.9700508,-3.8614032,-0.48511061,-0.62684947,-0.6096946,0
3.9375501,3.0300395,-3.4787591,0.64919877,0.4995741,-0.57355618,0
-1.9234723,-2.9433694,-5.1845503,-0.30704802,-0.46985641,-0.82762098,0
-2.6707118,1.7790561,5.1937361,-0.43745357,0.29140338,0.85071641,0
-5.3729215,3.1569076,-1.0237192,-0.85078555,0.4998866,-0.16210279,0
-0.28693685,-5.8010306,-1.9125105,-0.046924219,-0.94867158,-0.31276241,0
-1.3911594,1.1795541,-5.8557835,-0.22682221,0.19232093,-0.95475882,0
5.813046,-1.3009378,-1.267128,0.95450443,-0.21361449,-0.20806292,0
-0.50029731,4.1409125,-4.5936217,-0.08063145,0.66737872,-0.74034053,0
2.2377543,5.1333847,-2.4748275,0.36550197,0.83845758,-0.40422413,0
-4.8896594,3.6279247,-0.06316328,-0.80304599,0.59582686,-0.010373528,0
-3.0041478,1.6854457,-4.922102,-0.5000478,0.28054658,-0.819296,0
-0.75485474,-1.1016035,-6.115715,-0.12058736,-0.17598015,-0.97697991,0
3.0950224,1.9106344,4.7764182,0.51552314,0.31824526,0.79558522,0
1.2906481,4.3575411,3.9696946,0.21388638,0.72213227,0.65785831,0
2.1987722,-1.0109584,-5.6795764,0.35615307,-0.16375318,-0.91996735,0
-0.69539613,-5.8629336,1.7060148,-0.11315402,-0.95400947,0.27760065,0
5.7245498,0.97985125,-1.7791477,0.94243628,0.16131353,-0.29290223,0
-5.0446525,-0.89833981,-3.3461699,-0.82431179,-0.1467915,-0.54677451,0
2.9913878,-0.26850125,5.2574835,0.49404541,-0.04434457,0.86830449,0
-0.95912975,-4.6370621,3.7536902,-0.15872918,-0.76740098,0.6212092,0
-5.578733,-1.8720444,1.114959,-0.93147284,-0.31257251,0.18616307,0
-3.4762757,1.6803782,-4.7154651,-0.57038909,0.27571732,-0.77371591,0
0.59216738,-5.8195133,-1.0562074,0.099621803,-0.97903132,-0.17768842,0
3.0577273,-4.649662,-2.962755,0.48500559,-0.73751247,-0.46994144,0
-5.4082866,-2.3242307,-0.44486722,-0.91613889,-0.39371398,-0.075358465,0
-0.9269563,-1.2742693,5.9068613,-0.15162623,-0.20843773,0.96621072,0
2.0303111,-2.4313939,5.2413621,0.33152315,-0.39701471,0.85584563,0
4.1988654,0.48191336,-4.2122293,0.70367628,0.080762528,-0.70591587,0
-4.6287122,2.0174112,3.2259634,-0.77250677,0.3366949,0.53839564,0
-2.0244899,2.3200858,5.1008811,-0.33978117,0.38939264,0.85610873,0
-5.6351991,1.5587748,2.1871731,-0.90271312,0.24970306,0.35036737,0
2.6928165,4.4487662,-3.1718736,0.44207805,0.73035127,-0.52072453,0
5.2467422,-1.5595391,2.3889079,0.87852538,-0.26113245,0.4000037,0
3.9425097,2.4807951,-4.017817,0.64090532,0.40328494,-0.65314752,0
2.9927757,5.2493148,-1.8155862,0.47433698,0.83198488,-0.28775951,0
2.2894628,2.1115112,5.1991625,0.37775898,0.34839717,0.85785639,0
4.2853818,2.3065307,-3.7900736,0.69473076,0.37392652,-0.61443317,0
-2.9373965,-4.0907555,-3.0950243,-0.49692428,-0.69203991,-0.52359045,0
-4.0279016,-3.6503675,3.1137018,-0.64296967,-0.58270431,0.4970369,0
0.78148329,-5.7611871,-2.239687,0.12543018,-0.92468613,-0.35947582,0
-4.9061818,-0.25921661,3.5662167,-0.80814856,-0.042698283,0.58742887,0
-3.4499428,3.9344823,-3.2761729,-0.55880558,0.63728899,-0.53065914,0
-5.1167784,-2.8542674,1.6249315,-0.84154958,-0.46943748,0.26725027,0
1.4002272,5.7291222,-0.77696806,0.23538332,0.96308643,-0.13061118,0
3.9108019,3.6696625,2.9432056,0.63928574,0.59986752,0.48111603,0
-5.7669301,-0.1272154,2.2350848,-0.93222249,-0.020564331,0.36130077,0
4.9688292,-3.5523317,0.29138598,0.81256402,-0.58092093,0.047651015,0
-4.9848194,2.5008616,2.6069357,-0.80972296,0.40623438,0.42346483,0
2.0866323,5.343555,-1.4558071,0.35256931,0.90287763,-0.2459815,0
2.387383,3.2301803,-4.3961883,0.40091464,0.54244608,-0.73825449,0
-0.999587,5.5218101,-2.4332979,-0.16342703,0.90278578,-0.39783093,0
2.2908311,-0.53645718,5.4980841,0.38305953,-0.089703262,0.91935778,0
5.1093125,2.7530608,-1.7315705,0.84359014,0.45455331,-0.28589672,0
1.0666957,-4.4075675,-4.1189971,0.17411959,-0.719459,-0.67235488,0
1.3289144,3.091464,-5.0494637,0.21900481,0.50947261,-0.83215058,0
5.2193441,3.0177994,0.53885615,0.86227131,0.49856105,0.089022718,0
-5.9955254,1.2774988,-0.12238877,-0.97784942,0.20835564,-0.019961184,0
-5.7723913,-2.1263978,1.664183,-0.90579695,-0.33367187,0.26114166,0
4.6403885,-0.7067486,-3.8291211,0.76604044,-0.11667084,-0.63211554,0
3.3052187,1.7730048,-4.597919,0.5570243,0.29880223,-0.77488142,0
-0.58034956,3.5117502,4.8744597,-0.096152984,0.5818308,0.80760604,0
-5.4609685,-0.18476591,-2.4707165,-0.91065788,-0.030811116,-0.4120107,0
2.3514049,5.8073821,0.15597637,0.37518591,0.92661542,0.024887308,0
-0.84492832,-6.1031709,-0.057778772,-0.13712694,-0.99050909,-0.0093771582,0
-0.1478999,4.9204397,-3.8847566,-0.023585191,0.78464901,-0.61949146,0
5.175261,-2.4470809,-1.8285493,0.86116767,-0.40719625,-0.30427209,0
-0.29617596,-3.5427337,4.9248986,-0.048761383,-0.5832634,0.81081825,0
-3.0532305,-5.1832933,-0.29597524,-0.50692981,-0.86058545,-0.049140956,0
1.2124666,5.8697429,0.7241537,0.20083104,0.97225487,0.11994766,0
-2.9684744,-1.0090511,-5.3991375,-0.47545391,-0.16161746,-0.86476779,0
-3.2621186,-1.8803012,4.7056394,-0.54128611,-0.31199998,0.78081071,0
2.5790381,-2.4434516,5.1569014,0.41184023,-0.39018875,0.82349283,0
4.5327859,3.7556043,-0.22613506,0.76946503,0.6375342,-0.038387656,0
-0.74806589,3.4399641,5.0574746,-0.12139864,0.55824888,0.82074392,0
-1.0038486,5.7270632,1.669349,-0.16594535,0.94673592,0.27595866,0
2.8291421,2.1196375,-5.1340489,0.45386767,0.34004474,-0.82363439,0
-3.8988559,-0.7472524,4.5071812,-0.64914119,-0.12441401,0.7504245,0
-0.84359586,5.8646727,2.0383229,-0.13463403,0.9359749,0.32530701,0
-2.0131421,-0.66727978,-5.6993284,-0.33104646,-0.10972927,-0.93721277,0
4.6414156,-3.177963,2.5114877,0.75343531,-0.5158748,0.40768671,0
-2.3519635,-2.5378587,5.0868349,-0.38230249,-0.41251904,0.82684517,0
2.5970876,0.7523849,-5.4642076,0.4259896,0.1234106,-0.89627153,0
1.2623616,4.6390867,4.0820198,0.2001542,0.73555201,0.6472261,0
1.168018,0.83589625,-6.0267682,0.18852511,0.13491867,-0.97275651,0
-4.6262197,-2.4145663,-3.3772321,-0.74425268,-0.38844836,-0.54331923,0
-0.78748935,5.8943858,-1.5604353,-0.12808704,0.95873612,-0.25380859,0
-5.9219155,-0.63327211,0.49063402,-0.99097377,-0.10597181,0.082102731,0
-4.1173129,3.4122591,-2.9213805,-0.67569387,0.55998719,-0.47942892,0
-1.7378469,-4.064187,4.0956874,-0.2883926,-0.67444468,0.67967206,0
5.8363981,-0.80530119,0.23069473,0.98985618,-0.1365795,0.039125945,0
-4.8857045,1.8287282,2.9110653,-0.81782818,0.30611461,0.48728925,0
0.30973306,-4.151073,4.2813039,0.05186994,-0.69516605,0.71697539,0
1.8087785,2.4819493,5.2893806,0.29573017,0.40579167,0.86479872,0
5.4699521,2.3719883,-0.79749006,0.90935415,0.39433205,-0.13257903,0
0.98120129,-3.4310737,5.1536679,0.15652645,-0.54734308,0.82214051,0
-4.7808223,-0.93851888,-3.6922197,-0.78206629,-0.15352672,-0.60398829,0
-5.9338889,-0.65576446,0.32058495,-0.99251896,-0.109685,0.05362194,0
1.3134329,-1.6639943,-5.5523963,0.22099303,-0.27997708,-0.93422419,0
-0.79353029,5.7095499,1.6577183,-0.1322979,0.95190001,0.27637592,0
-4.1824975,-3.9241102,-2.0029299,-0.68849534,-0.64596134,-0.3297092,0
-0.73429048,6.1078939,0.52377039,-0.11893018,0.98927194,0.084833063,0
-1.0352364,-0.80391884,-6.0384107,-0.16754028,-0.13010439,-0.97724259,0
3.9514041,-1.1397805,-4.3812346,0.65758252,-0.18967934,-0.72911382,0
4.3961749,-3.9478402,-0.21837513,0.74351966,-0.66769338,-0.036933519,0
-1.4810722,2.0127733,5.6928339,-0.23822293,0.32374436,0.91566342,0
2.7544346,4.6047254,2.6030385,0.46186349,0.77212018,0.43647739,0
2.2111874,4.6181126,3.2578127,0.36435667,0.76096678,0.53681827,0
-2.9001107,-1.3614426,5.2364378,-0.47242567,-0.22177789,0.85301143,0
2.7546561,-3.8547456,-3.5516782,0.46521258,-0.65099818,-0.59981549,0
2.7364652,5.5642138,-0.36259529,0.4405627,0.89582175,-0.058376756,0
0.98077202,-0.72129828,5.8846965,0.16320869,-0.12003008,0.97926283,0
4.5173454,-3.1468346,-2.7674005,0.7331239,-0.51070255,-0.44912383,0
1.135781,4.524404,-3.6844444,0.19106883,0.7611261,-0.61982238,0
-2.9374228,-3.2067664,-4.4084153,-0.47435865,-0.51785439,-0.71190637,0
4.6521902,-2.0784404,-3.3552611,0.76254588,-0.34067959,-0.54996473,0
0.43567023,5.9435935,-1.9094734,0.069618449,0.94976372,-0.30512661,0
-3.5307822,-4.9821124,-0.21691144,-0.57784766,-0.81537229,-0.035499714,0
5.82723,-2.2087345,-0.58316553,0.93101472,-0.35288882,-0.093172178,0
3.5473869,-2.2386782,4.5127087,0.57576394,-0.363352,0.7324419,0
-0.10237922,3.3964961,5.0721016,-0.016769314,0.55633277,0.83079034,0
-0.021885574,-5.7863498,-1.5085932,-0.0036599087,-0.96764714,-0.25228095,0
4.8349018,-0.63666117,3.9410291,0.77111256,-0.10154031,0.62854987,0
2.3705237,5.6405687,1.0379471,0.38198134,0.90890974,0.16725266,0
-4.0684233,-4.1975665,1.3299206,-0.67863327,-0.70017505,0.22183739,0
-1.8088367,5.7320237,-0.79974568,-0.29830933,0.94531262,-0.13189228,0
-1.8809617,5.7555561,0.79406047,-0.30800289,0.94245827,0.13002546,0
3.730545,4.4792614,-1.5704402,0.61793274,0.74195117,-0.26012993,0
-3.1654716,1.0306811,-5.2291479,-0.51064962,0.1662681,-0.84355909,0
-0.39097735,-2.1551549,-5.5899196,-0.065122426,-0.35896942,-0.93107468,0
4.7599425,1.8630136,-3.0669217,0.79851007,0.31253216,-0.51449525,0
2.4284303,0.28858143,-5.5568929,0.39999104,0.047532756,-0.91528565,0
-0.60489386,-6.090518,0.57762551,-0.098393865,-0.99070203,0.093958311,0
-4.9682331,3.5451624,-1.0913148,-0.80130202,0.57178187,-0.17601281,0
4.5313916,-0.77652586,-4.0737967,0.73769158,-0.12641516,-0.6631971,0
6.088263,0.032499339,0.69071704,0.99361193,0.0053039319,0.11272586,0
5.3595037,2.3314738,-2.1520658,0.86051142,0.37433687,-0.34553146,0
1.3243235,5.4562607,-2.6331525,0.21355028,0.87983489,-0.42460203,0
-2.8054204,-2.0419533,-5.2047811,-0.44848165,-0.32643184,-0.83204955,0
4.6127491,-3.9902208,-0.58797789,0.75280684,-0.65120941,-0.095958784,0
-5.6487226,0.88913208,1.8684402,-0.93898314,0.14779979,0.31058946,0
-4.7530165,3.5688689,2.1308272,-0.75275707,0.56521815,0.33746889,0
3.167455,-1.2354225,-4.8372445,0.53571934,-0.20895,-0.81813484,0
-2.4218721,3.3028829,-4.589066,-0.39374036,0.53697228,-0.74607593,0
2.6399972,3.7850137,-4.1072307,0.42733589,0.61267954,-0.6648367,0
0.45752746,-5.8477044,2.3167717,0.072548129,-0.9272449,0.36736035,0
3.7602131,4.4733276,1.2549113,0.6291126,0.74842215,0.20995632,0
-4.5669241,-0.0698568,-3.7273142,-0.77467215,-0.011849578,-0.63225192,0
-2.8607001,2.8814402,-4.54637,-0.46930927,0.47271174,-0.74585015,0
4.346952,-3.9003928,-1.8951088,0.70796424,-0.63523561,-0.30864599,0
4.4400592,3.8347907,-1.1873667,0.74176759,0.64064991,-0.19836451,0
0.75619441,-0.75895232,5.8312664,0.12754443,-0.12800959,0.98353744,0
-3.4154587,-3.7216718,3.327632,-0.56464022,-0.61526304,0.55012077,0
4.3372893,-1.5959977,-4.1804914,0.69598883,-0.25610387,-0.6708281,0
2.263994,5.1568537,-2.4748816,0.36802527,0.83827627,-0.40230626,0
-1.5673192,-3.3748932,4.8233824,-0.25727862,-0.55399555,0.79176801,0
2.6720569,-4.8339992,-2.8760557,0.42908829,-0.77626061,-0.46184716,0
3.668129,4.5733132,-1.4319782,0.60781181,0.75780153,-0.23727989,0
2.0501668,-5.3097715,-2.1812708,0.33634248,-0.87110072,-0.35785091,0
4.5771985,3.399261,-2.3463788,0.74241006,0.55135161,-0.38057673,0
-0.90938407,5.7009792,1.9778197,-0.14901946,0.93421131,0.32410249,0
-3.6509397,3.2797334,3.1424441,-0.62649071,0.56279278,0.53923434,0
-3.3080461,-3.5487778,-3.5121844,-0.55232048,-0.59251368,-0.58640397,0
3.4899895,-1.0335444,4.7472429,0.58341324,-0.17277516,0.79358536,0
3.2884858,-0.21053338,-5.2950087,0.52728552,-0.033757545,-0.84901732,0
-0.39603484,-3.5711453,-4.6354599,-0.067525923,-0.6088981,-0.79036909,0
5.3177643,-2.0493145,2.1095653,0.87508011,-0.33723089,0.34714562,0
-4.6660728,3.7649004,-1.3951802,-0.75800252,0.61160725,-0.22664672,0
-0.27370515,-4.6049976,3.8465753,-0.045568779,-0.76667947,0.64041084,0
1.8341035,-1.9558473,-5.5346856,0.29823011,-0.31802598,-0.89995462,0
5.5918317,0.91562849,1.8010544,0.9404912,0.15399973,0.30291966,0
-1.8720257,4.9211569,3.6036201,-0.29340675,0.77130383,0.56480336,0
-1.95388,-5.7215705,-0.064791419,-0.3231509,-0.94628674,-0.01071581,0
3.9048553,-0.74861997,4.4050632,0.65804261,-0.12615675,0.74233717,0
4.8594079,-1.6266336,2.9639168,0.82086718,-0.27477631,0.50067461,0
-4.0091419,-0.57478237,4.5697312,-0.6565659,-0.094130494,0.74837202,0
0.051393427,0.26383147,-6.2612972,0.0082005588,0.042098098,-0.99907982,0
-5.8471904,1.782009,-0.20306154,-0.95603573,0.29136461,-0.033201259,0
-4.3941488,3.3461306,-2.903558,-0.70420694,0.53625143,-0.46532464,0
-3.8718498,-0.038152207,4.9318786,-0.6174947,-0.0060846335,0.78655142,0
-5.3068037,2.3286858,-2.2262795,-0.85481089,0.37510073,-0.35860533,0
-2.2926466,5.5773301,-1.0967916,-0.37405965,0.9099763,-0.17894842,0
2.195605,-5.5246248,-0.95570135,0.36464238,-0.91752034,-0.15872127,0
0.60635829,2.0284843,5.6664824,0.10023965,0.33533731,0.93675017,0
-0.05047207,-5.6763043,2.5842483,-0.0080922442,-0.9100883,0.41433546,0
-4.0119486,-4.1918802,-1.8035494,-0.66027111,-0.68988353,-0.29682124,0
0.74280006,-3.9939599,-4.4983931,0.12254856,-0.65893108,-0.74215341,0
-4.7011747,-3.4166245,1.3670942,-0.78743982,-0.57227957,0.22898625,0
1.7290708,-2.2244117,-5.3928924,0.28417692,-0.36558738,-0.88633478,0
3.93397,-3.7542651,-2.912127,0.63774544,-0.60861307,-0.472092,0
-5.088562,-2.8040161,-1.5882419,-0.8448323,-0.46553886,-0.26368904,0
-4.883604,-1.1805034,3.4382551,-0.8021577,-0.19390389,0.56475151,0
1.3642206,-3.3616509,-4.8428741,0.22545183,-0.55554819,-0.80033594,0
4.8502359,-1.9976729,-3.1886823,0.79011279,-0.32542476,-0.5194425,0
1.9014039,4.7250485,-3.2308102,0.31524318,0.78338921,-0.53565204,0
0.50903159,0.047517214,-6.2706337,0.080908597,0.0075526768,-0.9966929,0
0.15601896,5.7911863,-1.8905438,0.025602233,0.95031595,-0.31023246,0
-5.0938425,-2.708678,2.3808856,-0.81616175,-0.43399841,0.3814778,0
1.5728916,5.1579995,-2.5624046,0.26345128,0.86393845,-0.42918962,0
-1.4750445,-5.3759604,2.6265984,-0.23936029,-0.87237465,0.42622668,0
5.1964865,2.6868551,-1.3119353,0.86675745,0.44815889,-0.21882665,0
3.3383994,-4.8115168,1.7732034,0.54559606,-0.78634822,0.2897954,0
0.4019112,0.015011324,-6.2122979,0.064560898,0.0024113399,-0.99791086,0
2.4259038,-1.5595832,5.0783858,0.41538405,-0.2670452,0.86956477,0
3.6316764,-2.7809105,3.9939744,0.59806013,-0.45795703,0.65772295,0
-1.7804861,2.1781828,-5.2672315,-0.29816595,0.36476552,-0.88206756,0
0.92015576,-1.3959373,-5.8759532,0.15061839,-0.22849809,-0.96182257,0
1.1395012,5.7139964,-1.3145115,0.19077688,0.95664525,-0.22007735,0
5.3421578,-2.2786605,1.0529752,0.90506446,-0.386049,0.17839429,0
-1.9660383,-3.8402128,-4.4606094,-0.31681639,-0.61882937,-0.71880293,0
2.7799153,4.8234882,-1.9251227,0.47191787,0.81883442,-0.32680845,0
-2.8167217,5.2101765,-1.8769733,-0.45335042,0.8385762,-0.30209824,0
1.1980664,0.30167288,-5.8226748,0.20127779,0.050681707,-0.97822219,0
5.1193719,-1.5537698,-2.8696151,0.84325224,-0.2559337,-0.47267699,0
-5.5437322,2.1770184,1.8844565,-0.88743967,0.34849674,0.30166346,0
4.3366694,2.6581633,3.467663,0.704454,0.43179539,0.56329155,0
1.7285421,5.3403316,-2.2568486,0.28571779,0.88272524,-0.37304372,0
2.8492842,-2.5726509,-4.8218341,0.46229377,-0.41741028,-0.7823382,0
-1.1010249,-3.825798,4.8218269,-0.17608173,-0.61184192,0.77113211,0
-3.7711926,-2.2176447,4.0978394,-0.62912542,-0.36995634,0.68361795,0
-4.9448218,3.7099099,-0.79035556,-0.793441,0.59528834,-0.12681964,0
4.0847368,-0.66132241,4.6878967,0.65325445,-0.10576246,0.74971527,0
0.04189029,5.8152461,1.4688338,0.0069840127,0.96952665,0.2448862,0
0.61052001,4.0823665,-4.2493176,0.10305672,0.6891098,-0.71729141,0
-2.2960091,3.5398965,-4.3909602,-0.37703863,0.58130336,-0.72106057,0
-3.3588841,-2.9982653,-3.8137636,-0.56924933,-0.50813317,-0.64634037,0
3.2930279,-4.6239715,-2.5810373,0.52807271,-0.74150395,-0.41389734,0
-0.58858782,3.7535961,4.5032721,-0.099896505,0.63706917,0.76430595,0
-4.7823958,-0.064024337,-3.6097646,-0.79811078,-0.01068471,-0.60241604,0
-0.63388193,-4.6287808,3.9093688,-0.10405417,-0.75983226,0.641738,0
-1.8533725,-4.9800057,-2.7670102,-0.30936068,-0.8312512,-0.46186301,0
1.3987557,-0.42255855,6.0329714,0.22533679,-0.068073355,0.97189987,0
-1.1810694,-4.8731914,3.5028682,-0.19309193,-0.79671347,0.57268065,0
0.90936685,-1.2826583,-6.0672007,0.14508961,-0.20464833,-0.96802276,0
-2.439976,-4.2446017,3.4671767,-0.40671101,-0.70751774,0.57793146,0
-5.3373337,-1.886695,2.0362055,-0.88718206,-0.31361014,0.33846208,0
4.786994,-1.716228,-3.1752803,0.79846293,-0.28626409,-0.52963167,0
-3.3780012,4.4899445,2.4403818,-0.55143446,0.73295122,0.39837483,0
0.36342642,0.92024237,6.1896353,0.05797926,0.14681093,0.98746389,0
-2.7983234,3.6986239,-3.9450612,-0.45958257,0.60744339,-0.64791703,0
-2.181191,-5.4800076,-1.8013623,-0.35368243,-0.88858902,-0.2920928,0
5.3588696,1.1278377,-3.0672643,0.85376483,0.17968494,-0.48867065,0
5.6776404,-1.8232633,1.1357412,0.93529868,-0.3003529,0.18709485,0
