2.8710992,-0.04355596,5.7214937,0.44849649,-0.0068039084,0.89375871,0
-1.3446269,-3.4721909,4.9297066,-0.21765201,-0.56203645,0.79796153,0
-0.13752337,2.1623101,-5.9401808,-0.021749726,0.34197572,-0.93945706,0
-1.7988952,-1.7621541,-5.6453004,-0.29101393,-0.28507018,-0.91326112,0
4.6024833,4.3784323,1.2689593,0.71048498,0.67589825,0.19588915,0
-5.7906132,1.0846838,2.4906585,-0.90532362,0.16958305,0.3893978,0
-0.5789457,4.2081327,-4.2667093,-0.096159808,0.6989485,-0.70867777,0
-5.4097433,-3.2132699,-0.37497222,-0.85824591,-0.50977939,-0.059488658,0
1.3898916,-4.7678642,3.6639955,0.22520605,-0.77254361,0.59368223,0
5.6677232,-2.3076267,1.7576233,0.89018506,-0.36244094,0.2760562,0
-4.2542014,2.340214,-3.7176929,-0.69567281,0.38268599,-0.60793972,0
-0.74077916,1.3376094,-6.1061082,-0.11768409,0.21249969,-0.97004861,0
-3.6098864,-4.3944244,2.4496963,-0.58297378,-0.70967168,0.39561042,0
4.4782,-3.4205823,-2.5884767,0.72215068,-0.55160016,-0.4174155,0
1.9389861,-0.2124494,-5.8436427,0.31473994,-0.034485195,-0.9485513,0
-4.3641644,-0.98653567,-4.2957959,-0.7035951,-0.1590503,-0.69257271,0
-2.0813069,3.4566917,-4.692183,-0.33632022,0.55856985,-0.758214,0
-5.884635,-1.4195677,1.7192688,-0.93513006,-0.22558416,0.27320981,0
-2.9782341,5.4419646,-1.3319604,-0.46938312,0.85767817,-0.20992297,0
1.8418641,-1.3289455,5.8474364,0.29361573,-0.21185021,0.93215305,0
0.016181663,-6.0538783,-0.40194991,0.0026670597,-0.99779952,-0.066249333,0
3.3035679,5.2084746,1.338928,0.52342391,0.82524115,0.21214244,0
2.5623236,1.8278031,-5.4244699,0.40856874,0.29144767,-0.86494499,0
0.54892242,3.4990644,5.2606702,0.086555183,0.55173945,0.82951301,0
3.3855009,3.9139521,3.5255804,0.54065794,0.62505054,0.56302834,0
-5.2800713,-2.9109216,0.90131438,-0.86610949,-0.47748917,0.14784591,0
-6.0217695,-1.6701542,1.5256978,-0.93612701,-0.25963739,0.23718061,0
1.1718185,4.3578353,-4.0397,0.1934762,0.71951199,-0.66698539,0
-0.95528609,3.7142279,-4.8099608,-0.15528738,0.60376966,-0.78188747,0
-1.9014339,1.1516162,5.673193,-0.31205958,0.18900098,0.93107325,0
-3.4360292,-3.6988587,3.7155638,-0.54814792,-0.59007698,0.59274197,0
4.7804136,4.2872791,-0.63192797,0.74088281,0.66445535,-0.097938083,0
5.6381269,0.2323931,-2.5366642,0.91130769,0.037562408,-0.41000882,0
4.9865384,2.7057509,2.4855711,0.80506909,0.4368394,0.40129173,0
-0.88794059,-1.4800622,6.0884662,-0.14031079,-0.23387681,0.96208864,0
0.990399,-3.6169183,4.7062488,0.16458315,-0.60105455,0.78207797,0
4.8267293,3.885704,-1.1129314,0.76668251,0.61720914,-0.17677914,0
-2.7100034,2.7227142,4.6553736,-0.44899496,0.45110092,0.77130508,0
0.17276533,5.8739457,2.344388,0.027306618,0.92841309,0.37054488,0
5.5460024,1.2365336,3.0513217,0.85989469,0.19172165,0.4731003,0
3.3831511,-2.4500604,4.8633752,0.52771032,-0.38216507,0.75859851,0
2.9284282,3.0959461,4.6517649,0.46419004,0.49074358,0.73735899,0
2.2601695,-0.21853283,-6.0552659,0.34949157,-0.033791881,-0.93632996,0
-1.7972795,4.1027608,-4.0085163,-0.2990028,0.68255216,-0.66687322,0
1.0350283,6.1123929,0.012466769,0.16695572,0.98596239,0.0020109578,0
3.7765355,-4.1397319,-2.8532653,0.60058057,-0.6583395,-0.45375338,0
-3.5789297,-4.2892709,3.0214052,-0.56352031,-0.67536712,0.47573534,0
0.11594447,1.1152629,-6.2766628,0.018184433,0.17491494,-0.98441559,0
-4.4245906,-0.34375912,4.2633696,-0.71898013,-0.055859625,0.69278228,0
-4.204906,3.6029375,2.9653082,-0.66942638,0.57359225,0.47208083,0
4.4200335,-2.2845328,-3.5233159,0.72498995,-0.37471735,-0.57790709,0
0.28049964,6.0234275,-1.2211684,0.045592155,0.97904241,-0.19848759,0
3.5519056,-4.9730387,-1.0996819,0.5720222,-0.8008908,-0.17709999,0
-5.8680377,-2.0337067,-0.70700282,-0.93879974,-0.32536316,-0.11311005,0
2.4868472,-1.6145185,5.7230024,0.38582984,-0.25048962,0.88791347,0
3.5553463,-4.1835575,-2.9419274,0.57079422,-0.67165065,-0.47231272,0
2.0118802,1.896322,5.6710005,0.31888863,0.30057237,0.89886945,0
-5.6927133,-1.0472585,2.9356277,-0.8771354,-0.16136199,0.45232263,0
4.1601105,-2.950613,3.4307735,0.6767956,-0.48002619,0.55814201,0
3.0648477,0.72503328,-5.2247868,0.50238436,0.11884616,-0.85643768,0
1.3368365,3.7132041,-4.7150989,0.21741584,0.60389543,-0.76683813,0
-1.9410461,-5.6386118,-1.905803,-0.31004718,-0.90066677,-0.30441773,0
6.0901742,1.0603626,-1.6877407,0.95039487,0.16547361,-0.26337835,0
5.196445,3.4479694,0.69761008,0.82809174,0.54945928,0.11116929,0
0.83488882,4.6057272,-4.0977044,0.13420475,0.7403506,-0.65868813,0
4.9564805,2.9771695,-2.4145665,0.79103595,0.47514522,-0.38535589,0
1.3276213,-2.7494593,-5.3603153,0.21521269,-0.44569826,-0.86892837,0
5.8368011,2.4858494,0.39890632,0.91822171,0.39106366,0.062754311,0
-5.0560641,3.4587939,-1.4036621,-0.80450511,0.55035245,-0.22334632,0
-3.1839836,5.3475242,-0.73034275,-0.50810802,0.8533712,-0.11654992,0
-6.1474838,-1.1454836,-0.60303164,-0.97853982,-0.18233497,-0.095988937,0
-6.0016432,0.094705202,0.96023703,-0.98732144,0.015579813,0.15796718,0
-5.6587286,2.4882681,-0.37908682,-0.9136923,0.40177071,-0.061209638,0
0.18997909,-4.6183105,-4.5444098,0.029308638,-0.71248043,-0.70107955,0
6.035717,1.3666025,1.6747423,0.9414475,0.21316184,0.26122528,0
-3.1370556,3.3263087,-4.2969408,-0.49997032,0.53013265,-0.6848278,0
1.1808141,4.8806481,3.8618333,0.18640323,0.77045876,0.60962868,0
-4.1455216,4.3612585,0.96362436,-0.68028426,0.71568686,0.15813172,0
4.1137424,4.6365089,0.37403086,0.66247368,0.74665958,0.060233623,0
2.9189749,-3.7754624,4.1233439,0.4628253,-0.59862781,0.65378702,0
4.2500348,-3.4179115,-2.7110476,0.69780904,-0.56118351,-0.44512424,0
3.5319543,2.6303079,-4.7010093,0.5483138,0.40833884,-0.72980225,0
-5.1401815,0.42408246,-3.4775622,-0.82632792,0.068174861,-0.5590477,0
-3.6090884,4.1187348,-2.7627747,-0.58840203,0.67149144,-0.45042461,0
0.29287815,6.0278249,0.65447193,0.048247561,0.99299949,0.10781506,0
-6.2358847,-1.0032281,0.5389238,-0.9837302,-0.15826234,0.085016906,0
3.5370734,-5.0670457,0.71957582,0.56854939,-0.81447726,0.11566466,0
-5.6236138,1.4341632,2.2559335,-0.9031533,0.23032685,0.36230332,0
-1.9886878,-3.7506168,-4.8566041,-0.30830106,-0.58144832,-0.75290662,0
4.1829724,-2.5004306,-3.7282612,0.68172038,-0.40750796,-0.6076138,0
-2.0333309,-2.884186,-5.3868384,-0.31574455,-0.44786906,-0.83649188,0
-1.3626449,0.45058188,-6.0774074,-0.21821262,0.072155744,-0.97323006,0
4.2010136,-4.5352359,1.1559925,0.66797972,-0.7211225,0.18380791,0
3.6981058,-3.8822472,3.23702,0.59046149,-0.61986262,0.51684183,0
-1.6141372,-0.59665966,5.8860579,-0.26321182,-0.097295247,0.95981932,0
-3.3554153,-4.9683547,0.71704924,-0.5557158,-0.82284689,0.11875596,0
0.57410932,-1.306733,6.1581407,0.090820245,-0.2067164,0.97417659,0
5.6438446,-2.3001838,-1.9944483,0.88011569,-0.35869658,-0.31101942,0
5.5176082,1.3614436,2.4785509,0.88992822,0.21958557,0.39976242,0
-1.8212692,0.0018232822,6.0906301,-0.28649342,0.0002868101,0.95808214,0
-4.7962055,4.0284734,-0.17116104,-0.76544583,0.64292032,-0.027316282,0
5.4164095,-0.97516698,3.3962879,0.83753467,-0.15078922,0.52516502,0
-4.3853016,1.8291321,3.7172525,-0.72691095,0.30319834,0.61617464,0
4.9603205,3.5531254,-0.82306349,0.80565763,0.57710034,-0.13368237,0
2.9710772,-4.6531234,2.5528471,0.48846924,-0.76501131,0.41970882,0
1.2256877,5.9304729,1.3449693,0.19758427,0.95600873,0.21681279,0
1.4934064,4.3275795,4.3450298,0.23660943,0.68564463,0.68840939,0
5.7829781,0.48586401,-2.5264437,0.91366339,0.07676255,-0.39915749,0
-1.7288293,-2.9345443,4.9609141,-0.28729722,-0.48766321,0.82440579,0
2.5226204,-5.5465569,-1.8409196,0.3963089,-0.87137562,-0.28921229,0
4.0543752,4.6303334,-1.2544162,0.64549387,0.73719174,-0.19971462,0
3.2414565,5.1569099,-1.4641058,0.51742989,0.82319152,-0.23371351,0
4.5172434,0.30861911,4.3714595,0.71774292,0.049036361,0.69457936,0
-0.85483801,-6.1299348,-0.11919242,-0.13809091,-0.99023241,-0.019254398,0
-1.1284745,-4.9540815,-3.8287377,-0.17737608,-0.77869332,-0.60180932,0
-0.11999965,-3.1972723,5.236248,-0.019555423,-0.52103502,0.85331124,0
-3.4144242,-5.4720712,-0.43048376,-0.52819705,-0.84650642,-0.066594027,0
-4.7958193,-3.4902608,-2.1614318,-0.75967717,-0.55287141,-0.34237954,0
-1.4113402,0.53162521,6.029623,-0.22707249,0.085533917,0.97011441,0
-1.6077278,-2.2111723,5.5173912,-0.26109773,-0.35909817,0.89603376,0
-0.52875364,-4.3764548,4.5531831,-0.083431996,-0.69056046,0.71844643,0
2.5758803,3.7537909,-4.3202934,0.41041851,0.59809661,-0.68835825,0
-4.5652428,-4.2394724,0.53727567,-0.73005831,-0.67796218,0.085919321,0
0.84927171,-0.52210456,6.3367615,0.13239457,-0.081391864,0.98784971,0
1.6632781,-5.8758464,-1.7597978,0.26171798,-0.92456859,-0.27690545,0
-5.022975,-2.9360554,2.7446291,-0.78081191,-0.45640424,0.42664739,0
1.1675886,-1.553284,5.9554186,0.18638413,-0.24795336,0.95067352,0
-1.7520487,3.381207,4.7655554,-0.28721046,0.55427569,0.78120965,0
4.624608,0.93755913,4.0040493,0.74728191,0.15149845,0.64700693,0
-2.4336145,2.9203579,-4.9452915,-0.39015627,0.46819082,-0.79282749,0
5.4061189,-3.2739389,0.34388113,0.85410959,-0.51724768,0.054329578,0
-5.2344594,-2.5244088,-1.6554065,-0.8662647,-0.41777116,-0.27395764,0
0.35623077,-5.5170546,2.6939077,0.057924137,-0.89708877,0.43803707,0
-0.7911309,0.58608788,6.1884518,-0.126252,0.093530364,0.98757911,0
3.1555979,-4.0849586,-3.487751,0.50654137,-0.65572375,-0.5598591,0
-0.23140876,5.5351081,-3.1849489,-0.036212973,0.86618471,-0.49841014,0
3.9315987,3.6595309,-3.2139378,0.62811959,0.58465356,-0.51346475,0
-5.9008946,1.8871456,-0.78608012,-0.94490182,0.30218592,-0.12587388,0
0.18889378,-2.1198242,-5.6756811,0.031162491,-0.34971508,-0.93633771,0
-4.8132496,1.9126433,3.5516191,-0.7664296,0.30455649,0.56553602,0
-5.5474958,0.25355688,-2.8612931,-0.88801432,0.040588066,-0.45802093,0
-3.1135218,-3.9613748,-3.4357502,-0.51054454,-0.64957255,-0.56338245,0
3.528904,-3.3650551,4.0451789,0.55699325,-0.53113174,0.63848072,0
2.7948213,1.9211372,5.0667572,0.4583903,0.31509373,0.83102,0
0.85126328,-2.3958204,-5.8202362,0.13402854,-0.37721387,-0.91637659,0
5.0077515,0.66016328,-3.4782221,0.81655025,0.10764442,-0.5671494,0
5.4805503,-2.7421956,1.0366942,0.88177401,-0.44119599,0.1667953,0
1.0237961,5.5431252,2.6967547,0.16384013,0.88707739,0.43156704,0
1.8805699,3.2669711,-4.9182606,0.30347988,0.5272125,-0.79369193,0
4.5973101,-2.1341836,3.846694,0.72251308,-0.33540824,0.60454631,0
6.1061888,0.0010022502,-1.8230803,0.95820451,0.00015727662,-0.28608415,0
0.66929555,-6.0054889,1.7388068,0.10644234,-0.95509124,0.27653354,0
-3.8231561,-2.8433552,4.1986437,-0.60201734,-0.44773194,0.66114384,0
-4.5327168,1.574697,4.3252354,-0.70164841,0.2437575,0.66953105,0
-4.9608197,3.3032238,1.3345208,-0.81224602,0.54084414,0.21850406,0
4.5832052,-3.8293726,-0.95489341,0.75777006,-0.63313419,-0.15787852,0
-5.1676211,3.6832674,0.69851327,-0.80943239,0.57693005,0.1094119,0
-6.0949397,1.625116,1.1289539,-0.95112962,0.25360316,0.17617591,0
5.0039487,2.5145936,2.8281949,0.79758644,0.40080461,0.45078996,0
0.8927173,-3.4433534,5.0144191,0.14520428,-0.56007612,0.81561667,0
-2.0156069,2.9462218,5.40558,-0.31115127,0.45481125,0.83446485,0
4.35988,0.91353732,-4.263555,0.70707053,0.14815438,-0.69144887,0
5.842021,0.5386821,1.7549697,0.95400685,0.087967232,0.28658801,0
-2.4730864,-2.7182879,5.1784759,-0.38946551,-0.42808026,0.8155145,0
1.1283226,-0.89111841,-5.9132891,0.18540946,-0.14643133,-0.97168988,0
-2.9955065,4.6834903,-3.2436366,-0.46538928,0.7276386,-0.50393939,0
1.0628741,-6.1757555,1.177573,0.16669312,-0.96855879,0.18468164,0
2.7206185,1.3494992,-5.256196,0.4481732,0.22230585,-0.86586422,0
3.6944475,4.0951414,2.8127012,0.59672987,0.66145021,0.45430955,0
4.2736583,-3.93659,-1.5435027,0.71086299,-0.65479642,-0.25673997,0
-5.7367702,0.18186626,2.680449,-0.9056105,0.028709535,0.42313755,0
3.1707282,4.2557592,-3.5365727,0.49717513,0.6673097,-0.5545401,0
-6.3560257,-0.75569916,-0.29808053,-0.99193108,-0.11793557,-0.046518903,0
-0.76202124,-1.5010659,6.0605736,-0.12114755,-0.23864223,0.96352118,0
-0.29719707,-5.7137871,2.9173563,-0.046275396,-0.8896715,0.45425016,0
4.6029906,4.0083551,-0.8828913,0.74637049,0.64995092,-0.14315997,0
2.4786632,5.0992947,2.2212541,0.40704691,0.83740789,0.36477509,0
3.9788961,3.5714588,3.4677701,0.6243577,0.56042373,0.54415321,0
4.2965946,-1.0782425,4.3463445,0.69233268,-0.17374283,0.70034909,0
4.8002596,-3.4794953,2.0357802,0.76577789,-0.55507845,0.32476482,0
1.0133828,-0.792063,-5.9453049,0.16659695,-0.13021266,-0.97738945,0
-2.8108168,2.533426,4.9732108,-0.44979247,0.40540388,0.7958231,0
3.0394492,4.0506997,3.3077128,0.50249207,0.66967547,0.54684234,0
4.1406193,-3.831054,-2.9578357,0.65007001,-0.6014688,-0.46437505,0
-5.7183328,-1.3989537,1.3484958,-0.94683152,-0.2316363,0.22328158,0
2.6101687,3.8827126,4.2653804,0.41228199,0.61328316,0.67372638,0
-4.1722407,1.9746079,-4.4188552,-0.65292603,0.30901212,-0.69151944,0
-3.8732734,-3.8957727,3.5294914,-0.59318048,-0.59662622,0.54053128,0
2.8317027,-5.3095727,1.8346272,0.45012376,-0.84400272,0.29162994,0
-4.4471478,3.9999068,-1.645076,-0.71688432,0.64478862,-0.26518777,0
4.4219975,1.8924941,3.9741449,0.70872784,0.30331615,0.63694906,0
1.7529813,-1.8889762,5.9442043,0.27057225,-0.29156303,0.91748655,0
5.9760032,0.43994197,0.93999434,0.9852522,0.072532386,0.15497506,0
-1.6620903,5.1203294,-3.4503109,-0.25993982,0.8007853,-0.53960556,0
-3.0487003,3.8376074,-3.7114162,-0.49589467,0.6242165,-0.60369056,0
-2.0245023,-5.1635604,3.126986,-0.31796676,-0.81098479,0.49112201,0
2.058893,-5.4214501,-2.4749827,0.32653412,-0.85982543,-0.39252469,0
-4.3615694,4.5017767,-1.0973799,-0.68540937,0.70744258,-0.17245041,0
-6.3825932,-0.046017297,0.6608128,-0.99465752,-0.0071712937,0.10298046,0
3.9710522,-3.5144889,-3.2100861,0.64061278,-0.56695968,-0.5178532,0
0.69686568,-4.6095014,4.3059297,0.10980847,-0.72634125,0.67850602,0
-5.4124389,-3.2605948,-0.27845588,-0.85574418,-0.51552266,-0.044025809,0
-4.7908921,-3.1490614,2.1292841,-0.78336233,-0.51490539,0.34816083,0
-1.9854465,-3.6699834,4.583292,-0.32032773,-0.59210736,0.73945862,0
-3.3617017,-1.7375748,4.9925265,-0.53661656,-0.27736294,0.79693937,0
-2.9497752,-2.128628,4.9264398,-0.48168316,-0.34759405,0.80446237,0
-2.0021975,4.6635656,3.3314304,-0.32980132,0.76818103,0.54875213,0
5.806128,0.86814654,2.2329552,0.92439628,0.13821802,0.35550982,0
1.2874895,-5.7347684,2.1202259,0.20605621,-0.91782075,0.33933148,0
-4.9156251,3.8606131,-1.1791265,-0.77281636,0.6069513,-0.1853779,0
-1.124742,6.2737947,0.82158536,-0.17501491,0.97623062,0.12784237,0
4.5372219,0.62282801,-4.26477,0.7250275,0.099525094,-0.6814909,0
1.9996531,3.1407037,4.8735456,0.32604644,0.51209641,0.79463887,0
4.6724119,3.3376889,2.2029588,0.75972039,0.54269838,0.35819459,0
-4.784369,1.6763929,-3.8433082,-0.7520557,0.26351246,-0.60413021,0
-3.6961956,-1.0644659,4.950316,-0.58959728,-0.16979788,0.78964782,0
-1.3201498,-3.9185998,-4.6605239,-0.21188621,-0.62894171,-0.74802172,0
-3.9366717,4.4550195,-2.3370361,-0.61626214,0.69740635,-0.36584887,0
3.1909409,-4.5869179,-2.7996268,0.51056796,-0.73393196,-0.44795561,0
1.4190348,2.5012476,-5.2659507,0.23650536,0.41687381,-0.87765676,0
3.8610127,-4.3792062,2.4089332,0.61133748,-0.6933862,0.38142097,0
1.5314202,-4.7597799,-3.7264304,0.24557941,-0.76328099,-0.59757251,0
2.2527475,-5.529532,1.5748249,0.3648172,-0.89547026,0.25503224,0
2.8170283,-5.6843448,-0.0060381377,0.44403988,-0.89600652,-0.00095177389,0
2.4286268,-3.8927255,4.4291143,0.38083002,-0.61041355,0.69452405,0
-5.4907656,1.1414515,2.8330696,-0.8738904,0.18166929,0.45090112,0
5.5918307,-2.4344001,0.87121999,0.90766549,-0.39515162,0.14141636,0
-4.4367895,4.2373948,-0.023660708,-0.72316474,0.69066483,-0.0038565248,0
0.41316241,-3.7989492,-4.6982694,0.068222418,-0.6272921,-0.7757901,0
0.30248165,-1.9717262,5.8002281,0.049314994,-0.32145971,0.94563824,0
1.9853489,-4.0233312,4.5626669,0.31026101,-0.62874734,0.71303219,0
5.3515234,2.3267074,2.3652787,0.8499096,0.36951926,0.37564501,0
-4.8150578,4.005239,-0.1628886,-0.76853502,0.63927925,-0.025998775,0
-0.22790149,3.003967,-5.6651282,-0.035518914,0.46817446,-0.88292187,0
5.1232214,3.8044839,-1.3726832,0.78489035,0.58285648,-0.21029849,0
5.9860415,1.6186022,-1.1107663,0.95020878,0.25693274,-0.17632018,0
-2.3285367,5.5822506,1.6368641,-0.37161374,0.89087749,0.26122895,0
-0.79712301,-6.1195817,0.61009008,-0.12853999,-0.98681253,0.098380014,0
-3.4832525,3.1825247,3.8366818,-0.57278532,0.52333373,0.63090318,0
-0.71891505,-3.4925041,5.0846462,-0.11576139,-0.56237119,0.81874168,0
-4.9832163,-0.091540694,3.9464481,-0.78385717,-0.014399301,0.62077415,0
2.6728809,-4.9279695,3.1575868,0.41541475,-0.76589692,0.49074695,0
4.3627038,-4.4084759,-0.65835798,0.69947755,-0.70681626,-0.10555533,0
2.3604424,0.11696748,-5.9220438,0.3701956,0.018344376,-0.92877269,0
1.3577876,-5.498312,2.3653183,0.22122563,-0.89584523,0.38538358,0
-0.84006715,-6.0901017,-0.87105018,-0.13529462,-0.98082399,-0.14028451,0
4.6275172,-4.4445772,-0.90207583,0.71419513,-0.68596077,-0.13922329,0
-0.91007835,-6.183301,0.25283641,-0.14549547,-0.98853284,0.040421307,0
-1.9618373,-1.4643935,5.8602724,-0.30889887,-0.23057441,0.92272258,0
2.4507589,2.8423586,4.9856086,0.39273009,0.45548329,0.79893559,0
2.8397436,-4.7608619,-2.9206934,0.45321238,-0.75981563,-0.46613169,0
-1.2873899,3.8917234,4.5190725,-0.21100529,0.63785976,0.74068332,0
-1.9363946,4.4012098,4.1442666,-0.30504724,0.69333851,0.6528613,0
6.3800592,0.10677382,0.95274568,0.98889762,0.016549747,0.14767386,0
1.5423433,3.2833111,-5.1722789,0.24413635,0.51971281,-0.81871611,0
1.5800773,-3.8302455,4.6257982,0.2544364,-0.61677605,0.74488217,0
-4.9272065,-2.7276678,-2.6000855,-0.79431844,-0.43972924,-0.41916162,0
2.3260419,2.4970038,5.0502219,0.38162491,0.40967396,0.82857084,0
4.0115523,-4.7054124,1.4839361,0.63085699,-0.73997349,0.23336388,0
-2.9747543,-1.5222206,5.139421,-0.48525825,-0.24831298,0.83837056,0
-4.859787,-2.8584425,2.9859934,-0.76172233,-0.44803187,0.46802416,0
3.3977535,5.0011582,1.6296393,0.54260296,0.79865807,0.26024464,0
-3.012342,2.9895611,4.8018532,-0.47005069,0.46649593,0.74928892,0
-1.2901776,-4.3428898,4.3286614,-0.20590182,-0.69308978,0.69081903,0
-3.4775045,-0.30096802,5.2124953,-0.55433816,-0.047976375,0.83090764,0
-1.7370111,-1.491932,-5.7523427,-0.28055561,-0.24097134,-0.92909712,0
3.3464406,5.3255167,1.5960863,0.51570874,0.82069755,0.24596751,0
-0.68699253,4.6967592,-4.0792403,-0.10976548,0.75043321,-0.65176803,0
-0.58036989,-5.7874193,1.6876003,-0.095828757,-0.95559949,0.27865097,0
4.0605173,-2.236521,4.2608638,0.644894,-0.35520571,0.67671317,0
5.8271065,-0.59522885,-1.7738172,0.95212263,-0.097257681,-0.28983364,0
2.3320651,3.9185343,4.1669469,0.37753239,0.63436204,0.674577,0
-5.482058,2.6075902,2.0381031,-0.85608733,0.40720564,0.31827357,0
-0.13408615,2.5121324,-5.8572602,-0.021034244,0.39408103,-0.91883498,0
2.9491136,2.441118,4.81779,0.47924611,0.39669421,0.78291559,0
4.1150999,-2.5083332,3.8633971,0.66622955,-0.40609604,0.62547922,0
2.547842,-4.5143204,-3.7206869,0.39930069,-0.70748943,-0.58311027,0
1.0587772,4.7256436,4.0751853,0.16728227,0.7466315,0.64386183,0
1.2366309,-3.2400148,5.0364594,0.20223004,-0.52984953,0.82362759,0
-3.8067751,-4.749445,-1.0018585,-0.61711442,-0.76993018,-0.16241078,0
-1.2125739,-4.3408766,4.5071802,-0.19023672,-0.6810258,0.7071166,0
-2.4701159,2.5082729,5.3375502,-0.38632199,0.39228967,0.83478391,0
-0.16641445,6.1854711,0.61182559,-0.026763842,0.99478722,0.098397724,0
4.5873952,-0.38594064,3.9306405,0.75782716,-0.063756511,0.64933276,0
4.7144547,1.6394758,3.9780896,0.73862737,0.25686148,0.62325895,0
-1.9145497,-2.7955475,5.3183184,-0.30360967,-0.44331849,0.84338003,0
4.4586296,-4.3208799,-0.96537042,0.70958686,-0.68766415,-0.15363783,0
0.94986254,6.094748,1.696274,0.14847851,0.95270526,0.26515439,0
-4.8856282,-2.6256297,-2.9696376,-0.77655339,-0.41733459,-0.47201341,0
-2.7795479,0.15766342,5.6044979,-0.4441672,0.025194356,0.89558959,0
-3.0338531,-4.6950822,-3.1608613,-0.47243267,-0.73111987,-0.49221042,0
-3.3788717,-0.45078978,-5.1785522,-0.54499781,-0.072710499,-0.83527869,0
-0.67684817,-1.061817,5.9659138,-0.11100689,-0.17414396,0.97844332,0
-2.3217497,4.9105268,-2.6388681,-0.38447037,0.81315917,-0.43698362,0
3.4810343,-2.7436295,4.4050374,0.55705845,-0.43905401,0.70492363,0
5.1520662,-3.5979748,-1.3722895,0.80098826,-0.55937469,-0.21334893,0
-4.1810598,1.4847696,-4.1725798,-0.68646997,0.24377784,-0.68507767,0
-0.6994946,4.9941931,3.8379087,-0.11037817,0.78806883,0.60561061,0
-1.5292773,1.5556755,5.9259443,-0.24217676,0.24635719,0.93843412,0
-0.69412029,6.1912298,0.78359431,-0.11054447,0.98600525,0.12479396,0
-5.3945165,-3.5751722,0.1751501,-0.83325201,-0.55223101,0.027054172,0
0.91475695,4.4212976,4.1216869,0.14963287,0.723221,0.67421168,0
3.492347,-4.96698,-1.7674519,0.5522489,-0.78543431,-0.27948922,0
0.57908821,6.0405064,-1.3575127,0.093128078,0.971425,-0.21831313,0
0.89606839,2.5465627,-5.6330123,0.1434513,0.40767843,-0.90178716,0
-1.1996052,-5.9266982,2.1909475,-0.18651834,-0.9215014,0.34065533,0
-4.7627864,0.63272834,-4.2333641,-0.74376917,0.098808512,-0.66109324,0
4.4491396,-3.4690199,2.2325637,0.73328662,-0.57174778,0.36796081,0
0.1504546,3.2168291,5.431941,0.023825737,0.50941163,0.86019301,0
3.1973472,-2.485352,4.7424369,0.51270419,-0.39853361,0.76046389,0
5.4653239,1.1424509,-2.7685924,0.87695223,0.18331483,-0.44424143,0
2.7789462,4.8489652,-3.1595113,0.43285179,0.75528032,-0.49212906,0
-4.4755688,4.3617625,0.72525936,-0.71137905,0.69328988,0.11527793,0
-0.13639973,3.2331083,5.0951238,-0.02259814,0.53564793,0.84413892,0
-1.6180029,-4.4163642,-3.9644778,-0.26303154,-0.71794868,-0.6444875,0
5.6990414,2.2048373,0.89685309,0.92275107,0.35699266,0.14521252,0
-3.2498796,-4.2738428,2.6068728,-0.54450339,-0.71606404,0.43677038,0
0.17899077,5.8061857,-2.7521656,0.0278458,0.90327501,-0.42815757,0
0.14145732,2.7499166,5.7942195,0.022050273,0.42865515,0.90319902,0
-4.3014584,4.7046447,-0.6442554,-0.67135513,0.73428291,-0.10055291,0
-1.8928442,-3.5605726,-4.3823586,-0.31784195,-0.59788299,-0.73587531,0
-4.5184894,4.0445633,1.9136569,-0.71056217,0.63603419,0.30093515,0
5.7561173,-1.9907813,-1.987324,0.8984555,-0.31073523,-0.31019557,0
-1.4426241,0.27846864,-5.8891068,-0.23767947,0.045879088,-0.97025955,0
3.7580974,4.7852049,1.6078761,0.59714997,0.76035416,0.25548652,0
-5.5709677,1.909157,2.4516957,-0.87333214,0.29928881,0.38433981,0
2.0995271,4.8437119,3.0204797,0.34519345,0.7963782,0.49661174,0
2.6903431,5.4539204,-1.5700762,0.42834464,0.86834931,-0.24998066,0
3.4287667,-4.7073312,2.5114102,0.54063344,-0.74223208,0.39598855,0
-0.79414338,6.0693827,1.968341,-0.12350965,0.94394451,0.30612746,0
-5.5358152,3.3085163,-0.59877115,-0.85470319,0.51081896,-0.092447378,0
0.26318032,-6.0513473,-0.03786784,0.043449271,-0.99903601,-0.0062517216,0
4.5854015,4.3293214,0.60822469,0.72376043,0.68334067,0.096002266,0
-3.0048926,-3.6690118,-4.0589666,-0.48137632,-0.58776653,-0.65023637,0
-3.4644923,4.8013167,2.6714947,-0.53336358,0.7391696,0.41128045,0
2.123841,2.8853829,-5.0593824,0.34258401,0.46542376,-0.81609857,0
-3.4933107,-2.6066592,4.2678142,-0.57265753,-0.42730895,0.69962168,0
-5.1085601,3.0616705,1.9237458,-0.8162263,0.48918205,0.30736879,0
-4.7907152,3.3354795,2.4121439,-0.7584765,0.5280804,0.3818959,0
-2.581861,0.49076438,-5.6952977,-0.41162109,0.078241616,-0.90799028,0
4.406157,-1.599588,-3.8165724,0.72892171,-0.26462391,-0.63138527,0
4.6208568,2.2402041,-3.660368,0.73273927,0.35523403,-0.58043247,0
3.2719772,2.5653286,-4.583436,0.52873898,0.41454726,-0.74066567,0
3.7812109,4.6809363,1.1609731,0.61700386,0.76381773,0.18944325,0
3.6502144,4.0772824,-3.1182129,0.57953387,0.64733821,-0.49506953,0
6.1405864,0.80906862,1.2479157,0.97190028,0.1280552,0.19751365,0
-1.2452612,-6.0403242,1.4893765,-0.19626984,-0.95203602,0.2347457,0
3.318083,4.7435236,2.4708531,0.5271728,0.753645,0.392566,0
5.8049526,0.82538295,1.8319253,0.94499242,0.13436469,0.29822046,0
-1.3885725,-5.401865,-2.6361873,-0.22508518,-0.87563294,-0.4273214,0
-0.47197637,-6.0259204,-1.9460355,-0.074327879,-0.94897527,-0.30646598,0
-4.8118362,-3.9682522,0.86550838,-0.76416969,-0.63019979,0.13745174,0
2.9003596,5.4593511,1.1015261,0.46189013,0.86941648,0.17542103,0
-2.2445428,3.4406757,4.5793476,-0.36484987,0.55928099,0.74437183,0
-5.8133874,2.013602,-1.2897685,-0.92481768,0.32033214,-0.20518169,0
5.4859176,-3.1764269,-0.77786523,0.85895842,-0.49734953,-0.12179437,0
5.6288934,-2.6461329,0.088575885,0.90489769,-0.42539084,0.014239409,0
-4.1339841,-0.63832062,-4.7059755,-0.65657282,-0.10138016,-0.74741834,0
-2.771879,-4.2612915,-3.8285365,-0.43556085,-0.66960061,-0.6015994,0
0.64920199,3.7323809,5.2281895,0.1005505,0.57808316,0.80975884,0
-0.94053131,6.1030583,1.4206831,-0.14843252,0.96317083,0.224209,0
-2.7842164,4.1629415,-3.5959249,-0.45158458,0.67520618,-0.58323926,0
-3.5420549,-2.7007639,4.4044242,-0.56545109,-0.43114802,0.7031191,0
-4.9691825,3.7444603,1.7821894,-0.76776797,0.57854116,0.27535877,0
-1.5060602,-0.84451807,6.0440769,-0.23959416,-0.1343516,0.96153224,0
3.048775,4.5113411,2.809006,0.49761251,0.73632848,0.45847809,0
0.95406169,-5.1736779,-3.5193083,0.15073229,-0.81738985,-0.55601585,0
-2.5907512,3.3292241,-4.6170964,-0.41425088,0.5323298,-0.7382555,0
-3.8632617,-0.33041525,5.0072012,-0.61002737,-0.052174136,0.7906608,0
-2.1972315,-5.7490282,-1.2047951,-0.3503564,-0.91670305,-0.19210888,0
2.4054818,5.3816395,1.3687263,0.39749554,0.88929278,0.22617613,0
4.7632437,4.06778,-0.34736192,0.75927204,0.64841354,-0.055370294,0
-6.0624189,-0.74836105,1.5559489,-0.96175641,-0.11872176,0.24683939,0
4.6198635,-1.0691428,3.9018798,0.75230831,-0.17410147,0.63539034,0
4.1774282,3.3289237,-3.5826764,0.64949477,0.51757163,-0.55702442,0
-5.4696965,-2.1538718,1.8332119,-0.88826776,-0.34978446,0.29770994,0
-0.52712089,0.86870593,6.1589537,-0.08444456,0.13916636,0.98666197,0
3.706007,3.3558426,-4.0019469,0.57869816,0.52401954,-0.62490958,0
2.8646481,-3.7596869,4.2635283,0.45002976,-0.59063834,0.66979069,0
-3.4672182,-5.2278914,-0.14891171,-0.55255175,-0.83314067,-0.023731252,0
-0.85007834,4.7271814,4.394083,-0.1305854,0.72616947,0.67500031,0
6.0611877,-0.75582904,-0.27897418,0.99128115,-0.12361258,-0.045625024,0
5.142396,-1.3368201,-3.7059071,0.79381907,-0.20636165,-0.57207179,0
3.1581171,-2.1170259,-4.8940196,0.50959295,-0.34160277,-0.78969777,0
4.9428129,3.3119814,-0.60025203,0.82655126,0.55383897,-0.10037586,0
3.028568,5.3618507,0.87027204,0.48696694,0.86213815,0.13993204,0
4.0091033,-4.2773852,1.8019441,0.65367419,-0.69741684,0.29380244,0
4.0717568,1.2626898,-4.6104951,0.64843589,0.20108603,-0.73423111,0
-5.0930095,-3.3514664,-1.6245482,-0.8071925,-0.53117484,-0.25747511,0
1.5447757,5.514873,2.6055901,0.24551429,0.87648976,0.41411164,0
2.815661,-3.7786314,4.3926549,0.43706787,-0.58654732,0.68186063,0
5.6762238,-2.0838609,1.3066758,0.91755837,-0.33685493,0.21122341,0
0.42313531,6.0911722,1.2757268,0.067835152,0.97650933,0.20451878,0
-0.66090643,-4.5437827,-3.9765959,-0.10880526,-0.74804455,-0.65466839,0
-2.3697894,-4.9936728,2.6458166,-0.38671175,-0.81488758,0.43175498,0
5.0024781,1.3853261,-3.5758829,0.79363579,0.21977995,-0.56730855,0
1.0954139,-3.9921017,4.5128088,0.17887498,-0.65188789,0.73691648,0
-0.6833843,4.6782665,-4.0113273,-0.11021763,0.75452048,-0.64695513,0
-0.24376665,-2.2987101,-5.9253993,-0.038326077,-0.36141342,-0.93161762,0
-3.3567495,-0.42919955,5.3477273,-0.53041619,-0.067819886,0.84502017,0
0.62217933,-6.0835633,0.36774939,0.10155801,-0.99301696,0.060027547,0
4.4336758,-3.5726302,2.5775766,0.70936477,-0.57160205,0.4123987,0
1.9013997,-5.2879667,-2.8583963,0.30158788,-0.83874357,-0.45338058,0
1.7681798,1.1235271,5.6689463,0.29256812,0.18590203,0.9380002,0
-1.210295,0.76113749,-6.0535812,-0.19457719,0.12236686,-0.97322458,0
5.9933167,0.34427819,0.7604323,0.99043971,0.056894507,0.12566704,0
-5.9761815,0.16702975,2.2009087,-0.93806344,0.026218165,0.3454701,0
-2.6769733,-5.0305567,-2.0879798,-0.44109216,-0.82889849,-0.34404209,0
-4.111239,-2.1182768,4.5007491,-0.63706744,-0.32824296,0.69742495,0
-1.9540085,5.9288087,-0.98639011,-0.30918053,0.93810862,-0.15607539,0
-0.39916319,5.3158889,3.2398009,-0.063987598,0.8521601,0.51935416,0
-0.79381531,3.645736,4.7119479,-0.13207531,0.60657901,0.78397578,0
-5.2080293,-1.6714507,2.9472799,-0.83822095,-0.26901636,0.47435826,0
4.6460633,-4.0649357,-1.7187562,0.72502995,-0.6343435,-0.26821625,0
-4.2930102,-3.3951926,3.0819833,-0.68344879,-0.5405159,0.49065289,0
-2.6670346,3.097589,-4.4614367,-0.44077167,0.5119279,-0.73732638,0
4.0463691,4.4205198,-0.95344365,0.66681445,0.72847199,-0.15712112,0
1.3252686,-6.1548162,0.90490073,0.20835666,-0.96765059,0.14226708,0
5.8912196,-1.0443397,-1.3088236,0.96190214,-0.17051691,-0.21370113,0
-4.6467471,-3.4227848,1.9861995,-0.76132506,-0.56079054,0.32541978,0
-1.1322461,5.6013751,2.5811715,-0.18056561,0.89328253,0.41163382,0
-2.5668981,3.4431469,4.5796313,-0.40885136,0.54841888,0.72943628,0
5.9638667,-1.4040755,-0.76312983,0.96592396,-0.22740786,-0.12359857,0
-5.5975738,0.37590235,2.9055922,-0.88597828,0.059497442,0.45989418,0
-0.15544534,3.3566189,-5.1987143,-0.025111813,0.54225355,-0.83983958,0
5.346941,-1.5918037,-2.6103334,0.86810309,-0.25843742,-0.42380092,0
-5.5572243,-2.7234254,-1.0891047,-0.88437551,-0.43340534,-0.17331989,0
-5.5823417,-0.026050413,-2.634166,-0.9043619,-0.0042202719,-0.42674553,0
-3.8089142,-2.3239665,-4.5873046,-0.5952009,-0.36315519,-0.71683621,0
-0.048952509,4.1654873,4.8694243,-0.0076390468,0.65002495,0.75987446,0
4.973866,0.2157158,3.4224572,0.82329041,0.035705976,0.56649619,0
1.2090766,5.9635315,-1.9468956,0.18925124,0.93344432,-0.30473867,0
2.2400296,-5.6465259,0.60152608,0.3669576,-0.92500365,0.098540917,0
3.5466311,-1.8209653,4.4542747,0.59329224,-0.30461714,0.74512589,0
-5.0290761,-0.59869105,-3.7980368,-0.79442114,-0.094572604,-0.59995925,0
-0.60304856,-4.9853406,-3.4226494,-0.09923204,-0.82034111,-0.56319922,0
5.2332344,-0.59257162,-3.2414401,0.84622121,-0.095819645,-0.52414531,0
-2.2035594,-4.7999411,3.2377045,-0.35570052,-0.77481079,0.52263314,0
5.7291574,1.6305374,1.5797516,0.92966723,0.26458639,0.25634542,0
2.0433547,-4.3757086,-4.3285151,0.31507838,-0.67471945,-0.66744238,0
-5.1333499,2.8300517,1.861603,-0.83465201,0.46014947,0.30268553,0
-1.073912,6.0120177,1.1384976,-0.17286609,0.96774596,0.18326235,0
-0.33262378,5.2635269,-3.1572504,-0.054113012,0.85629869,-0.51363838,0
-4.5791025,-2.6989279,-3.3579168,-0.7283296,-0.42927825,-0.5340938,0
3.7412653,-1.5212538,-4.8283691,0.59434283,-0.24166858,-0.76704168,0
-5.3378134,-2.9978297,-1.259778,-0.85400891,-0.47962958,-0.20155475,0
0.22985126,-3.1664882,5.4090252,0.036647648,-0.50486714,0.86241883,0
-4.2019987,-4.6613641,-0.41574484,-0.66809624,-0.74113297,-0.066101298,0
2.3335552,-5.8233728,0.7327804,0.36945677,-0.9219771,0.1160164,0
-2.4362514,-0.073897183,5.585722,-0.3997559,-0.012125528,0.91654146,0
5.9205132,-1.4732829,-1.7046183,0.93461221,-0.23257245,-0.26909107,0
-4.2118649,-1.5694829,4.5346322,-0.65966815,-0.24581461,0.7102204,0
-4.9634614,-3.6461267,-0.21192843,-0.8054437,-0.59167373,-0.034390599,0
-1.2463983,5.8635778,0.75183618,-0.20630445,0.97054219,0.12444428,0
-5.2488503,2.5804811,2.2792864,-0.83616412,0.41108155,0.36309996,0
1.5596737,5.9850488,1.8493221,0.24160413,0.92712504,0.28647265,0
0.38887092,0.951343,-6.276619,0.061141245,0.14957738,-0.98685777,0
2.9760401,5.6636834,-0.50251347,0.46372506,0.88251227,-0.078301392,0
5.5066614,-1.5416416,-2.671438,0.87246388,-0.24425445,-0.42325702,0
1.6906128,3.1015189,-5.145483,0.27087593,0.49693626,-0.82442737,0
-5.8401613,-1.404581,-2.3546484,-0.9052099,-0.21770641,-0.3649644,0
-2.735764,-4.2628112,-3.8124874,-0.43153307,-0.67240596,-0.6013729,0
2.1944573,-5.7545543,-0.47610387,0.35525385,-0.93158686,-0.077074975,0
1.757195,-5.9865413,1.4615203,0.27421898,-0.93422943,0.22807749,0
5.5355849,0.27014285,-3.0539062,0.87479347,0.042690918,-0.48261154,0
-4.8484712,1.6602634,3.2881269,-0.79626721,0.27266601,0.54001099,0
5.7510157,2.5147893,0.92288518,0.90648639,0.39638603,0.14546697,0
3.2475452,4.5200005,-2.5642953,0.52995062,0.73759621,-0.4184545,0
-3.3838758,5.1649528,-0.11393167,-0.54792637,0.83632314,-0.018448126,0
-2.2600932,-2.3355696,-5.4956775,-0.35398152,-0.36580285,-0.86074698,0
-3.686475,-3.3142827,-4.17836,-0.56861031,-0.51120251,-0.64447981,0
3.7843711,-1.0136335,4.7572985,0.61406118,-0.16447461,0.77193069,0
-5.0983939,-3.4242637,0.82717401,-0.82271314,-0.55256361,0.13347869,0
-5.4506907,-0.76431066,2.7443812,-0.88625222,-0.12427269,0.44622123,0
4.8825598,0.37756407,-3.8227184,0.78592545,0.06077493,-0.61532718,0
-4.0318866,-4.9447284,0.62231457,-0.62895644,-0.77135569,0.097078316,0
-3.9558506,-4.1461086,-2.3020203,-0.64055938,-0.67136735,-0.37275946,0
0.50453311,-5.4315648,3.0441449,0.080765866,-0.86948711,0.48730797,0
1.6196773,4.8240738,3.134721,0.27099642,0.80714023,0.52448606,0
2.9884756,-0.54150879,-5.5140915,0.47472364,-0.086019449,-0.87592131,0
5.9629836,0.46572512,-2.2723794,0.93196899,0.072789297,-0.35515562,0
-0.4440091,-4.1116967,4.7793164,-0.070252262,-0.65056324,0.75619578,0
-0.73765528,0.39063442,-6.3747983,-0.11473492,0.060759284,-0.99153626,0
2.7946217,4.2507968,-3.7089577,0.44389534,0.67519295,-0.58912766,0
-1.6818115,-4.3249025,-4.4568033,-0.26139435,-0.6721949,-0.6926955,0
-0.025459936,5.1460996,3.5150027,-0.004085334,0.82574975,0.56402189,0
-4.2903552,3.838428,-2.9041822,-0.66539168,0.59530228,-0.45040995,0
2.9221258,2.5160303,4.8136859,0.47377715,0.40793508,0.78046411,0
-3.1350999,-3.4261658,4.3591404,-0.49221087,-0.53790826,0.6843853,0
-2.6542366,5.6318464,0.92630017,-0.42167568,0.89472532,0.14716031,0
5.2235727,-1.5001554,3.3818173,0.81605506,-0.23436248,0.52832597,0
5.076335,-2.6642859,2.4811697,0.81261629,-0.42649707,0.39718395,0
2.9302568,5.226017,1.9690466,0.46462402,0.82864171,0.31221372,0
-1.4861628,3.4666743,-5.0532885,-0.23568448,0.54976571,-0.80138034,0
-0.13907014,6.0244727,0.99970168,-0.02276689,0.98625422,0.16365914,0
-2.8496056,4.3290625,-3.2180829,-0.46710396,0.70961475,-0.52750432,0
4.1964111,0.33966699,4.5353532,0.67812359,0.054888856,0.73289531,0
-1.3440542,0.82340181,5.8709555,-0.22110286,0.13545324,0.96579814,0
-4.0899105,2.9038188,-3.9033971,-0.64349389,0.45687789,-0.61414844,0
-1.6704495,4.4938807,-4.0468431,-0.26625213,0.71627742,-0.6450243,0
0.4573572,-5.4551105,2.8044524,0.074357331,-0.88689423,0.4559491,0
-2.2379158,3.9786363,4.2311707,-0.35955095,0.63922089,0.67979389,0
-3.596869,4.3958611,2.3406899,-0.58549649,0.71555603,0.38101631,0
1.5313159,-2.8291173,-5.5034685,0.24021713,-0.44380289,-0.86332768,0
-0.46867612,-6.0596256,0.89993423,-0.076282054,-0.98626894,0.14647393,0
5.128716,3.4241111,0.80065465,0.82475591,0.55063605,0.12875438,0
0.86205798,-1.8704479,-5.6859589,0.14254862,-0.30929446,-0.94022167,0
-5.57722,-1.4928463,2.5507305,-0.88360268,-0.23651263,0.40411395,0
2.9343171,-5.2793093,-1.4798998,0.47185868,-0.84894979,-0.23797821,0
4.7575159,-3.8731084,1.5166352,0.75284022,-0.61288953,0.23999582,0
-2.3600936,1.8238512,-5.5438633,-0.37489727,0.28971598,-0.88063419,0
-3.369776,-5.3016768,-0.092308775,-0.53636223,-0.84386003,-0.014692651,0
0.10621653,-3.1836536,5.2555785,0.017283428,-0.51804036,0.85518152,0
2.188134,-6.0498476,0.17545015,0.33999473,-0.94003212,0.027261641,0
0.83683771,-6.0408444,0.7136274,0.1362896,-0.98382789,0.11622325,0
-5.493144,-0.91370702,-2.9949579,-0.8687675,-0.14450721,-0.4736672,0
4.5368328,-3.7988389,-1.6892691,0.73725641,-0.61732894,-0.27451408,0
3.9098647,4.3244772,-2.2734208,0.62482631,0.69108456,-0.36331004,0
2.8025529,-4.9139185,-2.5761836,0.45086721,-0.79053801,-0.41444951,0
-6.0567565,1.6730402,-0.25216207,-0.9631272,0.26604182,-0.040098052,0
4.0206494,-1.8588802,-4.382462,0.64525163,-0.29832134,-0.70331693,0
-4.4866695,3.506706,2.02667,-0.74228728,0.58015931,0.335298,0
5.2053003,-3.1457307,-0.50468838,0.85292137,-0.51544785,-0.082696378,0
0.5786947,-3.5551372,4.9788713,0.094170742,-0.57852596,0.81020963,0
-1.2062624,-1.0718747,-6.0391159,-0.19297133,-0.17147273,-0.96610516,0
3.1620686,-4.5275965,2.3812101,0.52578622,-0.75284511,0.3959457,0
-2.8163016,-1.786327,-5.1911988,-0.45643783,-0.28950992,-0.84133732,0
-5.9676561,-0.94492251,1.9158177,-0.94149846,-0.14907748,0.30225259,0
4.1881027,4.6403289,1.3085743,0.65579164,0.72660327,0.20490237,0
1.4746259,5.0092697,-3.7614717,0.22913842,0.77837783,-0.58448565,0
-0.14055325,5.8397145,-2.6563904,-0.02190312,0.91003209,-0.4139587,0
-3.3732429,4.7995515,2.5437162,-0.52755266,0.75061786,0.39782026,0
-3.2066433,-2.1447082,-5.1800051,-0.49648443,-0.33206505,-0.80201989,0
0.12957337,2.7976346,5.6758323,0.020472353,0.4420211,0.89677101,0
5.229197,0.68680173,3.1908953,0.84830993,0.11141687,0.51764512,0
4.3307319,-3.0737159,3.0456913,0.70740175,-0.50207496,0.49749729,0
3.2499301,4.4397278,-3.1442597,0.51283699,0.70058632,-0.49616227,0
-2.7814779,2.6555715,4.9916368,-0.44142041,0.42143905,0.79217249,0
-3.7300553,-3.4550018,3.8836715,-0.58301151,-0.54002041,0.60702187,0
-1.194162,6.291451,-0.38283217,-0.18614538,0.98070824,-0.059675686,0
-5.8955369,1.2621653,1.9366573,-0.93099093,0.19931424,0.30582634,0
-0.14161441,-5.4089465,3.2549648,-0.022427242,-0.85660601,0.51548344,0
4.5455909,0.27367136,-4.2877955,0.72673678,0.043753836,-0.68552113,0
0.19449893,-4.0305586,-4.9633169,0.030406145,-0.63009989,-0.7759186,0
0.11031561,-5.3899574,-3.3700287,0.017351378,-0.84777832,-0.53006679,0
-4.5760555,3.9089174,-2.257515,-0.71191901,0.60812914,-0.35121247,0
5.8063641,1.4610908,-1.8435501,0.92682821,0.23322342,-0.29427266,0
-1.3892303,5.87819,1.4649537,-0.22352009,0.94577092,0.2357036,0
5.2818203,-2.0761456,2.3992248,0.85722733,-0.33695367,0.38938868,0
0.059187453,-1.1886542,-6.1148157,0.0095010698,-0.1908088,-0.98158121,0
3.2923982,4.3030949,3.0816624,0.52820104,0.69034755,0.49439257,0
-5.4162173,2.4244795,-1.8934524,-0.86953616,0.38923338,-0.30398068,0
-1.8600541,-5.5565019,2.3135736,-0.29525733,-0.88201624,0.36724716,0
5.6245551,0.7579096,2.078831,0.93058044,0.12539585,0.34394175,0
-3.9797602,4.9556012,0.27814859,-0.625561,0.7789492,0.043720957,0
-3.6278718,3.1402075,-3.9220455,-0.58540875,0.50671715,-0.63287783,0
4.2389917,1.479358,-4.3377118,0.67901444,0.23696801,-0.69482774,0
-2.8873734,-4.0232849,3.6458158,-0.46953368,-0.65425128,0.59286869,0
0.61372679,5.7738509,2.3202367,0.09815231,0.92340237,0.37107161,0
2.928561,4.9361506,-2.2387025,0.47536412,0.80123615,-0.36338627,0
1.6716381,5.853374,-0.99636072,0.2710005,0.94892985,-0.16152674,0
-0.30549327,-3.4424429,5.3064618,-0.04824109,-0.54360348,0.8379547,0
0.49558845,-5.83286,2.2089944,0.079208001,-0.93224365,0.35305509,0
-3.7094979,-4.6037726,-2.0061491,-0.59414947,-0.73738527,-0.32132447,0
-0.016518354,5.3537645,3.5337112,-0.0025750217,0.83459044,0.55086499,0
3.6986818,-2.1300712,4.7536669,0.57894611,-0.33341512,0.74408048,0
4.7817998,-1.6836013,-3.376704,0.78503907,-0.27640069,-0.55436122,0
-2.9389021,-5.5811162,-1.2968178,-0.4563835,-0.86669415,-0.20138344,0
-1.007337,5.9115529,-2.0504298,-0.15894559,0.9327715,-0.323533,0
-3.5388498,1.9418672,-4.7352414,-0.5687381,0.31208271,-0.76101339,0
-2.3372517,-5.2859778,-2.9314244,-0.36065626,-0.81566781,-0.45234177,0
-0.97361767,-3.8931565,4.7285204,-0.15698712,-0.62773657,0.7624315,0
4.9593663,-3.2918603,-1.8946981,0.79391497,-0.52697402,-0.30331078,0
-3.35936,5.0414348,1.3999729,-0.54027939,0.81080419,0.22515494,0
-0.98425972,-2.0722492,6.040441,-0.15232877,-0.32071126,0.93484771,0
-4.3938346,3.5872319,-2.8164697,-0.69380307,0.56643748,-0.44473121,0
4.1356506,-4.4825163,-1.2378681,0.6645481,-0.72028512,-0.19891013,0
-2.4418769,-4.8653936,-3.2224846,-0.38600188,-0.76910144,-0.50939715,0
1.8543843,-2.5620527,-5.5539913,0.29013854,-0.40086097,-0.8689822,0
2.5909271,5.4938107,2.2096348,0.40085268,0.84996939,0.34186143,0
-3.9034939,-4.6556959,0.28504705,-0.64178228,-0.76545352,0.046865232,0
-1.502744,-2.3803904,5.7626314,-0.2343111,-0.37115565,0.89852202,0
3.2882421,-3.2173381,-4.3338804,0.52026594,-0.50904751,-0.68570691,0
-3.5944705,5.1366787,-1.0061187,-0.56609017,0.80897129,-0.15845279,0
2.2413642,-5.6528697,-1.3472786,0.35985807,-0.90758598,-0.2163098,0
-3.377826,3.9134448,-3.2892766,-0.55127263,0.63868743,-0.53682107,0
-4.3854136,3.3246179,-3.0434351,-0.69735098,0.52866745,-0.48395491,0
-4.9875321,0.65431499,-3.6330662,-0.80378461,0.10544861,-0.58550054,0
-0.76170731,-5.9061294,2.0350809,-0.12103695,-0.93849683,0.3233788,0
5.8707862,-1.8691856,-1.4131429,0.9287526,-0.29570332,-0.22355783,0
5.1331229,2.1623189,2.6538782,0.83196235,0.35046268,0.43013322,0
-2.9287782,-3.4030676,4.5998597,-0.4556385,-0.52942508,0.71561348,0
-2.3219748,-5.3481455,-1.8743957,-0.37913853,-0.87326014,-0.30605659,0
0.71961576,2.9704459,-5.4431405,0.11527631,0.47584012,-0.87194473,0
-0.061259449,0.081287086,6.0861053,-0.010064052,0.013354307,0.99986017,0
1.4986895,-3.4872229,4.9436231,0.24045698,-0.55950689,0.79317874,0
1.5102595,-5.8258834,-1.5992992,0.24252145,-0.93553567,-0.25681967,0
3.094908,-1.0773624,-5.5090861,0.48281854,-0.16807303,-0.85944039,0
5.4168482,-0.12833938,3.4804955,0.84113604,-0.019928724,0.54045635,0
-4.6842694,-0.064138219,-4.5255284,-0.71915287,-0.0098468252,-0.69478214,0
0.29011911,-3.1907487,5.2144651,0.047404263,-0.52135515,0.85202205,0
4.0280209,-1.9009984,-4.3570085,0.6464743,-0.30509934,-0.6992749,0
0.21778987,-4.6141272,3.895674,0.036041986,-0.76359063,0.64469403,0
-2.841635,2.5455396,5.0283666,-0.45020816,0.40329695,0.79665816,0
3.738565,4.8881764,-0.64979148,0.60414773,0.78992361,-0.10500555,0
-6.0923576,1.2369242,0.37013361,-0.97827327,0.19861767,0.059433773,0
-1.9995106,4.268065,-4.2091064,-0.31642342,0.67542315,-0.66609293,0
-0.82006449,0.87531513,6.1394873,-0.13109377,0.13992602,0.98144543,0
-0.88340914,-2.3690915,-5.5511093,-0.14482541,-0.38838702,-0.91004455,0
-6.1230922,1.4948994,-0.69316959,-0.9656449,0.23575376,-0.10931661,0
3.9375978,-0.86497992,-4.4834332,0.65306288,-0.14345962,-0.74359137,0
1.0991437,5.3910022,-2.8953841,0.17678921,0.8671031,-0.46570128,0
5.5261192,-2.197643,-1.5221931,0.90019727,-0.35799307,-0.24796318,0
3.343344,5.0616145,-1.091556,0.54243779,0.82121706,-0.1770985,0
-4.1105528,4.0225382,2.3162615,-0.66297066,0.64877522,0.37357831,0
3.9346619,4.798923,-0.96278977,0.62654018,0.76416171,-0.15331088,0
-6.005671,1.209595,1.4982977,-0.95224881,0.1917913,0.2375675,0
2.0269346,-4.7849751,-3.5650809,0.32163742,-0.75928795,-0.56571305,0
2.4112606,1.8875668,5.5165534,0.38216513,0.29916394,0.87432873,0
1.356654,-3.423198,-5.2484856,0.21160197,-0.53392792,-0.81862426,0
-1.1159263,-6.0521336,-1.0977275,-0.17851138,-0.96814162,-0.17560019,0
-4.4133129,-2.4264293,-4.1232381,-0.67804122,-0.37278551,-0.63347542,0
3.618767,-4.6334963,1.4080788,0.59859359,-0.76644373,0.23291551,0
2.130995,3.4953227,-4.6814203,0.34266698,0.56205279,-0.75277889,0
-0.15606223,4.9351411,-3.8297474,-0.024974933,0.7897799,-0.61288166,0
5.0357194,0.99163109,-3.1240847,0.83810347,0.16503888,-0.51994681,0
0.3013815,3.1409862,-5.2036767,0.04952348,0.51613176,-0.85507631,0
-5.0604572,-1.9874111,-3.5248258,-0.7810089,-0.30672836,-0.54400623,0
4.4848204,-1.6607137,-4.0380192,0.71652025,-0.26532501,-0.64513677,0
0.88020736,-3.0991893,5.3946733,0.14008258,-0.49322742,0.85854739,0
-0.95625949,4.871613,4.0352349,-0.14946999,0.76146692,0.63073522,0
3.6874232,0.67302239,4.9906149,0.59079146,0.10783029,0.79958618,0
3.9596486,-3.9762995,2.9582291,0.62419868,-0.62682348,0.46633497,0
-4.3896623,-4.2161536,-0.35229468,-0.72001165,-0.69155198,-0.057784919,0
-0.12791498,2.3999419,-5.9381933,-0.019967658,0.37463337,-0.92695796,0
5.0794253,-2.8488758,-2.569536,0.79796582,-0.44755173,-0.40366811,0
-4.7861657,-2.2368741,-3.1474495,-0.77829051,-0.36374375,-0.51181471,0
-3.0958745,-5.5822864,0.78107703,-0.48140633,-0.86804163,0.12145693,0
1.1438153,5.8352151,-1.6469542,0.18537943,0.9457199,-0.26692373,0
6.108726,0.044684589,1.0631433,0.9851656,0.0072063669,0.17145509,0
-1.9948585,-0.099632777,-5.7721982,-0.32659766,-0.01631185,-0.94502264,0
1.6487367,2.670244,5.5998659,0.25684175,0.41597313,0.87235236,0
0.62425435,0.058724117,6.2385397,0.099562578,0.009365933,0.99498725,0
0.057466652,-2.6848001,5.6156516,0.0092320228,-0.4313134,0.90215492,0
-0.41121334,6.0649681,-0.076232977,-0.067640774,0.99763095,-0.012539617,0
2.5161264,5.1591759,-1.8698041,0.41679117,0.85460687,-0.30972922,0
2.7697766,-1.8682076,-5.3664417,0.43815622,-0.2955353,-0.84892756,0
2.1210742,5.1862864,2.1274624,0.35389292,0.86531156,0.35495877,0
4.3499789,-4.0757098,1.9976345,0.69191891,-0.64829296,0.31774893,0
2.7137327,-5.36975,-2.2151406,0.42327011,-0.83753812,-0.345503,0
-5.7954588,2.2807207,-0.10779613,-0.93039703,0.36614457,-0.01730548,0
-3.0750821,-3.4675846,4.2696209,-0.48798573,-0.55027211,0.67754745,0
-4.6896782,3.0486493,-3.042959,-0.73648512,0.47877163,-0.477878,0
1.3656712,-5.7052708,-1.9923658,0.22042818,-0.92086768,-0.32158077,0
4.2837791,-3.7076199,-2.6867015,0.68319511,-0.59130687,-0.42848647,0
1.4327023,0.53164268,6.109395,0.2274991,0.084419653,0.97011214,0
2.0987618,5.9883718,-1.0619031,0.32621169,0.93077588,-0.16505218,0
-1.0983775,3.5424604,5.3091044,-0.16960037,0.54699099,0.81977832,0
5.4316068,0.71373814,-3.1062014,0.86248296,0.11333424,-0.49323267,0
-5.8618608,0.79426694,-2.0007427,-0.93870622,0.12719226,-0.32039478,0
-5.0020313,0.28033233,-3.8052354,-0.79508865,0.044559706,-0.60485417,0
2.2894278,5.8056617,-1.206995,0.36017591,0.91335464,-0.18988611,0
2.3621216,-2.0400205,5.5911875,0.36888936,-0.31858724,0.87316823,0
0.97256869,-2.2941644,-5.6628489,0.1571997,-0.37081385,-0.91530615,0
1.2567668,-0.93625188,-6.0664825,0.20058076,-0.14942639,-0.96821439,0
-6.254077,1.3228133,-0.67206895,-0.9729923,0.20579968,-0.10455866,0
4.1883712,2.1158667,4.2562528,0.66112465,0.33398461,0.67183959,0
3.3439591,4.1269979,-3.2310929,0.53785223,0.66379851,-0.5196985,0
1.5906098,4.5881329,-3.6907563,0.26078132,0.75222683,-0.60510147,0
0.31165069,4.8616457,3.8340411,0.050271083,0.78421193,0.61845332,0
0.1993535,5.9907098,-1.065758,0.032745127,0.9840135,-0.17505777,0
4.8559513,2.8833835,3.0486763,0.756634,0.44927675,0.47503197,0
-2.9838111,-3.4360096,4.6381683,-0.45920059,-0.52879274,0.7138018,0
-2.0179644,5.6737552,-0.71522945,-0.33276358,0.93560576,-0.11794178,0
3.0123441,5.2104545,0.6157375,0.49791026,0.86123586,0.10177523,0
2.2317297,-5.4566026,-2.1231573,0.35616422,-0.87082517,-0.338837,0
-1.0059595,6.1924872,0.3746241,-0.16006131,0.98530567,0.059607591,0
1.0201182,-0.3543326,6.0776329,0.16525945,-0.057401981,0.98457825,0
-3.4086616,3.4766867,3.9716964,-0.54248971,0.55331588,0.63209689,0
-3.3916152,2.3929193,-4.650517,-0.54409552,0.383881,-0.74605322,0
4.701695,0.15217791,-3.9152732,0.76820922,0.024864327,-0.63971591,0
-1.1913155,-4.9570346,3.6142445,-0.19063078,-0.79320997,0.57834065,0
-0.096830882,-3.4963634,-5.4458361,-0.014960744,-0.5402016,-0.84140265,0
-5.3643813,2.8553383,-1.0123948,-0.87073916,0.46347469,-0.16433056,0
1.7792786,2.5876904,5.2665315,0.29017478,0.42201513,0.85889566,0
-5.8509192,1.4116193,0.77638727,-0.96411955,0.23260786,0.12793377,0
1.9973893,-5.9918103,0.66480392,0.31450731,-0.94346559,0.10467949,0
-2.4866321,-5.505991,-1.1345463,-0.40452316,-0.89570981,-0.184567,0
-4.2294912,-3.2064631,3.4339554,-0.66905874,-0.507227,0.54321373,0
-5.6718011,2.5907927,-0.50556749,-0.90662253,0.4141314,-0.080813639,0
-4.4164057,2.559464,3.5438309,-0.71071464,0.41188437,0.57029462,0
4.4034028,-4.1383467,-1.0445856,0.71804875,-0.67482686,-0.17033722,0
2.4093831,-4.9349961,-3.1006224,0.38204166,-0.7825132,-0.49164742,0
5.7604475,2.2982211,-1.6997162,0.89577615,0.357384,-0.2643137,0
-2.4469926,-1.282635,-5.7145247,-0.38551468,-0.20207442,-0.90030235,0
-4.7235613,1.0013313,-3.7715068,-0.77095395,0.16343185,-0.61556482,0
-2.9242554,5.6157546,-0.11527552,-0.46178126,0.88680702,-0.018203633,0
-0.75616252,-6.0670304,-0.15357092,-0.12363882,-0.99200958,-0.025110114,0
1.8649173,5.7260857,-0.69496679,0.30763596,0.94457263,-0.11464143,0
-2.172672,-1.5697343,5.7176323,-0.34406379,-0.24858274,0.90544283,0
5.9448133,-0.20028825,-1.6244119,0.96412694,-0.032482654,-0.26344636,0
6.1735568,-0.15984371,-1.7687409,0.96102583,-0.024882566,-0.27533653,0
5.2522793,2.8830466,1.0803531,0.86270541,0.47355059,0.17745182,0
-0.33731782,5.5870175,2.694777,-0.054299999,0.89937449,0.43379381,0
5.160707,1.5918454,-2.9144609,0.8409372,0.25939122,-0.47491139,0
