-4.6075778,4.5294766,-2.8040688,-0.65417451,0.64308584,-0.39811596,0
-0.92501825,-6.8405113,-0.70279479,-0.13331759,-0.98588377,-0.10128979,0
4.9304013,3.8485105,-3.1450465,0.7042625,0.54972434,-0.44924098,0
-2.865952,4.4022422,4.7034039,-0.40646517,0.62435031,0.66706276,0
1.8500223,1.8210497,6.4758,0.26517031,0.26101756,0.92819959,0
-5.2799077,4.1951008,-1.6090772,-0.76157022,0.60509843,-0.23209217,0
5.3318644,-4.3327947,-1.4306208,0.75977027,-0.61740667,-0.20385799,0
-6.1061754,1.7511671,-2.7123644,-0.88403541,0.25352919,-0.39268872,0
-1.9079037,-5.7131014,3.7338228,-0.26922384,-0.8061744,0.52687883,0
-1.0716028,4.158709,-5.5438738,-0.15280925,0.59302676,-0.79054958,0
3.1196301,6.2762575,-0.89814049,0.4414908,0.88821745,-0.12710506,0
6.3808107,-2.4465625,1.7200332,0.90547651,-0.34718233,0.24408334,0
-2.5477462,6.293694,-0.73424876,-0.37305558,0.92155874,-0.10751291,0
-0.95582879,2.384228,-6.4705272,-0.13729733,0.34247571,-0.92944062,0
-3.5358295,-2.4529827,5.2308664,-0.52200425,-0.36214057,0.7722472,0
-1.3536566,-1.1988831,6.7383151,-0.19402483,-0.17184053,0.96582872,0
-2.5996294,5.4108534,3.4408321,-0.37571475,0.7820105,0.49729067,0
4.8482256,-4.8509164,-1.3988646,0.69264954,-0.69303399,-0.19985105,0
5.0782809,-4.4754162,1.6680851,0.72844213,-0.64196557,0.23927456,0
-4.052444,-3.4526596,4.0671239,-0.60487837,-0.51535302,0.60706955,0
3.3013618,3.0139055,5.3683739,0.47257864,0.43143025,0.76846433,0
2.7292402,6.2187304,-1.2161499,0.39558202,0.90135634,-0.17627142,0
-4.2002773,3.6531062,-3.8117237,-0.62257594,0.54147279,-0.56498349,0
-4.0676465,3.3455951,-4.5778995,-0.58290386,0.47943208,-0.65602434,0
6.3540983,-2.9134548,0.73579419,0.90400761,-0.41450182,0.1046826,0
-2.2675407,2.7923214,5.9494119,-0.32615748,0.40164065,0.85574883,0
0.86981189,-6.3631129,-3.005177,0.12267081,-0.89739889,-0.4238244,0
0.68384445,-1.7768284,6.4880376,0.1011363,-0.26278177,0.95954007,0
-3.5223331,-4.87532,-3.4928205,-0.50642866,-0.70095634,-0.5021854,0
-1.9361025,6.4250016,0.88803071,-0.28602996,0.94919717,0.13119316,0
-4.8936534,-4.9136381,-1.0564513,-0.69761586,-0.70046479,-0.15060265,0
3.8765566,-5.8351884,1.2239386,0.54510176,-0.82051468,0.17210405,0
2.2455235,4.9645905,4.3617697,0.32172748,0.71130198,0.62493277,0
1.8991406,1.1479715,-6.6292305,0.27166289,0.16421178,-0.94827938,0
4.346653,2.4150243,-4.573266,0.64339811,0.35747555,-0.67694175,0
0.36486128,1.4860121,6.7540555,0.052685905,0.21457988,0.9752844,0
-3.1473255,-5.8464642,-2.1093552,-0.45176113,-0.83919036,-0.30277285,0
-4.6378598,-3.113925,4.1634698,-0.66567826,-0.44694585,0.59758842,0
-4.9901133,4.8914037,1.5165246,-0.69788784,0.68408293,0.21209219,0
-5.9279456,-2.0462937,-3.2750523,-0.83788723,-0.28923398,-0.46291324,0
-4.0327835,5.8142362,-0.0039229733,-0.56993032,0.82169288,-0.00055441144,0
-7.0287476,-0.31511074,1.1367637,-0.98620737,-0.044213358,0.15949993,0
6.7337627,-0.22866274,0.53068775,0.99633813,-0.033833299,0.078521393,0
-4.3609676,5.3302221,1.3591235,-0.62124491,0.7593208,0.19361494,0
1.9023535,-6.7271585,-1.4422781,0.26650357,-0.9424178,-0.20205092,0
-2.1735611,-6.0004601,2.9106116,-0.30987209,-0.85545111,0.41494915,0
-1.592381,1.2788392,6.6740885,-0.22814848,0.18322577,0.9562304,0
-2.9588547,-2.7670386,-5.7291331,-0.42168659,-0.39434958,-0.81649792,0
5.8117847,2.9017217,-2.7568617,0.82358307,0.41120052,-0.39067253,0
3.2955358,-5.6456695,-2.4798779,0.47134942,-0.80748111,-0.35468861,0
-5.2492337,-4.6008019,-0.44484046,-0.75050563,-0.6577965,-0.063600764,0
5.7613454,-2.1617677,3.2682979,0.82687098,-0.31025791,0.46906763,0
0.29445815,4.9391656,-4.9544401,0.042053208,0.70538974,-0.70757115,0
3.0175591,3.9244218,-5.0389752,0.42718315,0.55556387,-0.71334654,0
2.3715692,-1.215203,6.3332806,0.34515318,-0.1768581,0.92173231,0
4.645402,5.1610079,-0.64066577,0.66617459,0.74011517,-0.091874778,0
2.4177511,-4.3251939,-4.9754496,0.34431288,-0.61595255,-0.7085557,0
0.5625422,-6.7963552,-1.8451322,0.079626054,-0.9620024,-0.26117259,0
-2.8607898,-5.6927919,-3.013644,-0.405902,-0.80771947,-0.42758965,0
-6.7954922,-0.49782878,1.5205662,-0.97338372,-0.071308807,0.21780534,0
5.5679502,3.0084782,-2.7309608,0.80778825,0.43646464,-0.39620292,0
-1.8658962,-5.8719554,2.9461081,-0.27321446,-0.8598029,0.4313848,0
-6.8424325,0.77496088,-0.46236965,-0.99141502,0.11228578,-0.066993751,0
6.0151186,3.530051,-0.0033010349,0.8624509,0.50614059,-0.00047330413,0
-5.1230774,-2.2935929,-4.3624105,-0.72065216,-0.32263473,-0.6136508,0
1.0290248,4.7691717,-4.8082275,0.1502219,0.69622618,-0.70192772,0
-3.936259,-5.3172908,-1.5696801,-0.57891417,-0.78202546,-0.23085625,0
4.8859487,-4.9146128,-0.067219906,0.70500249,-0.70913851,-0.0096992841,0
3.0931315,-1.7506886,-5.9183931,0.44804591,-0.25359052,-0.85729033,0
-5.821075,-3.6946583,0.22177891,-0.8438592,-0.5356006,0.032150451,0
-3.2809601,5.8657398,1.808446,-0.47139999,0.84277457,0.25983292,0
-1.953117,-3.3858008,-5.7671704,-0.28033981,-0.48597947,-0.82778829,0
4.8213654,1.4011226,4.9640322,0.68286687,0.1984459,0.70307326,0
2.3422687,-4.7880182,-4.5713229,0.33356199,-0.68186063,-0.6510011,0
0.92512739,-6.0885582,-3.0656199,0.13448036,-0.8850581,-0.44563124,0
-0.47668993,3.5497847,5.9874783,-0.068323351,0.50878608,0.85817754,0
2.2873075,-6.3815279,-1.1599307,0.33257443,-0.92787397,-0.16865389,0
-3.9201353,5.2961149,2.6619692,-0.55162656,0.74524921,0.3745822,0
-2.5128465,-6.240438,1.5546321,-0.36393479,-0.90380073,0.22515689,0
-6.5851383,-1.8057439,-1.0530087,-0.95313156,-0.261363,-0.15241227,0
6.7727003,0.36792821,1.8296777,0.96406651,0.052373093,0.26044723,0
-4.3279109,5.0028415,1.9712106,-0.62700361,0.72478384,0.28557801,0
1.8225549,-2.2642503,6.2557359,0.26421398,-0.32824609,0.90688777,0
0.34944853,-5.2175517,4.586843,0.050237954,-0.75009364,0.65942073,0
-1.266413,6.231503,-2.8328638,-0.18192032,0.89515585,-0.40694109,0
4.8254442,-3.663626,3.4759281,0.6908372,-0.5245049,0.49763304,0
-0.27927712,-6.3659019,3.3672256,-0.03875079,-0.88329375,0.46721569,0
0.7489835,6.8057675,1.9169531,0.10534012,0.95719117,0.26960817,0
0.82842356,6.6094246,2.3690581,0.11717645,0.93487072,0.33509165,0
-3.5825965,5.1240959,2.97911,-0.5172841,0.73985815,0.43014783,0
1.7425312,-4.3645549,5.3364387,0.24505453,-0.61379325,0.75047058,0
3.6413381,-4.8848581,3.2678216,0.52668113,-0.70654321,0.47265592,0
-2.6476488,-5.1406684,-4.2998743,-0.36742634,-0.71339411,-0.59671324,0
-4.3986053,3.8372312,4.0933743,-0.61697054,0.53822935,0.5741573,0
1.1236333,-0.22679155,-7.003777,0.15832594,-0.031956144,-0.98686969,0
-3.8306339,2.5760801,-5.4251862,-0.53775489,0.36163718,-0.76160246,0
0.35006306,5.1068211,-4.7127843,0.050311532,0.73395914,-0.67732763,0
-4.8586831,-4.6929727,0.88982952,-0.71310568,-0.68878442,0.13059968,0
-2.0306265,-5.1423874,-4.2699971,-0.29068196,-0.73612708,-0.61124539,0
4.7373748,4.6984138,-1.6957822,0.68814254,0.68248314,-0.24632627,0
0.55466789,-0.070838749,-6.8031502,0.081257023,-0.010377644,-0.99663913,0
5.7304134,-0.51081985,-3.9225008,0.82297021,-0.073361114,-0.56332779,0
2.7478216,-4.4441972,4.7082481,0.39068067,-0.63186848,0.66941082,0
0.20356506,-2.5228565,-6.5479245,0.028997531,-0.35937706,-0.93274182,0
5.5385542,-0.93951452,-4.0131769,0.80223536,-0.13608457,-0.58129114,0
-0.44474649,-4.9676223,-5.0248179,-0.062818892,-0.70165932,-0.70973796,0
-3.8539591,0.14767376,5.8241954,-0.5517149,0.02114029,0.83376479,0
-0.99022126,6.6529107,1.6480117,-0.14298914,0.96068835,0.23797488,0
0.14294614,-1.8266566,6.7095299,0.020552393,-0.26263154,0.96467733,0
-1.5197377,2.7938628,-6.0138512,-0.22339019,0.41067713,-0.8839916,0
-2.298754,-6.5946641,-0.25909483,-0.32892755,-0.94362718,-0.03707375,0
-1.2082499,1.0568182,6.8839865,-0.17093046,0.14950751,0.97387385,0
5.2514501,0.86617941,4.5771251,0.74808747,0.12339029,0.65202755,0
-3.8980186,0.69083661,5.8284922,-0.55324101,0.098049589,0.82723075,0
-0.041349053,7.0499101,0.31263986,-0.0058593294,0.99900097,0.044302341,0
6.3486948,0.87977672,2.6840997,0.91365319,0.1266104,0.38627407,0
0.98789912,-5.7927279,-3.8521502,0.14059761,-0.82441992,-0.54823726,0
-1.615292,-3.144697,-6.1850333,-0.22673601,-0.44141617,-0.86818343,0
-6.3167648,-0.8613326,-3.3180578,-0.87891579,-0.11984597,-0.46167517,0
6.0666199,0.84748852,3.4939702,0.86027604,0.12017797,0.49546185,0
-3.4973729,-3.5405855,4.8799372,-0.50177389,-0.50797367,0.70013267,0
-2.0201936,2.1164601,-6.1074686,-0.29830989,0.31252497,-0.90185326,0
-4.4265819,5.1381502,-1.3680285,-0.63981098,0.74265993,-0.19773263,0
2.0772333,-5.8360696,-3.5524514,0.29088649,-0.81725711,-0.49746943,0
-3.2298908,5.6464472,2.2478175,-0.46929806,0.82041991,0.32660437,0
1.812399,-1.1727371,6.4023104,0.26824704,-0.17357285,0.94758427,0
-1.2813003,2.5501723,6.2409844,-0.18670827,0.37160552,0.90942258,0
-0.4927516,-4.7149954,-4.8959894,-0.072303608,-0.69185197,-0.71841002,0
-4.2811151,2.0670512,5.2512293,-0.60437799,0.29181188,0.74133193,0
-6.4014578,1.0321584,2.1194048,-0.93839324,0.15130466,0.31068471,0
-6.8049088,0.50339246,1.5491757,-0.97252554,0.071942478,0.2214009,0
1.8816476,1.0843617,6.7550845,0.26518497,0.1528216,0.95200974,0
1.4669933,4.1382766,5.5722756,0.20678774,0.58333248,0.78546935,0
3.7183936,-3.1351032,4.7675266,0.54596937,-0.46032524,0.70001292,0
5.4359431,0.94782025,-4.4501595,0.76683027,0.13370582,-0.62776911,0
-1.7564685,2.0915163,6.4256172,-0.25157136,0.29955879,0.92031324,0
-0.85820091,-1.1552889,7.0005183,-0.12007984,-0.16164853,0.97951549,0
-0.18180948,2.4858327,-6.404923,-0.02645346,0.36169112,-0.93192261,0
6.1422853,-0.28702059,3.5161481,0.8671484,-0.040520661,0.49639866,0
-5.0897393,-4.7871656,-0.53707415,-0.72628456,-0.68310857,-0.076638237,0
2.799572,4.8643537,-4.2435017,0.39788634,0.69134134,-0.6031034,0
5.0779815,0.073144652,-4.8489461,0.72318953,0.010417022,-0.69057107,0
3.6111834,-6.0793929,-0.32389164,0.51016521,-0.85885835,-0.045757372,0
-6.7570815,-0.81052041,-1.4014345,-0.97247744,-0.11664989,-0.2016941,0
7.0110183,-0.28935006,0.60398144,0.99546868,-0.041083749,0.085757099,0
-4.7870641,5.0630488,-1.6364006,-0.66882801,0.70738745,-0.22863086,0
6.8675499,-0.21970788,-1.313243,0.98171866,-0.031407319,-0.18772855,0
-1.9634199,-1.986557,6.370172,-0.28227857,-0.28560498,0.91583216,0
3.1215229,-4.5119495,4.2381778,0.45025414,-0.65081179,0.61132246,0
-2.8242581,-1.2567167,6.1860828,-0.40839857,-0.18172607,0.89453131,0
4.7621679,4.6438098,-2.5220463,0.6694414,0.65280324,-0.35453647,0
-3.1648951,2.3449931,-5.9707513,-0.44245693,0.32783344,-0.83471972,0
1.8589776,4.3119235,-5.0238795,0.2703332,0.62704146,-0.73057437,0
-0.0066762092,-6.7138782,-1.1718162,-0.00097958033,-0.98510742,-0.17193712,0
1.3103251,-5.5272059,4.0498991,0.18782547,-0.79228431,0.58052325,0
2.0048501,-4.1796298,4.9925108,0.29427809,-0.61349893,0.7328161,0
3.3111973,-5.4069209,-2.6857181,0.48088515,-0.78524709,-0.39004681,0
-2.8854697,-1.0417546,6.3491116,-0.40920454,-0.14773703,0.9004029,0
-5.1448565,-2.7998128,3.5277805,-0.75242829,-0.40946883,0.5159331,0
5.4103742,4.2227445,0.80311161,0.78297246,0.6111024,0.1162238,0
5.5096526,-0.78948057,-3.9480104,0.80739897,-0.11569256,-0.57855183,0
7.0798264,-0.4902868,0.2228355,0.99711931,-0.06905175,0.031384043,0
-2.4330723,6.5838122,-0.37071353,-0.34615818,0.93669242,-0.052742172,0
1.9790344,-0.19391243,6.8231049,0.27846411,-0.027284848,0.96005899,0
6.0144782,1.4120246,-2.8901737,0.88180804,0.20702289,-0.42374057,0
2.6961241,-3.5777674,-5.3049541,0.38829529,-0.5152694,-0.76401848,0
-3.9273882,-4.175797,-3.9244049,-0.56532532,-0.60108232,-0.56489587,0
0.64421231,2.8591139,6.1786284,0.094203837,0.41809121,0.90350729,0
1.9498869,0.93622124,6.66432,0.27829492,0.13362089,0.95115584,0
-1.7346582,4.1662526,5.3620439,-0.24750994,0.59446234,0.76508397,0
3.8673937,-1.2334882,-5.4717746,0.56763953,-0.18104613,-0.80312371,0
2.4573085,5.6334581,2.6190333,0.3678146,0.84322667,0.39202186,0
1.1881453,-5.8047652,-3.3104088,0.17505732,-0.85525453,-0.48774448,0
3.8788552,-4.7660246,3.1657016,0.56113923,-0.68948263,0.45796999,0
1.7988242,5.5412583,3.6738584,0.26116985,0.80453086,0.53340459,0
7.0398231,0.91681123,-0.33988354,0.99049163,0.12899385,-0.04782106,0
4.8216734,3.2286532,3.822015,0.69392377,0.46466008,0.55005533,0
2.6588526,-6.2197556,-1.3067334,0.38593963,-0.90281433,-0.18967588,0
5.0743122,-4.7435021,-0.9313007,0.72403944,-0.67683709,-0.1328847,0
5.039248,1.7150011,4.2723284,0.73829263,0.25126222,0.6259324,0
-6.3428802,0.77954376,-2.6257486,-0.91805965,0.11283008,-0.3800472,0
-4.9177084,5.0371819,-0.20633715,-0.69827026,0.7152344,-0.029298015,0
-3.9830201,-3.2351146,4.6945281,-0.57270229,-0.46516398,0.6750071,0
6.8681626,1.2887853,-0.54051232,0.9799192,0.18387821,-0.077117912,0
-4.1425877,-0.52770221,-5.4861836,-0.60083133,-0.076536708,-0.79570341,0
4.9179864,4.7422185,-0.196564,0.71955574,0.69383895,-0.028759485,0
-1.1418552,-3.0579772,-6.4051452,-0.15883486,-0.42537212,-0.89097142,0
-3.4496484,-3.9171069,4.7334456,-0.48957387,-0.55591553,0.67177027,0
3.7450285,-4.3385191,4.2227063,0.52606583,-0.60943371,0.59316546,0
5.7084856,1.7808191,-3.3078988,0.83533561,0.26059127,-0.4840523,0
-5.610445,-0.4979274,-3.863055,-0.82144743,-0.072903514,-0.56560516,0
0.3536692,-0.29502484,-7.0955048,0.04973945,-0.041491807,-0.99790001,0
-3.3774922,6.0849457,-0.1508528,-0.48519588,0.87413692,-0.021670859,0
-5.3123732,-1.4727125,-4.3034587,-0.75960881,-0.21058109,-0.61534554,0
-1.86139,-6.7686176,0.2136078,-0.26503646,-0.96375853,0.030414829,0
4.8398705,3.9202034,-3.1889875,0.69167846,0.56024647,-0.45574647,0
-4.5164146,0.13754182,-5.2839427,-0.64961207,0.019783132,-0.76000839,0
-5.0480361,-4.3183227,-1.037479,-0.75079244,-0.64226246,-0.15430385,0
2.6944783,5.6225891,2.4965265,0.40119523,0.83717728,0.37172112,0
5.3533101,-2.3724794,4.1359334,0.74674511,-0.33094242,0.57693052,0
0.8786155,6.1908069,2.9153664,0.12735242,0.89733702,0.42257273,0
6.9421978,1.2942078,0.93938237,0.9744789,0.18166843,0.13186145,0
4.3499546,-5.4175944,-0.22979179,0.62574548,-0.77932656,-0.033055786,0
4.780395,-1.7760952,-4.7850566,0.68358731,-0.25397819,-0.68425393,0
1.835344,-3.8240247,5.4979911,0.26430529,-0.55069238,0.79175794,0
-1.3195084,2.1657424,6.535552,-0.18822294,0.30893508,0.93227208,0
-6.5649815,1.0802975,2.2760603,-0.93361074,0.15362988,0.32368016,0
2.122685,-6.3253355,1.5746924,0.30964085,-0.92269099,0.22970393,0
6.5542631,-2.2670908,1.3370099,0.9279744,-0.32098228,0.18929832,0
6.4569592,-0.22058588,-2.9727623,0.90791655,-0.031016702,-0.41800174,0
-1.3933076,5.657352,3.7090356,-0.20172983,0.81909889,0.53701216,0
-0.45577055,-0.6412918,6.963954,-0.065033384,-0.0915052,0.99367875,0
-3.2940872,-3.3507712,5.4053621,-0.45992893,-0.46784329,0.75471056,0
-0.39585164,-4.2524109,5.4022136,-0.057482433,-0.61750132,0.78446656,0
-2.9983504,0.44042191,6.2352796,-0.43249184,0.06352789,0.89939702,0
4.229157,-3.8915498,3.604387,0.62340927,-0.57364345,0.53131354,0
4.6863174,2.3253174,-4.5278244,0.67733043,0.33608654,-0.65442288,0
2.0793612,-2.8077638,-6.1854992,0.29270038,-0.39523366,-0.87069911,0
4.5432935,-3.8616152,-3.3989451,0.66195852,-0.56263787,-0.49522677,0
3.8883383,-4.4982386,3.5253301,0.56251639,-0.65074915,0.51000088,0
4.5869613,1.0805136,5.1829739,0.65480632,0.15424746,0.73988944,0
-3.9263151,-5.0437274,2.0129633,-0.58590525,-0.75265133,0.30038488,0
3.1116507,-5.340836,-3.0697379,0.45086828,-0.77387011,-0.44479525,0
-1.4591678,-6.3482771,2.2824337,-0.21140857,-0.91975725,0.33068576,0
-4.4029703,-2.9090388,-4.4433637,-0.6382314,-0.42167893,-0.6440866,0
2.7970364,2.5254118,5.6911206,0.4097811,0.36998659,0.83378023,0
3.4621491,-1.7728717,5.9948316,0.48447707,-0.24808744,0.83888888,0
-3.2967505,-5.7078953,1.763849,-0.4831484,-0.83650869,0.25849721,0
-5.7297063,-2.5930212,2.5120807,-0.84605217,-0.38288718,0.37093547,0
4.2880578,-4.5151463,2.8433449,0.62642056,-0.65959471,0.41536978,0
-0.14522934,6.071641,3.4721198,-0.020759437,0.86789525,0.4963133,0
1.8319925,-5.9882307,-3.531477,0.25482112,-0.83293331,-0.49121103,0
-5.3927689,4.4744115,-0.1460937,-0.76942527,0.63839662,-0.020844243,0
-6.7526197,-0.81481147,-1.977126,-0.95333755,-0.11503541,-0.27913144,0
6.2560611,-2.9383984,-0.20126262,0.9047488,-0.42494988,-0.029106513,0
-0.45286378,1.7174562,6.6756063,-0.0655578,0.24862367,0.96637905,0
2.8892882,-4.9396477,-4.0584559,0.41183546,-0.70409107,-0.57848716,0
-2.9950056,-2.9446261,5.3833222,-0.43863842,-0.43126002,0.78842324,0
0.09590549,2.4959583,6.5393114,0.013700561,0.35655963,0.93417209,0
5.6425519,3.6157637,1.877678,0.81074321,0.5195266,0.26979187,0
-0.85254341,5.1296763,4.488709,-0.12410706,0.74674094,0.65343356,0
1.6008509,-4.3408628,-5.0490966,0.23375894,-0.63386005,-0.73727757,0
6.8662982,0.18114047,-1.5055437,0.97647059,0.025760364,-0.21410652,0
4.2529721,4.8436179,2.5820565,0.61249077,0.69755244,0.37185425,0
-4.6798015,1.5928191,4.8496671,-0.67577475,0.23000696,0.70030373,0
-3.3674338,6.0681438,-1.9161299,-0.46772829,0.84285033,-0.26614577,0
-6.181993,1.0515419,-2.6366489,-0.90877575,0.15458053,-0.38759708,0
-0.24339846,6.6343784,-1.9549062,-0.035169706,0.95863032,-0.28247294,0
0.22457172,-5.8349099,4.0718231,0.031546589,-0.81965572,0.57198709,0
-2.094085,5.6918182,-3.3697817,-0.30182341,0.82036978,-0.48569137,0
2.3999448,4.7643762,4.6390386,0.33947238,0.67392141,0.65619242,0
0.19111824,-6.1538405,-3.4146547,0.027146233,-0.87408501,-0.48501393,0
4.8955255,-0.31712201,5.1068606,0.69131804,-0.044782151,0.72116154,0
-3.3724678,-2.2240205,5.6938558,-0.4830654,-0.31856415,0.81557631,0
-4.0718603,5.0357752,-2.1078534,-0.59788483,0.7394197,-0.30950317,0
-5.0006309,3.160145,-4.0502915,-0.69751412,0.44079354,-0.56495583,0
-2.0794215,5.844944,-2.9694858,-0.30233476,0.84981787,-0.43174446,0
-5.161818,-4.0865841,-2.7851267,-0.72208112,-0.57166785,-0.38960835,0
-5.2471642,-1.4327602,4.6012144,-0.73650879,-0.20110682,0.64584118,0
3.3904729,-5.2065587,-3.0106933,0.49107471,-0.75411582,-0.43606758,0
5.3409863,-0.98824078,4.2495122,0.7744537,-0.1432969,0.61618781,0
-4.1062398,1.7765974,5.3878727,-0.58632648,0.25367883,0.76932979,0
-5.0064259,-3.3147848,3.6809752,-0.71085268,-0.47065985,0.52265453,0
-1.3450924,0.12031186,-7.0270991,-0.18797527,0.016813459,-0.98202986,0
-4.8283153,-4.060041,-2.619956,-0.70683795,-0.59436697,-0.38354668,0
-3.3492329,-5.9799733,-0.39725515,-0.48783439,-0.87101638,-0.057862423,0
-3.6165874,-2.7014382,-5.4839468,-0.50917071,-0.38032907,-0.77207184,0
2.1901145,6.2937098,-1.5172694,0.32045293,0.92088234,-0.22200365,0
-0.71766442,-5.8883142,3.7148473,-0.10253669,-0.84129614,0.53076082,0
0.62547106,-6.7464833,2.3641205,0.087161228,-0.94014227,0.32944712,0
0.17964439,5.3665762,-4.3571229,0.025979022,0.77607989,-0.63009924,0
0.35176,5.8220525,-3.7142015,0.050870135,0.84196216,-0.5371331,0
-6.4811311,-1.8230429,-2.35689,-0.9085784,-0.25556919,-0.33040828,0
-4.8964801,3.9831023,2.6042764,-0.71710783,0.58334023,0.38140604,0
6.4662795,1.0418146,2.635798,0.91588545,0.14756288,0.37333509,0
1.5439901,-0.87514627,6.7686968,0.22064874,-0.12506551,0.96730179,0
-4.550889,4.0399103,3.68452,-0.6397205,0.56789201,0.51793462,0
-6.5673666,0.24318767,1.6871324,-0.96792817,0.035842098,0.2486572,0
1.9167395,-6.6464658,0.84464139,0.27504969,-0.95375937,0.12120496,0
-3.8398941,5.9008908,-0.12394748,-0.54533464,0.83803356,-0.017602792,0
-3.5207069,-6.2750254,0.19595,-0.48912996,-0.871786,0.027223231,0
0.54938972,-6.3112769,2.6558475,0.079977296,-0.91876286,0.38662449,0
-0.70913494,-6.279531,2.6129475,-0.10369989,-0.9182831,0.38210267,0
-3.3111422,-1.4753616,5.829802,-0.4823288,-0.21491356,0.84921795,0
-1.5499268,5.2676568,4.0021243,-0.22810936,0.77526361,0.58900976,0
-2.3619843,-1.1613492,6.3275266,-0.34465811,-0.16946277,0.92330557,0
6.5212064,-0.65320057,-2.153024,0.94531769,-0.094688319,-0.31210354,0
-5.7110343,-1.914958,-3.202004,-0.83718443,-0.28071502,-0.46938396,0
-2.6454635,1.2447736,6.4534736,-0.37339664,0.17569485,0.91088212,0
-4.8306994,0.29577699,5.098052,-0.687208,0.042076789,0.72524118,0
-3.5041449,-3.5352654,4.8015184,-0.50666869,-0.51116848,0.69425756,0
-2.217397,-2.5083923,-6.0561905,-0.32043335,-0.36248472,-0.87517273,0
-4.0427041,-5.4663563,1.2553849,-0.58473045,-0.7906453,0.18157694,0
6.5897307,-1.40308,-1.3271081,0.95963603,-0.20432492,-0.19326143,0
4.3762465,0.17595164,-5.2449059,0.64044631,0.025749825,-0.76757121,0
-4.0815125,2.3883424,4.9451694,-0.59650826,0.34905341,0.7227307,0
2.2146451,4.0432048,5.1874218,0.31912008,0.58260703,0.74748337,0
1.6156663,3.9137101,-5.2129464,0.24057597,0.58275932,-0.77621824,0
-2.3354452,0.12244055,6.6527543,-0.33118242,0.017362924,0.94340694,0
5.4413023,-0.9251157,-3.8767734,0.8067345,-0.13715886,-0.57477546,0
-6.7428827,1.7472618,0.43030995,-0.96618611,0.25036475,0.061659016,0
-2.0839462,-2.4663441,-6.255126,-0.29604289,-0.35036588,-0.8885957,0
4.1159239,-5.6056108,0.70172203,0.58885431,-0.8019799,0.10039351,0
-4.4874148,-4.8267355,2.3439739,-0.64152759,-0.69003737,0.33509806,0
5.4027009,-4.1228189,-1.0526127,0.78560495,-0.59949774,-0.15306005,0
3.6448557,-4.3704643,3.8817921,0.5291062,-0.63443929,0.56350106,0
5.7947474,0.82612407,3.3069496,0.86194062,0.12288196,0.49189273,0
-1.3997836,-5.789969,-3.270426,-0.20598684,-0.85202986,-0.48126346,0
-1.568362,-6.9006319,-0.80658239,-0.22020032,-0.96885878,-0.11324535,0
-4.1175733,-2.4553137,4.8438382,-0.60418278,-0.36027491,0.71074963,0
3.4578452,4.6326799,-4.0823855,0.48860151,0.65460837,-0.57685047,0
-4.5574431,-1.5383182,5.2009525,-0.64332038,-0.21714619,0.73415697,0
1.3955004,3.9730763,-5.7963128,0.19477999,0.55455071,-0.80903286,0
4.030664,4.8679819,-2.642319,0.58840024,0.71063274,-0.3857283,0
5.4001913,3.2483299,2.5224423,0.79555416,0.47854275,0.37160525,0
6.7076149,1.0996581,-1.6393696,0.95931906,0.15727244,-0.23446167,0
6.7321124,1.0287247,-0.80272859,0.98172903,0.15001664,-0.11706013,0
-5.6953216,2.6345243,-3.1675951,-0.8102259,0.3747918,-0.45062736,0
-4.0687265,1.1491259,-5.3135138,-0.599195,0.16922998,-0.7825129,0
-2.9131455,-3.6639287,-5.2657189,-0.41347808,-0.52004069,-0.74739122,0
6.6735797,0.79203862,-0.72871268,0.98724389,0.11716879,-0.10780079,0
-1.3583788,-6.7293386,-1.3611281,-0.19409004,-0.96151203,-0.19448286,0
-5.3386073,-1.0267783,-4.0671034,-0.78631181,-0.15123194,-0.59903479,0
-5.6778522,-4.0829678,-0.9155525,-0.8050099,-0.57888603,-0.12980768,0
-4.8066044,-0.85312635,-4.599793,-0.71661097,-0.1271916,-0.68577766,0
5.5569229,-4.1814265,1.5322484,0.78033507,-0.58717996,0.21516714,0
0.95145226,-3.2807724,5.9883218,0.13800947,-0.47588062,0.86861444,0
2.2766411,1.0341393,-6.6030874,0.32243904,0.14646439,-0.9351905,0
-1.8450812,2.3277619,-6.3596449,-0.26286548,0.33163214,-0.9060474,0
-0.9745304,6.8610282,-1.3531218,-0.13802058,0.97171217,-0.19163962,0
-5.6681938,-0.81356317,-4.1783752,-0.79961407,-0.11476965,-0.58944488,0
4.4188271,0.48316345,5.2139435,0.64493179,0.070518143,0.76097977,0
-4.2037077,-4.9682021,-1.8353614,-0.62167925,-0.73473907,-0.2714285,0
3.5221653,-3.8870258,4.4853983,0.51033324,-0.56319857,0.64989793,0
-2.7059245,-6.0669017,1.690441,-0.39475462,-0.88507181,0.24661049,0
-5.0715265,-4.6733999,0.52831411,-0.73323363,-0.67567307,0.076382853,0
5.8686819,-1.0465103,3.5384037,0.84656954,-0.15096129,0.51042211,0
-7.035779,-0.45557669,-0.86317611,-0.9905147,-0.064137235,-0.12152011,0
-5.9663153,-3.2617831,-1.2925931,-0.86199939,-0.47125486,-0.18675086,0
3.8646278,4.170341,-4.066462,0.55286199,0.59659636,-0.58173573,0
-6.8502145,0.88134825,-0.6896978,-0.98691612,0.12697658,-0.099365339,0
5.0991673,-3.3926785,3.2317011,0.73634154,-0.48991725,0.46667144,0
6.6079202,2.2786257,0.2076468,0.94495463,0.32585108,0.029694187,0
-1.5165923,5.3093219,-4.1387291,-0.21977745,0.76940209,-0.59976524,0
-0.054346513,6.4197769,2.4553654,-0.0079066465,0.93398649,0.35722083,0
-2.6242015,-5.7731872,-3.0155718,-0.37370646,-0.82214618,-0.42944059,0
0.71229702,0.7242294,6.8976912,0.10216407,0.10387553,0.98932922,0
-2.2360466,-3.7773798,5.4446993,-0.31971836,-0.54010397,0.7785036,0
6.0460329,2.8440061,-0.91045243,0.89660138,0.42175421,-0.13501629,0
4.0994582,-5.6864834,0.077657908,0.58475631,-0.81113333,0.011077306,0
2.3865364,-1.0315747,-6.5204687,0.33997688,-0.14695421,-0.92888111,0
-0.49449384,4.8376651,-5.1482511,-0.069825925,0.68311149,-0.72696835,0
3.2861316,-1.6193351,-6.1448054,0.45934263,-0.22635418,-0.85893428,0
-3.1231904,1.9736193,5.7005939,-0.45975894,0.29053277,0.83917361,0
2.1632245,2.0878053,-6.2136736,0.31338507,0.30245912,-0.90017128,0
4.6282206,4.5304837,1.9181838,0.68519151,0.67072189,0.28398025,0
-0.56245059,-6.3854055,-2.9222665,-0.079838961,-0.90639806,-0.41481104,0
1.440509,0.27153531,-6.8114014,0.2067513,0.038972531,-0.97761703,0
1.5916138,-0.52636391,-6.772049,0.22814073,-0.07544861,-0.97070044,0
-0.46483389,-6.5409331,-1.8406281,-0.068248942,-0.96036839,-0.27024907,0
3.1846161,-5.2739763,3.0908556,0.46202406,-0.76514846,0.4484213,0
0.68759054,1.0449885,-6.8287864,0.099042006,0.15052237,-0.98363292,0
-3.0322735,-2.707006,5.4548793,-0.44573817,-0.39792448,0.80185634,0
-1.4947174,5.7551274,3.0636482,-0.22346178,0.86039746,0.45801857,0
-6.5680323,-1.1549413,1.6443863,-0.95624763,-0.16814928,0.23940817,0
-2.5462365,-1.064296,-6.136796,-0.37841055,-0.15817103,-0.91202378,0
5.7697806,1.8185012,3.0262182,0.85297936,0.26883936,0.44738299,0
3.8624461,5.8003411,0.0075571565,0.55425787,0.83234423,0.0010844459,0
-2.4881964,-2.293076,6.1139164,-0.35607743,-0.32815441,0.87494206,0
-6.0506606,-3.2807858,-0.7368142,-0.87409425,-0.47395086,-0.1064421,0
-2.7600639,4.2037354,-4.7279429,-0.39987159,0.60902733,-0.6849733,0
3.465868,1.1847557,-5.7992959,0.50529236,0.17272671,-0.84548509,0
-5.3798218,4.2191586,-1.7166454,-0.76318628,0.59853357,-0.24352483,0
1.2138096,-1.142579,-6.827291,0.17271413,-0.16257866,-0.97146177,0
-0.054071702,-5.4284515,4.3190322,-0.0077944314,-0.78251088,0.62258816,0
-4.9996648,2.2940161,-4.5942469,-0.69759268,0.32007924,-0.64102554,0
-0.42287508,-6.1648088,-3.2183764,-0.060695276,-0.88483524,-0.4619337,0
0.15801649,-4.8355331,5.0624785,0.022565486,-0.69053656,0.72294539,0
3.1897376,6.0225029,0.67074627,0.46579227,0.87945646,0.097948007,0
-1.3624717,-2.3368561,-6.3323646,-0.19786307,-0.3393667,-0.91960889,0
-5.4850907,3.019187,3.0435686,-0.78789729,0.43368641,0.43718866,0
-5.105196,0.77583539,4.5605044,-0.74102718,0.11261372,0.66196436,0
4.5476041,4.9934669,1.3282635,0.6606729,0.72544754,0.19296925,0
-2.0745037,-4.9019313,-4.2887373,-0.30348414,-0.71711534,-0.6274097,0
6.8813477,-0.64049792,-0.12681185,0.99552864,-0.092661217,-0.018345945,0
-0.3923538,6.9887958,0.072529823,-0.056049131,0.99837422,0.010361142,0
-4.9466996,0.72219491,-4.9364495,-0.70409012,0.10279384,-0.70263112,0
4.2396045,-4.2834635,-3.4044771,0.61249101,-0.61882722,-0.49184105,0
0.37760881,-3.1534443,-6.2980442,0.053534795,-0.44707376,-0.89289367,0
2.1206949,-6.4270382,0.95140833,0.31029609,-0.94039214,0.13920827,0
5.7893386,2.5058506,3.0095842,0.82828897,0.35851565,0.43058553,0
1.1549691,5.3269958,-4.2207866,0.1675349,0.77271134,-0.61224931,0
-5.1684351,2.7551534,3.5950935,-0.75206947,0.40090796,0.52312934,0
4.0836754,-2.4769266,-5.2703075,0.57415438,-0.34824958,-0.74099183,0
5.7149644,-3.7019949,-1.3267164,0.82380557,-0.5336383,-0.19124465,0
3.4918587,-1.9908144,-5.7946925,0.49513784,-0.28229308,-0.82167459,0
-6.3575001,-0.72759026,-2.9971516,-0.89971524,-0.10296879,-0.42415777,0
-3.0072575,2.3191772,-5.5899138,-0.44499829,0.34317976,-0.82716632,0
2.6220505,6.5728779,0.071426973,0.37050664,0.92877501,0.010092928,0
3.2513688,5.9398413,1.1435504,0.47345158,0.86493641,0.16651933,0
-1.6748722,1.9058402,-6.5186667,-0.23943748,0.27245635,-0.93189985,0
5.5404334,0.070369653,-4.2350502,0.7944386,0.010090252,-0.6072607,0
2.6575208,0.18061274,-6.6048985,0.3731541,0.025360625,-0.9274227,0
-5.2445283,2.3204815,3.8400371,-0.75987232,0.33621129,0.55637759,0
4.3856049,0.89712346,5.3135853,0.63121802,0.12912256,0.76478177,0
-2.1559095,1.4003179,6.6216607,-0.30351311,0.19713946,0.93221021,0
2.4205759,-0.12522517,-6.6241755,0.34316438,-0.017753139,-0.9391076,0
-0.16095312,-0.71941167,6.9729514,-0.022954568,-0.10259996,0.99445778,0
4.440094,5.2024779,0.35170317,0.64831734,0.75963634,0.051353704,0
5.8417401,3.668303,0.91274673,0.83955687,0.52719718,0.13117714,0
-0.92077214,-6.7958217,-1.279278,-0.13198736,-0.97414172,-0.18337712,0
2.966397,-1.5580068,-6.0781388,0.42740336,-0.22448018,-0.87574822,0
4.9867249,4.4141979,1.2971541,0.73497152,0.65058929,0.19118185,0
-1.10615,-5.6960635,3.7216749,-0.16046406,-0.82630157,0.53988612,0
-6.4811854,1.2994608,2.5976377,-0.91255265,0.18296443,0.36574808,0
2.003515,-5.8486466,2.9854748,0.29182762,-0.85190105,0.43485773,0
2.4812875,4.3158255,5.1913357,0.34497914,0.60003918,0.72176343,0
-3.6143556,-5.1306529,3.1457813,-0.51485133,-0.73084217,0.44810471,0
-6.5341425,2.1008859,-0.59779495,-0.94841152,0.30493739,-0.08676818,0
-1.3788135,-3.8747914,5.5647674,-0.19926015,-0.55996805,0.804196,0
-5.2731061,0.048603799,4.7220187,-0.74494451,0.0068663768,0.66709107,0
-0.85787129,6.8012862,0.26349127,-0.12504978,0.99140674,0.038408473,0
-1.6091354,4.7484727,-5.1234584,-0.22447366,0.66240978,-0.71472007,0
3.8400643,1.0294647,5.6172166,0.55800378,0.14959261,0.81624371,0
1.1543071,6.393971,-2.6207187,0.16476077,0.91264755,-0.37406996,0
-0.10093296,2.001461,-6.7758908,-0.014284261,0.28325126,-0.95893931,0
6.0535531,3.2514832,-1.9939846,0.84606242,0.45443687,-0.27868515,0
3.0662172,-0.59292513,-6.0586176,0.44984496,-0.086988091,-0.88886023,0
1.4849694,-2.3262403,-6.4570246,0.21147126,-0.33127481,-0.91953081,0
-4.7276597,3.0418551,-4.0062866,-0.68485183,0.44064507,-0.58035326,0
-6.281394,-0.092659585,-2.9637637,-0.90430433,-0.013339788,-0.42667985,0
0.52784032,-5.7267146,4.096971,0.074753337,-0.81102371,0.5802176,0
4.2061033,-5.3087897,-1.2189445,0.61118454,-0.77141476,-0.17712358,0
-3.8639686,0.87400883,5.6845412,-0.55766845,0.12614159,0.82042319,0
-2.0286555,-6.3954811,1.6708071,-0.29339486,-0.92494816,0.24164093,0
-5.6446333,-2.2598543,3.3435214,-0.81347978,-0.32568029,0.48185363,0
-2.3019891,-6.0744038,2.0839837,-0.33743307,-0.89040589,0.30547711,0
-3.3642771,4.4202509,-4.4786716,-0.47148389,0.6194725,-0.6276598,0
0.94668424,-4.0969996,-5.6429863,0.13452199,-0.58217573,-0.80185741,0
-0.78766555,-3.9733338,5.7488785,-0.11200211,-0.56498826,0.81746185,0
-0.30885661,-4.3176246,-5.2818503,-0.045227222,-0.63224864,-0.77344441,0
6.2625799,-0.51144326,3.0525806,0.89648825,-0.073213093,0.43697688,0
2.2632329,-0.9008736,6.4854975,0.32668495,-0.13003604,0.93614507,0
4.180305,-5.3952899,0.19919707,0.6122154,-0.79015273,0.029172873,0
4.20434,1.5485885,-5.1474319,0.61608642,0.22692369,-0.75428319,0
0.67015338,-6.4718299,-2.7256994,0.094999298,-0.9174307,-0.38638845,0
-3.4438927,-2.755332,5.2808661,-0.50053722,-0.40046147,0.76752394,0
-0.550744,-5.6076336,3.9285579,-0.080178805,-0.81637448,0.57193011,0
-5.5550332,-0.65386641,4.1070504,-0.80051851,-0.094226651,0.59185421,0
-1.2815306,-5.6028175,3.4639606,-0.1909695,-0.83491349,0.51618809,0
4.805604,-4.1700983,-3.1116488,0.67849028,-0.58876497,-0.43932533,0
3.995054,5.7323847,-1.4918236,0.55916607,0.80233085,-0.20880248,0
-4.5317473,5.0521827,-1.7771376,-0.64594728,0.72012925,-0.25331008,0
4.4431262,3.8937485,3.3350518,0.65492374,0.57394463,0.49159184,0
3.0500851,5.9525938,-0.78988671,0.4528704,0.883829,-0.11728077,0
-5.0001101,-4.3164029,2.037853,-0.7233234,-0.6244173,0.29479885,0
-1.4253389,6.3612456,2.5049,-0.20409614,0.91087508,0.35867992,0
5.3166642,-2.5508645,-3.6860921,0.76452404,-0.36680841,-0.53005153,0
-1.7672772,6.0856056,3.2200713,-0.24862461,0.85613692,0.45300701,0
5.8433523,1.6465518,3.3058102,0.84531689,0.23819512,0.47822842,0
-1.7363756,2.2803619,-6.4827194,-0.24497165,0.32171842,-0.9145962,0
-1.9880036,5.9839673,-3.2058125,-0.28104147,0.84594566,-0.45320153,0
1.443463,5.9332757,-3.1849661,0.20959112,0.86151284,-0.46245775,0
-6.8063149,0.80182517,1.2627075,-0.97669291,0.11506035,0.18119606,0
3.6953406,2.7510111,5.3722973,0.52215552,0.38872075,0.75911123,0
5.7422223,4.276834,-0.84477788,0.79647088,0.59321523,-0.11717432,0
-2.5480082,-4.4624095,4.6175828,-0.36882165,-0.64592934,0.66839051,0
5.7127762,-0.22874528,-3.7872546,0.8330155,-0.033354778,-0.55224323,0
-5.5393314,-2.1198132,3.4011471,-0.81019014,-0.31004676,0.4974564,0
6.6502233,1.1856821,1.5778553,0.95867008,0.17092326,0.22745743,0
3.5031004,1.1382983,-5.8453918,0.507025,0.16475283,-0.84603912,0
4.2291055,-3.8469212,3.8360434,0.61427414,-0.55876219,0.55718219,0
3.341284,-5.9352546,-0.80558461,0.48716709,-0.86537409,-0.11745614,0
-4.6573191,-5.2608213,-0.55922872,-0.66076487,-0.74638778,-0.079341501,0
-0.15257658,-3.2202642,6.1336689,-0.022019029,-0.46473116,0.88517803,0
-4.0118647,-0.5939492,-5.626163,-0.57845122,-0.085638642,-0.81120908,0
-3.6059811,5.8835683,-1.2284477,-0.51446569,0.83940935,-0.17526276,0
1.3835442,-4.7256083,4.8864031,0.19944307,-0.68121409,0.70439327,0
-4.0306687,5.2310815,2.8310502,-0.5609777,0.72804797,0.39401799,0
0.10071606,2.2246141,6.5311193,0.01459583,0.32239234,0.94649357,0
0.44590291,3.4490831,-5.9976053,0.064316161,0.49748895,-0.8650828,0
3.9554722,0.56755257,-5.7177491,0.56703508,0.081361264,-0.81966555,0
1.664542,-4.2794108,5.2687383,0.23817196,-0.61232203,0.75388056,0
-4.2520819,-0.4722001,5.2863579,-0.625247,-0.06943462,0.77733201,0
3.1513548,4.4107361,4.3679223,0.45267445,0.63357753,0.62742758,0
5.728384,3.6014073,-1.9195052,0.81445199,0.51204199,-0.27291203,0
1.5144632,6.7142539,-2.0547299,0.21083742,0.93473119,-0.28605115,0
4.9165421,3.2969022,-3.6813357,0.70528984,0.47294858,-0.5280965,0
4.9126315,1.4762734,-4.6709685,0.70810962,0.21279092,-0.67327613,0
-2.7994943,-5.6520958,3.2544177,-0.39443353,-0.79634959,0.45852974,0
2.0160313,-4.7002859,4.582953,0.29356748,-0.6844393,0.66735369,0
3.4758534,-5.5300827,-2.0553837,0.50761068,-0.80760854,-0.30016646,0
-0.13567203,-6.8560009,0.58752245,-0.019712707,-0.99615473,0.085365109,0
3.0911741,5.3204513,2.9433606,0.45318541,0.78001136,0.43151504,0
1.0273817,-6.5746908,-1.5131028,0.15054677,-0.96341854,-0.22172163,0
2.9259901,3.3045688,-5.3632126,0.4212538,0.47575763,-0.77213985,0
0.26801279,-6.8471231,1.7649571,0.037876226,-0.96765232,0.24942808,0
6.7565799,-0.64388788,-1.5022391,0.97196668,-0.092626385,-0.21610436,0
6.6573687,-1.1465842,2.0305848,0.94377625,-0.16254453,0.28786415,0
1.5521678,-2.8190789,-6.0576558,0.22628269,-0.41097927,-0.88311499,0
2.1165903,-5.2495508,-4.1731625,0.30098191,-0.74649298,-0.59342915,0
-2.7978213,6.4079323,1.4273094,-0.39205554,0.89793628,0.20000726,0
-2.927038,4.5181546,-4.4449887,-0.41926554,0.64717525,-0.63669503,0
-1.6827792,-6.2557931,-2.1204047,-0.24687345,-0.91776109,-0.31107566,0
-4.5565248,3.2826827,-4.2810178,-0.64526135,0.46486926,-0.60624611,0
0.74805713,6.8833303,-0.20652372,0.10799246,0.99370456,-0.029814573,0
-4.5540171,-0.28531978,-5.2344828,-0.65581256,-0.041088186,-0.75380474,0
6.1850047,2.3162887,2.1301897,0.8912704,0.33378139,0.30696419,0
-4.3769875,0.073298201,5.5123706,-0.62180632,0.010412934,0.7831018,0
-1.7367212,-1.4045763,6.5911207,-0.24955386,-0.20182712,0.94709486,0
-3.5819125,2.1210742,-5.588737,-0.51399875,0.30437079,-0.80197489,0
5.5727057,3.0657389,-3.1028321,0.78745908,0.43320858,-0.4384501,0
-1.3081458,5.7945724,3.6035089,-0.18827876,0.83400106,0.5186457,0
-1.2468559,4.7688589,-4.7430348,-0.18227437,0.69714612,-0.693371,0
-6.6844621,1.7457653,-1.2861491,-0.95120412,0.24842376,-0.18302003,0
2.0006928,-0.44440407,-6.8464808,0.27994844,-0.06218357,-0.95799899,0
-1.8316168,6.4826722,-1.98507,-0.26080835,0.92308336,-0.2826589,0
-2.4448214,3.9221735,5.2974358,-0.34776089,0.5579052,0.75352782,0
-2.8863535,1.0879924,6.1593213,-0.41900796,0.15794235,0.89414012,0
4.2849679,4.3430562,3.4188585,0.61269069,0.62099653,0.48884913,0
-1.9734901,6.6523466,1.4819999,-0.27813655,0.9375577,0.2088677,0
-2.8540018,-0.17891327,6.1304288,-0.421904,-0.026448553,0.90625465,0
6.4666672,-1.5968894,-2.4405522,0.91157484,-0.22510579,-0.34403288,0
-0.11878848,5.9984665,-3.3934867,-0.017233565,0.87024397,-0.49231941,0
-5.2310886,4.5223584,1.8228762,-0.73150349,0.63239628,0.25490686,0
-1.524157,0.81558472,-6.8542538,-0.21561515,0.11537684,-0.96963823,0
1.3781002,6.7871742,-0.086690173,0.19896881,0.97992587,-0.012516246,0
-3.4547851,-5.8806162,1.604185,-0.49308509,-0.83931249,0.22895771,0
6.3231688,2.6489308,1.5390137,0.89993805,0.37700617,0.21903844,0
5.2829432,0.13008963,4.5798588,0.75546575,0.018602936,0.65492404,0
-5.9519911,-2.3997102,-2.6280284,-0.85827971,-0.34603924,-0.37896281,0
-5.039145,-4.1990113,2.8055711,-0.70634264,-0.58858019,0.39326006,0
-6.6756706,2.0938635,0.7587955,-0.94860268,0.29753482,0.10782369,0
6.3435869,0.082543351,2.6986349,0.92012858,0.0119728,0.3914333,0
2.0032144,-6.2456508,1.7414639,0.29518554,-0.9203338,0.25661507,0
-1.198496,4.6017561,5.3633018,-0.16720523,0.64200276,0.74824792,0
-1.5615313,-2.9960527,6.2477946,-0.21984755,-0.4218134,0.8796252,0
-2.5669112,-2.0605562,-6.0851212,-0.37102917,-0.29783908,-0.87956196,0
-4.2998085,3.6509914,-4.0036297,-0.62161446,0.5278163,-0.57879651,0
4.5849781,-5.0252619,-1.174896,0.66417116,-0.72794986,-0.1701932,0
-6.2270713,-0.17874345,3.0540097,-0.89753586,-0.025763098,0.44018817,0
-5.0110002,-4.8432069,1.2067477,-0.70849937,-0.68477529,0.17062062,0
-6.9868212,0.77357817,-1.2616485,-0.97829455,0.1083164,-0.17665599,0
0.6328187,-5.1953635,4.5075188,0.091616698,-0.7521618,0.65257871,0
4.6039762,-4.7946806,2.7478244,0.6400829,-0.66659623,0.38202533,0
-1.7177423,-5.5886445,3.6919703,-0.24841592,-0.80821687,0.53392422,0
2.4597442,5.714469,-3.0953393,0.35397822,0.82236087,-0.44544578,0
-3.3372097,-0.97026229,-6.2392497,-0.46727252,-0.13585509,-0.87361306,0
-1.342029,-6.7200613,-0.70784098,-0.19480139,-0.9754464,-0.10274623,0
1.6313936,-3.4011958,-5.9641347,0.2311756,-0.48196432,-0.84514397,0
-5.2495618,-4.3567495,-0.4347288,-0.76795137,-0.63734305,-0.063595898,0
-0.32907239,6.0626121,-3.4211807,-0.047218937,0.86993045,-0.49090874,0
3.1058135,-1.4658611,-5.845078,0.45812762,-0.21622401,-0.86218691,0
2.6660094,3.7516203,5.0341215,0.39085907,0.55001861,0.7380439,0
-0.76686776,-6.3150206,2.6548965,-0.11125008,-0.91612476,0.38514781,0
2.2789733,1.1859214,-6.5262265,0.32493243,0.16908681,-0.93049914,0
6.4909892,2.112752,-1.9611459,0.91392696,0.29747406,-0.27612802,0
5.9591112,-3.3499846,1.4517328,0.85268676,-0.47934791,0.20772783,0
-0.25217089,2.8656864,-6.5027189,-0.035463918,0.40301424,-0.91450638,0
-3.369318,0.34312606,-6.1189547,-0.48176569,0.049062259,-0.87492555,0
2.0976021,-0.68401515,6.4751053,0.30663684,-0.099992387,0.94655973,0
4.1610951,3.9524484,3.5974102,0.61433578,0.58353156,0.53111446,0
6.3536687,0.47610009,2.6109817,0.92273253,0.069143206,0.37918845,0
-1.3898276,4.5059023,-5.0802684,-0.20051266,0.65007377,-0.73293847,0
-0.42747459,-4.2508497,5.5718584,-0.060882907,-0.60542566,0.7935698,0
2.7849956,-5.2694044,-3.7524898,0.39542684,-0.74817497,-0.53279626,0
3.6569633,5.4821029,-2.1570902,0.52739859,0.79061586,-0.31109044,0
-3.0147731,-5.3821716,3.3562117,-0.429279,-0.76637715,0.47789705,0
-5.8682604,-3.4482279,0.84941512,-0.85553467,-0.50271773,0.12383637,0
-3.4880595,-5.1104589,-2.9144256,-0.50999588,-0.74720997,-0.42612374,0
-6.2358718,-1.4535736,-2.315582,-0.91584355,-0.21348193,-0.3400825,0
3.2105501,3.1473739,-5.0849123,0.47301039,0.46370265,-0.74916023,0
-4.4962602,1.5882229,4.9004207,-0.65757763,0.23227744,0.71668607,0
1.1811098,1.5194533,-6.8472567,0.16605945,0.21362923,-0.96269768,0
0.7119593,5.3425894,-4.7416024,0.099177398,0.74423373,-0.66051501,0
-3.0865788,6.3740816,-0.11150447,-0.43577531,0.89991784,-0.015742639,0
5.4481578,0.29138404,-4.4158368,0.77619684,0.041513365,-0.6291225,0
0.94419438,3.2657356,-6.1518984,0.13433446,0.4646298,-0.87525618,0
-6.5877385,1.685146,0.91002792,-0.96024477,0.24563096,0.13264789,0
-3.1909022,-4.9307327,-3.6655927,-0.4609006,-0.71220535,-0.52946585,0
2.9038675,3.6324403,5.3690591,0.40881759,0.5113889,0.75587672,0
-1.9989485,-3.0699914,5.9662642,-0.28551468,-0.43849435,0.85217607,0
4.9943275,1.5987917,-4.6482935,0.71270436,0.22815201,-0.66332436,0
1.4802623,-5.0037427,-4.5684357,0.21343696,-0.72148269,-0.65871638,0
-1.3819224,-5.4515581,-4.0413065,-0.19954365,-0.78718162,-0.58354729,0
6.2594004,-2.5411184,0.74466312,0.9209792,-0.3738884,0.10956629,0
-5.0760608,-4.0147943,-2.1113086,-0.74565279,-0.58975703,-0.3101427,0
5.2284169,-4.078145,1.9716802,0.7557984,-0.5895198,0.28501794,0
-4.4229279,-4.9725146,1.4882307,-0.64858854,-0.72918123,0.21823764,0
-6.205791,1.5713041,-2.9060516,-0.88271302,0.22350262,-0.41335741,0
-1.6419741,-6.3096271,-2.4675217,-0.23554042,-0.90511304,-0.35396484,0
0.17322373,3.0291026,6.1734657,0.025182458,0.44035679,0.89746964,0
-3.5360634,5.7034922,1.3875284,-0.5160141,0.83230472,0.20248058,0
6.5868411,-0.58166993,-2.2478859,0.9431181,-0.083284751,-0.32185715,0
5.5352874,3.1242676,-2.438437,0.81307769,0.45892328,-0.35818169,0
0.27694973,3.6143472,-5.8540649,0.040222093,0.52492058,-0.85020036,0
0.40970516,-6.4914541,-3.0633848,0.05698536,-0.90288788,-0.42608219,0
1.2348866,-1.7432451,6.5409255,0.1794644,-0.25334343,0.95058382,0
-2.6365051,-6.5119572,-0.47584942,-0.37442207,-0.92479259,-0.067577533,0
-4.599771,-5.17943,-1.2859205,-0.65287369,-0.73514825,-0.18251857,0
1.0099343,2.9874861,6.1753335,0.14565046,0.43084854,0.89059275,0
5.8733058,-3.3608124,1.4659266,0.84827149,-0.48539639,0.21172127,0
2.0897334,2.6497722,-6.2896709,0.29276982,0.37123075,-0.88117737,0
0.83131433,-1.3876743,-6.6819363,0.12091925,-0.20184489,-0.97192448,0
-7.1260781,0.28510529,0.023417434,-0.99919522,0.039976526,0.0032835153,0
-5.8243055,-0.41371804,4.1216083,-0.81491619,-0.057885963,0.57668084,0
6.0685277,-2.9870415,2.3188541,0.84871167,-0.41775158,0.32430246,0
-6.1019616,3.3496935,0.67643172,-0.87249315,0.47895822,0.096720055,0
-3.3929858,5.1676617,3.2513647,-0.48576197,0.73983616,0.46548656,0
5.2306671,3.8191993,1.8166023,0.77761745,0.56778151,0.27006531,0
-1.4912965,5.0162644,4.7557511,-0.21089265,0.70937824,0.67253757,0
4.2252965,-1.1133333,-5.4475222,0.60504699,-0.15942526,-0.78006524,0
-6.4845028,1.4642915,-1.8619349,-0.93929261,0.21210541,-0.26970482,0
-1.0623535,-5.3970008,-4.1237416,-0.15453096,-0.78505296,-0.59984344,0
-4.04211,5.1276178,-2.7813644,-0.56955361,0.72250718,-0.39190823,0
-4.7986207,0.33437264,-4.8230238,-0.7044608,0.049087528,-0.70804334,0
3.2686262,-5.9565597,1.0936091,0.47496009,-0.86554044,0.158911,0
-3.7253661,5.2134562,-2.7771311,-0.53344345,0.74652642,-0.39766359,0
6.1524196,3.1294467,-0.93466908,0.88326013,0.44927293,-0.13418394,0
4.9070535,1.1796404,-4.7243471,0.70982522,0.17063978,-0.68339604,0
-1.9707426,2.6793115,6.1228004,-0.28283283,0.38452372,0.87871897,0
-5.1847887,4.4578137,-0.40561655,-0.7569344,0.65080231,-0.059216514,0
2.8564761,2.555861,5.9470696,0.40372652,0.36123839,0.84054255,0
0.90243679,6.7035484,1.4666861,0.13038719,0.96855181,0.21191187,0
-4.8999801,-0.3863821,4.98807,-0.6997121,-0.055174965,0.71229124,0
-5.6101351,-2.0788808,3.2136908,-0.82606405,-0.30610469,0.47319975,0
-5.4881783,-0.54299998,-4.5136833,-0.77009875,-0.076193519,-0.63335806,0
2.1404686,-5.0678444,4.3175159,0.3060762,-0.72467619,0.617383,0
6.1429329,-3.0547862,0.89269996,0.88791239,-0.44154519,0.12903272,0
-5.7542415,-3.2202418,-2.4666777,-0.81732965,-0.45740157,-0.3503657,0
-1.9137892,6.6236768,-1.6162877,-0.2702508,0.93534541,-0.22823989,0
-2.8443162,4.1815248,-4.9569798,-0.40165731,0.59048992,-0.69999504,0
-0.10270867,-4.5847359,5.2768316,-0.014691372,-0.65579724,0.75479412,0
-4.8721471,-1.8649347,-4.5806394,-0.70178747,-0.26862651,-0.6597985,0
0.16560079,4.6244411,5.465147,0.023125194,0.64577651,0.7631762,0
1.5287542,-5.7453465,3.5724475,0.22040775,-0.82833385,0.51505673,0
3.6046102,4.1184702,-4.3370633,0.5161829,0.58976805,-0.62107074,0
2.639564,6.2511706,-1.363028,0.38137665,0.9031986,-0.19693671,0
3.8142405,-5.356173,-2.337039,0.54657412,-0.76753044,-0.3348937,0
-3.5479717,2.313709,5.2265801,-0.52738786,0.34392101,0.7769044,0
-1.3949511,-3.458478,-5.9746013,-0.19806412,-0.49105692,-0.84831226,0
-5.8857956,3.5556731,1.3762865,-0.83929151,0.50702512,0.19625309,0
2.634187,4.6478291,-4.8075509,0.36651811,0.64669424,-0.66891778,0
5.9815383,0.036422562,3.7471523,0.84743321,0.005160159,0.53087699,0
4.0083766,4.8659153,2.586385,0.58823699,0.71408248,0.37955698,0
-6.2534556,-2.273222,1.4317632,-0.9187997,-0.33399704,0.21036425,0
3.3295722,-0.95407027,5.9202166,0.48543432,-0.1390985,0.86313683,0
-5.862195,-2.3607528,-3.2902687,-0.82277453,-0.33133787,-0.46179786,0
-2.7133095,-3.6870432,-5.3231931,-0.38646302,-0.52515417,-0.75819486,0
2.4478626,3.5457683,5.5175276,0.34966749,0.50649893,0.78815699,0
4.3479729,-4.8962131,-1.9562306,0.6362195,-0.71644104,-0.28624651,0
3.5583119,-6.1213727,-1.1775964,0.49574474,-0.85283089,-0.16406298,0
-6.7395744,2.0431089,0.06868387,-0.95694679,0.29009941,0.0097523676,0
6.24719,2.9327629,-0.78156322,0.89946473,0.42225653,-0.11252876,0
0.96581811,0.60175991,6.8094163,0.13989569,0.087163016,0.9863224,0
-5.182375,-4.20398,2.0660255,-0.74186301,-0.60180461,0.29575396,0
3.3224828,0.068319418,6.0872159,0.4790715,0.0098510329,0.87772059,0
1.9312617,3.730376,-5.6459794,0.27443504,0.53009176,-0.80230176,0
-3.3703711,3.9501622,4.9444985,-0.47005498,0.55091661,0.68959355,0
-6.8676877,-1.8317404,0.8752979,-0.9589783,-0.25577739,0.12222333,0
-1.9669845,-4.120677,5.5219331,-0.27451739,-0.5750922,0.77065504,0
6.1860437,-0.37339944,2.9537873,0.90106827,-0.054389916,0.43025303,0
0.60097939,-5.6990104,3.841203,0.087112427,-0.82607597,0.55678535,0
-5.9119959,-3.4388144,-0.27680311,-0.86369795,-0.50238484,-0.040438842,0
-2.2688792,3.187937,-5.6518226,-0.33005992,0.46375769,-0.8221857,0
-3.5666366,-2.4618132,-5.4792228,-0.51054525,-0.35239559,-0.7843219,0
3.9073489,5.6153827,0.76486456,0.56762582,0.81575418,0.1111129,0
4.3196325,-4.0937366,3.8564746,0.60912257,-0.57726836,0.54381144,0
4.3521194,0.1106595,-5.2085042,0.6411159,0.016301382,-0.76727092,0
6.2619901,-2.8710456,1.1559143,0.89647883,-0.41102454,0.16548297,0
-1.3916311,1.4351965,-6.6304498,-0.20094988,0.20724067,-0.95742905,0
-4.4447012,-5.1099472,0.69100267,-0.65289581,-0.75061584,0.10150351,0
-1.4175189,0.73648268,-6.8847141,-0.20056564,0.1042054,-0.97412252,0
1.2655125,-2.7642074,-6.3114233,0.18064667,-0.39457917,-0.90092957,0
-5.7228308,-4.1991024,-0.70244735,-0.80232716,-0.58870411,-0.098481432,0
5.6902585,-1.2572924,4.0663867,0.80076742,-0.17693375,0.57224637,0
-1.9948013,-4.4380722,-5.1739888,-0.28085801,-0.62485826,-0.72847164,0
4.4027834,-4.5040059,-3.2027135,0.62309676,-0.63742208,-0.45325881,0
4.7529612,-4.8146019,-1.7519494,0.68010324,-0.68892342,-0.25068718,0
-5.0436416,-4.8691707,-1.5368713,-0.70275211,-0.67844236,-0.21413884,0
-3.3206477,-3.7759526,4.8745542,-0.47415671,-0.53916991,0.69603968,0
0.62494045,-6.945271,-0.55442208,0.089336731,-0.99284309,-0.079255961,0
-5.9233027,0.18274131,-3.6889606,-0.84855026,0.026178841,-0.52846676,0
3.9212418,5.2129021,1.9624661,0.57564723,0.76526588,0.28809449,0
5.1486473,-0.92110771,4.6530957,0.73545867,-0.13157566,0.6646716,0
5.7005305,4.3100286,-0.43217781,0.79621339,0.60199702,-0.060363814,0
1.4120286,-4.3188062,5.3168283,0.20189443,-0.6175108,0.76020986,0
5.979353,3.1617692,0.3615261,0.88275826,0.46678594,0.053373694,0
-6.3581529,-2.6106246,-0.87438869,-0.91766274,-0.37678754,-0.12619922,0
6.8049049,-1.4713594,0.56581599,0.97420138,-0.21064222,0.081003144,0
-1.8247485,-1.3871037,6.4503207,-0.26656309,-0.20263101,0.94227642,0
-6.595593,-0.31931776,-2.3226779,-0.9422406,-0.045617454,-0.33181572,0
5.3719034,-4.3841615,-0.45363662,0.77308375,-0.63093537,-0.065283954,0
-2.5702207,0.15516481,-6.5097175,-0.36714992,0.022164924,-0.92989767,0
-5.0651093,-2.3072178,-4.064024,-0.73496294,-0.33478442,-0.58970237,0
5.1594205,0.43522441,-4.4321198,0.75699902,0.06385687,-0.65028822,0
0.24882174,4.4207234,-5.3973937,0.035641901,0.63323641,-0.77313733,0
-2.8275046,5.9153185,2.2104526,-0.40866092,0.85494447,0.31947801,0
1.1434811,5.9307327,3.5945613,0.16268843,0.84379321,0.51141512,0
-5.1388845,-3.974793,-2.8736351,-0.72339278,-0.55952543,-0.40451714,0
2.5172172,-0.28472516,-6.4486184,0.36332092,-0.041095626,-0.93075722,0
-0.38559458,-5.3563361,-4.2376442,-0.056366824,-0.78299767,-0.61946547,0
3.001447,-6.2671819,0.12817772,0.43186206,-0.9017511,0.018442802,0
-5.5272722,-2.9158776,2.8285766,-0.80577344,-0.42508069,0.41235381,0
