-4.3871064,2.7986338,4.2814884,-0.65103072,0.41530713,0.63535738,0
-6.2435217,-0.41379482,-1.932452,-0.95337987,-0.063186079,-0.29508358,0
3.9873712,-3.2843342,-3.9760523,0.61167097,-0.50382364,-0.60993463,0
-5.8215647,0.21226834,-2.6456769,-0.90989411,0.03317694,-0.41351181,0
-3.3101807,-5.0999751,-2.5471647,-0.50214756,-0.77365565,-0.38639963,0
0.19262831,5.9038072,2.8865893,0.029299177,0.8979817,0.4390564,0
4.0102496,-2.2768807,4.7154436,0.6080206,-0.34521303,0.71493977,0
4.0640793,-3.942667,2.8152554,0.64269155,-0.62349153,0.44520316,0
-5.6165342,-1.8785452,-2.4286892,-0.8774451,-0.2934764,-0.37942287,0
-4.932549,3.4847908,2.4693964,-0.75598085,0.53409201,0.37846887,0
-3.8094685,3.902313,-3.9310446,-0.56666684,0.58047765,-0.58475155,0
0.96730167,5.4869633,3.1294622,0.15137023,0.85863894,0.48972046,0
-2.0096884,5.4282808,-3.6053505,-0.29470348,0.79601061,-0.52869356,0
-6.2393284,0.009145475,-2.2670782,-0.93987811,0.0013776533,-0.34150743,0
1.515818,-4.2403603,4.5451136,0.23691478,-0.66274714,0.71037853,0
-5.2264304,-3.314703,-2.1972923,-0.79581255,-0.50471967,-0.33457497,0
2.7479212,3.0498846,5.1459646,0.41743687,0.46330813,0.78172374,0
-1.0954486,3.3672581,-5.5850868,-0.16565104,0.50918847,-0.84456307,0
-1.8712087,2.6037848,5.5629187,-0.2914274,0.40552092,0.86638492,0
-3.9300995,1.5088165,-5.2167706,-0.58627582,0.22507894,-0.778216,0
0.34124628,-3.0716994,5.5802832,0.053495456,-0.48153481,0.87479281,0
5.3671174,0.63122767,3.8923652,0.80587977,0.09477967,0.58444381,0
-4.6331134,-4.5644321,-0.62906849,-0.70905811,-0.69854701,-0.096273512,0
5.598105,-2.3295126,2.006696,0.87650073,-0.36473405,0.31419033,0
-4.812006,4.3429794,1.3254668,-0.72730964,0.65641874,0.2003374,0
2.2887886,-6.0742497,0.66172916,0.3507832,-0.93094873,0.10141762,0
-3.7769461,5.4735117,-0.54418451,-0.56605595,0.82032251,-0.081557661,0
-0.99561012,5.0633178,-4.1544471,-0.15028551,0.7642985,-0.62710613,0
-1.5914243,-4.4325385,-4.5604181,-0.24275361,-0.67613316,-0.69563973,0
-2.8658648,-2.8840249,5.1727195,-0.43558496,-0.43834513,0.78620559,0
-4.4415531,2.6493826,-3.7158928,-0.6974538,0.41603059,-0.5835039,0
0.63531029,5.4504461,-3.2335873,0.099746823,0.85574669,-0.507689,0
0.8479954,5.1244278,-3.9152577,0.13037123,0.78783202,-0.6019336,0
-3.4387569,1.8733435,-5.197763,-0.52840704,0.28786212,-0.7986998,0
2.5236204,-5.7763586,-1.1774741,0.39354098,-0.90078282,-0.18361887,0
0.48229799,-1.6050066,6.4482203,0.072390519,-0.24090347,0.96784562,0
1.1454538,-2.1649804,6.2511487,0.17061004,-0.32246381,0.93107963,0
4.6353297,-4.5280519,-0.80941916,0.70981979,-0.6933921,-0.12394841,0
-0.7301842,-5.9782314,-2.9591811,-0.10881416,-0.8908934,-0.44098574,0
2.4018965,-4.652051,3.9898016,0.36489168,-0.70673096,0.60612327,0
6.5186615,0.60067785,-0.34333694,0.99441451,0.091632731,-0.052375667,0
4.1808395,2.2753851,4.2657409,0.65410835,0.3559927,0.66739148,0
4.3442578,2.6310039,4.3079576,0.65230823,0.39505607,0.64685762,0
4.6764965,-2.850769,-3.5193198,0.71833879,-0.43789575,-0.54058927,0
-3.6023481,1.1490489,-5.3319216,-0.55110765,0.17578803,-0.81570762,0
0.6046598,3.6012058,-5.3877821,0.092900991,0.55329555,-0.82778829,0
2.2447236,5.7851219,-2.3246088,0.33875057,0.87303102,-0.35080603,0
-2.2377369,-1.6695354,6.1031036,-0.333424,-0.24876167,0.90936571,0
-0.12977298,-5.1662474,4.4053922,-0.019110225,-0.76077592,0.6487332,0
6.3067665,0.35408336,-2.3457572,0.93597281,0.052548703,-0.34812847,0
3.9939308,-3.2131183,4.08283,0.60945785,-0.49030897,0.62302345,0
5.2139735,1.7017645,3.4046144,0.80768466,0.26361644,0.52740103,0
0.84633493,-5.343183,3.6015606,0.13022521,-0.82215345,0.55417067,0
3.1046014,-5.5695481,1.8657383,0.46729663,-0.83831406,0.28082612,0
-6.2821589,-0.08189974,-0.86565626,-0.99055666,-0.012913766,-0.13649473,0
-1.182786,6.6118646,-0.98699313,-0.17422213,0.9739151,-0.14538221,0
-5.6183939,2.1284249,-2.9570515,-0.83902717,0.31784996,-0.44159356,0
5.387836,-0.11511694,-3.6316981,0.82908171,-0.017714227,-0.55884671,0
-1.8946412,5.5870934,-2.3121281,-0.29900444,0.88173193,-0.36489049,0
-3.9163437,0.69721562,-5.1975946,-0.59835911,0.10652418,-0.79411519,0
0.78046274,6.3201213,1.9582286,0.1171442,0.94862378,0.29392192,0
-3.1888368,4.1714406,4.3443313,-0.46792156,0.61210626,0.63747579,0
-0.51691252,-6.207293,-2.239784,-0.078092448,-0.93776542,-0.33837488,0
6.5310464,1.0952162,0.21210453,0.98572367,0.16529977,0.032012705,0
6.0432353,-2.5706763,0.6428721,0.91582727,-0.38957533,0.097424604,0
0.80869031,-1.4225063,-6.3497877,0.12332798,-0.21693698,-0.96836382,0
-6.3950949,1.044045,-1.3550664,-0.96603668,0.1577124,-0.20469499,0
6.3031998,2.4318788,-0.41433582,0.93122005,0.35928011,-0.061213009,0
-4.3618488,1.9302596,4.435936,-0.66963542,0.2963354,0.68100935,0
2.2801511,-3.5193672,5.0041432,0.34923992,-0.53904474,0.76646084,0
-2.4084442,3.7212656,-4.7606359,-0.37025797,0.57208228,-0.73186809,0
6.0607328,0.13867645,2.6364791,0.91679204,0.020977242,0.39881366,0
-5.6414361,1.5462978,-3.0869243,-0.85294455,0.2337891,-0.46672073,0
4.2380438,5.2181325,0.37440881,0.62946576,0.7750358,0.055609979,0
-4.7485332,4.5353441,-1.2084204,-0.71121061,0.67928028,-0.18099092,0
-1.9340371,6.1959467,-0.67833555,-0.29635274,0.94940573,-0.10394145,0
-4.3987036,1.3665559,4.3961568,-0.69082922,0.2146216,0.69042927,0
-4.1874804,4.2707725,-2.5875347,-0.64255834,0.6553393,-0.39705068,0
-2.1499391,6.1276579,0.17016178,-0.33095816,0.94328183,0.026194431,0
3.7059953,-3.6901252,-3.7723458,0.57471442,-0.57225335,-0.58500385,0
-5.5192318,-1.1159371,-3.5144882,-0.83149952,-0.16812144,-0.52947503,0
1.5994718,6.1352129,-0.61284757,0.2511012,0.96316749,-0.096210979,0
-4.0641384,4.2140012,2.842598,-0.62447369,0.64750081,0.43677834,0
2.5701809,5.6411157,1.7848865,0.39842337,0.87447244,0.2766889,0
4.5294056,-3.2173283,3.0807061,0.71298313,-0.50644636,0.48494035,0
1.5339597,-5.7763777,-2.6500041,0.23463137,-0.88354301,-0.40533927,0
-5.4948206,2.6266987,2.3572788,-0.84138983,0.40221107,0.36095637,0
2.1533301,6.091435,-1.1550119,0.32808819,0.9281103,-0.17598127,0
4.5437841,-4.4382834,-1.6682802,0.6918956,-0.67583072,-0.25403404,0
5.4675016,-2.0705314,-3.0453629,0.82941043,-0.31409597,-0.46197623,0
-0.51906896,5.6232014,2.9801805,-0.081291988,0.88065606,0.46672952,0
-4.1082797,1.8253917,4.9236236,-0.616189,0.2737852,0.73848009,0
-1.7222883,-1.8799391,-5.859467,-0.26952305,-0.29419404,-0.91695535,0
2.8831005,2.4969492,-5.4079237,0.43567148,0.37731931,-0.81720287,0
-4.4255328,1.8818393,4.4263291,-0.67710304,0.28791994,0.67722487,0
-6.2395682,0.44264618,-2.3844647,-0.93207008,0.066122726,-0.35619262,0
2.7787266,3.1612244,5.3294291,0.4091787,0.46550307,0.78477997,0
-5.3286095,0.27227619,3.6301033,-0.82571077,0.042191382,0.56251365,0
0.47267884,3.0520725,5.6021252,0.073890015,0.4771055,0.87573439,0
4.90201,0.61043048,4.3319526,0.7460922,0.092908308,0.65932876,0
-5.7090969,-0.46567705,-3.1789639,-0.87147617,-0.071084179,-0.48525912,0
-2.3674643,2.9460676,-5.5737042,-0.35155475,0.43747398,-0.82766283,0
-4.9226112,4.2851253,-1.4683689,-0.73586231,0.640567,-0.21950085,0
-0.22980587,5.4193635,-3.5601742,-0.035418876,0.83526051,-0.54871255,0
5.7938199,-1.6752383,-2.2466407,0.90021986,-0.26029161,-0.34907377,0
1.9462591,-5.9869976,-1.1353112,0.30424789,-0.9359141,-0.1774769,0
-0.0070786597,-4.9842463,4.2063866,-0.0010853515,-0.76422083,0.64495373,0
-0.61960697,-1.8765029,-6.2176046,-0.094972126,-0.28762665,-0.95302212,0
5.0814261,-3.7367189,-1.3016125,0.78899801,-0.58020401,-0.20210265,0
-2.0343378,5.1139798,3.8815644,-0.30206248,0.75933379,0.57634228,0
-4.9522281,4.1856456,1.3932942,-0.74669987,0.63111413,0.21008173,0
4.1158047,-4.6851144,-1.6841472,0.63716042,-0.72529423,-0.26071984,0
-0.96904165,1.3011806,6.5599585,-0.14340025,0.19255067,0.9707526,0
2.8177569,-5.9965634,1.0740758,0.41980314,-0.89339721,0.16002105,0
-5.8656855,-2.9554417,1.4964123,-0.87073457,-0.43872201,0.22213566,0
-1.6128116,0.22917262,6.4979038,-0.24075453,0.034210037,0.96998298,0
4.6697049,-1.9052616,-3.8508928,0.73590654,-0.30025336,-0.60686862,0
-0.65180969,-6.3692293,1.8965027,-0.097613215,-0.95383811,0.284015,0
-2.3746228,5.8438597,-1.5425715,-0.36567703,0.89991778,-0.23754635,0
5.1124578,2.7719772,-2.9732373,0.78273201,0.42439771,-0.45521119,0
-0.60550243,-4.0953221,4.9609056,-0.093711622,-0.63381958,0.76778305,0
6.0948954,-1.6526397,-2.0893133,0.91630083,-0.2484563,-0.31410539,0
-5.4198823,0.76381391,-3.1862931,-0.85577208,0.12060237,-0.50309962,0
0.26329783,-3.0430944,-5.896102,0.039651413,-0.45827571,-0.88792521,0
-0.15941218,2.7002935,5.9141774,-0.024512047,0.4152112,0.90939474,0
-5.9340558,2.5158186,-1.0558789,-0.90856344,0.38519704,-0.16166565,0
5.6186771,2.6701276,2.0324235,0.85854042,0.40799862,0.31055668,0
-4.3485746,-3.179527,3.6739254,-0.66690582,-0.48761842,0.56344026,0
6.6991744,0.28347671,-0.037366897,0.99909037,0.04227668,-0.0055727623,0
-1.8215085,-3.359292,5.3430324,-0.27729186,-0.5113917,0.81338042,0
-2.3622007,-4.672636,4.293139,-0.34887743,-0.69010955,0.63406098,0
0.54909712,4.5383077,4.7486959,0.083303832,0.68850923,0.72042733,0
-1.404703,3.0464628,-5.7507358,-0.21098894,0.45758423,-0.86377096,0
-5.8381686,2.3979037,2.0049961,-0.88159925,0.36209816,0.30276671,0
-5.739408,3.1932201,1.3716239,-0.85540169,0.4759177,0.2044269,0
-4.910049,2.9626846,-2.9928849,-0.75905305,0.45800659,-0.46267527,0
3.1214168,5.6298733,-1.3322073,0.47483429,0.85642421,-0.20265724,0
1.8466532,-3.6370263,-5.0589576,0.28416392,-0.55966747,-0.77847493,0
4.3013525,3.1912763,-4.1773529,0.63326335,0.46983323,-0.61500758,0
-6.2893767,-0.81664503,-0.57759327,-0.98758817,-0.12823352,-0.090696469,0
1.6846695,2.1937177,6.1887727,0.24852224,0.32361695,0.91296697,0
-3.5940518,0.2652863,-5.7594228,-0.52900326,0.039047103,-0.84772104,0
-4.8856716,3.4856787,2.4996512,-0.75148177,0.53614408,0.38447985,0
-2.6646419,6.163271,0.0095070889,-0.39684093,0.91788632,0.0014158759,0
1.5754799,-6.2725382,-0.40753105,0.24312222,-0.96795487,-0.062888682,0
5.9124169,1.1702024,-2.2739825,0.91781777,0.18165711,-0.35300311,0
-3.3302889,3.6401658,-4.1200562,-0.51810789,0.56631678,-0.64097548,0
0.09162683,1.1403409,6.4141769,0.014063117,0.17502239,0.98446405,0
-5.5849252,-2.8700371,-1.7804623,-0.85569692,-0.43973407,-0.27279437,0
0.19581144,-3.3538039,5.6306238,0.029864343,-0.51150817,0.85875928,0
2.6388693,-6.092289,-0.73129523,0.39507568,-0.91210097,-0.10948513,0
1.2392154,-5.3932085,-3.5869815,0.18791357,-0.81782156,-0.54392684,0
-0.0043255924,6.1255817,2.6021917,-0.00064993853,0.92039454,0.39099029,0
6.6420274,0.7517581,-0.86402136,0.98545748,0.11153607,-0.12819223,0
-0.054043464,-4.2749228,-5.1259742,-0.0080965925,-0.64045316,-0.76795459,0
1.8122091,5.3834562,2.9965913,0.28217679,0.83825111,0.46659544,0
-1.5768292,-5.8366213,2.2321706,-0.24466784,-0.90563613,0.34635353,0
-5.4464197,-2.5946958,2.3317299,-0.84207761,-0.40116909,0.3605116,0
1.2574275,6.3446627,-0.51394868,0.19379468,0.97783917,-0.079209752,0
4.3645768,3.0927892,3.650331,0.67395204,0.47757018,0.56366247,0
3.3338819,3.1841063,4.7164345,0.50549316,0.48278376,0.71511996,0
-4.8480506,2.3212755,-3.971956,-0.72538269,0.34731755,-0.5942983,0
0.5727461,5.5260544,3.4716234,0.087426886,0.84352517,0.5299263,0
0.48451161,4.0391164,-5.3244238,0.07230816,0.60279477,-0.79461312,0
-4.9377637,-2.5607913,3.4347088,-0.75532073,-0.39171958,0.52540118,0
2.1607869,-6.1094265,-0.76430893,0.33114484,-0.93628162,-0.11713184,0
1.1219532,6.2463646,-1.7968961,0.17010096,0.94702035,-0.27243003,0
-5.3021617,1.5547016,3.6096468,-0.80336183,0.23556203,0.54691893,0
-0.87745631,3.3512528,5.3305416,-0.13802302,0.52714878,0.838489,0
4.1364737,3.1546443,-3.8006124,0.64205223,0.48965535,-0.58992076,0
5.6682754,-3.4136028,-0.87054145,0.84932995,-0.5114916,-0.13044125,0
-6.2495694,1.2604246,1.6736983,-0.94813448,0.19122151,0.25392005,0
-1.3634635,-1.0729054,-6.3259993,-0.20785755,-0.16356249,-0.96438712,0
-6.0608249,2.6412346,-0.72999382,-0.9111951,0.39708787,-0.10974856,0
-5.3918753,3.8161867,0.82695276,-0.80992097,0.57323462,0.1242177,0
-5.7246823,-0.40466446,2.9306419,-0.8883819,-0.062797643,0.45479017,0
-0.3030118,-4.5830588,-4.5838213,-0.046695925,-0.70627666,-0.7063942,0
3.8934362,4.4733496,2.6095452,0.60091746,0.69042194,0.40276024,0
0.44269881,0.22152999,6.3419943,0.06959267,0.034824722,0.99696743,0
-4.1339769,-5.2443142,0.45099136,-0.61765856,-0.78355438,0.067382738,0
1.0086432,-0.28716746,-6.3013864,0.1578951,-0.044953793,-0.98643214,0
4.2733064,-4.8511443,0.44772285,0.65942317,-0.74859059,0.069089085,0
-6.1275792,-0.89049244,2.4464951,-0.92036885,-0.1337529,0.36746612,0
2.445888,-2.6973989,-5.6099067,0.36571276,-0.40331903,-0.83880144,0
-1.1039001,-2.1639485,6.1604071,-0.16670001,-0.32677799,0.93028343,0
-5.1963696,-2.2694426,-3.4343293,-0.78385222,-0.34233662,-0.51805526,0
-4.2237864,1.9197931,-4.980649,-0.62052238,0.28203952,-0.73171419,0
-4.9990954,-1.2443272,3.8648765,-0.7762292,-0.19321159,0.60011458,0
-6.2998295,-1.269655,-0.11516675,-0.98013228,-0.19753389,-0.01791773,0
-0.37434494,-4.8478746,4.5181103,-0.056399167,-0.73038542,0.68070281,0
-6.2323122,-0.47476408,-2.0677476,-0.9466539,-0.07211405,-0.31407946,0
-4.457159,2.3643956,4.4793959,-0.66061628,0.35043809,0.66391212,0
4.5812573,2.2875562,4.2540679,0.68816882,0.34362286,0.63902038,0
5.4106603,0.71448958,3.5523579,0.83088672,0.10972042,0.54551697,0
-6.3141618,1.2688649,-0.40064293,-0.97850865,0.19663659,-0.062087823,0
-1.129948,3.3318624,-5.7526817,-0.16756724,0.49410325,-0.85310209,0
-3.6012852,1.4348992,-5.4210854,-0.54036355,0.21530293,-0.81341988,0
-0.64568079,-0.58063024,6.5958023,-0.097055197,-0.087277159,0.99144489,0
-2.3176632,-4.2729921,-4.5267105,-0.34892091,-0.6432929,-0.68148983,0
1.2346081,2.4491644,-5.8893409,0.19003643,0.37698641,-0.90651387,0
2.7915947,-5.1521025,-2.7470045,0.43135265,-0.79609448,-0.42446265,0
-6.7323732,0.41025648,-0.14271399,-0.9979251,0.06081143,-0.021154186,0
2.4595685,6.0109901,1.5998955,0.36770993,0.89865386,0.23918727,0
-3.8839879,4.9236603,-2.1931894,-0.58461797,0.74110949,-0.33011895,0
4.283823,4.751492,1.6150392,0.64924175,0.72012007,0.24476989,0
-4.4974284,4.186501,2.0115178,-0.69562769,0.6475358,0.31112611,0
3.9141593,1.2392555,5.1141801,0.59682572,0.18896002,0.77980328,0
5.3472519,-3.6721058,0.10359588,0.82423389,-0.56602424,0.015968435,0
3.9077241,2.8778777,-4.3404055,0.60018337,0.44201031,-0.66663843,0
1.7476238,-5.1453934,3.797148,0.26362124,-0.77615958,0.57278281,0
0.17381495,-4.6663117,4.350718,0.027234016,-0.7311362,0.68168771,0
-4.6976895,-3.3887291,2.7265725,-0.7337814,-0.52932113,0.42589197,0
0.528822,-2.3787172,-5.9374738,0.082395881,-0.37062848,-0.92511916,0
4.6899943,0.95180315,-4.419148,0.7199983,0.14611886,-0.67841852,0
0.58567613,2.7942164,-6.0304947,0.087779276,0.41878825,-0.90383136,0
-4.1068797,4.4580107,-2.398756,-0.63000846,0.68387306,-0.36797681,0
-3.1465526,4.8841877,-3.3957794,-0.46756962,0.72577775,-0.5046041,0
-3.88239,4.944808,-1.305191,-0.60465151,0.77011466,-0.20327316,0
-2.4107289,-0.42219609,6.0193973,-0.3709999,-0.064974003,0.92635709,0
4.6752629,-3.7102523,-2.7742567,0.71032816,-0.56371093,-0.42150199,0
-0.96701014,6.4896574,0.53898042,-0.14688595,0.98575956,0.08186952,0
3.6715424,1.8787988,5.3864026,0.54120147,0.27694321,0.79397941,0
0.8849467,5.0104456,-4.1980476,0.13415785,0.75958312,-0.63642365,0
6.2990093,1.4361671,0.054311525,0.97494519,0.22228642,0.0084062042,0
3.4046102,1.9299216,5.2571988,0.51947546,0.29446748,0.80214345,0
-2.6483102,2.2596397,-5.7579904,-0.39359045,0.33582646,-0.85574949,0
2.7439911,5.9367995,0.32951549,0.41902196,0.90658069,0.050318759,0
-1.8257117,4.0126858,4.8362522,-0.27898929,0.61318356,0.73903376,0
5.0964246,-3.4302847,-2.6743293,0.76063979,-0.51196891,-0.3991428,0
-5.1315179,2.9265027,-2.6416292,-0.79299039,0.45224214,-0.4082197,0
0.24681246,5.8911996,-3.1337707,0.036962364,0.88225955,-0.46931005,0
-4.6409454,4.4556403,-1.8103713,-0.69439334,0.66666734,-0.27087364,0
6.0556893,-2.4990883,0.49134099,0.92178953,-0.38040814,0.07479132,0
2.8674107,-1.6962703,5.7966919,0.42887548,-0.25370929,0.86700487,0
-3.2776132,-3.4717073,-4.5246282,-0.49828234,-0.52778971,-0.68786103,0
-1.5343804,2.4422045,-5.9819083,-0.23104912,0.36775053,-0.90076399,0
-1.244658,-0.51454961,-6.2067375,-0.19597262,-0.081016339,-0.97725695,0
3.3546436,-4.5462885,3.323051,0.51178646,-0.6935845,0.50696665,0
3.7174923,-1.2716008,-5.3782821,0.55813777,-0.19091591,-0.80748582,0
-6.0850849,0.29885608,-1.732595,-0.9607029,0.047182892,-0.27353916,0
3.8537371,5.2596431,0.15871364,0.59085602,0.80640996,0.024334019,0
-3.1226592,-2.2786767,5.2567296,-0.47856313,-0.34921861,0.80562007,0
1.2522438,3.712451,5.3285871,0.1893339,0.56130672,0.80565959,0
-2.8948643,5.1902561,2.8918936,-0.43800262,0.78530306,0.43755317,0
-3.9773684,-5.3383303,0.44860521,-0.59610897,-0.80008346,0.067234807,0
1.6885651,-3.063077,5.3550048,0.26400024,-0.47889954,0.83723307,0
4.3772345,4.8690219,-0.18492125,0.66828591,0.74336857,-0.028232498,0
0.71828336,6.1992502,-2.1179676,0.10899054,0.94065887,-0.32137516,0
1.2190202,1.9685571,-6.2766671,0.18221186,0.29424816,-0.93819875,0
0.61161691,-6.3621936,1.0994704,0.094306737,-0.98100245,0.16953008,0
-5.9279132,-0.92182899,-2.4702592,-0.91369557,-0.1420856,-0.38075203,0
1.950559,6.1333709,-0.96894634,0.29968983,0.94234979,-0.14887187,0
0.82457465,-3.7234247,-5.3149753,0.12605055,-0.56919008,-0.81248623,0
4.7800264,4.3488231,-0.70524669,0.73531657,0.66898412,-0.10848885,0
-0.49295852,6.4809513,-1.5538357,-0.073764995,0.96979225,-0.23251182,0
-5.0190697,1.3828717,-3.8934405,-0.77205241,0.21271861,-0.59890383,0
-3.0575602,5.6321125,-1.7228519,-0.46074778,0.84871048,-0.25961882,0
3.2871025,-2.8783455,4.9335465,0.49879184,-0.43676618,0.74862671,0
3.9369645,5.2483158,0.96910876,0.59362984,0.79136014,0.14612573,0
0.07893499,4.5473709,-4.6451402,0.0121421,0.69949508,-0.71453434,0
1.7517306,-4.9338927,3.9565167,0.26693201,-0.75183588,0.60290146,0
-0.39976847,-5.5081625,3.5652816,-0.060815163,-0.83793449,0.54237187,0
3.1792598,4.8371396,-2.9696615,0.48868623,0.74352008,-0.45646873,0
1.1392688,-5.4595141,3.4762979,0.17335655,-0.83074564,0.52897,0
0.0056437971,-2.7207656,-6.012599,0.0008551802,-0.41226587,-0.91106319,0
-4.8968935,2.2061591,-3.9129272,-0.73691505,0.33199656,-0.58884168,0
-4.9227862,3.5188034,1.847419,-0.77808118,0.55617177,0.29199764,0
2.5489304,5.796947,-2.1504056,0.38113472,0.86680192,-0.32154438,0
-3.0104954,-0.45527264,-5.8127074,-0.45878732,-0.069381714,-0.88583308,0
1.2567023,0.62801778,-6.4117765,0.19145709,0.095677756,-0.97682649,0
-4.3596301,-1.5863178,-4.856792,-0.64909375,-0.23618263,-0.72311485,0
3.1261928,-5.5778594,-1.5160087,0.47572386,-0.84880269,-0.23069644,0
0.39432508,5.0822039,4.1002817,0.060276739,0.7768684,0.62677121,0
1.4096738,-2.3744736,-5.7499928,0.22099727,-0.3722508,-0.90143746,0
1.5373495,-3.6571429,-4.9574494,0.24212646,-0.57598555,-0.78077871,0
-3.162097,-5.5960464,-1.9093211,-0.4715867,-0.83457941,-0.28475106,0
5.4964919,-2.8401473,-2.559958,0.82090932,-0.42418027,-0.38233358,0
-2.7774029,-2.6118419,-5.2278991,-0.42924473,-0.40365747,-0.80796635,0
2.8531535,3.3361542,5.0602598,0.42590719,0.4980076,0.75537509,0
-2.1722736,1.2528086,6.0938511,-0.32964993,0.19011797,0.92476267,0
3.8037274,-3.6044126,3.9670622,0.57873398,-0.54840839,0.60358524,0
3.4553096,4.8479276,2.7122118,0.52817392,0.74104762,0.41458499,0
5.1159735,-2.893079,2.8155487,0.78502792,-0.44393268,0.43203592,0
-5.8468666,2.9247181,0.96995944,-0.8846646,0.4425267,0.14676045,0
-1.0941681,-4.7279854,4.5459228,-0.16454779,-0.71102375,0.68364406,0
2.9084282,2.0439465,-5.7381287,0.43087688,0.30280593,-0.85009044,0
-4.3149948,1.8603653,-4.4751759,-0.66496897,0.2866945,-0.68965393,0
3.1925445,-5.1700044,1.992349,0.49925736,-0.80849707,0.31156808,0
5.0080605,0.82058895,-4.1071205,0.76709688,0.12569162,-0.6290977,0
4.9002528,3.2554791,-2.410166,0.77076662,0.5120582,-0.37909788,0
-5.6192617,-0.38138539,-3.7399721,-0.83114851,-0.05641095,-0.55318159,0
1.1784561,-0.64145571,-6.2769732,0.18359528,-0.099934354,-0.97790891,0
-1.3247715,6.4271765,-0.10714946,-0.20184958,0.97928041,-0.016325889,0
0.99706316,-3.4826429,-5.5416446,0.15059941,-0.52602881,-0.83702654,0
-6.1751685,-2.5957794,-0.53500777,-0.91893798,-0.38628262,-0.079615474,0
-1.8947692,-2.2301838,5.818049,-0.29094031,-0.34244299,0.89335686,0
-4.6581788,1.6696073,-4.522922,-0.69484019,0.24904802,-0.67466456,0
4.1419411,-1.5874628,4.7218447,0.63933212,-0.24503389,0.72884351,0
3.1339188,-2.6656201,-5.1510072,0.47538295,-0.40434691,-0.78135437,0
-0.12827593,1.9936363,-6.345294,-0.019282792,0.29968891,-0.95384204,0
1.1743269,2.5665805,-6.0452309,0.17601691,0.3846983,-0.90610445,0
1.8024523,4.7687726,4.0913815,0.2757403,0.72952986,0.62590212,0
2.7179675,-0.33910206,5.9802566,0.41321099,-0.051553484,0.90917486,0
-2.838588,-5.7423892,0.79815245,-0.43973634,-0.88957512,0.1236448,0
6.0301509,-1.1063086,2.170537,0.92719042,-0.17010498,0.33373976,0
-4.0834002,4.2692437,-2.6330299,-0.63133538,0.66006869,-0.40709332,0
0.59487909,-6.2725143,1.2651049,0.092567801,-0.97605187,0.19686013,0
-1.1112105,-6.1514969,2.1332476,-0.16823696,-0.93133491,0.3229731,0
-5.8422484,2.5694292,-1.5053312,-0.89093602,0.39183494,-0.22956124,0
2.9991434,4.202776,4.0713725,0.45612431,0.63917857,0.61919415,0
-1.3604139,3.5069778,-5.3178835,-0.20885125,0.53839254,-0.81640345,0
4.4382515,3.1875339,-3.5852149,0.67910337,0.48772922,-0.54857898,0
4.1837258,4.9201899,-1.9262331,0.62076771,0.73004186,-0.28580824,0
1.7379637,-6.0922294,-0.42319193,0.27372098,-0.95949697,-0.066650704,0
-0.031913769,-5.1940174,-4.0247869,-0.0048567764,-0.79044819,-0.61250961,0
1.588286,2.9556918,5.746923,0.23866901,0.44414672,0.86358017,0
1.2087322,-6.278183,1.1161244,0.18624036,-0.96733671,0.17197143,0
0.26390639,5.9414854,2.5207932,0.040855471,0.9198041,0.39024517,0
-6.2834525,1.7308536,0.22874299,-0.96349818,0.26540732,0.035075214,0
6.3868856,0.44502383,-1.7913994,0.96068418,0.066938311,-0.26945356,0
1.4318886,0.12285145,6.2651768,0.22276166,0.019112237,0.97468561,0
-1.9734582,-6.273787,0.099409133,-0.3000271,-0.95381099,0.015113284,0
2.4049079,2.8821247,-5.1414042,0.37778166,0.4527466,-0.80765182,0
-1.8164335,-5.4542575,-3.0931184,-0.27824959,-0.83550805,-0.473818,0
-6.0692997,-2.0534179,0.38135955,-0.94558072,-0.31991705,0.059414804,0
-4.1709003,-3.2743313,3.9507976,-0.6307506,-0.49516562,0.59746522,0
-3.0489511,-4.915802,-3.5793438,-0.44821569,-0.72265494,-0.52618682,0
-2.0859385,6.0973759,1.1838186,-0.31835979,0.93059278,0.18067658,0
6.2355375,1.5998541,-1.7737762,0.93382645,0.23959218,-0.26563853,0
1.4928485,0.69705766,6.1982789,0.23276612,0.10868578,0.96644056,0
-3.467839,3.9463642,3.8646147,-0.53172368,0.60509592,0.59256124,0
4.6257315,-4.5594897,1.0316066,0.70337123,-0.69329876,0.15686218,0
-6.3337026,-0.7903403,1.1578164,-0.97637087,-0.12183478,0.17848299,0
-5.2244997,-0.060532853,-4.0587597,-0.78966624,-0.0091493446,-0.61346841,0
-5.4674635,-3.0632825,2.0978651,-0.82728481,-0.46350691,0.3174291,0
-1.1738757,5.8544188,-2.6150703,-0.18008381,0.8981241,-0.40117693,0
-3.7526948,0.6518805,-5.4627743,-0.56350601,0.097886607,-0.82029212,0
-4.1665063,4.3521996,-2.4467909,-0.64071137,0.6692667,-0.37625933,0
4.554131,-1.0254134,4.5499167,0.69862664,-0.15730359,0.69798017,0
-2.5766454,-3.5967257,-4.796041,-0.39487925,-0.55120987,-0.73500884,0
-1.4445325,-4.8185492,4.2752471,-0.21881123,-0.72989196,0.64759505,0
-2.0816138,2.9885406,5.4265146,-0.31851324,0.45728451,0.83032537,0
1.8276374,-5.581583,-2.8374527,0.28019696,-0.8557182,-0.43501276,0
4.6717348,-0.84097892,4.251853,0.73309195,-0.13196701,0.66720384,0
-2.0057828,-3.6782806,-5.373208,-0.29438207,-0.53984898,-0.78860784,0
0.50739503,5.6636024,3.0951614,0.078373156,0.87481028,0.47808427,0
-0.25817126,-3.3315201,-5.7261038,-0.038941167,-0.50250864,-0.86369479,0
1.3123254,-5.226687,3.8912446,0.19743206,-0.78632599,0.58541614,0
3.860786,4.8226628,-2.4140704,0.58209175,0.72711414,-0.36397004,0
1.0883927,-5.2450566,3.8306587,0.1652704,-0.79645211,0.58167839,0
-0.59326041,3.5618329,5.4424667,-0.090832181,0.54534072,0.83327848,0
6.52248,0.025371229,1.1168268,0.98564804,0.0038339868,0.16876987,0
6.1156173,1.8076067,0.94413662,0.94864684,0.28039366,0.14645328,0
-4.2769165,3.6682851,-3.2419169,-0.65792209,0.56429577,-0.49870712,0
-1.2029612,1.0764039,-6.2405376,-0.18662325,0.16698958,-0.96813548,0
-0.31288144,-5.6419015,-3.1744573,-0.048275132,-0.8705008,-0.48979366,0
0.73458004,4.9191771,4.2935843,0.11179803,0.74866486,0.65345395,0
-1.689858,-0.22704493,6.4329677,-0.25391957,-0.034115974,0.96662349,0
3.068723,-1.1037741,5.7442226,0.46457705,-0.16710146,0.8696236,0
3.1214671,-5.526463,0.4380264,0.49062926,-0.86864424,0.06884858,0
-4.6650391,2.9429355,3.6881504,-0.7030741,0.44353363,0.55584598,0
1.1990246,-1.1378411,-6.2929883,0.18428212,-0.17487863,-0.96719056,0
-4.3576207,-3.7687609,3.2642086,-0.6580776,-0.56914937,0.49295309,0
-4.408648,-2.4073961,4.2108335,-0.67260313,-0.36728314,0.64242363,0
0.35958701,-6.4666734,0.067749247,0.055517375,-0.99840295,0.010459946,0
5.3778081,3.8142321,-0.11533295,0.81554532,0.5784288,-0.017490258,0
-1.8051955,-1.0571957,-6.0515399,-0.28193265,-0.1651112,-0.94512022,0
2.2531872,0.67578894,-5.8614426,0.35675079,0.10699876,-0.92805177,0
-0.34015837,6.0837522,-2.4034336,-0.051931523,0.92879832,-0.36692899,0
-2.1026883,-3.9384613,-4.957788,-0.31516224,-0.59031779,-0.74309999,0
5.6786656,0.80717885,-2.7776809,0.89105982,0.12665734,-0.43585587,0
2.2161672,6.2077646,-1.304014,0.32982409,0.92387897,-0.19407164,0
-4.6596618,-4.270987,1.6610529,-0.71297616,-0.65350491,0.25415817,0
0.29453158,6.404902,-1.0955626,0.045280531,0.9846732,-0.16842897,0
-2.3325171,3.5376003,4.766757,-0.36572039,0.55466795,0.74739009,0
-6.1612806,0.17535527,-2.5095253,-0.92580366,0.026349157,-0.37708521,0
5.1815343,-3.1091614,2.4413877,0.79503977,-0.47706079,0.37459952,0
6.2973623,0.46690175,-2.047348,0.9486475,0.070335031,-0.30841669,0
3.8514605,4.5739717,2.578795,0.59144741,0.70239943,0.39601123,0
-0.19053687,-1.7612625,-6.2450438,-0.029351974,-0.27132037,-0.96204144,0
-4.0463262,1.3003205,-4.7526808,-0.63463241,0.2039444,-0.74541825,0
-1.989892,-1.4761041,-5.9491997,-0.30877388,-0.2290488,-0.92314428,0
-3.0028305,0.14277747,6.0239034,-0.44602883,0.021207614,0.89476734,0
1.2444868,5.3097196,3.3932989,0.19375142,0.82665861,0.52829528,0
-6.5211082,-0.57640356,0.25993523,-0.995332,-0.087977827,0.03967452,0
-0.38389161,-1.2881274,-6.297111,-0.059620094,-0.20005199,-0.97796971,0
-1.4848237,4.6077657,-4.4708996,-0.22532234,0.69922948,-0.67846,0
-2.1839695,-6.056953,1.8924513,-0.32543039,-0.90253848,0.28199163,0
4.9820828,2.2452378,-3.5778794,0.76275122,0.34374335,-0.54776925,0
1.9203656,4.1043835,-4.9115376,0.28736857,0.61419082,-0.73497546,0
4.4704127,-2.5220702,4.1402054,0.67790568,-0.38245365,0.62783211,0
-5.8889813,-0.34803501,3.1343668,-0.88155353,-0.052099247,0.46920034,0
2.6825066,1.9162591,5.594346,0.41311106,0.29510748,0.86153978,0
0.7622543,5.037466,-3.8241718,0.11965654,0.79076725,-0.60030776,0
-2.7048342,-5.1185174,-2.6044123,-0.42608598,-0.80630761,-0.41026676,0
5.1441517,0.36511436,4.1888094,0.77426404,0.054954626,0.63047218,0
-0.61511546,3.382262,-5.5189495,-0.094603077,0.52018267,-0.84879935,0
-6.0129032,1.4417111,2.3012025,-0.91136956,0.21851867,0.34879091,0
-4.451365,2.1768045,-4.1861172,-0.68623418,0.33558196,-0.64534289,0
5.1969352,3.0641325,2.4015753,0.80033773,0.4718821,0.36984709,0
0.26065466,5.5952015,-3.4558759,0.039603613,0.85012943,-0.52508241,0
0.9354043,2.1662014,6.200563,0.14099446,0.32651377,0.93461722,0
-1.3619423,6.1536174,-2.0330606,-0.20565914,0.92922264,-0.30700088,0
5.6072931,3.2946932,0.49378881,0.85970926,0.50514185,0.075707622,0
-5.7813101,1.7582794,-2.7365787,-0.87152612,0.2650587,-0.4125362,0
-6.2051005,-1.9485692,1.6441205,-0.92496759,-0.29046482,0.24508195,0
-5.4642806,0.75415081,3.5594707,-0.83235735,0.11487751,0.54220337,0
-3.0010965,3.0030875,4.9241371,-0.4615857,0.46189192,0.75736028,0
0.4316743,6.5539603,0.6988613,0.065353349,0.99223709,0.10580414,0
3.8793674,-5.1253953,0.71747613,0.59978628,-0.7924338,0.11092848,0
-4.7491279,-0.7743628,4.5133448,-0.71986121,-0.11737603,0.68412179,0
-0.14192601,-6.0874219,-2.7581034,-0.021231761,-0.91066253,-0.41260511,0
-1.2724925,3.4401212,5.2426009,-0.19887906,0.53765982,0.8193711,0
-5.8055248,3.1372697,0.15537012,-0.87951678,0.47528544,0.023538031,0
-0.14091501,-4.3504705,4.9648123,-0.021341987,-0.65889138,0.75193524,0
5.5489235,-3.5372779,0.23970057,0.84267944,-0.5371837,0.03640179,0
-0.69088286,-6.4298038,-2.0862024,-0.10167528,-0.9462561,-0.30702052,0
1.0562117,5.8670249,-2.4626122,0.16375469,0.90962148,-0.38180253,0
0.13552991,-4.8453245,4.3347015,0.020842081,-0.74512446,0.66659975,0
-1.1409121,2.9139996,5.9263277,-0.17023906,0.43480697,0.88428587,0
-6.431962,-0.62504935,-1.2469193,-0.97728485,-0.094971217,-0.18945934,0
-2.4295514,5.5542188,2.1853471,-0.37701324,0.86189324,0.33911806,0
1.8547215,-5.7874975,-2.2895429,0.28558818,-0.8911531,-0.35254154,0
-3.7163124,-5.0574083,-1.1136776,-0.58303696,-0.79343599,-0.1747203,0
5.5637894,-2.2576184,2.069262,0.87605762,-0.35547784,0.32581982,0
-5.9076643,-0.8589353,2.897146,-0.89029306,-0.12944272,0.43660384,0
1.8126706,6.2483459,-0.96150726,0.2756229,0.95008284,-0.14620055,0
4.2054181,-0.66818672,-4.9709625,0.64249814,-0.10208467,-0.75945699,0
-3.1762636,4.7304654,-3.2797441,-0.48312634,0.71952862,-0.49886629,0
-3.8102162,-4.553493,-2.9357107,-0.57525927,-0.68747777,-0.44322807,0
1.2267184,0.46617368,6.3153086,0.19018255,0.072272576,0.97908491,0
-3.0615337,0.81079572,-5.5992794,-0.47591752,0.12603876,-0.87041187,0
-3.489357,-3.2544541,4.5450583,-0.52951384,-0.49386704,0.68971765,0
4.1409588,-5.2360787,-0.30114651,0.61967945,-0.78356016,-0.045065481,0
4.9369802,1.2860404,4.4526281,0.72907937,0.18991885,0.65755165,0
5.2371311,0.58555233,3.9061663,0.79838997,0.089266263,0.59548712,0
4.1142502,-4.79879,0.40272975,0.64956564,-0.75764209,0.063583739,0
-0.16603547,6.1198258,-2.629209,-0.024919866,0.91850996,-0.39461169,0
5.003655,3.6699502,-2.5688908,0.74503791,0.54645097,-0.38250461,0
0.88758665,0.95555115,-6.4535141,0.13481015,0.14513285,-0.98018503,0
5.5976281,0.50585157,3.0749919,0.87372434,0.07895752,0.47997031,0
-1.3036225,-6.1067905,1.154483,-0.20528813,-0.96166766,0.18180236,0
-1.8421781,-3.1972473,5.2653966,-0.28651294,-0.49726608,0.81892419,0
-3.959347,4.9594727,-1.6210285,-0.60449433,0.7571888,-0.24749096,0
-1.9639997,-4.9397163,-3.8887284,-0.29819143,-0.74999046,-0.59042037,0
-5.0298033,0.98266441,3.924603,-0.77921009,0.15223299,0.60799402,0
4.2714958,4.5146708,2.0488889,0.65271991,0.68987912,0.3130872,0
-2.0946169,-2.7041979,-5.7525163,-0.31297278,-0.40405494,-0.85952759,0
-2.6991577,-0.60694522,-5.9444394,-0.41166463,-0.092568837,-0.90662193,0
-1.1139532,-4.5595484,-4.7438431,-0.1669241,-0.68324101,-0.71085727,0
2.1357167,1.6715294,5.7205262,0.33735046,0.26402903,0.90359467,0
1.6907269,2.6165247,-5.764102,0.25804466,0.39934316,-0.87973744,0
-1.2547464,-6.0202703,1.8746206,-0.19516928,-0.93642175,0.29158747,0
0.16916963,2.3762443,-6.3481374,0.024949754,0.35045716,-0.9362464,0
2.652796,4.2052097,-4.0949531,0.41184464,0.65285575,-0.63573849,0
-1.4964343,-1.0026438,-6.4249043,-0.2242645,-0.15026213,-0.96287417,0
1.3037341,5.3383975,3.7003107,0.19679031,0.80579692,0.5585382,0
2.6714382,-4.729054,3.3527319,0.41853085,-0.74089491,0.52526826,0
0.91074735,-0.32095838,-6.2792864,0.14335473,-0.050519943,-0.98838109,0
5.6104932,-0.31300911,-3.0784554,0.87565142,-0.048852544,-0.48046646,0
3.1918421,5.1997676,-2.5283148,0.48329183,0.78732127,-0.38282406,0
2.4332886,2.4440861,5.711031,0.36472306,0.36634147,0.85602039,0
1.7997004,-6.0235381,2.0167658,0.27259028,-0.91235071,0.30546793,0
-2.7851598,-4.5105324,-3.612391,-0.43416807,-0.70312989,-0.56312203,0
-5.2968636,-0.31411821,-3.5377095,-0.83057207,-0.049255148,-0.55472875,0
6.228323,0.66540372,1.0498401,0.98066282,0.10476924,0.16529956,0
3.4127963,2.0834129,5.1527719,0.52326,0.319435,0.79003817,0
1.4304434,6.2691364,-1.7927196,0.21428311,0.9391284,-0.26855275,0
-5.6250663,-1.0505575,-3.6411338,-0.82934463,-0.15489137,-0.53683895,0
-1.3446672,1.2312896,-6.1330667,-0.21015888,0.19243902,-0.9585408,0
-0.23389231,3.0011764,5.820117,-0.035695013,0.4580186,0.88822567,0
-1.0780561,-3.4045937,5.4359064,-0.16575176,-0.5234583,0.83577383,0
0.56545627,-4.1522794,-4.8241334,0.088489369,-0.64979839,-0.75493819,0
-2.1040921,-0.19989079,-6.1626577,-0.32296011,-0.030681523,-0.94591516,0
2.8972797,3.0452623,5.2202673,0.43228999,0.45436981,0.77889246,0
-0.72776711,5.2017317,-3.8845572,-0.11140206,0.79624873,-0.59462386,0
3.0296693,1.1776916,-5.4861355,0.47510833,0.18468389,-0.86032778,0
-5.0462451,-0.69067633,4.1395211,-0.76885474,-0.10523266,0.6307047,0
-0.34275851,0.59586972,6.5881629,-0.051745497,0.08995714,0.99460047,0
3.9307227,-0.42788953,-5.0509319,0.6127888,-0.066706792,-0.78742629,0
-0.58782274,-4.3275776,-4.706295,-0.091554202,-0.67402619,-0.73301196,0
4.5341611,-1.4158061,-4.603682,0.68544579,-0.21403261,-0.69595551,0
-1.7073958,2.5758512,-5.8345547,-0.25860065,0.39013615,-0.8836965,0
-1.7174867,0.20641574,-6.133543,-0.26950222,0.032390062,-0.96245492,0
1.6766874,-5.1286573,3.5935268,0.25863278,-0.79110688,0.55430955,0
-1.0058663,2.2308018,6.004807,-0.15512371,0.34403205,0.92605537,0
3.3457732,5.2156601,1.5390023,0.52402055,0.81688535,0.24104109,0
-6.1199746,0.47297058,-2.3153172,-0.93287003,0.072095081,-0.35292464,0
-5.204875,-1.699537,3.7918899,-0.78149533,-0.25518006,0.56934011,0
3.070296,5.0301108,-3.0494726,0.46271724,0.75807643,-0.45957899,0
-1.4112103,3.7582855,-5.1284862,-0.21667993,0.57705438,-0.78743762,0
-6.0621123,-2.4737577,-0.18518339,-0.9255082,-0.37767082,-0.028272117,0
0.68556404,5.9354038,-2.9403098,0.1029505,0.89131391,-0.44154352,0
-4.2839856,4.5329685,-1.0333569,-0.67762733,0.71701068,-0.16345313,0
4.7622986,-3.871464,-2.3342848,0.72526103,-0.58959383,-0.3554934,0
-2.615705,-5.4523773,-2.3585935,-0.40297312,-0.83998823,-0.36336273,0
-4.0591769,4.9037676,1.3877828,-0.62301737,0.75264829,0.21300201,0
-2.4954302,-0.32677555,-5.9159474,-0.38815051,-0.050828151,-0.92019325,0
-3.436579,-3.9767773,3.718879,-0.53375065,-0.61765128,0.57759595,0
-4.0910954,5.135922,1.0829924,-0.61474979,0.77175099,0.16273621,0
-0.76921898,-5.120769,-3.9541159,-0.11806366,-0.78596175,-0.60689789,0
4.2655196,-3.063298,-4.0340724,0.6441341,-0.46258718,-0.60918337,0
-5.3374858,-4.0842862,0.93534982,-0.78658444,-0.60190064,0.13784236,0
-0.97482586,6.3261647,0.92697901,-0.15072437,0.97813076,0.14332643,0
-5.5695214,-2.319041,3.0725274,-0.82263148,-0.34252784,0.45381957,0
1.1874644,-6.3224573,-0.91559649,0.18274771,-0.97300988,-0.14090794,0
-3.7537208,4.7662578,2.8463275,-0.56013697,0.71122956,0.42473412,0
-4.8586617,4.1573071,-0.69565952,-0.75536054,0.6463232,-0.10815195,0
0.95002347,6.5315666,-1.2635028,0.14136949,0.97193837,-0.1880172,0
-6.2836533,-0.58340484,1.5049862,-0.96855563,-0.089925401,0.23197697,0
-3.0359387,-1.5874789,-5.4403963,-0.47220916,-0.24691607,-0.8461979,0
-1.7098049,-5.676003,2.910897,-0.25890163,-0.85947025,0.44077307,0
5.0141535,3.8824053,0.53635401,0.7878741,0.61004245,0.084277324,0
2.9450934,3.1741548,4.7314267,0.45918965,0.49490419,0.73770911,0
-0.10545548,-6.1331844,-2.1915388,-0.016189486,-0.9415642,-0.33644423,0
-3.0479274,2.1506345,5.5912251,-0.45346782,0.31996942,0.83185726,0
-4.633503,-3.8597298,2.6736767,-0.70240551,-0.58510709,0.40531003,0
-6.3540869,-1.4261752,0.53955865,-0.97239262,-0.2182536,0.082570933,0
-4.5345364,-4.7632604,0.68907845,-0.68574947,-0.720339,0.10420805,0
0.46734527,-5.9069557,2.5590136,0.072407402,-0.91518486,0.39647675,0
3.442107,-5.4390039,-0.33090776,0.53405899,-0.84388685,-0.051341884,0
-1.2887248,-5.1402459,-4.0583415,-0.19307292,-0.77009636,-0.60800862,0
4.5416007,0.77862012,4.5931931,0.69804877,0.11967473,0.70597857,0
-5.2778163,-3.674772,-0.43258986,-0.81881809,-0.5701164,-0.067113437,0
0.019197702,1.764653,6.4174647,0.002884404,0.26513445,0.96420711,0
0.82165903,2.4922888,-6.1070724,0.12361302,0.37494794,-0.91876757,0
-0.92144299,0.94602358,6.3708515,-0.14162348,0.14540146,0.97918397,0
-0.037713319,5.389473,-3.5181751,-0.0058595114,0.83736145,-0.54661822,0
3.4572871,1.4009998,5.2507706,0.53676414,0.21751346,0.81521302,0
-0.47992313,-0.53690821,-6.3290815,-0.075342104,-0.084288068,-0.99358898,0
2.4556849,0.59313434,6.1018453,0.37184003,0.08981245,0.92394191,0
6.0532346,-0.85813659,1.7332047,0.95256221,-0.13503996,0.27274433,0
0.31425121,4.2511907,4.9861293,0.047904558,0.64805293,0.76008719,0
4.5409269,0.68639171,-4.6995254,0.6910665,0.10445936,-0.71520299,0
4.9201388,-4.2429247,-0.36065739,0.75613731,-0.65206158,-0.055426586,0
-4.7907519,-2.7496619,-3.7058537,-0.7202282,-0.41337645,-0.55712765,0
3.4121611,-2.4480143,5.2107105,0.50986236,-0.36579466,0.77861071,0
-0.60541612,-6.2716861,-1.6538743,-0.092936732,-0.96275932,-0.25388435,0
-1.9317521,1.7420368,5.7906051,-0.3043074,0.27442169,0.91218948,0
3.8511653,-5.3005891,0.11682612,0.58769804,-0.80888397,0.017827976,0
-2.3044112,6.0161805,-1.872275,-0.34348258,0.89673811,-0.27907079,0
-3.3551748,-0.38681448,5.7225504,-0.50492644,-0.058212422,0.86119717,0
3.7307491,-5.2543206,0.010681068,0.57893986,-0.81536853,0.0016574943,0
2.2322848,-6.1735911,0.50918335,0.33902135,-0.93759507,0.077330649,0
-3.0546417,2.7334247,-5.1075158,-0.46643001,0.41738161,-0.77989459,0
1.590338,-0.78763604,6.1266198,0.24932864,-0.12348333,0.96051395,0
5.9359655,3.1342742,0.093787752,0.88421214,0.4668766,0.013970477,0
-0.34563625,3.4720023,5.7400751,-0.051454294,0.51687121,0.85451543,0
2.989821,3.7505329,-4.7549253,0.44268227,0.55531567,-0.70402914,0
5.6041074,3.4106588,-0.3071923,0.85329998,0.51931822,-0.046774115,0
-5.6684027,-3.2358541,0.26444697,-0.86774451,-0.49535906,0.04048273,0
2.6195273,-4.9595633,-3.465466,0.39731491,-0.75223815,-0.52562207,0
0.8249355,-6.1684985,-1.5692049,0.12853065,-0.96109468,-0.24449298,0
-0.91830951,-4.1073451,-4.9800367,-0.14083849,-0.62993169,-0.76377392,0
4.9822917,4.2240319,-1.1914263,0.75038284,0.63618135,-0.17944068,0
-4.6565733,1.3916794,4.5153913,-0.70193142,0.20978162,0.68064964,0
-1.2165141,3.3245745,5.4750366,-0.18658559,0.5099141,0.83974606,0
-0.63429725,1.2818393,-6.5848789,-0.094131693,0.19022894,-0.97721654,0
-3.5376866,4.9817305,-2.2276978,-0.54396665,0.76600772,-0.34253836,0
0.28794304,3.938112,-4.9018507,0.045745727,0.62565082,-0.77876073,0
-0.80233842,-6.475687,1.0097481,-0.12151363,-0.98073858,0.1529257,0
-2.2946534,6.071857,0.18720743,-0.35336697,0.93504041,0.028829157,0
4.9231172,0.13442814,4.5381761,0.73511964,0.020072805,0.67764026,0
3.1615589,-4.5899067,-3.3605924,0.48578307,-0.70525301,-0.51636517,0
0.077959202,4.8032055,4.2032948,0.012213289,0.75248247,0.65849894,0
3.4716349,-3.2223661,-4.4228764,0.53569937,-0.49723533,-0.68248308,0
-4.9531288,-4.2027245,-0.74878281,-0.75748795,-0.64272773,-0.11451226,0
3.055701,-3.6641698,4.5140038,0.46523502,-0.55787528,0.68726379,0
-0.57954419,-6.4052982,-1.7484975,-0.086954601,-0.96104866,-0.26234394,0
-1.4177371,4.8551669,4.2208514,-0.21520869,0.7370013,0.64071393,0
4.8600988,-4.2594776,-1.0926414,0.74152398,-0.64988488,-0.1667085,0
-6.47264,1.7869763,-0.32395443,-0.9628185,0.26581639,-0.048188888,0
-5.9213214,2.6454074,0.66591483,-0.90824997,0.40576944,0.10214226,0
4.2253947,0.22643982,-5.0713201,0.639745,0.034284074,-0.76782215,0
-0.8627826,0.44531983,6.5197425,-0.1308904,0.067558259,0.98909235,0
-1.1000892,4.9427905,-4.2639556,-0.16617985,0.74665964,-0.64411461,0
-1.1892713,1.1538602,-6.2502093,-0.18392311,0.17844671,-0.96660697,0
2.858494,1.589834,5.5760341,0.44217825,0.24593021,0.86255246,0
-2.1748261,-0.43771178,6.224463,-0.32912117,-0.066239879,0.94196159,0
2.1087797,1.4944565,5.853179,0.32957706,0.2335657,0.91478193,0
-5.6345744,-1.5584178,-3.0545475,-0.85423976,-0.23626672,-0.46309015,0
-1.6570064,-4.9161563,3.617779,-0.26198724,-0.77728742,0.57200259,0
-3.9518397,3.3805084,3.95065,-0.6050998,0.51761842,0.60491765,0
-4.2856693,-0.2451493,-5.1130056,-0.64194512,-0.036720611,-0.76587075,0
-0.68610662,-4.3194518,-4.7439799,-0.10633319,-0.66943109,-0.73522466,0
-5.5777879,3.5642552,-0.6100747,-0.83909416,0.53618848,-0.091776542,0
2.8896899,3.0433517,5.0550098,0.43982837,0.46321663,0.76940322,0
-1.40661,1.2652771,-6.1582532,-0.21833886,0.19640069,-0.95590532,0
-2.0302312,-0.36918625,-6.143774,-0.3132562,-0.056963898,-0.94795871,0
3.588798,-3.971905,-3.4647,0.56281704,-0.62289816,-0.54335523,0
0.17498422,-5.0574193,3.9882238,0.027158225,-0.78493094,0.61898768,0
-1.8046809,-4.3041744,4.4442625,-0.28002524,-0.66786182,0.68959874,0
-3.2009139,2.8138092,-5.0747504,-0.48301467,0.42460096,-0.76577467,0
-3.7511404,-4.4579434,-3.3153946,-0.55958408,-0.66502291,-0.49458084,0
-4.8214216,2.7585478,2.9915483,-0.76419818,0.43723148,0.47416219,0
4.4208608,-3.1631553,-3.955806,0.65757823,-0.4705016,-0.58840394,0
3.6194468,5.1931272,-1.6730864,0.5528084,0.79316109,-0.25553524,0
0.29542699,5.5370364,-3.1753843,0.046234399,0.86654758,-0.49694842,0
5.9412823,-0.40527427,-2.6881998,0.90932614,-0.062028106,-0.4114348,0
-4.8879514,4.3640823,0.011543847,-0.74594861,0.66600114,0.0017617026,0
-1.3547202,5.176054,3.7017143,-0.20822272,0.79556799,0.56895953,0
3.8227148,4.1608624,-2.6959574,0.61060661,0.66461933,-0.43062836,0
5.3631063,-1.7020768,3.3494961,0.81901824,-0.25992996,0.51151299,0
3.0172451,-4.2430706,-3.9114645,0.46333164,-0.65157086,-0.600649,0
5.6031199,-1.333665,-2.9792449,0.86407101,-0.20566779,-0.45943674,0
5.4884429,3.7807927,0.47230208,0.82145691,0.56587237,0.070689596,0
2.0292847,5.6502852,2.2842107,0.31591576,0.87962729,0.35560223,0
-5.3923006,3.6454165,-0.0016551572,-0.82844853,0.56006521,-0.00025429082,0
-0.39791131,4.9894681,4.1839266,-0.060994942,0.76482445,0.64134479,0
-5.4812055,-2.8604505,-2.375937,-0.82753807,-0.43186334,-0.35871276,0
-4.9521313,-1.1299424,4.0002751,-0.76593274,-0.17476512,0.61871171,0
-4.1638341,4.668489,2.2665651,-0.62580717,0.70165467,0.34065542,0
-5.5969477,-3.1585467,-0.78193033,-0.86451685,-0.48787609,-0.12077868,0
-0.34911841,-6.2633085,1.9817312,-0.053068679,-0.95207095,0.30123836,0
-1.5023583,0.6265555,6.2568383,-0.23237932,0.096913323,0.96778494,0
1.7141109,-3.8562038,-4.9764099,0.26270667,-0.59100634,-0.76269048,0
-5.1247349,-3.9174297,1.9572264,-0.76024348,-0.58114237,0.29035038,0
-3.3315542,4.5496325,-3.2852533,-0.51048905,0.69713342,-0.50339448,0
3.6274533,-4.1028361,-3.5601053,0.5553422,-0.6281206,-0.54503161,0
-1.3753881,-3.3406494,-5.5055289,-0.20886624,-0.50731051,-0.83606881,0
-0.98903584,0.44298521,6.2733169,-0.15535651,0.069583558,0.98540473,0
6.0743899,0.45973372,-2.0768297,0.94380659,0.071430996,-0.32268682,0
-3.3559313,-5.4233699,0.95001662,-0.52045429,-0.84108275,0.14733323,0
-1.9449905,5.9280038,-1.7536072,-0.30012086,0.91471785,-0.27058953,0
-6.4435506,1.6051613,-0.20718376,-0.96987307,0.24160635,-0.031184973,0
6.4662662,-1.7577813,0.067293927,0.9649325,-0.26230597,0.010041977,0
4.5908384,4.4519715,1.1125051,0.70725846,0.68586481,0.17139105,0
1.0178813,4.9728155,-4.3298531,0.15256524,0.74535102,-0.6489805,0
-1.8758312,6.1615577,-0.89903158,-0.28844681,0.94746351,-0.1382442,0
5.4172845,-0.42951056,3.4070017,0.8446061,-0.066964775,0.5311839,0
3.3188946,5.5610099,-0.25650066,0.51208192,0.85802442,-0.039576232,0
0.79964888,1.9944252,-6.2381945,0.12119754,0.30228198,-0.94548231,0
3.3154159,3.4682939,4.4190025,0.50827086,0.53170788,0.67745656,0
4.9507866,-4.2633271,0.10513869,0.75765938,-0.65245181,0.016090235,0
-2.6279736,-1.0280447,-5.8249402,-0.4060224,-0.1588331,-0.89995432,0
5.7097244,2.8986464,-1.6392967,0.86381775,0.43853295,-0.24800734,0
6.4766541,1.3627558,-0.39051884,0.97687364,0.20554443,-0.058901951,0
3.1175699,-4.3719087,-3.9375262,0.46820208,-0.65658087,-0.59134454,0
4.6979022,-2.0234222,-4.0625038,0.71920139,-0.30976549,-0.62192827,0
-2.5738747,-5.8130198,0.55795735,-0.40331498,-0.91087496,0.087429494,0
-1.1648409,0.68047327,6.4692879,-0.17626543,0.10297021,0.9789421,0
3.7047074,-5.3554387,1.0205808,0.56204772,-0.81248307,0.15483412,0
-0.7053861,-1.2122052,6.4282627,-0.10720999,-0.18424024,0.97701669,0
1.9504402,5.0719748,3.335434,0.30590007,0.79547042,0.52311754,0
-0.2951158,6.6483593,-0.250916,-0.044314113,0.99830693,-0.037677143,0
4.0591798,4.1421738,-2.610074,0.63825607,0.65130585,-0.41040203,0
2.6527331,1.7522669,-5.9023066,0.39568952,0.26137331,-0.88040549,0
1.7188755,4.9926577,-3.5992091,0.26898351,0.78129137,-0.56323326,0
3.0803611,4.9638295,3.2290823,0.46147951,0.74364841,0.48375997,0
5.9754987,-2.5912988,1.4139788,0.89656383,-0.38879848,0.21215338,0
-4.8759313,1.8681622,-3.658874,-0.7647441,0.29300371,-0.57386005,0
-2.3678477,-5.8000827,1.6013316,-0.36618763,-0.89698279,0.24764593,0
-0.2815454,6.4688206,-1.8130159,-0.041871827,0.96205205,-0.26963428,0
2.3899317,3.0356231,-5.1361198,0.37185726,0.47232246,-0.79914558,0
-3.9682143,-2.5070934,-4.6561933,-0.60019571,-0.37919998,-0.70425314,0
-5.7475357,2.8482087,0.20013911,-0.89557952,0.44380713,0.031185623,0
4.1174517,-0.11699343,-4.9443626,0.63981718,-0.018179789,-0.76831216,0
-5.6451063,-2.6679258,-1.5935411,-0.87603265,-0.41402057,-0.24729279,0
-6.3357701,-1.7230735,1.4347293,-0.94270796,-0.25637847,0.21347536,0
3.8494065,-3.5470185,-3.9516654,0.58692706,-0.54082137,-0.60251874,0
3.4696507,4.5005975,3.0750935,0.5369789,0.69653291,0.47591546,0
6.1231284,1.2104921,-2.527266,0.90930247,0.17976162,-0.3753064,0
3.4804823,3.7213073,4.0766292,0.53337491,0.57028067,0.62473285,0
4.7938371,3.455214,2.8389187,0.73123324,0.52704489,0.43303761,0
6.0884938,-2.6467869,-0.36033484,0.91574335,-0.39809147,-0.054196365,0
-2.7669792,-1.4166472,5.9334559,-0.41307876,-0.21148944,0.88579798,0
6.3192563,-0.093478262,1.3609384,0.97748381,-0.014459532,0.21051453,0
-2.2057579,5.1172986,3.4578247,-0.33634102,0.78030211,0.52726018,0
-3.272876,-4.7346311,-2.9517119,-0.50597405,-0.73195583,-0.45632333,0
5.1976056,-1.7476904,-3.5839589,0.79341859,-0.26678634,-0.54709417,0
2.3320749,-6.0862026,1.1588593,0.35228124,-0.91937655,0.17505629,0
3.6969898,-2.8686314,-4.4958038,0.5697189,-0.44206601,-0.69281888,0
3.6231744,2.9511588,-4.55546,0.55518895,0.45221415,-0.69804561,0
5.9165287,2.2807686,-1.6344689,0.90353739,0.34830555,-0.24960646,0
4.4054117,-4.8484936,1.320842,0.6592139,-0.72551543,0.19764723,0
-2.7982912,4.9350042,3.5776594,-0.4172172,0.73579502,0.53341877,0
-3.5169458,2.1160951,-4.8531537,-0.55331916,0.33292407,-0.76354402,0
4.6607113,4.2093143,-2.4057016,0.69302469,0.6259042,-0.35771593,0
-0.72085649,5.2556129,3.5441501,-0.1129901,0.82378703,0.55552512,0
0.68382323,-3.4712627,5.5297127,0.10416706,-0.52877879,0.84234327,0
-2.4602754,1.1989533,6.0055957,-0.37277916,0.18166454,0.90996355,0
-5.6367865,1.6468968,-2.6957099,-0.87234932,0.25487384,-0.4171882,0
-0.84303701,1.692396,-6.3882694,-0.12654035,0.25402963,-0.95888293,0
3.9324756,4.4764371,2.8701353,0.59459877,0.67684692,0.43397066,0
-0.94461405,-3.940064,5.3886757,-0.1401094,-0.58440799,0.7992726,0
-2.4861526,5.830153,-2.5372384,-0.3641597,0.85397279,-0.37164247,0
-4.6158762,-3.6417277,-2.9313054,-0.70260006,-0.55432123,-0.44618514,0
-3.3482618,4.2542753,3.83096,-0.50484997,0.64145839,0.57763106,0
6.2654748,0.65377474,-2.0897925,0.94401079,0.098503374,-0.31486627,0
6.7038312,0.84645408,-0.0150986,0.99212027,0.12526929,-0.0022344873,0
-6.1877503,1.8817488,0.10690717,-0.95660692,0.29091251,0.016527515,0
-6.4013686,0.31235296,-0.95481932,-0.98790824,0.048204701,-0.14735503,0
-3.414104,-5.5312309,-1.472059,-0.51227045,-0.82993555,-0.22087562,0
-6.3072414,-2.0398099,-0.77639878,-0.94501865,-0.30562624,-0.1163284,0
2.6807163,5.1771798,-2.9848621,0.40928715,0.79044294,-0.45572364,0
-6.6923637,0.13147083,-0.46187627,-0.99743539,0.01959452,-0.068838418,0
1.9307774,-6.1710501,-0.71707249,0.29678306,-0.9485625,-0.11022242,0
1.7964073,2.2075505,-5.8420777,0.27643505,0.33970267,-0.89899158,0
-1.048797,2.127614,-6.1415067,-0.15930259,0.32316494,-0.9328382,0
-1.9194587,4.537991,-4.300014,-0.29350823,0.69391316,-0.65752363,0
-2.1663342,-4.1322641,-4.269187,-0.34255078,-0.6534127,-0.67506355,0
-1.4600476,0.20178109,-6.4921098,-0.21931455,0.030309647,-0.97518331,0
-5.8029761,2.9526916,-0.26376748,-0.89052898,0.4531222,-0.04047795,0
