-6.6263003,0.8664583,1.830556,-0.95632905,0.12505005,0.26419175,0
-3.7228608,5.3781638,-1.7800263,-0.54918748,0.79337382,-0.26258522,0
-3.3537192,-3.4467545,-4.8665433,-0.49017787,-0.50377584,-0.71129149,0
-1.6921316,6.1708241,-2.40066,-0.24759959,0.90294009,-0.35127434,0
0.51720577,-6.2064085,2.7658002,0.075898446,-0.91077238,0.40587315,0
-5.320354,3.3805552,-2.3782039,-0.78969538,0.50177276,-0.35299468,0
6.1609068,2.6728439,-1.5517071,0.8938368,0.38778159,-0.22512481,0
-1.824086,-0.5499205,-6.6909838,-0.26219672,-0.079046361,-0.96177161,0
-5.498116,-3.9017851,2.138814,-0.77733546,-0.55164278,0.30239013,0
-2.0027254,-6.3074903,2.6632667,-0.28074515,-0.88419384,0.37334087,0
1.9308616,-5.6415615,3.5349436,0.27854714,-0.81385469,0.5099529,0
-3.7420855,5.8219543,-0.97615474,-0.53539699,0.83297318,-0.13966285,0
-6.5590005,-0.17993395,-2.3795507,-0.93973571,-0.025779897,-0.34092829,0
1.3930807,6.4664741,1.802415,0.20319162,0.94318539,0.26289621,0
-2.2591918,-5.9556532,2.7194846,-0.32619041,-0.8598991,0.39264917,0
-4.5018363,-3.3164008,3.8491845,-0.66317403,-0.48854527,0.56703067,0
-5.6093035,-3.9343479,-0.19117828,-0.81837577,-0.5740062,-0.027892174,0
-1.5663646,-6.0269856,2.5025282,-0.23339432,-0.89804393,0.37288627,0
3.3675771,0.084297515,6.1121869,0.4825297,0.01207873,0.87579632,0
-1.781278,-5.48631,3.497288,-0.26406386,-0.81331277,0.51845211,0
4.0942321,-0.45519891,5.3154254,0.6088208,-0.067689024,0.79041475,0
-6.0969644,1.7388889,-2.2719021,-0.90528542,0.25819254,-0.33733505,0
-5.866569,-3.9310977,0.079419404,-0.83068496,-0.55662924,0.0112455,0
-5.6127295,-3.5318236,-2.094208,-0.8070882,-0.50786221,-0.30113879,0
-1.4827666,5.7878513,3.0396121,-0.22119254,0.86340594,0.45343581,0
-2.8872583,-1.444263,6.260057,-0.40991989,-0.20504993,0.88877457,0
2.5811508,5.9973583,-2.3104475,0.37267813,0.86592549,-0.33359277,0
6.168119,2.070507,-2.939544,0.86393297,0.29000401,-0.41172501,0
0.022050142,2.5172374,6.3067374,0.0032471686,0.37069577,0.92874867,0
3.9100943,-3.1859527,4.5981088,0.57290077,-0.46680069,0.67370754,0
0.43484402,6.2826138,3.3409789,0.060996599,0.88127708,0.468647,0
1.4909353,4.8362603,-4.7111721,0.21563092,0.69945842,-0.68136716,0
-2.4582016,-5.5484452,-3.1684532,-0.35907361,-0.81047058,-0.46282122,0
2.7582819,3.7265825,5.2532644,0.39366961,0.5318681,0.74976039,0
-6.5291553,0.39909941,2.4370637,-0.935332,0.057172853,0.34912077,0
-6.588038,-1.2877983,0.98822355,-0.97096014,-0.18979867,0.14564665,0
-0.51116723,2.8222206,6.065845,-0.076182798,0.42061508,0.90403491,0
1.6279953,-6.2916179,-2.0579181,0.23881824,-0.92294687,-0.30188563,0
-0.46103448,-4.043335,-5.6568384,-0.066159144,-0.58022469,-0.8117649,0
4.5501184,5.0883269,0.54417843,0.6644755,0.74307263,0.079468973,0
2.9231806,-3.3345089,5.1359248,0.43080443,-0.49142405,0.75690812,0
-4.0880623,2.1713243,5.1319871,-0.59151572,0.31417632,0.74256474,0
-3.4629996,4.8266845,3.5935311,-0.49878877,0.69520539,0.51758975,0
6.0379372,3.252182,-0.78102231,0.87475687,0.47116563,-0.11315199,0
-0.90161783,-2.2666547,6.4487095,-0.13077024,-0.32875457,0.93531787,0
-2.2367904,-0.78013223,-6.6943517,-0.31499034,-0.10986014,-0.94271511,0
-4.2796245,-3.4171684,-4.4386029,-0.60709441,-0.48474902,-0.6296466,0
-0.62106138,-2.0949688,-6.4824567,-0.09078753,-0.30624515,-0.9476136,0
3.8522372,1.0904326,-5.524157,0.56464583,0.15983133,-0.80970925,0
2.8342462,-5.8560405,2.1071732,0.4144488,-0.85632253,0.3081297,0
-0.34086359,6.8431082,0.36454225,-0.049679276,0.99735105,0.053130329,0
1.0767474,4.2165265,-5.3624473,0.15591234,0.6105504,-0.77647901,0
-3.4485173,5.3498864,-2.8664048,-0.49400911,0.7663852,-0.41061997,0
6.1520829,1.7200445,2.8693798,0.87851036,0.24562037,0.40974411,0
-5.5082788,2.7457521,3.1544194,-0.79645777,0.39701614,0.45610651,0
2.1507459,-6.2095518,-1.4722861,0.31936806,-0.92206734,-0.21862237,0
-1.3154557,1.3726859,6.8114305,-0.18601441,0.19410716,0.96318275,0
2.8494394,-4.2314148,-4.5188937,0.41811132,-0.62089491,-0.66307801,0
-2.0068758,6.3064923,-2.0416987,-0.28976437,0.910568,-0.29479232,0
-2.241281,5.7013445,3.4397058,-0.31901246,0.81150019,0.48959011,0
-5.5799098,-3.5661054,2.3099093,-0.79560369,-0.50846821,0.32935521,0
-4.8328328,-0.23637323,-4.6766663,-0.71817863,-0.035126027,-0.69497168,0
-1.1584316,-3.9766428,-5.663794,-0.16509613,-0.56673896,-0.8071866,0
3.9243069,3.5820632,-4.2846656,0.57493389,0.52479321,-0.62772852,0
-5.6693749,-1.4620792,-3.5630047,-0.82718784,-0.21332406,-0.51985872,0
1.6426938,-4.0801411,5.4783678,0.23381674,-0.5807566,0.77977657,0
-1.4423975,4.1874113,-5.5454736,-0.20324087,0.59002674,-0.78138441,0
4.0294933,-4.6618323,3.3908248,0.57291716,-0.66282374,0.48211068,0
6.0611095,2.7366142,1.6051654,0.88596559,0.40001687,0.23463053,0
-0.04309909,-0.040053416,-6.9793859,-0.0061749788,-0.0057386127,-0.99996448,0
0.63665694,4.0637097,-5.7043276,0.090528503,0.57783329,-0.81111854,0
-1.2863932,-5.6232495,3.3970425,-0.19215819,-0.83998698,0.50744176,0
-6.5367374,2.2486076,-1.0108719,-0.93566382,0.32186404,-0.14469546,0
-6.62745,0.76090533,0.7037499,-0.98799115,0.11343242,0.10491195,0
1.158586,-6.8057952,-1.6839454,0.16304076,-0.9577381,-0.23697138,0
4.9983172,-1.6985434,4.418117,0.72608876,-0.2467417,0.64180499,0
-6.6081123,0.22702377,2.398885,-0.93948925,0.032276448,0.34105453,0
1.8458142,-6.7545662,0.61105794,0.26260582,-0.96097887,0.086935818,0
-4.923564,-4.6473556,-1.692367,-0.705504,-0.66592574,-0.24250151,0
6.795435,0.96049917,-0.43825144,0.98814541,0.13966918,-0.063727513,0
0.95943356,2.3178899,6.3732162,0.14008045,0.33841953,0.93051046,0
5.5210505,0.95654762,-4.0360737,0.79950708,0.1385183,-0.58446658,0
-4.1677675,-5.4634352,-1.4330952,-0.59374261,-0.77832425,-0.2041596,0
0.66295666,-6.6851745,1.1307952,0.097315148,-0.98131412,0.165989,0
2.1984081,-3.7768362,-5.2511048,0.32179704,-0.55284303,-0.76864249,0
-5.8828511,3.2085824,1.0552874,-0.86722291,0.47299451,0.15556562,0
-1.2858498,5.6468897,-3.458729,-0.19061956,0.83711767,-0.51273596,0
-3.2328515,4.3177381,-4.3958025,-0.46460685,0.62052053,-0.6317395,0
-6.6590452,-1.0445203,-0.11607871,-0.9877739,-0.15493961,-0.017218614,0
-6.0931053,0.15700085,3.2547462,-0.88181907,0.022721805,0.47104016,0
4.5734344,-2.8977151,4.3813415,0.65664458,-0.41604814,0.62906426,0
5.4627662,-3.4986355,2.2267134,0.7964831,-0.51010859,0.32465962,0
0.86959761,1.409971,6.5667243,0.12840222,0.20819214,0.96962309,0
4.436378,3.3891604,4.2537069,0.63208145,0.48287711,0.60605502,0
5.7712116,2.9764297,2.417695,0.83290493,0.42956021,0.3489233,0
-5.6598749,-2.5558796,-2.9741244,-0.82198173,-0.37118953,-0.43193108,0
-2.7004731,6.2807655,-0.92264313,-0.39144757,0.91042954,-0.1337419,0
-3.7782032,-3.4850984,-4.346077,-0.56129676,-0.51775259,-0.64566112,0
-2.7844281,6.3517284,-0.17589642,-0.40136096,0.91556895,-0.025354562,0
1.694448,6.41857,1.465333,0.24924716,0.94414836,0.21554518,0
-4.217555,4.2851849,3.8386643,-0.59123743,0.60071808,0.53812265,0
-4.8511887,0.70577335,4.7793708,-0.708565,0.10308531,0.69807523,0
2.0176978,0.93748862,-6.6550674,0.28753948,0.13360028,-0.94840497,0
0.931261,-0.39245239,6.6671863,0.13810085,-0.058198512,0.98870677,0
1.0484587,4.9171023,4.9270759,0.14894137,0.698511,0.69992781,0
-6.8223605,1.0634785,0.96910632,-0.97847694,0.15252627,0.13899122,0
-2.8713412,4.3793097,4.7416849,-0.40644905,0.61990762,0.6712032,0
4.2370248,-5.503437,-0.58780813,0.60786438,-0.78955013,-0.084329844,0
3.8381729,5.8916969,0.71020013,0.54308182,0.83364499,0.10048968,0
-3.5712497,3.2288053,5.178566,-0.50506836,0.45663777,0.73238504,0
4.6509547,2.592315,-4.3573627,0.6759845,0.37677529,-0.63331294,0
-5.0597191,3.5469959,-2.509654,-0.75865191,0.5318349,-0.37629634,0
-6.2212124,-1.8730148,-2.2061434,-0.90669793,-0.27297872,-0.32152987,0
5.5688539,-2.49527,-2.9231417,0.82302392,-0.3687773,-0.43201268,0
1.4162327,5.4107051,4.2361031,0.20185396,0.7711814,0.60376674,0
-0.49323079,-6.7588577,-1.4515659,-0.071167663,-0.97522718,-0.20944464,0
-3.7279115,-1.9658339,-5.6397533,-0.52949524,-0.27921793,-0.8010444,0
6.1807313,-1.6811681,2.4994845,0.89892447,-0.2445088,0.36352462,0
-5.4640698,-0.1326326,4.3908672,-0.77936268,-0.018917931,0.6262874,0
-4.4971519,3.2491813,-4.4682207,-0.63129783,0.45611116,-0.62723655,0
4.9061661,2.1169751,-4.4353709,0.70649338,0.30484676,-0.63869834,0
-3.8597026,-1.4984658,5.4412355,-0.56450033,-0.21915793,0.7958073,0
-4.8013105,-3.4397159,3.6745248,-0.69023716,-0.49449408,0.52825028,0
7.0320721,-0.059893455,0.65931106,0.99559772,-0.0084796892,0.093344972,0
5.2372069,-4.7484274,0.36301675,0.73985666,-0.67080712,0.051283132,0
1.0434935,6.7008219,-0.37591302,0.15363577,0.98657632,-0.055346478,0
1.3800486,-5.8488965,-3.3813803,0.2001377,-0.84821993,-0.49037525,0
4.5123339,4.3942785,-2.9743245,0.6478169,0.6308682,-0.42701131,0
6.1569462,0.053771727,2.9993136,0.89897501,0.0078512039,0.43792945,0
3.7667582,5.7328129,-1.0505507,0.54279625,0.82610804,-0.15138614,0
-5.2496481,-0.41314644,-4.3211255,-0.77066141,-0.060650926,-0.63435197,0
5.0966077,-3.4085977,-3.5490346,0.71940649,-0.48113716,-0.50096035,0
-5.0931511,-1.4340141,-4.2894745,-0.74773115,-0.21052919,-0.6297425,0
2.6685584,6.1148567,2.6221457,0.37225839,0.85300988,0.3657839,0
4.7013035,-5.0361447,-0.77215713,0.67814231,-0.72644168,-0.11138026,0
4.03195,-4.2748199,3.3696165,0.59522295,-0.63107699,0.49744493,0
-1.6705958,-6.4054985,1.9885217,-0.24169555,-0.9267236,0.28769189,0
4.3086696,-1.1958991,5.469758,0.60986835,-0.1692729,0.77421397,0
3.2194681,3.734719,-4.9352384,0.46148214,0.53533876,-0.70742255,0
-3.5864279,-6.1184888,0.5587213,-0.50412893,-0.86004996,0.078537077,0
4.6620212,4.5927463,2.3125305,0.67167765,0.66169691,0.33317631,0
5.4156661,2.0849738,3.5983319,0.79313034,0.30534673,0.52697974,0
-1.5305973,2.9904964,-6.0674295,-0.22069408,0.43119431,-0.87485176,0
5.9803162,-2.2741153,2.7863362,0.85696304,-0.32587454,0.39927441,0
-3.0581834,6.0139847,-1.5221217,-0.44216052,0.86951834,-0.22007251,0
3.5414855,6.0141735,-0.59743249,0.50556898,0.8585605,-0.085287191,0
6.3253894,2.0826468,1.663013,0.92154002,0.30341884,0.24228279,0
5.7419176,-3.5812926,1.0984244,0.83752859,-0.52237517,0.16021858,0
-1.1287494,-4.4435267,-5.3738465,-0.15979357,-0.62905633,-0.76075888,0
6.0179882,-1.4477031,2.7165534,0.89029253,-0.21417111,0.40188301,0
2.3042397,-1.2615702,6.496532,0.3288216,-0.18002968,0.92707372,0
3.3945899,5.3998599,-2.4757142,0.496151,0.78923994,-0.36184874,0
-0.23522697,5.2544971,-4.3646359,-0.034415841,0.76878059,-0.63858587,0
-4.6194944,4.6868558,-1.8801407,-0.67496324,0.68480551,-0.27471095,0
-4.6834378,3.2085125,-4.0935197,-0.6691578,0.45842421,-0.58487177,0
6.9613857,-0.85031605,0.4001458,0.99101061,-0.12104949,0.056964051,0
6.1800141,2.6808772,-1.2089744,0.90297353,0.39170805,-0.17664553,0
-7.0598993,-0.16147487,-0.065574028,-0.99969542,-0.022865154,-0.009285409,0
5.4947124,-2.2495105,3.8181796,0.77838892,-0.31866893,0.54088885,0
1.4856588,-5.1899781,-4.4278255,0.21278332,-0.74333405,-0.63417482,0
-4.4925094,4.9206686,0.89347786,-0.6682654,0.73195451,0.13290575,0
4.2088008,3.2809916,4.4339008,0.60661423,0.47288916,0.63905787,0
5.4121199,-4.1168408,1.8689747,0.76744509,-0.58377296,0.26502284,0
5.9418616,0.56384015,3.2014942,0.87728965,0.083248511,0.4726865,0
0.99709451,-6.9590983,-0.40863636,0.14159185,-0.9882229,-0.05802818,0
-3.5702767,-5.9790597,1.0137142,-0.5073359,-0.84962362,0.14404866,0
-2.8080142,5.9226022,2.7276738,-0.39552492,0.83423251,0.38420853,0
-0.64899695,4.7801661,5.0779181,-0.092660502,0.68248796,0.72499943,0
3.2738504,4.7481923,3.8013914,0.47395369,0.68739343,0.55032551,0
1.4112903,3.5742304,5.7781897,0.2033755,0.51506829,0.83267218,0
5.2056079,-4.8543315,0.060600154,0.73132551,-0.68197542,0.008513595,0
-3.7246952,-3.392566,4.9528003,-0.52720988,-0.48019883,0.70104128,0
2.2721338,3.9026322,-5.4585538,0.32072285,0.55087566,-0.77050167,0
1.2163402,-5.5599108,-3.784461,0.1779633,-0.81347311,-0.55370623,0
-5.6986899,-3.6552789,-1.3602544,-0.82523501,-0.5293259,-0.19698028,0
5.097858,3.0093288,3.7682657,0.72645861,0.42883754,0.53698814,0
-6.1111894,-1.9859788,-2.6003873,-0.88158983,-0.28649396,-0.37512749,0
-3.0190709,-5.118186,3.4560127,-0.4391886,-0.74454993,0.50275117,0
1.2313658,-3.6807194,-5.8481832,0.17543529,-0.52439988,-0.83320302,0
3.9429514,-5.5397716,-0.22214457,0.57956207,-0.81427366,-0.032652333,0
-6.9783993,-0.54343367,-1.1322057,-0.98418921,-0.076642439,-0.15967913,0
2.4733303,3.7803788,5.0467472,0.36515605,0.55812532,0.74508864,0
-3.438302,1.6854401,5.7685657,-0.4965919,0.2434271,0.83315045,0
0.51238859,-5.5532584,4.0316992,0.074458241,-0.80697709,0.58587027,0
-0.28484938,5.8395977,-3.7978075,-0.040857624,0.83760786,-0.54474187,0
4.3835573,4.0240302,-3.2513735,0.64646208,0.59344107,-0.47949404,0
-4.463809,2.9820356,-4.5510173,-0.63426673,0.42372018,-0.64665824,0
4.736732,4.6181312,1.8811928,0.6887095,0.67146522,0.27352095,0
-3.6546693,-4.9108529,3.110935,-0.53223401,-0.7151736,0.4530493,0
5.4142442,-4.1040258,0.62171346,0.79361135,-0.60156161,0.09112978,0
-3.5501587,3.6587925,4.2321711,-0.53580564,0.55220115,0.63873798,0
-4.3459988,2.6436238,4.6147027,-0.63277274,0.3849088,0.67189574,0
-4.7094812,-3.962208,-2.9983563,-0.68791181,-0.57875794,-0.43796858,0
5.0490985,-4.2675977,2.5356736,0.71308529,-0.60271376,0.35811374,0
-6.1650925,0.65657097,-3.2178669,-0.88258362,0.09399353,-0.46066406,0
-4.4786086,3.6392109,-3.4933352,-0.66391534,0.53948182,-0.51785702,0
1.0439844,-6.7553892,1.3625189,0.14978141,-0.96920198,0.19548185,0
3.6669116,5.2506948,-2.329771,0.53806686,0.77046442,-0.34186059,0
-2.7523916,-0.08138527,-6.1820836,-0.40670112,-0.012025717,-0.91348207,0
4.1655984,-4.1552968,-3.638514,0.60214692,-0.60065776,-0.52595562,0
3.8795073,-4.3764763,-3.8847892,0.55255055,-0.62333286,-0.55330282,0
0.031384684,6.2603359,2.6116192,0.0046267482,0.92290229,0.3850064,0
3.5090306,-4.9900823,3.3562799,0.50397742,-0.71669048,0.48203892,0
0.23670554,-1.2517014,6.6516972,0.034950562,-0.18481894,0.98215091,0
5.5557733,-3.3888643,-2.4667473,0.79829061,-0.48693463,-0.35443872,0
6.8594704,-0.70391572,-0.14388645,0.99455935,-0.10206123,-0.020862196,0
-1.2028048,6.0013251,-3.0014498,-0.17644224,0.88034832,-0.44028965,0
2.0360022,-2.3417039,6.3245716,0.28900814,-0.33240214,0.89776558,0
3.1184804,6.1480083,0.065590635,0.45234707,0.89179122,0.0095141632,0
4.634819,2.8286283,-4.3182197,0.66807646,0.40772682,-0.62244087,0
0.3246381,-1.6605824,-6.7790318,0.046463147,-0.23766738,-0.97023469,0
2.8366096,2.0219643,5.8512292,0.41655621,0.29692554,0.85925323,0
4.3436699,0.92998171,5.2396917,0.63233465,0.13538314,0.76277405,0
6.6424847,0.89721549,-0.89727408,0.98223895,0.13267325,-0.13268191,0
3.8921461,1.2241843,5.8830838,0.54363561,0.17098796,0.82171988,0
-6.1756864,2.7846422,0.99844801,-0.90187019,0.40665695,0.14580898,0
2.5019755,-6.0597386,-1.9123927,0.366366,-0.88733166,-0.28003296,0
1.5673381,-0.46970117,6.7178597,0.22668241,-0.067932375,0.97159678,0
5.888968,-3.5753934,-0.81507427,0.84887064,-0.51537836,-0.11748962,0
-5.4094367,-4.2778549,0.21731901,-0.78398228,-0.61998367,0.031495746,0
-0.72229111,1.8097105,-6.7395887,-0.10295483,0.25795475,-0.96065581,0
-5.6422548,-2.6731863,2.6443915,-0.83214235,-0.39425224,0.39000547,0
0.83951145,4.2790918,-5.3739452,0.12130617,0.6183123,-0.77651441,0
-3.2956181,4.7487245,3.6489975,-0.48211926,0.69469565,0.5338155,0
-4.8765101,-0.60592657,4.7520285,-0.71336967,-0.088639133,0.69515961,0
2.752569,5.0656834,3.6097872,0.40466553,0.74472523,0.53068841,0
4.041563,5.1075025,1.9309647,0.59493035,0.75183988,0.28424388,0
-3.5526552,2.0076029,5.676065,-0.50819916,0.28718296,0.811948,0
-0.97661424,6.2165947,-2.6635063,-0.1429197,0.90974903,-0.38978291,0
2.2928433,-6.1801028,2.1359727,0.33089799,-0.89189857,0.3082588,0
-2.4475434,-1.3558569,-6.2629795,-0.35680702,-0.19765911,-0.91302776,0
-4.3507056,2.7672448,4.448174,-0.63889468,0.40636581,0.65320778,0
4.878355,-4.5852818,1.7161012,0.70583653,-0.66343254,0.24829823,0
-4.2006416,5.5125575,-0.68920302,-0.60312301,0.79148626,-0.098954931,0
-3.5157104,-5.7920737,-1.8800871,-0.49998894,-0.82372338,-0.26737776,0
-3.7465334,-1.1984727,5.7443886,-0.53813261,-0.1721424,0.8250941,0
-0.52828115,5.8038669,-3.985157,-0.074825987,0.82206237,-0.56445944,0
-4.896256,4.3627625,-2.5514684,-0.695804,0.61998951,-0.36258763,0
1.7047157,6.0740166,-2.8579388,0.24613774,0.87700528,-0.41264743,0
-4.7040133,3.6020663,-3.7488098,-0.67093343,0.51376271,-0.5346927,0
-3.296545,-3.1612222,5.3033524,-0.47100189,-0.45166734,0.75772941,0
-4.0563173,2.856595,4.7744203,-0.58911735,0.41487625,0.69341069,0
-5.2358432,0.95109868,-4.7110634,-0.73669219,0.13382123,-0.66285479,0
-4.1842213,-5.6641021,0.20235837,-0.59393567,-0.8039996,0.028724067,0
-1.9226643,6.0579557,2.9407806,-0.27454406,0.86503696,0.4199245,0
5.6976027,-1.4754509,-3.7650774,0.81548047,-0.21117678,-0.53888404,0
-1.2542838,-6.4192171,-2.3800831,-0.18020804,-0.92227495,-0.3419562,0
4.2285547,3.3999431,-4.1394138,0.6196056,0.49819005,-0.6065439,0
-2.9289029,-5.3237386,-3.2008612,-0.42647114,-0.7751779,-0.46607038,0
-3.4994817,3.0875256,5.2812185,-0.49654046,0.43808812,0.74935061,0
2.3222013,-3.2219479,-5.4896579,0.34272566,-0.47551617,-0.81019968,0
3.5963244,-4.3173819,-3.9970572,0.52153623,-0.62610346,-0.57965022,0
-5.2425375,3.8032603,-2.4599524,-0.75669229,0.54895133,-0.35506222,0
-1.3215091,4.7620502,-4.8366189,-0.19110927,0.6886611,-0.69944483,0
-2.3146906,-0.96562642,6.25916,-0.3432759,-0.14320543,0.92825311,0
-3.4162726,5.9671726,1.6238739,-0.48354495,0.8446036,0.22984582,0
-5.4603739,-1.062268,4.0262589,-0.79516846,-0.15469308,0.58632511,0
-6.0078259,-1.630602,2.44315,-0.89837492,-0.24383064,0.36533427,0
1.6778339,6.7540889,0.27530879,0.24090146,0.96974432,0.039528519,0
-4.8705258,-0.2066485,-4.890245,-0.70536077,-0.02992731,-0.70821649,0
-4.0702457,-5.3717504,-1.7749813,-0.58401293,-0.77075732,-0.25468045,0
4.8488102,-3.8512826,-3.1444132,0.69818985,-0.55455387,-0.45277035,0
-0.42532042,-4.1050577,-5.3841372,-0.06269554,-0.60511744,-0.79366374,0
6.5851564,0.22216445,-1.3479024,0.9791528,0.033033833,-0.20042081,0
-5.0327349,-3.0694335,3.121387,-0.75449908,-0.46016425,0.46795306,0
-2.3889859,-1.8706028,-6.1797986,-0.34700942,-0.27171227,-0.89763963,0
-3.203229,-5.1197724,3.3485012,-0.46386987,-0.74141067,0.48490721,0
4.0826087,-5.2471938,-0.572689,0.61181158,-0.78633398,-0.085822031,0
0.20662303,-2.3114319,6.5257406,0.029832572,-0.33372834,0.94219714,0
-4.8640847,3.7356403,3.0864527,-0.70844144,0.5440864,0.44953391,0
-2.2508488,-5.4318352,3.443702,-0.33032838,-0.79716116,0.50538826,0
-3.4175813,-2.6436145,5.2873263,-0.5005095,-0.38716099,0.77433622,0
-4.4047899,-4.9873562,-2.2724833,-0.62644887,-0.70930141,-0.32319239,0
1.2225173,-6.547019,-1.5002639,0.17906927,-0.95898026,-0.21975245,0
-0.082347661,0.05161066,-6.9718857,-0.011810243,0.0074019642,-0.9999029,0
-3.242409,4.495553,-4.3494029,-0.4602032,0.63806504,-0.61732161,0
-0.5235855,-6.6892905,2.3712871,-0.073574051,-0.93997681,0.33321244,0
6.6045275,-1.5834373,1.5228599,0.94888169,-0.22749466,0.21879141,0
5.4756351,-1.6697783,4.2281227,0.76940387,-0.23462738,0.59411079,0
-4.2522483,1.5319014,5.3236928,-0.60889447,0.21935837,0.76231843,0
0.74790561,-6.5315604,1.6154857,0.11047646,-0.96480584,0.23863058,0
-6.3128929,-2.5598323,0.36047122,-0.92541635,-0.37524962,0.05284201,0
-0.21047579,-3.52566,-5.7283759,-0.031275652,-0.5238955,-0.85120815,0
-4.5628042,4.0809164,2.8908753,-0.67399377,0.60281175,0.42702508,0
-3.4496512,2.4623063,-5.6080966,-0.49073958,0.3502821,-0.79779512,0
-3.4487512,5.9593148,-0.038481049,-0.50087851,0.86549962,-0.0055887853,0
-4.4753265,-2.1275826,4.571918,-0.66377598,-0.31556094,0.67810231,0
-0.91840166,5.7608466,-3.4095263,-0.13592058,0.85258734,-0.50459927,0
-5.6732101,4.0374451,-0.49183667,-0.81271589,0.57838434,-0.070458077,0
3.8697429,2.369705,-5.1933479,0.5611195,0.34361139,-0.75304455,0
6.6863499,-0.76718146,0.6216225,0.9892711,-0.11350744,0.091971435,0
-1.3284004,6.3298898,2.5006807,-0.19156744,0.91282773,0.36062092,0
-0.36980653,-2.9710407,6.3144622,-0.052917987,-0.42514527,0.90357685,0
4.3134127,-1.3608086,-5.2020526,0.62573266,-0.19740807,-0.75464475,0
-6.8478684,0.40671286,1.1373703,-0.984797,0.058489677,0.16356607,0
-5.7202654,-3.6296303,-0.087390959,-0.84429514,-0.53572327,-0.01289866,0
-5.8411551,3.8141849,-0.21430981,-0.83690506,0.5464862,-0.030705735,0
2.5327415,5.9685216,-2.002573,0.37323636,0.87954855,-0.29510829,0
-2.4550064,-4.2179089,4.9312649,-0.35385171,-0.60794723,0.71076661,0
-6.1657958,-1.9526907,2.7650554,-0.87658435,-0.27761188,0.39310488,0
0.80566978,2.2957089,-6.5668378,0.11504552,0.32781547,-0.93771082,0
-4.1375785,3.728668,4.0845046,-0.5990473,0.53984433,0.59136313,0
-1.1178687,2.1724546,-6.2959518,-0.16552718,0.32168385,-0.93226624,0
1.6137793,6.5859013,1.6832598,0.23098405,0.94265556,0.24092895,0
0.19977784,0.63251776,6.8209577,0.029151309,0.092296124,0.99530476,0
-3.1966786,-5.2164083,-3.1948063,-0.46315807,-0.75579125,-0.46288681,0
6.5630102,1.4128169,0.50058204,0.97489846,0.20986605,0.074358664,0
1.8380647,-6.482059,1.6064699,0.26536727,-0.93583554,0.23193118,0
-6.6266408,-1.7960087,-1.2287451,-0.95008332,-0.25749969,-0.17616923,0
-3.190181,-6.0088024,0.47383264,-0.46779323,-0.88110268,0.069480605,0
-5.5141754,2.9505334,-2.8484867,-0.80240124,0.42935008,-0.41450065,0
-2.1916804,-1.7455581,-6.5478377,-0.30772859,-0.24508964,-0.91936624,0
2.6312563,5.9851241,1.6176894,0.39067569,0.88864106,0.24018638,0
-3.2112746,-5.8263297,-1.2878501,-0.47390455,-0.85982186,-0.19005476,0
-3.4371648,5.8213243,0.97331899,-0.50324321,0.85231352,0.14250587,0
6.1229172,-1.7309842,2.9899166,0.87092459,-0.24621543,0.42528614,0
2.0370347,3.3195345,5.5947828,0.29882035,0.48695511,0.8207199,0
-1.168624,-2.3272731,6.5719962,-0.16531301,-0.32921496,0.92967153,0
4.5015564,-3.0347719,3.914073,0.67259508,-0.45343709,0.58481687,0
-1.4756513,4.0343914,5.3885331,-0.21413219,0.58543175,0.78193164,0
-3.3684864,-0.021831049,6.1203251,-0.48216999,-0.0031249276,0.87607211,0
-3.1916869,-6.0095119,0.86167097,-0.46533972,-0.87617135,0.12562941,0
6.4063749,0.81601018,-2.2536283,0.93659699,0.11929877,-0.32947516,0
-1.7414116,3.851223,-5.4774723,-0.25169972,0.55664712,-0.79170156,0
-1.3228637,-6.7037525,-0.82382363,-0.19220656,-0.97402722,-0.11969813,0
5.4033561,-4.5616579,0.62524575,0.76114243,-0.64257687,0.088075094,0
-1.1546642,-5.1096988,4.7496676,-0.16329154,-0.72260886,0.67169362,0
4.4334989,3.2546673,4.222784,0.63938338,0.46937647,0.60899484,0
-5.3748116,-4.5496221,-0.71916091,-0.7593174,-0.64274013,-0.10159823,0
5.6432099,-1.5252413,-4.1220803,0.7889421,-0.2132345,-0.57628244,0
3.0216417,-6.3895869,-0.67284614,0.42558393,-0.89994305,-0.094767191,0
3.3230555,-1.4768218,-5.9331298,0.47752872,-0.2122218,-0.85260081,0
-5.9984136,-2.2001467,-2.4895377,-0.87477797,-0.32085812,-0.36306143,0
-1.7804747,-5.9100962,3.1921039,-0.2562196,-0.85049373,0.45936042,0
2.8409657,-4.8993249,4.0580087,0.4077628,-0.70319831,0.58244449,0
6.5255136,1.5088431,1.146227,0.96033275,0.22205016,0.16868547,0
2.4855638,2.195138,-6.0496807,0.36028227,0.31818509,-0.87690073,0
-6.2428098,-1.9109241,2.4817135,-0.89380944,-0.27359506,0.35531741,0
3.6690495,-0.35846364,5.7088537,0.53990817,-0.052748661,0.84006953,0
2.6605473,0.61523652,-6.4989605,0.3774167,0.087275483,-0.92192173,0
-4.4228301,4.7006536,2.5462778,-0.63744432,0.67748588,0.36698455,0
-6.7434368,1.2109703,1.5531677,-0.95989949,0.17237645,0.2210868,0
-4.5224423,5.0736446,0.65164125,-0.6623562,0.74308521,0.09543927,0
5.4199524,-4.292078,-0.76199126,0.77923685,-0.61708021,-0.10955293,0
6.5028048,1.9722934,-0.63410926,0.95281357,0.28898728,-0.092911892,0
4.659317,0.40568927,-5.0100689,0.67981488,0.059191853,-0.73099113,0
-1.7287575,-5.0703845,-4.0664163,-0.25704294,-0.75389791,-0.60462135,0
-2.433461,3.693013,5.2241635,-0.35551712,0.53953171,0.7632255,0
0.42231748,-6.7769752,-0.29532355,0.062137127,-0.99712133,-0.043452043,0
-3.9922624,-5.5277648,1.1755488,-0.57697761,-0.79889452,0.16989498,0
-4.8904753,4.2371273,2.7134194,-0.69698668,0.60387206,0.3867144,0
-4.3223562,-3.6020164,-3.8899481,-0.63190061,-0.52659154,-0.56868529,0
1.9440051,-6.127933,1.9352556,0.28955096,-0.91272855,0.28824776,0
-3.1211712,-3.3098824,-5.0515218,-0.45912039,-0.48687956,-0.74307251,0
4.9351306,4.3670158,-2.3357809,0.70586759,0.6246106,-0.33408478,0
0.12029801,2.5286505,6.5272861,0.017182974,0.36118418,0.93233621,0
-5.5488124,0.30410361,-3.7982106,-0.82434994,0.045178641,-0.56427479,0
-2.4479744,4.9793363,4.2010059,-0.3517451,0.71547198,0.60363507,0
0.014212976,6.5075321,-2.2256544,0.0020665533,0.94618899,-0.32360804,0
-6.3134089,-0.93070525,-2.4623976,-0.92298198,-0.13606344,-0.35998753,0
4.2270265,2.9655662,-4.9179244,0.59278429,0.41588122,-0.68967354,0
-1.0956284,0.72555882,-6.6086273,-0.16260412,0.10768145,-0.98079795,0
-6.4353251,-2.2387228,1.074311,-0.93295532,-0.32455677,0.15574725,0
-4.844698,4.5649476,1.8664982,-0.7007798,0.66031426,0.26998675,0
4.686367,3.3731112,-4.1248822,0.66041493,0.47534752,-0.58128905,0
-1.8185554,5.8983474,2.7414942,-0.26926515,0.87334126,0.40592048,0
4.3267064,3.8854918,-3.4336748,0.6406768,0.57534403,-0.50844121,0
3.909281,-3.9852517,4.2521949,0.55707288,-0.56789869,0.60593808,0
2.4761102,1.7987535,6.0568542,0.36487588,0.26506162,0.89252895,0
4.9662814,-2.4020376,-4.5214176,0.6962589,-0.33675903,-0.63389027,0
-6.9193072,0.083528891,-1.0863998,-0.987827,0.011924907,-0.15509863,0
-3.4733696,-5.3031507,2.7612004,-0.50232279,-0.76694787,0.39932802,0
4.1360412,2.7149642,4.4757071,0.61995041,0.40694544,0.67086285,0
-0.26131883,5.2304325,4.7430544,-0.03698482,0.74027044,0.67129111,0
-2.4595249,-6.0214496,-2.2933741,-0.35661516,-0.87307113,-0.33252436,0
4.6542559,-4.7423072,0.93518519,0.69361401,-0.70673609,0.1393687,0
3.5766611,0.30769125,-6.0708427,0.50712472,0.043626677,-0.86076778,0
-1.5012797,-3.4843063,5.4564857,-0.22589694,-0.52428216,0.82103515,0
4.4552875,-0.68381858,-5.0231462,0.66013902,-0.10132126,-0.74427855,0
3.7794642,1.1361697,5.7362447,0.54281288,0.16317855,0.8238489,0
2.6160109,5.8298683,-2.3370354,0.38448882,0.85684627,-0.34348634,0
3.3981857,-6.1677895,-0.49328381,0.48138243,-0.87372077,-0.069877923,0
2.3648913,5.9153776,2.5618343,0.34441519,0.86149669,0.37309736,0
0.68354106,-2.1464806,6.5706687,0.098406464,-0.30901957,0.94595087,0
-3.2520952,-1.1021197,6.1845531,-0.4597342,-0.15580174,0.87428272,0
2.9521909,4.8731008,-3.7873316,0.43151087,0.71228319,-0.55358028,0
4.4089255,0.39138022,-5.2168202,0.64443231,0.05720624,-0.76251853,0
4.2453041,1.2943654,-5.270844,0.61610454,0.18784624,-0.76493722,0
6.1596575,-0.27127323,-3.4318883,0.87291747,-0.038443554,-0.48635095,0
-1.296223,-0.77820718,-6.7045798,-0.18859826,-0.11322783,-0.97550505,0
4.039566,3.6569953,4.1759591,0.58841592,0.53268945,0.60828334,0
-1.9744844,2.880193,-6.141223,-0.27948949,0.40769312,-0.86929393,0
-6.5921717,-0.19300537,-1.8617693,-0.96197486,-0.028164666,-0.27168214,0
2.4354644,6.2942877,-0.084725603,0.36083242,0.9325462,-0.012552737,0
1.9095807,-4.1206031,-5.1715002,0.27745017,-0.59869796,-0.75138676,0
-0.48726842,4.0189505,-5.4554234,-0.071726151,0.59159148,-0.80304098,0
-2.4223623,2.7042842,-5.7934074,-0.35430196,0.39553669,-0.84736109,0
6.488009,2.0622716,-0.31611007,0.95198894,0.30259818,-0.046382997,0
5.3818116,2.9933195,3.2317209,0.77383786,0.43040228,0.46468145,0
-6.4850459,-1.8478779,2.0024705,-0.92192721,-0.26269802,0.28467524,0
4.6769676,5.1065106,0.78145409,0.67115045,0.73279035,0.1121396,0
4.3180699,4.1583347,3.31358,0.63041019,0.60708988,0.48376119,0
-4.6449833,4.1520896,-2.7298176,-0.68288183,0.61041915,-0.40132391,0
5.0092978,0.55326813,-5.0525317,0.70194286,0.07752835,-0.70800114,0
2.0089076,-6.4673572,-1.3162979,0.29119173,-0.93744522,-0.19079775,0
5.4717774,1.6635221,-4.256906,0.76749057,0.23333141,-0.59708846,0
-1.9624245,6.7559443,0.41691869,-0.27845556,0.9586255,0.059158109,0
-4.6847477,-3.8288882,-3.5335104,-0.66861588,-0.54646599,-0.50430912,0
6.8738222,1.2472923,0.70220196,0.97899961,0.17764479,0.10001066,0
4.8304429,4.5523682,1.9513437,0.69819707,0.65800387,0.28204918,0
-0.44251713,1.5561035,-6.9002447,-0.062437523,0.21956041,-0.9735989,0
-2.3333685,-4.9827762,-3.94818,-0.34455818,-0.73578447,-0.58301026,0
-3.636626,4.9381127,3.1926603,-0.52598172,0.71422166,0.46176898,0
6.791791,1.6548829,1.425228,0.95199031,0.23196127,0.19977105,0
5.7591515,1.6302804,-3.2250247,0.84705842,0.23978232,-0.47433797,0
-3.1570592,6.0598435,-0.53277099,-0.46063885,0.88417703,-0.07773532,0
-3.0518794,-3.7340455,-4.8894982,-0.44438651,-0.54371727,-0.71196359,0
3.1105552,-5.2792349,3.3292193,0.44605425,-0.75704336,0.47741073,0
-6.0631495,0.94474089,-2.972249,-0.88925254,0.13856053,-0.43592528,0
2.6588721,-1.4049525,6.2991128,0.38091975,-0.20127864,0.90243393,0
0.91528392,0.77221882,6.5695796,0.13706303,0.11563915,0.98378927,0
6.139339,-1.5586795,3.0553663,0.87299371,-0.22163907,0.43446299,0
5.0970588,2.1159587,4.1720915,0.73674434,0.30584708,0.60304677,0
-6.1273813,1.0459844,-3.2078574,-0.87597293,0.14953436,-0.45859659,0
5.0746269,0.8513636,-4.428443,0.74750018,0.12540714,-0.65231633,0
0.38241425,5.5934381,-3.8570795,0.056194961,0.82194382,-0.56678963,0
1.8115153,5.5470529,3.8334994,0.25945833,0.79448903,0.54906148,0
-0.61038095,-6.7862315,0.6421181,-0.08918722,-0.99158585,0.093824565,0
0.60894996,5.554749,-3.9149394,0.089250088,0.81412578,-0.57378882,0
-0.64477462,3.0713813,6.0795088,-0.09424118,0.44891751,0.88858974,0
-0.90722668,4.4961715,5.2724299,-0.12981974,0.64338034,0.75445914,0
5.8209314,-3.4958689,1.3546374,0.8407101,-0.50490415,0.19564864,0
-0.70021445,5.5547023,3.7806458,-0.1036493,0.82223523,0.55963039,0
4.1804318,0.45778325,5.6165371,0.59580141,0.065243959,0.80047727,0
-3.3321543,4.1494074,-4.2652249,-0.48858264,0.60841376,-0.62539572,0
-4.1196885,4.1400638,3.8650181,-0.58822495,0.59113419,0.55186212,0
2.7448802,-3.3225212,-5.175921,0.40753913,-0.49330291,-0.76848173,0
-0.53829944,-0.73714882,-6.9377813,-0.076926641,-0.10534357,-0.99145597,0
4.7819219,3.2062933,3.9294958,0.68602169,0.45997965,0.56373137,0
4.9111609,1.8235395,4.5023303,0.71097314,0.26398799,0.651788,0
2.1248183,-4.3763676,4.9145913,0.30726567,-0.63285768,0.71068913,0
5.1254802,-1.4345614,-4.4370255,0.73967826,-0.20702721,-0.64032471,0
1.9419081,4.0567403,4.9675379,0.28978997,0.6053853,0.74130321,0
3.8699732,5.5629034,0.17617413,0.57088429,0.82061917,0.025988564,0
5.8477001,0.65432775,3.3493502,0.86368197,0.096641593,0.49468565,0
-0.7828986,3.3931797,-5.7469401,-0.11650855,0.5049625,-0.85524189,0
0.43875507,-5.1087737,-4.406179,0.064898282,-0.75566226,-0.65173823,0
-1.9322802,-1.547452,6.4843168,-0.27839452,-0.22295015,0.93423212,0
1.982378,1.158465,-6.7523236,0.27795455,0.16243151,-0.94676149,0
-2.9512074,6.0107188,-1.3556336,-0.43196881,0.87979013,-0.19842437,0
5.078671,1.7794653,4.3067265,0.73683447,0.25817215,0.62483758,0
7.0334578,-0.054190315,-0.76030105,0.99417901,-0.007659799,-0.10746852,0
1.6142113,-4.4654784,4.9970779,0.2341726,-0.64780408,0.72492284,0
0.77861238,2.7716825,6.2553372,0.11307094,0.40250677,0.90840697,0
-4.1861806,4.0012231,-3.1843641,-0.63344097,0.60545373,-0.48184893,0
-0.23165339,-6.6886101,-1.5370786,-0.033734977,-0.97404188,-0.22384007,0
6.1770301,-1.7392615,3.0074708,0.87159973,-0.24541566,0.42436427,0
0.13100381,-0.43768516,6.6927772,0.019528463,-0.065244809,0.99767822,0
-5.5206742,2.3582642,3.2267101,-0.8100186,0.34601533,0.47343767,0
-6.2824841,-2.1542087,2.205579,-0.89772856,-0.30782324,0.31516376,0
-4.9771404,1.819688,4.6066837,-0.70881945,0.25915086,0.65606087,0
-2.6694741,-0.17212519,-6.4115024,-0.38425383,-0.024776326,-0.92289495,0
-0.3341963,4.1415925,-5.5808897,-0.048031978,0.5952456,-0.80210698,0
-2.3837996,6.0973682,1.8298241,-0.35067764,0.89697587,0.26918304,0
-6.4458003,1.5413505,1.2117459,-0.95672059,0.22877559,0.17985389,0
6.1808095,-2.4574268,-0.94806778,0.91994888,-0.36576229,-0.14110997,0
3.7127845,2.9900315,5.1381874,0.52971703,0.42659912,0.73308468,0
2.3473849,-6.4714651,1.566359,0.33249092,-0.91663849,0.22186399,0
1.0741245,5.7175708,-3.6130033,0.15684718,0.83489847,-0.52758259,0
-4.0936689,-1.1183755,5.5384049,-0.58671188,-0.16028756,0.79377395,0
-3.6137571,-2.00982,-5.5635371,-0.521321,-0.28993684,-0.80259645,0
-5.8207097,3.243341,2.4232297,-0.820943,0.45743531,0.34176821,0
2.3070297,-6.2197218,-1.7761611,0.33593616,-0.9056794,-0.25863415,0
-4.2112198,-5.1723418,0.7533381,-0.62738824,-0.77057636,0.11223244,0
-2.594975,5.9382534,2.8276987,-0.36701193,0.83985776,0.39992645,0
1.4488487,-6.3548832,2.2680905,0.20993854,-0.92082417,0.32864687,0
-3.4700863,-5.9392805,-1.2174666,-0.49674764,-0.85021621,-0.17428203,0
0.64627546,-0.032703698,6.8859587,0.093442403,-0.0047284979,0.99561346,0
0.88751966,-5.7255783,3.440196,0.13171241,-0.8497048,0.51054251,0
-6.6193061,-0.76068807,-0.76746017,-0.98693591,-0.11341829,-0.11442801,0
1.5637544,6.1408911,2.3458953,0.23142213,0.90879875,0.3471722,0
-0.76861644,-6.7099886,-1.2237803,-0.11198047,-0.97758466,-0.17829372,0
5.8157425,-1.7625591,-3.3564627,0.83772749,-0.25388747,-0.48348099,0
6.480113,2.6078625,-0.22651416,0.92720646,0.37314579,-0.032410759,0
-2.3876033,4.6875892,-4.2559705,-0.35284913,0.69274986,-0.62896359,0
4.2358184,-5.6419883,-0.41209736,0.59937084,-0.79834473,-0.058312025,0
-4.4711747,-2.4545605,-4.6090417,-0.65039462,-0.35705,-0.67044926,0
-3.167064,-5.8504996,-1.7649903,-0.46013746,-0.85000938,-0.2564325,0
-0.66005218,-2.9552937,-5.9468088,-0.09890826,-0.44284827,-0.89112431,0
6.1467447,-0.95235682,-2.6341062,0.90997529,-0.14098863,-0.38995788,0
-2.0611236,4.0174408,-4.8874545,-0.30975863,0.60376626,-0.7345174,0
5.6790171,-3.0811636,-2.4137287,0.82338423,-0.44672897,-0.34995952,0
-1.875352,6.3221788,2.0346522,-0.27174249,0.91609716,0.29482543,0
-3.2625344,-5.117394,-3.4676988,-0.46675897,-0.73212701,-0.49611109,0
6.5525727,-2.5870891,0.33797729,0.9290601,-0.36681184,0.047920294,0
6.8237576,-0.029488778,0.4546532,0.99777848,-0.0043118862,0.066479966,0
-5.4482675,0.13500644,-4.4245896,-0.77611876,0.019231992,-0.63029343,0
3.7948558,-1.9072475,5.2006669,0.56516731,-0.28404608,0.77453458,0
-2.4229906,3.4587154,5.0722842,-0.36711279,0.52403778,0.76851326,0
0.88742691,5.4762049,-4.313179,0.12628672,0.77930015,-0.61379385,0
1.8554976,-6.4828439,-0.89055187,0.27279881,-0.95312011,-0.13093063,0
0.50902838,4.8147173,-5.0322771,0.072893776,0.68947613,-0.72063112,0
5.5582051,2.8289337,-2.7989919,0.81307888,0.41382894,-0.40944892,0
-6.475173,2.203531,-1.4827394,-0.92519534,0.31484821,-0.21185899,0
-4.0496607,-3.4342101,-4.6204391,-0.57534963,-0.48791036,-0.65644211,0
6.5427327,-2.2795498,0.36008462,0.94305301,-0.32856855,0.051901691,0
4.8878694,-0.46356615,-4.6956053,0.71946692,-0.068234332,-0.69116676,0
-3.5189769,5.3659415,2.6986074,-0.50550932,0.77083009,0.38766128,0
5.0389333,-4.3548417,-2.0224056,0.72395468,-0.62566972,-0.29056346,0
5.327631,3.8674057,-1.9998497,0.77432013,0.5620904,-0.29065901,0
0.96359015,6.7607622,-0.53445178,0.14067078,0.98697734,-0.078022532,0
-2.7196531,3.9163754,4.7563119,-0.40382323,0.58151656,0.70623314,0
-2.6720235,-6.0728526,-1.0907519,-0.39740002,-0.90319252,-0.16222343,0
3.8807988,-5.6890163,-0.20502128,0.56327796,-0.82573146,-0.029757783,0
6.0136886,1.3930589,-2.972224,0.87775475,0.20333013,-0.43382421,0
3.2034433,-5.5999904,-2.1976478,0.47002041,-0.82165021,-0.32244658,0
5.4264817,4.0010729,1.4798013,0.78615689,0.57965201,0.21438494,0
-4.7797174,0.77705032,5.1304975,-0.67750394,0.11014347,0.72722548,0
-4.1468339,-4.5453362,-2.5351634,-0.62315536,-0.68303931,-0.3809655,0
-2.7828469,5.2628593,-3.1657121,-0.41272154,0.78052998,-0.46950394,0
-1.6923329,2.9893234,-6.0401373,-0.24354953,0.43020397,-0.86925727,0
-2.7801108,3.6020355,5.2894831,-0.39845249,0.51625282,0.75810206,0
5.6242394,0.99347007,4.0593839,0.80266339,0.14178309,0.57933503,0
-2.137053,6.4753871,-0.13103473,-0.31334278,0.94944572,-0.019212808,0
-3.0239282,5.7564721,-2.3611712,-0.43712151,0.83212221,-0.34131721,0
6.3175936,-2.8122652,-0.38370487,0.91216969,-0.40605068,-0.055401467,0
-1.8366171,-5.8307576,-2.8875494,-0.2716555,-0.86243206,-0.42709976,0
6.6767821,-0.9348765,-1.2531857,0.97366136,-0.13633111,-0.18274949,0
-6.1553802,1.3998888,2.1589739,-0.92263138,0.20982964,0.32360911,0
-2.6071329,0.63232374,-6.5607581,-0.36782062,0.089209765,-0.92560768,0
0.5795089,-4.5137792,5.2873249,0.083070725,-0.64703566,0.75792092,0
4.5004735,-5.3073177,0.8816188,0.64162236,-0.7566523,0.1256904,0
-6.7429318,1.2599852,-1.1887512,-0.96854991,0.18098338,-0.17075138,0
-3.5890875,-5.3070393,2.8490167,-0.51187551,-0.75688976,0.40632665,0
6.5060906,0.936239,2.2861679,0.93487269,0.13452998,0.32850385,0
-3.7724278,5.6153817,-0.98101616,-0.55187547,0.82148463,-0.14351468,0
4.5912514,5.1276436,-1.254822,0.65624875,0.73291779,-0.1793575,0
6.593092,0.90243644,-1.0514716,0.97862107,0.1339498,-0.15607128,0
-6.6043005,1.0375696,-1.3954955,-0.96703923,0.15192685,-0.20433639,0
-0.82160348,5.0976,-4.4391813,-0.1206586,0.74862057,-0.65192688,0
5.7528133,-3.359081,1.2984627,0.84761393,-0.49492374,0.19131424,0
-3.8093536,-1.2404838,5.4790735,-0.56123036,-0.18275991,0.8072294,0
-2.0898309,-4.2927876,5.3307266,-0.29202834,-0.5998646,0.74490392,0
-0.70549738,5.1471829,-4.684382,-0.10085261,0.73580265,-0.66964412,0
-5.6001129,0.62037504,-4.0890446,-0.80440789,0.089111522,-0.58735597,0
5.4232121,-3.8232384,-1.5936685,0.79471618,-0.56025642,-0.23353578,0
-2.1170666,-3.3061225,5.7686439,-0.30340037,-0.47380596,0.82671404,0
-4.4151254,-4.7985768,1.4667214,-0.66058773,-0.7179594,0.21944974,0
5.6910419,3.4201996,1.9064547,0.82383502,0.49510795,0.2759783,0
0.32318372,-4.8049703,-5.0978155,0.046084579,-0.68516767,-0.72692609,0
-6.4834151,0.84424472,1.6137902,-0.96273518,0.12536357,0.2396349,0
-0.5658198,5.8980551,-3.4284301,-0.082655318,0.86159164,-0.50082725,0
4.5793009,-2.4087987,4.6083579,0.66090137,-0.34764659,0.66509497,0
-2.3075638,-6.3639607,2.1166525,-0.32534778,-0.89726686,0.29843083,0
5.177381,4.1407776,1.6558199,0.75767684,0.60597646,0.24231872,0
-1.5693665,-4.982306,4.6027331,-0.22541428,-0.71562821,0.66110867,0
-5.3676052,-3.6657121,-1.2673875,-0.81053448,-0.55354035,-0.19138168,0
5.8657413,-3.4177022,2.040298,0.82747149,-0.48213023,0.28782183,0
-2.1937191,-6.1629796,-1.813024,-0.32315913,-0.90787518,-0.26707852,0
-3.3713372,-5.8378816,0.79644173,-0.49663898,-0.85999095,0.11732555,0
4.2599759,2.8349035,-4.7813244,0.60828787,0.40479982,-0.68273193,0
1.6479322,-5.9896445,-3.2133579,0.23561807,-0.85638744,-0.45943952,0
1.4108211,6.7675123,-0.41834059,0.20370951,0.97716618,-0.060404509,0
-3.5994527,-1.0289373,-5.7844467,-0.52240324,-0.14933386,-0.83952028,0
0.0023764612,6.1200409,-3.0072992,0.00034850586,0.89749837,-0.44101766,0
1.5540923,-0.66339159,6.7601304,0.22302903,-0.095203854,0.97015172,0
5.426672,2.3903599,2.9596639,0.81882578,0.36067933,0.4465811,0
-3.6469901,4.9501066,2.9511127,-0.53474492,0.72581619,0.43271095,0
3.779161,5.3405285,2.3122737,0.54462504,0.76963794,0.33322799,0
1.2897067,0.89322096,-6.7045479,0.1873036,0.12972213,-0.97369885,0
-2.7343357,-0.4016856,-6.3325968,-0.39574176,-0.058136158,-0.91651988,0
-2.2860758,3.8701551,5.0425959,-0.33841982,0.57291943,0.74648196,0
-4.2386875,4.5736847,2.7978539,-0.6201722,0.66918641,0.4093605,0
-1.0116878,-6.5061707,2.2554145,-0.14535885,-0.93480366,0.32405692,0
2.8217747,-5.7873187,2.531368,0.40786934,-0.8365196,0.36589292,0
6.8733115,-0.41315261,-0.20181212,0.99776983,-0.059975635,-0.029296219,0
-0.51470476,-1.4867524,6.6097188,-0.075754374,-0.21882057,0.97282004,0
-1.6250126,-5.9551759,-2.803674,-0.23968528,-0.87837344,-0.41353485,0
2.3087447,-6.4561205,1.4149451,0.32977402,-0.92217243,0.20210642,0
2.5927863,4.8465815,-4.1368837,0.3768931,0.70450974,-0.60134649,0
3.1943245,6.0640988,0.72338921,0.46347985,0.87986916,0.10496001,0
4.9103551,3.0239098,3.6675203,0.71849716,0.44246712,0.53664201,0
-2.821388,6.0846262,1.7229371,-0.40743852,0.87868488,0.24881049,0
4.814456,-3.9003477,2.4311979,0.72332501,-0.58598918,0.36526376,0
3.0186317,5.8114457,-2.3262763,0.43436202,0.83623034,-0.33473647,0
3.3235612,-5.0513535,-3.2574904,0.48389903,-0.73545963,-0.47427934,0
-2.876085,-6.3931069,0.5377124,-0.40906662,-0.90929395,0.076479033,0
-4.6810179,-4.329793,-2.5509992,-0.68158942,-0.63044858,-0.3714436,0
-4.9044514,4.4574699,2.0810244,-0.70603579,0.64168918,0.29958045,0
6.6516585,-1.7410097,-1.2374463,0.95211434,-0.24920708,-0.17712732,0
5.11271,-2.9380741,3.4084635,0.75065494,-0.43137199,0.50043517,0
-1.1177531,-2.8284314,-6.3048153,-0.15967886,-0.40406123,-0.90068704,0
3.3300858,6.0063357,-0.7979517,0.48164955,0.86873108,-0.11541237,0
-4.4608288,-4.1650267,-3.0059776,-0.65570408,-0.61222368,-0.44185328,0
5.8839393,-3.5831015,0.5486815,0.85140103,-0.51847172,0.079393744,0
-0.86132765,-2.3521254,6.5618372,-0.12263196,-0.33488503,0.93424487,0
1.8956908,5.1805367,-4.1692357,0.2741507,0.74919802,-0.60294586,0
2.6898162,3.1991408,5.4901128,0.38982457,0.46363896,0.79566061,0
-4.1866622,-4.5320148,-3.2123411,-0.60187477,-0.65152264,-0.4618063,0
-2.7683439,0.56072319,6.3181496,-0.4000048,0.081020266,0.91292489,0
-4.5178366,4.3843036,-2.8577471,-0.65345848,0.63414431,-0.41334367,0
-3.7624388,-4.1765265,-3.8210979,-0.55353862,-0.61446017,-0.56216872,0
3.7498407,1.5994706,5.706141,0.5347122,0.22807807,0.81367272,0
0.59808129,6.0720286,2.9667568,0.088154607,0.89499086,0.43728718,0
-1.143553,-6.4654102,1.3663926,-0.17051578,-0.96406066,0.2037435,0
-0.088223882,-6.642436,-2.0850475,-0.012671195,-0.95402282,-0.29946586,0
3.7268059,-5.2826109,-2.795006,0.5291329,-0.75002652,-0.39683571,0
-2.9377894,4.1820707,4.542129,-0.4296591,0.61163837,0.66429782,0
-1.2216319,-6.6602578,-1.0430553,-0.17830835,-0.97212559,-0.15224347,0
-5.6174135,2.9306755,2.7563691,-0.81299365,0.42414904,0.39892215,0
-0.34966317,-5.5003495,3.8081448,-0.052195467,-0.82105672,0.56845534,0
5.5296154,0.89602607,4.2204137,0.78840673,0.12775445,0.60174215,0
2.4645329,4.1151199,-5.2740946,0.34569994,0.57722771,-0.73979706,0
2.7165663,-5.5069733,-2.8855891,0.40039179,-0.81166685,-0.42530388,0
-4.0479732,1.7390707,5.3831897,-0.58192027,0.25000176,0.77386558,0
-1.8005804,-5.1625967,4.4450035,-0.25552991,-0.73265141,0.63081396,0
-0.26824185,3.5876348,-5.6996102,-0.039798044,0.53228396,-0.84562987,0
5.1512561,-1.2811135,4.6562071,0.7295419,-0.18143652,0.65943104,0
-2.5754862,6.450819,-0.56361145,-0.36957505,0.92567444,-0.080876663,0
3.0364234,6.1984835,-0.82691056,0.43679446,0.89166194,-0.11895243,0
5.609982,1.8464316,3.5376279,0.81487411,0.26820219,0.51385576,0
-0.63835025,-2.9478033,-6.1969562,-0.092622273,-0.42771542,-0.89915556,0
0.16213837,-5.277792,-4.4652128,0.023446785,-0.76322001,-0.64571315,0
-2.9314137,4.141562,-4.9559598,-0.41329655,0.58391392,-0.69873494,0
-4.855442,2.2651813,4.6589561,-0.68384993,0.31903255,0.65617645,0
5.4661827,3.8021107,2.3607755,0.77374357,0.53819257,0.3341701,0
6.8277678,-0.76383406,-0.46416697,0.99154013,-0.11092529,-0.067407124,0
-6.1761069,1.6827453,-2.7489779,-0.88653743,0.24154645,-0.39459679,0
-4.197288,-5.1541376,-1.4303663,-0.61732626,-0.75805724,-0.21037458,0
-6.6276131,1.1146307,1.5874792,-0.95974034,0.16140895,0.22988184,0
-5.4934382,3.8493772,1.6896811,-0.79414642,0.55647647,0.2442649,0
0.7780394,-6.0114031,-3.6739838,0.10976774,-0.84810376,-0.51833481,0
-4.713944,-4.5264316,-2.2282608,-0.6827144,-0.65555722,-0.32271612,0
0.58990592,-5.3863621,-4.0585527,0.087135442,-0.7956236,-0.59949183,0
4.732482,0.061561394,4.7943954,0.70246726,0.0091378819,0.7116574,0
5.5579367,-3.2340679,-2.5356956,0.80406713,-0.46787286,-0.36683926,0
3.8353672,3.5885816,4.2626023,0.56698906,0.53050631,0.63014793,0
3.3298411,-5.1958275,2.5553331,0.49852505,-0.77789003,0.38257009,0
-3.7444549,5.4033837,-1.8734559,-0.5477761,0.79046071,-0.27406776,0
5.8795323,-0.18003514,3.7222064,0.8446337,-0.02586324,0.53471959,0
-3.5774808,-0.89327943,-5.8373356,-0.51814473,-0.1293782,-0.845451,0
3.6019506,5.6301637,1.6045386,0.52402151,0.81909138,0.23343259,0
4.3734832,-4.4072137,3.3105621,0.62155259,-0.62634635,0.47049192,0
-4.0130239,4.1931529,3.6811187,-0.58388615,0.61009449,0.53559464,0
-0.84798515,5.3431258,-4.1046524,-0.12487091,0.78680742,-0.60443479,0
-4.7253218,-1.2548901,-4.5752559,-0.70569348,-0.18740898,-0.6832822,0
-1.9294134,4.1344304,5.0938964,-0.28214335,0.60458893,0.74489427,0
-2.8220854,-6.0545478,1.6962235,-0.40947595,-0.87849641,0.24611685,0
-5.4502883,0.26143637,-4.1562471,-0.79459739,0.038114801,-0.60593915,0
5.1747146,-4.5621777,-0.68125659,0.74647629,-0.65811503,-0.09827438,0
5.6567917,-3.6614301,0.11886539,0.83936149,-0.5432874,0.017637389,0
6.6274118,1.008721,-0.06428273,0.98856896,0.1504645,-0.0095886467,0
4.6127543,2.3208137,4.266603,0.6886428,0.34647664,0.63696551,0
3.9664321,1.0260979,5.4992342,0.57839721,0.14962873,0.80191511,0
-4.4509573,4.890594,2.286943,-0.63611698,0.6989485,0.32684278,0
-0.63199401,5.5410442,-3.9875245,-0.092182919,0.80821913,-0.58162206,0
-1.6568115,-3.9042006,-5.3326464,-0.243163,-0.57300252,-0.78264928,0
6.4121904,-1.9151933,-0.58842289,0.95449102,-0.28508741,-0.087590091,0
-5.3983378,-3.9502478,2.5068691,-0.75568962,-0.55297786,0.35092559,0
4.1302233,0.45571122,-5.3156786,0.61215132,0.067542166,-0.7878508,0
5.2599545,3.6040895,2.9584556,0.7483052,0.51273429,0.42088342,0
3.6055706,-5.8364701,0.85075366,0.52157068,-0.84428573,0.12306739,0
-1.6558049,-4.5439763,4.8310699,-0.24222422,-0.66472876,0.70672709,0
1.450876,5.8733573,-3.2737508,0.21091788,0.85382622,-0.47591424,0
-1.5409399,-2.0917451,6.3917994,-0.22333637,-0.3031674,0.92639643,0
-1.5669841,6.4137816,-2.5309634,-0.22160986,0.90706557,-0.35794014,0
-0.56194115,5.5224934,4.3245959,-0.079858057,0.78480744,0.61457294,0
2.4295177,5.3472323,3.3086381,0.36040333,0.79322749,0.49081519,0
3.3771594,-5.0360842,-3.6194048,0.47823682,-0.71315581,-0.512541,0
-1.0218877,6.9006014,0.00099507812,-0.14648923,0.98921221,0.00014264604,0
2.8451185,3.7877531,5.1990085,0.40450418,0.53852308,0.73916799,0
-6.0035391,-1.7683281,2.6281385,-0.88443768,-0.26050901,0.38717577,0
1.3176855,6.5961633,-0.58786458,0.19515111,0.97690123,-0.087063588,0
-4.2940702,0.19048087,5.3285527,-0.62723058,0.027823353,0.77833647,0
-0.061115112,-6.8695803,-0.8857944,-0.0088230912,-0.9917503,-0.12788072,0
6.7011313,-0.6497038,-1.2477249,0.97866797,-0.094886109,-0.18222421,0
-1.6345189,-5.5076723,4.0120592,-0.23325832,-0.78598684,0.57255149,0
-1.5880784,-6.8780651,0.1385494,-0.22492817,-0.97417778,0.019623505,0
-3.8575418,-4.0465493,-3.979239,-0.56214511,-0.58968848,-0.57987964,0
2.1647484,6.1281433,2.739064,0.30693227,0.86888844,0.3883625,0
-5.6460142,1.792498,3.5745921,-0.81605279,0.25908065,0.51665753,0
-0.32241595,3.4058361,-6.1227551,-0.045969538,0.48559856,-0.87297243,0
-0.60399586,5.1657348,4.2515564,-0.089913234,0.76899189,0.63290364,0
-1.633949,5.0453362,4.6841307,-0.23092227,0.71304578,0.66199744,0
1.4105295,4.2260017,-5.2452378,0.20496081,0.61407059,-0.76217347,0
-1.3068453,-6.6442518,0.8033852,-0.19164643,-0.97436708,0.11781494,0
0.48272386,-1.3449944,-6.7349811,0.070113301,-0.19535393,-0.97822338,0
3.2191975,-3.762368,-4.9360652,0.46043357,-0.53812188,-0.70599276,0
2.7423983,-2.1019459,-5.903976,0.40089148,-0.30726835,-0.86305976,0
-2.5013835,4.5361362,-4.2218385,-0.37431195,0.67879635,-0.63176423,0
-4.4245396,-5.2228851,1.2249331,-0.63627511,-0.751082,0.17615268,0
4.2547359,-5.4685359,0.89665532,0.60899097,-0.78272521,0.12834051,0
4.4794388,2.4215782,4.8963237,0.63410115,0.34279418,0.69311464,0
6.5880637,-1.764631,0.2450261,0.96532637,-0.25856534,0.035902832,0
-1.7483078,-1.3073233,6.5946088,-0.25168005,-0.18819752,0.94933599,0
-3.3026893,-2.806462,-5.0248709,-0.49771076,-0.42293,-0.75724119,0
-0.12406462,3.2697141,6.1035233,-0.017914759,0.47214222,0.88134032,0
3.3969138,1.7263579,-5.6950555,0.49573877,0.2519412,-0.83112496,0
-1.4504955,-0.77855706,6.7766867,-0.20799281,-0.11164065,0.97173834,0
0.30480114,6.4124155,2.9684768,0.043095123,0.90663648,0.41970602,0
4.8389993,-3.1667204,3.210593,0.73157173,-0.47875252,0.48538527,0
-4.2165799,5.4007955,1.2522857,-0.60536355,0.77537829,0.17978744,0
-1.7725244,1.4558212,6.5625796,-0.25497031,0.20941387,0.94400001,0
4.4912486,4.8630023,2.3737037,0.63865137,0.69151437,0.33753845,0
1.692902,-1.1059434,-6.7471175,0.24034534,-0.15701343,-0.9579044,0
