0.44600129,7.3388352,1.3074708,0.059723862,0.98274058,0.17508291,0
-5.9013653,-1.6057079,4.3372512,-0.78708547,-0.21415882,0.57847416,0
-6.2558546,2.4063325,2.8825634,-0.85740632,0.32980382,0.39507443,0
6.4703436,0.70978874,3.1369903,0.89547008,0.098231971,0.43414712,0
5.7471228,2.0663962,-4.3154984,0.76852053,0.276324,-0.57707989,0
0.16336882,4.8178811,-5.4384995,0.022479501,0.66293895,-0.74833584,0
-1.5759752,2.6085224,-6.7697058,-0.21227877,0.35135955,-0.91185755,0
-3.4912159,3.3667951,-5.2796183,-0.48697031,0.46961552,-0.73642457,0
-6.9160719,1.4194065,-2.558728,-0.92096603,0.18901268,-0.34072831,0
2.747267,-2.61443,-6.3288107,0.37235358,-0.35434937,-0.85778165,0
-2.2948608,4.635015,-4.9712787,-0.31989485,0.64610344,-0.69297731,0
3.8929245,6.006238,1.2729965,0.53549123,0.82618803,0.17510703,0
4.9510484,-5.2037601,-1.9932439,0.66419625,-0.69809818,-0.26739895,0
-5.367877,-0.53797823,-5.1240191,-0.72145301,-0.072305307,-0.68867803,0
0.037175786,7.1282058,-1.5491461,0.0050962782,0.9771769,-0.21236616,0
4.4874444,-2.4517426,-5.1115627,0.62065005,-0.33909592,-0.70697063,0
-2.4521267,-0.61825842,7.0008984,-0.32942584,-0.08305864,0.94052106,0
-5.2915459,-0.97452152,4.8021607,-0.73372847,-0.13512766,0.66587007,0
1.4617971,2.3279679,-6.80475,0.19918208,0.31720507,-0.92720407,0
6.7093987,2.5919027,1.1382704,0.92134911,0.35592568,0.15630974,0
2.9194839,2.3653891,6.0571871,0.40958136,0.33184609,0.84977722,0
-3.7136054,0.6462459,-6.2869649,-0.50660497,0.088159978,-0.85765916,0
-2.0695903,4.743535,5.0526409,-0.28613928,0.65583593,0.69857258,0
-3.6851213,-6.0585833,2.0902855,-0.49846363,-0.81950718,0.28274003,0
5.790679,-3.2083755,2.8767781,0.80224019,-0.44448808,0.3985486,0
3.7897339,-4.0534201,4.6742916,0.52233052,-0.5586738,0.64424711,0
5.1777487,4.6583834,-2.513212,0.69927543,0.62913311,-0.33941922,0
-7.2495785,-0.76087379,0.48892114,-0.99230784,-0.10414689,0.066922553,0
-2.4839566,6.4862013,2.274343,-0.33987448,0.88749307,0.3111935,0
1.0997646,-7.0223646,2.4887087,0.14603065,-0.93245453,0.33045959,0
1.6708293,6.1195254,-3.9926167,0.2229135,0.81643581,-0.53267449,0
-6.212512,-0.3892875,3.7558265,-0.85453939,-0.053547021,0.51661897,0
6.4248128,1.1354924,2.7710886,0.90637434,0.16018851,0.39092869,0
-5.9831676,-0.43415186,3.9557841,-0.83264339,-0.060418442,0.55050397,0
-1.0909094,6.8023705,-1.8203267,-0.15309456,0.95462191,-0.25545853,0
-0.73119849,-4.5220242,5.5932231,-0.10113918,-0.62548518,0.77365309,0
0.12553997,0.29064023,-7.1356955,0.017575946,0.040690441,-0.99901718,0
7.1355371,1.8903962,-0.01991611,0.96664882,0.25609136,-0.0026980287,0
4.7124519,-2.3308916,5.3324666,0.62930405,-0.31126887,0.71210122,0
4.4962564,0.19882308,5.9720311,0.60126173,0.026587611,0.79860967,0
-3.2251806,3.5263734,-5.7034917,-0.43343988,0.4739179,-0.76650614,0
3.4957383,4.0442514,-4.8492985,0.48434412,0.56034213,-0.67188358,0
6.6412878,3.0105486,-1.3499429,0.89557254,0.40597016,-0.18203875,0
-0.26517984,-2.6620305,-6.8205609,-0.036194894,-0.3633455,-0.93095112,0
-1.9070939,1.6352497,6.8163743,-0.26251978,0.22509925,0.93830359,0
-6.5200629,-1.238144,-2.8989882,-0.90029711,-0.17096423,-0.40029532,0
-1.5046858,-1.8661308,-6.7244611,-0.2107707,-0.26140055,-0.94193709,0
-6.3734226,-2.8185318,2.3781443,-0.86554992,-0.38277394,0.32296661,0
-0.89766496,-7.312294,0.88098979,-0.12098439,-0.9855274,0.11873697,0
-3.2727356,6.3835812,-0.27361813,-0.45588627,0.88922155,-0.038114522,0
-3.545953,6.3753414,-0.70819771,-0.48379764,0.86982965,-0.096624061,0
1.7987589,0.44495925,6.9373131,0.25050545,0.061967574,0.96612996,0
-5.3846917,1.7708955,-4.4346519,-0.74818343,0.24605951,-0.61617881,0
-6.4649563,2.815552,1.8509885,-0.88678312,0.38620275,0.25389582,0
-4.8440747,1.2867496,5.3983078,-0.65759861,0.17468037,0.73283756,0
6.0524421,0.62079704,3.9089096,0.83693588,0.085844249,0.54052675,0
3.3969901,1.2634374,-6.4584146,0.45868877,0.17059943,-0.8720668,0
5.0898013,-4.5224094,3.0947044,0.68054563,-0.60468096,0.41378579,0
5.238975,4.7789249,1.737956,0.71756363,0.65455222,0.23804161,0
5.1676235,5.0341029,0.6475395,0.71343201,0.69499844,0.089398041,0
-3.0308583,6.4554019,-1.3305945,-0.417786,0.88983923,-0.18341464,0
-1.7994915,-6.5554023,2.8638601,-0.24394831,-0.88868403,0.38823959,0
-2.294199,-5.5323935,3.8265107,-0.3227973,-0.77841622,0.53839588,0
2.4766126,-4.4009643,-5.2724762,0.33922666,-0.60280901,-0.7221818,0
-4.1994419,3.3606107,5.0698652,-0.56815368,0.45466599,0.68591559,0
-0.81349975,6.2997169,-3.1060684,-0.11505099,0.89095128,-0.43928254,0
-5.3928876,4.5968313,0.73222381,-0.75701118,0.64526701,0.10278382,0
-6.591536,-2.7177732,0.93277901,-0.91668802,-0.37796199,0.12972201,0
0.14264372,-3.0121524,6.687767,0.019443851,-0.41058829,0.91161352,0
-4.9904556,2.0052686,5.1143522,-0.67240971,0.27018818,0.68910342,0
-0.12687881,7.0799866,2.451072,-0.016932223,0.94483793,0.32710031,0
-5.3951402,0.99675846,5.0428057,-0.72399431,0.1337588,0.67671323,0
7.1794701,0.48726264,-0.72169554,0.99272478,0.067375124,-0.099790797,0
4.9675508,1.9984968,4.8907127,0.68500274,0.27558362,0.67440712,0
-0.10265262,-6.2233195,3.5443795,-0.01433175,-0.86886299,0.49484524,0
-3.915417,-2.4089215,-5.8551521,-0.52596837,-0.32359684,-0.78653818,0
5.7840743,3.4578159,-2.4647262,0.80609375,0.48189628,-0.34349498,0
6.6848259,1.3495612,-2.4045045,0.92444563,0.18663104,-0.33251932,0
-4.7514963,4.9120922,2.733093,-0.64555061,0.6673696,0.37132511,0
5.1779828,1.8691469,-4.8328061,0.70685494,0.2551603,-0.65973431,0
5.4513893,0.5680173,4.7354569,0.75261527,0.078420095,0.65377408,0
-1.0309,7.3694005,-0.23194493,-0.13847302,0.98987603,-0.031155415,0
3.4562545,-3.244,5.6461363,0.46882802,-0.44003651,0.76587737,0
4.9113679,-2.2121875,4.7930994,0.6811555,-0.30680734,0.6647529,0
3.3748534,6.4167213,0.91092741,0.46185938,0.87814862,0.1246633,0
-5.7090583,-1.597737,4.4179788,-0.77216697,-0.21609864,0.59754467,0
-1.7157334,-5.7803531,-3.9003575,-0.2389216,-0.80493343,-0.54313779,0
3.2285297,5.022964,4.007555,0.44895256,0.69848281,0.55728215,0
-2.7975047,-2.8402777,-6.0718255,-0.38513881,-0.39102745,-0.835922,0
-6.7572899,-0.89484251,-2.2098844,-0.94302279,-0.12488097,-0.30840343,0
6.7799349,2.2896817,0.90293193,0.93997782,0.31744406,0.12518351,0
2.2817321,-4.3858776,5.1986451,0.31805003,-0.6113463,0.72463775,0
5.2729173,0.39635473,4.9555058,0.72760844,0.054692887,0.68380892,0
-4.7355156,-1.1605171,-5.4547896,-0.64726526,-0.15862314,-0.74557787,0
0.87734729,6.0169091,-4.3997736,0.11689557,0.801678,-0.5862149,0
-2.40325,3.1426308,5.9904933,-0.33476204,0.43775451,0.83444911,0
6.2397094,-1.8565562,3.458056,0.84646463,-0.25185615,0.46911195,0
0.26176387,6.5035496,-3.409729,0.035624541,0.8850953,-0.4640443,0
-2.694304,-6.6191516,1.6381353,-0.36747974,-0.90279502,0.22342749,0
-0.14182848,-7.1121058,0.55346209,-0.019877801,-0.99678874,0.07756982,0
-5.6834869,-2.0298157,4.5700626,-0.75077289,-0.26813304,0.60369265,0
-4.3472605,0.50651509,5.9819808,-0.5865081,0.068336189,0.80705541,0
2.2388606,-6.7464118,-1.4676133,0.30846244,-0.92949718,-0.20220266,0
3.8955965,-5.9706273,1.7647463,0.5304262,-0.81296337,0.24028867,0
4.7773123,5.4093189,0.14879172,0.6618225,0.74937719,0.020612784,0
-3.2042096,1.8695027,-6.3080897,-0.43784961,0.25546426,-0.86198938,0
3.2308671,0.52400702,6.6097121,0.43804038,0.071044773,0.89614356,0
0.075367831,6.6831436,2.735528,0.010436275,0.92542303,0.3787919,0
-7.1376872,-1.1767941,-0.36602655,-0.98541915,-0.16246656,-0.050533116,0
-5.7149639,-3.1919072,-2.9867334,-0.79428405,-0.44362152,-0.41510579,0
6.7464433,3.1182802,0.16350554,0.90750742,0.41945988,0.021994179,0
-1.1569592,-6.9250293,1.119013,-0.16273138,-0.97403574,0.15739408,0
-1.12138,0.62560499,-7.1848722,-0.1536407,0.085714385,-0.98440212,0
6.8144288,-1.2428004,2.6617146,0.91830897,-0.16747914,0.3586913,0
7.2575097,1.3876188,0.095194198,0.98212659,0.18778029,0.012882208,0
-6.5819006,2.092742,2.3880336,-0.90066999,0.28637168,0.32677951,0
-6.265871,3.3737853,-1.7110492,-0.85608238,0.46094757,-0.2337742,0
1.9249467,0.39284337,7.2155151,0.25740793,0.052531842,0.96487385,0
6.7267966,-0.3963891,2.9213409,0.91590029,-0.053971142,0.39776096,0
0.15243284,-4.5362062,5.8526492,0.020581394,-0.61247593,0.79022127,0
-5.5534439,-4.4396439,1.4923853,-0.76442397,-0.61111093,0.2054248,0
-5.8643408,-3.5459957,2.3504503,-0.80943924,-0.48944429,0.32442635,0
5.0073051,2.7288949,-4.2727518,0.7027052,0.38296223,-0.59962094,0
1.8500327,-6.758039,-2.267911,0.25120661,-0.91763997,-0.30794817,0
0.67660421,-0.039308857,7.2010016,0.093546323,-0.005434786,0.9956001,0
-5.9663992,-3.2686539,2.8932791,-0.80705845,-0.44214183,0.39136592,0
-5.3405056,4.8436637,-1.9919884,-0.71397328,0.6475504,-0.26630935,0
2.3729386,-2.8787766,-6.2851844,0.32465905,-0.39386645,-0.85992193,0
1.2183388,6.7239795,-2.4321966,0.16796793,0.92701054,-0.33531809,0
0.32356805,6.4428334,3.6160374,0.043753177,0.87120599,0.48896399,0
-0.42930645,-4.4140763,-5.5956278,-0.060127057,-0.61821908,-0.78370273,0
-3.3885994,-4.4774022,-4.8769855,-0.45561692,-0.60201281,-0.65573913,0
1.6295266,-3.3565812,-6.3507838,0.22122988,-0.45570049,-0.86220324,0
-2.8982358,2.2189503,-6.2324491,-0.40126941,0.30722031,-0.86290121,0
-2.0883358,-6.5252333,2.8086314,-0.28203189,-0.88123947,0.37930858,0
-5.1144776,4.2740951,-2.7305171,-0.71006,0.59338689,-0.37908682,0
0.98890871,-7.3401394,0.25019515,0.13344371,-0.9904812,0.033761427,0
5.2741027,4.9622293,0.96278536,0.72195953,0.67926794,0.13179342,0
1.4645103,-0.97485536,-7.2187781,0.19710594,-0.13120413,-0.97156304,0
-4.9078937,-4.077805,3.7828248,-0.6616258,-0.54972279,0.50995696,0
-2.7163193,-1.3896137,-6.7851524,-0.36511609,-0.18678598,-0.91203135,0
2.0822926,6.7484355,-2.0331945,0.28333473,0.9182505,-0.27665403,0
0.96788502,-4.5441761,5.6323457,0.13256255,-0.62237507,0.77141196,0
0.98801756,-6.9077148,2.0220387,0.13599546,-0.95081097,0.27832308,0
0.73209745,-1.7846979,6.8699732,0.10259702,-0.2501097,0.96276629,0
6.989573,-1.9756265,1.0199056,0.9529494,-0.26935437,0.13905261,0
1.138597,-6.5120425,-3.424135,0.15293476,-0.87468851,-0.45992503,0
-4.5869079,-3.5311339,-4.4840622,-0.62643367,-0.48224667,-0.61238801,0
-3.7092502,-0.21451896,-6.0118661,-0.52484494,-0.030353626,-0.85065645,0
-4.6513252,-4.8770757,-3.0374994,-0.62920648,-0.65974474,-0.41089672,0
2.0481884,-6.22259,3.4179814,0.27719179,-0.84213483,0.46257284,0
-6.7719016,0.38329571,2.8500543,-0.92044568,0.052098051,0.38738307,0
-5.9798417,-3.9461851,1.3017527,-0.82119733,-0.54192019,0.17876658,0
-2.334975,-6.1973023,-2.8578401,-0.32372212,-0.85919714,-0.3962124,0
5.4246373,2.8939877,-3.793644,0.75086546,0.40057892,-0.5251072,0
-2.8203621,-6.2664328,-2.4760387,-0.38612139,-0.85790539,-0.33898184,0
5.389935,-0.38849929,5.084383,0.7264269,-0.052359879,0.68524623,0
6.2526999,-0.40712696,-3.5318885,0.8693009,-0.056602083,-0.49103171,0
3.7268875,3.4818966,-5.3686852,0.50328398,0.47020006,-0.7249946,0
6.8745866,2.7289498,-0.16596374,0.92921323,0.36886236,-0.022432724,0
-5.7283406,-4.6970801,1.2410836,-0.7626493,-0.62535119,0.16523311,0
-6.1444588,2.604893,2.9699836,-0.84114939,0.35659838,0.40657768,0
1.660322,1.5587827,7.0014286,0.22551048,0.21171908,0.95095748,0
-5.9718204,-3.7732718,1.988205,-0.81376886,-0.51417673,0.27092901,0
3.0229259,4.9060073,-4.4967966,0.41356364,0.67118627,-0.61520255,0
-2.262387,-1.7061522,6.7796178,-0.30789307,-0.23219389,0.92265266,0
1.0193617,-5.0081162,-5.2139845,0.13961768,-0.68594062,-0.71413749,0
-2.2044647,-5.4095178,4.2638865,-0.30481666,-0.74798709,0.58957785,0
5.4959531,1.8330774,-4.2945018,0.76208991,0.25418153,-0.59549206,0
-0.44981575,-7.2407522,0.30830562,-0.061947353,-0.99717593,0.042458978,0
-4.4445181,-5.0357623,-2.5290153,-0.619277,-0.70165801,-0.35238039,0
2.8693271,6.1476202,-2.7336147,0.39229026,0.8404938,-0.37373587,0
5.0567837,-1.7544935,-4.9885206,0.69112545,-0.23979177,-0.68179578,0
-0.68682718,-0.21486719,7.3549018,-0.092939757,-0.029075297,0.99524713,0
-6.2201247,2.5057499,2.8438978,-0.8539449,0.34400794,0.3904314,0
-5.8312511,-3.0826917,3.3056378,-0.7903651,-0.41782659,0.44804463,0
7.2084618,-0.99551177,-0.25079224,0.99001026,-0.13672361,-0.034443811,0
3.011652,-2.036185,6.3146286,0.41332898,-0.27945268,0.86664027,0
3.8130536,-5.421926,3.2664764,0.51600111,-0.73372161,0.44203559,0
-6.1942573,1.6725336,3.6263368,-0.8404721,0.22693889,0.49204203,0
5.3017211,-4.4654489,2.25336,0.72738254,-0.61264813,0.30915523,0
1.7653925,4.119545,-5.8600702,0.23929375,0.55839217,-0.79431522,0
-4.2979369,3.0801094,-5.2651134,-0.57598013,0.41277519,-0.70559448,0
2.7384088,3.504467,5.9182353,0.369901,0.47337922,0.79942816,0
1.6761709,-6.2702832,-3.4049821,0.22869186,-0.85549909,-0.46456578,0
4.1906333,2.4284143,5.2018123,0.58960199,0.34166625,0.73187,0
4.3772092,-3.7271681,-4.2442508,0.61253923,-0.52157354,-0.59393322,0
3.2503524,3.2218521,-5.985846,0.43137011,0.42758769,-0.79441082,0
-0.93063039,7.3863401,0.29631394,-0.12490626,0.99137115,0.039770316,0
-6.1948676,-0.40256467,-3.9231489,-0.84356523,-0.054817885,-0.53422159,0
2.6738458,-2.4422047,-6.0390401,0.37972254,-0.34682634,-0.85762596,0
-4.5894842,1.4636272,5.4378572,-0.63175142,0.20147114,0.74853158,0
-0.059242152,6.6805606,-2.4633217,-0.0083199563,0.93821663,-0.34594843,0
-1.6067233,7.0215425,-1.7691808,-0.21662371,0.94666743,-0.23852676,0
-2.1731141,-6.5652952,1.850934,-0.30354935,-0.91706693,0.25854594,0
-6.4654317,0.19392951,3.6635809,-0.86973548,0.026087567,0.4928281,0
1.1359026,7.1411862,1.475607,0.15391658,0.96764189,0.19994706,0
-2.1443667,-1.3200871,6.6644225,-0.30099386,-0.18529391,0.93545115,0
6.0055356,0.41200539,3.8085456,0.84308481,0.057839219,0.53466123,0
-6.1041851,4.1457329,0.27370161,-0.82668006,0.56145,0.037066974,0
-1.1368665,-6.7652793,2.194772,-0.15783954,-0.93927348,0.30471635,0
-2.2227876,-6.6977968,-1.8956455,-0.30419266,-0.91660607,-0.25942266,0
-6.3281798,-3.1341605,-1.7116038,-0.87090021,-0.43133113,-0.23555526,0
-0.96800905,4.1464386,-5.9043097,-0.13297772,0.56960618,-0.81108916,0
-4.9545889,-1.2723539,5.2399526,-0.6765942,-0.1737515,0.71556318,0
-5.5606647,-2.7419932,3.810127,-0.76412904,-0.37679607,0.52357566,0
-1.6166441,0.73715222,-6.9745984,-0.22461635,0.10241984,-0.96904987,0
5.9941492,-2.4343386,-3.3063493,0.82501316,-0.33505362,-0.45507404,0
-5.3265548,-4.131319,-2.7805262,-0.730479,-0.56656539,-0.3813189,0
-3.7211704,-5.1945901,3.4598234,-0.51210314,-0.71487343,0.47613686,0
1.3961545,-0.61629391,-7.0802765,0.19276223,-0.085089564,-0.97754925,0
-1.6982971,4.6681967,5.308383,-0.23359837,0.64210385,0.73016059,0
-1.9014668,6.076077,3.9330671,-0.2540867,0.81192595,0.5255627,0
2.2746441,-3.794457,5.980536,0.30577284,-0.51007622,0.80394351,0
2.5061669,-6.9206429,-0.29146206,0.34022453,-0.93951142,-0.039567415,0
-0.82483453,7.1239405,0.012170303,-0.11501493,0.99336231,0.001697027,0
-2.0695562,6.1092134,-3.3428996,-0.28486583,0.84090787,-0.46013626,0
6.2801733,-3.5387094,-0.099881016,0.87112939,-0.49085808,-0.0138546,0
6.2953463,2.110409,2.9795411,0.8650353,0.28998855,0.40941486,0
6.0728965,-4.014832,0.8568781,0.82846576,-0.54770416,0.11689548,0
4.2363191,5.9704738,0.87560111,0.57457983,0.8097865,0.11875942,0
-3.047787,-6.4145598,1.3191936,-0.42193913,-0.88803905,0.18263069,0
0.66779578,4.8817859,-5.2370858,0.092870548,0.67891139,-0.72832304,0
-0.0034001356,-7.0194845,-1.4619794,-0.00047420932,-0.97899187,-0.203899,0
-2.0098739,5.5796337,4.4084148,-0.27198723,0.75506681,0.59657103,0
6.9547515,-1.1153855,2.043817,0.94826883,-0.15208097,0.27867106,0
-3.7286294,5.6837807,-2.9171774,-0.50406235,0.76837343,-0.39436457,0
-6.4442716,1.2166586,3.4158311,-0.87150985,0.16453838,0.46194988,0
6.0876937,2.870486,3.150578,0.8191843,0.38626403,0.42395431,0
-1.8854344,1.4741124,6.8489385,-0.2598787,0.20318417,0.94402289,0
-7.0382299,-0.13621162,1.1321294,-0.98712856,-0.019104004,0.15878385,0
5.613739,3.3521211,-3.3845479,0.7624805,0.45529851,-0.45970285,0
5.6625748,2.9752119,3.4606519,0.7786026,0.40909091,0.47583878,0
2.7175603,6.0037756,-3.5291362,0.3635219,0.80311149,-0.47208455,0
-0.65302432,5.5322313,-4.7410088,-0.089271978,0.75628614,-0.64812171,0
-3.7754309,3.7239316,-5.1693664,-0.509803,0.50284892,-0.6980285,0
-3.917985,-6.0151434,-0.33837077,-0.54518008,-0.83699566,-0.047083646,0
-4.2211823,5.3890567,2.467387,-0.58010697,0.74060512,0.33908707,0
5.3830781,-0.48998654,-5.053885,0.72744715,-0.066214778,-0.68296134,0
1.6080257,1.3314362,-6.9130425,0.22267504,0.18437368,-0.95729941,0
-5.9207044,-4.3164988,0.16545193,-0.80784589,-0.5889613,0.022574959,0
3.3746338,-2.3386469,5.9322038,0.46775958,-0.32416093,0.82226557,0
-6.4879007,-1.8806624,-2.9630075,-0.87956548,-0.25496164,-0.40169528,0
-4.9493098,4.8729849,2.0409076,-0.68367577,0.6731326,0.28192195,0
2.4658358,-1.3544014,6.8600702,0.33256787,-0.18266843,0.9252193,0
-0.96945852,-3.6167505,6.126019,-0.13502674,-0.50374305,0.85323542,0
1.6886083,3.8876772,5.8794622,0.23297575,0.53637928,0.81118405,0
-0.23995167,4.9258142,5.4336209,-0.03270011,0.67127967,0.74048251,0
-0.12215997,-7.1447945,0.66827297,-0.017020991,-0.9955101,0.093112893,0
3.9601994,0.91738319,-6.0760684,0.54171407,0.12548847,-0.8311429,0
3.8398414,-5.5704226,2.3587263,0.5359146,-0.77744639,0.32920003,0
0.56719071,-5.1027122,5.3054304,0.07682509,-0.69115436,0.71861225,0
6.2746873,-2.4608624,-2.8670807,0.85667592,-0.33597875,-0.39143926,0
4.2317681,-1.5633261,-5.8166265,0.5748868,-0.21237826,-0.79019022,0
-6.8411093,2.1753273,0.20306303,-0.95260066,0.30290675,0.028275819,0
-6.278244,0.43651673,-4.1242137,-0.83438885,0.058013782,-0.54811472,0
-5.2703528,1.8173045,4.9582167,-0.70640844,0.24358128,0.66457146,0
5.4666281,-4.5918307,-0.22618626,0.76533031,-0.64285827,-0.031666175,0
1.9742705,2.4425955,-6.6207681,0.26941714,0.33332673,-0.90349752,0
7.0010438,2.012965,0.23241493,0.96057451,0.27618781,0.031888369,0
-0.69224548,-7.1686916,0.34935987,-0.096005119,-0.99420094,0.048451506,0
0.97221112,7.139657,-1.8875247,0.13052148,0.95851463,-0.25340435,0
-5.3582091,-4.3571782,-2.0642498,-0.7433607,-0.60448462,-0.28637967,0
-4.5807018,-5.6397886,-0.77228272,-0.62692624,-0.77187544,-0.10569653,0
4.9755187,-3.3158834,-4.0719681,0.6877895,-0.45837027,-0.56288743,0
4.3902726,-5.0665097,-2.8315344,0.60326892,-0.69619089,-0.38908213,0
-0.79430544,-7.4298258,-0.41305235,-0.10613989,-0.99281818,-0.055194549,0
4.2077861,-3.0115013,5.4052372,0.56233329,-0.40246046,0.72236204,0
-1.9107347,7.0534363,-1.6855803,-0.25478035,0.94051629,-0.22475792,0
-2.6612983,-1.4820561,6.6863251,-0.36220396,-0.20170856,0.91001207,0
1.8107576,-6.8956947,-0.72751802,0.25266972,-0.96221226,-0.10151649,0
2.7494619,-3.5086927,5.7960629,0.37602237,-0.47985643,0.79268217,0
5.2274594,-3.036963,3.9373469,0.72455478,-0.42093986,0.54573804,0
5.5939465,-4.8788285,1.4335473,0.73996162,-0.64536655,0.1896282,0
1.6426313,-5.5297318,-4.4518871,0.22542982,-0.75888389,-0.6109637,0
-4.6998177,-5.5665793,0.084769763,-0.64506912,-0.76403564,0.011634995,0
-6.3464789,-2.7060113,-2.6554303,-0.85848242,-0.36603966,-0.35919765,0
6.6370912,0.52650112,-2.6758614,0.92496014,0.073374398,-0.37291414,0
-5.6367888,3.3023734,3.2309346,-0.77341205,0.45311177,0.44330978,0
-6.4042134,-1.9933296,3.2236969,-0.86057979,-0.26785791,0.43319112,0
4.2215881,5.6532063,-1.8315192,0.57914251,0.77554041,-0.2512587,0
6.4912691,-1.154646,3.2951207,0.88068247,-0.15665296,0.4470551,0
-2.1073279,-6.80685,2.1050932,-0.28362277,-0.91612589,0.28332201,0
0.15247005,-0.099861182,7.0941205,0.021485364,-0.014071968,0.99967015,0
1.1017687,7.3618989,0.026478056,0.14800893,0.98897964,0.0035569977,0
7.3321476,0.59485656,1.2221138,0.98324853,0.079770878,0.16388673,0
1.0552607,-6.3778009,3.0620413,0.14752613,-0.89162076,0.42807537,0
1.4981048,4.7249656,5.5433688,0.20145836,0.63539201,0.74544722,0
-4.0240359,1.2010764,-5.7966981,-0.56217211,0.16779464,-0.80981934,0
-1.7732966,6.2545924,-3.6288245,-0.23817582,0.84006965,-0.48739633,0
-3.1468453,-1.6579746,-6.3695393,-0.43134779,-0.22726369,-0.87309241,0
4.2323203,-5.5328655,-2.5689914,0.57003933,-0.74520612,-0.34601024,0
-0.36070049,2.2469811,-6.8235583,-0.050145689,0.31238222,-0.948632,0
7.1773043,1.5675961,0.45330489,0.97511476,0.21297497,0.061586395,0
-2.2085879,3.1407442,-6.1488643,-0.30466712,0.43325487,-0.84821475,0
-4.0308928,-1.2419699,-5.7790995,-0.56339723,-0.17358994,-0.80774385,0
4.0313601,5.8050585,1.9081722,0.55068451,0.79297203,0.26065668,0
4.0096064,4.1549382,-4.3449516,0.55486488,0.57497644,-0.60127127,0
6.662189,-2.5560632,-0.94425994,0.92557323,-0.35511205,-0.13118537,0
4.627388,-4.0518355,-3.4648685,0.65549129,-0.57396156,-0.49081492,0
-1.3214003,1.4415183,6.9800954,-0.18229106,0.1988617,0.96292472,0
4.736958,5.5129657,-1.1083059,0.64426112,0.74980384,-0.15073775,0
0.98000568,-3.3076122,6.312254,0.13623644,-0.45981094,0.87750417,0
6.3933268,1.687011,-3.2553227,0.86747307,0.22890064,-0.44169566,0
4.2227144,5.7826757,0.88899463,0.58524215,0.80144316,0.12320916,0
3.0112762,6.3298593,-2.753469,0.39984891,0.84050316,-0.36561626,0
6.4147282,-0.35731137,-3.7129343,0.86447239,-0.048152596,-0.50036871,0
4.0747862,-1.4877746,-5.7607756,0.56505001,-0.2063095,-0.79884595,0
-1.2435905,4.0271702,-6.0923996,-0.16786596,0.54360723,-0.82238203,0
6.8512144,-0.15387756,2.0656393,0.95720893,-0.021498812,0.28859824,0
-4.2630954,-3.2155612,-4.960144,-0.5849368,-0.44120523,-0.68057841,0
2.7842867,6.5387588,-1.7672377,0.38019556,0.89287031,-0.24131706,0
1.8049555,6.4520125,-2.9351876,0.24676462,0.88208735,-0.40128437,0
-2.2355216,-2.0052085,6.5233984,-0.31129134,-0.27922076,0.90836853,0
-4.8382859,4.745698,-2.1671593,-0.67998511,0.66697258,-0.30457813,0
-0.14473364,6.3599219,-3.3913507,-0.020076578,0.88221008,-0.47042775,0
2.6126606,-4.9391403,-4.7729149,0.35553208,-0.67212051,-0.64950049,0
2.6414967,-6.1806378,-3.3289838,0.3521685,-0.8240124,-0.44382536,0
7.1091709,-0.82881594,0.69537568,0.9886176,-0.11525705,0.096700534,0
0.70134366,-7.1855493,-1.7691066,0.094351768,-0.966672,-0.23799793,0
1.3377701,-7.1927671,-0.89792222,0.18149073,-0.97581834,-0.12181807,0
4.6374731,-2.2763841,5.2636285,0.62879115,-0.30865306,0.71369106,0
-2.2841582,-1.8091701,-6.6085501,-0.31625924,-0.25049347,-0.91500443,0
-4.6315999,-2.1142094,5.1851406,-0.63735902,-0.29093844,0.71353227,0
-0.76428872,-4.0722799,-6.08606,-0.10380705,-0.55310428,-0.82661945,0
-1.107563,7.1864676,-0.74072129,-0.15153527,0.98324281,-0.10134449,0
0.13868335,6.3119974,3.9520495,0.018619116,0.84742558,0.53058761,0
0.67115086,-1.8385911,6.988111,0.092482798,-0.25335294,0.96294302,0
-2.6976829,-6.9764504,-0.20042835,-0.36052996,-0.93236291,-0.026786109,0
-2.7721066,-1.1040854,-6.5421281,-0.38552451,-0.1535482,-0.90983176,0
6.6841545,2.72457,1.0933032,0.91558164,0.37320596,0.14975841,0
6.8138204,-0.89091355,-2.8007276,0.91822499,-0.1200588,-0.37742382,0
-3.8198826,-0.41195568,5.9438906,-0.53972185,-0.058206361,0.83982879,0
2.3284469,-5.9776154,-3.6727483,0.31499273,-0.80865294,-0.49685007,0
-4.6835513,5.3403068,-1.3734316,-0.6473735,0.73815209,-0.18983953,0
-3.7587218,-2.1761742,-5.8377905,-0.51657546,-0.2990799,-0.80230981,0
-1.3465301,1.9909048,-7.0859222,-0.17995831,0.26607642,-0.94700497,0
-6.7761908,-1.6410494,-1.7217721,-0.94355869,-0.22850987,-0.23975019,0
-0.37602219,7.1721368,0.27269801,-0.052318588,0.99790937,0.037942376,0
3.8748617,2.4077098,5.8811789,0.52059716,0.32348171,0.79015076,0
-7.0987267,-0.87241751,1.4096466,-0.97379857,-0.11967765,0.19337438,0
-5.0955582,5.4830289,-0.49146435,-0.67928785,0.73094153,-0.065517016,0
6.1069174,0.62156785,3.6440489,0.85547602,0.087071165,0.51046973,0
-5.483048,-3.6711912,-3.3468783,-0.74106711,-0.49618372,-0.45235085,0
5.8266034,1.0655853,4.2139759,0.80153835,0.14658754,0.57969677,0
-1.8758718,2.4675977,6.5506878,-0.25884697,0.34049779,0.90391344,0
1.4264876,-4.6969166,5.1296015,0.20091632,-0.66154605,0.72248834,0
1.6391792,2.0213146,-6.6960678,0.22817063,0.28136316,-0.93207991,0
-6.4211979,-3.4348314,-0.62304592,-0.87856132,-0.4699606,-0.085246406,0
-5.926332,4.2628694,-0.55474585,-0.80946612,0.58225703,-0.075771652,0
-0.27054024,0.28811595,-7.403091,-0.036492262,0.038862988,-0.99857795,0
-2.5201969,2.7165072,-6.0593886,-0.35482714,0.38246632,-0.853122,0
3.3800516,6.2535195,-1.2867452,0.46788841,0.86565226,-0.17811953,0
-6.5519419,-1.6135818,-2.6833529,-0.90226275,-0.22220507,-0.36952242,0
-7.1984553,0.06263914,1.7466424,-0.97176701,0.0084560709,0.23579079,0
-3.1360164,2.5964465,-6.1352124,-0.42590302,0.35262394,-0.83322448,0
-4.0320673,1.3465134,5.9947939,-0.54865313,0.18322332,0.81572604,0
-0.81347018,-7.0894938,1.164591,-0.11250668,-0.9805097,0.16106831,0
7.3884988,0.39014208,-0.84996969,0.99208385,0.052385967,-0.1141289,0
6.6831717,1.0881314,2.3781557,0.93123716,0.15162089,0.33137366,0
-7.1545501,1.989542,0.47300223,-0.96149415,0.26737294,0.063566387,0
4.4238329,-4.7089715,-3.4119864,0.60545731,-0.64448214,-0.46697336,0
5.1323867,-5.2432532,1.5548066,0.68431503,-0.69909716,0.20730658,0
5.7929945,-4.1521378,-1.167271,0.80209875,-0.57490551,-0.1616205,0
-6.2180705,-3.9973886,-0.76750326,-0.83667731,-0.53787172,-0.103272,0
-5.1954732,-3.8484731,3.3150864,-0.7150476,-0.52966136,0.45625189,0
3.3361623,3.1339443,-5.8903561,0.4472217,0.4201138,-0.78961837,0
-5.0589008,4.7658982,1.4619088,-0.71228504,0.67103076,0.20583439,0
7.025485,-1.1508729,0.3558659,0.98561597,-0.16145772,0.049924966,0
-6.2693844,4.0542383,0.26113543,-0.83920491,0.54269069,0.034954969,0
-3.3033342,6.374825,1.6780101,-0.44801062,0.86457777,0.22757804,0
6.9102097,0.86602336,-2.2740042,0.94322866,0.11821031,-0.31039664,0
5.3468251,-2.758795,4.061336,0.73657274,-0.38004857,0.5594852,0
0.18230279,-2.9121418,6.6772294,0.025017813,-0.39963964,0.91633087,0
-5.5946255,-4.2997274,-1.8865771,-0.76597989,-0.58869088,-0.25829792,0
-0.61458331,-5.8668551,-4.1764121,-0.085031271,-0.81171447,-0.57783157,0
-7.0957589,-1.6025686,-0.75859684,-0.97017121,-0.21911201,-0.10371953,0
-7.1561933,1.4681654,-0.94915444,-0.97143137,0.19929896,-0.12884481,0
6.8784008,2.6997948,1.3771371,0.91510671,0.35918236,0.18321517,0
-1.1509956,6.7636886,2.4618475,-0.15790345,0.92790079,0.33773735,0
4.2144756,2.3744955,-5.5305047,0.57358909,0.32316825,-0.75270033,0
-1.888293,4.444437,5.3724618,-0.26140204,0.61525667,0.7437259,0
3.4364743,0.99586868,6.5139694,0.46239609,0.13399948,0.87648958,0
-6.9129672,2.2048306,-0.12529427,-0.95257449,0.30381534,-0.017264964,0
-1.799927,-4.067678,5.7990704,-0.24627677,-0.55656403,0.79346347,0
4.6598568,5.3383818,1.5443664,0.64252406,0.73608243,0.21294487,0
-2.2464764,-6.9969473,1.5259113,-0.29931122,-0.9322443,0.20330611,0
-2.9704459,3.1469965,5.8107624,-0.40999135,0.43435949,0.8020218,0
7.0289135,-0.5380165,1.1293833,0.9845286,-0.075359106,0.15819091,0
3.9036312,-4.4564719,-3.976059,0.54711396,-0.62459743,-0.5572651,0
1.3551643,6.9849062,-1.4381529,0.18668643,0.96223551,-0.19811888,0
-0.69180804,6.4561272,-3.6526682,-0.092860423,0.86659688,-0.49029252,0
3.6648793,-3.8744638,-5.0577483,0.49861783,-0.52713245,-0.68812186,0
0.053312112,-7.3475051,1.3196449,0.0071413587,-0.98422605,0.17677142,0
-4.7461982,-4.4875231,3.7835224,-0.6287635,-0.59449494,0.50123084,0
-3.525069,5.6626749,-3.0983057,-0.47929525,0.76994044,-0.42126927,0
-3.078512,5.6819286,3.4350915,-0.42064419,0.7763719,0.46936679,0
-2.4673443,4.1462407,-5.4611835,-0.33858496,0.56897402,-0.74941897,0
-0.98929226,7.2273288,0.35740197,-0.13545504,0.98957425,0.048935894,0
-3.2974997,-2.654108,-6.0585861,-0.44616139,-0.35910863,-0.81974453,0
-2.9045973,-3.231071,-5.8600006,-0.39816615,-0.44291961,-0.80329686,0
6.4173694,2.207618,-1.9856795,0.907561,0.31220704,-0.28081992,0
4.8044057,-0.28751633,-5.697288,0.64418155,-0.038550597,-0.76390052,0
-6.7722087,0.64859796,2.5436921,-0.93240207,0.089299388,0.35021716,0
1.8510211,-1.2945825,6.9437032,0.25349975,-0.17729478,0.95094925,0
-3.1424525,4.2186975,5.2207713,-0.42400247,0.56921726,0.70442432,0
6.2616205,-3.1192632,2.0034602,0.86049312,-0.42865974,0.27532229,0
5.0175424,-3.4042308,-4.2289033,0.67873985,-0.46050179,-0.57205802,0
3.624368,-1.7870853,-5.9153376,0.50592369,-0.24945833,-0.82571894,0
5.5551596,-0.78991693,4.8613176,0.74826771,-0.10640007,0.6548087,0
1.5534453,7.1550469,-1.5606245,0.2075074,0.95576274,-0.20846638,0
-0.64812523,7.1577673,1.9184208,-0.087129004,0.96223551,0.25789782,0
-6.2351727,1.4756485,-2.9740899,-0.88266855,0.20889693,-0.42102051,0
-5.0427318,-1.9629345,4.9075847,-0.69028896,-0.26870197,0.67178893,0
1.6854063,-6.8509798,-1.6076725,0.23291641,-0.94677806,-0.22217391,0
-3.7903585,-0.53109062,-6.3422031,-0.51168567,-0.071695447,-0.85617614,0
-0.99934727,7.3991709,-0.14063743,-0.13382304,0.99082631,-0.018832821,0
-6.0161276,-2.923219,-2.8376851,-0.82800931,-0.40232733,-0.39055517,0
5.7302818,4.5344276,-1.656305,0.76478225,0.60517961,-0.22105591,0
2.8343964,-4.7334342,-4.822957,0.38678798,-0.64593488,-0.65815133,0
0.0058946144,5.3342967,-4.8886375,0.00081467128,0.73723197,-0.67563921,0
0.32712746,-6.8414969,-1.9714935,0.045897145,-0.95988631,-0.27660754,0
-2.1712508,-6.1778269,3.3048995,-0.29601237,-0.84223944,0.45056567,0
0.56477296,7.3518028,-1.0355139,0.075850993,0.98737293,-0.13907315,0
1.4286243,7.113821,0.88874209,0.19543208,0.97315222,0.12157761,0
-3.3043635,-0.4904457,-6.5652413,-0.44858104,-0.066580035,-0.89125872,0
-6.0561352,-0.1405936,4.0444231,-0.83145148,-0.019302204,0.55526197,0
1.3102639,6.6497226,-2.7152147,0.1794579,0.91076714,-0.37188444,0
3.966562,5.8756614,-0.23555824,0.55921173,0.82835943,-0.033209346,0
1.4880751,2.6804335,6.6423202,0.20340836,0.36639452,0.9079538,0
3.462563,-5.6574306,-3.2154551,0.46974027,-0.76750171,-0.43621698,0
0.49458823,-6.1495595,-4.2613578,0.06596218,-0.82015365,-0.5683282,0
2.3517737,5.6615858,-3.7078722,0.32824525,0.79020727,-0.51752061,0
2.7802534,-5.0670357,4.3506036,0.38432536,-0.70043623,0.60140103,0
-7.1271963,0.26785645,2.1070888,-0.95834702,0.036016889,0.2833263,0
-2.1626153,3.2432475,-6.3090668,-0.29160729,0.43731987,-0.85071528,0
3.175324,3.5208769,-5.3527026,0.44406572,0.49239093,-0.74856985,0
-1.4400415,0.057578325,7.1080632,-0.19855258,0.0079388861,0.98005807,0
0.59684372,7.2301106,1.5592426,0.080433093,0.97435921,0.2101299,0
5.537725,-2.0700438,-4.1382418,0.76737982,-0.28685242,-0.57344908,0
5.1871247,3.8549101,-3.538115,0.70402384,0.52320868,-0.48021156,0
-4.5957317,-4.0095115,4.2777576,-0.61691207,-0.53822029,0.57422853,0
-6.5303712,2.2831302,-2.1103287,-0.90289563,0.31566784,-0.29177615,0
-4.5629907,3.7038131,4.2955694,-0.62682801,0.50880092,0.59009176,0
-2.9614429,-0.11615393,-6.7831635,-0.40006736,-0.01569147,-0.91635138,0
2.3195438,5.8689442,-3.6665838,0.31780946,0.80412626,-0.5023725,0
4.7764406,-1.2694063,5.235642,0.66340911,-0.1763103,0.72718847,0
0.88218129,6.9558659,-2.3362842,0.11936579,0.94118118,-0.31611687,0
-0.10418892,-2.5218363,-6.8002396,-0.014363881,-0.34766996,-0.93750691,0
2.3753104,4.3482018,5.2718945,0.32831892,0.60101485,0.72868907,0
0.4510709,-3.7141259,-6.0874991,0.063128009,-0.51979715,-0.8519541,0
-0.80497086,0.73117959,7.1906972,-0.1106875,0.10054084,0.98875666,0
0.10394388,-2.9477229,-6.811491,0.014003539,-0.39712343,-0.91765839,0
-5.482336,3.6857133,2.8849795,-0.76052946,0.51129544,0.40021479,0
4.9977741,1.4994158,5.2367468,0.67605728,0.20282847,0.7083835,0
5.2726989,-4.4946613,-1.7434788,0.7380141,-0.62911302,-0.24403287,0
6.9187732,1.7828897,1.6049953,0.94481975,0.24346939,0.21917632,0
-5.4058514,2.7311769,4.1779628,-0.73470551,0.37119234,0.56782401,0
-1.067502,-6.2519155,-3.6512389,-0.14586744,-0.85428488,-0.49891883,0
-2.051986,-6.761188,2.1024101,-0.2783536,-0.91716075,0.28519365,0
0.40761018,-7.4123826,0.10337972,0.054902162,-0.99839467,0.013924505,0
-5.0195031,-0.082601979,5.3252683,-0.68586326,-0.011286708,0.72764289,0
2.6650267,4.346859,-5.5480466,0.35367966,0.57687813,-0.73628956,0
4.9331112,-4.5023093,2.7688756,0.6823104,-0.62272519,0.38296983,0
-1.8563977,5.2595477,-4.7203999,-0.25405988,0.71980268,-0.64601684,0
-2.3644257,5.4518476,4.3361683,-0.32141402,0.74111027,0.58944768,0
-1.8865578,-5.867332,4.0305514,-0.25618294,-0.79674757,0.54732406,0
7.1753917,-0.023544759,-0.21658997,0.99953938,-0.0032798087,-0.030171202,0
2.9065716,-2.1134243,-6.4706464,0.39269397,-0.28553537,-0.87422025,0
-0.91637927,-0.37468177,7.1147914,-0.12757005,-0.052159816,0.99045706,0
4.9787488,-3.5949221,-3.6540458,0.69673097,-0.50307691,-0.51135075,0
-3.2303216,6.3867183,-0.51399493,-0.45018095,0.89005965,-0.071630865,0
5.9160604,0.77348202,-4.1489086,0.81408244,0.10643538,-0.57091266,0
1.0717928,2.0446711,7.0660415,0.14418226,0.27505812,0.95055485,0
3.7134094,-5.1816883,3.5075858,0.51035315,-0.71214634,0.48206571,0
-5.1974049,0.060626101,4.9972816,-0.72082305,0.0084081749,0.69306809,0
-3.2418859,2.5239928,6.3011103,-0.43097249,0.33553663,0.83766216,0
-7.0981264,0.31859767,-0.40190923,-0.99739981,0.044768047,-0.056474648,0
4.8960109,1.2204403,5.4357219,0.66013312,0.16455296,0.73290282,0
-2.4089689,-2.7299297,-6.1839495,-0.33569181,-0.38041794,-0.86173844,0
0.45816204,6.2793951,3.4165447,0.063959241,0.8766011,0.47694829,0
1.5774144,5.0898848,-5.0302939,0.21525964,0.69458401,-0.68645203,0
6.5215478,3.123359,1.0855123,0.89190531,0.4271594,0.14845774,0
4.3382068,3.8496594,-4.7703295,0.57767856,0.51262331,-0.63522035,0
-7.1189427,-0.5761987,-1.6576227,-0.97093385,-0.078586221,-0.22607879,0
-1.1766936,6.7198644,2.8063853,-0.15951303,0.91094738,0.38043466,0
-2.0420358,-4.623137,-5.3187304,-0.27831864,-0.63010901,-0.72491473,0
-2.967638,3.1051669,-5.7506742,-0.41345325,0.43261385,-0.80118763,0
3.367116,-4.089354,-5.0715647,0.45913818,-0.55762219,-0.69155592,0
-5.3296347,2.3164012,-4.5816326,-0.72020727,0.31302127,-0.61912781,0
1.9172814,1.35855,-6.6958098,0.27018574,0.1914486,-0.94358206,0
0.057050444,3.9583082,-6.1219468,0.0078254379,0.54294926,-0.83972907,0
3.260824,1.6988332,6.3407578,0.44487941,0.23177452,0.8650797,0
2.0098639,-1.4892552,-6.8133297,0.27691618,-0.20518745,-0.93873084,0
2.2554545,6.1796265,-3.3837674,0.30488932,0.83535361,-0.45741314,0
-0.97990751,3.8790123,-5.9980726,-0.13590986,0.53800589,-0.83191234,0
-1.8728906,6.5074635,-2.7606444,-0.25611389,0.88988209,-0.3775124,0
-4.0562553,5.5580525,2.1211224,-0.56334537,0.77191961,0.29458806,0
-3.5886919,-6.3020082,-0.024670258,-0.49484077,-0.86897695,-0.0034017547,0
-0.73091894,6.6982927,-2.9836526,-0.099187076,0.90897095,-0.40488729,0
3.3534904,0.73316187,-6.5344315,0.45432818,0.099328183,-0.88527954,0
0.34005854,-5.5091939,-4.7668881,0.046627097,-0.75539261,-0.65361142,0
5.0748353,-2.0998647,-5.0188017,0.68211287,-0.28224459,-0.67458135,0
-3.7275167,6.2558532,1.4123545,-0.50250483,0.84334874,0.19039887,0
0.72380561,-7.2011595,-0.52690101,0.099744484,-0.99236023,-0.072609924,0
-6.8874946,1.9310142,0.35119855,-0.96171421,0.26963124,0.049038533,0
-4.7970386,-2.6926599,-4.9195395,-0.65000838,-0.36486083,-0.6666075,0
0.95669824,4.4057431,-5.7648735,0.13072428,0.60200548,-0.78771853,0
-5.4498115,2.6525037,-4.1749792,-0.74048352,0.36040425,-0.56726795,0
-2.3340495,-7.0104733,-0.1105642,-0.31585437,-0.9486897,-0.014962059,0
-1.6085203,7.2967134,-0.67799473,-0.21439499,0.97255766,-0.090367943,0
-6.4381771,2.0702217,2.337441,-0.89976633,0.28932348,0.32666865,0
1.5145783,6.9539709,1.9272768,0.20541295,0.94312435,0.26138473,0
-0.52202004,-6.3204818,3.7384946,-0.070908487,-0.85854131,0.50781763,0
1.7840655,6.2383871,-2.949542,0.25031003,0.87526542,-0.41383007,0
4.1215749,-5.0817275,3.3772812,0.55974984,-0.69014794,0.45866755,0
-7.1649437,0.20907524,-2.255743,-0.95347571,0.027822712,-0.30018327,0
-3.2407901,-6.5122347,1.0524347,-0.44093591,-0.88604259,0.14319232,0
-3.3544116,-2.6695068,5.7237206,-0.46907133,-0.3732962,0.80038869,0
-0.38001353,0.92516619,7.2205534,-0.052131668,0.12691773,0.99054235,0
2.7921436,6.5945992,-0.94986695,0.38650611,0.912866,-0.13148656,0
-1.0210277,-4.0125475,5.7471604,-0.14414611,-0.56648135,0.81136966,0
2.3718359,4.99402,4.9078484,0.32083249,0.675529,0.66387278,0
-4.0813594,-3.8540883,4.7149763,-0.55673164,-0.52572995,0.64316231,0
-0.9385373,3.4533179,-6.3623428,-0.12857199,0.47307649,-0.87158924,0
-4.2174358,-2.0589855,5.8478336,-0.56245804,-0.27459645,0.77989596,0
-0.12108558,6.5582194,-3.1625235,-0.016628234,0.90061599,-0.43429762,0
5.1414528,-3.3092084,-4.1820478,0.69406301,-0.44672179,-0.56454951,0
-2.5535905,-5.7089396,-3.7959812,-0.34904701,-0.78034765,-0.51886779,0
1.9721652,0.48189622,-7.1103263,0.2667076,0.065169685,-0.96157157,0
3.0558047,-2.3675661,-6.2599835,0.41534001,-0.32179573,-0.85084677,0
-0.95282876,-2.340378,-6.7608967,-0.13201308,-0.32425606,-0.93671268,0
2.9558775,3.6861758,5.7001176,0.39923722,0.49787533,0.76988947,0
3.9577401,5.7532506,1.4435527,0.55502522,0.80682385,0.20244083,0
0.79889411,6.5273118,-2.8980997,0.11116893,0.90829843,-0.40328076,0
-4.6444416,2.7418358,4.8969426,-0.63755095,0.37637681,0.67221224,0
3.2494268,0.92711341,6.5976052,0.43836504,0.12507255,0.8900522,0
1.5696794,-7.2588658,0.52542508,0.21083088,-0.97497177,0.070572264,0
1.3370348,-6.4069576,3.0939221,0.18468826,-0.88501042,0.42737186,0
-6.39992,-2.7765992,2.3667245,-0.86875069,-0.37690666,0.32126865,0
4.3004298,-1.2764667,-5.5405478,0.60324174,-0.17905606,-0.77719903,0
-6.72891,-2.978231,-0.19513087,-0.9141143,-0.40458909,-0.026508292,0
6.0428972,-3.400835,-2.6945696,0.8122952,-0.45714527,-0.36220804,0
1.4610291,-0.62244248,7.1063786,0.2006449,-0.085480779,0.97592759,0
-3.9222555,-2.480526,-5.7242823,-0.53225279,-0.3366091,-0.77678907,0
1.9487503,4.0932164,-5.9957752,0.25925472,0.54454678,-0.79765642,0
-4.0786805,-5.3963194,2.8119214,-0.55677927,-0.73664969,0.38385439,0
0.65226477,3.9301579,-6.1530185,0.088983715,0.53616273,-0.83941138,0
-6.7650423,1.8966333,-2.2948034,-0.91528916,0.25660858,-0.31047976,0
-6.9746432,1.6750282,-1.5930635,-0.94922352,0.22796524,-0.21681014,0
4.7141438,5.7728086,-0.5637421,0.63070744,0.77234668,-0.075423315,0
-4.7971411,4.3539405,-3.4338672,-0.65425891,0.59381288,-0.46832854,0
6.8070602,-2.2044275,-1.7291597,0.92473608,-0.29947048,-0.23490557,0
1.3904768,-6.9955292,-1.1338273,0.19253509,-0.96864957,-0.15699761,0
4.0036287,-1.856799,-5.8429737,0.54676688,-0.25357899,-0.79796219,0
3.1505754,-2.5371261,-5.8052549,0.44527325,-0.35857397,-0.82046115,0
5.0134649,3.2069283,4.3484383,0.6801827,0.43508774,0.58995771,0
-6.2341018,2.2563863,-3.214808,-0.84608269,0.30623326,-0.43630877,0
3.4029696,2.0419443,6.1143208,0.46684113,0.28012699,0.83880162,0
-5.5868049,-2.9445605,3.8737628,-0.75408685,-0.39744622,0.52286661,0
6.2529488,-1.7057688,-3.1802959,0.8661018,-0.23626764,-0.44050577,0
-5.5301542,-1.9967029,4.1053386,-0.77118319,-0.27844137,0.57249182,0
-6.1305056,3.3146882,-1.8834351,-0.84918857,0.45914572,-0.26089066,0
4.5670953,-1.1071476,5.5645332,0.62705392,-0.15200935,0.76400036,0
-2.6085219,-6.2656684,3.0427749,-0.35070962,-0.84240431,0.40909389,0
-3.5258336,-4.1498885,-4.9038315,-0.48114067,-0.56630015,-0.66918439,0
5.2321467,2.161463,-4.3481383,0.73298067,0.30280316,-0.60913837,0
-3.6767745,4.8700809,3.8638055,-0.50906813,0.6742875,0.53496355,0
5.0893779,1.2179168,5.2352071,0.68754989,0.16453457,0.70725065,0
5.1644635,-4.3982382,2.586786,0.71135831,-0.60581768,0.35630646,0
4.2890015,-5.8917437,-0.60775858,0.58650333,-0.80567169,-0.083108485,0
-7.1334658,-0.1423586,1.9075775,-0.9658758,-0.019275445,0.25828722,0
5.7524285,0.8012777,4.5657921,0.77864355,0.10846023,0.61802149,0
-1.464021,1.2480952,-6.9497385,-0.20302325,0.17307971,-0.96375567,0
6.345077,2.9977567,-2.444433,0.85385007,0.40340486,-0.32894468,0
-4.9212985,-5.5529361,0.22677924,-0.66295099,-0.74803925,0.030549563,0
1.3959413,-5.7481456,4.4603968,0.18842582,-0.7758916,0.60206968,0
3.4709044,6.4073281,1.486007,0.4667064,0.86154521,0.19981219,0
7.0067596,-0.40320292,-1.4568079,0.977512,-0.056250781,-0.20323905,0
6.2331491,-0.80990791,-3.5581896,0.86298263,-0.11213216,-0.49263313,0
-2.2329419,6.9117303,1.7140386,-0.29920271,0.92613626,0.22967234,0
-4.4718318,3.1658843,-4.6715946,-0.62106442,0.43968961,-0.64880818,0
4.287775,5.8873963,1.0116014,0.58311558,0.80065596,0.13757265,0
0.6938526,-5.9045091,-4.35395,0.094158851,-0.80126786,-0.59085017,0
0.024035335,-5.4247274,4.998311,0.0032584073,-0.73541611,0.67760795,0
6.4499407,1.2003999,3.6428006,0.85951328,0.1599642,0.48543632,0
1.4079159,1.6391386,-7.112916,0.18939179,0.22049569,-0.95682412,0
3.169044,2.3211286,5.9406924,0.44496801,0.32591152,0.83413738,0
-2.0245283,6.8252678,0.82151222,-0.28250122,0.95239294,0.11463322,0
1.8777226,-1.6015204,7.0474582,0.25146657,-0.21447729,0.94380295,0
-0.91830415,-7.3766494,-0.3360734,-0.12340838,-0.9913277,-0.045163982,0
-6.6063213,-0.58357358,-3.1286445,-0.90090656,-0.079582155,-0.42665443,0
3.965564,-6.0426526,-0.21180119,0.54842812,-0.83568454,-0.029291602,0
3.6860108,3.192915,-5.4667196,0.50315911,0.43584904,-0.74623483,0
-0.25939208,5.2399025,-4.9849129,-0.035842814,0.72405005,-0.68881553,0
3.4960058,-2.2199774,-6.1703472,0.47044626,-0.2987352,-0.83032376,0
-6.6082048,-1.1976488,2.9618101,-0.90030491,-0.16316824,0.40351841,0
-0.80648196,-6.2406936,-3.916672,-0.10880835,-0.84197736,-0.52842671,0
-3.2917306,-3.7426016,-5.4449806,-0.44592768,-0.50700676,-0.73762643,0
-2.1865087,-6.7884874,1.7631559,-0.29762027,-0.92402631,0.23999491,0
-3.7368231,4.6675682,-4.0774655,-0.51634187,0.6449492,-0.56341076,0
5.2673707,3.229867,-3.6225317,0.73541981,0.45094761,-0.50577068,0
1.2091293,6.9916668,-0.53162265,0.16993283,0.98261923,-0.074715033,0
1.9313465,6.4515629,2.8150053,0.26460025,0.88388342,0.38566414,0
4.014358,-5.0043449,3.0206831,0.56611574,-0.70572639,0.42598498,0
-4.9416847,-1.5002002,5.2472129,-0.67121089,-0.20376667,0.71270967,0
-3.9656806,5.5970712,-1.6354876,-0.56235999,0.79370207,-0.23192306,0
3.1089919,-1.5746962,-6.4068036,0.42627892,-0.21590915,-0.87844723,0
-6.9043012,-1.5662314,2.1766691,-0.93216002,-0.21145923,0.29387534,0
6.9160385,1.6162655,-1.1560959,0.96111298,0.22461034,-0.16066116,0
-0.38880748,6.3036017,3.7340367,-0.052993678,0.85916823,0.50894171,0
-2.4945381,5.2449322,-4.2121086,-0.34769353,0.73104876,-0.58709186,0
1.0675151,-6.70959,-2.6222012,0.1465873,-0.92133653,-0.36007115,0
-0.9116534,5.0435753,5.0384836,-0.12684496,0.70174927,0.7010408,0
6.2141953,1.0215968,3.844702,0.84220809,0.13845672,0.52107131,0
-2.1740415,4.2173309,-5.5210633,-0.29864314,0.57932514,-0.75841594,0
-2.9168882,6.7467074,0.11892411,-0.39678964,0.91776699,0.016177464,0
1.9076774,-7.1955047,0.44965813,0.25580102,-0.96484739,0.060294792,0
3.3837531,-6.4606118,-1.2758083,0.45702624,-0.87260181,-0.17231691,0
-1.7809954,-1.6799691,6.9003654,-0.24324436,-0.22944643,0.94243646,0
-5.6262674,4.4014077,1.459956,-0.77167243,0.60367644,0.20024073,0
3.0710013,-1.2307991,6.4620624,0.42301673,-0.16953708,0.89012027,0
4.7922316,-1.6566459,5.0999136,0.66636533,-0.23035853,0.70914888,0
-3.0020149,-6.4783306,-1.3527385,-0.41309661,-0.89146006,-0.18614554,0
2.0599813,4.3647442,-5.4021049,0.28436607,0.60252249,-0.74572289,0
1.1308959,-5.7556043,4.3614912,0.1547163,-0.78741628,0.59668958,0
-5.2252851,-1.193602,4.9609146,-0.71546388,-0.16343206,0.67926538,0
3.5292466,3.0595343,5.6994653,0.47894004,0.41519725,0.77345181,0
1.0157578,1.4131695,7.0761733,0.13939226,0.193929,0.971062,0
-1.4920819,-0.071165539,6.9810586,-0.20900179,-0.0099684382,0.97786444,0
-0.59646809,-1.9000679,6.9765401,-0.082212321,-0.26188993,0.96158969,0
-4.6405964,-5.0281057,2.868484,-0.62548101,-0.67771131,0.38662753,0
1.4201515,-0.19526312,7.3534288,0.18955943,-0.026063392,0.98152328,0
-6.5589828,2.7131598,-1.0070498,-0.91489941,0.37845322,-0.14047137,0
-6.1870165,2.1919239,2.7354162,-0.87006378,0.30824447,0.38467434,0
-0.43982986,7.2869883,1.5298457,-0.05896771,0.97696185,0.20510544,0
0.43384364,1.6508824,-7.048358,0.059823159,0.22764191,-0.97190553,0
-4.7864127,-4.0403976,-4.1054974,-0.63909984,-0.53948909,-0.54818147,0
-2.0007303,-3.9352822,5.5558357,-0.28194216,-0.55455846,0.78292626,0
0.81732988,-6.9559331,1.1679102,0.11510884,-0.97964042,0.16448291,0
-3.3820839,-6.0458016,1.8072821,-0.47240013,-0.84446084,0.25243616,0
3.0926137,-3.3984046,5.5825968,0.42772326,-0.47001559,0.77209979,0
6.9437604,-0.52903467,-1.6874844,0.96906489,-0.073831603,-0.23550379,0
6.7410836,-3.07427,-1.1137328,0.89974141,-0.4103269,-0.14865141,0
6.5320406,2.3031719,-1.5905724,0.91916668,0.32409456,-0.22381997,0
1.5048028,-2.4107766,6.6764617,0.20738368,-0.33224002,0.92011333,0
2.4691446,3.0752714,6.0487027,0.34194621,0.42588732,0.83767104,0
-1.5107635,-3.4859107,6.490725,-0.20087616,-0.46349832,0.86302847,0
3.9004979,-2.3611827,-5.8387876,0.52651531,-0.31872824,-0.7881586,0
3.2404056,-2.7029173,6.0499988,0.43930495,-0.36643714,0.8202042,0
4.8922076,5.5591068,0.46010506,0.65937108,0.74925572,0.0620129,0
-4.4061279,4.7737861,-3.0646524,-0.61341292,0.66459757,-0.42665517,0
-2.8595221,-4.98454,-4.7433205,-0.38376245,-0.66895068,-0.63657779,0
-7.2464743,0.65931612,-0.012716889,-0.99588495,0.090609998,-0.0017476856,0
-6.442657,2.9413242,2.3622139,-0.86294746,0.39396918,0.31640154,0
5.4219542,1.7238085,-4.6328301,0.73898345,0.23494591,-0.63143003,0
4.5541801,-5.4027514,1.9952965,0.62025392,-0.73582464,0.27174824,0
3.6040442,-5.8772559,2.2133856,0.49773562,-0.81167698,0.30567905,0
-0.32396817,-7.1799111,-1.1759061,-0.044484157,-0.98587555,-0.16146398,0
6.2470527,3.3921263,-1.0316405,0.86969137,0.4722392,-0.14362115,0
-2.2341163,2.226701,-6.5777855,-0.30625394,0.30523744,-0.90168655,0
1.0364509,4.2400618,-5.5695114,0.14647114,0.59920514,-0.78708285,0
-5.6156936,4.58041,0.5353874,-0.7728138,0.63034141,0.0736783,0
0.19196394,-6.9264197,-2.2206616,0.026382346,-0.95192462,-0.30519411,0
-2.9281402,5.1235847,-4.3534784,-0.3992914,0.69866985,-0.59365547,0
-0.93815804,6.567955,3.4228439,-0.12566541,0.87977153,0.4584868,0
-1.3325067,-6.6281319,2.6964898,-0.18307054,-0.91062641,0.37046558,0
6.5849538,-3.2140286,-0.76911825,0.89375865,-0.43623173,-0.10439042,0
1.7526311,6.5326967,-3.2070913,0.23413561,0.87270904,-0.42843831,0
1.8358576,-3.432482,-6.3060679,0.24772994,-0.46317783,-0.85093844,0
1.7859709,1.7910413,6.9328761,0.24200617,0.24269322,0.93943232,0
-0.99466181,5.4380245,-4.9581532,-0.13394403,0.7323001,-0.66767925,0
-6.7694998,-1.6518551,-2.6978056,-0.90596509,-0.22106847,-0.36104849,0
5.1824641,-0.98535943,-4.8700051,0.72183776,-0.13724545,-0.67831701,0
-6.9135041,-1.7347615,1.9918594,-0.93414271,-0.23439847,0.26913717,0
-4.9496121,2.0668714,5.1672621,-0.66456479,0.27751064,0.69378781,0
-3.8985307,0.27278006,-6.2047081,-0.53164959,0.037199505,-0.84614712,0
-6.7553353,-2.0668755,2.3955092,-0.90559471,-0.2770775,0.3211329,0
-6.8419337,0.99457031,-2.1229019,-0.94600856,0.13751552,-0.2935257,0
-0.55434006,-6.4708276,3.2530124,-0.076316737,-0.8908475,0.44784656,0
5.3260407,-1.5221401,4.6785502,0.73455679,-0.20993049,0.64525622,0
4.6328387,-4.2047939,-4.1599183,0.61662531,-0.55965304,-0.55368012,0
-5.0858631,5.1441321,-1.6819751,-0.68480003,0.69264585,-0.22647418,0
-3.8685904,-2.1428776,5.9090743,-0.52414787,-0.29033437,0.80060917,0
-1.7681121,-7.1289873,1.2770272,-0.23716608,-0.95624816,0.17129432,0
-0.73325884,-5.0122056,5.246676,-0.10054317,-0.68726486,0.71941507,0
0.14872755,6.3532858,3.538645,0.020446984,0.87344629,0.48649102,0
0.031762362,-4.6137629,-5.5333467,0.0044086445,-0.64039445,-0.7680335,0
-1.2469264,-3.4908662,-6.3626542,-0.16933382,-0.47406298,-0.86405456,0
3.6378188,3.4346583,5.2852268,0.4998616,0.47194591,0.72622693,0
1.5597591,-5.9257278,3.8718886,0.21518807,-0.81752747,0.53417498,0
-2.7919652,6.6691613,0.20770502,-0.3860051,0.92204952,0.028716402,0
6.3633485,2.9492977,-1.4423913,0.88868856,0.41189116,-0.20144059,0
6.2161918,2.1393001,-3.2310476,0.8486135,0.29205003,-0.44109172,0
0.83159477,7.0850773,-1.3778619,0.11445707,0.97515905,-0.18964288,0
-3.4841444,-0.99641204,-6.466104,-0.47004727,-0.13442633,-0.87234461,0
-0.85870141,2.1530597,-6.8182006,-0.11924006,0.29897583,-0.94678152,0
0.1965398,-6.5939822,2.5282044,0.027819684,-0.93336052,0.35786057,0
-3.0903742,-1.6796726,6.2342534,-0.43173432,-0.23465517,0.87094343,0
1.3035285,0.71824557,7.3077846,0.17478728,0.096307971,0.97988474,0
-3.4787087,5.9531398,-2.6233518,-0.47154784,0.80696332,-0.35560203,0
-0.082197428,-2.1949923,7.180254,-0.010946937,-0.29232597,0.95625609,0
-0.085012689,1.8537948,7.2446008,-0.011367606,0.2478831,0.96872324,0
1.5302728,6.263442,3.0631926,0.21437441,0.87743944,0.42911962,0
