5.2286248,1.4009498,4.4976745,0.74293739,0.19906153,0.63907635,0
-0.80609405,-2.121402,-6.7429776,-0.11330099,-0.29817483,-0.94776297,0
-4.4693046,2.9685199,4.6145587,-0.63154411,0.41947269,0.65206951,0
-0.41324767,1.1671979,7.1274977,-0.057123791,0.16134337,0.98524374,0
0.79353797,-4.0192437,-5.9532828,0.10980599,-0.55616367,-0.82378674,0
0.45249972,-4.2981319,-5.8139539,0.062462345,-0.59330732,-0.802549,0
-0.51566708,2.1331062,-6.7706413,-0.072451428,0.29970226,-0.95127779,0
3.5984623,3.2646613,5.1790338,0.50672847,0.45972329,0.72930151,0
-2.2247288,-6.0706325,-2.9030266,-0.31390437,-0.85655302,-0.40961072,0
-0.69150639,-3.0566139,6.2639017,-0.098728679,-0.43640301,0.89431822,0
-5.2738075,-3.537957,-3.1482699,-0.7440322,-0.49913725,-0.44415995,0
-3.0411251,4.998117,-4.1841769,-0.42279893,0.69487393,-0.58171415,0
1.9711301,-0.43607482,6.9621415,0.27192029,-0.060157161,0.96043766,0
-5.0218129,-1.6588926,-4.8464503,-0.70005393,-0.231254,-0.67560792,0
-4.7999172,-4.945281,-1.119458,-0.68747115,-0.70829099,-0.16033506,0
5.4320631,4.2053933,-0.90794206,0.78391194,0.60688877,-0.13102695,0
2.3049564,3.4286163,5.8424959,0.32211804,0.47914967,0.81648976,0
0.94708389,-5.3722348,-4.3893919,0.1352637,-0.76726925,-0.62689841,0
4.4420695,3.6910689,-4.1694336,0.62360483,0.51817483,-0.58533055,0
-6.4614692,-3.1027682,0.29272202,-0.90070355,-0.43251374,0.040804304,0
-6.6151738,-1.9952729,-1.7673941,-0.92753512,-0.27976373,-0.24781209,0
-6.9498711,-0.11655863,0.7425561,-0.99420232,-0.016674101,0.10622513,0
-4.9848762,-2.1911757,-4.6749225,-0.69459087,-0.30531764,-0.65140206,0
1.7114639,4.6164126,-5.0392237,0.24292794,0.65526104,-0.71527547,0
-0.42341742,5.7879391,4.2416615,-0.058903947,0.80519229,0.5900811,0
-4.3554783,3.2453439,4.4757957,-0.61884075,0.46110919,0.63593584,0
2.7892125,-4.8164401,-4.4474101,0.39150068,-0.67604727,-0.62424934,0
3.5213122,-6.1988158,-1.3522506,0.48527819,-0.85426962,-0.18635601,0
-2.7613323,4.5768938,4.9848347,-0.37779889,0.62619966,0.68201315,0
3.053695,3.3498762,5.36198,0.43492359,0.47710732,0.76368189,0
0.48006791,7.0194173,-0.80399525,0.067790858,0.99121875,-0.11353295,0
-6.0267229,3.2175126,1.7905014,-0.85333472,0.4555735,0.25352037,0
4.7221079,-4.984931,1.4716071,0.6724394,-0.70986605,0.20956035,0
3.2927284,2.7635732,5.5792289,0.46750215,0.39237258,0.79213983,0
-1.3651272,-6.4189506,-2.6424484,-0.19296356,-0.90733194,-0.37351555,0
2.3433316,5.1461453,4.2558112,0.33111268,0.7271502,0.60134602,0
3.5792286,4.2029581,-4.2127728,0.51542026,0.60523927,-0.60665262,0
-0.73765737,4.4587488,-5.7724161,-0.10061996,0.60819447,-0.78738493,0
5.1051989,-4.857008,-0.50971121,0.72261029,-0.68748033,-0.072146565,0
2.8375974,2.6224501,-6.1088696,0.39257085,0.36280605,-0.84513903,0
3.6124585,2.6056221,5.5499716,0.50763369,0.36614993,0.77989888,0
1.2361481,4.2721024,5.3226004,0.17822039,0.61592597,0.76738042,0
-4.2427788,-5.7706428,-0.93570191,-0.58736861,-0.79888546,-0.12953819,0
0.56116116,-7.1187887,-0.1378884,0.078569755,-0.99672163,-0.019306144,0
1.522752,-2.3795333,6.4518371,0.21620066,-0.33784664,0.91603321,0
-4.5854716,1.5112181,-5.0468068,-0.65653896,0.21637328,-0.722592,0
-3.1731012,2.6537013,-5.9237394,-0.43918034,0.3672916,-0.81988871,0
-0.34748262,3.3642879,-6.1664963,-0.049406573,0.47834891,-0.87677896,0
-3.3757603,2.6612339,-5.5567956,-0.48050961,0.3788031,-0.79096067,0
6.4182134,1.5327289,3.0013223,0.88537055,0.21143471,0.41402212,0
-5.6628904,-0.83898067,4.3576636,-0.78710914,-0.11661348,0.60569012,0
5.2062607,-3.5822263,3.350179,0.72787297,-0.50082117,0.46837929,0
4.1923909,0.62923253,5.8825259,0.57818556,0.086779401,0.81127727,0
-4.4484172,-5.1703281,2.4060054,-0.6150564,-0.71487075,0.33266416,0
4.166326,5.6286449,1.447116,0.58263707,0.78713405,0.20237097,0
1.4797223,5.1213889,-4.6363792,0.20944409,0.72489589,-0.65624624,0
6.2924409,-2.5440419,-1.4018469,0.90793175,-0.36707795,-0.20227148,0
1.4009801,6.385355,3.0994825,0.19364469,0.88258934,0.42841318,0
-1.4903116,1.0308545,6.9514008,-0.20745715,0.14349893,0.96766192,0
-3.6102216,-5.5068789,-2.5145807,-0.51219106,-0.78127456,-0.3567498,0
0.16477641,-2.185014,6.8863463,0.022801492,-0.30235869,0.95292145,0
-4.7510738,-3.8899212,3.4341135,-0.67530644,-0.55290425,0.4881168,0
0.39069128,-3.545687,-6.0241761,0.055804364,-0.50644797,-0.86046284,0
3.4422767,-5.0748005,-3.6327348,0.48296481,-0.71201426,-0.50968683,0
-5.3628521,4.7803712,-0.47034401,-0.74488831,0.66398299,-0.065329745,0
0.2401102,-2.3382211,6.8213472,0.033279471,-0.32407936,0.94544435,0
2.5578539,-1.0487174,6.5241413,0.36098924,-0.1480052,0.92075032,0
4.2603416,3.7731338,-4.5953093,0.58244061,0.51583332,-0.62823474,0
0.073982142,6.2453732,3.7354982,0.010165672,0.85815865,0.51328397,0
-0.95836687,6.7458639,-1.8507236,-0.13573685,0.95544034,-0.26212448,0
-5.185204,-4.8205304,1.6868106,-0.71244967,-0.66234332,0.23176864,0
-4.1893926,4.5080791,3.5160456,-0.59107417,0.63603705,0.4960728,0
3.6488321,-1.1811091,-5.9682994,0.51433039,-0.16648622,-0.84127676,0
2.364078,-5.8866911,-3.6239595,0.3235881,-0.80575305,-0.49603698,0
-0.86324406,6.1849694,3.348768,-0.1218216,0.87282717,0.47258046,0
-2.3444843,4.1535678,5.0117717,-0.33886844,0.6003508,0.72439438,0
-0.6109938,-6.2920203,3.4819732,-0.084658831,-0.87181747,0.48245952,0
-1.8414375,-0.40674552,6.6976542,-0.26464728,-0.058456555,0.96257186,0
4.1966963,5.0887256,3.0552723,0.57732135,0.7000339,0.42030057,0
2.7270427,-2.0074697,6.2586083,0.38322911,-0.2821081,0.8795172,0
0.18361926,-6.2408152,-3.5649669,0.025539534,-0.86803263,-0.49584991,0
-3.550139,-1.0446472,-5.8745461,-0.51132733,-0.15046078,-0.84611219,0
2.4423008,6.6334033,1.703141,0.33589575,0.91230857,0.23423724,0
-3.4645519,-2.6283252,5.5202069,-0.49300849,-0.37401277,0.78552985,0
-6.4402814,0.45495543,-3.1020436,-0.89911872,0.063515693,-0.43307197,0
1.1718745,5.1401591,-4.7329116,0.1654059,0.72551507,-0.66803354,0
-6.366241,0.043423809,3.1428449,-0.89666802,0.0061161271,0.44266129,0
1.7554078,-5.6694803,3.7780154,0.24950819,-0.80584222,0.53699529,0
-4.185421,-2.5836582,-5.1054239,-0.59038436,-0.36444396,-0.72015756,0
-5.3202157,3.082401,-3.4052639,-0.7569344,0.43854901,-0.48448437,0
4.6827226,5.1039228,1.9186345,0.65151602,0.71011841,0.26694325,0
-0.94008476,-6.047102,-3.653578,-0.13189729,-0.84843022,-0.5126102,0
-1.3665992,-0.37488398,7.1287184,-0.18802439,-0.051578641,0.98080909,0
-2.5664413,-1.906188,-6.4481387,-0.35659236,-0.26485392,-0.89593202,0
-4.594707,0.95335835,-5.4517021,-0.63876224,0.13253713,-0.7579028,0
-0.73185259,6.2436152,3.6870496,-0.100421,0.85671633,0.50591773,0
-3.9088612,4.383811,-4.3906698,-0.5330404,0.597808,-0.59874332,0
1.4859207,1.1656994,6.7666268,0.2115116,0.16593008,0.9631874,0
-3.4807563,-5.7471066,2.3427587,-0.48916459,-0.80766386,0.32923722,0
2.861393,0.65472692,6.3464041,0.40921712,0.093634628,0.90761995,0
-2.1504424,-5.4854712,-3.6140616,-0.31111562,-0.79361153,-0.522865,0
-0.51274121,5.6666875,-4.5613751,-0.070310861,0.77705806,-0.62548947,0
-4.7056556,-3.0042443,-4.3153315,-0.66687697,-0.42575607,-0.61156094,0
-0.12654477,-0.063269377,-7.2380304,-0.017479977,-0.008739572,-0.99980897,0
-2.797487,4.3267679,5.0486093,-0.38780999,0.59981114,0.69987851,0
-0.98891783,-2.9151626,6.3369422,-0.14037025,-0.41378778,0.89948648,0
-3.5395503,4.6394835,3.7912009,-0.50863576,0.66669685,0.54479808,0
-0.98794502,-1.8815769,-6.762403,-0.13937345,-0.26544175,-0.95399988,0
-0.10476822,0.042926408,7.1219831,-0.014708682,0.0060265497,0.9998737,0
-1.6031936,6.1734271,-3.2571061,-0.22385609,0.86200398,-0.45479411,0
4.8642631,2.1382649,4.5872369,0.69294608,0.30460981,0.6534819,0
6.1268106,-0.91657394,3.3927417,0.8674286,-0.12976776,0.48034146,0
-6.779851,-0.98609459,-1.6545175,-0.96193564,-0.13990861,-0.23474547,0
6.4410195,-0.0034611821,-3.0397675,0.90434748,-0.0004859652,-0.42679673,0
0.64024812,1.2152225,-7.132586,0.08814425,0.16730213,-0.98195755,0
-0.32516614,6.4748859,-2.5909793,-0.046574578,0.92741847,-0.37111419,0
5.6293969,4.1550088,1.952022,0.77498007,0.57200605,0.26872829,0
2.48297,-1.0193733,6.5000052,0.35307691,-0.14495429,0.92429703,0
-1.4204324,-6.8975544,-1.0098639,-0.1996579,-0.96952957,-0.14194782,0
-3.7731583,-5.3591313,2.7084804,-0.53204918,-0.75568563,0.38192004,0
-1.7557089,-5.6854339,3.7968559,-0.24873592,-0.80547041,0.53791058,0
1.0363525,-2.9553947,6.5892591,0.14205046,-0.4050892,0.90317464,0
-0.44859609,6.58741,2.1285393,-0.064664528,0.9495663,0.30682608,0
-5.3555551,-0.49469602,4.8181891,-0.74167246,-0.068508759,0.66725451,0
-5.3535047,-0.87826216,-4.7385216,-0.74322021,-0.12192801,-0.65784293,0
-4.50246,-0.14103995,5.4827647,-0.63450974,-0.019876072,0.7726593,0
4.9617119,4.1285815,-3.4086642,0.67973274,0.56559753,-0.46697202,0
1.0002276,-6.7895131,-0.29287633,0.14561386,-0.98842233,-0.042637154,0
-4.8924804,0.91411102,5.29533,-0.67322582,0.12578551,0.72865963,0
1.7183347,-6.9375591,-0.3160359,0.24018614,-0.9697212,-0.044175006,0
4.3249254,-3.8904326,3.6091962,0.63175142,-0.56828409,0.52720326,0
-0.97174346,6.4129562,-2.951391,-0.1363644,0.89992774,-0.41416758,0
-6.4435549,1.2500553,-2.6355257,-0.91100091,0.17673497,-0.37261516,0
6.5807953,-2.6205523,1.8146892,0.89998323,-0.35838422,0.24817514,0
-5.7002311,3.1036806,-2.6250834,-0.81418139,0.44330817,-0.37494868,0
0.82176995,-2.304137,-6.7317634,0.11473275,-0.32169583,-0.93986607,0
2.9682963,1.4762155,-6.4426746,0.4096714,0.20374086,-0.88919008,0
-5.8240042,-4.3694439,0.28188217,-0.79930615,-0.59967738,0.038686469,0
-2.1526208,6.1495619,-2.9997864,-0.30010727,0.8573401,-0.41821471,0
-6.4560728,2.0671349,1.572385,-0.92774302,0.29704902,0.22595303,0
-6.1778622,0.46613163,-3.2977295,-0.8802349,0.066415422,-0.4698675,0
1.3958113,-0.39708492,-6.8093195,0.20048305,-0.057034072,-0.97803563,0
1.0183536,-2.511025,-6.503521,0.14454103,-0.35640481,-0.92308372,0
4.8167439,-4.6055036,2.1801145,0.68695354,-0.65682691,0.31092319,0
0.23908606,-7.0229983,1.6857107,0.033084948,-0.97184896,0.23327018,0
-6.5687099,2.0472558,-1.2776333,-0.93865967,0.29255006,-0.18257205,0
0.64746779,-6.2122092,-3.1492019,0.092563212,-0.88810909,-0.45021582,0
-1.6486574,-6.2405562,-2.6717286,-0.23600282,-0.89332622,-0.38245392,0
6.4369435,-1.1608762,-2.6956248,0.90988219,-0.16409349,-0.38103506,0
2.7006903,6.4009185,0.82316953,0.38603714,0.9149484,0.11766399,0
4.4519448,4.8451128,-2.9301186,0.61808413,0.67266947,-0.40680194,0
1.1172892,6.2045546,3.2728827,0.15729199,0.87347734,0.46075651,0
1.3881401,6.7430592,-0.66564697,0.20069791,0.97491455,-0.096239537,0
-2.9382806,-6.3120494,-1.8503343,-0.40786171,-0.87617344,-0.25684428,0
3.6552553,-2.4913747,5.5614052,0.51438069,-0.35059521,0.78262097,0
-7.2468038,-0.050502453,-0.088028692,-0.99990195,-0.0069682449,-0.012146053,0
5.9361868,3.6264722,0.66386199,0.84949869,0.51896673,0.095002048,0
2.2503145,6.3893037,-1.4646003,0.32469612,0.92190766,-0.21132605,0
-1.3270506,-0.83955806,-6.8112125,-0.18985291,-0.12011037,-0.97443795,0
3.7272155,-1.8471459,5.7469611,0.52536839,-0.26036382,0.81006092,0
-6.1002617,1.3864988,3.2306056,-0.86642021,0.19692443,0.45884293,0
0.70555359,5.3891501,-4.5221591,0.099789657,0.76221204,-0.63958955,0
1.3178948,5.4381356,-4.4085078,0.18500508,0.76340139,-0.61886305,0
1.226241,3.2862425,6.1175113,0.17389204,0.46601886,0.86751831,0
0.92905885,-3.622756,5.9285064,0.13254064,-0.51682669,0.8457678,0
-6.1246152,0.87373006,-3.4915152,-0.86215168,0.1229935,-0.49149469,0
-5.6024179,3.5741427,2.3152237,-0.79611737,0.50789446,0.32899898,0
6.1003838,2.4306283,-2.2648761,0.87820953,0.34991255,-0.32605091,0
-4.8686638,1.5218338,4.7306509,-0.69982898,0.21875066,0.67999083,0
-6.7908626,1.4455627,-0.99029291,-0.96828574,0.20611781,-0.14120246,0
-6.1881218,0.19855188,3.4483302,-0.87318534,0.028016996,0.48658243,0
-1.2233412,6.5810533,-1.9862785,-0.17520674,0.94253743,-0.28447449,0
-3.0264456,4.8090749,-4.0201797,-0.43480355,0.6909104,-0.57757139,0
-4.5873942,4.7299504,-2.6814973,-0.64485276,0.66489196,-0.37693968,0
-5.2570076,4.0005503,-2.5776241,-0.7413457,0.56415951,-0.36349776,0
-0.40457141,4.3325047,-5.6933169,-0.056458961,0.60461193,-0.79451674,0
-2.5386369,1.745474,6.2514753,-0.36425561,0.25044885,0.89699119,0
-3.8153064,5.4256425,2.2963367,-0.54356307,0.77298611,0.3271569,0
-1.183395,-6.8452926,-0.96652412,-0.16872512,-0.97598249,-0.13780428,0
4.7862716,-1.3788366,-5.2655506,0.66034436,-0.19023304,-0.72646868,0
-3.7573233,-3.9592471,-4.5784812,-0.52739567,-0.55573869,-0.64265728,0
6.5826154,-2.2205133,0.4177551,0.94583249,-0.31905764,0.060025737,0
-0.91432911,6.7677398,-1.607832,-0.13032167,0.96462327,-0.22916842,0
3.4566462,-2.1891212,-5.9641004,0.47792286,-0.3026723,-0.8246085,0
-6.800878,0.41270587,1.162712,-0.98393959,0.05970959,0.16821921,0
-4.0927572,0.95461005,5.7223582,-0.57646,0.1344557,0.80598736,0
3.1169417,-3.5977128,-5.4078007,0.43264505,-0.49937817,-0.75062627,0
4.2814651,-5.4807258,2.1626446,0.58784759,-0.75250673,0.29693231,0
5.237359,4.5379367,-1.3728949,0.74135947,0.64235473,-0.19433624,0
3.4095106,5.7649884,-2.535918,0.47607192,0.80496866,-0.3540917,0
-2.2213159,6.2306628,-2.4669876,-0.31464082,0.88254935,-0.34943926,0
-4.2332044,-4.2214003,-3.7251372,-0.60097235,-0.59929657,-0.52884394,0
5.4318566,4.0282621,-2.6738529,0.74695873,0.55394423,-0.36769339,0
-2.845618,-5.4020185,3.875977,-0.39347324,-0.74695539,0.53594446,0
1.6320695,-5.5037465,-4.3422689,0.22674155,-0.76462924,-0.60326648,0
6.1880894,3.2441256,1.7368479,0.85951126,0.45060152,0.24124414,0
4.186687,-0.11614867,5.6308188,0.59659052,-0.016550843,0.80237508,0
1.8626641,-6.6578627,-1.4999161,0.26329833,-0.94112742,-0.21202181,0
-2.7651958,-5.6760283,3.0938988,-0.39328289,-0.80727911,0.44003302,0
-3.0665321,-3.8087919,5.226028,-0.42846933,-0.53218114,0.73020357,0
0.56399703,7.2567978,-0.37765804,0.077382058,0.99565411,-0.0518158,0
-2.642668,-6.2747917,2.2097609,-0.3691808,-0.87658858,0.30870366,0
-2.2128429,6.4128685,1.8919709,-0.31419906,0.91055596,0.26863879,0
-4.1785474,-2.5644696,5.0151873,-0.59578824,-0.36564881,0.71507853,0
2.8399277,-2.3321571,5.9836059,0.40443617,-0.33212417,0.85212964,0
4.0610614,5.1925979,3.0752778,0.55829006,0.7138468,0.42277053,0
4.7212129,3.6486077,3.717695,0.67156351,0.51899201,0.52881926,0
6.8254566,0.69657218,1.4775982,0.97253436,0.099252023,0.21053755,0
-5.2445016,-3.6737354,2.7376995,-0.75309658,-0.52753872,0.39312643,0
-3.6666312,1.9987539,5.6924219,-0.51935667,0.28311169,0.80629796,0
4.2127962,4.1250615,4.0705118,0.5879938,0.57574838,0.56813473,0
-4.8140287,3.2308064,3.9478273,-0.68633085,0.46061257,0.56283748,0
-6.8840647,0.56311393,-1.5154399,-0.97351485,0.079633154,-0.214307,0
-4.4005566,5.1444845,-2.0731599,-0.62153381,0.72660607,-0.29281273,0
0.64436269,6.9839692,1.0411886,0.090876982,0.98497641,0.1468429,0
5.7177749,-3.672266,-1.9714196,0.80809057,-0.5189997,-0.27861983,0
6.1600437,0.50552195,-3.4734933,0.86884636,0.071301587,-0.48992056,0
0.70047843,0.65291506,7.2395997,0.095921062,0.089407898,0.99136537,0
6.7381129,-0.71059972,-2.0039916,0.95364672,-0.10057135,-0.28362539,0
2.9862401,-6.4809375,0.25847831,0.4182106,-0.90762854,0.036198821,0
-6.9370899,1.1435444,-0.23733228,-0.98612213,0.16255729,-0.033737291,0
2.1539114,6.216207,-3.0375617,0.2972472,0.85785806,-0.41919401,0
-5.1058717,-4.2531877,2.4994597,-0.71915948,-0.59905934,0.35204765,0
5.0556931,-3.442687,3.4589758,0.719482,-0.4899331,0.49225119,0
3.701098,-5.9299407,1.3498154,0.51986879,-0.83293962,0.18959966,0
-4.8821712,2.5339766,4.189436,-0.70609426,0.36648169,0.60590601,0
5.9090624,-4.2241139,0.35132948,0.81256497,-0.58086491,0.0483119,0
-0.032542624,6.601223,2.3339925,-0.0046477737,0.94279402,0.33334342,0
1.4960885,0.57747221,6.7262373,0.21636133,0.083512872,0.97273499,0
-2.9898975,6.1713781,-2.1720595,-0.41565162,0.85793692,-0.30195686,0
-3.4087377,5.910831,1.1788625,-0.49228007,0.85362518,0.17024791,0
5.2555718,0.66553056,4.457387,0.75911224,0.096128911,0.64382279,0
4.9509993,4.9616833,1.4792148,0.69112206,0.69261342,0.20648719,0
6.2188749,-3.3268764,-0.89597297,0.87472492,-0.46794668,-0.1260244,0
4.3886108,-4.6247377,3.1018264,0.61897779,-0.65228158,0.43748733,0
-1.3762866,-0.58827782,7.1318502,-0.18886314,-0.080727369,0.9786796,0
-3.2284861,-1.0756575,6.1822505,-0.45749101,-0.15242551,0.87605274,0
-5.0366535,4.748661,-1.9721495,-0.6997577,0.65974605,-0.27399677,0
-1.1630541,-1.9741669,6.6653023,-0.16501574,-0.28009754,0.94568235,0
3.7569802,-5.9116368,-1.5053586,0.52439654,-0.82514197,-0.21011685,0
1.982725,-2.5459874,-6.1766734,0.28451347,-0.36533946,-0.886329,0
-2.29319,-0.13517909,-6.8854289,-0.31593075,-0.018623503,-0.9485994,0
-0.017200721,5.1797447,5.0782714,-0.0023712416,0.7140646,0.70007581,0
3.8645825,5.3569078,-2.6548314,0.54285777,0.75248462,-0.37292406,0
-0.46977553,-3.12182,-6.5622735,-0.06451045,-0.42869413,-0.90114361,0
-1.0391942,-6.3371916,2.7858629,-0.14845487,-0.90530425,0.39797655,0
2.5740077,-4.6281843,-4.7867846,0.36057845,-0.64833665,-0.6705541,0
-1.0975577,-6.2872252,2.8086879,-0.15740134,-0.90165436,0.40279546,0
-3.9325902,2.3942044,-5.5718455,-0.54408264,0.33124352,-0.77087724,0
-3.3157947,6.1809406,1.2771119,-0.46508202,0.86695486,0.17913105,0
-5.8143392,-3.892133,-0.98681414,-0.82285583,-0.55082172,-0.13965572,0
3.9741237,-4.543191,-3.3610611,0.57522964,-0.65759856,-0.48649263,0
-1.5727634,0.85357171,7.0902762,-0.21507569,0.11672609,0.96959656,0
-0.81553924,-6.871933,1.5806974,-0.1148907,-0.96809715,0.22268388,0
5.7499385,3.6718199,1.9616332,0.80999464,0.51724982,0.27633554,0
-1.3850662,6.5061307,2.2579401,-0.19717081,0.92617887,0.3214286,0
3.7742894,3.3594148,4.8970065,0.53639126,0.47743049,0.69594866,0
-6.6037993,2.0655892,-1.0695871,-0.94319934,0.29502141,-0.15276568,0
-2.6333003,-6.6309085,1.8350544,-0.35745215,-0.90009958,0.24909584,0
-2.0160043,-6.5789638,1.7634649,-0.28381243,-0.92618436,0.24826002,0
-3.9880664,-2.7983158,-5.070941,-0.56712735,-0.39793757,-0.72111875,0
6.7441816,-0.5920893,1.7733303,0.96365851,-0.084602095,0.25338656,0
-1.970529,-5.0799956,4.9690027,-0.26721567,-0.68887818,0.67382687,0
2.3401065,6.8283396,-0.88095534,0.32180771,0.93902236,-0.12114757,0
-1.1459376,1.1685678,-7.0727382,-0.1578505,0.16096777,-0.97425491,0
-1.6759396,-4.1742349,5.5274968,-0.23517187,-0.58573866,0.77563167,0
3.7835975,5.9632654,-1.1674088,0.52857262,0.83307457,-0.16308826,0
4.866426,-4.6645174,1.8815373,0.69534558,-0.66649562,0.26884589,0
-4.6001496,-3.2512617,-4.3353286,-0.64715683,-0.45739299,-0.60990137,0
-3.050802,-6.5763292,0.50623035,-0.41980603,-0.90493667,0.069659896,0
-6.6530442,2.1303477,1.8331808,-0.9211781,0.29496717,0.25382155,0
3.022151,-6.1882529,1.8969975,0.423076,-0.86630392,0.26556388,0
6.435771,1.3434483,-2.913337,0.89496666,0.18682165,-0.40513241,0
1.5311981,-4.908289,5.1660585,0.21008056,-0.67341787,0.70878386,0
-3.8016346,-0.039954334,-5.9515224,-0.53830755,-0.0056574927,-0.84272945,0
3.910537,-5.8916082,1.595288,0.53945732,-0.81274545,0.22006947,0
-2.2062936,1.8516347,6.5450525,-0.30853784,0.25894079,0.91528904,0
-6.7583699,2.7701678,0.38412958,-0.92401165,0.37874034,0.052518614,0
6.7946005,1.3256248,1.9812385,0.94361091,0.18409824,0.27514765,0
-5.23067,-0.4533909,4.8273301,-0.7333858,-0.063569374,0.67683399,0
-3.2937002,-6.3433242,-0.32130504,-0.46035597,-0.88659775,-0.044908363,0
-2.6946342,-0.94116557,6.5039201,-0.37938365,-0.13250883,0.91570163,0
-4.1462331,-5.675807,1.3240397,-0.57968515,-0.79353499,0.18511409,0
-0.64447516,-5.7981429,-3.9100423,-0.091766633,-0.82559592,-0.55674982,0
-4.7678318,-5.4806032,0.99784338,-0.65023661,-0.74744427,0.13608581,0
-5.6529012,4.4499888,-0.25316146,-0.78526318,0.61816263,-0.035167493,0
-5.8458462,2.5887713,-3.2700388,-0.81405514,0.36049575,-0.45536467,0
3.4035826,3.9467051,4.5167208,0.49352366,0.57227707,0.65493006,0
5.281167,3.4436977,-3.5736728,0.72872519,0.4751808,-0.49311548,0
-5.5890684,-3.5319688,-2.6435461,-0.78493178,-0.49603158,-0.37126103,0
6.400032,2.9382679,-1.3885653,0.8916328,0.40935045,-0.19345064,0
1.6955923,3.6099887,5.7815504,0.24140765,0.51396722,0.82314038,0
-0.35344455,-5.0222797,5.1920996,-0.048870306,-0.69442391,0.71790469,0
-4.0144506,-2.9322386,-4.9341135,-0.57314616,-0.41863793,-0.70444715,0
-6.4683566,-2.2014406,-1.3792217,-0.92795819,-0.31582132,-0.1978648,0
-2.3280258,0.51480097,6.6337342,-0.33025414,0.073029749,0.94106263,0
-1.9904273,-4.6892757,-4.9606328,-0.27992851,-0.65948755,-0.69765049,0
1.1539037,5.4750471,4.5247927,0.16035509,0.76085353,0.62879902,0
4.099215,5.2988434,-2.5209911,0.57267749,0.74027056,-0.352193,0
2.4482303,6.4084721,-1.8089274,0.34507945,0.90327781,-0.25496936,0
5.8456388,3.9370837,-0.64528412,0.82596737,0.55629551,-0.091176286,0
-5.5522265,2.4223449,-4.1062627,-0.75868523,0.33100185,-0.5611012,0
-0.19377948,-6.1423073,3.1117525,-0.02813174,-0.89170319,0.45174551,0
-3.788779,5.6513171,-1.3551397,-0.54613185,0.81460655,-0.19533601,0
-1.1281555,3.0973721,-6.3468513,-0.15774316,0.43308678,-0.88744181,0
1.8764763,-6.4701161,2.1056232,0.26586023,-0.91668969,0.2983259,0
4.8225231,-3.1105826,4.2786503,0.67370957,-0.4345504,0.59773022,0
4.6126099,4.4457254,-2.6832726,0.66411054,0.64008301,-0.38633001,0
-3.0179617,6.3807607,0.53236371,-0.4263542,0.90142435,0.075208209,0
-1.4103405,-4.9432855,4.9497132,-0.19763295,-0.69270939,0.69361007,0
2.4854805,6.2946024,-1.8598731,0.35413483,0.89686394,-0.26499736,0
-2.3622012,5.99369,2.969641,-0.3329916,0.84491044,0.41862035,0
-1.4478617,3.5025258,6.0393519,-0.20306443,0.49123365,0.84702671,0
6.3708382,1.6467768,2.8033466,0.89071536,0.23023805,0.39193961,0
2.848362,3.4017575,5.6412525,0.39687547,0.47398263,0.78602183,0
-5.0241504,4.8213844,0.68406564,-0.71805984,0.68908018,0.097767785,0
4.1599131,-5.5779123,0.35657281,0.59705096,-0.80056918,0.051177066,0
-1.4586027,-3.3906689,-5.9767022,-0.20764184,-0.48268437,-0.85082352,0
1.6848438,-4.9303913,-4.8333631,0.23706961,-0.69374138,-0.68008882,0
-6.3063836,-0.026742542,3.4664159,-0.87633276,-0.003716134,0.4816919,0
-0.54555434,0.41901469,-7.0924492,-0.076561183,0.058803052,-0.99532944,0
3.4419458,-4.4504123,4.230001,0.48898935,-0.63225991,0.60094655,0
1.5431337,-6.6273103,-2.5566549,0.21228844,-0.91171706,-0.35171822,0
-3.3140457,-0.42382491,-6.4373035,-0.45694068,-0.058436986,-0.88757551,0
4.8241186,-4.4655814,2.9060874,0.67119002,-0.62130594,0.40433019,0
-2.8621268,-3.3032792,5.48701,-0.40799898,-0.47088569,0.78217864,0
-5.5739865,2.3822832,3.4674876,-0.79817504,0.34113449,0.49653187,0
-5.5588903,2.7078834,-2.9704559,-0.81035191,0.39474398,-0.43302071,0
-0.73292422,2.7965379,-6.3792372,-0.10464744,0.39929166,-0.91083205,0
-1.0073614,3.7195718,5.9287691,-0.142462,0.52602535,0.8384521,0
-1.8726369,-1.7739524,6.6985888,-0.26088288,-0.24713482,0.93320125,0
-0.41188273,-4.6293254,-5.6397867,-0.056360196,-0.63345623,-0.77172327,0
0.57311624,5.6978374,3.9825313,0.082164042,0.81686282,0.57095027,0
-6.6778131,-2.1219468,-1.1883053,-0.93962497,-0.29857591,-0.16720463,0
5.2406249,4.7010179,-0.74177194,0.74029326,0.6640681,-0.10478307,0
-1.0929918,-5.727736,4.3384376,-0.1503844,-0.78807735,0.59692425,0
-2.8305438,5.5655942,-3.529263,-0.39464316,0.77597231,-0.49206075,0
2.6336129,2.4655805,6.2625008,0.36439767,0.34114802,0.8665058,0
1.4360191,6.8999314,-0.52085942,0.20320064,0.97635919,-0.073703036,0
5.6204395,4.2813988,-1.1180362,0.78571266,0.5985207,-0.15629652,0
3.8789141,4.9739881,3.2492185,0.54668415,0.70102108,0.4579365,0
2.8277636,6.0897589,-2.6390457,0.391967,0.84412456,-0.36580813,0
5.6711817,-2.9866238,2.7075438,0.81506544,-0.42923927,0.38912973,0
-1.0977625,6.5022783,-2.7556264,-0.1535998,0.90980399,-0.38556945,0
5.8966432,-3.8924358,0.4395853,0.83295649,-0.54984331,0.062095571,0
5.5520067,0.91312546,4.4063554,0.77686888,0.1277698,0.61656272,0
2.9274092,6.5486569,0.50822979,0.40708384,0.91065246,0.070674144,0
-5.1177163,-4.379631,-2.8515623,-0.69965625,-0.59875071,-0.38984448,0
-4.1749339,4.5675139,3.95193,-0.56861055,0.62207848,0.53823823,0
4.1376114,5.6135111,-2.1612215,0.56673115,0.76888603,-0.29602382,0
-4.1815028,-5.0400834,-2.0164244,-0.6102376,-0.73553663,-0.29427171,0
4.3314128,-5.3852873,-1.2192425,0.61720699,-0.7673794,-0.1737366,0
6.4886365,-1.0788469,2.5877516,0.91797352,-0.15262882,0.36609966,0
5.9973221,3.1781733,2.2062573,0.84031856,0.44531175,0.30913115,0
3.1068304,-5.608624,3.1051979,0.43610787,-0.78728628,0.43587872,0
5.6190124,0.38584614,3.9008276,0.82015276,0.05631822,0.56936598,0
-4.3220034,3.2954333,-4.5630488,-0.60902888,0.46437123,-0.64299548,0
2.0969431,1.9757272,-6.3354521,0.30129421,0.28387758,-0.91029412,0
3.2516479,6.3353577,-0.86833328,0.45326465,0.88311952,-0.12104163,0
-1.3818073,-1.2602475,-6.7861257,-0.19630417,-0.17903496,-0.96405971,0
-0.4312003,1.5335902,7.0710673,-0.059489869,0.21157935,0.97554862,0
-0.87755042,3.9214087,-6.0763645,-0.12046159,0.53829283,-0.83410424,0
-2.6041522,-0.50136799,6.3984947,-0.37597996,-0.072386064,0.92379618,0
5.2823491,4.7711864,-0.82128781,0.7372095,0.6658712,-0.11461969,0
5.3020849,-2.5984032,-3.7943122,0.75543445,-0.37021723,-0.54060888,0
-4.3399334,1.020638,-5.6541576,-0.60273236,0.14174676,-0.78525251,0
2.9127462,-1.7767565,-6.1676774,0.41324404,-0.25207624,-0.87503541,0
-5.2424798,3.7405541,-2.796164,-0.74668998,0.53276968,-0.39825955,0
-3.1025186,5.4141064,3.9064176,-0.42142636,0.73541772,0.5306229,0
-1.3705399,6.8993897,-1.7369535,-0.18915793,0.95223373,-0.23972929,0
-2.2249374,5.6187396,-3.8380158,-0.31078988,0.78485233,-0.53611237,0
5.5587063,0.53023839,4.5171456,0.77394861,0.073826037,0.62893027,0
-5.0981555,5.0982113,-1.2446817,-0.69679594,0.69680357,-0.17011823,0
-1.8512659,4.7533913,-4.7618856,-0.26528677,0.68116194,-0.68237919,0
-2.27718,4.8464289,-4.4984865,-0.32561126,0.69298512,-0.64323324,0
-2.5873141,1.4718567,-6.4388957,-0.36473641,0.20748919,-0.90769792,0
-4.2470498,2.3155777,-5.3772268,-0.58719021,0.32014802,-0.74344665,0
0.13085254,-2.9340098,6.4480057,0.018468017,-0.41409472,0.9100464,0
-2.3599482,5.1737819,4.4948044,-0.3255778,0.71377355,0.62010199,0
0.84251153,-0.80032128,-6.9332967,0.11984511,-0.11384366,-0.98624378,0
6.392489,-2.9322734,0.7165674,0.90425503,-0.41478726,0.10136265,0
6.007412,-3.9237845,-1.4005291,0.82172692,-0.53671688,-0.1915721,0
-3.832242,-5.5728226,2.6214919,-0.52832305,-0.76828414,0.36140585,0
4.4949293,5.1889911,-2.0565009,0.62721103,0.72405863,-0.2869589,0
-4.859055,-2.7737341,-4.0936093,-0.70089418,-0.40009716,-0.59048247,0
-5.094666,-3.6280389,-3.1190748,-0.72894895,-0.51910275,-0.44627976,0
-5.7541285,-4.3223767,0.87774915,-0.79366624,-0.59618491,0.12106784,0
-3.184777,-6.3215017,-0.32729068,-0.44944677,-0.89211226,-0.046188395,0
5.0448842,4.756144,-2.0525024,0.69769341,0.65776145,-0.28385535,0
-2.9519351,5.7737713,-2.9220438,-0.41503054,0.81176966,-0.41082793,0
6.2274232,2.6178904,-2.302299,0.87257224,0.36681277,-0.32259285,0
2.4992461,-1.7713228,6.469615,0.34914482,-0.24745388,0.90380555,0
-4.7298059,-5.0666876,1.7924879,-0.66065317,-0.70770836,0.25037238,0
-0.68820477,-3.1654377,6.2773376,-0.097425699,-0.44811517,0.88865125,0
-3.6137862,2.7224247,-5.2618423,-0.52074862,0.3923029,-0.75823438,0
4.1202779,-4.6710582,-3.3886759,0.58107865,-0.65875465,-0.47790158,0
-1.4360083,6.5749731,-2.7284851,-0.19774212,0.90539104,-0.37571955,0
1.8188343,-2.7975183,-6.2092185,0.2580266,-0.39686635,-0.88086283,0
5.4336228,-3.1601415,2.8092377,0.78920269,-0.45899251,0.40802574,0
4.493597,-4.5373816,2.6719565,0.64913875,-0.65546381,0.38598713,0
2.0433509,-6.844645,-0.71729749,0.28462636,-0.95341742,-0.099915177,0
-3.421505,0.72005785,6.1713896,-0.48237491,0.1015161,0.87006259,0
-5.5047164,-1.2365688,4.3449359,-0.77301943,-0.17364958,0.61015308,0
2.6419842,-2.0482931,6.2366781,0.37336525,-0.2894648,0.88136744,0
-2.5713089,3.603761,-5.5943451,-0.360425,0.50514567,-0.78416944,0
-7.174346,0.58033103,-0.19049698,-0.99639547,0.080598176,-0.026456812,0
-0.12797654,6.3897395,-3.2194481,-0.017883519,0.89290607,-0.44988763,0
0.40645728,1.783708,7.0139351,0.056073952,0.24607643,0.96762705,0
-3.1031821,-3.7114689,-5.3258123,-0.43129289,-0.51583511,-0.74020308,0
2.088032,-5.4365244,4.0127282,0.29524016,-0.76870489,0.56738526,0
-5.7099915,-1.3323969,-3.8565056,-0.81362426,-0.18985499,-0.54951859,0
-4.5940566,-3.6341336,-3.9982708,-0.64776731,-0.51241708,-0.56376082,0
-4.8907537,-3.2606053,4.2555618,-0.67395669,-0.44931862,0.58642584,0
-2.6995938,0.13212247,-6.6772552,-0.37475929,0.018341323,-0.92694068,0
-3.0695322,3.1210077,-5.506403,-0.43635839,0.44367605,-0.78277892,0
5.9443078,1.4530227,-3.6808054,0.83241534,0.20347506,-0.51544416,0
-5.8510208,0.10492852,3.9896834,-0.82611358,0.014815,0.56330884,0
0.49564055,-6.6748285,-2.6987445,0.068678707,-0.92490125,-0.37395301,0
1.3896827,6.8440142,0.5624938,0.19834778,0.97683811,0.080284081,0
5.1300755,2.0373538,-4.3150511,0.73220956,0.2907891,-0.6158821,0
0.13732404,-6.388834,-3.1042397,0.019329462,-0.89927971,-0.43694669,0
5.3342919,-1.759245,-4.1617475,0.76305652,-0.2516554,-0.59532708,0
0.36044887,5.7495184,-4.0850596,0.051039211,0.81412625,-0.57844055,0
2.1088517,-5.9924083,3.2625816,0.29529643,-0.83909965,0.4568499,0
-4.7840505,-5.0128064,-1.1358516,-0.681315,-0.713893,-0.16176099,0
5.586771,-3.6683111,-2.1838057,0.79457062,-0.52172041,-0.31058869,0
-2.3383434,1.4814768,6.6913686,-0.32291573,0.20458594,0.92405087,0
-2.7491634,-6.5384398,-0.026076352,-0.3875916,-0.92182386,-0.0036763821,0
0.7384935,-3.3215659,6.4019041,0.10186113,-0.45814681,0.88302088,0
1.0278844,-3.4336622,-5.86695,0.14950719,-0.49943089,-0.85335594,0
-0.14204267,-5.9191222,3.946116,-0.019962888,-0.8318823,0.55459303,0
-0.68337202,-5.5946879,-4.1214733,-0.097870484,-0.80125433,-0.59026498,0
0.38638622,1.9322867,6.9765129,0.053298578,0.26654196,0.96234852,0
0.74090374,1.5184909,6.7235222,0.1068729,0.21903728,0.96984577,0
1.0165199,5.2394719,-4.823246,0.14130729,0.72834343,-0.67048353,0
1.8519646,-6.8699574,0.63313782,0.25925842,-0.96173233,0.088633612,0
-5.9079943,2.7165847,2.7406933,-0.83722937,0.38497066,0.38838711,0
0.7704972,6.8994994,-0.90668893,0.11004987,0.98545331,-0.12950209,0
3.7927454,5.9977903,1.3058633,0.52563739,0.83123499,0.18097986,0
3.2307866,5.7014008,3.1085784,0.44543633,0.78606588,0.4285872,0
-7.00211,1.2097671,0.2948567,-0.98455375,0.17010312,0.041459255,0
-5.5797048,-4.1190348,1.1534964,-0.79362518,-0.58586788,0.1640667,0
2.3555083,-6.1391454,2.1434205,0.34058571,-0.88766617,0.30991966,0
0.7923702,6.536232,3.0396566,0.10926419,0.90131617,0.41915458,0
-7.0457048,-0.71433663,0.10618611,-0.99478793,-0.10085768,0.014992489,0
-2.1421938,4.860045,4.6564393,-0.30328134,0.68806142,0.65923589,0
0.66387707,4.9781508,-5.1589894,0.092207029,0.69142389,-0.71654087,0
0.93745172,2.8707831,-6.295208,0.13426483,0.4111627,-0.90161979,0
-2.7323434,-6.4282861,2.2629926,-0.37213615,-0.87551129,0.3082121,0
-4.1690392,5.5997081,-1.2930516,-0.58719099,0.78869444,-0.18212067,0
2.8486774,3.669198,5.597578,0.39162543,0.50442749,0.76953393,0
-4.7322483,2.1691539,4.7699862,-0.67023253,0.30721918,0.67557734,0
4.4623504,4.5180173,-3.1026986,0.63137609,0.63925242,-0.43899953,0
-2.2134373,-6.4074769,-2.1176586,-0.31166041,-0.90219718,-0.29817441,0
2.7945371,4.4790506,-4.8489757,0.38984895,0.62484521,-0.67645121,0
-1.7399936,1.7892194,6.7363544,-0.24220987,0.24906218,0.93771124,0
-2.4849174,-0.94834888,-6.5217867,-0.35280654,-0.13464579,-0.92595792,0
0.30558285,1.3332158,-7.0163188,0.042748448,0.18650559,-0.98152345,0
6.8693876,-1.7188997,1.545059,0.94779199,-0.23716225,0.21317686,0
-6.4231353,-1.9206383,1.8113766,-0.92491907,-0.2765682,0.26083472,0
3.910007,-5.3737955,2.5248308,0.54999322,-0.75589406,0.35515022,0
6.9668279,-0.90486664,-0.49909365,0.98917753,-0.12847652,-0.070863269,0
-5.6805859,1.4207765,4.3135791,-0.78106534,0.19535296,0.59310555,0
-2.0150459,-4.6637993,5.2227626,-0.27655655,-0.64008683,0.71680218,0
0.48448187,5.7441573,-4.0282855,0.068891078,0.81679255,-0.57280356,0
0.31814644,-4.2371631,5.6922746,0.044788592,-0.59650695,0.80135727,0
6.0004926,0.60043913,3.8054945,0.84149009,0.084203683,0.53367054,0
-3.4285617,-5.1259475,-3.4571981,-0.48495629,-0.72504467,-0.48900679,0
-4.5055752,-5.5702114,-0.33283517,-0.62821341,-0.77665585,-0.046407286,0
4.0853143,-2.9555953,4.7323947,0.5907675,-0.42740154,0.6843403,0
5.2915549,-4.5460472,0.50729269,0.75651991,-0.64993656,0.072526321,0
2.1781831,5.6167436,-3.943006,0.30252662,0.78010637,-0.54764193,0
3.5191123,-4.7975888,3.775593,0.49939796,-0.68082684,0.53579521,0
-6.8007736,-2.6549208,-0.5579102,-0.92882484,-0.3625994,-0.076197341,0
-3.6599505,5.1164551,3.2494771,-0.51691097,0.72261953,0.458938,0
-4.9785528,4.849391,-1.5625215,-0.69889277,0.68076092,-0.21934786,0
-3.2541149,-3.4384367,-5.4662976,-0.45000061,-0.47548985,-0.75591594,0
-1.8018086,-0.28020924,6.9870777,-0.24951997,-0.038804233,0.96759188,0
-0.28207597,3.5098219,-6.1131616,-0.039983973,0.49751356,-0.86653423,0
-0.11460008,-1.58638,-6.9806099,-0.016006684,-0.22157648,-0.97501165,0
-5.3239465,-4.1750555,-2.1359522,-0.75038928,-0.58845764,-0.30105406,0
3.8469694,5.6055341,2.8067176,0.52302772,0.76211929,0.38159677,0
7.163094,-0.54999673,0.12371985,0.99691743,-0.07654532,0.017218603,0
-3.1175938,4.5567613,-4.0879936,-0.45380661,0.66329628,-0.595061,0
2.1739707,-3.7073793,-5.5917892,0.30825174,-0.52567685,-0.79287118,0
3.4122469,-6.28864,0.84417045,0.47363529,-0.8728916,0.11717467,0
6.5673919,-2.636677,-0.60140818,0.92466938,-0.37123632,-0.084676497,0
-2.0732462,3.7465363,-5.751533,-0.2891385,0.52249837,-0.80211872,0
1.8710827,-2.8054636,-6.1226325,0.26768512,-0.40136164,-0.87593007,0
0.82201207,6.7719011,2.0715661,0.11530187,0.94988006,0.29057413,0
6.1060567,2.0307345,-2.6273861,0.8784923,0.29216641,-0.37800804,0
-0.096268252,1.0697763,7.1408606,-0.013331356,0.14814405,0.98887593,0
-6.2960391,-3.3880572,0.80565363,-0.8750568,-0.4708901,0.111974,0
-0.15423529,6.9968433,1.4631201,-0.021571828,0.97860032,0.20463653,0
1.2890611,2.2638638,-6.5148787,0.18372016,0.32265145,-0.92851657,0
6.2712307,3.4409058,-0.756576,0.87184072,0.47836253,-0.10518091,0
7.0265822,0.39406997,-1.4391004,0.97818905,0.054859523,-0.20034097,0
-2.8558874,-6.527401,0.90455091,-0.39764458,-0.90885431,0.12594676,0
-3.7833278,5.2565489,3.2822115,-0.52106917,0.72397256,0.45205155,0
0.48393458,3.63221,-6.0411282,0.068491876,0.51407129,-0.85500854,0
6.4171009,-1.6135235,2.4646282,0.90881538,-0.22851361,0.34905046,0
-7.0505347,1.0662851,0.076693088,-0.98869932,0.1495256,0.010754703,0
7.0219579,-1.1136528,0.88695282,0.98005915,-0.15543324,0.12379257,0
-3.7147863,-4.1122613,4.2765155,-0.53068966,-0.58747244,0.6109376,0
-4.4615235,0.89137965,5.6205301,-0.61698329,0.12326873,0.77726209,0
5.4270773,4.6859117,0.078966327,0.7568537,0.65349162,0.01101255,0
2.5901794,2.5054235,6.1615973,0.3628704,0.35099655,0.8632071,0
-0.36196372,3.2064595,6.3847504,-0.05059712,0.44821513,0.89249271,0
-3.5720727,-3.9207249,-4.7328763,-0.50250161,-0.5515483,-0.66579777,0
-1.6051205,-6.8330956,0.7104643,-0.22751683,-0.96855295,0.10070433,0
3.5162523,5.4288192,-3.0159733,0.49270141,0.76069254,-0.42260173,0
0.47160426,-0.24778144,6.9218264,0.067932017,-0.035691563,0.9970513,0
-0.62292546,-6.7516909,1.5983136,-0.089421101,-0.96920681,0.22943829,0
0.10757565,3.5605872,6.0630498,0.015297878,0.50633603,0.86220062,0
-6.1235089,-3.7271574,-1.3296617,-0.83988506,-0.51120752,-0.18237305,0
0.51357764,7.0711632,0.28622538,0.072380096,0.99656105,0.040338635,0
4.0987029,5.6820283,1.3157601,0.57497114,0.79708201,0.18457647,0
-6.9944053,0.61587751,0.72961593,-0.99081081,0.087243743,0.10335566,0
-1.4102705,6.6146908,-1.9452344,-0.2003926,0.93991554,-0.27640837,0
6.223453,-2.5069473,2.1794212,0.88219565,-0.35536832,0.30894038,0
-0.093892992,-3.1841164,6.5102,-0.012954748,-0.43932381,0.89823532,0
5.5404921,-4.210959,-0.016196536,0.79614723,-0.60509849,-0.0023273795,0
-6.3776178,1.62433,-2.2880971,-0.91532117,0.23312524,-0.32838964,0
-0.93868089,6.8979588,-1.3491229,-0.13237531,0.97276878,-0.19025695,0
-5.0909247,2.9880111,-3.9361069,-0.71753955,0.42114472,-0.55477393,0
4.1977816,1.0085596,5.719347,0.58580321,0.14074516,0.79813874,0
4.6696119,1.5988268,-5.3225303,0.64329946,0.22025907,-0.7332474,0
3.3966217,4.1583991,4.4198494,0.48840976,0.59794784,0.63554251,0
1.4744165,5.6876721,-4.1745009,0.2045632,0.78911787,-0.5791778,0
0.4922756,5.1007266,-5.1474085,0.067775726,0.70226002,-0.70868707,0
6.1808882,-3.4161081,-1.157023,0.86370522,-0.47736028,-0.16168013,0
-5.3153329,-0.68444633,4.9339838,-0.72966689,-0.093957953,0.67731684,0
-3.1515441,-3.1367083,-5.6534524,-0.43816817,-0.43610552,-0.78601563,0
3.229779,-6.4482059,-0.30000025,0.44745615,-0.89333957,-0.041562274,0
-6.5933995,0.59668207,-3.0254595,-0.90582389,0.081974238,-0.41564804,0
-0.50821185,-6.9435201,1.6804501,-0.070959195,-0.96949059,0.23463324,0
2.4546924,-3.6078479,-5.5109835,0.34920171,-0.51324832,-0.78398621,0
-0.84200799,-7.0258083,1.0964783,-0.11759014,-0.9811852,0.15312804,0
-2.806401,0.99950165,6.2566409,-0.40498286,0.14423493,0.90287608,0
5.1194382,0.55307734,-4.9418159,0.71731436,0.077494897,-0.69242668,0
1.9635338,-1.4635967,6.5305009,0.28152642,-0.20984674,0.93632644,0
4.8857388,4.7269325,1.524942,0.70126361,0.67846972,0.21887916,0
-4.8791332,-4.4173722,-2.5589638,-0.69093031,-0.62554067,-0.36237291,0
-2.0708025,-0.031871688,6.5867476,-0.29991326,-0.0046159602,0.95395529,0
7.0216889,1.0342065,0.5264411,0.98661619,0.14531617,0.073970139,0
-7.013833,-0.76737291,-0.39166394,-0.99254,-0.10859231,-0.055425063,0
-3.8465862,-4.8164701,3.546628,-0.54089797,-0.67728078,0.49871853,0
-4.771697,3.1806901,4.2520499,-0.66839534,0.44553506,0.59560573,0
4.8699498,-3.3185313,3.6867156,0.70057857,-0.47739545,0.53036147,0
-2.1147597,6.1472545,-2.5651953,-0.30259934,0.87960595,-0.36705184,0
1.2847844,-6.4928036,2.0552232,0.18538259,-0.93685192,0.29654983,0
-3.6439173,-5.1790686,3.2581687,-0.51167434,-0.72723842,0.45750803,0
5.0838952,2.0513852,4.6877446,0.70481211,0.28439632,0.64989126,0
-2.078474,4.1554341,5.4621739,-0.28984499,0.57947886,0.7617048,0
6.4324594,1.5724748,-2.2117529,0.92136049,0.22523518,-0.31680289,0
-2.4007838,4.0610285,5.2854929,-0.33887157,0.57321578,0.7460494,0
5.3351979,-1.4838312,4.6905169,0.73515868,-0.20446315,0.64632547,0
-2.4964817,5.5600023,-3.5218332,-0.35465768,0.78987062,-0.50032222,0
-5.9342465,-2.7686944,2.4089749,-0.8504954,-0.39680889,0.34525394,0
2.6727641,-6.538795,0.54409033,0.37724894,-0.92292231,0.076795973,0
-1.8180144,5.6626573,-3.7182052,-0.2591987,0.80733865,-0.53011346,0
-5.5827327,2.7454004,-3.4921565,-0.78251195,0.3848131,-0.48948327,0
6.1798339,0.74855351,-3.2814524,0.87819833,0.10637477,-0.46631771,0
-6.7633715,0.31799668,1.9679579,-0.95920187,0.045099255,0.27910176,0
4.967382,-1.4818838,4.5547805,0.71985835,-0.21475022,0.66006535,0
-6.1678023,0.31225896,3.48734,-0.86964673,0.044027835,0.49170735,0
-4.2790122,2.0160551,-5.0582919,-0.61787498,0.29111156,-0.73040032,0
3.8574948,4.8732948,-3.2418332,0.55029213,0.6952014,-0.46246472,0
-2.013829,4.4286733,5.1695848,-0.283685,0.62386036,0.72823143,0
6.6242499,-0.43974492,2.7661076,0.92105323,-0.061143298,0.38460693,0
2.8642972,6.0089297,-1.7822772,0.41564864,0.87197781,-0.25863278,0
-3.3188827,-6.2459755,-0.97246003,-0.4648602,-0.87484425,-0.13620788,0
4.6086884,1.2254812,5.3382878,0.64383781,0.1712008,0.74576348,0
5.3113155,3.3500443,3.2938583,0.74902141,0.47243565,0.46451211,0
5.6144791,-4.5372758,0.75639629,0.77353662,-0.62512463,0.10421274,0
-3.4176586,-6.080935,-1.9776002,-0.47137177,-0.83869731,-0.27275541,0
4.6150231,-5.3700347,0.70488524,0.64857304,-0.75467873,0.099061161,0
-1.6483176,-1.2004774,6.8017635,-0.23212957,-0.16906105,0.95788002,0
-6.2096047,-3.3385174,-1.4349352,-0.86307859,-0.46402356,-0.19944294,0
3.8774517,-5.5324063,-2.2541149,0.54443133,-0.77680284,-0.31649932,0
2.9254203,-4.8379183,-4.0486827,0.42069361,-0.6957227,-0.58222574,0
6.4330649,3.5040836,0.5404315,0.87579435,0.47704422,0.073574081,0
-2.4606359,-6.3425331,-1.9121757,-0.3481994,-0.89751846,-0.27058795,0
5.657948,1.0024217,-4.1793661,0.79630727,0.1410822,-0.58820963,0
-2.1630843,6.2760768,2.1274877,-0.31029937,0.90031749,0.30519295,0
-1.8456717,6.9320464,-1.1650103,-0.25396127,0.95383775,-0.16030344,0
6.2017751,-1.9339373,2.9248357,0.87050033,-0.27145341,0.41053897,0
-4.6564989,1.3443245,5.3768258,-0.64326811,0.18571056,0.74277705,0
-4.4722204,2.9188643,4.5948267,-0.63480181,0.41431326,0.65220493,0
2.7431908,-6.7183261,0.96724921,0.37470329,-0.91768277,0.1321204,0
-0.83330661,3.2629969,-6.4415312,-0.1146422,0.44890693,-0.88619393,0
-7.0911617,-0.42055196,1.51835,-0.97619575,-0.057894748,0.20902172,0
-2.5303426,6.4832268,-0.036046304,-0.36357537,0.93155038,-0.0051793572,0
-4.6861095,-4.2429004,-3.0963938,-0.66572195,-0.60275841,-0.43988246,0
6.3893619,2.666585,1.0130911,0.91312969,0.38109249,0.14478497,0
0.9747901,-6.7663746,2.0069733,0.13681756,-0.94970065,0.28169057,0
3.714694,-4.6513176,3.9063876,0.52173096,-0.65328032,0.54865444,0
-7.105238,-0.099718176,-0.75457788,-0.99431115,-0.01395462,-0.10559607,0
-6.3834696,1.6191026,2.5687647,-0.90304136,0.22904733,0.36339185,0
-3.7716548,4.3891997,4.1448102,-0.52985483,0.61660957,0.58227694,0
0.49980369,-6.9198408,0.64978909,0.071726061,-0.99305576,0.093250237,0
-2.5791485,3.4837339,-5.4045858,-0.37227595,0.50284439,-0.78010136,0
-6.5617118,2.4342084,1.7733854,-0.90884244,0.33715469,0.24562614,0
-6.1076646,1.5459379,-3.4837868,-0.84836644,0.21473376,-0.48390475,0
4.5034175,3.7794764,-3.7541454,0.64559686,0.5418148,-0.53818339,0
2.8984032,1.2020146,6.304112,0.41159785,0.17069627,0.89523745,0
-5.8430595,-4.1623569,1.0876697,-0.80527246,-0.57364321,0.14989929,0
6.347177,-1.5855249,-2.3888204,0.91133565,-0.22765166,-0.34298983,0
3.2254779,6.0159464,2.6526451,0.44043589,0.82147169,0.36221611,0
-5.7786546,3.4714744,-2.5124953,-0.80323714,0.48253745,-0.34923866,0
0.1720935,3.8703623,5.6634555,0.025080003,0.56404626,0.82536227,0
-2.4184532,5.1055341,4.3956852,-0.33786559,0.71325934,0.61409116,0
5.1249738,2.1844769,-4.622407,0.70796156,0.30176264,-0.63853723,0
-2.2348132,-3.7934406,5.3802085,-0.32146028,-0.54565656,0.77390063,0
-0.03089794,-0.32217121,7.2508655,-0.0042570373,-0.044387907,0.99900526,0
-0.086445533,3.8419487,5.789474,-0.012440324,0.55289251,0.83315969,0
3.9610422,-4.4974561,-3.37306,0.57597572,-0.65397573,-0.49047711,0
3.2399466,0.89071345,-5.9988914,0.47120667,0.12954229,-0.87245804,0
5.2051153,-4.1579952,-2.8772442,0.71727735,-0.57298166,-0.39649114,0
-4.4297729,-3.9269369,-3.7577977,-0.63176346,-0.56005019,-0.53592795,0
5.7745199,2.657311,-3.2912548,0.80670857,0.3712301,-0.45979291,0
0.84489232,-6.8203716,2.2859077,0.11665435,-0.94168925,0.31561548,0
-3.9177005,-4.0408831,4.1136875,-0.56197262,-0.57964247,0.59008586,0
0.48099115,-6.9249225,0.39907643,0.069176815,-0.99595195,0.057395726,0
-2.5097821,-2.5476611,6.221931,-0.3497228,-0.355001,0.86698806,0
-7.0183125,1.3739747,0.993038,-0.97204453,0.19029711,0.13753693,0
-4.8608623,-4.4389057,2.2579551,-0.69848174,-0.63784873,0.32445693,0
1.5894089,-6.345686,3.1634855,0.2187319,-0.87328315,0.43535382,0
6.1811523,0.4444108,-3.2921448,0.88084608,0.063330829,-0.46914759,0
6.793613,0.38025841,2.2476289,0.94805217,0.053065255,0.31365776,0
2.0556958,-5.5156503,3.5793045,0.29839829,-0.80063432,0.51956052,0
-7.1450686,0.019413676,-0.8219223,-0.99344492,0.0026992629,-0.11427946,0
5.1739931,0.56192291,5.0685582,0.71220762,0.077349499,0.6976943,0
3.9583716,-2.4917006,-5.630435,0.54077792,-0.34040681,-0.76920897,0
3.6695776,-1.8891243,-5.7929401,0.51590765,-0.26559287,-0.81443214,0
0.89354634,-3.9320302,-6.0688858,0.12263318,-0.53964454,-0.83291346,0
4.2957535,2.1029632,-5.1842303,0.60902238,0.29814366,-0.73498446,0
-4.2348704,-4.2961049,-3.71594,-0.59771371,-0.60635644,-0.5244714,0
-3.8672795,2.7885051,5.3756599,-0.53821689,0.38808173,0.74814117,0
7.0054264,1.6038921,0.85784578,0.96790719,0.22160231,0.11852456,0
-5.8557305,2.6912782,-3.3314865,-0.80715841,0.37096786,-0.45921469,0
-3.9032526,-5.8415232,1.0201093,-0.54981172,-0.82283628,0.14369248,0
2.9080126,1.7589219,-6.121861,0.41531372,0.25120401,-0.87430602,0
5.1102538,-4.8884892,0.90344906,0.71678668,-0.68568105,0.12672174,0
-0.55372328,-5.8230128,-4.1070662,-0.077474445,-0.81472951,-0.57464206,0
0.90348023,7.0814891,0.63768071,0.12605561,0.98802543,0.088970661,0
-3.1098559,4.2174497,-4.7535224,-0.43956247,0.59611523,-0.67188644,0
2.211472,-6.3599811,-1.7475063,0.31789729,-0.91424203,-0.25120258,0
-4.4760056,-4.1254644,3.4357245,-0.64035606,-0.59020615,0.49152911,0
-2.4472258,6.4702315,-0.79899067,-0.35143304,0.92915547,-0.11473878,0
5.7893476,-3.7124753,-2.6608331,0.78507984,-0.50344008,-0.36082932,0
2.8341324,5.1853867,-4.2069321,0.39070556,0.71484292,-0.57995588,0
7.0524964,0.85367584,0.69228274,0.98807299,0.11960219,0.0969906,0
-7.122386,1.3880161,-0.67826098,-0.97727519,0.19045214,-0.093065389,0
5.6373038,-2.5569396,-3.6087625,0.78675997,-0.35685459,-0.50365031,0
0.49365181,6.8446159,1.7702043,0.069655605,0.96579385,0.24978063,0
5.6612277,4.1231246,0.60343987,0.8053534,0.58654636,0.085843988,0
-2.2526591,6.779798,0.59578097,-0.31422061,0.94570553,0.083104745,0
4.4832129,-5.4063525,-0.79479247,0.63427871,-0.76488322,-0.11244614,0
5.7499299,-1.797033,3.563736,0.82149202,-0.25674197,0.50915068,0
5.0836463,4.6301684,1.3449906,0.72556233,0.66083986,0.19196351,0
1.6813573,4.6491132,-5.1176801,0.23629147,0.65336841,-0.71921903,0
2.2172353,4.7874317,-4.9603643,0.30618009,0.66110086,-0.68498135,0
-1.30009,-6.9656391,-1.0748761,-0.18139976,-0.97190601,-0.14997597,0
-6.484798,2.3898001,1.580938,-0.91468543,0.33708301,0.22299245,0
-4.869,-2.8245356,-4.5093098,-0.67508525,-0.39162093,-0.62521434,0
1.5219862,0.18101323,6.9467106,0.21394874,0.025445402,0.97651345,0
1.7178706,5.6028266,-3.9457049,0.24315928,0.79306281,-0.55850238,0
-4.556612,-1.8226572,5.3637471,-0.62675923,-0.25070542,0.73778021,0
-4.4685521,1.1317414,-5.3161821,-0.63506442,0.16084152,-0.75552845,0
-0.090004496,6.4807954,-2.2997801,-0.01308711,0.94234049,-0.3343997,0
-6.9772639,-1.0347639,0.94664514,-0.98039109,-0.14539701,0.13301525,0
5.5646143,3.5018003,2.5870185,0.78758401,0.49562499,0.36615196,0
-2.1129601,-6.2692642,-2.2342122,-0.30259347,-0.89781082,-0.31995779,0
4.9248195,3.6971755,3.4999077,0.69527763,0.52196097,0.49411103,0
4.3547001,-2.2860928,4.8668823,0.62935907,-0.33039549,0.70338178,0
6.4712248,2.7964687,1.9783906,0.88381118,0.38192928,0.27019981,0
-5.6862507,2.451894,-3.106945,-0.82075381,0.35390654,-0.44845665,0
-0.57204223,-5.0322943,-4.8194036,-0.081822351,-0.71979678,-0.68934584,0
-6.7198486,-0.8074795,-1.7423848,-0.96150726,-0.11553793,-0.24930854,0
-1.1095443,3.2728286,-6.2139215,-0.15604909,0.46029881,-0.87394148,0
6.3177185,3.303488,-0.69448543,0.88199043,0.46118623,-0.096954226,0
-1.1434258,-0.38312647,7.1107535,-0.15853868,-0.053121388,0.98592275,0
0.96961915,1.0910311,-7.0408163,0.13484684,0.15173183,-0.97918016,0
-2.0028093,-6.7234178,-1.5006349,-0.27917278,-0.93718123,-0.20917439,0
-5.6241064,3.9283795,1.2531708,-0.80646813,0.56330955,0.1796983,0
-4.960732,-2.0509295,4.3150005,-0.72027618,-0.29778582,0.62651885,0
-6.5094609,2.2995808,2.0439389,-0.90410197,0.31938982,0.28388357,0
-1.7954463,5.5658841,3.7586794,-0.25826311,0.80061573,0.54066128,0
-6.1264582,2.9424787,1.9946165,-0.86494142,0.41542301,0.28160259,0
3.0675197,2.9021406,-5.7971225,0.42770296,0.40464422,-0.8082903,0
-1.7816736,6.7898169,-0.8126325,-0.25212723,0.96083689,-0.11499681,0
1.5208251,-6.2225595,-2.7420602,0.21826069,-0.89302844,-0.39352581,0
4.8564482,-0.64857209,-5.216527,0.67859077,-0.090624876,-0.72890449,0
2.838738,4.9714537,4.3566861,0.3945947,0.69104981,0.60559493,0
-4.0342784,-2.8979149,-5.3391318,-0.55321401,-0.39738634,-0.73214644,0
1.1931435,2.7326887,6.5299702,0.16620937,0.3806738,0.90964937,0
6.4600167,-1.3677903,2.852181,0.898112,-0.19015878,0.39652807,0
1.5940374,-5.2265286,4.3007822,0.22923505,-0.7516157,0.61848617,0
-5.1911144,-2.6620383,4.2617631,-0.71852005,-0.36846191,0.58988535,0
3.7238564,6.1839781,-0.58947855,0.51415563,0.85382646,-0.08138974,0
-2.3787758,2.4642351,6.1234903,-0.3390367,0.35121685,0.87275475,0
-3.8607035,1.0216649,-5.7617993,-0.55070269,0.14573345,-0.82188094,0
-4.0119252,0.72380626,5.9378538,-0.55701011,0.10049226,0.82440341,0
-5.9062295,0.9495638,3.6957145,-0.8399542,0.13504218,0.52558589,0
