4.566885,-5.6350121,2.6111085,0.59241444,-0.73097146,0.33871195,0
6.3947873,-3.6701705,-1.7403404,0.84411091,-0.48446193,-0.22972466,0
0.29940271,7.6760049,2.0202312,0.037693676,0.96638018,0.25433952,0
-4.1015801,0.019187281,-6.7204967,-0.5209499,0.0024370151,-0.85358375,0
-5.236032,0.61959559,-5.8388572,-0.66555566,0.078757226,-0.74218124,0
5.2121377,-5.9433312,-1.394164,0.64932311,-0.74041444,-0.1736836,0
0.97802097,-2.128932,7.5243273,0.12410437,-0.27014735,0.95478719,0
-7.7167058,1.3033943,-2.085799,-0.95277458,0.16092891,-0.25753167,0
-4.5037866,-2.2428246,6.2118979,-0.56340468,-0.28056788,0.7770822,0
6.1248708,1.0069015,4.8691278,0.77638125,0.12763363,0.61720479,0
-0.88106823,7.706975,0.19280444,-0.11354601,0.99322194,0.024847312,0
-1.0212437,-2.2601514,7.5850229,-0.12797199,-0.28321946,0.95047879,0
5.2167516,-3.1841278,4.9236674,0.66469908,-0.40570971,0.6273554,0
4.3802357,6.3338265,1.8361114,0.55328625,0.80005264,0.23192707,0
2.5672336,0.11275039,-7.4354944,0.32632867,0.014332036,-0.94514775,0
5.4400024,-5.7168374,-1.8218912,0.67168128,-0.70586228,-0.22495031,0
7.0496268,-2.311645,2.3108811,0.9072262,-0.29748878,0.29739049,0
-7.5695143,0.3066515,-2.291537,-0.95638484,0.038744476,-0.28952867,0
-7.6892524,-1.0244849,0.83341986,-0.9855687,-0.13131319,0.10682346,0
-7.0358934,-1.7867438,3.3434649,-0.88034678,-0.22356139,0.41834182,0
4.2840443,3.7313526,5.3005967,0.55135953,0.48022774,0.6821906,0
7.1482415,1.7436823,-2.8828578,0.90456063,0.22065094,-0.36480576,0
7.1003957,0.74244946,2.8389449,0.92418557,0.096637018,0.36951628,0
2.1831486,-1.0915962,7.3635325,0.281423,-0.14071433,0.94921046,0
2.6273105,-2.2888281,7.0183406,0.33529893,-0.29210162,0.89568484,0
-4.4042482,6.3032618,-0.67184937,-0.5705871,0.81661153,-0.08704064,0
-5.7893023,-3.7168465,-3.7059896,-0.74084759,-0.47563881,-0.47424945,0
0.36694723,-6.3199978,-5.0174232,0.045426384,-0.78238672,-0.62113398,0
-3.190624,-6.9560757,-2.0891399,-0.40219933,-0.87685949,-0.26334995,0
-6.7130637,-1.2783986,4.2163396,-0.83602291,-0.15920757,0.52508909,0
-3.6875103,5.6955028,-3.7566378,-0.47546625,0.73437607,-0.48437953,0
-0.973342,0.94355923,7.5427918,-0.12700777,0.12312151,0.9842307,0
-0.85104167,-0.65670401,-7.6376729,-0.11033934,-0.085143052,-0.99024034,0
0.42001674,-3.0715616,7.192966,0.053624161,-0.39215082,0.91833663,0
-2.3869913,2.4224875,7.0236697,-0.30587846,0.3104271,0.90004075,0
0.7184298,7.2665911,-2.8354771,0.091715708,0.92766273,-0.3619808,0
4.7754693,0.49629676,6.4005423,0.59684807,0.062028199,0.79995304,0
0.1525714,4.2071939,6.6272492,0.019432427,0.53585398,0.84408706,0
-3.3845644,-6.0225973,-3.729666,-0.43110272,-0.76711738,-0.47505942,0
7.4151506,-1.7904146,1.7457341,0.94756889,-0.22879389,0.22308426,0
-0.44783503,-4.3082781,6.4661708,-0.057541061,-0.55355853,0.83082008,0
3.6493149,-3.6175849,5.7405152,0.47366571,-0.4695473,0.74509472,0
-4.8921242,3.3490746,-4.8482585,-0.63877183,0.43729356,-0.63304418,0
-6.9886727,2.9601123,-1.8140795,-0.89558119,0.37933111,-0.23246983,0
-1.0460488,2.3756144,7.2665892,-0.13556375,0.30787015,0.94172102,0
0.21274926,2.6927583,-7.5547428,0.026517045,0.33562511,-0.94162238,0
0.90860271,7.6003523,-1.7102664,0.11584579,0.9690361,-0.21805698,0
2.8489852,-5.1714129,-5.2165279,0.36161044,-0.65638703,-0.66211325,0
5.7882981,3.4130275,-4.2682371,0.72711921,0.4287405,-0.5361709,0
3.6343975,6.4516082,2.0930529,0.47230661,0.83841604,0.2720018,0
2.2227523,3.1949801,-6.7334352,0.28579697,0.41080403,-0.86577141,0
-3.6359019,3.2303519,-6.5078487,-0.44752467,0.39760759,-0.801018,0
-0.25148907,3.9778917,6.9223871,-0.03148381,0.49799058,0.86661071,0
3.0375128,1.5373666,6.9501295,0.39248714,0.19864826,0.89804935,0
-6.4465871,-1.3428663,4.3411541,-0.81735146,-0.17025965,0.55040729,0
-1.8584347,1.4648777,7.3911748,-0.23946612,0.18875486,0.95237994,0
0.74300283,6.935472,3.5922875,0.094700113,0.88396698,0.45785832,0
-1.535634,7.5766463,-1.9543431,-0.19258237,0.95017987,-0.24509227,0
5.3885002,5.329989,-2.1025403,0.68508428,0.67764527,-0.26731321,0
-3.070895,7.2732959,-0.47109124,-0.38827583,0.91961628,-0.059563529,0
2.7479908,-0.64039433,7.1592464,0.35710374,-0.083219789,0.93035012,0
1.148219,7.8297491,-0.33930311,0.14496316,0.98850936,-0.042837169,0
-3.8371611,-3.0342853,-6.0467405,-0.49334952,-0.39012259,-0.77743846,0
0.48040453,1.4081727,-7.8306561,0.060270902,0.17666745,-0.98242354,0
4.0434957,-6.0223145,3.2265463,0.50931644,-0.75856739,0.40641397,0
0.81143105,2.2990923,-7.4313736,0.10374901,0.29396033,-0.95017028,0
7.9330878,0.24740568,-0.24168827,0.99905097,0.031156957,-0.030436937,0
-0.31344411,7.9110498,-0.29651725,-0.039562251,0.99851596,-0.037425779,0
-2.6119714,-1.6825951,-7.4324255,-0.32423848,-0.20886986,-0.92262816,0
0.52012432,7.8157573,1.3259958,0.065469854,0.98379654,0.1669077,0
-7.1800075,2.8950615,-0.49019134,-0.92559248,0.37320951,-0.063191772,0
-7.7179708,0.59415716,-1.1280048,-0.98662943,0.075954281,-0.14419888,0
-6.3818846,-1.8347598,-3.9334252,-0.82688946,-0.23772657,-0.50964689,0
-1.8867081,-0.40169761,-7.4427953,-0.2453869,-0.05224514,-0.96801639,0
-6.9547858,1.3588334,-2.9087367,-0.90793067,0.17739245,-0.37972862,0
-2.2133758,6.3881884,4.0165439,-0.28146103,0.81234556,0.51075852,0
-6.2329469,-4.9248815,-0.55556405,-0.7827177,-0.61845416,-0.069766328,0
4.9449811,5.3700428,-2.5037909,0.64075249,0.69583046,-0.32443205,0
-1.7242774,5.1475282,-5.4446869,-0.22426374,0.66950011,-0.70814931,0
-5.1739092,0.53583622,5.6105194,-0.67625934,0.070036836,0.73332673,0
4.7295098,-6.3110433,-0.75526363,0.59696263,-0.79658508,-0.09533,0
1.1354597,-3.1301467,-6.9475741,0.14738044,-0.40628693,-0.9017815,0
0.92726648,7.5770259,-1.5570574,0.11902168,0.97256869,-0.19986011,0
-6.9262753,-3.6301868,0.61498588,-0.8829928,-0.46279258,0.078401171,0
-5.8079095,5.111043,-2.0486164,-0.72569734,0.63862395,-0.25597429,0
4.4575334,-4.6123872,-4.8366165,0.55487049,-0.57414657,-0.60205847,0
-2.5778234,-7.1621995,2.155901,-0.32583672,-0.90530163,0.27250576,0
-2.9411619,-2.2556727,-7.006691,-0.37104601,-0.28456724,-0.88393795,0
-6.6245642,0.5096342,-3.7290227,-0.86947179,0.066889316,-0.48943299,0
1.8952082,-6.2039585,-4.6052027,0.23822837,-0.77983987,-0.57887566,0
3.5397558,4.5899372,-5.3008885,0.45065266,0.58435315,-0.6748656,0
6.5850554,3.2724111,2.8370194,0.83549261,0.41519397,0.35995275,0
-7.3609033,-1.4087737,2.1486266,-0.94413912,-0.18069498,0.27559149,0
0.90919304,2.7317646,7.2336602,0.11677933,0.35087559,0.92911184,0
-1.2254757,0.65147668,7.8392372,-0.15393206,0.081832021,0.98468697,0
-6.8249822,2.2668028,-3.297972,-0.86264145,0.28651184,-0.41684613,0
-1.7960411,6.9871292,3.4399886,-0.22471721,0.87421614,0.43040475,0
-2.5674934,-6.0675306,-4.5068402,-0.32164469,-0.76011449,-0.56459785,0
0.86516261,3.9369926,6.9132638,0.10811017,0.4919641,0.86387706,0
0.31958401,-4.8525171,-5.9300919,0.04167166,-0.63273644,-0.77324516,0
-7.7333488,-1.9274936,-0.051738594,-0.97029436,-0.24184039,-0.0064915814,0
-4.0380096,6.2069807,1.685401,-0.53171897,0.81732583,0.22193106,0
-5.8037372,4.678175,-2.2203257,-0.74616575,0.60145622,-0.28545934,0
-7.5064387,0.60729611,1.7491249,-0.9709003,0.078549094,0.22623588,0
-3.0150635,0.15518977,-7.2894325,-0.38214219,0.019669423,-0.92389417,0
-1.6649828,-4.8023753,5.8205767,-0.21546233,-0.62146646,0.75323004,0
5.4579377,2.6420405,4.9301748,0.6983819,0.33806783,0.63085085,0
-6.5987544,4.0193224,-2.1216235,-0.82355976,0.50163287,-0.26478994,0
-5.1807208,0.19502632,6.0987539,-0.64722264,0.024364457,0.76191163,0
-1.5502342,-6.6910667,-4.0526662,-0.19439121,-0.83902448,-0.508183,0
2.5951102,6.2701564,3.865617,0.33229038,0.80286098,0.49497217,0
-4.4367466,-6.0892448,-2.0469034,-0.56828415,-0.77994567,-0.2621792,0
-5.8323832,-5.2946377,-0.24929468,-0.74004513,-0.67181301,-0.031631891,0
-0.36703968,-6.7344408,-3.7406464,-0.047591358,-0.87320578,-0.48502234,0
4.2510467,5.6734662,-3.4320364,0.53971595,0.72030741,-0.43573382,0
6.7023687,2.8382869,-2.792784,0.85972142,0.36407071,-0.35823399,0
-6.1844521,-1.5444744,-4.7138486,-0.78007704,-0.19481257,-0.5945822,0
-3.5161006,-2.430217,6.6406279,-0.44522995,-0.3077288,0.84087652,0
3.8566759,0.30939141,-6.838676,0.49083984,0.039376304,-0.87035954,0
-6.2144256,5.01547,1.4222403,-0.76612329,0.61831433,0.17533581,0
7.453619,-0.82029659,-2.7130818,0.93470013,-0.10286699,-0.34022641,0
0.5056743,-2.8519404,-7.2646928,0.064657554,-0.36466062,-0.92889291,0
-0.59885031,-2.750689,-7.5384183,-0.074419968,-0.34183198,-0.93680984,0
0.077815771,-0.27059764,7.7025123,0.010095905,-0.035107639,0.99933255,0
4.5755606,2.5158622,-5.6542253,0.59450155,0.3268854,-0.73465222,0
-4.4981089,-4.2736111,4.9536676,-0.56654859,-0.5382725,0.62392741,0
0.039531708,-5.4216881,5.6669908,0.0050404468,-0.69128633,0.72256339,0
2.162966,5.520999,5.1808333,0.27469501,0.70116258,0.65796179,0
-2.793587,-1.9573369,6.9323363,-0.36157802,-0.25334096,0.89726233,0
6.2391396,-1.2153376,4.6445484,0.7925266,-0.15437825,0.58997369,0
-1.9893361,7.5778136,1.0253983,-0.25176999,0.95904666,0.12977421,0
-2.7843802,6.8018188,3.2469139,-0.34653482,0.84653205,0.40410027,0
2.3969934,4.3740535,5.9117966,0.30989692,0.56550252,0.76431066,0
6.2035809,4.0559206,-2.0418754,0.80692548,0.52757043,-0.2655952,0
2.2865837,-7.3908329,1.312548,0.29139531,-0.94186544,0.16726716,0
2.2674665,-0.81387037,7.561502,0.28571907,-0.10255422,0.95281017,0
-3.9910557,-5.6956744,-3.7675316,-0.50457668,-0.72008628,-0.47631723,0
2.3484056,-7.2147903,1.8505639,0.30070028,-0.92381382,0.23695442,0
-3.4600921,5.162982,4.6413603,-0.44606134,0.66559118,0.59834576,0
-3.6425991,0.45214513,-7.0452743,-0.4585284,0.056915782,-0.8868553,0
-7.257957,-2.8493454,-1.6188262,-0.91140306,-0.35780072,-0.20328078,0
7.2851934,2.6056728,-2.1197498,0.90812051,0.32480469,-0.26423296,0
7.5122628,-0.88391793,2.1768489,0.95441192,-0.11229929,0.27656254,0
3.256299,-6.8224096,1.3321424,0.42420965,-0.88877952,0.17354292,0
0.15712555,7.2446761,3.0603042,0.019975033,0.92100012,0.38904989,0
-4.3209596,-1.3549149,-6.4623575,-0.5475778,-0.17170291,-0.81894857,0
-5.1488233,5.3457413,-2.3552332,-0.66122347,0.68651211,-0.30246434,0
-0.39722914,-4.8193254,6.2004762,-0.050517622,-0.61289781,0.78854567,0
-3.1396828,7.0951042,-0.64558548,-0.40327016,0.91131622,-0.082920916,0
-0.68584245,1.4611317,7.6765742,-0.087430507,0.18626361,0.97860199,0
4.1322527,6.5889149,-2.2018831,0.511217,0.81514019,-0.27240348,0
2.9682629,5.7556272,-4.4948668,0.37653986,0.73013175,-0.57019764,0
5.9462566,3.9956148,-3.3972905,0.74996495,0.50394243,-0.42847943,0
-4.008276,2.0069914,-6.3160439,-0.51752359,0.25913021,-0.81548816,0
2.6827977,7.5816431,-0.6477446,0.3325088,0.93967694,-0.080282159,0
-5.8397298,-3.8738723,3.2355974,-0.75656849,-0.50188106,0.4191891,0
2.1030629,5.4852786,5.3691821,0.26425046,0.68922681,0.67463928,0
-6.9379234,3.0293112,1.5028942,-0.89890742,0.39249068,0.19472148,0
3.0261705,7.2951388,1.0014669,0.38011789,0.91634393,0.12579447,0
6.2241263,-0.40073639,4.4284029,0.8136906,-0.052388947,0.57893264,0
-0.13029768,4.3147545,6.5899215,-0.016539667,0.54770434,0.83650845,0
-4.7722077,-4.4630437,4.4197783,-0.60496372,-0.56577158,0.56028694,0
-7.7972398,-0.92519325,1.0326577,-0.9845556,-0.11682393,0.13039345,0
-4.3752999,6.2011127,1.8002226,-0.56094581,0.79502851,0.23080185,0
7.4964733,0.85175389,2.193532,0.95410061,0.10840549,0.27917796,0
4.7568059,-5.0193272,4.0192337,0.59471649,-0.62753808,0.50250202,0
7.7372952,1.5353533,-0.047867589,0.98085666,0.19463669,-0.0060681724,0
-3.8896914,-3.9762368,5.6191087,-0.49195415,-0.50290006,0.7106846,0
-5.9881058,-5.0089827,-0.78908533,-0.76314133,-0.63835913,-0.1005633,0
-0.19072174,-4.3853822,6.7737465,-0.023628583,-0.54330653,0.83920187,0
-2.9995201,-4.7713752,-5.5243454,-0.38007745,-0.60459411,-0.70000505,0
-1.2542768,5.885685,4.9206462,-0.16135296,0.75714761,0.63300288,0
6.502912,-0.56643087,-4.4983673,0.820306,-0.071452089,-0.56744391,0
7.1732044,-2.1623752,-2.0209384,0.92440259,-0.2786628,-0.260436,0
-5.4284992,5.5871687,0.34356862,-0.6961726,0.71652102,0.044060625,0
-0.15822749,-2.6887591,-7.3295832,-0.020262733,-0.34432453,-0.93863201,0
-6.0646353,4.8880382,1.7468708,-0.7597177,0.61232519,0.21883073,0
-3.8601854,-0.27081463,-6.8027086,-0.49323151,-0.034603082,-0.86920965,0
7.6678281,-1.9095861,-1.2347417,0.95872802,-0.2387604,-0.15438288,0
4.8237567,2.886538,5.5764318,0.60920137,0.36454636,0.70425814,0
-1.117891,-3.837137,6.8306599,-0.14125507,-0.484855,0.86311215,0
1.2449783,-3.6148076,-6.6885104,0.1615997,-0.46920642,-0.86817676,0
-5.7057133,0.15179007,-5.6391973,-0.7111131,0.018917864,-0.7028231,0
1.939244,7.7673373,-0.77686644,0.24109861,0.96568263,-0.09658476,0
-2.7206774,6.8503451,-2.9013226,-0.34346351,0.86480069,-0.36626852,0
-3.3429413,-6.2176929,3.36726,-0.42741272,-0.79496491,0.43052199,0
2.6865447,0.40438461,-7.468976,0.33802605,0.050880421,-0.93976045,0
6.1169505,-4.0407977,-2.6997845,0.78297728,-0.51722717,-0.34557578,0
3.7154591,5.6126227,4.0214515,0.47386187,0.71582216,0.51288754,0
-4.0730209,-0.28076988,-6.6458373,-0.52220154,-0.035997473,-0.85206205,0
2.6727166,-5.6327806,4.8218288,0.3391028,-0.71466303,0.61177295,0
-1.2732958,-3.4621978,-6.9842753,-0.16120483,-0.43832946,-0.88423991,0
-0.73292369,1.746133,-7.7957225,-0.091359265,0.21765625,-0.97174031,0
6.5083246,-3.6383433,-2.2535093,0.83554029,-0.46709141,-0.28930607,0
0.033577371,6.1654515,-5.0263147,0.0042210561,0.77506715,-0.63186473,0
2.4361413,-1.1732965,-7.511497,0.30515248,-0.1469678,-0.94089448,0
6.1726117,4.8379812,0.12647496,0.78695428,0.61680055,0.016124457,0
-6.8990593,-2.4841318,2.624171,-0.88584846,-0.31896585,0.33694708,0
-7.1016703,3.1335473,0.95007885,-0.90811902,0.40069926,0.12149039,0
4.4585309,2.1016004,-6.3748131,0.55329597,0.26080498,-0.79110324,0
4.8040895,-2.7759757,5.7064624,0.6035887,-0.34877527,0.71696335,0
-1.06085,-7.6330237,-1.0171,-0.13647498,-0.98196417,-0.13084668,0
-4.7682896,-3.0838578,5.7944622,-0.58772641,-0.38010794,0.71420968,0
-6.4071774,-0.14246641,4.5721178,-0.81386673,-0.018096685,0.58076972,0
7.0583534,3.0087759,-1.837193,0.89462167,0.38135186,-0.23285781,0
-7.2452388,-1.8012319,2.8185122,-0.90791374,-0.22571556,0.35319278,0
0.7743116,4.1946392,6.5717187,0.098831438,0.53539455,0.83879977,0
6.0056019,5.2847614,0.80455941,0.74695575,0.65730011,0.10006829,0
-0.57152134,-5.3840432,-5.7471151,-0.072382823,-0.68188572,-0.7278685,0
-2.2564166,6.5576496,-3.5691884,-0.28930014,0.84077072,-0.4576135,0
-2.3969901,-6.423933,4.1344814,-0.29937497,-0.80232489,0.51638108,0
3.1149745,-4.2637916,5.732698,0.3996619,-0.54705906,0.73552483,0
5.0648046,3.5492795,-5.1749458,0.62806821,0.44013339,-0.64172643,0
6.1665344,-3.5524943,3.3018069,0.78601921,-0.45281976,0.42086583,0
-4.6422448,4.1617742,-4.5942454,-0.59942168,0.53738171,-0.59322381,0
6.8211279,2.7715707,-3.0298495,0.85673785,0.34811097,-0.38055095,0
-0.55665714,2.4324362,7.2541404,-0.072563402,0.31708181,0.94561815,0
-6.7985144,-3.5232956,-1.2730292,-0.87583244,-0.45389575,-0.16400059,0
3.2739348,-6.6018953,2.3585091,0.4231351,-0.85325265,0.30482218,0
6.2223482,-4.1748438,1.9580357,0.80342996,-0.53905606,0.25282168,0
0.88437152,-2.0086772,7.4466362,0.11391652,-0.25873914,0.95920652,0
-2.0062222,-0.072224796,7.6727319,-0.25295916,-0.0091066295,0.96743405,0
-7.725677,-1.9604031,-1.287457,-0.95687819,-0.2428094,-0.1594604,0
1.0022057,-5.8955007,5.4056873,0.12432478,-0.73134369,0.67058176,0
5.3033667,-2.9764109,5.0557685,0.67058462,-0.37635249,0.63927704,0
-0.44045496,-5.2431483,5.8983707,-0.05572461,-0.6633423,0.74623841,0
-5.8263049,-5.4926281,-0.42532492,-0.7266115,-0.68499792,-0.05304322,0
-0.37975472,2.774384,-7.4144945,-0.047914561,0.35005069,-0.93550456,0
-7.1725135,2.2791886,-2.5243483,-0.90356582,0.28712347,-0.31800774,0
-3.1242073,6.8712287,-2.7555616,-0.38880569,0.85512024,-0.34292796,0
-0.42539951,3.7076945,-6.8944573,-0.054261949,0.47293597,-0.87942433,0
7.2577348,0.58429426,3.0763249,0.9181866,0.073919922,0.38919035,0
0.37501109,-6.2793546,4.5865693,0.048170459,-0.80658782,0.58914828,0
-6.2594166,1.3050789,-4.074861,-0.82555342,0.17212664,-0.53743273,0
-6.5539775,-3.8522568,-1.7665278,-0.83973521,-0.49357444,-0.22633822,0
3.7098644,-2.1248965,-6.8228188,0.46075806,-0.26390809,-0.84738106,0
0.29630098,7.7819977,-0.87399244,0.037810244,0.99304175,-0.11152804,0
1.6178597,-7.2552199,3.2115982,0.19979662,-0.89597905,0.39661437,0
1.0638304,2.8506107,-7.2376895,0.13549851,0.36307809,-0.92185378,0
3.4266055,-2.1745846,-6.7344604,0.43580043,-0.27656668,-0.856498,0
-1.4980258,-3.7606053,6.627625,-0.19289398,-0.48423609,0.85340923,0
-7.4203558,-1.7870024,1.5496864,-0.95276493,-0.229449,0.1989779,0
-5.1152096,2.9840031,-5.2222733,-0.64784902,0.3779285,-0.66140884,0
-4.2911735,-0.20161626,-6.7330651,-0.53728318,-0.025243683,-0.84302408,0
0.039795257,-7.228488,3.4542055,0.0049672658,-0.90226382,0.43115583,0
-1.8673466,-4.824914,6.0959749,-0.23355031,-0.60345525,0.76242775,0
4.7366428,-4.9506545,3.6665032,0.60953027,-0.63707018,0.47182038,0
-6.7841244,2.9585681,2.8054748,-0.8571161,0.37378976,0.35444772,0
2.4632335,-4.0461206,6.4963174,0.30637431,-0.50325215,0.80800498,0
6.0388598,-4.0897408,-2.8772376,0.77022076,-0.52162218,-0.36697459,0
2.5506818,1.8935997,-7.0022182,0.33172557,0.24626961,-0.91066426,0
-2.5474896,-5.2026081,-5.267221,-0.32537231,-0.66449124,-0.6727438,0
-2.9396946,-1.7034128,7.0963011,-0.3736403,-0.21650672,0.90195221,0
7.0213337,-2.4367366,-2.6931033,0.88821006,-0.30825111,-0.34068191,0
0.58222735,-7.935215,0.81608653,0.07279399,-0.99211413,0.10203265,0
6.3065271,-4.1253343,-2.6115055,0.79072493,-0.51724261,-0.32743576,0
-0.81203991,7.9370079,-0.41291144,-0.10164326,0.9934774,-0.051684238,0
0.6129728,6.6025987,4.6570077,0.075648122,0.81483907,0.57473004,0
-4.0252843,6.5709376,-0.44368654,-0.52150351,0.85131061,-0.057482675,0
6.7043304,2.941144,-3.1645224,0.8405894,0.36876082,-0.39676803,0
0.81979334,3.7341912,6.7677784,0.10546719,0.48040724,0.87068111,0
-1.8735552,6.8575792,3.4449363,-0.23716994,0.86808842,0.4360882,0
-4.8465753,-0.13713947,6.2043591,-0.61550492,-0.017416425,0.78794062,0
3.5922396,-2.6425724,-6.604001,0.45079359,-0.33161896,-0.82874244,0
1.3920478,-7.8271127,0.17313299,0.17506024,-0.98431695,0.021772746,0
-5.2209964,3.4422996,4.5266795,-0.67629111,0.44589126,0.5863542,0
1.023805,5.8100719,4.8168545,0.13442384,0.76285249,0.63244474,0
-5.765017,-2.4397979,-4.7335753,-0.73456234,-0.31087223,-0.60313892,0
3.8722165,6.1590071,2.3263719,0.50696564,0.80636114,0.30457765,0
7.1308951,-0.37395072,-3.1758995,0.91245049,-0.047849745,-0.4063797,0
2.0622714,2.3914528,-7.2870364,0.25967157,0.30112055,-0.91754949,0
0.51559031,-7.3247929,-2.6126747,0.066153266,-0.93981397,-0.33522153,0
2.9539602,-5.083252,-5.3444943,0.3717837,-0.6397751,-0.67265493,0
5.0577221,5.6414957,-1.8776431,0.64793319,0.72271907,-0.24054055,0
7.8653917,-0.10026806,0.015799349,0.99991673,-0.012746944,0.0020085501,0
6.3636785,1.9922361,-4.3539352,0.79907531,0.25016141,-0.54671556,0
5.6313462,-4.2264485,-2.9086051,0.73920953,-0.55479294,-0.38180366,0
-4.8386874,-4.1063538,4.7545133,-0.61019659,-0.51784354,0.5995816,0
0.56569713,-7.7136464,-2.29526,0.070118338,-0.95610887,-0.28449818,0
-0.015366293,-6.5926366,-4.4908795,-0.0019263464,-0.82646495,-0.56298482,0
6.2151923,2.6865284,-3.6175325,0.8096118,0.34995618,-0.47123191,0
-2.0893252,2.5921707,-7.1640711,-0.26447463,0.32812673,-0.90685505,0
1.3813341,1.2827594,-7.693634,0.17438424,0.16193984,-0.97127014,0
7.7880807,-1.0407324,-0.43908983,0.98964512,-0.13224769,-0.055795915,0
6.2732644,-4.6490779,0.45233041,0.80207676,-0.59441417,0.057833318,0
-4.3701243,5.664957,2.8136868,-0.56842864,0.73684949,0.36598048,0
6.8397837,-3.2421818,1.9661446,0.87459755,-0.41457513,0.25140929,0
7.42346,-0.67275518,2.5262246,0.94322038,-0.08547987,0.32098058,0
-0.98480368,7.2799253,2.9585576,-0.12435003,0.91922784,0.37357366,0
4.0731149,6.1275215,-2.9146888,0.51466882,0.77425855,-0.36829293,0
7.1539083,-0.22217861,3.4216831,0.90176815,-0.028006174,0.43131176,0
-6.7359533,-2.262373,-3.7659905,-0.83759469,-0.28131899,-0.46828914,0
-3.9512455,0.09870322,-6.6206546,-0.51243556,0.012800784,-0.85863024,0
6.2572823,4.174469,-2.1899924,0.79870617,0.53284699,-0.27953994,0
-6.328855,4.1107635,1.6153159,-0.82005012,0.53264487,0.20930168,0
0.62679601,-6.1133094,5.0894194,0.078553751,-0.76615578,0.63783586,0
-5.3599906,4.7794576,-2.8570931,-0.69350094,0.61838883,-0.36966422,0
-7.4990849,-2.5449388,-1.3199294,-0.93406975,-0.31699204,-0.16440754,0
-6.5345454,-2.0261815,-4.1055007,-0.81899118,-0.25394648,-0.51455283,0
6.2218423,-3.0418408,-3.8489528,0.78525978,-0.38391125,-0.48577699,0
5.0877724,5.6626592,2.307234,0.63960731,0.71187896,0.29005304,0
-6.3939033,-4.0165186,-2.3110752,-0.80970854,-0.50864226,-0.292669,0
4.4072003,-5.8910193,2.5068276,0.56702507,-0.75793141,0.32252541,0
-2.5941448,6.4460173,4.0322452,-0.32290938,0.80237597,0.50191873,0
3.2555628,-3.7210064,5.9968605,0.41887337,-0.47875914,0.77157938,0
-6.6386452,1.3249512,-3.8094292,-0.85463548,0.17056948,-0.49041232,0
4.4277883,-4.9879665,3.6682217,0.58169317,-0.65528566,0.48190641,0
-1.3998222,6.7417383,-3.793998,-0.17805789,0.85755157,-0.48259792,0
-1.4951587,2.5556045,-7.3488078,-0.1887147,0.32256114,-0.92754573,0
5.177053,5.5975866,1.0547336,0.67258668,0.72722113,0.13702773,0
6.1487198,4.3543215,2.2937708,0.78071028,0.55287343,0.29124281,0
5.9845552,-2.0442555,4.7729154,0.75533545,-0.25801393,0.60240936,0
1.768746,-5.1218367,5.6883421,0.22514191,-0.65195346,0.7240634,0
2.4368212,4.7187147,-5.9397497,0.30583566,0.59222698,-0.74547416,0
-2.0906506,7.676578,0.35011572,-0.26251686,0.96392542,0.043963004,0
-5.9060731,-2.9028475,-4.3874683,-0.7467187,-0.36701384,-0.55471796,0
-2.4763105,6.5257535,-3.2396495,-0.32180807,0.84805202,-0.42100751,0
-3.9643698,-6.8983107,1.4346113,-0.49035963,-0.8532638,0.17744951,0
-0.80318761,7.4220133,-2.3631244,-0.10257251,0.94784147,-0.30178702,0
-3.3999035,2.3769853,6.7959242,-0.42701444,0.29853997,0.8535412,0
1.4008585,2.1224656,-7.4738469,0.17744382,0.26884827,-0.94669652,0
7.1204696,3.3981783,-1.5833454,0.88485008,0.42228654,-0.19675997,0
-2.423723,-3.3246431,6.6290731,-0.31065127,-0.4261232,0.84965569,0
6.9931979,-0.63129568,-3.9303963,0.86906314,-0.078452781,-0.48844072,0
2.6051836,5.1818066,-5.5843449,0.3235741,0.64360088,-0.69359773,0
6.778811,2.4420245,-3.0324497,0.8671456,0.3123838,-0.38791099,0
3.1271214,7.2720647,-1.780519,0.38541269,0.89627028,-0.21944611,0
-6.9709382,3.7785757,0.0068588532,-0.87915158,0.4765414,0.00086501578,0
-4.0695043,5.3783832,4.3636999,-0.50659573,0.66953266,0.54321891,0
6.8475184,-3.6286678,1.4237714,0.86905515,-0.46053362,0.18069842,0
6.5816431,2.3990731,3.9142439,0.82017905,0.29896325,0.48777801,0
6.523623,-1.7491323,4.1137538,0.82491577,-0.22117876,0.52018648,0
4.3506589,-5.5078125,-3.2166641,0.56349653,-0.71337086,-0.41662174,0
-1.6917789,7.6938329,-1.6671439,-0.21010368,0.95550466,-0.20704424,0
0.93853289,1.6462748,7.6008701,0.11980961,0.21015731,0.97029871,0
-2.708446,-6.8854804,2.9951899,-0.33930761,-0.86259645,0.37523019,0
4.0928607,3.7478521,5.5709167,0.52049524,0.47661996,0.70846182,0
0.76792848,-1.1933455,7.8874702,0.095822044,-0.14890555,0.98419785,0
-6.9072404,3.762167,0.92854017,-0.87212873,0.47502241,0.11724024,0
4.6901741,-6.1117196,2.15258,0.58634299,-0.76405776,0.2691052,0
-7.1870713,2.5818729,-1.3565143,-0.92661077,0.33287427,-0.17489193,0
-3.0285211,1.9613717,-7.1385031,-0.37863275,0.24521525,-0.89247227,0
4.6402855,-5.7713943,2.1675889,0.60136956,-0.74795848,0.28091419,0
-1.6654462,5.2060032,-5.6699061,-0.21147092,0.66103506,-0.71993941,0
6.1473966,-4.3762975,-2.0169735,0.7870248,-0.56027859,-0.25822446,0
4.2924271,-3.4483335,-5.421989,0.55547589,-0.44624314,-0.70165062,0
-2.908848,7.0547605,0.69380736,-0.3796261,0.92069823,0.090546973,0
0.6689741,-2.0027401,-7.646142,0.084335051,-0.25247791,-0.96392035,0
4.0481486,-4.8476706,4.9345136,0.50508487,-0.6048407,0.61567605,0
5.8721294,5.3272438,0.0082797641,0.74063331,0.67190862,0.0010443007,0
5.4103103,5.7633848,0.35505208,0.68373221,0.72835225,0.044869985,0
6.9976153,-2.7542224,2.6160729,0.87885749,-0.34591341,0.32856268,0
5.4025617,5.7705288,0.96824926,0.67837882,0.72458303,0.12157933,0
-1.1209249,-2.4432249,-7.5255017,-0.14027023,-0.30574009,-0.94172567,0
-7.937541,0.60813075,-0.29586533,-0.9963901,0.076337934,-0.037139624,0
2.7007313,6.5486841,3.114116,0.34902105,0.84629989,0.40244359,0
-5.4139199,4.410244,-3.6551621,-0.68689859,0.55955583,-0.46375376,0
7.0305634,1.5533515,-2.6353567,0.9169594,0.20259547,-0.34371573,0
7.3471122,-2.2906723,-2.0319183,0.92304534,-0.28778577,-0.25527754,0
6.1738014,-2.8658929,3.9620106,0.78390479,-0.36389044,0.50306755,0
-2.4006891,6.1728053,4.5727081,-0.29828212,0.76696199,0.56815231,0
5.0398436,-6.2031326,0.21211882,0.63035548,-0.77585316,0.026530636,0
5.6093969,-1.9434412,-4.8713307,0.73045367,-0.2530742,-0.63434291,0
-4.9751916,-1.0270587,-6.0106807,-0.63217807,-0.13050433,-0.76375359,0
3.5210254,-5.4837766,4.2813754,0.45156345,-0.70328182,0.54907662,0
2.7200177,-2.9208581,-6.8030005,0.34485707,-0.37032059,-0.86251742,0
-7.2925072,-2.3996558,0.0052175918,-0.94989443,-0.3125701,0.0006796238,0
-6.0626669,4.0063291,-2.8538654,-0.77655596,0.51316339,-0.36554641,0
-3.9389303,-5.6954927,-3.5774267,-0.50535756,-0.73072129,-0.45897728,0
2.7262342,-1.4636182,-7.0302849,0.35492715,-0.19054776,-0.91526949,0
1.566704,2.27337,-7.1767831,0.2037449,0.29564458,-0.9333179,0
1.1878123,-4.302978,-6.1956882,0.15554816,-0.56348997,-0.81134695,0
0.73227012,1.5194223,-7.639863,0.093594797,0.19420433,-0.97648591,0
0.55905598,3.6906941,-7.0665131,0.069953419,0.46180829,-0.88421696,0
3.5040767,6.3716483,2.824409,0.44918987,0.81678575,0.36206284,0
4.5334821,-4.3091731,4.5070934,0.58804369,-0.55894828,0.58462077,0
-6.2996793,-1.3844428,-4.2050095,-0.81817639,-0.17980573,-0.54612935,0
-6.2151661,-3.7597337,2.5873475,-0.80602157,-0.48758575,0.33554339,0
2.2912979,2.9405696,-6.7809463,0.29610592,0.38001174,-0.87630606,0
7.4653726,1.9941719,-1.0915935,0.95662677,0.25553691,-0.13987882,0
-4.0246372,6.5276442,0.12925144,-0.52474397,0.85109329,0.01685218,0
5.4087663,5.2740541,-1.2200789,0.70680791,0.68920398,-0.15943775,0
0.27896291,7.7740703,-0.9455896,0.035598651,0.99205452,-0.12066735,0
-7.3630357,1.0522176,-2.9560499,-0.91995054,0.13146591,-0.36933404,0
6.8576813,1.8941057,-3.0209501,0.88723564,0.24505632,-0.3908456,0
0.47917461,-8.0013161,-0.31352079,0.059734192,-0.99744886,-0.039083689,0
-7.5447512,0.26870954,-1.5450943,-0.97907197,0.034870066,-0.20050475,0
-3.605747,-5.6699953,4.0287886,-0.46023205,-0.72370958,0.51422846,0
6.2671514,-4.3195562,2.4835775,0.78275877,-0.53950673,0.31019548,0
4.6602821,-5.7310829,-2.5894942,0.59537655,-0.7321772,-0.33082208,0
0.041645113,-3.0870657,-7.4800549,0.0051463577,-0.3814888,-0.92435908,0
-1.1031544,-7.9188619,0.81627405,-0.13726132,-0.98531395,0.10156588,0
7.7883401,1.3514721,1.2526357,0.97313344,0.16886304,0.15651368,0
5.5306125,2.6653543,-5.0334387,0.69664079,0.33573037,-0.63401634,0
0.68800926,-5.8123198,5.2239618,0.08769881,-0.74088174,0.66588527,0
7.4648376,-2.6439085,0.6604889,0.93936127,-0.33270451,0.083114699,0
-5.5413375,4.8707128,-2.4399633,-0.71310717,0.62680537,-0.31399557,0
-2.3858511,2.4889588,-6.9527965,-0.30742702,0.32071289,-0.89589727,0
-6.6766987,-0.69355422,3.8580201,-0.86236322,-0.089579552,0.49830234,0
-7.7983646,-1.5711898,1.1684419,-0.96989501,-0.19541137,0.14532098,0
5.0497713,-1.3269172,-5.7775407,0.64846861,-0.17039666,-0.74192548,0
3.5814898,-3.1882656,-6.4229612,0.4468264,-0.39776778,-0.80132818,0
-1.2101057,-6.5547171,4.4491801,-0.15099934,-0.81791037,0.55517733,0
0.038028669,7.6973648,-1.5430322,0.0048440499,0.98048186,-0.19654974,0
4.928525,-6.0512877,0.0022249182,0.63150704,-0.77537012,0.00028508561,0
4.3059678,-1.7754363,-6.3340044,0.54768437,-0.22582118,-0.80563432,0
-1.7703371,1.3496379,7.5591297,-0.22465907,0.17127156,0.95926762,0
-4.9213781,3.9865224,-4.8369322,-0.61754942,0.50024092,-0.60695291,0
4.586966,-5.549808,3.1914709,0.58242267,-0.70467794,0.40523189,0
6.890717,-3.2162557,1.9268503,0.87839347,-0.40999186,0.24562505,0
-3.2779903,1.7651134,-6.9053559,-0.41784194,0.22499713,-0.88021839,0
-5.0721784,-5.2032299,-2.770957,-0.65221822,-0.66906983,-0.35631016,0
2.2084398,6.723578,3.2402809,0.28373292,0.8638227,0.41630039,0
-1.3212352,4.3860474,-6.2002878,-0.17139159,0.56896126,-0.80430585,0
1.729827,7.726563,0.55514413,0.21793726,0.9734534,0.069941439,0
-7.586534,-1.0370239,-0.53255868,-0.98839873,-0.13510691,-0.069383502,0
0.52215356,3.2006357,7.2035336,0.066096649,0.40515152,0.91185713,0
-1.5741508,6.4668536,-3.8310506,-0.20498024,0.84209037,-0.4988656,0
-1.4488698,2.9509954,6.8705573,-0.190226,0.38744411,0.90205389,0
-2.0268705,-6.8103743,-3.3403637,-0.25814784,-0.86738813,-0.42543799,0
2.3058722,7.6361713,-0.98066908,0.28691486,0.95015281,-0.1220226,0
3.7889619,-1.4719611,-6.8160853,0.47743285,-0.18547629,-0.85886931,0
-3.2675877,-6.3738422,2.9313905,-0.42220968,-0.82357323,0.37876916,0
-2.7386274,5.3977065,-4.8786268,-0.35227674,0.69432098,-0.62755036,0
-1.202793,0.81853747,7.7471924,-0.15258797,0.10384078,0.98281944,0
-4.5523381,-2.9197764,-5.660388,-0.58149195,-0.37295705,-0.72302848,0
-5.9163194,4.4088855,-2.9826696,-0.74339801,0.55398577,-0.37477875,0
-2.2064104,4.3261027,6.0341878,-0.28485861,0.55852151,0.77904385,0
3.7240748,4.145967,-5.3919821,0.48025101,0.5346576,-0.69534177,0
3.5260198,5.8066115,4.1310067,0.44348145,0.73032051,0.51957303,0
-5.2349968,2.6309288,5.0417871,-0.6772669,0.34037095,0.65227079,0
3.5170062,6.4314079,-2.4575462,0.45490915,0.83187413,-0.3178727,0
-7.0841498,1.6855941,-2.7213571,-0.91128367,0.21682973,-0.35006717,0
-2.7164559,7.2379961,-0.42519242,-0.35084352,0.9348225,-0.054915674,0
-2.4911084,7.203187,-1.1691396,-0.32306209,0.93415308,-0.15162113,0
-7.4902272,1.0474553,-1.1881702,-0.97836334,0.1368172,-0.15519719,0
-5.3991413,4.1729255,-4.2328978,-0.67236835,0.51966465,-0.52713317,0
-4.4467049,-5.4261098,-3.3854978,-0.57085347,-0.69658625,-0.43461916,0
4.8545303,3.2438021,5.0609226,0.62828118,0.4198181,0.65499276,0
-6.8769164,-3.140388,-2.3689396,-0.86802435,-0.39638889,-0.29901445,0
2.1770248,5.8022037,-4.8044534,0.27763167,0.73994356,-0.61270243,0
-0.70336658,-0.93507504,-7.6559434,-0.090817437,-0.12073522,-0.98852175,0
-3.8991985,-3.2697434,-5.8344321,-0.5036549,-0.42234889,-0.7536267,0
5.4829755,-5.504847,-1.2589447,0.69661224,-0.69939101,-0.15994897,0
-5.1037083,5.2180486,2.9902463,-0.64703798,0.66153377,0.37909746,0
-0.13897915,-0.10343834,7.7303338,-0.017973902,-0.013377478,0.99974895,0
1.29581,-4.3502107,-6.5190949,0.16312464,-0.54763162,-0.82066429,0
1.9812009,-5.1393347,-5.4892302,0.25477692,-0.66090417,-0.70589972,0
-3.0110793,1.7196622,-6.9648814,-0.38701215,0.22102712,-0.89519191,0
-5.937726,-4.8643484,1.5671974,-0.75792438,-0.62091249,0.20004579,0
0.66450971,-6.7380934,-3.8545742,0.085290886,-0.8648451,-0.49474078,0
-4.2644091,2.4708202,5.9008842,-0.55465931,0.32137239,0.76751083,0
3.8727579,2.8016899,-5.945858,0.50763941,0.36724427,-0.77938044,0
3.4791505,-2.2689099,6.6047378,0.44591668,-0.29080227,0.8465178,0
5.9600377,-4.9846931,1.7652757,0.74801797,-0.62560678,0.22155194,0
-4.5770745,-2.7875257,5.9065766,-0.57389653,-0.34951395,0.74059618,0
-3.5527267,-4.6630917,5.2831526,-0.45018861,-0.59088999,0.66946191,0
6.5626273,3.9691794,1.3441961,0.84282303,0.50975251,0.17263199,0
2.3065903,-7.3995514,1.1261095,0.29450458,-0.94477195,0.14378123,0
2.7902348,5.6763587,-4.7180862,0.3536002,0.71935219,-0.59791249,0
-1.2606081,5.2880301,-5.6406784,-0.16091751,0.67502075,-0.72003651,0
-7.6251445,-0.65487772,1.188053,-0.9845401,-0.084556215,0.15339851,0
5.5202012,-2.9520552,5.1426229,0.68138266,-0.36438513,0.63477653,0
-0.82430077,-7.6122775,1.2613413,-0.10622466,-0.98096663,0.16254449,0
-0.19468488,6.2940121,4.4232798,-0.025299139,0.81790167,0.57480156,0
-5.5856066,2.9219146,4.5371943,-0.71916723,0.37620717,0.58418036,0
-6.1101594,-2.7716761,-3.9115202,-0.78674763,-0.3568826,-0.50364959,0
-4.7495389,3.823118,-5.2635188,-0.58965701,0.4746415,-0.65346777,0
3.0178964,-6.5858464,-3.3300846,0.37850916,-0.82600689,-0.41766429,0
-5.1378727,6.0685992,0.12593892,-0.646074,0.76311046,0.015836488,0
7.6231995,1.0986031,2.2069387,0.95148361,0.13712128,0.27545729,0
-2.167383,0.30361959,7.4123459,-0.28043351,0.039284755,0.95906919,0
-3.7102485,-0.38481772,-6.9324207,-0.47130662,-0.048882745,-0.88061374,0
-1.9337871,-4.8216052,5.713429,-0.25042275,-0.6243912,0.73988116,0
4.2384038,-2.7819004,-5.9866734,0.54027134,-0.35461017,-0.76312411,0
-5.8146582,1.5635964,4.9941249,-0.74329525,0.19987655,0.63840544,0
2.1701148,-3.1331995,-6.7443938,0.28012985,-0.40444988,-0.87060189,0
-5.7874651,0.43560958,-5.4250431,-0.72848397,0.054831363,-0.68286496,0
-5.7120323,1.1494262,-5.4503436,-0.71593779,0.14406741,-0.68313807,0
-6.8158517,3.9546635,1.2000732,-0.85509098,0.49613714,0.15055665,0
-1.8412203,-2.5765593,7.2282081,-0.23331694,-0.32649812,0.91594881,0
-1.9780065,-0.21907723,7.5948515,-0.25193495,-0.027903451,0.96734184,0
6.0958467,2.0410125,4.4786868,0.77804989,0.26050681,0.57164198,0
-4.2557197,5.0194182,-3.7580779,-0.56157517,0.66235113,-0.49590749,0
7.1204143,1.7321833,-2.5659893,0.91706568,0.22309458,-0.33048368,0
-0.39452866,4.9024644,-6.1117792,-0.050290611,0.62491769,-0.77906919,0
1.9817284,4.4861026,-5.9260955,0.25762606,0.5831964,-0.77039647,0
-7.472261,2.4667134,-0.44898292,-0.94805384,0.31296781,-0.056965351,0
-2.8831193,6.6395826,-3.3178129,-0.36207891,0.83383739,-0.41667023,0
-0.58498996,6.4174018,4.1552334,-0.07629431,0.83695668,0.54192501,0
-2.5814345,3.7788229,-6.641705,-0.32005081,0.46850511,-0.82345027,0
-0.46557283,0.81768113,7.6294646,-0.060564145,0.10636823,0.99248058,0
0.78168821,-6.338686,-4.325439,0.10133915,-0.82175612,-0.56075597,0
3.6620533,7.095078,-0.32842526,0.45826307,0.8878659,-0.041098572,0
1.5868343,-7.6501689,1.6608588,0.19866249,-0.95775694,0.20792992,0
2.8236609,-6.0780225,3.7853808,0.3668499,-0.78965646,0.49179652,0
5.2812743,4.8835635,2.8966997,0.68106127,0.62977338,0.37355188,0
-3.104172,-6.7590089,2.8941143,-0.38894641,-0.84689003,0.36262661,0
-4.1216621,1.9022543,6.4996781,-0.51988965,0.2399426,0.81984288,0
4.306694,-6.1979747,-1.6122571,0.55803293,-0.8030926,-0.20890562,0
0.22593653,-6.5135055,4.6756201,0.028167734,-0.81204528,0.58291423,0
-4.519002,-5.9922643,1.6386615,-0.58825505,-0.78003502,0.21331057,0
-4.5989819,5.7462211,-2.1709208,-0.59933311,0.74883974,-0.28291145,0
-0.63313276,-1.0753937,7.6194272,-0.082001977,-0.13928264,0.98685157,0
-5.504714,-5.1638474,-2.3784802,-0.69560564,-0.65253192,-0.3005577,0
0.93795431,-7.0058804,-2.9361544,0.12254495,-0.91532737,-0.38361239,0
-5.1781697,-5.886229,2.1647515,-0.63667864,-0.72373766,0.26616567,0
-3.6564314,-4.1007996,-5.4582305,-0.47212854,-0.52950656,-0.70478183,0
-5.6440549,0.24661712,-5.5792475,-0.71083492,0.031059949,-0.70267278,0
2.368279,7.2818108,0.72882074,0.30789423,0.94669062,0.09475223,0
2.5571358,6.3403358,-3.6273508,0.33041,0.81924093,-0.46869349,0
6.9801693,0.37734419,4.0714631,0.86285496,0.046645474,0.50329471,0
-1.4562544,7.7815509,0.41906434,-0.18369132,0.9815616,0.052860603,0
-0.57147294,-3.9857128,6.9380579,-0.071240067,-0.49686068,0.8649013,0
1.3544289,2.1713493,7.3244872,0.17456916,0.27986011,0.94403595,0
1.598049,6.5825372,-3.5513077,0.20894378,0.8606621,-0.46433097,0
3.38381,5.0592618,-4.7690668,0.4376134,0.65429229,-0.61676264,0
-4.9122934,3.6899476,4.6161637,-0.63922656,0.48016524,0.60069185,0
0.99621159,-5.9592037,-5.1483316,0.12550104,-0.75073034,-0.64857805,0
-6.2540293,-4.4229636,-0.20298234,-0.81616718,-0.57720834,-0.026489725,0
-2.408639,-2.577034,-7.3196111,-0.29643953,-0.31716448,-0.90084982,0
-7.401001,-2.0172832,-2.2475517,-0.92587966,-0.25236607,-0.28117308,0
-2.590497,-6.667243,-3.4977188,-0.32534885,-0.8373605,-0.43928975,0
4.0509186,0.63740158,6.4711452,0.52876693,0.083200112,0.84467942,0
5.5873775,-0.059761036,-5.4127502,0.71822041,-0.0076818857,-0.69577324,0
-6.3165054,-0.62768579,-4.5491018,-0.80883479,-0.080375783,-0.58251697,0
-1.227944,-0.87699783,7.5617337,-0.15924941,-0.11373596,0.98066491,0
3.2465603,-5.2526546,4.6377401,0.42039514,-0.68016309,0.60053819,0
-7.6738772,-0.3573615,1.2068311,-0.98681504,-0.045954563,0.1551913,0
-0.78278118,7.6223068,-1.9094343,-0.099127337,0.96524924,-0.24180083,0
0.35695663,-4.3537197,6.6090126,0.045057736,-0.54955906,0.83423901,0
2.9219699,1.7026653,7.3659587,0.36050543,0.21007064,0.90879381,0
0.46911529,6.3286471,4.6680188,0.059547819,0.80333585,0.59254164,0
-4.3741174,3.9095213,-5.1340985,-0.56107843,0.50148356,-0.65856302,0
-6.2130132,4.372129,2.0892887,-0.78853112,0.55489337,0.26516429,0
-4.9030075,2.9245753,5.318716,-0.62837714,0.37481818,0.68165499,0
2.1349437,2.7587163,6.8656206,0.27722976,0.35822877,0.89152437,0
-3.5475321,-4.9480267,4.7912946,-0.45789111,-0.63865733,0.61842746,0
-4.8177099,-1.8443853,5.6896558,-0.62729603,-0.24015053,0.74082881,0
-1.9505166,-5.772994,4.6948881,-0.25356212,-0.75047433,0.61032331,0
-6.2050176,2.8031282,4.013639,-0.78507382,0.35465857,0.5078153,0
-5.7667379,-2.9712412,4.2604952,-0.74302679,-0.38283548,0.54895192,0
3.8111897,-3.7271752,5.7215657,0.48736078,-0.47661731,0.73165256,0
-3.3183851,0.71125287,-6.934288,-0.42982998,0.092128485,-0.89819741,0
4.1093249,-0.45935252,6.8524361,0.51345134,-0.057395112,0.85619718,0
-2.4311104,-2.5488501,-6.9555588,-0.31181735,-0.32691881,-0.89212894,0
-2.2944946,6.3836451,-3.9315679,-0.29264787,0.81419241,-0.50144589,0
3.4726036,-0.30514207,6.8202667,0.45337138,-0.039838318,0.89043099,0
4.1174431,3.4726131,-5.6347761,0.5282113,0.44548851,-0.72286427,0
-0.97785014,-5.1721072,-5.9169927,-0.1234745,-0.65308923,-0.74714696,0
2.4225478,-1.0617965,-7.5677915,0.30218735,-0.13244794,-0.94400233,0
-1.4046679,2.2374458,-7.4719954,-0.17723902,0.28231779,-0.94280589,0
-3.5896292,2.6100349,-6.6463289,-0.44915509,0.32658261,-0.83162701,0
0.20084214,-4.8708215,-6.2375422,0.025369825,-0.61526871,-0.78790909,0
-4.4933,-3.8034172,5.3616419,-0.56430089,-0.47766045,0.67335349,0
4.1986747,-2.5552506,5.9521437,0.54392552,-0.33102491,0.77108204,0
6.7129245,3.0186996,3.0252295,0.84355646,0.37933448,0.38015503,0
6.0511103,5.1609383,-0.55827314,0.7589851,0.64733166,-0.070023678,0
-4.0681105,-0.85078073,6.6566033,-0.51839375,-0.10841383,0.84824193,0
5.2419758,-3.0333996,5.1116381,0.66143203,-0.38275409,0.64498603,0
3.2517145,0.4410933,7.3330951,0.40475249,0.054904453,0.91277647,0
-4.9210663,-5.6454687,2.3633881,-0.62662661,-0.71886873,0.30094329,0
6.6464429,2.0847511,4.0655618,0.82407171,0.25848177,0.5040763,0
-1.8191626,6.3499293,4.1061707,-0.23389666,0.81643456,0.527946,0
-0.34070137,-6.2044339,-4.9465704,-0.042897236,-0.78119165,-0.62281579,0
1.9262025,7.1310806,-3.0331881,0.24122275,0.89304155,-0.3798531,0
5.7550282,-5.2408414,0.58329952,0.73729712,-0.67142284,0.074728571,0
-6.0424337,0.26978531,4.7701788,-0.78441161,0.035022765,0.61925107,0
0.13776949,3.4856637,6.7584872,0.018114086,0.45829895,0.88861346,0
-2.9066854,7.3503184,0.024721479,-0.36773866,0.92992389,0.0031276324,0
6.5078492,-0.41026837,-4.2158394,0.8381108,-0.052836251,-0.54293525,0
7.1423559,2.5704885,-2.037951,0.90873855,0.32704923,-0.25929326,0
3.7444577,-1.4198331,-6.7271042,0.4782899,-0.18135919,-0.85927153,0
3.4370599,-7.1571569,0.9033187,0.43012249,-0.89566499,0.11304362,0
3.9981258,-5.7638383,3.4688101,0.51090562,-0.73653942,0.44326633,0
6.2027664,-4.4417362,-2.3900774,0.77585632,-0.55558264,-0.29895639,0
2.0799751,6.8959818,-3.1280806,0.26487204,0.87816089,-0.39834186,0
-7.1742754,-2.8001163,-1.8891777,-0.90473676,-0.35311833,-0.23824127,0
6.614728,-1.9729409,-3.6962042,0.84479183,-0.25197172,-0.47205615,0
-0.30249244,-7.0118132,-3.7880268,-0.037928432,-0.87918586,-0.47496697,0
2.1584747,-6.9472818,3.06388,0.2734414,-0.88010043,0.38814059,0
-7.0372758,-1.7939131,3.4750497,-0.87409562,-0.22282082,0.43163374,0
-2.8034604,1.0643017,7.1999245,-0.35944447,0.13645899,0.92313522,0
7.1906452,-2.4539435,-2.2716804,0.9067443,-0.30944362,-0.28646013,0
0.21135917,6.8673902,4.0460682,0.026507769,0.86127889,0.50744069,0
-0.033492576,7.7074056,-0.1503258,-0.0043446384,0.99980038,-0.019500181,0
-4.8285322,-5.3500633,-3.2226596,-0.61163092,-0.67769337,-0.40821481,0
-6.5662842,-3.8968821,-0.9480865,-0.8534075,-0.50647038,-0.123221,0
-0.77627188,6.4174747,4.1377974,-0.10114092,0.83613658,0.53911608,0
-0.66915202,4.7409992,-6.2240362,-0.085213974,0.60374832,-0.79260749,0
2.3935199,-6.7543654,2.577636,0.3142992,-0.88693291,0.33847594,0
-1.4301183,7.4850097,1.1597011,-0.18553337,0.97105187,0.15045136,0
4.0247188,-6.5258875,-1.9501402,0.50873059,-0.82488215,-0.2465007,0
-1.8155911,-2.0704298,-7.3651924,-0.23089874,-0.26330799,-0.93667215,0
-6.746315,-1.4315857,3.239589,-0.88539857,-0.18788388,0.4251695,0
4.762651,-5.9202852,-1.6656522,0.61227405,-0.76109654,-0.21413192,0
-4.5617986,-6.3717041,-0.58255601,-0.58053005,-0.81085688,-0.074135512,0
7.3138213,0.67900151,-2.2446046,0.95224887,0.088405006,-0.29224423,0
-2.8030658,-4.563024,5.81742,-0.35450408,-0.57708621,0.73572981,0
0.51504576,6.6803374,-3.7650528,0.067014754,0.86920661,-0.48988673,0
-0.07867752,-3.150666,-7.3455377,-0.0098431669,-0.39417273,-0.91898364,0
-7.5818138,1.6753972,-0.51905411,-0.97426969,0.21529,-0.066698909,0
3.3719761,-1.1686109,6.9583678,0.43119067,-0.14943585,0.88979971,0
-7.231215,1.8479164,-2.2106206,-0.92897332,0.23739648,-0.28399205,0
-5.369976,-5.2313805,2.4816432,-0.68000239,-0.66245198,0.31425157,0
-3.1002147,6.2621651,3.6502249,-0.39325166,0.79433429,0.4630186,0
-3.2775836,-7.1619635,0.61289328,-0.41487762,-0.90656376,0.077580236,0
2.0243533,6.7311339,-3.5190301,0.25753015,0.85630804,-0.44767699,0
-6.0853243,1.4222624,-4.7576571,-0.77478069,0.1810818,-0.60574269,0
0.67842144,2.8904748,7.1615744,0.087508574,0.37283805,0.92376083,0
5.2153606,-5.6856489,2.2812533,0.64823002,-0.70668334,0.2835426,0
7.411468,1.568702,2.4419591,0.93114591,0.19708517,0.30679756,0
-4.072104,4.5080452,-5.1434569,-0.51157874,0.56634605,-0.64617288,0
-3.6426806,-5.7728362,-3.6848576,-0.4695918,-0.74419826,-0.47502899,0
-3.9254479,6.5253863,-0.92185563,-0.51174581,0.85068989,-0.12017883,0
-2.8015878,4.9041681,5.3816876,-0.35911205,0.6286242,0.6898334,0
-4.3051338,4.7704644,-4.3222451,-0.55591404,0.61600131,-0.55812359,0
7.6813631,-1.8060117,0.87802362,0.96748483,-0.2274712,0.11058903,0
5.1916485,5.857811,-1.8494725,0.64549726,0.72832376,-0.2299519,0
7.1059327,-0.014743912,2.9244955,0.92474407,-0.0019187271,0.38058478,0
3.7781651,5.0449224,-4.6120572,0.48375699,0.64595282,-0.59052867,0
-0.0026154877,6.1286068,5.1684718,-0.00032624105,0.76444757,0.6446858,0
4.0293303,-6.6808558,0.05811597,0.51644194,-0.8562898,0.0074487631,0
-7.4759283,2.5712857,1.4719952,-0.92965358,0.31974691,0.18304692,0
-4.8050332,1.1353047,-5.8954492,-0.6248551,0.14763705,-0.76665473,0
-7.5303297,-1.9011351,1.3698061,-0.95484054,-0.2410626,0.17369045,0
-6.9407597,-3.5494349,-1.2641841,-0.87885326,-0.44943675,-0.16007359,0
5.9206681,0.65535516,-4.827342,0.77220029,0.085474379,-0.62960374,0
-3.6291125,-6.9274526,1.1495256,-0.45911852,-0.87639111,0.14542633,0
-1.094041,-7.683445,1.4947603,-0.13842349,-0.97214758,0.18912448,0
-1.9254074,-3.8172278,6.4563527,-0.24864589,-0.49295437,0.83376926,0
1.4597138,-1.5757335,-7.4692707,0.18781744,-0.20274539,-0.96105093,0
1.7499689,7.6801076,0.90268475,0.22071849,0.96866965,0.113853,0
-6.1529784,-4.6818728,-1.4383912,-0.78238839,-0.59532845,-0.18290015,0
0.080821894,7.723063,-0.82949525,0.010404598,0.99422765,-0.10678498,0
-5.4820652,4.5579653,-3.1785648,-0.70230174,0.58391625,-0.40720269,0
-3.0625303,5.2176156,4.9962368,-0.39031342,0.66497481,0.63676053,0
3.6252537,7.1467118,0.18086168,0.45227185,0.89159459,0.022563566,0
-0.15756913,-3.623476,6.8513269,-0.020325987,-0.46741852,0.88380247,0
-3.252064,4.3211479,-5.8294234,-0.40897435,0.54342061,-0.73309892,0
1.862761,-7.4035158,-1.1295979,0.24137227,-0.9593305,-0.14637069,0
-0.56216866,0.22598225,8.0127544,-0.069959506,0.028122533,0.99715334,0
3.392586,-5.8498344,-4.2143698,0.42576936,-0.73415387,-0.52890319,0
5.5842566,-0.1557359,5.4756489,0.71387458,-0.01990881,0.69999051,0
0.67944914,-5.5916891,5.366035,0.087336712,-0.71875834,0.68975264,0
-0.79251438,-7.8088031,0.72167939,-0.10054706,-0.99071038,0.091560155,0
-0.95125973,-3.2570422,-6.8995185,-0.1237213,-0.42361251,-0.89735472,0
1.1626472,5.9968605,-4.8022981,0.14962882,0.7717759,-0.61803973,0
-5.6284566,-3.2548349,4.7155704,-0.70077008,-0.40524268,0.58711135,0
0.18171453,7.8113804,1.7722324,0.022680413,0.9749651,0.22119838,0
-4.5480156,1.6489164,6.0775099,-0.58549219,0.21227448,0.78239274,0
3.1616316,-1.9149185,6.7378221,0.4113965,-0.24917224,0.8767361,0
-6.4180226,-0.32252711,4.6553359,-0.80880547,-0.040645182,0.58666998,0
-0.30223188,-5.6377239,-5.3412828,-0.038887084,-0.72538555,-0.68724352,0
-2.3351429,-1.3948587,7.2649198,-0.3010205,-0.1798096,0.93651223,0
1.9790505,4.1293154,6.2868934,0.25445127,0.53091598,0.80832094,0
-3.9077516,-5.0194902,-4.9331317,-0.48543835,-0.6235435,-0.61281568,0
-4.3479462,-2.3650255,-6.1498055,-0.55077863,-0.299591,-0.77903026,0
-1.3548471,-0.92296809,7.585928,-0.17457025,-0.11892321,0.97743672,0
-2.5387764,3.3901272,-6.3443894,-0.33281407,0.44441959,-0.83170068,0
-7.6639175,-1.1603879,1.8859999,-0.96070206,-0.14545916,0.23641747,0
-2.4417188,7.2110543,-1.5702889,-0.31410855,0.92764729,-0.20200573,0
5.0800905,-4.373292,-4.2731266,0.63905507,-0.55014265,-0.53754228,0
-2.417202,1.783262,-7.4756012,-0.30003056,0.22134396,-0.92789465,0
3.8960347,-2.6006508,-6.2991424,0.49631351,-0.33129534,-0.80244392,0
1.5178447,-7.8128204,-1.1137804,0.18887006,-0.97217315,-0.1385911,0
-1.9623085,0.827797,7.4145269,-0.25437137,0.1073062,0.96113503,0
-7.1464162,1.778304,-2.8849721,-0.90354842,0.22483769,-0.36475793,0
4.1892657,3.651073,5.450871,0.53818214,0.46904218,0.70025671,0
-2.9284258,1.3937249,6.8689594,-0.38551697,0.183479,0.9042744,0
6.2029324,4.3162656,-1.6890324,0.80106652,0.55741632,-0.21812706,0
-1.5109327,-2.8527014,-7.0828075,-0.19411336,-0.36649379,-0.90994632,0
-4.8239036,-4.7733774,-3.8558631,-0.61802846,-0.61155516,-0.49400514,0
2.2261229,7.4339561,-0.17032689,0.2867983,0.95773959,-0.021943741,0
-3.2110035,7.3986955,0.6688149,-0.3967573,0.91419595,0.082639955,0
1.709337,7.3125691,-1.6326081,0.22242194,0.95152438,-0.21243784,0
-3.1255145,0.94318557,7.132556,-0.39844805,0.12023955,0.90927529,0
4.4598398,1.859872,6.3149862,0.56087148,0.23389834,0.79417551,0
-2.5844533,0.4899981,7.3416228,-0.33139759,0.062831156,0.94139677,0
7.1995044,-2.9655714,-1.4858491,0.9082408,-0.37411642,-0.18744469,0
2.3563499,7.3343744,0.75683087,0.30441099,0.94750959,0.097773097,0
-4.9007115,-3.5433526,-4.694169,-0.64015096,-0.46284717,-0.61317152,0
-6.8439045,-3.0334125,-1.92993,-0.88527781,-0.39238021,-0.24964173,0
-4.8308105,-3.8156314,5.0534678,-0.60654259,-0.47907963,0.63449878,0
3.5087049,-0.61840075,6.7540965,0.45948428,-0.080982991,0.88448626,0
1.0159703,-3.6541266,-6.8074217,0.130375,-0.46891797,-0.87356639,0
2.930846,0.3547368,-7.4459882,0.36590311,0.044287317,-0.92959857,0
7.3941183,-2.5976021,1.2408965,0.93186462,-0.32737014,0.15638748,0
7.386939,2.1046412,0.21163622,0.96136218,0.2739054,0.027543079,0
4.7393236,-6.1342821,1.4858509,0.60045165,-0.77718687,0.18825084,0
-7.249948,1.7894049,-2.7690949,-0.91029477,0.22467552,-0.34768423,0
-3.6067495,1.4715574,-6.9837074,-0.45103297,0.18402191,-0.87332994,0
5.3192244,0.79913002,5.5781612,0.68643069,0.10312545,0.71984577,0
3.3377457,3.0157733,-6.2448969,0.4336777,0.39184341,-0.81140769,0
3.5493028,1.7020242,-6.8289042,0.45029598,0.21593387,-0.86637527,0
-1.1746424,6.2076225,-4.756815,-0.14853233,0.78494751,-0.60149437,0
-6.6260014,4.2100968,1.0843598,-0.83609504,0.53124666,0.1368288,0
7.624135,1.2489232,-0.26163742,0.98628151,0.16156454,-0.033846222,0
-5.6278067,0.46962172,-5.7097168,-0.70077854,0.058477633,-0.71097803,0
-5.5709834,5.7940445,0.43896413,-0.69206369,0.71977377,0.054530971,0
-4.5537553,5.9588842,-2.7573011,-0.56989789,0.7457484,-0.34507346,0
-2.9125011,-6.8327847,2.6549158,-0.36923888,-0.86624163,0.33658293,0
0.44747943,4.7716169,6.0574951,0.057932846,0.61775655,0.78423256,0
1.8971391,-4.9368086,-5.9945884,0.23731616,-0.61755329,-0.74987262,0
