0.91911232,4.7209678,-5.7889795,0.12212072,0.62726611,-0.76917082,0
-5.5343242,4.7716484,-2.2181835,-0.72471017,0.62483913,-0.29046729,0
5.0864434,1.7751924,-5.4272342,0.66514701,0.23213939,-0.70971173,0
7.4302535,-0.11940054,2.1861289,0.95922494,-0.015414275,0.28222311,0
-4.4863043,0.94719368,6.4419308,-0.56737512,0.11978994,0.81469983,0
-0.22928874,7.393177,1.9294978,-0.029994918,0.96715498,0.25241157,0
-4.5591989,3.8049753,4.8605533,-0.59411573,0.49583176,0.63338566,0
-1.092109,2.929354,7.0576692,-0.14148137,0.37949422,0.91431236,0
-3.0065432,3.8878484,6.1856408,-0.38055429,0.49210581,0.78294975,0
-2.2942283,-5.1608448,5.1253314,-0.30081463,-0.67667961,0.67202318,0
6.3489356,-2.5729971,3.3448997,0.83281189,-0.33750895,0.43876207,0
7.5578947,-1.4731193,1.4049896,0.96558744,-0.18820393,0.17949976,0
-7.4479895,-0.065809339,-2.1445649,-0.96092266,-0.0084905708,-0.27668688,0
-1.2897991,-1.6305324,-7.3131948,-0.1696443,-0.21446015,-0.9618876,0
0.40789294,-3.2632253,-7.0065203,0.052699901,-0.42160976,-0.90524471,0
3.3302898,5.467689,-4.1738725,0.43575975,0.71543282,-0.54614031,0
1.6999949,-7.3600121,-0.97054505,0.22321697,-0.96640265,-0.12743692,0
-1.6887662,-7.2053843,-2.2168398,-0.2185954,-0.93267137,-0.28694972,0
-1.9689132,-7.1290007,2.6489601,-0.25062639,-0.90746289,0.33719075,0
-5.4738655,4.6819515,-2.5696704,-0.71575463,0.61220509,-0.33600634,0
-2.0337753,7.4267035,1.2930067,-0.26047504,0.95117241,0.16560137,0
-7.5148172,-1.5947819,-0.64901805,-0.97474241,-0.20685819,-0.084183738,0
-4.2153778,-0.014588781,-6.6578302,-0.53493816,-0.0018513394,-0.84488922,0
-7.6010909,0.076625921,1.1552097,-0.98859835,0.009965972,0.15024664,0
-7.3829427,0.018811179,-2.8043439,-0.93483031,0.0023818768,-0.35508683,0
1.6424215,-4.6490459,6.0692945,0.21003672,-0.59453094,0.77615565,0
2.6239812,7.0015516,1.7964277,0.34122553,0.9104898,0.23360953,0
4.6466618,-2.1844571,-5.7174969,0.60467184,-0.28426421,-0.74402004,0
2.3317811,4.7395043,5.7728868,0.29800168,0.60570872,0.73777503,0
1.6668023,-2.300139,-7.2466035,0.21414691,-0.29551655,-0.93102688,0
-0.97536904,-5.9226289,4.4951811,-0.13006593,-0.78978544,0.59943455,0
-5.9295626,3.5774703,-3.5650692,-0.76127893,0.45930079,-0.45770863,0
4.7467384,-5.7994614,-2.1062701,0.60975176,-0.74498141,-0.27056512,0
-3.1505644,-4.1963391,-5.5497742,-0.41249871,-0.54942042,-0.72662365,0
3.1662433,-6.6999674,1.8648394,0.41434923,-0.87678868,0.2440415,0
-7.2049108,1.0606583,-2.2530944,-0.94513768,0.13913679,-0.29556015,0
-5.8349156,4.9905419,-0.39413345,-0.75895286,0.64912438,-0.051265299,0
2.3012795,5.9001002,4.4806604,0.29664093,0.76053828,0.57756877,0
-1.3026953,2.5324373,7.3083234,-0.16608414,0.32286727,0.93175793,0
6.7290359,-3.4353242,-0.56974596,0.8881253,-0.45340794,-0.075197369,0
3.1078229,-5.0256252,-4.8782463,0.40559259,-0.6558792,-0.6366452,0
-0.62700695,5.4956264,5.039165,-0.083796136,0.73446119,0.67345756,0
-6.5034966,2.7978277,3.4227109,-0.82702434,0.35578886,0.43525282,0
0.68874705,4.5405345,6.1320162,0.08990185,0.59267396,0.80040938,0
-0.58187896,-7.0155044,2.703289,-0.077164091,-0.93033957,0.35848838,0
-1.1199105,7.5201249,1.9410962,-0.14271954,0.95835233,0.24737009,0
6.159359,4.6622653,-0.808303,0.79300672,0.60025853,-0.1040676,0
0.3427327,-1.7400538,-7.3301663,0.045445278,-0.23072566,-0.97195703,0
3.8288984,2.1493483,6.4160576,0.49248186,0.27645418,0.8252483,0
2.3578572,0.40334862,7.1817579,0.31148767,0.053284872,0.94875509,0
-1.6440775,3.4522007,-6.6701941,-0.21383749,0.44901159,-0.86756098,0
7.5285869,-1.7260797,0.49073744,0.97274899,-0.22302224,0.0634069,0
3.3337357,5.1192698,4.4036798,0.44267952,0.67977673,0.58475506,0
-4.5064902,-4.2661562,-4.7412252,-0.57705486,-0.54628015,-0.60711259,0
-7.0015283,2.7695231,-1.5358007,-0.91113269,0.36040747,-0.19985898,0
0.22676784,-7.6064067,0.19374494,0.029789848,-0.99923211,0.025451723,0
-1.9207327,-3.9990759,6.4611664,-0.24506541,-0.51024026,0.82437724,0
2.8505819,6.2853689,3.8427022,0.36086774,0.79569256,0.48646462,0
-1.4949304,-1.3774828,-7.3631983,-0.19570611,-0.18033066,-0.96393979,0
5.598084,2.1199286,4.4962435,0.74774939,0.28316391,0.6005739,0
-0.45522013,3.4731357,6.7263885,-0.060025241,0.45796701,0.8869403,0
7.387495,-1.4556608,-0.33749664,0.98015034,-0.19313264,-0.044778027,0
-3.9012725,-2.1633599,6.2372589,-0.50875056,-0.28211579,0.81337792,0
-3.8398674,-3.9260709,-5.4285498,-0.49726963,-0.50843316,-0.7030068,0
-4.7025843,-3.0410552,5.3734455,-0.60590941,-0.39182794,0.69234723,0
7.1661015,-1.6709527,-2.4551492,0.92381001,-0.215409,-0.31650281,0
-7.4825768,1.9333004,-0.77842766,-0.96333051,0.24889918,-0.10021723,0
-1.972236,-4.0202408,6.3309655,-0.25433248,-0.51843578,0.81641853,0
-6.9150977,-0.79566473,3.3133433,-0.89700693,-0.10321138,0.42979753,0
-6.5564733,2.6143081,3.3415182,-0.83955508,0.33476162,0.42788073,0
0.31714439,7.1637583,2.4836395,0.041791622,0.94400245,0.32728097,0
3.6429317,5.2773924,-4.1580238,0.47665459,0.69051343,-0.54405111,0
-3.4932268,5.9164548,-3.5238183,-0.45239198,0.76621324,-0.45635372,0
5.6758194,4.9828477,1.1245015,0.74329937,0.65254849,0.14726353,0
5.4848189,2.1178875,5.0203042,0.70943546,0.27393875,0.64935267,0
0.68396813,7.5437298,-0.85021472,0.089733221,0.9896999,-0.11154395,0
3.1821051,0.24997897,-6.9086881,0.41812563,0.032847002,-0.90779513,0
-4.7179675,4.4104443,4.2683902,-0.60944062,0.56971645,0.55136675,0
-1.9455703,-6.7073841,-3.4937985,-0.24914381,-0.85892719,-0.44740519,0
3.9041102,-2.7004499,-5.8786764,0.51668912,-0.35739082,-0.77801293,0
-5.8815432,-4.4519243,2.8253343,-0.74459046,-0.56360382,0.35768113,0
-6.2714396,4.4978886,0.72054136,-0.80909252,0.58028269,0.092958659,0
5.3654571,5.3102603,1.4609505,0.69780564,0.69062704,0.19000423,0
-1.8077435,7.3660841,-2.0346944,-0.2302025,0.93801522,-0.25910297,0
-3.0962548,-1.8304408,6.9128261,-0.39733317,-0.23489502,0.88710243,0
-6.4208488,2.8658588,-3.0907426,-0.83597195,0.37312475,-0.40240383,0
3.0605738,-4.4049406,5.2947321,0.40607882,-0.58445019,0.70250827,0
-2.4323492,4.8920693,5.5249662,-0.31304103,0.62960464,0.7110579,0
-1.3058902,0.6205821,-7.4257898,-0.1726172,0.082030743,-0.98156726,0
1.0765345,-3.6097379,-6.5441327,0.14257196,-0.47805935,-0.86667895,0
-0.17903039,7.1018405,2.3557904,-0.023920111,0.94887137,0.31475532,0
-6.0631433,-4.1128483,2.5477772,-0.78165233,-0.53022289,0.32845601,0
-0.84434438,1.2314581,7.5932975,-0.10910666,0.15912971,0.98121023,0
-7.1419792,-0.69455153,-2.4085753,-0.94356859,-0.091761261,-0.31821096,0
-6.4208946,-0.75848049,-4.5445981,-0.81246847,-0.095974401,-0.57505113,0
3.9466064,-3.7773938,-5.1352463,0.52637726,-0.50380856,-0.68491167,0
-3.20594,6.8744931,-1.9884326,-0.40883788,0.87667054,-0.25357512,0
-2.5294721,-6.9306617,1.2513204,-0.33802065,-0.92616427,0.16721755,0
5.4728856,3.9829288,3.7330027,0.70801413,0.51526201,0.48292965,0
1.749475,-3.4193916,6.7405205,0.22550415,-0.44075337,0.86884081,0
-7.1260877,-1.8812162,2.1430829,-0.92842311,-0.24509446,0.27921179,0
-1.0888205,-4.5841489,-5.8357291,-0.14516872,-0.61118895,-0.77805787,0
-0.91856903,3.2575338,6.908473,-0.11940318,0.42344111,0.89802033,0
-0.22944053,3.9727619,-6.7369685,-0.029323485,0.50773603,-0.86101347,0
-2.843719,2.9773424,-6.4664125,-0.37095767,0.38838857,-0.84353107,0
-4.6655254,-4.9140964,-3.8881652,-0.59719634,-0.6290139,-0.4976927,0
5.6469183,4.1285443,3.2969012,0.73021913,0.53387386,0.4263317,0
4.5275888,-4.7015343,4.1711378,0.58450007,-0.60695601,0.5384832,0
-6.7944827,3.8763504,0.85781103,-0.86340916,0.49258736,0.10900637,0
3.4023378,5.0582852,4.5227156,0.4482308,0.66638863,0.59583163,0
4.8234844,-3.9217408,4.4451499,0.63115257,-0.51315945,0.58164752,0
4.7353687,-3.6883979,4.4339385,0.63456154,-0.49426258,0.59416848,0
5.0660062,4.7603722,3.1424732,0.66405129,0.62398881,0.41191489,0
-0.38874483,6.5889611,-3.5578413,-0.051844735,0.8787331,-0.47448948,0
0.80776954,5.1728797,5.760479,0.10376995,0.66453296,0.74001878,0
6.5596242,3.2806351,2.1567717,0.858051,0.42913315,0.28212288,0
0.86949241,-6.7974753,2.9361043,0.11662648,-0.91175675,0.39382461,0
0.22580571,-4.0700955,-6.7530813,0.028626433,-0.51598483,-0.85611928,0
0.69669384,3.7742193,6.4090753,0.093261011,0.50522554,0.85793328,0
7.0531797,-2.4731343,-0.74701691,0.93899137,-0.32924891,-0.099450521,0
-2.6951954,2.2248816,7.0882859,-0.34103292,0.28152242,0.89690673,0
2.058392,-4.607749,-5.7691927,0.26854503,-0.601143,-0.75266904,0
-3.860858,-6.6873245,0.11660123,-0.49993616,-0.86593068,0.015098502,0
-2.55286,3.7821624,-6.2017422,-0.33155856,0.49121705,-0.80546552,0
-7.2256417,2.1808336,-0.9015224,-0.95058864,0.28690541,-0.11860219,0
3.1887586,6.6916947,2.6125951,0.4057174,0.85140878,0.33241001,0
1.2954535,-7.4557753,0.67125803,0.17051734,-0.98138523,0.088356033,0
3.4468482,2.3813407,6.3142781,0.45486686,0.31425607,0.83327019,0
-4.6767364,3.6946568,4.8109193,-0.61058319,0.48236531,0.62810177,0
-2.2551277,-6.4879069,3.4884405,-0.2927312,-0.84217525,0.45282373,0
-2.5836155,-5.1062436,-4.779532,-0.34651253,-0.68484545,-0.64102715,0
-0.35221237,4.54459,6.2130699,-0.045707345,0.58976108,0.80628324,0
-5.8890915,4.1871023,3.0269487,-0.75170988,0.53446043,0.38637322,0
1.550212,-5.5915375,-5.1510162,0.19979644,-0.7206558,-0.66387993,0
-3.9088309,3.667634,-5.662581,-0.50131625,0.47038224,-0.72623867,0
5.2460818,2.8554273,-4.5722961,0.69743025,0.37960929,-0.60785508,0
-2.9564915,-1.2469099,7.1775126,-0.37604442,-0.15859795,0.91292787,0
4.7773819,5.2918377,-2.4347222,0.63414514,0.70243353,-0.32318273,0
-0.78059238,6.4461131,-4.0261483,-0.10217005,0.84371781,-0.52697384,0
-1.6449984,6.0535707,4.0829654,-0.21977833,0.80878109,0.5455004,0
0.99414051,7.0069203,3.0774519,0.12882055,0.90795553,0.39877567,0
-4.978857,5.8007059,-1.5249693,-0.63872069,0.7441529,-0.19563314,0
3.9277763,-6.6724758,-0.35229114,0.50676358,-0.86088604,-0.04545277,0
-7.2821522,2.5014901,1.1512091,-0.9353599,0.32130522,0.14786766,0
4.3514872,5.0453267,-3.4439378,0.58019072,0.67270148,-0.45918572,0
-5.174582,-1.8004152,5.1825652,-0.68613219,-0.238729,0.68719071,0
-3.8838856,-6.5021687,0.3822172,-0.51215225,-0.8574146,0.050401431,0
2.1600525,-3.6962018,6.3517876,0.28199759,-0.48254383,0.82923388,0
-2.0479445,-7.6406527,0.19369413,-0.25881672,-0.96561629,0.024478825,0
-2.766253,3.7514093,-6.0653238,-0.36162987,0.49041849,-0.79291457,0
-1.2404521,2.2716308,7.3637595,-0.15892266,0.29103389,0.94342083,0
-1.2096324,6.4221458,4.3201971,-0.15440837,0.81978053,0.55146885,0
1.1347862,7.5643263,-0.026867608,0.14835709,0.9889276,-0.003512556,0
1.4734509,2.5773723,-7.0307674,0.19306526,0.3377113,-0.92123657,0
6.2266269,-2.3214576,3.5481796,0.82655424,-0.30816212,0.47100347,0
-1.0267689,-7.1708474,-2.3244126,-0.13496315,-0.9425686,-0.30553129,0
-2.1821823,-0.54258507,-7.2273703,-0.28830162,-0.071684271,-0.95485264,0
-7.7446465,-1.0379107,-0.97385377,-0.98352987,-0.13180926,-0.12367436,0
-4.8168364,-2.682544,-5.4449992,-0.62161279,-0.34618235,-0.70267719,0
-5.4341788,1.8244991,-5.1465826,-0.70540202,0.2368353,-0.66806966,0
5.3366475,-0.41529259,-5.4986801,0.69543415,-0.054117993,-0.7165491,0
2.7446494,1.075087,7.2357163,0.35128823,0.1376006,0.92610079,0
7.6017489,0.026349355,-1.2179227,0.98740149,0.0034225534,-0.15819764,0
2.3435531,1.0579069,-7.0120597,0.31378633,0.14164677,-0.93886864,0
-3.9413419,-5.0574636,-4.2231808,-0.51334804,-0.65871954,-0.5500567,0
2.7391798,2.4932661,6.6156273,0.3612763,0.32884222,0.8725493,0
6.3531137,-4.4796286,0.39835599,0.81619513,-0.57550538,0.051177461,0
-4.3278012,6.2333169,-0.043684557,-0.57030714,0.82141137,-0.005756645,0
5.2714472,-4.4204874,-3.3862667,0.68747544,-0.57649761,-0.44161975,0
-0.25527406,4.9526539,-5.8803315,-0.033185445,0.64384145,-0.76443893,0
-5.505549,-1.3584504,-5.5701671,-0.69262755,-0.17090033,-0.70075685,0
1.2743119,-4.4435811,6.3852053,0.16165519,-0.56369871,0.81000704,0
5.9698591,-1.7157379,4.2333755,0.79418701,-0.2282494,0.56317776,0
-3.8064387,-4.6881928,-4.7577219,-0.49511975,-0.60981327,-0.6188572,0
-6.4966488,-4.0307055,-1.8177764,-0.82669461,-0.51290482,-0.23131093,0
-0.86051095,-7.7501988,-0.13387008,-0.11033645,-0.99374604,-0.017165091,0
-3.9887359,-6.6733351,0.028217288,-0.51304793,-0.8583523,0.0036294255,0
-3.0693827,6.9474339,0.33581567,-0.40372387,0.91381401,0.044170707,0
-3.9443052,0.14522679,6.5892429,-0.51351893,0.018907437,0.85786998,0
0.69451386,0.94892693,7.5900779,0.090424061,0.12354804,0.9882102,0
-3.5917888,-4.2665148,-5.1680212,-0.47238901,-0.56112838,-0.67969376,0
5.309165,3.318644,-4.5752053,0.68465108,0.42796057,-0.59000224,0
3.7899117,-3.8807623,-5.4564524,0.49258438,-0.50439245,-0.70918888,0
-0.85402936,6.7650051,-3.9064631,-0.10867667,0.86085826,-0.49710402,0
1.0792714,-4.1460943,-6.4483795,0.13940711,-0.53554183,-0.83292294,0
-6.2022352,-1.8306202,4.2647023,-0.80066121,-0.23631909,0.55054051,0
-0.546767,5.3316822,5.5635314,-0.070777088,0.69016778,0.72017986,0
-2.2239766,-6.5558562,2.8791697,-0.29662266,-0.87438667,0.38400897,0
-4.5720139,2.6101303,-5.2195086,-0.61671811,0.35207999,-0.70405853,0
-3.731168,-5.8542848,-3.207262,-0.48790827,-0.76553881,-0.41939941,0
-2.5876598,-6.921658,1.9422913,-0.33867505,-0.90591228,0.25420868,0
-0.46208259,-0.32918572,7.4788251,-0.061608434,-0.043889593,0.99713498,0
0.24139526,-7.5173907,1.5670396,0.031420317,-0.97847325,0.20396788,0
6.3106947,-1.8944199,-4.1378603,0.81109512,-0.24348424,-0.53182709,0
4.5025682,-1.1459726,-6.27142,0.57688701,-0.14682658,-0.80351931,0
4.3845596,6.2838554,1.0130184,0.56728697,0.81302333,0.13106723,0
7.5980105,-1.9264477,-0.82780325,0.96396756,-0.24441044,-0.10502426,0
0.42030624,5.1344256,5.65974,0.054918937,0.67088515,0.7395249,0
0.62506336,-1.2147548,-7.6854563,0.080075428,-0.15561944,-0.98456615,0
5.6128311,3.9059868,-3.5100875,0.73022527,0.50816607,-0.45665985,0
5.4712915,0.97173297,5.4596453,0.70233119,0.12473807,0.70083618,0
-3.0163791,-6.275588,3.6709085,-0.38321307,-0.79727626,0.46636716,0
-0.87160754,1.21029,-7.7478528,-0.11046846,0.15339343,-0.98197109,0
4.7971463,1.0350776,-5.8658562,0.62724,0.13533923,-0.76697671,0
-1.371182,-4.3251901,5.9697556,-0.18286426,-0.57681823,0.79614156,0
7.0217524,0.11704256,3.3187606,0.9040001,0.015068389,0.42726657,0
2.2731664,5.5848947,4.5948758,0.29985136,0.73669851,0.60610598,0
3.1763098,-6.1864295,3.5094035,0.40776658,-0.7941981,0.45052829,0
-1.0562394,2.2913704,7.318171,-0.13644904,0.29600799,0.94538933,0
-6.6465764,3.7924473,0.94865221,-0.86195993,0.49182278,0.12302577,0
-3.9970489,-5.841845,3.0593085,-0.51834196,-0.75757724,0.39673468,0
5.9222441,0.30631691,4.8609095,0.77235186,0.039948445,0.63393748,0
4.5004869,4.0813451,4.6689487,0.58735454,0.53265274,0.60934037,0
-7.1928382,2.5412855,0.45909813,-0.94117898,0.33252582,0.060072742,0
-3.0875075,-1.6134647,6.7574563,-0.40611324,-0.212226,0.88883752,0
3.0685687,2.6212366,-6.5534997,0.39869919,0.34057733,-0.85149634,0
7.098999,2.5292974,-1.2532315,0.92923516,0.33107653,-0.1640438,0
5.7637506,1.1282927,-5.0285931,0.74546111,0.14592899,-0.6503787,0
-0.52970046,-0.82839334,-7.579021,-0.069309503,-0.10839245,-0.99168915,0
0.48620835,7.468647,1.1550685,0.064202346,0.98621231,0.15252331,0
-3.3098824,-5.9709229,3.6747675,-0.4269087,-0.7701298,0.47397161,0
-0.42343497,-2.454051,7.2438273,-0.055279143,-0.32037467,0.94567662,0
1.6002599,-7.4886889,-0.33941117,0.20876735,-0.97696239,-0.044279039,0
1.8519111,-7.4120202,0.63515693,0.24156746,-0.96684062,0.082851306,0
-7.1198564,-2.1216574,-1.3950205,-0.9418931,-0.28067625,-0.18454869,0
-1.1028183,-5.371357,-5.2145419,-0.14574094,-0.70984191,-0.68911827,0
-4.7107139,3.4129174,-4.9620647,-0.61610383,0.44636792,-0.64897746,0
0.48891017,7.2069659,2.9941843,0.062524505,0.9216662,0.38291267,0
-1.2461578,-3.1324806,-7.0164156,-0.1600859,-0.4024097,-0.9013539,0
7.209023,-1.3805317,2.5392251,0.92818165,-0.17774728,0.32693225,0
2.2324533,-0.52729207,7.2501755,0.29357383,-0.069340371,0.9534182,0
-4.4403558,-4.2866669,4.45327,-0.58343023,-0.56323659,0.58512706,0
6.8468399,1.6651833,2.7952404,0.90320611,0.21966393,0.36873627,0
-5.1080179,5.3796892,-1.8254188,-0.66861475,0.70417517,-0.23893847,0
-2.8981423,6.1159453,3.4720626,-0.38100734,0.80403924,0.45645839,0
-4.9563146,-0.16576137,-5.8267217,-0.64776963,-0.021664318,-0.76152819,0
5.8900876,4.5472398,-1.6429718,0.77294093,0.59672248,-0.21560292,0
2.0976884,-7.1873899,0.83552307,0.27843985,-0.95402908,0.11090442,0
-0.7675969,1.5059977,7.6064878,-0.098510385,0.19327386,0.97618693,0
-4.0502057,6.4244089,0.85324174,-0.52996999,0.84063476,0.11164679,0
-2.3478408,5.049149,-5.241365,-0.30702361,0.66026962,-0.68540543,0
3.3208861,-5.6933794,-3.7983181,0.43654293,-0.74841607,-0.49930316,0
0.32557398,2.1935043,7.2449055,0.042970523,0.28950724,0.95621085,0
-7.4705815,1.9138261,-0.73621053,-0.96433282,0.2470444,-0.095033027,0
-1.6668214,-0.92222816,-7.4312115,-0.21727489,-0.12021506,-0.96867949,0
-6.2425041,3.0683534,3.0624275,-0.82136708,0.40372333,0.40294361,0
-5.2858267,-5.2693324,-2.3266516,-0.67612082,-0.67401099,-0.29760674,0
4.0637054,0.18545893,-6.6004767,0.52412271,0.023919854,-0.8513068,0
7.184648,2.5890236,-0.83111978,0.93525869,0.33702511,-0.10819069,0
4.0913377,-3.3440325,5.6119647,0.53078002,-0.43383014,0.72805494,0
-0.67086995,7.5431695,-0.24477996,-0.0885415,0.99554843,-0.03230609,0
-7.0096283,2.3933768,1.0324478,-0.9372946,0.32003114,0.13805407,0
-7.282795,-1.9516456,-0.48129299,-0.96395636,-0.25832132,-0.063704312,0
-2.9722164,6.5963144,-2.0782959,-0.39484254,0.87628394,-0.27609015,0
-4.7991867,2.4591928,-5.2754049,-0.63617182,0.3259863,-0.69929844,0
6.8592257,-2.1653631,2.9654572,0.88162446,-0.27831668,0.38115373,0
-6.0857301,4.3379998,-1.4446968,-0.7994988,0.56989479,-0.18979372,0
7.441628,-2.1887772,-1.1459841,0.94906181,-0.27914387,-0.14615212,0
-3.6935446,-5.3101568,4.2838311,-0.47607642,-0.68444836,0.55216092,0
-7.4908648,0.78195506,0.38918671,-0.99327052,0.10368535,0.051605213,0
-4.3849478,1.7897925,-6.2374372,-0.55989176,0.22852953,-0.79642671,0
5.3786321,-4.8383222,-2.5374613,0.70156085,-0.63108563,-0.33097327,0
-1.1273268,4.2067146,-6.1654615,-0.149344,0.55728966,-0.81677699,0
2.8096871,1.4131557,6.9650011,0.3676562,0.18491577,0.91139179,0
0.97065192,-7.6620359,0.23171185,0.12562229,-0.99162483,0.029988272,0
-7.5829253,-2.1447902,0.13633488,-0.96210599,-0.27212659,0.01729789,0
4.5983706,-5.0851197,3.8406706,0.58515471,-0.64709485,0.48873541,0
3.7271609,-6.3242769,-1.9505926,0.49070051,-0.83262461,-0.25680587,0
6.7796965,-0.41575998,-3.2720361,0.89922917,-0.055144578,-0.43398848,0
-3.736728,-6.3883915,-1.2725657,-0.49759343,-0.85069656,-0.16945851,0
2.7878451,3.4344144,6.2982554,0.36222494,0.44623372,0.81833279,0
3.1539812,0.84896141,6.9448214,0.41096571,0.1106202,0.90491456,0
1.6187152,-6.4011092,-3.7462699,0.21323082,-0.84320807,-0.49349028,0
2.3429105,5.0200319,5.3950367,0.30298302,0.6491859,0.69768113,0
0.67991585,-2.4880326,7.1105623,0.089889504,-0.32893485,0.94006473,0
1.3222399,1.0317957,-7.5831094,0.17025203,0.13285434,-0.97640359,0
4.2655101,4.0009031,4.7764168,0.56490153,0.52985841,0.63256329,0
-3.441745,-4.1261849,5.7436776,-0.4375934,-0.52461505,0.73026776,0
-0.26894274,-4.0977244,-6.6860914,-0.034275524,-0.52223623,-0.85211182,0
-1.1232016,7.5236263,1.1053395,-0.14611909,0.97876048,0.14379537,0
-6.3396392,-4.4800353,0.58604246,-0.81434727,-0.5754751,0.075279057,0
6.7627273,-3.7673302,0.59524542,0.87102288,-0.485223,0.076666169,0
-1.6520834,-3.7817042,6.3616638,-0.21786758,-0.49871016,0.83894092,0
-3.2168679,-5.8711491,-3.5682206,-0.42404059,-0.7739222,-0.47035515,0
-1.8434116,-5.3647923,-5.5922785,-0.23141798,-0.67348468,-0.70204282,0
3.3901129,2.1842828,6.6223617,0.43722603,0.28170899,0.85409218,0
-6.5560179,3.0740597,-2.925828,-0.83946931,0.39361987,-0.37463942,0
2.4224122,-6.3223724,4.1380429,0.30528277,-0.79677254,0.52149391,0
-5.1982431,-2.8839371,4.5810275,-0.69263971,-0.38427007,0.61039883,0
2.6066279,0.0078141456,7.2900419,0.33668461,0.0010093127,0.94161695,0
-7.012866,1.229085,-2.4553103,-0.93117088,0.16319835,-0.32601699,0
-2.4137106,6.6543818,2.7036207,-0.31854248,0.87819284,0.35680255,0
-1.5740482,4.7655544,5.9489522,-0.20223668,0.61228746,0.76433265,0
7.2183237,-2.1336033,-0.26327676,0.95839852,-0.28328493,-0.034956045,0
6.5499086,2.894516,2.3223319,0.87005782,0.38449332,0.30848721,0
-7.5658636,-0.18132864,-0.55481184,-0.99703729,-0.023895675,-0.073113672,0
1.5886854,-6.6904125,-3.027904,0.21144213,-0.8904438,-0.40299135,0
-5.6920619,-3.1320059,-3.9915502,-0.74649429,-0.41075176,-0.52347803,0
-0.98957348,4.0785456,-6.6283331,-0.12613599,0.51987183,-0.84488052,0
0.82197827,4.8825235,5.740654,0.10842777,0.64405733,0.75725394,0
-7.272697,0.71689093,-2.8503091,-0.92715198,0.09139207,-0.3633686,0
-4.4843483,-0.25566146,6.1407604,-0.58941513,-0.033603709,0.80713111,0
-5.8155127,-2.6032715,-4.631917,-0.73826212,-0.3304776,-0.58800817,0
1.4404439,5.6736574,4.8362122,0.18970589,0.74721843,0.63692725,0
-6.2384105,-2.8387845,3.2090597,-0.82431495,-0.37510398,0.42403045,0
-2.0449481,1.4245532,7.1066861,-0.27153695,0.18915825,0.94365615,0
-7.3646874,-1.9749922,-1.1327441,-0.95538741,-0.25620675,-0.14694573,0
-3.7998185,4.2703319,-5.2597303,-0.48917404,0.5497461,-0.67711747,0
3.7541666,-2.9451408,-5.785327,0.50061059,-0.39272863,-0.77146178,0
-4.9449782,-1.9093502,5.7241902,-0.63384247,-0.24473864,0.73372114,0
1.2706789,-7.449523,-0.38744199,0.16792279,-0.98446959,-0.051201247,0
1.9716191,-3.8738894,-6.5545244,0.25068697,-0.49255642,-0.83339322,0
-5.0930095,5.5557952,1.3711176,-0.66482729,0.72523803,0.17898187,0
5.6143956,5.1877971,-0.54307634,0.73261273,0.67694664,-0.070865087,0
-2.6892948,-0.76878476,-7.2168527,-0.34745789,-0.099327274,-0.93242002,0
-4.8316092,6.0997453,-0.20938179,-0.62068713,0.78359681,-0.026897991,0
7.358973,2.2380195,-1.613959,0.93634343,0.28476185,-0.20535743,0
-0.67343205,1.6562942,7.6843619,-0.085356623,0.20993312,0.97398275,0
-5.7965713,-5.063386,0.86066407,-0.74846601,-0.65379554,0.11113083,0
-5.3178205,1.2775898,5.4126225,-0.69110447,0.1660357,0.70342499,0
-2.2640882,6.6494622,-2.7811055,-0.2996861,0.88015628,-0.36812112,0
-5.0927448,4.4585052,3.6992776,-0.66023296,0.57800889,0.47958124,0
7.0882711,-2.7353234,-1.9546909,0.90352255,-0.34866419,-0.24915911,0
5.5306745,-1.0652685,-5.1110611,0.72717851,-0.14006256,-0.67200738,0
7.2099471,-3.0886574,-0.35451877,0.9182685,-0.39337552,-0.045151982,0
-5.6396809,4.941998,2.0694835,-0.72499233,0.6353038,0.26603627,0
-1.5975506,-6.8870664,2.9789414,-0.20823422,-0.89770103,0.38829288,0
-1.9993025,3.5151436,-6.4273281,-0.26328504,0.4629038,-0.84640485,0
2.4939139,-6.6023436,3.1240478,0.32312223,-0.8554281,0.4047651,0
3.9826531,6.218832,-1.5237199,0.52817768,0.82473874,-0.20207505,0
-5.5938883,3.502244,-3.9489198,-0.72733045,0.45536995,-0.51344776,0
3.9592242,5.7676845,-3.593008,0.50342584,0.73337632,-0.45686048,0
4.459753,-3.0900724,-5.6660209,0.56849402,-0.39389798,-0.72225952,0
5.2485123,4.2161198,-3.5861928,0.68807685,0.5527308,-0.47014776,0
-6.6760454,3.7002625,-0.32868397,-0.87382823,0.4843277,-0.043021478,0
1.7337129,5.6205611,5.0038247,0.2245058,0.72783017,0.64796638,0
-0.15171629,-6.8130794,3.9950783,-0.019205868,-0.8624723,0.50573969,0
4.797009,-4.5848708,3.9976339,0.61922199,-0.59183812,0.51603466,0
0.8354286,-1.7699587,-7.4557648,0.10837927,-0.22961487,-0.96722847,0
3.878428,0.21217461,-6.3964038,0.51827115,0.028352721,-0.85474622,0
4.1255016,6.3887367,-1.9890641,0.52481991,0.81273419,-0.25303599,0
-7.7667427,1.0369527,-0.095929816,-0.99113041,0.13232772,-0.012241806,0
-5.3647857,-5.6042557,-0.56610101,-0.68967122,-0.72045636,-0.072775245,0
3.5072975,5.705236,-3.5462196,0.46282449,0.75286537,-0.46796066,0
-5.044497,-5.7321377,-0.871894,-0.65637857,-0.74585283,-0.11344889,0
-4.0275493,-6.3172612,0.45871904,-0.5365805,-0.8416332,0.061114013,0
5.0176358,5.4393544,-2.3292079,0.64675909,0.7011174,-0.30022833,0
3.4932902,-0.93408865,7.0554109,0.44062257,-0.11782032,0.88992703,0
-5.0129843,-5.4570308,-1.9108779,-0.65507859,-0.71310496,-0.2497066,0
1.1579086,7.3319769,-2.2836642,0.14909603,0.94408888,-0.29405195,0
-6.9578047,0.63619494,-2.9144413,-0.91908979,0.084038042,-0.38498253,0
-3.6762018,-6.5954509,0.55640602,-0.48554671,-0.87111634,0.073489197,0
-3.0154717,-1.5134127,6.7971816,-0.39737445,-0.19943532,0.89572269,0
6.641922,-3.4830091,-1.7818599,0.86163223,-0.45183802,-0.23115416,0
-7.3999925,-1.2834595,0.61555386,-0.98199755,-0.17031831,0.081685543,0
-0.051250365,-7.4667039,-1.638432,-0.0067041926,-0.97673881,-0.21432753,0
-6.288857,0.93827224,4.009089,-0.83663583,0.12482271,0.53334773,0
7.2081199,0.19527075,-2.8790956,0.92836732,0.025149828,-0.37081212,0
1.8970853,-1.8447095,7.0601883,0.25161046,-0.24466386,0.9363929,0
4.8611531,-4.8505621,-3.2931323,0.63828152,-0.63689089,-0.43239647,0
-0.85739022,-2.910109,-6.9667783,-0.11283419,-0.38297588,-0.91684127,0
6.0026245,4.981173,1.2450432,0.75992501,0.63061047,0.15762095,0
0.64359927,-7.4570222,2.3847005,0.08193022,-0.94927931,0.30357251,0
-0.038212489,0.23315102,-7.5458908,-0.0050615328,0.030882612,-0.99951017,0
5.0860534,5.1069245,-2.6774659,0.66148973,0.66420424,-0.34822997,0
-6.4286399,-3.9598384,0.030431958,-0.85142946,-0.52445358,0.0040305052,0
-1.7950504,-7.316606,-0.10151579,-0.23825137,-0.97111005,-0.013473871,0
0.081125356,-1.8715225,7.3926444,0.010637585,-0.24540392,0.96936256,0
-4.4940124,2.4704659,-5.7754178,-0.58185071,0.31985724,-0.74775738,0
0.35664713,6.8169155,3.0909576,0.047594618,0.90971851,0.41248882,0
-0.35593185,-3.4489353,6.9612947,-0.045767341,-0.44347984,0.89511502,0
2.2694757,1.9825462,7.0005236,0.29777008,0.26012304,0.91851455,0
-2.1096849,-1.5442488,7.3858566,-0.2692661,-0.19709761,0.94268143,0
7.3050642,0.40884796,2.9565425,0.92571372,0.051810108,0.37465954,0
-3.8852317,-3.1555901,-5.8177042,-0.5062499,-0.41117683,-0.75805318,0
1.4587865,-1.3841575,-7.5638299,0.18638857,-0.17685325,-0.96642756,0
-1.9363722,-7.2586689,-0.69247961,-0.25666493,-0.96213204,-0.091787741,0
3.6879869,-4.855299,-4.3255768,0.49333128,-0.64947927,-0.57861984,0
-7.0978918,-1.2169217,3.2035239,-0.90053648,-0.15439548,0.40644324,0
-3.9132206,3.2254059,-5.6751366,-0.51416928,0.42379534,-0.74567246,0
-4.8022628,-5.7963495,1.7521007,-0.621373,-0.74999958,0.22670731,0
-0.70276487,-5.9157538,-4.7589545,-0.092168227,-0.77585626,-0.62414104,0
4.8822365,4.0275121,4.6621757,0.62108248,0.51235068,0.59308797,0
-0.8841514,-3.0408719,7.0018368,-0.11505374,-0.39570561,0.91114199,0
1.6187133,-4.247756,6.3430328,0.20742896,-0.54432595,0.81282383,0
4.2068686,-6.0171781,1.7247564,0.5578059,-0.79784226,0.2286925,0
-5.1909719,-3.490087,4.7775345,-0.65951085,-0.44341415,0.60698384,0
3.2475359,4.7174535,-4.8921204,0.431155,0.62630671,-0.64949614,0
-5.1031499,-3.5425875,4.6230903,-0.65900588,-0.45747942,0.5970124,0
5.3812456,4.2474341,3.252368,0.70918667,0.55976331,0.42862493,0
3.7515063,-6.6991115,2.0033782,0.47277513,-0.84424043,0.25247121,0
-3.0196321,3.827647,5.8275428,-0.39742559,0.5037716,0.76698571,0
4.6274576,-4.8911362,-3.9216888,0.5938682,-0.6277076,-0.50329286,0
4.0247731,3.3669724,5.4172544,0.53364712,0.44642892,0.7182771,0
5.766664,-2.4650235,-3.9640243,0.77726424,-0.33225009,-0.53429407,0
-6.1675167,-4.5518198,-0.063027143,-0.80457151,-0.59379888,-0.0082220845,0
7.196835,-2.0203218,-2.2492831,0.92194855,-0.25881276,-0.28814378,0
-0.16384634,2.0274575,-7.5575767,-0.020934768,0.25904971,-0.96563709,0
-5.5081453,2.6183791,4.6550975,-0.71791816,0.3412731,0.60673398,0
6.3630457,4.0989413,2.3817213,0.80190861,0.51657277,0.30015859,0
-4.517828,-2.6066589,-5.536181,-0.59396416,-0.34270051,-0.72784817,0
-3.8415194,5.3681164,-3.9086118,-0.50075513,0.69975221,-0.50950086,0
6.2752457,-0.38543651,4.5627332,0.80780619,-0.049616862,0.58735615,0
-2.5753343,1.4775212,-7.2394743,-0.32913023,0.18882865,-0.92521185,0
7.210701,-1.4079816,-2.3003011,0.9366284,-0.18288869,-0.29879582,0
6.676322,3.2408195,1.3754511,0.88454837,0.42937735,0.18223402,0
-0.25472194,5.5077949,-5.4842291,-0.032754395,0.70824087,-0.70521063,0
2.3524892,-7.1877427,-0.72536319,0.30963457,-0.94605047,-0.095472276,0
-5.2593341,5.7132301,-0.65225613,-0.67490047,0.73314637,-0.083700322,0
5.8515882,-5.009387,0.13658635,0.75953859,-0.65022051,0.017728966,0
-2.0168056,-6.5896673,3.758703,-0.25692508,-0.83947146,0.478829,0
2.4045131,-6.7453952,-2.9452105,0.31053442,-0.87114406,-0.38036358,0
1.8703232,4.2327428,-6.0324268,0.24600063,0.55672592,-0.79343551,0
5.4413176,4.4524584,-3.6147869,0.68828374,0.56320083,-0.45724201,0
-4.4530878,-3.9501767,4.8628612,-0.57934362,-0.51391524,0.63265479,0
2.495024,3.6094244,6.3387251,0.32364032,0.46819401,0.82222337,0
-2.6672523,6.2710247,-3.564692,-0.34681484,0.81540263,-0.46350625,0
1.4069238,6.7991734,-3.0295124,0.18572359,0.89753747,-0.39991641,0
1.3020284,-5.9314442,4.9088731,0.16674273,-0.75960338,0.628649,0
-7.154563,1.4251004,-2.0882916,-0.94286305,0.18780667,-0.27520522,0
5.7267036,-1.8897246,4.7955074,0.7432698,-0.24526766,0.6224097,0
-7.4136696,0.7678827,-0.88923156,-0.9876743,0.10229994,-0.11846645,0
5.6206355,3.3082135,-4.0141897,0.73392743,0.4319776,-0.52416211,0
0.12392864,6.8177743,-3.0563731,0.016584544,0.91237736,-0.40901408,0
-6.0298538,5.1641932,0.12016175,-0.75943428,0.65040803,0.015133858,0
-5.4794779,-2.1351914,5.0404997,-0.70745438,-0.27567419,0.650778,0
-2.655859,1.2575166,7.2325373,-0.3402026,0.16108176,0.92645282,0
-2.4824524,-1.9761204,-7.1726079,-0.31651494,-0.25195715,-0.91451401,0
-0.026538933,1.068349,7.8229375,-0.0033612328,0.1353095,0.9907977,0
-2.2485228,-2.5503149,-7.0579796,-0.28701288,-0.32553518,-0.90091646,0
-5.0647979,-1.822226,-5.6657505,-0.64809102,-0.23317187,-0.72498888,0
2.4107263,-4.9951963,-5.1459808,0.31862527,-0.66021425,-0.68014342,0
3.3804219,-6.5213652,1.3545535,0.45257616,-0.87309057,0.18134974,0
-2.8090732,0.24749047,-6.9705691,-0.3735781,0.032913707,-0.92701465,0
-6.2546377,0.76627129,-4.1525784,-0.82879913,0.10153826,-0.55025625,0
-4.361392,-5.6206307,2.6910355,-0.5733965,-0.73894984,0.35379308,0
5.3778648,4.9432969,2.9341166,0.68317324,0.62796825,0.37273344,0
5.9204578,-4.7046485,1.5848036,0.7662642,-0.60890627,0.2051156,0
-7.4391761,-0.083586074,1.9638145,-0.9668209,-0.010863134,0.25522408,0
-4.452673,2.8625767,5.3674374,-0.59065223,0.37972412,0.71199679,0
7.5238514,-0.22934464,-1.0180643,0.99051738,-0.030193293,-0.13402848,0
-6.5271893,-0.045990419,4.1382461,-0.844549,-0.0059506721,0.53544515,0
7.2759595,-2.1845784,-2.0629401,0.92428863,-0.27751407,-0.26206195,0
6.1827784,3.2914872,3.1415555,0.80540711,0.42876956,0.40923852,0
0.057669286,0.194464,-7.6916442,0.007495048,0.025273714,-0.99965245,0
-4.7035899,4.9520378,3.38714,-0.61697817,0.64956754,0.44429713,0
-5.5399566,4.8553858,-2.0470083,-0.72458833,0.63505113,-0.26773465,0
6.3116283,3.7686751,2.0955956,0.82569456,0.49302247,0.27414826,0
4.420671,-2.0720525,-5.9691467,0.57326072,-0.26869819,-0.77406293,0
7.6232233,1.1480541,-0.9305796,0.98172271,0.14784701,-0.11984053,0
-3.2638507,3.689683,5.78227,-0.42967308,0.48573223,0.76121306,0
-2.444114,-7.3742576,-0.010175721,-0.3146084,-0.94922066,-0.0013098273,0
4.5534468,-2.0833523,-5.972692,0.58422053,-0.26730019,-0.76631385,0
1.4833109,6.8476443,-2.8865776,0.19574474,0.9036476,-0.38092646,0
-2.4244606,3.1185944,-6.8268623,-0.30738744,0.39539382,-0.86554992,0
-0.35551327,3.1265283,7.2177663,-0.045151062,0.39707679,0.91667408,0
4.6145997,3.3964,-5.2091947,0.59591228,0.43859848,-0.67269605,0
-6.8333492,1.9163033,-2.7115405,-0.8994416,0.25223398,-0.35690731,0
-5.4285364,-4.013072,3.406811,-0.7178939,-0.53070652,0.4505319,0
3.2304118,-4.6171041,-5.407527,0.41363031,-0.59118599,-0.69239378,0
3.9478521,-0.81291705,-6.49968,0.51619267,-0.10629117,-0.84985131,0
5.5000768,-5.2538323,0.17267272,0.72292238,-0.69055635,0.02269586,0
-0.75724846,-7.5405498,0.79500264,-0.099375628,-0.98956543,0.1043302,0
7.4616098,1.0255827,-0.90888393,0.98355043,0.13518696,-0.11980433,0
5.8107486,-5.1536036,0.41152635,0.74709654,-0.66260642,0.052910551,0
-3.1198118,5.467845,-4.202858,-0.41216552,0.72236961,-0.55524921,0
0.097015806,-4.3865943,6.1419501,0.012852857,-0.58114517,0.81369841,0
5.4454985,-2.4219747,4.5483117,0.72634703,-0.32305473,0.60667586,0
-6.1589689,1.7701682,4.319768,-0.79693598,0.22904982,0.5589537,0
3.0668943,-3.9758677,5.8035989,0.39963096,-0.51807457,0.75623661,0
-3.0000546,-2.6629372,-6.6940255,-0.38442802,-0.34122968,-0.85777473,0
3.4927251,6.5767398,1.2968791,0.46207777,0.87008429,0.17157348,0
-4.1694446,4.6969371,-4.742887,-0.52977443,0.59679824,-0.60263669,0
-7.118412,-2.5113413,-0.68915403,-0.93912774,-0.33131972,-0.090919666,0
-6.433754,-2.7857568,-3.0709643,-0.84056878,-0.36395863,-0.40122095,0
2.1821733,-7.1163535,-1.3378766,0.28854457,-0.94098175,-0.17690484,0
0.69159466,7.0877094,-2.6238716,0.09112668,0.93389887,-0.34572956,0
-4.4221888,-1.9212044,-6.1631241,-0.56513476,-0.24552083,-0.7876181,0
-0.81873637,3.8940797,-6.5078683,-0.10733289,0.51049745,-0.85315418,0
-7.5388117,-0.086504236,0.13909458,-0.99976408,-0.011471812,0.018446112,0
1.7519885,7.5994496,0.66392773,0.22383913,0.97092772,0.084825337,0
1.4874983,7.0909781,3.0667324,0.18906581,0.90128613,0.38979155,0
-5.9759874,-1.4546402,-4.3427806,-0.79371309,-0.19320102,-0.57679534,0
-5.4234328,-2.0482671,5.2151117,-0.69550389,-0.26267087,0.66878867,0
1.8870716,6.5962019,3.6968229,0.24213648,0.84638077,0.47435173,0
5.8032737,4.1257911,3.2707338,0.74062186,0.52653921,0.41741559,0
-6.1939173,-4.3693814,-1.0353367,-0.8096242,-0.57113403,-0.13533175,0
3.9313269,3.4072788,5.6054707,0.51405847,0.44553417,0.73296875,0
-3.4655344,-4.8770056,-4.8742709,-0.44907215,-0.63197392,-0.63161951,0
1.2757356,7.4009023,1.6801922,0.16577238,0.96169233,0.21832851,0
3.3077421,7.1591349,0.11875359,0.4193792,0.90768629,0.015056429,0
-3.7656834,4.0312028,-5.1921363,-0.49708256,0.53213203,-0.68537903,0
-2.1155958,-7.2617846,-1.9277711,-0.27103972,-0.93034405,-0.24697654,0
3.9716396,6.1952548,2.9397244,0.50118738,0.78178883,0.37096837,0
6.3192105,-3.7966971,2.5382924,0.81048661,-0.48695517,0.32555524,0
6.3851819,-4.287209,0.25306866,0.8297711,-0.55713403,0.032886934,0
-2.968734,-3.6719587,6.1556802,-0.38265949,-0.47330272,0.79344577,0
-5.0422521,1.8199338,-5.3941469,-0.66303372,0.2393132,-0.70930636,0
-0.8334229,1.9683374,7.3341398,-0.10909709,0.25766018,0.96005678,0
-6.6343746,3.0231078,-2.0567613,-0.87579644,0.39907712,-0.27151078,0
6.3534455,4.3805122,0.42441943,0.82204163,0.56677336,0.05491358,0
-5.4923677,2.3339415,-4.8191495,-0.71603155,0.30427238,-0.62826514,0
-5.2754478,-5.6745901,0.40314275,-0.67995983,-0.73140585,0.051961634,0
-4.2570095,-4.4815898,4.5410457,-0.55502564,-0.58430624,0.59205806,0
-4.4869757,0.44063991,6.3632812,-0.57535511,0.056502298,0.81594974,0
-6.1876559,-2.5525718,-4.0860705,-0.78902948,-0.32549554,-0.52104229,0
1.560407,6.7398152,3.018985,0.20672765,0.89291203,0.39996469,0
-1.2967854,-7.6472545,-0.51280636,-0.16682431,-0.98377723,-0.06596972,0
5.9659686,-0.60295326,-4.8547759,0.773269,-0.078150772,-0.62924361,0
-1.7240137,5.6885538,-4.8369756,-0.22496624,0.74229842,-0.63117611,0
4.8954949,-5.7869682,1.2105876,0.63776958,-0.75390786,0.15771152,0
2.3637242,-5.9301662,4.4143963,0.30454457,-0.76404846,0.56875521,0
-6.187355,-0.37592569,4.3714824,-0.81571925,-0.049560729,0.57632095,0
-7.6250782,-1.4606096,0.91438252,-0.97540182,-0.18684152,0.11696803,0
-7.0337605,3.0021093,2.1648693,-0.88495559,0.37771165,0.27237394,0
-1.3154173,-6.6719122,-3.5783043,-0.17118168,-0.86824858,-0.46566224,0
2.7447355,-6.1321788,3.888684,0.35358134,-0.78995734,0.5009467,0
-0.47575918,6.2748389,-4.1677918,-0.063032188,0.83133835,-0.55218071,0
0.32442778,6.7838144,-3.3843403,0.042754851,0.89400786,-0.44600672,0
4.9038205,4.4023757,3.7129707,0.6483081,0.58201474,0.49087217,0
1.4959639,-7.2161093,2.6372786,0.19112326,-0.92192489,0.3369368,0
0.80122423,-6.7768264,-3.199353,0.10630843,-0.89916623,-0.42449811,0
-2.6849232,2.7864966,6.652606,-0.34886628,0.36206427,0.86440831,0
-7.0308304,-1.2009938,-2.5800929,-0.92694181,-0.15833853,-0.3401584,0
-4.2490358,4.4984751,4.6942043,-0.54706335,0.57917869,0.60437882,0
4.2694168,-1.9436318,6.1658883,0.55107003,-0.25087205,0.79585493,0
5.4565177,-5.2669964,0.57481879,0.71743357,-0.69251496,0.075578295,0
1.2675909,-3.9477687,-6.6131554,0.16239759,-0.50576895,-0.8472454,0
-1.2039486,-3.7175815,-6.7594886,-0.15419964,-0.47614136,-0.86574352,0
5.0337615,-0.18626121,5.6023164,0.66814965,-0.024723135,0.74361604,0
3.4423065,7.0792847,0.010979806,0.43729377,0.89931768,0.0013948207,0
4.2210398,-4.0147972,-5.0741057,0.54638225,-0.51968569,-0.65680534,0
-3.5822451,-0.40117016,-6.9781604,-0.45609412,-0.051077284,-0.88846457,0
3.8588142,-0.24372698,-6.5452042,0.50760889,-0.032061141,-0.86099088,0
-2.3434627,-7.0969458,1.4780765,-0.30759728,-0.93152803,0.19400877,0
-3.0579634,-0.43833739,-7.2355614,-0.38868588,-0.055715367,-0.91968423,0
-4.9481049,-3.191273,-4.9428272,-0.64364588,-0.41511846,-0.64295936,0
4.1386356,-1.3429257,-6.4005256,0.53474814,-0.17351781,-0.82700425,0
6.2034287,-3.6835229,-2.6176887,0.80828124,-0.47994787,-0.34107405,0
-4.2551832,-1.066445,6.304369,-0.55402952,-0.1388523,0.82083571,0
-5.2980008,5.5640821,0.12207776,-0.68949133,0.72411966,0.015887419,0
-4.4929776,-5.1295128,-3.302242,-0.59301388,-0.67702818,-0.43585247,0
1.8846859,-7.0678306,-2.2693658,0.24608304,-0.92284513,-0.2963106,0
1.9560994,2.2621148,-7.1202092,0.2532905,0.2929157,-0.92197847,0
-0.39761266,-3.0644486,7.2662563,-0.050355967,-0.38809949,0.92024076,0
-1.1890504,2.8068354,7.235323,-0.15144736,0.35750192,0.92155093,0
6.1699576,2.9093237,3.499501,0.80476838,0.37947291,0.45645171,0
-4.807703,1.790277,-5.6681824,-0.62886161,0.23417346,-0.74141484,0
0.19836633,-3.0395601,7.2053871,0.025357524,-0.38855243,0.92107761,0
3.9211438,1.9718921,6.012959,0.52672249,0.26488188,0.80771345,0
-3.8654523,-6.2323227,2.1905265,-0.50503129,-0.81426907,0.28619793,0
-4.3085303,-0.38810056,6.4152451,-0.55683511,-0.050158177,0.82910722,0
6.7507386,-1.6101098,-3.2225411,0.88224453,-0.21042298,-0.42114937,0
0.97479779,4.7847977,5.6620717,0.13037512,0.63994664,0.75727838,0
6.7912703,1.5409188,-3.3904271,0.87681663,0.19894706,-0.43773592,0
-2.6394756,7.0728412,2.3416343,-0.33393654,0.89482933,0.29625478,0
-6.4869046,-1.7519448,3.7358563,-0.84376639,-0.22787942,0.48593128,0
4.2034187,0.50621086,6.1068463,0.56566608,0.068122245,0.82181579,0
6.2131267,1.0766668,-4.5491247,0.79907584,0.1384711,-0.58506709,0
6.4256773,-3.8845174,-1.3973113,0.84133339,-0.50861162,-0.18295421,0
-6.8023992,3.7452743,0.19334029,-0.87572938,0.4821603,0.024890302,0
-0.97856534,-7.4095469,1.4507825,-0.1285321,-0.97322541,0.19055665,0
0.38584989,-2.2906792,-7.3447375,0.050088726,-0.29736227,-0.9534499,0
2.3483779,3.3716173,-6.5200472,0.30471778,0.43748996,-0.84601986,0
0.62532437,-0.069837868,7.6017332,0.081980407,-0.0091557875,0.99659187,0
-6.4765453,-3.8689172,1.1933174,-0.84794372,-0.50653923,0.15623546,0
0.5453307,-7.5597491,1.6277878,0.070345119,-0.9751724,0.20997705,0
-3.0070336,0.68286121,7.1101069,-0.38800538,0.088111363,0.91743565,0
-6.9733105,3.3942273,1.2055171,-0.88847399,0.4324607,0.15359572,0
-4.6771498,2.9622896,5.3243999,-0.60891241,0.38565686,0.6931771,0
-5.0260558,-1.2300262,5.8133864,-0.6458025,-0.1580472,0.74696732,0
-0.59261638,-6.5131741,-3.5868719,-0.0794487,-0.87318408,-0.48087147,0
0.18722603,-7.8414912,-0.4184809,0.023835625,-0.99829525,-0.053276539,0
-2.6032486,0.28336135,7.3552475,-0.33342975,0.036293536,0.94207615,0
-4.3789444,1.4431531,6.1450481,-0.569996,0.18785155,0.79988521,0
4.6341248,-4.7407866,4.0119848,0.59803277,-0.61179745,0.51774579,0
-3.5667951,-6.8234968,0.51404279,-0.46222186,-0.88425863,0.066614933,0
5.8956718,2.0743651,4.4944291,0.76585364,0.26946208,0.58383077,0
-6.1964335,4.541327,-0.38081685,-0.80558491,0.59040809,-0.049509175,0
-2.5145664,-5.1146169,5.0619073,-0.32987955,-0.67097354,0.66405874,0
-3.825248,-2.8116717,6.0173068,-0.4990803,-0.36683896,0.78507835,0
-2.7225533,3.3553255,6.2881284,-0.35684007,0.43977636,0.82417345,0
4.8153715,0.71917266,6.2843242,0.60572988,0.090465374,0.79051077,0
-3.0583973,5.2286801,-4.6018081,-0.40203968,0.68733287,-0.60492778,0
5.6362667,4.0100975,-3.3223512,0.73448688,0.52257353,-0.43295029,0
-2.7418106,6.7203898,2.9452839,-0.35003334,0.85795879,0.37600976,0
1.8613627,-7.3426452,0.49873379,0.24519682,-0.96724468,0.065698072,0
-0.70958412,-7.1202402,3.324338,-0.089934282,-0.90243524,0.42133406,0
3.0546696,-5.6796265,4.6570797,0.38400722,-0.71399462,0.58544868,0
-0.62332082,-2.8767593,-6.9399533,-0.082686268,-0.38161486,-0.92061561,0
3.5460243,4.3369207,-5.5646853,0.44908375,0.54924625,-0.70473564,0
-3.2336891,-5.3743672,4.8408647,-0.4081375,-0.67832148,0.61098588,0
7.15064,-1.8466554,-2.1106365,0.93096101,-0.24042103,-0.27478942,0
2.8175721,-2.4690406,-6.6144648,0.3706497,-0.32480061,-0.87012833,0
5.2333217,3.9672565,-3.8242984,0.68864238,0.52204341,-0.50323182,0
-3.8506188,-5.3874173,-4.1716213,-0.49199817,-0.6883567,-0.53301305,0
4.4613719,5.8483543,-1.7482623,0.5900774,0.77352482,-0.23123159,0
3.9015088,-2.679904,-6.1488795,0.50279355,-0.34536344,-0.79241574,0
3.0362861,2.360539,6.7493558,0.3908608,0.30387193,0.86884385,0
4.3488851,3.8730729,5.1630836,0.55878639,0.49764949,0.66340244,0
-2.3265395,-6.9407105,-2.6206274,-0.29922518,-0.89267147,-0.33704898,0
0.99062425,7.4641871,-2.1434915,0.12653603,0.95342767,-0.27379593,0
4.6373005,-3.5843182,-4.8924775,0.60740006,-0.46947896,-0.64082348,0
-1.9848191,-7.4030418,-1.5384791,-0.2538982,-0.94699764,-0.19680236,0
-1.7148763,2.0953019,-6.9260073,-0.23060441,0.28176135,-0.93136036,0
3.5058768,-6.4345884,2.7866735,0.44719616,-0.82077134,0.35545737,0
-1.6913426,-6.7022524,-3.7201579,-0.21546133,-0.85380465,-0.47391352,0
1.7589979,-5.3343143,5.2497735,0.22879057,-0.69382733,0.68283123,0
1.7857839,-0.16120471,7.5404844,0.23040183,-0.020798631,0.97287327,0
4.1712384,-5.5531292,3.1346662,0.54741508,-0.72876841,0.41137987,0
-0.73246437,7.1184878,-3.2994251,-0.092951447,0.9033528,-0.41870478,0
0.59040546,-4.7489495,5.9257283,0.077513777,-0.62348509,0.77798325,0
5.658308,-2.2415495,-4.4845881,0.74846047,-0.29650405,-0.59320509,0
6.2275939,3.021523,-3.3009303,0.81208146,0.39400816,-0.43044302,0
-3.2034287,5.3770342,-4.5744286,-0.41321719,0.69359523,-0.59006542,0
7.0999694,-1.4172603,-3.0815256,0.90232307,-0.1801172,-0.39162585,0
-6.8100891,0.041704394,-3.6931565,-0.87904352,0.005383186,-0.47671112,0
1.5194327,4.7205396,-5.7380366,0.20034683,0.62243307,-0.75659651,0
3.5399292,2.9544606,-6.0005116,0.46778452,0.3904177,-0.79293859,0
5.9196033,1.7715764,4.6367407,0.76626647,0.22932273,0.6002056,0
-5.720912,2.2431331,-4.3715496,-0.75861275,0.2974472,-0.57968259,0
6.6796465,-3.6291873,1.7318692,0.85673082,-0.46547922,0.22212937,0
-1.6635561,7.122798,-1.8907174,-0.22019571,0.94280535,-0.25026378,0
-4.2629051,-6.0435987,-1.9759817,-0.55686462,-0.78947717,-0.2581231,0
-2.2206476,3.3543975,6.3202419,-0.29640606,0.44773597,0.84360892,0
-4.5569239,0.89973491,6.038516,-0.59815359,0.11810153,0.79263121,0
-7.4401464,-1.6995707,-1.3620476,-0.95972341,-0.21923195,-0.17569397,0
-6.1760392,-1.7995243,4.3293128,-0.79649597,-0.23207656,0.55833203,0
-4.1054807,-0.03884444,-6.38376,-0.54090291,-0.0051178103,-0.84106946,0
-1.1765717,3.2502925,6.7735939,-0.15471795,0.42741007,0.89072049,0
-0.078557633,3.1684282,6.755312,-0.010527889,0.42461643,0.90531212,0
-0.58826244,-0.61538988,7.7495832,-0.07545498,-0.07893455,0.99402004,0
5.9796162,-0.78043902,-4.6398592,0.78588605,-0.10257115,-0.60980511,0
0.49619031,2.9681687,7.2517734,0.063197702,0.37804335,0.92362827,0
-5.1416159,-5.5952053,-1.4204667,-0.66510981,-0.72378534,-0.18374892,0
5.9700198,3.7917099,3.3207231,0.76409841,0.48529813,0.42501688,0
0.64693922,-7.0271297,-3.3355565,0.082883038,-0.90028524,-0.42733696,0
4.2527814,-5.9739151,2.8547654,0.54043734,-0.75915653,0.36277947,0
7.0440583,2.1953475,1.7164272,0.92987788,0.28980526,0.22658354,0
-2.5095475,5.8935575,4.2851615,-0.32562855,0.76472372,0.55602491,0
-4.287396,4.5256667,4.6418138,-0.55161959,0.58227569,0.59721923,0
6.7888374,-2.5308056,-2.9525492,0.86772329,-0.32347789,-0.37738356,0
0.74136978,-2.7494509,-7.3251381,0.094331659,-0.3498393,-0.93204832,0
-6.7005363,-3.9801176,-1.3335432,-0.84744394,-0.50338161,-0.16865861,0
-0.57984656,7.5246539,-0.59452432,-0.076594487,0.99396467,-0.078533337,0
1.0340877,2.6267436,-7.1769648,0.13408475,0.34059614,-0.93059957,0
5.7036476,-2.8781517,4.1620245,0.74803752,-0.37747169,0.54585254,0
-4.8382435,5.7341747,1.6174957,-0.63038987,0.7471236,0.21074857,0
-1.0895157,3.9277759,6.7806997,-0.13771233,0.49646202,0.8570652,0
6.4012823,-2.1845603,3.3312116,0.8490206,-0.28974456,0.44182822,0
-3.9073865,6.6188335,-0.70625997,-0.50623572,0.85752714,-0.091502085,0
7.4834986,0.62654465,1.6248841,0.97397506,0.081544593,0.21147817,0
-2.1516526,-5.1086745,-5.08602,-0.28600931,-0.67907274,-0.67606133,0
3.5846403,5.4543648,4.0683661,0.46608302,0.70918882,0.52897811,0
-1.7352438,3.7780638,-6.5509863,-0.2236461,0.48693401,-0.84432083,0
3.5687213,-4.8559589,4.9497662,0.45761755,-0.62268019,0.63470906,0
-7.3597007,2.0684242,-0.44415754,-0.96108103,0.27010927,-0.05800119,0
5.6157732,-5.2931814,0.76715636,0.72412956,-0.68253273,0.098921478,0
2.9185641,-4.0146298,-6.1367054,0.36978105,-0.50865221,-0.77751845,0
-4.0570445,1.5825913,6.4498835,-0.52131253,0.20335609,0.82878196,0
-7.4726672,0.014585137,0.90943527,-0.99267375,0.0019374987,0.12080995,0
5.7553158,2.1016114,5.0479374,0.72497445,0.26473171,0.63586879,0
0.18452194,-1.9508423,7.5485277,0.023660528,-0.25014889,0.96791822,0
-4.5406728,-0.74065429,-6.0064163,-0.60014725,-0.097893342,-0.79387665,0
5.7478008,-2.6168528,-4.1824803,0.7588011,-0.3454662,-0.55215394,0
3.8332059,5.8576112,-3.2899697,0.49557152,0.75729442,-0.42533988,0
-0.54982865,-5.543314,5.2322621,-0.071943931,-0.72533101,0.68463057,0
-1.5313101,3.1429722,6.8816099,-0.19838728,0.40718451,0.89153981,0
-4.7621493,3.9134331,-4.4662008,-0.62562466,0.51412505,-0.58674461,0
3.0752537,-6.9592967,-1.8478463,0.3927699,-0.88883799,-0.23600602,0
6.6201153,-0.59868062,3.6336071,0.87389064,-0.079029046,0.47965559,0
-1.4049828,7.0772653,-2.3693306,-0.18500172,0.93190193,-0.31198263,0
-6.8270845,-3.2896876,1.3734653,-0.88642853,-0.42713299,0.1783307,0
0.5477944,1.2234111,7.5538626,0.071402945,0.15946704,0.98461765,0
-0.19500202,7.3339972,-1.8217868,-0.025795983,0.97018313,-0.24099638,0
-3.0514913,-7.0360928,1.529475,-0.39020002,-0.89971864,0.19557689,0
0.90020949,-3.5750694,6.7157903,0.11750306,-0.46664873,0.87660253,0
-6.5752025,2.9085243,2.8780611,-0.84902459,0.37556389,0.37163031,0
-7.0028877,-3.1275411,-1.3862625,-0.89851773,-0.40128461,-0.17786683,0
2.3587556,-7.3756042,-0.89137012,0.30260906,-0.9462297,-0.1143555,0
7.5712004,-0.64468122,2.3133051,0.9532004,-0.081164196,0.29124093,0
-3.5135939,6.6427555,0.67661345,-0.46567556,0.88040024,0.089675233,0
1.179601,-6.4973307,-3.8705463,0.15411012,-0.84885013,-0.50567132,0
-2.323364,-7.3080778,-1.322479,-0.29856738,-0.93913549,-0.16994715,0
-2.5560601,0.18181488,7.4430933,-0.32470864,0.023096822,0.94553208,0
0.10889523,3.127166,-7.2210236,0.013837053,0.3973614,-0.9175579,0
-6.8365059,-3.6727955,1.0250403,-0.87333745,-0.46918556,0.13094497,0
1.3420646,-3.7091382,6.633945,0.17388682,-0.48058063,0.85953808,0
1.9784009,-0.22268525,-7.4571977,0.25632319,-0.028851278,-0.96616048,0
4.6546612,-5.5613031,-2.5099039,0.60653251,-0.72467387,-0.32705674,0
-6.991878,3.1025932,1.2397052,-0.90227687,0.40037856,0.15997952,0
-6.2593551,-3.9002314,1.3999926,-0.83383012,-0.51956314,0.18649781,0
7.3113985,-0.45051044,2.2828734,0.95290518,-0.058715679,0.2975302,0
-2.2728758,-6.7733636,-2.2213492,-0.3037833,-0.90530008,-0.29689646,0
-2.9119856,4.0051308,5.9592404,-0.37583151,0.51691681,0.76912135,0
-1.4439729,-1.0397425,-7.6735826,-0.18331087,-0.13199422,-0.97415334,0
-4.8879972,3.1362672,-5.1015315,-0.6323337,0.4057219,-0.65995747,0
4.0901728,6.2146459,-2.3574243,0.52408493,0.79629946,-0.30206317,0
1.7990581,5.9663815,4.2830372,0.23791835,0.78903049,0.56641483,0
-0.13554727,-6.9681253,3.5982306,-0.017281489,-0.88839555,0.4587535,0
-6.7499785,0.79656833,-3.8311887,-0.86513489,0.102095,-0.49103788,0
-1.5752927,0.691001,7.4350023,-0.20642246,0.090547062,0.97426432,0
4.7704372,5.9648929,0.44579476,0.62351596,0.77963632,0.058267228,0
