4.723073,5.7758207,2.9960601,0.58743644,0.71837288,0.37263766,0
1.0994494,-2.8509414,7.1644611,0.14115687,-0.36602861,0.91983575,0
-5.9017644,3.8467267,3.6328571,-0.74458265,0.4853135,0.45833114,0
4.7839494,-3.698884,-5.2141218,0.59914166,-0.4632481,-0.65301645,0
3.2016215,-1.9572587,7.1312704,0.39730713,-0.24288718,0.88495922,0
5.5505171,1.5499706,-5.3962669,0.7030459,0.19632414,-0.6835081,0
4.3707237,-2.2560737,6.2305474,0.55060345,-0.28420967,0.78489536,0
2.0876226,5.468699,-5.1195073,0.2684522,0.70323259,-0.65832919,0
6.0982094,-4.8690801,0.45655861,0.78012753,-0.62288833,0.058406316,0
-7.1192617,2.9550149,1.2171446,-0.91229528,0.37866935,0.15597057,0
2.2665477,3.6739926,-6.5670185,0.2884078,0.46749875,-0.83562303,0
7.3465576,0.48177212,-2.7835567,0.93337357,0.061208718,-0.35364839,0
-5.107861,-3.4473197,5.1396556,-0.63654453,-0.42960694,0.6405068,0
-0.6469456,3.6248574,-7.2646689,-0.079433039,0.44506592,-0.89196789,0
1.1301535,7.3105731,-2.2913129,0.14593644,0.94401246,-0.29587668,0
4.9400344,-4.5394325,-3.9414761,0.6348756,-0.58339167,-0.50654441,0
-6.1783795,-4.597713,2.6489716,-0.75862098,-0.56453663,0.32525769,0
2.8202581,6.095921,-4.6189723,0.34597489,0.7478165,-0.56663197,0
1.7136327,-0.97321165,-7.574841,0.21893869,-0.12434035,-0.96778375,0
4.3828354,-5.1306272,4.6102757,0.53630084,-0.6278035,0.56413132,0
-1.0947095,-7.513514,1.595414,-0.14109538,-0.96840501,0.20563041,0
2.5012887,-7.5862365,1.0561458,0.31043091,-0.94151556,0.13107654,0
5.7449865,4.3567948,3.3979282,0.72076088,0.54659957,0.42630106,0
-0.15797818,-3.4104891,7.2096014,-0.019803865,-0.42753285,0.90378284,0
4.0709691,5.6402102,-4.2113438,0.50064605,0.69363064,-0.51790929,0
-7.1756444,3.0066612,1.6876405,-0.90134615,0.37767234,0.21198769,0
-7.4699402,1.4287885,-1.7307485,-0.95770878,0.18318264,-0.22189644,0
-5.3115592,-6.0135469,1.386399,-0.6523391,-0.73855376,0.17027059,0
-2.2002003,4.4114981,6.1162405,-0.28008017,0.56157303,0.77858263,0
0.37593195,6.2946305,4.68189,0.047865622,0.80146527,0.59612274,0
-3.9348631,6.6789975,-2.1928182,-0.48843327,0.82906181,-0.27219382,0
-6.8765039,4.0939169,1.490773,-0.84472036,0.50290304,0.18312885,0
-0.40245536,-6.3528519,-5.0785685,-0.049421944,-0.78013694,-0.62365359,0
6.0194364,0.97897148,5.1164994,0.7561571,0.12297767,0.64273083,0
3.2578216,7.2318792,-0.13231646,0.41067195,0.91163063,-0.016679445,0
0.73295826,6.7359314,4.0046401,0.0931255,0.855829,0.50880671,0
-2.8902431,-7.1398106,-2.3206334,-0.35927701,-0.88752735,-0.28847063,0
-1.9333384,-5.7539663,5.248302,-0.24093321,-0.71706098,0.65404499,0
-5.1087971,-4.5185685,-4.2429085,-0.63602328,-0.56254238,-0.52822387,0
4.0472178,6.8258243,-1.9356245,0.49548841,0.83566463,-0.23697254,0
-2.2221105,7.174211,2.1479185,-0.28446397,0.91840827,0.27496627,0
-1.7439938,-5.4775767,5.7284031,-0.21489888,-0.67495948,0.70586687,0
6.9505343,-2.1212692,3.4011426,0.86626589,-0.26438013,0.42389458,0
5.3526187,-4.7486682,-2.9658022,0.69104105,-0.613069,-0.38289502,0
6.1560397,-4.6505523,1.8411421,0.77611637,-0.58631361,0.2321201,0
6.0806613,-3.97559,3.1850822,0.76655072,-0.50117761,0.40152326,0
-0.64772415,-1.0866915,7.7841816,-0.082132705,-0.13779463,0.98704958,0
4.7598467,6.1303391,-1.1395842,0.60677665,0.78148454,-0.14527214,0
-5.7684431,5.0550079,-2.6684456,-0.71032268,0.62247068,-0.32859081,0
-6.3897204,-0.085635066,-5.0818172,-0.78261256,-0.010488578,-0.62242067,0
-5.2727256,4.8681598,-3.3775661,-0.66478354,0.61377603,-0.42584243,0
0.21826948,3.8150117,7.2155614,0.026732519,0.46724293,0.88372469,0
6.6830926,3.6128571,2.7278521,0.8279323,0.44757736,0.33793887,0
-1.5574185,-7.5990777,0.7839663,-0.19975747,-0.97467226,0.10055302,0
-6.4284091,1.210746,4.4165683,-0.81446409,0.15339863,0.55956864,0
7.8498416,1.8737704,-0.075455263,0.97263068,0.23216857,-0.0093492465,0
-5.1208329,-5.8061819,1.0907189,-0.65498823,-0.7426489,0.13951012,0
-4.3447576,0.37339512,-6.7870469,-0.53856814,0.046285369,-0.84130979,0
5.8838139,1.4353335,5.1291585,0.74136317,0.18085265,0.64627624,0
-2.7290955,-7.1452379,-1.3807385,-0.35113046,-0.91931951,-0.17764837,0
3.560607,-2.6739404,-6.4235334,0.45555434,-0.34211165,-0.82184541,0
5.5834231,1.2807202,-5.5428648,0.70045954,0.16067074,-0.69537139,0
-1.4369445,-2.9401274,-7.2860212,-0.17990606,-0.36810517,-0.91221291,0
7.9495726,0.046969652,-1.5764951,0.98088139,0.0057954886,-0.19452047,0
4.6757741,6.0707145,1.8460455,0.59322941,0.77020967,0.23421331,0
4.3857412,-4.8809814,4.4424853,0.55345535,-0.61595184,0.56061614,0
5.1339817,-1.8722361,5.9336033,0.63644612,-0.23209617,0.73557311,0
-6.5049305,4.4306474,-0.4226881,-0.82530594,0.56213355,-0.053628091,0
2.414685,-5.4405003,-5.1571589,0.30660093,-0.69079918,-0.65482235,0
-2.1382344,-7.7920222,-0.86735183,-0.26311883,-0.95884144,-0.10673133,0
-0.1049422,5.4601049,5.6616611,-0.013340786,0.69411635,0.7197392,0
7.9583378,0.77636588,-1.4900317,0.97843266,0.095449798,-0.18319099,0
-2.8465991,6.0971136,4.2390013,-0.35793665,0.76666236,0.53301984,0
-5.5107794,-5.8346467,-1.1168653,-0.68008834,-0.72005695,-0.13783295,0
-1.9880257,-7.405375,1.3581197,-0.25530279,-0.95100027,0.1744101,0
2.6024559,7.3001242,2.3358645,0.32150936,0.90186286,0.28857446,0
3.9714057,4.9294529,-4.627038,0.50649321,0.62867773,-0.59010923,0
-1.4039301,-5.0205646,5.8437505,-0.17927568,-0.64110392,0.74622113,0
-1.5718606,0.66413516,-7.7479458,-0.19812627,0.083711386,-0.97659528,0
-2.4450519,-1.2249416,-7.3878374,-0.3103745,-0.1554939,-0.93781096,0
5.1158834,0.034793686,-6.2301421,0.63460511,0.0043160194,-0.77282453,0
1.1899304,5.3598447,5.6909366,0.15047875,0.67780662,0.71967655,0
4.0818462,6.3984585,1.8585745,0.52238697,0.81886262,0.23785685,0
0.96416599,-5.3743663,-5.9962096,0.1188898,-0.66270471,-0.73938322,0
-0.64527512,-6.5590439,-4.4724994,-0.081014171,-0.82348669,-0.56152147,0
-4.7850676,-6.4259515,-0.050955307,-0.59723681,-0.8020398,-0.006359865,0
3.9054477,-6.9073129,0.070018366,0.49216363,-0.87045801,0.0088236984,0
-7.4902778,0.065712951,2.7642198,-0.93812251,0.0082302419,0.34620568,0
3.4998384,4.2251234,5.5589652,0.44809872,0.54095995,0.71173722,0
5.7441063,-2.0871065,-4.7607374,0.74146581,-0.26940975,-0.61452973,0
-4.5020857,3.7952499,5.3620677,-0.56530827,0.47655386,0.6732927,0
-6.7416224,-2.960289,-2.4475591,-0.86886877,-0.38152575,-0.31544447,0
-4.2271385,-3.3770697,-5.6354699,-0.54108852,-0.43227676,-0.72135985,0
7.7257547,0.16272521,1.1349503,0.98916632,0.020834507,0.14531325,0
1.9873874,-7.6791382,0.26298526,0.25041106,-0.96757239,0.033136174,0
-7.4787626,-2.2048242,0.84938043,-0.9535439,-0.28111559,0.10829619,0
2.7648644,-4.1863871,-6.0914311,0.35035959,-0.5304929,-0.77189732,0
6.1455965,-0.14856102,5.2080126,0.76277322,-0.018438954,0.64640307,0
-7.0571165,0.68117565,-3.7546973,-0.87963724,0.084905423,-0.46800584,0
-6.1216373,-5.0345283,-1.8405352,-0.75233412,-0.61873108,-0.22619723,0
-4.1798654,4.3616343,5.2911968,-0.52048683,0.5431211,0.65887249,0
-6.9615507,1.924235,2.9736207,-0.89127469,0.24635631,0.38070726,0
1.2951201,-7.1511569,-3.034523,0.16444765,-0.90801686,-0.38530803,0
1.7069628,7.0155973,-3.2124276,0.21599855,0.88775152,-0.40649959,0
-1.6768689,7.7647166,1.3432889,-0.20813872,0.96378326,0.16673362,0
-5.7004161,2.4785047,-5.0009484,-0.71452403,0.31067052,-0.62684864,0
-4.6466103,6.1763802,-1.6078186,-0.58858544,0.78236115,-0.20366214,0
4.5673695,-6.2040744,0.91526216,0.58871782,-0.79968333,0.11797407,0
-6.7382388,-4.1049829,-0.030229598,-0.85399824,-0.52026182,-0.0038312718,0
4.3900986,4.4206796,-4.7849398,0.55884701,0.56273985,-0.60910916,0
-0.59673518,-7.7946978,-0.3901726,-0.076238289,-0.99584281,-0.049848061,0
5.7537913,-5.2263412,0.52493382,0.73853821,-0.67083639,0.067378819,0
0.38804358,7.3900394,-2.8030031,0.049036976,0.93387753,-0.35421485,0
-3.5905313,6.0755792,-3.6336246,-0.4523364,0.76540363,-0.45776531,0
5.5097184,3.4508505,4.6054149,0.69155598,0.43313581,0.57805169,0
1.233779,6.7367916,-3.8738368,0.1567999,0.85617304,-0.49232256,0
-5.2474465,-3.5282385,-4.6630607,-0.66789144,-0.44907182,-0.59351122,0
-7.4642658,-1.2776357,-1.9295527,-0.95514727,-0.16348965,-0.24691068,0
-6.9175248,-2.7796175,-2.1206079,-0.892488,-0.35862184,-0.27359745,0
6.8128786,-2.2368691,-3.4162955,0.85772973,-0.281618,-0.43010575,0
0.53840864,-6.2047486,-5.178915,0.066470228,-0.76601869,-0.63937247,0
-7.6017852,-0.41408628,-2.9056408,-0.93288291,-0.050816223,-0.3565771,0
-4.9874053,-4.6273174,-3.9627407,-0.63345426,-0.58771926,-0.5033108,0
1.6719331,-2.6270792,-7.3375573,0.20975229,-0.32958013,-0.92053294,0
-3.6922643,0.95683861,-7.073637,-0.4594391,0.11906219,-0.88019305,0
-0.40253735,-1.7816839,-7.7085414,-0.050812606,-0.22490336,-0.97305524,0
-5.7854557,3.0879786,-4.6983132,-0.71714938,0.38277745,-0.58239013,0
-2.5340586,7.6708384,0.23794781,-0.31354085,0.9491182,0.02944145,0
-0.80150586,-2.6271319,7.6010542,-0.099170558,-0.32505581,0.94048065,0
1.8002502,5.3158789,5.6548634,0.2259565,0.6672169,0.70976418,0
1.6118532,2.418432,7.2939959,0.20528705,0.30801365,0.9289698,0
6.6873322,2.5574863,-3.8517475,0.82254881,0.31457347,-0.47376895,0
4.9409409,0.54129535,-6.3280315,0.61403084,0.067268975,-0.78641021,0
-4.0252976,2.706358,6.4504533,-0.4987562,0.33533242,0.79924613,0
4.3801398,-4.2373362,-5.2730207,0.54351783,-0.52579778,-0.65431267,0
-5.1255293,-2.674335,-5.3707695,-0.64953905,-0.33890843,-0.68061745,0
-4.6503062,-6.3298855,0.24509886,-0.59177005,-0.80550319,0.031189809,0
-4.3416939,-6.5444036,-1.8207452,-0.53854311,-0.81176686,-0.22584498,0
7.7871928,1.5325756,-0.51807714,0.97909468,0.19269288,-0.065138564,0
-4.1104379,2.307122,6.1860571,-0.52851987,0.29664961,0.79540288,0
6.6965194,3.9096534,-1.411618,0.8496272,0.49604097,-0.17910036,0
1.092912,7.2993836,3.3713467,0.13469005,0.89957321,0.41548347,0
5.9724393,2.4576378,4.587749,0.75390929,0.310231,0.57911789,0
-0.73211998,-3.3859403,-7.2455058,-0.09116105,-0.42160559,-0.90218538,0
4.5819921,-6.584929,-1.3378645,0.56338221,-0.80965483,-0.16449812,0
-6.9395947,-1.87567,-3.3080299,-0.87696129,-0.23702969,-0.41803798,0
-3.7983341,-4.9672322,-4.7654185,-0.48312995,-0.63180822,-0.60613847,0
-0.64669883,7.8199763,-1.8727405,-0.080165401,0.96937168,-0.2321467,0
-7.7739811,-0.97554332,-1.383719,-0.97709703,-0.1226142,-0.17391704,0
6.8259902,-3.087081,1.746703,0.88735187,-0.40130836,0.22706452,0
-1.6526467,6.8293152,3.8657284,-0.20607489,0.85157371,0.4820326,0
4.1563125,6.2077999,2.174453,0.53417939,0.79784155,0.279466,0
-0.80306774,-2.1971107,-7.561162,-0.10146461,-0.27759671,-0.95532459,0
1.1326767,-3.8168838,7.0361953,0.14010423,-0.47212198,0.87032843,0
1.6616924,-7.6001267,-0.41732559,0.21328776,-0.97551984,-0.053566132,0
-3.3680072,5.8220468,4.5038075,-0.41607621,0.71924287,0.55639046,0
-4.5411649,6.1738305,1.4026616,-0.58284366,0.792391,0.18002702,0
-2.2899015,6.9055486,-3.5831189,-0.28236198,0.85150582,-0.44182536,0
2.9060075,4.7310066,-5.8831897,0.35923418,0.58483648,-0.72726679,0
6.5006571,-1.4140328,-4.3625169,0.81712997,-0.17774335,-0.54836661,0
-5.49895,4.7314529,3.0867915,-0.69750512,0.60015327,0.39153892,0
5.7240672,-2.808522,-4.7624502,0.71926242,-0.35290718,-0.59842962,0
-5.2156115,-2.1995869,5.6198196,-0.65387934,-0.27576143,0.7045548,0
-3.4302557,-1.5364003,6.9398394,-0.43463266,-0.19467056,0.87931669,0
-6.782474,-4.2027388,-1.0128416,-0.8432703,-0.52252978,-0.12592739,0
3.7130835,-5.5108886,-4.6181135,0.45884666,-0.68101156,-0.57068634,0
3.1434455,-5.271553,4.7232251,0.40588683,-0.68067157,0.60987055,0
-3.7915795,-6.9882493,0.36045128,-0.47640416,-0.87805915,0.045289963,0
5.0661888,5.9593315,-1.1630265,0.64066112,0.75360632,-0.14707422,0
5.3821459,5.8574262,-0.18025853,0.67642754,0.7361607,-0.022654872,0
5.6956873,-4.6650782,-2.8748906,0.72063369,-0.59023821,-0.36373886,0
7.2725415,3.1781757,0.30192882,0.91565967,0.40015271,0.038014777,0
2.1441998,6.3386436,4.4909492,0.26606864,0.78654712,0.55727112,0
7.6250024,2.0564919,-1.376322,0.95116496,0.25653276,-0.17168641,0
-0.74266791,5.8008566,5.4595304,-0.092827715,0.72506195,0.68239886,0
0.60115224,-7.1452594,3.0574749,0.077118814,-0.91662955,0.39222813,0
-0.61605942,2.0043895,7.6072092,-0.078071862,0.2540119,0.96404499,0
-3.8874295,0.31686634,7.0470061,-0.48264873,0.039340939,0.87492996,0
-4.6112113,2.6867166,-6.0046864,-0.57399398,0.33443689,-0.74745089,0
-3.0822787,4.5682626,5.5824018,-0.39293346,0.58236891,0.71165287,0
4.8194175,4.9719238,-3.8382025,0.60874426,0.62800747,-0.48480627,0
-2.0536699,-6.5864978,-4.2913313,-0.2527605,-0.81064951,-0.52816623,0
5.2323008,4.6102304,4.0365205,0.64936334,0.57216024,0.50095904,0
-0.93922234,7.6206861,1.6769768,-0.11950395,0.96963423,0.21337371,0
-2.8800583,-5.7188244,4.4849563,-0.36840799,-0.73153406,0.5737015,0
-4.7281594,-4.5798082,-4.5399628,-0.59129071,-0.57273829,-0.56775534,0
7.6828103,1.1136835,-1.4228539,0.97344095,0.14110789,-0.18028095,0
-6.3125134,3.8655314,3.2550714,-0.78065848,0.47804412,0.40254948,0
1.0055168,4.6648684,-6.3094988,0.12710574,0.58967841,-0.79757351,0
-5.3951201,-2.7093008,4.9963126,-0.68846023,-0.34572831,0.63756919,0
-7.1491895,-3.1652443,1.0239686,-0.90664601,-0.40141001,0.12985766,0
-0.77618909,6.0058794,-4.955565,-0.099193446,0.76752418,-0.63329875,0
-6.135107,-1.5231779,4.7829037,-0.77396023,-0.19215298,0.60337615,0
7.6950603,1.744774,1.9018279,0.94809365,0.21497028,0.23432058,0
-4.4621906,-3.8437707,-5.66366,-0.54611105,-0.47042489,-0.69315445,0
-0.90610886,6.6956658,4.4063873,-0.11232918,0.83005327,0.54625434,0
5.3247828,-5.0501928,3.0365112,0.67044383,-0.63587016,0.38232738,0
1.8904161,5.0807543,-5.7854214,0.23843732,0.6408332,-0.72971255,0
-3.5539339,-2.1720417,-6.8332744,-0.44409657,-0.27141649,-0.85388017,0
-7.1509752,-3.3539979,0.51531762,-0.90344191,-0.42373833,0.065104343,0
-6.8525548,-3.081912,-2.1620462,-0.87644535,-0.39417815,-0.27652684,0
-0.1164884,-4.5602331,6.677989,-0.014403823,-0.56387407,0.82573521,0
4.0830445,0.79020488,-6.9332147,0.50502282,0.097738706,-0.85755414,0
-6.5344601,-3.1257551,-3.8157735,-0.7981348,-0.3817873,-0.46606782,0
4.9908905,-5.0329242,3.7447715,0.62258524,-0.62782866,0.46713895,0
1.0618019,-7.7073483,1.2890266,0.13464041,-0.97732031,0.16345334,0
-2.1829455,3.5395904,-6.758338,-0.27509278,0.44605592,-0.85167956,0
3.5999577,-3.3763816,-6.2911134,0.45021367,-0.42225307,-0.78677183,0
-5.509541,-5.1035604,-1.9129016,-0.71091998,-0.65853453,-0.24683,0
-5.4739985,-1.5081481,5.5068955,-0.69205195,-0.19066809,0.69621098,0
-2.0797751,7.4781547,-1.3313276,-0.26408762,0.94956815,-0.16905056,0
1.6886164,5.8901296,-5.3837729,0.20702463,0.72213084,-0.66005141,0
2.1744564,-7.5947123,-0.428931,0.27484739,-0.95995808,-0.054216113,0
3.8008945,-1.705583,6.6544833,0.48412967,-0.21724448,0.84759855,0
-3.2536299,1.4860988,-7.1865482,-0.40530947,0.18512551,-0.89523888,0
5.6766701,-1.9190673,5.2381997,0.71323651,-0.24111827,0.65814561,0
-6.9793758,-1.8698446,-3.3899503,-0.87447554,-0.23428074,-0.42474121,0
6.9343886,1.7660921,-3.1945779,0.88488758,0.22536851,-0.4076556,0
4.118928,6.3596706,2.8189185,0.5094918,0.78666103,0.34868681,0
5.1313553,-5.6096678,-2.205374,0.64822686,-0.70865047,-0.27859747,0
3.2758396,7.2273736,-0.75528383,0.41097078,0.90671086,-0.094754212,0
-2.3267951,-7.1398163,-3.1263597,-0.28605118,-0.87775367,-0.38434795,0
-5.9372187,4.6995544,2.6879942,-0.73891687,0.58488327,0.33453447,0
2.2835336,-7.414444,-0.15478422,0.29428235,-0.95551038,-0.019947272,0
5.7612076,-1.1537334,-5.4415989,0.71940041,-0.14406636,-0.67949092,0
-1.2945379,-0.67540449,-7.6970348,-0.16523965,-0.086211145,-0.9824782,0
6.6937437,4.439992,-0.89366722,0.8282308,0.54936939,-0.1105753,0
4.7552018,6.503655,-0.87114483,0.58680099,0.80256343,-0.10750093,0
-1.1502614,2.5675683,-7.5196319,-0.14326832,0.3197979,-0.93659139,0
0.61556113,7.8033981,0.82233429,0.078209035,0.99144703,0.10448024,0
5.5672355,5.8412914,0.19216733,0.68972605,0.72367889,0.023807652,0
5.2142982,4.4837494,-4.0088263,0.65505224,0.56327617,-0.50361341,0
-7.5061264,2.1469378,-0.17440388,-0.96120524,0.27492848,-0.022333479,0
-4.9121165,-1.0847696,5.880538,-0.63475305,-0.14017598,0.75989425,0
2.0794158,6.4741602,-3.6171756,0.2699796,0.84056842,-0.46963367,0
3.1206684,-2.0285499,7.1193585,0.3884517,-0.25250795,0.88619697,0
-1.0012341,-3.8382788,6.6388378,-0.12946497,-0.49631017,0.85843754,0
3.8629642,-6.5335979,1.6767992,0.49696171,-0.84053278,0.21571648,0
-4.8080244,5.6477919,3.128473,-0.59727246,0.70159179,0.3886317,0
-5.7922072,2.7602606,4.4022651,-0.74437523,0.35472998,0.56574929,0
0.83664435,-0.25548494,-7.9920354,0.10406324,-0.03177765,-0.9940629,0
4.514677,-5.8667283,-3.4450152,0.55292332,-0.7185123,-0.42191929,0
0.92107058,6.6616206,4.5585251,0.11337105,0.81995338,0.56109136,0
-7.0618196,3.6926968,0.73191226,-0.8824448,0.46143928,0.091459736,0
7.7113767,0.48258573,-0.82530642,0.9924022,0.062105529,-0.10621137,0
3.6348748,-1.7504708,-6.9868808,0.45052868,-0.21696408,-0.8659969,0
7.5079222,-2.546612,-0.45897785,0.94542325,-0.32067811,-0.057796061,0
-4.8151798,3.7284727,-5.0372114,-0.60926771,0.471766,-0.63736153,0
-6.5214586,2.5262022,-3.7908363,-0.81979668,0.31756273,-0.47653681,0
-3.8587894,4.8462143,-4.9357977,-0.48717529,0.61183846,-0.62314844,0
-4.3727703,-1.3942885,6.2242937,-0.56543237,-0.18029208,0.80484843,0
1.8437923,-5.5462203,5.4931216,0.22987407,-0.69147283,0.68485278,0
-5.2148533,5.6749859,1.3870943,-0.66592634,0.7246843,0.17712915,0
-4.2660651,-0.69541621,-6.502389,-0.54637504,-0.089065224,-0.83279151,0
3.0826402,-0.1083795,-7.2900791,0.38942942,-0.013691564,-0.92095453,0
3.7621388,2.760808,6.6534014,0.46293476,0.33972007,0.81870741,0
5.2330232,5.7820373,-1.6841031,0.65591007,0.72472382,-0.21108642,0
-0.1313675,6.989728,-3.9446607,-0.016365556,0.8707692,-0.49141955,0
-3.8120358,-2.2263589,6.3245306,-0.49424511,-0.288656,0.81999969,0
3.1026666,-7.4347677,1.2996011,0.38021255,-0.91108465,0.15925805,0
-5.7784986,0.64202672,5.6307611,-0.71394622,0.079323813,0.6956929,0
-3.5864649,1.6216635,-6.9846058,-0.44734022,0.20227028,-0.87119079,0
-2.0077672,-7.4273815,-1.0015042,-0.25877041,-0.95727557,-0.12907854,0
-3.5411875,1.7496649,6.7015104,-0.45522875,0.22492392,0.86149639,0
5.1039953,2.2200859,5.4613037,0.65454459,0.2847074,0.70036638,0
-1.0449151,4.6233726,6.1006966,-0.13525242,0.59844321,0.78966606,0
-1.6019001,7.4161267,1.7338845,-0.2058267,0.95289141,0.22278525,0
4.2705803,-4.447556,5.0176921,0.5372082,-0.55947047,0.63118947,0
5.185606,6.0428162,-1.1207366,0.6448732,0.75147444,-0.13937292,0
3.0365412,-4.5434189,-5.5406361,0.39019302,-0.58382553,-0.71196711,0
-5.7424631,0.72431868,5.2359695,-0.73575449,0.092803508,0.67085987,0
-3.9928548,-5.2679992,-4.6081357,-0.49552104,-0.6537689,-0.57187855,0
4.3709888,6.5014706,1.7596471,0.54437405,0.80970967,0.21915093,0
7.0792594,0.13577966,3.9241681,0.874493,0.01677271,0.4847481,0
-7.3770285,2.7210629,0.61970139,-0.93531018,0.34499499,0.078569986,0
-3.2715762,7.2496934,-0.77504987,-0.40938875,0.9071905,-0.096985877,0
7.9761252,-0.22868173,0.84561026,0.99402314,-0.028499419,0.10538402,0
-7.4666581,-0.18540703,2.3941779,-0.95197845,-0.023638887,0.30525112,0
-6.4731517,3.7978458,-2.0999801,-0.83060664,0.48732305,-0.26946029,0
4.4208875,6.4636683,-1.86174,0.54923439,0.80302179,-0.23129556,0
-3.4194131,1.1083314,-6.9974003,-0.43467134,0.14088964,-0.88950038,0
-2.8253174,-0.59413737,-7.573081,-0.34860021,-0.073307306,-0.93440038,0
-7.5194678,-0.11718424,-2.0534225,-0.9645682,-0.01503194,-0.26340508,0
1.8005346,7.6659555,-1.6649542,0.22370623,0.95245159,-0.20686114,0
4.4956594,-4.76649,-4.3822379,0.57033151,-0.60468984,-0.5559426,0
4.0253181,-4.5218201,-5.1300769,0.5072723,-0.56984174,-0.64649451,0
2.9899135,-4.0394597,-6.0907607,0.3786394,-0.51155281,-0.77132732,0
5.2012167,-5.7190456,-1.5180764,0.66021085,-0.72594088,-0.19269539,0
-0.58202225,-7.9617348,0.93573081,-0.072412141,-0.99055701,0.11641869,0
-2.861068,6.2846575,-4.108151,-0.35608032,0.78217047,-0.5112887,0
6.122467,-1.6792021,-5.0186749,0.75654411,-0.20749649,-0.62015015,0
-4.0648389,-3.1358113,-5.8648024,-0.52150995,-0.40231773,-0.75244129,0
0.80641049,-2.1999846,-7.5265055,0.10230003,-0.27908674,-0.9548012,0
0.45856822,5.1779246,5.950026,0.058040101,0.65535998,0.75308341,0
2.1590457,-2.286859,-7.1576195,0.27615982,-0.29250821,-0.91551882,0
3.7343678,5.2887483,4.7657533,0.46451974,0.65786982,0.59281427,0
5.968884,5.3734674,-0.16647735,0.74304342,0.66892231,-0.020724125,0
2.7105005,-0.46707714,7.4619589,0.34082672,-0.058731724,0.93828982,0
7.3364816,-1.6974355,2.6366675,0.91952562,-0.21274987,0.33046949,0
3.3045504,1.0980453,7.3738008,0.40523392,0.13465227,0.90424228,0
2.6472507,-1.992118,-7.0287719,0.34068117,-0.25637054,-0.9045499,0
-0.47344971,7.3065934,-3.162966,-0.059360113,0.91608506,-0.39656591,0
1.121425,-4.7455578,-6.3204126,0.14047968,-0.5944708,-0.79175115,0
-3.4624557,4.4998322,-5.3638406,-0.44329342,0.57610726,-0.68672508,0
4.8769064,5.668016,2.1825981,0.62609732,0.72766,0.28020197,0
-3.3575764,6.2099962,3.018487,-0.43730959,0.80882478,0.3931447,0
7.6326642,1.1028256,2.2313626,0.95072603,0.13736816,0.27793893,0
-3.8726785,-0.82632685,6.7482753,-0.49495524,-0.10561032,0.86247653,0
-1.0207224,-7.999083,-0.46464342,-0.12636894,-0.99031401,-0.057524454,0
6.400104,-4.4777217,-2.2327263,0.78781986,-0.55118448,-0.27483711,0
-4.3119106,6.5711408,-0.88376445,-0.54518503,0.83083534,-0.11174053,0
-7.0693641,0.15167101,-3.8039653,-0.88044989,0.018889777,-0.47376266,0
-4.3570194,-5.2430801,-4.0836782,-0.54828078,-0.65978134,-0.51388395,0
-1.4374394,7.3382549,2.3161185,-0.18362337,0.93741351,0.29586881,0
7.8908811,-0.61047751,1.0881159,0.98772937,-0.076415621,0.1362033,0
4.3026943,0.91593552,-6.7798681,0.53237993,0.1133303,-0.83888495,0
0.99626541,6.0114403,-5.0945511,0.12543364,0.75686342,-0.64142358,0
2.3963904,7.0754046,2.275588,0.30687079,0.90604395,0.29140139,0
2.4143445,-5.8743873,-4.8312993,0.30255291,-0.73614722,-0.60543293,0
2.3554921,7.7069726,-0.89402765,0.29050264,0.95050031,-0.11026036,0
6.0513291,4.8172278,-2.1317277,0.75424773,0.60042727,-0.26570207,0
5.7350945,4.660851,2.9432125,0.72096878,0.58592373,0.3699964,0
6.1645188,4.1884232,-2.8217077,0.7735548,0.5255844,-0.35408205,0
-2.9236903,6.1432219,-3.9849439,-0.37081021,0.77914184,-0.50540847,0
0.62778515,-2.5329418,-7.4538035,0.079492524,-0.32073066,-0.94382876,0
2.3986161,-5.9251103,-4.63591,0.3037636,-0.75036299,-0.58709717,0
6.5494337,-4.2432022,0.38397184,0.83824426,-0.54307598,0.049143516,0
4.551837,3.6836219,5.48669,0.56724483,0.45904881,0.68374515,0
-3.2731969,1.1792573,-7.101409,-0.41391617,0.14912444,-0.89801747,0
-4.4182653,-6.5712981,1.2948842,-0.55065191,-0.81898606,0.16138244,0
-4.0030026,-3.6149337,-6.0259304,-0.494977,-0.44699171,-0.74511492,0
4.3827395,-4.753459,4.7796035,0.54508823,-0.59119517,0.59444684,0
4.7470627,-6.0104504,-1.2851882,0.61125684,-0.77393728,-0.16548762,0
6.848937,-1.4831212,3.4478772,0.87694931,-0.18990129,0.44147193,0
-5.5975842,-5.853282,-0.38230979,-0.6903761,-0.72191244,-0.047152042,0
-4.6431508,-5.2317514,3.8147109,-0.58275658,-0.65663117,0.47878,0
2.6542885,5.7605286,-4.748291,0.33500713,0.72705668,-0.5992986,0
-1.989001,6.7250619,-3.4003897,-0.25519896,0.86285967,-0.43628731,0
2.8842938,-5.8322778,-4.698667,0.35938159,-0.72669894,-0.5854516,0
-6.3472857,2.730629,-4.1076403,-0.78961319,0.33969489,-0.51099747,0
5.421289,5.824894,0.093426533,0.68124443,0.73196185,0.011740069,0
6.9337387,1.7317415,3.5081513,0.8709271,0.2175191,0.44064885,0
-4.5657477,-5.9721861,-1.6831639,-0.59267396,-0.77524191,-0.21848938,0
5.0420032,2.2650733,-5.9349914,0.62168133,0.2792846,-0.7317872,0
6.1403432,3.9360087,-2.8145094,0.78543466,0.50346988,-0.36001462,0
2.1674347,1.5767163,-7.2645192,0.27991483,0.2036261,-0.93818128,0
-7.2717714,-2.232939,2.6053479,-0.90437281,-0.27770528,0.32402089,0
-3.3323982,3.9911194,5.928391,-0.42260289,0.50613958,0.75181746,0
2.6094999,-1.358824,7.3337731,0.33023676,-0.17196155,0.92810178,0
-6.315115,-3.9324908,-3.3586273,-0.77367914,-0.48177841,-0.4114731,0
6.5805054,3.8793674,-2.0566633,0.83182716,0.49038228,-0.25997826,0
5.5615435,-5.6158385,-1.2023834,0.69565976,-0.70245117,-0.15039885,0
6.3450565,1.2853154,4.645864,0.79627466,0.16130102,0.58303398,0
6.4025874,3.677635,3.4266596,0.78655559,0.45179614,0.42096391,0
1.1372253,-5.4070592,-5.7574596,0.14251222,-0.6775896,-0.72150028,0
6.0924911,-4.6513457,-1.9340489,0.77068287,-0.58838207,-0.24465171,0
5.7073565,5.3888059,-1.5186055,0.71386975,0.67402577,-0.18994546,0
1.3465712,7.6215248,0.71258527,0.17325257,0.98060077,0.091682658,0
3.8225412,3.3632236,-5.8634043,0.49224821,0.43309951,-0.75506055,0
-5.3108339,1.7988732,-5.7520137,-0.66114002,0.22393981,-0.71606207,0
-1.8723593,-5.907299,5.2802567,-0.22997892,-0.72558421,0.64856559,0
-3.929971,-4.9550381,5.0251489,-0.48652118,-0.6134221,0.6221016,0
-1.0018238,-4.8599591,6.2072554,-0.12606508,-0.61155576,0.7810936,0
3.8148601,3.1186516,6.3581004,0.4742541,0.38770318,0.79042357,0
0.77028096,-0.078052245,7.7693634,0.098654754,-0.0099966452,0.99507153,0
-4.966639,-6.0409737,2.0314312,-0.61467749,-0.74763846,0.25141248,0
-6.3004827,4.5987945,-1.4771231,-0.79361689,0.57927006,-0.18606032,0
4.7409821,-6.3375969,-0.86503232,0.59546578,-0.79600006,-0.10864777,0
-1.4863243,3.675313,6.8020949,-0.18878533,0.46681949,0.86396742,0
0.59338212,3.428638,-7.0404902,0.075557187,0.43657911,-0.89648747,0
5.0941215,5.7282114,-1.9326111,0.64437413,0.72458249,-0.24446307,0
4.1532359,-6.731164,1.0258648,0.52074218,-0.84396869,0.12862527,0
-8.0338335,1.1872972,0.42592633,-0.98789746,0.14599854,0.052374937,0
-4.8056979,-4.5060458,-4.5972929,-0.59822041,-0.56091928,-0.57227784,0
0.42274785,-6.8024831,4.3066926,0.052435379,-0.84374356,0.53417909,0
5.3859272,-1.9069462,-5.471034,0.68085331,-0.24106354,-0.69161195,0
0.45890245,3.6463425,-6.9416399,0.058425609,0.4642376,-0.88378155,0
-2.5119383,-7.2969303,2.6087053,-0.30835754,-0.89574784,0.32023633,0
4.8264766,2.2282078,6.1384292,0.59436798,0.27439797,0.7559315,0
3.0657024,-5.1390162,5.3781128,0.38103962,-0.6387341,0.66845173,0
3.3875179,-1.7473317,-6.9282961,0.42838901,-0.22096938,-0.87615949,0
4.8970308,4.3375134,4.5851274,0.6129995,0.54296035,0.57395613,0
5.7001386,-1.3293072,5.1349769,0.73207188,-0.17072363,0.65948784,0
5.1294384,6.1264491,-0.29550642,0.64152151,0.76621425,-0.036957987,0
3.114378,2.650044,6.8971424,0.38841018,0.33050069,0.86017829,0
-7.0174799,-2.1557298,3.2183185,-0.87547833,-0.26894194,0.40150711,0
6.9759469,0.15385473,3.7307358,0.88164866,0.019444788,0.47150561,0
0.55825788,-5.6432791,-5.5355701,0.070445344,-0.71211308,-0.69852155,0
-2.0974145,7.4334264,2.2795992,-0.26044983,0.92305773,0.28307292,0
1.5934891,7.7363033,-0.58305693,0.20119306,0.97678143,-0.073616453,0
-2.2110136,-3.2419589,-6.6705713,-0.28568974,-0.41890037,-0.86191869,0
-0.72237015,-2.6055813,-7.6173391,-0.089369178,-0.32235366,-0.94239128,0
4.5168567,0.77217662,-6.2538881,0.58259296,0.099596843,-0.80663866,0
-3.816149,6.5322633,-1.9726449,-0.48810881,0.83551645,-0.25231338,0
6.6282024,-1.0173079,4.0787621,0.84448183,-0.12961252,0.51966435,0
-0.45764318,-6.0281577,5.0885067,-0.057915125,-0.76286834,0.64395475,0
7.8880625,0.61676031,1.922243,0.96877652,0.075747743,0.23608129,0
-5.9142365,-5.2860632,-0.69649398,-0.74273574,-0.66384703,-0.087468766,0
0.49084914,7.7856083,-1.0860353,0.062319763,0.98848552,-0.13788648,0
-7.3649588,3.2007182,0.63210768,-0.91430736,0.39734644,0.078471683,0
0.93298757,6.9179559,3.9709289,0.11617337,0.86140722,0.49445051,0
0.43721646,1.9441526,-7.7886076,0.054383647,0.24182555,-0.96879447,0
1.4964987,-4.798955,-5.9808626,0.19154394,-0.61424088,-0.76551884,0
2.9305499,2.7330463,-6.880919,0.36803433,0.34323078,-0.86414313,0
-4.6426764,-6.1177673,1.9980181,-0.58504486,-0.77092779,0.25177938,0
3.516912,-2.9494634,-6.2048001,0.45567653,-0.38215378,-0.80393875,0
-2.9890621,4.317492,6.0263295,-0.37394878,0.54014295,0.7539283,0
0.62266499,-4.3837576,6.6906495,0.077609211,-0.54639328,0.83392525,0
-0.99989134,7.4910169,-2.0090199,-0.12786452,0.95793933,-0.25691026,0
0.08707881,-7.7859082,-1.7268411,0.010918174,-0.97621799,-0.21651596,0
1.2375318,-6.5983205,4.0577669,0.15775968,-0.84114921,0.51728123,0
-7.1977868,-1.9263656,-2.355865,-0.9210605,-0.24650621,-0.30146685,0
-1.2324636,2.0012403,-7.5671744,-0.15554015,0.25256178,-0.9549973,0
2.5798752,-2.1748016,7.0852761,0.32874215,-0.27712539,0.90284556,0
-2.8283641,-3.1440401,6.7054191,-0.35677308,-0.39659283,0.84582925,0
-6.1239858,-1.987687,4.3697824,-0.78701013,-0.2554431,0.56157267,0
-0.15757807,8.1353788,-0.28461799,-0.019354012,0.99920142,-0.034957279,0
2.1596153,6.3619008,-4.0118666,0.27598429,0.81300807,-0.51268953,0
4.2248545,-6.132205,-2.7914987,0.5312463,-0.77108246,-0.35101169,0
-3.9147532,2.2771759,6.3925471,-0.49969724,0.29066926,0.8159743,0
-4.6370587,5.7540007,-2.6933341,-0.58954978,0.73155636,-0.34242707,0
-0.70013922,6.8669953,3.9434042,-0.088072173,0.86381567,0.49605018,0
-5.4621487,5.8390079,1.0472271,-0.67736197,0.7240963,0.12986681,0
-6.7772956,-2.8511193,-3.3110013,-0.84046912,-0.35357434,-0.41060543,0
1.137132,2.1920869,7.726902,0.14018029,0.27023017,0.95253617,0
-7.0927973,-3.0517473,-0.71420097,-0.91467804,-0.39354944,-0.092102446,0
5.794507,-3.0015616,4.4850883,0.73177373,-0.37905967,0.56641054,0
-5.469831,-4.1941724,3.795469,-0.69514185,-0.53302282,0.482353,0
0.72915101,-3.1196415,-7.1259537,0.093325302,-0.39928833,-0.91206318,0
2.1019528,6.4011431,-4.4495611,0.26033208,0.79279745,-0.55108917,0
6.0926805,-2.4317155,-4.5463843,0.76335472,-0.30467075,-0.56961858,0
5.854372,-5.213212,-1.1467298,0.73895377,-0.65802491,-0.14474316,0
3.566977,-4.5563574,-5.2789273,0.45539707,-0.58171159,-0.6739623,0
0.20825693,1.0910543,7.9414859,0.025971122,0.13606225,0.99035984,0
5.2297683,-4.7987947,3.432534,0.66331947,-0.60865682,0.43536666,0
4.7300973,5.0476937,3.694663,0.6031425,0.64363974,0.47111255,0
0.05934925,3.3464944,7.1875963,0.0074853813,0.4220742,0.90653038,0
5.9850597,4.4831934,-2.6655097,0.75389767,0.56471765,-0.3357563,0
7.1753139,2.1311886,-2.4490523,0.91108245,0.27060679,-0.31096739,0
-4.581398,6.4316607,-1.7228643,-0.56684268,0.79577011,-0.21316484,0
-3.4025266,-1.0353812,7.1487727,-0.42613509,-0.12967195,0.89531785,0
-4.6130071,2.4842441,-6.1973963,-0.56842929,0.3061164,-0.76366276,0
-2.0843334,4.019197,6.514008,-0.26274589,0.50664997,0.82113969,0
-6.2309251,3.3171017,3.8278334,-0.77596182,0.41309184,0.47669527,0
7.3561983,0.57133371,-3.1352589,0.91759181,0.071266584,-0.39108354,0
-2.3900671,-4.2360959,-6.3346896,-0.29926094,-0.53040272,-0.79316825,0
2.8740189,-0.7468729,7.4395351,0.35879159,-0.093239374,0.92874914,0
-5.1473551,2.5267556,5.2030249,-0.66479093,0.3263354,0.6719808,0
4.0680485,-2.7468722,6.2685223,0.51095212,-0.34501067,0.78733444,0
4.5945845,6.2727275,-1.949388,0.5731715,0.78251874,-0.24318491,0
-1.5118719,-1.8798083,-7.6171665,-0.18921968,-0.2352691,-0.95333332,0
-5.5204535,-5.4237847,-0.90344632,-0.70851326,-0.69610649,-0.11595129,0
3.7881618,-1.4439569,-6.7346344,0.48191199,-0.18369335,-0.85674828,0
1.514698,2.2122047,-7.2558613,0.19581498,0.28598627,-0.93801296,0
-1.986298,5.441968,5.2639751,-0.25375876,0.69523662,0.67249721,0
0.33610207,-7.8054585,-2.2201211,0.041381627,-0.96102524,-0.27334619,0
-3.1728213,-4.1522036,5.9139509,-0.40203413,-0.52613348,0.74936783,0
-2.0424621,-6.6505313,3.7911606,-0.2577886,-0.83939433,0.47849992,0
-7.2329707,-2.4452713,-1.6990833,-0.92470777,-0.31261861,-0.21722133,0
-4.4096928,-4.8091407,4.6455932,-0.55054635,-0.60041708,0.57999831,0
2.7036726,6.6037202,3.5290444,0.33962649,0.82953769,0.44330701,0
3.0055406,-5.9842153,-4.1095629,0.3825298,-0.76164025,-0.52304411,0
-4.5695601,-0.59967232,-6.2305307,-0.58963293,-0.077378683,-0.80395615,0
-1.2227652,7.5865459,1.7492409,-0.15515292,0.96263343,0.22195579,0
-4.1007223,-5.7020636,3.3086977,-0.52818346,-0.73444027,0.42616868,0
-3.0392361,-0.81789446,-7.5247016,-0.37261927,-0.10027627,-0.92255056,0
7.6869993,-1.0918001,-0.070397682,0.99002284,-0.14061494,-0.0090666478,0
-0.89917791,1.4182979,-7.9211922,-0.11104739,0.17515807,-0.97825766,0
5.4360948,-2.1328495,5.495111,0.67794365,-0.26599091,0.68530369,0
5.1691813,5.6329322,2.0663519,0.6527068,0.71126413,0.26091596,0
2.6513472,-7.6398449,-0.73743701,0.32650504,-0.94082272,-0.090813033,0
2.1292777,-3.05142,-7.0190573,0.26802531,-0.38410103,-0.88353199,0
-1.9416397,-7.502068,-2.090492,-0.24191032,-0.93468821,-0.26045597,0
-1.0847657,-6.1316476,4.6777596,-0.13928415,-0.78730494,0.6006254,0
6.3054914,-4.5529284,-0.12795377,0.81063282,-0.58532369,-0.016449714,0
-0.9122588,-3.0145953,-7.5322256,-0.11173869,-0.3692449,-0.9225902,0
4.0958853,6.3987765,1.730836,0.52564764,0.82119048,0.22212778,0
-5.8359895,5.2063475,1.3139639,-0.73590052,0.65650463,0.16568686,0
6.5029335,3.6727805,2.107394,0.83800012,0.47329265,0.27156919,0
5.4382329,5.2631526,2.4120107,0.68464804,0.6626063,0.30366084,0
-2.0298924,5.5675483,-5.3198972,-0.25489545,0.69912213,-0.66802436,0
-5.0987763,-3.4867322,5.3846793,-0.6222204,-0.42549738,0.6571101,0
-3.3382442,4.3462811,5.9195948,-0.41381755,0.53877646,0.73380858,0
0.71163833,5.2597003,6.0363965,0.088534586,0.65435684,0.75098526,0
5.3493743,2.4502718,-5.2756023,0.67691034,0.31005764,-0.66757524,0
7.630722,2.365799,0.15861452,0.95495939,0.29607186,0.019850077,0
2.9631422,-7.4722381,-0.39232343,0.36818889,-0.92847216,-0.048748631,0
5.8913183,1.2395873,4.943573,0.75627291,0.15912674,0.63461012,0
-3.2589421,2.9236305,6.6649833,-0.40867791,0.36662915,0.83580232,0
7.0538073,-3.4679258,-1.0393221,0.88966477,-0.43739375,-0.13108499,0
4.6688013,-2.1883068,5.9691935,0.59190029,-0.27742869,0.75676113,0
4.0724058,-1.1247268,6.7851472,0.50949782,-0.14071433,0.84888834,0
2.1559238,2.032042,-7.3011999,0.27361572,0.25789344,-0.92662042,0
-0.042595059,-0.077398799,-7.8063173,-0.0054561365,-0.0099142585,-0.99993598,0
4.375814,2.5590703,-6.3344612,0.53935331,0.31542546,-0.78077191,0
6.4122925,1.5347027,-4.3768845,0.81025624,0.19392477,-0.55306238,0
1.6249824,-3.3323896,7.1011539,0.20285074,-0.4159908,0.88645542,0
4.8672118,-6.0982261,-1.0550864,0.6181798,-0.7745297,-0.13400549,0
-0.7864185,2.6185098,7.5666986,-0.097746454,0.32546288,0.94048899,0
7.7371373,1.3890303,-1.5227295,0.9663015,0.17347787,-0.19017574,0
-3.7857621,-6.8362932,2.5115333,-0.46121657,-0.83286053,0.30597824,0
-1.5090449,-0.48470992,-7.7916832,-0.18978697,-0.060960166,-0.97993106,0
3.3110168,3.8647664,6.2102556,0.41237682,0.48134458,0.77346796,0
2.7400713,7.384603,-1.0158828,0.34501842,0.9298386,-0.12791575,0
-6.8982587,3.3254414,2.0583797,-0.86991775,0.41936097,0.25957578,0
1.4469985,-7.2021852,-2.7866867,0.18416911,-0.91666996,-0.35468012,0
3.4191825,6.9523683,0.55435729,0.44019273,0.89506245,0.071369119,0
-5.9338408,-3.4133244,-3.6360214,-0.76553321,-0.44035783,-0.46908829,0
7.0655403,-0.1118721,-3.2125933,0.9102242,-0.014412018,-0.41386503,0
0.27699238,-0.50397617,-7.9269657,0.034851458,-0.063410789,-0.99737877,0
2.3145428,6.7652593,3.4988942,0.29075679,0.84986335,0.43953705,0
-4.3612466,-6.6658297,1.5134611,-0.53787524,-0.82210088,0.18665609,0
-4.0828443,6.3397675,-1.6321522,-0.52918655,0.82171136,-0.21154688,0
4.8347893,5.2359891,-4.0855675,0.58854759,0.63738632,-0.49734345,0
-2.7240365,-6.7595162,-2.9676557,-0.34618083,-0.85902482,-0.37714088,0
-3.4328699,4.2774501,5.8525,-0.42799693,0.53329593,0.72966707,0
-2.6370463,7.1083627,2.1674619,-0.33441818,0.9014501,0.27486762,0
-4.3435116,-1.839819,-6.5116072,-0.54019403,-0.22881469,-0.80983585,0
6.3431282,-3.9787562,-2.3320858,0.80881727,-0.50733429,-0.29736608,0
3.3330562,-2.5342178,-6.8825188,0.41373125,-0.31457168,-0.85432494,0
-5.9520984,-2.3973174,-4.7319307,-0.74654919,-0.30068645,-0.59350818,0
4.4034495,-5.6646786,3.3898573,0.5549143,-0.71385193,0.42718333,0
1.2803922,-6.2261143,-4.9849482,0.15850419,-0.77075231,-0.61710405,0
7.0692673,2.2720439,2.4478998,0.90417188,0.29059845,0.31309074,0
-2.9135046,-5.9099207,-4.236701,-0.37192404,-0.7544322,-0.54083699,0
5.7942395,-4.1957622,3.4475746,0.72963852,-0.52835053,0.43413517,0
1.6684165,-5.4167686,-5.5941777,0.20950384,-0.68018615,-0.70246351,0
-3.6313512,0.75783473,7.1411872,-0.45125595,0.094173603,0.88741159,0
6.5555229,-1.7740797,4.1167402,0.82546121,-0.22338934,0.51837349,0
-2.8212454,0.46090564,7.5367308,-0.35000199,0.057179671,0.93500221,0
-5.7625418,1.2837566,5.1625943,-0.73476887,0.16368894,0.6582709,0
7.8141718,0.92647845,-1.3898158,0.97790873,0.11594465,-0.17392924,0
3.3762,6.2645655,3.0268633,0.43657407,0.81006658,0.39140159,0
-6.2847571,-3.0779068,3.3842542,-0.80850118,-0.39595664,0.43536663,0
-1.4212714,-3.2279255,7.0310059,-0.18068454,-0.4103623,0.89384335,0
-6.2949467,5.0644932,1.0297114,-0.77289099,0.6218164,0.12642753,0
1.4229085,-1.5267918,7.8225913,0.17574984,-0.18858093,0.96620345,0
-0.96612871,-4.9260187,-6.3901238,-0.11889273,-0.60620058,-0.78637481,0
-0.54612404,5.9074478,5.4680915,-0.067688271,0.73218697,0.67773181,0
6.1851664,-4.6817875,0.69237405,0.79417974,-0.60114479,0.088901319,0
-3.9016309,-6.4044147,-2.2048588,-0.49914104,-0.81932563,-0.28207064,0
-0.13608395,-7.7964649,-0.91290569,-0.017333526,-0.99306518,-0.11628024,0
-3.2124138,1.174979,-7.2086215,-0.40260869,0.14725897,-0.90344948,0
-2.5174119,-7.2231421,1.7535836,-0.32078391,-0.92041659,0.22345226,0
-4.0379767,5.7705441,3.5682631,-0.51143575,0.73087656,0.45194349,0
0.1019147,1.3822269,7.7527008,0.012940539,0.17550719,0.98439312,0
-1.3832546,1.3119222,-7.606298,-0.1764001,0.1673034,-0.96999621,0
-0.0094905375,4.1007686,6.7659984,-0.001199556,0.51831645,0.85518801,0
-4.6389647,1.5890321,6.3636847,-0.57743293,0.19779401,0.79211664,0
-2.0411851,-7.2633762,1.6003562,-0.26465589,-0.94175446,0.20749891,0
-2.9738679,-4.1941733,-5.9767337,-0.37720636,-0.53199029,-0.75809079,0
2.9849796,-6.3525205,3.6635642,0.37701184,-0.8023423,0.46271908,0
5.4871016,-4.4364238,-3.6543288,0.69051969,-0.55829799,-0.45987594,0
3.381453,-3.4178483,6.4458561,0.42050272,-0.42502868,0.80157852,0
-5.1450715,1.1906165,-5.6899619,-0.66276389,0.15336961,-0.73295408,0
-6.8420038,-1.2897513,3.7612205,-0.86460054,-0.16298145,0.4752925,0
0.27318308,6.6756158,-4.456686,0.03401513,0.83120793,-0.55492002,0
3.3771141,7.0411987,-2.1811397,0.41651288,0.86841893,-0.26900861,0
-3.591485,0.46145204,7.0877361,-0.45124105,0.057977717,0.89051676,0
7.2038331,-0.058675051,3.5198703,0.89845896,-0.0073179267,0.4389967,0
-4.2279572,-5.301939,4.364871,-0.52425921,-0.65743101,0.54123628,0
-4.8388901,-2.5823936,5.5806079,-0.61840785,-0.33002865,0.71319902,0
-0.40705973,-7.815032,1.3635565,-0.051244169,-0.98382324,0.17165619,0
1.564304,5.8145132,5.0772581,0.19861209,0.73824054,0.64463484,0
-1.2907799,-0.54168361,-7.7090549,-0.1647429,-0.069135353,-0.98391062,0
-0.47415325,-3.551075,7.0763531,-0.059780538,-0.44771427,0.89217609,0
-6.3031502,-4.1425424,-1.9474462,-0.80914152,-0.53178221,-0.24999556,0
-5.472198,4.9565606,3.2652774,-0.67783344,0.61396217,0.40446532,0
0.090286255,4.9455152,-6.0224924,0.011585002,0.63457942,-0.77277082,0
-7.4125624,-1.4882131,-2.1033666,-0.94456279,-0.18963897,-0.26802632,0
3.9595737,-6.3852148,2.3012571,0.50390381,-0.81259602,0.29286289,0
2.801913,-2.6479671,7.0615783,0.34826308,-0.32912841,0.87771714,0
-3.1815031,6.5886273,2.9914277,-0.40249428,0.83353209,0.37844771,0
4.4188452,3.804141,-5.446559,0.55381703,0.47677574,-0.68262112,0
8.0550756,-0.64519072,0.30587462,0.99609423,-0.079784572,0.03782459,0
-2.8613994,-4.3487701,6.3141303,-0.34966001,-0.53141516,0.7715801,0
-3.7289512,-5.3347654,4.5011272,-0.47120839,-0.67412692,0.5687843,0
-4.0748868,-1.0419472,-6.7130542,-0.51438677,-0.13152854,-0.84741163,0
7.5319805,-1.5912242,1.7233927,0.95477158,-0.20170733,0.21846132,0
3.4907863,-4.6451588,-5.3418064,0.44226876,-0.58852315,-0.67678565,0
-3.8892374,-3.602031,5.9794378,-0.48670837,-0.45076668,0.748281,0
-3.8076015,2.0067594,6.4217591,-0.49252924,0.25958276,0.8306815,0
-2.3635089,-2.4353151,7.3280492,-0.29266855,-0.30156016,0.9074176,0
5.9344883,-4.9040737,-2.2408521,0.74013889,-0.6116274,-0.27947512,0
-3.0998008,-2.8166602,6.9073372,-0.38373497,-0.34868401,0.85508293,0
-4.064961,-6.6298251,-0.22109988,-0.522493,-0.85216987,-0.028419249,0
2.8523324,-4.6512165,6.1423721,0.34717906,-0.56613493,0.74763483,0
5.5760875,-1.8236673,5.2334075,0.70926821,-0.23196717,0.66567993,0
-7.0196471,1.1444319,-3.5979369,-0.88069344,0.14358182,-0.4514015,0
-2.7743368,-6.7403975,3.2740564,-0.34720099,-0.84354311,0.40973958,0
-6.0752711,-1.2075551,-4.7183924,-0.78022647,-0.15508221,-0.60596716,0
1.9676321,-2.4560316,-7.4668274,0.24283025,-0.30310482,-0.92149925,0
2.6969743,1.7118428,7.3379378,0.33699176,0.21389781,0.91688842,0
3.572439,-2.3017867,6.9515815,0.43845978,-0.28250754,0.85319555,0
-3.2336349,-4.7724338,5.362412,-0.41071185,-0.60615844,0.68109304,0
5.2562399,5.5583959,-2.0902407,0.66278744,0.70088792,-0.26356965,0
2.7771764,-1.9537401,7.1334105,0.35152623,-0.24729827,0.90292466,0
6.8363929,-0.48776627,-3.8270433,0.87089258,-0.062136866,-0.48752955,0
1.4382701,0.43390715,-7.8246565,0.18051556,0.05445917,-0.98206329,0
-4.5921631,6.4439716,0.88128561,-0.57677841,0.80936664,0.11069,0
0.90807921,-5.0265245,-6.0154018,0.11507069,-0.63695508,-0.76226437,0
0.42638361,7.8651395,-0.49183056,0.054027125,0.99659288,-0.062319916,0
4.418376,-3.7938869,-5.6520743,0.54443574,-0.46748573,-0.69645303,0
-7.2737713,0.24357504,3.0941639,-0.91976625,0.030799992,0.39125612,0
7.8678465,-0.56419963,0.64448088,0.99412614,-0.071288325,0.081432104,0
5.5486727,-5.6943502,-0.58810651,0.69598466,-0.71425742,-0.073767751,0
4.9378457,-0.020494951,-5.9647636,0.63767964,-0.0026467438,-0.77029711,0
-1.9919578,-7.3495607,-2.4608259,-0.24891771,-0.91841096,-0.30750811,0
7.8160052,0.25468698,1.3783371,0.98429751,0.032073643,0.17357893,0
-6.0596857,2.3344207,-4.2725825,-0.77955073,0.30031252,-0.54964811,0
-5.6150055,5.263196,-0.62635183,-0.72718936,0.68162715,-0.081117712,0
2.8160446,6.4118652,-4.2278838,0.34424758,0.78381896,-0.51683801,0
7.588047,-2.7077017,-0.95034808,0.93534815,-0.33376753,-0.11714561,0
-4.3429294,6.0551291,-2.9023149,-0.54308236,0.75719255,-0.36293384,0
1.0437877,-4.9376278,-6.0661898,0.13227525,-0.62572682,-0.76874518,0
3.6750431,-6.1702056,3.5605576,0.45846811,-0.76974404,0.44418585,0
6.1599107,-0.79142535,4.9059529,0.7783075,-0.099996947,0.61986935,0
-7.487155,2.112911,1.8304559,-0.93682832,0.26437744,0.22903532,0
-2.0372374,3.8001664,-6.8620319,-0.25137848,0.46890953,-0.84671879,0
0.53023726,-7.6188912,-1.7359655,0.067700282,-0.97277409,-0.22164673,0
-0.98725301,-4.6898432,6.3489661,-0.124108,-0.58956224,0.79813129,0
1.0858061,-5.1247339,-6.2909656,0.1326344,-0.62600124,-0.76845986,0
-2.5996318,6.2011871,4.1405935,-0.32920629,0.78529191,0.52434713,0
-6.706645,-4.0837631,0.76858002,-0.85005373,-0.51760876,0.097415969,0
3.9017296,-4.4710789,5.4217143,0.48541206,-0.55624449,0.67451251,0
-4.049304,-0.24843313,-6.9108996,-0.50529873,-0.031001117,-0.86238742,0
-5.9962859,4.586123,2.5963082,-0.75112897,0.57448393,0.32522836,0
-6.3164072,-4.7990189,-0.87262708,-0.79147589,-0.60133994,-0.10934433,0
5.1449795,-0.079298139,5.9344263,0.65502876,-0.010095776,0.7555365,0
7.9948525,1.1389319,-0.64032167,0.98690724,0.14059298,-0.07904312,0
-4.9277678,-4.3932972,4.3434038,-0.62357271,-0.55593944,0.54962575,0
1.7990803,7.6105037,1.068103,0.22793758,0.96422589,0.13532515,0
-5.8955669,4.0599704,-3.6342142,-0.73437667,0.50572705,-0.45269305,0
1.9680617,5.2076216,5.7274375,0.24640048,0.65199196,0.71707273,0
1.9993753,7.6868329,-0.037722684,0.25172523,0.96778709,-0.0047493586,0
6.6437263,-1.0130399,-4.0682936,0.84569073,-0.1289515,-0.5178597,0
6.2427359,-2.5289149,4.2206683,0.78538215,-0.31815612,0.53099114,0
4.1766391,-5.7040701,-3.5548389,0.52781135,-0.72083622,-0.44923303,0
4.6944442,-5.1793165,-3.7528396,0.59169364,-0.65280753,-0.4730126,0
-2.5749907,-4.1989675,6.0827785,-0.32898778,-0.53647143,0.77715218,0
2.7310023,-2.6375873,7.1278219,0.33816454,-0.32659748,0.88259774,0
-6.9034271,3.8329835,0.47771409,-0.87268281,0.48453885,0.060389262,0
-5.4041529,3.8965273,4.141098,-0.68890804,0.49671969,0.52789694,0
4.4676623,6.5343919,-1.7605761,0.5509426,0.80580723,-0.21711048,0
4.5180745,-5.7424469,-3.2687171,0.56443661,-0.71739572,-0.40835616,0
7.1829443,2.7096577,1.9037633,0.90813369,0.34257978,0.24069121,0
5.3663168,4.7126865,3.5082693,0.67440993,0.59226519,0.44090047,0
3.6132467,2.2544935,6.6440663,0.45784307,0.28567222,0.84188539,0
-7.0147524,-0.6206156,3.5885303,-0.88752061,-0.078521535,0.4540281,0
-4.905067,5.352633,-2.8625371,-0.62852174,0.6858716,-0.36679763,0
-0.24720235,5.429491,5.8330789,-0.031005774,0.68100309,0.73162377,0
7.7137976,-0.69496095,2.3348694,0.95357686,-0.085910819,0.2886357,0
1.0822977,-7.8378839,1.2932554,0.13499613,-0.97762746,0.16130911,0
-7.2283545,-0.084927015,-3.1021318,-0.91889501,-0.010796235,-0.39435443,0
-5.9599652,-4.7072511,-2.3493049,-0.74970412,-0.59212518,-0.29551911,0
-4.6133189,3.2758477,5.6023011,-0.57938868,0.41141507,0.70359534,0
7.2542014,-1.3295722,-2.4937811,0.93178767,-0.1707809,-0.3203212,0
-5.9829764,2.7133703,-4.795557,-0.73558611,0.33359942,-0.58959699,0
6.2333698,-4.6306982,1.2907108,0.79186743,-0.58826911,0.16396779,0
-2.2393014,1.4708221,-7.3516397,-0.28618726,0.18797404,-0.93955445,0
-7.4812169,1.261068,-1.8183141,-0.9589321,0.16164196,-0.233069,0
-5.0510874,3.5707486,4.6149549,-0.65448838,0.4626753,0.59797704,0
3.798872,5.4291897,4.7674403,0.46537188,0.66509014,0.58402407,0
5.3483,-6.0017481,0.44162068,0.66429377,-0.74545628,0.054852173,0
3.3883717,6.9558215,0.42481911,0.43727303,0.89765626,0.054823365,0
-4.2507958,2.8141515,6.0795822,-0.53576243,0.35469043,0.76625925,0
-5.9569354,3.1349993,4.4354949,-0.73894131,0.38888794,0.55021083,0
5.231576,-6.0476098,-0.52061236,0.65285635,-0.75469047,-0.064968012,0
-4.5490837,-2.6233246,-6.0472217,-0.56799287,-0.32754502,-0.75504851,0
8.0805855,0.35628095,-0.7342003,0.99493897,0.043867834,-0.090399943,0
7.0344758,2.7579205,3.1416061,0.85965687,0.33703509,0.38392389,0
2.7946048,-6.984901,-3.1514125,0.342619,-0.85635,-0.38636369,0
0.17567892,0.96916437,8.0246458,0.021729352,0.11987387,0.99255133,0
5.0672727,1.3542725,5.8426213,0.64538139,0.17248376,0.74413186,0
-4.6809368,5.8843799,-2.4555433,-0.59178078,0.74392438,-0.31043857,0
0.024583101,-2.0090213,7.6176815,0.0031204005,-0.2550106,0.96693325,0
-0.18617921,6.3942075,4.7549634,-0.023358285,0.80222559,0.59656388,0
3.2534244,5.2274537,-4.8531146,0.41498381,0.66677701,-0.61902899,0
-2.3682892,-5.8560257,-4.9924536,-0.29414311,-0.72732234,-0.62006611,0
-7.2016821,-1.1318346,3.2565994,-0.9019686,-0.14175567,0.40787005,0
3.7479644,-6.765327,0.46487522,0.48372716,-0.87315995,0.059998639,0
-3.4228408,5.441484,4.5513134,-0.43456092,0.69084609,0.57783079,0
2.0023837,-7.354774,1.814225,0.25555569,-0.93865848,0.2315418,0
4.719655,-3.4348049,5.4246011,0.59227812,-0.43103993,0.6807431,0
2.9700291,-2.6309853,7.2270212,0.36024049,-0.31911719,0.87657917,0
-6.3059435,-2.9277146,-3.8623276,-0.79287744,-0.36811602,-0.48562953,0
7.788043,0.89811116,0.41142491,0.99205112,0.11440258,0.052407842,0
-4.842176,-0.59299749,-6.1402721,-0.61744541,-0.075615503,-0.78297091,0
-0.4899818,-3.4750559,7.0598879,-0.062148556,-0.44077086,0.89546555,0
4.9836679,-0.53964978,6.1284013,0.6294564,-0.068159841,0.77404064,0
-0.8417266,5.3215456,-5.8264842,-0.1060684,0.67058337,-0.7342121,0
-6.4973021,4.112143,1.6128834,-0.82698727,0.52340031,0.20529045,0
4.9737515,-0.46350694,-6.4438057,0.61003214,-0.056849267,-0.79033476,0
-7.5629387,-0.55951375,-2.266664,-0.95550722,-0.07068938,-0.28637201,0
7.448071,-2.4301054,-1.5891821,0.93170297,-0.30398965,-0.19879587,0
0.074296951,7.8621249,1.7117859,0.0092332652,0.97706681,0.21273246,0
1.3107294,4.7087598,-6.567482,0.16010448,0.57517105,-0.80221242,0
4.3129964,-2.190053,-6.2317171,0.54672664,-0.27761683,-0.7899487,0
-3.5550411,-4.8795214,4.8572206,-0.45879847,-0.62973028,0.62685221,0
7.0019898,2.7490289,-1.9650354,0.90060908,0.35358524,-0.25274655,0
-4.7854776,4.5748234,4.0830016,-0.61524069,0.58815813,0.5249275,0
3.830164,-1.7764205,-6.4932513,0.4945209,-0.22935757,-0.83835799,0
-5.2285743,-4.399837,4.3421669,-0.64579356,-0.54343426,0.53631133,0
1.4104,4.5991669,-6.2583265,0.17867741,0.58264834,-0.79284,0
6.034318,-4.5017338,-2.4371641,0.76256579,-0.56889081,-0.30798808,0
0.10448939,-2.9687629,-7.4151473,0.01308072,-0.3716507,-0.92828047,0
