3.9050505,-5.044445,-5.5298491,0.46254903,-0.59750909,-0.65500468,0
6.8180842,4.9842415,1.4986317,0.79487294,0.58107799,0.17471503,0
0.89834458,-0.98638356,8.4277487,0.1052826,-0.11560044,0.9877004,0
7.4601331,-0.89803261,-3.741389,0.88875347,-0.10698597,-0.44572562,0
6.3317709,-5.4548535,-0.79468453,0.75421917,-0.6497637,-0.094660133,0
-7.638968,-3.35832,-1.7571142,-0.8957957,-0.39381871,-0.20605078,0
-5.6983399,6.2865186,-1.5464401,-0.66071153,0.72890967,-0.17930675,0
2.7617304,-3.5131602,6.9384871,0.33463344,-0.42568269,0.8407228,0
6.7813044,0.19197035,-5.3708301,0.78372359,0.022186246,-0.62071335,0
-1.4393086,-6.7183924,4.7748127,-0.17202139,-0.80295992,0.57066977,0
-2.0027308,7.7113042,-2.6231778,-0.2387654,0.91934103,-0.31273502,0
3.4006233,6.9721751,2.8137479,0.41210553,0.84492511,0.34098488,0
-3.1663358,6.6778769,3.9963355,-0.37686351,0.79481405,0.47565171,0
7.2064462,-3.1443756,2.5443754,0.87202811,-0.38049045,0.30788642,0
1.007731,7.0349302,-4.3328953,0.12107138,0.84519452,-0.52056509,0
1.1971489,-6.8257504,4.7400188,0.14258665,-0.81298226,0.56456083,0
-1.7291813,2.8123236,7.5688305,-0.20940718,0.34057778,0.91659993,0
-0.96694732,6.6768188,5.0081596,-0.11508296,0.79465353,0.59605509,0
-6.1097455,1.7120093,-5.798203,-0.71082425,0.19917978,-0.67457855,0
-7.6694074,3.1753273,-1.57521,-0.90774101,0.37582758,-0.1864398,0
8.1279058,-1.1765881,2.1676116,0.95691478,-0.13852209,0.25519729,0
-8.0074978,-0.98723674,-1.9987555,-0.96336359,-0.11877218,-0.24046566,0
7.9802537,2.1946929,-2.0173843,0.93677497,0.25762758,-0.23681392,0
-6.775456,-4.0854802,2.0133541,-0.82991463,-0.50042385,0.24661247,0
-3.3885345,5.6388898,-5.5319171,-0.3942253,0.65603375,-0.64358842,0
-4.5140729,-3.2864308,6.6125584,-0.52157623,-0.37972894,0.76404464,0
-4.1229053,-6.4148088,-3.503336,-0.49130452,-0.76441836,-0.41747376,0
-7.4259372,-3.2964723,2.4684286,-0.87452126,-0.38821164,0.29069641,0
-6.605391,2.7946403,4.2698488,-0.79134685,0.3348068,0.51154149,0
-1.9400547,-8.0742397,1.2069546,-0.23119837,-0.96221566,0.14383405,0
-1.318561,-4.6950507,7.0631061,-0.15362296,-0.5470112,0.82290864,0
-7.0039568,0.29055423,4.8480473,-0.82176077,0.034090169,0.56881201,0
3.7268448,-7.4240379,-1.3225332,0.44306082,-0.88259649,-0.15722755,0
8.1957417,1.2590909,-0.22815147,0.9880302,0.15178856,-0.027504593,0
-8.2936716,-2.1415303,0.79829663,-0.9640649,-0.24893367,0.092794821,0
-8.1995249,1.9344653,0.67632073,-0.97015917,0.22888389,0.08002156,0
0.29949966,0.023538914,-8.2523079,0.036268812,0.0028505155,-0.99933803,0
0.78184497,-6.9156008,4.5600739,0.093965851,-0.83114982,0.54805142,0
7.8884177,2.7287805,1.1292614,0.93652195,0.32396394,0.13406721,0
-1.9290172,-6.9584742,-4.7071872,-0.2237919,-0.80727643,-0.54609692,0
-5.121242,6.0596838,-2.6247749,-0.61282235,0.72511894,-0.31408802,0
-3.6004572,7.2473078,-1.905637,-0.43307325,0.87172687,-0.22921546,0
-6.9186792,-0.89635736,-4.9534245,-0.80861902,-0.10476156,-0.57893032,0
-7.5955901,3.3913753,0.074091963,-0.91307986,0.40768346,0.0089067314,0
2.1513758,-7.8294706,-2.1897821,0.25581872,-0.93099743,-0.2603856,0
7.4791369,2.6561391,2.8080714,0.88837487,0.31549725,0.33354384,0
4.6062956,-6.3994751,-3.2522874,0.54005682,-0.75029492,-0.38130856,0
-2.7109537,-5.1941619,6.121366,-0.31993428,-0.61299109,0.72241545,0
7.9442267,-2.2828994,-1.9730153,0.93484032,-0.26864117,-0.23217542,0
3.6407583,-7.223938,-2.1936052,0.43437171,-0.86187387,-0.26171473,0
2.6527729,0.47601566,7.9731336,0.31519347,0.056558564,0.94734067,0
2.0978668,2.4099758,-7.9192491,0.24566543,0.28221416,-0.92736381,0
-3.0501592,-7.8079433,-1.2380582,-0.3599644,-0.92145413,-0.14610939,0
6.1144962,-2.9174733,-4.618866,0.74571115,-0.35580891,-0.56330723,0
-6.8830009,-4.3128452,3.0024574,-0.7948277,-0.49803406,0.34671453,0
2.2861023,7.9845071,-1.5251908,0.27072987,0.94555902,-0.18061954,0
-2.8478134,8.0592575,0.27875492,-0.3329936,0.94236553,0.032594692,0
-5.6150026,-3.7679567,5.2182779,-0.65738368,-0.44113839,0.61093664,0
7.7141223,2.3484156,-2.8448272,0.90215462,0.27464354,-0.33269811,0
-4.4447055,-4.397553,5.3042979,-0.54207975,-0.53632897,0.64691633,0
-3.9589515,-0.43549922,-7.5519681,-0.46369323,-0.05100796,-0.88452625,0
2.6125033,-3.4019723,7.1919136,0.31198165,-0.406259,0.85884869,0
5.6760139,-4.5090299,3.9556644,0.68732911,-0.54601479,0.47900575,0
3.6848915,2.2001445,-7.1479526,0.44197112,0.26388845,-0.85733557,0
1.422501,-8.4149294,0.56531119,0.16631566,-0.98385489,0.066094935,0
-3.9224122,-4.5066738,-6.0978508,-0.45946392,-0.5279032,-0.71429068,0
-2.7270508,5.2945371,-5.8783078,-0.32589039,0.63271236,-0.70247465,0
-1.8853731,3.3512118,7.398283,-0.22612205,0.40192726,0.88731235,0
1.0305433,-7.3804479,-4.2770157,0.11993941,-0.85897076,-0.49777892,0
-4.5074592,-6.8930135,2.0790763,-0.5306443,-0.81148559,0.24476093,0
5.1387978,-2.9346812,5.7461658,0.62299663,-0.35578293,0.69663024,0
-5.2854905,-4.3915348,-4.7316723,-0.63350093,-0.52635443,-0.56712216,0
-4.2095408,-7.1432071,1.9436678,-0.49430543,-0.83879125,0.22823523,0
-2.5404058,1.4155245,-8.1414213,-0.29385036,0.16373463,-0.94172341,0
7.4211793,-3.9606225,-0.15001486,0.88208133,-0.47075957,-0.017830767,0
-8.272562,0.88193142,-1.2891047,-0.98263866,0.10475834,-0.15312356,0
-1.2881285,6.245894,-5.1256723,-0.15743694,0.76338226,-0.62646711,0
6.7629271,-4.7492294,2.1777875,0.79135042,-0.55572158,0.25482947,0
2.0523689,7.5536103,3.1473577,0.24327157,0.89534521,0.37306288,0
-4.7738814,7.0240145,-0.83424664,-0.55942041,0.82309896,-0.097759984,0
0.1371327,4.6737723,-7.1902304,0.0159887,0.54492873,-0.83832985,0
2.9417477,2.4242442,-7.5422292,0.34810275,0.28686553,-0.89248669,0
1.0875926,6.611269,-5.1059556,0.12910758,0.78482044,-0.60612547,0
-1.2026641,3.0866239,-7.5153284,-0.14643373,0.37582049,-0.91504979,0
-2.466033,2.5561259,-7.660778,-0.29204255,0.3027119,-0.90723568,0
-3.1416793,7.2882571,-2.6149859,-0.37596738,0.87219185,-0.31293756,0
-4.5160589,-3.0304472,-6.3960652,-0.53790039,-0.36095163,-0.76182491,0
3.6556022,-6.5321541,4.0386567,0.42979369,-0.76799345,0.47482985,0
3.119046,2.9098332,-7.1984191,0.37276319,0.34775975,-0.86029691,0
7.7490921,-1.6400542,-2.6864674,0.92648935,-0.19608656,-0.32119679,0
-0.82096672,-4.9883156,6.8307443,-0.096606821,-0.58699739,0.80380422,0
5.0365958,-5.2229242,-4.62077,0.58550125,-0.60716182,-0.53716177,0
2.0836804,-4.9600081,6.5421581,0.24600314,-0.58558768,0.77237922,0
-7.3276291,0.62558705,3.7944899,-0.88546211,0.0755952,0.45852169,0
0.096186183,4.3543773,7.2814226,0.011336518,0.51320761,0.85818958,0
2.9985404,3.2738545,7.1945167,0.35468817,0.38725424,0.85101736,0
-2.9278121,7.3748097,-2.3186862,-0.35417488,0.8921243,-0.28048944,0
1.6981776,6.2045994,5.0284028,0.20798494,0.75991064,0.61585552,0
-7.444767,2.1826217,-2.7955172,-0.90278858,0.26467532,-0.33899799,0
-7.5593104,-3.6097479,-1.2627627,-0.89231193,-0.42609987,-0.14905833,0
1.5581869,-7.7534003,2.6361616,0.18691775,-0.9300862,0.31622997,0
-0.59262365,8.0887384,-1.9605925,-0.071023688,0.96940446,-0.23496954,0
-7.5576625,3.6542051,-1.1768211,-0.89156872,0.43108237,-0.13882823,0
2.8365481,5.1032314,-5.9967027,0.33891273,0.60973758,-0.71649015,0
7.5069857,3.4612691,0.64397228,0.90537703,0.417445,0.077666022,0
1.5740972,8.1390972,-2.4396782,0.18215652,0.94186664,-0.28232265,0
2.8400371,-8.0127468,0.19030489,0.33399227,-0.94231009,0.022380117,0
-5.5003161,5.8510203,2.5065136,-0.65382487,0.69551319,0.2979503,0
-7.8334432,-2.3393829,2.7995667,-0.9065057,-0.27071926,0.32397288,0
-1.2106553,-8.3900414,-1.3711259,-0.14098518,-0.9770506,-0.15967256,0
8.4051619,2.0672107,0.23894443,0.97069204,0.23873723,0.027595121,0
7.7586131,-1.6432886,3.249023,0.90527481,-0.19173887,0.37909591,0
-2.5634332,-7.9099917,1.8954378,-0.30057976,-0.92749959,0.2222528,0
-6.9290233,3.8553734,-2.9077468,-0.82041788,0.45648819,-0.34428623,0
-0.535236,2.931078,-8.0947905,-0.06205105,0.33980611,-0.93844634,0
1.5268973,3.8622153,-7.3513756,0.18083934,0.45742467,-0.87066627,0
1.219516,-6.6354327,5.1277361,0.14391148,-0.78302777,0.60510898,0
-6.6173315,5.2693114,-0.30063629,-0.78178912,0.62253046,-0.035517972,0
0.7695117,7.0804577,4.6749616,0.090324558,0.83109742,0.54874259,0
-2.7947795,-7.2556167,-3.3744895,-0.32973003,-0.85602272,-0.39812464,0
5.9088235,-2.1493816,-5.8710113,0.68687373,-0.2498558,-0.68247825,0
4.9141636,-4.942482,4.5771079,0.58934921,-0.59274542,0.54892653,0
-4.2560816,6.956707,2.1419413,-0.50475603,0.82504052,0.25402656,0
3.640192,-3.7313745,-6.6326556,0.43150634,-0.44231507,-0.78623134,0
2.4695017,-4.4055409,-6.6508317,0.29570994,-0.5275405,-0.79640234,0
-5.3530097,6.2993774,-2.3582897,-0.62270242,0.73279101,-0.27433401,0
5.1269579,4.6226392,4.5942531,0.61828196,0.557464,0.55404079,0
-1.2078702,8.1602955,2.0703042,-0.14201835,0.95946699,0.24342115,0
3.5429008,3.4441421,6.7282839,0.42441648,0.41258585,0.8060047,0
4.2560234,-5.6592584,-4.3498921,0.51213312,-0.68098634,-0.5234285,0
-7.2995563,-3.6548924,-1.1222461,-0.88584501,-0.44354317,-0.13619131,0
-6.6165853,-3.0094342,-3.8232574,-0.80562454,-0.36642376,-0.46551353,0
-2.2240968,-3.6788538,-7.2744298,-0.26321518,-0.43538132,-0.86090696,0
6.6666913,4.0155535,-2.9684668,0.80036724,0.48208585,-0.35637823,0
1.576084,-3.6705234,-7.3564506,0.18827839,-0.4384793,-0.87879872,0
-3.3572183,-6.1657257,4.4651446,-0.40350538,-0.74106103,0.53666753,0
-1.3865724,-8.0445995,-1.6399564,-0.16652882,-0.96616501,-0.19696051,0
3.932559,-6.2076144,4.5240765,0.45571572,-0.7193554,0.52426237,0
-0.089843743,3.4585965,7.5411582,-0.010828555,0.41685262,0.90890962,0
7.1467323,-0.79864836,-4.2195897,0.85715061,-0.095786706,-0.50608081,0
-6.5634308,2.7447579,-4.4637909,-0.78148407,0.32680845,-0.53148752,0
4.6017857,6.6716228,1.7673203,0.55475259,0.8042748,0.21305329,0
4.5291948,7.1285858,0.7804966,0.53399509,0.84046501,0.09202107,0
-4.5763578,-1.7728338,6.8495064,-0.54310715,-0.2103941,0.81287694,0
2.617048,2.51631,-7.4755874,0.3149069,0.30278519,-0.89953035,0
5.2955604,0.072724037,-6.486351,0.63239419,0.0086846827,-0.77459806,0
3.3326218,-5.7659893,5.3884063,0.38902161,-0.67307204,0.62899619,0
5.9272637,-4.5130858,3.8087854,0.70840687,-0.53938901,0.4552134,0
7.5261636,-3.2273791,-2.494556,0.87917483,-0.37700886,-0.29140356,0
4.2816133,-2.0777504,-7.1483202,0.49857798,-0.24194632,-0.83239537,0
7.6058221,-3.3347943,1.9815754,0.89082873,-0.39058641,0.23209119,0
4.3770289,7.0059266,-1.6570258,0.5195049,0.83152592,-0.19667062,0
0.81437564,-2.7011063,7.9654655,0.096372217,-0.31964561,0.94262344,0
7.9767718,2.3181195,1.4373016,0.94621289,0.27497774,0.1704942,0
-7.6326737,1.0301809,3.1119411,-0.91884488,0.12401637,0.37462509,0
3.0669458,-1.9626131,-7.4700193,0.36905861,-0.23616956,-0.89889914,0
4.9571028,3.9931998,-5.6507778,0.58238381,0.46913996,-0.66388005,0
0.21906278,-7.2312331,4.2504158,0.026107639,-0.86180973,0.50655949,0
0.45699188,5.775106,6.1828437,0.053936381,0.68160582,0.729729,0
4.2293634,-6.7810283,-2.155504,0.51095051,-0.81921774,-0.260407,0
-3.475929,7.8647914,-0.51496309,-0.40351757,0.9130168,-0.059781618,0
-3.8040028,1.7395571,-7.5118365,-0.44243303,0.20232308,-0.87368095,0
0.58142185,6.6127372,-5.1154304,0.069377355,0.78905565,-0.61039162,0
-7.2003675,3.3705196,-2.7211893,-0.85687959,0.40110862,-0.32383507,0
-2.1068459,-3.1247811,7.3719344,-0.25446841,-0.37741634,0.89039469,0
0.75163186,1.6123788,-8.2608757,0.088947847,0.19080834,-0.97758907,0
-0.76821524,7.6891971,-2.8531141,-0.093259841,0.93345362,-0.34636253,0
3.4852905,-5.3120332,-5.4101677,0.41766265,-0.63657182,-0.64833188,0
6.9794545,-0.53873885,-4.6706395,0.82937306,-0.064018682,-0.55501509,0
-4.845232,2.3449514,6.5403829,-0.5720033,0.27683297,0.77212417,0
6.105432,-1.5152851,-5.6980596,0.71933097,-0.17852814,-0.67133504,0
-2.0076876,7.849587,2.1337562,-0.23962294,0.93686938,0.25466955,0
-3.4793894,7.0710011,-2.7539158,-0.41679272,0.84702843,-0.32988894,0
3.1829369,-4.2587514,-6.6640453,0.37336007,-0.49955365,-0.78169584,0
4.9754243,-1.7631127,-6.4763384,0.59550112,-0.21102434,-0.77514333,0
-7.0605516,-3.4286377,2.6378286,-0.85268199,-0.41406646,0.31856278,0
2.5114369,0.96128035,7.8516154,0.3026064,0.11582596,0.94605166,0
4.2303905,2.7323904,-6.829051,0.49856287,0.32201955,-0.80482203,0
-7.9740372,-2.677958,1.3543117,-0.93591666,-0.31431326,0.15895623,0
-4.4858975,-3.5898058,6.283915,-0.52685082,-0.42160839,0.73802078,0
3.4658594,1.948131,7.5136061,0.40771523,0.22917336,0.88388222,0
-2.1002209,8.1576338,0.81633312,-0.2481617,0.96390444,0.096457765,0
0.75063294,-5.9145379,-6.1679893,0.087502465,-0.68946701,-0.7190122,0
-3.7519672,0.67305845,-7.5237064,-0.4448494,0.07980071,-0.89204305,0
4.3146815,-0.87130445,7.1678724,0.51294774,-0.10358439,0.85214728,0
1.8254787,-3.6223049,7.4887099,0.21434098,-0.4253177,0.87929678,0
-1.1503043,-0.58097172,8.2579441,-0.13763089,-0.069511741,0.9880414,0
-3.5759826,6.7475805,3.965344,-0.41558313,0.78417069,0.4608328,0
-4.1203585,2.1028955,-6.997611,-0.49119428,0.25068942,-0.83419597,0
-0.96197796,-4.8989186,6.973805,-0.11216257,-0.57119322,0.81311619,0
-2.260993,-3.1585724,-7.4437785,-0.26928318,-0.37618446,-0.88655043,0
-0.06517449,6.8828421,-4.7236438,-0.0078071156,0.82448125,-0.56583542,0
-4.7029057,-5.0009398,5.0926986,-0.55019879,-0.58506614,0.59580112,0
1.2650678,-5.8241405,6.038599,0.14910449,-0.68644977,0.71172649,0
6.5875249,-5.0887814,0.88341659,0.78695744,-0.60791487,0.10553452,0
3.8421054,7.1453481,-2.5968721,0.45104107,0.83882278,-0.30485785,0
2.9075041,-0.073464669,7.9476666,0.34354997,-0.0086805671,0.93909431,0
7.2878799,-3.830713,-1.2521006,0.87510735,-0.45998085,-0.15034859,0
-1.3099016,2.6720638,-7.9045143,-0.15508898,0.31636548,-0.9358741,0
2.1983433,-0.49571034,8.0542402,0.26284763,-0.059270218,0.96301514,0
1.4302657,-6.3084831,-5.450007,0.16909334,-0.74582124,-0.64432776,0
-6.0047221,5.8561311,0.83855188,-0.71235788,0.6947301,0.099479884,0
8.2812538,1.4612128,1.9821823,0.95851851,0.16912891,0.22942883,0
-4.8874154,-0.97130018,-6.804009,-0.5795204,-0.11517095,-0.80677861,0
1.689278,-4.0627508,7.066195,0.20293811,-0.48807064,0.84888351,0
-6.0386171,3.8943601,4.7150803,-0.70262611,0.45313007,0.54862535,0
-4.9634714,-1.0314723,6.9273067,-0.57821381,-0.12016016,0.80698848,0
-5.356482,-2.9990671,-5.5800886,-0.64567012,-0.36150742,-0.67262363,0
-0.60633087,-0.59633493,-8.3215704,-0.072485007,-0.071290024,-0.99481839,0
-3.8245215,7.3481374,0.33054286,-0.46131727,0.88633901,0.039870381,0
0.98034793,-4.5636725,-7.2407775,0.11379636,-0.5297398,-0.84049153,0
6.5163231,4.0589366,-3.284905,0.78036702,0.48608091,-0.39338619,0
7.762001,0.9697386,3.352529,0.91205055,0.11394621,0.39392883,0
1.2783678,7.2024708,3.9853609,0.15346107,0.86461729,0.47842082,0
-3.4605093,7.2311912,3.0861964,-0.40284845,0.84180504,0.35927355,0
-3.2810118,-7.6764407,1.2350363,-0.38878781,-0.90962994,0.14634724,0
7.7904582,-2.1471515,-2.6217723,0.9169994,-0.25273696,-0.30860361,0
-6.2514467,2.3219643,-5.3583188,-0.73075765,0.27142408,-0.62635624,0
-4.5467649,-3.8675106,6.1143909,-0.53209847,-0.45260677,0.71555454,0
-6.2353258,3.0104403,4.9673333,-0.73171449,0.3532747,0.58291578,0
-8.1083221,-1.66313,0.75434917,-0.97556239,-0.20010146,0.090760417,0
2.1460481,4.0128083,7.3106141,0.24921513,0.46599728,0.84896314,0
-5.3563585,-4.8979049,3.9572966,-0.64793485,-0.5924778,0.47869658,0
-7.4930758,-3.5214562,-0.95154208,-0.89911842,-0.42255092,-0.11417861,0
-4.7241907,4.740098,5.4872646,-0.54587907,0.54771715,0.6340521,0
-0.66087985,2.7159379,-7.7721405,-0.080014564,0.32882616,-0.94099468,0
-0.13506401,5.6689954,6.3552704,-0.01585752,0.6655823,0.74615604,0
1.590389,-1.6443424,-8.149765,0.18788391,-0.19425781,-0.96278948,0
-0.53007656,2.5485003,7.9563985,-0.063320041,0.30442989,0.95042783,0
-2.337564,3.2695556,7.4018774,-0.27753121,0.38818347,0.87880033,0
-0.82324499,-4.9880753,-6.9266114,-0.096001364,-0.58167619,-0.80773544,0
-6.3817163,5.031116,-2.281075,-0.75608432,0.59606975,-0.27025411,0
-5.7651057,2.5690496,5.6237774,-0.6819706,0.30390009,0.66525245,0
-4.7866797,-6.1380634,-3.1746252,-0.56941378,-0.73017168,-0.37764701,0
-2.8471508,6.3412209,4.8319035,-0.33632413,0.74906659,0.5707761,0
1.4107534,-0.47788361,8.2400417,0.16847667,-0.057070386,0.98405212,0
-4.9111309,-5.2330842,4.3525252,-0.58511949,-0.62347752,0.51856637,0
1.9024954,-8.0592871,0.88493276,0.22844711,-0.96774,0.10626062,0
1.3616168,6.8651252,4.6523919,0.16201839,0.81687927,0.55358678,0
7.0787945,-4.4026661,-1.3560035,0.83814365,-0.52128464,-0.16055357,0
-7.7684779,1.6840267,3.1462233,-0.90870941,0.19698723,0.36802614,0
-4.0244217,4.3107247,5.9821396,-0.47908315,0.51316583,0.7121377,0
-1.7104506,7.3339515,3.5505643,-0.20543973,0.88087016,0.42645308,0
-3.19718,-7.6643782,0.21735759,-0.3848621,-0.92260319,0.026164524,0
4.0972047,0.85622263,7.327528,0.48552144,0.10146294,0.86831683,0
-2.777844,-2.1385655,7.8064208,-0.32461089,-0.24990664,0.91223598,0
-1.899419,8.0962305,-2.2341456,-0.22058229,0.94022703,-0.25945458,0
-6.8848333,3.1196547,-3.5385773,-0.8249321,0.3737931,-0.4239879,0
7.1780939,4.4105201,1.2182256,0.84324658,0.51812583,0.14311105,0
-3.3762901,7.3662457,2.0331664,-0.40413702,0.88172889,0.24336706,0
7.8011465,-2.5386226,1.7929512,0.92899001,-0.30230877,0.21351141,0
-7.0300617,-2.7853937,-3.4557905,-0.84556866,-0.3350243,-0.41565895,0
-2.9019582,1.1284207,7.6885715,-0.34983969,0.13603447,0.92688012,0
-7.1439929,-3.8603218,-2.6185067,-0.83731598,-0.45245132,-0.30690363,0
0.038386133,-4.0659752,7.620018,0.0044443668,-0.47076076,0.88224971,0
8.2830839,1.5456294,-1.2920189,0.97167528,0.1813153,-0.15156466,0
-6.2784972,-2.7770641,-4.7162867,-0.75379688,-0.33341452,-0.56623775,0
7.7573352,-1.5332944,2.785991,0.92527092,-0.18288662,0.33230436,0
-0.8714987,-5.458765,-6.23768,-0.10456341,-0.65494883,-0.74840397,0
-7.6378951,-2.990562,-2.4866157,-0.89111942,-0.34891129,-0.29011548,0
-1.7698654,-0.77467543,8.1137934,-0.21219793,-0.092879675,0.97280294,0
3.9513319,-7.268086,0.15309556,0.47755146,-0.87840891,0.018502876,0
0.23780763,8.2401371,1.3429695,0.028472302,0.98657757,0.16079146,0
1.4061592,-0.27586976,-8.3543615,0.16589178,-0.032545764,-0.98560673,0
0.22949584,-2.7080762,-8.0277128,0.027078234,-0.31952614,-0.94719052,0
1.5841593,-6.735733,4.8996444,0.18684269,-0.79444194,0.57788557,0
-6.7668052,-5.049015,1.599398,-0.78747541,-0.58757055,0.18612722,0
-2.3716371,-1.7606462,-7.8360734,-0.28320485,-0.21024446,-0.93573087,0
7.6158466,1.7809409,-2.9231851,0.91210759,0.21329339,-0.35009363,0
-8.2744827,2.1220682,-0.2041187,-0.96837598,0.24834904,-0.023888338,0
-3.9957063,3.9241354,-6.1279788,-0.48131737,0.47269604,-0.738168,0
-4.0779176,-5.2647481,5.0211616,-0.4889468,-0.63124907,0.60204279,0
0.32619864,6.4469733,-5.2878933,0.03909117,0.77259588,-0.63369346,0
4.7992058,5.7048588,-3.8515124,0.5719344,0.67986357,-0.45899522,0
-6.0584064,-4.76232,-3.6534264,-0.71039045,-0.55841529,-0.42838979,0
4.8318596,-2.3988967,6.4339533,0.575477,-0.28570986,0.76628721,0
-3.207289,7.5776973,0.83536679,-0.3877849,0.91619951,0.10100201,0
2.6839542,6.7999554,-4.364347,0.31523502,0.79866642,-0.5126,0
-3.9660332,-7.6552849,-0.99563652,-0.45697179,-0.88205242,-0.1147186,0
-1.1014205,6.8373232,4.9299607,-0.12956397,0.8042984,0.57992864,0
2.5367267,-2.3772802,-7.8646207,0.29501072,-0.27646774,-0.91462249,0
1.965528,-2.2550251,-7.8500276,0.23397258,-0.26843375,-0.93445182,0
1.672624,-7.2711191,-4.1165252,0.19628732,-0.8532871,-0.48308629,0
3.6633458,1.1259917,7.7440329,0.42397448,0.13031577,0.89624959,0
4.9155197,-6.015667,3.4700766,0.57772893,-0.70703101,0.40784368,0
-0.84725988,-6.6887426,4.7594795,-0.10266252,-0.81047523,0.57670635,0
-1.0662048,-8.3014936,0.34272993,-0.12728225,-0.99102235,0.040914688,0
4.3094263,-6.3902659,-2.8735309,0.52389121,-0.77685612,-0.34933132,0
3.2576058,-0.80098379,-7.763618,0.38517892,-0.094708227,-0.91796929,0
-1.5911688,4.2928977,-7.317555,-0.1843387,0.49733704,-0.84774703,0
-2.494184,7.8633623,-0.5878424,-0.30158079,0.95078754,-0.071078144,0
-7.0323691,3.7736382,2.4701021,-0.84175658,0.45169482,0.29566488,0
-2.9967902,-7.0282817,3.6629341,-0.35367998,-0.82947505,0.43229803,0
2.2581184,6.9244504,-4.3703737,0.26585004,0.81522095,-0.5145275,0
-2.5218036,2.1693156,7.7097063,-0.3003318,0.25835255,0.91818011,0
7.5763149,2.0459514,-2.8691041,0.90672088,0.24485609,-0.34336966,0
-0.90352893,7.4058075,-3.612735,-0.10899807,0.89340663,-0.43582574,0
-7.5983648,3.9923151,0.22203653,-0.88494968,0.46496817,0.025859663,0
2.3156133,-5.3601213,6.3283873,0.26892766,-0.62250674,0.73495793,0
-4.0206747,-7.3728342,1.7585323,-0.46860838,-0.85930157,0.2049564,0
4.9297652,-5.1549058,-4.3703523,0.58932233,-0.61623645,-0.522448,0
0.98101789,-4.2110009,-7.1871099,0.11696246,-0.50205916,-0.85688758,0
-7.4106274,1.6015046,-3.5362966,-0.88581777,0.19143334,-0.42270568,0
-5.1089101,-3.8081167,5.7621222,-0.59468371,-0.4432697,0.67071843,0
4.3682799,0.14590169,-7.0304756,0.52767646,0.017624533,-0.84926254,0
-3.1965017,-6.6494331,-4.4451184,-0.37110549,-0.77198178,-0.51606661,0
7.8241091,2.9779322,-0.1722789,0.93439639,0.35564038,-0.020574454,0
4.8388405,-0.62180471,6.982811,0.56805533,-0.072996721,0.81974661,0
-0.15095741,-2.8907325,-7.8940482,-0.017953938,-0.34380579,-0.93886912,0
6.5947514,0.22398029,-5.1715465,0.78661931,0.026716281,-0.61685997,0
-5.2109418,2.7842083,-6.0660424,-0.61538762,0.32880184,-0.71637094,0
2.4139414,-3.3064871,7.2667189,0.2894215,-0.39643398,0.8712492,0
5.474031,6.4150667,-1.0798817,0.6438511,0.75453496,-0.1270148,0
7.5756192,-1.6601237,2.7233245,0.92164832,-0.20197032,0.33131912,0
0.34621677,8.2670822,-2.470371,0.040093508,0.95736647,-0.28608042,0
-1.5522125,3.9699621,-7.1694961,-0.18609515,0.47595978,-0.85955274,0
1.2914362,8.2441683,-1.7340454,0.15152417,0.96728808,-0.20345551,0
-0.32078055,-5.9463034,5.856977,-0.03840496,-0.7119121,0.70121759,0
-5.844377,4.0723233,4.6906538,-0.68524086,0.47747132,0.54996926,0
-8.2353268,-1.2180268,-1.0264795,-0.98180336,-0.14521132,-0.12237535,0
0.62061644,6.9573812,-4.5998206,0.074205063,0.83187115,-0.54998541,0
-3.7874331,-7.0267186,-2.7975407,-0.4477683,-0.83073199,-0.33073851,0
-0.53798848,1.5085828,8.3859158,-0.06301479,0.17670086,0.98224539,0
-0.44536045,8.0445118,-2.0257106,-0.053608879,0.96833307,-0.24383861,0
-8.115345,2.414319,0.56744605,-0.95633781,0.28451097,0.066869631,0
-0.17075688,6.6464438,5.0921412,-0.020389805,0.79364121,0.60804439,0
-5.5565133,5.0688024,-4.1587038,-0.64653289,0.58978486,-0.48388958,0
5.7268429,6.3069482,0.27108663,0.67189896,0.73995954,0.031805106,0
-5.8926625,-0.49176744,6.1361089,-0.69149971,-0.057708554,0.72006792,0
-1.869413,6.2945457,-5.4131665,-0.21967511,0.73967338,-0.63610232,0
-5.4718976,-4.4731741,-4.6379609,-0.64729393,-0.52915066,-0.54864401,0
4.8904738,5.5396628,4.3589025,0.57003087,0.64569998,0.50807118,0
7.1587873,3.5750375,2.8388522,0.84315485,0.42106435,0.33435717,0
3.5069406,-0.55564457,7.6221547,0.41706574,-0.066080481,0.90647089,0
-6.3329458,5.5624056,1.3807065,-0.74145442,0.65124041,0.16165163,0
-5.7846651,-5.7716646,1.224955,-0.70007968,-0.6985063,0.14824818,0
-2.9640262,-7.7130575,-0.10903423,-0.35868064,-0.93336701,-0.013194373,0
1.2076118,-6.0155239,-5.5246458,0.14626542,-0.72859758,-0.66914266,0
5.9932528,-3.1500978,-4.9735084,0.71339154,-0.37496385,-0.59200889,0
-6.9502873,3.1878452,-3.491221,-0.82684427,0.37924352,-0.41533476,0
-3.3424139,5.7857599,5.3120093,-0.39156434,0.67780274,0.62230277,0
-6.5708237,4.3335285,3.2527487,-0.77151483,0.50882232,0.38192227,0
-4.8276892,3.6631401,-6.0707502,-0.56281,0.42704734,-0.70772552,0
5.4055648,1.3410754,-6.2610559,0.6450783,0.16003853,-0.74716914,0
-3.452544,-6.9755006,-3.1344924,-0.41147602,-0.83134383,-0.37357044,0
-5.1638556,2.63729,6.111237,-0.61297542,0.31305948,0.7254343,0
6.0627871,0.49388641,5.6918387,0.72777611,0.059286054,0.68324751,0
3.8867297,-5.5898309,5.1814423,0.45428473,-0.65334487,0.60561198,0
1.187343,-0.80525631,8.4992905,0.13775045,-0.093422383,0.98605126,0
-1.3359507,3.3379157,7.7530856,-0.15632182,0.39057508,0.90720153,0
-6.0505652,6.0222669,-0.17956623,-0.70860553,0.70529139,-0.021029709,0
7.7180114,0.6674906,-3.1587555,0.92253822,0.079785526,-0.37756783,0
6.3814049,4.5151396,-3.0875201,0.75925219,0.53720605,-0.36734957,0
-5.2410522,-3.8354211,-5.107779,-0.6343199,-0.46419761,-0.61818993,0
0.73573679,5.6636295,-6.0515265,0.088419318,0.6806432,-0.72725987,0
-2.5462265,-1.4261342,-7.8508711,-0.30399957,-0.1702693,-0.93733269,0
2.6841376,6.7089367,-3.9583731,0.32577956,0.81427807,-0.48043627,0
6.5976081,5.0635881,0.93238902,0.78835267,0.60505158,0.1114118,0
2.7189858,-8.086256,-0.93425417,0.3168188,-0.94221824,-0.10886019,0
7.5682235,1.3269109,-3.2964036,0.90519029,0.15870392,-0.39426327,0
7.9163408,1.264352,-2.5455225,0.94117701,0.15031932,-0.3026382,0
8.2040892,-1.1122652,-2.1208189,0.95993936,-0.1301433,-0.24815156,0
0.0050673336,6.7625284,-5.4390211,0.0005839013,0.77923608,-0.62673032,0
1.2063241,-4.7240529,-6.8048701,0.14410289,-0.56431741,-0.81288391,0
-6.9828811,-4.126555,-2.261915,-0.82926846,-0.49005875,-0.26861903,0
-3.3696067,-4.3877745,-6.2488456,-0.40374154,-0.52573699,-0.74872786,0
0.11521938,8.0625658,1.9340047,0.013895108,0.97232103,0.23323512,0
-1.6316441,-1.5199436,-8.0962296,-0.19429648,-0.18099515,-0.96410048,0
-6.0574169,-4.9255505,3.405551,-0.71115685,-0.57827276,0.39982074,0
-0.78083992,7.1769204,-4.0766702,-0.094181642,0.86565012,-0.4917109,0
-3.3889627,7.7648101,-0.70152444,-0.39864773,0.9133839,-0.082521155,0
4.2376599,-4.8092933,-5.329432,0.50835282,-0.57692641,-0.63932264,0
5.4939704,5.460124,-3.3082614,0.6522842,0.64826572,-0.3927809,0
0.60790622,-1.6147318,-8.195549,0.072584108,-0.19279926,-0.97854996,0
-5.5857687,3.7989242,-5.2267857,-0.65398014,0.44477692,-0.61195052,0
-5.9211135,0.54703134,-6.0268335,-0.69935822,0.064611308,-0.7118451,0
7.2726645,2.7418158,3.7324865,0.84349084,0.3179985,0.43289748,0
0.05770221,-4.7055612,7.1362271,0.0067502335,-0.55047524,0.8348242,0
0.57126176,8.3692627,1.2358917,0.067371428,0.98702419,0.14575419,0
-3.5360382,1.0542406,7.6791186,-0.41504666,0.12374273,0.90134561,0
-0.66141045,7.7987552,2.6588864,-0.080015212,0.94346714,0.32166314,0
5.4770222,1.0294098,-6.2082267,0.65651,0.12339147,-0.74415672,0
2.4063072,7.021306,4.2971845,0.28057271,0.81867635,0.5010469,0
-3.500277,-0.1619259,7.7438998,-0.41180828,-0.019050615,0.91107136,0
3.9934208,3.7158811,6.6114497,0.46590838,0.43352813,0.77135116,0
8.0692406,0.32215059,-2.4254069,0.95697552,0.038205605,-0.28764233,0
-0.0088522797,-5.3997984,-6.3855195,-0.0010585584,-0.64570951,-0.76358235,0
4.3811421,3.51597,6.352303,0.51665199,0.41462541,0.74910372,0
-1.5832826,-7.1266255,3.8911619,-0.19138762,-0.86146837,0.47036469,0
-1.7311183,4.5955391,-6.9886389,-0.20267203,0.53802633,-0.81820035,0
-3.3857729,6.6568837,3.7820356,-0.40444231,0.79518783,0.45177725,0
2.9192896,-6.6557379,-4.670805,0.33790809,-0.77040243,-0.5406462,0
5.6420436,5.2816648,-3.7434049,0.65702182,0.61505532,-0.43592337,0
-4.6982355,-6.9067893,-2.2534342,-0.54303026,-0.79829878,-0.26045588,0
6.7976408,-2.9428484,-3.785738,0.81715584,-0.35376477,-0.45508996,0
-1.6026875,7.4381843,3.2236233,-0.19394565,0.90011525,0.39009959,0
-4.82302,-5.6502204,-3.7886574,-0.57836276,-0.6775583,-0.45432496,0
-4.1768808,-5.4146872,-5.2865705,-0.48323011,-0.62643397,-0.6116119,0
-0.47471365,-3.697583,-7.584095,-0.056173831,-0.4375425,-0.89744139,0
-0.30394062,-4.4150271,-7.3323045,-0.035489183,-0.51551419,-0.8561458,0
2.8458781,-7.7260118,2.2722652,0.33319104,-0.90454954,0.26603332,0
0.49719954,-6.9383354,4.3444552,0.060624171,-0.84600008,0.52972496,0
-5.5824919,-5.3507195,3.3750482,-0.66165674,-0.63418621,0.40002266,0
1.0333863,-5.7887177,5.8137751,0.12497044,-0.70004666,0.7030769,0
-1.0006529,7.7508359,2.750618,-0.12077761,0.9355166,0.33199629,0
4.9146385,1.9623706,6.5540862,0.58342206,0.23295516,0.77804273,0
4.7425251,5.5475535,-4.3594265,0.55786115,0.6525563,-0.51279742,0
8.1397915,-1.5114623,-0.46592492,0.98163998,-0.18227886,-0.056189466,0
3.9407721,-2.6115866,-6.9107494,0.47064766,-0.31190261,-0.82535303,0
-2.272923,4.0663471,-6.903326,-0.27292213,0.48826823,-0.82891959,0
3.8966405,4.8245392,5.9879827,0.45201141,0.55964792,0.69460773,0
-5.8153253,6.0935769,0.66784847,-0.68823689,0.72116762,0.079039082,0
5.4888248,6.0816689,1.4318345,0.65999281,0.73127812,0.17216808,0
1.8013996,-8.2515631,1.2557925,0.21096747,-0.96636599,0.14706974,0
7.9913049,2.319145,1.4946375,0.94524783,0.27431899,0.1767925,0
1.0108495,-5.0643554,-6.7781496,0.11862599,-0.59431612,-0.79543465,0
7.969346,1.1040231,-2.5630972,0.94380343,0.1307486,-0.30354562,0
-6.5891099,-1.4449631,-5.1720686,-0.77516478,-0.16999026,-0.60845935,0
2.467433,-7.561553,3.3869627,0.28541583,-0.8746689,0.39178073,0
-7.5065475,-3.1974921,1.8208069,-0.8979255,-0.38248074,0.21780305,0
-2.6684592,-5.5006194,-5.7593207,-0.31770241,-0.65489477,-0.68569535,0
6.0729017,5.626368,2.1627953,0.70974064,0.65755421,0.2527661,0
0.51421607,5.1580291,6.5616784,0.061493393,0.6168316,0.78468937,0
-5.3288274,5.2402382,-3.9994621,-0.62865394,0.61820287,-0.47182569,0
3.1350043,0.84443372,7.9678559,0.36436781,0.098144829,0.92606896,0
-7.6186061,-3.1850774,2.1683557,-0.89236516,-0.3730672,0.25397888,0
8.181119,-2.0194662,-0.62580675,0.96819276,-0.23899329,-0.074060969,0
0.96555388,-8.0608473,1.6874539,0.11644421,-0.97212487,0.20350415,0
1.151372,6.8540812,-5.0912132,0.13364168,0.79556471,-0.59094566,0
-3.3293383,-6.5232434,-4.4386072,-0.38876942,-0.76172417,-0.51829964,0
-7.4316444,3.0233021,-3.1651318,-0.86165661,0.35053456,-0.36697891,0
5.0199957,-6.776669,1.2760304,0.58854723,-0.79450065,0.14960255,0
-0.19613314,-0.15712136,-8.45714,-0.023181194,-0.018570349,-0.99955881,0
2.2510085,-0.84866369,7.9022069,0.27251011,-0.10274037,0.95665181,0
-1.9841026,-6.6968279,4.6608381,-0.23629048,-0.79753774,0.5550679,0
-5.6369948,2.3284199,-5.7531924,-0.67232746,0.27771193,-0.68618643,0
1.3790177,1.1539919,-8.3983402,0.16056214,0.13436189,-0.97783774,0
-0.55699271,8.42062,-1.4459152,-0.065054081,0.98348814,-0.16887598,0
-8.0748701,-2.5702438,-1.2676958,-0.94240594,-0.29996929,-0.14795087,0
6.2660832,3.110467,4.5260382,0.75204164,0.37331146,0.5432052,0
-3.3365314,0.9123522,-7.6676617,-0.39665037,0.10846139,-0.91153973,0
-3.2449305,-6.2672739,-4.8430452,-0.37910709,-0.73220921,-0.56581575,0
6.9742804,-2.7515829,3.9117811,0.82471591,-0.32537755,0.46257219,0
1.8757282,0.25966141,-8.3753023,0.21844567,0.030239942,-0.97538042,0
4.2354593,2.5225151,-6.8070321,0.50394332,0.30013382,-0.80991411,0
-2.8853612,7.9136543,-0.93627244,-0.34045035,0.93375009,-0.11047292,0
-1.3944074,-5.8157511,-5.9557228,-0.16520907,-0.68904889,-0.70563269,0
-1.367754,4.0747786,-7.4520631,-0.15898977,0.47365838,-0.86623901,0
-4.0110903,6.2104716,-4.3480625,-0.46765807,0.72408676,-0.50694609,0
-2.2121403,7.9105067,-0.1186456,-0.26928556,0.96295214,-0.014442821,0
-8.0213232,-2.1917899,-0.4237707,-0.9633866,-0.26324096,-0.050896216,0
-7.8373418,-1.8521874,-2.5665147,-0.92724276,-0.2191339,-0.30364659,0
6.1109099,-0.32984826,-6.0720391,0.70883983,-0.038261011,-0.70433098,0
7.7186122,3.8279572,-0.11189198,0.89580232,0.44426289,-0.012985896,0
0.17591883,8.4253702,-1.8190465,0.020405149,0.97727424,-0.21099456,0
-8.3282766,0.9790296,-0.91419089,-0.98731142,0.11606328,-0.1083767,0
-3.8598959,6.3191419,4.2012596,-0.45338139,0.74224317,0.49347779,0
-0.54285353,8.3092813,0.2120747,-0.065170877,0.9975493,0.025460081,0
3.6242628,3.6658602,-6.9069667,0.42051718,0.42534363,-0.80140382,0
2.9811566,-1.0945712,7.8144341,0.35342318,-0.12976401,0.92641968,0
-1.0392103,3.8553071,-7.3302011,-0.12449857,0.46187013,-0.87816632,0
7.2236538,-2.9502923,2.9738178,0.86506796,-0.35331199,0.35612929,0
-3.6951208,7.3453145,-1.5533514,-0.44158688,0.87780476,-0.18563388,0
-2.549562,-6.4172711,-4.5649328,-0.30800384,-0.77524853,-0.55147386,0
-0.88252777,-7.9466028,2.3049247,-0.10605954,-0.95499897,0.27699897,0
6.5083365,5.2260761,1.6946642,0.76414299,0.61359298,0.19897032,0
3.6349478,-2.4556487,7.480072,0.41918433,-0.28318685,0.86260635,0
-7.6229091,-3.7784927,0.98778725,-0.88999325,-0.44114825,0.11532658,0
2.1143875,-0.27404857,-8.1547508,0.25085092,-0.032513119,-0.96747959,0
6.4247789,1.3721603,-5.1164203,0.77156299,0.16478515,-0.6144399,0
-4.8986745,4.8610048,-4.672924,-0.58776414,0.58324438,-0.56067765,0
-7.8758745,-3.3885813,-0.09371718,-0.91853154,-0.39519662,-0.010929857,0
-4.5432444,5.8273129,-4.1054287,-0.53747129,0.68937814,-0.48567718,0
-0.031310786,-2.7915113,8.1438704,-0.0036369523,-0.32425225,0.94596374,0
-3.7840092,-2.1115794,-7.2518535,-0.44792351,-0.24995343,-0.85842174,0
-1.407138,1.7180986,-8.2744131,-0.16424613,0.20054255,-0.96581876,0
3.342217,7.7771711,0.6550957,0.39365461,0.91601455,0.077158801,0
-5.2891345,-1.0875145,-6.3761411,-0.63301945,-0.13015699,-0.76311564,0
7.1403208,-2.1993165,4.2524681,0.83058065,-0.2558302,0.49465814,0
6.3124375,-1.6941161,-5.3931012,0.74495065,-0.19992799,-0.63645685,0
-1.1722255,5.5350623,6.4211435,-0.13697165,0.64675838,0.7502948,0
6.5831766,3.8703685,-3.4739881,0.78467649,0.4613255,-0.41407925,0
0.30746606,-5.4164295,6.563756,0.036106288,-0.63606101,0.77079356,0
7.9201484,-2.4637513,0.88363874,0.949494,-0.2953628,0.10593358,0
6.6862721,-4.6493044,2.5407302,0.78376395,-0.54499084,0.29782405,0
5.9761009,-6.0659714,-0.43432635,0.70089895,-0.71143925,-0.050939381,0
2.0066497,-8.0160894,1.8514717,0.23695987,-0.94659847,0.21863531,0
3.9771678,3.233068,-7.0005326,0.45839486,0.37263244,-0.80685765,0
-5.5124536,-6.3590903,-0.48140243,-0.65394574,-0.75438279,-0.057109065,0
-5.7986794,4.959794,3.4497035,-0.69245821,0.59228146,0.41195166,0
7.9300127,0.10424617,3.0603776,0.93286598,0.012263247,0.36001483,0
-0.61420709,0.64612675,-8.3118324,-0.073474117,0.077292487,-0.99429744,0
-7.776051,-3.3589947,0.85273266,-0.91339594,-0.39455658,0.10016428,0
-5.9309883,-4.137435,-4.2515402,-0.70701969,-0.49321425,-0.50681645,0
8.3243427,1.6821896,1.0873569,0.97224981,0.19647299,0.12699892,0
-4.4087853,-7.4219728,-1.0530726,-0.50695109,-0.85342717,-0.12108921,0
3.8780344,2.7392042,-7.0911431,0.4544293,0.32098082,-0.83094239,0
5.479362,-5.3631277,3.7274055,0.64272058,-0.62908649,0.43721884,0
6.4799075,-4.3881345,3.1995013,0.76642781,-0.51901793,0.37842929,0
5.2602081,-6.4590664,-1.4929014,0.6215722,-0.76323521,-0.17640862,0
-3.7372689,-6.6436644,3.5271931,-0.44495538,-0.79098779,0.41994396,0
3.3329983,1.8674394,7.3396769,0.40280443,0.22568654,0.88702548,0
5.4773984,6.3181338,-0.8967706,0.65131062,0.75128138,-0.10663387,0
-5.7729521,-4.6152477,-4.0083089,-0.68660438,-0.54891318,-0.47672707,0
-0.12169727,5.9750652,-5.9368601,-0.014446623,0.709297,-0.70476168,0
2.0260248,-4.3580732,-7.1046162,0.23620282,-0.50808322,-0.82828718,0
-6.2441387,2.2586086,5.5588684,-0.72105139,0.26081625,0.64191878,0
-7.0784245,-2.4618416,-4.1344476,-0.82700449,-0.28762814,-0.48304629,0
3.2114766,6.9003091,-3.8833342,0.37585399,0.80757511,-0.45448458,0
2.2206147,3.5604999,7.1241298,0.26857609,0.43063083,0.86164021,0
6.7474375,-1.0975305,-4.8119631,0.80712205,-0.13128555,-0.57560241,0
1.2190752,-7.7923799,2.6621644,0.14644727,-0.93609715,0.31980532,0
-3.0459449,-1.8971072,7.564249,-0.36381415,-0.22659452,0.90349001,0
-6.8446183,2.9233906,4.1776752,-0.8019374,0.3425138,0.48946983,0
0.019319011,-0.27311844,8.5899792,0.0022478758,-0.031778868,0.99949247,0
0.4774875,7.5812087,-3.3392189,0.057544027,0.9136433,-0.40242329,0
1.7369297,-8.2833691,0.84852642,0.20420182,-0.97383279,0.099756852,0
-8.4288111,0.62661481,-0.42597625,-0.99598396,0.074043453,-0.050335154,0
-4.5553637,3.6649752,5.9820824,-0.5445919,0.43814632,0.71515554,0
2.2963619,8.1729937,1.592435,0.26585859,0.94621873,0.18436229,0
4.3446774,6.6530061,-3.4237006,0.50214756,0.76893872,-0.3957032,0
-2.3551571,4.5141735,-6.7567964,-0.2783733,0.53356332,-0.79863536,0
2.5417681,5.2998691,-6.3540001,0.29364985,0.61229259,-0.73407608,0
-0.14278136,-4.3159418,7.4230628,-0.016626149,-0.50256902,0.86437714,0
7.9595919,-0.53108364,-3.0297947,0.93277085,-0.062236778,-0.35505643,0
1.8078903,7.695024,-3.0710478,0.21319048,0.9074145,-0.36214483,0
3.6812501,-7.3211675,-1.9967424,0.43645978,-0.86801904,-0.23673962,0
-6.6142898,5.2403889,1.2437024,-0.77543414,0.61436325,0.14580694,0
-0.48541537,5.2602305,-6.6468105,-0.057172716,0.61955529,-0.78286809,0
3.4383006,-3.7907827,-6.8483706,0.40216893,-0.44339785,-0.80103582,0
5.5967436,6.197505,1.5629567,0.6587804,0.72949475,0.18397221,0
3.3097062,-4.2539735,6.7860222,0.38191605,-0.49087766,0.78305769,0
-3.1847949,7.7736473,1.7048478,-0.37153506,0.90686613,0.19888589,0
-2.6910334,5.6042061,-5.5281835,-0.3234714,0.67364472,-0.66450655,0
7.6820478,-2.2600346,-2.6397545,0.91111451,-0.26804706,-0.31308302,0
-3.2558794,5.4083896,5.6797791,-0.38341278,0.63689268,0.66885149,0
3.1888208,5.0480585,-6.0770073,0.37429774,0.5925315,-0.71330756,0
-7.4001842,-1.6047789,-3.9859107,-0.86479121,-0.18753569,-0.46579656,0
-2.8058846,7.5236721,-3.2899611,-0.32334426,0.86701226,-0.37912825,0
-5.3166461,6.066041,1.4391267,-0.64887989,0.74034119,0.17564088,0
-2.3540883,-5.1365342,6.0301147,-0.2848725,-0.62158138,0.72971517,0
-0.70712149,-5.9103518,5.9143081,-0.084269956,-0.70435578,0.70482725,0
6.0610037,-5.8645043,-0.051609684,0.71864694,-0.6953482,-0.0061193067,0
-6.1888671,5.735177,-1.4346644,-0.72310215,0.67009336,-0.16762501,0
-4.9320679,2.8125718,-6.164403,-0.58850485,0.33560205,-0.73554969,0
4.311986,-5.3966327,-4.8730669,0.51007587,-0.63838148,-0.57644755,0
-7.2827196,-3.9933653,-1.3667977,-0.86519527,-0.47441629,-0.1623771,0
0.48646933,-8.4142799,-0.97994155,0.057332136,-0.99165273,-0.11548959,0
2.0380056,7.2416267,-3.8031023,0.24176766,0.85907084,-0.45116028,0
3.5870583,1.6490356,7.5156689,0.42252889,0.19424418,0.88529015,0
-3.7444525,-7.3233523,-2.1331811,-0.44066754,-0.86185199,-0.25104436,0
7.8114915,0.73367274,-3.0900421,0.92636198,0.087005988,-0.36644697,0
-6.7017808,4.0591755,3.0673435,-0.79648119,0.48241758,0.36454213,0
0.79123074,-6.3383527,-5.6725688,0.092620008,-0.74195582,-0.66402042,0
-5.7140722,0.83456868,6.1467528,-0.67751706,0.098954737,0.72881997,0
2.0023835,6.3779101,5.1028185,0.23809902,0.75838327,0.60676497,0
-6.169735,-4.4931288,3.6042149,-0.73095685,-0.53232163,0.42700791,0
-4.9542761,2.3689668,6.2889533,-0.59338909,0.28373852,0.7532475,0
4.4257693,4.6376519,-5.3817081,0.52876151,0.55407578,-0.64297068,0
8.1683464,-2.332931,1.2861149,0.95071733,-0.27153084,0.14969146,0
-4.2011313,5.4829907,4.8592672,-0.49744475,0.64922631,0.57537287,0
2.9778397,0.75626761,7.7112226,0.35874349,0.091108359,0.92897916,0
4.0378647,1.0796789,7.258276,0.48209187,0.12890586,0.86658573,0
-5.9237766,5.9241877,-1.8610674,-0.69025606,0.69030392,-0.21685711,0
6.4867482,5.5708861,-0.097700842,0.7585817,0.65147775,-0.011425458,0
-0.95685059,8.1127977,1.393725,-0.11546309,0.97897065,0.16818069,0
-2.3024275,4.9943166,6.5304346,-0.26968026,0.58497763,0.7649011,0
2.206754,6.9950457,-4.2930889,0.2596522,0.82305461,-0.5051356,0
-0.19193853,2.2012401,8.2019987,-0.022595853,0.25913972,0.96557552,0
7.5586138,-2.048269,2.7265275,0.91152352,-0.24700898,0.32880288,0
-4.3347754,1.0094018,6.8829961,-0.52884829,0.12314834,0.83973455,0
6.0351796,-5.1558108,-2.1320641,0.73429877,-0.62730616,-0.2594077,0
-6.1168709,-3.1308143,-4.6327515,-0.73809558,-0.37778142,-0.55901349,0
-7.2844706,4.4639139,-0.13428132,-0.85253572,0.52243274,-0.015715573,0
-6.8140459,-4.2661934,-2.5244379,-0.80865335,-0.50628829,-0.29958636,0
-3.1159928,0.030271793,7.5811377,-0.38015753,0.0036932211,0.92491442,0
4.4434729,-3.6174743,6.1639528,0.52799475,-0.42984563,0.7324304,0
-4.9438534,-1.1289443,6.4640908,-0.60174364,-0.13741003,0.78678012,0
6.1666961,4.3106985,-3.977572,0.72458494,0.50650579,-0.46736351,0
-0.33945554,4.8504443,6.7266564,-0.040898275,0.58439112,0.8104409,0
5.5036917,-6.0099373,-1.387262,0.66578531,-0.72702616,-0.16781802,0
5.6762829,5.7210693,-2.399153,0.67504627,0.68037248,-0.28531688,0
0.1053422,6.9301739,-4.491116,0.012755076,0.8391214,-0.54379469,0
4.4874172,-7.0460181,-1.6645348,0.52682441,-0.82720506,-0.19541699,0
-0.25588489,-8.1454163,-2.0353761,-0.030463342,-0.96971965,-0.24231347,0
-3.7528112,-0.90701437,7.7460818,-0.4336032,-0.10479726,0.89498931,0
-5.1482048,3.1418297,-5.7357707,-0.61854339,0.37748262,-0.68913788,0
4.6317425,2.1491466,-6.6271667,0.55363393,0.2568883,-0.7921477,0
-1.6187028,-0.62940741,-8.4603004,-0.18742087,-0.072875693,-0.97957259,0
-1.5977796,-1.6359892,-8.1603003,-0.18853614,-0.19304481,-0.96290594,0
6.9477706,-0.81310749,-4.6070457,0.82948464,-0.097075768,-0.55002874,0
7.5047641,1.9713827,3.6880965,0.87353384,0.22946352,0.42928427,0
3.5140507,5.1384463,-5.5422301,0.42161307,0.61650676,-0.66495246,0
-2.9130456,-7.9251475,0.93983835,-0.3428843,-0.93284106,0.11062504,0
-4.9025908,-6.9351149,0.53331947,-0.57611537,-0.81496221,0.062671669,0
5.6106577,-1.0427656,-6.2956958,0.66029394,-0.12271855,-0.74091309,0
-2.4094944,3.6484377,-7.1772828,-0.28670207,0.43412206,-0.85401398,0
3.3045027,3.9664803,6.5869603,0.39484873,0.47394717,0.7870633,0
-0.68333918,6.52702,4.9569497,-0.083087094,0.79361928,0.60271466,0
-2.7856822,7.2094927,-2.7974932,-0.33890489,0.87710375,-0.34034181,0
-5.1277771,4.896965,4.3446507,-0.61664033,0.58888406,0.52246559,0
-3.1106188,0.089115515,-8.0097713,-0.36199284,0.010370662,-0.93212318,0
8.3246889,1.0022545,-1.9103512,0.96802378,0.11654563,-0.22214226,0
-6.2448001,-5.0076609,2.2348127,-0.75141227,-0.60255218,0.26890624,0
-3.4732728,3.7966976,-6.8006144,-0.40727839,0.44520342,-0.79744476,0
2.7112422,-7.3292494,-3.1398697,0.32192963,-0.87026626,-0.37282434,0
-1.479913,-8.2879572,1.673437,-0.17240869,-0.96554041,0.19495408,0
-2.5893927,4.1663861,6.920311,-0.30525947,0.4911688,0.81582469,0
4.8685184,4.4458899,5.3179083,0.57476485,0.52487046,0.6278187,0
-0.030429829,-8.4847202,0.74815667,-0.0035725425,-0.99612862,0.087835573,0
-5.4232769,-0.072735995,-6.3932896,-0.64686072,-0.0086755771,-0.76255882,0
-7.4994864,0.17528529,-3.9764955,-0.8832984,0.020645311,-0.46835637,0
3.5487835,-7.6068654,0.54273236,0.42189816,-0.90434444,0.064522892,0
0.16312642,-3.4553475,-7.6692405,0.019389158,-0.41070157,-0.91156363,0
1.4401847,-8.1243734,-2.3538513,0.16784936,-0.94687223,-0.27433458,0
-4.589138,5.3294144,-4.7912221,-0.53926951,0.62625939,-0.56301641,0
-6.8276525,-3.6998229,2.9903665,-0.82048064,-0.44460863,0.35935307,0
-1.2015944,7.5931578,2.9888916,-0.14567901,0.92057997,0.36236751,0
-6.1755328,-4.3520284,4.1341419,-0.71707523,-0.50533807,0.48003805,0
0.85044515,8.1787863,-1.545216,0.1016451,0.97752756,-0.18468402,0
6.0486512,-1.9968332,5.6367655,0.71113056,-0.23476459,0.66270578,0
-1.4594047,6.5276113,5.0671492,-0.17391674,0.77789313,0.60385036,0
-4.2338839,3.5242167,6.2881503,-0.5064559,0.42156574,0.75218666,0
-1.2329904,-3.4287601,-7.7797832,-0.14352466,-0.39912042,-0.90559572,0
4.7334185,-6.2091775,-3.2177074,0.56052017,-0.73527604,-0.38103327,0
-7.9890828,-1.5906715,-2.1806338,-0.94739044,-0.18863079,-0.25859183,0
-0.46755829,-7.6915627,3.3075223,-0.055757221,-0.91723359,0.39442837,0
8.0222597,0.9381004,-2.0898852,0.96156508,0.1124427,-0.25049809,0
-2.3742361,-7.2866945,3.5386314,-0.28126568,-0.86322379,0.41920668,0
0.87333244,-5.7980137,6.2567396,0.10184923,-0.67617232,0.72966957,0
3.8972697,-4.4117007,-5.9672694,0.46494979,-0.52632213,-0.71190363,0
6.2229552,-5.6234879,-1.475018,0.73072577,-0.66033375,-0.17320286,0
1.2012187,7.1044927,3.9530156,0.14616106,0.86445558,0.48099229,0
-6.7395215,-1.2201308,4.7284498,-0.80977136,-0.14660195,0.56813574,0
4.3651862,1.2838124,7.0126424,0.5221867,0.15357643,0.83888942,0
-0.9553135,-8.4185829,-1.3811076,-0.11128431,-0.98067933,-0.16088499,0
-4.9687934,-5.2308545,-4.5337024,-0.58313227,-0.61388749,-0.53207046,0
-4.7460442,-3.0434117,6.3042512,-0.56115776,-0.35984373,0.74539542,0
3.1544147,-1.8211735,7.5856075,0.37486616,-0.21642567,0.90146279,0
3.0970411,-7.5975261,-0.59466255,0.3764925,-0.92359495,-0.072290286,0
-3.9621329,7.2011871,2.1384659,-0.46652529,0.84791094,0.2517958,0
0.87085998,-7.596148,3.8527539,0.10171518,-0.88721907,0.44999605,0
2.5199428,8.2828655,-0.13751604,0.29102665,0.95658308,-0.015881643,0
-6.7779727,-4.0336704,2.8365231,-0.8086381,-0.48123232,0.33840805,0
-7.1378169,4.0914416,-1.3163016,-0.85668278,0.49105597,-0.15798289,0
-4.8052597,5.2844958,-4.0384026,-0.58563679,0.64404327,-0.49217674,0
-2.7774644,-3.9523003,-6.9968619,-0.32666773,-0.46484447,-0.82292646,0
-5.9972486,4.703423,3.8718698,-0.70153791,0.55019057,0.45291826,0
0.44723421,0.8375892,8.2519417,0.053842191,0.10083673,0.99344504,0
-1.1207278,6.0567551,-5.6046953,-0.13457605,0.72729003,-0.67300707,0
-2.5104423,4.2029295,6.8615808,-0.29783353,0.49862662,0.8140434,0
-0.22537757,8.1347036,1.7589595,-0.027069937,0.9770534,0.21126737,0
-0.39581466,-8.3038893,-1.3870196,-0.046962962,-0.98524708,-0.16456831,0
4.2787514,6.6169672,2.7695417,0.51227903,0.79222494,0.33158696,0
-0.92314452,6.1056428,5.972877,-0.10745408,0.71069723,0.69524324,0
1.1548264,-5.0682116,-6.8509288,0.13428612,-0.58934444,-0.79664326,0
5.2144523,-6.3255343,2.3671398,0.61111701,-0.74133223,0.27742118,0
4.1176338,5.1261907,5.5068154,0.48010197,0.59769624,0.64207578,0
6.8009005,4.7918897,-0.56522882,0.81558269,0.57465661,-0.067783795,0
-1.0012376,7.5218525,3.844682,-0.11770121,0.88423681,0.45196438,0
-7.6531596,-2.7877915,1.9947172,-0.9126339,-0.33244216,0.23786862,0
3.2489929,-3.7612174,-6.9797549,0.37917745,-0.43895718,-0.81458026,0
4.8265629,6.4284496,-2.2327228,0.57851619,0.77051973,-0.26761615,0
2.7686422,-3.074183,-7.3400402,0.32859549,-0.36485854,-0.87115055,0
-0.46276009,6.7242398,5.2542295,-0.054148447,0.78681624,0.61480749,0
4.3797479,-1.2316121,7.1479902,0.51690245,-0.14535616,0.84361333,0
2.4921839,2.5431814,7.7190919,0.29317147,0.29917061,0.90804595,0
-2.796298,3.8306189,-6.8192382,-0.33664706,0.46116924,-0.82096994,0
3.2151103,-3.3452752,-7.1835775,0.37596151,-0.39118245,-0.84001744,0
7.0222158,-2.616586,-3.8535483,0.83333755,-0.31051442,-0.45730671,0
-4.1645231,-6.5076733,3.0279434,-0.50185359,-0.78421921,0.36488792,0
7.3838677,1.6427661,-3.4944389,0.88614815,0.19715062,-0.41937241,0
-2.8826632,-5.1363163,6.2066317,-0.33689731,-0.60028207,0.72537005,0
4.0787716,7.2143378,-1.9182606,0.47948143,0.84808403,-0.22550181,0
1.515896,4.169806,7.2645993,0.17808254,0.48985526,0.85342157,0
4.0575519,-6.4728298,3.2514374,0.48870882,-0.77961516,0.39161697,0
-1.307457,-0.3474445,-8.2629757,-0.15615179,-0.041495882,-0.98686105,0
4.51156,7.1625705,1.5216756,0.52455717,0.832789,0.17692457,0
-4.12433,5.5403714,4.578618,-0.49770418,0.66858518,0.55252546,0
-4.2430611,4.1505699,5.8848929,-0.50764066,0.496575,0.70406979,0
3.812479,5.4039946,-5.1543231,0.45468825,0.64449739,-0.61472076,0
0.071123689,-0.31886539,-8.2977133,0.0085648447,-0.038398355,-0.99922585,0
1.5528898,-4.9643455,6.6792927,0.18343176,-0.5864026,0.78897703,0
8.301466,-1.8689692,-1.4825284,0.96110326,-0.21638015,-0.17163992,0
-8.3424015,-0.46069491,1.1773885,-0.98871005,-0.054599829,0.13953966,0
4.1727462,-7.5022416,0.95690697,0.48308128,-0.86853892,0.11078168,0
-5.4698858,-5.7454457,3.1357629,-0.64124435,-0.67354876,0.36761102,0
-5.9113464,-2.1169529,5.510119,-0.70761889,-0.25341028,0.65958989,0
-1.7932315,3.7470915,7.6253366,-0.20651165,0.43152153,0.87814695,0
-2.4684167,5.9124055,-5.3072772,-0.29669669,0.71065438,-0.63791966,0
-3.8896501,-2.9182234,-6.8494344,-0.46305308,-0.34740716,-0.81540799,0
0.41449407,8.4159517,0.73031104,0.049007654,0.99505895,0.086348228,0
6.9889646,-4.620091,-0.88948643,0.82954234,-0.54837322,-0.10557596,0
2.5718486,6.5659871,-4.7317929,0.30285046,0.77318394,-0.55719674,0
-1.8873832,7.6983624,-2.8823311,-0.2237788,0.91276121,-0.34174544,0
7.8797956,-2.3736877,0.37132952,0.95652634,-0.28814134,0.045075595,0
-3.3503485,0.65964216,-7.7247958,-0.3966856,0.078102492,-0.91462588,0
-8.4650154,0.49438101,-0.91820347,-0.99249697,0.057964649,-0.10765652,0
4.2912784,-6.8186789,3.0806592,0.49750844,-0.7905221,0.35715556,0
-1.6562032,-7.0312967,4.5502443,-0.1939943,-0.8235895,0.53297901,0
6.9236012,5.0131397,0.35888982,0.80925709,0.58595502,0.041948419,0
6.0447178,-5.9165568,1.7201539,0.70030719,-0.6854592,0.19928741,0
4.7340379,-0.17185998,7.2546482,0.54638261,-0.019835351,0.83730078,0
8.2751617,-1.4301108,0.72326517,0.98175871,-0.16966723,0.085807614,0
7.6600871,-2.6061561,2.2285364,0.91272169,-0.31053108,0.26553661,0
