-6.1320801,1.6093647,5.0483813,-0.75665134,0.19858319,0.6229313,0
-0.31215009,-1.4668585,-7.990159,-0.03839634,-0.18043242,-0.98283768,0
4.9893756,-2.6133072,5.7632012,0.61915249,-0.32429624,0.71517974,0
5.1083155,-5.6948752,1.9046273,0.64795196,-0.72235274,0.24158786,0
6.4455595,-4.4649887,0.060927387,0.82200748,-0.56942368,0.0077701197,0
-0.098948911,7.2274551,3.3676412,-0.012408726,0.90636176,0.42232031,0
5.9323463,5.6702733,0.38416132,0.72210336,0.69020301,0.046761293,0
-5.2770529,-5.8709693,1.6849068,-0.65376145,-0.72734034,0.20873907,0
2.5553524,-4.4363003,-6.3876052,0.31215781,-0.54193145,-0.78029978,0
3.9450181,-4.2332425,5.4466105,0.49643856,-0.53270853,0.68539798,0
-3.5449147,-3.4998562,6.4491935,-0.43500796,-0.42947868,0.79140139,0
7.7987618,-0.14375976,1.0404711,0.99105191,-0.018268717,0.1322211,0
1.7814252,-7.8395619,-1.3022144,0.21873549,-0.96259469,-0.15989473,0
-2.7397463,-0.50561678,7.4959316,-0.34259987,-0.063226379,0.93735147,0
-3.1359522,-4.0717869,6.1151028,-0.39258295,-0.50973803,0.76553625,0
-2.8862343,-4.3396349,6.2923236,-0.35325316,-0.53113836,0.7701326,0
-2.9447644,6.2371178,4.0050282,-0.369212,0.78200442,0.50214696,0
4.5710196,4.3342285,5.2470407,0.55756086,0.5286777,0.64002013,0
-7.7038198,1.4017464,0.71441996,-0.97977674,0.178275,0.090860389,0
7.1459274,0.40586567,3.345278,0.90447611,0.051371329,0.42341936,0
-0.47375482,3.0069366,-7.5937815,-0.057907917,0.36754334,-0.92820179,0
0.85268408,5.2030139,-5.9134254,0.10762729,0.65673357,-0.74640298,0
-5.7476878,0.85273737,5.5787778,-0.71353978,0.10586206,0.69257069,0
-5.4229469,-1.9599663,5.5975838,-0.67480302,-0.2438879,0.69653392,0
3.6934147,6.8473697,-1.9587169,0.46036828,0.85349524,-0.24414565,0
-3.3225524,6.0807948,-4.1066499,-0.4124929,0.75492704,-0.5098381,0
-5.9967766,3.7300839,-3.8673799,-0.7447747,0.46326089,-0.48031247,0
-7.1631241,-3.3034713,-1.2640964,-0.89664382,-0.41351193,-0.15823323,0
-3.4058452,-7.0887675,-0.00040801021,-0.43306553,-0.90136242,-5.1879975e-05,0
0.71215641,5.5118637,5.7571931,0.088996552,0.68880492,0.71946317,0
1.6829326,-7.3229303,-2.7698874,0.21015351,-0.91443914,-0.34588525,0
1.9401332,7.7349668,-1.7125345,0.23786682,0.94833279,-0.20996246,0
7.9382997,0.52059257,0.45976299,0.9961943,0.065330282,0.057696644,0
-2.0057669,-2.898813,-7.1671739,-0.25112417,-0.3629345,-0.89733785,0
0.6163469,5.4044356,-5.6285758,0.078741916,0.69044822,-0.71908343,0
-1.9543879,-7.7361798,-0.80428672,-0.24369951,-0.96465153,-0.10028934,0
4.5845928,3.7095501,5.3674378,0.57492471,0.46519116,0.67309636,0
1.5198724,5.6055884,-5.6596241,0.18741879,0.69123733,-0.69790059,0
1.2079537,6.9056363,-4.2749438,0.14711234,0.84101266,-0.52063006,0
-7.0266886,0.44296452,3.9781475,-0.86890918,0.054776292,0.49193141,0
-7.0110178,-3.9020133,0.0096248398,-0.87378585,-0.48630941,0.0011995474,0
-0.12257726,7.8607798,-0.038725972,-0.01559144,0.99986631,-0.004925821,0
-4.1908522,5.7491155,3.8391151,-0.51840001,0.71115404,0.47489083,0
-7.4191103,3.1818328,0.22777207,-0.91868013,0.39399421,0.028204147,0
-7.7155695,2.1533754,-1.6812266,-0.94265217,0.26308933,-0.20540439,0
0.4389751,4.0493698,-6.9070187,0.054745007,0.50500083,-0.86138093,0
-0.39825705,6.1807094,-5.2025323,-0.049236581,0.76412207,-0.64318991,0
6.4702988,4.8103948,-1.3918328,0.79081595,0.58793837,-0.17011327,0
-7.2056684,-2.934057,-1.28883,-0.91371131,-0.37205169,-0.16342947,0
-7.7227912,0.27050078,-1.6256895,-0.97797966,0.034255005,-0.20587003,0
-6.9573169,3.2286804,2.8521111,-0.85020524,0.39455456,0.34853664,0
3.7504573,-4.6953921,-5.2994113,0.46808952,-0.58602554,-0.66141236,0
1.603675,-7.4689903,2.1961558,0.20175493,-0.93965775,0.27629367,0
-2.7071772,7.3330655,-0.7470721,-0.34475628,0.93385851,-0.095138878,0
6.2637424,-0.54636699,-4.8601742,0.78819287,-0.068751641,-0.61157602,0
-4.0668025,-6.6984992,2.3880947,-0.49642509,-0.81767017,0.29150912,0
-6.1358895,-5.3730855,-0.014202411,-0.75232136,-0.65879399,-0.0017413576,0
3.2098262,-3.3875444,-6.3118167,0.40891176,-0.43155193,-0.80408591,0
-7.017715,-0.4243229,-3.8545518,-0.87526125,-0.052922267,-0.48074621,0
-3.1051254,4.1638117,-6.2089987,-0.38358045,0.51436144,-0.76700616,0
-4.3290696,3.5036926,5.8268557,-0.53708327,0.43468338,0.72290516,0
2.6836476,-3.5378463,-6.8191333,0.32978773,-0.43475839,-0.83798873,0
-1.1994891,6.3872881,4.5045004,-0.15169224,0.80776227,0.56965733,0
-4.9619069,5.752275,2.1295784,-0.62892497,0.72910464,0.26992545,0
-4.7276998,4.456759,-4.8942747,-0.58120137,0.54789317,-0.60167933,0
7.0058608,3.8883383,0.41802621,0.87317133,0.48462078,0.052100454,0
-2.5715163,6.161087,-4.7922292,-0.31290892,0.74969739,-0.58313113,0
0.095024422,2.959064,7.4024014,0.011919036,0.3711592,0.92849272,0
4.3782401,-1.2158394,-6.6345339,0.54446167,-0.15119725,-0.82504594,0
-4.1430502,5.405899,4.2129459,-0.51732576,0.67501253,0.52605337,0
1.0291498,-2.6255798,7.4618731,0.1290148,-0.32914418,0.93542469,0
-7.1317844,-1.5682409,-3.6036072,-0.87582266,-0.19258867,-0.44254294,0
-5.8866949,4.4325709,3.2546363,-0.73075342,0.55024362,0.404019,0
-2.3698037,5.3239884,5.6230531,-0.29263628,0.65743512,0.69436526,0
-2.6746819,3.1413782,6.8497243,-0.3344897,0.39285371,0.85661113,0
2.4924407,-0.72738135,-7.4920044,0.3143388,-0.091735058,-0.94486815,0
-5.4800749,-5.8344688,0.033409826,-0.68461704,-0.7288909,0.0041738367,0
-7.5612049,-1.3762721,-2.102236,-0.94897395,-0.17272992,-0.26384249,0
-2.1605866,5.7659764,5.0847673,-0.27056104,0.72204858,0.63674366,0
0.54009897,-6.2355022,-4.9239197,0.067821354,-0.783005,-0.61830688,0
-2.4659622,7.0135646,3.0569913,-0.30677187,0.87250501,0.38029736,0
-0.55274284,7.3680582,-3.3263319,-0.068214752,0.90930223,-0.4105072,0
-1.1443076,-1.6138539,-7.7073374,-0.14380784,-0.20281683,-0.96859926,0
2.3221798,6.7180123,3.5795848,0.29178631,0.84413105,0.44978166,0
0.43375719,3.5660965,7.0252771,0.054972205,0.45194915,0.89034832,0
-8.1014566,-0.2318522,-0.95406258,-0.99273616,-0.028410701,-0.1169089,0
-4.725451,-0.68224037,-6.7763658,-0.57005817,-0.082302555,-0.81747174,0
-3.0000317,5.1667299,5.3858857,-0.37296104,0.6423229,0.66956812,0
3.8855348,-5.7507539,3.9997394,0.48506144,-0.71791124,0.49931851,0
-3.5384593,-6.56987,-3.3704839,-0.43214959,-0.80237371,-0.41163486,0
1.1740701,-4.4146333,6.5097752,0.14763261,-0.55511492,0.8185671,0
-7.6298509,2.4440174,1.0314236,-0.94453967,0.30255786,0.12768538,0
-7.6765561,1.8279697,1.1126426,-0.96327198,0.22937785,0.13961697,0
6.7633338,-0.38091671,-4.6113558,0.82533473,-0.046483554,-0.56272721,0
-5.6110058,-3.0567822,4.7054057,-0.70709908,-0.38521576,0.59297532,0
4.3606334,-6.5277023,2.3290155,0.53253615,-0.79718637,0.2844277,0
-2.494632,-5.4889388,-5.3834996,-0.30862978,-0.67907816,-0.66603345,0
-0.53671014,8.1517868,0.51983941,-0.065564722,0.99582553,0.063503787,0
-3.2017584,6.2214179,-4.4040518,-0.38726643,0.75250721,-0.53268898,0
4.0351648,3.5266323,-5.9495454,0.50393605,0.44042739,-0.74301559,0
-7.8650284,1.6524491,-1.092582,-0.96971351,0.20373763,-0.13470918,0
-8.1549664,0.726071,0.19477399,-0.99577808,0.088658318,0.023783257,0
-0.97909963,-7.16008,3.3842981,-0.12269568,-0.897264,0.42410263,0
-4.0976295,-1.9528207,6.6907496,-0.50680721,-0.24153076,0.82753211,0
1.0222934,3.2582865,-7.2206969,0.12798683,0.40792376,-0.90400088,0
2.5885334,7.0438528,-2.8605275,0.32231262,0.87706912,-0.35618013,0
-2.9200268,7.3793116,1.3587426,-0.36266774,0.9165116,0.16875602,0
2.4198227,7.4531569,-1.1954679,0.30527088,0.94024736,-0.15081336,0
-5.024004,-6.2832007,1.5381386,-0.61339039,-0.76712817,0.18779433,0
-4.626914,-4.5711818,-4.8327184,-0.57100987,-0.56413192,-0.59640831,0
-4.9180317,-6.4477305,-0.38685629,-0.60578138,-0.79420286,-0.047651242,0
7.2994719,-2.3694675,-1.680775,0.92912167,-0.3016004,-0.21393938,0
2.7419505,7.6200156,0.78307348,0.33701038,0.9365685,0.096246779,0
6.7033157,2.1697166,-3.9581311,0.82947528,0.26848298,-0.48978326,0
6.4465971,2.0366757,-4.3129635,0.80389059,0.25397342,-0.53782648,0
-7.2535725,-2.5466504,2.8720312,-0.88387048,-0.31031731,0.34996599,0
-3.4249399,-6.4509163,-3.8297963,-0.4152987,-0.78222024,-0.46439049,0
-4.7495918,5.0080633,-3.9257929,-0.59814942,0.63070059,-0.49440268,0
5.1457458,1.685665,6.0934954,0.63124514,0.20678593,0.74750865,0
-6.7559638,-3.3781466,3.2247341,-0.82259113,-0.41131562,0.39263645,0
-0.3783083,7.8139486,-0.92565024,-0.048022844,0.9919107,-0.11750299,0
1.7879764,0.36829686,-7.6429553,0.22753745,0.046869371,-0.97264069,0
-0.17237483,-3.2382932,-7.4751983,-0.021154691,-0.39741933,-0.91739327,0
-1.855991,5.6596889,4.9682131,-0.23928872,0.72969091,0.64054048,0
-2.9841335,-5.213192,-5.533124,-0.36539471,-0.63833362,-0.67750794,0
2.8335407,-7.2070136,2.6389177,0.34634301,-0.88091153,0.32255429,0
-5.6214628,-4.278584,3.8496356,-0.69872653,-0.53181177,0.47849512,0
2.8981845,-7.6548495,0.59588122,0.35314503,-0.93274677,0.072608389,0
6.2797871,4.9806442,2.1056836,0.75777626,0.60100985,0.25409093,0
4.3437138,0.21309313,-6.6477585,0.54679692,0.026824664,-0.83683544,0
-6.8289604,-4.1616406,-0.72137779,-0.85047418,-0.51828796,-0.089839913,0
0.1902243,6.9578967,-3.6927559,0.024141977,0.88304895,-0.46865949,0
-3.2318435,6.7485366,-3.0750904,-0.39949954,0.83421034,-0.38012275,0
-5.6828971,-5.5810671,-2.0742955,-0.69044155,-0.67806971,-0.25201577,0
7.6846118,1.2297367,-2.3554487,0.94509697,0.15123996,-0.28968638,0
-6.26016,-3.3517234,-3.8751662,-0.77385908,-0.41432834,-0.47903448,0
-4.8986664,2.4807224,5.8868208,-0.60851556,0.30815697,0.73126477,0
-7.835897,2.0223906,0.76352108,-0.96398973,0.24879906,0.093930081,0
6.1353865,-1.9844706,4.4530425,0.78292471,-0.25323442,0.56824404,0
7.0683622,0.16913164,-4.0333352,0.86835867,0.020778071,-0.49550116,0
-4.956646,5.1392245,3.9914925,-0.60594881,0.62826902,0.48795903,0
-4.0214624,5.7711349,4.2743282,-0.48857996,0.7011531,0.51930141,0
-6.7889466,4.1435647,0.76709652,-0.84963214,0.51856434,0.096001618,0
6.6364813,-2.2208238,-4.0490541,0.82082266,-0.27467906,-0.50080085,0
-5.8157458,-2.0944865,5.3351889,-0.71224123,-0.25650701,0.6533885,0
1.8234395,-7.6828561,-0.0035235456,0.23092389,-0.97297174,-0.0004462286,0
4.4671412,-5.7585702,3.4900444,0.55281955,-0.71263707,0.43190148,0
6.1271944,4.2836275,2.2917788,0.78358102,0.54781502,0.29308593,0
2.8710523,4.0926728,-6.1873627,0.36092779,0.51450104,-0.77783018,0
6.8003845,2.6080191,2.9848108,0.86395568,0.33133611,0.37920564,0
-3.0580802,7.0807376,-2.5365064,-0.37664467,0.87209028,-0.31240568,0
5.4420085,3.8692479,4.0427151,0.69717747,0.49569058,0.51791352,0
-3.917136,5.5903831,4.6315064,-0.47485778,0.67769843,0.56145787,0
-4.8904028,-1.9255846,-6.3391767,-0.59388274,-0.23383993,-0.76981956,0
-6.363853,5.1465473,-0.074064471,-0.77752024,0.62879276,-0.0090490188,0
4.6725402,-2.1593108,-6.3145971,0.57354718,-0.26505211,-0.77510715,0
-2.1292453,-2.0292456,7.3799624,-0.2680144,-0.25542715,0.92893773,0
-7.5414033,-2.5187767,0.62011534,-0.9456237,-0.31583178,0.077756844,0
3.760478,-2.3946717,-6.6417723,0.47010094,-0.29936019,-0.83029431,0
-0.70347142,3.3852029,7.3198647,-0.086898074,0.41816568,0.90420467,0
-4.0424218,5.7035675,-4.386807,-0.48979831,0.69107032,-0.53152555,0
-0.51794213,-3.1003664,-7.501123,-0.063683204,-0.38120332,-0.92229521,0
-6.0827169,0.36842188,5.5861688,-0.73579812,0.044566292,0.67573297,0
1.1087269,-4.8396497,-6.4493241,0.13622198,-0.59461588,-0.792386,0
-5.3695674,1.4811627,5.7610726,-0.67006588,0.18483362,0.71892166,0
6.4468551,3.3601015,3.4491339,0.80118394,0.41757715,0.42864165,0
-4.7835088,0.84831268,6.3967109,-0.59552652,0.10561132,0.79636329,0
-4.5731897,-6.465282,1.3144783,-0.56968588,-0.80538529,0.1637456,0
6.8020067,-4.3884573,0.90346837,0.83510762,-0.53878719,0.11092217,0
4.7369695,6.4277105,0.6232143,0.59146202,0.80256939,0.077815063,0
1.9028771,-3.3804159,6.8556557,0.2415718,-0.42914656,0.87033111,0
-3.5901692,0.4541162,6.9298906,-0.45922664,0.058087029,0.88641793,0
0.35229379,7.9172215,-1.4578613,0.043719586,0.98252559,-0.18092029,0
-1.7464172,6.2698112,-4.7480021,-0.21677648,0.77824908,-0.58935237,0
-2.4798453,-0.50096935,7.6631632,-0.30729237,-0.062078092,0.94958812,0
7.3694272,-0.16523232,-2.8397739,0.93291306,-0.020917147,-0.35949364,0
-3.0575356,-4.995966,5.3461289,-0.3855522,-0.62998635,0.67414153,0
7.7431798,1.5505922,0.79427606,0.97561055,0.19536859,0.1000757,0
0.36696455,-7.7462163,2.6348536,0.044804785,-0.94577956,0.32170424,0
1.6534169,2.916429,-7.2232995,0.20762755,0.3662301,-0.90706468,0
-3.1559508,4.6093245,-5.8540306,-0.39002332,0.56963629,-0.72346133,0
-0.39507076,7.8340168,-1.7065762,-0.049214844,0.97590089,-0.21259201,0
4.7198114,-3.9284673,5.3365698,0.58014095,-0.48287201,0.65595049,0
1.7172302,-4.1317649,6.8472204,0.20994228,-0.50513446,0.83711612,0
-4.6869006,6.0775461,1.8784902,-0.59317249,0.76917207,0.23774105,0
4.199389,-4.9597216,-4.8125339,0.5192979,-0.61332083,-0.5951196,0
-1.5032878,-6.8981929,3.6298363,-0.18936543,-0.86894822,0.45724145,0
1.6109689,-6.5818319,4.3878565,0.19955683,-0.81531644,0.54354042,0
-1.244163,4.8770137,6.4424334,-0.15218264,0.59654301,0.78802091,0
6.9364667,-0.9225561,3.9023829,0.86574537,-0.11514489,0.48705921,0
-7.6700525,1.1335782,-2.0463483,-0.95650059,0.14136386,-0.25519165,0
5.2275667,4.1302915,4.1155396,0.66754854,0.52742893,0.52554518,0
-1.5676138,2.6785243,7.2027388,-0.19987637,0.34152141,0.91837496,0
4.7255597,-4.8486838,4.2222762,0.59223187,-0.60766238,0.5291577,0
2.2584813,4.1958189,-6.4014812,0.2830084,0.52577454,-0.8021642,0
-0.41423455,6.0099163,-4.9917636,-0.05294694,0.76817995,-0.63804096,0
8.0349388,-0.54092693,-0.45440239,0.99615699,-0.06706313,-0.056335978,0
0.66978759,-7.1511087,-3.9886177,0.081526339,-0.87043077,-0.48549333,0
-6.0898113,0.99252439,5.1822958,-0.75577205,0.12317659,0.64314544,0
-2.6305735,7.1278267,-2.6644461,-0.32672232,0.88528991,-0.33092937,0
8.129775,-0.35735947,0.48119494,0.99729323,-0.04383789,0.059028994,0
-2.1069484,6.5737042,4.0543771,-0.26318192,0.82113081,0.50643802,0
2.4425917,-0.86176151,-7.478117,0.30864254,-0.10889101,-0.94492465,0
6.9184527,2.7191684,2.6438262,0.87688756,0.34464425,0.3350949,0
-2.9903944,-5.8791265,-4.4384899,-0.3761375,-0.73948771,-0.55828172,0
-1.0666634,-6.7321067,-4.2590322,-0.13271394,-0.83760667,-0.52990752,0
-4.1699543,-6.6690769,-0.50129962,-0.52908826,-0.8461796,-0.063605435,0
-3.4488637,-3.0379093,-6.5166664,-0.43249387,-0.38095942,-0.81720197,0
7.4981246,-0.38935986,-3.1862009,0.91930383,-0.047737274,-0.39064258,0
6.7876363,-1.2494191,4.2783599,0.83589667,-0.15386583,0.52687955,0
-4.4484458,-4.7963462,-4.2530932,-0.57011491,-0.61470199,-0.5450784,0
1.5961049,6.5555735,4.2689281,0.19990888,0.82107222,0.53467453,0
-5.6494083,0.37368014,-5.7316241,-0.70122486,0.04638252,-0.71142977,0
5.2945271,-5.8052373,-1.8727227,0.65549684,-0.7187261,-0.23185524,0
7.4887853,0.78462833,3.1335721,0.91821766,0.09620513,0.38421467,0
-5.6871109,1.1678828,5.3277006,-0.72173101,0.14821185,0.67611951,0
-4.7514081,6.4184709,1.8942178,-0.5789206,0.78203869,0.2307951,0
-1.0640824,-3.9570475,6.9428663,-0.13198937,-0.49083439,0.86119699,0
3.7893519,-7.0089159,-1.7263148,0.4648051,-0.85971951,-0.21175122,0
2.3798025,7.1513143,2.7264254,0.29692337,0.89225572,0.34017086,0
4.2318254,7.0025468,-0.52171165,0.51616764,0.85412031,-0.063634634,0
-7.015697,0.19952993,4.1374836,-0.8611064,0.024490297,0.50783461,0
4.2932401,-0.38862312,-6.7371244,0.53677338,-0.048588604,-0.84232628,0
-1.7104628,-3.0305917,-7.4031982,-0.20909506,-0.37047386,-0.90500194,0
6.2797098,-1.6284502,4.6255865,0.78815573,-0.20438401,0.58054954,0
0.74212968,1.0835733,-7.9917488,0.091632865,0.13379189,-0.98676401,0
-6.366271,-3.5301409,-3.6345468,-0.78244191,-0.43386939,-0.44670132,0
-4.3327527,-1.5751705,6.4620051,-0.54582608,-0.19843486,0.81406236,0
7.6765833,1.2446957,-1.5569046,0.9679029,0.1569376,-0.19630249,0
-4.8135104,-1.3207207,-6.1191702,-0.60955703,-0.16724895,-0.77489877,0
6.2630033,2.793488,4.1532722,0.78117788,0.34842885,0.51803333,0
0.13038559,-6.8968887,4.5051928,0.015825447,-0.83710438,0.54681414,0
-0.3052029,3.9031913,-7.0869212,-0.037695892,0.48208678,-0.87531221,0
-3.4925611,-5.7337031,-4.7252917,-0.42541081,-0.69839275,-0.57556337,0
1.4418058,0.14628707,7.9651732,0.17809005,0.018069196,0.98384827,0
-5.5078955,1.1289275,5.8442321,-0.67917788,0.1392079,0.72065151,0
1.2680223,-4.115624,-6.7834134,0.15781271,-0.51221323,-0.84423506,0
7.9566321,-1.5169913,0.3808088,0.98122203,-0.1870773,0.046961825,0
-4.3644471,-3.7235572,-5.5796375,-0.54536152,-0.4652788,-0.6972062,0
-1.0101277,1.0043871,-7.945127,-0.12514257,0.12443139,-0.98430496,0
6.8860173,3.4558752,-2.0926914,0.86250818,0.43286568,-0.26212007,0
1.6648088,-5.4550099,5.3972368,0.21201496,-0.69470066,0.68734318,0
7.2364979,-3.4672201,-0.84188223,0.89690614,-0.42973426,-0.10434458,0
-4.3003721,-3.7407987,5.9877348,-0.52019882,-0.45250946,0.72431231,0
7.1606798,3.8931231,0.94108194,0.87275165,0.47449818,0.11470012,0
5.6983709,1.1402969,5.4627256,0.7144593,0.14296994,0.68491417,0
-5.2535195,-0.88286233,5.9447484,-0.65813661,-0.11060091,0.74473059,0
-3.2976093,-6.6240554,-3.166173,-0.40972158,-0.82302606,-0.39339086,0
1.1984566,-7.1528106,-3.6320686,0.14775403,-0.88184804,-0.44778657,0
-0.55349714,3.5341642,7.3358221,-0.067817613,0.43302587,0.8988266,0
7.0504103,-2.5318365,3.0841749,0.87028432,-0.31252331,0.38070253,0
-2.5322268,6.8981342,-3.0418146,-0.31840181,0.86737037,-0.38247731,0
0.5005638,5.6285257,5.7925644,0.061857112,0.69554442,0.71581548,0
0.77504754,1.8659614,-7.9325314,0.094681785,0.2279506,-0.96905822,0
3.3195267,7.2722464,-1.1923922,0.41070598,0.89975333,-0.14752784,0
-2.2412848,1.6585113,-7.5392628,-0.27882522,0.20632574,-0.93791586,0
-2.2548945,-4.3461571,6.2842999,-0.28304499,-0.54555017,0.78883499,0
2.1100764,2.4730251,-7.6210613,0.2546722,0.29847768,-0.91981143,0
2.5696445,6.1618967,4.6969032,0.31479552,0.75486612,0.57539642,0
-1.5473276,7.7425108,-0.61753225,-0.19537644,0.9776237,-0.077973954,0
-7.7572002,-0.4257381,-2.3987057,-0.95405638,-0.052361436,-0.29501632,0
-2.5984228,-7.4035587,-2.4171441,-0.31648788,-0.90175337,-0.29440811,0
-6.5351295,-0.17624262,4.7813129,-0.80686802,-0.021760017,0.59033084,0
0.56618553,-7.6177301,-2.882776,0.069346346,-0.9330188,-0.35308212,0
-6.7839451,3.6891813,-2.5015497,-0.83574438,0.45448667,-0.30817705,0
4.5326524,-2.6278837,-6.3521094,0.55047494,-0.31914738,-0.7714417,0
3.3124404,1.9503633,7.0741053,0.41143042,0.24225004,0.878658,0
-1.9317101,0.69358444,7.6500902,-0.24388327,0.087566778,0.96584314,0
5.3536248,-6.2197399,0.60040516,0.65062582,-0.75588477,0.072967216,0
0.44881046,5.7234378,5.5955186,0.055983774,0.7139309,0.6979745,0
-4.6789293,3.3478117,5.4132891,-0.59229839,0.42379427,0.68525982,0
3.7776921,0.80874974,6.865685,0.47952512,0.10265946,0.87150258,0
-3.7491927,6.9670305,-1.0615122,-0.46966743,0.8727712,-0.13297735,0
7.3104773,-0.16973306,2.9047441,0.92911047,-0.021571884,0.36917263,0
2.6490796,-4.9758673,-5.657414,0.3316972,-0.62303954,-0.70837754,0
-0.029093171,0.82492942,7.992506,-0.0036207973,0.10266678,0.99470919,0
-2.5134077,-2.2217262,-7.4401746,-0.30796042,-0.27222154,-0.91162258,0
3.5791554,6.4520512,3.5397131,0.43736503,0.78842664,0.43254524,0
-1.7666547,1.1420114,7.5914083,-0.22426639,0.14497161,0.9636845,0
6.5125632,3.7850857,-2.9086683,0.80653977,0.46875894,-0.36022016,0
1.286496,-0.76539272,7.8368568,0.16124439,-0.095931336,0.98224103,0
-0.7581206,-7.9481144,-0.063262403,-0.09494976,-0.99545056,-0.0079232119,0
0.24145497,5.8221402,5.8325882,0.029286163,0.70616955,0.7074368,0
-3.5675375,6.7331328,2.700314,-0.44129816,0.8328768,0.33402413,0
4.0764065,-0.37729219,-7.0226655,0.50147748,-0.046414293,-0.8639248,0
-1.1734449,6.3147907,4.688921,-0.14755991,0.79408067,0.5896287,0
-0.47826299,2.2599142,-7.9031887,-0.058084954,0.27446616,-0.95984083,0
-5.0634589,-5.6166382,2.8913143,-0.62542856,-0.69375622,0.35712951,0
3.7286341,-6.6584096,-1.999624,0.47263974,-0.84401655,-0.25347131,0
1.4075805,7.7998118,-1.6764375,0.17375049,0.96280187,-0.20693795,0
6.1554766,-4.7944875,-2.3353744,0.75579405,-0.58868635,-0.28674662,0
-1.185544,-0.55087465,7.9679608,-0.14682588,-0.06822408,0.98680675,0
-2.4166458,2.8685095,-7.1413622,-0.29959235,0.35561001,-0.88531691,0
-3.9115152,-1.2486204,6.7830091,-0.49332085,-0.15747617,0.85547405,0
3.1295617,-7.0163574,1.7227643,0.39748245,-0.89114046,0.21880655,0
7.0217409,-3.8431132,-1.2155902,0.86726487,-0.4746682,-0.15013923,0
2.3009441,0.84442967,-7.6643028,0.28594974,0.10494147,-0.95248097,0
-4.443574,-4.244029,-5.2622404,-0.54926664,-0.52460104,-0.65046132,0
-4.5213094,4.5094342,-5.1614733,-0.55065066,0.54920441,-0.62861627,0
5.4058356,-5.964232,0.36748025,0.67087191,-0.7401697,0.045604821,0
-1.6026134,-7.9036722,-1.5732416,-0.1950473,-0.96192247,-0.19147258,0
1.4506745,4.386332,6.6062245,0.17995264,0.54411376,0.81948602,0
-7.7582178,-1.6490214,-2.1948557,-0.94271904,-0.20037642,-0.266702,0
7.0095797,-2.8877897,-2.7605755,0.8688013,-0.35792667,-0.34215912,0
-7.8403373,0.95652503,2.0215635,-0.96164238,0.11732085,0.24795122,0
5.788662,5.1757631,-2.4316089,0.71140492,0.63608193,-0.29883566,0
5.06357,-1.0396372,-6.1392369,0.63092452,-0.12953956,-0.76495343,0
5.0334277,-1.616397,-5.9714785,0.63112074,-0.20267336,-0.74873906,0
-7.5095263,-1.2002189,-2.8932619,-0.92293024,-0.14750843,-0.35558555,0
-6.9509926,3.0104005,2.1748049,-0.88200492,0.38198692,0.27595896,0
6.8709636,-3.3095577,-2.0168743,0.87099153,-0.4195331,-0.25566727,0
4.6388021,2.9524531,-6.1508341,0.56225538,0.35785806,-0.74552429,0
-6.0121589,5.2036891,1.2549576,-0.74687016,0.64643669,0.15589914,0
7.8584814,0.38297933,1.8538612,0.97219121,0.047379274,0.22934553,0
-5.3357224,0.77939796,-5.8233242,-0.67229921,0.098203875,-0.73373687,0
0.056781482,3.0763783,-7.3783851,0.0071027982,0.38482431,-0.92296255,0
3.9674761,0.91080528,-7.0389714,0.48792821,0.11201267,-0.86566687,0
-2.702245,-7.4466429,2.1573584,-0.32912916,-0.90698934,0.26276284,0
-4.5330758,0.6736697,-6.6875238,-0.55914664,0.083095931,-0.82489389,0
-0.34707505,-8.1044283,1.3489305,-0.042206556,-0.98555058,0.16403861,0
-1.7336446,-4.2571025,6.7717042,-0.21182302,-0.52014828,0.82739151,0
7.668293,-2.3419724,1.5361923,0.93930578,-0.28687325,0.18817151,0
7.3307967,-1.362101,2.7951031,0.92061371,-0.17105491,0.35101372,0
-4.5374637,0.4183996,6.4202924,-0.57633382,0.053143751,0.81548458,0
7.3375206,1.9146091,2.0631728,0.93366265,0.24362439,0.26252839,0
-3.73123,-7.120007,-2.0200539,-0.45017621,-0.85903513,-0.24372129,0
0.78023309,-3.3923793,7.3657527,0.09577103,-0.41640332,0.90412176,0
4.3664851,4.507205,4.8840895,0.5491004,0.56679642,0.61419094,0
-2.4958484,2.1927676,7.3418245,-0.30971518,0.27210525,0.91106272,0
-1.5376925,-3.1334321,-7.174871,-0.19272165,-0.39271843,-0.89923894,0
4.0257487,-3.8517728,5.9081554,0.49572656,-0.47430333,0.72752416,0
0.86175174,6.4262061,4.962502,0.10554378,0.78705513,0.60778672,0
-7.9312754,-1.9394743,0.52161646,-0.96940255,-0.23705284,0.06375473,0
1.0238698,7.7656684,1.7859344,0.12744375,0.96661305,0.22229993,0
1.688796,7.2281013,2.9037502,0.21188019,0.90685403,0.3643111,0
-1.4351306,-3.6054859,-6.9565692,-0.18016291,-0.4526242,-0.87331128,0
-2.4968536,2.3421361,-7.1470213,-0.31507501,0.29555142,-0.90187418,0
1.0711015,-7.8163276,1.3144226,0.13391915,-0.97727042,0.16434142,0
-2.7299068,6.5185776,-4.0850539,-0.33443114,0.79856765,-0.50044537,0
2.7421095,4.2730641,-6.1339545,0.34437189,0.53663909,-0.77034181,0
-7.0983052,-3.4601417,0.79867613,-0.894328,-0.43594933,0.10062661,0
-3.45069,2.2680612,-7.0087829,-0.42419052,0.27881092,-0.86158395,0
7.9134803,1.2794586,-0.93166542,0.98057997,0.15854105,-0.11544509,0
7.2026815,-3.2794554,-1.6156948,0.89171118,-0.40600532,-0.20002732,0
-5.1818624,4.4750323,3.9693589,-0.65476102,0.56544858,0.50155354,0
4.5684166,-3.1733134,6.1446929,0.55118185,-0.38286191,0.74136043,0
-3.5890048,3.2141559,-6.3852649,-0.44868392,0.40182173,-0.79826188,0
-5.0412107,4.5656214,-4.2307153,-0.62937659,0.57000101,-0.52818924,0
-4.2754598,5.7929034,3.7074366,-0.5279457,0.71532393,0.45780462,0
4.2465925,-1.3007077,-6.8630686,0.51947457,-0.15911217,-0.8395412,0
-0.77371919,5.8316197,5.8339601,-0.093387753,0.7038753,0.70415783,0
5.0588593,6.0869727,-1.1930757,0.63202804,0.76047522,-0.14905678,0
2.2616189,-0.68624985,7.6204972,0.28346109,-0.086011462,0.95511872,0
0.82400221,-7.8501744,-0.1584187,0.10437156,-0.99433589,-0.020065974,0
5.4452691,4.4390073,-4.1166406,0.66873568,0.5451563,-0.5055663,0
-6.2494607,-2.7966475,4.3069863,-0.77261579,-0.34574729,0.53246927,0
3.2400482,-5.1759043,5.3264399,0.3998571,-0.63876277,0.65734047,0
-0.35155058,-2.8896923,-7.3614445,-0.044409521,-0.3650395,-0.92993224,0
0.2189683,3.3723433,7.0669937,0.02795296,0.43050513,0.90215516,0
-6.1876011,-5.0857663,-0.70646584,-0.76954901,-0.63251436,-0.087862819,0
7.06743,1.2175784,4.0377927,0.85872769,0.1479418,0.49061176,0
0.81439984,-1.8326887,-7.8288717,0.10077135,-0.22677131,-0.96872073,0
4.2152772,4.6993151,5.1275606,0.51829964,0.57781565,0.63047165,0
0.98365366,-5.4448524,-5.9074745,0.12152929,-0.67270529,-0.72986174,0
-1.3296243,-6.7224855,4.0964613,-0.16654074,-0.84201807,0.51309812,0
5.7291231,3.559741,4.0465879,0.72836643,0.45256418,0.51445895,0
5.6235771,4.1589851,3.8325264,0.70509857,0.52146423,0.48053202,0
7.4721432,-1.9883145,-2.437151,0.92167222,-0.24525417,-0.30061716,0
-7.3762341,-0.2117268,-3.4290066,-0.90649867,-0.026020061,-0.42140606,0
1.9888693,-6.1954241,4.7948918,0.24606529,-0.7665053,0.59322977,0
0.34262213,7.6310911,2.7845726,0.042140432,0.93857765,0.34248543,0
-6.0261674,4.9682727,1.2496946,-0.76188999,0.62814003,0.15799922,0
0.11055513,4.7085896,6.3766427,0.013945846,0.59395945,0.8043741,0
2.685879,6.498373,3.501735,0.34192154,0.82726502,0.44578278,0
-2.3394086,-3.875895,-6.7595305,-0.28755498,-0.4764165,-0.83086663,0
3.5301616,-4.4166708,-5.6587758,0.44130203,-0.55212367,-0.707398,0
-3.7132862,3.2641375,-6.6836681,-0.44665664,0.39263031,-0.80395228,0
4.2581439,-5.3016253,-3.8930662,0.54344285,-0.67661649,-0.49685007,0
-6.9304671,-1.6054837,-3.2681401,-0.88525581,-0.20507474,-0.41745237,0
0.52482504,-7.722568,2.6912849,0.064042822,-0.94236177,0.3284094,0
1.0891569,-7.9162011,1.1903874,0.13481407,-0.97985452,0.14734422,0
1.1850204,-2.7795014,-7.4615688,0.14720477,-0.34527326,-0.92688572,0
5.5810537,5.9486551,-1.1238195,0.6778115,0.72245622,-0.13648638,0
0.2409886,-6.2834468,-4.9786239,0.030047033,-0.78343517,-0.62074673,0
-5.2939024,5.7158003,0.49503136,-0.67814374,0.7321884,0.063413031,0
-7.6074395,-1.1869544,2.6856518,-0.93292111,-0.14555946,0.32934883,0
4.2455883,-4.3380675,5.3966093,0.52272558,-0.5341118,0.66444165,0
-3.3850687,-3.630882,6.4501681,-0.41589671,-0.44609788,0.79248136,0
2.3246009,-7.8046765,-0.85639769,0.28388894,-0.95313627,-0.10458648,0
-3.9930401,-3.7410135,6.0661597,-0.4887847,-0.45793435,0.74255353,0
-7.4889126,2.1338463,1.5611306,-0.94295883,0.26868111,0.19656819,0
3.9331398,4.8022242,4.8606482,0.49887863,0.6091131,0.61652362,0
1.786587,-3.9004979,6.7376418,0.22367035,-0.48831975,0.84351373,0
-2.9721,-2.7821944,7.1390953,-0.36164355,-0.33853593,0.86868131,0
-3.7250645,-7.1086988,-1.1914538,-0.45911798,-0.87615436,-0.14684789,0
-7.6205559,1.1556743,1.5791432,-0.96857619,0.14688675,0.20070983,0
6.8546748,3.9541306,0.17448384,0.86600184,0.49955463,0.022043835,0
2.3016949,-2.392123,-7.4531202,0.28210551,-0.29318875,-0.91348606,0
6.6011543,4.9618316,0.80117816,0.79562646,0.59804153,0.09656471,0
-6.5155272,-4.6821094,-0.48099121,-0.81061471,-0.58251417,-0.059841443,0
5.0733194,1.0983859,-6.2429662,0.62486291,0.13528433,-0.76892418,0
-4.2756314,-6.3235307,-1.5601047,-0.54878068,-0.81163013,-0.20024067,0
-5.8164616,1.3539207,-4.9996481,-0.74680084,0.17383577,-0.64192659,0
1.4937637,3.2770803,-7.27879,0.18393737,0.40352938,-0.89628732,0
-1.3026934,-2.0792007,7.8063073,-0.15919861,-0.25409347,0.9539876,0
4.0649514,2.1233757,6.5987148,0.5058493,0.26423639,0.82115501,0
-6.8479071,3.0380726,2.2520611,-0.87538308,0.38836351,0.28788593,0
2.6972735,-1.7044573,7.4307361,0.33354038,-0.21077037,0.91887248,0
-7.5568357,-0.55611748,2.1315508,-0.96004015,-0.070650615,0.27079779,0
-0.02370307,-5.2265034,-6.0917964,-0.0029530516,-0.65114492,-0.75894761,0
6.8761973,3.1201208,2.5498774,0.86277211,0.39148864,0.31993893,0
1.7800602,7.1075573,3.6633029,0.21729749,0.86764169,0.44719082,0
-0.1477633,3.0585177,7.5568485,-0.018122306,0.37510937,0.92680341,0
4.6928682,-4.6645713,4.8002019,0.57408315,-0.57062155,0.5872134,0
-0.64991319,-7.8438816,-1.324918,-0.081427492,-0.98275834,-0.16599871,0
-7.1952262,2.2780044,-3.1607771,-0.87935781,0.27840418,-0.38629141,0
-7.5028553,-0.169791,-2.7607503,-0.93827182,-0.021233264,-0.34524646,0
6.3505926,4.6505532,1.75363,0.78749484,0.57668424,0.21745601,0
2.8771069,-7.6273088,0.38710973,0.35253942,-0.93459404,0.047433566,0
0.81261218,-5.0375051,6.0072646,0.10309879,-0.63912487,0.76216143,0
4.2864718,-2.2038572,6.2885604,0.54100382,-0.27815303,0.79369122,0
5.0659723,-5.4742289,-2.9624186,0.63124168,-0.68211216,-0.36912993,0
-3.9337428,-6.8830242,-0.67354971,-0.49441347,-0.86509466,-0.08465527,0
-2.0445883,-7.6540055,0.55948544,-0.25743631,-0.96372402,0.070445411,0
7.3197956,-3.6964757,0.31691834,0.89196992,-0.45044225,0.038618788,0
2.8328416,-7.0947075,2.8623097,0.34724781,-0.86966443,0.35085997,0
7.7949572,1.489018,0.95956552,0.97513711,0.18627384,0.12004016,0
-3.0172811,2.6162906,7.0819235,-0.37111327,0.32179305,0.87104768,0
-2.6481271,6.9987946,-2.4115667,-0.33682528,0.89020312,-0.30673626,0
-7.468853,-1.269606,-2.6535468,-0.93043566,-0.15816173,-0.33056676,0
4.943974,3.2496777,-5.1937661,0.62799424,0.41278109,-0.6597234,0
5.5458879,-0.49682036,-5.8343987,0.6876505,-0.061602179,-0.72342378,0
-2.7342741,-1.8733878,-7.496901,-0.3335737,-0.22854801,-0.91460067,0
7.4668508,2.8275089,1.3796993,0.92153686,0.34896287,0.17027846,0
6.9930654,-3.8418071,1.4792731,0.86176211,-0.47342956,0.18229224,0
5.6560969,-2.212975,4.976326,0.72034651,-0.28183901,0.63377255,0
0.66403925,0.77473527,8.1093016,0.081245482,0.094789185,0.99217641,0
2.7870681,6.4357376,-3.8571122,0.34821004,0.80406666,-0.48189896,0
3.6928959,7.1281061,-1.1253645,0.45555279,0.87931764,-0.13882411,0
2.3791447,1.1228219,7.5850582,0.29634345,0.13985737,0.94478589,0
6.7464304,3.5554655,2.8577247,0.82840824,0.43658301,0.35090595,0
-7.7789745,0.29846743,2.824827,-0.93933368,0.036040805,0.34110603,0
1.0486695,7.4274654,2.5305114,0.13246687,0.93822992,0.31965163,0
-7.7097445,-1.7619618,0.36523974,-0.97382784,-0.22255568,0.046133906,0
-5.5987296,5.56253,1.8404566,-0.69086015,0.68639332,0.22710477,0
2.3222165,-7.6970735,-0.0064788712,0.28884166,-0.95737654,-0.00080585422,0
2.4007833,-3.3534415,-6.6224055,0.30772802,-0.429838,-0.84884787,0
0.22437879,-2.911212,-7.7223091,0.027178058,-0.35262284,-0.93537074,0
0.8360368,-6.7793298,-4.1210046,0.10479899,-0.84980339,-0.51657665,0
0.97659361,-0.86582524,-8.1122589,0.11885651,-0.10537542,-0.98730397,0
-7.6692491,-0.64762509,-1.6854396,-0.97338736,-0.082197107,-0.21391737,0
5.7049313,-4.339457,-3.4680138,0.71645886,-0.54497457,-0.43553358,0
-7.3705721,2.1171901,1.8906301,-0.93319088,0.26805821,0.23937337,0
0.77880555,6.8069859,-4.1792731,0.097041927,0.84817451,-0.52075219,0
-7.8097672,-1.1705487,2.1233075,-0.9550342,-0.14314306,0.25965321,0
2.1162319,-0.044303264,7.8461132,0.26040751,-0.0054516247,0.96548337,0
4.3755221,-5.4369874,-4.0597076,0.5419367,-0.673406,-0.50282103,0
2.7148449,-3.0726581,-7.061049,0.33249086,-0.37631273,-0.86477655,0
3.0568526,7.01508,1.7111638,0.38984701,0.89464831,0.21822841,0
8.004282,0.79467654,-0.42936987,0.99369305,0.098655261,-0.053304199,0
-5.4388385,5.8830409,-0.96516639,-0.67396915,0.7290138,-0.11960135,0
-0.87685508,-0.72680509,-7.8902287,-0.10999181,-0.0911697,-0.98974234,0
-6.7390318,0.098927312,4.7131701,-0.81940979,0.012028732,0.57308197,0
-4.1495771,3.12696,6.4803815,-0.49957857,0.376463,0.78019029,0
7.8939748,-1.7282463,-1.3470885,0.96356642,-0.21095584,-0.16443036,0
6.7075744,-0.4015111,4.5236416,0.82805717,-0.049566969,0.55844831,0
-5.0585699,5.3364644,-3.4130583,-0.62401116,0.65829146,-0.4210254,0
6.9564877,-0.43867299,4.4497237,0.84121883,-0.053046882,0.53808641,0
-4.1189871,-4.3613892,-5.6653905,-0.49919078,-0.52856809,-0.68660343,0
-3.2656243,1.6224777,7.2312651,-0.40323132,0.20033959,0.89289898,0
6.629972,-2.5907514,-3.3689363,0.84188336,-0.32897735,-0.42779237,0
-2.7464373,-6.7241373,3.3232698,-0.34383947,-0.8418265,0.41605586,0
5.4894958,0.47476271,5.9171343,0.67894584,0.058719084,0.73183656,0
4.7404366,4.5091023,4.9905977,0.57609296,0.54797953,0.60649437,0
2.9509811,7.1274686,-1.9307687,0.37109143,0.89629257,-0.24279779,0
-2.522002,-7.5296125,-1.8838471,-0.30902517,-0.92261618,-0.23083098,0
2.2898009,-7.7374868,0.55253792,0.28310779,-0.95665205,0.068315014,0
1.6405872,1.6551505,-7.790431,0.20175613,0.20354711,-0.95805162,0
-2.9779339,6.4516191,3.8259449,-0.36900032,0.79942995,0.47407866,0
0.51697195,8.0169325,-1.2598791,0.063574307,0.98587734,-0.15493286,0
-4.2120943,-6.3014364,-2.3823454,-0.5301466,-0.79311734,-0.29984903,0
-3.3976495,-0.60663927,-7.2682309,-0.4222745,-0.075395741,-0.90332705,0
-6.3290086,-4.2428684,2.4174891,-0.79172915,-0.53076285,0.3024165,0
-1.3248757,7.3706651,2.791352,-0.16577318,0.92224401,0.34926397,0
1.6734302,-7.2096691,3.0535886,0.20900884,-0.90047652,0.38138852,0
6.0207052,-4.4931612,3.2136986,0.73683822,-0.54989117,0.39330539,0
-2.8164427,0.47525519,7.5175228,-0.35022318,0.059097737,0.93480003,0
-8.2150488,0.61599809,0.72087777,-0.99340445,0.074489541,0.087172113,0
3.8305714,2.5781031,6.5519238,0.47789788,0.3216413,0.81741083,0
0.75974858,7.7080283,-1.9420561,0.095145278,0.96529633,-0.24320871,0
-6.7105246,-0.73510194,4.1205916,-0.84847695,-0.092946097,0.52100652,0
-4.5211325,5.6930361,-3.4097002,-0.56304568,0.70899034,-0.42463186,0
-5.8764157,-3.1364644,-4.609159,-0.72546118,-0.38720596,-0.56901455,0
1.5173777,-1.3907508,7.8705196,0.18651971,-0.17095442,0.96746314,0
2.3434451,-7.3736753,-2.3112838,0.29021165,-0.91315407,-0.28622881,0
1.363957,7.7793226,1.6913995,0.16886778,0.96313655,0.20940752,0
-6.2401061,5.1122012,-0.40336728,-0.7725873,0.63294142,-0.049940888,0
3.1355195,7.4320784,-0.78367758,0.38689065,0.91704154,-0.096697703,0
-2.2651186,7.4425592,1.8307698,-0.28341857,0.93123579,0.22907153,0
-0.47749034,7.5356131,-2.1705554,-0.060776379,0.95915508,-0.27627471,0
4.8069916,-6.3461967,1.5144838,0.59316182,-0.78309304,0.18688071,0
5.0619426,3.6762116,4.9077196,0.63661653,0.46233973,0.61722064,0
2.4059904,6.7655783,-3.774255,0.29659128,0.83400643,-0.46526,0
5.5212898,-5.2692342,2.2560534,0.69375175,-0.66208088,0.28347382,0
-0.441515,-4.0988197,-7.1186419,-0.053671822,-0.49826422,-0.86536241,0
-5.2672892,-4.9059858,-3.999259,-0.63966054,-0.59578383,-0.48567075,0
-0.95977336,6.858182,-3.9289451,-0.12054522,0.8613711,-0.49346602,0
-3.7384663,2.1003876,-6.8440213,-0.46288717,0.26006451,-0.84740889,0
2.0957882,-2.4855053,7.4248681,0.2585645,-0.30664521,0.91603118,0
0.72633016,-3.2068989,-7.4208374,0.089486048,-0.39509955,-0.91426939,0
3.3122313,6.760726,-2.4921787,0.41766921,0.85252112,-0.31426135,0
-1.4664837,3.4685829,6.9743719,-0.18501893,0.43761379,0.87992167,0
3.8149447,4.5246081,-5.520052,0.47138745,0.55907589,-0.68207628,0
7.4276924,2.3480036,1.604676,0.93388569,0.2952151,0.20175633,0
-5.3494658,1.7345728,-5.9489484,-0.65346563,0.21188727,-0.7266956,0
4.6798573,5.9453521,-3.115433,0.57193112,0.72658879,-0.38074088,0
-4.6279087,-6.4298534,1.7580886,-0.57029843,-0.79235262,0.21664974,0
2.7816944,-4.6339946,6.0610113,0.34253892,-0.57063192,0.7463553,0
-2.3448837,-7.6114831,2.0310335,-0.28528708,-0.92604077,0.24710293,0
7.889864,2.2913604,-1.0648125,0.9523564,0.27658167,-0.12852959,0
-4.0237651,-6.0225472,3.4068198,-0.50270295,-0.75241774,0.42562583,0
4.2507815,6.8738565,-0.03116175,0.52595145,0.85050589,-0.0038556596,0
-0.73015773,-0.81507838,7.9510012,-0.090974599,-0.10155536,0.9906615,0
6.2544398,-4.3978362,-2.4895802,0.77782279,-0.54692942,-0.30961239,0
-3.8228836,3.6794186,-6.0466566,-0.47521472,0.45738089,-0.75164735,0
5.9500475,-4.8046632,2.8879495,0.72784829,-0.5877375,0.35327265,0
4.1485968,6.8762794,0.78799421,0.51411545,0.85214388,0.097652294,0
3.5566869,1.091863,7.3823442,0.43023363,0.1320769,0.89300317,0
0.4477782,-2.0415838,7.7138772,0.056028124,-0.2554526,0.96519679,0
7.8946986,-1.3027256,1.1430342,0.97674143,-0.16117474,0.14141755,0
-7.285708,-2.9839854,1.0762103,-0.91686612,-0.37551811,0.13543512,0
-4.7197294,5.4364982,-3.4741893,-0.59042138,0.68008661,-0.43460873,0
-7.8267608,-0.64426184,-1.282825,-0.98359287,-0.080964707,-0.16121325,0
4.8130522,6.4746537,1.1709793,0.59040171,0.79422504,0.14364028,0
-1.4821693,1.4428967,-7.7057619,-0.18576884,0.18084659,-0.96580768,0
-6.5183444,2.9443264,3.5033345,-0.81843793,0.3696872,0.43987578,0
0.64878637,-7.1210933,3.748807,0.08035811,-0.88201237,0.46432394,0
3.5040283,-5.3810453,4.8727946,0.4346948,-0.66754955,0.60449809,0
-5.3949041,-5.9392948,-1.5435073,-0.66026306,-0.72688913,-0.18890436,0
-4.0138764,-6.6246309,2.4200125,-0.49462366,-0.81634277,0.29821432,0
-6.3626695,-4.6501946,0.86317706,-0.80255818,-0.58655441,0.10887723,0
1.0343535,3.5420194,-7.1101332,0.12912303,0.44216633,-0.88759017,0
6.8788648,1.8342146,3.9788923,0.84344727,0.22490096,0.48786914,0
-1.7382714,4.7164369,6.2754574,-0.21619265,0.58659369,0.78049248,0
-3.6726549,2.4685197,-6.7014046,-0.4573316,0.30738854,-0.83448195,0
-8.1232729,-0.51204818,0.90474993,-0.99191004,-0.062524766,0.11047648,0
-6.7166338,-4.7204046,1.0635604,-0.81137615,-0.57022965,0.12847917,0
-6.3740253,4.4433479,-1.6761848,-0.80189973,0.55900621,-0.21087649,0
0.99801499,-7.9127665,-1.5662401,0.12279041,-0.97354436,-0.19270179,0
-6.7382498,0.089376591,4.6031861,-0.82566845,0.010951721,0.56404936,0
-4.1590285,2.7828581,-6.5855508,-0.50283784,0.33645511,-0.796211,0
-6.5855641,-4.0502639,2.1877167,-0.81961501,-0.50408089,0.27227515,0
-7.6988802,-0.63852197,2.2206328,-0.95779383,-0.079436541,0.27626204,0
1.5910208,-1.9203417,-7.5831652,0.19930868,-0.24056302,-0.94995028,0
0.34275448,-5.2431049,-6.3325233,0.041654468,-0.63718712,-0.76958263,0
3.9395301,-6.3942289,3.247227,0.48146793,-0.78146785,0.39685842,0
1.4614953,2.9872794,7.0901327,0.1866215,0.3814522,0.90535444,0
-3.5178905,6.9679151,1.1560011,-0.44582534,0.88304996,0.14650103,0
8.0636482,-0.87977195,0.54685742,0.99184936,-0.1082142,0.067264862,0
6.291297,-3.3738229,-3.7038031,0.7822597,-0.41950104,-0.46053076,0
5.400805,2.5340407,5.3545828,0.67372501,0.31610966,0.66795897,0
0.1380049,-6.765048,4.6454411,0.016814239,-0.82423985,0.56599122,0
2.0803607,5.0732565,5.8628497,0.25915807,0.63199401,0.73035645,0
2.1711373,0.60670853,7.8756557,0.26503333,0.07406164,0.96139073,0
5.9617672,-5.4376416,0.46299037,0.73762459,-0.6727767,0.057283867,0
0.69187284,4.6479282,-6.3003349,0.088026993,0.59135598,-0.80159175,0
0.44967422,-6.6804199,-4.3618784,0.056272533,-0.83599222,-0.54584837,0
5.9634624,5.1022263,2.120816,0.73353231,0.62759644,0.26086977,0
-7.6904373,-0.021038929,-1.6770735,-0.97703451,-0.0026728986,-0.21306443,0
-5.9581976,-4.6768274,3.0827725,-0.72858244,-0.57189351,0.37696868,0
7.2315264,-2.5558333,1.2780505,0.93002254,-0.32869723,0.16436583,0
2.9190273,4.3235989,5.9341273,0.3694436,0.54721171,0.75104648,0
5.5426531,5.7065234,0.30835718,0.69620937,0.71679306,0.038732562,0
-0.80841315,-6.8041749,4.1607418,-0.10084537,-0.84878564,0.51903105,0
4.7950287,3.6268017,5.2547235,0.60051447,0.45420939,0.65808523,0
-7.8913894,-0.32682914,-0.62980479,-0.99598193,-0.041249506,-0.079488434,0
3.3567059,5.4169178,4.8491793,0.41917902,0.67645437,0.60555625,0
2.7948563,-0.27064985,-7.6363668,0.34350666,-0.033264689,-0.9385609,0
-1.3685952,-3.2000318,-7.261961,-0.16995044,-0.39737594,-0.9017812,0
-0.92109054,4.2081685,6.8992314,-0.11324424,0.51737678,0.84823173,0
-7.4847817,-1.3703529,2.0592196,-0.94949526,-0.17383854,0.26122594,0
-0.0021835284,5.8319154,-5.6493096,-0.00026892469,0.71826226,-0.69577241,0
4.6040936,5.9976096,3.0583928,0.56449354,0.73534822,0.37498,0
-7.8776126,0.7617262,1.1368115,-0.98524553,0.095268376,0.14217994,0
1.6328598,1.7600061,7.6910591,0.20266193,0.21844266,0.95457363,0
5.9898462,-4.7664642,-2.1279211,0.75389922,-0.59992087,-0.26782626,0
-2.4835408,-6.7863641,-3.528676,-0.30882007,-0.84386194,-0.43877921,0
0.79145306,7.6865382,-1.7904687,0.099781014,0.96906638,-0.22573011,0
1.5594747,6.2611103,4.9586382,0.19163668,0.76939905,0.60934424,0
-1.4224184,-6.8213577,-4.4159517,-0.17242408,-0.82687789,-0.5352971,0
4.6239452,3.0913866,-5.4799328,0.59219474,0.39591792,-0.70182216,0
6.1801748,-4.2092385,-3.1404634,0.7620284,-0.51900786,-0.38722566,0
-4.6848626,-2.657465,-6.1274152,-0.57425606,-0.32574388,-0.75107974,0
-1.5034875,-7.7050533,-1.6829517,-0.18726322,-0.95968413,-0.20961595,0
2.1644061,7.89676,-0.65076518,0.2635076,0.96139824,-0.079227999,0
3.0503163,-7.477695,-1.108006,0.37420002,-0.91733229,-0.13592553,0
-3.8863957,-3.9174104,5.9202409,-0.48020673,-0.48403892,0.73151058,0
7.1500888,0.13388112,-3.4665067,0.89969641,0.016846275,-0.4361909,0
-1.0496585,-6.9376945,-3.9540169,-0.13032688,-0.86139262,-0.49093556,0
-3.012423,-7.3478203,-0.012712942,-0.37933302,-0.92525882,-0.0016008504,0
-3.4872677,-3.1992085,-6.5367694,-0.43212593,-0.39643097,-0.81000596,0
-2.8161232,-7.4574618,1.6702712,-0.34576678,-0.91563559,0.20507778,0
-0.89939958,5.5212727,5.8669372,-0.11094882,0.68109739,0.72373813,0
7.6226144,2.3876498,-1.1972408,0.94373906,0.29560965,-0.14822775,0
-4.7909007,5.9602427,-2.8061576,-0.58815396,0.73170799,-0.34449738,0
4.1843762,0.08018028,-6.9123721,0.517829,0.0099225482,-0.85542661,0
-6.9798846,-0.75706506,-4.1078534,-0.85808343,-0.093071021,-0.5050056,0
-0.75248611,-4.7547493,-6.4028149,-0.093936153,-0.59355628,-0.79929155,0
-1.1731031,3.2954509,7.1647754,-0.1471328,0.41332164,0.89861959,0
3.5522566,5.2486544,5.1665483,0.43443096,0.64189559,0.6318543,0
-6.0149908,4.1616974,-3.6205466,-0.73700619,0.50992543,-0.44361916,0
4.6330771,0.6893357,6.6582518,0.56911701,0.084676482,0.81788498,0
-5.7841849,3.9849951,-3.5596294,-0.73454517,0.50606245,-0.45204443,0
-5.582799,5.9502687,-0.65443891,-0.68203914,0.72693217,-0.079951465,0
3.4108334,-5.9945664,3.9456489,0.42925894,-0.754426,0.49656636,0
-6.1729078,1.0759999,4.7097287,-0.78749835,0.13726889,0.60083574,0
4.8462963,6.3027372,-1.2726136,0.60189372,0.7827788,-0.15805435,0
-0.56156111,-5.6684117,-5.6386132,-0.070063785,-0.70722556,-0.70350772,0
5.940866,-5.1039476,1.1873733,0.74994421,-0.64429599,0.14988786,0
0.14151177,-5.0633297,6.0305123,0.017968476,-0.64291698,0.76572508,0
-5.7562542,5.5531898,-0.1418619,-0.71957392,0.69418937,-0.017733777,0
-4.1742735,-5.9186053,3.9193745,-0.50689149,-0.71870965,0.47593853,0
6.1430349,-4.0678926,-3.4305966,0.75584841,-0.50051969,-0.42210585,0
4.7631612,-3.1071548,5.7081008,0.59114069,-0.38561904,0.70841414,0
-5.3385549,-3.085995,5.0756283,-0.66844028,-0.38639733,0.63551927,0
-7.7183371,-0.59460592,1.5357872,-0.97798514,-0.075342104,0.19459854,0
-3.1416233,1.4811037,-7.3684316,-0.3856647,0.18181984,-0.90454644,0
-1.7794114,7.722959,-1.8512448,-0.21863736,0.9489246,-0.22746356,0
6.0394683,1.0005462,-5.4489818,0.73691702,0.12208351,-0.6648677,0
-2.2208798,6.331666,4.4041777,-0.2767055,0.78887963,0.54872859,0
8.1136827,0.54298931,0.45659262,0.99619907,0.066668302,0.056060504,0
7.5031352,2.7027583,-1.2671506,0.92916667,0.33470181,-0.1569203,0
6.6077027,-1.5230349,4.3990364,0.81749398,-0.18842734,0.54424149,0
6.0779748,-0.40695843,-5.0788665,0.76634747,-0.051311754,-0.64037389,0
-7.1532836,-3.3112731,-0.82175571,-0.90259629,-0.41781411,-0.10368855,0
2.8345499,-3.8787048,6.3691721,0.35530448,-0.48618695,0.79836148,0
-2.4306686,0.26074657,-7.8745608,-0.29479471,0.031623688,-0.95503718,0
0.82017291,-7.7674813,-2.1833208,0.10113011,-0.95775694,-0.26921088,0
7.0170269,-4.2219701,-0.77191836,0.85307765,-0.51327556,-0.093844064,0
3.3422983,7.0702391,-1.6662259,0.41799781,0.88422525,-0.20838319,0
1.7812101,6.1706166,-4.8672867,0.22103447,0.76572603,-0.60399282,0
7.6787071,2.1181629,-1.5075152,0.94718218,0.26127917,-0.18595469,0
7.8985114,0.37056559,-0.29810017,0.99819213,0.04683106,-0.037673082,0
-7.7190251,1.5953368,-0.22349943,-0.97890979,0.2023171,-0.028343707,0
-5.9016423,5.4439034,-1.0050293,-0.72934544,0.67277652,-0.12420502,0
-5.1639132,-5.3657184,3.2523024,-0.63546813,-0.66030216,0.40022644,0
-5.322433,5.8252845,0.76108503,-0.67140877,0.73484194,0.096008562,0
-1.1533078,5.8589578,-5.5723257,-0.14120668,0.71734881,-0.68225467,0
-2.0655463,6.7596908,3.7713087,-0.25782561,0.84375805,0.47074226,0
6.1136899,-3.3236296,4.1762404,0.75331569,-0.40953049,0.51458734,0
6.2426672,5.1753674,1.0411438,0.76357949,0.63303137,0.12734878,0
-6.4252958,4.0314264,2.518146,-0.80392927,0.50440973,0.31506896,0
0.91779441,-7.6348963,-2.8717654,0.11180896,-0.9301101,-0.34984863,0
-1.1025031,-2.1777167,-7.47118,-0.1402711,-0.27707016,-0.95055574,0
-0.4592357,-7.7849874,-0.97400975,-0.058433544,-0.99056846,-0.12393384,0
-3.7209888,-1.9743369,6.8965025,-0.46045104,-0.24431287,0.85340261,0
-3.1291835,-7.1825657,2.1020432,-0.38576189,-0.88545781,0.25913727,0
7.4185643,3.1033609,-0.53778583,0.92047727,0.38505742,-0.066727147,0
-0.74210542,2.3960111,-7.7015004,-0.09162166,0.2958158,-0.95084101,0
3.391403,6.4298401,-3.2632353,0.425614,0.80693156,-0.40952924,0
0.87584943,7.2341237,-3.4605546,0.10857305,0.89676476,-0.42898124,0
5.7055488,4.6516204,-2.7353551,0.7265237,0.59232032,-0.34831011,0
-4.5322742,-6.6120219,-0.45117345,-0.56449217,-0.82352352,-0.056193393,0
-2.9354413,-7.4616241,-0.57157445,-0.3651675,-0.92822248,-0.071103588,0
3.3422487,6.7089448,2.7991438,0.41772959,0.83851475,0.34984985,0
4.3607364,-4.2709627,-5.2293167,0.54254258,-0.53137338,-0.65060729,0
5.6872754,4.2168722,3.6506047,0.7139613,0.52937186,0.45828456,0
3.8414328,6.3224249,3.1648386,0.47740531,0.78573787,0.39331958,0
-7.5371823,1.2075943,-2.9066675,-0.92277038,0.14784467,-0.35586065,0
-7.2196794,3.2546208,-1.6216288,-0.89311707,0.40261585,-0.20060506,0
-5.0373363,4.296011,-4.7099519,-0.61998689,0.52874583,-0.57969296,0
0.72147459,7.0789337,3.6703813,0.090111472,0.88415188,0.45842704,0
7.5589061,-2.5432904,1.1329293,0.9383691,-0.31572625,0.14064282,0
-2.8564134,-1.2158563,7.406673,-0.35567549,-0.15139626,0.92226571,0
4.6732574,-0.61931562,-6.5823765,0.57720685,-0.076493368,-0.81300735,0
4.8734665,5.9450779,-2.4606934,0.60378456,0.73654884,-0.30486074,0
-7.2731423,-1.7634794,-2.5292823,-0.92068243,-0.22323287,-0.32017326,0
-1.9878628,4.1575179,6.5299907,-0.24872133,0.52018851,0.81703222,0
1.6668925,2.5113027,-7.5590715,0.20483184,0.30859503,-0.92887723,0
5.0679097,-6.0144792,2.2207842,0.62011838,-0.7359423,0.2717391,0
5.3220062,5.7767396,-1.5221807,0.66519099,0.72202754,-0.19025548,0
5.5970788,-5.6886063,-0.027294053,0.70134497,-0.71281385,-0.0034200959,0
0.8632592,-3.1501346,7.541893,0.10503467,-0.38328388,0.9176389,0
7.036015,-0.081023775,3.9041224,0.87436479,-0.010068815,0.48516485,0
-0.89857006,-7.697175,-2.3906763,-0.11080018,-0.94911724,-0.29478765,0
6.9378748,-3.8096654,1.7255316,0.8564291,-0.4702749,0.21300405,0
-1.8490945,-0.41010669,-7.723454,-0.23252323,-0.051570825,-0.97122264,0
-3.4055502,4.6364398,-5.4315929,-0.43043947,0.58601594,-0.68651813,0
4.3206577,-0.40704295,-6.7919412,0.53605914,-0.050501358,-0.84266847,0
1.023101,-3.266041,-7.1102419,0.12965268,-0.41388974,-0.90104687,0
1.0609006,3.8693533,6.834969,0.13385844,0.48821312,0.86239773,0
4.4758101,-0.38360053,6.7823439,0.55018348,-0.047153629,0.83371139,0
7.2798138,-1.2368649,-3.0035136,0.91321713,-0.15515867,-0.37677613,0
-7.0491261,3.7368879,0.97620159,-0.87698847,0.46490976,0.12145016,0
0.35505244,7.6002331,2.674181,0.044025004,0.94239682,0.33158717,0
0.21717666,-2.1088152,-7.9211121,0.026485298,-0.25717589,-0.96600163,0
-4.9994683,3.7135091,-5.0286331,-0.62458241,0.46392781,-0.62822598,0
-6.5826535,2.3936067,-4.1903138,-0.80649304,0.29325971,-0.51338851,0
-5.0641646,-6.3612995,1.5551366,-0.61173922,-0.76843011,0.18785685,0
7.7838039,2.2028027,0.070382267,0.96217489,0.27229378,0.0087001221,0
5.663908,-1.0148462,-5.6335745,0.70335001,-0.12602466,-0.69958311,0
-6.5692039,4.0181375,2.936409,-0.79708809,0.48754913,0.35629535,0
7.9560394,-1.201175,0.020295303,0.98879117,-0.14928423,0.0025223375,0
-6.5901446,-2.8399343,-3.2086816,-0.83836436,-0.36128184,-0.40819198,0
