2.4681616,6.1756916,5.0055637,0.29651642,0.74192631,0.6013512,0
8.1667547,-0.37887207,-1.3413032,0.98574722,-0.045730781,-0.16189857,0
-4.0318193,6.5382462,-3.161932,-0.48536685,0.78710073,-0.38064626,0
-5.827302,-1.8934153,5.7752266,-0.69208199,-0.22487228,0.68589723,0
5.7694645,-5.5177484,2.6206806,0.68664527,-0.65668762,0.31189689,0
0.34816542,8.5083838,-1.0216725,0.040594928,0.99204922,-0.11912361,0
-1.2518098,7.4778533,-3.7141352,-0.14827029,0.88571239,-0.43991977,0
1.0144491,-2.6925521,-7.890173,0.12079021,-0.32060152,-0.93948096,0
3.1416008,-3.795063,-6.6144357,0.38091087,-0.46014148,-0.80198306,0
0.44769052,7.9272699,2.2850258,0.054185618,0.9594664,0.27656502,0
7.5906696,3.3366544,1.0643995,0.9080081,0.39913598,0.12732518,0
-6.8767133,4.8471394,-0.20928858,-0.8171075,0.57594872,-0.02486817,0
2.2813404,-3.4918556,7.3687305,0.2694284,-0.41239136,0.87025386,0
1.1783783,-7.9304309,-2.4276891,0.14066845,-0.94669205,-0.28980443,0
-6.6256051,5.3224711,-1.3319824,-0.77020305,0.61871839,-0.15483822,0
-3.7370281,-6.4372382,-4.2364969,-0.43633735,-0.75161529,-0.49465558,0
1.8158051,8.0721445,-1.6800686,0.21507379,0.95610857,-0.19899644,0
-3.8478765,-6.3855181,3.7220025,-0.46177891,-0.76631814,0.44667292,0
-4.0477238,5.5675335,-4.7806835,-0.48298052,0.66432655,-0.57043839,0
-6.4280486,-4.9688983,1.1386341,-0.78352249,-0.60566491,0.13878946,0
-5.7695632,4.2473135,4.422122,-0.68528754,0.5044803,0.52524346,0
-6.7756643,2.2241108,4.3803134,-0.80959558,0.26574963,0.52338523,0
2.9848602,7.2279911,-3.4425616,0.34934074,0.84594643,-0.40290901,0
-4.4894872,-4.655715,5.5543852,-0.52660161,-0.5460996,0.6515106,0
7.3370628,0.17412587,-3.98911,0.87835443,0.02084543,-0.47755522,0
-6.048521,5.051559,2.530827,-0.73076665,0.61031628,0.30576798,0
-3.4345086,1.2368808,7.4972296,-0.41187501,0.1483299,0.89908683,0
-1.9234644,8.2671061,-1.0209762,-0.2249902,0.96701449,-0.11942495,0
7.8079715,1.8683332,1.9799131,0.94425452,0.22594628,0.23944016,0
6.2489595,2.2440066,-5.1230979,0.74513286,0.26757783,-0.61088383,0
3.9011269,6.7935424,-2.9027834,0.46695089,0.81316262,-0.34745276,0
6.8539834,4.7802362,1.5603349,0.80628186,0.56233251,0.18355308,0
-1.3913101,-1.2570398,8.0886612,-0.16756409,-0.15139309,0.97416753,0
-2.9443808,6.1330004,-5.0557017,-0.34737709,0.72356939,-0.59647006,0
2.9743507,7.6522293,1.866992,0.35326666,0.90886307,0.22174454,0
-3.3298767,6.6480465,3.8721285,-0.39720851,0.79302055,0.46189168,0
1.1297436,6.8333611,-4.5197229,0.13660131,0.82624596,-0.54649574,0
6.7285748,-4.2770915,2.2597885,0.81194627,-0.51612246,0.27269176,0
1.3014404,-3.7449803,7.2618151,0.15730023,-0.45264179,0.87770844,0
1.1661204,3.4728587,7.6224041,0.13788743,0.41064674,0.90130806,0
6.546865,-4.8115807,1.6084025,0.79044604,-0.58093375,0.19419301,0
5.9775338,-5.6124945,-2.0741761,0.70675379,-0.66359335,-0.24524024,0
7.2689066,-3.6744797,-0.7330066,0.88886052,-0.44932479,-0.089633919,0
-4.4514885,-6.9317136,-1.38836,-0.53284711,-0.82973224,-0.16618791,0
8.2030888,-1.8802578,0.49685168,0.97302812,-0.22303109,0.058935199,0
6.489912,0.75334811,-5.1281762,0.7813803,0.090702519,-0.61742836,0
-2.1176193,-7.9162569,0.89284533,-0.25689617,-0.96035016,0.10831434,0
-6.5427966,-5.2741261,-0.77375472,-0.77526897,-0.62494165,-0.09168373,0
6.5080605,3.3066332,4.0803375,0.77820772,0.39539391,0.48791036,0
-7.7021346,0.25902742,3.0120468,-0.93086147,0.031305432,0.36402875,0
-5.1126513,-6.3247476,-1.0173234,-0.62378836,-0.77167469,-0.12412238,0
3.1994753,-7.6916556,-1.0515916,0.38104099,-0.91603649,-0.12523913,0
-7.8177481,2.9927251,-1.7244965,-0.91470081,0.35015815,-0.20177145,0
7.6611066,-3.8450196,-0.16498274,0.89358562,-0.44848016,-0.01924346,0
1.0803779,8.1618156,-0.60350418,0.13087401,0.98869985,-0.073106833,0
-7.293457,-0.40294826,4.2696686,-0.86201835,-0.047624711,0.50463486,0
-2.3992462,5.5195661,-5.7122307,-0.28914648,0.6651935,-0.68841261,0
7.2028551,-2.4486387,3.6701941,0.85273874,-0.28989187,0.43451056,0
-6.8196387,4.0014839,-2.3551428,-0.82660139,0.48501575,-0.28546444,0
-5.9632349,1.0350266,-5.763154,-0.71353126,0.12384617,-0.68959057,0
-6.638423,4.9948354,1.512902,-0.78614414,0.59150499,0.17916289,0
-3.4289312,0.46471477,7.8827372,-0.39830634,0.053981494,0.91566265,0
-4.5990305,4.6158638,-5.3851643,-0.54405534,0.54604667,-0.63705325,0
0.87897414,8.4231052,0.5033465,0.10360634,0.99284726,0.0593304,0
-8.1479168,-1.1432387,-1.9953715,-0.96240199,-0.13503514,-0.23568594,0
-0.1620272,8.4452982,-1.3331422,-0.01894743,0.98759156,-0.15589739,0
1.7614794,1.6728387,-8.1209011,0.20780857,0.19735129,-0.9580543,0
-3.7834001,-5.1328874,5.170568,-0.46085793,-0.62523967,0.62982959,0
4.6921606,1.1116158,7.0018272,0.55191332,0.13075331,0.82358682,0
1.1516211,5.0014534,6.6278844,0.13738073,0.59664011,0.79066253,0
6.8645511,-2.7923915,4.027091,0.81388766,-0.33107671,0.47746745,0
5.8089199,2.759016,-5.1818485,0.70336384,0.33407107,-0.62743586,0
5.4297967,-1.8807243,-6.1600847,0.64455056,-0.22325365,-0.73124033,0
4.5793724,6.2330585,-3.5967238,0.53686523,0.73073608,-0.42166391,0
5.9924898,5.0130634,2.6056516,0.72760534,0.60868388,0.31637701,0
-3.3694942,7.763485,-0.93226355,-0.39574257,0.91181093,-0.10949311,0
-5.7373042,5.1394687,3.2460907,-0.68638694,0.61486441,0.38834861,0
4.3856788,6.9964585,-0.80473155,0.52861685,0.84330064,-0.096996307,0
-4.3996987,5.9635997,-4.0297236,-0.52155882,0.70695025,-0.47770044,0
-4.9746466,4.0821819,-5.5053735,-0.58740914,0.48202643,-0.6500777,0
5.7891989,-2.8263698,5.3419914,0.69174373,-0.33771917,0.63830751,0
6.666657,-1.0261135,4.9349918,0.79766524,-0.12277444,0.59047157,0
7.5216193,2.162369,-2.8311372,0.90375668,0.25981843,-0.34017396,0
4.6336513,-1.5364693,-6.871438,0.54972696,-0.18228361,-0.81521344,0
4.5004058,-0.016795456,-7.0360413,0.53882658,-0.002010894,-0.84241432,0
-1.7215828,3.1037085,-7.3846102,-0.21012212,0.37881291,-0.9013043,0
-0.31967789,5.8906579,-5.8644166,-0.03843087,0.70816004,-0.70500535,0
-4.9717422,3.346869,6.004003,-0.58605647,0.39452049,0.70773679,0
-5.1747007,-4.6866784,4.3702378,-0.62825739,-0.56900692,0.53058803,0
-7.5374813,-2.1339986,3.1552114,-0.89250702,-0.25268504,0.37360603,0
5.4096551,-6.294642,-1.8779262,0.63571113,-0.73970962,-0.22068295,0
-4.1922088,6.8966331,-2.5215964,-0.49579272,0.81563222,-0.2982173,0
-6.2854252,2.8260207,-5.152873,-0.73044348,0.32841825,-0.598827,0
-1.5129416,1.8979104,-7.9342942,-0.1823429,0.22874014,-0.95625776,0
5.8902831,4.2056818,-3.9446797,0.7145977,0.51022518,-0.47856089,0
-5.5374293,6.0293107,-1.2398443,-0.66879833,0.72820669,-0.14974563,0
-0.49288732,7.0503569,-4.5956812,-0.058465838,0.83630681,-0.54513544,0
-0.56230527,6.4170589,-5.2872114,-0.067474209,0.77001941,-0.63444257,0
-6.5157628,4.8298421,-2.1971447,-0.77541143,0.5747776,-0.26147225,0
-6.4943833,3.9072778,-4.0641813,-0.75515372,0.45433033,-0.47257474,0
7.5090089,-1.3989996,-3.9747851,0.87207222,-0.16247532,-0.46161881,0
-5.9352045,0.090157203,5.8025894,-0.71500796,0.010861145,0.69903195,0
0.75327414,-2.6174178,-7.8454561,0.090703614,-0.31516978,-0.94469088,0
-6.4474549,-0.17643619,5.2788243,-0.77357018,-0.021168936,0.63335705,0
-3.0055277,-2.6060498,7.5111699,-0.35361019,-0.30661029,0.88371372,0
-8.1586332,0.86142421,-0.47894314,-0.99278182,0.10482225,-0.05828011,0
2.237849,-3.5175416,-7.3745065,0.26416558,-0.41522613,-0.87051928,0
-6.3616881,-5.1473904,-1.1280824,-0.77011424,-0.62311745,-0.13656004,0
5.3947392,-3.9096451,-5.3427916,0.63169223,-0.45779645,-0.62560952,0
-7.5630951,1.5020672,3.5740304,-0.88989723,0.17673787,0.42053148,0
6.7391334,2.1889839,4.3572593,0.81016243,0.26315439,0.52381927,0
-4.2813282,-6.5747828,2.759795,-0.5147627,-0.79051471,0.33182216,0
-3.5156088,-6.4197092,4.063529,-0.41994241,-0.76683962,0.48539194,0
7.9718871,2.0655012,2.4643562,0.92740053,0.24028777,0.28668812,0
2.4112895,6.8012218,3.9172647,0.29367584,0.82833457,0.47709161,0
2.535548,-4.7552514,6.6082296,0.29735443,-0.55766845,0.77497506,0
-7.3404717,3.5803607,1.9101932,-0.87516683,0.42686805,0.22774255,0
2.420598,5.1512609,6.3098145,0.28485799,0.60620469,0.74254423,0
0.3392472,-4.9012742,6.8177242,0.040369716,-0.58324152,0.81129509,0
7.2283583,-4.0683413,0.97855604,0.8654505,-0.48710203,0.1171624,0
0.35027829,7.7365294,-2.7856455,0.042560052,0.94001567,-0.33846578,0
5.8328285,1.6836656,5.6664968,0.70236409,0.20273976,0.68233514,0
6.8030777,-0.84055972,5.0635238,0.79827839,-0.098631926,0.59415776,0
5.5175743,1.7255458,6.1731958,0.65238756,0.20402527,0.72990704,0
7.4207401,3.8327625,-0.9081409,0.88328272,0.45620957,-0.10809503,0
4.7579498,5.2352152,-4.4121218,0.5706749,0.62791872,-0.52919579,0
-5.9837327,5.6625791,-1.4085052,-0.71594119,0.67751586,-0.16852473,0
-4.6031523,-3.8297939,5.9053278,-0.54733831,-0.45538208,0.70217365,0
-8.3304939,0.34708086,-1.7592288,-0.97760886,0.040730998,-0.20645086,0
7.4903502,-3.1608958,-2.2182982,0.88883173,-0.37508318,-0.26323119,0
1.0264276,-8.3470783,1.3055369,0.12060464,-0.98077679,0.15339981,0
-1.8431005,4.248312,-7.1819377,-0.21568108,0.49714082,-0.84043598,0
4.8192782,6.7387443,2.0836127,0.56414056,0.78883165,0.24390592,0
-2.2629249,-3.2175212,7.5397043,-0.26609683,-0.37834758,0.88659215,0
4.9419923,5.8760848,-3.2290075,0.5933224,0.70546705,-0.38766602,0
-3.4633851,-6.927947,-3.4044321,-0.40935487,-0.81884885,-0.40238693,0
5.3114066,4.0882177,4.7908721,0.64468586,0.49621812,0.58150464,0
8.2951412,-1.7707909,0.28367159,0.97741848,-0.20865272,0.033425089,0
-5.5960112,-5.8473172,2.0269291,-0.6706987,-0.70081848,0.24293353,0
1.6611537,6.6038218,-4.7046366,0.2007028,0.79788256,-0.56842047,0
6.0654483,5.1651826,-3.1011269,0.70949042,0.60418409,-0.36274645,0
0.036617208,-8.1990337,-0.50275242,0.0044576228,-0.99811542,-0.061202936,0
-4.1862245,-6.7063217,2.5109859,-0.50467849,-0.80849379,0.30271682,0
3.6178913,6.6087508,-3.9940088,0.42426583,0.77500039,-0.46837267,0
1.1548349,1.0295757,8.1848259,0.13863949,0.12360197,0.9825995,0
-2.0239947,-0.95086277,8.0011358,-0.24362703,-0.11445478,0.96309191,0
-3.4380836,-0.87149125,7.5082598,-0.41403502,-0.1049503,0.90419048,0
1.1632122,1.0239706,-8.4507256,0.13538879,0.11918216,-0.98359829,0
-2.6003995,-5.3177915,6.1800704,-0.3038666,-0.62140423,0.72216481,0
-7.0305567,-4.3464694,-1.4712052,-0.83741641,-0.51771218,-0.17523667,0
-8.0382586,2.3046951,-0.96108234,-0.95498246,0.27380848,-0.11418105,0
-2.5894766,-6.112247,5.1127782,-0.30904847,-0.72948354,0.61019909,0
-2.8125544,4.2945976,-6.5123315,-0.33917108,0.51789337,-0.78533399,0
6.0673871,4.7078619,3.6496406,0.71357805,0.55368596,0.42922983,0
8.1599302,1.9225171,0.74031663,0.9695766,0.22843671,0.087965667,0
4.211184,3.9775124,6.2595415,0.49377364,0.46637493,0.73394954,0
-6.7474103,-4.7034783,0.63891697,-0.81789213,-0.57013547,0.077446774,0
-8.2443113,-0.0426028,-0.14219715,-0.99983793,-0.0051667015,-0.017245116,0
-0.50735229,-6.9439602,-4.7468863,-0.060207859,-0.82404476,-0.5633164,0
0.1629611,2.457921,-8.0318785,0.01939752,0.29257026,-0.9560473,0
-6.986937,1.2629325,-4.4741611,-0.83254313,0.15048738,-0.53312802,0
0.85126179,-8.0647564,1.7047127,0.10272509,-0.97320569,0.20571434,0
-5.0592852,-6.732542,-0.76264334,-0.59830219,-0.79617864,-0.090188861,0
3.8465519,3.3988488,6.7975907,0.45158219,0.39902219,0.79803181,0
6.9444079,-0.025672048,-4.5370655,0.83715928,-0.0030948056,-0.54695034,0
-5.4092574,5.9853749,-2.2631662,-0.64557749,0.71433526,-0.27010161,0
6.6336002,4.7273355,-2.2871003,0.78405005,0.55874145,-0.27032095,0
3.4241855,5.5161023,-5.4829407,0.40294278,0.64911014,-0.64520782,0
6.4304752,-2.4209397,4.9062901,0.76163715,-0.28674048,0.58110988,0
-8.1475191,1.232684,-0.25010249,-0.98829257,0.14952435,-0.030337386,0
-1.8305601,-7.203722,4.3042951,-0.21312757,-0.83871144,0.50113839,0
6.2325106,1.4726934,-5.4386263,0.74179906,0.17528132,-0.64731026,0
-0.57454765,-5.279726,6.618546,-0.067706034,-0.62217522,0.7799449,0
1.9418261,0.99809307,8.2062464,0.2286728,0.11753716,0.96638179,0
-5.5853024,-5.5824928,2.600389,-0.67179847,-0.67146051,0.312774,0
-6.0834103,-4.3464122,-3.6390014,-0.73160666,-0.5227108,-0.43763572,0
1.8842939,-1.5209022,7.9382582,0.22704042,-0.18325499,0.95648849,0
2.3792353,4.9552212,-6.2417226,0.28606564,0.59578747,-0.75046903,0
7.5938749,2.7847056,-2.096211,0.90883934,0.33327517,-0.25087574,0
-3.8690445,7.4609194,0.49132028,-0.4595719,0.88622111,0.058359887,0
3.8358223,0.63507444,-7.6020994,0.44922987,0.07437633,-0.890315,0
8.3200083,0.71099037,-1.4770547,0.98113763,0.083843596,-0.17418179,0
-4.230124,-4.4893799,-5.9343243,-0.49420339,-0.52449214,-0.6933043,0
5.2614007,0.73121566,6.7239151,0.61400288,0.085332505,0.78467757,0
-7.0530701,-1.7262851,-4.2088227,-0.84036583,-0.20568505,-0.50147676,0
-0.048327152,5.3812995,-6.5694885,-0.0056907125,0.6336692,-0.77358317,0
-0.24300015,-6.7121034,-5.1105776,-0.028792337,-0.79529643,-0.60553658,0
-4.7616692,4.6435051,-4.7464285,-0.58275676,0.56829524,-0.58089155,0
5.0308433,-4.5235939,5.3525085,0.58316463,-0.52436537,0.62045139,0
6.545188,2.2124696,4.5374813,0.79184085,0.26766592,0.54894727,0
2.3834076,-1.322602,-7.984931,0.28248265,-0.15675546,-0.94637805,0
-6.5083823,-4.5478458,-3.075491,-0.76436764,-0.53411525,-0.36119664,0
-6.6833081,-1.6619076,-5.09479,-0.7801652,-0.1940001,-0.59473211,0
1.5186573,-3.6501822,-7.2567277,0.18377247,-0.44170794,-0.87813544,0
5.5942979,-5.3442717,-3.4225984,0.6612646,-0.63171065,-0.4045625,0
2.2356262,-4.6291018,6.8801894,0.26030236,-0.5389837,0.80108631,0
-5.783361,-4.9627762,3.3690414,-0.69409126,-0.59560859,0.40433621,0
-3.2360013,-3.4851129,6.8160944,-0.38935199,-0.41932482,0.82010472,0
7.510581,1.0581096,3.7824357,0.88614488,0.12484233,0.4462752,0
-2.5667572,6.8516636,4.2140131,-0.30399475,0.81147909,0.49908805,0
2.118418,-6.2938304,-5.0723405,0.25350988,-0.75317913,-0.60700411,0
5.3771987,1.0765352,-6.2695894,0.64555907,0.12924333,-0.75269496,0
-1.0257833,6.6517653,4.9937935,-0.12239824,0.79370016,0.59586811,0
-5.8262768,3.8008597,4.7663159,-0.69091779,0.45073065,0.56522071,0
5.0490637,-5.6016994,4.0244088,0.59067339,-0.6553244,0.47080237,0
-7.3836894,3.6291564,2.2963343,-0.86441576,0.42486891,0.26883411,0
7.7211957,-1.5730462,3.0002236,0.91573989,-0.18656452,0.35582888,0
6.2246122,-0.38167882,-5.8814178,0.72613972,-0.04452521,-0.686104,0
6.2240853,2.6978505,5.0814714,0.73433703,0.31830084,0.5995279,0
-0.010891589,5.1956615,-6.6325693,-0.0012927214,0.6166724,-0.78721881,0
2.1148658,-5.8256865,-5.6113777,0.25295764,-0.69680637,-0.67117304,0
-1.1642061,-7.7883987,-2.6824567,-0.13994104,-0.9361887,-0.32243928,0
-6.3583827,0.034843471,5.2908425,-0.76867861,0.0042123022,0.63962138,0
-5.6510005,5.7038074,-1.9520822,-0.68388867,0.69027942,-0.23624256,0
-1.446061,8.3117046,-0.54577887,-0.17104658,0.98314571,-0.064557172,0
7.8052731,2.8442595,-1.5615902,0.92338955,0.3364853,-0.18474127,0
-0.78191215,3.6543562,-7.2398639,-0.095969886,0.44852626,-0.88860226,0
-1.9756398,6.648778,4.7222457,-0.23544727,0.79236943,0.5627746,0
-0.57095993,-7.1653337,4.540431,-0.067156181,-0.842785,0.5340445,0
-4.1508818,-7.2660251,0.15490612,-0.49595195,-0.86815274,0.018508356,0
4.8548479,-2.0757663,6.3748412,0.58651155,-0.25077221,0.77014112,0
-5.9905386,-5.5105,-2.2979705,-0.70829338,-0.65153581,-0.27170131,0
3.6131418,4.9718084,5.7230244,0.4302375,0.5920217,0.68147331,0
-5.2610135,-3.1710215,-5.8588719,-0.61975813,-0.3735528,-0.6901871,0
-0.89939952,8.1374454,1.750039,-0.10743009,0.97198904,0.20903595,0
-3.7046759,-7.6063032,-0.0389468,-0.43787315,-0.89902496,-0.0046033063,0
-2.5304532,7.751646,-0.85798091,-0.3086209,0.94541168,-0.10464167,0
4.4226475,-2.4420815,-6.6548748,0.5293228,-0.29227957,-0.79648608,0
-1.2902601,6.7710242,4.8709121,-0.15287042,0.80223304,0.57710719,0
-6.9305534,-2.0013692,4.5312457,-0.81355822,-0.23493512,0.53191018,0
-6.3475528,5.392664,0.3296082,-0.76150656,0.64694995,0.039542608,0
-2.4390128,1.6949977,-7.9015656,-0.28893605,0.20079678,-0.93605375,0
-1.4312557,-5.6100245,-6.3709273,-0.16625704,-0.6516698,-0.74005753,0
-4.6644263,-5.8682156,3.5422289,-0.56259102,-0.70778382,0.4272393,0
-5.9679742,5.407506,-2.6218204,-0.70464623,0.63847107,-0.30956164,0
1.9209235,-5.5785294,-6.2656178,0.22320044,-0.64819354,-0.72802937,0
3.1491189,4.7925982,-6.1874967,0.37328222,0.56809282,-0.73343772,0
-7.8912234,-2.5202851,-2.0802739,-0.92390931,-0.29507655,-0.24355975,0
-6.8546615,4.3393197,0.97504127,-0.83889145,0.5310573,0.1193281,0
2.7346165,-7.6502929,1.9727662,0.32709011,-0.91505891,0.23596446,0
5.530005,5.1695256,-3.4374685,0.66515076,0.6217922,-0.41345981,0
6.3746428,-4.0698776,3.7353063,0.75571984,-0.4824878,0.44282404,0
3.9451606,-1.7586179,-7.3306684,0.46366918,-0.20668788,-0.86156315,0
3.1053357,7.5140653,-2.4409425,0.36580861,0.88515699,-0.28754306,0
-3.3481457,-0.31807283,-7.6616716,-0.40014434,-0.038013592,-0.91566342,0
3.2799594,-4.0480185,6.7303839,0.38536415,-0.47560379,0.79075629,0
-2.5158646,-2.391521,-7.8686051,-0.29253471,-0.2780765,-0.91492999,0
-0.12190899,5.5138597,-6.5539422,-0.014232184,0.64371186,-0.76513559,0
1.9304957,6.7406998,4.5039535,0.23165114,0.80885482,0.54045492,0
7.2620888,0.14651406,4.1506243,0.86806571,0.017513394,0.49614024,0
-6.4906111,5.165977,-0.47690099,-0.78113568,0.62171787,-0.057394344,0
1.1770569,-8.0953455,1.6430718,0.14106886,-0.97021747,0.19692019,0
5.1106834,4.3744121,-5.0703249,0.60668564,0.51928341,-0.60189474,0
2.7664287,3.1012237,-7.0912004,0.3365798,0.37731293,-0.86275667,0
4.2037916,4.7722144,-5.3035522,0.50764817,0.57629067,-0.64045483,0
2.1562164,-2.248132,8.0279665,0.2503987,-0.26107275,0.93227768,0
1.8080776,0.82707512,-8.0414248,0.21827246,0.099845119,-0.97076672,0
0.0070353998,-3.0698814,-7.6921015,0.00084947376,-0.37066603,-0.92876577,0
7.1501265,4.7344489,-0.63201493,0.8315295,0.55059642,-0.07350067,0
-2.5122197,-0.39832512,-8.1432114,-0.2944735,-0.046690259,-0.95451838,0
1.7568648,-7.2582145,-4.2383413,0.20460251,-0.84528357,-0.4935925,0
5.672565,2.7970486,5.4430604,0.67980808,0.33520219,0.65230393,0
-7.3162894,-2.0751288,3.6901398,-0.86553681,-0.24549334,0.43655351,0
8.1037979,2.5692146,0.18131249,0.95302349,0.30214497,0.021322725,0
2.1489716,2.1638088,7.9836516,0.25145122,0.25318733,0.93416733,0
3.932435,7.4873624,0.95492077,0.4620434,0.87973136,0.11219889,0
1.7840613,2.7654803,7.572041,0.21608472,0.33495376,0.9171223,0
1.8856114,-7.4426942,3.6678631,0.22160298,-0.8746888,0.43105879,0
-3.4149549,-1.7998627,7.5979657,-0.40070564,-0.21119316,0.89153379,0
2.6708763,7.3722849,-2.7089753,0.3219496,0.88866127,-0.32654211,0
4.878777,6.751637,1.2950732,0.57874238,0.80090946,0.15362738,0
2.1741447,-3.4751155,-7.1984262,0.26245868,-0.41950944,-0.86898053,0
4.0221128,-7.007031,1.9717869,0.4836317,-0.84254783,0.23709396,0
-1.0121142,-1.4901428,-8.2912521,-0.11928727,-0.1756275,-0.97720289,0
-7.4772735,-4.1424198,-1.1221024,-0.86729324,-0.48048165,-0.1301533,0
-3.2580118,-7.2562909,-2.793381,-0.38646069,-0.86073083,-0.33134684,0
1.1019763,-5.2148185,-6.5695205,0.13026118,-0.61642742,-0.77656251,0
4.3889298,-5.9047165,-3.8599675,0.52825892,-0.71070147,-0.4645921,0
3.3404186,2.0060005,7.6821842,0.38779628,0.23288086,0.89184111,0
-4.3548942,1.7839643,6.8334899,-0.5248605,0.21500692,0.82358581,0
-4.3044357,3.7832813,6.2734694,-0.50658721,0.44525278,0.73832196,0
-5.6681108,-6.0881009,-2.2217584,-0.65833247,-0.70711291,-0.25804994,0
-3.135129,-2.1732767,7.4325647,-0.375269,-0.26013711,0.88966393,0
-3.1794338,7.4461007,2.6519716,-0.37318388,0.87398094,0.31127334,0
3.5535905,-3.5242403,-6.638155,0.42745101,-0.42392054,-0.79848427,0
6.2629871,-1.1508486,5.5942187,0.7388972,-0.13577528,0.65999699,0
6.1833916,2.790575,-4.8171802,0.74317211,0.33539483,-0.5789693,0
0.48815659,7.1722546,-4.174006,0.058723819,0.86280137,-0.50212079,0
-0.66727334,8.1764565,1.5711082,-0.079886869,0.97889644,0.1880952,0
4.5746431,1.1918216,7.1519518,0.53360373,0.13901858,0.83423078,0
-3.1119511,-7.4765763,-1.8839592,-0.37427509,-0.89920956,-0.2265842,0
5.5857663,3.4208653,5.1933951,0.66822624,0.40923873,0.62128681,0
1.3611658,-7.0840616,-3.8387544,0.16657563,-0.86692744,-0.46977594,0
-6.9763608,2.1414967,-3.9245572,-0.84194571,0.25844765,-0.47363722,0
-1.236967,6.9181294,-4.4362292,-0.14883704,0.83241832,-0.5337857,0
-1.0627397,-8.3833847,-0.065463364,-0.12575714,-0.9920308,-0.0077464744,0
6.6749864,3.4909124,-3.3242195,0.81069976,0.42398316,-0.40373772,0
1.0016822,4.5578251,-6.8378243,0.12099855,0.55056405,-0.82597739,0
2.645324,-5.7708416,-5.2235131,0.32177499,-0.70196033,-0.63538373,0
5.2219296,-0.59139711,-6.4117961,0.62988263,-0.071335845,-0.7734074,0
-5.9195104,2.2269115,5.4612393,-0.70840353,0.26650041,0.653561,0
-6.1221757,5.7694521,1.6808302,-0.7136547,0.6725381,0.19593237,0
-4.8349957,-4.6877866,-5.0396028,-0.57482082,-0.55731946,-0.59914607,0
0.3985725,-7.4905009,3.7191856,0.047604937,-0.89465487,0.44421428,0
-7.1569977,0.65288955,4.6249762,-0.83743787,0.076394387,0.5411669,0
1.5120066,1.1369951,-8.0875416,0.18204102,0.13689077,-0.97371554,0
3.9959548,2.5868044,6.946661,0.47451568,0.30718046,0.82490915,0
-7.750124,2.8443036,-1.6240232,-0.92112112,0.33805242,-0.19301912,0
3.5184906,6.4305439,3.8035629,0.42605743,0.7786808,0.46057713,0
6.5681362,0.73131943,-5.2566743,0.7778098,0.086604081,-0.62250423,0
-4.8601694,-1.877576,6.4861636,-0.58417839,-0.22567923,0.7796182,0
0.69111925,7.9968491,-2.0019109,0.0835438,0.96667421,-0.24199477,0
7.4052916,-4.0346141,1.4491448,0.86544156,-0.47151726,0.16935866,0
7.7880545,-2.119941,1.8077849,0.94156438,-0.25629777,0.21855855,0
4.1579628,4.8627906,-5.2909966,0.5008139,0.58570826,-0.63728434,0
-4.8225417,-2.0763004,-6.5070515,-0.57677633,-0.24832566,-0.77824378,0
-1.3872864,5.5352983,6.2401848,-0.16405936,0.65459985,0.73795915,0
3.6413431,1.7658962,-7.1337538,0.44397309,0.21530803,-0.86978751,0
-8.0415707,-1.8971479,-0.43587011,-0.97193021,-0.22929542,-0.052680667,0
4.2976074,-6.1365876,-3.8865225,0.50920022,-0.72709101,-0.460493,0
1.1016126,4.0273309,-7.3619237,0.13016038,0.47584686,-0.86984366,0
-5.9983325,-0.57702625,-6.0045886,-0.70511043,-0.067830056,-0.70584583,0
7.6232924,-3.5247285,0.49872455,0.90607834,-0.41893712,0.059276685,0
-1.6181496,-6.9204469,4.8334656,-0.1882672,-0.80517471,0.56236023,0
4.9604511,-4.333077,5.3060536,0.58648831,-0.51231205,0.62734991,0
3.5332975,3.783556,6.7650251,0.41477868,0.44415689,0.79415566,0
-6.5966449,4.5702891,1.6862984,-0.80442786,0.55732387,0.20563565,0
-6.4682159,4.7679048,2.8177767,-0.7595979,0.55992109,0.3309069,0
6.400712,-4.8531199,2.7246275,0.75461692,-0.57216233,0.32122207,0
-4.5479918,5.5960073,4.0756783,-0.54906505,0.67558879,0.49204412,0
-5.2344322,2.8865793,-5.8270707,-0.62704057,0.3457877,-0.69803363,0
-4.41752,-2.3299336,6.8879905,-0.51921445,-0.27384943,0.80958194,0
-3.5954645,-1.8179156,-7.2630367,-0.43289363,-0.21887688,-0.87446904,0
-5.7251034,2.8469872,-5.2283354,-0.69316244,0.34469676,-0.63301665,0
7.772666,3.1446676,-1.0446188,0.91989362,0.37217087,-0.12363046,0
-7.0599313,4.281631,-2.1775572,-0.82677406,0.50141299,-0.25500926,0
-0.94829887,-8.3846388,-1.3245845,-0.11102348,-0.98164386,-0.15507767,0
-5.5775795,2.0607526,-5.8437757,-0.66901404,0.24718113,-0.70094347,0
5.7908669,-2.035768,5.8575172,0.68251234,-0.23993589,0.69036776,0
5.0511909,6.3538499,-2.0949919,0.60255063,0.75794333,-0.24990913,0
-7.0636654,-4.1760211,2.2518699,-0.830127,-0.490769,0.26464137,0
-2.1753013,-7.5768242,-2.5352829,-0.26269943,-0.9150123,-0.30617246,0
4.8346729,-0.70649618,-6.6669607,0.58490884,-0.085473388,-0.80658287,0
-1.6296111,-1.0039313,-8.2262869,-0.1929442,-0.11886438,-0.97398347,0
1.0842329,5.2925715,-6.4438891,0.12893784,0.6293968,-0.76631242,0
-0.92946857,7.7471032,3.0288429,-0.1110488,0.92558968,0.36187276,0
5.6130466,-5.8293419,2.3602278,0.66587323,-0.69153225,0.27999279,0
7.6667581,0.23927286,-3.0127778,0.93032449,0.02903462,-0.36558619,0
2.5812135,-7.7137733,2.7726908,0.30035892,-0.89760131,0.32263988,0
-3.4060755,-1.8096061,7.5197859,-0.40302742,-0.21412352,0.88978648,0
-5.5446959,1.0721949,-6.1564465,-0.66369003,0.1283398,-0.73691547,0
7.3975997,-2.2760189,-2.7079692,0.90216082,-0.27756774,-0.33024547,0
-3.7524188,-0.1625637,7.6126399,-0.44204462,-0.019150423,0.89678866,0
-6.4962182,4.8265772,2.8554442,-0.75696093,0.5624088,0.33272585,0
7.3825722,0.66202098,-4.0997472,0.87156755,0.078156501,-0.48400563,0
-7.5655799,0.40613919,3.9749029,-0.88425672,0.047469106,0.46458232,0
-5.6839461,-5.9195256,2.0454037,-0.67204857,-0.69990265,0.24184091,0
-7.3980017,-1.2379104,3.7980628,-0.87991595,-0.14723666,0.45174035,0
-3.7556858,4.8681164,5.5288868,-0.45420203,0.58873624,0.66864794,0
7.5904069,-3.3670878,0.97512066,0.90786016,-0.40272477,0.11663053,0
5.7301965,-5.0213447,-3.0524476,0.69814807,-0.61178392,-0.37190005,0
-7.8973188,2.7293661,0.8269248,-0.9405511,0.32506073,0.098484695,0
1.3691041,-5.7197042,-5.7726593,0.16613451,-0.69405985,-0.70048571,0
-3.6828737,-5.9148021,4.9290524,-0.43150911,-0.69301611,0.57751936,0
6.5977974,3.2838409,-3.8469903,0.79362684,0.39500216,-0.46274152,0
-3.6512239,-7.5545497,-1.4624951,-0.42869169,-0.88698274,-0.17171215,0
0.016935039,-6.663619,-5.0770702,0.0020215162,-0.79542857,-0.60604405,0
5.8824158,-4.1665931,-4.475872,0.69326502,-0.49104881,-0.52749854,0
4.2911558,7.0931406,-1.2435064,0.51189411,0.84614426,-0.1483385,0
-4.8290482,-5.2218976,4.6954074,-0.56661654,-0.61271149,0.55093575,0
-2.4908373,-5.5646586,-5.843997,-0.29493997,-0.65891105,-0.69198745,0
0.85481793,-5.7934256,-6.2074318,0.10016783,-0.67887545,-0.7273888,0
0.9081347,6.4311481,4.9275117,0.11139215,0.78884709,0.60441047,0
-4.9424829,-4.4257126,5.0351582,-0.59342515,-0.53137851,0.60455233,0
1.8849742,4.0203714,6.835402,0.23125605,0.49323496,0.83859396,0
1.6121534,-8.2159624,1.5966164,0.18914191,-0.96391749,0.18731909,0
4.1537428,1.3998967,7.2751141,0.4890461,0.1648186,0.85654467,0
4.8651185,6.1110291,-3.0514002,0.58014727,0.72871745,-0.36386809,0
-1.9332665,5.5382729,-5.962872,-0.23112595,0.66211182,-0.71287352,0
3.990725,7.4669447,-0.47376966,0.47062007,0.88056529,-0.055870928,0
7.1342616,2.2567596,3.9165914,0.84471822,0.26720721,0.46373633,0
-0.68501318,-8.5462198,0.57442743,-0.07971897,-0.9945733,0.066849463,0
6.2021556,5.6276975,1.4577314,0.72960126,0.6620239,0.17148274,0
-3.3727021,0.1355722,-7.5953288,-0.40578306,0.016311225,-0.9138239,0
-1.9213748,8.3247061,0.17497337,-0.22484446,0.97417951,0.020475855,0
-2.1295819,-8.1598778,1.0592278,-0.25055519,-0.96004742,0.12462307,0
-7.1281848,3.8796248,1.8145657,-0.85716939,0.4665277,0.21820284,0
-5.1042719,-5.5326648,-3.1643155,-0.62509525,-0.67755848,-0.38751829,0
-8.3122501,-0.89738071,0.97214669,-0.98756909,-0.1066168,0.11549965,0
-0.33782107,-5.3155532,6.5346961,-0.040071819,-0.63052279,0.77513564,0
-1.1304352,-5.0898986,-6.4929867,-0.13575061,-0.61123079,-0.77972347,0
-0.52788657,-5.5325675,6.047327,-0.06427224,-0.67361158,0.73628557,0
-0.46536675,-0.81678152,8.2520742,-0.056031521,-0.098342888,0.9935739,0
-2.3251941,6.2479568,5.3867311,-0.27128932,0.72897309,0.62849057,0
4.9847412,-2.8751531,6.2277613,0.58786917,-0.33907756,0.73446316,0
3.2162619,7.7774372,1.9066603,0.37270558,0.90126187,0.22094685,0
8.3955603,0.19495174,-1.421262,0.98571342,0.022889068,-0.16686881,0
2.0636995,1.6684147,8.0882082,0.24243346,0.19599731,0.95016366,0
0.59583646,7.92032,-2.2454154,0.07218767,0.95957446,-0.27203992,0
-4.6108212,-5.4122519,-4.3240948,-0.554075,-0.65038168,-0.51961952,0
1.9736999,4.7053461,-6.8399405,0.23128855,0.55139726,-0.80154026,0
2.7906129,7.7967234,-0.47257015,0.33643892,0.93998027,-0.056973502,0
-8.1822548,-0.94786155,1.313861,-0.98095626,-0.11363747,0.15751651,0
-7.4867458,1.4928468,-3.4870551,-0.89204121,0.17787179,-0.41548049,0
7.4290347,4.1917372,-0.28362414,0.87044728,0.49113867,-0.033231754,0
-6.1001019,0.51746666,-6.0561886,-0.70837408,0.060090795,-0.70327467,0
-4.9323106,4.2370734,-5.3423719,-0.58609509,0.50348169,-0.63482177,0
0.32507551,-5.2486362,-6.515008,0.038826458,-0.6268881,-0.77814132,0
6.883203,4.6077428,-0.29455721,0.83046848,0.55593085,-0.035538755,0
-1.093617,-2.8858678,-7.8026085,-0.13033579,-0.34393385,-0.9299044,0
-2.5184393,-2.5038004,-7.4004135,-0.30681282,-0.30502939,-0.90156698,0
-3.4834373,7.1884394,-1.7044477,-0.42648357,0.88009369,-0.20867863,0
-1.4138509,-2.7893031,-7.6951485,-0.17021443,-0.33580601,-0.92642397,0
0.066662528,-5.5453086,6.3262997,0.0079238424,-0.65914315,0.75197566,0
-7.3312755,-3.3416743,-1.4337163,-0.89585894,-0.40834215,-0.17519565,0
-7.6366262,-1.8532528,3.1913567,-0.9003768,-0.21850301,0.37626871,0
1.1982147,0.74260598,8.4553061,0.13978219,0.086631469,0.98638523,0
6.6369443,-4.9809608,-0.33448058,0.79916286,-0.59976381,-0.040275231,0
5.0335069,-6.545619,-0.87552643,0.60619211,-0.78829783,-0.10544084,0
2.4187067,7.8100753,-0.54668748,0.29517001,0.95311266,-0.066715717,0
3.4022982,-6.749578,-3.3815298,0.41087928,-0.81511426,-0.40837118,0
-5.5768147,3.6270077,-5.1279287,-0.66394556,0.43181205,-0.61050361,0
-6.4388113,-5.214345,0.73380148,-0.77409828,-0.62688828,0.088220395,0
-2.3558719,4.6144705,6.5998659,-0.28077605,0.54995894,0.7865811,0
-3.0168455,7.7900863,-0.58828527,-0.36024025,0.93021095,-0.070246898,0
0.81929862,3.8601425,-7.4740143,0.096937828,0.45672458,-0.8843109,0
-7.3740849,3.4254487,2.2381618,-0.87440306,0.40618229,0.26539639,0
-6.7978492,-4.3749356,-1.7167375,-0.82255989,-0.5293802,-0.20773032,0
6.1862593,4.0107408,-4.1928973,0.72938067,0.47287977,-0.49435663,0
2.3859839,-7.6244459,-2.8003545,0.28184327,-0.90063423,-0.33079061,0
-3.1681488,-1.9071801,-7.3694239,-0.38424274,-0.23130861,-0.89378619,0
2.7446854,7.2564902,3.2174475,0.32679012,0.86397856,0.38307855,0
6.8179636,-2.2365673,-4.1405883,0.82298791,-0.26997325,-0.49980527,0
-7.4329062,0.87558275,3.3363321,-0.90708727,0.10685322,0.40715495,0
-7.6647696,-2.9318426,1.5128967,-0.91852456,-0.35134381,0.1813013,0
2.070776,0.23612647,-8.1006908,0.24756685,0.028229555,-0.96845943,0
1.3587265,-3.3092723,7.4797912,0.16387489,-0.39912862,0.9021315,0
-7.0818434,2.230324,4.2153139,-0.82945973,0.26122633,0.49371794,0
2.6390755,3.8699882,-6.9798303,0.31395426,0.46038821,-0.83034658,0
7.6231937,3.4267409,-1.1287932,0.90388072,0.40630805,-0.13384081,0
4.1876383,-3.0323896,-6.4286656,0.50760388,-0.36757064,-0.77924967,0
6.9857316,-1.9877155,-4.4466448,0.82029623,-0.23340654,-0.52214515,0
5.701036,-5.5464158,-3.121594,0.66721517,-0.64911932,-0.36533269,0
-2.2879508,2.9279749,-7.664824,-0.26860011,0.34373745,-0.89983255,0
1.3095977,-6.2000232,5.2685404,0.15891391,-0.75234544,0.63931412,0
1.2619516,8.171627,1.9225042,0.14865632,0.9626075,0.22646861,0
1.0068382,6.8763218,4.8443975,0.11885055,0.81170404,0.57184893,0
6.406827,1.5695125,-5.1329193,0.76654202,0.18778364,-0.61412591,0
6.5484052,-4.3543587,3.0454142,0.77651542,-0.51634353,0.36112779,0
2.4117093,-1.8529693,-7.8417745,0.28673613,-0.22030568,-0.93233466,0
-5.7381644,5.5215793,-2.759912,-0.68084389,0.65514565,-0.32746869,0
-2.3793027,5.1520033,6.2919006,-0.28080896,0.60804731,0.74257976,0
7.7787976,0.46292731,3.119482,0.926736,0.055151377,0.3716431,0
4.6129847,-6.7077918,-0.94953275,0.56282824,-0.81841469,-0.11585207,0
-8.1672926,0.13817094,-2.2118173,-0.96510237,0.01632721,-0.26136324,0
2.638252,7.8330073,-0.73201025,0.31794888,0.9439947,-0.088218197,0
2.1459703,-6.7799811,-4.3690305,0.25711444,-0.81232768,-0.52346522,0
-2.7157724,4.1661053,6.8271585,-0.32152957,0.49323943,0.8082906,0
8.1196184,-2.6259673,-0.8220669,0.94709349,-0.30629969,-0.095888026,0
5.5011888,4.3124166,4.6405149,0.65567333,0.51398647,0.5530917,0
-7.8320413,-0.12123102,2.8997076,-0.93769085,-0.014514379,0.34716737,0
2.312288,3.7083035,7.2157598,0.27409905,0.43958297,0.85535747,0
-5.7289114,-2.3047903,-5.7883172,-0.67686665,-0.27230927,-0.6838854,0
2.1246219,-8.1679373,-0.44713691,0.25138763,-0.96643943,-0.052905735,0
6.0842814,2.6336095,4.9616308,0.73474282,0.31803685,0.59917063,0
7.8884196,-2.5460117,-1.2948149,0.94025844,-0.3034713,-0.15433517,0
5.8758569,5.062705,2.9481318,0.70814967,0.6101498,0.35530454,0
7.3833175,1.5204134,3.8412993,0.87267756,0.17970657,0.45402569,0
-2.7886205,-7.0123219,-3.5958157,-0.33359244,-0.83885837,-0.43015423,0
0.67603171,-5.0792327,6.5226192,0.081502743,-0.61235505,0.78637046,0
1.9652704,3.6718025,7.3935776,0.2315942,0.4326978,0.87128454,0
-1.7284129,-8.2390881,0.075775936,-0.20530464,-0.97865677,0.0090008304,0
-3.0283513,-5.4111228,5.7727952,-0.35745031,-0.63869983,0.68138969,0
3.5637603,-4.683805,6.0358672,0.42273185,-0.55559111,0.71597219,0
-8.4874544,0.095663071,-1.3080068,-0.98827112,0.011138917,-0.15230305,0
4.0441799,5.3036518,4.7261896,0.49473661,0.64881158,0.57816893,0
-6.2548137,1.3715886,-5.2238641,-0.75688034,0.16597272,-0.63212752,0
-6.732914,-4.7166977,0.80156904,-0.81515688,-0.57105267,0.097046323,0
7.5215707,-1.7666527,2.609082,0.92233753,-0.21663694,0.31994039,0
5.4478102,4.9654131,-3.8764827,0.65412998,0.59620756,-0.46545738,0
6.4097924,5.1359239,1.7755196,0.76277,0.6111787,0.21128812,0
0.060188439,1.6880076,8.1350298,0.0072441725,0.20316558,0.97911763,0
6.0962038,-0.74833798,5.5270915,0.73779672,-0.090568058,0.66891956,0
-0.097425237,8.1468248,2.4356928,-0.01145681,0.95803338,0.28642753,0
5.6774416,5.4862318,-3.459415,0.65865707,0.63647425,-0.40133712,0
-5.0875535,2.9576018,6.1314807,-0.59863651,0.34801176,0.72147214,0
-6.9467087,4.9724975,-0.52959228,-0.81159031,0.58094138,-0.061872747,0
-6.1791725,-2.1236849,-5.4024987,-0.72883415,-0.25048891,-0.63722539,0
-7.6216311,-3.3945665,-0.46940133,-0.91204983,-0.40621409,-0.056171361,0
-2.4049153,4.8180728,6.4409389,-0.28645551,0.57389271,0.76719642,0
-3.3042581,-0.93668282,-7.4852314,-0.40121916,-0.1137366,-0.90889335,0
6.9743624,2.1129804,-4.0506563,0.83650327,0.25343034,-0.48583469,0
-1.8662021,-6.6527925,-5.0576434,-0.21794212,-0.7769382,-0.59065068,0
-1.196537,6.5392289,5.4935207,-0.13874631,0.75826645,0.63700974,0
-6.7315269,-4.6901178,-1.8666861,-0.80004007,-0.55741918,-0.22185512,0
-6.4750361,5.1096344,-0.23538163,-0.78469515,0.61922514,-0.028525373,0
6.2713337,0.30978644,5.6344757,0.74336571,0.036720198,0.66787642,0
7.5924153,-0.82699758,-3.6448319,0.89718604,-0.09772525,-0.43070516,0
-5.9779568,-0.31038502,5.5995269,-0.72930658,-0.037866756,0.68313843,0
-1.4977843,-3.4531519,7.597805,-0.17664534,-0.40725705,0.89606822,0
1.607639,5.9979982,-5.6724653,0.19114552,0.71315169,-0.6744464,0
-6.1904263,-2.7383938,4.9892454,-0.73615915,-0.32564697,0.59331596,0
4.3066483,6.2117462,-3.507988,0.51681811,0.74543881,-0.42097509,0
-2.1011577,4.8499103,-6.6055851,-0.24836615,0.57328087,-0.7808094,0
-5.1055632,5.3117757,-3.6859088,-0.61974382,0.64477515,-0.44741768,0
1.6162113,-1.9509641,8.0275106,0.1919993,-0.23176657,0.95363545,0
6.1596031,5.6396475,-0.81218767,0.73408771,0.67212057,-0.09679471,0
2.9908783,2.9600027,-7.2852783,0.35549751,0.35182762,-0.8659324,0
1.703581,-3.6389713,-7.2584977,0.20534001,-0.43862101,-0.87489825,0
5.4000678,2.3496897,-6.0111928,0.64170116,0.27921847,-0.71432245,0
-5.2204981,0.11067816,-6.6138163,-0.61952245,0.013134303,-0.78486907,0
7.7727776,1.8532296,2.515413,0.92784679,0.22122248,0.3002682,0
-2.2318673,5.8048601,-5.3853168,-0.27129424,0.70560873,-0.65461123,0
6.7378678,2.1356943,-4.9289317,0.78191817,0.24784371,-0.57199419,0
5.5531797,-0.30281508,6.0907159,0.67329162,-0.036714617,0.73846483,0
3.4419181,-7.1907573,2.7997465,0.40735647,-0.8510375,0.33135444,0
-6.9565506,4.2022643,-1.8690531,-0.83417648,0.50390345,-0.22412258,0
-6.1012235,-4.7479343,3.5023866,-0.71886379,-0.55941534,0.41266131,0
-7.5386209,0.97940505,-3.4226043,-0.90424514,0.11747802,-0.41053575,0
2.8042967,3.9831917,-6.7673678,0.33631536,0.47769859,-0.81160092,0
-2.1938763,-8.086669,1.16117,-0.25935239,-0.95597774,0.13726945,0
6.2359099,3.497206,3.9831214,0.76193845,0.42730823,0.48668012,0
-0.95859283,7.645205,-3.0338955,-0.11576011,0.92323846,-0.36637461,0
0.19944644,5.9559312,6.0188513,0.023547631,0.70318663,0.71061528,0
6.191586,-4.4204688,3.5288718,0.73830199,-0.52710903,0.42079252,0
4.6535378,7.0987768,0.35720378,0.54775697,0.83558035,0.042045619,0
8.3120852,0.99278039,-1.2196747,0.98256826,0.11735617,-0.14417726,0
1.231335,-2.6485174,-7.840064,0.14717539,-0.3165642,-0.93708408,0
2.9390152,-4.2806716,6.3843679,0.35713843,-0.52017164,0.77580518,0
1.1166667,2.6053052,8.0064192,0.13147514,0.30674583,0.94266713,0
3.4997513,-5.5967021,5.5124865,0.40695101,-0.65078443,0.64099181,0
4.0534167,-1.9448471,-7.0081453,0.48682281,-0.23357971,-0.84169114,0
-3.6950946,3.3285124,6.7351718,-0.44134805,0.39756289,0.80445975,0
-2.1509063,6.7301044,4.6389885,-0.25447667,0.79624784,0.54884505,0
6.0531497,5.0356293,-3.3972285,0.70586485,0.5872106,-0.39615476,0
1.9956964,5.3254423,-6.0555744,0.24023077,0.64104694,-0.72893614,0
1.3472953,5.8275385,-5.8121161,0.16154562,0.6987431,-0.69689393,0
0.87236482,-3.5083077,7.5901713,0.10376479,-0.41730112,0.90282476,0
6.3479695,-4.2103071,-3.709168,0.74925405,-0.49694467,-0.43779495,0
-2.6803145,-4.6816669,6.5018778,-0.31725475,-0.55414432,0.76959312,0
-4.6810102,-6.7770762,0.85288972,-0.56529963,-0.81842989,0.10299876,0
-5.2901921,0.58738834,-6.5370326,-0.62754774,0.069678791,-0.77545387,0
5.5643344,-4.0790749,-4.8879094,0.65808725,-0.48242739,-0.57808727,0
-5.3182392,-0.3280614,-6.5707889,-0.62865561,-0.038779307,-0.77671629,0
2.7710125,-0.49421883,-7.904685,0.33024111,-0.058899544,-0.94205707,0
-2.6987252,4.1589308,-6.8431039,-0.31936371,0.49216256,-0.8098042,0
1.3970058,-5.1532187,6.1257944,0.17191702,-0.63416058,0.75384676,0
-5.4886117,4.6741514,-4.317976,-0.65314025,0.55622017,-0.51383561,0
6.2168617,-4.175209,3.8821888,0.73701143,-0.49497268,0.46023503,0
-0.34863687,6.0996118,-5.7489834,-0.041558132,0.72708452,-0.68528897,0
-0.34924841,7.7152815,3.0232997,-0.042109344,0.9302417,0.36452323,0
5.2910342,-2.8675318,-5.9729433,0.62401462,-0.3381913,-0.70443767,0
0.54350364,-4.1567311,7.3984141,0.063914925,-0.48882312,0.87003845,0
6.0133729,-0.5237844,-6.0710773,0.7024039,-0.061181672,-0.70914418,0
0.70734459,-7.1915593,4.0555711,0.085360803,-0.86786175,0.48941749,0
2.5303535,1.1574855,7.8878064,0.30252165,0.13838558,0.94304305,0
-1.6650017,6.1730895,5.3913784,-0.19908226,0.73810887,0.64464062,0
-4.1670899,-7.0755048,-1.5190805,-0.49900791,-0.84728986,-0.18190949,0
0.71094722,4.9406724,6.8161426,0.084151685,0.58480561,0.80679673,0
-0.38019061,7.3378649,-3.9325087,-0.04561992,0.88048679,-0.47187051,0
2.8972173,1.2280772,-7.9134378,0.34020334,0.14420594,-0.9292289,0
-4.5796604,-6.3220086,-2.9819245,-0.54802841,-0.75652778,-0.35683417,0
-3.1541424,-7.2316322,2.9183831,-0.37495661,-0.85967845,0.34693015,0
-5.1451845,-5.8455353,3.1466336,-0.61258918,-0.6959734,0.37464035,0
-2.9943876,-0.16606857,7.7868819,-0.35884881,-0.019901734,0.93318355,0
7.429647,-0.99464393,3.8474886,0.88178569,-0.11804906,0.45663819,0
-7.7164278,-0.85994649,3.0346954,-0.92565346,-0.10315815,0.36403844,0
7.9069915,-2.1655662,2.3891683,0.92596161,-0.2536023,0.2797876,0
0.98751825,-1.1643493,8.3691492,0.1160794,-0.13686529,0.98376495,0
-0.33364064,-3.9740951,-7.4452248,-0.039502464,-0.47052586,-0.8815015,0
-6.4433956,4.410965,2.8389676,-0.77550435,0.53088814,0.3416881,0
8.1007395,1.4643713,2.031708,0.95538348,0.17270476,0.2396152,0
5.0868225,-3.994499,5.3436747,0.60631937,-0.47612083,0.63693464,0
1.9124767,-7.2051787,-3.8531947,0.22790316,-0.85861599,-0.45917174,0
5.9919758,-0.049210586,6.0234694,0.70523918,-0.0057919514,0.70894587,0
8.2517023,0.036790874,1.4925499,0.98402292,0.0043873447,0.17798792,0
6.4797611,1.2094562,-4.9906025,0.78373641,0.14628546,-0.60362053,0
-2.5391819,3.5761447,-7.086009,-0.30469453,0.42912707,-0.85030067,0
1.2812862,3.1810946,-7.5423446,0.15464367,0.38393933,-0.91031641,0
5.3483639,5.3014469,-3.7567997,0.63552272,0.62994778,-0.44640413,0
7.301187,3.8054359,0.99438792,0.88038039,0.45886117,0.11990374,0
7.0590448,-0.13481534,4.6266084,0.83626115,-0.015971117,0.54809862,0
4.9529963,-1.3091642,-6.8318825,0.58001947,-0.15330936,-0.80004603,0
-0.2623322,8.519372,-0.86567104,-0.030620323,0.99441057,-0.10104412,0
7.3088989,4.4338026,0.43373215,0.85388333,0.51799184,0.050672017,0
1.8833907,3.5149014,-7.1322923,0.23048654,0.43014839,-0.87283927,0
-6.1730037,-2.7927122,-4.6939621,-0.74892539,-0.33881935,-0.56948411,0
3.5326738,6.5153675,-4.3040967,0.41218552,0.76020044,-0.50219363,0
-6.2676458,5.3690052,-0.25078213,-0.75910151,0.65026331,-0.030373303,0
7.5748267,1.7158219,-3.4308681,0.8921265,0.2020812,-0.40407106,0
1.7893617,6.0525703,-5.713428,0.21018079,0.71094286,-0.67110676,0
7.1618624,-3.5608969,2.5246518,0.85389781,-0.42456025,0.30101034,0
-5.8812356,1.0787804,5.9041409,-0.69989133,0.12837933,0.70261717,0
5.690083,-5.0670033,3.9620245,0.6625824,-0.59002781,0.46135843,0
-5.2668543,-6.4082685,-1.8549088,-0.61964554,-0.75393295,-0.21823008,0
-4.9029274,-6.9788518,0.068405494,-0.57483828,-0.81822771,0.0080201263,0
-2.5568752,-4.9609332,6.2870679,-0.30414069,-0.59010375,0.74784768,0
-2.0251498,7.2516789,-4.0438137,-0.23696011,0.84850937,-0.47316131,0
3.8216965,-7.4662004,1.1658804,0.45130485,-0.88168496,0.13767904,0
6.3927031,2.7308521,-5.0097017,0.74605948,0.31870371,-0.58465654,0
-6.186224,4.4575744,3.7594004,-0.72767812,0.52433914,0.44221377,0
7.4090619,-3.2662454,2.0478265,0.88709879,-0.39107275,0.24518953,0
-7.8805571,-1.8507345,-2.1714835,-0.94027114,-0.22082096,-0.25909123,0
-4.431725,7.0282116,-0.55949998,-0.53217292,0.84396571,-0.067186192,0
-2.1485722,-1.292093,-8.0200367,-0.25569752,-0.15376955,-0.95444947,0
-1.9264624,-7.8012295,2.2245693,-0.23105125,-0.93564445,0.26680484,0
2.5249701,-3.6781647,-6.9233942,0.30656353,-0.44657606,-0.84058821,0
-2.7556162,-0.45014727,7.980144,-0.32593444,-0.053243443,0.94389188,0
-5.5665474,-4.5766034,-4.1654739,-0.66876394,-0.54983222,-0.50043923,0
-4.2229753,-5.9079256,-4.1230698,-0.50569367,-0.70746338,-0.49373016,0
6.5982018,-5.1452408,-0.37328306,0.78779733,-0.61431998,-0.044568416,0
2.618227,-6.7504988,3.8958204,0.3184405,-0.82102591,0.47382715,0
-7.5243902,-1.9920439,3.4787362,-0.88256168,-0.23365369,0.40803295,0
7.700036,-2.2876716,-2.3160307,0.92106748,-0.27364805,-0.27704033,0
-0.15718926,3.9790072,7.2380118,-0.019027609,0.48165497,0.87615436,0
5.8609881,-3.6861079,5.0469046,0.68405932,-0.43022037,0.58904439,0
5.8794494,3.4532647,-5.0781603,0.69155312,0.4061802,-0.59730381,0
-3.1271079,7.2087731,3.3761189,-0.36564136,0.84289563,0.3947573,0
-8.3749142,-1.2753887,0.53459889,-0.98663962,-0.15025218,0.062980518,0
-4.8704224,2.3848348,6.6943693,-0.56532377,0.27681458,0.77703452,0
-5.8746195,-5.9265594,-0.9838385,-0.6991455,-0.70532691,-0.1170878,0
0.33966264,-6.9158907,-4.722373,0.040526383,-0.82516003,-0.56344348,0
-7.9165325,-2.4879127,1.9521692,-0.9286477,-0.29184422,0.22899891,0
-5.3710785,-3.5829146,-5.3996797,-0.63813883,-0.42568672,-0.64153689,0
7.5759106,-4.0991449,0.78963685,0.87583691,-0.47389451,0.091288447,0
-3.42998,-5.3419476,5.4914331,-0.40862927,-0.63641077,0.65421969,0
-2.9941278,-7.6711836,-1.9890236,-0.35343102,-0.90551722,-0.23478712,0
4.6046224,0.8318879,-6.8561974,0.55472541,0.10021871,-0.82597584,0
-8.3439322,0.13305748,0.71462822,-0.99622667,0.015886443,0.085323282,0
5.2513485,-3.137347,5.8081093,0.62254679,-0.37193212,0.68855071,0
5.8463902,5.8696213,-0.49939281,0.70442468,0.70722371,-0.06017125,0
0.11723914,1.7433155,8.1618595,0.014046021,0.20886068,0.97784454,0
6.7041502,2.4947264,-4.3200393,0.80226237,0.29853523,-0.51696408,0
5.6147666,-4.6736569,3.6448431,0.68773329,-0.57246006,0.44644421,0
-4.6630507,-1.5257748,-7.0549278,-0.54264081,-0.17755494,-0.82098436,0
3.9327703,-6.6113863,-3.6620607,0.46160105,-0.77599823,-0.42982706,0
-4.6887012,4.8882484,5.3302426,-0.54398417,0.56713569,0.61841601,0
5.8976731,-3.5161572,4.6280346,0.71224707,-0.42463741,0.55891603,0
0.42387509,-6.2591949,5.2687058,0.051739641,-0.76401871,0.64311624,0
-4.1934605,6.068903,3.949085,-0.50117159,0.72531068,0.47196561,0
-0.96970415,-5.7094984,-6.2798805,-0.11351426,-0.66835797,-0.73512727,0
-4.0691638,7.0388761,-2.384614,-0.4802556,0.83075047,-0.28143969,0
2.915832,-5.0117817,5.9108005,0.35215572,-0.60529125,0.71386904,0
4.0083885,6.8283963,2.703341,0.47908643,0.81613648,0.3231059,0
-6.301435,5.1409149,-1.75818,-0.75735182,0.61787218,-0.21131073,0
-5.0058193,3.2165279,6.0025015,-0.59227276,0.38056946,0.71019709,0
8.0572233,-1.2159618,-2.5289474,0.94436663,-0.14251979,-0.29641148,0
4.0437841,0.23802491,7.4495883,0.47687852,0.028069986,0.87852085,0
0.32127157,-8.2719822,1.3764353,0.038283672,-0.98571384,0.16402011,0
3.0632904,-2.418684,7.5823779,0.35920522,-0.28361788,0.88911903,0
-0.46070024,6.3461323,5.8005538,-0.053507593,0.73706549,0.6736998,0
-8.0941286,0.18412919,-2.3680546,-0.95953935,0.02182807,-0.28072715,0
-1.4431443,-3.1182745,7.8936639,-0.16763052,-0.36220768,0.91689998,0
-4.1751318,6.5868244,2.3285954,-0.51299,0.80930984,0.28610981,0
-2.5699437,-4.9256063,-6.3677368,-0.30411026,-0.58286393,-0.7535162,0
8.3389702,0.74255383,-2.0442119,0.96763098,0.086163893,-0.23720469,0
3.2264588,7.3549676,-2.4197092,0.38464618,0.87683129,-0.28846854,0
5.1048288,6.5272989,1.291515,0.60869795,0.7783128,0.15399979,0
-5.7163463,6.1861401,-0.86816776,-0.67509204,0.73057401,-0.10252933,0
-3.0044785,-2.1624024,-7.4737725,-0.36023742,-0.25927237,-0.89610648,0
1.6750091,-5.7613397,5.7432055,0.20167209,-0.69366872,0.69148535,0
2.246943,-1.3951246,7.9087152,0.2694422,-0.16729638,0.94837373,0
-6.5597935,-4.3056793,-2.935637,-0.78299606,-0.51393843,-0.3504062,0
6.9801826,2.8074141,-3.6970773,0.83266985,0.33489797,-0.44102639,0
-3.3083196,-4.3270707,6.3229547,-0.39641699,-0.51848811,0.75764346,0
-6.1811714,-0.42259595,-5.9282393,-0.72084188,-0.049282707,-0.69134521,0
6.9154539,-3.618371,2.6144404,0.84015906,-0.43959618,0.31762856,0
2.9217222,4.9799876,-5.9040766,0.35380432,0.6030488,-0.71495086,0
-7.0919609,-1.2136189,4.1535983,-0.85364085,-0.14608015,0.4999578,0
-5.2341299,-4.3261905,5.2301283,-0.61066145,-0.50473291,0.61019456,0
-3.6358211,1.2140412,7.3847718,-0.43698022,0.14591257,0.88755721,0
-2.1778021,7.7179513,-2.7627137,-0.25675955,0.90993476,-0.32571974,0
2.4762111,-5.4584627,-5.7926283,0.2970672,-0.65484327,-0.69493258,0
-1.9024352,-7.8921142,-2.4511418,-0.22434001,-0.93065816,-0.28904489,0
-4.2702236,2.9458275,-6.4220467,-0.51725,0.3568266,-0.77789927,0
-7.4352379,3.4740055,2.2801456,-0.87292022,0.40785912,0.26769623,0
-6.2810946,2.5492513,5.0108604,-0.74511635,0.30241367,0.59443051,0
0.29859143,-8.024354,-1.9621378,0.036122147,-0.97074747,-0.23736992,0
-1.7697471,1.2416469,8.0234718,-0.21297568,0.14942281,0.96556413,0
-4.1017175,6.604475,3.7004426,-0.476376,0.76704776,0.42977166,0
1.9446887,-8.0321999,-2.397279,0.22599676,-0.93344051,-0.27859333,0
0.14558224,6.4914904,-5.1170173,0.017609889,0.78522229,-0.61896354,0
5.173173,0.82394856,-6.7225266,0.60700196,0.096679233,-0.78879768,0
-2.2380645,7.8816829,1.8842909,-0.26620919,0.93749595,0.22412919,0
-5.2429986,-6.6428614,0.0094102556,-0.61954451,-0.78496081,0.0011119728,0
7.6592598,0.55593103,-3.3659844,0.91348058,0.066303045,-0.40144369,0
-3.5963781,7.2088075,-2.7181163,-0.42298916,0.84786624,-0.31969213,0
-5.5040436,4.8931789,-4.0686836,-0.6541692,0.58156645,-0.48357314,0
-8.168993,1.7169027,-1.4146383,-0.96486217,0.2027881,-0.16708681,0
-3.5716109,4.1072507,-6.3793998,-0.42590871,0.48978287,-0.76073289,0
0.8784771,-3.4162328,7.47367,0.10629825,-0.41337398,0.9043355,0
-2.1103594,6.8383322,-4.0740323,-0.25626913,0.83040524,-0.49472556,0
-5.9243555,-2.6174822,-5.7042742,-0.68643296,-0.30327788,-0.6609329,0
-2.0002847,6.780838,-4.3906684,-0.24035552,0.81478995,-0.52758563,0
-2.4413445,7.8558035,0.46270448,-0.29630083,0.95344234,0.05615747,0
-3.7899678,3.2304292,-6.8967948,-0.4455232,0.3797476,-0.81074095,0
-4.6239052,-6.3847742,-3.0924442,-0.54603684,-0.75397778,-0.36518663,0
-2.5338197,3.0842304,7.3859963,-0.30180424,0.36736387,0.87974888,0
4.3688369,5.1893926,-5.1667399,0.51234627,0.60857522,-0.60591871,0
3.2737324,0.63961858,-7.5965071,0.39458784,0.077094182,-0.9156183,0
-2.164464,8.0514059,-1.6937231,-0.25441626,0.94638145,-0.19908425,0
2.4728665,-6.2521133,-4.7233257,0.30095699,-0.76090527,-0.57484615,0
1.4041296,5.2572045,6.3942847,0.16723336,0.62613881,0.76156628,0
-5.376132,-6.516212,-0.50961566,-0.63524622,-0.76995862,-0.060216419,0
5.2197094,1.1667842,6.3199935,0.63044262,0.14092556,0.76333624,0
-1.3846279,6.4305897,4.8502531,-0.16941908,0.7868284,0.593463,0
