6.8109593,-1.8032508,4.6936827,0.80451643,-0.21300156,0.5544219,0
2.7877388,-3.6335196,6.7895379,0.3403942,-0.44366747,0.8290301,0
1.8953121,-7.1802588,3.9146042,0.2257725,-0.85532355,0.46631372,0
-4.698977,-6.5292258,0.9424929,-0.58016717,-0.80614197,0.11636648,0
1.9354305,-6.7295527,4.7015262,0.22947186,-0.79788089,0.55743051,0
1.7066839,7.7837553,1.8001683,0.20891002,0.95278597,0.22035316,0
-5.5234156,4.1195679,-4.5833712,-0.6674304,0.49779433,-0.55383873,0
2.2043884,-6.4592133,4.2990718,0.27328876,-0.80078012,0.53297687,0
-0.68453777,7.6649122,2.5170345,-0.08454632,0.94668275,0.31087548,0
-1.9202741,-6.0479283,5.3192945,-0.23191482,-0.73041874,0.64242035,0
1.957305,-7.9666266,-0.10160131,0.23857424,-0.97104532,-0.012384097,0
-7.1677217,-1.5876241,3.7113183,-0.87132651,-0.19299562,0.45115727,0
6.6990066,-3.5937345,-2.5391557,0.8358171,-0.44838062,-0.31680366,0
-2.7461233,-6.2547574,4.2311864,-0.34175721,-0.77840948,0.52657443,0
7.1130462,-2.3280683,3.3338621,0.8681553,-0.28414336,0.40690163,0
-6.8089561,2.1703353,4.3354616,-0.81459159,0.25964874,0.51867431,0
-2.8188164,7.6165476,-1.5962908,-0.34056774,0.92022681,-0.19286293,0
-5.3408904,3.0377669,5.4946728,-0.64794225,0.36853361,0.66659874,0
3.046593,2.6720891,-6.9441009,0.37892735,0.33234754,-0.8636893,0
3.6882808,-3.2834852,6.4775863,0.4528181,-0.40312046,0.79526705,0
-4.154778,3.510839,6.5222187,-0.4892123,0.41339049,0.76797116,0
1.1612153,-7.9335957,-1.0523804,0.14359224,-0.98104346,-0.13013406,0
1.4134612,4.1524181,7.0149536,0.17084296,0.50189662,0.8478871,0
-1.9641378,7.61657,-2.0247247,-0.24182457,0.93775177,-0.24928403,0
4.4204321,1.8311485,-6.7420402,0.534688,0.22149263,-0.8155058,0
-5.0637474,-5.8492322,2.8540978,-0.61406541,-0.70931876,0.34610784,0
-6.0710273,2.2213757,-4.788723,-0.75462359,0.27611512,-0.59523422,0
-3.9682493,-4.5079141,-5.8864403,-0.47188103,-0.53605479,-0.69998109,0
2.0514057,-4.7725048,6.343379,0.25020206,-0.58208406,0.77367759,0
2.8636758,-7.4037538,2.8462832,0.33957481,-0.8779375,0.3375124,0
3.2169578,7.388133,1.1398729,0.39528409,0.90781778,0.14006202,0
5.0655537,6.5835471,1.6795783,0.59771264,0.77682906,0.1981827,0
4.0756378,-5.2043271,5.0163584,0.49114877,-0.62716532,0.60451353,0
6.0346551,-2.7569482,4.8346038,0.73510742,-0.33583578,0.58892399,0
0.34458783,-6.4799533,5.3069482,0.041106269,-0.7730009,0.63307178,0
-7.9833903,-1.7640045,0.48681271,-0.97472125,-0.21537374,0.059436738,0
0.80253303,-0.71116555,8.2237463,0.096768141,-0.085751198,0.99160612,0
1.9121222,5.9502087,5.4104085,0.23131198,0.71980464,0.6545043,0
-6.1393385,3.4801686,4.246201,-0.74541855,0.4225508,0.51555997,0
-3.6147411,-4.1183047,-6.429266,-0.42790064,-0.4875108,-0.76107448,0
-4.69766,5.868978,3.3279932,-0.57140672,0.71388173,0.4048053,0
-5.8821621,5.5763111,0.57118106,-0.72392714,0.68628556,0.070296168,0
0.056689929,-7.0635576,-4.4651179,0.0067837746,-0.8452574,-0.5343163,0
3.116977,4.9965491,-5.4367967,0.38889423,0.62340182,-0.67832994,0
-1.0333966,8.0785484,0.60862345,-0.12653188,0.98915941,0.074521504,0
-3.2422729,-7.4745965,0.4634701,-0.39730418,-0.91592795,0.05679306,0
-7.2048035,-0.30472323,3.9723685,-0.87511617,-0.037012558,0.48249531,0
0.2807287,7.8498693,2.8556228,0.033588585,0.93921995,0.34166911,0
5.6081734,0.18024349,5.6978045,0.7013008,0.022539407,0.7125091,0
4.8757825,4.5727897,4.876771,0.58925742,0.55263954,0.58937693,0
5.2049189,5.999548,-2.7402365,0.61948109,0.71405655,-0.32613856,0
-7.1356945,-0.81977212,4.0939646,-0.8631072,-0.099156603,0.49519083,0
5.6022964,1.8931605,5.4326162,0.6976589,0.23575693,0.67652845,0
-2.848845,7.514823,-2.1304698,-0.34264448,0.90384442,-0.25624201,0
-5.142663,-6.1367664,1.9786365,-0.62353915,-0.7440725,0.23990631,0
-2.9041922,-5.185781,5.7391057,-0.3515034,-0.62765115,0.6946218,0
-7.9910688,0.69022596,0.83574814,-0.99092573,0.085590884,0.10363623,0
-1.0985234,4.1043463,6.8774004,-0.13588859,0.5077123,0.85074228,0
7.3479295,2.8452897,-2.5501213,0.88722116,0.34355271,-0.3079128,0
-2.2252452,-7.7722239,-2.1216028,-0.26623333,-0.92988622,-0.25383329,0
7.3356228,2.4392538,-2.7716062,0.89323992,0.29702166,-0.33749136,0
2.4163446,4.4190259,6.6265283,0.29031074,0.53092206,0.79614156,0
0.67196733,-1.6231023,-7.964211,0.082392842,-0.19901563,-0.97652656,0
-0.1407409,-0.25152037,-8.2086601,-0.017134858,-0.030621985,-0.99938416,0
3.5355687,-5.2960443,-4.8354812,0.44218725,-0.66236681,-0.604765,0
-1.9038336,4.5937505,-6.6861339,-0.22848131,0.55130136,-0.80241072,0
-7.4414039,-1.5806127,-3.2468133,-0.8996641,-0.19109572,-0.39253902,0
5.526195,4.1069684,4.7699566,0.65976012,0.49032182,0.56947452,0
5.4783163,-5.5750504,-1.9128479,0.68080086,-0.69282222,-0.23771328,0
-0.70596075,1.7717373,-8.1092377,-0.084744133,0.21268088,-0.97343987,0
4.7617044,6.4879017,-1.5736698,0.5806821,0.79118907,-0.19190647,0
5.2827439,0.81351471,6.1640148,0.64749885,0.099711411,0.75551504,0
-6.1016755,5.311234,-1.9562285,-0.73314106,0.63816631,-0.23504879,0
1.3761206,-3.7265234,7.535079,0.16155244,-0.43748271,0.88459575,0
-0.13697672,2.1164103,7.998641,-0.016553005,0.25575843,0.96659893,0
6.4051299,3.2343485,4.2443371,0.76830226,0.38796359,0.50911283,0
0.3039681,-8.2906141,-0.98663026,0.036383118,-0.99233568,-0.11809359,0
-6.6660571,4.8573256,1.8335724,-0.78894091,0.57487398,0.21700689,0
-6.09589,-0.051054586,-5.5853748,-0.73729217,-0.0061750044,-0.67554587,0
5.4773049,4.006815,5.0121531,0.6492272,0.47492945,0.59409261,0
7.3140726,-3.9313781,0.86596602,0.87607008,-0.47089535,0.10372428,0
-0.44856909,-1.7597554,-8.207633,-0.053362075,-0.20934166,-0.97638541,0
6.2290392,3.7063003,-3.9373298,0.75515902,0.44932228,-0.47733045,0
-3.7947953,-6.529489,-3.1008332,-0.4648242,-0.79979664,-0.37982082,0
-1.0789305,-3.9074025,-7.2457309,-0.12995155,-0.47062624,-0.87271047,0
-6.0354114,-1.3623415,-5.5704474,-0.72494072,-0.16363704,-0.66909176,0
-2.7782476,-6.3067818,4.6543431,-0.33408171,-0.75838464,0.55968046,0
7.3987422,-0.19087549,-4.1766191,0.87060916,-0.022460297,-0.49146229,0
-2.3403716,-4.4970818,6.6004758,-0.28120336,-0.54033917,0.79306889,0
7.3911343,-3.5150001,0.98386258,0.89662266,-0.42640665,0.11935292,0
-7.949894,2.6285129,-0.22644021,-0.9491021,0.31380633,-0.027033677,0
3.7457952,4.0190163,-6.1585507,0.45387337,0.48697922,-0.74622393,0
6.9705863,-3.6694062,2.3663027,0.84747285,-0.44612059,0.28769132,0
4.6533504,6.4810777,-1.7615693,0.5695132,0.79320467,-0.21559455,0
7.2963166,3.6821349,-1.5405562,0.87730801,0.44273934,-0.18523625,0
0.45581082,6.7647948,4.832221,0.054746144,0.8125003,0.58038437,0
-5.329442,-6.4375262,-0.056601461,-0.63768333,-0.77026886,-0.0067725303,0
-8.3266926,-0.53219205,1.018943,-0.99060434,-0.063313469,0.12122092,0
-1.0348432,5.1371083,-6.4194441,-0.12487942,0.61991912,-0.77466464,0
-1.7487735,-0.41299555,8.0517197,-0.21197805,-0.050061367,0.97599143,0
2.9518156,-7.7096639,0.67161322,0.35638306,-0.9308148,0.081086226,0
0.96137553,1.6656384,8.1210117,0.11519518,0.19958228,0.97308636,0
2.444314,6.905643,-3.986861,0.29307893,0.82800263,-0.47803387,0
-0.72639567,-8.0832348,-1.2992507,-0.088378467,-0.98346388,-0.15807609,0
7.6025672,-0.10101486,2.7321429,0.94100231,-0.012503042,0.33816904,0
-2.2753313,-2.5788162,-7.6886659,-0.27014056,-0.30617207,-0.91284317,0
0.58104479,-8.4308748,-0.034951843,0.068755001,-0.99762499,-0.0041358499,0
-6.3643532,4.9248171,-1.6616282,-0.77453065,0.59934163,-0.20221725,0
6.1553154,5.2369471,1.9745584,0.73987502,0.6294862,0.23734388,0
-6.1422768,-5.5050917,-1.5422182,-0.73199135,-0.65605634,-0.18379022,0
1.3620001,-8.2049494,0.055899125,0.16375285,-0.98647851,0.0067207343,0
-7.0568109,4.7096324,0.18008289,-0.83158588,0.55499059,0.021221256,0
-6.9317269,3.436388,-2.5296566,-0.85158175,0.42216972,-0.31077528,0
3.032253,-5.8577447,-5.1767912,0.36163166,-0.69860464,-0.61739296,0
-2.4582851,-8.002347,1.2901242,-0.2902258,-0.94475925,0.15231241,0
-8.367321,0.47757691,-0.78834122,-0.99398744,0.056733266,-0.093650199,0
-0.66561848,-0.26262912,8.3470755,-0.079451308,-0.031348631,0.9963457,0
-1.9902769,5.8266921,5.5777965,-0.23956066,0.70133263,0.6713742,0
-7.5448637,-3.1254015,1.346398,-0.91156453,-0.37760857,0.16267076,0
5.8541946,-2.1373205,-5.3891969,0.710536,-0.25941113,-0.65409827,0
-2.6467021,1.6300855,7.6486192,-0.32057437,0.19743955,0.92641759,0
5.7755446,-6.1106124,-0.13055323,0.68681794,-0.72666365,-0.015525168,0
0.34472623,8.0119972,1.5996087,0.042156033,0.97977459,0.19561364,0
0.45004603,5.3583083,6.0246205,0.05573136,0.66354501,0.74605769,0
4.8812141,3.3159199,5.5630722,0.6018886,0.40887663,0.68596655,0
-8.215332,-0.48522428,-0.3291063,-0.99746305,-0.058913417,-0.03995838,0
-0.77358156,-0.68127704,8.3349972,-0.092109531,-0.081118926,0.99243921,0
4.8348064,6.0669689,2.9819851,0.58172327,0.72997689,0.35879207,0
-5.0400624,-4.6603165,4.2448263,-0.62447387,-0.57742256,0.5259425,0
7.0092049,-3.9896553,1.3959855,0.85634214,-0.48743188,0.17055304,0
8.0346231,0.64525068,1.3542653,0.98301291,0.078944556,0.16569045,0
4.512754,-1.0705812,-6.8517184,0.54542154,-0.12939283,-0.82811403,0
-2.2449005,-7.5154557,2.6507261,-0.27114379,-0.90773255,0.32016027,0
8.0185251,-1.6206685,1.2112883,0.96960872,-0.19597299,0.14647029,0
-0.68014807,-2.7076309,-7.6920829,-0.083116889,-0.33088362,-0.94000411,0
0.91222858,-4.692409,-6.653367,0.11134832,-0.57276422,-0.8121224,0
1.1256651,6.5518289,4.7888432,0.13739213,0.79967809,0.58449835,0
5.2676229,0.20545773,6.1683803,0.64919198,0.025321005,0.760203,0
-1.0174006,-3.3580041,7.4110112,-0.12407843,-0.40952981,0.90381962,0
3.1690252,6.3968892,4.1147752,0.38459983,0.77634048,0.49937811,0
0.51111275,-5.1968179,6.2313347,0.062867127,-0.63921124,0.76645732,0
-8.1670637,0.39411423,-0.67435306,-0.99545789,0.048037354,-0.08219479,0
-8.0989113,-0.45951962,1.4425893,-0.98297179,-0.05577229,0.1750883,0
3.3123066,-5.9664545,4.8439713,0.39580023,-0.71295458,0.5788247,0
1.3193223,7.9973702,-1.1422321,0.16117698,0.97701067,-0.13954248,0
4.2406716,3.6361699,5.8973422,0.52205515,0.44763693,0.72600245,0
7.6330237,-2.5622134,-2.4835441,0.90589893,-0.3040874,-0.29475081,0
-6.2582793,3.3177798,4.2080359,-0.75959122,0.40269157,0.51074535,0
-3.1058555,0.070696525,7.4074006,-0.38666153,0.0088013196,0.9221797,0
7.3905435,-1.5680927,3.7895367,0.87439317,-0.18552487,0.4483493,0
5.1209102,0.67985153,6.4371295,0.62044269,0.082369909,0.77991408,0
3.5797226,4.7188239,5.9246178,0.42730111,0.56327236,0.70720446,0
-1.5367669,1.2390436,-7.8994546,-0.18873693,0.15217225,-0.97016591,0
-7.2029719,4.1106467,0.19947445,-0.86826909,0.4955104,0.024045283,0
7.7715545,1.5306473,-2.5289886,0.9346664,0.18408731,-0.30415544,0
-6.0357361,-3.6444466,4.3534846,-0.72838795,-0.43980899,0.52537513,0
-1.9415132,-1.5912493,-7.6650867,-0.24071305,-0.19728658,-0.95033419,0
4.3898845,-5.8332105,3.4796286,0.54280871,-0.72127581,0.43025568,0
-7.7866621,-2.2684619,2.3675599,-0.92162198,-0.268493,0.28022215,0
-5.9392996,-4.7066941,-2.9335284,-0.73088992,-0.57920557,-0.36099985,0
-5.265357,0.84396625,-6.2597027,-0.64030927,0.10263301,-0.76122963,0
-3.6018577,3.4301381,-6.4113078,-0.44388261,0.4227204,-0.79011124,0
4.4391704,-6.7915215,-1.8939829,0.53280127,-0.81513679,-0.22732095,0
-1.6349144,5.2688375,-6.2007637,-0.19698755,0.63483161,-0.74711752,0
-2.6150434,2.6423008,-7.5944242,-0.30927128,0.3124949,-0.89816374,0
5.7138391,-5.6660705,-0.88868988,0.70577765,-0.69987726,-0.10977163,0
-1.8021343,7.0542536,3.4139557,-0.22410502,0.87723404,0.42454359,0
-4.0772319,-5.6277943,4.6910796,-0.48627418,-0.6712032,0.5594852,0
-5.8486085,1.0676787,5.8880033,-0.69896883,0.12759857,0.70367694,0
0.56094599,7.8758202,2.6252322,0.067415237,0.94652659,0.3155039,0
-6.5243778,-2.3889084,4.411551,-0.79273635,-0.29026133,0.53601998,0
0.2141628,-7.7533689,-2.3349993,0.026439283,-0.95718545,-0.28826532,0
-6.2490263,-5.0627747,2.0867665,-0.75209486,-0.60932481,0.25115055,0
-3.6028025,-6.0336633,-4.1380582,-0.44177473,-0.73984623,-0.50740767,0
-3.8444643,-6.5506434,-3.474725,-0.46027613,-0.78427178,-0.41600934,0
-7.6512418,-2.9785292,0.6666072,-0.92882299,-0.36157876,0.080922827,0
2.3053463,2.7803259,7.3478103,0.281569,0.33958179,0.89744246,0
-1.2893002,-8.1269674,-1.7813638,-0.15313785,-0.96528822,-0.21158317,0
2.7671337,7.4947567,1.9158106,0.33680797,0.91224128,0.23318723,0
-5.3399477,6.2152114,1.0352656,-0.64653933,0.75251275,0.12534578,0
1.7179521,-7.7814751,2.1553638,0.20810549,-0.94261515,0.26109171,0
-5.9201612,-0.45555633,5.9065981,-0.70686924,-0.054393578,0.70524979,0
-8.1211176,0.019267077,-1.1060627,-0.99084967,0.0023507574,-0.13494964,0
-6.9593964,3.8858438,2.4009235,-0.83601308,0.46679568,0.2884163,0
5.1680436,1.7267286,6.3777175,0.6160928,0.20584677,0.76030046,0
-3.007818,7.5326042,-0.22692916,-0.37069035,0.92833531,-0.027967267,0
0.33160016,-7.1045446,4.6298037,0.039074138,-0.8371647,0.54555339,0
-7.460815,-2.1834652,2.2291801,-0.92256218,-0.26999497,0.27564782,0
1.5073335,-6.8870144,4.2654691,0.18292929,-0.83580488,0.51765537,0
-3.2767284,-1.7584352,7.3919063,-0.39599749,-0.21250951,0.89332283,0
-3.1015191,-1.4187504,7.5428176,-0.37466714,-0.1713867,0.91118115,0
2.7711015,-4.506999,-6.3635068,0.33485031,-0.54461014,-0.76894414,0
-2.6116531,-5.3177133,-5.7236757,-0.3170377,-0.64553577,-0.69481701,0
-0.97728413,7.1710267,3.8060081,-0.11951526,0.8769682,0.46544912,0
-6.1523581,-3.8818958,-3.6128337,-0.75745684,-0.47792545,-0.44479945,0
-2.6395745,4.0859065,-6.4561858,-0.3265352,0.50545728,-0.79867864,0
-8.3387346,0.51961052,-1.0064825,-0.99090004,0.06174583,-0.1196013,0
-3.2972143,-5.924952,4.2923279,-0.41086739,-0.73831105,0.53486896,0
4.5653262,5.0715785,4.5378923,0.5570969,0.61887378,0.5537492,0
1.1558871,5.3469238,6.3807325,0.13752824,0.63618064,0.75918388,0
-7.8262124,-2.2514122,1.2069602,-0.95064026,-0.27347624,0.14660795,0
3.9035616,-6.924356,-2.144197,0.47413671,-0.84105021,-0.26043972,0
-0.48483852,1.4579476,8.0135441,-0.059420068,0.17868082,0.98211122,0
-1.477034,-2.5051792,-7.8293176,-0.17684811,-0.29994991,-0.93741924,0
2.8383517,5.8136935,-5.0737662,0.3452217,0.70710516,-0.61710966,0
1.6724976,-5.6438189,5.8113227,0.20219457,-0.68230265,0.7025528,0
2.3662543,-7.536026,1.6820651,0.29300186,-0.93314976,0.20828201,0
-4.3042502,4.7078443,5.3717365,-0.51613307,0.564529,0.64413798,0
5.0920444,-5.401175,3.4094088,0.62336975,-0.66121364,0.41738093,0
-5.546422,-5.6577764,2.6234238,-0.66456115,-0.67790341,0.31433338,0
-8.2252274,-0.16251285,1.1173875,-0.99070847,-0.019574275,0.13458659,0
-7.7136788,-2.1470802,-2.4138451,-0.92237324,-0.25673991,-0.28863868,0
-1.3447819,-4.8621063,-6.5298729,-0.16297363,-0.58923692,-0.79135293,0
2.8610721,-7.0260444,-3.4295673,0.34365413,-0.84392464,-0.41193825,0
-1.3002318,7.3500953,3.2760451,-0.15950826,0.90168607,0.40189466,0
-5.9091716,4.9288816,-3.1453552,-0.71083772,0.59291476,-0.37836727,0
1.4886159,3.0668485,-7.4223614,0.18225417,0.37548026,-0.90873426,0
-3.7669616,-4.5573831,5.7248673,-0.45770779,-0.55374861,0.69560474,0
5.2425594,6.4311152,-0.017417898,0.63184476,0.77509212,-0.0020992435,0
6.0524287,-3.7835879,4.1134038,0.73468083,-0.45927504,0.49931011,0
6.750598,-2.2479615,-4.0357428,0.82526433,-0.27481455,-0.49337178,0
-2.6637557,-6.8714108,3.4795847,-0.32684883,-0.84313768,0.42695293,0
2.8905032,6.9322391,-2.8431635,0.359925,0.86320132,-0.35403028,0
-7.161181,0.1510094,-4.1417856,-0.86550009,0.018250991,-0.50057608,0
-6.3710866,-4.1988883,2.7811968,-0.78448528,-0.51701796,0.34245461,0
-5.0184116,-4.907177,4.535141,-0.6005345,-0.58722347,0.54270333,0
-7.3390656,-1.7691916,-3.1997943,-0.89507049,-0.21577014,-0.39024606,0
6.8912783,4.3909802,-1.4957386,0.82956636,0.52858257,-0.18005577,0
-3.0602748,7.3733702,1.3214283,-0.37819222,0.9112094,0.1633036,0
7.5932913,-3.5439796,-0.11618678,0.90607572,-0.42288828,-0.013864083,0
-2.9427629,1.8729142,-7.4637365,-0.35719079,0.2273332,-0.90594387,0
2.7341912,-7.4671636,-1.3997934,0.33863038,-0.92481035,-0.17336482,0
-7.6098785,-2.3731818,-1.6829551,-0.93406445,-0.29129305,-0.2065721,0
6.1357946,3.7542894,-4.2767262,0.73319465,0.44861752,-0.51104593,0
-6.177031,2.6799312,4.7734818,-0.74839371,0.3246938,0.57834321,0
4.6466255,-5.3865461,-4.0196066,0.56868136,-0.65923715,-0.49194306,0
7.0235114,2.1361053,-3.802151,0.84954846,0.2583786,-0.45989981,0
-1.7697736,7.2765813,-3.5979786,-0.21301529,0.87583125,-0.43306357,0
4.0105133,5.1177316,5.2030373,0.48159963,0.61455917,0.62480301,0
5.7270222,-5.4746428,-2.5329022,0.6885246,-0.65818256,-0.30451524,0
7.7119994,-1.9301887,2.2983913,0.93191236,-0.23324259,0.27773592,0
-2.7120602,-7.473814,-2.6067548,-0.32413387,-0.89323843,-0.31154823,0
-3.3873727,6.1130495,-4.8400159,-0.39846089,0.71908563,-0.56933713,0
6.7504392,4.4583163,-1.3938253,0.82232118,0.54310066,-0.16979222,0
3.4624114,-6.7548714,3.2931132,0.41846246,-0.81638479,0.39800128,0
4.7917933,6.3849707,-1.4392325,0.59072232,0.78712595,-0.17742559,0
-1.0702096,8.1148233,1.1853914,-0.12940113,0.98117912,0.143328,0
1.5522854,2.8093891,7.4703221,0.19091703,0.34552938,0.91878182,0
-7.7119231,-1.6721569,2.9882786,-0.91395259,-0.19817005,0.3541458,0
-1.6920928,-0.14733306,8.212966,-0.2017577,-0.017567346,0.97927791,0
5.1075234,6.1962686,1.6537051,0.62298322,0.75578141,0.20170842,0
7.2178135,-2.3368866,-2.8578231,0.89030808,-0.28825197,-0.35250881,0
-6.8540173,2.7709286,-3.5558376,-0.8354857,0.3377685,-0.43344674,0
0.43067876,-8.0075264,1.4796239,0.052815106,-0.98198098,0.18144961,0
-7.1532588,1.359429,3.5698996,-0.8821016,0.16763751,0.44022089,0
-5.7034965,-1.020593,-6.1990943,-0.67216235,-0.12027784,-0.73056901,0
3.0356047,-7.5537357,0.81713849,0.37102005,-0.92323858,0.099872939,0
6.6867852,-4.7580385,2.0483634,0.79053152,-0.56250936,0.24216357,0
-7.6987329,-1.7814732,2.284256,-0.93593776,-0.21657434,0.27769783,0
3.6891923,-5.2027822,5.3738174,0.44234473,-0.62382853,0.6443361,0
-3.3393271,-7.5359969,1.2624247,-0.40045515,-0.90372366,0.15139112,0
0.089041725,-0.067596458,-8.261384,0.010777078,-0.0081814704,-0.99990845,0
5.6870341,-0.2996408,-5.7530937,0.70253015,-0.0370152,-0.71069062,0
7.9360657,0.2950891,2.6000273,0.94970632,0.035313211,0.31114441,0
-6.9507747,2.6312225,3.7445703,-0.83521247,0.31617048,0.44995153,0
-3.0173445,7.4039025,-1.7673205,-0.36850205,0.90422332,-0.21583919,0
0.12613057,-5.1492715,-6.2047405,0.015640996,-0.63854259,-0.76942748,0
1.1333423,-1.2443482,-8.0784435,0.13734293,-0.15079506,-0.97897792,0
-6.0802097,1.9161927,5.2186232,-0.73801357,0.23258674,0.63343453,0
-3.4191165,4.9620986,5.7799654,-0.40948007,0.59427059,0.69221991,0
-3.0459504,1.5607781,-7.6671,-0.3627719,0.18588826,-0.9131496,0
6.5804234,3.2872245,-3.9887116,0.786412,0.392849,-0.47668219,0
-0.66707736,-5.9468379,6.0182614,-0.078599811,-0.70069879,0.70911443,0
-1.0490699,-2.4999306,-7.6728678,-0.12891388,-0.30720142,-0.94287252,0
3.566416,-7.1156907,-0.83631569,0.4456217,-0.88910162,-0.10449718,0
4.5761433,6.5789275,2.0466897,0.55326408,0.79540437,0.24744853,0
-2.0332947,4.8685422,-6.5102224,-0.24264422,0.58098984,-0.77690059,0
-1.0978243,-6.741878,-4.4821005,-0.13437417,-0.82520878,-0.54861104,0
-2.2764702,1.1868293,7.9302683,-0.27310646,0.14238304,0.95138848,0
-6.6692595,3.824549,2.4777677,-0.82566184,0.47348347,0.30675045,0
0.066981889,2.0637159,7.9944921,0.0081122965,0.24994035,0.96822727,0
-3.3799875,-7.3753176,-1.7130958,-0.40762901,-0.88946885,-0.20660064,0
-4.600564,-5.3389139,4.0632262,-0.56552392,-0.65628546,0.49947169,0
-3.5773838,6.2523842,3.9394588,-0.43571806,0.76152772,0.47981808,0
3.6621311,-1.8449061,-7.3591485,0.43470088,-0.21899334,-0.87354279,0
-6.3189983,3.5335672,-4.0673008,-0.76094538,0.42551863,-0.48979181,0
0.55558747,7.431129,-3.4135718,0.067783393,0.90662074,-0.41646633,0
6.2806535,2.8199363,4.8837342,0.74407011,0.33407834,0.57857686,0
-4.2674356,6.5449643,2.5111799,-0.51997995,0.79749304,0.3059831,0
-8.1122732,-0.12432095,0.67541081,-0.99643576,-0.015270423,0.08296115,0
7.6535311,1.6321832,-2.7370181,0.92317259,0.19687471,-0.33014044,0
-3.8999078,-2.6324637,7.0582924,-0.45974064,-0.31032798,0.83206677,0
2.6569021,5.3310041,5.4428854,0.3292855,0.66070271,0.67456877,0
4.76759,-1.2601792,-6.6838851,0.57398248,-0.15171622,-0.80469012,0
4.8846221,-5.893414,3.0776732,0.59206915,-0.71434569,0.37304738,0
6.3779826,0.0027366877,5.182538,0.77608854,0.00033300687,0.63062394,0
-4.0650606,6.9657879,2.2777681,-0.48505366,0.83117604,0.27178925,0
-1.4159462,-3.5187645,7.3241324,-0.17167144,-0.42662027,0.88798881,0
2.1362596,-7.458148,2.9683957,0.25717738,-0.89786237,0.35735556,0
-8.1536713,-1.3674926,0.24259481,-0.98580152,-0.16533364,0.029330386,0
6.175282,-5.1033683,2.066988,0.74639231,-0.61683249,0.24983214,0
-7.4656906,2.2506485,-2.7644696,-0.90240508,0.27204403,-0.33415145,0
-6.7867475,-3.3078513,3.3433018,-0.82192999,-0.40060756,0.40490088,0
-0.71232933,6.1605949,-5.3308868,-0.087103769,0.75331873,-0.65186185,0
-3.5807469,-7.4363518,0.35325196,-0.43344647,-0.90016425,0.04276086,0
-2.4322832,-6.706831,4.401782,-0.29014763,-0.8000595,0.52508962,0
4.2815027,-7.09832,1.0952415,0.51204127,-0.84891522,0.13098411,0
0.4525173,1.341818,-8.0244865,0.055533994,0.16467108,-0.98478401,0
7.0714841,-2.5089591,3.3108768,0.86223084,-0.30591908,0.40369746,0
-4.0948029,-6.8687577,-2.6002829,-0.4869636,-0.81684887,-0.30923176,0
2.9284179,5.5545506,5.0381861,0.36375204,0.68995583,0.62581587,0
-5.5360198,-6.1848979,-0.7861349,-0.66396856,-0.74179244,-0.094285943,0
-0.048618235,-7.0425448,-3.8754516,-0.0060481052,-0.87609214,-0.48210591,0
-7.099174,2.545913,2.6161571,-0.88931489,0.31892699,0.32772648,0
-4.9461846,-3.5608377,5.5829191,-0.598436,-0.43082371,0.67547417,0
3.2740531,-4.9559059,5.5636649,0.40229312,-0.60894763,0.68362486,0
-5.9141693,-1.0541581,5.3074708,-0.73778617,-0.13150507,0.66210121,0
6.7053714,4.0486679,3.1270821,0.79504049,0.48004124,0.37077093,0
-5.0691638,-5.7272844,3.1059649,-0.61407101,-0.69379479,0.376252,0
4.8419309,3.4423892,-5.6728292,0.58944881,0.4190709,-0.69060105,0
-4.9648213,-5.2103424,4.1551661,-0.59742361,-0.62696749,0.49999672,0
3.934763,-0.97000802,-7.0788231,0.48239186,-0.1189205,-0.86784559,0
-4.3855996,1.5519627,6.6477041,-0.54051,0.19127403,0.81930649,0
6.696341,0.24233685,-4.4174433,0.83435148,0.030194715,-0.55040509,0
5.1961927,4.4708323,-4.300128,0.64214242,0.55250281,-0.5314073,0
2.0561337,-7.4982548,2.1564922,0.25483221,-0.92931545,0.26727039,0
-3.6562562,2.8233235,-7.0024071,-0.43584633,0.33655605,-0.83472633,0
5.6884136,-5.5667591,1.9768862,0.69363195,-0.67879766,0.2410569,0
-6.4437332,5.2228994,-1.6476191,-0.76197183,0.61760813,-0.19483106,0
-6.4249134,3.2035224,-4.1227865,-0.77606308,0.38695237,-0.49798998,0
-3.9340777,-6.3000555,-3.0534046,-0.48988435,-0.7845037,-0.38022003,0
-7.9106655,-2.8006115,-0.049946334,-0.94265115,-0.33372661,-0.0059517077,0
2.2847791,-3.4308624,7.0350027,0.28021491,-0.42077535,0.86280227,0
4.928514,-6.370564,-2.3402426,0.58759844,-0.75952584,-0.27901372,0
-5.9876533,5.2104197,2.8563673,-0.70980787,0.61767048,0.33860877,0
-1.3086367,-5.3075061,-6.3234186,-0.15655994,-0.63496834,-0.75650793,0
-0.75139314,-7.0075421,4.6076365,-0.089236483,-0.83222532,0.54720926,0
-2.9849234,-0.55305755,-7.4655499,-0.37037644,-0.068624705,-0.92634332,0
4.4409509,-6.3897853,2.9079852,0.53459758,-0.76919645,0.35006055,0
6.4079347,-1.0435745,5.4257383,0.75734544,-0.1233387,0.64126092,0
2.7002022,3.5940697,6.7214499,0.33392802,0.44447061,0.83122677,0
4.942287,-2.9449639,-6.0894799,0.58995497,-0.3515369,-0.72689408,0
-6.5967751,-5.1607094,0.070326559,-0.78759223,-0.61613965,0.0083963228,0
1.4415439,-5.6224594,-5.9180427,0.17390312,-0.67827505,-0.71393323,0
-2.4356854,6.7113352,-3.6905005,-0.30305666,0.83504826,-0.45918524,0
0.75880706,1.3265581,-7.9884281,0.093296356,0.16310212,-0.98218805,0
8.2019634,0.15066792,1.0589759,0.9916032,0.018215492,0.12802836,0
-1.1894958,2.4901237,7.809556,-0.14361034,0.3006379,0.94286418,0
7.9450035,-2.4196935,-1.2315212,0.94627213,-0.28819224,-0.14667763,0
0.83410043,-7.0491228,4.1345735,0.1015381,-0.85811549,0.50331676,0
-1.7434784,4.3178844,-6.478076,-0.21853437,0.54122043,-0.81198722,0
-0.77711314,8.0705442,-0.8924222,-0.095271364,0.98942065,-0.10940786,0
-1.867586,2.6492116,-7.6530576,-0.22470804,0.31875327,-0.92081624,0
5.9989543,-5.8191204,0.85246527,0.71407872,-0.69267243,0.10147224,0
4.7293429,-4.7266059,-4.3351607,0.59348559,-0.59314209,-0.54401964,0
0.53719264,1.5265117,-7.9108949,0.066527724,0.18904829,-0.97971153,0
-8.4057579,0.24678926,0.73737735,-0.99574864,0.02923473,0.087349944,0
-3.1259205,-2.9686081,7.1185756,-0.37561464,-0.3567118,0.85537726,0
7.4548755,3.2138989,0.57668567,0.91598946,0.39489558,0.070858054,0
-6.2542944,-5.4205489,1.309271,-0.74639785,-0.64689726,0.15625057,0
5.0139627,-6.0241785,3.068233,0.59570014,-0.71572214,0.3645314,0
-6.8600273,-1.2508757,4.296392,-0.83756304,-0.15272348,0.52456045,0
-7.6231365,-1.2965466,-2.7338955,-0.92946124,-0.15808319,-0.33333391,0
4.2041316,5.1472373,5.1438899,0.50024956,0.61246967,0.61207134,0
7.0757623,3.38305,-2.3939309,0.86288279,0.41255987,-0.29193771,0
-5.8425093,5.6922283,-1.694873,-0.7012803,0.68324196,-0.20343673,0
-3.9984818,-5.9777741,-3.817807,-0.49107432,-0.7341615,-0.46888471,0
-4.2374887,3.338181,-6.2835584,-0.51168269,0.40309,-0.75874841,0
-4.511642,-2.0606883,6.8080897,-0.53561664,-0.24464239,0.8082481,0
3.4773843,-4.7254257,5.8335214,0.42030078,-0.57114774,0.70507985,0
5.7290449,-5.3353519,-2.7445796,0.69059408,-0.64313728,-0.3308388,0
0.7922675,4.9099517,-6.5600214,0.096240021,0.59643221,-0.79687297,0
5.3074884,-4.922019,3.9524298,0.64354515,-0.59680611,0.47924116,0
-7.8429055,-0.20512415,1.808607,-0.97411007,-0.025476975,0.22463389,0
-6.8871713,-3.7824357,-2.6491284,-0.83057684,-0.45615292,-0.31947872,0
-2.2323387,6.8519678,-3.7873325,-0.27420774,0.84165657,-0.46521428,0
-0.97794849,-0.82677549,7.9722233,-0.12111684,-0.10239439,0.98734289,0
-0.74137247,8.0076389,-0.9579789,-0.091541663,0.98875076,-0.11828735,0
2.0443397,4.7435479,-6.3126335,0.25063667,0.58156043,-0.77393079,0
-5.376133,-6.1420584,1.2562836,-0.65096688,-0.74370867,0.1521166,0
-0.92564982,2.9285009,-7.5751786,-0.11324149,0.35826486,-0.92672682,0
-1.9316177,-7.733211,-2.536767,-0.23092382,-0.924501,-0.30326906,0
-0.66259587,3.5181527,-7.5546679,-0.079257973,0.42083216,-0.90366948,0
-5.3948727,-6.173389,-0.81093973,-0.65483618,-0.74933344,-0.098432846,0
-3.7549958,7.0434279,-1.8277345,-0.45857304,0.86016774,-0.22320923,0
2.2649333,2.4598603,-7.7324224,0.26885268,0.29199094,-0.91785592,0
-3.6075523,-6.3571086,-3.568156,-0.44352505,-0.78156507,-0.43868154,0
7.0431385,1.6763717,-4.2358308,0.83966994,0.19985394,-0.50498796,0
-5.2023206,-4.8115001,-4.2093344,-0.63118428,-0.58376706,-0.5107078,0
3.665194,4.5700879,-5.7199726,0.44764969,0.55816919,-0.69861072,0
-7.0352759,-1.2552149,4.0230432,-0.85786134,-0.15305731,0.49055833,0
-8.1430416,0.85198003,1.2491028,-0.98319483,0.10286849,0.15081729,0
0.3754555,-7.0280213,-3.9461403,0.046531573,-0.87100834,-0.4890596,0
-8.0620375,-0.063655019,-0.35588497,-0.99899602,-0.007887722,-0.044098984,0
-2.4488244,4.48036,6.6832128,-0.29116443,0.53271335,0.79463184,0
-0.054906916,6.8436408,4.6685696,-0.0066276183,0.8260715,0.56352639,0
3.7492061,0.39929304,7.1867871,0.46196496,0.049199589,0.88553256,0
7.0617552,-1.5044328,3.9006245,0.86050797,-0.18332218,0.47530937,0
0.99426579,-6.1888986,5.4119611,0.12006119,-0.74733192,0.65351391,0
-2.419939,2.4408982,-7.4173956,-0.29601431,0.29857808,-0.90731841,0
1.5606678,-7.3150849,-3.3919721,0.19002654,-0.89068305,-0.41300574,0
3.8802299,6.2575192,3.3168082,0.48049316,0.77487552,0.41072401,0
7.5493522,-3.1532137,1.5167116,0.90728569,-0.37895513,0.18227932,0
1.320366,8.1611319,0.034203868,0.15970904,0.9871555,0.0041372371,0
7.8195138,2.4759955,1.8852186,0.92912251,0.29420027,0.22400357,0
1.7341812,-0.89682859,-8.0278177,0.20990324,-0.10855108,-0.9716776,0
-3.5674527,5.2549891,5.4476357,-0.42633623,0.62800896,0.65103161,0
-5.4384155,-6.1013417,-1.3513509,-0.65647614,-0.73649853,-0.1631228,0
-0.28135464,-2.4110324,-7.8028569,-0.034430332,-0.29504633,-0.95486242,0
-5.8543606,-4.2023826,3.9672654,-0.71165997,-0.51084441,0.48226342,0
-2.6698339,2.9377742,-7.3526111,-0.3195186,0.35158497,-0.87994087,0
-3.2878485,-0.11639186,7.5159478,-0.40073976,-0.014186434,0.91608208,0
0.29472122,4.4047031,-7.0900912,0.035287056,0.52737641,-0.84889871,0
6.1327615,-5.413044,1.7095969,0.73387307,-0.64774853,0.20457785,0
-7.2287264,-2.8851602,-3.3725243,-0.85219443,-0.34013149,-0.39758682,0
6.7196689,4.3066072,1.7597374,0.82218164,0.52693272,0.21531177,0
1.2948943,-0.71695298,8.1607523,0.15612625,-0.086443484,0.98394716,0
-3.643961,5.7992573,4.6798558,-0.43928376,0.69910723,0.56416208,0
1.5102268,2.398515,7.7622433,0.18275787,0.29025275,0.93933642,0
-5.0718632,4.4687352,4.8656793,-0.60895783,0.53654271,0.58420217,0
-6.1995325,4.2532077,3.7659667,-0.73727471,0.50580949,0.44786474,0
2.5424564,-0.42672771,-7.7494364,0.31130835,-0.052250218,-0.94887143,0
-3.9915125,-6.823935,-2.5868776,-0.47986072,-0.82037532,-0.31099513,0
7.8253698,-1.8422465,-1.1157746,0.96414816,-0.22697951,-0.13747236,0
0.52034193,6.2675242,-5.1897035,0.063815311,0.76865613,-0.63647103,0
7.1238871,-1.5294349,-3.7987332,0.86696792,-0.18613027,-0.46230096,0
-7.6532474,-1.353935,-3.1885884,-0.91102064,-0.16116855,-0.37956044,0
-7.9097862,1.9070837,-1.2558219,-0.96076661,0.231645,-0.15253912,0
3.3535762,-7.4036274,0.08151447,0.41258788,-0.91086257,0.010028662,0
-2.9473808,6.4613342,-4.3233924,-0.35449529,0.77713495,-0.51999468,0
-2.5421059,5.8655429,5.361393,-0.30468661,0.70302039,0.64259499,0
-0.1488001,-7.7334595,-2.3156104,-0.018429382,-0.9578144,-0.28679597,0
7.8531475,-1.9599047,-2.1118503,0.9388113,-0.2342985,-0.25246295,0
-2.8586798,-7.8398728,0.68570226,-0.34141958,-0.93633646,0.08189521,0
3.8750558,-4.1073384,-6.2638912,0.45948789,-0.48703098,-0.742746,0
4.1162405,7.2375093,-1.1511247,0.4897162,0.86105889,-0.13695128,0
-7.9775281,2.4896319,-0.56835014,-0.95239395,0.29722369,-0.067852251,0
-0.61375886,1.6537671,8.1815577,-0.073332272,0.19759308,0.97753733,0
4.8282104,-6.5463777,-1.6730714,0.58139217,-0.78828645,-0.201464,0
-1.560968,-0.35690221,-8.2112999,-0.18658543,-0.04266119,-0.98151201,0
-2.5308383,6.0847316,5.1562605,-0.30245817,0.72718072,0.61622,0
-2.7289894,1.3267895,7.6532712,-0.33147445,0.1611574,0.92959833,0
-1.3235291,-0.037066139,8.2463541,-0.15846902,-0.0044380096,0.98735398,0
-3.284039,2.4232583,7.0833774,-0.40171519,0.29642147,0.8664636,0
2.9875734,6.5888829,-4.0441051,0.36046237,0.79497439,-0.48793703,0
-4.6869268,3.2618682,5.889699,-0.57134014,0.39762437,0.71795905,0
-1.049798,4.8996005,6.5561142,-0.12722181,0.59376758,0.79451537,0
5.0180311,-2.0300272,6.4852247,0.59402752,-0.24031177,0.76771182,0
5.7251339,4.3720274,-3.9027991,0.69879204,0.53363609,-0.47636354,0
5.7626891,3.7776408,-4.5599217,0.69743502,0.45719263,-0.55186892,0
0.89116287,3.9223382,-7.3526959,0.10633142,0.46800402,-0.87730604,0
-5.5552955,-5.8356042,1.5912882,-0.6764307,-0.71056205,0.1937604,0
-7.8148012,-0.37229508,2.2547665,-0.95980245,-0.045724735,0.27692711,0
1.4828026,-3.1856356,-7.6019721,0.1770557,-0.38038436,-0.90772194,0
5.5755329,5.7157984,-1.0101073,0.69274783,0.71017551,-0.12550363,0
1.0191796,3.0209806,7.74683,0.12166031,0.36061695,0.9247455,0
7.5549769,-2.4431899,-2.1549079,0.91826773,-0.2969569,-0.26191774,0
-0.37666705,6.8547845,-4.4691253,-0.045981865,0.83680207,-0.54557127,0
-0.80861926,-7.9780626,-1.0562487,-0.099975161,-0.98638278,-0.13059129,0
-2.6173832,-0.94222069,7.6935105,-0.31993482,-0.11517198,0.94041324,0
3.9809749,2.7859659,6.4252753,0.49418259,0.34583884,0.79760844,0
2.9555869,-3.1792421,-7.1831369,0.35215381,-0.378802,-0.85586017,0
7.4442639,-3.1187565,0.72030735,0.91867715,-0.38487759,0.088891245,0
-2.020787,7.949966,-1.4505482,-0.2425902,0.95437264,-0.17413452,0
-7.4099803,-3.2171376,1.4021537,-0.90376496,-0.3923811,0.17101495,0
-6.5335679,-4.6474714,-1.8348784,-0.79433918,-0.56503099,-0.22308114,0
8.1515293,0.79059881,-1.3789084,0.98151469,0.095194936,-0.16603251,0
3.7729917,6.7084794,-2.6750679,0.4630391,0.82329583,-0.32829678,0
-6.4023037,-1.7595226,-5.1247201,-0.76332569,-0.20978211,-0.61100358,0
-5.2633977,-5.3972244,3.1991847,-0.64269948,-0.65904069,0.39064392,0
-1.999975,2.471935,-7.4178543,-0.24780929,0.30628806,-0.91911811,0
7.2092571,-3.5247118,-2.1239357,0.86847121,-0.42460835,-0.2558623,0
2.3170209,-4.7668061,-6.2508783,0.28272229,-0.58164442,-0.76273054,0
7.6203051,2.0001655,-2.7942913,0.91159683,0.23927447,-0.33427364,0
-4.926755,-6.4087191,-1.1379689,-0.60352445,-0.78506416,-0.1394005,0
1.3150992,7.1395273,-3.8882656,0.15968958,0.86693698,-0.47214347,0
-7.4988098,2.8381259,-2.3670654,-0.89698356,0.33948752,-0.28314078,0
4.5381923,1.7549374,6.6000986,0.55345333,0.21402267,0.80491227,0
7.9687791,1.0296054,-1.8716195,0.96589857,0.12479883,-0.22685966,0
-7.4141054,1.4542586,3.3039372,-0.89909351,0.17635499,0.40066177,0
5.9310589,5.6982074,-1.5498538,0.70864874,0.68082744,-0.18517806,0
-0.12697877,-5.6891813,6.0939703,-0.015229237,-0.68233371,0.73088217,0
3.7444308,-3.9217322,6.0284696,0.46180692,-0.48367378,0.74350125,0
1.6886432,8.0157948,-1.965852,0.20044877,0.95150715,-0.23335457,0
-6.7350178,-2.7773137,4.0913506,-0.80606544,-0.33239654,0.48966408,0
7.3298531,-3.309978,-2.0708737,0.88259465,-0.39855763,-0.2493559,0
1.304774,1.0791513,-7.9234014,0.16103746,0.13319071,-0.97791982,0
3.1015627,-7.7017207,-1.4523548,0.36796981,-0.91373312,-0.17230757,0
-3.6960742,-5.8366208,-4.7200727,-0.44174585,-0.69757879,-0.56413168,0
-4.8271747,-6.4804749,1.941853,-0.58083338,-0.77976793,0.2336549,0
6.248354,-3.4142015,-3.847203,0.77205116,-0.42186123,-0.47536319,0
-5.620008,0.75649798,5.9564228,-0.68335879,0.091985554,0.7242648,0
4.3045006,-1.8502588,-6.929512,0.51459533,-0.22119513,-0.82841074,0
1.8954129,7.1133699,-3.6726325,0.23039387,0.8646543,-0.44642094,0
-7.5630808,-3.2960765,-0.98211181,-0.91029769,-0.39671806,-0.11820766,0
7.6687231,0.46469125,-3.3726928,0.91397804,0.05538309,-0.40196615,0
7.9682245,-2.1772966,1.0612828,0.95677203,-0.26143545,0.12743185,0
5.9507036,1.0977296,5.7008553,0.71578097,0.13204052,0.68572795,0
-3.1208165,-7.440383,-1.7346202,-0.37815523,-0.90156531,-0.21018721,0
3.039952,-6.8772345,-3.6964748,0.3628217,-0.82080567,-0.44117841,0
3.8292167,3.5507722,6.4128389,0.4630166,0.42934796,0.77541989,0
1.7332871,-6.5376825,4.6738138,0.21082832,-0.79521078,0.56849921,0
-2.1838541,4.7640133,-6.4495788,-0.2627869,0.57326186,-0.77608877,0
6.9017038,0.42885211,-4.7426176,0.82309175,0.051144563,-0.56560081,0
6.4076519,1.1387018,5.0550628,0.77756637,0.13818108,0.61343014,0
2.7142918,3.4840708,-6.8364673,0.33349183,0.42807081,-0.83996344,0
6.1293874,-5.5122256,-0.05563508,0.74353188,-0.66866642,-0.0067488728,0
-7.7606301,-2.9350228,-0.049774777,-0.93532658,-0.35373479,-0.0059989551,0
-2.2318506,-7.5070391,2.7963059,-0.26837978,-0.90272057,0.33625546,0
6.7481937,-3.2203786,-2.9891679,0.83801609,-0.39991874,-0.3712061,0
-3.8271279,7.3259687,1.4325356,-0.45622873,0.87332267,0.17077138,0
5.1295128,-6.5249848,1.0437912,0.61319554,-0.78001398,0.12477756,0
1.5438989,7.2387738,3.8528109,0.18502401,0.86750948,0.46172875,0
2.5887468,-6.3278294,-4.6738977,0.31258228,-0.76406366,-0.5643571,0
7.6571369,2.7400558,0.0077608861,0.94153243,0.33692116,0.00095428957,0
-5.8051877,5.5951958,-1.2532948,-0.71146512,0.68572921,-0.15359978,0
2.4237871,7.0849895,3.5343835,0.29271662,0.85564208,0.42684147,0
-3.0889401,1.1420603,7.6055803,-0.37270096,0.13779709,0.91766328,0
-3.4450102,6.8650203,3.6902668,-0.40427634,0.80561888,0.43305752,0
1.912726,6.0539484,5.2002907,0.23306553,0.73767316,0.63365501,0
-1.494302,-3.6368582,7.304882,-0.18012664,-0.43839535,0.88054746,0
6.345994,4.8902078,-2.48248,0.75661039,0.5830422,-0.29597732,0
-0.97448868,-7.2401581,3.587863,-0.1197317,-0.88957059,0.44082701,0
3.5584223,1.8857039,-7.2063951,0.43104574,0.22842275,-0.87293905,0
-3.6108375,0.7790677,7.2814202,-0.44224375,0.095417701,0.89180487,0
-3.3948188,7.4572549,-0.45800027,-0.4136788,0.90871072,-0.055810049,0
-4.5671525,-6.2151289,2.4483919,-0.56439972,-0.76805335,0.30256745,0
-6.945704,-2.7331793,3.8598268,-0.8265689,-0.32526019,0.45933613,0
-3.59535,7.2600932,-1.7128017,-0.43418688,0.87675393,-0.20684384,0
-5.3461061,-5.5170331,-2.6301165,-0.65837932,-0.67942923,-0.32390198,0
2.8282921,-6.3167143,4.6329041,0.33959204,-0.75844562,0.55627114,0
2.034692,2.5192182,-7.7424722,0.24244471,0.30017868,-0.92255801,0
-0.057915371,-8.2941961,-1.0973645,-0.0069221486,-0.99133718,-0.13115898,0
-2.8798237,-4.1772375,6.5602274,-0.34724587,-0.50368655,0.7910248,0
-3.6509166,1.2704681,-7.2034807,-0.44658595,0.1554057,-0.8811413,0
3.2760367,-1.3089079,7.6685681,0.38810429,-0.1550632,0.90847701,0
-6.9659495,-2.4616001,3.9117115,-0.83327252,-0.29445857,0.46792206,0
-4.1872029,0.17564502,6.9376736,-0.51660472,0.021670565,0.8559497,0
-1.2213215,-1.8903409,8.0078907,-0.1468264,-0.22725545,0.96270299,0
1.4095993,2.279314,-7.7634678,0.17162988,0.27752453,-0.94526362,0
6.9461656,-3.091954,2.8694565,0.8547343,-0.38046879,0.3530902,0
5.55336,-3.7750313,4.8190074,0.67189682,-0.45673817,0.58304805,0
2.1036959,-3.1942697,7.2834859,0.25571665,-0.38828233,0.8853507,0
-1.7621543,-6.1810541,5.4404263,-0.20926359,-0.73402745,0.64607459,0
5.4448924,6.1797276,1.1751828,0.65446001,0.74278504,0.14125352,0
-0.40658233,7.4776278,-3.5614855,-0.049030535,0.90174133,-0.4294863,0
5.8825502,-4.3330846,4.2142854,0.69744188,-0.51373547,0.49965051,0
-3.6320174,5.7515988,4.9185848,-0.43267465,0.68517596,0.58594072,0
7.5948019,0.46391919,-3.2554727,0.91767544,0.056055084,-0.39335686,0
-3.1603801,1.8255123,-7.460638,-0.38051575,0.21979514,-0.89827496,0
-1.4073359,3.367816,7.4727006,-0.1692223,0.40495631,0.89853996,0
1.4774795,2.4628739,7.6755748,0.18028349,0.30052227,0.93658108,0
-7.8761649,-0.50065571,-2.8888562,-0.93717313,-0.059572276,-0.3437407,0
4.511447,6.8375821,1.9411794,0.53588653,0.81219351,0.23058054,0
6.2460175,-4.9733987,0.96686018,0.77662373,-0.61838752,0.12021846,0
-6.019155,5.0652432,2.0114756,-0.74128336,0.62380522,0.24772137,0
2.0034392,4.6568637,6.3396959,0.24680854,0.57369035,0.78100252,0
-5.2838621,-4.4817958,4.5573297,-0.63714218,-0.54042685,0.54953498,0
-4.4103665,-6.0129046,3.4928615,-0.53559834,-0.73021179,0.4241758,0
-5.5905666,-4.1411309,4.2751017,-0.68463385,-0.50713253,0.52353895,0
-5.6694369,-3.5789044,4.537456,-0.70030642,-0.44207737,0.56048065,0
-3.4693928,-1.199451,7.4084167,-0.41961637,-0.14507128,0.8960337,0
1.9172941,7.1280079,-3.4863832,0.23486768,0.87317783,-0.42708039,0
-0.86455846,8.0597954,-1.7064347,-0.10436863,0.97297049,-0.20599909,0
-3.6911998,-7.1126332,2.18536,-0.44439942,-0.8563205,0.26310489,0
4.0857835,5.3912687,-4.9245811,0.48830652,0.64432973,-0.5885542,0
6.3318501,4.5002604,2.5752361,0.77369422,0.5498907,0.31467032,0
-7.2828188,1.6159128,-3.5383706,-0.88206512,0.19571273,-0.42855293,0
-7.8537626,-0.69989944,-2.3114219,-0.95582956,-0.085180134,-0.28130788,0
2.7274737,3.4622278,6.7573462,0.33807305,0.42914656,0.83757973,0
-4.3155951,1.9735742,-6.5338516,-0.53441876,0.24439621,-0.80911505,0
-7.8454142,-2.8530166,1.0506613,-0.93243223,-0.33908275,0.12487174,0
-7.4432487,1.1088734,-2.9264255,-0.92183602,0.13733242,-0.36243373,0
-0.63080984,-8.1692219,-0.034972873,-0.076987974,-0.99702293,-0.0042683082,0
5.6986456,-4.7851939,-3.7186592,0.68503892,-0.57523215,-0.44702312,0
-2.308691,-3.005482,-7.3397894,-0.27948642,-0.36383879,-0.88854301,0
7.9179311,2.437377,1.5361617,0.93972367,0.28927517,0.18231624,0
-5.922605,-5.466506,1.9940298,-0.71332824,-0.65839493,0.24016422,0
-3.1374581,-7.5857701,1.3425683,-0.37718651,-0.91196442,0.1614041,0
-0.7193526,-6.8572159,4.533206,-0.087177396,-0.83101696,0.54937327,0
-6.0821643,5.2177954,2.8029947,-0.71641743,0.61460352,0.3301644,0
0.44894683,6.0195003,-5.7320185,0.05393286,0.72313434,-0.68859857,0
-4.0670781,6.9295435,-1.2221618,-0.50042039,0.85262311,-0.15037692,0
4.8631907,6.7008114,0.47196278,0.58641946,0.80800581,0.056910817,0
3.9002695,-7.2041893,-1.0891551,0.47194174,-0.87172371,-0.13179031,0
2.9032099,2.0603578,7.5000925,0.3496953,0.24817269,0.90339553,0
0.099723935,-1.4061043,8.0700474,0.01217298,-0.17163864,0.98508471,0
8.233284,-0.12084319,1.5571095,0.98247981,-0.014420248,0.18581025,0
3.1544225,-6.3267875,4.234674,0.38278025,-0.76773781,0.51386571,0
-1.2814636,-0.71761429,-7.9274092,-0.15894486,-0.089008458,-0.98326701,0
1.2266417,-7.0722985,-4.2136388,0.14737499,-0.84970206,-0.50624806,0
-0.45566529,4.5514345,6.5621123,-0.056965057,0.56899822,0.82036334,0
-2.6858974,6.6070175,-3.8629079,-0.33114138,0.8145721,-0.47625375,0
-1.6921157,-0.68510371,8.242115,-0.20044334,-0.081155494,0.97633815,0
-7.4040675,-3.5424845,0.27313694,-0.90156829,-0.43135637,0.033258963,0
-4.3180447,-4.4110608,5.2057023,-0.53475595,-0.54627526,0.64468539,0
-2.4592509,6.1140842,4.8269596,-0.3010537,0.74846679,0.59090108,0
-3.4943659,5.4038734,4.9677005,-0.42983219,0.66471535,0.61106294,0
-2.2593746,-6.4932227,-4.5723453,-0.27364144,-0.78641886,-0.55377412,0
-2.763046,6.4930658,4.3088465,-0.33418393,0.78532106,0.52114487,0
6.6598859,-1.2867366,4.8092928,0.80094928,-0.15474901,0.57838821,0
7.7718582,2.6356733,1.0961325,0.93868732,0.31833741,0.13239121,0
-4.7324109,6.5037827,-1.5445102,-0.57780933,0.79408711,-0.18857881,0
8.195138,-0.27523664,1.0848207,0.99080306,-0.033276476,0.13115627,0
4.7940526,4.0600328,5.2442188,0.58582389,0.49612811,0.64083332,0
1.3236808,-7.6587467,-2.0853949,0.16448964,-0.95172834,-0.25914547,0
7.106719,-1.3324354,-3.9028053,0.86492074,-0.16216359,-0.47498956,0
2.4619207,4.3074918,6.4623675,0.30217803,0.52870482,0.7931959,0
-1.2360132,6.8225875,4.2772818,-0.15171738,0.83745474,0.52502513,0
8.1421947,0.14618474,0.55227995,0.99754751,0.01790994,0.067663021,0
4.3481441,5.6684437,4.3795085,0.51889634,0.67645752,0.52263927,0
3.6376047,1.3078105,-7.0872531,0.4505946,0.16200012,-0.87790686,0
-5.0945983,6.4323235,1.1985152,-0.6143595,0.77567631,0.14452939,0
3.3083663,2.6305878,7.3263431,0.3911446,0.31101158,0.86618567,0
2.783803,0.18591277,7.8678513,0.33347401,0.02227064,0.94249624,0
-4.3138461,-6.0086236,4.0201225,-0.51241344,-0.71372497,0.47752398,0
-0.69017762,2.4023588,-7.7117395,-0.085136682,0.29634234,-0.95127964,0
-0.45599246,-3.4624555,-7.5486293,-0.054824241,-0.41629305,-0.90757608,0
-0.093593948,4.6189384,-7.0814853,-0.011069366,0.54628235,-0.83752799,0
-2.7910385,7.3711181,2.0892625,-0.34228924,0.90398407,0.25622436,0
6.7733483,-0.81386691,4.8790975,0.80757529,-0.097036026,0.58172685,0
-3.8103206,-6.4207458,3.4807453,-0.46254531,-0.779432,0.42253724,0
4.4943094,-4.9008074,4.9586368,0.54181814,-0.59082413,0.59779584,0
-7.7366304,1.1691824,-2.4806736,-0.94253755,0.14243905,-0.30221528,0
-1.2756004,-6.3837714,5.3576074,-0.15129681,-0.75716835,0.63545674,0
-2.9680986,-2.481514,7.1165805,-0.36642289,-0.3063522,0.87856853,0
2.1227014,-6.7773585,4.0469308,0.2596859,-0.82912481,0.49509123,0
-1.461825,-2.1625395,-7.834188,-0.17702775,-0.26188463,-0.94872415,0
-4.1253901,-4.957294,-5.1964016,-0.49809825,-0.59854203,-0.62741184,0
-7.6891441,0.21105723,-3.27408,-0.91977072,0.025246536,-0.39164343,0
-0.15988593,6.2878819,-5.1245999,-0.01970681,0.77501559,-0.63163477,0
-0.6828559,7.2147207,3.8305955,-0.083304882,0.8801586,0.46731281,0
-5.1684728,-6.2525411,1.7068007,-0.62347484,-0.75424641,0.20589203,0
6.8118782,-3.8214917,-2.818383,0.8203584,-0.46022445,-0.33941948,0
-1.5669276,7.7265029,2.6427832,-0.188447,0.92923015,0.31783509,0
0.23382977,8.1873875,0.95004928,0.02835799,0.99293536,0.11521839,0
5.8686066,-1.9315455,-5.225081,0.7252776,-0.23871197,-0.64574683,0
0.74988443,6.3800812,4.8613815,0.093082778,0.79195631,0.60344088,0
0.004892176,5.2580056,-6.1509986,0.00060456496,0.64977342,-0.76012766,0
4.8545027,0.86428726,-6.8206744,0.57679492,0.10269157,-0.81040853,0
5.6570234,5.3415771,-2.9082673,0.68106323,0.64308584,-0.3501336,0
1.1158668,-2.9247906,7.6323977,0.13526596,-0.35454467,0.92520326,0
-1.8780025,-6.2563887,4.8713756,-0.2304695,-0.7677874,0.59781784,0
4.8869824,2.3238039,5.9876809,0.60552716,0.28793359,0.74191052,0
0.019454803,3.1867819,-7.7985792,0.0023092865,0.37827122,-0.9256919,0
-5.7118878,1.9787506,5.7232661,-0.68615592,0.23770274,0.68752277,0
-1.1068877,6.250844,-5.3970461,-0.13284382,0.75019902,-0.64772993,0
7.3477492,0.0055875732,-3.5510528,0.90036607,0.00068468059,-0.43513289,0
2.8007128,5.8409801,-5.3978581,0.33215448,0.69271928,-0.64016664,0
4.8740525,-4.8849311,-4.5773239,0.58860028,-0.58991402,-0.55276674,0
1.5428247,0.28120795,7.8790164,0.19204716,0.035004098,0.98076129,0
2.7385092,7.005734,-3.9585338,0.32217816,0.82420558,-0.46571073,0
-3.2487092,1.8690342,-7.5992589,-0.38340724,0.22058029,-0.89685184,0
-8.2695627,-1.722041,0.48647955,-0.97737938,-0.20352799,0.057497006,0
-3.5624917,4.3953481,5.8538918,-0.43759018,0.53989214,0.71904886,0
7.2693462,3.558367,-1.0232458,0.89107341,0.43618312,-0.12542903,0
-5.2977271,6.1805725,-1.6155123,-0.63834864,0.74472696,-0.19466084,0
4.5653963,-2.4032564,6.5064607,0.54979831,-0.28941768,0.78355545,0
0.80613321,2.9797018,7.7503443,0.09663038,0.35717386,0.92902601,0
-1.5323651,-7.3805766,3.1806171,-0.18729573,-0.90210259,0.38875592,0
6.0580115,4.3686714,-3.0286293,0.75165021,0.54204464,-0.37577841,0
3.6127982,0.88409233,-7.3374691,0.4391754,0.10747115,-0.89195013,0
-4.0720072,-4.8983564,4.9243207,-0.50575519,-0.60839021,0.61161506,0
2.8309436,7.2559013,2.2836733,0.34878889,0.89396966,0.28136197,0
-3.4998083,5.9537477,4.3294096,-0.42936918,0.73042738,0.53114766,0
-1.7423246,7.9198656,-1.2962883,-0.21216279,0.96440172,-0.15784897,0
7.5767951,0.85975355,-2.8615348,0.93027842,0.10556048,-0.35133907,0
3.4586813,4.7368274,-5.5795255,0.42725462,0.58514535,-0.68924481,0
6.265739,4.7759604,1.894567,0.77326131,0.58940619,0.23381047,0
-4.3598075,6.8359218,-0.5955357,-0.53627992,0.84085536,-0.073254116,0
4.1971092,5.3587642,4.6801128,0.50809509,0.64872313,0.56656671,0
-0.021294272,-7.7551265,2.8630438,-0.0025758883,-0.93810856,0.34633169,0
1.3796387,-1.5297145,-8.0901985,0.16525909,-0.18323582,-0.96907902,0
-6.957799,-2.3601594,3.8270655,-0.83988923,-0.28489935,0.46197242,0
-7.3061852,-0.63667965,-4.1572552,-0.86666685,-0.075523563,-0.49313769,0
1.8730479,4.37993,-6.5589027,0.23106217,0.54031515,-0.80911666,0
-0.8811838,-4.4333754,-7.0515518,-0.10520468,-0.5293014,-0.84188592,0
-5.5796127,-4.7544656,-3.494324,-0.68707711,-0.58546799,-0.43029332,0
-1.683847,-0.80189335,8.1483555,-0.20143948,-0.095930919,0.974792,0
7.2781029,3.7274234,-0.47487521,0.8885653,0.45507178,-0.057976324,0
-7.7801018,1.1354702,-2.4966669,-0.94311112,0.13764274,-0.30264828,0
7.6810904,3.2259269,-0.66804475,0.91903776,0.38598016,-0.079931147,0
3.4470656,-6.9024844,3.1070147,0.41443744,-0.82987916,0.37355343,0
-8.362978,-0.20176435,0.12427415,-0.99959874,-0.024116216,0.014854073,0
0.61832726,-3.1681242,7.5351648,0.075429291,-0.38647717,0.9192093,0
-4.2782793,7.1188974,-0.55298561,-0.51397216,0.85523051,-0.066433065,0
-4.7261958,6.0265932,3.2601335,-0.5677948,0.72402167,0.39166528,0
-5.6993337,-5.7354531,-2.0470347,-0.68331152,-0.68764198,-0.24542561,0
-7.5881782,-2.7355993,-0.037297677,-0.94072497,-0.33913893,-0.0046238839,0
5.9564571,-3.049505,4.6846685,0.72919518,-0.37332332,0.57350159,0
-1.2859086,6.301497,-5.140265,-0.15618671,0.7653811,-0.62433761,0
5.2591434,-6.3631988,0.43241349,0.6361956,-0.76975256,0.052308816,0
-6.1599741,-4.0288005,3.6290627,-0.7506215,-0.49092808,0.44221818,0
2.1273062,-5.4849944,-5.666162,0.2604444,-0.67152351,-0.69370371,0
-5.9168768,-5.8765955,-0.27758458,-0.7091251,-0.70429748,-0.033267923,0
-3.19049,-5.808176,5.0070271,-0.38413313,-0.699301,0.60284317,0
-6.1184387,-5.4367914,-0.36707756,-0.74676913,-0.66357255,-0.044802636,0
4.730329,-6.6506286,0.64254177,0.57781661,-0.81238401,0.078487419,0
-3.6903284,4.9368296,5.5420918,-0.44521418,0.59559649,0.66861743,0
6.946681,-0.30858323,-4.4424009,0.84187335,-0.037397426,-0.53837782,0
-6.8864756,1.5700676,4.0683527,-0.84485406,0.19262074,0.49911806,0
-6.8217444,3.6157174,2.4213495,-0.84307426,0.44685319,0.29924566,0
-1.9015294,7.7972102,1.6029881,-0.23234023,0.95270973,0.19586267,0
-6.4652762,2.691364,3.9034233,-0.80639774,0.3356871,0.48686424,0
-6.1874595,2.8721581,-4.6430578,-0.74983299,0.34806514,-0.56267327,0
-1.984162,-5.3801255,5.898849,-0.24118479,-0.65398109,0.71703452,0
