2.1665182,4.0162292,7.1672935,0.25498334,0.47268078,0.84353799,0
-6.7920098,0.96492583,-5.099678,-0.79456818,0.11288254,-0.59658951,0
4.9655542,4.821455,5.237515,0.5720976,0.55549544,0.60343111,0
4.0207181,4.2814002,6.2047086,0.47060564,0.50111723,0.72623122,0
-2.4181864,-8.0651379,0.98703712,-0.28524697,-0.95135599,0.11642996,0
4.3322101,-3.9988987,6.1289144,0.50941509,-0.47022173,0.7206856,0
4.7540965,-0.12644881,7.0418034,0.55948198,-0.014881025,0.82870889,0
1.503005,-2.2220421,8.0029573,0.1780684,-0.26325625,0.94814968,0
-4.2021666,6.2297206,-4.294467,-0.48551553,0.71977782,-0.49617988,0
3.0965152,0.1775078,-7.8533125,0.36672911,0.021022754,-0.93009013,0
-4.591341,-7.3313751,1.0016241,-0.52724349,-0.84189343,0.11502082,0
-7.9725556,1.6340518,-2.7569153,-0.92784244,0.19017021,-0.32084855,0
-5.4040842,5.2820807,3.7867134,-0.63935214,0.62491804,0.44800255,0
2.0510051,-3.7507145,-7.6950836,0.23299538,-0.42608336,-0.87416601,0
0.7183581,-8.6826839,-1.0739799,0.081833437,-0.9891082,-0.12234492,0
2.7691908,3.4123259,-7.3521857,0.32329756,0.39838231,-0.85835314,0
8.0676708,-1.427843,-2.7351964,0.93402261,-0.1653064,-0.3166633,0
6.0487471,-6.3192558,-1.0464724,0.68658036,-0.71728522,-0.11878285,0
2.4751539,7.3354077,-3.8461459,0.28632694,0.84856331,-0.44492391,0
-2.8353107,2.5349648,7.4670396,-0.33834904,0.30250755,0.89107186,0
6.0831556,3.5761371,-4.6056552,0.72190928,0.42439264,-0.54656917,0
4.3935914,-0.52318943,-7.1931095,0.52025884,-0.06195249,-0.85175854,0
0.47036871,3.0495203,7.9457741,0.055182613,0.35776296,0.93218058,0
-6.5188074,-3.5040345,-4.546679,-0.75050187,-0.40341496,-0.52345324,0
5.0751519,4.7271423,5.0718651,0.59066582,0.55016315,0.59028333,0
4.8473043,-3.9617312,6.0848646,0.55523092,-0.45379359,0.69698632,0
-6.7505364,-1.1911099,-4.8920798,-0.80158776,-0.14143752,-0.58090663,0
-7.2309775,-1.6131064,-4.421957,-0.83808011,-0.1869612,-0.51251078,0
8.269352,2.2533913,0.51991981,0.96304935,0.2624301,0.0605499,0
-6.6862569,1.0493933,-5.2714176,-0.77939671,0.1223246,-0.61447322,0
4.0040951,3.3964829,-6.9741244,0.45867613,0.3890731,-0.79889822,0
8.071311,2.4358361,-1.1171851,0.94905734,0.28641543,-0.13136314,0
-5.7223182,2.2293646,6.0681906,-0.66280127,0.25822151,0.70286274,0
3.3015184,-1.9452937,7.5899258,0.38830331,-0.22879291,0.89267814,0
-0.70244819,8.3905573,2.3935993,-0.080247469,0.95853472,0.27344406,0
-6.3104534,-3.2048936,4.8949852,-0.7333076,-0.37242535,0.5688228,0
1.1408464,7.9186487,3.5795798,0.1301638,0.90347087,0.40840885,0
5.2123718,-2.1612532,6.5235629,0.60430825,-0.25056982,0.75632417,0
-8.1105995,-2.4635575,-0.6010167,-0.95443809,-0.2899062,-0.070726365,0
-4.1201949,6.7070351,-3.7423182,-0.47272679,0.76952553,-0.42937145,0
3.2608957,-7.7702608,1.0616486,0.38393381,-0.9148609,0.12499719,0
-7.3634543,-4.5112514,-0.012574134,-0.85269493,-0.52240717,-0.0014560965,0
0.14614899,3.0659895,-8.0521221,0.0169599,0.35579357,-0.93441069,0
-7.017518,-0.71124995,-4.6359825,-0.83140016,-0.084265307,-0.54924786,0
5.6195354,-2.9784203,5.9389768,0.64578879,-0.34227568,0.68249851,0
4.0264158,-4.5123529,-6.0278425,0.47155279,-0.52846318,-0.70594943,0
7.9654217,-1.2901034,-2.6243696,0.93873644,-0.15204054,-0.30928573,0
-6.3835859,2.419826,4.9828753,-0.7552833,0.28630525,0.58955622,0
-0.98408753,8.2677221,2.1124582,-0.11456352,0.96249503,0.24592391,0
0.56546158,5.3618279,6.7421284,0.065501526,0.62109953,0.78098977,0
-2.6846952,2.4699962,-7.659184,-0.31645682,0.29114932,-0.90282172,0
2.5051532,-7.4854112,3.4768744,0.29044241,-0.86784345,0.40310177,0
-5.9050899,-0.49478173,-6.0685844,-0.696199,-0.058333836,-0.71547472,0
-1.8829001,-1.2296628,8.2310705,-0.22066732,-0.14411087,0.96464396,0
1.8157378,-8.3583088,0.6022374,0.21176182,-0.97479421,0.0702364,0
6.7013817,-2.9005139,-4.2896218,0.79129255,-0.34248981,-0.50651431,0
-5.8814864,5.7937431,-3.1719828,-0.66500652,0.65508562,-0.35864902,0
4.9960546,-3.9963799,-5.7221346,0.58206135,-0.46559504,-0.66665268,0
2.5995064,-0.35994977,8.187067,0.30236003,-0.041867342,0.95227385,0
4.4348788,-2.1190131,7.106688,0.5132488,-0.24523351,0.82245743,0
7.9898334,-0.18752339,-3.7130921,0.90665072,-0.02127932,-0.42134514,0
-0.48129532,-7.205399,-4.9941473,-0.054816335,-0.82064706,-0.56880015,0
5.0286059,-6.6517706,-1.3429266,0.59537703,-0.78755647,-0.15899986,0
-0.49674463,-3.4888399,7.859169,-0.057673231,-0.40506259,0.91246814,0
-1.1381167,8.4139538,-0.90050173,-0.13329706,0.98544836,-0.10546742,0
-1.1822002,3.6480036,-7.74087,-0.13684981,0.4222877,-0.89607209,0
8.3867807,1.949201,-0.54472101,0.97209573,0.22592817,-0.063137576,0
5.0302696,2.4725144,6.2650628,0.59838402,0.29412204,0.74527091,0
1.3550864,7.4157715,4.2740512,0.15637036,0.85574377,0.49320462,0
-1.1334599,2.6571078,-8.0646687,-0.13231404,0.31017655,-0.94142628,0
2.4140599,-6.7478375,-4.7052441,0.28158104,-0.78708208,-0.54882962,0
4.8794007,-5.2921624,4.62359,0.57033676,-0.61858308,0.54043591,0
-2.4579353,4.8055525,-6.7702951,-0.28387153,0.55500221,-0.781914,0
3.4568152,7.8872046,-0.61506599,0.40039948,0.91356707,-0.071242481,0
8.6761456,-0.96271443,0.90917665,0.98855293,-0.10969089,0.10359084,0
-8.6656094,-0.30003527,-0.3940874,-0.99837047,-0.034567259,-0.045403063,0
-3.6928053,0.79069126,7.8519292,-0.42383146,0.09074939,0.90118337,0
-6.5525842,-5.8635669,0.47841081,-0.74409962,-0.66585606,0.054327466,0
-6.2433052,-5.8465157,-1.5694792,-0.71793497,-0.67230707,-0.18047877,0
-8.1712914,1.9671086,-1.9233478,-0.94772643,0.22815008,-0.2230746,0
-4.0491533,3.898478,6.5288873,-0.47000593,0.45251626,0.75784129,0
-1.6670594,1.5371035,-8.1849127,-0.19628151,0.18098034,-0.96370107,0
3.632292,-6.9579616,-3.4156218,0.4243342,-0.81284791,-0.39902219,0
4.5369983,-0.65156227,7.3130054,0.52568156,-0.075493582,0.84732497,0
-5.1856942,-1.092278,-6.9563642,-0.59298784,-0.12490276,-0.79546517,0
1.8398917,7.8631558,-2.9341147,0.21413867,0.91516566,-0.34149152,0
-1.5919484,-8.0813475,1.5976678,-0.18973961,-0.96319187,0.1904213,0
6.1022329,1.9121164,5.4773345,0.72473979,0.22709504,0.65052289,0
0.41824979,-7.0937614,4.4713855,0.049816471,-0.84491658,0.53257328,0
6.0542006,5.5512805,2.2851341,0.7100907,0.65110373,0.26802093,0
7.5411921,4.3444042,0.53913891,0.86484009,0.4982256,0.061829608,0
8.3425856,0.33492491,1.0881996,0.9908151,0.039777674,0.12924106,0
-6.0418348,-1.6952078,-6.0725274,-0.69189489,-0.1941307,-0.69540972,0
-1.1147703,3.3744652,-7.6931405,-0.13154684,0.39819884,-0.90781778,0
-6.2225838,-4.4824138,-4.256145,-0.70946401,-0.51105964,-0.48526174,0
-7.0277014,4.2150602,-1.6913172,-0.83987576,0.50373894,-0.20212816,0
7.570323,0.92549473,4.0395594,0.87716603,0.10723618,0.46805987,0
-1.6877153,-7.2338519,4.3146696,-0.19646741,-0.84209478,0.50227189,0
3.375174,0.50211525,-7.8139563,0.39584348,0.058888532,-0.91642791,0
-1.7783395,3.7215068,7.6376009,-0.20487422,0.42873746,0.87989247,0
-0.60072154,3.5018737,7.7438502,-0.070506833,0.41101578,0.90889758,0
-6.9606123,-4.6006379,-2.5491452,-0.79783815,-0.52733356,-0.29218769,0
-4.2156348,-6.3729968,3.7501807,-0.49527022,-0.74872601,0.44058675,0
-4.7825103,-2.3316855,6.7881713,-0.55450213,-0.27034432,0.78704596,0
1.2211411,0.29660276,8.4398155,0.14311047,0.034760077,0.98909611,0
6.9375329,2.6816943,4.5455775,0.79587793,0.30764559,0.52147138,0
8.0625706,2.9310274,0.71257633,0.93659854,0.34048644,0.082777314,0
3.1028845,-8.0373735,0.13684539,0.36010495,-0.93277657,0.015881579,0
2.0154908,-7.1273651,4.6161642,0.23093374,-0.81664932,0.52891737,0
4.0636063,6.1577859,4.6963081,0.4646427,0.70409638,0.53698742,0
-3.6686602,-2.9693379,-7.060277,-0.43198526,-0.34963998,-0.83134866,0
-2.8628426,-6.5856581,4.524014,-0.33731085,-0.77594692,0.53303629,0
-3.8261611,-7.4519935,2.0231402,-0.4439885,-0.86473078,0.23476559,0
-1.5186313,-8.4954519,-1.6677829,-0.17277215,-0.9665134,-0.18974088,0
-2.8459311,-7.9631615,-0.40106249,-0.33616251,-0.94061178,-0.04737366,0
7.6791124,3.5737424,-0.82845706,0.90232199,0.41992697,-0.097346544,0
-0.85497773,1.7857021,8.4474916,-0.098540656,0.20581152,0.97361761,0
5.5571079,-3.9492373,-5.089107,0.65320385,-0.46420857,-0.59819323,0
-4.3362947,-0.65761673,7.3394499,-0.50716573,-0.076913744,0.8584097,0
-1.4766835,-4.4282799,-6.9052258,-0.17716636,-0.53128666,-0.82846034,0
-3.84233,3.7959793,-7.0048895,-0.43438643,0.42914635,-0.79192287,0
0.38092765,7.7954793,3.6623023,0.044184409,0.90421009,0.42479628,0
7.2028337,-4.577733,-1.2809931,0.83462453,-0.53044242,-0.1484344,0
8.1231127,2.561722,1.8940135,0.93096048,0.29358968,0.21706602,0
0.82986253,-8.4846611,-2.0959265,0.094528012,-0.96647108,-0.23874287,0
-3.4653087,-7.9839039,-0.94803423,-0.39580953,-0.91192603,-0.10828501,0
1.209215,2.4181907,8.3968382,0.13707776,0.27412841,0.9518736,0
1.744946,3.8614657,-7.5420046,0.20170753,0.4463672,-0.87182015,0
-7.4983382,1.6603954,3.8540854,-0.87263179,0.19323133,0.44852573,0
-3.5554488,-1.992993,-7.6756101,-0.40910971,-0.22932486,-0.88319838,0
-8.0342073,0.44088894,-3.089622,-0.93214154,0.051152635,-0.35846287,0
-7.8612943,-3.1319439,2.0109832,-0.90381747,-0.36008137,0.2312039,0
-8.3440905,-0.15837729,1.3796355,-0.98643196,-0.018723242,0.16309945,0
-6.2176571,-4.9705291,3.4517875,-0.71661556,-0.57287794,0.39783549,0
-2.5801566,0.40717125,8.156435,-0.30126226,0.047541816,0.95235538,0
-7.4856796,-4.0992956,0.61396748,-0.87483579,-0.47907615,0.0717531,0
1.4000299,7.2106509,-4.0894837,0.16653168,0.85769731,-0.48643863,0
-3.959547,0.83326215,7.4426141,-0.46740097,0.098361641,0.87855631,0
3.8752935,4.8795085,5.7278495,0.45786735,0.57651573,0.6767475,0
-7.8030715,0.96528262,2.9882367,-0.92769378,0.11476079,0.35526633,0
4.8996506,-3.859045,-6.0725703,0.56286258,-0.4433198,-0.69760537,0
1.477743,-4.7863297,-6.9852815,0.17191564,-0.55682546,-0.81264406,0
-3.9683709,-5.355763,5.6144896,-0.45533922,-0.61453152,0.64421833,0
-0.77675349,5.2554049,6.8026443,-0.089993089,0.60888058,0.78814059,0
-2.7758296,4.6543031,6.456665,-0.32929987,0.5521453,0.76596159,0
6.1410856,-5.1940703,-2.71382,0.72345203,-0.61188865,-0.31970218,0
-5.9367399,-2.399226,-5.8593283,-0.68399942,-0.27642599,-0.67508042,0
-5.4177327,-6.2971735,2.4775975,-0.62498325,-0.72643447,0.28581271,0
2.1454043,-3.104388,7.6271334,0.25211602,-0.36481047,0.89629847,0
4.1319237,-5.2171988,-5.3505397,0.48386952,-0.61096084,-0.62657571,0
6.6704731,2.2632444,4.7914696,0.7829988,0.26566598,0.5624361,0
-6.9321022,-5.1052876,-1.4146082,-0.79454422,-0.58515823,-0.16213967,0
-7.6071663,-1.5528581,3.5802486,-0.88975126,-0.18162577,0.41875392,0
0.74598753,-6.6990771,5.0700769,0.088445395,-0.79425257,0.60111588,0
2.93576,-8.0231104,-0.97584581,0.3414107,-0.93303806,-0.11348482,0
1.2405635,-2.2494531,-8.1439638,0.14527343,-0.26341721,-0.95368081,0
0.16779327,7.9735909,3.3791842,0.019371845,0.92055631,0.39012906,0
-7.5365868,-1.4568603,-3.7062495,-0.88415903,-0.1709124,-0.4348008,0
3.8252132,-6.8814945,-4.0397668,0.43227041,-0.77764726,-0.45651615,0
5.6863179,6.2291164,1.2929468,0.66641098,0.73002458,0.15152758,0
-7.7974987,-2.3808186,2.3767519,-0.91819042,-0.28035206,0.27987319,0
2.4161713,-2.7948458,7.6244555,0.28518185,-0.32987699,0.89991808,0
3.3089998,-5.5170116,5.7982211,0.38207442,-0.63702303,0.6694929,0
5.8828564,-4.2938261,4.9605312,0.66759402,-0.48726884,0.56292737,0
1.9419799,-8.1244259,-2.5917962,0.22203848,-0.92891544,-0.29633597,0
5.2670617,-3.7344782,-5.846962,0.60466993,-0.42872611,-0.67124373,0
-4.6058116,-7.1023321,-0.17418362,-0.54398394,-0.83884341,-0.020572508,0
0.64026576,-0.61806166,-8.399416,0.075803146,-0.073174328,-0.99443418,0
2.3432369,7.3791261,-3.3698354,0.27750921,0.87390882,-0.3990891,0
4.6352339,7.0089407,-2.3257198,0.5316292,0.80387694,-0.26674396,0
-0.52492428,0.56088543,8.3651209,-0.062488597,0.066769525,0.99580967,0
7.9641104,-1.9883276,-2.0041823,0.94253296,-0.23531371,-0.23719007,0
-2.6480696,7.5035791,2.8340344,-0.3135013,0.88833833,0.33551741,0
5.6689777,6.1356215,-0.68847227,0.67633128,0.73200369,-0.082137443,0
6.1811833,2.6082876,-5.2915359,0.72340059,0.30525494,-0.61928272,0
0.16039804,7.047842,-4.8081632,0.018796843,0.82592773,-0.56346256,0
-7.3384247,-0.76503664,-4.413672,-0.85354602,-0.088982858,-0.51336253,0
2.0937109,-8.5225983,0.85943967,0.23743631,-0.9665013,0.09746436,0
1.2978939,3.1065094,-7.6398311,0.15545931,0.37209192,-0.91508472,0
-4.2013741,-4.3320336,-5.8784313,-0.49870265,-0.51421195,-0.69776917,0
6.2090669,-5.3754501,-2.3967857,0.7257598,-0.62832075,-0.2801533,0
-4.2890902,-1.9792528,7.3118997,-0.49271381,-0.22736879,0.8399623,0
-2.0697892,-3.7827079,7.4990964,-0.23927101,-0.43728724,0.86690784,0
0.81618333,-7.0642567,-4.8855963,0.09459924,-0.81877846,-0.56626213,0
6.7747736,1.9599973,-4.8297043,0.79257345,0.22929797,-0.56502187,0
-5.9045243,1.7977173,5.9908643,-0.68645358,0.20900066,0.69649136,0
-2.4822063,-7.7759609,3.1012585,-0.2842713,-0.8905313,0.35516739,0
-6.5777993,-1.2197345,-5.4553499,-0.7620014,-0.14129944,-0.6319719,0
0.52302647,6.7428746,-5.3323593,0.060729247,0.78292346,-0.61914676,0
-7.279439,-4.2832985,2.5469995,-0.82516515,-0.48553586,0.28871664,0
1.6979246,3.8869436,-7.5950837,0.19518106,0.44681475,-0.87307554,0
-1.5769556,-5.3260241,-6.4980392,-0.18447037,-0.62303191,-0.76013285,0
6.6415257,-2.6933651,-4.7139902,0.77423161,-0.3139773,-0.54953039,0
-2.0260651,-5.2150607,-6.4508367,-0.237271,-0.61073196,-0.75545275,0
1.7433572,-6.310648,-5.5888848,0.20252545,-0.73310667,-0.64925963,0
-4.086513,0.65587777,-7.5575891,-0.47425693,0.076117359,-0.8770898,0
-3.1885099,-1.7350553,-7.9312272,-0.36555153,-0.19891803,-0.90928751,0
7.5758734,-3.2405853,2.3833227,0.88321447,-0.37779564,0.27785379,0
8.379487,0.5509696,-1.3900071,0.98445028,0.064729758,-0.1633027,0
-7.498982,-3.275157,-3.2927353,-0.85016418,-0.37130654,-0.37329942,0
-7.5693455,3.4655793,-2.2510731,-0.87771183,0.40185508,-0.26102567,0
-3.458499,-7.6971846,1.1154583,-0.40631431,-0.90428716,0.1310472,0
-4.5465975,-2.9066491,-6.5479975,-0.53583491,-0.34256038,-0.77170801,0
2.2418153,-7.6344247,-3.4515588,0.25847781,-0.88023722,-0.39795935,0
-7.260808,1.5966386,-4.8197212,-0.81951112,0.18020901,-0.54399115,0
-3.8581898,-7.59934,1.9973593,-0.44075599,-0.86814147,0.22817644,0
1.0483632,7.5543885,-4.4786725,0.1185319,0.85412765,-0.50637561,0
1.6833076,-3.5117822,-7.7140288,0.19479755,-0.40639427,-0.8926912,0
6.3234177,5.7118702,0.1533494,0.74195939,0.67020339,0.017993281,0
-5.0586209,-6.7854114,1.2535405,-0.59124607,-0.79307139,0.14651243,0
-2.0153286,-8.2946653,-0.1365401,-0.23606779,-0.97160494,-0.015993778,0
6.0657926,0.50688332,-6.2273459,0.69657081,0.05820841,-0.71512294,0
-3.7764788,5.7006264,4.8185396,-0.45144889,0.68146586,0.57601923,0
6.9969797,-0.58855593,-5.0235591,0.81042928,-0.06816984,-0.58185667,0
-5.9361506,4.0985212,-4.8038788,-0.68493176,0.4729003,-0.55428666,0
-4.8781939,4.4980884,-5.3044977,-0.57423401,0.52949005,-0.62441611,0
7.7289472,-2.1038439,3.2208781,0.89523041,-0.24368456,0.37306866,0
-6.7611609,-4.2222891,-3.81529,-0.76507294,-0.47778171,-0.4317269,0
2.4815397,-2.510457,-7.9329257,0.2857981,-0.28912848,-0.91363239,0
0.73981839,5.9556355,6.0316854,0.08694835,0.69994569,0.70888358,0
-2.4045217,6.0130982,5.4798908,-0.28343806,0.70880657,0.64595366,0
1.7398337,4.5878267,-6.8931899,0.20562589,0.5422219,-0.81468612,0
7.866282,-3.8577905,-0.78277785,0.89427865,-0.43857309,-0.088990137,0
7.3633265,3.2150226,2.6727498,0.86959875,0.37968975,0.31564808,0
-6.8015127,-5.1999817,-1.3228468,-0.78510773,-0.60024089,-0.15269798,0
-5.4921131,-3.6652744,-5.8311605,-0.62346011,-0.4160789,-0.6619485,0
0.94613403,1.9375728,-8.2657576,0.11075778,0.2268191,-0.9676187,0
-7.9129896,0.96497595,2.8297641,-0.93545568,0.11407726,0.3345283,0
-1.8679413,-7.3554001,3.5449324,-0.22301069,-0.87815011,0.42322412,0
1.3916092,0.59036207,-8.5942602,0.15947498,0.067654036,-0.98488098,0
-3.7895401,5.6047521,-5.5514746,-0.43300483,0.64041668,-0.63432902,0
7.5975037,1.1799471,-3.68471,0.89110595,0.13839518,-0.43217707,0
-3.9398198,2.5533249,-7.4023385,-0.44946226,0.29128826,-0.84447312,0
-3.3043981,-5.0192447,6.1711712,-0.3836228,-0.58270723,0.71643966,0
4.2570748,-6.2425098,-3.8994231,0.50066912,-0.73417354,-0.45860612,0
-6.4523458,4.8040843,-3.5209301,-0.73479342,0.54708934,-0.40096366,0
-4.3954287,-7.2963943,1.728389,-0.50570804,-0.83947337,0.19885665,0
-3.3358016,4.9032793,6.0042667,-0.39527228,0.58100891,0.71146923,0
7.2645011,3.7363589,-2.0178552,0.86332345,0.4440341,-0.23980471,0
-4.5464373,1.1887852,-6.9756126,-0.54054403,0.14133941,-0.8293584,0
1.7749188,-6.9558811,4.8420162,0.20497766,-0.80330449,0.55918342,0
6.0070553,5.6472898,2.4733152,0.69786346,0.65606803,0.28733483,0
-5.6158929,0.35580167,6.191072,-0.67125529,0.04252819,0.7400052,0
6.6215305,1.693154,5.4525418,0.75734431,0.19365621,0.62364,0
-6.0897117,6.122035,1.9094994,-0.68859732,0.69225228,0.21591765,0
-7.0425215,-3.7262359,3.1070061,-0.82350123,-0.43571892,0.36331069,0
3.1272342,-6.0602117,-5.2604532,0.36309683,-0.70363891,-0.6107806,0
7.7126145,2.4160128,-2.1664605,0.92173439,0.28873762,-0.25891364,0
1.5981356,5.6714249,-6.0423007,0.18935935,0.67199385,-0.71593809,0
-3.7455337,7.821454,0.99959093,-0.42906854,0.89598441,0.11450785,0
8.5772915,0.61112064,-1.9509732,0.97274911,0.069307081,-0.22125952,0
3.9689457,3.2397144,6.9615717,0.45917758,0.3748109,0.80540222,0
5.6829414,1.0990916,-6.4275784,0.65700901,0.12706679,-0.74309701,0
-1.3185852,-5.0761824,-7.0813961,-0.14963411,-0.57604927,-0.80360252,0
2.74789,5.5675902,5.9304705,0.320043,0.64844966,0.69071382,0
3.947751,-6.4590592,4.3749804,0.45151922,-0.73874706,0.50038308,0
4.0764732,7.6451006,1.0796376,0.4668951,0.87562454,0.1236553,0
5.4857163,5.8720317,-3.1245701,0.63625544,0.6810618,-0.3624002,0
5.7364154,-6.0237088,-1.0985222,0.68369055,-0.71793139,-0.13092658,0
-0.58932835,-3.8459232,-7.5278664,-0.069546185,-0.45385444,-0.88835776,0
0.042899266,5.4190001,-6.7143407,0.0049718516,0.62804025,-0.77816498,0
-7.3385568,4.62041,0.79623008,-0.84269661,0.53056806,0.091432199,0
5.0363188,1.4727663,6.5311151,0.60114413,0.17579205,0.77956575,0
1.9552406,-8.0972137,-1.9545649,0.22851801,-0.9463588,-0.22843905,0
-2.2224407,-8.2149744,1.4632148,-0.25737101,-0.95133978,0.16944842,0
-0.65262872,8.4431152,-2.0074492,-0.074989051,0.97013998,-0.23066209,0
-7.0164742,-3.7943425,2.9384916,-0.82539517,-0.44635406,0.34567457,0
-1.3473972,0.84452075,8.5161419,-0.15552869,0.097482175,0.98300964,0
3.7889583,-2.7945981,-7.0788412,0.44567969,-0.32871717,-0.83265519,0
-6.729753,3.364687,-4.2573628,-0.77845711,0.38920662,-0.49246597,0
3.1943781,-4.9083037,-6.3566117,0.36958998,-0.56789142,-0.73546088,0
-6.6019282,3.5248873,-3.8944452,-0.78253001,0.41780674,-0.46161062,0
-7.4035678,0.12757154,-4.060667,-0.87668014,0.015106154,-0.48083657,0
4.2302494,-6.6093874,-3.335284,0.49612305,-0.77514803,-0.39116165,0
-2.4174371,5.0915656,6.4924021,-0.28117466,0.59220535,0.7551381,0
-7.9492784,0.36861756,-3.6138911,-0.9095313,0.042176057,-0.41349,0
2.6647968,2.2164476,-7.9654346,0.306761,0.25514877,-0.91694969,0
-1.0388287,-5.6447811,-6.6392899,-0.11836793,-0.64318687,-0.75650483,0
-6.4096756,2.0621879,5.3437266,-0.74565405,0.23989964,0.6216495,0
-0.96131444,-8.4798489,1.6587232,-0.11057387,-0.97538286,0.19079235,0
-0.03987043,-4.4686337,7.0604944,-0.0047715376,-0.53478861,0.84497243,0
-0.52491367,1.9839792,-8.1941118,-0.062140562,0.2348683,-0.97003895,0
1.448892,7.5802641,4.2654347,0.16431443,0.85965466,0.48372996,0
2.4737716,-4.6519909,6.6898327,0.29050085,-0.54629427,0.78560287,0
-0.92523098,-8.5234938,1.6264802,-0.1060257,-0.97673923,0.18638448,0
-0.36905423,-1.4291333,-8.5116386,-0.042721186,-0.16543442,-0.98529506,0
-1.6302047,-5.9394822,6.3338661,-0.18452179,-0.67228609,0.71692616,0
-8.344409,2.1045868,-1.4361475,-0.9564085,0.24122076,-0.16460645,0
6.2599983,-1.996724,5.7915816,0.71470809,-0.22796728,0.66122866,0
1.4958023,3.9110186,-7.3997178,0.17592888,0.45999467,-0.87031823,0
4.9237132,-6.2593627,-3.5575392,0.56449658,-0.71762687,-0.40786672,0
-0.41530693,-7.6899233,-3.6547906,-0.048719954,-0.90211046,-0.42874613,0
-8.5461664,-0.59689713,-1.4767504,-0.98307139,-0.068661481,-0.1698716,0
8.0362072,-3.4048002,-0.355804,0.92000288,-0.3897891,-0.040733233,0
2.8308136,-2.2065368,-7.8605742,0.32759365,-0.25534973,-0.90965873,0
4.113946,-3.9753354,6.4192615,0.47844744,-0.46232718,0.74655312,0
3.1890996,0.80924183,7.7943401,0.37694797,0.09565147,0.92128223,0
7.7225127,-2.720892,2.1799281,0.91142082,-0.32112315,0.25727791,0
-7.3102283,-0.5226028,4.7669001,-0.83614635,-0.059775483,0.54523963,0
2.7308543,-8.1871233,-0.49377778,0.31590024,-0.94707143,-0.05711931,0
-2.4132707,-7.0196872,4.4533033,-0.27878731,-0.81093252,0.51445717,0
-6.6355147,4.8125887,2.0095761,-0.78622133,0.57022852,0.23810835,0
1.4278883,-5.1667581,-6.7082682,0.16628653,-0.60170132,-0.78121984,0
2.0544083,-7.2634439,4.2489944,0.23717177,-0.83853042,0.49052641,0
8.1153564,1.843442,2.0529165,0.94677633,0.21506476,0.23950307,0
1.3553814,8.2169895,-2.3074586,0.15684055,0.95084471,-0.267012,0
-3.0550921,0.95916677,8.1390381,-0.34930164,0.1096656,0.93057072,0
1.6547422,-6.3287249,-5.7974348,0.18931295,-0.72404605,-0.66326308,0
6.0460181,2.8410554,5.7234349,0.6872977,0.32296476,0.65062714,0
-5.9914341,-6.1225252,-1.0986015,-0.69373226,-0.70891094,-0.12720415,0
5.0446215,-2.9975832,6.0438747,0.59884614,-0.35584256,0.71746731,0
-1.7104617,-8.327136,0.93528789,-0.20000048,-0.97367346,0.10936113,0
-5.2853327,5.8135037,2.9241817,-0.63044763,0.6934492,0.34880367,0
-3.0947993,-7.3441405,-3.7352989,-0.35162124,-0.83441788,-0.42439279,0
8.4574041,-1.4968233,1.8933597,0.96160907,-0.1701892,0.2152755,0
-3.7994235,-7.6337929,0.87888741,-0.44322544,-0.89052755,0.10252747,0
3.5994751,2.5267787,-7.6047134,0.40973955,0.28763115,-0.86566842,0
-5.925693,-6.0243564,-1.272229,-0.69342989,-0.70497555,-0.14887737,0
4.0433168,3.2414241,6.5988908,0.48189184,0.38632041,0.78647107,0
-6.7945876,2.3204021,-4.9674559,-0.7782349,0.265773,-0.56895983,0
6.7082157,5.3295193,-1.2407867,0.77489001,0.61563182,-0.14332771,0
7.4527912,4.1571307,0.34826231,0.8725993,0.48673165,0.040775791,0
-0.81032485,-5.997272,-6.0947356,-0.094345272,-0.69825608,-0.70960367,0
3.8154454,-4.3178477,6.1415329,0.45306581,-0.51272368,0.72927749,0
6.8785634,4.3550081,3.0582447,0.79093426,0.50076228,0.35165346,0
4.5931797,-3.5417817,-6.2844477,0.53709167,-0.41414914,-0.73485571,0
3.0681643,-1.6480722,-7.9524603,0.35340714,-0.18983355,-0.91600579,0
0.94994843,-6.2308722,5.7280569,0.11153748,-0.73159313,0.67255545,0
-5.8657708,5.9130473,2.3989558,-0.6767509,0.68220532,0.27677444,0
1.3398601,7.3871503,4.7046127,0.15122671,0.83376944,0.53099805,0
-6.8487096,-5.0319395,-1.1651486,-0.7984001,-0.58660698,-0.13582921,0
-1.8922055,-8.5512705,-0.076834075,-0.21604323,-0.97634441,-0.0087725585,0
0.77931416,-6.6536446,5.7232575,0.088447712,-0.75515074,0.64955711,0
-4.4203205,4.3721523,-6.0915356,-0.50784218,0.50230825,-0.6998449,0
5.9998593,-5.4826765,-3.2216067,0.68626177,-0.62710661,-0.36848626,0
2.6067953,-8.217104,0.015857588,0.30238795,-0.95318311,0.0018394785,0
-7.4564137,-3.7952135,-1.5292287,-0.87667745,-0.44621694,-0.17979693,0
0.27045819,-8.509716,-2.0530293,0.030881118,-0.97164571,-0.23441641,0
0.069024615,3.363713,-8.0231638,0.0079338383,0.38663241,-0.92219973,0
3.1495588,6.1002288,5.067966,0.36909142,0.7148754,0.59390628,0
-0.97947943,-7.2398758,4.1702251,-0.11643489,-0.8606348,0.4957324,0
-4.8161631,4.4701085,5.4877648,-0.56256193,0.52214032,0.64100981,0
8.0812206,2.1481633,0.68013924,0.96325684,0.25605449,0.08107052,0
7.4754143,-4.5511179,1.041575,0.84816903,-0.51637506,0.11817829,0
4.4796829,-5.9477859,-4.4398651,0.51673168,-0.68607748,-0.51213872,0
-0.79864448,5.7254801,-6.3532214,-0.092977345,0.66655433,-0.73963535,0
-1.3578023,2.7507243,8.0801783,-0.15710065,0.31826472,0.93489403,0
6.6386313,-1.0840763,5.2977409,0.77533424,-0.12661065,0.61872989,0
6.0876751,-4.5638928,3.9438488,0.71035707,-0.53255033,0.46019882,0
3.5864518,7.7877817,-1.1803448,0.41438922,0.89982331,-0.13638052,0
-5.6586108,6.103231,-1.8343035,-0.663957,0.7161268,-0.21522926,0
-2.150439,7.0097747,4.2575374,-0.25362909,0.82675338,0.50214642,0
8.2131405,0.11236914,2.881017,0.94354963,0.012909295,0.33097968,0
8.0789204,-0.10618167,-2.8866508,0.94162101,-0.012375774,-0.3364473,0
6.4464345,-2.8254888,-4.9389615,0.74972105,-0.32860467,-0.5744018,0
7.2411819,4.5984488,-0.8383314,0.84016395,0.5335387,-0.097268075,0
-4.3778524,2.9403098,-7.0687928,-0.49639839,0.33339748,-0.80152023,0
4.8649721,-7.1326323,-1.7748364,0.55193883,-0.80920851,-0.20135802,0
3.2897201,-7.1355424,3.5492301,0.38155884,-0.82761729,0.41165814,0
-0.79114485,5.9636397,-6.4580288,-0.089638688,0.6756953,-0.73171079,0
6.6219587,0.86602616,5.5484715,0.7626785,0.099743828,0.63904047,0
5.8992157,-2.1927693,5.9596434,0.68060982,-0.25298622,0.68758154,0
0.70125616,0.95339131,8.4478397,0.082207292,0.11176474,0.99032861,0
5.4098983,4.3994765,-4.616405,0.64691347,0.52608764,-0.55202782,0
-3.9703767,6.8434701,-3.5790515,-0.45722196,0.7880826,-0.4121576,0
-2.6097674,3.584069,7.3919816,-0.30277064,0.41580367,0.85757643,0
2.8904099,6.3514833,-4.9637694,0.33752376,0.74168599,-0.57963753,0
-5.8105083,-6.1040707,1.3239179,-0.68112159,-0.71553367,0.15519281,0
-2.1438141,-5.6556191,6.1937199,-0.24763857,-0.65329802,0.71545565,0
6.9503403,-4.3594389,-2.7232845,0.80401427,-0.50429922,-0.31502911,0
7.0403805,4.9387565,1.2973769,0.80949873,0.56785524,0.14917161,0
-7.2437673,-3.2837942,3.6153388,-0.82913989,-0.37587139,0.41382083,0
3.5179441,7.4775062,-2.0101728,0.41364735,0.87922108,-0.2363604,0
-0.80469561,-0.48098147,8.4973898,-0.09412802,-0.056262065,0.99396902,0
-1.7279139,-4.460362,7.1839442,-0.20020473,-0.51679981,0.83236766,0
-7.0455546,4.3084011,-2.3629994,-0.82021636,0.50156748,-0.27509129,0
5.3268261,0.84201187,-6.924511,0.60691851,0.095935658,-0.78895271,0
2.6272798,2.1636465,-8.0496035,0.30061889,0.24756899,-0.92105263,0
-7.9017467,0.15229236,-2.849916,-0.94053215,0.018127112,-0.33922088,0
0.25898445,-4.3998218,-7.2617383,0.030488102,-0.51795471,-0.85486454,0
-5.1351838,5.1063576,-4.7936611,-0.59129024,0.58797103,-0.55196559,0
0.27662569,-8.0790854,2.9204171,0.032183845,-0.93995625,0.33977413,0
-4.1070681,-7.5897551,-0.54085469,-0.4749884,-0.87776619,-0.062550634,0
-5.0197382,-2.4220309,-6.6161036,-0.58026099,-0.27997676,-0.76479423,0
-1.3544769,-2.4432461,8.1407242,-0.15737453,-0.28387693,0.94585788,0
-3.7345219,7.8900461,-1.0552794,-0.42472562,0.89733171,-0.12001649,0
1.3598098,-3.8554499,-7.5737538,0.15799429,-0.44795904,-0.87998331,0
6.7426624,-2.2896476,4.6272535,0.79398298,-0.26961771,0.54488277,0
5.7982116,-6.2814231,-1.9195995,0.661798,-0.71695095,-0.21909982,0
-7.5140715,-1.6933157,-4.2090693,-0.8560586,-0.19291505,-0.47952828,0
-7.4080844,-3.7386305,-2.2425411,-0.86183608,-0.43494195,-0.26089102,0
7.7251582,-2.1670172,3.5081148,0.88219333,-0.24746783,0.40061775,0
-6.5978231,1.8472383,5.4935069,-0.75129592,0.21034554,0.62554711,0
0.15009154,-3.2612586,-8.0589333,0.017261626,-0.3750686,-0.92683631,0
7.781836,1.3170786,2.959353,0.92321265,0.15625408,0.35108837,0
1.887163,8.0696344,2.4329305,0.21849494,0.93429881,0.28168365,0
-1.6321682,8.0469103,-2.117171,-0.19248772,0.94900233,-0.24968593,0
2.5302243,0.25000468,-8.2474871,0.2931723,0.028967569,-0.95562071,0
5.1024518,-2.3297336,6.4631028,0.5962404,-0.27223802,0.75523752,0
5.0946145,7.1055107,1.2334487,0.57698178,0.80472243,0.13969211,0
7.7358394,1.0706962,3.8359158,0.8890956,0.12305727,0.44086951,0
-8.1676636,-2.0390954,-1.9206356,-0.94591522,-0.23615217,-0.22243308,0
-5.6440268,2.3384218,-5.9842291,-0.65997672,0.27344024,-0.69975787,0
-1.3368151,0.92576128,-8.3481655,-0.15717886,0.10884834,-0.9815532,0
0.19955757,-8.1757889,2.4446039,0.023378966,-0.95782626,0.2863951,0
-3.1178303,1.2147679,-7.9520845,-0.36138669,0.14080335,-0.92172348,0
-4.1717186,-6.1512532,4.1859899,-0.48905504,-0.72111797,0.49072808,0
-1.9363787,-8.0275173,-2.3606124,-0.22546065,-0.93467736,-0.27485594,0
-8.2951441,-1.0845506,-0.88995028,-0.98599744,-0.12891448,-0.10578342,0
0.59521914,-8.4335842,0.84814268,0.070050523,-0.99253696,0.099816747,0
-3.0534236,-6.5754271,-4.2816997,-0.36264911,-0.78095055,-0.50852907,0
-3.2962689,-7.5499916,-1.9526587,-0.38933343,-0.89175493,-0.23063509,0
-7.5191393,0.79208308,3.7078731,-0.8929038,0.094060503,0.44031292,0
-1.5168428,8.1511078,2.3167009,-0.1762003,0.94685328,0.26911384,0
-7.1733413,1.9468811,4.183022,-0.84104729,0.22826448,0.49044359,0
4.5094256,-4.6360497,-6.0773411,0.50811613,-0.52238399,-0.6847868,0
8.4875536,1.0148662,-1.6771528,0.97434998,0.11650411,-0.19253294,0
3.3086839,7.8297472,-0.13125402,0.38920426,0.92102212,-0.01543956,0
-5.8427024,6.015974,1.797814,-0.68122292,0.70142531,0.20961398,0
-3.8656497,7.6554289,0.073079146,-0.45073247,0.89261848,0.008520985,0
-3.7024381,7.8683772,1.0448073,-0.42272598,0.89837217,0.1192909,0
2.6270964,3.2334452,-7.7176905,0.29954195,0.36867791,-0.87997228,0
-5.410265,0.0021864653,-6.6462784,-0.63130671,0.00025513172,-0.7755332,0
4.4423919,-5.2437248,-5.2987447,0.51191252,-0.60425299,-0.61059308,0
-4.1629152,-7.4490409,-0.12457285,-0.48778868,-0.87283969,-0.014596797,0
6.7712216,3.3319232,-4.1119089,0.78788978,0.38769788,-0.4784559,0
8.1628017,-0.29094073,2.5051272,0.95543844,-0.034053989,0.29321975,0
-6.8470373,0.19571477,-5.2169256,-0.79521859,0.022730419,-0.60589653,0
-1.7415075,8.4964819,-0.026778363,-0.20079266,0.97962892,-0.0030874966,0
-3.6940858,5.2666426,-5.697865,-0.42986622,0.61285847,-0.66303813,0
4.5026884,-5.1790133,-5.0648866,0.52790648,-0.6072005,-0.59382004,0
6.6519103,-4.8092217,-2.818687,0.76645535,-0.55413461,-0.32477856,0
-2.378619,5.6667252,6.0757656,-0.27523872,0.65571755,0.70304912,0
3.8111734,-5.8748388,-4.813623,0.44849834,-0.69135016,-0.56646645,0
-4.3367696,3.4018795,6.5243859,-0.50776148,0.39830184,0.7638939,0
-0.92058444,4.4948573,7.3137217,-0.10662618,0.52061439,0.84710777,0
-0.40830594,-6.0509605,-6.0244861,-0.047763977,-0.70784652,-0.70474952,0
1.0549672,4.7426977,-7.1201849,0.122387,0.55020154,-0.8260144,0
6.8385491,-0.93474364,-5.0292497,0.80075997,-0.10945382,-0.58890003,0
-4.1953721,4.8112907,5.4884248,-0.49834681,0.57150865,0.65194196,0
8.215271,1.9328352,-1.3798952,0.96066552,0.2260191,-0.1613602,0
-6.3214617,-3.9318449,4.4095283,-0.73060113,-0.45442188,0.50962996,0
-2.0555861,-4.9563904,-6.5398774,-0.24299467,-0.58590412,-0.77309108,0
-1.9387869,2.3806882,-8.0479918,-0.22508039,0.27638221,-0.93431878,0
3.710346,7.3384132,-2.4205513,0.43284819,0.85609776,-0.282381,0
-8.2666264,2.4518843,-0.34635153,-0.95794618,0.28412718,-0.040135615,0
-4.922708,-3.2576547,6.2884049,-0.57075346,-0.37770218,0.72909641,0
-1.9988724,6.1784678,6.0244761,-0.2256586,0.69750541,0.68012089,0
-5.3132014,-6.7251921,-1.1139154,-0.61475003,-0.7781207,-0.12888266,0
-7.2665229,4.0054984,-1.6522359,-0.85889918,0.4734478,-0.19529341,0
-2.5488296,0.86665541,8.2875051,-0.29250482,0.099457763,0.95107782,0
-1.5721965,6.2073936,5.7990894,-0.18198745,0.71852833,0.67126566,0
-8.1393547,-2.1820219,2.3546033,-0.93026072,-0.249387,0.26911163,0
6.5326724,-5.3266897,2.2696402,0.74836141,-0.61020803,0.26000249,0
-6.2821317,5.864099,1.1140366,-0.72494435,0.67670429,0.1285574,0
4.8554792,6.4153643,-2.6587019,0.57301503,0.7571035,-0.31376433,0
-2.990078,-3.6685958,7.1731591,-0.34793437,-0.42688873,0.83469015,0
-2.5047579,8.0001698,-1.8048311,-0.29209346,0.93294334,-0.21047118,0
-1.2387969,-4.0840974,-7.4959898,-0.14361541,-0.47347492,-0.86902022,0
5.1215448,0.90034497,-6.9866872,0.58804411,0.10337555,-0.80219549,0
3.6441565,7.5385547,-2.6607246,0.41478106,0.85804486,-0.30284598,0
-2.7379117,7.3003869,3.8729558,-0.31449148,0.83856231,0.44486886,0
-8.230093,1.9738624,-1.8980176,-0.94885635,0.22756875,-0.21882452,0
0.68758714,8.0729723,3.0167279,0.079530351,0.93376714,0.34893239,0
1.530566,-6.3320203,5.5167761,0.17929654,-0.74175787,0.64625692,0
-5.2387066,1.7664371,-6.5982566,-0.60857069,0.20520368,-0.76650709,0
-7.5420909,-1.2631856,4.3722353,-0.85619813,-0.14340018,0.49634773,0
1.4995799,5.5741558,-6.3434329,0.17484428,0.64992148,-0.73961574,0
0.45631343,2.6208971,-8.2947683,0.052383941,0.30087414,-0.95222414,0
4.3310289,-6.5238895,3.5389752,0.50400585,-0.75919104,0.41183379,0
-5.6738119,-6.6760616,-0.20891094,-0.64740866,-0.76177013,-0.023837723,0
-3.1475949,-0.1378842,-8.068428,-0.36339024,-0.015918748,-0.93150103,0
2.4139004,-3.5833476,7.6064787,0.27594048,-0.40962362,0.86952025,0
8.1884117,1.9954673,-0.20759805,0.97127235,0.23669331,-0.024624342,0
5.8867335,5.0027671,4.0061383,0.67645526,0.57487708,0.46035266,0
1.5501734,7.7321463,-3.3507869,0.1809182,0.90240616,-0.39106485,0
-3.8662136,-6.9828005,2.9003944,-0.45526031,-0.82224941,0.34153169,0
1.139521,7.3345218,4.0423779,0.13482431,0.86779606,0.47828063,0
5.4040289,6.5724683,0.76493436,0.63255441,0.76932299,0.089537382,0
1.129644,-6.6942077,-5.1532927,0.13253754,-0.78541011,-0.60461944,0
4.5018101,-6.2979426,3.8351595,0.52108043,-0.72898114,0.44391623,0
-3.6220262,4.9906983,6.0144877,-0.42048356,0.57937366,0.69822609,0
2.1130893,2.633568,-7.7718663,0.24937183,0.31079504,-0.9171806,0
-4.4152627,-0.66311026,7.3782735,-0.51197457,-0.07689137,0.85555238,0
-0.17556663,8.584693,1.5867469,-0.020106418,0.98314488,0.18171903,0
0.4829019,-7.9245214,3.0833547,0.05669897,-0.93044198,0.36202598,0
-7.4227576,0.51721972,4.4710026,-0.85508657,0.059582658,0.51505041,0
2.9915752,6.6729274,4.4811969,0.34880537,0.77803594,0.52248913,0
-5.9789753,-5.0216708,3.445523,-0.70056891,-0.58839953,0.40371907,0
-5.3574142,-2.59093,-6.4473448,-0.61060119,-0.29529634,-0.73482394,0
4.2546797,7.0816913,-1.6562248,0.50495273,0.84046739,-0.19656363,0
4.8835235,5.0032611,4.998795,0.56819981,0.58213133,0.58161169,0
7.0502238,-2.2402227,4.3441248,0.82182008,-0.26113495,0.50637949,0
2.3850045,-6.2828321,5.1460309,0.28177321,-0.74227697,0.60797107,0
4.9213109,6.3477211,-2.6686728,0.58145911,0.74999124,-0.31530705,0
6.4011188,-2.1819944,5.4136291,0.73892671,-0.25188315,0.62493378,0
4.2597303,-0.93572819,-7.6165519,0.48533809,-0.10661345,-0.86780208,0
7.5525541,-2.4974844,3.0283127,0.88731354,-0.29341754,0.355782,0
-2.721509,7.2952857,-3.8538404,-0.31325218,0.83970481,-0.44358623,0
3.044317,7.8693447,1.7751859,0.35307083,0.91266316,0.20588079,0
-5.2072515,-6.890193,-1.2997688,-0.59621692,-0.78890938,-0.14882018,0
-0.92502779,-0.92860669,8.5691061,-0.10670808,-0.10712093,0.98850316,0
-1.5811635,-1.2411193,8.1474752,-0.18841834,-0.14789718,0.97088873,0
-1.4992505,3.2995319,7.8730884,-0.17298001,0.38069224,0.90837848,0
-1.3406094,-8.6077271,-1.084186,-0.15271153,-0.98052359,-0.12350181,0
-4.3338795,7.3841624,-1.6574566,-0.49694854,0.84671223,-0.19005388,0
1.6808734,7.7189698,3.5015891,0.19452032,0.89328349,0.405224,0
0.61818445,4.4630475,7.3824539,0.071476407,0.51603138,0.85358226,0
7.3671765,4.5162454,-1.3250281,0.84270656,0.51659811,-0.15156551,0
-1.8695382,-7.4047017,3.5137293,-0.2223891,-0.88081914,0.41797227,0
2.3883846,6.5708489,-5.0173512,0.27754235,0.76356578,-0.58304155,0
4.1053629,-1.4215163,-7.142108,0.49109036,-0.17004414,-0.85435086,0
-5.657485,-3.4815199,-5.6637678,-0.64807868,-0.39881659,-0.64879841,0
3.8676422,1.3929226,7.7650819,0.44020057,0.15853724,0.88379258,0
3.6288481,7.5877337,-0.45513853,0.43081859,0.90081942,-0.054034267,0
1.4398943,-8.5937366,-0.64060813,0.16480333,-0.98359746,-0.073320903,0
-2.0123384,-8.1746645,1.1359695,-0.23688497,-0.962291,0.1337221,0
2.235081,-3.2431934,-7.499042,0.26386622,-0.3828806,-0.8853119,0
4.4638906,4.8829408,5.1164775,0.53373611,0.58384091,0.61176425,0
-3.4022975,6.9305134,3.538759,-0.4006018,0.81602985,0.4166694,0
-4.4619689,-4.2131505,6.2477121,-0.50950289,-0.48109084,0.71341318,0
-8.2793427,1.2719936,1.7771895,-0.96688122,0.14854643,0.20754439,0
0.12843306,3.509944,7.8781886,0.014889645,0.40691876,0.91334301,0
-3.3446033,-0.75822979,-7.7494535,-0.39467177,-0.089473061,-0.91445541,0
-7.4209156,-2.8777499,-3.051327,-0.87057006,-0.33759755,-0.3579604,0
-1.1348897,8.4177933,1.035532,-0.13262951,0.98374999,0.12101801,0
3.1706083,8.0167751,0.55025512,0.36703098,0.92802531,0.06369777,0
4.5084553,-4.7167735,-5.5360231,0.52687538,-0.55122024,-0.64696091,0
1.7197191,-8.3036833,0.37479144,0.20260182,-0.97826523,0.044154555,0
5.2137618,6.4817305,2.018554,0.60909635,0.75722647,0.23581704,0
-1.0946902,-6.2060208,-6.0646477,-0.12516429,-0.70958173,-0.69341743,0
-3.314249,-5.4249358,5.584394,-0.39167851,-0.64111984,0.65996462,0
7.072082,-5.0003629,0.28439111,0.81607604,-0.57701206,0.032817036,0
5.6248646,-3.0999835,-5.7916913,0.65040296,-0.35845101,-0.66969311,0
4.0849767,-3.1447022,6.6798749,0.48412666,-0.37269104,0.79165828,0
5.0842729,6.6888528,1.268286,0.59836042,0.78720099,0.14926267,0
-6.1670904,-2.3566988,-5.4473963,-0.72051561,-0.27533865,-0.63643205,0
-4.570878,-5.0499754,5.477735,-0.52293867,-0.57775062,0.62668914,0
2.9860325,-5.7415347,-5.7105246,0.3459717,-0.66523343,-0.66164047,0
7.8236222,-3.8036234,0.93782413,0.89416546,-0.43471792,0.10718437,0
3.6478152,-3.6194463,6.9029036,0.4238866,-0.42059004,0.8021372,0
-0.74779153,7.8640504,3.5278723,-0.086434945,0.90898168,0.40777603,0
-7.8212786,3.2470391,1.1194284,-0.91560727,0.38011849,0.13104722,0
-0.322909,-8.248271,-2.0817795,-0.037931051,-0.96889704,-0.24453974,0
-1.996002,-8.1074085,-0.99426931,-0.2373794,-0.96419334,-0.11824591,0
0.15667105,7.710474,-3.516149,0.018484505,0.90970409,-0.41484547,0
-2.3191564,8.2733097,-1.3371261,-0.26670355,0.95143265,-0.15376984,0
-4.5677276,-6.7672753,2.8242035,-0.52871937,-0.78331935,0.32690459,0
1.5331988,-7.5707841,-4.0151291,0.17611493,-0.86963809,-0.4612084,0
3.8057261,-5.9592814,4.5989966,0.45118865,-0.70650387,0.54523498,0
-3.0316536,4.1025434,7.0257015,-0.3491765,0.47251827,0.80919862,0
-1.7334149,-0.17082407,8.3687239,-0.20278443,-0.01998394,0.97901946,0
7.566309,-3.9243877,-1.9381723,0.8656041,-0.44895947,-0.22173162,0
1.9331685,7.843812,2.4056613,0.22934459,0.93056339,0.28539956,0
-8.1277771,-2.6626456,0.16660425,-0.95012546,-0.31125945,0.019475797,0
3.1202302,-6.5310864,4.8012838,0.35923317,-0.75192624,0.55277348,0
1.827765,-0.47961539,-8.3585005,0.21328875,-0.055968121,-0.97538477,0
-0.22450712,-7.8751855,3.2723796,-0.026316721,-0.92312908,0.38358828,0
-2.709398,6.6014514,-5.1313639,-0.30826277,0.7510826,-0.58382285,0
-4.4045815,6.4754028,-3.2530935,-0.51939589,0.76359075,-0.38361043,0
2.4694893,7.3035355,-3.6113932,0.29006249,0.85786223,-0.42418879,0
-1.447566,3.1699629,-7.9249454,-0.16720752,0.3661606,-0.91540593,0
4.4352603,4.3015523,-5.7739377,0.52447629,0.50866514,-0.68277693,0
0.25947794,7.2678347,-4.5703602,0.030209262,0.84614486,-0.53209615,0
3.0220599,-1.659497,-7.888793,0.35102323,-0.19275661,-0.91631198,0
-7.068408,-0.75599492,4.8077555,-0.82364464,-0.088092133,0.56022263,0
2.5383356,-4.3084779,-7.04566,0.29379308,-0.49867362,-0.81548166,0
-4.9527435,-0.61104161,-7.117857,-0.56974423,-0.070291832,-0.8188104,0
2.3343718,4.6284428,-6.750576,0.2742677,0.54380041,-0.79313201,0
0.57856035,7.5115952,-4.055975,0.067618303,0.87790549,-0.47403547,0
-5.3965473,6.4577079,1.8731833,-0.62592685,0.74900723,0.21726406,0
-6.7675061,-2.7464919,-4.5668387,-0.78565425,-0.31884611,-0.53017408,0
-2.1722193,5.6270418,-6.0854235,-0.25352028,0.65673351,-0.71023136,0
0.76242244,2.1456792,8.1279631,0.09032464,0.25419989,0.9629246,0
-5.8747706,6.161994,-1.2199179,-0.68306071,0.71645623,-0.14184009,0
-8.2933474,0.99482757,-1.452376,-0.97820473,0.11734045,-0.17130853,0
-2.6961896,-3.8245597,7.2993588,-0.31096175,-0.44110093,0.84186268,0
-4.4757175,-1.4315791,-7.1092715,-0.52520031,-0.16798776,-0.83423305,0
5.8010802,6.3444271,0.5939182,0.67319381,0.73624718,0.068921998,0
1.28948,6.7975216,5.0680418,0.15035266,0.79258734,0.59093094,0
-1.9510871,2.7941296,-8.1143379,-0.221691,0.31748113,-0.92198634,0
1.3831483,-1.5532485,8.4291916,0.15931237,-0.17890467,0.97088248,0
1.4979746,-8.2898083,2.043952,0.17280701,-0.95631593,0.23579121,0
-7.9980164,3.6938863,0.7341581,-0.90471566,0.41784322,0.083046138,0
4.8346872,-6.5104256,2.5779855,0.56817424,-0.76510763,0.30296582,0
7.2954593,-1.6362796,-4.3451385,0.84363759,-0.18921728,-0.50246626,0
6.2014232,4.0061603,4.5280166,0.71603137,0.46256101,0.52281582,0
6.7572355,-2.0811462,-4.7215977,0.79477698,-0.24478163,-0.55534798,0
-8.5156393,0.075806074,0.96536702,-0.99359673,0.008844981,0.11263811,0
1.6956232,1.9449667,-8.2915983,0.19526246,0.22397606,-0.95483363,0
-2.0659287,-6.616385,5.2477498,-0.23763034,-0.76103967,0.60361451,0
-5.5508842,0.019157793,-6.6672587,-0.63983142,0.0022082531,-0.76851207,0
-2.2247069,7.7449737,-3.4258156,-0.25407365,0.88451821,-0.39124683,0
2.4178007,-8.387619,0.35646957,0.2767497,-0.96007544,0.040802721,0
5.5172939,5.1947842,-4.151299,0.63853294,0.60120791,-0.48044226,0
5.7870693,5.9971175,2.0990424,0.67336327,0.69780374,0.24423727,0
-0.81238264,1.0782217,8.4445658,-0.094995558,0.12608132,0.98746109,0
-3.1339049,5.9654794,5.1675053,-0.3690488,0.70249516,0.60852569,0
5.1643124,6.8009939,-1.3719362,0.5970968,0.78632957,-0.158623,0
3.2729721,4.7597404,-6.3953729,0.3797875,0.55230838,-0.7421031,0
7.3490109,3.3310277,3.2029901,0.84654534,0.38370687,0.368958,0
-2.7363615,-3.2036896,7.439786,-0.32004398,-0.37470254,0.87015504,0
-4.5187855,-2.7013175,-6.6378555,-0.53336811,-0.31884602,-0.78348941,0
3.0300715,4.791677,6.2979698,0.35757959,0.56546718,0.74322522,0
0.16350794,-7.7797079,3.5781384,0.019090967,-0.90834826,0.41777864,0
-5.3551893,-6.1141534,2.8586998,-0.62154996,-0.70963913,0.33179495,0
-3.2837965,7.7261972,-0.73804361,-0.38965416,0.91678786,-0.087575994,0
0.41655192,8.7671089,0.55327618,0.047365479,0.99689448,0.062912181,0
7.8618135,-2.5461791,-1.7392811,0.93095469,-0.30150515,-0.20595653,0
-0.91050625,7.8185725,-3.5874438,-0.10525637,0.90384287,-0.4147158,0
-2.6590245,7.2144694,-3.837203,-0.30943349,0.83955544,-0.4465394,0
-3.2245491,-7.4536724,-2.7275844,-0.37638882,-0.87003762,-0.31838012,0
-6.5374765,-2.4483848,5.1673098,-0.75270665,-0.28190014,0.59494948,0
2.8824553,-2.8275599,7.5643177,0.33616486,-0.32976273,0.88218468,0
-3.8185468,-6.1973052,-4.5962,-0.44355866,-0.71987295,-0.53389013,0
5.8110166,-0.87089676,-6.493866,0.663535,-0.099443957,-0.74150664,0
-4.26718,7.0269766,-2.5840404,-0.4951655,0.81541353,-0.29985321,0
-7.8455844,-2.6187501,-2.3351049,-0.91287136,-0.30470413,-0.27170065,0
-6.4507432,0.86184496,5.7503724,-0.74278265,0.099238716,0.66213715,0
3.2453389,-7.8990932,-1.0023768,0.37743479,-0.9186691,-0.116577,0
7.2931213,-4.3822823,0.52966851,0.85550433,-0.51405448,0.062131658,0
5.5631051,-3.008868,5.6850014,0.65416312,-0.35381147,0.66849685,0
-1.8477722,-1.6556221,-8.4207001,-0.21048638,-0.18859787,-0.95923221,0
-4.0198436,-3.1910272,-7.108705,-0.45847455,-0.36394569,-0.81076795,0
5.6598144,1.1180989,6.114078,0.67328382,0.13300751,0.7273224,0
-3.4239733,3.7990057,-6.9996066,-0.39497021,0.43823183,-0.8074351,0
7.5655632,3.8448424,0.1554437,0.8913334,0.45297837,0.018313529,0
-6.1167231,5.8030901,2.0948813,-0.70405507,0.66795492,0.24112777,0
3.2678382,8.0787277,0.99825829,0.37254718,0.92100859,0.11380561,0
2.4846549,5.6012321,6.084384,0.28773496,0.64864957,0.70460087,0
-3.4455945,-4.2494149,-6.508832,-0.40523916,-0.49977714,-0.76550901,0
7.4255929,-3.1280231,2.8935006,0.86734146,-0.36536667,0.33797342,0
7.83676,0.59209305,-3.006016,0.931355,0.070366941,-0.35724816,0
6.6037059,1.775553,4.8406558,0.78820539,0.21192652,0.57777119,0
4.0799441,7.3767996,1.3398559,0.47798535,0.86422807,0.15697065,0
-7.7256494,2.4926267,-2.6897101,-0.90339386,0.29147369,-0.31451952,0
3.5428367,-0.10704361,7.5923543,0.42282528,-0.012775283,0.90612113,0
5.425632,-5.9106016,3.4759891,0.62050724,-0.67597121,0.39753458,0
-6.0325704,-1.8182622,-5.7588019,-0.70672834,-0.21301325,-0.67465574,0
-4.8598285,-5.876688,-4.3273225,-0.55426407,-0.67023706,-0.4935317,0
3.4324439,-7.6260052,-0.94834036,0.40782461,-0.90608114,-0.11267672,0
-3.0767479,-1.8130006,-7.8553486,-0.35655853,-0.21010523,-0.91034156,0
-8.5310268,0.49400017,-1.1982397,-0.98865539,0.057249371,-0.13886325,0
-4.4506173,-7.4841652,-1.0071154,-0.50773919,-0.85381502,-0.11489461,0
-2.799181,7.9942856,-1.8003783,-0.3232531,0.92319059,-0.20791006,0
-6.1820707,-1.737235,-5.5644445,-0.72755915,-0.20445272,-0.65487158,0
-4.5720186,-6.6304016,3.3990383,-0.52300662,-0.75847113,0.38882598,0
6.0964484,5.8913107,1.1793333,0.71224344,0.68827736,0.13778062,0
0.17109196,0.29598832,-8.7184153,0.019609133,0.033923712,-0.99923205,0
6.9586043,-4.008276,2.4631653,0.82843089,-0.47719046,0.29324302,0
2.1979485,-7.2264276,-4.0650878,0.25623941,-0.84246546,-0.47391272,0
1.2566918,-7.0712314,4.520309,0.14808734,-0.83326703,0.53266883,0
-3.8749013,6.7318659,-3.4091043,-0.45680466,0.7936067,-0.40189275,0
-2.8861332,6.5733671,-4.805058,-0.33409265,0.76091897,-0.55622327,0
0.46147066,6.3581433,5.563724,0.054538839,0.75143617,0.65754783,0
2.1346354,-5.2900867,6.5931649,0.24484093,-0.60676861,0.75623059,0
-5.132163,5.7915096,3.7804868,-0.59590662,0.67246479,0.43896055,0
-5.0926085,-3.8099923,-5.7891545,-0.59214371,-0.44300735,-0.67313468,0
1.4775584,7.0195284,4.5162034,0.17430989,0.82810485,0.53278363,0
3.1057875,-1.2127799,-7.8031926,0.36600387,-0.14292097,-0.91957313,0
-0.013150735,4.5853133,-7.1924901,-0.0015417433,0.53756511,-0.84322083,0
-6.9287786,2.6499174,-4.6815009,-0.78988212,0.30209112,-0.53369206,0
7.9980907,1.1581031,-2.7526567,0.93682611,0.13565002,-0.32242203,0
-2.4805343,-1.5533969,-8.1669512,-0.28592238,-0.17905454,-0.94137543,0
-5.2418833,-6.755651,-1.0447388,-0.60850346,-0.78422898,-0.12127838,0
-6.4335413,-5.366188,-2.2058609,-0.74262273,-0.61941832,-0.25462219,0
-4.9715362,-5.2783599,4.7861419,-0.5722186,-0.60753369,0.55087996,0
3.178807,-7.6992478,-1.7303323,0.37364835,-0.90499711,-0.20338944,0
4.2800355,4.2909479,5.9253201,0.50496715,0.50625461,0.69908112,0
-8.7224874,-0.45824018,-0.79532462,-0.99450856,-0.052246999,-0.090680227,0
6.9572668,3.7705693,3.6204076,0.79948467,0.43328974,0.4160341,0
-7.3862767,3.0926309,2.7334325,-0.87295127,0.36550432,0.32305226,0
5.2335243,5.7107205,-4.0243778,0.59954703,0.65421414,-0.46102849,0
-7.4666972,3.9613085,-2.3633471,-0.85074925,0.45134819,-0.26927778,0
-7.9183316,0.68087602,3.0671537,-0.92950583,0.079925701,0.36004266,0
2.2184746,-4.1813831,-7.2568684,0.25605178,-0.48260668,-0.83757287,0
2.8509405,-7.1936445,3.9612031,0.32795978,-0.8275255,0.45567954,0
-6.3075328,-4.7101707,3.3296959,-0.73795003,-0.55106664,0.3895579,0
-1.0480777,3.3734031,7.7705421,-0.12278632,0.39520711,0.91034877,0
6.6075635,1.9807228,5.3249159,0.75824946,0.2272974,0.61105955,0
7.8349566,1.9622844,-3.107167,0.90535742,0.22674903,-0.35904434,0
7.3150787,4.1553349,1.5728046,0.8546977,0.48551154,0.18376732,0
-5.4231167,0.38208872,-6.688724,-0.62917078,0.044328582,-0.77600205,0
-1.9114429,-1.7325538,8.1883554,-0.22264567,-0.2018086,0.95378309,0
-4.1159735,-1.8469205,7.3714018,-0.47625721,-0.21370624,0.85294122,0
-5.253293,0.38738465,-6.6712008,-0.6180256,0.045574009,-0.78483588,0
5.0712237,-3.7592084,5.6540666,0.59840864,-0.44358975,0.66718459,0
1.2576563,1.6213708,-8.2815046,0.14740582,0.1900356,-0.97064823,0
-0.70577705,8.3518572,2.2444613,-0.081339411,0.96253508,0.25866973,0
8.39042,-0.9832359,-1.1741097,0.9837479,-0.11528103,-0.13766032,0
4.9800906,-3.5599091,6.1678143,0.57308257,-0.40965557,0.70975953,0
3.3202274,-1.7872127,-7.6446748,0.38951379,-0.20966756,-0.89683801,0
-5.4452438,-5.8237009,2.9107158,-0.64155692,-0.68614662,0.34293962,0
8.0830917,-1.9751136,2.1223681,0.94128335,-0.23000377,0.24715169,0
-4.589323,6.7744269,-2.447742,-0.53733772,0.79317904,-0.28659216,0
-1.4198371,-8.2791538,-2.2635829,-0.16320598,-0.95166373,-0.26019201,0
-2.6982601,-7.1491346,-4.0974879,-0.31119472,-0.8245213,-0.47256994,0
6.9731956,3.9812648,-2.7902479,0.82031113,0.4683471,-0.32823855,0
0.0016899586,-8.0979147,-2.5639999,0.00019895594,-0.95335364,-0.30185533,0
5.8503485,-5.5438294,2.7871785,0.68600607,-0.65006393,0.32682177,0
0.85830998,8.2017918,-2.416693,0.099880159,0.95442939,-0.28122669,0
-0.43526289,-8.1834707,1.802039,-0.05187365,-0.97528762,0.21476296,0
4.982244,-2.8785167,6.5229464,0.57279491,-0.33093518,0.74992526,0
0.83568823,7.101573,-4.7211261,0.097529918,0.82879692,-0.55098426,0
-1.0525383,8.3356552,-0.60403502,-0.12495218,0.98956811,-0.071708076,0
3.575165,6.9405551,-3.2471786,0.42281592,0.82082283,-0.38402668,0
