-0.55706972,5.8604226,6.6670804,-0.062633693,0.65891194,0.74960786,0
-7.0144501,-5.1591086,-1.5726498,-0.7927469,-0.58306313,-0.177735,0
-1.3403888,-6.3295379,-6.1026797,-0.15070789,-0.7116676,-0.68616062,0
-9.0145187,-0.18519035,-0.31633961,-0.99917424,-0.020526601,-0.035063256,0
-6.049057,1.621332,6.245688,-0.68392009,0.18331148,0.70615166,0
0.28666347,5.8674846,-6.6412802,0.0323308,0.66175318,-0.74902427,0
3.0160034,7.9428964,-2.3996584,0.34161726,0.89967752,-0.27180499,0
-7.5981064,-2.1220617,-4.0045695,-0.8588258,-0.23985994,-0.45264274,0
4.271996,7.6313629,-0.43427444,0.48786584,0.8715086,-0.049594536,0
7.4307857,3.349571,4.0643005,0.81585717,0.36776346,0.44623661,0
0.57031184,4.6593885,7.7053289,0.06320928,0.51641327,0.85400349,0
6.9348464,3.5706432,-4.0694914,0.7882424,0.4058536,-0.46255469,0
1.6201057,-8.1459904,-3.0285616,0.18325993,-0.92144209,-0.34257886,0
-6.4768548,3.831877,4.8822989,-0.72201759,0.42716452,0.54426199,0
4.8187976,7.1963959,-1.8727529,0.54382509,0.81214881,-0.21134941,0
1.5348709,-3.9616094,-7.6132283,0.17604853,-0.4543936,-0.87323153,0
-2.9595559,5.5757675,6.4538631,-0.32782826,0.61762446,0.7148906,0
4.4265013,-0.98108965,-7.4998531,0.50508904,-0.11194793,-0.85577607,0
0.84924179,7.6741352,4.702498,0.093939543,0.84888047,0.52017051,0
7.0391707,5.5418811,-0.59200191,0.784006,0.6172415,-0.065935761,0
-5.4069958,-3.4679213,6.0559549,-0.61247039,-0.39282426,0.68598044,0
-0.5573737,-3.053086,-8.5530128,-0.061258726,-0.33555254,-0.94002765,0
3.6195397,-8.0242424,1.3188909,0.40664107,-0.90149212,0.14817221,0
4.9320755,-0.28328076,7.3789392,0.55541402,-0.031900994,0.83096176,0
-3.3934441,5.7565084,6.1368704,-0.3740277,0.6344862,0.67640996,0
6.3969407,-4.9942808,3.786447,0.71430349,-0.55767787,0.42280716,0
0.75138605,5.5899892,-6.9478245,0.083963007,0.62464869,-0.77637887,0
5.8779163,-6.3942356,1.5048256,0.66682374,-0.72539788,0.17071584,0
-0.80347919,2.5382192,-8.3428917,-0.091748647,0.28983721,-0.95266813,0
3.8016036,-8.0679388,-1.6456537,0.41917327,-0.88958889,-0.18145344,0
6.5514097,-5.2965579,2.9635515,0.73358423,-0.59307408,0.3318392,0
-1.5055236,7.3640499,-4.713943,-0.16968875,0.83000791,-0.53131223,0
5.4659119,-4.81566,5.0378036,0.61712986,-0.54371303,0.56879425,0
-2.0524991,1.1384871,-8.5017996,-0.23271398,0.12908258,-0.9639408,0
2.5851951,-3.5585921,7.9646745,0.28413397,-0.3911182,0.87538248,0
-7.8818812,3.6648929,2.5715585,-0.86951572,0.40430477,0.28368998,0
-3.2764068,-7.9519072,2.6671388,-0.36386263,-0.88310218,0.29620016,0
2.3846622,-8.4151945,-2.0337555,0.2655561,-0.93711644,-0.22647911,0
5.2296753,-3.3581414,6.216259,0.59494048,-0.38203025,0.70717663,0
-0.52303201,-4.3762708,7.8356442,-0.058178399,-0.48678556,0.87158191,0
-6.927743,2.2148519,-5.0626354,-0.78176355,0.24993573,-0.57129484,0
-2.5011179,-6.2752404,-5.5836353,-0.28537887,-0.71600825,-0.63709575,0
0.060523368,7.9770069,3.5770724,0.0069228704,0.91243738,0.40915781,0
6.0114031,-5.0698395,-4.0179048,0.68072802,-0.57410586,-0.45498538,0
-6.9164157,-4.981442,2.0150266,-0.78967738,-0.568753,0.23006438,0
1.3066012,8.8667622,-1.6182921,0.14346518,0.97357297,-0.17768893,0
-8.5069628,0.96665752,-2.8434658,-0.94296151,0.10714997,-0.31518638,0
-2.3428884,-3.6372066,7.8709254,-0.26085305,-0.40496016,0.87633491,0
-1.8438991,4.935976,7.2373624,-0.20596988,0.55136555,0.8084383,0
-1.4695923,-7.1107717,-5.5023699,-0.16130982,-0.780514,-0.60396773,0
-0.47922614,3.1074371,8.2459621,-0.054302864,0.35211506,0.93438011,0
8.242239,-3.7837462,0.68059957,0.90626353,-0.41603637,0.074834347,0
-6.7174015,5.1278811,-1.9753333,-0.77400625,0.59085524,-0.22760591,0
-7.8787475,3.0632913,2.4589825,-0.89493668,0.34795526,0.27931261,0
1.8345126,-8.655899,-1.4599771,0.20456646,-0.96521914,-0.16280203,0
-3.7699065,-6.2733483,5.0638332,-0.42358634,-0.70487285,0.56897181,0
7.7328382,-2.8092368,4.0188851,0.84452629,-0.30680513,0.43891442,0
5.1318688,3.2983837,6.2066975,0.58968103,0.37900314,0.71318501,0
4.8325286,-3.4622178,6.7759466,0.53610855,-0.38408974,0.75170648,0
-8.2298737,-0.806633,2.8254936,-0.94177312,-0.092305824,0.32333109,0
-0.89502537,-7.504827,-4.5369244,-0.10153243,-0.85135388,-0.51467252,0
-3.1164534,-6.9508533,-4.8805389,-0.34447768,-0.76831371,-0.53947115,0
-1.3294809,8.1384926,3.383724,-0.14915206,0.91304272,0.37961388,0
-7.5517521,-0.22092418,-5.0077085,-0.83316493,-0.024373984,-0.55248731,0
5.1512876,7.2582812,0.65050685,0.57722598,0.81332457,0.072892353,0
-1.700256,-3.2378497,8.0493212,-0.19231142,-0.36622456,0.91043723,0
-6.566503,-1.4859532,5.6969733,-0.74454874,-0.16848612,0.64595634,0
-7.2007489,2.7858477,4.0471749,-0.82602948,0.3195768,0.46426919,0
-5.0580297,0.58521849,-7.0141211,-0.58356857,0.067519397,-0.80925196,0
5.5670705,-6.3014894,2.2578309,0.63943356,-0.72378892,0.25933439,0
-6.3199997,5.3879566,3.2478809,-0.70872146,0.60420263,0.36421567,0
6.3494878,-5.9623413,-0.90949243,0.7250396,-0.68083185,-0.10385374,0
5.7826371,4.7602448,-4.8339515,0.64868742,0.53399706,-0.54226536,0
-6.9051042,-2.1833241,-5.0399132,-0.78261155,-0.24745385,-0.57121432,0
6.8749485,-4.5514026,-3.0368834,0.78244311,-0.51799858,-0.34563002,0
4.2769217,6.0314593,-4.7686181,0.48610711,0.68552464,-0.54199243,0
-3.678942,-2.6229279,7.7297182,-0.41090006,-0.29295415,0.86333019,0
1.5716341,0.66249889,-8.7960348,0.17540824,0.073940724,-0.98171514,0
4.3605371,7.8534913,0.76582241,0.48367456,0.87111604,0.084945686,0
-8.6950388,1.9293742,-0.035545774,-0.97624713,0.21662307,-0.0039909491,0
7.5849452,-4.40416,-1.0520077,0.85863471,-0.49856189,-0.11908989,0
5.2422762,-6.0126762,-3.9953225,0.58758861,-0.67394012,-0.44782189,0
-3.0056291,6.5511627,-5.3575778,-0.33467191,0.72946131,-0.59655756,0
-7.7484074,0.60874903,-4.2181606,-0.87620461,0.068838499,-0.47699761,0
3.8649065,0.83987814,-7.9340215,0.43596429,0.094738871,-0.89496344,0
6.2176385,5.9928064,-2.1267684,0.69911474,0.6738345,-0.23913501,0
-6.8084617,5.9215198,-0.50630081,-0.7533592,0.65521866,-0.056022402,0
2.2774947,3.7261114,-7.7023463,0.25722167,0.42082936,-0.8699078,0
0.44787598,-3.9470708,8.1268473,0.049512308,-0.43634531,0.89841604,0
-0.043054644,3.3594375,-8.4276524,-0.0047455416,0.37028179,-0.92890739,0
1.0237476,-5.0954924,7.1253605,0.11607827,-0.57775569,0.80791354,0
-3.6095471,-1.226743,-7.8240361,-0.41472813,-0.14094977,-0.89896262,0
-3.9137709,-6.5123305,4.6202288,-0.44012594,-0.73234886,0.51957119,0
8.2600279,-2.1487629,3.0092883,0.9127183,-0.23743446,0.33252099,0
-1.7909708,8.8156576,1.3742375,-0.1968077,0.96874237,0.15101336,0
2.6095238,3.3133662,-7.7467155,0.29585066,0.37564769,-0.8782717,0
1.250172,-0.40152061,8.9101677,0.13880929,-0.044581696,0.98931509,0
5.951859,-6.8149104,0.33383107,0.65735674,-0.75267696,0.036870178,0
-2.1865525,8.52316,-0.75915658,-0.24757579,0.96504796,-0.085956678,0
-2.3110859,7.8814955,-3.7416232,-0.2560631,0.87325191,-0.41456342,0
-3.376761,-1.0111049,-8.0432434,-0.38452157,-0.11513746,-0.9159075,0
2.0498819,-0.69323802,-8.4753866,0.23434527,-0.079251908,-0.96891767,0
2.7412462,5.9450135,6.1311388,0.30562517,0.66281742,0.68356878,0
-8.6959772,1.2779143,-1.7846143,-0.96958959,0.14248571,-0.19898206,0
5.5048237,3.3291154,6.0770116,0.62203914,0.37618646,0.68669575,0
-5.3209267,5.7541513,4.0989509,-0.60161334,0.65059614,0.46345001,0
1.0522964,-6.4530096,-5.8888412,0.11958909,-0.73335755,-0.6692422,0
5.8744349,-2.9560421,5.8930345,0.66525525,-0.33475944,0.66736162,0
2.631886,-5.5047712,-6.4715724,0.2959033,-0.61890215,-0.72759974,0
2.0523534,-7.9758921,3.2035973,0.23224925,-0.90257114,0.36252677,0
3.0466073,7.6528249,-3.1498983,0.34547141,0.86779553,-0.35718414,0
-2.5516198,4.9072509,6.9656496,-0.28687611,0.5517174,0.78314114,0
3.759119,-1.0939139,8.1730919,0.41480401,-0.1207091,0.90186858,0
-7.563005,5.013937,-0.50856465,-0.83216912,0.55169123,-0.055958156,0
3.3719199,-0.98206764,7.9546456,0.38778022,-0.11294053,0.91480654,0
-8.6432619,2.5396752,0.63040686,-0.95709878,0.28122717,0.069807172,0
6.5248475,0.2184556,-6.0965533,0.73046261,0.024456304,-0.68251467,0
4.9210787,-0.0033120872,-7.6064711,0.54319245,-0.00036559071,-0.83960813,0
-7.0746183,-5.3882279,0.28892705,-0.79511821,-0.60558438,0.032472588,0
2.6697032,-0.34839842,8.5037613,0.29930112,-0.039059035,0.95335889,0
0.14910693,7.4921813,4.8846726,0.016669096,0.83757263,0.54607171,0
-1.7742821,1.5211207,-8.5414867,-0.20036061,0.17177238,-0.96454644,0
-4.4331155,-5.4913387,-5.1824994,-0.50630099,-0.62715942,-0.59188724,0
-4.6510062,-1.3251624,-7.5075345,-0.52080947,-0.14838879,-0.84067726,0
-2.3638425,6.0262384,6.1042123,-0.26567623,0.67729908,0.68606269,0
7.5007224,-4.1883655,-2.2977641,0.84345442,-0.47098067,-0.25838301,0
-8.5766048,-1.95108,-0.66744578,-0.97229207,-0.22118537,-0.075665399,0
-4.9200644,7.168179,1.1105109,-0.56133872,0.81783003,0.12670013,0
8.1160345,2.3690879,-2.4003093,0.92344552,0.26955572,-0.27310812,0
5.9689479,-3.4593117,5.5087099,0.67610574,-0.39183798,0.62397438,0
1.4005212,-3.5757396,-8.174325,0.15507171,-0.3959212,-0.90509629,0
-2.8397903,-3.7566974,7.57723,-0.31831175,-0.42108774,0.84933078,0
0.48256063,7.4209213,4.9486012,0.054022331,0.83076704,0.55399251,0
1.4519445,-0.36034808,-8.9046898,0.16080047,-0.039907958,-0.98617977,0
-1.789767,-2.634835,8.2613344,-0.20213969,-0.29758328,0.93305081,0
-7.1391215,1.9935519,5.0935502,-0.79379666,0.2216624,0.56635022,0
7.7012715,-0.17240644,-4.1418257,0.88053918,-0.019712411,-0.47356334,0
-6.9862342,-0.85242486,5.559732,-0.77892274,-0.095040195,0.61987638,0
3.1209357,-0.77941859,-8.1298914,0.35695735,-0.089146085,-0.92985719,0
-2.3703704,-8.5378904,-0.42637151,-0.26720208,-0.96244121,-0.048063103,0
-8.4463215,-2.8137131,-0.81522328,-0.94478863,-0.31473631,-0.091189243,0
2.0344682,-1.8908812,8.4277296,0.22927153,-0.2130902,0.94975114,0
-0.010356784,-7.3697815,4.9595242,-0.0011658886,-0.82963443,0.55830586,0
-1.0651264,8.0296555,-3.9336343,-0.11828654,0.8917253,-0.43684578,0
7.8721986,3.7127507,1.3751074,0.8933751,0.42134088,0.15605383,0
5.943152,-5.5044103,-3.9512353,0.6594072,-0.61072773,-0.4383992,0
-0.46404082,2.6115129,-8.4616156,-0.052329943,0.29450065,-0.95421749,0
-1.4395126,-2.2996147,8.6470728,-0.15883949,-0.25374535,0.95414007,0
-4.8421226,3.7656333,-6.3895211,-0.54668027,0.4251436,-0.72138304,0
-7.5341868,-0.54311168,-4.939558,-0.83477426,-0.060175791,-0.54729408,0
-5.4705296,-3.1051786,6.196043,-0.61957532,-0.35168293,0.70174474,0
-1.1284974,-8.6056614,-1.7177283,-0.1275472,-0.97264564,-0.1941444,0
7.0900397,5.2411475,-0.10538166,0.80408162,0.59439874,-0.011951338,0
4.1697044,4.5581708,-6.2789688,0.47337547,0.51747704,-0.71283466,0
1.7925923,-6.8610377,-5.1224213,0.20491597,-0.78430343,-0.58555758,0
1.8712634,-7.5576286,-3.9544578,0.21428648,-0.86545676,-0.45284209,0
7.0367646,3.0046306,4.4145575,0.79659235,0.34013724,0.4997471,0
-5.1094155,4.5082884,-5.5234427,-0.58250195,0.51397008,-0.62970334,0
6.3800192,-0.1234527,-6.0333996,0.72649634,-0.014057628,-0.68702656,0
-1.6520423,2.6667356,-8.4208679,-0.1838422,0.29675907,-0.93708915,0
2.9489999,-1.380977,8.1975527,0.33432972,-0.15656212,0.92936105,0
-6.6285267,3.2140758,4.5485411,-0.76561654,0.37123626,0.52537137,0
-6.2924643,-1.4576527,6.2883182,-0.69803125,-0.16169931,0.69757128,0
-5.7855487,4.3305707,-5.1180134,-0.6533258,0.48902425,-0.57794523,0
8.4838724,-1.5189492,-1.7107533,0.96551144,-0.17286478,-0.19469316,0
0.78200018,8.5543118,-2.1548896,0.08830028,0.96591812,-0.24332137,0
-1.2534821,-6.3841839,6.3704615,-0.1376607,-0.70112783,0.69962078,0
-3.7536402,4.4606943,-6.5325923,-0.42870793,0.50946146,-0.74609554,0
-7.1483293,-5.31498,-0.71941602,-0.79988176,-0.59473419,-0.080501013,0
-1.8005033,-2.4037139,-8.3729048,-0.20241213,-0.27022493,-0.94127989,0
-4.8992124,2.724915,-6.7348976,-0.55909348,0.31096473,-0.7685802,0
-0.34915742,7.808383,4.3867207,-0.038955249,0.87117583,0.48942333,0
4.6348553,-2.3082199,7.1171899,0.52660596,-0.2622568,0.80864543,0
-1.9943806,-3.2587235,8.1000605,-0.22268949,-0.36386409,0.9044404,0
-2.7873697,8.0134592,2.7945194,-0.31203884,0.89708608,0.31283924,0
0.27923736,1.3208272,8.9701128,0.030783068,0.14560772,0.98886341,0
-0.4685232,-8.7098694,0.70882469,-0.053538077,-0.99527544,0.080997288,0
1.4388797,1.2898641,-8.546382,0.16421591,0.14720911,-0.97537822,0
2.5927002,7.5314388,3.7010088,0.29519331,0.85749608,0.42138037,0
-5.9204664,-4.0308495,5.0371537,-0.67613882,-0.46033767,0.57526129,0
5.3982158,-6.9086227,2.4190047,0.59352815,-0.75959581,0.26596704,0
0.87996292,5.2691255,7.1041822,0.098998912,0.59279507,0.79924542,0
5.0366311,6.6739397,-3.0322232,0.56629443,0.75038546,-0.34092849,0
1.3719471,-4.6860733,7.4645529,0.15381087,-0.52536213,0.83686125,0
-7.8841619,2.7861152,-2.7155168,-0.89675885,0.31689778,-0.30886781,0
-3.0463922,6.6663876,5.1417332,-0.34025979,0.74458683,0.57429409,0
3.3069351,-2.1353261,8.0842495,0.36777669,-0.23747766,0.89907986,0
5.9905424,2.7257097,6.1795521,0.6635589,0.30192071,0.68449503,0
3.8049061,-6.9719839,4.2992072,0.42129007,-0.77195799,0.47602049,0
8.5513954,-2.2805889,0.62269515,0.96384603,-0.25705004,0.070185304,0
-8.1529865,2.4085321,-2.3762,-0.9236263,0.27285507,-0.26919225,0
-7.3532457,2.9727607,-4.2123985,-0.81878895,0.33101892,-0.46905345,0
2.6091237,8.5642548,-0.99517226,0.28964466,0.95073712,-0.1104763,0
-7.4423976,-4.5886135,0.48723522,-0.84989637,-0.52400398,0.055640597,0
-4.38484,-7.508678,-1.5328034,-0.49662369,-0.85042721,-0.17360416,0
-6.6769099,-1.9253393,5.5124087,-0.75276244,-0.21706495,0.62147522,0
4.2162871,-6.3043532,-4.3921852,0.48107427,-0.7193206,-0.50114405,0
-7.6708784,-3.9454446,2.497314,-0.85419118,-0.43934524,0.27808857,0
-8.597043,0.81925845,-2.0699563,-0.96807009,0.092252605,-0.23308744,0
-1.078917,8.0325756,3.5552995,-0.12190843,0.90761256,0.40171853,0
-5.47995,-5.5551429,-4.3520069,-0.61333126,-0.62174702,-0.48708871,0
-2.5347292,-7.9791188,-3.1657865,-0.28319073,-0.89146107,-0.35369512,0
-2.5687406,7.2931719,4.6650314,-0.28444925,0.80760872,0.51658183,0
2.9488454,-5.1721563,6.6366549,0.33074257,-0.58010918,0.74436736,0
-5.8133497,-3.3931739,5.7033081,-0.65892369,-0.38460487,0.64645082,0
-4.0913424,-7.9535203,1.4491974,-0.45154417,-0.87779635,0.15994179,0
-2.2710431,-6.6019926,5.3118677,-0.25887683,-0.75256294,0.60550123,0
-7.7095866,-4.1036482,0.90895611,-0.87799704,-0.46733907,0.10351538,0
5.042243,6.4733405,-3.8300655,0.55683023,0.71487069,-0.42296579,0
6.8139825,0.85308105,-5.6819115,0.76449621,0.095711611,-0.63748324,0
0.94599563,8.5893164,-2.0909498,0.10640365,0.96610868,-0.23518574,0
-5.4775915,-3.1002164,6.1679564,-0.62157518,-0.35180014,0.69991499,0
-6.1776986,4.4614615,-4.289381,-0.70646167,0.51019835,-0.49051976,0
4.0498195,2.3901687,7.458344,0.45931545,0.27108404,0.84589761,0
6.0523291,-5.8562956,2.1444349,0.69642723,-0.67387015,0.24675508,0
-1.8511598,6.2166309,-6.0929155,-0.20801269,0.69855559,-0.68465382,0
-6.3981833,-6.1411762,-1.6260911,-0.70961833,-0.68111384,-0.18034871,0
4.1498404,7.858326,-0.37383708,0.46655637,0.88349235,-0.042029586,0
-2.7987874,6.4057012,-5.2899485,-0.31926301,0.73071057,-0.6034345,0
-2.8244503,-7.4672565,4.3014278,-0.31145343,-0.82341778,0.47432041,0
-0.6329881,6.8469043,-5.5443974,-0.071662091,0.77515435,-0.62769443,0
-1.1849315,-7.5001149,4.8325844,-0.13165121,-0.83329642,0.5369218,0
2.2182066,7.9845333,3.7588961,0.24377,0.87746096,0.41308418,0
7.657701,4.486104,-1.1251006,0.85598922,0.50146341,-0.12576543,0
4.7908211,-7.3383517,1.797552,0.53551441,-0.82027549,0.20092902,0
8.4739761,-0.11701014,2.0416858,0.97209281,-0.013422827,0.23421215,0
-6.3776765,4.490963,-4.4464631,-0.71032286,0.5001874,-0.49523118,0
7.7005014,4.1622815,-2.0821679,0.85583466,0.46259645,-0.23141238,0
0.094285324,9.0553045,0.30375841,0.010405748,0.99938375,0.033524133,0
3.9899845,-1.8653053,-7.6737413,0.45095181,-0.21081857,-0.86729348,0
-8.3991776,1.042015,-2.634712,-0.94754142,0.11755346,-0.29723135,0
8.218689,1.0736226,2.9235637,0.93510956,0.12215509,0.3326385,0
0.31714627,-4.5362606,-7.7934828,0.0351482,-0.5027377,-0.86372411,0
4.412353,6.8805122,4.1105666,0.48226884,0.75203788,0.44928366,0
-1.9898084,-7.3453517,4.8106313,-0.22101386,-0.81586975,0.5343309,0
-2.3502014,1.5937936,8.2397575,-0.26966247,0.18287213,0.94543111,0
0.2592665,8.6629257,-2.3573613,0.028866133,0.96451014,-0.26246315,0
7.0781035,-5.0918565,1.7790321,0.79538536,-0.57218552,0.19991459,0
-4.6283832,7.314177,1.7951289,-0.52358615,0.82741672,0.20307407,0
3.0647666,6.4786186,5.3642387,0.34235117,0.72369707,0.59921473,0
0.68140852,8.7605057,1.9253321,0.07575056,0.97388458,0.21403459,0
-2.5530798,5.0737104,6.7643647,-0.28904718,0.57442057,0.76582819,0
-3.6074543,-7.3178906,-3.8510704,-0.39985207,-0.81111866,-0.42685458,0
-7.0760384,1.2309719,-5.4447517,-0.78510815,0.13658011,-0.60411185,0
-3.1502538,-7.4920368,3.5626726,-0.35499936,-0.84427112,0.40147451,0
5.1260366,6.3529634,3.3328335,0.58136356,0.720514,0.37798947,0
0.83046448,-7.6554379,-4.2438078,0.094453149,-0.87069374,-0.48267084,0
-8.2697458,-3.7300088,0.75875193,-0.90839386,-0.40972447,0.083345443,0
-2.3214943,5.826086,-6.3582273,-0.2599417,0.6523568,-0.7119416,0
-8.3981924,2.7166862,-1.5058105,-0.93790662,0.30339837,-0.16816829,0
8.7208414,1.6689343,-0.79080319,0.97830379,0.18722102,-0.08871229,0
-0.75984824,6.9404221,-5.5387602,-0.085260741,0.778768,-0.62149096,0
8.6756544,0.085987501,1.9118899,0.97652203,0.0096786581,0.2152002,0
8.3847351,-0.33178255,2.7509351,0.94949681,-0.03757143,0.31151897,0
-3.147871,5.912394,-5.9799585,-0.35057503,0.65845698,-0.66598159,0
-8.4982281,-0.30439824,-1.7794132,-0.97817314,-0.035037208,-0.20481613,0
-8.6460648,1.562294,-2.1841111,-0.95499885,0.17256278,-0.24124542,0
-1.7324839,8.6599693,1.7453667,-0.19244729,0.96196431,0.19387834,0
-6.9824929,0.42073581,5.6929183,-0.77420205,0.046650175,0.63121712,0
-4.4591928,4.4674978,6.2801075,-0.50080317,0.50173593,0.70530653,0
4.3293467,-6.844276,-3.9848521,0.47965953,-0.75829506,-0.44149208,0
-5.9305615,-6.7263165,1.4923732,-0.65237182,-0.73990625,0.16416359,0
1.4558235,-7.5767875,-4.736661,0.16080502,-0.83690459,-0.52319449,0
0.97509509,-8.6856594,1.5407375,0.10987006,-0.97866756,0.17360452,0
6.1597314,5.8146954,2.389323,0.69987077,0.66066766,0.2714757,0
6.201148,2.1568711,5.8577538,0.70476872,0.24513125,0.6657415,0
-5.4061327,-3.1166043,6.3506589,-0.60719931,-0.3500469,0.71328545,0
7.5336151,3.8821743,2.3516419,0.85655254,0.44139317,0.26737562,0
-2.7993131,3.5993273,-7.8114729,-0.30949038,0.39793947,-0.86363178,0
8.810771,-1.4954489,1.082213,0.97874957,-0.16612281,0.12021826,0
7.7596507,1.1041443,4.1572757,0.87461209,0.12445122,0.46857825,0
-7.7531891,-0.18464079,4.4297218,-0.86809003,-0.020673407,0.49597621,0
-6.168817,5.8183165,-3.0566041,-0.68436903,0.64548451,-0.33909991,0
-4.5479975,3.8557453,-6.8236337,-0.50189656,0.42550269,-0.75302553,0
8.6311302,-1.4416597,0.88924676,0.98128206,-0.16390377,0.10109938,0
1.3098893,5.1158586,-7.0785146,0.14832224,0.57928222,-0.80151898,0
-0.45805365,2.9737558,8.3521852,-0.051596481,0.33497241,0.9408142,0
-5.3927317,-6.8401651,2.0153046,-0.60318637,-0.76508433,0.2254153,0
-7.9006639,-0.1469733,4.635807,-0.86237812,-0.016042519,0.50601047,0
-1.0780259,-2.5610936,8.3822088,-0.12207589,-0.2900188,0.94920313,0
-0.19128007,6.4783721,6.1715393,-0.021373237,0.72387981,0.68959492,0
-5.7354383,3.4544961,5.7180762,-0.65139616,0.39234063,0.64942425,0
-2.126708,-8.4907017,0.080474555,-0.24295895,-0.96999305,0.0091935582,0
-4.6202302,6.612215,-3.8956997,-0.51577026,0.73814154,-0.43488872,0
-6.2915168,-5.6298742,-2.0815291,-0.72353852,-0.64744812,-0.23938051,0
-0.70540768,8.3712864,-2.9960914,-0.079088435,0.93856639,-0.33591381,0
-6.0489874,4.0574107,5.0264592,-0.6835205,0.45847732,0.56797737,0
7.8375492,-2.6240184,-3.8484814,0.8596437,-0.28780946,-0.4221119,0
7.009666,1.9233757,4.9202003,0.79860175,0.2191276,0.56055176,0
5.9006329,-6.7782292,1.1559702,0.65122634,-0.74808276,0.12757924,0
-6.4395542,5.7199492,0.80471599,-0.74440366,0.66121829,0.093024068,0
-8.476799,0.93690562,-2.2720206,-0.96044904,0.10615447,-0.25742736,0
-4.1855745,-7.3476205,-3.2124455,-0.46270955,-0.81226939,-0.35513145,0
1.3046304,-2.2402604,-8.4996109,0.14681564,-0.2521061,-0.95649761,0
0.15541266,2.6534345,-8.3663378,0.017703965,0.30226824,-0.95305842,0
-5.4336381,6.1879649,-3.0680532,-0.61830467,0.70414108,-0.34911999,0
0.68897241,-8.823596,1.5367392,0.076698408,-0.98226827,0.17107427,0
2.0705192,3.619468,7.8750205,0.2323589,0.40618584,0.88375473,0
-4.7061281,7.151001,1.465263,-0.54186052,0.82336158,0.16870943,0
-0.46982273,8.09058,3.5474784,-0.053107556,0.91453838,0.40099785,0
-0.68460846,-1.5648228,-8.8320971,-0.076103643,-0.17395158,-0.98180908,0
8.5132313,0.62408412,-1.7824608,0.9762665,0.071567707,-0.20440614,0
-5.3373709,-7.1560678,-0.21347497,-0.59769928,-0.80136395,-0.023905747,0
0.37930462,-3.9888699,7.9612217,0.042557824,-0.44754958,0.89324582,0
5.4252081,-1.8629358,6.675776,0.61638397,-0.21165708,0.75846696,0
-7.2333903,4.9440174,1.5700822,-0.81263584,0.55543607,0.17639102,0
4.1112294,4.668458,-6.2862077,0.46487045,0.52787811,-0.7108025,0
1.2648547,8.7682657,-1.2044846,0.1414742,0.9807319,-0.13472179,0
5.6394882,6.2458606,2.9808955,0.63169819,0.69962001,0.33390018,0
-8.5409994,-0.92847508,1.8192818,-0.97257638,-0.10572685,0.20716435,0
-3.3886833,3.832629,7.3880744,-0.37708908,0.4264909,0.82213712,0
-2.6606076,8.2034407,2.7112086,-0.2943072,0.90743625,0.29990453,0
-6.4129357,-5.2998319,-2.7970772,-0.73064345,-0.60382444,-0.31867871,0
-3.6330419,-4.0819359,-6.9693112,-0.41022527,-0.4609122,-0.78694046,0
-4.3753214,-4.1101465,-6.6290951,-0.48923191,-0.45958108,-0.74124038,0
8.4271173,-2.6192114,0.0037473696,0.95493895,-0.29680219,0.00042464214,0
4.6634398,6.2638512,4.0630064,0.52976012,0.7115646,0.46155176,0
-0.63655579,-0.54575914,-8.9462872,-0.070842601,-0.060737796,-0.99563658,0
7.9569383,2.082752,-3.8283894,0.87705505,0.22957174,-0.42198497,0
7.6911988,4.1680884,1.8795755,0.85957825,0.46583092,0.21006377,0
-8.4156561,1.7708426,-3.0604084,-0.92193365,0.19399549,-0.33526722,0
-6.1068425,4.702117,-4.6594744,-0.67806053,0.52208978,-0.51735502,0
0.59552521,8.4505692,-1.8855773,0.068618104,0.97369856,-0.21726157,0
-6.1417313,4.4055805,5.0725951,-0.67470688,0.48398009,0.55725574,0
-7.2372513,-4.9741936,-1.1249506,-0.81743759,-0.56182837,-0.12706164,0
-6.1897936,-2.3348267,6.0496588,-0.69047379,-0.26045081,0.6748417,0
8.0217581,3.2375071,1.298122,0.91705579,0.37011522,0.14840268,0
-6.8497629,2.5634272,4.8814816,-0.77898961,0.29152587,0.55514675,0
0.2599093,-2.1235464,8.618247,0.029269662,-0.23914298,0.97054309,0
3.0047677,7.1973019,-4.4190559,0.33519441,0.80288917,-0.49296418,0
-8.8030214,1.8603218,-0.67367661,-0.97566038,0.20618401,-0.074665226,0
4.115191,-5.7321234,-5.14187,0.47132945,-0.65652329,-0.58891916,0
-4.2414269,5.6539683,-5.532414,-0.47254118,0.62991369,-0.61637121,0
-8.6360922,-0.87884802,-1.5693828,-0.97899127,-0.099626608,-0.17790593,0
-6.6435909,5.0191975,3.1103427,-0.74744403,0.56468999,0.34993231,0
6.2340102,5.3574948,3.5497074,0.69626129,0.59836543,0.39645809,0
5.3850298,1.0395131,-6.7861447,0.61717403,0.11913779,-0.77775472,0
-0.0075629591,-7.1307678,-5.5035057,-0.00083962176,-0.79164088,-0.61098611,0
-6.8344994,-0.51814252,5.5739746,-0.77361643,-0.058650028,0.63093406,0
-2.3993592,8.1776695,2.9381697,-0.26616201,0.90715259,0.3259325,0
3.6187048,-2.3972394,8.0369263,0.39617014,-0.26244602,0.87987012,0
-2.3418543,-7.3987617,-4.4643288,-0.26157206,-0.82640034,-0.4986406,0
-7.1774092,4.6471062,-2.2390776,-0.81203502,0.52576256,-0.25332391,0
6.2456832,-0.026768828,-5.9782782,0.72239876,-0.0030961814,-0.69146973,0
0.20262253,-4.8069239,-7.576694,0.022575872,-0.53557962,-0.84418291,0
-3.9682384,0.75515795,-7.9865518,-0.44337943,0.084375352,-0.89235389,0
7.3892436,-0.98730659,-5.0683846,0.8196913,-0.10952225,-0.56223762,0
-3.1309667,-8.2209358,-1.9154141,-0.34776598,-0.91312432,-0.21275085,0
0.94615096,7.8907781,4.1856399,0.10533671,0.87849474,0.46599492,0
-5.6160426,-0.016699409,6.6743073,-0.64383757,-0.0019144632,0.76515979,0
2.0083418,1.941363,8.6408892,0.221155,0.21377942,0.95151925,0
-2.1800935,4.6984558,-7.1433282,-0.24707606,0.53248906,-0.80957329,0
-2.0684912,-8.4970741,1.9530759,-0.2308414,-0.9482643,0.21796116,0
0.65571296,-8.8923645,0.18952037,0.073522612,-0.99706715,0.021250201,0
3.3874536,7.7844834,-2.5622566,0.38199407,0.87783539,-0.28893882,0
-4.5799036,7.3267465,-1.7380136,-0.5196476,0.83131146,-0.19719949,0
8.3229618,-2.5821476,-0.65305555,0.95242077,-0.29548267,-0.074731044,0
-8.2939148,-2.6303113,-0.19148077,-0.95298231,-0.30222639,-0.022001406,0
-1.7141119,2.3602343,8.3581181,-0.19362994,0.26661736,0.94415176,0
0.37499729,6.9794011,5.5066123,0.042143721,0.78437352,0.61885554,0
2.8008821,8.3782396,1.1423341,0.31443846,0.94057542,0.1282431,0
-5.6399212,-6.8728561,-0.4540824,-0.63353491,-0.77203101,-0.051007282,0
-4.0424476,-5.1406713,6.1378655,-0.45071802,-0.57316589,0.68434936,0
0.99765342,-8.3992682,-3.0534382,0.11094184,-0.93402201,-0.33955082,0
-5.5791922,-6.1745701,-3.5024953,-0.61792928,-0.68387097,-0.38792253,0
8.3067312,2.6909449,-0.90101677,0.94630319,0.30655256,-0.10264387,0
6.0429559,5.9685111,2.0511277,0.69159502,0.68307507,0.23474433,0
-4.0574346,-2.197468,7.683569,-0.45270538,-0.24518095,0.85728878,0
-1.3256937,7.3894343,4.8742909,-0.14810611,0.82554543,0.54455435,0
2.9240806,-8.3881512,0.92503417,0.32739925,-0.93919241,0.10357289,0
-1.6996891,8.5762501,-0.78116983,-0.19363314,0.97702938,-0.088992961,0
-7.1306911,-4.2635417,3.1739328,-0.80176634,-0.47938749,0.35687318,0
1.1693116,6.628159,-5.8649735,0.13098073,0.74245483,-0.65696639,0
-7.8679161,3.2748065,1.9297242,-0.90042734,0.37477845,0.22084329,0
6.1120486,6.4340415,1.7963032,0.67504215,0.71060449,0.19839181,0
-2.0641434,5.3274212,6.7608166,-0.2331945,0.60185999,0.76379633,0
-2.7778933,2.406554,8.056345,-0.31370527,0.27177024,0.9097966,0
-0.10045452,3.4445522,-8.0214396,-0.011506394,0.39455041,-0.91880226,0
0.10632654,-4.2883062,7.9465714,0.011774234,-0.47487229,0.87997597,0
-0.88333529,2.6052418,8.4288177,-0.099627599,0.29383406,0.95065022,0
-1.2041526,0.89682567,-8.7446432,-0.13571584,0.10107809,-0.98557824,0
-3.7728825,6.8033366,4.2338858,-0.4259792,0.76813418,0.47802901,0
1.6774967,8.6403704,-0.20444858,0.19053632,0.98140544,-0.023222031,0
-6.1951814,-4.5038991,-4.2338967,-0.70788777,-0.51463467,-0.48378307,0
-3.9412889,-2.9893868,-7.5260057,-0.43762138,-0.33192685,-0.83565074,0
-3.9362552,-1.4656047,7.9994359,-0.43566248,-0.16221228,0.885373,0
8.6553106,-1.3330084,-1.7254082,0.96970528,-0.14934476,-0.19330761,0
7.815105,-4.390604,1.6729285,0.85703504,-0.48149085,0.18345989,0
-2.7885015,-8.4417219,1.3400224,-0.31015134,-0.93893129,0.14904413,0
3.3266797,0.26979119,-8.2284946,0.37464198,0.030383179,-0.92667156,0
-3.6421523,8.1030903,0.94160646,-0.40768442,0.90701962,0.10539874,0
-8.4056807,-2.6276708,1.6382208,-0.93835443,-0.29333574,0.1828801,0
-6.9552903,3.8572416,-3.7095823,-0.79254973,0.4395296,-0.42270392,0
4.9045062,-7.3453288,1.3676907,0.54875696,-0.82185644,0.15302861,0
2.9871199,-7.1675549,-4.2882977,0.33674666,-0.80801922,-0.4834322,0
-4.6149445,7.3914204,1.4107428,-0.52280438,0.83733767,0.1598161,0
-2.4696627,2.7254646,-7.9161944,-0.28292975,0.31223494,-0.90689582,0
-1.4669381,-5.7622757,6.3873978,-0.16809848,-0.66030723,0.73194081,0
2.7496016,6.582222,5.4465375,0.30636212,0.7333948,0.60685623,0
3.236954,-4.3862748,-6.849494,0.36976776,-0.5010584,-0.78243995,0
-8.5446043,-2.5010226,-0.041430552,-0.9597221,-0.28091255,-0.0046534413,0
4.2127619,7.7240496,-1.224503,0.47424984,0.86953151,-0.1378479,0
7.1611958,5.2781429,-0.76207608,0.80203944,0.59114134,-0.085350975,0
-2.036628,-6.8865428,5.6976514,-0.22216731,-0.7512244,0.62153316,0
0.14054085,0.039659936,-8.9334793,0.015729828,0.0044388799,-0.99986649,0
0.65935057,6.2250381,-6.3208251,0.074117713,0.69975758,-0.71052504,0
3.6830328,-2.3409555,-7.6943841,0.41635901,-0.26464003,-0.86983377,0
-1.1816237,5.8454399,6.4972887,-0.13398148,0.66280043,0.73671198,0
-7.259418,-1.7038637,-4.9620385,-0.81049311,-0.19023147,-0.55399728,0
8.4660492,-2.7151258,0.34515902,0.95151162,-0.30515695,0.038792927,0
-0.92114711,0.47247532,-8.6586485,-0.10563228,0.054180976,-0.99292809,0
-0.33191836,8.2833557,-2.9981396,-0.037651688,0.93963563,-0.34009874,0
-8.2316141,-2.9489188,0.94456172,-0.93596816,-0.33530411,0.10740053,0
0.16375899,-6.5603595,5.9697824,0.018459007,-0.73948747,0.67291725,0
4.9803667,-5.1285019,-5.4525013,0.55393732,-0.57041353,-0.60645014,0
-6.8540335,1.6021087,-5.5672998,-0.76373404,0.17852043,-0.62035537,0
-5.2540889,-6.8880382,-1.8647922,-0.59290516,-0.77729052,-0.21043514,0
-1.8584185,8.4363861,-1.8894414,-0.21016015,0.95403284,-0.21366839,0
-0.076043069,2.6573648,8.6336269,-0.0084177535,0.29416281,0.95571822,0
5.621727,-6.4139037,3.0588481,0.62044328,-0.70787203,0.33759052,0
4.4074907,3.2346625,7.3169641,0.48254538,0.35414061,0.80108333,0
6.5122123,0.50910223,5.9791222,0.73539501,0.057490639,0.67519552,0
-8.6176023,0.16654533,-1.2784746,-0.98899293,0.019113455,-0.14672321,0
-6.2182932,-3.359659,5.536974,-0.69257981,-0.37419143,0.616696,0
-0.090798192,-0.43466589,8.9931526,-0.010084084,-0.048274174,0.99878323,0
4.3494792,1.4627684,-7.6786575,0.48622751,0.16352262,-0.85839576,0
2.3327036,-1.8836228,8.5122919,0.25847444,-0.20871419,0.94320166,0
-3.1527123,5.4197793,-6.4302578,-0.35103494,0.60345876,-0.71596926,0
-1.6948869,-8.1526451,3.5678949,-0.18709123,-0.89993519,0.39384449,0
4.1783862,-7.8077569,-0.39553398,0.47137058,-0.88080579,-0.044620834,0
3.3459668,0.72544104,-8.1061125,0.38024604,0.082441367,-0.92120373,0
2.8105154,-8.5090256,-0.83889198,0.31226745,-0.94541085,-0.093206622,0
-6.8895621,2.9537444,-4.6565328,-0.78072029,0.3347162,-0.52767497,0
-1.6506435,-4.954814,-7.1243672,-0.18686095,-0.56090927,-0.80651337,0
1.5826902,1.2349013,-8.6256189,0.1787111,0.13944016,-0.97397065,0
8.5318766,2.0094957,0.11909831,0.97327656,0.22923386,0.013586177,0
-5.4023561,5.1460876,4.4898467,-0.62040174,0.59097213,0.51560998,0
-2.0081062,-0.10551753,8.5701523,-0.22811858,-0.011986671,0.97355956,0
7.9289765,-0.42972523,4.1571484,0.88463503,-0.047944397,0.46381259,0
-7.8584175,2.1496863,-3.5383573,-0.88472444,0.24201819,-0.39835897,0
-8.5994644,-0.41076434,-2.0442946,-0.97183883,-0.046421114,-0.23102891,0
5.3268247,-4.3546338,5.5304399,0.60343945,-0.49330664,0.62650561,0
5.0210466,-1.1546019,7.3598127,0.55889249,-0.1285187,0.81922048,0
7.2951427,1.7430458,4.4045124,0.83870476,0.20039372,0.50637603,0
5.7149911,3.6577516,5.918292,0.63473874,0.40625024,0.65731847,0
-7.7356744,-0.023735786,4.2513642,-0.87636852,-0.0026890086,0.48163372,0
4.7170763,0.51675659,7.3074102,0.5413847,0.059308797,0.83868057,0
-4.8158507,-4.5960331,-5.894299,-0.54162437,-0.51690215,-0.66291422,0
-3.3591123,7.9090762,2.1575189,-0.37915066,0.89271545,0.24352406,0
-2.3948996,8.2662325,1.631212,-0.27340925,0.94369906,0.18622428,0
7.5313005,4.7185946,-1.2913625,0.83860815,0.52541417,-0.14379284,0
-2.3431728,0.33850792,8.7114267,-0.25956222,0.037497818,0.96499813,0
-2.8435519,7.7313008,-3.9359035,-0.31146413,0.84683627,-0.43111318,0
-3.8589394,6.9539275,4.2315483,-0.42836267,0.77192271,0.46972421,0
0.0076705697,7.4638762,4.6081605,0.00087445695,0.85089356,0.52533752,0
-6.3871737,-3.721595,-4.8441949,-0.72268414,-0.42108417,-0.54810202,0
-4.6108942,-4.42805,-6.039989,-0.52427191,-0.50348198,-0.68676406,0
0.66121233,1.2632209,8.7066536,0.074945062,0.14317968,0.98685497,0
-0.17810814,-7.7878752,4.5659966,-0.019725239,-0.86249679,0.50567806,0
1.5392728,0.2831347,-8.9005003,0.17032896,0.031330403,-0.98488903,0
-5.8207116,-6.2380781,-2.7866237,-0.64851123,-0.69501191,-0.31047007,0
7.6158915,3.471395,3.1287441,0.8523277,0.38849899,0.35015142,0
-3.0696974,-4.6954484,-6.847784,-0.34677011,-0.530424,-0.7735638,0
-6.9058332,-5.0569196,3.0311191,-0.7605347,-0.5569151,0.33381507,0
-0.6078974,4.8480983,7.5785942,-0.067415819,0.5376541,0.84046608,0
-8.9417992,-0.3982774,-0.66567212,-0.99625814,-0.044374414,-0.074166425,0
2.5337017,7.6407418,3.5133784,0.28847173,0.869928,0.40001172,0
-0.84258485,-5.7900376,6.6497169,-0.095127977,-0.6536963,0.75075424,0
-6.8288035,-2.9736745,-4.9200993,-0.76500213,-0.33312824,-0.55117804,0
-4.6864467,6.1168628,4.7917852,-0.51646185,0.67409843,0.52807051,0
-0.990973,-7.6714468,4.4291334,-0.11117674,-0.86065561,0.49690214,0
-8.0063972,-0.33810645,-3.5278978,-0.91441822,-0.038615461,-0.40292457,0
0.22717094,1.2241477,8.5853996,0.026186224,0.14110874,0.98964769,0
8.8802032,1.2527,1.6487566,0.97387475,0.13738118,0.18081595,0
-6.4904976,5.9418178,1.6439295,-0.72505152,0.66375864,0.18364286,0
8.3696899,2.2181032,-2.2284763,0.93612379,0.24808794,-0.24924815,0
8.5135908,1.1248106,2.9117777,0.93888229,0.12404457,0.32111204,0
-4.75739,5.8211989,4.3893776,-0.54648089,0.66868049,0.50420731,0
-8.3919163,-0.42598182,3.1715281,-0.93437338,-0.047429699,0.3531245,0
2.2227974,-7.0955448,-4.8811684,0.24990498,-0.79773891,-0.54878068,0
-4.574512,-5.623208,-5.2626972,-0.51067227,-0.62774265,-0.58749729,0
8.5648394,1.7236365,1.3849499,0.96825463,0.19485702,0.15656851,0
4.578897,5.0629864,-5.8041778,0.5110153,0.56504077,-0.64775944,0
4.9852872,-6.7422628,2.4684231,0.57033658,-0.77134156,0.28239739,0
-3.3571568,5.3443856,6.4670768,-0.37151596,0.59143037,0.71567172,0
-1.534153,-8.3161173,2.2212119,-0.17546621,-0.95114219,0.25404745,0
-0.19336142,6.4794564,-6.0440779,-0.021816861,0.73107344,-0.68194991,0
5.1240993,7.311131,-0.2851502,0.57364392,0.81848252,-0.03192262,0
6.6026993,0.85701197,5.6775603,0.75458288,0.097942755,0.64885426,0
2.8230004,4.750329,-7.1764879,0.31167805,0.52446795,-0.79233205,0
-8.6256371,2.4122548,0.42627653,-0.96195984,0.2690227,0.047539782,0
-7.6608067,-0.51195693,4.7554693,-0.84824985,-0.056686901,0.52655369,0
1.5302416,4.1709714,-7.6031623,0.1737714,0.47364774,-0.863401,0
-8.6013937,1.8074685,1.2329733,-0.96913719,0.20365129,0.13892171,0
4.5922341,-6.3355784,4.2912698,0.51457626,-0.70992422,0.48085213,0
-0.52561527,8.6308708,-0.73590487,-0.060567874,0.99455541,-0.084800035,0
-0.84127891,8.8856859,0.76588666,-0.093911365,0.99190283,0.085495383,0
6.1110396,-3.0380013,-5.5993919,0.69226104,-0.34414601,-0.63430136,0
-6.6793017,-0.8114965,-5.8946524,-0.74668217,-0.090717562,-0.65896589,0
3.8236516,-0.14947402,8.0666304,0.42826566,-0.016741743,0.90349782,0
6.1089649,-3.8957484,-5.2850404,0.68118352,-0.43439758,-0.58931136,0
-0.87483615,8.6703882,-1.3185203,-0.099259846,0.98375154,-0.14960073,0
-0.35913256,2.3643532,-8.4009438,-0.041115608,0.27068508,-0.96178949,0
-8.0810843,-2.7687261,-2.5626576,-0.90611863,-0.3104527,-0.28734657,0
4.5440178,-6.5821109,3.2230151,0.52695072,-0.76329982,0.37375957,0
-2.2201605,1.5130006,8.4564381,-0.25021613,0.17051792,0.95305592,0
4.6436024,-4.4642653,6.2388682,0.51782531,-0.49782678,0.69571936,0
3.112833,-0.64055467,-8.5593328,0.34093469,-0.070157096,-0.93746549,0
-5.1040583,2.6489873,-7.0005569,-0.56338674,0.29239562,-0.77272254,0
7.4773684,3.1113997,3.6274939,0.84260094,0.35061377,0.4087708,0
1.7779049,-5.4912434,6.769578,0.19985054,-0.61725909,0.76095396,0
-6.5564094,5.4889636,-1.796381,-0.75038421,0.62821454,-0.20559667,0
4.7666016,-4.6173773,-6.3306255,0.51971555,-0.50344521,-0.69024533,0
-0.69429576,-4.899272,7.4950266,-0.077306233,-0.54550856,0.83453238,0
-6.7111831,-5.6309962,1.5193135,-0.7547977,-0.6333105,0.17087513,0
-0.32426214,-7.0440001,-5.5701323,-0.036084976,-0.78387988,-0.61986297,0
4.1229262,6.0999146,-4.6189351,0.47436345,0.70182592,-0.53143179,0
-1.7201917,-8.1968994,-3.1285293,-0.19240035,-0.91680849,-0.34992039,0
-3.475564,-0.03882372,-8.1599874,-0.39185965,-0.0043772603,-0.92001462,0
-8.3643999,2.4941373,0.12679894,-0.9582026,0.28572148,0.014525737,0
-0.055124983,8.537034,-3.1308997,-0.0060622119,0.9388358,-0.34431171,0
-2.3162689,7.4263806,-4.2595015,-0.26116389,0.8373391,-0.4802672,0
-4.8327746,-2.2145503,7.0882449,-0.54544753,-0.24994357,0.80000949,0
-1.3961296,-1.1892456,-8.6988735,-0.15704317,-0.1337719,-0.97848988,0
-7.5418859,0.20235343,4.5235305,-0.8573463,0.023003129,0.51422578,0
5.7295694,-3.0783696,6.0844622,0.643305,-0.34563339,0.68315166,0
4.4585476,7.9101834,1.0524839,0.4877542,0.86535472,0.11513916,0
1.5768408,0.15218745,-8.8604898,0.1751852,0.016907852,-0.98439026,0
-3.90343,7.8936305,-1.9323256,-0.43296662,0.87555778,-0.21433264,0
8.7171392,-2.2158289,0.72423357,0.96605229,-0.24556297,0.080261134,0
8.7324581,0.96732235,1.7626355,0.97450262,0.10794878,0.19670211,0
-7.6365476,2.9657855,-3.3451228,-0.8629964,0.3351596,-0.37802804,0
6.3321934,2.092936,-5.8074737,0.71604484,0.23666936,-0.65670955,0
8.3216124,1.2691226,3.3793423,0.91740417,0.13991259,0.37255073,0
3.8235068,6.2532706,-5.2417455,0.4243145,0.6939581,-0.58170384,0
6.8795753,5.4677773,1.4333602,0.77264631,0.61408705,0.16098094,0
0.3228603,6.849309,-5.478529,0.036785811,0.78039134,-0.62420845,0
-7.7658577,0.29391131,-4.4623246,-0.86658663,0.032797359,-0.49794769,0
4.3589492,7.5828748,0.63018006,0.49707916,0.86472422,0.071863502,0
0.47282177,4.4149346,-7.6973257,0.053208724,0.4968321,-0.86621404,0
8.7893867,0.27631995,2.0947289,0.9723013,0.030567121,0.23172353,0
-2.0002065,0.28660586,8.4666767,-0.22979106,0.032926332,0.97268289,0
-5.3602438,6.4546351,3.0403295,-0.60065353,0.72328788,0.34069058,0
-2.5239084,-1.0355093,8.3125019,-0.28848889,-0.11836125,0.95013928,0
-4.074379,5.4682069,-5.8096018,-0.4548099,0.61039847,-0.6485073,0
-7.5030513,4.5256271,-0.63317114,-0.85406554,0.51514804,-0.072073296,0
-7.2635193,3.8059361,-3.381954,-0.8188622,0.42906711,-0.38126895,0
-8.6321115,2.0575457,-0.50689703,-0.97116512,0.23148642,-0.057029001,0
-2.3238637,8.4515162,-0.98564184,-0.2634638,0.95817518,-0.11174534,0
4.108335,-3.5798097,7.1456861,0.45717564,-0.39836133,0.79517215,0
-0.24479733,-8.0366163,4.0777135,-0.027153669,-0.89144611,0.45231247,0
-4.6342783,-0.27678496,7.5441394,-0.52316427,-0.03124629,0.85165888,0
-3.8535709,1.7082481,7.8406181,-0.43289417,0.19189751,0.88078254,0
2.7980876,-0.73150772,8.4184504,0.31434283,-0.082179062,0.94574577,0
-6.6091614,3.8697584,-4.6624603,-0.73711109,0.43158907,-0.51999807,0
2.2936947,-7.086781,4.9195828,0.25694796,-0.79388678,0.55110937,0
-2.2535038,-4.5212498,7.4563375,-0.25020877,-0.50199884,0.82788455,0
0.91756815,3.5640128,8.2952585,0.10110956,0.39272913,0.91407913,0
-1.5576159,7.815248,3.7862649,-0.17654635,0.88581115,0.42915025,0
6.8311291,-0.38896796,5.7565184,0.76396728,-0.043500684,0.64378697,0
-4.0919528,1.0321125,-7.9953523,-0.45261255,0.11416238,-0.88436913,0
1.0953106,7.9654603,-3.9979181,0.12197888,0.88707066,-0.44522673,0
-8.2909241,-0.24222492,3.4389272,-0.92335761,-0.026976513,0.38299224,0
5.0033269,6.9490151,2.5888855,0.55930358,0.77680498,0.28940204,0
-0.41009101,8.0738373,3.2544129,-0.047057316,0.9264605,0.37343889,0
8.1578484,2.9956725,-2.0488458,0.91366231,0.33550918,-0.22946653,0
-7.1352477,3.2835298,-4.2801456,-0.79768032,0.36708003,-0.47849604,0
6.6785536,2.2498133,-5.6643949,0.73864925,0.24882977,-0.62648308,0
-8.1132927,3.3041489,2.2690513,-0.89655662,0.36512384,0.25074074,0
-2.3346751,-2.3592293,8.0285597,-0.26873639,-0.27156276,0.9241398,0
3.1995842,-3.9404407,7.4790063,0.35398322,-0.43594721,0.82743335,0
7.2157416,5.0288029,-0.23223184,0.82013106,0.57156664,-0.026395144,0
2.5704434,0.51405996,-8.3386803,0.29406756,0.058810227,-0.95397365,0
-8.9133387,-1.1582311,1.0147517,-0.98540282,-0.12804677,0.11218458,0
-0.16026239,-8.6810064,-1.458544,-0.01820307,-0.98601401,-0.16566569,0
-1.2662879,8.0920954,-3.4527938,-0.14246196,0.9103899,-0.38845176,0
4.3043318,-7.5273747,-1.5418867,0.488731,-0.85468817,-0.17507197,0
3.2763112,-8.1255913,0.21075287,0.37384674,-0.92717868,0.024048166,0
6.1804481,-5.2654195,3.5868959,0.69628781,-0.59320092,0.40409884,0
-7.5999098,-4.3103375,-1.7534435,-0.85283464,-0.48369062,-0.19676514,0
-6.6393509,-1.9854969,5.693922,-0.74025095,-0.22137193,0.63484085,0
3.3532462,3.9272249,-7.2415481,0.37701353,0.44154733,-0.81418467,0
-8.3265295,2.9442213,-1.4031751,-0.93111807,0.32923892,-0.15691072,0
-1.3434401,8.2601318,-3.243665,-0.14968194,0.92031842,-0.36139914,0
-3.9861233,-5.5621037,5.7604723,-0.44563648,-0.62182629,0.64400327,0
2.3880286,-4.2345552,7.3189602,0.27178603,-0.48194271,0.83298469,0
-0.57373077,8.7531214,-0.76641762,-0.065157272,0.99407172,-0.087040275,0
2.2127066,-7.575233,-4.1159077,0.24860157,-0.85109109,-0.46242964,0
-7.7488394,-1.8643985,-3.6832359,-0.88256538,-0.21234839,-0.4195075,0
-3.5673273,-7.8032298,-2.4996386,-0.39917773,-0.87316787,-0.2797052,0
6.9920516,4.1317697,3.6402624,0.78561479,0.46423846,0.40901357,0
-0.45451814,7.0029588,-5.4527359,-0.051143646,0.78799242,-0.61355704,0
-1.4435862,6.8110776,5.7374659,-0.16001053,0.75495607,0.63595438,0
-3.5176826,-5.4988065,-5.9279671,-0.39893445,-0.62361038,-0.67228073,0
1.5529995,6.8020844,5.5790896,0.17384109,0.76141798,0.62451726,0
-8.4560165,2.4744542,0.19043265,-0.95952791,0.28078327,0.021608928,0
-0.86110371,8.9352121,-1.5782571,-0.094478346,0.98035121,-0.17316279,0
-4.3090801,7.0221319,3.6489956,-0.47821528,0.77930576,0.4049601,0
-0.31877998,7.9154611,4.2503896,-0.035458989,0.8804639,0.47278541,0
-1.8316576,8.3668222,2.11871,-0.20759727,0.94828284,0.24013135,0
-6.5081234,1.5161952,6.0303473,-0.7230373,0.16844575,0.66995752,0
-6.0817022,6.2478099,0.85486007,-0.69418854,0.71314871,0.097576968,0
4.6311207,1.5019689,7.2126513,0.53218782,0.1725996,0.82884586,0
0.33528113,-7.9139709,-3.7616401,0.038235337,-0.90250629,-0.42897603,0
1.9913036,3.5977612,7.9123921,0.22331227,0.40346646,0.88732541,0
-4.7100677,7.448945,-1.5249003,-0.52661198,0.83283377,-0.1704924,0
-0.33736902,2.6125915,-8.3886719,-0.03836979,0.29713631,-0.95406377,0
-1.7276065,-3.3444958,-8.1229086,-0.19296914,-0.37357146,-0.90730768,0
-4.844748,-6.8734474,3.099673,-0.54056633,-0.76692414,0.3458547,0
-8.35431,-3.0250063,-0.64612067,-0.93778348,-0.33956137,-0.07252799,0
1.6548374,-6.8851819,-5.2889452,0.18723287,-0.77900851,-0.59840584,0
-0.50811052,-8.4878817,-2.4206548,-0.057472583,-0.96006763,-0.27380121,0
3.0574775,-8.0803204,1.6540418,0.34758517,-0.91860026,0.1880375,0
-2.457752,7.1047854,4.7300348,-0.27670833,0.79989904,0.53253549,0
8.9191608,0.79032671,-1.032939,0.98953462,0.087682649,-0.11459921,0
7.519815,-4.5898571,-0.18164471,0.85338241,-0.52087766,-0.020613858,0
-5.4673367,6.9626822,0.033502005,-0.61758369,0.7864961,0.0037843455,0
-7.3251324,4.0717673,3.5225034,-0.8057633,0.44789371,0.38747478,0
-1.8158211,5.4755669,6.9056649,-0.20179869,0.60851938,0.76745129,0
1.930621,0.3494983,8.7047615,0.21636131,0.039167665,0.97552741,0
-4.7925773,3.5705178,6.5227361,-0.54173833,0.40360045,0.73731023,0
-6.1592131,-6.231411,1.0975361,-0.69752336,-0.70569968,0.12429462,0
-7.4018145,-5.1177979,0.48136595,-0.82135767,-0.56790704,0.053415768,0
-2.8618693,4.7599745,7.0642948,-0.31847355,0.52969784,0.78612643,0
-3.0634048,-4.4430223,-7.0649261,-0.34457695,-0.49975863,-0.79467481,0
3.8025928,-5.1317215,-6.1083999,0.43026429,-0.58065557,-0.69116694,0
-2.3333442,7.4403381,-3.9621005,-0.26677445,0.85066408,-0.45299238,0
7.0237293,-5.6158652,-0.95484734,0.77667212,-0.6209929,-0.10558541,0
7.441216,-4.008584,3.2004919,0.82333487,-0.44353062,0.35411909,0
2.119873,1.4355652,8.6513662,0.23496079,0.15911403,0.95889324,0
2.4132338,6.4855003,5.489593,0.27320805,0.73423922,0.62149018,0
-1.0466038,-8.3740873,3.1888878,-0.11601055,-0.92822379,0.35347155,0
-5.2325315,1.8780119,-7.2419691,-0.57312948,0.20570233,-0.79322708,0
1.0276754,1.226246,-8.6696119,0.11656927,0.13909313,-0.98339444,0
4.096674,6.1719131,5.1546664,0.45393845,0.68388861,0.57117099,0
2.9334493,7.9447699,-2.8574662,0.32819611,0.88886571,-0.31969509,0
7.0797524,-4.8743863,2.6600938,0.78684008,-0.54173684,0.29564148,0
-3.9816387,-4.8210945,-6.1955361,-0.45233902,-0.54770643,-0.70385158,0
2.4942579,-1.4319994,-8.3944168,0.28109214,-0.16138017,-0.94601464,0
-8.4413471,-1.2869262,-2.6723313,-0.94345373,-0.14383429,-0.29867518,0
0.8755579,-2.9702718,8.2468119,0.099393219,-0.33718488,0.93617702,0
-5.0746741,3.5318089,-6.1700039,-0.58097881,0.40434244,-0.7063787,0
-4.3383698,-5.6172028,5.8054929,-0.47313488,-0.61260211,0.63313669,0
5.6373858,2.6453402,6.5090566,0.62581342,0.29366261,0.7225787,0
-4.4623466,-2.5812619,-7.1507072,-0.50620943,-0.29281884,-0.81117761,0
3.6435552,6.3682289,5.2394223,0.40413815,0.70635521,0.58114952,0
5.1898742,6.3657918,3.2280848,0.58809525,0.72134542,0.36579332,0
7.8526931,3.8471141,1.7058624,0.88140726,0.43181038,0.19147056,0
2.5667593,2.3716018,-8.1732941,0.28875467,0.2667999,-0.91947728,0
6.4169497,0.1630716,-6.2603006,0.71567124,0.018187093,-0.69820046,0
1.9097096,2.6914799,8.4474325,0.21057117,0.29677188,0.9314431,0
3.855638,-6.5809302,4.1140809,0.44491345,-0.75939298,0.47473595,0
5.7425289,-4.3726659,-5.2765455,0.64228004,-0.48906606,-0.59016156,0
1.6732843,6.7481403,-5.6865258,0.18629593,0.75130749,-0.63311213,0
-2.4594369,3.0382714,8.1696615,-0.27156082,0.3354733,0.90206009,0
-2.6751606,-2.3035157,-8.2304926,-0.29871204,-0.25721368,-0.91902792,0
-0.39719695,-4.681169,7.6671743,-0.044172093,-0.52059066,0.85266298,0
4.5548687,7.4981418,1.8996568,0.50742114,0.83530748,0.21162543,0
-2.6871519,-6.6600609,5.382555,-0.29940698,-0.74207515,0.59973329,0
-3.0222101,4.5132818,6.745039,-0.34897706,0.52115232,0.77885514,0
5.7022538,-6.5617051,1.6194603,0.64485037,-0.74204308,0.18313979,0
-0.22121277,-6.4207563,6.0624428,-0.025042878,-0.72687584,0.68631214,0
-6.9225116,3.4538589,4.5334463,-0.77202094,0.38518554,0.50558466,0
-4.4787493,7.7139707,0.24821523,-0.50191355,0.86447042,0.027816378,0
2.4068506,3.924829,7.6525044,0.26950195,0.43947431,0.8568728,0
5.5719643,5.4094844,-4.2236376,0.63030136,0.61192161,-0.47777843,0
-1.5583344,-4.9024124,-7.4452047,-0.17220148,-0.54173404,-0.8227216,0
-0.34540904,-4.4975963,-7.7502961,-0.038518183,-0.50154805,-0.86427188,0
6.6462045,5.9612365,-0.32135373,0.74394459,0.66727251,-0.035970811,0
5.9403172,6.3868828,-2.3974059,0.6566906,0.70605761,-0.2650286,0
-4.9849176,1.588928,-7.0406127,-0.56828958,0.18114065,-0.80264252,0
-3.2322509,-7.8298492,-1.8654346,-0.3726477,-0.90270698,-0.21506682,0
1.1243289,4.3586192,-7.741128,0.12555733,0.48674068,-0.86447603,0
-8.7988834,-0.56650829,0.81426293,-0.99370527,-0.063978828,0.091959096,0
-6.8350506,5.8451405,-0.0086484654,-0.75999606,0.64992696,-0.00096163148,0
-7.4221745,-4.8917942,0.69229925,-0.83244234,-0.54864466,0.0776456,0
-3.6519051,3.4398475,7.2683153,-0.4135038,0.3894926,0.82298857,0
2.0582235,6.5544648,-5.6102123,0.23205079,0.73897165,-0.63251352,0
2.9639065,8.3134985,0.6706515,0.33484852,0.93922085,0.075767122,0
2.5010614,5.4861794,6.5556202,0.28080618,0.6159597,0.73603094,0
-2.545727,1.1180755,8.2874422,-0.29122561,0.1279054,0.94806528,0
-6.8414364,5.1233988,2.0219576,-0.77893215,0.58332491,0.23021011,0
-6.2213511,-4.991179,3.9442406,-0.69918662,-0.56093371,0.44327351,0
0.32256532,-6.5935416,5.8085661,0.036683992,-0.74985564,0.66058367,0
-1.2760093,8.6058331,1.0861657,-0.14553925,0.98156536,0.12388604,0
-8.6597443,0.65776193,1.1182932,-0.98896253,0.075117916,0.12771162,0
-6.7390003,-6.0091634,-1.2962735,-0.73879182,-0.65878034,-0.14210954,0
0.37926918,-8.7061491,1.1876484,0.04312345,-0.98990166,0.13503733,0
-5.4602256,-6.2465858,-3.4450574,-0.6078096,-0.69534397,-0.38348946,0
6.071629,-1.0288479,-6.5916519,0.67307711,-0.11405407,-0.73072481,0
2.2240136,7.7757454,-3.8017342,0.24886759,0.87010753,-0.42541486,0
5.4243054,-7.305069,-0.80403668,0.59384578,-0.79974926,-0.08802487,0
8.8720474,0.40831459,0.32781622,0.99826282,0.045942638,0.036885142,0
8.7642059,-0.41964883,2.0078788,0.97368658,-0.046622183,0.2230715,0
-5.4101429,1.0770841,6.8975215,-0.61255628,0.12195142,0.78096271,0
-2.1794791,3.0398545,-8.1942463,-0.24196054,0.33747736,-0.90970558,0
-0.84410632,8.4436741,2.6033838,-0.095098421,0.95127833,0.29330155,0
2.5202045,8.4700375,-0.38718712,0.28491372,0.95755315,-0.043772209,0
-2.1106253,-7.0762672,-5.1998987,-0.23369704,-0.78351319,-0.57575405,0
6.1409893,5.7945099,-3.1086807,0.68253446,0.64402533,-0.34551138,0
-5.1331062,-5.6435037,4.7252555,-0.57202148,-0.62889898,0.52657151,0
-6.9443331,-4.2915463,3.3908443,-0.78559142,-0.48548967,0.38359597,0
-8.7172651,2.0773938,0.69392848,-0.96985614,0.23112446,0.077204354,0
6.3375807,0.16117428,-6.3147545,0.70826644,0.018012289,-0.70571542,0
