6.8371725,-5.4534812,-2.8777916,0.74260491,-0.59231824,-0.31256521,0
1.662261,8.9883318,-2.5408347,0.17520888,0.9474057,-0.26781401,0
8.8134584,1.4086758,-3.4114847,0.92238408,0.14742681,-0.35703343,0
-4.0771775,2.0542278,8.2866144,-0.43094406,0.21712503,0.87586749,0
1.2562242,-5.1202192,-7.6957908,0.13466594,-0.54888219,-0.8249808,0
-6.4502439,-4.4218049,-5.0729866,-0.69196355,-0.47435847,-0.54421538,0
2.7197504,8.3006945,3.9244151,0.28401765,0.86682355,0.40981817,0
1.0025662,6.8336744,-6.3495951,0.1068608,0.72838277,-0.67678607,0
6.5675092,2.5147858,-6.608355,0.68055558,0.26059371,-0.68478823,0
3.1950867,-8.3286047,2.6851118,0.34297517,-0.89403039,0.28823215,0
3.9615338,-6.7427697,-5.2502117,0.42057577,-0.71584535,-0.55738813,0
6.9876938,6.0826306,-0.84967333,0.75111222,0.6538263,-0.091331996,0
-1.9629086,8.2543039,-3.9721704,-0.20952711,0.88109064,-0.42400208,0
-0.87036884,7.1620059,-5.9592633,-0.093011968,0.76536781,-0.63683671,0
1.7516129,-1.9775776,-9.1013546,0.18482769,-0.20867115,-0.9603619,0
3.192636,-6.2138982,-6.455811,0.33563405,-0.65325201,-0.6786837,0
-1.5432279,-1.7272874,-9.2670984,-0.16155763,-0.18082647,-0.97015512,0
0.75107867,2.7937703,-9.0279865,0.079226203,0.29469591,-0.9523012,0
7.4802756,-0.71138179,5.7333646,0.79143256,-0.075266041,0.60660487,0
4.0972362,-4.1554956,7.5744715,0.42850029,-0.43459323,0.7921592,0
6.4672203,0.74352127,6.7766085,0.6882351,0.079124793,0.72115988,0
-7.9053888,2.9761696,4.597383,-0.8220135,0.3094663,0.47804236,0
-5.4420791,7.62358,0.34539464,-0.58060777,0.81334907,0.03684967,0
-5.6427827,4.6874995,-5.5967922,-0.61155045,0.50801933,-0.60656613,0
7.2647533,5.8659391,-0.20021185,0.77785379,0.62807953,-0.021437142,0
-6.7090802,-4.119936,-5.069901,-0.71645534,-0.43996346,-0.54140919,0
7.1916361,2.4218524,-5.6565237,0.75983471,0.25588161,-0.59764189,0
-1.592569,1.215274,-9.0519638,-0.17177987,0.13108355,-0.97637534,0
3.86199,-4.5632405,-7.377368,0.40671977,-0.48057094,-0.77693659,0
-8.8948879,2.6890192,2.1829083,-0.93184924,0.28170794,0.22868659,0
4.11974,-2.2805653,-8.3645983,0.42918676,-0.23758499,-0.8714081,0
-3.3245492,-8.7288084,0.78056657,-0.35469249,-0.9312669,0.083277784,0
5.5689325,-6.8122201,2.7355359,0.60438228,-0.73931313,0.29688084,0
4.5947695,-6.6221657,4.4288931,0.49960834,-0.72005552,0.48157191,0
-5.3763409,-3.6664379,-6.6300998,-0.57871699,-0.39466059,-0.71367335,0
-6.4021606,-6.2271795,2.6434176,-0.68735975,-0.66857314,0.28380713,0
5.7403412,4.9080095,5.5740609,0.61153948,0.52286816,0.59382504,0
4.3191476,-4.1196256,7.4122729,0.45384789,-0.43288249,0.77886766,0
2.9192019,4.815258,-7.7663102,0.30430809,0.5019598,-0.80958807,0
6.2914338,-5.8550539,-3.6025825,0.67512429,-0.62829703,-0.38658771,0
-6.4999609,-2.3170717,6.317904,-0.69473922,-0.24765696,0.67528033,0
2.1168854,8.9925947,2.0730886,0.22357987,0.94977421,0.21895418,0
0.83837217,-9.3718977,1.6717317,0.087726355,-0.98066521,0.17492819,0
4.7364922,4.4161191,6.9883394,0.49713877,0.46351266,0.733491,0
0.32570606,9.2464905,-1.9851775,0.034419626,0.97714096,-0.20978752,0
-7.973731,1.9468728,4.8754601,-0.83522815,0.20393001,0.51069212,0
7.4126396,5.7341871,-0.10411887,0.790914,0.61182642,-0.011109278,0
8.3317289,2.0670319,3.7583287,0.88909853,0.22057787,0.40106016,0
5.9113517,-5.7255936,-4.7396588,0.62245148,-0.60289162,-0.499075,0
-1.2636774,-6.1272731,6.99512,-0.13465334,-0.65290225,0.74537718,0
-8.9773741,2.3932164,-0.39449817,-0.96538514,0.25735539,-0.042422503,0
-8.1274223,-1.7640785,-4.6328106,-0.85372317,-0.18530287,-0.48664111,0
1.2811995,1.7221967,-9.310358,0.13409255,0.1802481,-0.97443825,0
9.1348534,1.5673499,1.6350224,0.97061038,0.16653645,0.1737269,0
-6.3382459,7.1672635,-0.27267992,-0.66218621,0.74879754,-0.028488148,0
4.9120536,-6.8876538,4.0950351,0.52262586,-0.73282307,0.43569788,0
-0.25643474,-5.1897526,-8.0032339,-0.026874127,-0.54388136,-0.83873165,0
3.7124753,-0.06921868,-8.5745611,0.39731106,-0.0074078199,-0.91765404,0
5.0035753,7.6326122,-2.9942548,0.52092856,0.79464096,-0.31173566,0
-0.12636463,8.7748222,3.2720382,-0.013492019,0.93689245,0.34935728,0
7.549479,5.7272959,0.52375686,0.79547185,0.60347247,0.055187099,0
-7.9805198,-2.9929597,3.9614964,-0.84908783,-0.31843612,0.42148361,0
5.5319753,-2.4776008,-7.056179,0.59469539,-0.26634571,-0.75854951,0
-8.3007736,-0.53751892,4.4739828,-0.87885243,-0.056910336,0.47368726,0
2.9421227,-5.861516,6.5419168,0.31760803,-0.63276237,0.706213,0
-0.71864355,2.268621,8.9987307,-0.07720647,0.24372615,0.96676612,0
-2.3930609,8.3572264,3.4626341,-0.2557416,0.89311987,0.37004471,0
6.7844462,-0.68430775,6.6125498,0.71425986,-0.072043248,0.69616276,0
-8.4212151,-3.8253362,1.1901747,-0.90302247,-0.41019788,0.12762463,0
-1.3511539,2.7745845,8.9110012,-0.14327848,0.29422131,0.94493663,0
-2.9620314,-1.5158076,-8.8833065,-0.31225252,-0.15979397,-0.93646371,0
-6.7087574,-0.054835677,6.4901862,-0.71870536,-0.0058745146,0.69528997,0
-5.8977895,-0.5459004,-7.5473571,-0.61473835,-0.056900285,-0.78667605,0
4.9430914,0.16492181,-8.1186571,0.51996851,0.017348282,-0.85400927,0
-1.3804692,-7.8565621,-4.8339953,-0.14800288,-0.84231782,-0.51826233,0
2.8827724,7.6883235,-4.28023,0.31132638,0.83030415,-0.46224546,0
9.3302383,-0.81412941,-1.1718192,0.98850739,-0.086254269,-0.12415031,0
8.6928005,-1.3601238,-3.0193906,0.93448585,-0.14621484,-0.32458788,0
-3.6508846,1.6341382,-8.390873,-0.39275873,0.17579906,-0.90268224,0
3.7939107,7.7822866,-3.3183267,0.40918159,0.83933669,-0.35788882,0
-4.8560128,-6.2058263,-4.6553955,-0.53057444,-0.67805684,-0.50865471,0
-1.3931849,8.4487047,-4.2854753,-0.14549738,0.88234121,-0.44755399,0
8.7941666,1.4280845,3.445719,0.92061657,0.14949889,0.36071479,0
0.94360501,-5.3955431,-7.7711363,0.099248335,-0.56750298,-0.81736779,0
-1.9383982,6.514308,-6.410202,-0.2074794,0.69726884,-0.6861257,0
-3.3411145,-8.0976038,-3.1974733,-0.35829142,-0.8683635,-0.34288776,0
-0.95907104,-1.9443693,-8.990449,-0.10370392,-0.21024379,-0.97213328,0
-7.5267038,-3.2081072,-4.5023408,-0.80595535,-0.34352237,-0.48210821,0
5.1463342,4.8334618,6.0715828,0.55266291,0.51906371,0.65202504,0
-8.2270393,2.1436803,-3.4818892,-0.8954975,0.23333551,-0.378997,0
-9.0029984,-2.2198551,-2.0672841,-0.94765568,-0.23366196,-0.21760234,0
-0.98299646,-8.6940365,-3.2619033,-0.10527184,-0.93106872,-0.34932634,0
7.2472792,4.7975402,3.340683,0.7783348,0.51524061,0.35877874,0
7.2472944,-5.9029527,0.42044288,0.77456963,-0.63089031,0.044935703,0
-6.3625679,-3.5371022,-5.8445802,-0.68154186,-0.37888527,-0.62605637,0
-3.189738,-7.1277337,5.2682257,-0.33861944,-0.75667316,0.55926967,0
-3.8922997,5.2027388,-6.6425824,-0.41888443,0.55991226,-0.71486646,0
-3.3884795,-8.0673847,3.0491636,-0.3656829,-0.87062788,0.32906413,0
-7.4550905,-5.1237965,2.7152581,-0.78933263,-0.54249907,0.28748703,0
-4.2032709,1.6133357,8.1130247,-0.4530094,0.17387798,0.87438488,0
-2.6218314,-8.8562994,1.4061426,-0.28063011,-0.94794208,0.15050775,0
-7.6105289,2.8628461,-4.9303741,-0.80033439,0.30106109,-0.51848537,0
0.46067277,4.410018,-8.4855318,0.048116207,0.4606162,-0.88629425,0
6.9145226,-5.164546,3.6398332,0.73821741,-0.55138409,0.38860071,0
6.9518857,0.0048997309,-6.5360923,0.7285586,0.0005134925,-0.68498337,0
-8.0076418,-4.4568639,-2.38623,-0.84558392,-0.47063199,-0.25197902,0
-5.011755,6.5851398,4.4174528,-0.53426814,0.70199567,0.47091374,0
1.0954491,8.2305717,4.0662885,0.11848613,0.89023632,0.4398185,0
-7.7702208,-3.7027097,-3.8752415,-0.82316148,-0.39225757,-0.41053525,0
-6.1554556,-5.0769987,4.7143807,-0.66418111,-0.54781431,0.50868738,0
0.24844727,-7.7987046,-5.3718681,0.026226774,-0.82325262,-0.56706911,0
7.8156209,-1.8362132,4.7953725,0.83575809,-0.19635421,0.51278991,0
-0.57279307,-5.8453794,-7.4116912,-0.060569894,-0.61811852,-0.78374785,0
-3.8512611,3.47455,7.6860166,-0.41534153,0.37471491,0.82890302,0
4.0574441,-5.1069541,7.1260266,0.42000616,-0.52864617,0.73765033,0
4.7723422,5.7938166,-5.7046933,0.50618845,0.61453331,-0.60508025,0
1.530351,5.0432053,7.8993626,0.16115583,0.53108203,0.83185381,0
0.57849008,-7.4241576,-5.8993297,0.060892053,-0.78146923,-0.62096536,0
-3.0030978,-7.474299,5.0112596,-0.31656051,-0.78787577,0.52824354,0
-2.0527556,3.1418641,-8.6216116,-0.21830748,0.33413252,-0.91689545,0
-1.6531371,-8.4647236,-3.7236845,-0.17597499,-0.90106237,-0.39638296,0
9.364665,0.71581191,0.73777151,0.99402916,0.07598114,0.078312084,0
-3.1823349,-8.6827755,0.69349951,-0.34316242,-0.93629438,0.074782506,0
-3.893414,0.87172413,8.4923477,-0.41494846,0.09290576,0.90508908,0
3.1486814,-1.68533,8.548027,0.33988038,-0.1819208,0.92270583,0
-9.0817633,2.450948,0.63542885,-0.96326405,0.25996163,0.067397237,0
-4.7252355,8.0004873,1.826606,-0.49899325,0.84486568,0.19289283,0
-2.4814887,0.84478223,-8.9109564,-0.26715654,0.090949081,-0.95935172,0
-2.926955,-0.2903204,-9.0163536,-0.30862075,-0.030611644,-0.95069242,0
-6.0866141,-0.34220827,-7.0868411,-0.65110588,-0.036607187,-0.75810361,0
9.3543491,-2.0142219,0.42451921,0.97663319,-0.21029319,0.044321582,0
-0.13116671,7.2350297,5.7209239,-0.014219348,0.7843256,0.62018639,0
-2.76037,-4.4691019,-7.8918133,-0.2911737,-0.47141683,-0.83245665,0
-7.737155,-4.1288004,-3.4014878,-0.8225401,-0.43893445,-0.36161354,0
8.9999466,-0.26006812,2.1602921,0.97199625,-0.028087415,0.23331204,0
5.33917,6.3463898,-4.3203835,0.57094729,0.67865497,-0.46200278,0
2.9485104,-8.9331732,0.86662513,0.31210983,-0.94560671,0.091735214,0
4.4154563,1.5130231,-8.3780289,0.46040103,0.15776341,-0.87357974,0
-6.828989,6.2168851,1.8612957,-0.72489357,0.65991908,0.19757555,0
7.4535494,2.4377599,5.4391189,0.78099209,0.2554315,0.56991762,0
-9.5632486,-0.33087879,-0.47813731,-0.99815673,-0.034535222,-0.049905214,0
-0.82124007,5.6044068,7.6178188,-0.086511068,0.59037942,0.80247623,0
-8.6623287,-3.662611,0.97874665,-0.9161045,-0.38734785,0.1035096,0
-7.6589441,-4.2320089,3.1984749,-0.82207251,-0.45424253,0.34330818,0
-2.6974487,-2.0844772,-8.7780333,-0.28645226,-0.22135849,-0.93217248,0
-0.25286961,-8.6312399,3.5465422,-0.027088648,-0.92462128,0.37992319,0
-8.2851162,4.437623,-1.8525656,-0.86487591,0.46323952,-0.19338769,0
1.7380375,4.0727148,8.1559305,0.18727919,0.43884826,0.87882805,0
-3.501138,6.39574,-5.7682009,-0.37658492,0.68793041,-0.62043184,0
-6.7691178,5.5301533,3.446712,-0.72043133,0.5885694,0.36683056,0
-4.8018017,0.34910962,-7.8527761,-0.52130324,0.037900768,-0.85252947,0
1.4019014,-7.2218885,5.8392935,0.14925812,-0.76890254,0.62169993,0
-7.9671564,-2.4049366,4.4383388,-0.84471554,-0.25498274,0.47057363,0
-6.2783556,-4.101233,-5.5534043,-0.67280823,-0.43950096,-0.59512019,0
1.1839098,8.0033016,-4.9854503,0.12458123,0.84217668,-0.52461225,0
8.5233622,2.041554,-3.3382354,0.90880281,0.21768053,-0.35593909,0
1.9154034,7.2941499,5.9326072,0.19961952,0.76018173,0.61828446,0
5.6347847,-7.0479031,2.2449,0.60598433,-0.75795603,0.24142435,0
-8.0477877,3.6940088,3.0481966,-0.85934305,0.3944464,0.32548654,0
-9.2647953,0.21534829,-2.1112282,-0.97475517,0.022656934,-0.22212371,0
-1.8198392,-0.68138599,9.0572929,-0.1964547,-0.073556758,0.97775,0
1.1590242,-7.5690932,5.1887589,0.1253034,-0.81830311,0.5609625,0
-1.4688091,-9.2928925,-0.6627804,-0.15573324,-0.98529637,-0.070272535,0
6.5843668,4.9887805,4.5027151,0.69984603,0.5302527,0.47858927,0
8.7810392,2.3862193,1.761749,0.94741029,0.25745571,0.19007991,0
7.8618274,5.317452,-0.52619404,0.82705456,0.55938941,-0.055354964,0
-4.0164576,-3.1085367,-7.7767172,-0.4324218,-0.33467281,-0.83726072,0
-5.5761085,-5.2620578,-5.5371304,-0.5896039,-0.55639696,-0.58548248,0
-3.2137403,6.8275557,-5.5535336,-0.34300441,0.72870904,-0.59273195,0
-4.969244,1.9540002,7.5949078,-0.53524357,0.21046785,0.81805718,0
3.7059071,6.0294237,-6.1299424,0.39580762,0.64396971,-0.65470552,0
4.269537,-3.8633246,7.4527383,0.45334104,-0.41020927,0.79133451,0
6.3833618,3.7427428,5.6579561,0.68528295,0.40180045,0.60740733,0
-5.6823921,4.3994374,-6.1401439,-0.60116494,0.46543559,-0.64959252,0
-1.1096401,-9.2353811,-1.7415655,-0.11725552,-0.97590148,-0.18403098,0
-4.198844,0.92696965,8.4619598,-0.44236526,0.097660013,0.89150184,0
-1.8649734,-9.1817036,-1.320526,-0.19710563,-0.97039747,-0.13956398,0
-7.6249762,-3.5654032,-4.6558976,-0.79267985,-0.37065339,-0.4840194,0
-6.1881146,5.1124654,4.7389784,-0.66386306,0.54846704,0.50839925,0
-6.8836083,-3.5200326,-5.4680886,-0.72691095,-0.37171641,-0.57743168,0
-4.9823613,-7.8321557,1.9678912,-0.52507269,-0.82540202,0.2073888,0
-1.1968107,-6.2009649,6.9198933,-0.12774804,-0.66189343,0.73863214,0
2.8975525,-6.8354487,-5.9763312,0.30402058,-0.71719742,-0.62705606,0
-7.0805707,3.2760515,4.8578749,-0.77041984,0.35645926,0.52857363,0
9.2816534,0.39685187,-0.83406711,0.99508488,0.042546436,-0.089420229,0
0.6680041,-7.0362468,6.0351601,0.071874879,-0.75707531,0.64936191,0
-9.1217165,1.503956,-2.3328402,-0.95669025,0.15773566,-0.24466947,0
-8.8687038,0.8000499,2.4237804,-0.96099281,0.086691611,0.26263541,0
-8.8833599,-2.4539919,2.4360716,-0.93189198,-0.25743136,0.25555146,0
-2.2676547,-1.4387549,8.907876,-0.24373166,-0.15464,0.95743477,0
-1.0855192,-4.9666085,-7.7662034,-0.11694618,-0.53506732,-0.83667588,0
-9.2014313,2.3109949,-0.53966713,-0.96831274,0.24319758,-0.056791879,0
-4.1927357,-7.8602328,-2.5833471,-0.45201981,-0.84741354,-0.27851126,0
1.9595715,2.1586199,8.7852268,0.21170053,0.23320454,0.94910401,0
5.391571,-4.1268859,-6.4087086,0.57746732,-0.44201249,-0.6864084,0
-9.158103,1.3792566,-0.073739715,-0.98881704,0.14892085,-0.0079618115,0
1.8001355,-3.384073,-8.6375351,0.19049378,-0.35810909,-0.91404051,0
7.5209703,0.73436201,5.641829,0.79751474,0.077870876,0.59825283,0
-2.4293454,-0.85776132,9.2862453,-0.25208515,-0.089007065,0.96360302,0
2.3144832,4.4849114,7.6980991,0.25143766,0.48722568,0.8362956,0
-3.0981672,-8.4464016,2.9342396,-0.32739481,-0.89256257,0.31007197,0
-5.8745604,-6.0539703,-4.5615454,-0.61256945,-0.63127738,-0.47565487,0
6.8904066,6.1196036,2.1886129,0.72745609,0.64607841,0.23106326,0
2.3380954,9.1580114,-0.93346423,0.24617365,0.96422976,-0.098282687,0
-2.4586251,-5.3175983,-7.097403,-0.26715535,-0.57781273,-0.77120715,0
-3.5982757,-0.89233679,-8.8801584,-0.37392667,-0.092730112,-0.92281091,0
-5.2165179,-7.9955878,0.97908664,-0.54356402,-0.83314461,0.10202136,0
4.5597949,-8.1893606,-0.37490779,0.48608154,-0.87299913,-0.039965779,0
9.0568647,1.1048048,-1.6192117,0.9773702,0.11922484,-0.17473698,0
-4.6657267,-4.9006295,-6.4400139,-0.4994756,-0.52462244,-0.68941671,0
4.2547064,1.7811581,-8.2542648,0.44996792,0.18837117,-0.87295198,0
3.3355777,7.4197059,5.1154633,0.34710577,0.77210695,0.5323236,0
2.190697,-8.9982443,-0.57365501,0.23609634,-0.96976101,-0.061824091,0
-4.5908465,7.8548479,-1.9249864,-0.49366769,0.84465569,-0.20699964,0
6.2101593,-7.0955939,1.5877584,0.64945292,-0.74205089,0.16604635,0
-7.0571856,-0.51952058,5.8789306,-0.7671054,-0.056471098,0.63903081,0
6.2126579,1.8974761,-6.974967,0.65180922,0.19907621,-0.73178786,0
8.9368296,-2.866174,-1.5814631,0.93898875,-0.30114764,-0.16616362,0
0.68733186,3.8230999,8.4260578,0.074079454,0.41204718,0.90814614,0
1.624172,-4.5321641,8.1504917,0.1715759,-0.4787733,0.86100978,0
-6.6340828,-3.2367201,-5.8628058,-0.70376551,-0.343362,-0.62194592,0
-0.81053913,-8.2331457,4.6846514,-0.08525493,-0.86598694,0.49274567,0
4.0869136,-6.7768455,5.1501822,0.43284041,-0.71772808,0.54544997,0
1.0359676,9.2680311,2.8437996e-06,0.11108677,0.99381065,3.0494053e-07,0
-1.748556,0.13578491,9.1182985,-0.18831174,0.014623433,0.98200035,0
5.4531388,5.7566266,4.8995023,0.58503944,0.61759913,0.52564263,0
5.2669015,-2.8093402,-7.4108763,0.55348015,-0.29522368,-0.7787829,0
-9.250535,-0.49951059,-1.9533497,-0.97706175,-0.052759402,-0.20631707,0
-7.4694695,-5.6857929,1.0277559,-0.79097378,-0.60209274,0.10883342,0
-7.0661077,1.1197532,6.1064038,-0.75123811,0.11904734,0.64920652,0
0.19606562,-0.6883893,9.2500019,0.021133104,-0.074198641,0.99701953,0
0.50772226,4.6699944,-7.8578768,0.055458855,0.51010674,-0.85832131,0
1.606117,4.037374,8.3124237,0.17123562,0.43044326,0.88622624,0
7.5548315,5.4871235,1.781202,0.79477578,0.57725084,0.18738422,0
-7.5939221,-1.0256295,-5.4426236,-0.80794764,-0.10912081,-0.5790624,0
-0.46129605,-8.6797781,3.7598186,-0.048709493,-0.91652113,0.39700937,0
4.4053388,4.6273446,6.8153577,0.47157499,0.49533987,0.72955847,0
0.87822479,-1.6464508,9.0556602,0.094985105,-0.1780732,0.97942215,0
5.905663,4.4412746,5.6006751,0.63693756,0.47900036,0.60404402,0
-0.33422527,-2.3786314,9.1195307,-0.035440665,-0.25222594,0.9670192,0
-7.5258098,-3.6848917,4.1897426,-0.80330366,-0.3933247,0.4472124,0
-1.3690363,-9.2022314,2.1067779,-0.14351887,-0.9646886,0.22085781,0
5.3070483,1.3345866,-7.5566821,0.5688141,0.14304216,-0.80993181,0
2.8351095,3.6035752,-8.0914011,0.30484277,0.38747144,-0.87002116,0
-3.2239449,8.8181543,-1.2690121,-0.34027994,0.93073583,-0.13394129,0
8.4315958,-4.5455914,-0.090104513,0.88019228,-0.47452399,-0.0094062025,0
0.074995875,-5.8265405,-7.1922412,0.0081019811,-0.62945491,-0.77699476,0
-1.8714838,8.1400347,-4.150322,-0.20065822,0.87276459,-0.44499248,0
4.3184395,6.2818899,5.3403616,0.46397156,0.67492396,0.57376647,0
-7.1388087,-4.7388668,-3.2901986,-0.77777517,-0.51630086,-0.35846803,0
-7.5192757,-3.0244656,-4.800077,-0.79826403,-0.32108438,-0.50958747,0
-8.0538683,-4.0386577,-2.3708036,-0.86447811,-0.43349743,-0.25447497,0
4.1371393,-3.7502418,-7.4896507,0.44284829,-0.40143394,-0.80170828,0
6.0700212,5.3593307,4.3964038,0.65878958,0.58165717,0.4771491,0
1.4084557,8.5778322,-3.6625192,0.1493153,0.90936589,-0.38827643,0
-9.5091314,0.96601158,-0.47966591,-0.9936291,0.10094058,-0.050121296,0
-3.3816917,8.9029675,-1.2773633,-0.35193449,0.92653668,-0.1329359,0
8.3801079,-3.7385843,-0.50006622,0.91188765,-0.40681681,-0.054415077,0
-2.9916053,8.6759481,-1.824473,-0.31972384,0.92723048,-0.19498813,0
-9.2567234,-1.6301823,1.9091332,-0.96513671,-0.16996822,0.19905257,0
4.78332,3.3581245,-7.3928175,0.50757039,0.35633922,-0.78447086,0
6.1919618,2.27565,-6.8571219,0.65074402,0.23915936,-0.720649,0
-3.8583574,6.1639071,-5.8971481,-0.41210613,0.65835887,-0.62986672,0
3.5816171,-4.9699287,-7.2744918,0.37660277,-0.52258211,-0.76490414,0
1.5685384,1.8060609,-8.9026108,0.17015325,0.19591941,-0.96574497,0
-0.53094429,-8.2656288,-4.588027,-0.056074798,-0.87296063,-0.48455685,0
-0.54709458,-5.583899,7.5208511,-0.058306418,-0.59510213,0.80153215,0
2.0322807,-5.0220804,7.7142806,0.21558903,-0.53275388,0.81834871,0
-1.3166037,7.9919319,-4.6465082,-0.14099725,0.85586911,-0.49760216,0
0.58097422,-0.126192,9.1792307,0.06315992,-0.013718814,0.99790913,0
9.3982,-0.7874893,0.47530067,0.9952448,-0.08339306,0.050333098,0
-5.1793666,6.336926,4.3448195,-0.55896086,0.68388551,0.46889597,0
-5.2906342,4.5049801,-6.4263129,-0.55897778,0.47597012,-0.678967,0
-3.5440967,-7.2735205,4.3318872,-0.3861644,-0.79252201,0.472002,0
3.1713603,-0.84129357,-9.0202618,0.33040306,-0.087648816,-0.9397614,0
2.8590946,8.614337,2.368156,0.30479887,0.91834676,0.25246149,0
3.2913601,8.2240543,3.3235118,0.34788066,0.86924231,0.35127893,0
7.6836958,-4.8202133,1.8163685,0.83061963,-0.52107269,0.19635229,0
-2.2998788,8.8855267,-1.6378877,-0.24667968,0.95304102,-0.17567605,0
-2.9519808,2.7534151,-8.3056221,-0.31966338,0.29816115,-0.89939719,0
7.2615724,-5.3119969,-2.6019282,0.77533048,-0.56717098,-0.27781233,0
-6.3447599,-5.3506088,4.592082,-0.66889971,-0.56409079,0.48412272,0
-1.6027678,-2.6774404,-9.0333586,-0.16770354,-0.2801505,-0.94519377,0
-3.5019622,8.0574589,2.7247965,-0.38071349,0.8759613,0.29622445,0
0.67944771,4.1961012,-8.2437906,0.073254384,0.45240095,-0.88880098,0
-0.12177902,-5.9132037,-7.3278637,-0.012931936,-0.62793392,-0.7781592,0
3.0005236,-8.2700605,3.8261781,0.31276384,-0.86204153,0.39882711,0
5.4941769,-6.6362023,-3.4509304,0.59199101,-0.71504295,-0.37183365,0
8.612113,2.148448,2.5517104,0.93249512,0.23262784,0.27629194,0
-5.5188508,-5.5124884,4.9228415,-0.59832329,-0.59763354,0.53370726,0
-0.8887701,-4.3119822,-8.5445147,-0.092463993,-0.44860092,-0.88893622,0
5.2156944,-7.9295025,-0.0054295734,0.54953671,-0.83546931,-0.00057207147,0
8.5867643,0.7971167,-3.4700909,0.92373824,0.085751414,-0.37330192,0
3.9925814,8.4573612,-1.8972269,0.41838193,0.88624549,-0.19881009,0
5.612052,7.3065209,-2.5958521,0.58631271,0.76334041,-0.27119869,0
2.5295329,-1.0291551,9.097579,0.26630551,-0.10834794,0.95777977,0
2.079277,-3.6315889,-8.3040409,0.22360541,-0.39054102,-0.8930164,0
-3.4805243,5.2817712,-6.8434162,-0.37348744,0.56677532,-0.73435205,0
-6.8398466,5.0843196,-3.5052719,-0.74223167,0.55172914,-0.3803775,0
-5.500587,-4.9146199,5.8701901,-0.58349037,-0.52133226,0.62269706,0
0.44639355,-5.047492,7.73276,0.0482843,-0.54596359,0.83641642,0
8.1912336,-3.2147205,3.0733826,0.87881678,-0.34489927,0.32973549,0
6.1204376,1.9274775,-7.025887,0.64323103,0.2025694,-0.73838979,0
-4.3000565,-7.0906272,-4.0081053,-0.46686712,-0.7698459,-0.43516931,0
-0.97894561,9.1443367,-1.5779516,-0.1049135,0.97999763,-0.16910891,0
1.5303874,-7.7971492,-4.9210372,0.16374174,-0.8342455,-0.52651978,0
-6.6186934,1.7563512,6.3711691,-0.70763409,0.18777937,0.68117017,0
5.7716889,7.4609704,0.45966032,0.61114663,0.79001957,0.048672039,0
0.023934562,5.9670944,-7.2808919,0.0025425181,0.63387191,-0.77343386,0
5.5067816,-7.6766548,-1.0098885,0.57957917,-0.80795455,-0.10628901,0
3.554903,-3.1691136,8.080245,0.37901643,-0.33788437,0.86149907,0
5.6539693,-7.2059908,-1.7945541,0.60577202,-0.77205724,-0.19227037,0
-7.5009122,2.8749173,-4.6283536,-0.80907714,0.31009957,-0.49923193,0
-3.9673016,-8.1153231,-1.5124426,-0.43316358,-0.88605875,-0.16513367,0
-8.9374886,-0.96791375,-2.5612752,-0.95613718,-0.10354792,-0.27400658,0
0.2765975,-5.9483409,-7.4061418,0.02910582,-0.6259324,-0.77933395,0
4.9677153,4.6556034,6.8077826,0.51596445,0.48354742,0.70708036,0
7.8214526,4.5919962,-2.1363609,0.83938956,0.49280789,-0.22927186,0
-8.8198366,-1.3271123,-2.4737859,-0.9528954,-0.14338125,-0.26726788,0
8.7448139,-3.7089972,0.97885704,0.91576725,-0.38841057,0.10250706,0
5.5782452,-5.4960818,-5.0872908,0.59734982,-0.58855128,-0.54477566,0
-4.1861405,7.9052701,3.3931079,-0.43755382,0.82629359,0.35466257,0
3.8652849,-4.2744894,-7.3730402,0.41304311,-0.45677057,-0.78788072,0
-7.7562184,4.46631,3.1118639,-0.81853026,0.4713392,0.32840163,0
8.957386,2.5174177,-1.006961,0.95711398,0.26899093,-0.10759572,0
6.0759997,2.729243,6.5947323,0.64823055,0.29117492,0.70357257,0
-5.7206116,0.91555017,7.2788792,-0.61492151,0.098414563,0.78242326,0
-7.7600708,-5.1751637,-1.5098655,-0.82127172,-0.54770321,-0.15979363,0
4.418107,5.4453473,6.2245359,0.47119588,0.58075213,0.66385347,0
0.10488982,2.6490538,8.8603392,0.011341323,0.28643173,0.9580335,0
-8.5607433,2.0033758,-3.4300394,-0.9071058,0.2122799,-0.36345074,0
4.0820599,3.4330034,7.8114929,0.43156394,0.36294433,0.82584745,0
4.7336135,4.1943655,-6.8091297,0.50936168,0.45133579,-0.73269814,0
-4.4118214,-6.6415095,5.0224795,-0.46818081,-0.70479447,0.5329836,0
5.6191697,1.3056359,-7.2273607,0.60764825,0.14118944,-0.78155553,0
-6.2347608,6.1411757,-3.7092686,-0.6559456,0.64609975,-0.3902441,0
5.193944,2.0309923,7.524262,0.55457032,0.2168541,0.80338418,0
1.6786739,9.211112,0.46663398,0.17906909,0.98257649,0.049777221,0
9.3089905,1.2156268,-0.51163316,0.99011183,0.12929507,-0.054417722,0
-1.9765279,5.4886804,-7.5042052,-0.20794573,0.57745081,-0.78949928,0
2.9629552,9.0174503,0.29657224,0.3120085,0.94956589,0.03122999,0
2.2575164,-3.0053542,8.5279589,0.24223365,-0.32247737,0.91505808,0
-1.6313401,7.158452,-5.6163583,-0.17647901,0.77440417,-0.60757983,0
-5.7748756,-3.2956042,6.5149579,-0.62036335,-0.35402876,0.69986635,0
2.5820885,-8.1873989,4.1573296,0.27070013,-0.85834771,0.43584469,0
-8.4801455,4.0358553,-0.5329923,-0.90150529,0.42904276,-0.056661222,0
-4.1949191,-8.0917921,2.2244787,-0.4471221,-0.86247647,0.23709959,0
-8.4686775,1.5017928,3.9818683,-0.89352548,0.15845333,0.42012471,0
5.9402142,-6.7764215,-2.8542705,0.62841678,-0.71687937,-0.301954,0
9.4246721,-0.42118317,-0.73705059,0.99596792,-0.044509236,-0.077889048,0
0.54999471,-1.4340826,9.0838079,0.059699338,-0.15566292,0.98600465,0
-7.8402944,-3.9917827,-2.8270369,-0.84842187,-0.43196285,-0.30592218,0
-5.1983747,-6.6793423,-3.7613363,-0.56125927,-0.72115666,-0.40610477,0
0.87995565,7.8439908,-5.5152235,0.091384724,0.81461024,-0.57276428,0
3.303055,7.604341,-4.4057994,0.35181263,0.80994815,-0.46926734,0
-0.39908698,-7.9800668,4.9503846,-0.042459175,-0.84900552,0.52667528,0
-4.3272777,-8.1179142,-2.2893672,-0.45647237,-0.85633594,-0.24149892,0
8.3700562,1.2254716,4.1723733,0.88738215,0.12992287,0.44234943,0
-3.0622439,-2.336911,8.5014877,-0.32809252,-0.25037947,0.91085964,0
2.1471348,-8.9828701,-2.8386254,0.2222179,-0.92968291,-0.29378378,0
7.7948251,-3.3893778,-3.9836228,0.83038199,-0.3610701,-0.42437497,0
-6.656426,6.5965567,-0.41240501,-0.70960701,0.70322466,-0.04396436,0
-0.88880104,6.0403824,7.1634283,-0.094430007,0.64175594,0.76107311,0
-6.3981161,-6.5853391,2.5298383,-0.6718033,-0.69146174,0.26563346,0
3.4994199,8.7933226,-0.96031606,0.36786982,0.9243812,-0.10095139,0
-4.0570097,8.3383541,-1.0350145,-0.43481034,0.89366376,-0.11092776,0
4.6983747,-7.7131371,2.3824799,0.5030154,-0.82578063,0.25507206,0
3.0753293,-3.607456,8.2798738,0.32233304,-0.37810659,0.86783451,0
-8.7173624,-3.4424255,-0.6131292,-0.92812175,-0.36650881,-0.065278754,0
6.8090105,-6.5494752,-1.1526989,0.71540368,-0.68813503,-0.12111084,0
-2.2931299,0.4816108,9.2178831,-0.24110207,0.050637059,0.96917778,0
5.2061467,4.2225499,6.8098235,0.54483247,0.44189733,0.71266007,0
3.2578211,8.4878817,2.2698879,0.34766057,0.90578997,0.24223261,0
-6.0599089,-4.2271185,5.6808558,-0.65020204,-0.45355156,0.60953128,0
1.8679376,-8.0843754,-4.1112971,0.20171937,-0.87303513,-0.44398072,0
-5.8728123,6.4107475,-3.4298234,-0.62836421,0.68592083,-0.36697552,0
-8.0053577,-1.6742364,5.0245652,-0.83400422,-0.17442322,0.52346301,0
-8.7515326,-2.7712047,2.3658276,-0.92317986,-0.29232827,0.24956593,0
3.143626,-0.3578518,9.0736294,0.32713962,-0.037239641,0.944242,0
-8.1389675,4.056304,-2.6651661,-0.85887969,0.42804903,-0.28124663,0
5.6622949,-0.76700753,-7.629858,0.59401184,-0.08046411,-0.80042207,0
-1.0948144,6.8170333,-6.0871248,-0.1189428,0.74061602,-0.66131729,0
7.568665,-3.293895,4.170567,0.81839877,-0.35616845,0.45096287,0
7.3311291,1.9889989,5.6798291,0.77293187,0.20970313,0.59883291,0
-8.3899536,-1.6568375,4.2009482,-0.88054985,-0.17388988,0.44090164,0
1.1806839,8.122633,-4.777801,0.12431794,0.85525775,-0.50306982,0
3.917511,8.7724743,0.12084053,0.40772516,0.91301805,0.012576792,0
4.499558,-4.2485042,7.0347905,0.48024401,-0.45344868,0.75083286,0
6.0374985,5.0769858,4.8828707,0.65077692,0.54724407,0.52632052,0
0.56386912,7.7736917,-5.2161517,0.060123518,0.82888329,-0.55618119,0
1.7495451,6.529007,-6.2809162,0.18961012,0.70759296,-0.68070567,0
7.3783307,3.2324812,5.1143141,0.77326846,0.33877254,0.53599358,0
-7.8801208,3.0966322,4.1309042,-0.83646768,0.32870471,0.43849173,0
7.3065734,2.3855205,5.3106575,0.78209025,0.25534436,0.56844884,0
5.2987375,-7.7928996,0.36741713,0.56185162,-0.82632011,0.038959075,0
5.6559486,6.6604738,3.2743411,0.6061272,0.71377844,0.35089907,0
-5.9309144,2.0344203,-6.7926011,-0.64158666,0.22007684,-0.73480111,0
8.0941105,-2.2028129,4.30896,0.85829157,-0.23358414,0.45691791,0
-0.65538305,9.4212294,-0.25846753,-0.069370806,0.99721575,-0.0273582,0
-3.2432406,7.6396484,4.4865727,-0.3437593,0.80974573,0.47554323,0
-3.3239532,-7.7273226,-4.3328934,-0.35128576,-0.81664759,-0.4579137,0
-3.6006823,-8.5925827,0.44416234,-0.38604549,-0.92124981,0.047620662,0
-2.4879334,5.4467902,7.2638664,-0.2642836,0.57859159,0.77161258,0
-3.6476181,-2.1048756,-8.6666327,-0.37855363,-0.2184462,-0.89943224,0
6.1152396,7.1931672,0.56078076,0.64657331,0.76054412,0.059292175,0
6.0050435,-1.3676605,7.280839,0.62970144,-0.14341575,0.76348406,0
-2.0338144,-7.4315925,5.1835823,-0.21901347,-0.8002789,0.55819958,0
8.4039326,2.8540514,2.901386,0.90001529,0.3056533,0.31072259,0
-9.4757175,-0.013803447,1.024541,-0.99420446,-0.0014482754,0.10749616,0
5.5123429,-7.6834984,-0.22403575,0.58276308,-0.81229693,-0.023684986,0
-1.9441787,8.8745785,1.8866508,-0.20952754,0.95642883,0.20332766,0
3.3901002,2.1899443,8.5093164,0.359963,0.23252967,0.90352458,0
-3.2076244,-3.4608939,8.0441837,-0.34394181,-0.37109897,0.86254835,0
-7.8128738,-4.412086,-2.7617967,-0.83221698,-0.46996954,-0.29418293,0
-3.9286919,-6.6839552,5.1400251,-0.42234296,-0.71853977,0.55256397,0
-4.450727,6.097775,-5.3307867,-0.48159155,0.6598106,-0.57681853,0
-5.2618284,-4.9221377,5.9528942,-0.56299198,-0.52664655,0.63693291,0
-1.9957479,8.8354836,-2.1625621,-0.21430503,0.9487614,-0.23221768,0
2.214457,-2.0516624,9.0434942,0.23226847,-0.21519339,0.9485479,0
6.7562461,6.0621781,-2.4583552,0.71842295,0.64461946,-0.2614083,0
-9.2541122,0.25689864,0.70812023,-0.99670339,0.02766897,0.076267265,0
4.9210773,8.2443171,0.077397674,0.51252389,0.85863507,0.0080608688,0
-1.7165284,9.3483047,0.80742681,-0.17995174,0.98002678,0.084646352,0
7.8298035,4.6634798,-2.2582142,0.83393335,0.49669591,-0.24051692,0
-6.2294059,-6.4175615,2.915206,-0.66221946,-0.68222141,0.30990213,0
-8.4994125,-3.2327795,2.6651578,-0.89694411,-0.34115565,0.28125447,0
5.6136775,-6.1077638,-4.0774369,0.607306,-0.6607579,-0.44111046,0
0.38532111,-9.4050303,0.16593972,0.040928982,-0.99900657,0.017626192,0
-7.473557,5.256763,-2.2633948,-0.79393435,0.55843884,-0.240446,0
-3.0260503,4.4053302,7.7587214,-0.32119104,0.46759057,0.8235262,0
-1.683099,-6.3802729,6.331728,-0.18404531,-0.6976769,0.69236857,0
-4.1322293,-4.1160846,7.2110038,-0.44554818,-0.44380742,0.77750999,0
-6.3854127,3.6135757,-5.8339591,-0.68120414,0.38550097,-0.62237436,0
6.9588881,-4.2300382,4.3511829,0.75368035,-0.45813307,0.4712536,0
-1.434818,8.3852091,4.1416221,-0.15164509,0.88622797,0.43772566,0
4.6658649,-7.4440718,-2.8926506,0.50444901,-0.80481422,-0.3127383,0
0.35765943,-8.1317062,-4.6979551,0.038056768,-0.86525458,-0.49988616,0
-6.3558474,-6.3439584,-2.6794882,-0.67822087,-0.67695224,-0.2859233,0
2.2924566,-3.6839509,8.2331781,0.24632694,-0.39584452,0.88466388,0
-7.0383916,-5.9203815,-2.8268971,-0.73149598,-0.61530185,-0.29379779,0
-0.27252752,9.288476,-1.3765361,-0.02901119,0.9887799,-0.14653549,0
-0.45141345,8.3725052,3.8136201,-0.049006984,0.90894771,0.41401961,0
-7.8798413,4.5552697,-2.1717997,-0.84210616,0.48681444,-0.23209679,0
8.3211727,2.4670379,3.9051049,0.87432539,0.25921753,0.41031864,0
-4.1549416,-8.278861,-1.1190571,-0.44531479,-0.88730472,-0.11993735,0
9.3003311,0.074384987,-1.858183,0.98058861,0.0078428471,-0.19591917,0
3.4829857,6.4050665,-6.1199217,0.36590201,0.67287868,-0.642923,0
3.1439192,-8.5072966,1.6730665,0.34089068,-0.92243403,0.18140821,0
0.57201093,-8.6931953,4.0182676,0.059621584,-0.90610516,0.41883025,0
-4.5070887,0.54228556,-8.3180399,-0.47562367,0.057226263,-0.87778538,0
-4.9230747,-7.1018682,-3.1856089,-0.53454459,-0.77111673,-0.34589157,0
-7.6749349,5.1856098,2.0785429,-0.80849051,0.54626083,0.2189572,0
2.3620691,-7.9293666,4.3715396,0.25242269,-0.84737235,0.4671649,0
5.4638333,-3.3724575,6.9205723,0.578771,-0.3572365,0.73307997,0
-4.785037,6.4620028,4.7838402,-0.51142752,0.69066256,0.51129955,0
-4.3820748,6.5704336,-4.9842057,-0.46922699,0.70355362,-0.53370237,0
6.6113105,2.0533869,6.5392737,0.6942451,0.21562348,0.68668061,0
4.936327,5.4485607,5.9458332,0.52205706,0.57622999,0.62882066,0
-7.0712175,6.3331385,0.15407565,-0.74481541,0.66707313,0.016228877,0
6.2143192,0.97368997,-6.994441,0.66061932,0.10350908,-0.74355096,0
-7.8740993,4.6288738,-2.8985581,-0.82169318,0.48304117,-0.30247593,0
6.2001872,5.1197209,-5.081655,0.65183175,0.53824127,-0.53423941,0
-8.9123116,1.8589693,1.1509159,-0.9712016,0.20257753,0.1254188,0
4.3305302,3.5994108,-7.7065892,0.45371178,0.37711203,-0.80742317,0
-6.5898519,3.5092676,5.4687204,-0.71206075,0.37919086,0.59091783,0
2.7905829,-7.3535728,5.0978546,0.29773015,-0.7845602,0.5438953,0
7.971221,1.9217768,4.6578307,0.84528512,0.20378926,0.4939262,0
8.7186661,-3.2412887,1.2865202,0.92848372,-0.34517708,0.1370064,0
-3.4135561,8.4845953,2.0434718,-0.36426628,0.90540534,0.2180623,0
6.1661739,4.8820214,5.0466738,0.65985286,0.52243346,0.54005319,0
0.3260535,-5.6067333,7.5645475,0.034607489,-0.59510159,0.80290502,0
-2.4028902,7.1891065,-5.5792441,-0.25530165,0.76382625,-0.59278208,0
-6.5317578,6.3811693,2.9256997,-0.68119425,0.66548944,0.30511999,0
2.355289,-3.4050221,-8.4048738,0.25138414,-0.363424,-0.89706695,0
8.0249033,1.1841177,4.5826731,0.86134011,0.12709537,0.49187386,0
2.4548955,7.6665139,4.9483681,0.25979796,0.81133586,0.52367848,0
2.9191933,7.2033582,-5.2382259,0.31145424,0.76853991,-0.55887622,0
2.6391811,-0.82747817,-9.1146231,0.2770783,-0.086874001,-0.95691204,0
1.3745033,-8.7893047,2.5909073,0.14834252,-0.94858092,0.27962226,0
7.2991176,2.7054505,-5.3604469,0.77227026,0.28624544,-0.56715262,0
2.2120559,7.2104726,5.3954725,0.23853874,0.77754682,0.5818249,0
6.6740446,-6.3103161,-1.816092,0.71282929,-0.67398083,-0.19396988,0
2.6649039,8.9387445,0.98030424,0.28413805,0.95306909,0.10452224,0
7.8718648,5.2789254,0.097623266,0.83049285,0.55693406,0.010299392,0
3.9245849,-3.7905302,7.721827,0.41508019,-0.40090203,0.81669211,0
-4.0366693,-3.5424438,-7.4686646,-0.43880844,-0.38508338,-0.81188548,0
0.731359,9.0662394,1.598096,0.079194136,0.98172438,0.17304747,0
-6.6104398,2.4746087,-6.3911223,-0.69422972,0.25988391,-0.67119694,0
-4.2659373,6.2024188,5.7860479,-0.44930357,0.65326065,0.60940701,0
-1.3102686,-1.5279362,9.1537237,-0.13980062,-0.16302492,0.97666711,0
7.3165288,0.85732847,5.9180045,0.77429277,0.090729259,0.6262899,0
6.6239514,-2.9574881,-5.9529972,0.70586842,-0.31515893,-0.63436949,0
-4.9823713,7.8106418,1.4768474,-0.53108871,0.83256412,0.15742242,0
1.5795457,4.900208,8.1298237,0.16414373,0.50922137,0.84483755,0
-9.35079,0.94219905,0.042861409,-0.99495161,0.10025275,0.00456058,0
4.4082112,-5.0449376,6.5797982,0.4694438,-0.5372507,0.70070267,0
-3.0647206,8.6407204,2.333169,-0.32395422,0.91336149,0.24662605,0
4.4724894,-2.3411582,7.8847532,0.47771034,-0.25006106,0.84217709,0
-9.3855171,-0.38013604,0.63841301,-0.99688107,-0.040376082,0.067808926,0
-8.2320843,-2.0733888,-4.1261463,-0.87215227,-0.21966621,-0.43714663,0
6.8312325,1.1352359,-6.2073164,0.7345612,0.12207171,-0.66747165,0
-1.2951459,6.0383716,-7.1985698,-0.13655166,0.63664621,-0.75896984,0
-6.2760177,-6.2995315,-3.3476145,-0.66052729,-0.66300201,-0.35232386,0
8.030055,4.6604972,1.1879926,0.85789353,0.49790573,0.12691957,0
6.1780663,-1.2648526,6.8803296,0.66195017,-0.13552289,0.7371943,0
2.7169394,-8.4710789,-2.5361791,0.29370493,-0.91573536,-0.27416447,0
0.3194398,3.1473541,8.8672609,0.03392997,0.33430284,0.94185477,0
-7.7128677,-3.1792233,-4.0924606,-0.83004135,-0.34214082,-0.44042134,0
4.7935362,-6.318531,-4.732676,0.51901674,-0.68413448,-0.51242715,0
5.197227,-6.8026042,4.0755043,0.54815167,-0.71747082,0.42984352,0
4.8413682,-0.29573801,-7.8712626,0.5236342,-0.031986523,-0.85134244,0
-8.2163897,-4.4819965,-1.3753878,-0.86855257,-0.47379076,-0.14539191,0
3.4641523,3.9158139,7.5698934,0.37654445,0.42563888,0.82282788,0
-4.272243,-5.2038708,6.5811458,-0.45376581,-0.55271637,0.69900024,0
-1.8761014,-8.4580421,3.382163,-0.20172286,-0.90942872,0.36365819,0
8.5934048,1.0645713,3.3007488,0.92732561,0.11487929,0.35618815,0
-5.4138875,5.786552,5.4643683,-0.56244218,0.60115784,0.56768662,0
-8.2307148,-3.5496449,-3.3596506,-0.85983318,-0.37081864,-0.35097063,0
5.7298422,1.6131213,-7.2630525,0.6101616,0.17177866,-0.77343065,0
3.0612578,-8.3154554,3.452616,0.32190141,-0.8743977,0.36305401,0
5.2641211,-1.9153585,7.459157,0.5643127,-0.20532605,0.79962009,0
-0.045791157,-0.03041096,-9.3713799,-0.0048861927,-0.0032450331,-0.99998277,0
-8.8340912,0.77665138,2.7386236,-0.95180571,0.083678246,0.29506573,0
5.427608,-7.02601,-2.7740715,0.58351523,-0.75535738,-0.29823688,0
-6.4805303,6.8888745,0.27615872,-0.68489808,0.72805411,0.029185971,0
-7.7766271,5.4045219,-2.0254302,-0.80300748,0.55806607,-0.2091441,0
-2.6271093,-0.66896504,9.0873642,-0.27703032,-0.070542783,0.95826823,0
5.8029861,2.6011283,-7.0586987,0.61078739,0.27377909,-0.7429561,0
7.9195986,-4.6628504,-2.0140734,0.84175491,-0.49560305,-0.21407096,0
7.2864218,4.8386273,3.3154387,0.77896732,0.51728171,0.35444263,0
6.4401011,-0.90074337,6.8405833,0.68234348,-0.095435821,0.72477543,0
5.8010244,-3.2759633,6.4911122,0.62366384,-0.3521964,0.6978547,0
-6.4570236,5.9780893,3.1511645,-0.6908356,0.6395945,0.33714244,0
0.41519442,-8.6972914,-3.9748726,0.043377902,-0.90865922,-0.41527924,0
6.1887679,-6.4668393,3.1358988,0.65251756,-0.68183625,0.33063594,0
-0.99070251,5.2780309,-7.5869651,-0.10658192,0.56782198,-0.81622207,0
6.1551838,2.9661093,-6.5275269,0.65137798,0.31389123,-0.69078153,0
9.5237732,0.59370834,0.71986049,0.99523461,0.062042542,0.075225443,0
6.0666318,-2.419718,6.7209797,0.64732838,-0.25819141,0.71714932,0
2.894043,-4.8473926,7.5902739,0.30593556,-0.51242834,0.80238432,0
-3.3130281,-0.21561185,-8.8686552,-0.34985474,-0.022768544,-0.93652725,0
4.445334,-3.5010281,7.237205,0.48388836,-0.38109773,0.78779221,0
2.8438358,-6.2628875,-6.4565701,0.30144858,-0.66387045,-0.68440098,0
-9.1335077,-1.0080644,-2.2021692,-0.96659422,-0.10668291,-0.23305438,0
0.87515593,-4.2193804,-8.3769236,0.09290114,-0.44790331,-0.88924235,0
-3.6804295,2.4284251,8.41646,-0.38735008,0.25558177,0.88579786,0
-6.231678,-6.7715473,1.7682047,-0.66500145,-0.72261256,0.18869054,0
-6.4272199,4.7673178,4.5221906,-0.69924444,0.51865667,0.49198824,0
5.9901214,5.8084216,4.2032833,0.64115214,0.62170392,0.44989806,0
-0.2174848,4.8347325,8.0281725,-0.02320064,0.51575506,0.85642189,0
-1.7045984,0.57077295,-9.3184576,-0.17961551,0.060143005,-0.98189664,0
-2.7208798,-0.79337746,9.0936394,-0.28565466,-0.083293632,0.95470607,0
-4.1284842,7.4767375,-4.3084273,-0.43157852,0.78159422,-0.45038921,0
8.8153772,2.9260194,-2.0717099,0.9263221,0.30746686,-0.2176958,0
-3.5005538,-1.3262857,-8.664649,-0.37087247,-0.14051573,-0.91799182,0
-7.8829393,4.5769901,2.254688,-0.83949852,0.48742941,0.24011441,0
-6.3013263,5.6188092,4.5116811,-0.65827298,0.58697331,0.47131628,0
4.0262036,6.0430794,-5.9225602,0.42966899,0.64490622,-0.63204461,0
1.8849158,1.8241981,8.9574509,0.20194899,0.19544372,0.95969701,0
-9.3473024,-0.082196712,-1.9120871,-0.97967577,-0.0086149052,-0.20040277,0
-4.866806,2.6385829,7.6902018,-0.51361418,0.27846056,0.81157881,0
2.455652,-1.731691,-8.9923563,0.25900468,-0.18264642,-0.94844967,0
4.0855713,7.1690521,4.6297846,0.43180496,0.75769877,0.48932299,0
4.867197,-5.8895068,-5.6346254,0.51269197,-0.6203782,-0.59352994,0
7.8562694,0.75997818,-5.2108307,0.83065951,0.080354057,-0.55095184,0
2.141063,-4.8458557,-8.0177145,0.2227976,-0.50425655,-0.8343181,0
0.79467851,-9.0074701,-2.6315391,0.084382355,-0.95645159,-0.27942804,0
-7.8877673,4.8282752,1.5258359,-0.84152144,0.51511371,0.16278669,0
3.275836,8.6969376,0.53395438,0.3519091,0.93427497,0.057360444,0
0.19211192,4.8187985,8.0774956,0.020420844,0.51222193,0.85861033,0
3.4165387,6.6115866,5.6267395,0.36619458,0.7086491,0.60309035,0
5.4400611,1.6105621,7.517972,0.57759339,0.17099991,0.7982136,0
8.5248632,-0.86411518,-3.5087636,0.92069852,-0.093325786,-0.37895194,0
-2.7587433,2.5723996,-8.5034704,-0.29655865,0.27652714,-0.91410381,0
4.8433895,-7.4606042,-2.4406443,0.5251053,-0.80885559,-0.2646071,0
6.5607944,0.25500816,-6.6682596,0.70107907,0.027249886,-0.71256274,0
3.623008,3.4615393,-8.1069164,0.38014859,0.36320627,-0.8506282,0
-0.16042341,-8.9563761,3.0779769,-0.016936824,-0.94557619,0.32495975,0
-7.1419845,2.3762972,-5.7056532,-0.75616062,0.25159147,-0.60408843,0
-5.4041414,-6.1790333,-4.2726192,-0.58396554,-0.66769946,-0.46169448,0
0.52273744,7.7344298,-5.4116611,0.055291917,0.81809986,-0.57241184,0
-5.0850782,-7.4113874,-1.846076,-0.55418569,-0.80771321,-0.2011904,0
4.3852801,5.2473259,6.6296024,0.46041942,0.55092734,0.69605535,0
8.4024706,0.66511554,3.9453211,0.90286827,0.071468465,0.42393544,0
7.4712849,-3.5919335,-4.5475545,0.79017055,-0.37988648,-0.4809539,0
-0.12193882,2.6408112,8.8390903,-0.01321693,0.28623712,0.95806772,0
-8.274334,-4.5080562,0.66593087,-0.87594342,-0.47723505,0.070497252,0
6.2328944,-1.5141062,-6.8726311,0.6630193,-0.16106187,-0.73107076,0
-2.8195262,-2.6211824,-8.4930725,-0.30236733,-0.28109685,-0.91080111,0
-3.3450282,7.0139561,-5.2005172,-0.35774133,0.75012279,-0.55618066,0
3.441643,-5.721066,-6.4623971,0.37039462,-0.61570942,-0.69549251,0
-8.5460672,0.8927533,-3.5490003,-0.91926318,0.09602958,-0.38175049,0
7.7780828,0.68561935,-5.1245956,0.83279729,0.073409081,-0.54868913,0
-6.1936383,2.1648331,6.8160715,-0.65466416,0.22882168,0.72045505,0
-8.1877031,2.177469,-4.0687084,-0.8711592,0.23167941,-0.43290442,0
-4.3717752,-6.0316377,5.6066523,-0.46889856,-0.64692855,0.60134637,0
0.39686537,-7.3324904,-6.0571156,0.041691873,-0.77029967,-0.63631779,0
-2.9352977,0.70493448,9.0424089,-0.30790916,0.073946767,0.94853771,0
-3.9259086,-0.20383638,8.4404993,-0.42163807,-0.021891793,0.90649992,0
1.7784573,6.688303,-6.4651709,0.18778458,0.70620769,-0.68264753,0
-2.2035494,7.0121918,5.6457114,-0.23775239,0.75658178,0.60914516,0
-1.178553,5.763896,-7.5282183,-0.12335254,0.6032747,-0.78793645,0
-1.4754395,9.1257086,-0.53585869,-0.15933935,0.98552626,-0.057869788,0
6.219099,6.7659669,1.902163,0.66268069,0.72095257,0.20268638,0
-6.7848206,-1.6116194,6.3242903,-0.7206983,-0.1711897,0.67177981,0
-4.2839055,3.6875288,7.6746297,-0.44944674,0.38687778,0.8051852,0
-5.2978187,-7.6333513,-0.21008338,-0.5700236,-0.82131732,-0.022604112,0
8.1858416,-3.5881629,-2.5556788,0.88058293,-0.38599271,-0.27492437,0
0.34967095,9.0593052,1.8367,0.037801325,0.97935998,0.19855723,0
3.2875443,7.6138425,4.571115,0.34716761,0.80402857,0.48271382,0
6.3629656,-1.9596487,6.3349199,0.69236839,-0.21323372,0.68931669,0
-9.1097965,-0.46087375,2.2441385,-0.9698028,-0.049063295,0.23890454,0
4.1747451,2.7691488,-8.0816107,0.43906,0.29123273,-0.84994698,0
-1.2557532,-2.6162677,8.8538666,-0.134776,-0.28079569,0.95025742,0
-1.1778247,2.9871466,9.0045385,-0.12320448,0.31246573,0.9419055,0
-0.46400559,-7.7951894,5.1753869,-0.049529366,-0.83208215,0.55243653,0
-9.1159744,-1.0265325,-2.0986853,-0.96869296,-0.10908267,-0.22301309,0
-5.488975,-5.3522639,-5.5338635,-0.58052963,-0.56607068,-0.58527714,0
-4.1601677,-6.9214463,-5.0588293,-0.43657166,-0.72634268,-0.53087801,0
2.5912714,-9.1293659,-1.5179054,0.26962578,-0.94992465,-0.1579404,0
-3.9821086,-5.3934474,6.3335767,-0.43176627,-0.58479285,0.68672782,0
3.8313437,-8.3790264,-2.3411126,0.40303573,-0.88142633,-0.24627183,0
-8.3385563,3.5124414,2.815156,-0.8799693,0.37066856,0.29708391,0
-2.3730671,-9.1165113,-0.23991823,-0.25182804,-0.96743709,-0.025459936,0
7.0061955,-5.7049546,-2.8076923,0.74050999,-0.60297716,-0.29675508,0
3.7107408,-7.0393667,4.8006101,0.39928579,-0.75745499,0.51655871,0
-8.8420496,2.2582691,1.9815347,-0.94683552,0.24182282,0.2121892,0
-5.3244371,4.8252816,-6.1287584,-0.56377304,0.51092041,-0.64893782,0
1.4442259,-8.1469479,-4.1539731,0.15599446,-0.87997222,-0.44868103,0
8.139082,3.5009627,3.1744282,0.86479169,0.37198341,0.33728856,0
0.41215122,8.7128859,-4.0387282,0.042877652,0.90643454,-0.4201642,0
-7.2265248,5.8238311,1.9680786,-0.76168758,0.61384135,0.20743872,0
-8.8273964,2.2791538,-2.1028373,-0.94347602,0.24359697,-0.22475217,0
3.6629038,0.33919361,8.6909838,0.38812509,0.035941307,0.92090565,0
5.810647,-1.7573137,-7.0765657,0.62321913,-0.18848014,-0.75899488,0
-3.953923,7.7355132,3.9467309,-0.41437367,0.81068677,0.41361994,0
6.1299601,-6.3924894,3.3125308,0.64827138,-0.67603511,0.35031533,0
4.3907208,8.2640152,0.19916414,0.46908757,0.88289529,0.021277923,0
8.5230312,-3.8324854,1.9652852,0.89251363,-0.4013297,0.20580047,0
5.4521585,3.6689343,6.7865777,0.57713461,0.3883726,0.71838868,0
-7.7838902,4.3201208,2.1511939,-0.84989923,0.47170082,0.2348823,0
8.9055882,-2.8746316,-0.75514579,0.94856709,-0.30618763,-0.080433369,0
0.55219316,7.969286,-5.2874298,0.057641789,0.83188987,-0.55193895,0
-2.0250642,0.74249929,9.238656,-0.21345463,0.078264147,0.97381306,0
-3.8465774,-0.061234344,8.4866314,-0.41281694,-0.0065717055,0.91079026,0
-1.3869565,-7.6579385,-4.8376517,-0.15135589,-0.8356961,-0.52792364,0
-6.3549805,-0.91615605,-6.8661566,-0.67602646,-0.097458325,-0.73040408,0
-4.3516064,7.2481437,-4.1111231,-0.46290174,0.77102065,-0.43732035,0
8.2246151,-2.0240564,-3.9917884,0.87836808,-0.21616411,-0.42631289,0
2.5388889,-8.3870354,3.2613206,0.27153575,-0.89699864,0.34880027,0
-3.1343472,-6.2300925,6.3192377,-0.33304387,-0.66198605,0.6714583,0
3.6615217,-7.8269811,4.1307859,0.38229775,-0.81721139,0.4312934,0
6.0632815,-2.9651511,6.5374579,0.64527148,-0.31555972,0.69573468,0
-4.9766164,5.317616,-6.1944551,-0.52050561,0.55617082,-0.64787966,0
-0.57568508,-8.0166111,4.8064957,-0.061473157,-0.8560347,0.51325017,0
-6.5530314,-1.0323973,-6.713037,-0.69433552,-0.10938909,-0.71128917,0
-8.2933445,4.3846102,-0.7852546,-0.88097054,0.4657605,-0.083414622,0
5.1684651,6.93997,3.0536268,0.56325275,0.75630909,0.33278036,0
2.4775078,7.5173178,4.9199982,0.2658391,0.80661583,0.52792078,0
-4.2046671,0.83001918,-8.3509226,-0.44794914,0.088427067,-0.88967532,0
-8.378562,-2.9434338,3.4765778,-0.87854999,-0.30863932,0.36454317,0
-3.1973724,5.9993544,-6.4654598,-0.34080696,0.63946933,-0.68915141,0
-0.47697902,1.8322332,9.3777885,-0.049856696,0.19151595,0.98022246,0
4.3721704,5.9000373,-5.7031808,0.4702276,0.63454992,-0.61337793,0
-4.2979255,-6.8244362,-4.9077659,-0.45524362,-0.72285599,-0.51983893,0
2.6397979,-4.5096197,7.9802079,0.27674285,-0.47276536,0.836604,0
-2.6770742,-6.279202,-6.2037997,-0.29022911,-0.6807459,-0.6725713,0
7.4173007,-2.9040823,-4.7855854,0.79819685,-0.31251654,-0.51499045,0
-5.7391605,-7.1881771,2.3702769,-0.60420227,-0.75675058,0.24953593,0
-2.7812095,1.5970272,8.7572832,-0.29821873,0.17124327,0.9390108,0
7.1284876,2.3424556,5.8987999,0.74686539,0.24542359,0.61802864,0
7.3877001,-5.5942931,-0.83223248,0.79402369,-0.60126984,-0.089447632,0
1.285573,7.7008538,-4.8794742,0.13963303,0.83643132,-0.52998602,0
6.8094449,-5.8121209,-2.7069731,0.72805601,-0.62142354,-0.28942564,0
-3.9170606,7.7245069,3.8631976,-0.4130421,0.81452572,0.4073624,0
0.71437597,-4.7170448,-8.1180086,0.075867511,-0.50095534,-0.86214143,0
7.1716843,1.3642424,-5.8842859,0.76485604,0.14549567,-0.62755573,0
6.0988283,-3.7742779,-6.1381092,0.64604902,-0.39980936,-0.65021008,0
-6.6707339,-3.2153261,5.9721985,-0.70119584,-0.33797979,0.62776911,0
-2.6309204,-1.3633107,-8.9653339,-0.27863047,-0.14438289,-0.94948339,0
4.6913023,7.7551208,2.498589,0.49898109,0.82485807,0.26575747,0
-8.5673485,-1.602275,-3.7465496,-0.90306085,-0.16889144,-0.39491358,0
7.3912454,-5.7772331,-1.4924076,0.77809387,-0.60818297,-0.15710928,0
1.9371772,9.198638,-0.78307849,0.2053625,0.97515875,-0.083015099,0
4.2487249,-7.8749909,2.6458707,0.4553338,-0.84395897,0.28355667,0
3.1279836,6.4494472,-5.9370613,0.33607364,0.69293499,-0.63788372,0
-1.3387976,-1.660156,9.298295,-0.14033888,-0.17402513,0.97468978,0
-1.6939794,7.686657,-5.2469049,-0.17907491,0.81257629,-0.55466378,0
-6.8540745,5.9656587,-1.4981626,-0.74425268,0.64778364,-0.16267864,0
2.2537932,4.5527463,-7.8233814,0.2416148,0.48807091,-0.83869481,0
6.4378681,-6.8257895,1.0979607,0.68148273,-0.72254628,0.116225,0
1.9251511,1.0840467,-9.0473909,0.20671095,0.11639831,-0.97145355,0
9.3296909,-0.32916871,-1.878569,0.97973871,-0.034566991,-0.19727415,0
-1.8959941,2.6899409,8.9107704,-0.19959778,0.28317928,0.93806726,0
-3.5859797,8.5203485,1.6770209,-0.38168597,0.90689236,0.17849945,0
8.3787632,4.199563,-0.94052678,0.88952446,0.44584313,-0.099850245,0
-6.684535,-5.3367906,3.8983543,-0.71111465,-0.56773883,0.41471499,0
4.606482,-6.088562,5.6209917,0.48587415,-0.64219832,0.59288079,0
-3.0356798,0.92495519,8.9655008,-0.31918982,0.097255409,0.94268727,0
-8.8559017,-2.4220991,-1.1869874,-0.95661247,-0.26163459,-0.1282181,0
7.1680541,4.7677507,4.0233889,0.75432265,0.50172925,0.42339709,0
-6.5870895,5.9783249,2.9212186,-0.70353192,0.63851303,0.3119998,0
-3.8286242,-5.310843,6.8567128,-0.40384638,-0.56019205,0.72325164,0
4.5128212,-7.9446836,-2.4693322,0.4768039,-0.83939868,-0.26089826,0
-8.3645525,4.2090755,-0.3614184,-0.89261484,0.44916725,-0.0385684,0
-2.4648318,-0.40690067,9.1760778,-0.25918132,-0.042786311,0.96488047,0
-6.5138927,6.8893805,1.0611385,-0.68276507,0.72212249,0.11122509,0
