6.5561452,-1.3673915,-6.2434292,0.71604532,-0.14934298,-0.68189126,0
-3.2503755,-7.6096539,-3.6189153,-0.35989249,-0.84256643,-0.40069845,0
8.7119837,1.0396506,2.6044886,0.95189971,0.1135956,0.28457493,0
-7.863193,-4.255681,2.0982642,-0.8561967,-0.46338683,0.22847295,0
5.8402443,-6.9174829,1.1591442,0.63988072,-0.75790733,0.12700051,0
-0.95522749,5.1472487,-7.4809384,-0.10461624,0.56372517,-0.81931025,0
6.7161059,0.50192654,5.909503,0.7495718,0.056019064,0.65954834,0
5.0438199,0.16321264,7.5322804,0.55631191,0.018001661,0.83077854,0
-8.7946148,-0.29569533,-1.0022837,-0.99301451,-0.033387449,-0.11316951,0
-0.84069192,8.1677284,-3.2034013,-0.095385276,0.92671406,-0.36345935,0
-6.5120115,2.6477635,5.6846781,-0.72030717,0.29287463,0.62879407,0
1.9156815,7.4002061,-4.7561984,0.21278217,0.82196963,-0.52828944,0
-7.7290683,1.5556334,-4.3157187,-0.85993314,0.17307918,-0.48016518,0
6.3039536,1.0768653,6.3272085,0.70072901,0.11970119,0.70331395,0
-5.4293222,0.71539205,7.0212288,-0.60974002,0.080342099,0.78851902,0
6.845191,1.4501377,5.8259373,0.75180542,0.15926823,0.63986111,0
1.5959496,3.7035649,-7.9632831,0.17879355,0.41490877,-0.89212316,0
5.517385,-6.7709808,2.5854564,0.60571277,-0.74333572,0.28383806,0
-7.4550385,-3.0488105,3.7759874,-0.83806318,-0.3427341,0.42448017,0
-7.4039392,4.5691252,1.8071458,-0.83321398,0.51419371,0.20337,0
-8.6357203,2.3040535,1.7017772,-0.94915009,0.25323802,0.18704195,0
2.150773,-5.3256006,7.2994747,0.23156038,-0.57337433,0.78588915,0
-2.0338957,5.4353161,-7.241744,-0.21916489,0.58568907,-0.78034288,0
0.71878886,7.4595199,4.8942471,0.080305465,0.83340216,0.54680145,0
-5.7961836,4.9458508,4.782599,-0.64429712,0.54977512,0.53162819,0
5.1067719,5.8133035,-4.3491917,0.57532525,0.65492254,-0.48997679,0
8.6339951,-2.7754753,-1.2098422,0.94366032,-0.30334809,-0.1322308,0
-1.6613781,-3.5463474,-8.0564547,-0.18546601,-0.39589235,-0.89937288,0
3.0445223,-4.4990139,7.1943979,0.3377187,-0.4990606,0.79805058,0
4.0862031,7.7786555,-2.3891983,0.44875482,0.85426718,-0.26238644,0
7.5889788,5.1960192,-0.66380674,0.82298613,0.56348187,-0.071986467,0
5.2400861,-5.4748406,-5.0418749,0.57568461,-0.60147512,-0.55390877,0
6.577836,6.2547388,-0.82700878,0.72169131,0.68624246,-0.090735771,0
8.7781191,1.7226363,0.40739846,0.98026735,0.1923697,0.045494873,0
-7.2236781,-2.7648511,-5.047327,-0.78213227,-0.29935986,-0.54649132,0
-3.2639782,-8.2389736,-0.63835043,-0.36736172,-0.92729896,-0.07184653,0
6.0903053,-4.0631332,-5.3337407,0.67235816,-0.4485622,-0.58883488,0
-8.8963528,-1.5214294,-1.8401244,-0.96582079,-0.16517198,-0.19977067,0
6.4251981,-6.1097846,1.6027864,0.71311212,-0.67810535,0.17788813,0
0.86980689,8.843751,0.46754017,0.097745247,0.99382359,0.052540202,0
1.560954,-4.2171679,7.8898821,0.17188525,-0.46437562,0.86879843,0
1.1291006,-2.2064192,8.8480301,0.12288029,-0.24012513,0.96293324,0
-3.9489837,0.6442706,8.0149641,-0.44082373,0.071919717,0.8947078,0
8.1194611,-2.5037036,-3.5318646,0.88240284,-0.27209628,-0.38383427,0
-2.2722852,-1.4296849,8.6924,-0.2497694,-0.15715085,0.95546788,0
-5.4965358,-7.1502466,-2.0662308,-0.59406477,-0.77279758,-0.22331791,0
4.2217064,1.404307,7.9608817,0.46291721,0.15398462,0.87292409,0
-4.7074556,2.1244428,7.6496105,-0.51002574,0.23017116,0.82879132,0
-1.7986866,-3.5861616,-8.1059208,-0.19887222,-0.39650482,-0.89623308,0
5.5337105,5.3559365,-4.9049053,0.60606849,0.58659816,-0.53719985,0
-8.9827785,-1.4336947,0.85114449,-0.98320681,-0.15692455,0.093161717,0
7.0927873,-0.91058421,-5.7457819,0.77319276,-0.099263817,-0.62635416,0
4.8263826,7.0222673,2.9685416,0.53488493,0.77824432,0.32898927,0
4.0105824,6.3333755,-5.3330741,0.43593776,0.68841809,-0.57968849,0
3.3385041,-2.8946426,7.9820991,0.36592311,-0.31727284,0.87489325,0
-7.4236741,1.4353693,4.5195489,-0.84274256,0.16294448,0.51306349,0
-4.6435919,-7.8571444,0.85433072,-0.50657439,-0.85714424,0.093199849,0
-8.5147095,-3.2843978,-1.2325031,-0.92460233,-0.35664892,-0.13383606,0
6.6298423,1.7943451,5.9649663,0.72879481,0.19724593,0.65570736,0
-2.3087137,3.8398278,-7.7381964,-0.25819609,0.42942896,-0.86540484,0
-5.0991392,7.4036908,1.4663675,-0.55981761,0.81282675,0.16098763,0
1.7974232,-7.4846058,-5.2192073,0.19327112,-0.8047955,-0.56120449,0
-1.1016206,-3.7895992,8.2133245,-0.12089429,-0.41587904,0.90134853,0
-7.6031041,-3.0558007,-3.4822774,-0.85395062,-0.34321547,-0.39111564,0
-6.8843193,-1.5893636,-5.7221532,-0.75719106,-0.17481059,-0.62936699,0
4.7164898,-2.8188686,-7.0346603,0.52838486,-0.31579578,-0.78808784,0
8.8773623,-0.30266553,2.3699403,0.96563947,-0.032922592,0.25779143,0
8.2193375,3.012502,1.6447086,0.92277724,0.33821073,0.18464988,0
-1.4734423,-7.2489862,-5.5737686,-0.15908368,-0.78265393,-0.60178512,0
-7.0762448,-5.7705374,-1.0108281,-0.77027667,-0.62814534,-0.11003256,0
-0.47043106,-6.4064808,-6.3880901,-0.05192763,-0.70716709,-0.70513707,0
0.46145758,0.059563279,-8.9924164,0.051247749,0.0066148746,-0.99866402,0
-3.7476511,-6.115202,5.5460844,-0.41335595,-0.67449051,0.61171836,0
-0.081589885,-8.5816793,-2.6091707,-0.0090959324,-0.95671636,-0.2908797,0
3.2696488,7.1136551,-4.7650681,0.35674673,0.77616078,-0.5199098,0
2.8861876,-6.6751313,5.5569854,0.31534553,-0.72932637,0.60715753,0
7.3948264,4.1376991,3.4382236,0.8086468,0.45247,0.37598023,0
6.6663842,4.7365866,3.8580039,0.73725814,0.52383524,0.42666978,0
0.73615855,5.9026508,6.7905459,0.081546739,0.65385634,0.75221145,0
-6.7199073,-3.8373406,-4.5067558,-0.75040299,-0.42851064,-0.50326335,0
7.969069,-1.5592827,3.9908056,0.88076746,-0.172337,0.44107682,0
1.3756108,-7.8681612,-4.0150051,0.1538744,-0.88012439,-0.44911432,0
4.9365311,-5.8770685,4.7492108,0.54693824,-0.65114421,0.52618426,0
3.3263698,7.572382,3.8091207,0.3653034,0.83160233,0.41831931,0
-6.7436552,5.5713654,2.0736554,-0.75014269,0.6197409,0.2306668,0
-4.8565664,-5.756074,-5.1942787,-0.5308463,-0.62916684,-0.56775987,0
-0.38091254,2.4483299,-8.7213659,-0.042013127,0.27004099,-0.96193177,0
-2.2872496,-0.18628365,8.7327538,-0.25331581,-0.020631151,0.96716362,0
-4.4626966,6.4158292,-4.4550242,-0.49608251,0.71319675,-0.49522966,0
-3.2881854,-6.9502096,-4.4640512,-0.36984366,-0.78173542,-0.50210094,0
-8.1609173,0.90089577,3.6804314,-0.90700513,0.10012564,0.40904349,0
8.6765652,1.0440679,-1.5319669,0.97792572,0.11767569,-0.17266624,0
0.72344732,-8.9475403,0.82267511,0.080255009,-0.99258769,0.091262758,0
0.38940898,-5.8336296,-6.897747,0.043065622,-0.64515436,-0.76283753,0
-6.393229,5.3113194,3.1186953,-0.72016215,0.59829098,0.35130391,0
-2.0367663,-8.5265713,2.2628825,-0.22496234,-0.94176608,0.24993704,0
-7.229414,5.5649223,-1.2977895,-0.78452301,0.60389537,-0.14083378,0
3.6870139,-6.7965679,4.380754,0.41487816,-0.76477814,0.49294069,0
7.7560215,3.5836678,-3.4418254,0.8420282,0.38905892,-0.37365988,0
-1.414912,6.3609061,-6.4484782,-0.15433733,0.69384193,-0.70339423,0
-8.3179007,2.9501736,-0.93750983,-0.93720269,0.33240485,-0.10563203,0
2.8238552,5.3957076,6.6764808,0.31248501,0.59708363,0.73881274,0
7.9359117,-2.2383549,-3.642416,0.88037723,-0.24831384,-0.40407458,0
-0.016902102,-4.381978,8.0833158,-0.0018382495,-0.47657794,0.87913036,0
3.2716558,7.7620096,-3.6198974,0.35684761,0.84662163,-0.39483118,0
-7.9332094,3.7654943,-1.370901,-0.89258897,0.42366695,-0.15424414,0
2.2562802,2.4919043,8.4383316,0.2483995,0.27433994,0.92899692,0
3.3619304,8.4301786,-1.2972987,0.36669999,0.91951531,-0.14150186,0
-2.5310173,-1.3811612,8.424386,-0.28425133,-0.15511428,0.94611877,0
4.0795231,1.2358749,-7.9770389,0.45104998,0.13664375,-0.88197643,0
2.972738,-3.549283,-7.6928716,0.3310923,-0.39530572,-0.85680294,0
4.7902145,-7.7864075,-0.19478214,0.52386582,-0.85153443,-0.021301698,0
-3.5306361,0.87081259,8.2794924,-0.39043266,0.096298136,0.91558129,0
2.3595393,-6.3787293,6.0083337,0.26000422,-0.70288998,0.6620751,0
-0.91876662,-6.0360947,-6.6981359,-0.10137208,-0.66599226,-0.73903853,0
0.4602232,-3.6328402,8.4264898,0.050090864,-0.39539969,0.91714233,0
-8.6724434,-0.60198188,3.0978682,-0.93971682,-0.065228738,0.33567458,0
-0.89652008,1.5594753,8.9900064,-0.097785808,0.17009608,0.9805637,0
0.95991045,-8.757659,2.6118536,0.10446171,-0.95304728,0.28423348,0
-4.8351865,-1.8415283,-7.171381,-0.54678017,-0.20824659,-0.81096536,0
8.5404911,0.79232872,-2.6097558,0.95260453,0.088376172,-0.29109159,0
6.3083615,-3.2011116,-5.5889034,0.69972765,-0.35506943,-0.6199249,0
-3.1069961,5.2425847,-6.7476163,-0.34172031,0.57660121,-0.74213082,0
6.1205478,2.1906459,6.1349401,0.68473673,0.24507868,0.68634689,0
1.6430875,7.7757244,4.5356445,0.17956039,0.84974915,0.4956657,0
1.7938421,3.1171858,8.3853149,0.19660598,0.34164512,0.91903466,0
-5.4430656,-6.3720617,-3.6509273,-0.59545082,-0.69707948,-0.39939764,0
1.3730395,8.4793892,-2.3835995,0.15402462,0.95119959,-0.26738706,0
7.6771631,2.3600318,4.0210867,0.85472018,0.26274899,0.44767889,0
-5.7773886,-3.696981,6.1853056,-0.62552857,-0.40027899,0.66969454,0
-0.050552823,-8.3069859,-2.9979866,-0.0057241088,-0.94060212,-0.33946279,0
1.0086111,-8.2550058,-3.7387865,0.11061557,-0.90533632,-0.41003716,0
-5.2048216,-5.2565141,5.0444031,-0.58130991,-0.58708328,0.56339329,0
-3.2605724,-7.0438929,-4.7702436,-0.35788786,-0.77315378,-0.52359283,0
7.2517743,5.2805948,0.26134151,0.80804431,0.5884015,0.029120533,0
-2.8685911,7.2920299,-4.3736138,-0.31965908,0.81258136,-0.48737007,0
-8.3744755,-3.5919425,1.4351045,-0.90784067,-0.38938695,0.15557347,0
-7.7897663,2.0780399,3.9808402,-0.86635464,0.2311134,0.44273719,0
-3.7569828,2.1224492,-7.9918504,-0.4136568,0.233689,-0.87993038,0
4.7132454,3.3184078,7.0443325,0.51781672,0.36457407,0.77391964,0
-7.0194378,2.9900069,4.8773627,-0.77516097,0.33018836,0.53861028,0
6.6366863,2.8252785,-5.3512692,0.73894429,0.31457317,-0.59582293,0
3.2575815,-8.1027641,-2.6072793,0.35742709,-0.88904834,-0.28607491,0
8.2317753,-2.6074643,2.2042956,0.92369545,-0.29258609,0.24734613,0
-1.1212083,-3.9335997,-7.9249234,-0.12572102,-0.44107431,-0.88862121,0
-2.3644667,-7.950264,-3.928097,-0.25763607,-0.86627346,-0.42801172,0
-1.3176332,-7.000773,5.2356372,-0.14904086,-0.79187542,0.59221637,0
-5.8684297,-6.9166007,1.4110751,-0.63927555,-0.75345773,0.15371503,0
2.4568362,-3.6545784,7.9313364,0.27082038,-0.40284914,0.87428194,0
8.4653244,-2.8263655,1.301326,0.93860346,-0.31337681,0.14428616,0
-6.727282,6.2825847,0.7913664,-0.72816378,0.68002957,0.085657828,0
7.8727703,-4.457119,-0.41675079,0.86929554,-0.49214613,-0.046016786,0
0.50653923,-4.7183838,7.4818311,0.057172228,-0.53255606,0.84446168,0
-6.9621892,-3.8922145,-4.3618646,-0.76582855,-0.42813674,-0.47979739,0
-3.3628199,5.5547609,-6.4286647,-0.36802903,0.60791636,-0.7035569,0
5.0020366,-7.5745254,0.97969347,0.54787898,-0.82964677,0.10730699,0
0.63659644,8.5740137,-2.6619496,0.070730783,0.9526391,-0.29576316,0
3.5283206,-1.6895767,-8.2491875,0.38646299,-0.18506223,-0.90354764,0
2.3227315,2.6449354,8.3895092,0.25529975,0.29071432,0.92212099,0
2.2347181,-5.3209333,-6.8663392,0.24914481,-0.59322155,-0.76551616,0
7.660161,3.573885,3.2930057,0.8444078,0.3939625,0.36300015,0
-5.0949631,-7.454391,0.90228373,-0.56147933,-0.82149494,0.099434212,0
6.0100732,6.8301225,-0.071060352,0.66058081,0.7507143,-0.0078104055,0
3.4962671,-0.13513787,-8.2812853,0.38890207,-0.01503186,-0.92115647,0
-7.3974109,-4.4808154,-2.889802,-0.81123692,-0.49138856,-0.31691009,0
5.8210354,2.5724633,6.5662289,0.6365785,0.28132018,0.71807158,0
3.2903087,5.1416993,-6.3975391,0.3720971,0.5814687,-0.72349012,0
-6.1490178,-3.6390634,-5.7407312,-0.67087609,-0.39703262,-0.62633085,0
-8.1547117,3.0591595,1.6347868,-0.92021644,0.34521011,0.18447712,0
-5.1318464,-7.38237,-1.4750683,-0.56325579,-0.81026638,-0.16189899,0
3.0986657,1.9205198,8.0926924,0.34910962,0.2163744,0.91175908,0
0.78704923,-6.2631345,-6.5185308,0.086736709,-0.69022828,-0.71837425,0
-5.623951,-1.9179883,7.0630355,-0.6093083,-0.20779808,0.76522118,0
-6.6340494,-5.5022874,-2.0181875,-0.7494362,-0.62158316,-0.22799088,0
3.0604858,-0.35660356,-8.2811279,0.34637457,-0.040359084,-0.93722767,0
5.6780834,2.1901445,6.5876546,0.63311183,0.24420324,0.73452991,0
8.3918056,0.040243983,3.0350635,0.9403764,0.0045096958,0.34010583,0
-1.5612355,7.7495966,-4.119524,-0.17513894,0.86934745,-0.46212697,0
2.5956879,-4.0868063,-7.6113153,0.2877503,-0.4530513,-0.84376794,0
1.021836,8.1389713,3.7659895,0.11320959,0.90171963,0.41723537,0
-3.9224634,-1.0296841,-8.3653021,-0.4219307,-0.11076083,-0.89983696,0
-6.5505691,1.5910083,6.0832257,-0.72142613,0.17522065,0.66995674,0
8.3044968,-3.6449635,-1.1605028,0.90827519,-0.39865509,-0.12692592,0
8.1628656,-1.2937012,3.4516551,0.91138399,-0.14444174,0.38537732,0
0.041350555,-9.0943432,-0.35627681,0.0045433114,-0.99922323,-0.03914522,0
3.132674,-7.9044352,3.5713444,0.33968982,-0.85711318,0.3872568,0
-1.0697317,-5.7534375,6.8440309,-0.11879521,-0.63892728,0.76003921,0
6.2319975,6.4556656,-0.21090679,0.69434166,0.71926177,-0.023498304,0
-4.3868399,-1.5117005,-7.6393785,-0.49080202,-0.16912988,-0.85469782,0
7.716166,-3.2418563,3.7377021,0.84180617,-0.35367495,0.40776998,0
2.3994055,8.2275314,2.3492632,0.27000812,0.92585444,0.26436552,0
-1.6452854,8.9144182,-1.769778,-0.17813596,0.96516901,-0.19161485,0
-0.6217429,8.5307236,-2.5340292,-0.069695674,0.95627069,-0.28405774,0
-5.0703535,6.1222253,-4.0909958,-0.5671438,0.6848008,-0.45759785,0
2.9034412,-8.5373344,1.889165,0.31513566,-0.92663097,0.20504747,0
-0.099533968,5.359941,7.3189516,-0.010971241,0.59080535,0.80673945,0
1.2297934,1.0054793,9.0074959,0.13445516,0.10993056,0.98480302,0
1.8484324,-1.8296752,-8.7362642,0.20278589,-0.20072809,-0.95842892,0
4.9462433,0.55229431,7.536684,0.54765248,0.061150517,0.83446836,0
-1.8268123,-5.0025997,7.259881,-0.20289259,-0.55560738,0.80630946,0
5.8534813,-2.9449661,-6.2644629,0.6457023,-0.32486162,-0.69103801,0
3.9673209,-7.596036,3.0128314,0.43674386,-0.83621216,0.33166856,0
-0.36332682,8.8693066,2.5492101,-0.039340101,0.96034586,0.27602196,0
2.9942658,8.4827433,1.7553271,0.32669392,0.92552263,0.19151764,0
2.5264921,-0.5312106,8.8626499,0.27369559,-0.057546191,0.96009332,0
0.72500032,8.7889004,0.99050063,0.081697509,0.9903875,0.11161572,0
-8.6212311,-0.27564168,2.4923649,-0.96020824,-0.030700188,0.27759254,0
0.18367311,-7.7684956,4.9096923,0.019982381,-0.84515929,0.534141,0
6.1997986,-4.5948968,4.888886,0.67867172,-0.5029884,0.53517044,0
-2.0158358,-6.3823533,-6.0325809,-0.22371945,-0.70831984,-0.66950178,0
-0.65312892,-9.1549301,-0.80870575,-0.070886269,-0.99361527,-0.08777155,0
8.772686,1.2291666,0.092404999,0.99027258,0.13874997,0.0104308,0
-0.75665128,6.5630722,6.0512695,-0.084456787,0.73256463,0.67543763,0
-6.7739849,-5.701479,-1.6170151,-0.75262558,-0.63346452,-0.17965895,0
-1.7513889,3.3247526,8.0961962,-0.19621667,0.37248829,0.90705645,0
-5.9661765,-1.1827036,-6.7943521,-0.65425342,-0.12969577,-0.74507147,0
5.9099088,-6.6221409,-2.5295413,0.64034814,-0.71751964,-0.27407989,0
-8.0870304,3.7286842,-0.82885152,-0.90421319,0.41690525,-0.092674129,0
-0.60681343,7.3066125,5.5195127,-0.066122308,0.79617566,0.60144174,0
2.6949708,-7.8667707,3.2755611,0.30153641,-0.8802017,0.36649784,0
-4.979671,0.52664304,7.7746234,-0.53847891,0.056948781,0.84071237,0
7.7572861,-4.7330685,-1.8960372,0.83565253,-0.50986916,-0.20425034,0
-3.5632772,6.1298304,5.3871875,-0.40015724,0.68838203,0.60498297,0
-4.0671034,6.8552217,-4.2300797,-0.45070851,0.75968236,-0.46876922,0
6.5493441,4.2128978,5.0542383,0.7054643,0.45379341,0.54441863,0
2.5141311,-4.5211754,7.3437247,0.27988023,-0.50331008,0.81752431,0
-4.3122821,-5.9387479,5.4278841,-0.47240639,-0.65058416,0.59461951,0
-7.8658614,3.6652391,-2.256108,-0.87726265,0.40877625,-0.25161889,0
-2.1525776,8.7168207,0.38140371,-0.2395274,0.96996152,0.042440578,0
8.3255472,3.2672813,1.9363655,0.90980422,0.35704395,0.21160333,0
-8.6815243,-0.57429475,-1.9318832,-0.97409517,-0.064437732,-0.21676356,0
-0.53254443,1.3716567,9.067338,-0.057973806,0.14932117,0.98708773,0
-7.6993284,4.2777457,-1.7771828,-0.85687238,0.47607818,-0.19778594,0
-4.2898297,-7.4065018,-3.4141195,-0.46552986,-0.80374932,-0.37049827,0
-7.8126869,-1.6305258,4.1516771,-0.86843497,-0.18124437,0.46148804,0
-3.9967291,4.2623768,6.7267909,-0.44855732,0.47837126,0.75495517,0
-3.4718969,-2.486562,-8.0412054,-0.38132447,-0.27310342,-0.88317955,0
8.6262989,1.4576985,2.8092215,0.9388085,0.15864274,0.30573031,0
6.5932293,-6.4479179,0.17856732,0.71480739,-0.69905341,0.019359441,0
-4.2104692,-2.3526645,7.6052895,-0.46753129,-0.2612403,0.84449273,0
-4.826736,6.8015141,-3.6737201,-0.52963024,0.74631959,-0.40311161,0
4.0260515,7.9978848,0.36948738,0.44925171,0.89245343,0.041229684,0
-1.7003208,-8.7995882,0.74100959,-0.18907289,-0.97849983,0.082399055,0
4.4053521,6.4704275,4.6325588,0.48432648,0.71136183,0.50930566,0
-2.3524828,4.2476945,-7.4611077,-0.26426518,0.47716302,-0.83814049,0
-7.8548026,-1.9227459,-4.3220649,-0.8566463,-0.20969504,-0.47136521,0
-1.5602803,-8.6510172,2.8876741,-0.16862898,-0.93496799,0.31208849,0
4.5769725,-4.1582513,6.5514541,0.50804693,-0.46156862,0.72721571,0
-0.17714402,-8.7949076,1.505226,-0.019849082,-0.98547411,0.16866139,0
2.9329851,-5.7550001,-6.1336479,0.32927033,-0.6460827,-0.68859142,0
-1.6771082,4.4907813,-7.628099,-0.18615276,0.49845996,-0.84669054,0
2.1569901,0.064359479,8.809165,0.23782566,0.0070961551,0.97128195,0
-3.4432976,2.9993551,7.7790227,-0.38172805,0.33251208,0.86239171,0
8.4640779,-3.3470972,-0.29861048,0.92942941,-0.36754039,-0.032790028,0
-5.9181561,-3.053108,-6.0615616,-0.65721369,-0.33904892,-0.67313892,0
0.81355196,-6.7386031,5.6479073,0.09213464,-0.7631458,0.63962466,0
-4.3392282,-0.51391673,-7.7268763,-0.48882782,-0.057894353,-0.87045717,0
8.5250196,-2.943501,0.24240729,0.94490051,-0.32625327,0.026868064,0
-4.7120023,-2.5871639,-7.1394715,-0.5272516,-0.28949186,-0.79887432,0
0.52932096,8.7656641,-1.8389834,0.058996208,0.97698933,-0.20496647,0
-7.8628354,-2.0623171,4.3534665,-0.8526938,-0.22365023,0.47211644,0
1.9082779,-4.482275,7.7894888,0.20770581,-0.48787159,0.84784406,0
6.9151239,5.628264,-1.4765247,0.76515889,0.62276775,-0.16337755,0
-1.2988709,-8.434741,2.8796008,-0.14420864,-0.93647677,0.31971097,0
3.7704623,2.96334,-7.8333025,0.41051632,0.32263935,-0.85286587,0
4.5620174,-2.0745213,-7.7097878,0.49611631,-0.22560279,-0.83843422,0
0.024049154,-7.5681028,-4.8902044,0.0026689856,-0.83991134,-0.54271704,0
-8.630724,0.17563562,2.8406072,-0.94969767,0.019326391,0.31257147,0
6.5514164,-3.9211886,5.0060782,0.71756727,-0.42948216,0.54830855,0
0.17040272,5.6694865,-6.7706838,0.019292543,0.64188421,-0.76655883,0
-6.6892796,-3.3569002,-4.7666473,-0.75386262,-0.378313,-0.53718746,0
-5.8826303,-3.9196653,-5.8068004,-0.64304274,-0.42846689,-0.63475358,0
3.0301538,-3.423032,-7.6312041,0.34062964,-0.38479438,-0.85784894,0
-5.6539054,-1.6941869,6.9091144,-0.62220013,-0.18644163,0.76033318,0
-1.3048888,-3.8754847,8.2251492,-0.14205813,-0.42190883,0.89543974,0
8.0124493,-3.2823348,2.8755274,0.87820268,-0.35975954,0.31517151,0
-5.7089329,-7.0514522,0.0080865705,-0.6292389,-0.77721149,0.0008913023,0
0.43775165,-9.1797962,0.22351305,0.047618214,-0.99856961,0.024313541,0
-7.1497717,-5.0102663,-2.0103719,-0.79805505,-0.55924416,-0.22439702,0
-5.47402,6.5108824,-2.7636728,-0.61203557,0.7279644,-0.30899888,0
-1.1041651,-7.8012371,4.5055757,-0.12165404,-0.85952008,0.49641263,0
-5.6322126,6.7924562,0.63879889,-0.63663244,0.76777959,0.072206095,0
-6.8270588,6.0951915,-0.45913494,-0.74502224,0.66515511,-0.050104409,0
-2.6890922,3.3529768,-7.8916235,-0.29924762,0.37312603,-0.87819582,0
6.6895022,5.8192034,1.3811845,0.74548912,0.64850157,0.15392146,0
0.78848302,-6.7930536,-5.9121132,0.087222233,-0.7514497,-0.65399981,0
6.5334706,-5.1031737,3.7959087,0.71654809,-0.55968255,0.41631031,0
-6.7358403,5.9185696,-1.1585469,-0.74501646,0.65462238,-0.12814088,0
0.30046698,-3.0442879,-8.5681124,0.033026222,-0.3346169,-0.94177532,0
-5.9209919,5.9781718,-3.51946,-0.64919686,0.65546626,-0.38588509,0
-4.4270601,-6.8192768,4.0983834,-0.48623139,-0.74897254,0.45013228,0
3.1556537,8.4048967,-0.37475878,0.35119039,0.93537474,-0.041706629,0
1.4366053,-4.535327,7.6531773,0.15942204,-0.50329137,0.84928346,0
-3.5438094,7.1509404,-4.2163539,-0.39261395,0.79224318,-0.46712425,0
-5.3216348,7.3305054,-1.440997,-0.58018029,0.79919326,-0.15710174,0
4.5174217,-3.7135506,-6.8026314,0.5035755,-0.41396472,-0.75831723,0
7.469275,-2.8559144,-4.2242966,0.82589662,-0.31578568,-0.46709117,0
-2.4967897,8.1366549,-3.3735282,-0.27271476,0.88873559,-0.36847755,0
8.4705362,-3.2173858,0.46833885,0.93358922,-0.35460764,0.051618468,0
-7.7959237,-3.9942763,-2.3083999,-0.86060417,-0.44093439,-0.25482789,0
-8.4745264,-0.97119147,2.4510796,-0.95485818,-0.10942795,0.27617276,0
0.95240337,6.815599,-6.0236301,0.1041369,0.74522555,-0.65863073,0
4.2658787,-7.3490953,2.9613595,0.47405508,-0.81668425,0.32908756,0
7.333148,-5.0684066,2.5080197,0.79188722,-0.54732382,0.27083442,0
6.0463071,-6.5657458,1.10909,0.67223972,-0.72999191,0.12331069,0
-4.9216323,6.1203351,4.4558835,-0.54504806,0.67779887,0.49346855,0
-3.4299431,-8.004035,-2.2694449,-0.38115308,-0.88944995,-0.2521925,0
-7.0825176,5.8638711,0.50119102,-0.76912034,0.63678235,0.054426435,0
8.5243835,3.1015239,-0.28370768,0.93927222,0.34174615,-0.031260766,0
-3.2201569,0.83488858,-8.5055628,-0.35258615,0.091414846,-0.93130356,0
-4.5208654,-7.6401982,0.8567518,-0.50689203,-0.85664034,0.096061401,0
8.4865065,-1.3644619,2.8685265,0.93654418,-0.15057772,0.31656158,0
4.0511999,-7.9954476,-0.75316614,0.4503929,-0.88889539,-0.083733387,0
-6.1512165,5.8778529,-3.4638515,-0.66962039,0.63986206,-0.37707427,0
6.8751955,0.7207312,5.9491739,0.7538318,0.07902468,0.65229803,0
-1.8028511,-8.3267202,-3.0708299,-0.19907396,-0.91945094,-0.33908638,0
-3.6584241,2.2753186,7.9245296,-0.40559298,0.25225431,0.87855685,0
-6.494853,5.9349532,0.80477965,-0.73514068,0.67176664,0.091091558,0
8.7388687,-1.6878616,0.56689709,0.97986823,-0.18925583,0.0635648,0
-8.743474,1.4409072,-1.1979256,-0.97779721,0.16113904,-0.133966,0
-5.7396755,-1.4977422,6.6304383,-0.64515245,-0.16834959,0.74527621,0
7.6173329,2.6970768,-3.9613903,0.84641945,0.2996926,-0.44018003,0
0.59990597,-5.5212646,-6.9596195,0.067375161,-0.62009066,-0.78163165,0
0.62016791,7.1045122,-5.7298231,0.067791246,0.77660209,-0.6263333,0
3.9131963,8.1024065,0.57980788,0.43400124,0.89861435,0.064304806,0
-2.0722015,6.2399173,6.2751312,-0.22799289,0.68654364,0.69041806,0
-8.7173939,1.8302205,-1.3339417,-0.96787035,0.20320478,-0.14810419,0
-2.4494984,8.2960367,2.1040056,-0.27515313,0.93189716,0.23634379,0
-6.1613407,-5.1793776,-3.9830246,-0.68606645,-0.57672465,-0.44351053,0
0.53987861,9.0393829,-1.0557308,0.059217837,0.99150568,-0.11580028,0
-0.88061613,8.5340796,-2.6170826,-0.098177008,0.95143658,-0.29176995,0
2.7550442,8.2137747,2.8500295,0.3020798,0.90060812,0.31249455,0
2.3645363,6.9800715,-5.2511053,0.26130021,0.77135378,-0.58028919,0
2.9174101,8.5098076,0.94405854,0.32252949,0.94078785,0.10436885,0
8.118453,-1.715041,3.9081891,0.8851397,-0.1869877,0.42610252,0
-3.811743,3.9320025,-7.1165452,-0.42448387,0.43787622,-0.79251373,0
3.2906346,-3.4228787,-7.7586441,0.36175907,-0.37629747,-0.85295397,0
-3.0750103,1.3550009,8.3353329,-0.34215501,0.15077034,0.92746878,0
-5.9885068,5.6829562,3.6772027,-0.66261399,0.62880552,0.4068737,0
-2.7682807,-6.732409,-5.326004,-0.30691487,-0.74641144,-0.59048557,0
-6.1753774,-4.983779,-3.9747939,-0.69578755,-0.56152868,-0.44784504,0
-8.4087696,-0.85069966,2.8698668,-0.94209039,-0.095309541,0.32153028,0
6.2923436,6.4696097,0.19003086,0.69706315,0.71670061,0.021051537,0
0.4151786,3.1175036,-8.4199133,0.046191972,0.34684747,-0.93678337,0
7.4413285,1.8065553,4.9716406,0.81505454,0.19787341,0.54454768,0
2.6220322,-6.5996499,-5.3964314,0.29397658,-0.73993844,-0.6050362,0
-5.7235875,-2.188308,-6.2416906,-0.65436214,-0.25018328,-0.71359545,0
0.45707425,-8.7448902,2.0277367,0.050850812,-0.97289395,0.22559148,0
4.9035602,3.4389832,6.9692278,0.53362131,0.37424129,0.75841391,0
-1.8349886,-8.6362143,-0.3367053,-0.20768535,-0.97745305,-0.03810855,0
-1.1295998,7.2974658,-5.2962623,-0.12430505,0.80303824,-0.58281893,0
-0.27400342,4.6116114,-7.700563,-0.030512573,0.51354152,-0.85752213,0
3.4362562,6.3897858,-5.0332322,0.38915262,0.72363693,-0.57000858,0
5.8132534,-5.849813,-3.8872657,0.63760728,-0.64161724,-0.42636177,0
-5.2097945,-7.1242876,-2.0856776,-0.57445931,-0.78556138,-0.22997777,0
-7.1136246,-2.5841837,-4.9218535,-0.78794402,-0.28623834,-0.54517144,0
-8.7293777,1.2660944,1.4213015,-0.9770425,0.14170863,0.1590803,0
-5.9415216,1.534513,6.6580834,-0.65618539,0.16947258,0.73532289,0
-5.1085887,-7.4744596,1.4387895,-0.55727553,-0.81535894,0.1569518,0
-2.1794837,8.6568241,1.5439736,-0.24057429,0.95555168,0.17042585,0
-7.4365816,4.3709993,-2.3360615,-0.8321346,0.48910373,-0.26139936,0
-2.3107097,8.5529919,0.72823679,-0.25993669,0.96214443,0.081920922,0
-4.6167431,7.5521469,-2.026469,-0.50842285,0.83168674,-0.22316666,0
1.5012498,3.6813617,-8.0033884,0.16799147,0.41194835,-0.8955878,0
-1.4648933,-5.6573339,6.9685135,-0.1610731,-0.62205505,0.76622647,0
1.9425787,1.0279808,8.7203074,0.21600999,0.11430895,0.96967679,0
-6.5220757,5.2898374,-3.9174151,-0.70384204,0.57086277,-0.42275524,0
-5.7634592,-5.4462905,4.5569282,-0.6301775,-0.5954982,0.49825522,0
-2.1087508,-8.9214153,-0.81395286,-0.22912949,-0.96936977,-0.088441275,0
1.5106744,7.1722708,5.2295241,0.16777864,0.79656732,0.58080184,0
6.6516056,5.9040456,-1.1552489,0.74165285,0.65830004,-0.12881005,0
3.3069367,6.8878326,-4.4286189,0.37445912,0.77993983,-0.50147218,0
-9.012413,-0.81459552,0.59264874,-0.99381095,-0.089826547,0.065352179,0
-7.8052893,-0.5509159,4.666944,-0.85670871,-0.06046854,0.51224387,0
-5.9325428,6.5798841,2.295671,-0.64822006,0.71895188,0.25083679,0
-5.3906159,5.5159669,-4.7393665,-0.5954892,0.60933644,-0.52354717,0
-6.0521111,-5.3911715,4.0819092,-0.66690284,-0.59407163,0.44979954,0
7.7240505,1.8979362,-4.5887299,0.84116447,0.20668903,-0.49972183,0
-7.4750562,-4.9503078,1.2037438,-0.82633382,-0.54723424,0.13306846,0
-4.364789,-3.0013559,7.3092389,-0.48353261,-0.33249107,0.80971962,0
-8.6416178,-2.0484059,0.87413895,-0.96835786,-0.22953919,0.097953804,0
3.3675127,-7.0582724,4.3746281,0.37580308,-0.78767943,0.48819375,0
-6.5033612,6.0147395,-0.018778171,-0.73414671,0.67898756,-0.0021198166,0
-7.3409948,-1.0175046,5.0060759,-0.82081836,-0.11377019,0.55974418,0
-4.7231374,-4.9948468,6.1089201,-0.51358044,-0.54312533,0.66426647,0
6.6396365,2.5179951,-5.4215736,0.74317729,0.28184023,-0.606839,0
-1.8761836,-4.6733232,7.5439529,-0.206848,-0.51523077,0.83171576,0
8.1020403,0.61536312,-3.6506383,0.90954453,0.069081381,-0.40982494,0
-4.0802312,1.2025503,8.0767956,-0.44697845,0.13173617,0.88479143,0
8.481966,1.7241843,-1.8520088,0.95826745,0.19479324,-0.20923449,0
2.7936659,-8.4464092,-1.2227356,0.31109655,-0.94057375,-0.13616118,0
-2.0777326,5.361588,6.7400312,-0.23451899,0.60517615,0.76076454,0
9.170104,0.87592345,-0.22389646,0.99517512,0.095058598,-0.024298109,0
0.14843734,4.5070186,7.6864262,0.016656665,0.50574809,0.8625204,0
4.9748015,-7.0264144,3.0925176,0.54382306,-0.76809621,0.3380602,0
7.3068142,4.2161388,-3.0201981,0.81546551,0.47053555,-0.33706445,0
-1.224982,-8.277812,-3.4029541,-0.13560542,-0.91635323,-0.37670678,0
-3.8230629,4.5334382,6.8573208,-0.42169657,0.50005335,0.75638533,0
-4.0189729,0.56422156,8.000391,-0.44800192,0.062894762,0.89181751,0
4.5198069,-3.5281181,-6.9092679,0.50340086,-0.39294991,-0.76953095,0
3.0511224,-4.6297708,7.0657163,0.33970952,-0.51547498,0.78669119,0
4.9233465,-4.2974968,-6.5104308,0.53371835,-0.46587273,-0.70576721,0
-5.0571074,6.3023396,3.7861187,-0.56671911,0.70626467,0.4242872,0
3.9443593,-1.1444525,7.9794111,0.43951532,-0.12752499,0.88913643,0
6.2927508,-2.3200715,-6.1102333,0.69358122,-0.25571615,-0.67346436,0
-7.721529,-3.0695369,-3.7022953,-0.84882182,-0.33743185,-0.4069905,0
-6.8024836,-5.0822582,2.619715,-0.76550376,-0.57192165,0.29480433,0
8.1850824,-2.9406242,2.9538476,0.89111549,-0.32014775,0.32158741,0
-3.6030519,-7.4145093,3.6522431,-0.39961007,-0.82233411,0.4050658,0
7.4726896,-1.3700346,4.7282772,0.83508235,-0.15310307,0.52839088,0
-5.1311479,2.0140383,7.2427402,-0.56375241,0.22127973,0.79575026,0
4.0919871,7.5242958,-3.1514604,0.4483684,0.82445431,-0.34531271,0
2.4453135,2.7986472,8.2735424,0.26960689,0.30856353,0.9121955,0
-1.9156722,6.5790119,5.9268465,-0.21144657,0.72617304,0.65418887,0
0.44959515,-8.0698042,-3.6972153,0.050585557,-0.9079625,-0.41598693,0
8.5999947,3.084585,0.72286415,0.93835253,0.33656162,0.078872308,0
3.4788015,3.0731876,7.7219014,0.38611829,0.34109849,0.85706741,0
-2.0534623,-7.7658072,3.8970628,-0.22999907,-0.86981308,0.43649247,0
-4.6832442,6.8917994,-3.798768,-0.51140922,0.75258297,-0.41482463,0
0.93833512,3.0847278,8.2302456,0.1061551,0.34897932,0.93109858,0
-1.1601406,8.7972612,-1.5685079,-0.1287473,0.97628129,-0.1740661,0
8.6336594,0.19978599,-3.0905089,0.94127446,0.021781432,-0.33693907,0
2.8292086,8.0539055,-2.5899811,0.3171531,0.90283942,-0.2903358,0
3.3084114,6.2946153,-5.7756395,0.36113685,0.68710244,-0.63045251,0
-8.0371876,0.52728361,-3.9102318,-0.89766347,0.058891647,-0.43672892,0
-1.350871,8.5654402,-2.6815054,-0.1488324,0.94369853,-0.29543522,0
7.968749,4.0489898,-0.30669707,0.89099258,0.45272097,-0.034292061,0
0.860771,-7.7812443,4.6239371,0.094670579,-0.8558082,0.50855666,0
8.4696655,2.4909956,-2.1783147,0.9314338,0.27394205,-0.23955561,0
3.3844295,1.5804224,8.3024673,0.37175137,0.17359623,0.91195685,0
-8.3001709,3.6346307,-0.2760078,-0.91559863,0.40093908,-0.030446645,0
-2.12591,-8.7149553,1.5509593,-0.23352426,-0.95730931,0.17036781,0
-0.46500427,-0.17801142,-9.2177753,-0.050373036,-0.019283641,-0.99854428,0
0.91895115,-1.6305698,8.7232666,0.10300058,-0.18276231,0.97774678,0
8.1064053,-3.9904912,0.55568999,0.89549428,-0.44081956,0.06138568,0
-5.3016901,1.2138882,-7.086051,-0.59351325,0.13589227,-0.7932688,0
2.5782242,2.6144984,-8.1320639,0.28895345,0.29301885,-0.91139781,0
5.664875,-6.0365958,3.8940017,0.61921537,-0.65984738,0.42564499,0
8.6366053,2.6478829,-0.58959204,0.95404524,0.29249918,-0.065129466,0
7.7296042,4.3994637,-2.0657885,0.84655184,0.48183241,-0.22624664,0
0.1217886,7.8178782,4.8545599,0.013233138,0.8494643,0.52748013,0
-2.5881417,2.6393001,-8.3013449,-0.28481266,0.29044238,-0.91352344,0
7.5164094,3.6683741,-3.1227095,0.84191543,0.41089576,-0.3497757,0
-3.2680523,-4.8999662,6.5023875,-0.37249959,-0.55850857,0.74115598,0
3.4917586,0.83208531,8.136508,0.39263612,0.093565106,0.91492206,0
-7.3787408,0.62704235,-5.1654868,-0.81723481,0.069448277,-0.57210517,0
-4.3661571,-2.993871,-7.6128788,-0.47086272,-0.32287025,-0.82100129,0
-0.17866844,8.7254086,2.6404457,-0.019595286,0.95695066,0.2895883,0
-0.89388037,8.6667442,-1.9905381,-0.10001783,0.96973711,-0.22272478,0
7.8502345,-0.75345248,3.9063392,0.89199513,-0.085612215,0.44386387,0
2.9119539,-4.0959558,7.7118778,0.31634971,-0.44497767,0.83780527,0
-0.99303043,2.0928166,8.8153048,-0.10894965,0.22961193,0.96716511,0
-1.9968735,-8.5625992,-1.3963888,-0.22430338,-0.96181351,-0.15685256,0
4.3562393,2.9576993,7.2664843,0.48544726,0.32959783,0.80975688,0
-8.4613647,3.6921005,-0.42587546,-0.91557091,0.39950764,-0.046082303,0
-5.9409409,6.732275,0.43959343,-0.66087383,0.74890226,0.048900634,0
8.2840528,3.2849417,2.3069997,0.89991635,0.35685104,0.25061485,0
-8.7051468,0.28915563,-2.0810204,-0.97208804,0.03228949,-0.23238379,0
-8.3639374,0.61132681,-3.1838243,-0.93240553,0.06815026,-0.35493037,0
6.8367252,2.4670198,-5.1904197,0.76548249,0.27622294,-0.58115184,0
3.0964277,-6.865274,5.1617932,0.33913437,-0.75191492,0.56534225,0
-2.235213,-7.157927,-4.7465339,-0.2518613,-0.80654716,-0.53483409,0
-6.7646794,-5.7493219,1.6904136,-0.74852747,-0.63617581,0.18704818,0
4.749815,4.7694945,5.8708615,0.53179103,0.53399438,0.65730381,0
-5.9613237,6.1450686,3.2839525,-0.6501103,0.67014855,0.35813043,0
-2.9394333,-0.0263888,8.3887758,-0.33068588,-0.0029687367,0.9437362,0
-3.3506761,6.5743823,5.3123212,-0.36851716,0.72306979,0.58426464,0
-2.0578933,7.3419657,-4.5483627,-0.23178504,0.82694173,-0.51229209,0
-1.5436805,-6.1173306,-6.3954477,-0.17183173,-0.68093848,-0.71189654,0
7.5302134,-4.9992642,-0.60063165,0.83128148,-0.55188286,-0.066305421,0
6.9309106,-1.6588421,-5.5686312,0.76633114,-0.18341348,-0.61570776,0
-0.96197855,-8.9736176,1.6506391,-0.10485079,-0.9780789,0.1799113,0
8.4955273,-1.6903443,-1.8027171,0.96020079,-0.19104993,-0.20375079,0
6.9375753,3.7655141,4.3307776,0.77053416,0.41822353,0.48100552,0
6.4966278,-6.3596845,-0.16689536,0.71447784,-0.69941723,-0.018354604,0
5.8983202,1.5693808,6.9433985,0.63802391,0.1697606,0.75107044,0
1.9585803,1.3801557,8.4735975,0.22241847,0.15673195,0.9622708,0
7.419879,2.052587,-4.4281287,0.83545727,0.23111546,-0.4985947,0
6.6144094,-2.7796993,-5.8693566,0.71355516,-0.29987088,-0.63317966,0
-9.0227633,0.57218122,-0.24812636,-0.99761969,0.063264348,-0.027434582,0
-0.67792094,-1.94909,-8.753952,-0.075375646,-0.21671247,-0.9733212,0
2.900141,-8.3391762,-0.044463739,0.32847181,-0.94450039,-0.0050359913,0
-3.2465224,8.2445393,-0.42120272,-0.3659817,0.92940998,-0.047482342,0
-0.00062479975,2.899586,8.464345,-6.9831724e-05,0.32407674,0.94603074,0
1.9157912,-8.8639765,-0.40538758,0.21104364,-0.97645605,-0.044657513,0
0.84723437,-6.2871451,-6.7374668,0.091551743,-0.6793859,-0.72804743,0
-1.7527252,-8.7941027,1.9391838,-0.19104622,-0.95855302,0.21137013,0
8.6141596,-0.63723493,2.8534827,0.94694155,-0.070050277,0.31367904,0
-2.0320454,4.5076647,-7.5770717,-0.22459331,0.49821296,-0.83746141,0
-4.1536288,8.0865936,-1.2337072,-0.45274645,0.88144046,-0.13447435,0
-4.9210768,-6.4531693,-3.8909857,-0.54678577,-0.71701813,-0.43233132,0
8.9808846,-0.86275458,0.6838991,0.99256992,-0.095351882,0.075584725,0
-5.5449796,3.8094897,5.7236476,-0.62776828,0.43128684,0.64799595,0
-0.72889858,7.6872988,-4.5536556,-0.081309766,0.85753012,-0.50796735,0
0.044247422,3.6208398,-8.3607178,0.004856375,0.39740518,-0.91763037,0
5.2487402,5.344914,4.980298,0.58347887,0.59417009,0.55363739,0
-5.8748527,6.2423139,-2.3273969,-0.66140324,0.70277274,-0.26202321,0
0.65343368,-8.8682413,1.1881272,0.072835959,-0.98851174,0.13243636,0
7.9233508,2.7125926,3.6841123,0.86600292,0.29647976,0.40266448,0
3.3090439,4.2331653,7.1600828,0.36964771,0.47287974,0.79984075,0
3.0771341,0.86812186,8.3707972,0.34340653,0.096881941,0.9341765,0
3.2933605,8.2099533,-1.5766046,0.36652845,0.91371155,-0.17546529,0
-8.1948786,3.7267766,-0.77336389,-0.9069494,0.41245246,-0.085590273,0
-7.4583611,-5.2382455,-0.38561445,-0.81760287,-0.57422864,-0.042271953,0
1.3605862,6.9453673,5.4829531,0.15197375,0.77577859,0.61243087,0
2.3452606,-8.3268623,2.684114,0.25892544,-0.91931641,0.29633611,0
5.4863386,5.9549961,-4.2553663,0.59978777,0.65102327,-0.46521312,0
-2.2817161,1.56451,-8.5156507,-0.25483263,0.17473173,-0.95106733,0
7.5686812,3.8467064,-3.0381277,0.83934802,0.4265902,-0.33692083,0
-8.1969156,1.5034801,-2.8139963,-0.9318983,0.17092898,-0.31992012,0
-0.53714705,7.3506618,-5.1292953,-0.059819631,0.81860983,-0.57122636,0
1.4198416,7.0138378,5.4237962,0.15812424,0.78111374,0.60403472,0
-4.1247077,-7.9250946,-0.26049173,-0.46147892,-0.88667232,-0.029144233,0
-1.8117818,0.74226606,-8.8647108,-0.19957149,0.081762135,-0.97646612,0
1.0222064,5.9965944,-6.5541868,0.11431372,0.67060137,-0.73295712,0
2.7616968,6.8929992,5.4907179,0.29904121,0.74638563,0.59454423,0
-4.3834739,2.1234198,7.8398833,-0.47493091,0.23006357,0.84941828,0
4.8073668,0.071724273,-7.4975815,0.53974611,0.0080528278,-0.84178936,0
-7.7595835,-0.52515143,4.7887383,-0.84958357,-0.057497937,0.52431083,0
-3.1024454,-8.4099121,0.62248868,-0.34527227,-0.93594217,0.069276989,0
-0.48375702,6.5721364,-6.3025599,-0.05305155,0.72073793,-0.69117463,0
3.2884736,0.258894,8.5827131,0.35764554,0.028156616,0.93343282,0
-7.6865439,-0.57139683,-5.0813198,-0.83260065,-0.061893273,-0.55040473,0
-5.6287637,7.2705498,0.0041988203,-0.6121698,0.79072618,0.00045665284,0
-1.78201,-7.5699139,-4.3867188,-0.19958127,-0.84781402,-0.49130303,0
-5.8098788,-7.0974388,0.34231892,-0.63298541,-0.77326483,0.037295591,0
7.7005119,4.6826572,-0.44081381,0.85340548,0.5189532,-0.048852976,0
3.3711843,-0.026902471,-8.1996908,0.38025048,-0.0030344462,-0.9248786,0
-5.8788533,-0.72457504,6.7101469,-0.65681612,-0.0809533,0.74969262,0
-5.6234899,6.7072577,2.4182637,-0.61927998,0.73862863,0.26630834,0
-2.9872811,4.3586493,7.4065418,-0.32833502,0.47906345,0.81406033,0
4.6847825,-5.9517231,4.7034245,0.52544427,-0.66754407,0.52753514,0
-3.0225463,8.4608564,0.75031406,-0.33524951,0.93844652,0.083222024,0
3.5715048,8.0454788,-1.3687192,0.40091637,0.9031387,-0.15364446,0
-4.0426779,5.8841262,5.5973511,-0.4456341,0.64862132,0.61700946,0
-5.3862405,-5.1974068,5.2023001,-0.59090155,-0.57018542,0.57072222,0
-0.48238456,-8.7909098,-2.7302144,-0.052332155,-0.95369399,-0.29619107,0
-7.1697121,-3.5535865,-4.6935377,-0.77285117,-0.38305494,-0.50593472,0
5.1824393,-6.3454404,-4.0328388,0.56752825,-0.69488829,-0.44163564,0
-2.4199886,7.4545145,-4.186892,-0.27234551,0.83893102,-0.47119281,0
-1.0985115,-1.2418935,8.9611511,-0.12054009,-0.13627346,0.98331058,0
-3.7176509,-0.48038256,8.0127106,-0.42025408,-0.054303844,0.90578014,0
-3.5931959,-3.1166193,-7.6480865,-0.39895448,-0.34603995,-0.84917122,0
-1.6260893,8.6845503,2.7852364,-0.17552632,0.93744367,0.30064908,0
8.5862284,-1.2724601,2.6890855,0.94489092,-0.14003076,0.29592651,0
-6.3841424,6.3585229,0.73886436,-0.70615679,0.70332301,0.081726573,0
-2.4449034,0.83305687,8.8088923,-0.26633611,0.090749241,0.95959872,0
4.1321044,6.1803708,-5.0677795,0.45925412,0.68690437,-0.56324774,0
-8.67766,-1.9273134,-1.62797,-0.96024132,-0.21327016,-0.1801458,0
-4.2738895,-7.4056106,3.202703,-0.468088,-0.8110826,0.35076874,0
0.82476765,-3.1216266,8.2399321,0.093194813,-0.35272893,0.93107307,0
-4.5259995,-5.6858926,5.2943869,-0.50337201,-0.6323728,0.58883035,0
-5.7881761,-7.1835327,0.34651756,-0.62698215,-0.7781288,0.037535194,0
7.2982192,-1.4384251,5.0230126,0.81310594,-0.16025718,0.55962163,0
0.88526988,8.8088894,-1.068809,0.09927284,0.98781568,-0.11985465,0
-3.1871014,8.2147617,-1.3338077,-0.35762987,0.92179185,-0.14966874,0
5.7628336,-3.2761469,-6.4760957,0.62184477,-0.35351616,-0.6988101,0
3.1532078,-5.2938657,6.2747087,0.35855135,-0.60196561,0.71349728,0
5.7963176,2.8370039,6.1309814,0.6511696,0.31871453,0.68876636,0
5.7173996,-2.5047653,6.764092,0.6211797,-0.27213582,0.73489988,0
6.4779444,-1.1981466,6.3446989,0.70825964,-0.13099816,0.69369137,0
-8.1952095,-3.0382993,-2.4146538,-0.90377986,-0.33506817,-0.26629162,0
7.033834,-3.9057114,-3.9478679,0.78486252,-0.43581447,-0.44051844,0
2.4210505,3.7593355,-7.8656974,0.26758346,0.41549566,-0.86934596,0
-2.9030688,-7.1212077,-4.9938674,-0.31660357,-0.77662641,-0.54462236,0
2.4894946,8.5988874,-1.9145625,0.27194357,0.93931204,-0.20914003,0
3.1971874,-5.0651369,6.763536,0.35388464,-0.56064093,0.74863034,0
-3.7309546,-0.52535874,-8.193553,-0.41370776,-0.058254525,-0.908544,0
2.3583817,7.4730744,4.721664,0.2577768,0.81682497,0.5160892,0
-0.86867511,-8.3779087,3.2656009,-0.096159182,-0.92740405,0.36149016,0
0.77345628,5.0552745,7.7424388,0.083355784,0.54480958,0.83440661,0
-4.1800928,5.0924392,-6.2875762,-0.45899147,0.55917084,-0.69040185,0
-5.1656709,5.7063451,-4.7564564,-0.57090425,0.63065898,-0.52567834,0
-6.3894525,-5.8634229,-1.829868,-0.72091091,-0.66155988,-0.20646085,0
-8.1366158,-3.9830828,-0.59279531,-0.89624184,-0.43873343,-0.065295935,0
-3.7443833,-8.1625595,1.3449168,-0.41235155,-0.8989048,0.14810945,0
5.7824121,-5.8698559,3.6170278,0.64259183,-0.65230936,0.40195552,0
-6.1981945,3.6192739,-5.4586024,-0.68736106,0.40136656,-0.60534257,0
5.1301522,0.088987231,7.5875149,0.56008983,0.0097152749,0.82837498,0
3.8323495,7.7852149,-2.8565795,0.41950291,0.85219789,-0.31269157,0
-3.2014413,8.1972771,1.8146145,-0.35629371,0.91228855,0.20195146,0
-4.1727376,-5.0133386,-6.1914291,-0.46398392,-0.55745381,-0.68845057,0
-6.5594606,-5.1753454,3.3076494,-0.72995061,-0.57592332,0.3680822,0
-2.2655594,8.3834667,1.9005312,-0.25485134,0.9430508,0.21378954,0
-2.6868167,4.2408681,-7.461163,-0.29876968,0.4715777,-0.8296693,0
4.1367865,7.9098611,-1.5855576,0.45629528,0.87247247,-0.17488997,0
-2.653373,-4.6540504,7.5026979,-0.28781387,-0.50482923,0.81382471,0
3.4080589,-7.5127912,-3.5093498,0.38014874,-0.83800727,-0.39144716,0
6.243957,1.7554213,6.3290129,0.68900514,0.19370636,0.69839078,0
-4.3456526,-6.6299925,4.1078372,-0.48672399,-0.74257576,0.46008807,0
-7.9387889,-2.5872841,3.7255926,-0.8682707,-0.28297299,0.40747055,0
-4.7498832,-5.585566,5.4371629,-0.52035689,-0.61190718,0.59564942,0
-4.9632101,1.5786649,7.4884052,-0.54412186,0.17307067,0.82096159,0
7.8969607,4.4487734,-1.1500293,0.86432838,0.48692167,-0.12587158,0
-8.7795191,-2.4037313,-0.5562728,-0.96270758,-0.26357827,-0.060997423,0
7.0288205,3.8743708,4.4241772,0.76696008,0.42275766,0.48275059,0
-7.638185,3.396873,-3.3089149,-0.84958172,0.37782812,-0.3680447,0
4.2890019,-4.1691055,6.9790254,0.4666267,-0.45358244,0.75929075,0
-5.2021179,6.9942989,3.0793455,-0.56271309,0.75657332,0.33309281,0
6.7300987,0.82400924,-6.014605,0.74254209,0.090914205,-0.66360062,0
-0.36383688,9.0079308,-1.3857324,-0.039889347,0.98758674,-0.15192512,0
-7.5672827,-3.8737745,2.1586506,-0.86276603,-0.44165933,0.24611349,0
3.5203924,-6.4860859,-5.0395064,0.3939389,-0.72580588,-0.56393081,0
1.1198217,-3.7008903,-8.2461262,0.12295404,-0.4063499,-0.90540719,0
-4.4046612,-7.832304,0.67699659,-0.4887906,-0.86916029,0.075127132,0
-2.0011485,-8.5963745,-1.5579352,-0.22327599,-0.95913124,-0.17382495,0
6.8148189,4.8617978,3.5832012,0.74839264,0.53391492,0.39350149,0
-7.836513,-2.8869655,-3.3294928,-0.87163323,-0.32110903,-0.3703301,0
-8.1257019,-3.6196878,0.95651215,-0.90823084,-0.40458193,0.10691185,0
1.7436112,5.5630155,7.0184879,0.19110262,0.60971558,0.7692377,0
6.5107441,-0.15047145,-6.247509,0.72144228,-0.016673435,-0.69227374,0
-4.0464311,-1.2819662,-8.0265999,-0.44565043,-0.14118832,-0.8840031,0
-2.4760399,0.5741232,8.709034,-0.27292135,0.063282691,0.95995271,0
-7.7008553,-0.82971734,4.9418359,-0.8381725,-0.09030766,0.53787673,0
-2.7478611,-8.1418629,-3.0698159,-0.3011376,-0.89226526,-0.33642057,0
2.4850514,2.278209,8.4231014,0.27390349,0.25110522,0.92839807,0
-7.9680543,3.750293,-2.2676568,-0.87620914,0.41240191,-0.24936345,0
-3.2948332,7.5098963,4.1690793,-0.35814315,0.8163138,0.45317233,0
5.9544492,3.0358264,-6.0842366,0.65880686,0.33588719,-0.67316669,0
-4.5632219,-4.1808219,6.5025635,-0.50832665,-0.46572867,0.72436243,0
-1.0525275,-8.3647089,3.373275,-0.11591097,-0.92117453,0.37148634,0
1.124999,3.1328256,8.4305849,0.12411813,0.34563625,0.93012381,0
1.0519131,5.9009361,-6.7978654,0.11606637,0.65109962,-0.75006533,0
-6.7990484,-1.6741217,5.82514,-0.74646342,-0.18380082,0.63953859,0
-3.4486609,-4.0249858,7.3808603,-0.37952211,-0.44294617,0.81225723,0
6.1438556,3.586334,-5.5412846,0.68132883,0.39771,-0.61450613,0
-6.5941286,6.0597672,-2.4661038,-0.70988798,0.65236151,-0.26548728,0
-6.4237461,6.506331,0.5327034,-0.70138669,0.71040386,0.058164049,0
-6.4334083,5.6088428,-2.2096038,-0.72970307,0.63617754,-0.25062215,0
-2.698426,-6.8443375,4.876411,-0.30572116,-0.77543682,0.55247837,0
-2.5222492,-7.7956061,3.9486969,-0.27731189,-0.8570978,0.43414447,0
-5.0111222,2.7374814,-6.878468,-0.56054616,0.30621579,-0.76942825,0
-5.6289864,0.32003105,7.0520544,-0.6234473,0.035445545,0.78106147,0
6.1872902,5.0813866,-4.0699315,0.68889254,0.56576133,-0.45314595,0
2.4444838,4.187223,7.7046075,0.26852843,0.4599697,0.84635711,0
8.1296654,4.3856521,-0.11320383,0.88003695,0.47474718,-0.012254324,0
-9.0095415,1.0664946,-0.98247987,-0.98729432,0.11686987,-0.10766327,0
6.6019654,5.9824848,-0.035765674,0.74101144,0.6714803,-0.0040143766,0
-7.2826161,1.5288918,5.1911802,-0.80265427,0.16850697,0.57214648,0
7.039115,-1.5518099,5.3723993,0.78299475,-0.1726153,0.5975979,0
-3.6324778,-7.6781359,2.4583788,-0.41079104,-0.86830801,0.27801409,0
-3.4752707,6.8516226,-4.4122562,-0.39226612,0.77336687,-0.498027,0
-4.2394428,-6.0858555,-5.358953,-0.46330938,-0.66509539,-0.58565557,0
-5.8153591,-1.0216216,-6.765451,-0.64761806,-0.11377124,-0.75342351,0
0.67387557,4.4786434,-7.9499969,0.073650986,0.4894917,-0.86889201,0
0.29987261,-8.1819649,-3.7010169,0.033374436,-0.91061491,-0.41190609,0
-8.0068274,0.85854286,3.9356031,-0.89332008,0.095787451,0.43909442,0
-5.3758144,7.3695951,0.31426421,-0.58897668,0.8074162,0.034430932,0
-2.1035149,-3.2889969,8.3190031,-0.22890259,-0.35790566,0.9052664,0
7.4861965,3.9392552,-3.6731484,0.81173956,0.42713937,-0.398285,0
3.8499229,4.2357974,7.0485268,0.42400232,0.46649972,0.77627313,0
-6.1608739,-6.0135493,-2.6712749,-0.68346715,-0.66712344,-0.29634249,0
5.5479145,-3.9471986,-6.2681804,0.59946871,-0.42650661,-0.67729563,0
6.7276015,2.1842568,-5.9534206,0.72768122,0.23625696,-0.64394307,0
8.3063517,2.9412928,1.7788879,0.92400587,0.32719201,0.19788505,0
3.6026552,4.2320008,7.1380939,0.39823216,0.4677991,0.78903431,0
0.0037545946,-7.8989987,-4.3839879,0.00041560613,-0.87436134,-0.48527536,0
6.1314249,6.5607724,1.2343963,0.67643541,0.72380221,0.13618195,0
9.0175295,0.83609194,-1.001418,0.9896968,0.091763213,-0.10990817,0
6.8693733,-2.3639784,5.2659173,0.76559913,-0.26346797,0.58689225,0
8.6940632,2.8926203,0.81095636,0.94516522,0.31446794,0.088162199,0
-5.2240777,-5.529532,5.0116482,-0.57347459,-0.60700589,0.5501551,0
-8.2180614,-3.844835,0.37691683,-0.90499073,-0.42340156,0.041506898,0
-6.2198339,5.7610044,-3.3069799,-0.68349153,0.63307124,-0.36340082,0
1.8884858,-1.5398536,-8.7052488,0.20890675,-0.17034061,-0.96298593,0
4.0849237,5.5303431,-6.2695904,0.43901315,0.59435463,-0.67380267,0
8.6806564,1.3848118,-1.0700797,0.98027658,0.15638202,-0.12084041,0
8.250453,2.9041941,-2.0651019,0.91802716,0.32314941,-0.2297837,0
-2.8640127,-8.0261612,3.0493939,-0.31643048,-0.88677049,0.3369123,0
5.2917538,7.2574372,0.85383725,0.58651865,0.80438781,0.094636202,0
-4.0181022,-7.69385,2.33354,-0.44704708,-0.85600442,0.25962561,0
7.477643,4.1682696,-2.4717739,0.83918256,0.46778631,-0.27739617,0
-4.8571243,7.3859377,-1.2591785,-0.54396421,0.82717377,-0.14101925,0
6.3737144,-0.055081006,-6.2792373,0.71235329,-0.006156086,-0.70179409,0
-1.0675892,-8.7443342,0.87284225,-0.12059885,-0.98779249,0.098599508,0
8.3314009,-2.4229987,-2.4758222,0.923361,-0.26853856,-0.27439296,0
-4.6313109,-4.4251089,-6.3747873,-0.51247954,-0.4896622,-0.70540464,0
8.1706915,-3.134522,-1.5903014,0.91860926,-0.35240602,-0.17879339,0
-2.4979949,-5.5364966,-6.6263299,-0.27789652,-0.61592323,-0.73716486,0
-3.7912724,-6.0210018,5.4955754,-0.42170161,-0.6697135,0.61127055,0
2.5419476,4.524684,-7.3808889,0.28172341,0.50146961,-0.81802207,0
1.6152643,-6.9490142,5.6967764,0.17692444,-0.76114506,0.62398392,0
-0.18849838,-6.4450278,-6.2334943,-0.0210183,-0.71864557,-0.69505876,0
-5.0496116,7.0932617,2.8122165,-0.55187345,0.77522451,0.30734789,0
-3.093797,5.9315586,-6.2922626,-0.33686477,0.64585143,-0.6851263,0
-5.5343924,6.3735485,-3.7882648,-0.59817261,0.68887097,-0.40944627,0
-1.0941896,8.491292,3.3994515,-0.11878249,0.92179346,0.36903596,0
7.090251,3.8513927,4.6010303,0.76334471,0.41464546,0.49535233,0
6.5222569,5.3796759,3.3511326,0.717161,0.5915274,0.36847702,0
3.2947569,7.9451499,-3.342454,0.35704574,0.86099881,-0.36221457,0
-2.785924,6.0518622,6.1595225,-0.30704385,0.66699135,0.67885685,0
4.2502828,6.1246676,-5.2716331,0.46550232,0.67078996,-0.57736337,0
3.8770087,-2.3407745,-7.7177825,0.43326083,-0.26158464,-0.86247236,0
8.5533724,-1.4364941,2.6115525,0.94430923,-0.15859179,0.28832054,0
-3.3521733,8.4386425,0.3486999,-0.36890715,0.9286738,0.038374472,0
7.9357071,-2.5664134,3.1085405,0.89156836,-0.28833386,0.34924126,0
-1.5642939,8.5025711,2.8499722,-0.17184536,0.93404919,0.31308344,0
2.5101786,5.0256972,7.2545209,0.27357906,0.54774016,0.79065496,0
-2.682584,4.0240331,7.6694722,-0.29586342,0.44381243,0.84586954,0
2.432291,3.4800425,-7.9941449,0.26871127,0.38446328,-0.88316602,0
-8.4847202,-1.5641305,2.1332605,-0.95467937,-0.17599204,0.24002911,0
-8.6297503,-0.37486127,2.0639112,-0.97170508,-0.042209171,0.23239525,0
0.057974547,-8.8262987,-1.3938701,0.0064878459,-0.98773801,-0.15598594,0
-0.77755558,-8.4750319,3.1715579,-0.085611477,-0.93312943,0.34919915,0
1.208023,7.2762218,5.1591911,0.13420822,0.8083694,0.57317275,0
