-7.7916608,3.4485445,-4.6020088,-0.80458659,0.35610542,-0.47521505,0
4.0619211,-6.5337515,-5.9628539,0.41730532,-0.67125118,-0.61259943,0
3.9691806,-0.94232863,-8.7998819,0.40921497,-0.097152285,-0.90725106,0
-6.736567,5.893548,-3.3333886,-0.70530599,0.6170435,-0.34899956,0
-6.0889578,4.939971,5.6465616,-0.63016897,0.51125604,0.58438373,0
2.9986856,8.8630486,-2.8291905,0.30677181,0.90670842,-0.28943211,0
-8.6540146,3.1406794,-2.6822884,-0.90248621,0.32752657,-0.27972314,0
1.9100837,-7.9632006,5.0200944,0.19885667,-0.82903987,0.52263641,0
-1.020016,5.6175575,7.9138227,-0.10452718,0.575665,0.8109771,0
-0.35924587,4.6804299,-8.3611507,-0.037465308,0.48811626,-0.87197411,0
5.1839981,-8.2470694,0.45782873,0.53159398,-0.84569716,0.046948127,0
-3.2678626,-0.80360913,8.9835825,-0.34064367,-0.083768629,0.93645328,0
-2.3593223,-9.1384668,2.472111,-0.24182053,-0.93665409,0.25338089,0
-3.7547424,7.5181208,5.0459881,-0.38305277,0.76698655,0.51478356,0
4.9629712,-7.0685096,4.270031,0.51511246,-0.73364872,0.44319141,0
6.2489791,3.6447256,-5.9784126,0.66585904,0.38836318,-0.63702887,0
9.1126175,3.4679141,-1.0068796,0.92966521,0.35379508,-0.10272141,0
-4.7833586,-8.4251823,0.3018021,-0.49348313,-0.86919791,0.031135913,0
7.9537878,5.3500943,0.45355558,0.82882559,0.55750734,0.047262825,0
-0.78404963,-9.5518379,0.47374117,-0.081708744,-0.99543273,0.049370337,0
-6.332015,-4.9238567,5.4061341,-0.65461367,-0.50903606,0.55889463,0
-6.0425653,4.0437307,6.486547,-0.6201511,0.41500986,0.66571718,0
-1.4437041,-8.4398642,4.6240864,-0.14835711,-0.86729252,0.47517774,0
-8.9398031,2.6140738,1.4617963,-0.94820178,0.27726218,0.15504567,0
-7.4271312,0.085184887,-5.8057837,-0.78782046,0.0090358434,-0.61583877,0
-0.53653562,-5.0901237,-8.4081221,-0.054506801,-0.51710707,-0.85418344,0
7.5927725,-1.6258103,-5.9199829,0.77761322,-0.16650723,-0.60629457,0
-2.7633343,-4.8548369,-7.61201,-0.29266936,-0.51418394,-0.80620074,0
8.6294956,4.2120128,0.40970498,0.8978489,0.43823546,0.042627424,0
6.6385546,-6.281271,-2.3024471,0.70437413,-0.6664651,-0.24429779,0
-3.4585321,3.5211141,8.0742998,-0.36546797,0.37208107,0.85322261,0
8.1538944,-0.72650236,5.2766304,0.83720386,-0.074593872,0.54177982,0
0.29760244,-6.8341331,-6.5561433,0.031408995,-0.72127521,-0.69193614,0
-0.64282691,9.1174107,-3.229563,-0.066312946,0.9405368,-0.33315632,0
-6.0755239,-4.3768239,-5.8425946,-0.63969016,-0.4608345,-0.61516511,0
8.5272703,3.5153368,-3.1685648,0.87436545,0.36045402,-0.32489687,0
0.64689291,-3.119909,-9.191083,0.06650003,-0.32072398,-0.94483542,0
-3.9213963,-7.3319154,5.1568933,-0.40079427,-0.74937332,0.52707076,0
7.5270329,-2.9385631,-4.8867326,0.79709613,-0.31118736,-0.5174942,0
4.9676905,-7.3971095,-4.0639806,0.50724769,-0.75531411,-0.41497046,0
7.1042624,6.0814381,2.0983715,0.74124444,0.634525,0.21893986,0
4.9792762,5.7203674,-6.0494232,0.51326931,0.58966184,-0.62358129,0
5.2074614,-1.400345,7.8669581,0.54598737,-0.14682214,0.82482797,0
-8.3525734,0.72141784,-4.5539904,-0.87546855,0.075614855,-0.477323,0
0.152643,9.5170755,-2.1503437,0.015642574,0.9752925,-0.22036329,0
2.7234166,-3.1840224,8.9771624,0.2749041,-0.32139805,0.9061628,0
8.5304098,-2.6188431,3.443675,0.89185578,-0.27380049,0.36003682,0
-5.0149212,3.3483567,7.6549478,-0.51463073,0.34360802,0.78555,0
0.27026632,8.6828032,-3.9912014,0.028270504,0.90824199,-0.4174892,0
-1.0359528,4.2935333,8.4839916,-0.10830869,0.44888815,0.88699985,0
-8.9231615,-2.9811282,2.1962833,-0.92363364,-0.30857566,0.2273366,0
8.4938173,2.0868781,3.7311695,0.89323711,0.21946281,0.39238179,0
-5.0386267,3.2193749,7.3808212,-0.5304445,0.33892164,0.77702045,0
-3.6729007,-8.6498241,-2.2772927,-0.37985104,-0.89456403,-0.2355174,0
-1.4262705,-8.9264107,3.1384053,-0.14905207,-0.93285251,0.32797834,0
-1.7130848,-1.7240653,9.2788162,-0.17859805,-0.17974281,0.96736509,0
-8.2709751,-0.49584416,5.2455544,-0.84340328,-0.050561942,0.53489673,0
-9.5014601,-1.9510747,0.36160141,-0.97888094,-0.20100804,0.037253719,0
3.2589402,-8.7705412,1.7792327,0.34217775,-0.92087734,0.18681346,0
-1.1127542,4.8227448,-8.2744226,-0.1154101,0.50019443,-0.85818762,0
4.8855505,-8.3316593,0.51432574,0.50511742,-0.86141086,0.053176176,0
-6.8075004,-6.5632777,-1.7593019,-0.70775735,-0.68236619,-0.18290985,0
5.873055,2.9313486,-7.129005,0.60605508,0.30249313,-0.73565966,0
-5.9880929,5.4476123,5.5870061,-0.60878885,0.55384004,0.56801176,0
-3.2241604,-8.7509413,-2.3336606,-0.33537701,-0.91027248,-0.24274726,0
-6.327599,-6.8829298,2.3489592,-0.65638554,-0.71399212,0.24366635,0
6.8349934,6.1594343,2.7809875,0.71109301,0.64080983,0.28932592,0
-1.862059,-9.344821,2.4859657,-0.18908979,-0.94895506,0.25244674,0
-6.6356568,-5.8828979,3.5182295,-0.69553566,-0.61663306,0.36877346,0
-7.2723088,6.3040485,-0.61566556,-0.75407672,0.65367633,-0.063839294,0
-7.7160568,-5.27315,-2.8991301,-0.78854996,-0.53889471,-0.29627943,0
5.5094686,7.2610345,-3.0664544,0.57290918,0.75504804,-0.3188692,0
7.0503263,6.3699579,1.8247845,0.72868603,0.65836656,0.18860048,0
2.6243188,5.0997233,-7.5202374,0.27747944,0.5392136,-0.79514396,0
-6.148788,-3.9647648,6.2480783,-0.63909447,-0.41209087,0.64941454,0
-3.8186891,-8.4223995,2.7537405,-0.39576203,-0.87288225,0.2853927,0
-4.8167396,-2.2487216,-8.0077801,-0.50113976,-0.23395988,-0.83313972,0
-6.6105237,6.8697906,-0.64687598,-0.6917882,0.71892035,-0.067695267,0
-1.9646442,7.3932948,6.0062447,-0.20199862,0.76015568,0.61754346,0
6.4475231,-1.3915588,6.8323421,0.67892027,-0.1465303,0.71944147,0
3.6428323,-3.3611474,8.3962955,0.37361827,-0.34472793,0.86114573,0
8.3388424,-2.915086,-4.2209096,0.85174483,-0.29775229,-0.43113151,0
-5.8300638,-7.0124879,2.959687,-0.60807616,-0.73140305,0.30869561,0
9.2978306,2.0700147,-0.37783706,0.97533482,0.21714285,-0.039634798,0
-4.1898732,-6.8971925,5.1908197,-0.43665624,-0.71880507,0.54097193,0
6.081738,-2.9584575,6.796278,0.63430846,-0.30855891,0.70883298,0
-6.5376339,-6.2536335,3.152658,-0.6823827,-0.65273947,0.32906696,0
2.8397434,1.5897846,-8.8600063,0.30085796,0.16843049,-0.93867761,0
-2.7863724,4.6731277,7.9118342,-0.29018554,0.48668084,0.82397455,0
0.46357054,-9.4717312,1.3362731,0.048405811,-0.98903358,0.139533,0
-5.1729436,3.0809345,-7.338954,-0.54493791,0.3245576,-0.77311385,0
7.571177,-4.8661518,3.2837572,0.79027277,-0.50792462,0.34275568,0
-1.1563399,5.7561221,7.4820418,-0.12158467,0.60523397,0.78670776,0
6.5117044,-1.0233097,7.1960011,0.66727287,-0.10486145,0.73739469,0
-2.6942284,-2.6075993,8.7825317,-0.28213549,-0.27306381,0.91969329,0
-5.7893543,-3.310638,7.0432968,-0.59685659,-0.34131199,0.72613245,0
9.7127266,0.098411016,0.54134315,0.99839926,0.010115953,0.05564623,0
-7.8249507,-5.9700646,0.12619896,-0.79496467,-0.60652018,0.012821003,0
4.6653042,8.1064501,-3.0827434,0.47373161,0.82315785,-0.31303275,0
5.205524,-6.7290621,4.6824017,0.53604656,-0.69293517,0.48217729,0
3.8337758,7.5211291,5.0432715,0.38986471,0.76483941,0.51286083,0
-7.5478716,0.82295316,5.7343702,-0.79328042,0.086492285,0.60268164,0
8.8080034,-3.8747864,-1.2015818,0.90828925,-0.39957145,-0.1239082,0
7.377687,-4.4266491,-4.3759451,0.76431423,-0.45859239,-0.45333955,0
1.7071985,-4.3258209,-8.5387774,0.17558236,-0.44490308,-0.87819827,0
-1.4606475,-7.6559014,-5.7443428,-0.15086003,-0.79072428,-0.59329283,0
-7.9204597,5.3069615,2.3686442,-0.80624813,0.54021204,0.24111164,0
-4.2463212,-6.8023262,-5.5308061,-0.43590963,-0.69829845,-0.56776947,0
-4.3355985,-8.2008152,-1.6206443,-0.46040806,-0.87086511,-0.17210028,0
4.4557743,1.8064164,-8.6392517,0.45066777,0.18270531,-0.87379479,0
6.1995406,-5.1387753,-5.1275392,0.64941412,-0.53829688,-0.53711987,0
-0.92277241,6.7334166,-6.8416266,-0.095687941,0.69822931,-0.7094503,0
8.7090864,3.5777123,-1.539338,0.91287118,0.37500954,-0.16135071,0
-3.9439301,0.96812475,8.7260733,-0.40976876,0.10058679,0.90662664,0
0.48964715,-2.4442568,9.2431746,0.051146511,-0.25531691,0.96550369,0
-3.4456012,8.5040359,-2.2197263,-0.36499116,0.90082908,-0.23513472,0
3.8012474,-8.880084,-1.7197104,0.38743329,-0.90508193,-0.17527749,0
0.40560395,4.0697303,8.873951,0.041510608,0.41650724,0.90818423,0
7.5027485,-1.6674894,5.8567638,0.77644145,-0.17256448,0.60610241,0
6.8158698,-6.6494288,-1.5328362,0.7066946,-0.68943739,-0.15893014,0
-7.6986771,2.8981154,-5.0865965,-0.79599881,0.2996484,-0.52592474,0
-2.4501154,-9.2561388,0.14756547,-0.25585836,-0.96659142,0.015409829,0
-7.7746878,-0.75215876,5.7062364,-0.80372685,-0.077756204,0.58989578,0
7.4450035,-4.1633096,4.2222114,0.78221995,-0.43742406,0.44361266,0
-0.9133957,3.4952619,-8.8698416,-0.095370606,0.36495161,-0.92612886,0
9.3477983,-1.944356,-0.70134681,0.97641456,-0.20309567,-0.073258452,0
7.5980325,0.66813618,-5.9691749,0.78448069,0.068983637,-0.61630464,0
-1.1654581,9.2865,-2.7219827,-0.11956934,0.95274186,-0.27925989,0
8.2346125,2.1574676,4.8602791,0.84006619,0.22009726,0.49582857,0
-8.22791,-0.20627171,-5.3778634,-0.83687502,-0.020980254,-0.54699183,0
1.3608487,-8.5333509,4.0378079,0.14267617,-0.89466661,0.42333803,0
8.9979897,3.1671932,2.4231627,0.91423607,0.32180101,0.24620418,0
6.5865588,5.897655,-3.9067304,0.68142945,0.61015713,-0.40418088,0
2.9181013,8.9290762,-2.7106638,0.29846328,0.91326559,-0.27724659,0
-1.1474407,-7.2151074,6.5187516,-0.11719045,-0.73689359,0.66577333,0
-8.6147261,-3.2077861,2.9846663,-0.89133507,-0.33189821,0.3088128,0
-4.3639059,-1.3139063,8.2848291,-0.46151537,-0.13895532,0.87618202,0
-6.9151349,6.3269434,0.57658792,-0.73639578,0.67375898,0.061401099,0
-2.1913168,9.0495424,-2.2511828,-0.22875427,0.94469291,-0.23500374,0
-1.4919726,-7.6735339,5.4249749,-0.1567985,-0.80644816,0.57013643,0
3.2694402,-1.2387264,9.0521803,0.33692029,-0.12765245,0.93283957,0
-3.9091432,-6.9065099,-5.4524965,-0.40599057,-0.71728706,-0.5662781,0
-9.1577263,-0.55644423,2.7447989,-0.95628029,-0.058105763,0.28662106,0
4.6518373,5.1938825,-6.684432,0.48160303,0.53772074,-0.69203681,0
-6.6774497,3.9380064,5.4658556,-0.70397526,0.41516736,0.57624203,0
5.0393939,4.5366764,-6.7947712,0.52497721,0.47260678,-0.70784307,0
-6.4205341,-2.9918802,-6.3290439,-0.6759153,-0.31496719,-0.66628379,0
0.11427899,5.2534761,-8.1535234,0.011781213,0.54158968,-0.84056044,0
6.353034,-5.3429747,-4.9829054,0.65618134,-0.55185604,-0.51466584,0
-3.358747,-2.0716319,-8.8405352,-0.34693077,-0.21398243,-0.91315418,0
-6.7332106,-6.7744937,1.283057,-0.69866687,-0.7029506,0.13313551,0
3.0469918,-6.6470909,-6.5538745,0.31030223,-0.67693228,-0.66743922,0
-7.7412415,-3.3918798,4.3034296,-0.81621993,-0.35763255,0.45374438,0
-5.4443741,-5.2798333,-6.053143,-0.56107181,-0.54411501,-0.62380868,0
-9.3111076,-2.8499143,-0.59015089,-0.9544608,-0.29213834,-0.060495049,0
1.8489231,8.1244497,-5.339098,0.18683505,0.82098168,-0.53951985,0
4.0900397,8.4016056,-3.0455287,0.41615966,0.85485947,-0.30988112,0
0.6433962,-9.7684059,-0.33419883,0.065684341,-0.99725693,-0.034118373,0
9.1654329,-2.9714673,1.9987309,0.93142676,-0.301972,0.20311877,0
-6.1277223,-7.3810349,-1.10903,-0.63453358,-0.76431578,-0.1148415,0
-8.0302486,-3.9737127,3.6765962,-0.82917196,-0.41030997,0.37963089,0
7.9865522,5.2067518,1.6552624,0.82535315,0.53808063,0.17105955,0
1.0469003,8.5377007,-4.346241,0.10862969,0.88589889,-0.45097974,0
-1.3984381,-2.853116,-8.9227715,-0.14764494,-0.3012276,-0.94205242,0
5.1297545,7.9703274,0.10352337,0.54117107,0.84084153,0.010921353,0
-5.3302612,-2.7393169,7.3597388,-0.56160527,-0.28861904,0.77543443,0
-4.6981082,0.64991349,8.503727,-0.48250359,0.066747203,0.87334698,0
7.4225631,0.84860289,-6.4452801,0.75226706,0.086004794,-0.65322071,0
-5.5139437,-7.7671399,0.17392792,-0.57877481,-0.81528306,0.018256461,0
0.20039693,7.4949646,5.7973852,0.021144336,0.79081082,0.61169535,0
-0.11546664,-3.117043,9.3486633,-0.011716207,-0.31628114,0.9485932,0
7.7062702,-5.6398187,-1.9796387,0.79017633,-0.57828897,-0.20298582,0
-7.3812642,-6.1418495,0.97467893,-0.76476288,-0.63634878,0.10098518,0
4.8393579,2.9891896,7.9077783,0.49680161,0.30686596,0.81180131,0
-4.2696033,-5.4980545,6.8553629,-0.4370088,-0.56274509,0.70167035,0
4.9671679,0.15013508,-8.2400827,0.51619858,0.015602356,-0.85632682,0
6.1574168,0.3111577,-7.3815665,0.64022422,0.032352965,-0.76750648,0
-6.7222314,-4.077805,-5.5574546,-0.69818169,-0.42352736,-0.57720613,0
-4.8790894,-6.5218172,5.2968473,-0.50218242,-0.67126089,0.54518038,0
-8.0020151,1.5438603,-5.3458667,-0.82101518,0.1584017,-0.54849154,0
-5.278841,5.8809352,5.520268,-0.54761142,0.61007088,0.57265633,0
-6.2302623,6.9043026,1.9779074,-0.65528119,0.72617477,0.20803064,0
0.98900241,-2.016248,-9.4890699,0.1014237,-0.2067693,-0.9731186,0
7.5545073,5.9149861,-0.92890406,0.78370094,0.61361778,-0.096364059,0
5.7103386,0.24757253,7.8241138,0.58933389,0.025550652,0.80748546,0
1.8432772,-1.6467549,9.3018064,0.19151711,-0.17109838,0.96646082,0
2.0859523,8.1706829,4.7268915,0.21577626,0.84519643,0.48896179,0
-3.084233,8.5934114,-3.7711446,-0.31222317,0.86992842,-0.3817606,0
-6.1948037,-7.3256063,-0.096562415,-0.64567953,-0.76354218,-0.010064624,0
6.8370218,-5.3344002,-4.6462922,0.69495165,-0.54221708,-0.47227409,0
0.31081718,2.5207729,-9.2048206,0.032550383,0.26398838,-0.96397644,0
4.4580798,-8.746027,-0.24922365,0.45398623,-0.89064711,-0.025379561,0
7.3239899,-0.020792281,6.2093019,0.7627638,-0.0021654316,0.64667356,0
1.9328637,1.054525,-9.2645359,0.20297681,0.11073938,-0.97290146,0
5.3639441,-7.7619367,-2.8374939,0.54442698,-0.7878173,-0.28799859,0
-2.1934276,2.7849784,-8.8671722,-0.229689,0.29163441,-0.92854309,0
-8.265502,-5.1225305,-0.24229167,-0.84973478,-0.52662164,-0.024908792,0
-6.0633721,2.9512713,6.9624515,-0.62555474,0.30448103,0.71831226,0
6.63238,-2.0269098,-6.4259033,0.70149928,-0.21438394,-0.6796605,0
-3.8121107,-5.2220373,7.0249257,-0.39928567,-0.54696333,0.73580033,0
2.8039968,6.7979941,-6.3014531,0.2895439,0.70196861,-0.65069526,0
-4.1093183,8.533062,2.7270818,-0.41694453,0.86579168,0.27669841,0
-0.88120317,6.6754804,-7.0557127,-0.090351708,0.68445176,-0.72343785,0
-0.58018386,7.4609056,6.0473886,-0.060300972,0.77544361,0.6285308,0
1.866241,-8.8278103,-4.0097027,0.18901049,-0.89406925,-0.40609753,0
4.2775416,-8.6121826,2.0290117,0.43525299,-0.87631607,0.20645818,0
-7.4373589,-6.0222068,-1.1763821,-0.77136272,-0.62459081,-0.122008,0
3.2315762,-0.76126993,8.9287691,0.33923587,-0.079914585,0.93730074,0
-5.1399879,-4.9993143,6.332561,-0.53730196,-0.52259684,0.66196603,0
-3.696183,8.3144159,2.9363525,-0.38658804,0.86961436,0.30711651,0
8.6882305,-4.5177727,0.72430408,0.88480431,-0.46008733,0.073762707,0
-6.9015441,5.36761,-4.043293,-0.71646321,0.55722243,-0.41974241,0
8.2351389,4.3370872,2.2611682,0.85978502,0.45281112,0.23607598,0
-0.41158533,0.41329229,9.5391207,-0.043066662,0.043245271,0.99813586,0
5.0033174,-7.8384624,2.7988734,0.51520842,-0.80715281,0.28820941,0
7.1920414,6.1958337,1.8896722,0.74304974,0.64012599,0.19523253,0
-0.62770927,-0.37207168,9.6409769,-0.06492278,-0.03848267,0.99714804,0
-6.9708419,5.8489313,2.8816128,-0.73031622,0.6127767,0.30189878,0
-7.9982681,-0.61113483,5.543726,-0.82026541,-0.062675163,0.5685389,0
-1.2459177,8.9173717,-3.529002,-0.12883204,0.922086,-0.36491057,0
-7.1352229,3.6814585,-5.6394644,-0.72722089,0.37521371,-0.57477337,0
5.5470214,-7.4904108,-2.5118208,0.57462829,-0.77594829,-0.26020509,0
3.4903483,-8.5300388,3.2127919,0.35760164,-0.87394023,0.32916477,0
3.8107824,6.9241457,-5.5563083,0.39444271,0.71669763,-0.57511687,0
-1.2687808,8.5642529,4.1682458,-0.13204259,0.8912856,0.43379119,0
5.3657293,-7.7077579,-2.4399378,0.5529803,-0.79434466,-0.25145465,0
-3.5870631,7.7783513,4.6160831,-0.3686502,0.79939795,0.47440481,0
-8.2963066,-3.6482096,-2.8607109,-0.87294823,-0.38386938,-0.30100775,0
-3.3543963,7.6543055,-4.8834281,-0.34655473,0.79079378,-0.50452447,0
5.6019077,-2.3309853,-7.5934734,0.57633621,-0.23981673,-0.78123271,0
-6.8955774,5.1553211,4.5723596,-0.70734918,0.52883351,0.46903321,0
7.6909261,2.4439435,5.7259407,0.77725941,0.24698952,0.57867432,0
7.3649511,-6.0221071,1.9506454,0.75837398,-0.62010044,0.20085928,0
-2.5675879,-4.2104487,8.2764425,-0.26650465,-0.43702659,0.85905939,0
3.7659285,-8.7106886,2.0385337,0.3879846,-0.89741826,0.21001983,0
-4.196341,-4.3208833,-7.7346687,-0.42805454,-0.44075868,-0.7889874,0
-7.5371423,5.9667134,-1.2322459,-0.77769226,0.61565334,-0.12714475,0
-5.5746794,3.1305463,-7.5988564,-0.56135482,0.31523734,-0.76518381,0
1.3678098,5.6734862,-7.7556944,0.14092137,0.58452243,-0.7990461,0
5.5042815,7.5183606,1.6441771,0.58173555,0.79459924,0.1737695,0
5.2156663,-8.0534935,-0.2460108,0.54340929,-0.83907652,-0.025631346,0
-5.4837842,-8.2385902,0.35629365,-0.55373907,-0.83191264,0.035977658,0
7.7886305,-1.0470871,5.6214314,0.80608624,-0.10836854,0.58179146,0
7.4365001,-1.9700454,5.8173532,0.77102876,-0.20425761,0.60315293,0
-2.8152325,2.8081946,-8.9132996,-0.28844473,0.28772363,-0.91324407,0
6.5554428,-3.5508702,-5.9778895,0.68600076,-0.3715843,-0.62556213,0
1.7857071,9.3877735,-2.0663295,0.18264459,0.96019441,-0.21134703,0
-1.5034053,8.0068531,5.561913,-0.15240842,0.81169844,0.56384152,0
5.1781087,5.0241089,6.3100677,0.54023272,0.52416593,0.65833014,0
-0.94383794,4.0447674,-8.7935133,-0.097052112,0.41591167,-0.9042114,0
-2.4439342,8.7315598,-2.8219216,-0.25736147,0.9194876,-0.2971659,0
-3.3855927,8.7250957,-1.3370205,-0.35811412,0.92290491,-0.14142455,0
-2.6697471,2.098042,9.0369549,-0.27654877,0.21732806,0.93610322,0
-0.32406658,7.6874638,5.9567366,-0.03330382,0.79002875,0.61216462,0
1.7610494,9.5507603,-0.15397955,0.18130882,0.98329842,-0.015852964,0
0.67503154,-1.695761,9.2956343,0.071257539,-0.17900756,0.98126382,0
1.1918006,-0.26552624,9.3762703,0.12604392,-0.028081849,0.9916271,0
-8.8136673,-0.806081,3.8813725,-0.91199738,-0.083409518,0.40162641,0
-5.2207384,-4.415801,6.9518929,-0.5353992,-0.45285094,0.71293318,0
-3.479388,2.8204298,8.5728655,-0.35972399,0.29159617,0.88632411,0
2.3497491,-9.48876,0.80922943,0.23955497,-0.96737123,0.082500271,0
-5.5098605,3.0274584,7.5163879,-0.56228876,0.30895627,0.7670576,0
-0.37569299,0.75336128,-9.7208109,-0.038504198,0.077210844,-0.99627101,0
-2.600184,-6.783443,-6.5664272,-0.26552677,-0.69271475,-0.67055339,0
2.2116113,8.4211292,-4.4406662,0.22628076,0.8616069,-0.45434627,0
-4.5838361,-2.3784113,-7.8705287,-0.48694381,-0.25266013,-0.83609122,0
-6.3597827,-6.2454791,3.8016329,-0.65629232,-0.64449686,0.39230624,0
-5.9886103,-3.9333615,-6.1702671,-0.63334501,-0.41598547,-0.65255672,0
9.4458933,0.86915582,-1.227698,0.98755658,0.090869173,-0.12835431,0
2.6131353,-5.5433192,-7.2366571,0.27556184,-0.58455729,-0.76312411,0
4.4759903,7.0207334,4.7059474,0.4680014,0.73407507,0.49204528,0
-3.0675864,-2.5277233,8.6984024,-0.32075781,-0.2643078,0.90953606,0
2.3639703,-9.1152306,1.5830915,0.24756403,-0.95458192,0.16578741,0
0.89027703,-0.65954351,9.4741726,0.093332775,-0.069143675,0.99323112,0
-3.7614851,4.2490897,7.7545257,-0.39144734,0.442191,0.80699199,0
-4.8615508,-8.2964172,-0.86404276,-0.5035463,-0.85932052,-0.089495219,0
1.6753882,6.9436307,6.648416,0.17169039,0.71156919,0.6813162,0
-8.1106577,2.6917183,-4.1720009,-0.85288584,0.28305084,-0.43871173,0
6.2306371,-2.9810793,6.8791752,0.63914657,-0.30580285,0.70567441,0
-3.8947887,6.9966965,-5.3159075,-0.40521938,0.72794628,-0.5530746,0
-6.3604565,-1.7024243,-6.9632607,-0.66369843,-0.17764391,-0.72659963,0
9.3444138,1.1015204,2.752738,0.95316935,0.1123597,0.28079081,0
-0.51909167,-9.1039591,3.7192113,-0.052710105,-0.92444301,0.37765974,0
7.1949277,-0.85676455,6.459136,0.74122745,-0.088264599,0.66542554,0
-1.9054772,-1.4552492,9.2603912,-0.19919802,-0.15213132,0.96807855,0
1.6078042,-5.514358,7.6157637,0.16855012,-0.57808387,0.79837948,0
-5.9296298,-0.16887826,7.6385827,-0.61310649,-0.017461522,0.78980726,0
8.6796408,-2.8154693,-2.8031218,0.90927166,-0.29494613,-0.29365262,0
5.0804744,4.6454477,-6.743072,0.52721643,0.48207235,-0.69974929,0
7.0384626,5.3402829,-4.089582,0.72295624,0.54852754,-0.42006174,0
-4.9740758,-4.8848834,-6.4798188,-0.52259892,-0.51322794,-0.68079907,0
-0.027967108,-3.9283595,8.8222094,-0.0028959441,-0.40677461,0.91352403,0
-4.4332824,-2.7859144,-8.1237583,-0.45869809,-0.28825,-0.84054029,0
-5.4088206,-7.0301762,-3.7161901,-0.56241649,-0.73100722,-0.38641447,0
0.039451409,5.2268105,-8.0236387,0.0041198186,0.54582363,-0.83788991,0
-0.52351254,-8.77946,3.8556509,-0.054515101,-0.91423434,0.40150174,0
-9.1350765,-2.9532473,0.42545664,-0.95057917,-0.30730945,0.044272233,0
-8.0090218,-4.3976121,-2.717191,-0.84018993,-0.46133342,-0.2850481,0
1.4301665,-5.2666516,7.822588,0.14994206,-0.55216825,0.82013869,0
4.5892429,5.9142489,6.0425377,0.47703332,0.61476237,0.62809747,0
-5.2154064,4.2249517,-6.9296236,-0.54060799,0.43794146,-0.71829683,0
-4.3926487,-8.5292931,-0.88299859,-0.45592833,-0.88528508,-0.091649503,0
0.047968913,-9.5800123,-1.0896231,0.0049750484,-0.99358147,-0.11300918,0
-5.3098674,0.85504162,-7.7405109,-0.56334734,0.090715155,-0.82122511,0
-2.4522865,-8.3445625,4.1250873,-0.25475395,-0.86686862,0.42853159,0
-6.3918605,-1.1876471,-6.9797091,-0.67011267,-0.12451106,-0.73174179,0
-6.1400075,0.52853936,-7.413413,-0.63690239,0.054825336,-0.7689926,0
5.4063234,-0.36878046,7.8837104,0.56513292,-0.0385493,0.82409871,0
8.5048599,0.98734039,-4.0267029,0.89888203,0.1043524,-0.42558384,0
0.17562328,1.8435192,9.3612947,0.018403929,0.19318619,0.98098952,0
9.555254,0.3069002,-1.686417,0.98428792,0.031613827,-0.17371802,0
2.3842211,-5.505465,-7.3939471,0.25039545,-0.57819444,-0.77652645,0
3.6268756,6.9951973,5.1215148,0.38593191,0.74435133,0.5449748,0
2.1858826,5.5762782,-7.6548495,0.22489542,0.57371765,-0.78757232,0
2.6713386,-6.3571405,-6.5985332,0.27989411,-0.66608036,-0.69137269,0
2.5750792,9.2602673,1.6401238,0.26409531,0.94971561,0.16820802,0
-2.9579573,8.5425882,2.6555352,-0.31393605,0.90664816,0.28183919,0
7.4651742,1.6308714,5.9284534,0.77188492,0.16862904,0.61299092,0
-5.5700226,7.096653,-3.4723959,-0.57620698,0.73413366,-0.35921198,0
-9.4791088,2.0767899,0.40472436,-0.97598183,0.21382909,0.041670967,0
-2.3577034,8.9090986,2.8129964,-0.24468808,0.92460752,0.29193947,0
-0.33233327,-9.2997217,-2.7615976,-0.03423721,-0.95806396,-0.28450176,0
-7.2156739,-5.6350117,3.1789629,-0.74453658,-0.58143872,0.32801569,0
3.5376449,-6.9776487,5.428237,0.37152374,-0.73279321,0.57007384,0
-8.7096272,-1.8004018,-3.4703765,-0.91230267,-0.18858573,-0.36350965,0
9.7553625,-0.6078729,0.80570018,0.9946906,-0.061980829,0.082151987,0
0.93853515,9.7640314,0.7151807,0.095427386,0.99277687,0.072717384,0
-3.4027846,8.1510868,3.6624298,-0.35586399,0.85244256,0.38301775,0
-4.8947959,5.0364914,6.6753631,-0.50516677,0.51979041,0.68892998,0
2.0226555,-1.708657,9.1629181,0.2120672,-0.17914574,0.96069467,0
2.5407753,-2.4661303,8.9924936,0.26289812,-0.25517449,0.93046784,0
-5.3565927,5.888257,5.8802829,-0.54125673,0.59497869,0.59417295,0
3.4237373,6.3390489,-6.2805991,0.35821414,0.6632334,-0.65711802,0
-5.1006498,6.9923515,4.48386,-0.52327543,0.717345,0.459999,0
-5.197906,-2.6202922,-7.669014,-0.53987521,-0.272154,-0.79653436,0
2.4011369,8.8834867,2.812577,0.24953374,0.92320007,0.29229191,0
2.9398987,-6.8803725,5.9081621,0.30837342,-0.72169966,0.61972207,0
-3.4248478,-8.7542896,-1.6925701,-0.35856491,-0.9165315,-0.17720385,0
3.2604601,6.7503953,-5.8322721,0.3432751,0.71071035,-0.61404639,0
-7.7100539,-1.2604748,5.2447653,-0.81937832,-0.13395572,0.55738223,0
-1.8548827,8.7347994,3.3946443,-0.19416639,0.91434592,0.35534635,0
-7.8636737,2.1143312,-5.0341191,-0.82140803,0.22085463,-0.52584404,0
3.36587,-5.2180748,-7.3412571,0.35005838,-0.54269201,-0.76350796,0
-4.1676922,-7.9667144,3.4472966,-0.43281683,-0.8273471,0.35800341,0
4.0753684,-3.2069261,8.076005,0.42462155,-0.33413664,0.84145659,0
2.8874514,3.2313542,8.4118595,0.30514762,0.34149149,0.88897043,0
1.4238306,-5.5980234,7.8787203,0.14574528,-0.57302141,0.80647671,0
-3.8258967,-8.6678581,-1.7471967,-0.39710733,-0.89967668,-0.18134955,0
-9.6009836,-0.41064149,-0.34663504,-0.99843729,-0.042703934,-0.036047697,0
7.1205411,6.2288055,1.6202844,0.74186212,0.64895558,0.16881128,0
6.6291585,-4.7991018,5.1796613,0.68445212,-0.4955011,0.53479338,0
-7.1801491,-3.2491915,5.5074787,-0.746782,-0.33793694,0.57281345,0
6.6205301,1.8998523,-6.7960744,0.68421263,0.19634424,-0.70235467,0
9.108901,-3.4918766,1.2481633,0.92619127,-0.35505331,0.126913,0
5.5351706,-7.8007908,-2.177032,0.56425571,-0.79521322,-0.22192681,0
3.6528835,7.6611676,4.7098765,0.37632608,0.78926611,0.48521927,0
0.57295203,-3.8430948,8.8636255,0.059202176,-0.39710057,0.91586363,0
6.7195024,-1.6196049,6.7497044,0.69553453,-0.16764504,0.69866073,0
5.3477898,-3.7053308,-7.1585402,0.5528394,-0.38304666,-0.74002969,0
7.2275496,-1.836684,-5.9037237,0.75989079,-0.19310546,-0.62070626,0
0.66259104,7.8038263,5.9104042,0.067529954,0.79535037,0.60237658,0
-4.2101936,-7.2028027,-5.0408773,-0.43191916,-0.73892766,-0.51713812,0
-4.4077353,8.3428488,1.5426459,-0.4610163,0.87259984,0.16134928,0
-9.1886864,1.3353893,-2.8382561,-0.94637787,0.13753684,-0.29232281,0
-2.9975414,-8.6513815,2.8156769,-0.31292424,-0.90314913,0.29393876,0
4.2872252,8.429162,-1.1398995,0.45009041,0.88492787,-0.11967131,0
-1.4316727,-9.001792,3.3911791,-0.14721072,-0.92560279,0.34869555,0
8.0577993,1.2016325,-4.8062325,0.85186952,0.12703644,-0.50811428,0
0.33353564,5.2699442,8.134059,0.034393076,0.54341894,0.83875686,0
8.8531475,4.3435087,-0.54861712,0.89638501,0.43978214,-0.055547722,0
3.7654502,1.5850347,-8.8100262,0.38774282,0.1632171,-0.90720212,0
-9.5021009,-1.1936259,-0.47719932,-0.99097282,-0.12448309,-0.049767055,0
1.245875,2.0564282,-9.5582705,0.12640719,0.20864637,-0.96978754,0
6.8730531,5.6139798,4.1420541,0.70179886,0.57323647,0.42293996,0
-7.7922368,4.5439944,-3.2870131,-0.81164163,0.47330377,-0.34237623,0
-7.633625,2.8456864,5.2318563,-0.78842902,0.29391304,0.54036546,0
8.624402,-3.8621199,1.409238,0.90268427,-0.40423381,0.14749973,0
-3.1066663,-0.099728636,9.058773,-0.32438162,-0.010413135,0.94586903,0
3.585577,-4.5671759,7.57587,0.37564516,-0.47848293,0.79369062,0
-4.7266817,1.5753926,8.1644468,-0.49418497,0.16471076,0.85361087,0
2.8368628,-4.5597482,-7.9683895,0.29522744,-0.47452515,-0.82925659,0
-1.5342636,-9.4102116,0.13767105,-0.16090085,-0.98686492,0.014437798,0
3.5071642,1.1981059,9.0549889,0.35845575,0.12245447,0.92548066,0
8.0640516,-5.1970482,-0.82727563,0.83745295,-0.53971422,-0.085912697,0
-1.2505356,-6.9114499,6.7434888,-0.12843303,-0.70982265,0.69257259,0
1.7842715,7.819284,5.4864907,0.18361755,0.80467451,0.56460917,0
-9.0425797,-3.2491829,0.89461231,-0.93703842,-0.33669698,0.092704311,0
-7.293776,-5.0615745,-3.7475674,-0.7568872,-0.52524793,-0.38889125,0
-9.7236328,0.56241566,0.75276524,-0.99536312,0.057571877,0.077057078,0
2.5045605,-3.40727,8.6772671,0.25946364,-0.35298118,0.8989343,0
8.5483866,-2.7595413,2.9880204,0.90299624,-0.29150009,0.31563514,0
4.8981428,-3.1155837,7.3548856,0.52275896,-0.33251363,0.78495717,0
-3.4241467,-6.0515895,-6.8186469,-0.35160542,-0.62140203,-0.70016658,0
5.7257199,-7.9242988,-0.8740769,0.58333951,-0.80733192,-0.089051433,0
-4.263607,-8.7982225,-0.12141997,-0.43605787,-0.89983296,-0.012418155,0
0.30029467,9.247612,2.8725281,0.030996133,0.95452982,0.29649964,0
5.9612699,-1.8318653,7.0305586,0.63431686,-0.19492207,0.74809599,0
-2.7716935,-9.0296154,2.2129459,-0.28570613,-0.9307726,0.22811043,0
6.0651293,-1.5494934,7.2586074,0.63276654,-0.1616565,0.75728041,0
7.2676697,2.0626407,5.997642,0.75343907,0.21383388,0.62177533,0
9.3076735,-2.6091652,1.4245871,0.95259374,-0.26703498,0.14579935,0
6.2637897,-3.7589543,-6.0327096,0.66114944,-0.39676148,-0.63675869,0
8.3088322,-5.2112975,0.80474508,0.84432232,-0.52955872,0.081776142,0
2.4119596,-7.5889211,-5.3489327,0.25143638,-0.79111224,-0.55760312,0
0.95272648,4.4105749,-8.6341352,0.097794443,0.45273194,-0.88626742,0
-8.7227764,-1.4907352,-3.7453647,-0.90775186,-0.15513611,-0.3897683,0
5.751987,-3.5294747,-6.8676748,0.59739345,-0.36656639,-0.71326727,0
2.7370434,-8.46348,3.7095315,0.2839976,-0.87817681,0.38490367,0
2.4439881,-3.2175014,-8.9222918,0.24952599,-0.32850006,-0.91094702,0
-9.6983299,1.5667037,0.51241946,-0.98586166,0.15925969,0.052088834,0
0.024374818,-0.4629944,9.817235,0.0024800957,-0.047108881,0.9988867,0
-8.0810556,5.3563919,0.95121062,-0.829539,0.54984599,0.097643964,0
7.8972487,0.60320276,-5.6039882,0.81395441,0.062170964,-0.57759243,0
1.5993249,-0.80536145,-9.6115417,0.16358165,-0.082373731,-0.98308468,0
-7.551517,4.3167562,-3.7949302,-0.79572886,0.45487121,-0.39988464,0
7.1644483,6.1306744,2.1755254,0.74034631,0.63352013,0.22481036,0
-2.4900315,-0.86118942,9.379981,-0.25557145,-0.088390626,0.96274102,0
-6.587604,3.6000712,-5.7801299,-0.69529527,0.37997311,-0.61006963,0
-5.5141544,-7.503315,-1.8444335,-0.5808959,-0.79044664,-0.19430429,0
8.4516525,-1.8365606,-4.6610317,0.86022812,-0.18692926,-0.47441024,0
0.062650584,-7.2167888,6.2303224,0.0065710736,-0.7569291,0.65346408,0
-3.8818505,-3.5156982,-8.2811947,-0.39617509,-0.35880619,-0.84516466,0
-0.78938627,-7.3148665,6.138401,-0.082384154,-0.76341474,0.64063311,0
3.0121565,0.26566219,-9.0294886,0.31632462,0.027898779,-0.94824076,0
1.393501,-7.4879065,-5.7353535,0.14615501,-0.78535646,-0.60154289,0
-9.4912577,1.0435927,1.821916,-0.9763943,0.10735752,0.18742599,0
-7.2906966,-1.2780236,-6.559586,-0.7371648,-0.12922139,-0.66324198,0
-0.37452552,9.5478411,0.59176242,-0.039121106,0.99732083,0.061812609,0
0.2100503,-3.0551026,-9.2213621,0.021617793,-0.31442267,-0.94903696,0
-4.0738864,-5.5470114,-6.5984859,-0.42728028,-0.58178562,-0.69206715,0
-6.3273306,4.0097766,5.9832993,-0.65998089,0.41824526,0.62409621,0
3.3565123,4.2187834,8.0413284,0.34670112,0.43576688,0.83060551,0
-0.95471191,7.9914098,-5.3600688,-0.098731615,0.82643229,-0.55431199,0
-0.30518997,-2.0406826,-9.5769682,-0.031152241,-0.2083025,-0.97756821,0
6.2358241,7.3301849,-0.80878723,0.64568388,0.75899869,-0.083745286,0
-9.4788589,-0.33346748,-1.0692979,-0.99309057,-0.034937054,-0.11202927,0
0.24884681,9.6842403,0.080005571,0.025686705,0.99963599,0.0082584117,0
2.2032723,6.5814276,6.8029637,0.22670829,0.67720371,0.69999892,0
-4.0211954,8.8914375,0.66011697,-0.41113287,0.90907353,0.067491323,0
-1.017228,-1.5597588,9.3311501,-0.10690622,-0.16392383,0.98066312,0
2.9648359,-8.7539244,2.2190115,0.31192306,-0.92097878,0.23345673,0
-2.1759226,6.1595845,-7.1991453,-0.22383143,0.6336202,-0.74055707,0
-7.1282415,-5.9861331,1.6170977,-0.75448817,-0.63360178,0.17116158,0
3.145365,0.60260844,-8.893816,0.33274242,0.063748851,-0.94086057,0
-7.2410607,-5.2656956,3.4550505,-0.75453144,-0.54869491,0.36002243,0
6.5983801,4.1519594,-6.0216064,0.66983581,0.42148694,-0.61128455,0
-5.9512548,6.4385548,3.6574728,-0.62644953,0.67774439,0.38499814,0
-4.2968707,7.911499,3.8059754,-0.43960118,0.80940396,0.38937902,0
3.9391575,8.8877487,-0.16758639,0.40513721,0.91409338,-0.017236041,0
6.6154361,-7.051363,0.19917266,0.68405926,-0.72913563,0.02059515,0
3.3866115,-5.8924108,6.7290182,0.35410139,-0.61610574,0.70358074,0
-9.0234308,-1.447705,-3.7033737,-0.91509157,-0.14681585,-0.37556955,0
-3.4676497,-4.8387318,-7.8147216,-0.35298318,-0.49255002,-0.79548556,0
-5.9052162,3.7374222,-6.5965538,-0.61447889,0.38890481,-0.68641734,0
4.8965759,-8.1474886,-0.083624698,0.5151009,-0.85708439,-0.0087969955,0
-9.3707399,2.6737566,-0.53208101,-0.96019119,0.27397171,-0.054520719,0
-4.0639071,-6.6551805,5.8681078,-0.41641921,-0.68194097,0.60129148,0
8.0160189,1.3503232,5.5286856,0.81539136,0.13735521,0.56237924,0
5.350081,-7.6856313,2.7086594,0.54882264,-0.78840828,0.27786002,0
4.6538391,7.6886454,3.5248044,0.48206842,0.79642916,0.36511725,0
-9.0464697,3.7159684,-1.2739707,-0.91725397,0.37677532,-0.12917246,0
-4.763618,4.8020592,6.7581959,-0.49820068,0.50222105,0.70680267,0
-2.0629189,9.413455,-0.68410891,-0.21352847,0.97436726,-0.070810698,0
8.9998999,-0.97873163,-2.8489053,0.94829154,-0.10312592,-0.30018032,0
-8.5390987,4.9079323,0.29893959,-0.86659712,0.49808535,0.030338118,0
8.9845505,2.8140049,2.0262337,0.93292737,0.29219738,0.21039771,0
-3.7479143,2.0000997,8.6590595,-0.38858512,0.20737106,0.8977744,0
-0.11285243,3.3217201,9.0919828,-0.011657792,0.34313768,0.93921274,0
9.4391499,1.097118,-1.7133324,0.97755092,0.11362132,-0.17743862,0
-0.64939851,2.5413826,-9.0981531,-0.068583526,0.26839757,-0.96086365,0
9.5305948,-2.3178592,0.34358421,0.9710812,-0.23616883,0.035008118,0
3.7633824,-8.4100266,3.3695457,0.38360858,-0.85724968,0.34346405,0
-6.6852512,2.9927421,6.0916095,-0.70174313,0.31414467,0.63942921,0
-3.5980864,-7.8243513,-4.748538,-0.36586761,-0.7956109,-0.48285007,0
-0.24008584,8.3108187,-4.4736581,-0.025428919,0.88024819,-0.47383171,0
-7.44101,-4.3058233,-4.2238212,-0.77683759,-0.44952574,-0.44096476,0
8.2658987,4.2111464,-3.3229198,0.83883989,0.42735553,-0.33721653,0
-3.0576549,5.949584,6.9981432,-0.31584239,0.61456609,0.72287762,0
6.4216657,1.9112306,6.9108748,0.66714948,0.19855852,0.71797365,0
-4.7859907,-8.3968725,-1.0622129,-0.49222162,-0.86358756,-0.10924471,0
7.9019227,0.38187224,-5.3219299,0.82876039,0.040051084,-0.55816853,0
7.6777554,-2.5097454,5.45854,0.78754526,-0.25743696,0.5599094,0
-3.6720839,-3.3050611,-8.3569212,-0.37825239,-0.34044626,-0.86082602,0
1.7224207,-9.4053488,-0.85829824,0.17941493,-0.97970259,-0.089404128,0
-1.4633888,-1.2461654,-9.5815334,-0.14974681,-0.12751859,-0.98046672,0
6.2505298,-6.7893491,2.0014648,0.66192204,-0.71898222,0.21195222,0
8.7903671,3.4572115,-1.9761117,0.91089255,0.3582499,-0.20477249,0
6.4845757,2.6381805,6.5004435,0.67877883,0.27615392,0.68043977,0
1.6055629,-7.6567435,5.5273113,0.16761509,-0.79933691,0.57703173,0
-4.8575201,2.3783388,7.9146576,-0.50672406,0.2481022,0.82563674,0
6.3705616,-2.0105844,-6.9350233,0.66158938,-0.20880127,-0.72020936,0
-7.0609241,5.4697976,3.5464225,-0.73474622,0.56917661,0.3690339,0
6.3655758,5.6098881,-4.3813314,0.66660744,0.58747131,-0.45881599,0
5.3517499,7.9660554,0.27843001,0.55742317,0.82972193,0.029000487,0
-4.5839968,8.2631979,-2.5892289,-0.46785811,0.84336972,-0.26426539,0
3.4667387,9.0097132,0.96434194,0.35733277,0.92867273,0.099399172,0
4.6875753,3.2989585,7.6891742,0.48876694,0.34397781,0.80173945,0
-2.1016114,9.0980616,-1.9888154,-0.22013114,0.95296723,-0.20831645,0
6.0101466,-3.5228741,-6.6073165,0.62595797,-0.36690804,-0.68815333,0
6.8629084,3.0867486,5.947495,0.71550679,0.3218154,0.62006843,0
-9.3882446,-0.1131107,2.2790122,-0.97171056,-0.011707285,0.23588438,0
3.9756293,8.2323189,-3.2939501,0.40912706,0.84717768,-0.33897629,0
1.9856822,1.7060131,-9.1592846,0.20844728,0.17908897,-0.96149719,0
9.4846001,-0.45808378,0.15067905,0.99870998,-0.048235334,0.015866213,0
-8.8082151,-0.22409776,3.7278962,-0.92066419,-0.02342345,0.38965222,0
-9.3965836,-0.22621904,1.1590993,-0.99219459,-0.023886694,0.12239045,0
-2.8115025,7.6345711,-4.9447956,-0.29530662,0.80189842,-0.51937741,0
-4.4095931,-8.2387648,-1.8958677,-0.46246427,-0.86405575,-0.19883265,0
-8.4528599,3.8372357,-2.4902189,-0.87947428,0.39924359,-0.25909379,0
-3.9538827,-8.7677488,-0.62468958,-0.41022611,-0.90967786,-0.064813249,0
6.3587103,4.1455035,-5.7472677,0.66786146,0.43540624,-0.60364109,0
-2.5718298,7.8219461,4.8807702,-0.26868862,0.81718785,0.50991225,0
4.1445613,5.901145,-6.6464629,0.42261449,0.60173059,-0.67772949,0
9.4936266,-2.3372087,-0.49684411,0.96975601,-0.23874146,-0.050751686,0
1.6899009,5.8884664,7.5440722,0.17389084,0.60592335,0.77628523,0
-5.4517269,3.9305716,-6.8634562,-0.5675258,0.40917325,-0.71448708,0
-0.64376915,-3.993598,-8.637289,-0.067497946,-0.41872099,-0.90560299,0
0.15615301,5.13451,8.3138304,0.015978351,0.52538854,0.85071242,0
1.4520289,6.1764112,-7.2988634,0.15014128,0.63864726,-0.75471002,0
5.4748335,6.748805,4.6422415,0.55568302,0.6849882,0.47117683,0
0.038697198,-5.1041903,-8.2986126,0.0039718957,-0.5238961,-0.85177284,0
-9.6006098,-0.73924083,0.61674726,-0.99500972,-0.07661511,0.06391985,0
-3.4628379,-5.0335851,-7.6477818,-0.35376212,-0.514229,-0.78129429,0
3.0205958,-3.9348099,8.2743101,0.3131018,-0.40786526,0.85767889,0
-2.8564065,8.2996359,3.8224115,-0.29836279,0.86692929,0.39926577,0
1.1272742,-9.1158876,-2.2581382,0.119177,-0.9637444,-0.23873352,0
7.747694,-2.4397662,-5.1323209,0.80635202,-0.25392208,-0.53415346,0
-2.67606,4.568851,-7.9473114,-0.28022653,0.47843221,-0.83221138,0
-7.137289,3.3080719,-5.5007157,-0.74353981,0.34462428,-0.57304686,0
3.2034421,5.4074411,7.1155639,0.33742189,0.56957144,0.74948978,0
9.4419603,-1.4561013,1.90223,0.96928942,-0.14947993,0.19527845,0
5.2137709,2.5276301,-7.5559363,0.547562,0.26545742,-0.79354155,0
6.218924,1.1132827,-7.2229147,0.64806867,0.11601422,-0.75269365,0
1.8299919,6.6363716,-6.5921469,0.19199707,0.69626749,-0.69162756,0
3.9096684,-3.3739264,8.4412689,0.39508957,-0.34095043,0.85302818,0
-0.49463308,6.6098814,7.230608,-0.050426345,0.67385739,0.73713857,0
5.0109,8.3121243,-0.58613604,0.51534557,0.85485971,-0.060281113,0
-1.1726258,-5.4001708,-8.0567589,-0.12002603,-0.55274332,-0.82466274,0
-2.9047809,-5.6198835,7.2295399,-0.30237293,-0.58500129,0.75255835,0
-3.1319988,-6.9876151,5.88448,-0.32431442,-0.72355849,0.6093303,0
5.3801718,5.120317,-6.1564827,0.55769944,0.53076333,-0.63817048,0
-7.2010384,6.2437382,-0.85738474,-0.75250304,0.65246588,-0.089596055,0
3.9890935,2.4988506,8.2514687,0.41991886,0.26304585,0.8686052,0
5.807714,-6.7758861,3.7435942,0.60011691,-0.70015907,0.38682932,0
1.3904082,8.9787159,-2.9132822,0.14572413,0.94102985,-0.30533156,0
-4.1533813,-6.8806491,-5.5968566,-0.42408228,-0.70255083,-0.57146877,0
-2.5487733,-0.66943628,-9.3646021,-0.26199529,-0.06881316,-0.96261275,0
7.4433727,5.7371945,0.6614154,0.79007673,0.60897446,0.070205934,0
4.1054883,6.9521542,5.2861023,0.42542127,0.72040009,0.54775953,0
5.9444871,6.8511434,3.169822,0.618671,0.71303105,0.32989842,0
6.3943505,-3.3268239,6.4805236,0.65969306,-0.34322214,0.66858333,0
-4.5549493,4.4850078,7.3420529,-0.46789813,0.46071354,0.75419784,0
-7.7495713,-0.19184734,-6.009047,-0.79010934,-0.01955984,-0.61265379,0
-8.5644608,4.2554698,1.7278076,-0.88127625,0.43788448,0.17779005,0
1.8751785,9.0873537,-2.7341752,0.19385171,0.93943006,-0.28265285,0
-2.3762395,-8.6586199,3.2828326,-0.24855845,-0.90570545,0.34338954,0
2.003901,6.7301898,-6.6312118,0.20747826,0.69682485,-0.68657696,0
1.8000826,4.4541082,-8.6724873,0.18156604,0.44926539,-0.87475389,0
-4.5431185,6.9609909,4.8255067,-0.47267553,0.72423601,0.50205576,0
-9.8212261,0.68814272,-0.53005636,-0.99611169,0.069794446,-0.053760633,0
-5.0101457,-8.3487101,-0.088357113,-0.51454401,-0.85741591,-0.0090743117,0
1.5549525,-0.76348746,-9.3337011,0.16379835,-0.080425598,-0.98320997,0
5.2751031,4.0598688,6.9807491,0.54688478,0.42089802,0.72371393,0
-2.0765059,-9.4375277,-1.2623945,-0.21307592,-0.96841037,-0.12953775,0
-3.7765422,-6.810009,-5.4751143,-0.39672849,-0.7153964,-0.57516474,0
-6.8482347,-2.5626299,6.4521399,-0.70226121,-0.26278824,0.66164315,0
0.11739879,-9.4447651,0.92441696,0.012369978,-0.99516815,0.097403198,0
-1.9867848,0.70707482,-9.3807669,-0.20663631,0.073539585,-0.97565025,0
-7.0606093,6.1512895,-2.544574,-0.7276063,0.63389951,-0.26222214,0
-5.2398911,-8.223259,0.2509703,-0.5372017,-0.84306121,0.025729863,0
-3.7024984,-7.6737642,-4.6471229,-0.38149634,-0.79068583,-0.47882813,0
-8.7695198,3.5864515,-1.9283149,-0.90699238,0.37093073,-0.19943704,0
-2.3909554,8.7333755,2.9847834,-0.25078157,0.91602278,0.31306675,0
2.7240331,9.3371897,-1.3014326,0.27759111,0.95150125,-0.13262178,0
-6.2527857,-2.7038369,6.9396472,-0.64299005,-0.27804253,0.7136218,0
8.8849716,1.9959489,3.211771,0.92013222,0.2067015,0.33261266,0
1.5569335,-5.0237489,8.1111965,0.16105421,-0.51967269,0.83904821,0
-7.5477853,-4.0524664,4.4582472,-0.78154564,-0.4196181,0.46163523,0
-7.0588379,-3.0243876,5.7515674,-0.73571628,-0.31522059,0.59946436,0
6.636837,-7.1331606,0.91557193,0.67818981,-0.72890699,0.093558356,0
0.14459896,-4.58249,8.3414259,0.015191556,-0.48143604,0.87634957,0
3.9371607,-8.5532207,-0.10980248,0.41811204,-0.90832067,-0.011660622,0
-7.0600395,5.5293646,3.5995562,-0.73062104,0.57221639,0.37250665,0
9.3610382,-0.23077329,1.8925457,0.97988296,-0.024156595,0.19810551,0
2.7636032,4.8227224,8.0828466,0.28172389,0.49163213,0.82397175,0
-5.8578367,-7.4897881,-0.79051566,-0.61394638,-0.78498745,-0.082852133,0
-5.0512667,-4.454937,-6.9190111,-0.52313292,-0.46137419,-0.71656531,0
1.7787923,9.2001238,1.6406397,0.18698446,0.96710575,0.17246203,0
8.383997,-3.0266008,-3.4242435,0.87802738,-0.31696558,-0.35860932,0
1.3227488,-9.4362631,2.1574759,0.1353927,-0.96586829,0.22083293,0
3.7486343,-8.794836,-0.19823371,0.39201558,-0.919725,-0.020730402,0
1.1600778,-6.9374099,-6.5954795,0.12031143,-0.71947736,-0.68401581,0
9.3291407,-0.82546037,-2.7006276,0.95711112,-0.084687039,-0.27706739,0
-7.8324766,-5.2111626,1.5113178,-0.82202482,-0.54691577,0.15861404,0
1.0513058,9.566164,-0.9498632,0.10871243,0.98920876,-0.098222546,0
-5.6309118,7.3182526,2.4417214,-0.58954835,0.7662105,0.25564474,0
8.3650923,-1.6228232,4.6915202,0.85996795,-0.16683331,0.48230875,0
-5.4727759,-7.792016,1.4076345,-0.56857675,-0.80952692,0.14624174,0
0.83067173,-9.5148573,1.36278,0.086099766,-0.98622233,0.1412532,0
8.0428677,-2.5721738,-4.7970438,0.82817012,-0.26485547,-0.49394923,0
7.6685576,3.2491014,-4.9466724,0.79165483,0.3354173,-0.51066411,0
-3.0173891,2.9815912,-8.750453,-0.31028888,0.30660766,-0.8998403,0
6.0871725,-0.4596189,-7.3209419,0.63859659,-0.048217963,-0.76802957,0
-1.2644285,-8.2288246,4.818831,-0.13144524,-0.85543776,0.50094759,0
-3.9252412,-9.0180578,0.17202017,-0.39903674,-0.91676819,0.017487425,0
0.49458641,2.9659343,-9.3412199,0.050399885,0.30223787,-0.95189923,0
4.591866,7.4200163,-3.4957867,0.48848978,0.78935272,-0.37188715,0
-0.40977824,-7.451838,-5.8983417,-0.04307773,-0.78337067,-0.62006015,0
-9.2384071,2.7879755,-0.077142864,-0.9573251,0.28890252,-0.007993889,0
-7.0212884,0.2868706,-6.7001595,-0.72314161,0.029545583,-0.69006765,0
7.5451736,3.2936866,5.0311856,0.78201622,0.34137273,0.52145505,0
-7.2661004,-0.52166188,6.0209837,-0.76882166,-0.055196725,0.63707662,0
-1.2834506,3.8956406,8.7927094,-0.13228287,0.40151644,0.90624821,0
-5.9399447,-6.6935492,3.6283531,-0.61511242,-0.69315213,0.37573501,0
-3.6758931,8.4754839,-2.7326362,-0.38155553,0.87975019,-0.28364602,0
5.0483503,-8.1177626,0.0026094932,0.52809805,-0.84918326,0.00027297399,0
8.8428431,-2.8446474,3.1018927,0.90294397,-0.29046735,0.3167347,0
-4.0987177,-8.7191029,1.6645528,-0.41921324,-0.89178216,0.170249,0
-5.6175761,-5.0994649,5.9847479,-0.58133245,-0.52771592,0.61932904,0
-4.0527782,-2.3733435,8.5227556,-0.41647509,-0.24389157,0.87582278,0
-2.9175816,5.225512,7.5211635,-0.30354255,0.54365754,0.78249502,0
8.1859903,4.6355147,1.0448297,0.86485082,0.48974267,0.11038638,0
-8.9875584,0.56864381,3.5834022,-0.92729026,0.058669757,0.36971709,0
6.3983259,5.8971567,4.4179368,0.65565014,0.6042943,0.45271546,0
-7.2681785,2.0338252,6.0945525,-0.74923134,0.20965439,0.62824953,0
-8.4786806,-0.68287605,-4.7939348,-0.86835927,-0.069937974,-0.49097943,0
-3.896451,-8.8574772,1.5262221,-0.39774907,-0.9041698,0.1557965,0
-2.1523497,9.0448151,2.9367054,-0.2207503,0.92765856,0.30119574,0
-5.1865063,-6.8778801,4.8349943,-0.52503645,-0.69625634,0.48945248,0
1.5609083,9.661665,1.0201951,0.15862939,0.98187953,0.10367869,0
9.3452711,-1.0223441,-2.9888966,0.94734234,-0.10363636,-0.30298835,0
2.5183358,9.2036343,-2.1740475,0.2573278,0.94044286,-0.22214784,0
1.4925289,-9.1141739,2.4442909,0.15622763,-0.95400888,0.25585151,0
4.1712928,4.5687728,7.1837106,0.43998855,0.48191482,0.75773883,0
-3.3813841,7.6831689,4.6654134,-0.35209206,0.8000223,0.48579368,0
-2.6607189,-1.7485337,9.1175432,-0.27550939,-0.18105538,0.944094,0
2.7684653,-2.0088375,9.199399,0.28207272,-0.20467594,0.93730611,0
-1.6345588,6.3467932,6.9043751,-0.17170346,0.66670364,0.72527522,0
3.7927008,-5.8738422,6.5190411,0.3967458,-0.61444926,0.68194205,0
4.999012,0.55763239,8.4521751,0.50825351,0.056694925,0.8593393,0
8.2416534,4.6686835,-1.3257473,0.86169487,0.48812786,-0.1386117,0
0.73543411,-9.7583132,0.024834113,0.075151518,-0.9971689,0.0025377136,0
8.7214174,-2.5047832,-3.4851635,0.89724129,-0.25768688,-0.35854638,0
7.5472212,-0.12618248,-5.8662267,0.78947777,-0.01319933,-0.61363721,0
3.5334604,-7.5595379,5.3272963,0.35691148,-0.76358175,0.53810513,0
-1.2178251,8.3703671,-4.3533435,-0.12801653,0.87988442,-0.45761901,0
-2.3522978,-8.7657423,-3.3733706,-0.24294275,-0.90531629,-0.34839803,0
1.3285986,-9.4652891,1.1501893,0.13800704,-0.98319876,0.11947493,0
4.9757543,-1.8128788,-8.0841208,0.51486212,-0.18758616,-0.83649778,0
-1.6067183,-5.5808177,7.9117208,-0.16371033,-0.56863576,0.8061341,0
9.1586485,0.40446138,-2.6239166,0.96046001,0.042415537,-0.275168,0
4.9019589,-8.414526,-0.35284567,0.50304174,-0.86350334,-0.036209218,0
1.4269663,-1.868544,-9.4499111,0.14653598,-0.19188184,-0.97041667,0
4.376348,8.4267311,2.5397735,0.44524068,0.85731834,0.25839135,0
2.7135098,8.3547087,-4.0369363,0.2806828,0.86420292,-0.41757676,0
8.6636915,-4.5041571,0.73070526,0.88478327,-0.45998901,0.074623592,0
-5.3205428,5.9213033,5.7317929,-0.5423947,0.60363835,0.584319,0
5.2428927,6.7614393,4.4490323,0.54366595,0.70113283,0.46134594,0
-7.7138505,-5.1524286,-2.1579432,-0.80993301,-0.54099077,-0.22657807,0
8.8879232,-1.6620828,-2.9160109,0.93551481,-0.17494559,-0.30693012,0
9.0988588,0.063485414,-3.368469,0.93777829,0.0065431553,-0.34717289,0
-2.771796,-5.8199339,7.244103,-0.28584102,-0.60017979,0.74704701,0
-8.9553595,3.4964254,-0.79227674,-0.9283722,0.36246273,-0.082132682,0
7.7517557,-3.0036786,-4.983077,0.79977566,-0.30989999,-0.51412147,0
4.955163,-3.1801054,-7.5949306,0.51563245,-0.33092064,-0.79032576,0
5.769124,-7.5888991,-0.52881324,0.60425806,-0.79486126,-0.055387899,0
-1.4326026,7.0740018,-6.5270257,-0.14721772,0.72694159,-0.67073303,0
7.5305104,4.5283098,3.5647337,0.79413193,0.47753409,0.37591991,0
6.9752903,-5.7926378,3.2706087,0.72366893,-0.6009717,0.33931747,0
-4.6451821,1.8500192,-8.3752089,-0.4762238,0.18966386,-0.85862589,0
-0.53080362,9.6870356,-1.0100467,-0.054419044,0.9931342,-0.10355201,0
-8.2147503,2.9195666,4.3594713,-0.84276694,0.29952392,0.44724649,0
-0.89115387,8.7534437,-4.0668406,-0.091936961,0.90305954,-0.41956049,0
-5.5867829,7.8760853,-1.3434026,-0.57304227,0.80785847,-0.13779424,0
2.9526453,9.2716866,-0.27329987,0.30332324,0.952474,-0.028075909,0
-3.805063,0.010388659,-8.7331915,-0.39943412,0.001090543,-0.91676128,0
3.9217107,-5.1387548,-7.1805663,0.4059056,-0.53187233,-0.74320424,0
6.8195691,-2.0723038,6.6008239,0.70199776,-0.21332031,0.67948043,0
-1.0193772,-9.3522491,-2.2296309,-0.10543561,-0.96731615,-0.23061384,0
8.3019915,-5.1929808,0.72237259,0.84550631,-0.52887291,0.073569171,0
-2.209204,-6.0924726,-7.3638339,-0.22521235,-0.6210835,-0.75068957,0
7.7630949,-2.3708303,-5.0855713,0.81046259,-0.24751331,-0.5309307,0
-4.8943243,-7.9733129,1.2939762,-0.51820815,-0.84420955,0.13700542,0
7.1450291,-4.4496021,-4.6550064,0.74282652,-0.46259889,-0.48395357,0
8.7798519,3.9926171,1.1012875,0.90442055,0.41128314,0.11344463,0
1.1045623,3.3259373,9.1168633,0.11308839,0.3405194,0.93341172,0
4.2729564,1.7527541,-8.3734426,0.44683668,0.18329109,-0.87563765,0
8.0117693,5.1436462,-1.5798845,0.83015013,0.53296572,-0.16370183,0
-0.46356606,-8.6986561,4.4363275,-0.047420688,-0.88983274,0.453816,0
7.9152246,-1.0453613,5.3249583,0.82477677,-0.10892802,0.55486763,0
9.3103561,-0.49481186,2.0562332,0.97515684,-0.051826071,0.21536769,0
1.8263181,-7.5713391,-5.4214797,0.19245411,-0.79785407,-0.57130575,0
0.30180994,9.0575342,3.7583158,0.030762525,0.92320561,0.38307315,0
-0.72793037,-8.8638802,-4.2112079,-0.073974013,-0.90076858,-0.42795298,0
-5.0656834,-5.3781333,6.3951306,-0.51841152,-0.55038702,0.65446442,0
4.8863287,4.4327574,7.2607083,0.49807775,0.45184392,0.74010521,0
-3.777416,-8.0550489,-3.3542228,-0.39728501,-0.84717971,-0.3527762,0
-8.2433586,5.0949707,0.78181088,-0.84788239,0.52405047,0.080414273,0
9.4470806,0.22161874,-2.1013672,0.97588712,0.022893302,-0.21707205,0
-7.7363262,5.4856634,-0.21823384,-0.81552172,0.578269,-0.023005033,0
-2.3297706,0.54385406,-9.3595066,-0.24116625,0.056297064,-0.96884954,0
1.9944736,3.7672882,8.6289873,0.20723012,0.39142942,0.8965705,0
5.9294677,-7.5539823,1.1941952,0.61272836,-0.78059947,0.12340353,0
-5.8128095,7.6979179,-0.46446076,-0.60191166,0.79711312,-0.048094533,0
-4.3817863,5.1529336,6.6577735,-0.46167895,0.54292947,0.7014842,0
