8.0094347,-5.3488741,2.5995324,0.80287641,-0.53617829,0.2605806,0
-5.2890401,-6.7859902,-4.7173281,-0.53903389,-0.69159591,-0.4807677,0
0.98790383,1.6095613,-9.6066713,0.10090386,0.16439955,-0.98121923,0
-5.5688977,-3.9641371,7.0027671,-0.56906796,-0.40508258,0.71559054,0
-8.7531366,-3.712991,3.1763721,-0.87316376,-0.37038714,0.31685704,0
0.43827552,-9.279542,-3.253531,0.044525973,-0.94274181,-0.33053783,0
-1.2540026,6.3924174,-7.5515337,-0.12573947,0.64097095,-0.75719613,0
-3.4600432,-6.5363755,-6.5380235,-0.35051671,-0.66216195,-0.6623289,0
-9.3947487,0.42304504,2.3573608,-0.96900761,0.043634363,0.24314654,0
3.99031,7.0359945,-5.8838954,0.39893523,0.70343059,-0.58824831,0
7.4623485,2.2126963,-6.2405567,0.74800515,0.22179456,-0.62553614,0
8.1320381,-1.3554453,5.4753175,0.82168478,-0.13695814,0.55324197,0
-5.5267024,-4.5739441,-6.9435854,-0.55356002,-0.45813081,-0.69547647,0
0.91193634,9.8789692,-0.67482537,0.091708161,0.99347073,-0.067863278,0
-7.4719186,-6.3078055,-1.3389673,-0.75705695,-0.63910866,-0.13566455,0
-0.8882001,9.8794003,0.86029285,-0.089208215,0.99225807,0.0864053,0
8.6323643,-4.2194009,2.2209797,0.87533939,-0.42785585,0.22521187,0
2.8539314,-5.547358,7.5761242,0.2908003,-0.56524605,0.7719664,0
3.2967837,2.3384726,9.0584211,0.33236098,0.23575009,0.91321301,0
-1.2913516,-9.1541595,-3.5928757,-0.13019736,-0.92294574,-0.36224291,0
-1.306296,-6.2646737,7.6612372,-0.1308607,-0.6275757,0.76747912,0
3.2347302,-3.9587324,-8.3149109,0.33140087,-0.40557551,-0.8518697,0
2.1780026,-8.6584272,3.6529181,0.22578053,-0.89756751,0.37867624,0
6.5216799,-6.1123657,4.5051537,0.65155017,-0.61065751,0.45008856,0
6.9648919,3.0840044,6.0974689,0.71383214,0.31607977,0.6249299,0
0.20206611,-3.7959237,-8.9043121,0.020870784,-0.39206925,-0.91969895,0
-8.1633635,-4.6435876,-2.8732564,-0.83118504,-0.4728052,-0.29255193,0
5.7424073,-1.5106975,7.7821412,0.58663476,-0.15433033,0.79501057,0
4.8744593,-8.4096003,-1.1006615,0.49829432,-0.85967606,-0.11251574,0
1.7679287,6.6235695,-7.0200462,0.18017751,0.6750375,-0.71544427,0
-4.3999372,-1.8381972,8.5156221,-0.45082119,-0.18834321,0.8725177,0
-2.7103744,5.8887691,-7.7385807,-0.26848638,0.58333427,-0.76657432,0
-6.8882113,2.5521164,-6.6181345,-0.69666636,0.25811833,-0.66935104,0
4.019311,-5.4003563,6.9423027,0.41563553,-0.55844897,0.71790105,0
-2.0888982,6.5680757,-6.7645192,-0.21630436,0.68012094,-0.70046258,0
-6.8097963,-6.6874628,2.3850324,-0.69220167,-0.67976671,0.24243359,0
-9.7017765,1.7260888,-0.027512573,-0.98453546,0.17516333,-0.0027919735,0
5.231524,2.9518638,-7.8943624,0.52737969,0.2975716,-0.79581523,0
-8.3369656,-4.9509068,-1.5842485,-0.8485651,-0.50392032,-0.16125028,0
-0.37529621,4.35291,8.9613047,-0.037643921,0.43661672,0.89885968,0
-4.3229856,7.7246757,-3.9941807,-0.4451431,0.79541928,-0.41128564,0
1.7136186,-8.2664671,4.9293842,0.17528866,-0.84558952,0.50423425,0
-2.3971126,8.4807863,-4.4684339,-0.24259491,0.85828078,-0.45221877,0
-8.829443,3.1522815,-3.1991634,-0.89131474,0.31821656,-0.3229492,0
-3.9212434,-5.8872275,-6.8724103,-0.39759794,-0.59694064,-0.69683409,0
0.40127626,-9.7353973,-2.0234783,0.040322971,-0.97827899,-0.20333287,0
6.8781047,6.4919176,3.0913172,0.69124216,0.65243077,0.31067407,0
7.0932245,5.723115,-4.2222514,0.70616841,0.56976664,-0.42034769,0
-1.1348815,0.39836583,9.8949976,-0.11385442,0.039965153,0.99269331,0
-4.2981734,7.6918731,4.3015542,-0.43835509,0.78446621,0.4386999,0
5.1623316,-6.8723102,-4.8374,0.52340382,-0.69677693,-0.49045935,0
-6.2875862,-4.792388,-5.9009604,-0.63735044,-0.48578748,-0.59815955,0
-7.8927321,2.4613798,-5.5754204,-0.79149681,0.2468314,-0.55911279,0
-5.1793737,0.18490922,-8.3245993,-0.52818024,0.018856604,-0.84892291,0
-5.336957,7.1021214,-3.6648414,-0.55534792,0.73902571,-0.38135254,0
8.3038368,1.8881011,5.2709775,0.82913333,0.18852581,0.52630407,0
-9.5832758,1.2773139,-0.67400086,-0.98883408,0.13179748,-0.069545634,0
-4.3937073,8.3938265,-2.3990102,-0.44956502,0.85885805,-0.2454672,0
-6.356617,-6.3855042,-3.5708821,-0.65587068,-0.65885127,-0.36844078,0
5.6910791,-6.0547042,-5.1411233,0.58242595,-0.6196394,-0.52614343,0
-8.9499741,-1.1373785,3.6706865,-0.91887879,-0.11677273,0.37686321,0
-0.26316383,7.934814,5.4737921,-0.027289856,0.82283318,0.56762737,0
2.8535168,7.6666856,-5.5768824,0.28821602,0.77436429,-0.56328624,0
-9.8245716,-0.0017959237,1.3402016,-0.99082363,-0.00018112175,0.13516146,0
-0.36699584,-3.2574553,9.1524839,-0.037749726,-0.33506662,0.94143784,0
7.5236845,2.4060051,-5.4754615,0.782803,0.25033319,-0.56969529,0
-6.0443001,-1.6853126,-7.4022846,-0.62286669,-0.17367192,-0.76280737,0
4.1852627,7.7328296,4.1996045,0.42951247,0.79358143,0.43098429,0
-8.800148,-2.3270764,-3.5945117,-0.89919978,-0.23778084,-0.36728749,0
-3.2389736,-7.1630774,5.5922556,-0.33573246,-0.74248141,0.57965952,0
4.3562527,-4.3400617,7.68717,0.44252571,-0.44088098,0.78089374,0
2.346386,5.2711067,-7.7815261,0.24221458,0.54412991,-0.80327749,0
1.4373183,8.3074751,-5.2601151,0.14463951,0.83599377,-0.52933335,0
2.5185344,-3.6963317,-8.6025934,0.25975248,-0.38122624,-0.88724023,0
-0.52706522,0.95677662,-9.7513132,-0.053714722,0.097507842,-0.99378419,0
-9.5261536,1.5688106,1.386698,-0.976686,0.16084513,0.14217371,0
0.80800188,0.63039291,9.6548138,0.083221503,0.064928368,0.99441361,0
0.68363345,0.4397926,-9.6710377,0.070440345,0.04531543,-0.99648613,0
7.0509124,4.5245738,-5.4485474,0.7055366,0.45274317,-0.54519886,0
9.5025663,2.7854173,0.85311544,0.95608199,0.28024927,0.085834526,0
0.40270811,9.6987343,1.064551,0.041238725,0.99318445,0.10901376,0
8.2598686,-4.9172797,-1.610567,0.84744906,-0.50450492,-0.16524155,0
-4.5817742,-6.4607792,-5.776762,-0.46736911,-0.65903914,-0.58926523,0
-7.2335649,-4.9068928,-4.6685514,-0.72996545,-0.49517247,-0.47112057,0
-5.3047438,-3.3011105,7.7235746,-0.53398013,-0.33229268,0.77746177,0
9.7906179,-0.45549867,-0.83585292,0.99530673,-0.046305649,-0.084972173,0
7.2648153,-5.8812938,-2.5206776,0.75042307,-0.60751146,-0.26037475,0
-3.4455619,1.8684196,9.0784979,-0.34844205,0.18894914,0.91808838,0
-1.9509839,-9.4096184,1.2295138,-0.20137975,-0.97125691,0.1269099,0
0.94564098,-5.4446402,8.1176939,0.096296005,-0.55443567,0.82663667,0
-7.7805052,-3.1037176,4.9283152,-0.80055159,-0.31934765,0.50708413,0
-4.3366652,1.7031279,-8.4909658,-0.44776034,0.17584783,-0.87669158,0
-7.207243,1.1553057,-6.604538,-0.73216593,0.11736465,-0.67093861,0
8.310647,2.5316701,4.2692809,0.85853535,0.26153538,0.4410401,0
-2.5272081,9.5631981,-1.039295,-0.25409451,0.96151805,-0.10449442,0
3.3268743,9.3161201,-0.74062324,0.33536988,0.93912357,-0.074659482,0
8.0167837,-2.4648728,5.2863159,0.80862373,-0.24862273,0.53321141,0
3.8588009,9.0328035,0.89776617,0.39122176,0.91578436,0.091019385,0
5.1306081,-1.629866,8.280467,0.51947504,-0.16502424,0.83839881,0
5.4230103,-7.6712689,2.4791687,0.55814362,-0.78953743,0.25515941,0
5.6989613,-1.5978644,-7.9450746,0.57522571,-0.16128074,-0.80193758,0
-8.8509741,3.9712188,1.4020579,-0.902991,0.40515032,0.14304027,0
-3.3069022,-8.8109455,2.6142232,-0.33856449,-0.90207487,0.26764721,0
-0.19331314,5.0032549,8.64505,-0.019350013,0.50080943,0.86534125,0
8.1155252,-3.823529,3.903192,0.8295151,-0.39081573,0.39895838,0
-5.5862207,6.0565701,-5.4097214,-0.56674802,0.61446714,-0.54884136,0
-0.95680553,-9.8207769,-0.45025718,-0.096866749,-0.99425298,-0.045583922,0
2.1799369,-2.7702246,-9.0879135,0.22363745,-0.28419444,-0.93231958,0
0.70916164,-0.75988472,-9.881032,0.07137619,-0.076481402,-0.99451298,0
-1.3642792,-8.5030107,-4.8048964,-0.13834377,-0.8622418,-0.48723713,0
7.7910547,-2.5535564,-5.5565515,0.78662837,-0.25782129,-0.56102043,0
3.2440109,-8.3533888,-3.9658246,0.33103794,-0.85242891,-0.40469605,0
-6.6697316,5.9410176,4.1105738,-0.67833608,0.60422325,0.41806039,0
-5.644309,6.7370181,-4.6114821,-0.56867945,0.67877287,-0.46461934,0
1.1782647,3.3689139,-9.2768345,0.11854133,0.33893532,-0.93331176,0
-9.8961573,0.18427561,-1.3876069,-0.99014395,0.018437397,-0.13883476,0
4.1040297,-7.0399251,5.4856019,0.4177891,-0.71666247,0.55843282,0
4.9632087,7.9273429,3.0713496,0.50417298,0.80527586,0.31199405,0
-5.0423126,6.1625428,-5.9589629,-0.50699919,0.61963719,-0.59916747,0
-4.8137531,4.426414,-7.5740647,-0.48105836,0.44234994,-0.75690776,0
7.3189616,-2.5482874,-5.6615,0.76258409,-0.26551354,-0.58988827,0
0.73937237,5.8239217,7.8401208,0.075488523,0.59461141,0.80046153,0
-9.6440887,1.0253602,-0.063252941,-0.99437433,0.10572195,-0.0065218289,0
8.8879519,4.0485005,0.66700113,0.90792263,0.41356269,0.068135537,0
-1.9450926,-9.5100431,2.1155097,-0.19578634,-0.95724827,0.21293995,0
8.9631462,0.61765206,4.2068295,0.90349478,0.062259991,0.42405292,0
2.8097789,0.010071158,9.505826,0.283461,0.0010160161,0.95898324,0
-1.639719,0.67114836,-9.6033087,-0.16791143,0.068727307,-0.98340338,0
-2.898407,4.924334,-7.9266639,-0.29661903,0.50394964,-0.81120396,0
1.6568134,-5.7930164,-7.5946898,0.17090236,-0.59755683,-0.78340167,0
-7.1073227,-0.17555976,6.9767318,-0.71352172,-0.017624879,0.70041138,0
2.2531307,-7.2591543,5.9252863,0.23378846,-0.75322151,0.6148172,0
-6.6476474,-6.6702256,3.6583991,-0.65799904,-0.66023391,0.36211655,0
1.6574842,-6.0836034,-7.6349082,0.16738908,-0.61438221,-0.77104825,0
-9.9146414,-0.62095207,-0.26854396,-0.99768001,-0.062484507,-0.027022757,0
9.938158,-0.027533531,-0.44955081,0.99897468,-0.0027676458,-0.045188442,0
-0.90375489,-7.4772978,6.1588879,-0.09289033,-0.76853651,0.63302684,0
-1.137813,4.8644319,8.3622837,-0.11680781,0.49938229,0.85847151,0
7.8142853,5.2904863,2.5537353,0.79931813,0.5411604,0.26121992,0
-4.8874459,-5.5881791,-6.3000612,-0.50195509,-0.57392246,-0.64703482,0
-2.2012918,-6.7655072,6.6385717,-0.22621907,-0.69526756,0.68222284,0
-7.9148149,-6.1559548,-0.19111562,-0.78920949,-0.61382836,-0.0190567,0
-1.924036,-2.0409946,-9.4780521,-0.19465411,-0.20648678,-0.95889151,0
5.2279296,-8.1224785,-1.188642,0.53716993,-0.83458495,-0.12213301,0
6.2885604,3.5495884,6.8149037,0.63334179,0.35749084,0.68635154,0
3.4694304,-6.7472773,6.0438228,0.3576723,-0.69559377,0.62307286,0
-0.89492261,-5.6533093,8.2229309,-0.089323871,-0.56426722,0.82074589,0
4.9763041,8.5387106,0.34755009,0.50321186,0.86344808,0.035144821,0
-2.5658081,-5.3941107,-7.6877608,-0.26354966,-0.55406171,-0.78965634,0
7.9959126,-5.7523227,0.89985424,0.80839586,-0.58156633,0.09097629,0
-9.2121181,0.15541565,-3.3773127,-0.93877381,0.01583785,-0.34416977,0
-1.4452896,-9.2928991,3.0140042,-0.14634687,-0.94097865,0.30519149,0
2.6406248,-6.5050602,7.1066341,0.26433626,-0.65118051,0.71140027,0
7.2311091,2.1918802,-6.2753534,0.73620921,0.22315836,-0.63890243,0
-2.8454494,1.1542814,-9.2061377,-0.29320213,0.11894,-0.94862312,0
-4.4477801,-7.9230013,-3.7778258,-0.45200303,-0.8051703,-0.38391933,0
-9.8679562,1.4542414,0.74282283,-0.9865827,0.14539276,0.074266255,0
-6.1120267,-0.32950011,-7.7588382,-0.6184659,-0.033341572,-0.78510404,0
9.0159283,-3.3787928,-1.9247113,0.91823655,-0.34411663,-0.19602421,0
-1.9821637,3.4830563,8.8319807,-0.20437442,0.35912657,0.91063666,0
1.5119762,5.8022246,7.5549335,0.15676028,0.60156918,0.78328842,0
-9.6241093,-1.3239824,0.11391878,-0.99060148,-0.13627639,0.011725564,0
6.0564661,-6.6844268,3.3868122,0.62859142,-0.69376653,0.3515121,0
6.4348707,-3.0160336,6.8907766,0.65006381,-0.30468589,0.69612032,0
1.6593202,-1.0443461,9.7429075,0.16696349,-0.10508379,0.98034716,0
-0.37605125,-8.5235367,-4.8144331,-0.038386397,-0.87006187,-0.49144563,0
1.2169619,-9.9096422,-0.63952976,0.12164085,-0.99051362,-0.063923895,0
-8.539506,-4.1134062,-2.1161177,-0.8792817,-0.42354241,-0.21788891,0
-9.8338699,-1.3507568,-0.99448431,-0.98576289,-0.13540202,-0.099688701,0
-4.4283605,-4.0843377,7.8079948,-0.44903749,-0.41415346,0.79173374,0
-0.1095755,7.8230834,-6.2680025,-0.010930232,0.7803579,-0.62523752,0
-0.38146827,4.5805607,8.6034632,-0.039107651,0.46959335,0.88201624,0
0.60434437,-3.8098717,-9.1749125,0.060720686,-0.38279173,-0.92183697,0
5.3361797,6.0822606,5.1336899,0.55686969,0.63472873,0.53573841,0
0.40112767,-3.361407,9.087039,0.041365627,-0.34663954,0.93708587,0
5.0375147,-4.4477882,7.3404255,0.50618392,-0.4469265,0.73758698,0
4.1512308,8.1817894,3.2389603,0.42665964,0.84091669,0.33289731,0
-9.6465187,-0.43221843,-1.5122674,-0.98696738,-0.044221703,-0.1547251,0
-4.0179582,-9.1544657,-0.88055027,-0.40034997,-0.91215235,-0.087738164,0
-5.5150418,-7.2968607,3.7951248,-0.55692482,-0.73685807,0.38324267,0
7.7305427,-2.0409219,-5.7512059,0.78490543,-0.20722099,-0.58393741,0
4.1072454,-1.0464365,8.7142181,0.4238508,-0.10798794,0.89927137,0
3.227366,3.575587,8.668767,0.32543552,0.36054882,0.87412602,0
-5.5762305,6.203413,-5.3698115,-0.5621053,0.62532771,-0.5412975,0
-4.0442982,8.6392136,1.9314953,-0.41554245,0.88765955,0.19845675,0
-3.6976175,9.2332001,-0.4277041,-0.37142336,0.92746913,-0.042962607,0
3.2620451,2.5344291,9.1581278,0.32468918,0.25226557,0.91155851,0
-2.0440791,-9.3523369,1.3961596,-0.21128775,-0.96671122,0.14431508,0
9.2123756,-0.57300818,-3.4270942,0.93565875,-0.058197815,-0.34807426,0
-9.0070591,2.5045257,-2.4240158,-0.93260759,0.25932324,-0.25098708,0
-2.1623619,-7.1901512,-6.2224698,-0.22174489,-0.73733234,-0.63809901,0
2.1988788,-4.5700021,-8.4899273,0.22234862,-0.46211442,-0.85849369,0
-7.4647684,-5.0123429,3.8269517,-0.7638939,-0.51292926,0.39162436,0
1.1551168,6.4409432,-7.1552887,0.11912967,0.66426826,-0.73794019,0
9.5590191,0.018834949,2.798789,0.95970786,0.001890994,0.28099325,0
5.1472235,4.868515,-6.6451335,0.52989835,0.50120574,-0.68410575,0
0.40080905,-9.7392445,-0.88425756,0.040951055,-0.99506819,-0.090345465,0
-7.8147106,-2.0560894,-5.8160343,-0.78491867,-0.20651603,-0.58416933,0
-2.4131417,4.1472697,8.6613016,-0.24371284,0.41884938,0.87473953,0
-9.6034384,1.2360185,2.6452649,-0.95675695,0.1231402,0.26353848,0
7.1840258,3.2177908,-5.9842386,0.72652876,0.32541889,-0.60519296,0
-7.6581202,5.9996586,-1.3701385,-0.77949536,0.61068588,-0.13946198,0
-8.9203148,0.39595795,-3.960283,-0.9132238,0.040536486,-0.4054369,0
7.4708838,5.8982825,2.8884487,0.75105321,0.59295851,0.2903778,0
-6.9877667,-5.5175734,-4.3011889,-0.70669097,-0.55800653,-0.43499041,0
9.4101353,-2.7055838,-0.58812398,0.95933563,-0.27582633,-0.059957512,0
8.1150579,-0.69320095,5.2256179,0.83860373,-0.071634844,0.54001123,0
-0.14119944,9.4614859,3.2867632,-0.014095828,0.94453257,0.32811496,0
-4.566309,-5.0226488,6.903832,-0.47162881,-0.51876163,0.71305865,0
-1.109341,-4.7000637,-8.4467125,-0.11401527,-0.48306069,-0.86813182,0
3.5759075,3.835237,-8.2543068,0.36567038,0.39218929,-0.84408098,0
-6.8463979,-1.6246668,-6.8809791,-0.69564652,-0.16507861,-0.69916022,0
-4.7103858,5.8478098,-6.7142696,-0.46762329,0.58054096,-0.66655874,0
6.9169264,-2.3849273,-6.5744119,0.70319742,-0.24245952,-0.66837627,0
4.303617,6.0364475,-6.5171461,0.43599403,0.61154491,-0.66024387,0
-7.9503469,0.52469826,5.6721654,-0.81288326,0.053647775,0.57995057,0
4.311388,-8.7620106,-1.7130682,0.43486083,-0.88376534,-0.17278571,0
-5.6452961,-1.5995576,8.1022387,-0.56432021,-0.15989643,0.80992335,0
-7.5959787,-5.7211161,2.2871764,-0.77663285,-0.58494198,0.23384693,0
2.2282543,9.4872704,-0.13928549,0.22862272,0.97341025,-0.014290931,0
4.9150968,3.1993122,-7.739068,0.50618148,0.32948133,-0.79700834,0
-9.2032871,-3.1369455,1.891486,-0.92911017,-0.3166877,0.1909534,0
2.843298,7.022511,6.0748663,0.29279071,0.72314829,0.62556386,0
8.9891214,4.32865,1.1015006,0.89553863,0.4312405,0.10973668,0
4.9848762,2.5614092,-8.0155602,0.50967276,0.26188827,-0.81954145,0
6.6955099,4.3852243,-5.5166631,0.68878305,0.45111847,-0.56751227,0
3.1318018,1.5051469,-9.2918673,0.31569612,0.15172385,-0.93665135,0
0.0089196684,-6.2471833,7.6279511,0.00090466236,-0.63361007,0.77365208,0
-7.2419276,5.7784586,-2.6193268,-0.75217932,0.60017681,-0.27205512,0
7.6566291,-5.2608552,-3.571403,0.76930463,-0.5285877,-0.35883895,0
-7.3998437,-4.3799658,-4.7812252,-0.75210869,-0.44517297,-0.48595634,0
-4.7611103,-8.2224236,-2.1517024,-0.48872083,-0.84401947,-0.22086903,0
2.4247282,8.6956749,3.6216514,0.24928351,0.8939923,0.37233779,0
8.5479403,2.3136091,-4.7151718,0.85201705,0.2306093,-0.46998537,0
5.1793427,-4.7486882,-6.8770142,0.52678227,-0.48298112,-0.6994496,0
9.0747252,-0.78154242,3.9459362,0.91420829,-0.078734346,0.39752254,0
-8.4778357,1.7788835,-4.5308518,-0.86722463,0.18196762,-0.46347517,0
-0.98938781,-6.1035337,7.3751273,-0.10280249,-0.63418853,0.76631367,0
-1.23599,3.6689889,8.8402176,-0.1280708,0.38017324,0.91600555,0
-1.2280573,7.1657982,-6.7411523,-0.12386312,0.72274983,-0.6799196,0
7.6859574,3.2275882,-4.9091773,0.79447502,0.33362639,-0.50744736,0
-5.1420321,-2.7473948,7.8422637,-0.52620667,-0.28115296,0.80253321,0
0.1454301,-9.8036537,1.8526713,0.014574734,-0.98250383,0.18567125,0
-4.7661052,0.59940547,-8.7725916,-0.47653094,0.059930541,-0.87711269,0
-8.2389498,-5.1931086,1.2244855,-0.83936417,-0.52906126,0.1247476,0
-6.464685,-5.6458864,5.1819286,-0.64479238,-0.56312484,0.51684934,0
-5.2627101,8.0713463,1.9315294,-0.53552574,0.82132846,0.19654962,0
5.4991026,0.14066258,8.0324545,0.56484973,0.014448397,0.82506728,0
-2.5743401,9.3348856,1.1936524,-0.26385504,0.95677209,0.1223425,0
5.399631,8.2874107,-0.75309187,0.54432333,0.83543324,-0.075917311,0
-3.5780027,-9.1089716,1.2474213,-0.36267188,-0.92329949,0.12644055,0
3.6283212,-3.3867731,8.7050781,0.3620846,-0.33797956,0.86871433,0
-7.6768599,-0.19911617,6.1316123,-0.7811985,-0.020262094,0.62395388,0
-8.938468,-2.6545932,3.6478055,-0.89273351,-0.2651287,0.36432621,0
-9.1470175,-1.507895,-2.893801,-0.94186223,-0.15526694,-0.29797274,0
-9.678834,0.096193209,-2.2479527,-0.97402763,0.0096803857,-0.22622229,0
9.4472876,1.8819842,-0.89438432,0.97652954,0.19453342,-0.092449047,0
-7.786921,4.1468272,-4.6693158,-0.78011781,0.41544196,-0.46778646,0
6.2251329,-4.1414399,6.0119205,0.64884931,-0.43166474,0.62662601,0
9.0688372,-1.1417235,3.939105,0.9111585,-0.11471052,0.39576727,0
3.7360899,6.6732569,-6.1651487,0.38032439,0.67932045,-0.62759632,0
1.2197524,8.9678802,3.6850688,0.1248222,0.91771942,0.37710798,0
4.3117547,-5.7558165,6.829587,0.43474656,-0.58034873,0.68861508,0
-4.3462701,7.2687988,-5.262886,-0.43588531,0.7289843,-0.5278123,0
-2.0483949,2.6601665,9.3172855,-0.20683028,0.26860201,0.9407838,0
-0.04988816,-5.3841023,-8.4645309,-0.0049729445,-0.53669733,-0.84376019,0
-6.7051873,-6.6085253,3.0433609,-0.67769217,-0.66792256,0.307592,0
-7.1489954,6.3842549,2.7226634,-0.71748805,0.64073712,0.27325216,0
5.0906343,-5.5136447,6.5924916,0.50963509,-0.55198365,0.65998948,0
3.8204548,-1.9983739,-8.9923916,0.38309568,-0.20038672,-0.90171105,0
-5.3831563,4.0022154,-7.2021294,-0.54695249,0.40664276,-0.73176819,0
1.9850436,2.0191579,-9.4703903,0.20082147,0.20427272,-0.95809364,0
5.8833733,-7.1373305,-3.546849,0.59389943,-0.72048062,-0.35803807,0
-4.2982044,7.1116662,-5.1835952,-0.4388665,0.72613394,-0.52926898,0
4.2373905,7.5856676,4.5084739,0.43287346,0.77491891,0.46056613,0
-1.083681,9.4546747,2.2212036,-0.11089247,0.96749163,0.22729453,0
-4.2615075,7.9780707,3.6263454,-0.43731251,0.81870329,0.37213269,0
-9.5876999,0.75575709,-2.1273613,-0.97337902,0.076727271,-0.21597764,0
8.1238937,-2.5859907,-4.77141,0.83152097,-0.26468903,-0.48837757,0
6.5327358,3.0596864,-6.6574774,0.66549683,0.31169355,-0.67820436,0
-2.9015067,0.61603123,-9.5604496,-0.28986034,0.061541479,-0.95508832,0
8.574379,-4.9120264,1.8513795,0.85286349,-0.4885821,0.18415025,0
1.6015719,-6.9699955,-6.7050261,0.16337192,-0.71098995,-0.68396115,0
-1.4237045,8.5998201,-4.1758537,-0.14729778,0.88974535,-0.43203771,0
-0.17330299,-7.8398108,6.1437054,-0.017396728,-0.78698611,0.61672544,0
-9.6540527,1.0640241,-2.2299485,-0.96877497,0.1067738,-0.22377321,0
0.15244997,-8.419591,-5.2653856,0.015349963,-0.84775627,-0.53016394,0
4.3190026,8.4495087,3.0653882,0.43310469,0.84730715,0.30739367,0
-2.6853056,9.4699869,1.482228,-0.26976278,0.95134425,0.14890297,0
-6.1527157,0.70270115,-7.8219361,-0.61671519,0.070434988,-0.78402889,0
6.0812554,-6.4663658,4.502708,0.61097342,-0.64966476,0.45237941,0
-8.4781218,4.4509234,-1.7162118,-0.87151438,0.45753577,-0.17641918,0
1.9565049,8.5850964,4.6323094,0.19664599,0.86287785,0.46558794,0
-3.5634024,-0.96175569,9.1128073,-0.36243311,-0.097820021,0.92686218,0
6.3540406,0.10090367,-7.6458912,0.63910991,0.010149216,-0.76904839,0
-2.8718913,3.7378037,8.8291731,-0.28694069,0.37345704,0.88215357,0
5.4574456,-8.2875395,-0.049232248,0.54996955,-0.83516991,-0.0049613388,0
5.303678,5.7271662,6.1191916,0.53473318,0.57743055,0.61695576,0
7.5624347,-5.9649472,1.85748,0.77094984,-0.60809451,0.18936019,0
-6.968823,-0.26818633,-6.9817605,-0.70618981,-0.02717682,-0.70750082,0
-0.38102469,-9.9227705,0.63665318,-0.038292121,-0.99721605,0.063982211,0
1.3487935,6.0912557,-7.5433474,0.13778649,0.62225443,-0.7705934,0
-1.4124376,5.3711724,-8.0985842,-0.1438334,0.546965,-0.82470679,0
-0.037437141,-2.1652708,9.6852322,-0.0037722359,-0.21817672,0.97590202,0
-7.0741959,-5.2638526,-4.0180316,-0.73004782,-0.54322273,-0.41465566,0
2.7394421,-1.6954422,-9.4132032,0.27534172,-0.17040914,-0.94612241,0
-9.1122065,-1.6516899,-3.2037518,-0.92989242,-0.16855346,-0.32693997,0
8.0867348,5.6410379,-0.74767613,0.81782037,0.5704844,-0.075613312,0
-8.6877422,-4.177032,-2.3162067,-0.87630212,-0.42132258,-0.23362765,0
5.2124381,-5.1233377,-6.8326387,0.52097541,-0.51206994,-0.68291205,0
-2.6282957,-3.8951664,8.7536888,-0.26454499,-0.39205891,0.88108218,0
-4.5370688,7.8604059,4.3877792,-0.45006797,0.77973622,0.43525875,0
-1.7114435,-9.2995548,-2.6036584,-0.17450106,-0.94819498,-0.26547247,0
7.7339573,-3.4839718,-5.0662336,0.78277123,-0.35262063,-0.51276487,0
4.5830898,7.2349367,-4.9372926,0.46361083,0.73186326,-0.49944085,0
-4.7792635,-1.9865746,8.139348,-0.49548844,-0.20595741,0.843844,0
5.907578,3.0841997,7.165308,0.60371554,0.31518486,0.73224723,0
-4.2743349,8.1720295,3.165705,-0.43836752,0.83810753,0.32466856,0
-2.7468753,-2.5784774,9.1946297,-0.27644145,-0.25949416,0.92533392,0
-0.86032897,1.6049885,-9.6377001,-0.087714985,0.16363688,-0.98261338,0
-0.46362612,-6.0439363,-7.6258545,-0.047592651,-0.62042868,-0.78281748,0
-7.5890913,-5.9800973,1.2318622,-0.77914387,-0.61395442,0.12647071,0
-9.8260584,-0.53001338,-1.4998302,-0.98714817,-0.053246349,-0.15067635,0
-0.54411429,9.3025942,-3.2577081,-0.055119585,0.9423666,-0.33001065,0
7.2544284,5.9170995,-3.1092734,0.7354151,0.59984386,-0.31520149,0
9.6351261,-2.7099121,0.46954635,0.9615925,-0.27045116,0.046861064,0
8.9970922,-0.90987211,4.0552731,0.90782154,-0.091807604,0.40918377,0
5.2023201,-2.8306973,7.6305304,0.53858173,-0.29305422,0.7899676,0
-4.3986721,-8.0980654,3.1155262,-0.45216733,-0.8324514,0.32026467,0
-4.7765732,4.3470078,-7.4233322,-0.4854432,0.44178647,-0.75443333,0
-1.5065662,-9.6108255,-1.7424328,-0.15244009,-0.97245985,-0.17630598,0
-4.8646374,-8.3199215,-2.0519631,-0.49368399,-0.84434086,-0.20824189,0
3.9197671,-3.5374537,-8.5836668,0.38895941,-0.35102236,-0.85175925,0
-1.5188642,-5.2627964,8.0181398,-0.156414,-0.54196757,0.8257153,0
-6.375432,4.4936657,-6.1741447,-0.64088702,0.45172343,-0.62065268,0
8.5075874,0.78091508,-4.7611704,0.86985457,0.079844326,-0.4868038,0
-6.9666352,2.1099467,6.8216238,-0.69834,0.21150242,0.68380398,0
-5.8138666,-6.7362752,4.5308905,-0.58223903,-0.67461514,0.45375332,0
0.11104407,-6.2687507,7.5586925,0.011307306,-0.63832927,0.76968044,0
4.5531325,4.4392424,7.6567087,0.4574613,0.44601858,0.76928312,0
7.9161158,-5.5507884,2.2657287,0.79717267,-0.55897832,0.22816455,0
7.81391,-5.792244,1.6362824,0.79222065,-0.58725214,0.16589604,0
-0.29738334,6.0503359,-7.7464557,-0.030241102,0.61526251,-0.78774202,0
2.2234457,-8.0128727,5.5241618,0.22271658,-0.80262792,0.55334044,0
1.2890078,-9.3588247,-2.8212531,0.13073841,-0.94922453,-0.28614733,0
-7.1588984,-4.3308215,-5.460629,-0.71651953,-0.4334631,-0.54654318,0
5.15626,3.4028561,-7.4492879,0.53279674,0.3516174,-0.76973552,0
-4.2177625,8.7802849,-1.4212921,-0.42846319,0.89194894,-0.14438255,0
2.097017,7.35077,6.2542472,0.2123221,0.7442624,0.63323992,0
-7.2946401,5.497108,-3.6331763,-0.74207532,0.55921447,-0.36959884,0
4.4840708,1.5886223,-8.6672544,0.45353401,0.16067861,-0.87663525,0
0.46563777,-0.24106435,-9.8624887,0.047146425,-0.024408078,-0.99858975,0
-5.5343451,-1.7095948,-7.7851944,-0.57033604,-0.17618048,-0.80229497,0
8.8048086,-0.44147193,-4.9279962,0.87178594,-0.04371123,-0.4879331,0
7.1640778,-6.5073075,2.9475491,0.70811087,-0.6431945,0.29134127,0
5.9506741,1.0804752,7.8107481,0.60238338,0.10937589,0.79067761,0
-4.9427047,-0.50923932,-8.5429468,-0.50012726,-0.051527351,-0.86441755,0
-6.9257388,-6.5281496,-3.0139723,-0.69373119,-0.65390587,-0.30190086,0
1.3083848,9.5600634,-2.4531958,0.13141479,0.96021724,-0.24640013,0
0.32784206,-9.3847904,-2.8439145,0.033413351,-0.95648891,-0.28984907,0
-9.7384624,0.67105871,-1.3977617,-0.9875614,0.068050958,-0.1417447,0
7.4984984,-5.060236,3.9090726,0.7609089,-0.51348662,0.39667249,0
-8.7407007,4.2167454,0.41191143,-0.89985847,0.43411556,0.04240644,0
-7.0514588,-2.3494475,-6.297008,-0.72386348,-0.24118119,-0.64641577,0
5.4549446,8.0417814,0.24318717,0.56118631,0.82731134,0.025018277,0
1.4835639,6.8911676,-6.827805,0.15117325,0.70220107,-0.69574451,0
-6.6135011,6.6407638,2.703023,-0.67801553,0.68081051,0.27711368,0
-5.3991375,2.9736118,-7.377306,-0.56162554,0.30931908,-0.76739728,0
9.373188,-2.4526048,1.0306087,0.96200264,-0.2517193,0.10577492,0
5.5684748,1.6210238,-8.0942888,0.55922043,0.16279316,-0.81287813,0
-8.6506681,1.0621399,-4.4023037,-0.88594437,0.10877736,-0.4508549,0
-9.8146276,-0.46445704,-1.5671778,-0.98641378,-0.04668,-0.15750834,0
5.6423788,-7.4108653,-3.0943851,0.57487792,-0.75506145,-0.3152737,0
5.3557453,3.3427229,7.6040096,0.54190087,0.33822078,0.76938295,0
6.6928601,-6.26369,3.0628238,0.69249594,-0.6480906,0.31690383,0
-8.3947058,2.865042,4.4809604,-0.84473038,0.28829932,0.45090365,0
-0.83705395,3.9044769,-8.9400291,-0.085489489,0.39876968,-0.91305768,0
4.5192428,-8.8279047,-0.4775728,0.4551594,-0.88910997,-0.048099153,0
2.7568512,-8.4963722,-4.366456,0.2772778,-0.85454571,-0.43916818,0
6.0662475,-7.7882776,-1.2388545,0.6097073,-0.78278536,-0.12451497,0
2.6329453,-6.6724997,-6.9276671,0.2640253,-0.66910189,-0.69468945,0
-2.5683615,-7.7393475,-5.2099643,-0.26541826,-0.79979551,-0.53840536,0
-9.9099445,1.6118172,0.37877986,-0.98632812,0.16042277,0.037699629,0
1.222752,5.9892454,-7.719974,0.12417458,0.60822803,-0.78398937,0
-5.1751108,-6.9645138,-4.6472187,-0.52577043,-0.70756656,-0.4721387,0
3.6660471,0.96322066,-8.9738636,0.37633073,0.098877497,-0.92119408,0
2.6073027,-8.8501339,-3.4641538,0.26456344,-0.89802462,-0.35150826,0
6.1173077,5.1256356,5.6780066,0.62456191,0.52331465,0.57971036,0
-2.517153,-3.5474381,-8.7956753,-0.25652632,-0.36152402,-0.89637864,0
-6.4375277,-4.4299893,6.1940808,-0.64558494,-0.44425976,0.621171,0
8.4239635,-5.2883649,1.0426573,0.84232438,-0.52879131,0.10425682,0
-7.6510644,4.8546991,3.4296503,-0.78969586,0.50107223,0.35398743,0
-0.40670761,-4.3511581,8.8247471,-0.041300405,-0.44185203,0.8961367,0
-6.866704,6.5630684,2.6153996,-0.69697183,0.66615272,0.26546356,0
-9.5110941,2.6886501,0.25221804,-0.96197689,0.2719371,0.025509991,0
9.0051432,2.7026842,-2.6712821,0.92132795,0.27651516,-0.27330235,0
9.533988,2.8313787,1.0575912,0.9532457,0.28309241,0.10574214,0
-7.004746,-6.7342587,-0.35025278,-0.72042036,-0.69260144,-0.036022611,0
6.3108582,-7.2453356,-2.1322606,0.64120579,-0.73615205,-0.21664532,0
1.5771029,-7.697052,6.0000653,0.15952921,-0.77858239,0.60692656,0
2.1389351,-9.6695309,0.13575432,0.21596229,-0.97630548,0.013706733,0
4.4281735,-4.8916101,-7.5697818,0.44097319,-0.48712385,-0.75382566,0
-1.4163713,9.558569,-0.056013443,-0.14657527,0.98918253,-0.0057966332,0
3.8582945,1.9012865,9.0582533,0.38476649,0.18960485,0.90332979,0
9.1243467,-0.043026209,3.2888186,0.94074488,-0.0044361185,0.33908612,0
-3.7007844,5.1348915,7.3317814,-0.38207698,0.5301373,0.75694895,0
5.7825308,3.9660819,-6.878581,0.58869994,0.40377343,-0.70028514,0
-6.3737688,1.178741,-7.661221,-0.63513035,0.11745863,-0.76342183,0
-0.66215694,-9.3020248,-2.8188903,-0.067967258,-0.95480865,-0.28934568,0
-1.9558845,-2.0125182,9.6153564,-0.19526574,-0.20091978,0.9599492,0
6.738574,5.4659638,-4.4736342,0.6902793,0.55991697,-0.45826569,0
6.293859,1.9564385,-7.3693805,0.63659453,0.19788465,-0.74537849,0
0.94856501,-8.2073402,5.3175712,0.096542984,-0.83532614,0.54121143,0
-2.8635685,8.2777309,4.2530942,-0.29409069,0.85012937,0.43679604,0
-7.7810478,-1.3881557,-5.8530092,-0.79114997,-0.14114286,-0.59511369,0
-7.0178204,-6.8319812,-0.39264891,-0.71595526,-0.69699603,-0.040057886,0
5.6554446,-3.4396441,7.4790888,0.56624711,-0.34439176,0.74883813,0
7.2426429,6.7932978,-0.17948303,0.72925121,0.68400729,-0.018071886,0
-4.2975736,7.4741464,4.7889757,-0.43575475,0.75784504,0.48558074,0
-9.2029886,-1.5564359,2.5414128,-0.95136249,-0.16089717,0.26271951,0
-0.65873212,0.79058266,9.7967787,-0.066871762,0.080256686,0.99452853,0
-9.5743551,-2.2333059,-0.31139174,-0.97336912,-0.22704725,-0.03165739,0
3.1495895,-0.31010666,9.3434572,0.31927228,-0.031435352,0.94714147,0
-3.0568376,0.93765372,-9.3099422,-0.3105374,0.095254175,-0.94577646,0
-5.0066776,-3.325254,7.5080948,-0.5205819,-0.34575164,0.78067303,0
-4.5794597,-7.4345279,4.4495831,-0.46728584,-0.75861561,0.45403329,0
3.7291987,-8.9791832,0.26776814,0.38340694,-0.92316914,0.027529819,0
3.6784651,5.2778268,7.3834529,0.37562367,0.53894126,0.75395566,0
-0.45337987,4.9699302,-8.5006247,-0.045994323,0.50418776,-0.8623684,0
1.4529614,-2.6839418,-9.4640036,0.14611523,-0.26990721,-0.9517355,0
5.4017892,-8.3523149,-0.010281787,0.54306316,-0.83969116,-0.0010336686,0
9.557745,-1.1724597,2.2387519,0.96677542,-0.11859547,0.22645198,0
1.995677,-8.6548367,-4.1958833,0.20316051,-0.88106489,-0.42714214,0
-9.0542336,-3.3707314,0.6558364,-0.93501198,-0.34808847,0.067726873,0
1.6777985,-8.8057613,-3.9366057,0.17137058,-0.89942169,-0.40208545,0
2.3182917,-1.8441013,9.4680119,0.23368447,-0.18588594,0.95437831,0
1.1380284,-2.0394232,-9.5835533,0.11537169,-0.20675382,-0.97156692,0
0.65385008,9.6619902,-1.1526982,0.067044698,0.99072438,-0.11819575,0
-2.6569948,1.4116944,9.534133,-0.26576301,0.14120319,0.9536413,0
4.2724242,-2.1029584,8.4325762,0.4411732,-0.2171528,0.87075305,0
-1.0985478,-9.0800428,3.0653663,-0.11388322,-0.94130129,0.31777748,0
-9.5554485,-2.7214451,-1.2878886,-0.95377481,-0.27164039,-0.12855029,0
2.1090956,-4.3417201,-8.4382391,0.21695726,-0.4466216,-0.86802,0
1.3660282,8.2692451,-5.1682768,0.13872951,0.83979851,-0.52487391,0
8.7908258,-4.0913644,-1.8897985,0.88987446,-0.41415912,-0.19129983,0
-1.5991735,7.1826019,6.3776059,-0.16422655,0.73761469,0.65494591,0
7.2472444,-2.8895905,-5.7502689,0.74774325,-0.29813704,-0.59329098,0
4.5893979,2.7920465,-8.2319689,0.46688998,0.28404129,-0.83745706,0
-6.0443063,7.1312551,3.283983,-0.61002898,0.71973062,0.33144,0
3.0798745,-6.301816,7.1907091,0.30660349,-0.62734985,0.71583974,0
-7.8836107,0.12841022,5.7606621,-0.80734271,0.013150199,0.58993632,0
-6.5507751,-4.4399166,5.4880009,-0.68022186,-0.46103373,0.56986511,0
-0.65720898,-8.7506294,-4.2619543,-0.067368075,-0.89699483,-0.43687725,0
2.3706341,-1.4820803,-9.4963665,0.23947334,-0.14971468,-0.95929044,0
-5.6908107,-7.3740721,3.2502396,-0.57684475,-0.74746734,0.32945812,0
-9.0404043,1.9444498,3.7958229,-0.90441108,0.19452469,0.37973791,0
-8.2798691,5.0162425,-1.9712059,-0.83808565,0.5077424,-0.19952482,0
4.1100535,3.9737105,-7.7833066,0.42559186,0.41147366,-0.80595344,0
3.8902891,9.2600622,-0.45100123,0.38693258,0.92101634,-0.044857096,0
-9.0496159,-0.26534924,-3.5242567,-0.93148434,-0.027312614,-0.36275461,0
7.3145981,4.6457434,5.0580931,0.72901958,0.46302447,0.50412184,0
-0.18530092,3.1282573,-9.2232914,-0.019022547,0.32113937,-0.94684094,0
3.301285,9.2401247,-0.033355162,0.33644655,0.94169641,-0.0033993518,0
5.597105,-4.5870786,6.4200468,0.57857317,-0.47416666,0.66364074,0
6.8136659,4.9223275,5.0159435,0.69608772,0.50286758,0.51243144,0
6.36905,-3.9770775,6.3617487,0.64716697,-0.40411571,0.64642507,0
7.3386631,5.4044271,-3.0759592,0.76293337,0.56184864,-0.31977922,0
5.0295477,-6.3108296,-5.5446215,0.51368541,-0.64454722,-0.56629169,0
-4.8915739,-1.9530231,-8.4990854,-0.48921546,-0.19532549,-0.85000944,0
-8.7239494,1.0816826,-4.072093,-0.90048099,0.11165064,-0.42031905,0
-7.8241558,-3.0347569,-5.4102807,-0.78359854,-0.30393454,-0.5418461,0
-8.6788759,-0.62901461,4.3623438,-0.8916145,-0.064621106,0.44816044,0
-4.3349242,-8.5109043,-2.9136784,-0.43410805,-0.85229909,-0.29178163,0
0.57772315,-7.0300202,-7.1364164,0.057575919,-0.70061219,-0.71121562,0
-9.7280359,-0.040483642,-2.2901895,-0.97338152,-0.0040507694,-0.22915502,0
-5.530333,1.8277702,-7.9995141,-0.55888319,0.1847104,-0.80841309,0
3.0265186,9.4409695,1.5941348,0.30139914,0.94018924,0.15875365,0
1.2026265,9.4350843,2.7478907,0.12147244,0.95299977,0.27755335,0
-0.17962417,-6.8040528,7.4630637,-0.017783288,-0.67361999,0.73886389,0
8.9549942,-1.8855293,-3.2953489,0.92067194,-0.19385315,-0.33879814,0
4.5575824,8.5024357,1.3766263,0.46770132,0.87252408,0.14127006,0
-6.6799288,-5.368094,-5.0238962,-0.67245454,-0.54039484,-0.50574517,0
-8.7999716,4.3419099,-1.6316047,-0.88463676,0.43648016,-0.1640207,0
2.2444365,-8.6088591,-4.2348256,0.22778976,-0.87372035,-0.42979604,0
3.1971171,-8.7844296,-3.0344348,0.32529694,-0.89378899,-0.30874452,0
-2.7450516,6.3794236,7.1617932,-0.27516133,0.6394673,0.71789128,0
0.35897776,-6.1833129,-7.7953258,0.036055081,-0.62104082,-0.78294849,0
-8.0905685,5.3415399,2.0718281,-0.81609821,0.5388028,0.20898595,0
5.8074126,-7.2807722,3.0532181,0.59253818,-0.74286705,0.31152397,0
8.1143045,3.7177861,3.8386137,0.83515674,0.38264945,0.39508551,0
-6.5272331,-7.0273399,-0.70439214,-0.67872643,-0.73072946,-0.073245369,0
2.0826139,-9.4728823,1.8439504,0.2109438,-0.95948929,0.18677004,0
5.6838045,-3.5565357,7.1368809,0.58043456,-0.36319622,0.72882384,0
8.3088999,4.8947353,0.049959246,0.86159855,0.50756383,0.005180567,0
3.9617932,-6.9223013,-5.6805449,0.40459621,-0.70693666,-0.58012289,0
1.4762762,-9.0832405,3.8690956,0.14788327,-0.90989703,0.38757956,0
5.1223707,-5.6598778,-6.4757738,0.51170379,-0.56539851,-0.64690322,0
4.0810804,-8.9958563,-1.3781773,0.40917322,-0.90193361,-0.13817744,0
3.3002908,7.4110231,5.5725422,0.33532128,0.75298631,0.56619006,0
-2.5705192,-4.4250073,-8.2795944,-0.26409143,-0.45461887,-0.85063356,0
-2.0280027,5.8926773,-7.718143,-0.20443599,0.59402055,-0.77803952,0
5.5873456,1.6378862,-7.7807989,0.57494074,0.16853933,-0.80064821,0
8.0707655,3.8425817,4.1766267,0.81800067,0.38945928,0.42331591,0
0.73374033,0.1486017,9.8512058,0.07426814,0.01504125,0.99712485,0
-9.7227755,-2.1679819,0.30370018,-0.97557694,-0.21753389,0.030473078,0
-6.4059987,4.8765831,5.3834052,-0.66143608,0.50351995,0.55585063,0
-5.3415623,-8.1240854,1.2064321,-0.54520351,-0.82921052,0.12313832,0
3.1466584,-9.3126097,-1.6605847,0.31564,-0.93414402,-0.16657256,0
-7.2962441,-5.9993696,1.9619346,-0.75627309,-0.62184894,0.20335919,0
6.9434919,3.3335538,6.2511792,0.69996482,0.3360514,0.63017362,0
-8.2223206,2.3693848,-4.4145241,-0.85395402,0.24607964,-0.45848376,0
-7.751596,6.1156697,-1.1028215,-0.7802285,0.61556613,-0.1110033,0
-8.0571909,-1.4681147,-5.3584347,-0.82324952,-0.15000573,-0.5475021,0
-4.9263558,6.8408041,-5.2125344,-0.49703875,0.69019467,-0.5259124,0
1.3210202,5.4262171,8.1476154,0.13373516,0.54932994,0.82483417,0
9.0911398,-1.4319843,-3.3360348,0.92869037,-0.14628199,-0.34078711,0
8.8235636,4.6880398,0.13512412,0.88301337,0.46915305,0.013522473,0
-6.6508346,3.0797396,6.5342765,-0.6773349,0.31364712,0.6654644,0
0.033795621,5.8089027,7.6343966,0.0035228913,0.60552615,0.79581755,0
6.4889727,7.3954263,0.46396637,0.65880662,0.75083619,0.047105163,0
-6.1496191,0.62949699,7.6720405,-0.62416023,0.063891277,0.77867955,0
1.2136867,-6.9306359,-6.857368,0.12353069,-0.70540965,-0.69795233,0
-6.3339577,0.30188611,7.4488773,-0.64748305,0.030860035,0.7614547,0
6.9243636,-1.3105377,-6.9013495,0.70200336,-0.13286446,-0.69967014,0
-4.3362598,8.0500879,-3.0128336,-0.45041451,0.83617598,-0.31294802,0
-5.5937386,-4.9641285,6.2185531,-0.57510877,-0.51037669,0.63934779,0
-5.6113305,-1.275812,8.1496763,-0.56245089,-0.12788083,0.8168816,0
-7.1862345,6.6196861,-0.11296968,-0.73545587,0.67747396,-0.011561578,0
1.0554143,-8.4325829,4.9536853,0.10729316,-0.85725427,0.5035904,0
5.240088,4.6266422,-6.8779354,0.53434044,0.47178635,-0.70135444,0
6.2437525,1.5528159,7.5246015,0.63066494,0.15684584,0.76004016,0
9.1874075,3.2326732,-0.48444745,0.94214553,0.3315025,-0.049678866,0
1.80239,1.4163882,9.5121212,0.18420988,0.14475928,0.97216845,0
-1.7939043,6.6167059,-7.0827785,-0.181989,0.67125523,-0.71853763,0
-8.0972385,-3.2881496,4.5644598,-0.82125521,-0.33349764,0.46294627,0
7.0992703,5.9012437,-3.0506561,0.73017508,0.60695547,-0.31376648,0
7.3134127,6.4942026,-1.3860184,0.74034786,0.65741801,-0.14030875,0
-5.9502792,6.8706489,-3.3218031,-0.6148833,0.70999146,-0.34326479,0
-9.2343988,-1.8197253,-2.5774021,-0.9462918,-0.18647572,-0.2641184,0
-6.5690799,6.8055029,3.1555123,-0.65880495,0.68251556,0.31646246,0
-9.385128,-1.4731333,-3.073251,-0.93994433,-0.14753804,-0.30779389,0
-4.1381087,-7.8827024,3.8376453,-0.4268395,-0.81308854,0.39584717,0
-3.3203778,-9.0753136,-0.017752081,-0.34359384,-0.93911654,-0.0018369914,0
4.7979326,-7.9444442,-2.7200389,0.49610296,-0.82145011,-0.28125018,0
-2.1960847,9.2726192,-1.5142092,-0.2276046,0.96102428,-0.15693428,0
0.42132956,-9.7884512,-0.97815752,0.042790987,-0.9941327,-0.099343434,0
0.72302157,7.6530643,6.1801286,0.073303677,0.77590734,0.6265735,0
4.8023596,7.5262289,-4.1211686,0.48838469,0.76539356,-0.41910976,0
-1.3355604,9.5221634,2.2095084,-0.13537049,0.96515286,0.22395262,0
7.0793247,-6.6568551,2.728843,0.70138013,-0.65952414,0.27035859,0
4.3263416,7.5742745,-4.2707305,0.4454563,0.77987564,-0.43973038,0
-6.4446974,5.2883935,-5.347002,-0.6507085,0.53395879,-0.53987634,0
-9.2211113,1.2931519,3.0211627,-0.94196719,0.13209976,0.30862182,0
-3.7759733,3.4747391,-8.4643688,-0.38147503,0.35104227,-0.8551293,0
9.7261066,1.0612144,1.3274657,0.9850744,0.10748136,0.13444768,0
6.4161234,-7.0723853,2.1298387,0.6557948,-0.7228716,0.21769175,0
9.0990496,1.2855302,-3.6425855,0.9204883,0.13004825,-0.36849532,0
7.8112998,1.7394367,5.5789156,0.80072176,0.17830642,0.57188421,0
-5.3310475,1.7055342,8.1437492,-0.53948253,0.17259383,0.82411766,0
-3.697542,-0.067494631,-9.3306503,-0.3683984,-0.0067247148,-0.92964375,0
8.4181786,-5.466373,0.96487063,0.83484292,-0.54210812,0.095687613,0
2.3336945,-6.9126196,-6.7190905,0.23528706,-0.69694209,-0.67743015,0
-8.8210602,2.3462081,-3.2830091,-0.90936863,0.24187206,-0.33844745,0
-8.2881365,0.12801407,5.3661904,-0.83934814,0.012964117,0.54343969,0
-8.9675436,3.7054923,1.7497708,-0.90953577,0.37583065,0.17747101,0
-2.7244904,1.2571427,-9.4184713,-0.27562201,0.12717834,-0.95281595,0
1.472137,-6.0758877,7.7814097,0.14748389,-0.60870391,0.77956915,0
6.7013369,2.4905717,6.8617821,0.67626506,0.25133592,0.69245636,0
-2.1429396,2.7775018,-9.2664318,-0.21627825,0.28032207,-0.93522358,0
-3.1941228,7.7159314,5.0294995,-0.32765165,0.79149675,0.5159238,0
-8.7185192,-4.4116039,2.1654902,-0.87113714,-0.4407987,0.21637148,0
1.3497339,-8.2085056,-5.304121,0.13680865,-0.83201182,-0.53762418,0
-9.6480875,1.8994828,1.2375516,-0.9734863,0.19165669,0.12486822,0
-0.1760193,4.0170927,-9.1791639,-0.017564639,0.40085822,-0.9159717,0
-2.8263068,-6.978003,6.0549412,-0.29253563,-0.72225511,0.62671399,0
6.563868,-7.3592114,0.70800024,0.66391981,-0.74436688,0.071612559,0
0.82689428,-8.2933044,-4.7963901,0.085991241,-0.86244589,-0.49879116,0
9.8711634,0.96175402,-0.65248728,0.99314028,0.096762322,-0.065646917,0
6.1870036,-3.6521447,6.9731679,0.61795235,-0.36477292,0.69647372,0
-2.4837031,9.5758991,1.3168375,-0.24886768,0.95950752,0.13194746,0
-6.2155628,3.3287854,7.0983319,-0.62124467,0.33271164,0.70947731,0
-5.2303381,-1.6150136,-7.9847322,-0.54027158,-0.166824,-0.82478869,0
-1.6192917,-1.8201944,-9.4190969,-0.16643867,-0.18708843,-0.96814054,0
-6.2436848,6.3556476,-4.4988184,-0.6255669,0.63678467,-0.45074534,0
-3.2862771,0.82851565,9.0409966,-0.34035835,0.085809022,0.93637228,0
2.5824788,9.1999655,1.5765159,0.26665473,0.94994563,0.1627837,0
4.8252339,-6.1675625,-5.9521785,0.49056053,-0.62702924,-0.60513204,0
9.5585728,-1.5251724,0.29590645,0.98704714,-0.1574939,0.030556194,0
-2.5851352,-9.6363287,0.66698611,-0.2585308,-0.96369731,0.066703074,0
6.7069535,4.8587594,-5.1095176,0.68921548,0.49929258,-0.52506083,0
-4.2966599,4.9223528,-7.4803619,-0.43260327,0.49560028,-0.75314993,0
-9.1265726,-1.4755419,3.1412408,-0.93470061,-0.15111805,0.32171109,0
5.9456706,1.0538036,-7.835248,0.60105556,0.10653038,-0.7920754,0
-1.4012572,-9.8249807,-0.93953037,-0.14056462,-0.98557544,-0.094247319,0
-4.7059312,0.67797625,-8.4571295,-0.48504835,0.069880173,-0.87169075,0
-9.7779503,-0.38832027,1.6628813,-0.98509067,-0.039121766,0.16752885,0
3.5462217,0.71263832,9.3033705,0.35526893,0.071393803,0.93203378,0
5.6555119,-4.1193004,-6.6536164,0.58574408,-0.42663792,-0.68911821,0
9.3679323,-1.7236798,2.1468265,0.95942384,-0.17653196,0.21986885,0
5.6820288,-2.6352408,-7.7600012,0.56977892,-0.26425502,-0.77815253,0
8.9461546,-1.4608842,3.9918594,0.90322447,-0.14749424,0.40302736,0
0.54592663,-6.8591204,-6.8534594,0.056213781,-0.70628005,-0.70569712,0
-7.141748,3.4162185,6.0842061,-0.71527475,0.34214801,0.60935766,0
-0.85144347,-9.5323114,-3.0096943,-0.084869742,-0.95015681,-0.29999876,0
-8.409524,1.7288432,5.1877489,-0.8383503,0.17234938,0.51716971,0
-1.1182027,5.5234523,8.1377144,-0.11296631,0.55800623,0.82211179,0
5.8903122,-6.9593244,3.6426926,0.59993768,-0.70881826,0.37101403,0
9.9103527,-0.96944773,-0.90321338,0.99118048,-0.096958973,-0.090334572,0
-0.65266997,7.8816133,5.5352626,-0.06761153,0.81647384,0.57341015,0
7.6763396,-6.0623927,0.71182215,0.78270733,-0.6181435,0.072579965,0
8.3579845,3.56512,-3.4246068,0.86071569,0.3671405,-0.35267028,0
0.056479882,-7.8779945,5.673604,0.005817546,-0.81144989,0.58439308,0
-8.5914192,4.2151051,1.0105586,-0.89280677,0.43802708,0.10501566,0
-4.4370346,0.84577131,-8.9988127,-0.44067055,0.083999008,-0.89373016,0
-6.9515786,6.4295621,2.6829951,-0.7063278,0.65328735,0.2726106,0
-1.1187391,9.5200863,2.5193224,-0.11287699,0.96054447,0.2541911,0
-5.191834,-8.2337875,1.2129749,-0.52927852,-0.83938873,0.12365603,0
8.9341125,-4.0646787,0.63260353,0.90833908,-0.41325945,0.064317353,0
-1.7099591,0.4136067,9.6284275,-0.17470255,0.042257238,0.9837141,0
2.7643592,-8.9304657,-3.1837378,0.27991292,-0.90427923,-0.32237825,0
6.8329272,7.0904965,-2.0930796,0.67874336,0.70432884,-0.20791438,0
-7.1409087,-3.73136,5.750701,-0.72139156,-0.37695086,0.58094949,0
3.3736446,3.6451802,8.3180389,0.34822688,0.37625474,0.85858625,0
0.97797835,-9.4746704,1.5565621,0.10133065,-0.98169303,0.16127908,0
8.8924608,-0.86189181,-4.4210582,0.89208531,-0.086464368,-0.44351739,0
8.9131718,4.0161042,-1.5186368,0.90091813,0.40593642,-0.1534995,0
-7.2716923,6.5409551,-1.2257524,-0.73770487,0.66357243,-0.12435117,0
-8.6560974,3.3301992,2.9895089,-0.88830531,0.34175143,0.30678913,0
-0.81765044,9.4399576,-2.9775991,-0.08232367,0.95044529,-0.29979426,0
5.9962149,-5.6520963,5.1997552,0.61539871,-0.5800814,0.53365713,0
-3.9863317,3.3048198,8.3923912,-0.40424067,0.33513081,0.85104454,0
0.79294312,9.0418806,-3.3312469,0.082012311,0.9351812,-0.34454331,0
-0.34515858,9.3350782,2.6121492,-0.035584088,0.96239889,0.26929924,0
-3.1748633,2.8488808,-8.9006767,-0.3216663,0.28863886,-0.90178615,0
-1.3206995,4.0835252,-8.8599873,-0.13415287,0.41479284,-0.8999722,0
-3.9670539,5.5275559,-7.2975612,-0.39760941,0.55401522,-0.73141909,0
4.9092288,2.0511708,-8.3523054,0.4957329,0.20712681,-0.84341407,0
6.2917409,-7.6142306,-1.4729686,0.63001841,-0.76244491,-0.14749452,0
-3.8511534,-3.5442071,-8.401185,-0.38907942,-0.35806885,-0.84876609,0
8.9126883,3.9884741,-0.16389827,0.91264313,0.40841255,-0.016782887,0
-7.5756946,-5.7784142,-1.4091604,-0.78654903,-0.59994578,-0.14630654,0
-7.1556787,-6.7996101,0.026255345,-0.72491008,-0.68883836,0.0026598126,0
-5.1499662,-0.30867988,8.2563553,-0.52897477,-0.031705812,0.84804511,0
-4.9276724,-7.944634,2.3853202,-0.5107317,-0.8234266,0.24722801,0
-7.7577996,3.5964844,4.9869723,-0.78370386,0.36332193,0.50379097,0
-7.4646344,-6.143209,1.6109309,-0.7616384,-0.62680948,0.16436797,0
-1.7941923,-9.6177006,0.49840122,-0.1831498,-0.98176765,0.050876424,0
0.67036569,-3.9285038,9.1358709,0.067256629,-0.39413998,0.9165861,0
6.6019893,0.95142788,-7.1381845,0.67576838,0.097386539,-0.73065239,0
-1.3025683,7.6164613,-5.9471617,-0.13358735,0.78112048,-0.60992235,0
7.2354236,1.729546,6.6505895,0.72509199,0.17332502,0.66648334,0
4.3751812,8.6261005,0.11846182,0.45231122,0.89177614,0.012246719,0
8.7697563,-4.742084,-0.5100503,0.87848735,-0.47502583,-0.051092952,0
-3.6069181,-7.7123451,-5.0828199,-0.36375073,-0.77777511,-0.51259261,0
-1.7227569,-1.5005196,-9.3527937,-0.17893599,-0.15585308,-0.97143793,0
-10.009428,-0.14906578,-0.29204887,-0.99946386,-0.014884553,-0.029161736,0
-3.1487987,-1.9799856,9.2490139,-0.31586131,-0.19861569,0.92778414,0
-4.7828355,-1.9367223,8.3904552,-0.48555791,-0.19661786,0.85180682,0
-2.7864459,3.0855823,-8.7543402,-0.28751683,0.31838295,-0.90330851,0
9.5520992,-2.0562716,1.4475855,0.96704966,-0.20817588,0.14655282,0
-7.9161639,2.0100605,-5.3525105,-0.8106665,0.20584323,-0.54813176,0
0.088398337,0.23932163,9.7963619,0.0090205297,0.024421364,0.99966103,0
-8.1590261,1.5633055,-5.1422877,-0.83509332,0.16000757,-0.52632385,0
-0.82845247,-9.5676546,1.5513172,-0.085162111,-0.98352253,0.15947017,0
9.7121964,-0.55595613,0.019929241,0.99836355,-0.057149414,0.0020486228,0
2.2809534,9.0307016,-2.9494948,0.23346145,0.92431551,-0.30188838,0
6.0825315,5.3485074,5.7829261,0.61117554,0.53742051,0.58107108,0
-1.894086,-1.0128466,-9.7362566,-0.18997164,-0.10158574,-0.97651988,0
-7.4727969,-4.2169876,-4.274642,-0.77952415,-0.43989471,-0.4459089,0
-7.0627284,-0.35404253,-7.0225258,-0.70867455,-0.035524644,-0.70464057,0
-8.4411097,4.9219432,0.48525026,-0.86280638,0.50309545,0.049599763,0
-1.8666012,-9.6292839,-1.8531766,-0.18699555,-0.96465874,-0.18565068,0
-2.8002224,-9.2029619,-2.1110544,-0.28433079,-0.93445629,-0.21435361,0
-9.944623,-0.38506374,0.25398117,-0.99892592,-0.038679209,0.025512116,0
-1.127516,-4.9343791,-8.4813185,-0.11415746,-0.4995904,-0.85870689,0
-4.5626144,-8.6853952,-1.2192621,-0.46150595,-0.87852293,-0.12332769,0
7.4784484,-2.8992782,5.3416052,0.77603936,-0.30085838,0.55429888,0
-4.0680242,-3.2523692,8.3445339,-0.41356152,-0.33064079,0.84831804,0
4.0021334,5.9760385,-6.6600275,0.40828305,0.60965365,-0.67943174,0
-2.0158775,-9.5550232,1.9830854,-0.20230226,-0.95888907,0.19901143,0
-2.6330242,-9.2137794,-1.8329551,-0.26987815,-0.94438845,-0.18787314,0
6.8412547,-0.51824892,-7.016386,0.69714046,-0.052810825,-0.7149868,0
4.0409789,4.1433544,-7.8140483,0.4155674,0.42609552,-0.80358344,0
-3.6892071,-6.9780593,-5.9187036,-0.37393782,-0.70729566,-0.59991944,0
6.8907452,6.8424921,1.4003553,0.70232219,0.69740409,0.14272775,0
6.7522073,-5.4565344,4.5125875,0.69011718,-0.5576914,0.46121424,0
3.6214597,9.0314674,-0.58796877,0.37149903,0.92647207,-0.060315408,0
2.9486656,3.2494416,8.8131657,0.29950684,0.33005777,0.89518577,0
3.1743331,4.5707378,-8.2620077,0.31866446,0.45884651,-0.82940513,0
2.5401084,-9.4451199,-0.46001548,0.25941896,-0.96462148,-0.046980962,0
7.4258537,3.8625298,4.9724855,0.76272786,0.39673001,0.51073635,0
-2.1985464,-8.296874,4.6976948,-0.22469261,-0.84794492,0.48010689,0
2.1555738,-9.4072905,-0.69818276,0.22276804,-0.97219759,-0.072153784,0
-7.084981,-6.7654781,1.9202616,-0.70971966,-0.67771429,0.19235724,0
-5.4952545,-2.7692087,7.8821502,-0.54954022,-0.27692831,0.7882362,0
-5.9402771,6.4432864,4.420548,-0.60519338,0.65643984,0.4503639,0
-6.7461085,5.2392621,-4.9689822,-0.68267787,0.5301913,-0.5028401,0
1.5432386,-7.7359281,-5.8292146,0.15733749,-0.78869945,-0.59430468,0
-9.2734785,-3.3629904,-0.8890478,-0.93629706,-0.33954445,-0.08976274,0
-8.1705065,-2.6792643,-4.973968,-0.82251382,-0.2697179,-0.50072265,0
-3.3727853,4.418395,-8.038518,-0.34510511,0.45209244,-0.8225053,0
-6.295043,6.3845611,-4.0012712,-0.64114964,0.65026706,-0.40752915,0
-7.1485534,-5.7687674,4.2161083,-0.7072714,-0.57075661,0.41713792,0
