-0.84027463,-3.0688283,9.6005154,-0.083080076,-0.30342281,0.94922721,0
-5.8917027,7.9515491,1.9848891,-0.58371162,0.7877878,0.19664992,0
7.0725989,-6.9836149,1.4634234,0.70397943,-0.6951223,0.14566357,0
-0.62823105,9.8630457,1.1708053,-0.063125208,0.99104756,0.11764356,0
-2.1503615,6.6148019,-7.2400026,-0.21418402,0.6588589,-0.72113121,0
-7.1932054,-6.7196836,0.58672369,-0.72945523,-0.68143588,0.059499018,0
2.2331884,8.3213415,5.1889257,0.22203824,0.82736236,0.51591706,0
-0.26572683,0.37531328,9.9025841,-0.026805203,0.037859742,0.99892348,0
-2.2133183,-1.4908282,9.7658167,-0.21862397,-0.14725888,0.96463376,0
9.7437887,-1.4954629,2.157413,0.96557313,-0.14819479,0.21379158,0
-4.0302186,-7.5686092,-5.0187297,-0.40563822,-0.76177436,-0.50513107,0
3.7956474,-6.1800995,6.885386,0.37954745,-0.61798179,0.6885072,0
-5.023685,2.2913599,-8.1808548,-0.50899255,0.23215729,-0.82887244,0
-4.2098284,8.6241169,2.0457866,-0.42903125,0.87889946,0.20848984,0
6.1786556,8.105093,0.021410722,0.60624957,0.79527158,0.0021008197,0
-7.6529708,-4.4172211,-4.594595,-0.76841509,-0.44352177,-0.46133143,0
1.9929823,5.1723332,-8.4275188,0.19757879,0.51277089,-0.83548105,0
-9.2944107,0.9518103,-3.4555745,-0.93302608,0.09554816,-0.34689033,0
10.094731,0.37393609,-0.58522278,0.99764186,0.036955345,-0.057836384,0
-2.1433876,3.0195515,-9.4578352,-0.21102791,0.29729089,-0.93117416,0
0.35654235,-3.6156657,-9.4035416,0.03536772,-0.35866106,-0.93279755,0
-2.2929008,-9.5455332,-2.78107,-0.22471973,-0.93552661,-0.27256361,0
-6.557456,7.452518,-0.56992412,-0.65949869,0.7495172,-0.057318605,0
8.8097954,-3.370105,-2.9618254,0.89109516,-0.34088013,-0.29958338,0
0.57649177,-1.4687742,9.718585,0.058551822,-0.14917716,0.98707539,0
-5.8471074,-5.45158,-5.7666941,-0.59318519,-0.55305916,-0.58502728,0
-8.756731,3.6282525,-3.0011196,-0.88074636,0.36492729,-0.30185068,0
-7.5601678,6.2958407,-0.80815905,-0.76585662,0.63777834,-0.081867754,0
-1.878477,9.8130627,0.27887857,-0.1879392,0.98178422,0.027901441,0
3.2430151,9.4880896,1.3255972,0.320638,0.93809062,0.13106224,0
7.5222988,4.1699347,5.0574408,0.75392419,0.41793272,0.5068832,0
-0.72840512,-3.6860483,9.3489819,-0.072292805,-0.36583316,0.92786843,0
4.7671323,7.379498,-4.8653402,0.47469044,0.73481852,-0.48446956,0
1.6805307,-3.9464202,-9.0623407,0.16761412,-0.39361122,-0.90386701,0
1.6680535,9.8611832,1.3590436,0.16526537,0.97701424,0.13464966,0
2.1586428,4.4985156,-8.600873,0.21709281,0.45241177,-0.86498225,0
-5.3334489,6.0593944,5.8568091,-0.53477961,0.60756946,0.58725643,0
3.5952902,-4.3451915,-7.9622474,0.36847323,-0.44532892,-0.81603289,0
-0.9489755,-9.1346407,3.9750299,-0.094829731,-0.91281128,0.39721891,0
-5.6725874,-1.9109334,-7.9558263,-0.56975663,-0.19193481,-0.79908592,0
-8.0484476,5.6336293,1.5262613,-0.80953437,0.5666455,0.15351544,0
-0.41141051,0.74503815,-9.8720732,-0.041520167,0.075190365,-0.99630445,0
-2.9084506,-6.2974858,-7.1660786,-0.29161873,-0.63142377,-0.71851408,0
6.7011895,2.8820293,6.8068538,0.67164773,0.28886041,0.68223822,0
7.2359724,6.851655,0.44161683,0.72541487,0.68688661,0.044272617,0
-4.1232605,2.2496047,8.6312065,-0.41960704,0.22893289,0.87836194,0
-1.5608784,9.8394451,1.5271122,-0.1548668,0.97624737,0.1515166,0
-3.1668577,-7.7968669,5.3703885,-0.31722361,-0.78101087,0.53795093,0
-3.8117085,-9.0827017,0.81382483,-0.38565725,-0.91896051,0.08234036,0
-5.4221711,5.300302,6.23067,-0.55249405,0.5400762,0.63487637,0
-6.5468187,0.30894578,-7.5459709,-0.65501612,0.030910352,-0.75498235,0
-6.6126423,6.437798,-3.6551142,-0.66617155,0.64855736,-0.36822394,0
-9.8024931,0.98488432,-1.7528547,-0.97960609,0.098423809,-0.17517045,0
6.736197,7.1673121,2.2390692,0.66776848,0.71050549,0.221962,0
0.36438537,9.9921455,-0.50936335,0.036395762,0.99804157,-0.050876539,0
-2.3549089,0.03639834,9.6498327,-0.23707728,0.0036643539,0.97148389,0
-1.5511571,-8.9652185,4.0529695,-0.15573381,-0.90009427,0.40691194,0
0.81637502,1.7677873,-9.9251204,0.080714732,0.17478056,-0.98129344,0
-2.0633366,3.3912849,-9.0344124,-0.20909224,0.34366247,-0.91551983,0
9.7644062,-0.011893488,1.2526106,0.99187118,-0.0012081439,0.12724054,0
7.3355594,-3.5794027,5.9302802,0.72707468,-0.35477772,0.58778834,0
4.6358542,-2.1482849,8.6334133,0.4621042,-0.21414208,0.86058283,0
5.5462441,7.1967988,4.0319901,0.55794942,0.72399437,0.40561619,0
5.8263645,-5.3934822,6.0923762,0.58219063,-0.53893548,0.60877144,0
8.3540754,-2.6948724,-4.9686594,0.82823104,-0.26717222,-0.49259764,0
3.3113201,-9.2500362,2.4199634,0.32725376,-0.91416985,0.23916204,0
-0.8651216,-6.8832655,-7.499279,-0.084682882,-0.6737721,-0.7340709,0
2.9530184,2.8106093,-9.0390615,0.29780731,0.28344557,-0.91157526,0
-3.9395185,-4.5423908,-7.9060369,-0.39662111,-0.45731682,-0.79596049,0
1.6555436,-9.9882822,1.2099261,0.16236241,-0.97957045,0.11865983,0
-7.7964487,1.6197447,-5.9941707,-0.78223729,0.16251305,-0.60141021,0
4.1502218,-3.0092795,-8.6753073,0.41186079,-0.29863566,-0.8609224,0
5.7748709,-4.5760088,-6.7337251,0.57855248,-0.45844507,-0.67461479,0
6.5393047,-2.9751832,-6.8258257,0.65987599,-0.30022335,-0.68878859,0
-6.4235034,-7.9172373,-0.52559686,-0.62921029,-0.77552807,-0.051484514,0
5.7520919,5.7835822,5.9657407,0.56918925,0.57230532,0.59033054,0
0.82270777,-1.0272893,9.9439507,0.082019232,-0.10241483,0.99135464,0
-0.6606496,3.6341832,-9.0844717,-0.067367159,0.37058163,-0.92635351,0
-6.56459,-3.5054867,-6.7064028,-0.65528667,-0.34992266,-0.66944265,0
-6.0009251,6.4361696,4.6750569,-0.6022296,0.64590907,0.4691706,0
-5.7680235,7.1095276,3.6776698,-0.58462816,0.72059864,0.37275669,0
1.3543597,-9.0543718,-4.0245643,0.13542713,-0.90537804,-0.40243015,0
5.7326975,8.1282015,-0.10960461,0.57632226,0.81714821,-0.011018823,0
-9.8408852,1.6076654,0.46997148,-0.98582274,0.16104986,0.047079969,0
-3.5371377,-3.731993,-8.5248384,-0.35529482,-0.37486744,-0.85629427,0
8.8044109,-4.6416035,-0.33219749,0.8841067,-0.46609282,-0.033358056,0
-6.4153461,7.315207,-2.100183,-0.64450717,0.73491025,-0.21099143,0
7.8516116,1.0038503,6.217412,0.78006172,0.099733055,0.61770314,0
0.70256442,-9.7148695,1.9194018,0.070769116,-0.97857606,0.19334079,0
-6.0104136,-7.4703441,-3.2866969,-0.59299135,-0.73702902,-0.32426769,0
-0.26171771,-9.4230099,2.6235406,-0.026747057,-0.96301389,0.26812091,0
-0.11498337,3.9389422,-9.3045568,-0.011379291,0.38981611,-0.92082238,0
5.7695599,2.8137228,7.8566217,0.56868112,0.27733678,0.77439398,0
3.8375981,-1.7472795,-9.0811548,0.38328576,-0.17451212,-0.90699369,0
3.6962125,6.2875457,-6.8109879,0.37039101,0.63006401,-0.68251723,0
3.3300118,8.0904322,4.8862877,0.33230427,0.80735004,0.48760614,0
-5.0274634,-5.9077573,-6.6007457,-0.49358451,-0.5800097,-0.64804566,0
0.50865591,-2.9496422,9.544733,0.050850071,-0.29487422,0.95418209,0
-6.1522202,7.7835498,-0.32091036,-0.6197741,0.78411406,-0.032328479,0
-8.7858477,-1.1240456,-4.3021345,-0.89223802,-0.11415134,-0.43689901,0
-4.3693895,-8.7956562,-1.4223984,-0.44030172,-0.8863349,-0.14333455,0
8.9095383,2.4323325,3.1054261,0.91438919,0.24963118,0.31871101,0
-7.0531764,5.6171064,4.2608366,-0.70725137,0.56325066,0.42725185,0
7.3249569,-0.16018486,-6.8436308,0.73061335,-0.015977323,-0.68260443,0
-2.6222456,-6.4013543,-7.4169278,-0.25854787,-0.63116002,-0.73129338,0
-4.3779211,-3.9104187,8.1384459,-0.43628547,-0.38969612,0.81104374,0
0.57162863,10.150249,-0.38702354,0.056186911,0.99769521,-0.03804158,0
-3.553175,9.0056276,-2.6345205,-0.35413828,0.89757395,-0.26257771,0
0.95882118,-0.34450153,9.9746885,0.095627874,-0.034358803,0.99482393,0
-5.9012361,1.202526,8.3000422,-0.57545972,0.11726446,0.80937952,0
-4.2494259,-8.6106901,-2.345392,-0.42990994,-0.87113446,-0.23728085,0
-8.2070932,2.7097559,-4.831902,-0.82884526,0.27366185,-0.48798022,0
-2.4171126,2.5570199,9.4866133,-0.2388892,0.2527166,0.93758541,0
-8.219821,4.8784928,-2.9879324,-0.82078093,0.48713639,-0.29835662,0
3.8509791,-8.2350731,-4.2897658,0.38309467,-0.81922352,-0.42674509,0
-3.2474041,8.0150747,-5.0541749,-0.3242031,0.80018133,-0.50458127,0
-8.5442963,-3.3677578,4.0482883,-0.85130501,-0.3355442,0.40334839,0
-5.9375634,3.1432767,7.5888066,-0.58582854,0.31013077,0.74874812,0
-1.7635592,0.53704727,9.7764835,-0.1772639,0.05398123,0.98268181,0
8.1040506,3.8966014,-3.9472339,0.8252281,0.39678738,-0.40194324,0
-5.9194469,7.2044325,4.112277,-0.58085597,0.70694739,0.40352428,0
-0.90407437,9.0196314,-4.1727066,-0.090596721,0.90385157,-0.41814429,0
-4.4332085,7.1719446,4.9543443,-0.45332351,0.73337656,0.5066129,0
1.4208777,-4.4397345,9.0973682,0.13899995,-0.43432513,0.88996667,0
6.3729787,-1.3346056,-7.6908112,0.63243234,-0.13244164,-0.76320946,0
-2.0126057,2.7208571,-9.390852,-0.20162205,0.27257442,-0.94077194,0
8.0264463,-4.521379,-4.1993122,0.79279226,-0.44658795,-0.41477662,0
-8.9367399,-0.080791697,-4.8578525,-0.87855852,-0.0079425201,-0.47756875,0
-8.4684963,-1.9297413,-4.85006,-0.85127747,-0.19398312,-0.48754191,0
-6.8540545,7.3569002,-0.86396515,-0.67915714,0.72898328,-0.085608907,0
1.2536528,4.0694604,-8.9555693,0.12642255,0.41037807,-0.90310967,0
-6.6575918,-3.6837425,6.8076029,-0.65208817,-0.36080986,0.66678125,0
1.1781442,-8.2996912,-5.1413665,0.11980377,-0.84398353,-0.52281809,0
-5.4101028,7.0804644,-4.8548985,-0.53314519,0.69775295,-0.47843188,0
-6.4722114,-3.8227029,6.410769,-0.65512866,-0.38694072,0.64890933,0
1.3193357,6.4355149,7.6565504,0.13077529,0.63790154,0.75893313,0
-1.6119804,-9.0991182,-4.1476154,-0.15914623,-0.89832997,-0.40948224,0
9.8295345,1.718902,-0.28317866,0.98465556,0.17218785,-0.028366901,0
9.5524349,-2.9955573,-1.7782391,0.93947744,-0.29461163,-0.17488898,0
8.814436,-1.5759199,4.5193377,0.87880141,-0.1571196,0.45057908,0
1.6236844,-9.5304909,-2.6083403,0.16214964,-0.95176482,-0.26048255,0
4.6354184,5.7243476,-6.5382357,0.47064626,0.58120811,-0.66384435,0
5.4575939,6.2991204,5.2576199,0.55382985,0.63922691,0.53353673,0
9.9746494,-0.48396146,-1.5355877,0.98722196,-0.047899164,-0.15198186,0
-6.3550153,1.5702159,-7.3676572,-0.64480823,0.15932111,-0.74755538,0
-6.1081796,-1.9818912,-7.9044237,-0.59977096,-0.19460475,-0.77614677,0
7.1012325,-6.8249426,1.4726403,0.71306711,-0.6853236,0.14787452,0
-1.9520576,-2.1399419,-9.5927534,-0.19480604,-0.21355599,-0.95731103,0
0.60358125,8.8597107,-4.8738294,0.05958467,0.87461787,-0.48113742,0
-2.1663475,3.1994436,9.1435747,-0.21823984,0.32231489,0.92113215,0
0.58017415,5.1901131,8.7856331,0.05676502,0.50780767,0.85959816,0
8.3425646,5.0136337,-2.4243209,0.83171427,0.49983561,-0.24169335,0
-8.1599932,5.1954589,-2.2655313,-0.82131016,0.52292728,-0.22802763,0
-2.6298134,-9.4775953,-1.8987211,-0.26252773,-0.94612473,-0.1895446,0
2.8007383,-7.3610215,6.1084237,0.28100038,-0.73853737,0.61286318,0
-3.3927076,-4.8169484,8.0561333,-0.33992618,-0.48262542,0.80716968,0
-5.3272343,-6.8072109,-5.1627507,-0.52910733,-0.67610043,-0.51277065,0
7.7707787,-5.8260083,1.6767009,0.78843951,-0.59111905,0.1701216,0
-6.0190783,-7.012691,-4.1110101,-0.59508109,-0.69331545,-0.40643838,0
3.9546843,2.5177064,8.6947584,0.40034801,0.25487718,0.88020408,0
4.7664294,-6.6371779,5.3809037,0.48716968,-0.67837614,0.5499742,0
7.8182859,-3.4912341,5.4797359,0.7690835,-0.34343213,0.53904068,0
-5.9279461,0.96641183,-8.0427561,-0.59055346,0.096275821,-0.80123496,0
9.1840143,-3.6951811,0.60797179,0.9259786,-0.37256679,0.06129878,0
0.0020801306,-8.8276358,-4.7546368,0.00020746017,-0.88041723,-0.47419992,0
1.7403955,3.8328831,8.9729986,0.17559639,0.3867169,0.90532643,0
-9.6436167,2.2431393,0.88016587,-0.97017241,0.22566552,0.088546924,0
-1.8968087,-0.30648047,9.9593935,-0.18700588,-0.03021583,0.98189402,0
2.1166656,-3.7096355,8.9612675,0.21322237,-0.37369025,0.90271354,0
2.8497179,9.159296,2.2374616,0.28931546,0.92989063,0.22715659,0
-9.1679039,2.4928236,3.2367713,-0.91341096,0.24836347,0.32248402,0
5.6280479,-8.2092648,-0.56186581,0.5645501,-0.82347226,-0.056360822,0
-1.8592799,1.8418543,-9.6515598,-0.18592615,0.18418363,-0.96514648,0
7.9366412,-5.9782948,-0.22944087,0.79853839,-0.60150105,-0.023084998,0
-6.37925,0.16886877,7.8715978,-0.62952828,0.016664602,0.77679878,0
-4.6038685,-9.0525141,-0.29592085,-0.45312443,-0.89097142,-0.029125281,0
-7.5957656,-3.1481626,-5.522275,-0.7668888,-0.31784689,-0.55754364,0
2.1156392,3.7918701,9.0568686,0.21063803,0.37752753,0.90172315,0
1.2600442,-1.9264259,-9.8774796,0.12423823,-0.18994235,-0.97390282,0
4.5712605,1.6640759,8.5815287,0.46340555,0.16869351,0.86994123,0
8.256547,3.3336453,4.3773794,0.83214909,0.3359867,0.44118109,0
-8.9682064,4.5304875,-1.5773958,-0.8817727,0.44544697,-0.15509284,0
-0.23389141,1.7855642,-9.9483376,-0.02313463,0.17661344,-0.98400837,0
-7.3243198,0.61324877,6.8611479,-0.72844702,0.060991228,0.68238187,0
-0.67408806,-2.960531,-9.4235973,-0.068085074,-0.29902321,-0.95181382,0
8.8817377,-3.7529728,-2.6017833,0.88933361,-0.37578738,-0.26051807,0
-8.2292509,-2.2295237,-5.1331325,-0.82690215,-0.22402985,-0.51579398,0
5.0740438,2.9829049,-7.8676171,0.51640886,0.30358401,-0.80072379,0
5.9861145,-4.0394754,7.0451045,0.59334099,-0.40039098,0.69830757,0
5.2729845,-4.856596,-7.01618,0.52567744,-0.48416662,-0.69946116,0
-2.9431946,5.7037163,7.5670919,-0.29661879,0.57482755,0.76262087,0
3.0681593,-8.4016943,4.6539588,0.30429855,-0.83327597,0.46157736,0
1.3620104,9.8985796,-1.7289842,0.13431615,0.97615927,-0.17050567,0
2.8701534,-0.22643599,-9.5493298,0.28776631,-0.022702845,-0.9574315,0
3.1007235,0.35605299,-9.567605,0.30810624,0.035379536,-0.95069391,0
8.9787035,3.7549427,-2.0000284,0.90368706,0.37792686,-0.20129852,0
-6.339047,-2.2929268,-7.6315823,-0.62254697,-0.22518443,-0.74948466,0
7.2401323,2.062222,-6.819067,0.71279675,0.20302738,-0.67134249,0
7.3744788,3.9106114,-5.8723993,0.72256845,0.38317072,-0.57539123,0
6.0283465,-5.9009957,-5.2000656,0.60832405,-0.59547299,-0.52474171,0
-8.9544315,0.5714494,-4.2632494,-0.90139538,0.057524797,-0.42915881,0
4.375771,8.8748007,1.8790327,0.43445972,0.88115746,0.18656461,0
2.8141751,0.12270325,9.4239836,0.28611088,0.012474964,0.95811534,0
-8.2361116,-5.3785815,1.3966024,-0.82896209,-0.54135257,0.1405676,0
6.7506309,-7.6268888,-0.29419157,0.66250509,-0.74850082,-0.028871881,0
-2.9610531,-7.7238812,5.7550726,-0.29384112,-0.766482,0.57110661,0
3.459933,9.2836256,-1.7786709,0.34373122,0.92229301,-0.17670421,0
-2.1418519,-8.8105631,-4.4833965,-0.21174885,-0.87103438,-0.44323984,0
-8.4589558,4.9159226,-1.0520061,-0.85964406,0.4995822,-0.10691045,0
3.2442286,-6.8041039,-6.6820521,0.32206327,-0.67546159,-0.66334522,0
-7.0163474,-5.9772491,-3.5384002,-0.71065724,-0.60541123,-0.35839012,0
5.7188878,-7.3959537,2.9868846,0.58268911,-0.75356293,0.30432931,0
8.888545,0.7334801,4.4838138,0.89041942,0.073477149,0.4491708,0
-8.4871511,0.95764953,4.730547,-0.86926901,0.098084152,0.48451096,0
-3.6888885,-2.2190139,8.8691883,-0.37417507,-0.22508126,0.89962846,0
-4.1311569,0.93374324,-9.0763359,-0.41245997,0.093226112,-0.90619296,0
-8.2477846,1.9629595,-5.3951368,-0.82073939,0.19533466,-0.53687161,0
9.5804529,-2.8837514,-0.2485076,0.95726609,-0.28814059,-0.02483055,0
-9.8568163,-2.6196389,-0.33504421,-0.96592945,-0.25671437,-0.032833021,0
-7.7770462,3.0991118,-5.5550051,-0.77405572,0.30845711,-0.55289418,0
2.754024,-6.7860322,-6.5996323,0.27935526,-0.68834323,-0.66943568,0
-6.4331789,7.0982318,2.7913692,-0.64473003,0.71138132,0.27974966,0
6.2407556,1.2221123,-7.7636847,0.6218552,0.12177642,-0.77360624,0
0.87263077,8.9217939,-4.1304998,0.088410608,0.90391183,-0.41848171,0
4.3643389,7.1902618,-5.2934346,0.43914795,0.72349763,-0.53263527,0
-6.1242723,4.7184563,-6.2585287,-0.61570001,0.47436711,-0.62919736,0
8.6016426,-3.3333321,4.2783213,0.84589022,-0.32780167,0.42073244,0
-3.3648534,-6.9549046,6.3022723,-0.33747971,-0.69754577,0.63208967,0
1.6108376,8.4532671,5.0733705,0.16125186,0.84620887,0.5078665,0
4.9591117,3.8369143,-7.8361192,0.49413678,0.38231859,-0.78080815,0
0.83114034,8.6182146,-5.0914612,0.082747698,0.85802287,-0.50690198,0
-2.1870456,-9.6213217,0.60638541,-0.22124046,-0.97328818,0.061341651,0
-8.6607533,-4.4877481,1.9977601,-0.86982548,-0.45071802,0.20064105,0
4.161509,-6.7370081,6.0566525,0.41742921,-0.67577022,0.60752571,0
-2.5227497,7.6859617,-5.852314,-0.25266963,0.76979852,-0.58614689,0
-4.1247015,8.9073343,-2.2030919,-0.41000241,0.88540435,-0.21899112,0
-1.3941246,9.9536715,0.40725449,-0.1385937,0.98952144,0.040486272,0
-8.9307671,3.0059056,-2.7636621,-0.90944916,0.30610117,-0.28143272,0
8.4794064,-0.038480688,4.931591,0.864425,-0.0039228774,0.50274634,0
3.0950558,8.9293242,3.2270501,0.30993041,0.89415807,0.32314795,0
6.6052442,1.7322732,7.1796403,0.66662782,0.17482799,0.72459823,0
-3.3914752,0.4762508,-9.3444529,-0.34077394,0.047853474,-0.93892658,0
7.1355906,-0.051859628,6.6539483,0.73134834,-0.0053152507,0.68198335,0
3.7224965,8.7654734,3.7587979,0.36359188,0.85616058,0.36713758,0
-2.569258,8.7765427,4.1471291,-0.25586936,0.87404549,0.41300768,0
-9.9628115,-1.3458654,1.0782428,-0.98534745,-0.13310951,0.10664096,0
2.9106977,6.8741417,6.5623841,0.29284561,0.69160813,0.66024214,0
-2.0086341,9.5950632,-0.7396118,-0.20431814,0.97600925,-0.075233266,0
7.3161387,-6.7556105,-1.3705066,0.72783005,-0.67206711,-0.13634185,0
9.4474525,-2.78531,-0.75470436,0.95637912,-0.2819609,-0.076399803,0
4.8595114,-3.4916687,-8.1768436,0.47959691,-0.34460121,-0.80699241,0
5.1777253,0.15169203,8.2691936,0.53063333,0.015545987,0.84745896,0
-1.4868525,-8.9240055,-4.4953833,-0.14717917,-0.8833611,-0.44498479,0
-3.5333183,4.9321699,-7.9282961,-0.35391891,0.4940365,-0.79414696,0
-5.1171765,-6.3801441,5.9598494,-0.5056569,-0.63045782,0.58892614,0
-3.8016825,7.6570783,-4.922009,-0.38538742,0.7762199,-0.49895811,0
-0.14241771,-0.47414264,9.794919,-0.014521421,-0.048345286,0.99872506,0
-2.8125594,-2.9178293,-8.9685593,-0.28577951,-0.2964758,-0.91128051,0
2.3198225,9.426899,-2.7101977,0.23015611,0.93526912,-0.26888633,0
9.199976,3.0354865,2.1684618,0.92671293,0.30576435,0.218429,0
-1.537083,-9.6158094,-1.6402805,-0.15565293,-0.9737463,-0.16610323,0
8.2812366,-0.69922066,-5.7451468,0.81966537,-0.069207892,-0.56864667,0
9.1437683,2.6570051,2.692116,0.92405778,0.26851362,0.27206188,0
-5.1033616,-7.8552194,3.1914468,-0.5156908,-0.79376394,0.32249326,0
1.5784907,5.5211759,-8.416604,0.15492217,0.54187995,-0.82605398,0
5.5933671,-6.2496018,-5.3439841,0.56243455,-0.62842149,-0.53735816,0
-5.1114802,-3.615504,-7.7206807,-0.51422197,-0.36372468,-0.77671111,0
-6.188529,7.1612644,-3.5501955,-0.61219931,0.70842701,-0.35120255,0
-7.8592963,-5.5862594,2.3894265,-0.79115194,-0.56233788,0.24053036,0
-8.0801964,5.665164,-1.7264119,-0.80655241,0.56548768,-0.17232771,0
-5.0521684,-7.2962356,4.71731,-0.50267851,-0.72595775,0.46936092,0
-8.457346,-0.95002687,-5.0450625,-0.85483611,-0.096025079,-0.50993562,0
-4.2922063,-0.71695411,-9.0926771,-0.42579854,-0.071123794,-0.90201831,0
1.0735986,9.5458498,-3.1026552,0.10635304,0.94563282,-0.30735582,0
2.8974762,-3.7178168,8.8354673,0.28933847,-0.37125668,0.88229907,0
8.867053,-0.64416814,-4.2959738,0.89802456,-0.065239131,-0.43508142,0
4.9114766,7.3452129,-5.1743903,0.47965586,0.7173351,-0.50533211,0
-4.5077229,-0.88114721,8.7759838,-0.45508444,-0.088957638,0.8859936,0
-0.087026499,-8.7395496,5.1018133,-0.0085993977,-0.86358595,0.50412828,0
1.3894967,9.7425575,2.5831428,0.13656639,0.95754516,0.25388363,0
-5.7908225,-0.54550779,8.0153637,-0.58473092,-0.055082899,0.80935502,0
-9.8522005,-1.4936615,0.43658468,-0.98775446,-0.1497504,0.043770779,0
8.2067432,-5.1562705,-1.9076861,0.83080113,-0.5219897,-0.19312263,0
-7.0047121,2.7570975,-6.4498782,-0.70661539,0.27812815,-0.65064532,0
5.4133534,-2.6116722,7.9350042,0.54381669,-0.26236436,0.79713762,0
8.0462437,0.74660665,5.7127576,0.81306279,0.075443663,0.57726693,0
6.6336718,2.4081264,7.001493,0.66729718,0.24223928,0.70429718,0
0.32458219,0.62108129,9.9777336,0.032450713,0.062093768,0.99754268,0
-7.8790655,-5.791769,1.7865239,-0.79261303,-0.58263659,0.17971957,0
10.004372,-1.4602469,-0.63040841,0.98759699,-0.14415053,-0.062231738,0
8.0331879,-1.8883457,-5.4664307,0.81155807,-0.19077137,-0.55224973,0
8.2119179,1.8788582,-5.3985271,0.82074136,0.18778276,-0.53955656,0
-4.3861842,8.382268,3.1216197,-0.44028243,0.84140682,0.31334624,0
-5.5035882,-7.9830232,-2.5861163,-0.54842591,-0.79549861,-0.25770336,0
4.7381134,6.2721276,5.9551015,0.48045748,0.63601065,0.60386336,0
-2.4272683,8.587224,-4.4412909,-0.24351084,0.86149609,-0.44556361,0
-1.0669166,-4.667625,8.5914898,-0.10847516,-0.47456506,0.87351084,0
8.2618408,5.0778027,2.2049601,0.83074933,0.51058614,0.22171441,0
1.3229626,-6.2308917,7.7607789,0.13176766,-0.62059957,0.77297699,0
-0.43474004,9.8896503,0.32056808,-0.043893669,0.99851179,0.032366261,0
8.704483,1.1625631,-5.034533,0.85990977,0.11484879,-0.49735799,0
6.0940409,-7.0357127,3.6566415,0.60937482,-0.70353746,0.36564657,0
9.011694,1.1767309,-4.2172832,0.89945847,0.11744967,-0.42092764,0
5.0179152,6.282474,6.0595703,0.49839568,0.62399578,0.60185629,0
-3.356647,5.3550324,-7.7245874,-0.33631659,0.53654325,-0.77395892,0
5.6542821,5.0947413,6.6892099,0.55801994,0.50279897,0.66015673,0
-5.5867367,-7.9503937,2.8696899,-0.55140036,-0.78468889,0.28323299,0
8.6983376,-3.1610703,3.402458,0.8821364,-0.32057795,0.34505811,0
6.115612,-1.5339063,-7.8450222,0.60763055,-0.15240474,-0.77946001,0
2.6667316,-9.3356895,2.3243062,0.26711568,-0.93511808,0.23281631,0
-7.8098421,0.51921666,6.1580558,-0.78418684,0.052134585,0.61833084,0
4.9256644,7.1195831,4.8487678,0.49640059,0.71750021,0.48865107,0
-6.04458,-0.72011572,7.8678813,-0.60762876,-0.072389312,0.79091531,0
-6.3042707,-1.3574699,7.5149236,-0.63663065,-0.13708277,0.75888723,0
5.740644,-5.8207617,5.7893109,0.57305562,-0.58105332,0.57791376,0
-7.5365176,-5.2486286,4.4074173,-0.7398259,-0.51523417,0.43265626,0
4.892591,-8.669652,0.044876456,0.49146998,-0.87088287,0.0045079244,0
9.2303104,3.1633248,-0.37948322,0.94527388,0.32395533,-0.038862787,0
7.5348611,-2.428828,6.1976304,0.74943525,-0.24157701,0.61643106,0
-0.70711207,6.203032,-8.1290197,-0.068987831,0.60518515,-0.79308993,0
-3.4993093,-8.0305662,4.6759672,-0.35240677,-0.80873841,0.47090507,0
-1.3404299,-9.6796017,-2.228282,-0.13373797,-0.96575749,-0.22232112,0
-8.7010975,-5.0880899,0.76993924,-0.86073339,-0.50332606,0.076164231,0
2.1111932,-6.862936,-7.1557975,0.20826232,-0.6770063,-0.70589608,0
-9.1269321,-2.400492,2.816381,-0.92672223,-0.24373899,0.28596717,0
-2.2264209,-7.783463,-5.953999,-0.22154884,-0.77452433,-0.59247625,0
-0.41919798,-8.2783899,-5.6643414,-0.041754726,-0.82457912,-0.56420362,0
-5.40975,0.35744864,-8.3416758,-0.54376423,0.035929162,-0.83846855,0
-2.6481152,-0.063134007,9.4830112,-0.268953,-0.0064121382,0.9631319,0
-6.9971504,6.7353325,-2.3937132,-0.69952387,0.6733492,-0.23930591,0
-6.4785938,-7.350358,-2.0637274,-0.64702231,-0.7340861,-0.20610608,0
0.94241327,-5.7506566,-8.3669472,0.092427224,-0.5639959,-0.82058871,0
8.8647995,-4.8807368,0.13328855,0.87592715,-0.48226357,0.013170185,0
3.4393506,-7.5723343,5.7760348,0.3396619,-0.74782526,0.57042712,0
2.7934027,-9.4896059,-0.52061689,0.28199396,-0.95797563,-0.052556269,0
1.3666538,8.3930378,-5.1889405,0.13719051,0.8425287,-0.52088785,0
5.034646,-0.51181805,8.7240868,0.49919158,-0.050747413,0.8650043,0
1.1904987,9.2151003,3.9095688,0.11809707,0.91413486,0.38782793,0
-8.1884184,4.2490954,4.2605686,-0.80582237,0.41815352,0.41928262,0
-8.97575,3.1482608,3.5322654,-0.88461077,0.31027886,0.34812468,0
5.4763813,5.3726387,-6.266293,0.55285281,0.5423798,-0.63259614,0
-8.7244787,-0.15687837,5.0173826,-0.86676633,-0.015585674,0.49847084,0
4.5856142,6.5209708,-5.8263502,0.46440968,0.66041362,-0.59006566,0
4.2655883,-3.2598276,8.6115971,0.42033902,-0.32122949,0.84860283,0
-0.94151998,9.9723244,-1.6155355,-0.092796095,0.98287112,-0.15922698,0
9.7570934,2.028729,2.2086675,0.95586687,0.19874717,0.2163751,0
-3.4594579,-9.1101017,-1.9538549,-0.34807673,-0.91662174,-0.19658901,0
7.3556418,-0.44988066,6.7715082,0.73497212,-0.044951852,0.67660576,0
-6.9537387,-2.1888335,-6.6635151,-0.70405954,-0.22161734,-0.67467469,0
8.7929316,0.1569113,4.9035525,0.87326616,0.015583578,0.48699418,0
6.0657654,6.9542727,-3.6779199,0.61061221,0.70005411,-0.37023899,0
5.72047,-8.0873804,-1.9517843,0.56658047,-0.80100971,-0.1933133,0
5.730103,-4.8754802,6.5085006,0.57599896,-0.49009094,0.65424472,0
7.443531,4.3013272,-5.5718608,0.72657615,0.41986012,-0.54387915,0
-4.5633373,-8.4626226,3.1778927,-0.45064855,-0.83571917,0.31383011,0
-8.2692947,5.7535729,-0.09311723,-0.82082266,0.57110828,-0.0092429565,0
-7.9951606,-5.1112647,-3.2286935,-0.7976355,-0.50992423,-0.32210991,0
-3.8672018,8.0758009,-4.0244374,-0.39393643,0.8226496,-0.40995339,0
-0.11381336,-9.5627174,3.0922616,-0.011323698,-0.95142895,0.30766016,0
2.8982728,0.027136326,9.7026663,0.28621173,0.0026797804,0.95816267,0
-6.1767459,7.9746671,-0.89682204,-0.60994136,0.7874825,-0.088559389,0
6.1214867,-7.6543612,2.4868197,0.60538757,-0.75698203,0.24593532,0
8.899744,0.99002266,4.2716346,0.89703286,0.099787459,0.43055132,0
3.6452534,3.7479918,-8.5818653,0.36274552,0.37296918,-0.85399634,0
-3.7125089,3.6236565,-8.6840935,-0.36700517,0.35822156,-0.85847801,0
1.1839077,-6.5323753,-7.5642624,0.11763352,-0.6490593,-0.75158799,0
7.7188721,-0.9771415,-6.5760341,0.75769949,-0.095918112,-0.64551628,0
-2.7735932,5.285244,-7.8870687,-0.280415,0.53434718,-0.79739606,0
5.1665955,0.26535273,-8.7347078,0.50893342,0.026138466,-0.86040896,0
7.4103179,-6.3449626,1.2834899,0.75310785,-0.64483619,0.13044061,0
-3.1708,9.4830837,-1.9190105,-0.31142381,0.93139213,-0.18847786,0
5.6542025,0.96729064,-8.0736685,0.57089925,0.097666375,-0.81519032,0
-5.9404058,-6.4122658,-4.9432254,-0.59155816,-0.63854694,-0.49225682,0
-0.35138348,9.4225168,-3.6325898,-0.034774594,0.9324975,-0.35949853,0
-9.6357899,0.13075615,2.4018729,-0.97022581,0.013165812,0.24184412,0
-8.169446,-0.98790246,-5.9574695,-0.80415082,-0.097243138,-0.58641726,0
6.6593213,-7.2380371,2.0826075,0.66238791,-0.71995145,0.20715234,0
-5.1258898,-8.2213478,2.0604501,-0.5175007,-0.83001262,0.20801938,0
-1.9034233,9.6305714,2.0155358,-0.18993129,0.96097744,0.20111834,0
8.4870806,4.4607887,-3.0088367,0.84457022,0.44390404,-0.29941675,0
7.5336013,-4.3043799,4.7801547,0.76049387,-0.43451393,0.48254192,0
2.8691089,-8.8625965,-3.4796512,0.28852338,-0.89124054,-0.34992072,0
-5.3485928,7.5662808,-3.3822136,-0.54224223,0.76707226,-0.34289002,0
5.2332149,1.5839716,8.1662683,0.53249711,0.1611744,0.83094507,0
-3.0099847,1.7480234,9.5473852,-0.2961973,0.17201409,0.93950963,0
-5.6756592,6.9679508,-4.4162931,-0.56680381,0.69585943,-0.44103631,0
-6.4001026,-7.1890445,2.8292758,-0.63794512,-0.71658474,0.28201467,0
1.5425091,-9.3898191,-3.2435338,0.15343332,-0.93400502,-0.32263422,0
-5.085516,-7.0458975,4.849864,-0.51104051,-0.70803803,0.48735994,0
1.6186528,-8.24967,5.7671132,0.15877029,-0.80919302,0.56568414,0
0.94540912,2.9094145,-9.4145956,0.095504105,0.29390562,-0.95105129,0
-7.7185097,1.7277541,6.3114944,-0.76276904,0.17074247,0.62372303,0
5.7032213,-7.4506216,3.6475489,0.56653023,-0.74010849,0.36232975,0
-0.60039431,-10.131547,-0.83026528,-0.058959153,-0.9949252,-0.08153265,0
5.0278387,8.7094049,-1.5497746,0.49412674,0.85594434,-0.152309,0
5.4240375,3.1640141,-7.8746772,0.53853554,0.31414497,-0.78185183,0
4.5559535,-8.1042824,-3.0615573,0.46545273,-0.82796288,-0.31277978,0
-3.6174023,3.3944635,8.8293543,-0.35718748,0.33517417,0.87182307,0
-6.9772587,-7.0368223,0.98204845,-0.70066285,-0.70664424,0.098618224,0
1.0048736,-10.006924,0.025970304,0.099915005,-0.99499261,0.0025822383,0
-6.2840261,-7.3992257,2.0370893,-0.63353199,-0.74596226,0.20537172,0
-0.042808112,5.4854288,-8.4373522,-0.0042536599,0.54506373,-0.83838379,0
5.2127528,-5.6262774,6.3958955,0.52196664,-0.56337398,0.64043784,0
-4.777936,-8.3930149,3.6176729,-0.46329045,-0.81382501,0.35078606,0
-7.09126,-4.4019685,5.2864995,-0.71775371,-0.44555256,0.53508186,0
2.9391766,7.5948262,5.8094187,0.29381558,0.75921887,0.58074009,0
1.668177,3.2696934,-9.5171261,0.16353938,0.32054371,-0.93300945,0
2.7483902,-9.1603537,3.1081734,0.27330399,-0.91091913,0.30908135,0
-5.7694993,-8.1130524,0.22516917,-0.57939011,-0.8147366,0.022612151,0
-3.3158865,-7.7955995,5.4482498,-0.32921064,-0.77396923,0.54091769,0
-5.1582217,-0.33459035,-8.8314342,-0.50407922,-0.032697324,-0.8630383,0
-0.78076035,-3.2100778,9.5318832,-0.077393726,-0.3182025,0.94485843,0
-8.2816477,-5.4883399,-1.0462691,-0.82898486,-0.54937744,-0.10473051,0
5.982285,-4.8591113,6.1076689,0.60834318,-0.4941268,0.62109357,0
-9.2482061,3.7049656,0.32774085,-0.92777795,0.3716813,0.032878887,0
7.2235603,5.2853503,4.7915425,0.71150428,0.52059501,0.47195607,0
-0.19833656,-7.3328228,6.7551742,-0.019889224,-0.73533672,0.67741001,0
6.9296174,-7.2459998,0.26484478,0.69091189,-0.72245651,0.026406134,0
-3.90837,-7.5389175,5.1694736,-0.39313552,-0.7583254,0.51998752,0
4.8021703,8.5594778,2.3522353,0.47581583,0.84810299,0.23306771,0
2.938889,8.678441,-4.3631701,0.28959188,0.85515511,-0.42993751,0
-8.036911,4.3407345,3.9299426,-0.80823666,0.43652847,0.39521697,0
-7.3077464,-4.6894584,-4.7313051,-0.73902607,-0.47424084,-0.47847277,0
4.9607415,1.6087646,8.4062576,0.50146312,0.16262411,0.84975767,0
5.3274102,-8.4580688,-0.22557141,0.53281802,-0.84592909,-0.022560401,0
1.7738301,-9.0725336,3.4306376,0.17989515,-0.92010212,0.3479223,0
7.929925,3.0016029,5.64818,0.77835965,0.29462153,0.55439562,0
5.734468,8.2622519,-1.2853229,0.56558061,0.81489152,-0.12676916,0
-4.9531813,-3.7770674,-7.5853944,-0.50464314,-0.3848176,-0.77282,0
-3.1223814,-7.7564473,-5.4655447,-0.31257603,-0.77648413,-0.5471459,0
9.4567833,-3.4539986,-0.65474302,0.93732852,-0.34235018,-0.064896204,0
7.1595106,2.4498956,6.5723805,0.71432155,0.24443197,0.65574217,0
0.4668873,9.5514765,-2.3334849,0.047431186,0.97033662,-0.23705925,0
3.3861341,6.8739371,-6.766468,0.33123931,0.67242408,-0.66191119,0
-1.2475984,9.0016136,-4.3982921,-0.12357274,0.89159626,-0.43564421,0
4.9484987,-3.7172856,-7.8018994,0.49690264,-0.3732706,-0.7834264,0
-1.2501053,-3.1481051,-9.513237,-0.12379403,-0.31174704,-0.94206625,0
-9.9139252,0.4543778,0.89311671,-0.99493062,0.045599941,0.08963041,0
-7.6526093,0.52884173,-6.508378,-0.76070619,0.052569412,-0.64696407,0
-2.5000045,-1.3897996,9.4891853,-0.25224763,-0.14022921,0.95744812,0
5.5988159,-0.57661682,8.3830395,0.5544889,-0.05710629,0.83022952,0
2.5510907,4.3377514,8.5087709,0.25806361,0.43879887,0.86073148,0
4.6623325,-2.2548769,8.5374441,0.46691132,-0.22581562,0.85498607,0
1.4925832,8.9717093,-3.8455245,0.15115401,0.9085657,-0.38943657,0
5.2986164,-5.7039299,-6.2902861,0.52939111,-0.56988645,-0.62847,0
-1.2943838,1.9020209,-9.6339073,-0.13068233,0.19203001,-0.97264928,0
5.5927196,5.3931851,6.2295642,0.56160063,0.54156411,0.62555027,0
-2.9013188,-9.5128098,1.5723226,-0.28814563,-0.94476843,0.15615584,0
8.8063431,-0.18381943,-4.9191461,0.87288487,-0.018220184,-0.48758584,0
2.1700757,-6.6318808,6.9683986,0.22005481,-0.67250061,0.70662493,0
4.0234585,-3.6424193,8.6726103,0.39326856,-0.3560243,0.84769481,0
-4.4346404,4.1749649,-8.1205549,-0.43687373,0.41129211,-0.79998755,0
6.8262606,3.8432045,-5.9516706,0.69385165,0.3906405,-0.60495442,0
-3.6679559,9.0686274,1.0945135,-0.37263227,0.92129326,0.11119301,0
-4.1343942,3.4980552,8.4489584,-0.41197026,0.34856248,0.84189349,0
8.2285109,1.3450348,5.0923281,0.84223801,0.13767248,0.5212307,0
-1.3204076,4.0847831,8.9758558,-0.13270937,0.41054666,0.9021306,0
7.8474793,-5.5737491,-2.7521486,0.78387076,-0.55675191,-0.27490723,0
6.6391497,7.1133494,2.5889106,0.65937918,0.7064752,0.25712234,0
-6.4135795,-5.6644974,4.7947826,-0.65386683,-0.5774976,0.48882988,0
-2.0993805,4.0752935,9.0312338,-0.20728257,0.40237457,0.89169991,0
7.583241,0.70404941,-6.5001264,0.75736713,0.070316091,-0.64919239,0
2.0184004,-8.6220798,4.6316538,0.20197499,-0.86278445,0.46347505,0
-8.2289648,4.6312509,3.1423402,-0.82688069,0.46536738,0.31575543,0
-9.3444834,-3.01123,0.94255948,-0.94744503,-0.30531114,0.095566899,0
6.6394224,7.4651942,1.3204507,0.65884066,0.74078333,0.13103047,0
-8.1329145,6.1615176,-0.44830883,-0.79631352,0.60328925,-0.043895014,0
7.5117927,-6.2623234,2.0932407,0.75108391,-0.62615287,0.20929751,0
-4.926271,8.456008,2.1145787,-0.49202803,0.84457248,0.21120073,0
9.41856,-2.8687158,-0.86375731,0.95295161,-0.29025108,-0.087393284,0
-1.8641371,1.2973309,-9.8475819,-0.1844569,0.12837127,-0.97442108,0
1.6503441,4.8429713,8.7254925,0.16315889,0.47879338,0.86263329,0
-4.4094586,4.0750313,-8.0660791,-0.43851697,0.40525848,-0.80216485,0
6.9146118,-2.4802606,-7.0353141,0.67980325,-0.24384438,-0.69167,0
8.9744177,-3.0850887,3.0698354,0.89977598,-0.30931127,0.30778199,0
-3.7085762,-5.5637569,-7.3970771,-0.37192717,-0.5579803,-0.74184102,0
-1.5417715,-8.0678062,6.0634923,-0.15101443,-0.79023069,0.59391087,0
-8.1780806,2.071429,5.4118972,-0.81593174,0.20666765,0.53994805,0
4.1058245,-8.4554892,2.8472815,0.41804835,-0.86092412,0.28990558,0
8.3824549,-5.2874784,1.1855916,0.83980644,-0.52973247,0.11877993,0
6.6729822,-7.0196657,-3.0374813,0.65741056,-0.69156522,-0.29924735,0
-5.2489772,7.6740789,3.8844788,-0.52092153,0.76159465,0.38550532,0
10.112185,0.37385747,-0.7680971,0.99645078,0.036839768,-0.075687982,0
-3.248703,-4.633265,8.1734133,-0.32679439,-0.46607062,0.82218218,0
-5.7590551,0.21338916,8.1460123,-0.57714838,0.021384967,0.81635928,0
-7.4996209,2.6481791,-6.0887904,-0.74872571,0.26438135,-0.60787529,0
-4.4602399,-2.0434389,8.8931561,-0.43914464,-0.20119214,0.87559903,0
2.0962479,1.1314019,9.5517683,0.21293987,0.11492943,0.97028232,0
5.9135499,-5.3736162,-5.9950275,0.59198821,-0.53793705,-0.60014468,0
-4.9954243,2.9732444,-8.067606,-0.50236177,0.2990025,-0.81131387,0
0.87369436,-8.8236933,-4.1159596,0.089375161,-0.90262574,-0.42104492,0
4.7631531,0.58021677,8.6696253,0.48069349,0.058555,0.87493145,0
-0.10216271,9.7241087,-2.661402,-0.010132927,0.9644779,-0.263969,0
2.5385797,-4.6013179,8.5851164,0.25219801,-0.45712301,0.85289788,0
-0.88628429,-9.1690588,-3.5317564,-0.089835644,-0.92939514,-0.35798627,0
-8.3201132,2.5599117,4.9210663,-0.83203495,0.25599846,0.49212062,0
4.0222616,8.2366438,4.2784824,0.39762774,0.81424791,0.42295691,0
6.2482162,-7.7031693,-1.9552687,0.61805356,-0.7619729,-0.19340894,0
-8.9020138,-3.8162768,1.282267,-0.91115266,-0.39060944,0.13124457,0
-6.9123411,4.8721571,-5.3622389,-0.69029599,0.4865545,-0.53549618,0
5.3283572,-1.357681,-8.3942747,0.5309844,-0.13529637,-0.83651084,0
4.5204525,8.955514,-1.4602728,0.44591567,0.88340801,-0.1440472,0
3.3023832,9.2224703,-1.4416081,0.33352655,0.93142998,-0.14559624,0
-6.1549587,5.4747567,5.430119,-0.62384045,0.55489808,0.55037379,0
-8.4451752,-3.8749161,3.7339134,-0.84334576,-0.38695398,0.37287328,0
-8.7153454,-4.6140347,-1.7855225,-0.86964661,-0.46040395,-0.17816547,0
-7.216094,-0.21983407,-6.9049282,-0.72233796,-0.022005603,-0.69118994,0
-8.9971533,-3.3080964,-2.6788199,-0.90393597,-0.33236149,-0.26913863,0
-9.469203,2.5790606,-0.045759853,-0.9648425,0.2627874,-0.0046625943,0
-7.0036788,7.1498146,0.53951901,-0.69875401,0.71333396,0.05382758,0
-5.1688471,-8.3873177,1.6816671,-0.51716387,-0.83918476,0.16825753,0
0.31609216,1.4707526,-9.7850647,0.031928416,0.14856048,-0.98838776,0
2.0744536,7.9149499,5.4368815,0.21116346,0.80568117,0.55343282,0
0.74784076,9.8675604,1.8374296,0.074301146,0.98038387,0.18255641,0
7.4157009,-6.1711445,-2.2689152,0.74824572,-0.62266976,-0.228934,0
-8.6955519,4.8526282,-0.16776271,-0.87310392,0.48724321,-0.016844736,0
0.071932539,5.2778716,-8.3758268,0.0072657061,0.53310317,-0.84601903,0
-4.0419731,-9.2418556,1.3417711,-0.39720875,-0.90820646,0.1318572,0
3.4927242,9.1236553,2.1190932,0.3493934,0.91268158,0.21198273,0
9.4585161,0.17352475,-3.5785496,0.93515998,0.017156327,-0.35380986,0
-4.6602001,7.2855501,-5.0127964,-0.46619529,0.72882903,-0.50146818,0
-8.4730158,2.933887,4.9108028,-0.82879537,0.28698069,0.48035443,0
9.3276758,-1.784721,3.4337709,0.92366105,-0.17672969,0.34002471,0
-6.2694564,-6.4487791,-4.5155177,-0.62296289,-0.64078122,-0.44868323,0
-3.728127,1.4103613,9.1065941,-0.37503552,0.14187704,0.91608906,0
-5.1579452,-8.3896055,0.0855482,-0.52371752,-0.85184765,0.0086862287,0
7.1709433,6.5798202,1.6751332,0.72614574,0.6662873,0.16962773,0
9.9756956,-0.27357721,-1.7312083,0.98491377,-0.027010646,-0.17092451,0
-4.6974678,1.101714,8.9082832,-0.46367195,0.10874665,0.87930799,0
5.2603073,-5.6110759,-6.4636092,0.52359319,-0.5585075,-0.64336574,0
-6.952498,-5.4797788,-4.4733171,-0.70096576,-0.55248302,-0.45100942,0
6.1388445,1.6084799,7.8187699,0.60961449,0.15972918,0.77643853,0
2.4909377,9.109787,-3.0415101,0.25105491,0.91815096,-0.30654564,0
4.0647407,-6.6427393,-6.5505247,0.39943132,-0.65276444,-0.64370275,0
1.4822319,-1.2503487,9.6889753,0.1500064,-0.12653911,0.98055393,0
8.898241,-4.4302797,-2.1651576,0.87467486,-0.43548542,-0.21282957,0
6.8913507,2.408237,-7.0238919,0.68026316,0.23772334,-0.69334668,0
-2.8740566,-5.9158196,7.5758896,-0.28647438,-0.58966506,0.75513411,0
5.0708442,8.5705843,-0.74846542,0.507774,0.85822392,-0.074948326,0
-5.0163608,7.2309375,5.1024542,-0.4931162,0.71081257,0.50157934,0
8.6640024,-4.478735,-1.0493201,0.88323128,-0.45657408,-0.10697047,0
8.6409216,-1.8237115,-4.8236084,0.85870504,-0.18123417,-0.47935358,0
5.4792342,-7.9013286,2.9209154,0.54524535,-0.78627092,0.29066387,0
-5.1653862,-8.7235003,0.98914587,-0.50709546,-0.8564021,0.09710627,0
-9.4242573,2.2531941,2.3198915,-0.94585884,0.2261402,0.23283423,0
3.9605708,7.5055976,5.4521194,0.39264467,0.74409294,0.54051441,0
6.5959845,-5.0543776,-5.6286216,0.65718728,-0.50359017,-0.56080461,0
4.7385406,8.418705,-2.5386026,0.47439313,0.84282821,-0.25414905,0
1.747208,-3.9200897,-9.0054607,0.17514327,-0.39295682,-0.90272355,0
-9.5008373,2.4023936,-1.9307499,-0.95120114,0.24052191,-0.19330207,0
4.6087089,-8.7251921,1.6397064,0.46073771,-0.87226707,0.16392325,0
-6.2909155,-4.3015814,6.3545971,-0.63399184,-0.43350884,0.64040959,0
2.7374196,5.4851441,-8.0675163,0.27016553,0.5413481,-0.79621148,0
-6.1923962,2.7656379,7.4689693,-0.61380082,0.27413473,0.74033689,0
-3.1907303,7.8721037,5.6206541,-0.31326488,0.77288055,0.55183399,0
-3.5597587,-9.454381,-0.78224432,-0.35131821,-0.9330678,-0.077200927,0
-6.1413198,0.97920692,7.8767219,-0.61194086,0.097571328,0.78486192,0
-1.2864286,-8.0269651,5.9387875,-0.12777926,-0.79730791,0.58989197,0
-9.2719612,0.65251082,3.5265903,-0.93265939,0.065635562,0.35473698,0
2.40467,7.740274,5.9264059,0.23949118,0.77088636,0.59023565,0
4.9042616,8.7603827,1.3850663,0.48390236,0.86438495,0.13666417,0
-7.8365235,-5.1699443,-4.083168,-0.7654531,-0.50498796,-0.3988342,0
10.094931,0.23202908,0.82583833,0.99640906,0.022902176,0.081513464,0
-0.25945383,-9.2190828,4.0931735,-0.025713354,-0.91366369,0.40565684,0
-0.44674554,2.0075552,-9.8292122,-0.044487372,0.19991438,-0.97880292,0
5.3832593,8.2150354,-0.93795979,0.54561478,0.83262658,-0.095065966,0
7.8270235,-0.11637413,-6.3903022,0.77456641,-0.011516445,-0.6323877,0
-6.5023699,-6.6587992,-3.7382617,-0.64831108,-0.66390765,-0.37271893,0
-4.1486721,1.8495466,8.9206839,-0.41443041,0.18475991,0.89112914,0
5.6950283,-2.5743823,-7.8038964,0.56961226,-0.25748768,-0.78053957,0
5.3106303,-0.52176774,-8.324357,0.53708541,-0.052768473,-0.84187573,0
5.0078435,6.4596124,-5.6766214,0.50323319,0.64911997,-0.57043803,0
-5.658875,1.3768383,7.9127841,-0.57596672,0.14013617,0.80537212,0
0.68163896,7.10712,-7.0971088,0.067710154,0.70598102,-0.70498657,0
-4.0857062,6.0602698,6.8773537,-0.407112,0.60386342,0.68528008,0
3.4353046,5.5801239,-7.5975313,0.34239969,0.55617565,-0.75725234,0
-5.3438292,0.57961088,-8.4432383,-0.53390068,0.057908785,-0.84356189,0
-5.1250277,7.6654625,-4.1809125,-0.50620115,0.75712103,-0.41295052,0
7.6870694,-3.022208,5.3401637,0.7815432,-0.30726743,0.54293364,0
2.7966535,8.8087387,-3.4471512,0.28352198,0.89302123,-0.34946877,0
3.648226,9.3214989,1.6850861,0.35940164,0.9182989,0.16600472,0
-4.0537605,4.026226,8.0142221,-0.41187048,0.40907294,0.81426162,0
-0.062060107,-5.6618776,8.0238094,-0.0063194446,-0.5765366,0.81704688,0
-8.7215633,2.4967165,4.1139307,-0.87556154,0.25064647,0.4129993,0
4.9007735,-8.8408203,1.4133666,0.48015592,-0.86618412,0.13847534,0
-4.8143787,6.0800638,-6.2290936,-0.48399276,0.61123294,-0.62621498,0
10.036016,1.5916276,-0.4897694,0.98651147,0.15645242,-0.048142921,0
4.4468575,4.1185408,8.0100546,0.44270271,0.41001743,0.79743344,0
-3.2223375,9.5353174,1.4421744,-0.31691366,0.93778896,0.14183642,0
-9.1818895,1.0839831,-3.6277542,-0.92448431,0.10914152,-0.36526272,0
-9.4496441,-0.87067813,-3.0179646,-0.9489491,-0.087434955,-0.30306906,0
3.8929503,9.0146465,-2.3655145,0.38543198,0.89251924,-0.23420411,0
7.1866088,-5.3189931,4.2884994,0.72473699,-0.53639638,0.43247575,0
6.58042,6.2148085,4.5062537,0.65081865,0.61465883,0.44567883,0
-1.4149826,8.4260702,5.1506538,-0.1418319,0.84459388,0.51627988,0
6.3576279,-0.31713361,-7.8696947,0.6281085,-0.031331547,-0.77749473,0
-3.2914495,2.2270222,-9.2674561,-0.32641608,0.22085585,-0.91906214,0
2.7775626,9.4806423,0.5291357,0.28075182,0.95828897,0.053484235,0
7.079102,-6.3917871,-2.2109156,0.72304738,-0.65284622,-0.22581914,0
6.7796063,-2.8838925,-6.5062346,0.68974918,-0.29340383,-0.6619367,0
2.19875,7.5633612,-6.0565653,0.22129484,0.76122016,-0.60956752,0
4.7101126,-8.3548708,-3.6024215,0.45973334,-0.81548214,-0.35161647,0
-9.4438391,0.90329176,3.1686912,-0.94418263,0.090309925,0.31680158,0
-3.7783148,4.3952761,8.1932945,-0.37647074,0.43794468,0.81637871,0
8.130125,-5.6642365,-1.5674609,0.81042552,-0.56462133,-0.15624733,0
-3.8496203,-1.8353616,8.9440994,-0.38850379,-0.18522474,0.90263873,0
-7.3324437,-1.4134665,-6.649395,-0.73332846,-0.14136285,-0.66501576,0
-0.26858407,-0.50510097,-10.151615,-0.026415367,-0.04967691,-0.99841601,0
9.3936453,-1.7402976,-2.7442284,0.94505203,-0.17508343,-0.27608436,0
-4.0454321,-7.332377,-5.7797594,-0.39757726,-0.72061187,-0.56802362,0
0.86088407,-2.6844542,-9.6502485,0.0856295,-0.26701444,-0.95988071,0
4.2715034,-1.9516733,-8.6114264,0.43547922,-0.19897284,-0.8779338,0
-9.6173868,-3.2053325,0.15703583,-0.94858325,-0.31614873,0.015488776,0
6.0852952,-7.936255,-1.4635928,0.60207063,-0.78520203,-0.14480583,0
0.037785362,-0.30679426,10.076271,0.0037481717,-0.030432884,0.99952972,0
-6.1873498,-5.5705419,-5.1950727,-0.63049948,-0.56764591,-0.52938509,0
4.5183306,-6.2441902,-6.3281946,0.45307785,-0.62613928,-0.63456291,0
-8.9759607,-1.4755868,3.9781764,-0.90407842,-0.14862433,0.40069062,0
-0.44836482,9.6922464,1.7220405,-0.045499675,0.9835608,0.17475119,0
-0.65362793,7.7075257,6.0442705,-0.066583686,0.78514922,0.61571693,0
-9.8951588,1.907178,-1.4396704,-0.97205818,0.18735304,-0.14142708,0
-1.5339575,9.2284279,-3.8081975,-0.15187007,0.91366422,-0.37703213,0
-2.8859761,-0.30832782,-9.5440521,-0.28930315,-0.03090816,-0.95673847,0
-6.4777341,4.6264729,6.1547194,-0.64377552,0.45979196,0.61167341,0
3.2871187,4.5059252,-8.3689461,0.32684153,0.44802871,-0.83213282,0
2.2515128,-6.0083494,-7.5293527,0.22759892,-0.60736668,-0.7611205,0
1.4066153,7.1661601,-6.9847918,0.139194,0.70913953,-0.69119191,0
2.8809767,9.4792738,-0.62295294,0.29021713,0.95490104,-0.062753588,0
2.6765499,8.6327496,-4.2670746,0.26779401,0.86372328,-0.42692906,0
-2.7060053,-1.9038589,9.5458851,-0.26784116,-0.18844448,0.94485438,0
1.9478545,9.7385626,2.1546133,0.19167109,0.95828557,0.21201637,0
9.3944569,0.99406415,-3.6935236,0.92617559,0.098002255,-0.36413512,0
7.3441224,-6.7720776,-0.53355509,0.73411191,-0.67693079,-0.053333689,0
-2.9156032,-5.2086043,-8.155961,-0.28847569,-0.51534986,-0.80696732,0
-8.9628601,3.6557379,2.1302702,-0.90430045,0.36884269,0.21493188,0
-3.3283579,3.3838687,8.7613554,-0.33402389,0.33959478,0.87926298,0
-2.5030396,-4.4666495,8.7528811,-0.24683671,-0.44047767,0.86316347,0
2.6303229,-8.1565294,4.6884604,0.26925784,-0.83495814,0.47994289,0
-7.5095425,2.8528903,-6.0692883,-0.74586815,0.28335679,-0.60281819,0
6.0025096,-6.8749084,-4.484107,0.59029484,-0.67608774,-0.4409731,0
-2.8346555,-1.7961345,-9.5008221,-0.28132579,-0.17825761,-0.94291037,0
8.0425978,-5.5797868,2.593307,0.79422599,-0.55101746,0.25609535,0
-2.3201551,8.027236,5.7037339,-0.22933398,0.79344606,0.56378126,0
-8.9259729,-4.253861,-0.53341144,-0.90141636,-0.429589,-0.053868167,0
1.9536068,-3.7395484,-8.969162,0.19709621,-0.37727696,-0.9048841,0
5.0213366,-4.590219,-7.3518486,0.50129819,-0.45825815,-0.73396158,0
4.836061,1.6399175,-8.545289,0.48580012,0.16473575,-0.85840571,0
4.4616909,-0.061473478,8.8797903,0.44895872,-0.0061857835,0.89353102,0
-7.3249822,6.2768583,2.7664037,-0.72992134,0.62547773,0.27566719,0
4.3142343,4.7638898,-7.3834524,0.44072703,0.48666227,-0.75426757,0
-6.9597669,-6.7311745,2.1183279,-0.70220345,-0.67913967,0.21372801,0
6.5284891,-4.3243284,-6.0634604,0.65918601,-0.4366304,-0.61223173,0
-3.9733002,1.9979352,9.1031857,-0.3921738,0.19720076,0.89850515,0
5.0466704,-6.8711228,5.2508512,0.5040307,-0.68624592,0.52442306,0
6.1871567,2.0335412,7.3369493,0.63066316,0.20728092,0.7478627,0
-4.5807991,1.2336978,-8.7957163,-0.45837712,0.12344982,-0.88014233,0
-4.3743806,9.1351948,-0.37994623,-0.43158373,0.90129364,-0.037486132,0
4.1417532,4.4772372,8.0310278,0.41070476,0.44397205,0.79637325,0
4.8051734,6.0852828,-6.2704854,0.48187006,0.61024135,-0.62881374,0
-1.3746359,8.0491247,-5.8191772,-0.13709335,0.80274457,-0.5803504,0
1.8633068,7.0782518,6.9136519,0.18506531,0.70301837,0.68667018,0
-9.1795549,2.2811584,-3.4211664,-0.91262174,0.22679038,-0.34012878,0
4.3733621,-7.2568216,5.3045678,0.43749768,-0.72595006,0.53065264,0
7.107717,-3.1785457,-5.9228945,0.72655129,-0.32491115,-0.60543865,0
-6.0261922,-7.9959178,-0.82379335,-0.59984136,-0.79590601,-0.0819996,0
-8.3211327,-5.0591578,-2.4320357,-0.82900566,-0.50402641,-0.2422953,0
-2.6958098,-8.9834833,3.2029393,-0.27200004,-0.90640956,0.32316804,0
-9.2138405,0.84054196,3.6255016,-0.92721778,0.084586389,0.36484566,0
-1.6915966,-9.8316059,0.37242484,-0.16944741,-0.98483294,0.037305832,0
1.1897272,-10.087472,-0.62135857,0.11691069,-0.99126363,-0.061058924,0
7.369525,5.8862176,3.33921,0.7365557,0.58830482,0.33374122,0
-4.8824954,3.8529313,-7.6997247,-0.493283,0.38926521,-0.77791029,0
-3.1767833,3.0467958,-9.1281538,-0.31347749,0.30065066,-0.90074474,0
1.9918175,9.6430531,-0.91474575,0.20141724,0.975128,-0.092501223,0
10.06373,0.70345402,1.1739674,0.9908793,0.069262393,0.11558934,0
1.9065062,1.1534998,-9.8550978,0.1886906,0.11416411,-0.9753781,0
-6.9001203,-1.8437577,-7.0272918,-0.68865693,-0.18401369,-0.70134914,0
7.4656892,-6.0659018,-3.0871813,0.73898745,-0.60043019,-0.30558309,0
9.4854412,-0.22093703,2.7787421,0.95942914,-0.022347238,0.28106296,0
8.5963564,-3.1312656,-4.4776754,0.84395003,-0.30741298,-0.43959719,0
3.0285444,5.4017415,-7.7737441,0.30471584,0.54349416,-0.7821523,0
3.7960725,-0.78137511,9.0734625,0.38474235,-0.079194508,0.91962028,0
8.6944723,-0.0013618947,-4.640501,0.88220757,-0.00013818823,-0.47086066,0
-1.813208,9.1728745,3.787333,-0.17973424,0.90926123,0.37541941,0
0.18858615,7.9838333,5.9738359,0.018909371,0.8005321,0.59899139,0
5.8296962,-4.8633738,6.7801538,0.57272846,-0.47779375,0.6661045,0
6.0005341,8.250392,0.62609959,0.5870831,0.80720574,0.061256628,0
5.1051955,4.3868623,7.3424945,0.51252282,0.44040763,0.73713064,0
4.4208798,3.9262445,8.0861282,0.44132724,0.39194882,0.80722135,0
9.0440216,3.5679195,2.0275755,0.9106366,0.35925147,0.20415525,0
-9.3608904,-1.4509875,2.7490065,-0.94904333,-0.14710674,0.27870494,0
5.3428664,-8.4244795,0.088375896,0.53555775,-0.8444522,0.0088586146,0
4.9864674,6.8755164,5.435153,0.49451387,0.68185312,0.53901058,0
9.2421789,-1.8861794,2.9043434,0.9364205,-0.1911083,0.294269,0
8.3685694,-0.34974146,5.5273213,0.83391607,-0.034851238,0.55078971,0
-5.6715827,6.4201593,-4.7362823,-0.579404,0.65587795,-0.48385453,0
-9.9976845,2.0732276,-0.082270361,-0.97913635,0.20304427,-0.0080572562,0
8.3736229,-5.3425422,1.9466277,0.82729059,-0.52782828,0.19232139,0
-1.6305224,8.7384624,4.2822485,-0.16525066,0.88562828,0.43399858,0
8.8504143,4.0538311,2.9861488,0.86919081,0.39812291,0.29326686,0
1.8109627,-9.6051912,1.4655864,0.18322748,-0.97182286,0.14828339,0
-3.3649926,9.3298016,-0.45992285,-0.3389143,0.93967617,-0.046322372,0
4.2847743,-2.8739905,-8.7767038,0.42086619,-0.28229386,-0.86207992,0
2.4905753,-9.095068,3.8322349,0.24468111,-0.893525,0.37648949,0
4.4563313,3.3252211,-8.2704287,0.4471651,0.33366522,-0.82988602,0
