0.62379861,-0.91211629,-1.9425192,0.99835497,0.020912945,0.053382993,0
-0.25350279,0.054019213,1.2061415,-0.37795353,-0.84733641,0.37305719,0
0.027704895,-1.6124994,-3.1142039,0.057213485,-0.42355233,-0.90406299,0
0.28788644,-1.7197137,-3.0475087,0.057213485,-0.42355233,-0.90406299,0
0.0041905642,-1.2494245,-3.2857921,0.057213485,-0.42355233,-0.90406299,0
0.46631742,-1.2567592,-3.2531104,0.057213485,-0.42355233,-0.90406299,0
-0.17482543,0.17008364,1.5216625,-0.18284845,-0.89467472,0.40758228,0
0.21926129,-1.3729861,-3.2142928,0.057213485,-0.42355233,-0.90406299,0
0.29643095,-1.6228863,-3.0923314,0.057213485,-0.42355233,-0.90406299,0
0.17010972,-1.827124,-2.721967,-0.031032681,-0.90586323,0.42243168,0
0.34926406,1.0729229,1.9144955,0.94629478,0.31162581,-0.086110175,0
0.37971044,-1.338201,-3.2204356,0.057213485,-0.42355233,-0.90406299,0
-0.084231853,1.3621397,3.2279198,-0.057213485,0.42355233,0.90406299,0
-0.31284285,0.05726403,1.1403462,-0.50289428,-0.79449832,0.34039575,0
-0.61516249,1.5879273,3.0885386,-0.057213485,0.42355233,0.90406299,0
0.5516504,-0.67804027,-2.0578151,0.85394818,0.4898811,-0.17546666,0
0.1128211,-0.88188004,-0.7107929,0.10863155,-0.89752859,0.42736548,0
-0.15336984,-0.5182249,0.0060811043,-0.33022273,-0.86260462,0.38323092,0
0.49881119,-1.7231774,-3.0325377,0.057213485,-0.42355233,-0.90406299,0
0.24110079,0.29549974,-0.42044276,0.45145047,0.81865162,-0.35496715,0
0.4878304,-0.029797703,-0.53253114,0.91593301,0.38257048,-0.12126905,0
0.066110551,1.7032031,3.0776465,-0.057213485,0.42355233,0.90406299,0
-0.037532926,1.7486292,3.0498052,-0.057213485,0.42355233,0.90406299,0
-0.14184129,-0.92135286,-2.8848488,-0.62584364,0.6903165,-0.36301857,0
-0.54640305,0.56564069,0.91499978,-0.96715885,0.20111153,-0.15542686,0
-0.27812663,-1.4553672,-2.5757816,-0.89143062,-0.42941144,0.14476466,0
0.32035831,1.3464841,2.6202626,0.97494179,0.21869361,-0.040758789,0
0.28167325,-1.2174611,-1.4939785,0.34794635,-0.84031129,0.41570431,0
-0.037242413,-0.90791845,-3.0022333,-0.42882279,0.8073318,-0.40537161,0
-0.028846264,-1.3938606,-3.2202148,0.057213485,-0.42355233,-0.90406299,0
0.46115398,-0.14433312,-0.99872172,0.80897677,0.55032688,-0.20663142,0
0.27264798,-1.6523916,-3.0800133,0.057213485,-0.42355233,-0.90406299,0
-0.19165272,1.6300253,3.0956175,-0.057213485,0.42355233,0.90406299,0
-0.048065543,-1.1462107,-3.3374546,0.057213485,-0.42355233,-0.90406299,0
0.33437717,-1.3882496,-3.1998572,0.057213485,-0.42355233,-0.90406299,0
0.30667031,-1.4249418,-3.1844201,0.057213485,-0.42355233,-0.90406299,0
-0.045059681,0.25704229,1.7211993,0.10069031,-0.89848095,0.42730907,0
0.068008542,-1.7094853,-3.0662155,0.057213485,-0.42355233,-0.90406299,0
0.46370947,-1.7783196,-3.008925,0.057213485,-0.42355233,-0.90406299,0
-0.49063456,1.1981719,3.2790194,-0.057213485,0.42355233,0.90406299,0
-0.33651328,0.62908423,2.4281054,-0.38914895,-0.84338307,0.37049645,0
0.52758038,-0.17204532,-0.54300964,0.98719454,0.15906407,-0.012046933,0
0.18606853,-0.069125235,0.89815992,0.46048275,-0.7922743,0.40032077,0
0.31843817,-0.50451756,-2.1635265,0.38652456,0.8443228,-0.37110287,0
-0.50353956,0.056740835,0.47741604,-0.95164424,-0.29690349,0.07887429,0
0.11768407,1.7564889,3.0559459,-0.057213485,0.42355233,0.90406299,0
-0.31577539,-1.3692901,-2.9242733,-0.99836099,-0.023078144,-0.052368879,0
0.21088874,-1.4445193,-3.1813097,0.057213485,-0.42355233,-0.90406299,0
-0.049120188,-0.95158529,-3.0757723,-0.46222457,0.79140872,-0.40002549,0
0.20896018,-1.3332939,-3.2335405,0.057213485,-0.42355233,-0.90406299,0
0.50710195,-0.024920173,-0.26189288,0.98258364,0.18424499,-0.024135828,0
-0.4583202,1.4698949,2.2081146,-0.61397249,0.69913471,-0.36639863,0
-0.043840528,0.32986718,-0.46597448,-0.11961162,0.89611572,-0.4273985,0
0.65623248,-1.1325948,-2.6439061,0.97976655,0.19778126,-0.030655921,0
-0.39310646,0.53069317,2.1255193,-0.53803563,-0.77587509,0.32944685,0
0.21842897,-0.72111595,-2.7091885,0.12021542,0.90188026,-0.4149217,0
0.30892837,-1.4632908,-3.166311,0.057213485,-0.42355233,-0.90406299,0
-0.024380922,0.078083158,1.3400105,0.093805194,-0.89925957,0.42723817,0
0.24592842,-1.0796645,-1.1862427,0.31520408,-0.85156596,0.41890502,0
-0.24325189,1.3611195,1.7603631,-0.23683536,0.87393939,-0.42442739,0
0.21061879,-1.5964459,-3.1101494,0.057213485,-0.42355233,-0.90406299,0
0.26693892,1.4308839,3.217937,-0.057213485,0.42355233,0.90406299,0
0.070211172,-1.8432344,-3.0034149,0.057213485,-0.42355233,-0.90406299,0
0.27742302,1.07276,1.5301502,0.76331478,0.60222232,-0.23383403,0
0.56461704,-1.1752653,-3.285069,0.057213485,-0.42355233,-0.90406299,0
0.55992913,-1.5246626,-3.1216736,0.057213485,-0.42355233,-0.90406299,0
-0.11755124,-0.64195371,-0.24269296,-0.29055214,-0.87341309,0.39080516,0
-0.60322726,0.76458633,1.9310671,-0.96568167,-0.25327253,0.057544887,0
0.014455795,-1.6559846,-3.0946696,0.057213485,-0.42355233,-0.90406299,0
-0.35151148,-1.1128273,-2.1121471,-0.9731555,-0.22585773,0.044228137,0
-0.5825631,0.70763963,1.3423301,-0.98815298,0.10514355,-0.11179459,0
-0.35472286,1.307961,3.2361841,-0.057213485,0.42355233,0.90406299,0
0.60999662,-0.78431642,-1.765295,0.99536884,0.094265342,0.018828511,0
-0.10168827,1.4245937,3.1975555,-0.057213485,0.42355233,0.90406299,0
-0.35318598,-0.029112339,-0.78741688,-0.78692842,0.53813559,-0.30191624,0
-0.61139756,1.1579005,2.0947521,-0.94597352,0.26648554,-0.18471372,0
0.26167661,-1.6520728,-3.0808568,0.057213485,-0.42355233,-0.90406299,0
-0.50759715,1.3644841,2.1058323,-0.72789359,0.60207713,-0.32813674,0
0.36348987,-0.47922242,-2.0502088,0.48928165,0.80123758,-0.34441453,0
-0.30962217,1.5979395,3.1031842,-0.057213485,0.42355233,0.90406299,0
-0.38649061,-0.7977457,-1.7978915,-0.99510479,0.048893154,-0.085881352,0
0.54635167,-1.3122673,-3.2220399,0.057213485,-0.42355233,-0.90406299,0
-0.35375756,1.8236219,2.7798543,-0.32924205,0.84688264,-0.41759914,0
-0.097990699,1.1304722,1.2345074,-0.012841821,0.90515918,-0.42487839,0
0.50733113,-1.344393,-3.2094584,0.057213485,-0.42355233,-0.90406299,0
0.30492845,-0.97302961,-1.0275061,0.45440733,-0.79526275,0.40133649,0
-0.5596512,1.6789511,3.0494075,-0.057213485,0.42355233,0.90406299,0
0.14931452,-1.4143744,-3.1993294,0.057213485,-0.42355233,-0.90406299,0
0.19210982,-1.1362033,-3.3269436,0.057213485,-0.42355233,-0.90406299,0
0.38610291,-1.4552104,-3.1652122,0.057213485,-0.42355233,-0.90406299,0
0.42845419,0.47442216,0.61953092,0.94118661,0.32493103,-0.092666924,0
0.44559413,-0.055987358,-0.82408583,0.80030644,0.56082392,-0.21209794,0
0.47769898,-0.12169629,0.083689451,0.95503008,-0.24066913,0.17319191,0
-0.35128245,0.61960834,0.40652478,-0.62818074,0.68854892,-0.36233848,0
-0.23507209,-1.0505693,-1.3581525,-0.66002172,-0.6954723,0.28405842,0
0.057894826,-1.2699928,-3.2727571,0.057213485,-0.42355233,-0.90406299,0
0.49790168,-1.4550186,-3.1582274,0.057213485,-0.42355233,-0.90406299,0
-0.043649912,-1.1751139,-3.3236339,0.057213485,-0.42355233,-0.90406299,0
-0.49532092,1.8366472,2.9795983,-0.057213485,0.42355233,0.90406299,0
-0.41595611,0.75707293,0.78850722,-0.71092647,0.61848629,-0.33475059,0
0.54241574,-0.58247328,-1.8354791,0.86317158,0.47600609,-0.16838253,0
-0.57082176,0.65586406,1.1924183,-0.98276496,0.13554615,-0.12569726,0
0.33818126,-0.31325769,-1.7000301,0.48309946,0.80421388,-0.34620017,0
-0.26705799,-1.506952,-2.6615713,-0.8807407,-0.44783568,0.15407294,0
-0.21106172,-0.72934806,-2.3928704,-0.70363069,0.62530631,-0.33748424,0
-0.11438882,0.68232274,2.6314256,0.07725966,-0.90095234,0.4269841,0
0.044683695,1.8755395,2.9955511,-0.057213485,0.42355233,0.90406299,0
0.61697984,-1.3872447,-3.1824434,0.057213485,-0.42355233,-0.90406299,0
-0.44119978,-0.39260495,-0.46279266,-0.94641459,-0.31130567,0.08595264,0
0.07102406,-1.8207467,-3.0138988,0.057213485,-0.42355233,-0.90406299,0
0.45688212,-0.82084811,-2.7014992,0.5915221,0.74386752,-0.31106645,0
0.3080706,1.2702985,2.9384243,0.97966802,-0.15059814,0.13255298,0
-0.64951169,1.4867198,3.1337807,-0.057213485,0.42355233,0.90406299,0
0.054998934,0.58740717,0.088134803,0.14722455,0.89922547,-0.41196865,0
0.16545928,-1.0798924,-3.3550119,0.057213485,-0.42355233,-0.90406299,0
0.43216506,-0.51496094,-0.38839251,0.79636395,-0.52676725,0.29718733,0
0.26633722,-1.9113935,-2.9590709,0.057213485,-0.42355233,-0.90406299,0
-0.058458626,0.32518539,-0.47116524,-0.14951599,0.8916986,-0.42722148,0
-0.03739959,-1.614202,-3.1175265,0.057213485,-0.42355233,-0.90406299,0
-0.26167417,1.3028817,3.244453,-0.057213485,0.42355233,0.90406299,0
-0.27662849,1.3830009,3.2059708,-0.057213485,0.42355233,0.90406299,0
-0.64881849,1.1996647,2.3907189,-0.98792863,0.10655326,-0.11244082,0
-0.45901465,1.5987297,3.0933597,-0.057213485,0.42355233,0.90406299,0
-0.081978798,-1.2200005,-3.3050306,0.057213485,-0.42355233,-0.90406299,0
0.29003036,-1.5099189,-3.1456618,0.057213485,-0.42355233,-0.90406299,0
-0.31265897,-0.84926987,-1.069958,-0.77511781,-0.58956838,0.22715876,0
-0.52469277,1.1892715,1.8315711,-0.79883695,0.52372766,-0.29591978,0
0.20090568,-1.2450466,-3.275394,0.057213485,-0.42355233,-0.90406299,0
0.047534347,0.98234415,3.1384399,0.46703652,-0.7889967,0.39919996,0
-0.54611367,1.5159242,2.470865,-0.75957274,0.56919992,-0.31473863,0
-0.33810025,-1.2181613,-2.5590096,-0.99775374,-0.05585897,-0.036972642,0
-0.37499928,-0.10790539,-0.86340749,-0.84209216,0.46595913,-0.27159274,0
-0.20082814,-1.6910293,-3.0918753,0.057213485,-0.42355233,-0.90406299,0
-0.099404454,0.22142267,1.6510161,-0.016630411,-0.90582496,0.42332521,0
0.61029994,-1.202008,-3.2308969,0.82411444,0.53117263,-0.19669974,0
-0.32043889,0.078503907,-0.66800159,-0.70407945,0.62489074,-0.337318,0
-0.57793713,1.1353855,3.1757109,-0.76853842,-0.59668231,0.23090795,0
-0.62814558,1.2400703,3.2506876,-0.057213485,0.42355233,0.90406299,0
0.33689737,1.0691175,2.4965878,0.98167467,-0.14100596,0.12818611,0
0.13525283,-1.1629946,-3.3179901,0.057213485,-0.42355233,-0.90406299,0
-0.39930028,-0.5205009,-0.55030239,-0.87814128,-0.45216045,0.15626347,0
0.1756143,1.4646058,3.1963589,-0.057213485,0.42355233,0.90406299,0
0.30774724,-1.7956319,-3.010684,0.057213485,-0.42355233,-0.90406299,0
-0.33400166,1.7934026,3.010067,-0.057213485,0.42355233,0.90406299,0
0.23942888,-1.0837648,-3.3485165,0.057213485,-0.42355233,-0.90406299,0
0.47992927,-1.8269184,-2.9851301,0.057213485,-0.42355233,-0.90406299,0
-0.37088019,-0.75354707,-1.8837886,-0.97073007,0.18797171,-0.14949691,0
-0.57362902,0.78352749,1.3665707,-0.96415752,0.21155995,-0.16013205,0
-0.31088042,-1.3158362,-2.9617953,-0.98989403,0.093623638,-0.10650766,0
0.16503501,-1.2684934,-3.2666795,0.057213485,-0.42355233,-0.90406299,0
-0.28196657,1.2902856,3.2490697,-0.057213485,0.42355233,0.90406299,0
0.34821188,0.12833446,-0.63592231,0.63457823,0.71451211,-0.29458869,0
-0.2736302,-0.49358541,-0.093484759,-0.57906187,-0.75174344,0.31554487,0
0.41404223,-1.5072725,-3.1390536,0.057213485,-0.42355233,-0.90406299,0
-0.045328736,1.7991887,3.025625,-0.057213485,0.42355233,0.90406299,0
0.13461435,0.11699593,1.3238006,0.4109638,-0.81527573,0.40796322,0
0.055379033,-1.2096679,-3.3011787,0.057213485,-0.42355233,-0.90406299,0
0.12508821,1.1541965,3.3385878,-0.057213485,0.42355233,0.90406299,0
0.44452319,0.40023839,0.53393483,0.96076924,0.26951149,-0.065463722,0
-0.27853242,-1.2520049,-2.00597,-0.82343674,-0.53205377,0.19715542,0
-0.073076665,1.9003686,2.9764662,-0.057213485,0.42355233,0.90406299,0
-0.17363252,0.87955451,0.72997272,-0.22798485,0.8760761,-0.42486835,0
0.60418224,-1.0539495,-1.9092517,0.95581788,-0.23829302,0.17212868,0
0.13911498,-0.35848606,-1.9416726,0.059080482,0.90539569,-0.42043763,0
-0.39371908,1.5892116,3.1019514,-0.057213485,0.42355233,0.90406299,0
0.079162404,0.95870137,0.92211139,0.29966259,0.87107772,-0.38913453,0
0.14898312,-1.168175,-3.3146944,0.057213485,-0.42355233,-0.90406299,0
-0.29796875,-1.465946,-2.7741029,-0.95201385,-0.29585314,0.078358769,0
-0.053080797,-1.3310692,-3.2511661,0.057213485,-0.42355233,-0.90406299,0
-0.075147867,-1.3932397,-3.2234359,0.057213485,-0.42355233,-0.90406299,0
0.21514682,-1.4215027,-1.8720784,0.16632581,-0.88884735,0.4269495,0
0.10162544,-1.2244663,-3.2913189,0.057213485,-0.42355233,-0.90406299,0
0.67989945,-1.3293678,-3.1300375,0.9671188,0.24828058,-0.055115223,0
-0.61344433,1.4474095,3.15448,-0.057213485,0.42355233,0.90406299,0
0.051152229,-1.0800216,-3.3621852,0.057213485,-0.42355233,-0.90406299,0
0.4840517,-1.486594,-3.1443107,0.057213485,-0.42355233,-0.90406299,0
0.62674493,-1.5313164,-2.7388501,0.89183867,-0.38532105,0.23696208,0
-0.39763406,-0.18244934,-0.91009247,-0.89565581,0.37827289,-0.2339015,0
-0.59021288,0.66311002,1.702347,-0.96831721,-0.24402359,0.053044975,0
0.099186361,1.8206601,3.0247111,-0.057213485,0.42355233,0.90406299,0
-0.61845875,1.6707013,3.049551,-0.057213485,0.42355233,0.90406299,0
-0.11705947,-1.6954739,-3.0844917,0.057213485,-0.42355233,-0.90406299,0
0.33786893,-0.94382858,-3.1374683,0.30321383,0.87014389,-0.38847232,0
0.58855033,-1.4745868,-3.1433227,0.057213485,-0.42355233,-0.90406299,0
-0.1252231,-1.7207298,-3.0731761,0.057213485,-0.42355233,-0.90406299,0
-0.0098634362,0.87024128,0.68410873,0.093285084,0.90385258,-0.41755003,0
-0.22546577,1.0309126,3.3741612,-0.057213485,0.42355233,0.90406299,0
-0.40621328,0.37834013,1.7391551,-0.61151659,-0.73066109,0.30361396,0
-0.18088531,1.8689598,2.9843585,-0.057213485,0.42355233,0.90406299,0
0.032177925,-1.5538776,-3.1413851,0.057213485,-0.42355233,-0.90406299,0
-0.1182211,0.43701801,-0.21222389,-0.23644221,0.87403601,-0.42444777,0
0.30676749,1.3777533,2.5511031,0.94221026,0.3223187,-0.091378272,0
-0.26558089,1.4360156,3.1818323,-0.057213485,0.42355233,0.90406299,0
-0.364784,1.491758,3.1494393,-0.057213485,0.42355233,0.90406299,0
0.30129623,0.67383301,2.0627959,0.84667253,-0.4592618,0.26874495,0
0.028200626,-1.133795,-3.3384447,0.057213485,-0.42355233,-0.90406299,0
0.18173325,1.3415041,3.2544193,-0.057213485,0.42355233,0.90406299,0
-0.087120175,1.4317937,3.1951041,-0.057213485,0.42355233,0.90406299,0
0.48227584,-0.39902771,-1.5910888,0.77745837,0.58700001,-0.22580737,0
0.40660584,-1.5780202,-3.1063788,0.057213485,-0.42355233,-0.90406299,0
-0.3630234,1.0334187,1.2201695,-0.54735911,0.74400955,-0.38320696,0
0.61346853,-1.1539636,-2.0998762,0.94976252,-0.25599992,0.18004107,0
-0.39795005,1.3925357,3.1938257,-0.057213485,0.42355233,0.90406299,0
-0.12703353,1.3110156,1.6200646,-0.022101641,0.904787,-0.42529005,0
0.10813689,-1.3291023,-3.2418852,0.057213485,-0.42355233,-0.90406299,0
0.21953094,-1.6479084,-3.0854752,0.057213485,-0.42355233,-0.90406299,0
-0.13316512,1.7830198,3.0276413,-0.057213485,0.42355233,0.90406299,0
-0.12738651,-1.6169782,-3.1219206,0.057213485,-0.42355233,-0.90406299,0
0.191818,-1.8344326,-2.9998426,0.057213485,-0.42355233,-0.90406299,0
0.27669817,0.65122604,2.0952537,0.79989928,-0.52241397,0.29537153,0
-0.20444608,-1.2521431,-3.2977219,0.057213485,-0.42355233,-0.90406299,0
0.477869,0.16604817,0.36414558,0.99832785,0.016803801,0.055306315,0
-0.17870873,1.1736839,1.3419807,-0.16053712,0.88985932,-0.4270573,0
-0.004828155,1.902033,2.9800057,-0.057213485,0.42355233,0.90406299,0
-0.26134109,1.5360136,3.135252,-0.057213485,0.42355233,0.90406299,0
-0.42385912,1.6204104,3.085427,-0.057213485,0.42355233,0.90406299,0
0.15228993,-1.8443298,-2.9977074,0.057213485,-0.42355233,-0.90406299,0
-0.42153871,1.3433423,3.21538,-0.057213485,0.42355233,0.90406299,0
0.14119315,0.90465069,2.8541741,0.62056875,-0.69426775,0.36453593,0
0.51180792,-1.5814272,-3.0981247,0.057213485,-0.42355233,-0.90406299,0
-0.58859611,1.4530861,3.1533928,-0.057213485,0.42355233,0.90406299,0
-0.12834775,1.1044891,3.3458369,-0.057213485,0.42355233,0.90406299,0
0.020344853,-0.43836582,-2.0910661,-0.19700825,0.8829506,-0.42612866,0
-0.41674471,1.7854981,3.008534,-0.057213485,0.42355233,0.90406299,0
-0.43439969,0.76551735,0.84476334,-0.7414639,0.58836854,-0.32257318,0
-0.26160693,1.4232883,3.1880467,-0.057213485,0.42355233,0.90406299,0
-0.59106326,1.3750849,3.1897805,-0.057213485,0.42355233,0.90406299,0
-0.011060119,-1.3954473,-3.2183456,0.057213485,-0.42355233,-0.90406299,0
-0.076838255,0.74594641,2.7539821,0.16787696,-0.88857073,0.42691812,0
-0.40961564,-0.51513946,-0.59777576,-0.90335566,-0.4075045,0.13374662,0
0.43551439,-0.88915038,-1.074085,0.71397096,-0.61559916,0.33359063,0
0.070987985,1.5492928,2.2547982,0.44985592,0.81934446,-0.35539263,0
0.019594312,-1.7302703,-3.0595419,0.057213485,-0.42355233,-0.90406299,0
-0.05454731,-1.474174,-3.1842146,0.057213485,-0.42355233,-0.90406299,0
0.49922609,-1.3431051,-3.2105751,0.057213485,-0.42355233,-0.90406299,0
0.37410125,0.071470439,0.80338562,0.83232677,-0.47983295,0.27747452,0
0.062772036,-1.3098602,-3.2537708,0.057213485,-0.42355233,-0.90406299,0
-0.50165153,1.4508713,3.1599331,-0.057213485,0.42355233,0.90406299,0
-0.22435117,1.0610769,3.3600998,-0.057213485,0.42355233,0.90406299,0
-0.30405557,-0.55154884,-1.8434671,-0.8235572,0.49185193,-0.28255045,0
0.12047357,1.2756898,1.687296,0.47653508,0.80731738,-0.34806958,0
0.26543611,0.90623903,2.572752,0.83920527,-0.4701165,0.27335775,0
0.37360573,0.95450711,1.7910064,0.97630465,0.21303318,-0.038020492,0
-0.38976848,-0.12984449,-0.85222936,-0.87144077,0.42067602,-0.25223494,0
-0.12428552,-1.6731409,-3.095412,0.057213485,-0.42355233,-0.90406299,0
0.56044424,-1.155596,-3.280797,0.72181672,0.64314294,-0.25563151,0
-0.52601731,1.3539863,3.2037814,-0.057213485,0.42355233,0.90406299,0
0.0096353069,1.3198869,1.6783679,0.2568028,0.8813197,-0.39664528,0
0.24999213,1.4002054,3.2312374,-0.057213485,0.42355233,0.90406299,0
-0.069212198,1.3708909,3.2247703,-0.057213485,0.42355233,0.90406299,0
0.38080323,-1.8168038,-2.7893033,0.38250935,-0.8271457,0.41172349,0
0.40829539,-1.2599347,-3.2552943,0.057213485,-0.42355233,-0.90406299,0
0.15206674,-1.1687598,-1.3232574,0.10960311,-0.89740807,0.42737058,0
0.15661055,0.9652257,1.0168177,0.46416533,0.8130095,-0.35151914,0
0.50614202,-1.4810014,-3.1455328,0.057213485,-0.42355233,-0.90406299,0
0.046143472,-1.8889151,-2.9835367,0.057213485,-0.42355233,-0.90406299,0
0.021537542,0.067014098,1.3020927,0.18088245,-0.88616186,0.42661256,0
-0.10801959,-1.2432389,-3.2957911,0.057213485,-0.42355233,-0.90406299,0
0.1541537,-1.1858575,-3.3060827,0.057213485,-0.42355233,-0.90406299,0
0.14443946,-1.0686009,-3.3616321,0.057213485,-0.42355233,-0.90406299,0
-0.62393391,1.5676868,3.0974662,-0.057213485,0.42355233,0.90406299,0
0.39522868,0.6837852,1.6221097,0.9888162,-0.10088241,0.10984039,0
-0.0056739897,1.3707559,1.7816863,0.23943806,0.8849389,-0.39943975,0
-0.49854308,1.7060665,3.040571,-0.057213485,0.42355233,0.90406299,0
0.38297838,-1.2772875,-1.7226825,0.5233345,-0.75843906,0.38844663,0
0.10146189,1.01878,3.1370544,0.5761615,-0.72552341,0.37636882,0
-0.20388159,1.008936,1.0133712,-0.25269711,0.86991537,-0.42354584,0
-0.1289295,0.3120625,-0.4617722,-0.28966057,0.85955232,-0.4210301,0
-0.34363422,-0.68524408,-1.9270527,-0.9175818,0.33452505,-0.21479344,0
0.072498322,-1.5095737,-3.1595898,0.057213485,-0.42355233,-0.90406299,0
0.48835972,-0.39524174,-0.37400678,0.91567588,-0.33857685,0.21657109,0
-0.14589107,1.2419205,3.2803402,-0.057213485,0.42355233,0.90406299,0
-0.31539536,1.1761255,3.3004382,-0.057213485,0.42355233,0.90406299,0
0.32823479,-1.3922746,-3.19836,0.057213485,-0.42355233,-0.90406299,0
-0.52265787,1.3799413,3.191834,-0.057213485,0.42355233,0.90406299,0
-0.60014611,1.6959258,3.038892,-0.057213485,0.42355233,0.90406299,0
0.10188186,1.8321514,2.9677396,0.59890378,0.73907483,-0.30835396,0
0.42566413,0.58351141,1.120074,0.99269271,0.1204996,0.0063685179,0
0.33264691,-0.80222958,-0.72792178,0.54893249,-0.74303383,0.38284928,0
-0.091915786,-1.831218,-3.0193048,0.057213485,-0.42355233,-0.90406299,0
0.34002316,-1.5853332,-3.1071663,0.057213485,-0.42355233,-0.90406299,0
-0.55559152,0.39732897,0.87113112,-0.99817097,-0.041971862,-0.043505192,0
-0.314731,-1.4034208,-2.8170142,-0.98683739,-0.16118619,0.013063788,0
0.34619784,1.1493998,2.4404862,0.9983021,0.03416881,0.047169328,0
-0.6680603,1.2769784,3.0856795,-0.95064616,-0.29971752,0.080255806,0
0.027906775,-1.2684872,-3.2753603,0.057213485,-0.42355233,-0.90406299,0
-0.4404124,1.6932024,3.0502768,-0.057213485,0.42355233,0.90406299,0
-0.30793521,-0.87900096,-1.1310111,-0.77345806,-0.59137738,0.22811136,0
0.30040461,0.2606495,-0.41219538,0.56883383,0.75801325,-0.31912953,0
0.1081953,-1.3665869,-3.2243197,0.057213485,-0.42355233,-0.90406299,0
0.21605408,-0.53747272,-2.3094275,0.16573608,0.89701074,-0.40975958,0
0.073720485,1.7298424,2.6775846,0.50779057,0.79201078,-0.3389205,0
-0.30240923,1.8383888,2.7761858,-0.22654551,0.87641639,-0.42493665,0
0.22981673,1.3443372,3.2561347,-0.057213485,0.42355233,0.90406299,0
-0.3722215,0.19061053,-0.34545064,-0.76850468,0.55935001,-0.31068933,0
0.52122295,-0.16312146,-0.65947902,0.96290529,0.26259825,-0.062089622,0
-0.19707167,-1.7406976,-3.0683682,0.057213485,-0.42355233,-0.90406299,0
-0.11682785,-1.3301399,-3.2556357,0.057213485,-0.42355233,-0.90406299,0
0.19538653,-1.0705166,-3.3575101,0.057213485,-0.42355233,-0.90406299,0
0.12182558,-1.0683758,-3.3631685,0.057213485,-0.42355233,-0.90406299,0
0.59154236,-0.74842191,-2.0109551,0.93490767,0.34041637,-0.10031921,0
0.49959758,-1.2476032,-1.8739433,0.74160033,-0.58822793,0.3225159,0
-0.61762118,0.89915395,2.2720177,-0.9525823,-0.29422906,0.077561915,0
-0.47280288,1.2370174,3.2619486,-0.057213485,0.42355233,0.90406299,0
-0.17016673,-1.2958074,-3.2750959,0.057213485,-0.42355233,-0.90406299,0
0.24201137,-1.7335581,-3.0439258,0.057213485,-0.42355233,-0.90406299,0
0.12647724,-1.3891561,-3.2125893,0.057213485,-0.42355233,-0.90406299,0
-0.498927,0.37967706,0.3974576,-0.93506962,0.29456031,-0.19717669,0
0.364117,0.52886832,1.5960014,0.91658723,-0.33664599,0.21572411,0
-0.023829103,-0.74327767,-2.6851816,-0.36130595,0.83538175,-0.41424024,0
-0.48262292,0.11626083,0.82364607,-0.87124592,-0.46336067,0.16194719,0
-0.47469223,1.4433057,3.1651835,-0.057213485,0.42355233,0.90406299,0
0.097092867,1.2601209,3.2871907,-0.057213485,0.42355233,0.90406299,0
-0.53115416,0.23974492,0.47651881,-0.99791604,0.002792865,-0.06446135,0
-0.5408079,0.27792895,0.81887364,-0.97989357,-0.19719484,0.030373216,0
0.37244999,0.23164284,-0.32147336,0.72043228,0.64442074,-0.25631782,0
-0.046038389,-1.7983528,-3.0317988,0.057213485,-0.42355233,-0.90406299,0
-0.46750811,-0.095381908,0.29003006,-0.90657502,-0.40131506,0.13064319,0
0.36370003,-1.3973954,-3.1937165,0.057213485,-0.42355233,-0.90406299,0
0.26694012,-1.1904578,-3.2967901,0.057213485,-0.42355233,-0.90406299,0
0.22546816,-0.20856464,-1.5777575,0.27613437,0.87693328,-0.39336684,0
-0.5252043,0.15362442,0.4926233,-0.98856318,-0.1505938,0.0079920292,0
-0.40250772,0.14222932,-0.34862664,-0.83155221,0.48091078,-0.2779305,0
0.50678384,-1.4152602,-3.1762917,0.057213485,-0.42355233,-0.90406299,0
-0.51104498,0.092522293,0.51844382,-0.9606275,-0.26996303,0.065684199,0
0.18325543,-1.8390603,-2.9982166,0.057213485,-0.42355233,-0.90406299,0
-0.20968762,0.99731076,0.99308658,-0.2669329,0.86608893,-0.42265415,0
0.37497938,0.92476034,1.6739541,0.96549225,0.25392193,-0.05786109,0
-0.061003774,1.5955255,2.2482071,0.18829536,0.89387244,-0.40686172,0
-0.26065207,1.4631052,3.1694529,-0.057213485,0.42355233,0.90406299,0
-0.48299628,1.7406262,3.0253639,-0.057213485,0.42355233,0.90406299,0
0.15057385,1.4649739,3.1946018,-0.057213485,0.42355233,0.90406299,0
0.47315139,-0.28212985,-0.13287151,0.91578609,-0.33834407,0.21646893,0
-0.019109011,1.402108,3.213316,-0.057213485,0.42355233,0.90406299,0
-0.57709515,1.4129869,3.1729071,-0.057213485,0.42355233,0.90406299,0
0.23052973,0.34534737,-0.31886613,0.44330132,0.82215858,-0.35712582,0
0.65274507,-1.134083,-2.3980365,0.99817759,0.006873697,0.05994916,0
-0.32408845,-0.94767559,-2.4141114,-0.94172287,0.27777475,-0.18973362,0
0.29181689,1.431502,2.597193,0.91977984,0.37450939,-0.11724907,0
-0.32218075,0.14934692,-0.53284526,-0.69013643,0.63756663,-0.34237409,0
0.055599093,-0.57880509,-2.3977447,-0.16526282,0.88903552,-0.42697039,0
0.24825585,-0.23531306,-1.6202877,0.31586409,0.86670935,-0.38606265,0
0.12747633,1.2513103,3.2932413,-0.057213485,0.42355233,0.90406299,0
-0.50584805,1.7994796,2.996345,-0.057213485,0.42355233,0.90406299,0
0.54681802,-0.45843029,-1.4390987,0.91896421,0.37623692,-0.11811006,0
0.631127,-1.0437214,-2.6440852,0.93400902,0.34256178,-0.10138124,0
-0.57498646,1.4503782,3.1555228,-0.057213485,0.42355233,0.90406299,0
-0.53544998,0.70055461,2.1892328,-0.8069672,-0.55278933,0.20791221,0
0.6498698,-1.6399713,-3.0619597,0.057213485,-0.42355233,-0.90406299,0
0.17392904,0.23127741,-0.63321227,0.29242313,0.87294048,-0.39046538,0
-0.13267469,-1.4351511,-3.2074409,0.057213485,-0.42355233,-0.90406299,0
-0.23110497,1.3385427,3.2296803,-0.057213485,0.42355233,0.90406299,0
0.19232434,-1.9120786,-2.9634335,0.057213485,-0.42355233,-0.90406299,0
0.042727947,-1.1310978,-3.3387892,0.057213485,-0.42355233,-0.90406299,0
-0.028510511,-0.14754665,-1.4656806,-0.21560884,0.87893486,-0.4254244,0
-0.23480833,1.7050261,3.057749,-0.057213485,0.42355233,0.90406299,0
0.10554104,-0.80349553,-0.54434907,0.11513662,-0.89670503,0.42739135,0
-0.0037788153,-1.5919937,-3.1258032,0.057213485,-0.42355233,-0.90406299,0
-0.37720323,1.3889968,3.1967967,-0.057213485,0.42355233,0.90406299,0
0.35385942,0.72096753,0.88780731,0.83218741,0.52049196,-0.19118494,0
-0.16067129,1.7956533,3.0199819,-0.057213485,0.42355233,0.90406299,0
0.073261678,-1.5991403,-3.1175795,0.057213485,-0.42355233,-0.90406299,0
-0.67882431,1.595898,3.0807757,-0.057213485,0.42355233,0.90406299,0
0.31193408,-0.41658115,0.046976715,0.60649574,-0.70455414,0.36846459,0
-0.23334724,1.7482462,3.0375926,-0.057213485,0.42355233,0.90406299,0
0.27077717,0.57897663,1.9818668,0.7728647,-0.55444145,0.30866551,0
-0.4266082,1.8021007,3.0001316,-0.057213485,0.42355233,0.90406299,0
0.3682355,0.31464294,-0.12410603,0.736471,0.62928587,-0.24821207,0
0.015245855,-1.7094287,-3.069581,0.057213485,-0.42355233,-0.90406299,0
-0.49976456,1.2834761,3.2384768,-0.057213485,0.42355233,0.90406299,0
0.23203801,-1.3179498,-1.6652827,0.2264092,-0.87644857,0.42494312,0
-0.37104055,-0.95148551,-1.7256101,-0.96427953,-0.2580328,0.059863746,0
-0.071025968,0.33176005,1.8838429,0.069374084,-0.90167075,0.42682162,0
0.23696822,0.18857175,-0.67095876,0.41211414,0.83481467,-0.36502886,0
-0.53841275,1.6573765,3.060859,-0.057213485,0.42355233,0.90406299,0
0.15823817,1.3644459,3.2421839,-0.057213485,0.42355233,0.90406299,0
-0.47629976,0.12392983,-0.08820343,-0.95259953,0.24785966,-0.17640686,0
0.50649011,-1.0790615,-3.2232978,0.62391877,0.7221024,-0.29881936,0
-0.034808785,0.76971483,0.46453232,0.015970707,0.9058187,-0.42336404,0
-0.54476368,0.29803106,0.79283744,-0.98949814,-0.14445537,0.0050569773,0
-0.18592948,1.6073543,3.1066012,-0.057213485,0.42355233,0.90406299,0
0.048683167,-0.10596406,0.93123931,0.18824774,-0.88472617,0.42640609,0
-0.68927729,1.3755758,3.1550798,-0.98098302,-0.19207607,0.02790606,0
0.27549946,0.80929852,2.3750613,0.83411682,-0.47732949,0.27641511,0
-0.59412986,0.74041241,1.4837104,-0.99499679,0.050095797,-0.086437941,0
-0.37985438,-0.66689491,-0.86463082,-0.87898892,-0.45075682,0.15555227,0
-0.044846296,-0.10106993,0.9628095,0.0053043365,-0.90540457,0.42451638,0
-0.4540334,0.63400269,0.65822768,-0.80627376,0.51442993,-0.29203451,0
0.041522801,1.488416,2.0825214,0.37034619,0.84994072,-0.37475872,0
-0.15553516,1.6359152,3.095144,-0.057213485,0.42355233,0.90406299,0
0.098985791,-1.7055967,-3.0660772,0.057213485,-0.42355233,-0.90406299,0
0.11083186,1.3463521,3.2476606,-0.057213485,0.42355233,0.90406299,0
0.478347,-0.60961998,-0.68843216,0.85279894,-0.45010275,0.26484156,0
-0.30654359,-1.0921123,-1.6924849,-0.83909661,-0.51107323,0.18633503,0
-0.39955652,1.1631069,3.3012109,-0.057213485,0.42355233,0.90406299,0
0.3981936,-1.1128883,-3.3248246,0.057213485,-0.42355233,-0.90406299,0
0.47252214,0.23691002,0.37240508,0.99195778,0.12651822,0.0035022497,0
0.18552274,1.4590998,3.1995654,-0.057213485,0.42355233,0.90406299,0
0.11661078,0.89710855,0.81573713,0.36032462,0.85327137,-0.3769533,0
-0.33038247,1.3375056,3.2238832,-0.057213485,0.42355233,0.90406299,0
0.21011996,-1.4657209,-3.1714253,0.057213485,-0.42355233,-0.90406299,0
-0.56494075,1.1230192,1.8428911,-0.88110948,0.40437382,-0.24520922,0
0.49763095,-1.5300871,-3.1230748,0.057213485,-0.42355233,-0.90406299,0
-0.37032902,0.058356524,-0.58664232,-0.79609305,0.52709872,-0.29732561,0
0.5301792,-0.24788004,-0.87523937,0.95433104,0.28916302,-0.075077891,0
-0.30962169,1.1074233,3.3329902,-0.057213485,0.42355233,0.90406299,0
0.05681932,-0.54039121,-2.3181372,-0.1527335,0.89117348,-0.42717916,0
-0.1772269,-0.94266868,-2.858547,-0.69469541,0.63347483,-0.34074563,0
-0.11997569,0.63182688,0.19131772,-0.18875229,0.88462591,-0.42639101,0
0.62581766,-1.5644602,-3.0988588,0.057213485,-0.42355233,-0.90406299,0
0.35271695,0.99021566,2.2860887,0.98761058,-0.10852605,0.11334491,0
-0.47391576,1.619084,2.5189943,-0.60567069,0.7051459,-0.36868948,0
-0.61510217,1.2885413,3.2288046,-0.057213485,0.42355233,0.90406299,0
0.51340157,-1.5698373,-2.4978325,0.68895966,-0.63861483,0.34279072,0
0.19911957,-1.504625,-3.1538951,0.057213485,-0.42355233,-0.90406299,0
0.1427967,-1.6722677,-3.0789189,0.057213485,-0.42355233,-0.90406299,0
0.32356232,0.63275146,0.54987001,0.73255676,0.63304734,-0.25022212,0
-0.074888378,-1.5016042,-2.1498168,-0.4444598,-0.82166517,0.35682136,0
-0.2701894,1.5537266,3.1263933,-0.057213485,0.42355233,0.90406299,0
-0.46827626,0.26977205,1.3030909,-0.78560841,-0.57789785,0.22102728,0
-0.47691196,-0.1841158,-0.3730742,-0.99821925,-0.039572179,-0.044632554,0
0.63557744,-1.166694,-2.2510593,0.97757888,-0.1600399,0.13684416,0
0.65436524,-1.346115,-2.5970016,0.97054827,-0.18866125,0.14980829,0
0.054894328,-1.077554,-3.3631043,0.057213485,-0.42355233,-0.90406299,0
0.22145391,0.97207427,2.8113811,0.77940547,-0.54694968,0.30556953,0
-0.54308397,1.7672583,3.0090842,-0.057213485,0.42355233,0.90406299,0
0.51111102,-1.274482,-3.2419724,0.057213485,-0.42355233,-0.90406299,0
-0.32317269,0.22280666,-0.39369887,-0.67415899,0.65151781,-0.34789908,0
-0.11368436,-0.096062243,0.9632256,-0.13163519,-0.90084082,0.41371202,0
0.11945355,0.77024376,2.6296084,0.5474866,-0.74393058,0.38317782,0
0.22392464,-1.3845491,-3.2085805,0.057213485,-0.42355233,-0.90406299,0
0.14379954,1.1771848,3.3290019,-0.057213485,0.42355233,0.90406299,0
-0.39094698,1.8192506,2.9943538,-0.057213485,0.42355233,0.90406299,0
-0.32162794,-1.3398857,-2.6156456,-0.97667557,-0.21146156,0.037260771,0
-0.17179975,1.804834,2.6740966,0.021631241,0.90585965,-0.42302495,0
-0.12326968,1.603303,3.1124647,-0.057213485,0.42355233,0.90406299,0
-0.51446545,0.17000902,0.76630759,-0.93804932,-0.33278006,0.096542776,0
0.58701307,-0.66551805,-1.7612722,0.95572609,0.28504324,-0.07305944,0
-0.52092552,1.7658335,3.0111537,-0.057213485,0.42355233,0.90406299,0
0.59685731,-1.0578362,-1.8759544,0.94447225,-0.27052712,0.18651223,0
0.012758255,-0.94453102,-0.84439993,-0.10769689,-0.90288043,0.41618258,0
0.28407907,1.216872,3.0064638,0.9362914,-0.29155236,0.19584477,0
-0.60071617,1.478824,2.5599329,-0.86100417,0.43745297,-0.25943446,0
0.56814909,-0.47467393,-1.1032709,0.9954406,0.093422443,0.019227982,0
-0.51749521,1.6501386,2.6558609,-0.67688042,0.64918339,-0.34697765,0
-0.2008152,1.836143,2.9984717,-0.057213485,0.42355233,0.90406299,0
-0.14146698,1.2753739,3.2649474,-0.057213485,0.42355233,0.90406299,0
-0.27217865,0.26985514,1.6770809,-0.35600376,-0.85467255,0.37788317,0
0.13412404,1.5153627,3.1699538,-0.057213485,0.42355233,0.90406299,0
0.18180317,0.82645673,0.72930592,0.47791719,0.80666888,-0.3476783,0
-0.19948748,0.15629077,-0.71020782,-0.46356466,0.79074001,-0.39979708,0
-0.026998043,1.1947005,3.3099868,-0.057213485,0.42355233,0.90406299,0
0.0069519281,-1.1392546,-3.3372316,0.057213485,-0.42355233,-0.90406299,0
-0.67557395,1.5270637,3.1132302,-0.057213485,0.42355233,0.90406299,0
0.037953138,1.7521991,3.0529101,-0.057213485,0.42355233,0.90406299,0
0.048370242,1.3041425,3.2634833,-0.057213485,0.42355233,0.90406299,0
-0.2357229,1.8019277,3.0122929,-0.057213485,0.42355233,0.90406299,0
-0.25105363,1.8967175,2.9669137,-0.057213485,0.42355233,0.90406299,0
0.12115633,0.056836843,1.2159208,0.37006027,-0.83204323,0.41323012,0
-0.16342652,1.1774817,3.3094201,-0.057213485,0.42355233,0.90406299,0
-0.38538259,0.54384196,0.32962584,-0.70778489,0.62143981,-0.33593559,0
0.24012002,1.41773,2.2981045,0.78511655,0.57845426,-0.22131905,0
0.42272732,0.47318339,1.1810144,0.98779529,-0.10738394,0.11282146,0
0.57040536,-1.6876885,-3.0446334,0.057213485,-0.42355233,-0.90406299,0
-0.53588831,1.0133988,2.99208,-0.70962483,-0.65421855,0.26159197,0
0.29712391,0.48917198,1.7533042,0.79738861,-0.52551091,0.29666364,0
0.28723407,-0.77817088,-0.62156081,0.47057301,-0.78720468,0.39858425,0
0.2637254,-0.56268871,-2.3400822,0.25637317,0.88141298,-0.39671615,0
0.2921344,1.2835524,2.1567643,0.86768025,0.46900517,-0.16481721,0
0.018669069,1.6187888,3.114192,-0.057213485,0.42355233,0.90406299,0
0.35069501,-0.90671039,-3.0433233,0.34032047,0.85958457,-0.38117695,0
-0.57095009,1.3890133,2.3126862,-0.83159715,0.48084819,-0.27790415,0
-0.098647296,1.6578434,3.0884709,-0.057213485,0.42355233,0.90406299,0
-0.029546201,-1.6991826,-3.0772161,0.057213485,-0.42355233,-0.90406299,0
0.54481971,-0.54568511,-0.87938607,0.96865374,-0.19571143,0.15299153,0
0.25433871,-1.5868515,-2.2322347,0.19918144,-0.8824988,0.42605451,0
-0.21592808,-1.6746336,-2.8857071,-0.81012905,-0.54890656,0.2058931,0
0.016905308,-1.4204021,-3.2048845,0.057213485,-0.42355233,-0.90406299,0
0.20613968,-1.2959149,-3.2512312,0.057213485,-0.42355233,-0.90406299,0
0.1510042,-1.3595259,-3.2249186,0.057213485,-0.42355233,-0.90406299,0
0.20331872,1.2648835,3.2916818,-0.057213485,0.42355233,0.90406299,0
-0.0027639866,-0.54999995,-2.3082848,-0.27095634,0.86497027,-0.42238462,0
-0.027094126,1.1226671,3.3437285,-0.057213485,0.42355233,0.90406299,0
0.44377238,0.4392395,0.70688689,0.97905445,0.20103098,-0.032223523,0
0.52645195,-0.16560498,-0.54609835,0.98493773,0.17194472,-0.018224239,0
0.30804449,-0.41055661,0.064864844,0.60088456,-0.70855463,0.36998361,0
-0.3355003,-1.2512817,-2.5376761,-0.99196911,-0.12642798,-0.0035452843,0
-0.56815737,1.3072447,2.1634338,-0.84543282,0.46108693,-0.26952159,0
-0.27293944,1.1952806,3.2941506,-0.057213485,0.42355233,0.90406299,0
-0.48974586,1.6950222,3.0463021,-0.057213485,0.42355233,0.90406299,0
-0.21272182,1.4824486,3.1634238,-0.057213485,0.42355233,0.90406299,0
-0.30012572,1.4623947,3.1672876,-0.057213485,0.42355233,0.90406299,0
0.023530722,-1.6201786,-3.1108704,0.057213485,-0.42355233,-0.90406299,0
-0.045424104,-1.1626551,-3.3295834,0.057213485,-0.42355233,-0.90406299,0
-0.21351039,-1.2606835,-3.2942944,0.057213485,-0.42355233,-0.90406299,0
-0.40553284,1.3738756,1.9419363,-0.54093313,0.74795491,-0.3846485,0
-0.19882941,1.1961052,3.2984543,-0.057213485,0.42355233,0.90406299,0
-0.22211552,-0.70009011,-0.4939352,-0.52780449,-0.78148437,0.33272225,0
0.17609924,0.9210825,0.94122839,0.49305582,0.79939491,-0.34331238,0
-0.37323254,-0.9617604,-1.997279,-0.99725115,-0.066948116,-0.031745672,0
-0.057631969,0.83018351,2.9195921,0.22737861,-0.87621969,0.42489716,0
-0.028272867,-0.25580072,-1.6889722,-0.24348122,0.872284,-0.42407238,0
-0.60320747,1.0432388,2.8263211,-0.85952371,-0.48156342,0.17121696,0
-0.587192,0.62318414,1.3816044,-0.99741054,-0.063767374,-0.03324604,0
0.44047412,-1.4399889,-2.1218283,0.58877289,-0.71699923,0.37317342,0
0.44998056,0.20694949,-0.068478614,0.89996111,0.41389897,-0.13695723,0
-0.15204334,-1.7008444,-3.0841899,0.057213485,-0.42355233,-0.90406299,0
-0.25269115,1.7462765,3.0372913,-0.057213485,0.42355233,0.90406299,0
0.45925951,-1.4641527,-3.1563933,0.057213485,-0.42355233,-0.90406299,0
-0.23878682,1.2024522,3.2929521,-0.057213485,0.42355233,0.90406299,0
0.13332385,-0.74661618,-0.43538862,0.18454891,-0.88545358,0.42651278,0
-0.067465603,-0.090392113,0.98480844,-0.036992669,-0.90582383,0.42203605,0
0.12957263,1.4920213,3.1806011,-0.057213485,0.42355233,0.90406299,0
0.4592613,0.0094085634,-0.58816862,0.85512644,0.4881407,-0.1745767,0
0.33304954,-1.3958466,-3.1963818,0.057213485,-0.42355233,-0.90406299,0
-0.15001988,0.614254,2.4895878,-0.0117414,-0.90576911,0.42360845,0
-0.31805551,-1.3006272,-2.8770692,-0.99469554,0.053350776,-0.087943792,0
-0.3153744,-0.33745825,-1.435469,-0.79353738,0.53021049,-0.29862165,0
0.061920881,1.1078925,3.3562834,-0.057213485,0.42355233,0.90406299,0
-0.21485817,1.5028652,3.1537235,-0.057213485,0.42355233,0.90406299,0
0.28329551,-0.47104573,-2.1208065,0.32251108,0.86483669,-0.38476464,0
-0.47955638,-0.17326403,-0.13489893,-0.97832572,-0.20429371,0.033798218,0
-0.47621456,-0.1327486,-0.37967047,-0.99502188,0.049817353,-0.086309075,0
0.65578496,-1.478327,-2.7843847,0.94758582,-0.26207489,0.18274939,0
-0.27604598,0.49833083,0.057720989,-0.52016157,0.76028043,-0.38910848,0
-0.045875311,-0.96731377,-3.1106353,-0.46012491,0.79245168,-0.40038127,0
0.22455895,1.0864844,3.005964,0.8112697,-0.50804704,0.28936028,0
0.20498687,0.14201701,-0.80839801,0.33188653,0.86211461,-0.38289604,0
-0.31747928,-1.3663917,-2.6583054,-0.97410297,-0.22209188,0.042403877,0
0.32990646,-1.0437078,-3.3615572,0.057213485,-0.42355233,-0.90406299,0
0.59606814,-1.287693,-3.2304065,0.057213485,-0.42355233,-0.90406299,0
-0.20797703,0.50490695,-0.0067878366,-0.39082396,0.82377541,-0.41067076,0
0.11694211,1.6304232,3.1149607,-0.057213485,0.42355233,0.90406299,0
0.073892713,0.18474448,1.5135382,0.31282991,-0.8523373,0.41911608,0
0.61240298,-1.6018647,-2.8064313,0.85283786,-0.45004389,0.26481652,0
-0.32838011,1.6336688,3.085258,-0.057213485,0.42355233,0.90406299,0
0.38786024,-1.8327101,-2.9882433,0.057213485,-0.42355233,-0.90406299,0
-0.40956235,1.4433764,3.1692722,-0.057213485,0.42355233,0.90406299,0
-0.18431878,-1.2247975,-3.3092597,0.057213485,-0.42355233,-0.90406299,0
-0.28065556,-1.5262718,-3.1741159,0.057213485,-0.42355233,-0.90406299,0
-0.35588819,-0.82733464,-2.0726533,-0.96395808,0.21223694,-0.16043651,0
0.49787259,0.044862986,0.010489523,0.99574518,0.089725971,0.020979047,0
-0.11550659,1.7102259,3.0628626,-0.057213485,0.42355233,0.90406299,0
-0.16732919,1.2850912,3.2587581,-0.057213485,0.42355233,0.90406299,0
0.16729802,1.685616,2.7581937,0.70052856,0.66222799,-0.26591998,0
-0.47301358,0.027763665,0.62189591,-0.87725037,-0.45362946,0.15700817,0
-0.39826572,-0.73674113,-1.2407984,-0.95799035,-0.27819848,0.06970942,0
0.35337412,-0.25882971,0.26484844,0.71928871,-0.610497,0.33153689,0
0.045885742,1.6856172,3.0846055,-0.057213485,0.42355233,0.90406299,0
0.1647259,-1.6109809,-3.1062441,0.057213485,-0.42355233,-0.90406299,0
-0.18283737,1.2332947,3.2820435,-0.057213485,0.42355233,0.90406299,0
0.11643314,1.2118316,3.3110378,-0.057213485,0.42355233,0.90406299,0
-0.49152127,0.067062736,-0.062524557,-0.98304254,0.13412547,-0.12504911,0
0.28238982,1.4536436,3.208252,-0.057213485,0.42355233,0.90406299,0
0.032972813,-1.300431,-3.2600741,0.057213485,-0.42355233,-0.90406299,0
0.61428863,-1.6806133,-3.0451708,0.057213485,-0.42355233,-0.90406299,0
0.070884347,-1.0635078,-3.3686733,0.057213485,-0.42355233,-0.90406299,0
-0.012471676,1.4243464,3.2033172,-0.057213485,0.42355233,0.90406299,0
0.016456723,1.1237161,3.3459928,-0.057213485,0.42355233,0.90406299,0
0.092601061,1.3321726,3.2531502,-0.057213485,0.42355233,0.90406299,0
-0.24519348,1.0825641,3.3487144,-0.057213485,0.42355233,0.90406299,0
0.55241168,-1.480978,-3.1426153,0.057213485,-0.42355233,-0.90406299,0
0.4618566,-0.44670975,-1.7756041,0.71535438,0.64906311,-0.25881407,0
0.40598983,-0.66163522,-0.59105164,0.71611118,-0.61355484,0.33276844,0
0.1626668,1.2110896,3.3143117,-0.057213485,0.42355233,0.90406299,0
0.14034384,-1.9147136,-2.9654889,0.057213485,-0.42355233,-0.90406299,0
-0.36968589,1.2409439,3.2666349,-0.057213485,0.42355233,0.90406299,0
0.10272229,-1.3564701,-3.2294059,0.057213485,-0.42355233,-0.90406299,0
0.22687101,0.51259869,0.063086413,0.48362648,0.80396217,-0.34604886,0
0.52067351,-1.1814001,-1.8068502,0.7937637,-0.52993608,0.29850745,0
-0.17878564,-0.9135133,-0.9274745,-0.49662149,-0.79763591,0.34226263,0
0.34020734,-1.4746202,-3.1590235,0.057213485,-0.42355233,-0.90406299,0
-0.53455484,1.3389742,3.2102742,-0.057213485,0.42355233,0.90406299,0
0.30503881,-0.22771966,-1.5456328,0.43714941,0.82475036,-0.35872939,0
0.61227071,-1.3277401,-2.3558054,0.91247678,-0.34526125,0.21950018,0
0.036392391,-0.041778922,-1.2655748,-0.060400844,0.90241903,-0.42660439,0
0.097697675,0.8383342,0.66695881,0.30438268,0.86983359,-0.38825297,0
-0.066895545,-1.8270965,-3.0196524,0.057213485,-0.42355233,-0.90406299,0
-0.50767523,0.10454567,0.12008643,-0.99453694,0.055009693,-0.088710904,0
-0.3316375,1.4986523,3.1483066,-0.057213485,0.42355233,0.90406299,0
-0.099397123,1.092985,1.154785,-0.02570951,0.90462095,-0.42544058,0
-0.062322676,1.7204767,3.0614262,-0.057213485,0.42355233,0.90406299,0
-0.081258178,0.31991458,1.8601593,0.045952439,-0.90346932,0.42618215,0
-0.35568386,-0.22166735,0.390434,-0.67939234,-0.68004894,0.27560672,0
0.23997883,1.1660755,1.6558957,0.70620245,0.65725684,-0.26323196,0
0.4363187,-0.97848761,-1.2412661,0.69394976,-0.63414752,0.34101367,0
-0.58452892,1.0682497,1.8332691,-0.92380702,0.32090494,-0.2088064,0
0.3422468,1.1122748,2.4887993,0.99362457,-0.063952208,0.092842817,0
0.52272177,-1.6698983,-2.7030549,0.68145937,-0.64521718,0.34540921,0
-0.3076961,-1.1342728,-2.7664335,-0.95453668,0.24214604,-0.17385256,0
0.045294702,0.22841635,-0.69047803,0.029933929,0.90586698,-0.42250299,0
-0.088868976,1.5372889,3.1455691,-0.057213485,0.42355233,0.90406299,0
0.61011755,-1.4772694,-3.1407013,0.057213485,-0.42355233,-0.90406299,0
0.072877795,1.210463,1.4832491,0.3573854,0.85422677,-0.3775869,0
0.0023156106,0.63072181,0.16934708,0.052703381,0.90556502,-0.42092049,0
0.40636453,0.24064362,0.96650994,0.92171639,-0.32554749,0.21084905,0
-0.49270475,0.10268819,0.72343343,-0.90236825,-0.40937817,0.13468689,0
-0.34433359,-1.1411695,-2.475394,-0.9977982,0.0061628819,-0.066032648,0
0.49728256,0.050975084,-0.078909367,0.98561692,0.16819352,-0.016423821,0
0.54759836,-1.4634442,-3.1511347,0.057213485,-0.42355233,-0.90406299,0
-0.37154788,-0.9161098,-2.0380912,-0.99590218,0.039311051,-0.081442595,0
-0.20296597,-0.71523023,-2.3831336,-0.68580055,0.64141202,-0.34390128,0
0.30653864,-1.7264068,-3.0431926,0.057213485,-0.42355233,-0.90406299,0
-0.18663514,-1.4251342,-3.2155485,0.057213485,-0.42355233,-0.90406299,0
0.36158484,-1.3539158,-1.8464696,0.46416795,-0.79043829,0.39969391,0
-0.17541538,1.3283231,1.6643093,-0.1131326,0.89696288,-0.42738533,0
-0.04410547,-1.5751867,-3.1362295,0.057213485,-0.42355233,-0.90406299,0
-0.2246322,1.6940536,2.4449041,-0.11276674,0.89700961,-0.42738399,0
0.47096646,-1.673005,-3.0578055,0.057213485,-0.42355233,-0.90406299,0
0.56136203,-0.43924779,-0.96311593,0.99812704,0.043899357,0.04259944,0
0.27943361,1.3975016,2.4144566,0.87454259,0.45805416,-0.15925246,0
0.080660105,-1.7842023,-3.0304101,0.057213485,-0.42355233,-0.90406299,0
-0.18367326,-0.10753793,0.90240622,-0.27800274,-0.87648916,0.39304054,0
-0.29854643,1.8405641,2.9902158,-0.057213485,0.42355233,0.90406299,0
-0.22873473,1.4700193,3.1682336,-0.057213485,0.42355233,0.90406299,0
-0.066684127,1.7600778,3.0425968,-0.057213485,0.42355233,0.90406299,0
-0.12482655,0.42467797,2.0849302,-0.012569189,-0.90578008,0.42356113,0
0.47994119,-1.6553344,-3.0655162,0.057213485,-0.42355233,-0.90406299,0
0.53937852,-1.5065863,-3.1314428,0.057213485,-0.42355233,-0.90406299,0
0.61702132,-1.2258873,-3.2580364,0.057213485,-0.42355233,-0.90406299,0
-0.2058965,-0.36771679,-1.7211986,-0.60632336,0.70467782,-0.36851156,0
-0.2907331,-1.5677104,-3.15534,0.057213485,-0.42355233,-0.90406299,0
-0.49647665,1.7222916,3.0331001,-0.057213485,0.42355233,0.90406299,0
-0.4791584,0.26795682,0.13730463,-0.92798907,0.31139693,-0.20461643,0
-0.1943537,-0.28621256,-1.5825648,-0.56502157,0.7328319,-0.37908787,0
0.50902343,-0.07410568,-0.12678099,0.99800736,0.00014090538,0.063092589,0
-0.2536571,1.4736528,3.1649537,-0.057213485,0.42355233,0.90406299,0
0.52140558,-1.2732615,-3.2418926,0.057213485,-0.42355233,-0.90406299,0
-0.11447722,1.8063728,3.0178831,-0.057213485,0.42355233,0.90406299,0
0.29761457,0.057651579,-0.89462554,0.50352669,0.79417896,-0.34020609,0
0.056437135,1.1668653,3.3283079,-0.057213485,0.42355233,0.90406299,0
0.64296997,-1.3649914,-3.1912243,0.057213485,-0.42355233,-0.90406299,0
0.13179851,-1.4160876,-3.1996348,0.057213485,-0.42355233,-0.90406299,0
0.090404987,-1.3351941,-3.2401531,0.057213485,-0.42355233,-0.90406299,0
-0.67421722,1.2715555,2.9626427,-0.97591013,-0.21468997,0.038821697,0
0.39964801,-1.6061122,-2.3894634,0.47164997,-0.78665566,0.3983953,0
0.68269193,-1.3189589,-2.9668341,0.9900738,0.14051153,-0.0031727552,0
0.33076167,-1.8902776,-2.9648862,0.057213485,-0.42355233,-0.90406299,0
0.56194967,-1.6611942,-3.0575809,0.057213485,-0.42355233,-0.90406299,0
-0.62326372,1.11633,2.1061277,-0.97046602,0.1889725,-0.14994895,0
0.033249974,0.83482504,2.8603718,0.40264589,-0.81884432,0.40910864,0
0.46112961,-1.29545,-1.8825963,0.6617021,-0.66199207,0.352018,0
0.27830267,-1.1887944,-3.2968502,0.057213485,-0.42355233,-0.90406299,0
0.50601631,-1.6714206,-3.0563297,0.057213485,-0.42355233,-0.90406299,0
0.037887335,1.3581004,3.2375402,-0.057213485,0.42355233,0.90406299,0
-0.35423803,1.4794961,3.1558514,-0.057213485,0.42355233,0.90406299,0
0.037576497,0.12045991,1.4050561,0.22609717,-0.876522,0.42495775,0
0.11441463,1.5736125,3.1414163,-0.057213485,0.42355233,0.90406299,0
-0.22075674,-1.7087852,-2.9977286,-0.83299839,-0.51940012,0.19062209,0
0.29729488,-0.0070059896,0.84793299,0.68002188,-0.64646751,0.34590411,0
0.61538965,-0.82805359,-1.8362474,0.99665987,0.077082962,0.026960135,0
-0.32646155,0.49837184,2.1409087,-0.40515661,-0.83747655,0.36671627,0
-0.24964747,-0.49362859,-0.052682042,-0.52703464,-0.78190017,0.33296579,0
-0.24679798,1.8173352,3.0043736,-0.057213485,0.42355233,0.90406299,0
0.29631573,-1.8599083,-2.9812942,0.057213485,-0.42355233,-0.90406299,0
0.56037664,-1.7250792,-3.0277505,0.057213485,-0.42355233,-0.90406299,0
0.24200726,-1.1658313,-3.3099051,0.057213485,-0.42355233,-0.90406299,0
0.15189147,1.1212771,3.2422407,0.69253945,-0.63541627,0.34151876,0
0.61401176,-1.3343804,-3.2073977,0.057213485,-0.42355233,-0.90406299,0
-0.56401265,0.77026463,2.2551303,-0.8537097,-0.49023229,0.17564631,0
0.18266106,-1.3937562,-3.2068782,0.057213485,-0.42355233,-0.90406299,0
0.57625604,-1.3173602,-3.2177613,0.057213485,-0.42355233,-0.90406299,0
-0.53039193,1.5346727,2.4686649,-0.72755075,0.60241652,-0.32827413,0
0.42155254,-0.13294148,-1.1000792,0.72009981,0.64472687,-0.25648224,0
-0.26065823,1.0064477,1.0499835,-0.3622117,0.83504033,-0.4141376,0
0.19268775,1.3626559,3.245203,-0.057213485,0.42355233,0.90406299,0
-0.54611635,1.1722047,3.287674,-0.057213485,0.42355233,0.90406299,0
0.13745105,1.3617572,1.9138353,0.53798556,0.77590287,-0.32946306,0
0.38811642,-0.18126214,-1.3008504,0.63033497,0.71756005,-0.29628518,0
0.33852902,1.0361452,2.4471803,0.97821832,-0.15720373,0.13555598,0
0.18438768,-1.2433062,-3.2772548,0.057213485,-0.42355233,-0.90406299,0
0.096805155,1.8360808,3.0173364,-0.057213485,0.42355233,0.90406299,0
-0.44957775,0.32950884,0.12056607,-0.86776984,0.42666924,-0.25481057,0
-0.385593,1.624868,3.0857606,-0.057213485,0.42355233,0.90406299,0
0.66630483,-1.4115163,-2.7572563,0.97460127,-0.1726909,0.14258289,0
0.4434545,-1.360158,-3.2061148,0.057213485,-0.42355233,-0.90406299,0
-0.1711278,1.2505305,3.2747095,-0.057213485,0.42355233,0.90406299,0
-0.28793406,1.5456382,3.1290598,-0.057213485,0.42355233,0.90406299,0
0.017475069,0.22344688,-0.70118833,-0.026872158,0.90456492,-0.42548788,0
0.31257182,-1.8354702,-2.9917147,0.057213485,-0.42355233,-0.90406299,0
0.12509441,-1.2710505,-3.2680087,0.057213485,-0.42355233,-0.90406299,0
0.098262668,1.6076877,3.1244302,-0.057213485,0.42355233,0.90406299,0
-0.19822168,1.1344299,3.3273876,-0.057213485,0.42355233,0.90406299,0
-0.32844272,1.6838918,2.4766283,-0.31691879,0.85100526,-0.41875076,0
-0.11994937,1.381165,1.7695781,0.010887384,0.90575713,-0.42365688,0
0.24850821,-1.1810682,-1.3946216,0.29387558,-0.85828143,0.42070138,0
