-0.78769451,0.30373102,-0.373694,-0.059353992,0.85172313,-0.52061951,0
0.31508648,-0.25383916,0.44376117,-0.019555748,-0.61236161,0.79033589,0
1.0302415,-0.16784286,0.1382702,0.97667545,0.15736043,0.14609116,0
0.68498802,-0.016642839,-0.38979429,0.17951286,-0.22509122,-0.95765811,0
-0.87298006,-0.51572359,-0.4533284,-0.97667545,-0.15736043,-0.14609116,0
1.0173345,0.011303127,0.031594157,0.97667545,0.15736043,0.14609116,0
-1.0605366,0.07725811,0.16183639,-0.97667545,-0.15736043,-0.14609116,0
-1.0530517,0.047791123,0.14353675,-0.97667545,-0.15736043,-0.14609116,0
0.93132997,0.14952111,0.45768714,0.97667545,0.15736043,0.14609116,0
-0.84529626,-0.24535424,0.36453864,-0.10655504,-0.2354908,0.9660176,0
1.0094727,-0.050369978,0.15058386,0.97667545,0.15736043,0.14609116,0
0.96131563,-0.044067025,0.46574292,0.97667545,0.15736043,0.14609116,0
0.63181299,-0.34784096,-0.14864099,0.207596,-0.8658278,-0.45524287,0
-1.0215428,0.00043451786,-0.016103089,-0.97667545,-0.15736043,-0.14609116,0
0.96843135,-0.11765146,0.49743271,0.97667545,0.15736043,0.14609116,0
-0.1261521,0.27402008,-0.4232502,0.024921,0.59270614,-0.80503309,0
0.2847749,-0.20321107,0.47680837,-0.047343433,-0.50581497,0.86134183,0
-0.51088512,-0.10950434,-0.58175051,0.15256345,-0.029801875,-0.98784423,0
0.99780262,0.21217966,-0.054199547,0.97667545,0.15736043,0.14609116,0
-1.0146914,0.13574165,-0.20765126,-0.97667545,-0.15736043,-0.14609116,0
-0.64437467,-0.5857231,-0.2631458,0.19571513,-0.9322716,-0.30424529,0
-0.32097319,-0.54077673,0.07179451,0.11613929,-0.95941186,0.25698346,0
0.52626336,0.17660573,-0.41617215,0.11300355,0.20183697,-0.97287822,0
-1.043901,-0.17061937,0.31761834,-0.97667545,-0.15736043,-0.14609116,0
-0.93713462,-0.29628861,-0.2607919,-0.97667545,-0.15736043,-0.14609116,0
1.0419393,-0.13650823,0.026315451,0.97667545,0.15736043,0.14609116,0
0.24910191,-0.03235507,0.53577626,-0.11997807,-0.16431066,0.97908485,0
-0.99329925,-0.075255752,-0.123393,-0.97667545,-0.15736043,-0.14609116,0
1.0357563,-0.25178385,0.1918174,0.97667545,0.15736043,0.14609116,0
-0.25325277,-0.25660729,-0.50019181,0.19826192,-0.39966351,-0.8949644,0
-0.65827048,-0.266132,0.37728852,-0.086561143,-0.3340916,0.93855739,0
0.891541,0.56183183,0.27957621,0.97667545,0.15736043,0.14609116,0
-1.002948,-0.039537311,-0.097361207,-0.97667545,-0.15736043,-0.14609116,0
1.0207378,0.019935787,-0.00045615435,0.97667545,0.15736043,0.14609116,0
1.0526732,-0.074155927,-0.11260754,0.97667545,0.15736043,0.14609116,0
0.33770353,-0.37116873,0.31450096,0.055481151,-0.84221888,0.53627342,0
-0.92265332,-0.61083764,-0.018792454,-0.97667545,-0.15736043,-0.14609116,0
0.92947161,0.59698284,-0.011866771,0.97667545,0.15736043,0.14609116,0
0.54392558,-0.39942959,0.20840567,0.11345983,-0.95585155,0.2710619,0
-0.92114204,-0.13446677,-0.54201341,-0.97667545,-0.15736043,-0.14609116,0
0.58088845,0.58902252,-0.0063230693,-0.12568577,0.97061104,-0.20522481,0
-0.65739715,-0.095745862,0.40722615,-0.1473971,-0.0034025013,0.98907155,0
0.23455931,-0.36375582,0.33365265,0.038226411,-0.79693639,0.6028524,0
0.92826557,0.61283779,-0.020882227,0.97667545,0.15736043,0.14609116,0
0.30439234,0.5500136,0.13143507,-0.17850256,0.97318071,0.14510775,0
1.0231777,0.14718711,-0.15383598,0.97667545,0.15736043,0.14609116,0
-0.95483458,-0.1540665,-0.29565376,-0.97667545,-0.15736043,-0.14609116,0
-0.11656922,-0.24206197,-0.47633272,0.19958591,-0.41440403,-0.88793844,0
-0.20418817,-0.50766718,-0.21764567,0.19932759,-0.91742212,-0.34439093,0
-1.0407566,-0.13941151,0.26298225,-0.97667545,-0.15736043,-0.14609116,0
-0.24235976,0.12045795,0.4471952,-0.18698931,0.28888574,0.93892491,0
0.9932332,-0.13995326,0.35564452,0.97667545,0.15736043,0.14609116,0
0.54965758,0.021042883,0.58154285,-0.12173766,-0.15464839,0.98044062,0
1.0473113,-0.24664003,0.10902798,0.97667545,0.15736043,0.14609116,0
-0.30632561,-0.55232877,-0.11673427,0.17484084,-0.97777796,-0.11567545,0
-0.50856072,0.22729272,-0.46907517,0.017099142,0.62121749,-0.78345156,0
-0.95506275,-0.46650457,0.042410061,-0.97667545,-0.15736043,-0.14609116,0
0.94043672,0.17370462,0.37075651,0.97667545,0.15736043,0.14609116,0
0.98369002,0.3560096,-0.11477636,0.97667545,0.15736043,0.14609116,0
0.93446475,0.24265653,0.33641005,0.97667545,0.15736043,0.14609116,0
0.99080253,0.33057725,-0.13493195,0.97667545,0.15736043,0.14609116,0
-0.96650994,-0.077035487,-0.30057308,-0.97667545,-0.15736043,-0.14609116,0
1.0106399,-0.12544292,0.22364402,0.97667545,0.15736043,0.14609116,0
-0.68858421,-0.60808498,-0.01822748,0.12862049,-0.97355962,0.18878096,0
0.35723418,0.51248956,-0.1579724,-0.079508431,0.89705485,-0.43470788,0
-0.06464649,0.48710039,-0.092488021,-0.12929298,0.97420079,-0.18497604,0
0.92513347,0.052013874,0.60414207,0.97667545,0.15736043,0.14609116,0
-0.051751673,-0.19439343,-0.4821918,0.19258249,-0.34108198,-0.92009509,0
-0.51733971,0.40685865,0.061083853,-0.19019538,0.94977927,0.24848562,0
0.89343691,0.35772169,0.48675647,0.97667545,0.15736043,0.14609116,0
0.92590028,0.31937855,0.31102717,0.97667545,0.15736043,0.14609116,0
0.90911889,0.49987721,0.22879504,0.97667545,0.15736043,0.14609116,0
-0.55106723,0.20840515,0.33380318,-0.21012998,0.56052876,0.80103242,0
-0.45118204,-0.37401849,0.33166391,-0.021283627,-0.60607868,0.79511982,0
-0.92704821,-0.055555582,-0.58752644,-0.97667545,-0.15736043,-0.14609116,0
-0.90765673,-0.41050735,0.28918326,-0.040036559,-0.53498483,0.84391248,0
0.97676396,0.10242593,-0.35762534,0.16063809,-0.084015667,-0.9834311,0
-0.94397974,0.070713043,-0.58985049,0.059544086,0.45520484,-0.88839352,0
0.94418108,0.087971449,0.43807039,0.97667545,0.15736043,0.14609116,0
0.12801132,0.10699081,0.51919591,-0.16924453,0.14546326,0.97478032,0
-0.65110636,-0.36554599,-0.53686625,0.20552725,-0.48816723,-0.84820473,0
0.92733181,-0.094852805,0.57572424,-0.0496279,-0.49652195,0.86660433,0
-0.64015853,-0.34196758,-0.54706091,0.20219851,-0.44507453,-0.87236708,0
0.9970454,0.091372013,0.08098942,0.97667545,0.15736043,0.14609116,0
-0.92099464,-0.13616586,-0.54116863,-0.97667545,-0.15736043,-0.14609116,0
0.96405548,0.45318425,-0.088182479,0.97667545,0.15736043,0.14609116,0
0.95355856,0.13259888,0.32730874,0.97667545,0.15736043,0.14609116,0
-1.0718503,0.20887458,0.095703363,-0.97667545,-0.15736043,-0.14609116,0
-1.0217936,-0.045538127,0.035092115,-0.97667545,-0.15736043,-0.14609116,0
0.99899215,-0.13369179,0.31039912,0.97667545,0.15736043,0.14609116,0
0.7127068,0.57479513,-0.094107762,-0.084106714,0.90637863,-0.41400951,0
-0.28607786,-0.55223703,-0.072178721,0.16396493,-0.98587137,-0.034248471,0
-0.94483781,-0.13381553,-0.38429973,-0.97667545,-0.15736043,-0.14609116,0
-0.72308791,-0.5282678,-0.41208974,0.21330011,-0.78916329,-0.57595509,0
-0.77041227,-0.58165973,0.090724513,0.081861228,-0.90187484,0.42417037,0
-0.019488901,-0.42772365,0.26262921,0.054730847,-0.84034908,0.53927535,0
0.97854877,0.3696931,-0.095144138,0.97667545,0.15736043,0.14609116,0
0.035676807,0.49938613,0.12989023,-0.18727803,0.95710194,0.22109419,0
1.0686351,-0.065287888,-0.22887111,0.97667545,0.15736043,0.14609116,0
-0.45966467,-0.5803811,-0.069308698,0.15579042,-0.98754066,0.022199035,0
-0.80331463,-0.21857584,0.37527698,-0.11397946,-0.19665828,0.9738245,0
-0.59910834,0.30597383,-0.38691747,-0.038880363,0.79873806,-0.60042131,0
-0.27744612,0.46166694,-0.038563728,-0.15648571,0.98752451,-0.017533898,0
-0.89448118,-0.21480727,-0.63371396,-0.97667545,-0.15736043,-0.14609116,0
0.98025906,0.18701333,0.090193212,0.97667545,0.15736043,0.14609116,0
-0.97165054,0.03673315,-0.38875031,-0.97667545,-0.15736043,-0.14609116,0
-0.68533808,0.24369712,0.26713628,-0.21433455,0.67370218,0.7072382,0
1.0106612,0.18418157,-0.11000687,0.97667545,0.15736043,0.14609116,0
-0.89232898,-0.50932652,-0.33086398,-0.97667545,-0.15736043,-0.14609116,0
0.89691019,0.20436966,0.62871724,0.97667545,0.15736043,0.14609116,0
0.40388331,0.27229083,-0.39589906,0.066521883,0.42515343,-0.90267348,0
0.15256935,-0.02611059,0.52451491,-0.12758517,-0.12194094,0.98430294,0
-0.97294599,-0.047122538,-0.28976598,-0.97667545,-0.15736043,-0.14609116,0
0.93283498,0.5030005,0.066879772,0.97667545,0.15736043,0.14609116,0
0.91180331,0.39862645,0.31990984,0.97667545,0.15736043,0.14609116,0
1.0029175,0.013471067,0.12564158,0.97667545,0.15736043,0.14609116,0
-1.0097493,0.012524903,-0.10797006,-0.97667545,-0.15736043,-0.14609116,0
-0.92106134,-0.63043857,-0.0083222548,-0.97667545,-0.15736043,-0.14609116,0
0.662763,-0.021210998,-0.39288557,0.17974985,-0.22702768,-0.95715636,0
-0.62124568,-0.15618521,0.40806964,-0.12572652,-0.13243899,0.98318505,0
0.89095336,0.43898532,-0.27030626,0.024355948,0.59479678,-0.80350697,0
-1.0551136,-0.11746866,0.33532894,-0.97667545,-0.15736043,-0.14609116,0
-0.16845506,0.081712633,-0.51625043,0.10667104,0.23489434,-0.96614993,0
-0.21529382,-0.5402326,-0.074254721,0.16739443,-0.98411918,-0.059063315,0
-0.98062557,0.087883413,-0.38384461,-0.97667545,-0.15736043,-0.14609116,0
-1.0023694,-0.39732689,0.28415948,-0.97667545,-0.15736043,-0.14609116,0
-0.99642015,0.13629848,-0.33040184,-0.97667545,-0.15736043,-0.14609116,0
-0.0035912693,-0.48275876,-0.16644377,0.19555694,-0.93285251,-0.30256182,0
-0.46231061,-0.24630544,0.40225846,-0.08171159,-0.35680255,0.93059933,0
-0.1235535,-0.52633888,-0.026354074,0.1579138,-0.98742139,0.0078748465,0
-0.77421284,0.36053872,-0.24900818,-0.11115366,0.95264852,-0.2830292,0
0.57228792,-0.20117031,-0.33327222,0.20971143,-0.55296457,-0.80638158,0
-0.99652815,-0.0089014173,-0.1732797,-0.97667545,-0.15736043,-0.14609116,0
-1.0374894,0.15927434,-0.080585778,-0.97667545,-0.15736043,-0.14609116,0
-0.75310254,-0.62610698,-0.1656381,0.17027709,-0.9821018,-0.080507934,0
-0.45757377,-0.57955933,-0.1051742,0.16596547,-0.98493135,-0.048635483,0
0.7639764,-0.26154262,-0.22355705,0.21463501,-0.73468488,-0.64356023,0
-0.96488053,-0.085262954,-0.30260384,-0.97667545,-0.15736043,-0.14609116,0
0.98684263,0.43399513,-0.21985374,0.97667545,0.15736043,0.14609116,0
0.93363404,0.18465638,0.40443856,0.97667545,0.15736043,0.14609116,0
1.0270553,-0.29134029,0.29259551,0.97667545,0.15736043,0.14609116,0
0.9224509,0.53922594,0.097281665,0.97667545,0.15736043,0.14609116,0
-0.56421274,-0.59597766,-0.13348606,0.1692583,-0.98287451,-0.072864652,0
-0.13707528,-0.4141112,0.29027116,0.031815916,-0.77892554,0.62630874,0
-0.96788323,-0.37682807,0.031526729,-0.97667545,-0.15736043,-0.14609116,0
-0.13951328,-0.49351525,0.15373799,0.094960481,-0.92677426,0.36341691,0
0.57779717,-0.1069864,-0.38258103,0.19534016,-0.36868742,-0.90879691,0
0.72169065,0.20971739,0.60689121,-0.17110288,0.15931159,0.97228777,0
0.20072079,-0.32185239,-0.3395544,0.21433723,-0.67385072,-0.70709586,0
-1.009297,-0.12658817,0.038850069,-0.97667545,-0.15736043,-0.14609116,0
0.90899205,0.32438874,0.41866851,0.97667545,0.15736043,0.14609116,0
0.41555333,-0.43079135,-0.042832673,0.1829578,-0.9660114,-0.1826154,0
-0.10736024,0.35756949,0.33259255,-0.21472049,0.71513897,0.66518509,0
-0.92100626,-0.42976344,-0.22484595,-0.97667545,-0.15736043,-0.14609116,0
-1.0305665,0.25045204,-0.22507948,-0.97667545,-0.15736043,-0.14609116,0
0.77620465,-0.26588708,-0.21437311,0.2144773,-0.74733967,-0.62887424,0
0.95842743,0.22656596,0.19354191,0.97667545,0.15736043,0.14609116,0
-0.9545154,-0.14604551,-0.30642748,-0.97667545,-0.15736043,-0.14609116,0
0.94753361,0.55042344,-0.082467318,0.97667545,0.15736043,0.14609116,0
0.52226388,-0.21285143,-0.3382476,0.210109,-0.56014311,-0.80130762,0
-0.9375602,-0.31957871,-0.23286036,-0.97667545,-0.15736043,-0.14609116,0
-0.82340074,-0.43591955,0.2745094,-0.020268679,-0.60977471,0.79231566,0
-0.65152752,-0.61135572,-0.10122036,0.15672633,-0.98751378,0.015913486,0
0.72837347,0.42935258,0.5144034,-0.21160507,0.58990276,0.77925467,0
-0.29173401,0.33476961,-0.36677024,-0.02513805,0.75949645,-0.65002561,0
0.95398593,0.42755729,0.0067403316,0.97667545,0.15736043,0.14609116,0
0.78095329,0.42012802,-0.28759736,0.024943531,0.592623,-0.80509371,0
-0.91355032,-0.29431528,-0.42058796,-0.97667545,-0.15736043,-0.14609116,0
-1.0100774,-0.22636038,0.15153578,-0.97667545,-0.15736043,-0.14609116,0
-0.90870941,-0.2186836,-0.53441697,-0.97667545,-0.15736043,-0.14609116,0
-0.95030791,0.024482369,-0.51823866,-0.97667545,-0.15736043,-0.14609116,0
-0.91702217,-0.31853598,-0.37128797,-0.97667545,-0.15736043,-0.14609116,0
-0.86213148,0.33627993,0.057031989,-0.19913787,0.91828567,0.34219217,0
-0.29238507,0.4427093,-0.16068572,-0.11718637,0.96075499,-0.25143021,0
-0.93125117,-0.27773154,-0.32011378,-0.97667545,-0.15736043,-0.14609116,0
-0.90037268,-0.29078788,-0.51248461,-0.97667545,-0.15736043,-0.14609116,0
-0.96099699,-0.42025548,0.032266423,-0.97667545,-0.15736043,-0.14609116,0
-0.99097216,-0.33805692,0.14412266,-0.97667545,-0.15736043,-0.14609116,0
0.33245128,-0.15552807,-0.41551974,0.19703728,-0.38643789,-0.90102279,0
-1.0390892,0.089774847,0.0049696565,-0.97667545,-0.15736043,-0.14609116,0
1.0805174,-0.2556749,-0.1032362,0.97667545,0.15736043,0.14609116,0
-0.77011436,-0.38736892,-0.55313218,0.20590329,-0.49340385,-0.84507787,0
0.32558307,0.18218216,-0.43681276,0.098674893,0.2753478,-0.95626718,0
-0.77957737,0.19959247,0.27849197,-0.212708,0.61612231,0.75838542,0
-0.95106381,-0.32364148,-0.13820709,-0.97667545,-0.15736043,-0.14609116,0
0.14012195,-0.47654718,0.094884098,0.13232498,-0.97692686,0.1676423,0
-0.9648875,-0.23595512,-0.14024106,-0.97667545,-0.15736043,-0.14609116,0
-0.40393585,-0.51130855,-0.30994064,0.20836616,-0.85888231,-0.46787238,0
-0.97248226,0.10152495,-0.45297962,-0.97667545,-0.15736043,-0.14609116,0
-1.0475484,0.27895033,-0.14224541,-0.97667545,-0.15736043,-0.14609116,0
0.90725881,0.13054264,0.63905489,0.97667545,0.15736043,0.14609116,0
-0.95921987,-0.49833611,0.21957754,0.0020688474,-0.68724287,0.72642475,0
-0.33652455,-0.45658427,0.24714798,0.038786083,-0.79847872,0.60077238,0
-1.0536683,0.063226461,0.13103193,-0.97667545,-0.15736043,-0.14609116,0
-0.040817678,-0.45534179,0.21761024,0.074100345,-0.88559163,0.45851552,0
0.87172717,0.49640423,0.48251364,0.97667545,0.15736043,0.14609116,0
-0.97816563,-0.21456826,-0.07450822,-0.97667545,-0.15736043,-0.14609116,0
-0.36696103,-0.5466556,-0.20318857,0.192177,-0.94409949,-0.26785129,0
0.78582567,0.48787594,-0.22818421,-0.012386143,0.72053427,-0.69330871,0
0.68343747,0.61486101,0.15548097,-0.17034557,0.98204744,0.081024349,0
0.17280322,-0.19030452,-0.43540877,0.19868135,-0.40428135,-0.89279467,0
1.0369922,-0.050738454,-0.032997549,0.97667545,0.15736043,0.14609116,0
-0.99499273,0.094047904,-0.29443496,-0.97667545,-0.15736043,-0.14609116,0
0.46953365,0.39349142,-0.31579545,0.012461931,0.63768971,-0.77019262,0
1.034663,-0.013047099,-0.058024585,0.97667545,0.15736043,0.14609116,0
-0.8013944,-0.09152171,0.3850385,-0.15564197,0.050118685,0.98654127,0
0.98260528,0.15153557,-0.35855845,0.14634782,0.010018766,-0.98918247,0
-1.0729604,0.16599131,0.14931577,-0.97667545,-0.15736043,-0.14609116,0
-0.5976823,-0.38565212,0.31860849,-0.027490854,-0.58313823,0.81190765,0
-0.95465642,-0.089167416,-0.36675033,-0.97667545,-0.15736043,-0.14609116,0
1.0254686,-0.16298324,0.16494548,0.97667545,0.15736043,0.14609116,0
1.0112133,0.24353653,-0.17763072,0.97667545,0.15736043,0.14609116,0
0.67854869,0.61449873,0.14922178,-0.16889885,0.98313123,0.070185065,0
-0.12662101,-0.059879199,0.48401737,-0.13139284,-0.10012627,0.98626089,0
-0.137312,0.35929018,-0.34409153,-0.024907708,0.75881433,-0.65083057,0
0.8623271,-0.28772634,0.39126408,0.056302398,-0.84425497,0.53297615,0
-0.72750586,0.38701293,-0.049696624,-0.1718615,0.98076499,0.092540324,0
0.98314691,-0.021548212,0.29553634,0.97667545,0.15736043,0.14609116,0
-0.95846152,-0.32941014,-0.082537383,-0.97667545,-0.15736043,-0.14609116,0
-0.14726153,0.06046474,-0.51843959,0.11578107,0.18703708,-0.97550595,0
-0.87401909,-0.6360237,-0.24828371,0.18575996,-0.96047682,-0.20730984,0
1.0101379,0.29492331,-0.22579245,0.97667545,0.15736043,0.14609116,0
0.17098027,-0.032098472,0.52607918,-0.1244933,-0.13935128,0.98238617,0
0.976246,-0.17921984,0.51150554,0.97667545,0.15736043,0.14609116,0
-1.0050937,0.089664876,-0.22218513,-0.97667545,-0.15736043,-0.14609116,0
-0.94818938,-0.043509483,-0.45916507,-0.97667545,-0.15736043,-0.14609116,0
0.70642233,0.098585188,-0.39988506,0.1489501,-0.0064663589,-0.98882353,0
-0.96587926,-0.41599959,0.06032218,-0.97667545,-0.15736043,-0.14609116,0
0.85950589,-0.34653601,-0.028296828,0.19384825,-0.93880409,-0.28472775,0
-1.0424865,0.0014154911,0.12285781,-0.97667545,-0.15736043,-0.14609116,0
0.85855907,-0.11421743,-0.31560731,0.2043398,-0.47217137,-0.8574959,0
1.0122281,0.033352256,0.041981816,0.97667545,0.15736043,0.14609116,0
0.64663357,0.59677607,-0.0091251284,-0.12120706,0.96565425,-0.22982734,0
-0.28316632,0.44446304,-0.1582765,-0.11756292,0.96123123,-0.24942595,0
-0.099198669,-0.1613529,0.46590099,-0.092503309,-0.30564436,0.94764161,0
-0.45208251,-0.22602385,0.41052732,-0.089362264,-0.32076794,0.94293284,0
-0.70024335,-0.61728543,-0.16129637,0.17120066,-0.98134291,-0.087499619,0
-0.89185935,-0.4455598,-0.40268907,-0.97667545,-0.15736043,-0.14609116,0
1.05486,0.013684511,-0.22184348,0.97667545,0.15736043,0.14609116,0
0.89587456,0.42130715,0.40196934,0.97667545,0.15736043,0.14609116,0
0.094671927,-0.37890339,0.32226798,0.033232272,-0.78295922,0.62118471,0
-0.18019217,-0.39675653,0.31194019,0.016322017,-0.73281866,0.68022823,0
0.59786415,0.47358119,-0.23891452,-0.022262067,0.75092161,-0.66001606,0
-0.99978876,-0.40377259,0.27385011,-0.97667545,-0.15736043,-0.14609116,0
-0.720541,0.16760606,-0.51979423,0.03037256,0.5722906,-0.81948823,0
0.95470881,0.55383825,-0.13411486,0.97667545,0.15736043,0.14609116,0
-0.88205028,-0.38480735,-0.533705,-0.97667545,-0.15736043,-0.14609116,0
-0.94239342,-0.23672676,-0.28979149,-0.97667545,-0.15736043,-0.14609116,0
-0.65714061,-0.45098656,-0.47631207,0.21395344,-0.65574628,-0.72403085,0
0.9145323,0.32971066,0.37589717,0.97667545,0.15736043,0.14609116,0
0.31544161,-0.32360652,0.37871385,0.020484477,-0.74555945,0.66612422,0
-1.0115676,-0.20767951,0.14137611,-0.97667545,-0.15736043,-0.14609116,0
-1.0051223,0.34157676,-0.19278497,-0.14266151,0.98405564,-0.10621691,0
-1.050756,0.025594294,0.1520974,-0.97667545,-0.15736043,-0.14609116,0
-0.24502346,-0.41504467,-0.38454831,0.21472043,-0.71653831,-0.66367757,0
-1.0332649,0.091685474,-0.036026537,-0.97667545,-0.15736043,-0.14609116,0
-0.20141196,-0.21144356,0.43847191,-0.078704178,-0.37066543,0.92542565,0
-0.28680986,0.31325144,0.32157931,-0.21450222,0.68436337,0.69687551,0
-0.58224237,-0.49577999,0.21091641,0.038515776,-0.79773438,0.60177761,0
1.0604045,0.059465587,-0.30822307,0.97667545,0.15736043,0.14609116,0
0.44814569,0.53993911,0.27182895,-0.20221424,0.90288866,0.37934339,0
-0.70915633,0.35369518,0.098198116,-0.2021327,0.90333939,0.37831241,0
0.94848955,0.48922831,-0.02294299,0.97667545,0.15736043,0.14609116,0
-0.51295817,-0.17285055,-0.57618839,0.17025638,-0.15297565,-0.97345316,0
1.0316153,0.068519413,-0.12550819,0.97667545,0.15736043,0.14609116,0
-1.004156,-0.26366043,0.15212625,-0.97667545,-0.15736043,-0.14609116,0
-0.947007,0.011471748,-0.52629209,-0.97667545,-0.15736043,-0.14609116,0
0.9762373,0.16956025,0.13587978,0.97667545,0.15736043,0.14609116,0
-0.57032448,-0.58216405,0.029885277,0.11782786,-0.96156424,0.24801368,0
-1.015709,-0.15731668,0.11481619,-0.97667545,-0.15736043,-0.14609116,0
-0.026567608,-0.47514668,0.17106771,0.094783686,-0.92646086,0.36426109,0
0.93916178,0.25851333,0.28792861,0.97667545,0.15736043,0.14609116,0
0.59941638,0.16755341,-0.40910655,0.12051517,0.16136995,-0.97950792,0
-1.0252012,0.040249407,-0.034531415,-0.97667545,-0.15736043,-0.14609116,0
-0.66095674,-0.60819066,-0.041591555,0.13786788,-0.98118359,0.13517094,0
-0.96763527,-0.010406017,-0.36481878,-0.97667545,-0.15736043,-0.14609116,0
-0.94163436,-0.48631883,0.23069127,-0.0031749606,-0.66971987,0.742607,0
-0.43944326,-0.45915097,0.24956453,0.029395312,-0.77196097,0.63498998,0
1.027899,0.02235353,-0.050936401,0.97667545,0.15736043,0.14609116,0
-0.30020136,-0.021891296,-0.54901361,0.13571799,0.074820101,-0.98791826,0
-0.97140825,-0.18778515,-0.14853314,-0.97667545,-0.15736043,-0.14609116,0
-0.91353703,-0.25507116,-0.46294802,-0.97667545,-0.15736043,-0.14609116,0
0.98874474,-0.14402783,0.39004016,0.97667545,0.15736043,0.14609116,0
0.9592483,-0.02496016,0.45898312,0.97667545,0.15736043,0.14609116,0
-1.0320716,0.1983155,-0.15885931,-0.97667545,-0.15736043,-0.14609116,0
0.96461505,-0.02512908,0.4232862,0.97667545,0.15736043,0.14609116,0
1.0366584,-0.20232415,0.13251197,0.97667545,0.15736043,0.14609116,0
0.89254344,0.23316842,-0.36188638,0.11390054,0.19707784,-0.97374886,0
1.0369443,0.028283477,-0.11779535,0.97667545,0.15736043,0.14609116,0
-0.91846645,-0.46335059,-0.20564726,-0.97667545,-0.15736043,-0.14609116,0
-0.89303654,-0.36010075,-0.48686996,-0.97667545,-0.15736043,-0.14609116,0
0.99150193,-0.14691734,0.37471986,0.97667545,0.15736043,0.14609116,0
1.0382077,-0.2459498,0.16914576,0.97667545,0.15736043,0.14609116,0
-0.90051687,-0.43868893,-0.35221091,-0.97667545,-0.15736043,-0.14609116,0
-0.61231405,-0.60510147,-0.10211634,0.1586754,-0.9873271,0.0026819706,0
0.88335228,0.52938402,-0.18472539,-0.028553694,0.76951873,-0.63798553,0
0.97269917,0.35402942,-0.039165258,0.97667545,0.15736043,0.14609116,0
0.50679582,-0.32516563,0.36728054,0.041871175,-0.80689341,0.58921111,0
-0.97855914,-0.27645159,-0.0052205622,-0.97667545,-0.15736043,-0.14609116,0
-0.065560937,0.14162782,-0.48829347,0.089764059,0.31884432,-0.94354683,0
0.96584541,0.30014932,0.064690918,0.97667545,0.15736043,0.14609116,0
1.0293231,-0.11402315,0.086439371,0.97667545,0.15736043,0.14609116,0
-1.0503464,0.33436573,-0.091715932,-0.17345703,0.97924471,0.10484433,0
-0.90813804,-0.15967846,-0.60179299,-0.97667545,-0.15736043,-0.14609116,0
-0.1219759,0.27669531,-0.42114389,0.023882687,0.59654361,-0.80222517,0
0.99701113,0.41747969,-0.2700448,0.97667545,0.15736043,0.14609116,0
0.47133374,-0.028985143,-0.42641899,0.17405725,-0.18180761,-0.96780676,0
-1.0215749,-0.21548617,0.21668798,-0.97667545,-0.15736043,-0.14609116,0
-0.78553236,-0.073964,0.3864249,-0.15997183,0.079425067,0.98392105,0
-1.0255058,-0.24560499,0.27541,-0.97667545,-0.15736043,-0.14609116,0
1.0197318,-0.22093701,0.26572204,0.97667545,0.15736043,0.14609116,0
0.95274806,0.2660104,0.18902391,0.97667545,0.15736043,0.14609116,0
0.91925347,0.13408756,0.55504751,0.97667545,0.15736043,0.14609116,0
-0.93800318,-0.52674842,-0.0067485571,-0.97667545,-0.15736043,-0.14609116,0
-0.9283191,-0.46604151,0.24829969,-0.013204873,-0.63507187,0.77234018,0
0.31090406,-0.31400546,0.38926575,0.014103711,-0.7259233,0.68763113,0
-1.0621681,0.18928951,0.052069843,-0.97667545,-0.15736043,-0.14609116,0
0.92372847,0.4601143,0.17395428,0.97667545,0.15736043,0.14609116,0
0.88077289,-0.047091842,0.59621489,-0.074449241,-0.38999641,0.91780174,0
-0.98707008,-0.019072115,-0.22555542,-0.97667545,-0.15736043,-0.14609116,0
-0.56865287,0.21396768,-0.48092633,0.019035876,0.61424339,-0.78888708,0
-0.92105198,-0.10301149,-0.57649696,-0.97667545,-0.15736043,-0.14609116,0
-0.95031875,-0.1599502,-0.31950623,-0.97667545,-0.15736043,-0.14609116,0
0.94932216,0.12695599,0.36170831,0.97667545,0.15736043,0.14609116,0
-1.0410099,-0.13847554,0.26366758,-0.97667545,-0.15736043,-0.14609116,0
-1.0468135,0.19744408,-0.059364855,-0.97667545,-0.15736043,-0.14609116,0
1.0225017,-0.20395702,0.2289139,0.97667545,0.15736043,0.14609116,0
0.98015118,0.27285904,-0.0015531182,0.97667545,0.15736043,0.14609116,0
0.94955128,0.25283366,-0.35112417,0.11004132,0.2174165,-0.96985614,0
-1.0136926,-0.28484571,0.23870197,-0.97667545,-0.15736043,-0.14609116,0
-1.0107352,-0.33376807,0.2716262,-0.97667545,-0.15736043,-0.14609116,0
-0.77435887,-0.38303953,-0.55665451,0.20518631,-0.48349279,-0.85096014,0
-0.20891604,0.41956469,0.20494121,-0.20671344,0.87314451,0.44146156,0
-1.0738097,0.11780953,0.20689219,-0.97667545,-0.15736043,-0.14609116,0
0.23868182,-0.29236874,0.41061845,-0.0052999854,-0.66250348,0.74904013,0
-0.80116987,-0.09851706,-0.6236223,0.13436794,0.082781315,-0.98746765,0
0.71592307,0.552809,-0.13730174,-0.064725876,0.86449254,-0.49846077,0
-0.73308861,0.38585606,-0.14775407,-0.14403832,0.9847331,-0.097742677,0
1.0190442,0.29340339,-0.28369629,0.97667545,0.15736043,0.14609116,0
-0.95460224,-0.50220138,0.077782094,-0.97667545,-0.15736043,-0.14609116,0
0.9301396,0.32888275,0.27244857,0.97667545,0.15736043,0.14609116,0
-0.55905545,-0.40389684,0.30569828,-0.014636874,-0.63000363,0.77645421,0
-0.97890759,-0.052023351,-0.24463162,-0.97667545,-0.15736043,-0.14609116,0
-0.3412922,-0.55652702,0.007374227,0.13749041,-0.98092473,0.13741535,0
1.0384134,-0.2843594,0.20914316,0.97667545,0.15736043,0.14609116,0
0.8926816,0.30006659,0.55390823,0.97667545,0.15736043,0.14609116,0
-1.0572321,0.048807919,0.17038935,-0.97667545,-0.15736043,-0.14609116,0
0.025302947,0.37010723,0.36169052,-0.21464509,0.69747764,0.68370473,0
0.99161017,-0.016343176,0.2333501,0.97667545,0.15736043,0.14609116,0
-0.9301312,-0.32593834,-0.27567565,-0.97667545,-0.15736043,-0.14609116,0
-0.89199835,0.34285182,-0.26221091,-0.11281049,0.95496249,-0.27444559,0
0.26955569,0.54343659,-0.02829212,-0.13411225,0.9784044,-0.15728498,0
-1.0644588,-0.020274639,0.29311401,-0.97667545,-0.15736043,-0.14609116,0
0.045774132,0.51098126,-0.034792215,-0.14291608,0.98418599,-0.10465556,0
-0.64138901,-0.31038353,0.36045474,-0.066598654,-0.42481822,0.90282559,0
-0.35275018,0.38449672,0.20552751,-0.20936453,0.84893006,0.48526704,0
0.97786939,0.30471545,-0.020612508,0.97667545,0.15736043,0.14609116,0
-1.0068381,-0.075182498,-0.032958925,-0.97667545,-0.15736043,-0.14609116,0
1.0706335,-0.23703104,-0.057239711,0.97667545,0.15736043,0.14609116,0
-0.27193984,0.18953109,0.41338247,-0.20129943,0.43425816,0.87800813,0
1.0717366,-0.15853465,-0.14916587,0.97667545,0.15736043,0.14609116,0
0.2003752,0.53715336,0.08171156,-0.16995153,0.98235607,0.078057528,0
0.92658806,0.30676734,0.32001272,0.97667545,0.15736043,0.14609116,0
-0.66084087,-0.044912636,0.40427226,-0.16249692,0.096940786,0.98193538,0
-0.60950768,-0.55760664,-0.31469205,0.20499742,-0.88577843,-0.41638023,0
-0.70217943,-0.49836805,0.21401513,0.027367622,-0.7660585,0.64218795,0
1.082041,-0.20362145,-0.16949058,0.97667545,0.15736043,0.14609116,0
1.0069351,-0.18892801,0.31679499,0.97667545,0.15736043,0.14609116,0
0.96374965,0.39987266,-0.028713524,0.97667545,0.15736043,0.14609116,0
1.0463545,-0.33129245,0.20660633,0.97667545,0.15736043,0.14609116,0
0.483753,0.48419008,-0.21989505,-0.041472763,0.8058151,-0.59071314,0
0.35033187,0.24894345,0.52441382,-0.19386679,0.35376152,0.91502368,0
-1.0589138,0.30541825,0.025316536,-0.19874626,0.92003578,0.33768928,0
1.0604702,-0.21498954,-0.01303637,0.97667545,0.15736043,0.14609116,0
-1.0445035,0.22481793,-0.1042943,-0.97667545,-0.15736043,-0.14609116,0
1.007406,0.22497714,-0.13218713,0.97667545,0.15736043,0.14609116,0
0.12188201,0.52365321,-0.019405782,-0.14418411,0.98480082,-0.096840918,0
-0.94531322,-0.11524898,-0.40111953,-0.97667545,-0.15736043,-0.14609116,0
0.97867477,-0.018862903,0.32254207,0.97667545,0.15736043,0.14609116,0
0.97456187,-0.061316967,0.39576727,0.97667545,0.15736043,0.14609116,0
-1.0503557,0.097509503,0.07195878,-0.97667545,-0.15736043,-0.14609116,0
-0.93614155,-0.38268667,-0.17436838,-0.97667545,-0.15736043,-0.14609116,0
1.017005,-0.19912422,0.26045674,0.97667545,0.15736043,0.14609116,0
0.1668033,0.47597244,0.26912269,-0.20772243,0.86472678,0.4572733,0
-1.0204012,0.26007301,-0.30340135,-0.97667545,-0.15736043,-0.14609116,0
0.9249835,0.31043214,0.32679302,0.97667545,0.15736043,0.14609116,0
-0.97869998,0.13623774,-0.44880259,-0.97667545,-0.15736043,-0.14609116,0
-0.16875491,0.47840059,-0.042774916,-0.15040514,0.98694718,-0.057562709,0
-1.0636215,0.13595468,0.11923575,-0.97667545,-0.15736043,-0.14609116,0
0.61927432,-0.39115939,-0.043034613,0.18961853,-0.95132065,-0.24296826,0
0.36937925,-0.44044751,0.12414294,0.13401888,-0.97832972,0.15782881,0
-0.98289436,0.029166937,-0.30543107,-0.97667545,-0.15736043,-0.14609116,0
1.0188593,0.19756639,-0.17923105,0.97667545,0.15736043,0.14609116,0
-0.88391286,-0.30807817,-0.60390109,-0.97667545,-0.15736043,-0.14609116,0
-0.93342531,-0.10887301,-0.48746279,-0.97667545,-0.15736043,-0.14609116,0
0.930031,0.11183357,0.50696599,0.97667545,0.15736043,0.14609116,0
0.48453289,0.1781317,0.57028604,-0.1728164,0.17228502,0.96976924,0
0.44438085,0.44377911,0.41798663,-0.21471232,0.70976812,0.67091566,0
1.0395875,0.036712825,-0.14454591,0.97667545,0.15736043,0.14609116,0
0.94648993,-0.059665561,0.58166015,0.97667545,0.15736043,0.14609116,0
-0.88032329,0.08048594,-0.58057618,0.059763193,0.45427346,-0.8888554,0
0.89604783,0.42197448,0.4000918,0.97667545,0.15736043,0.14609116,0
1.0169675,-0.27786827,0.34552532,0.97667545,0.15736043,0.14609116,0
0.93608797,0.11999738,0.45767921,0.97667545,0.15736043,0.14609116,0
0.15439659,-0.22367656,-0.42311138,0.20373285,-0.46428037,-0.8619377,0
-0.96740019,-0.17508322,-0.1890099,-0.97667545,-0.15736043,-0.14609116,0
0.99080956,0.28056026,-0.081104279,0.97667545,0.15736043,0.14609116,0
0.95710605,0.55456406,-0.15092313,0.97667545,0.15736043,0.14609116,0
-0.96111411,0.11028433,-0.53841543,-0.97667545,-0.15736043,-0.14609116,0
0.40966558,0.46017256,-0.24681509,-0.033239692,0.78298032,-0.62115782,0
-0.88986051,-0.52199543,-0.33372039,-0.97667545,-0.15736043,-0.14609116,0
-0.99763155,0.12768251,-0.31302261,-0.97667545,-0.15736043,-0.14609116,0
-1.0348678,-0.17739737,0.26452929,-0.97667545,-0.15736043,-0.14609116,0
0.79536754,0.35628033,0.57557094,-0.20042187,0.4239721,0.88322061,0
-0.93168592,-0.5923959,0.021729218,-0.97667545,-0.15736043,-0.14609116,0
0.090733171,0.10234702,0.51341462,-0.16960466,0.14812997,0.97431594,0
0.29319835,0.44627184,0.36446875,-0.21414691,0.76356125,0.60919213,0
0.43387508,0.42818472,0.43053663,-0.21446896,0.68200397,0.69919491,0
-0.067161277,0.41364345,-0.27577603,-0.054641247,0.84012508,-0.53963333,0
-0.65661198,0.017286181,-0.58559513,0.10125029,0.26247025,-0.95961326,0
-0.97303629,-0.34409678,0.030720592,-0.97667545,-0.15736043,-0.14609116,0
0.035540611,-0.48328251,-0.13766205,0.19111294,-0.94722569,-0.25736976,0
0.58183181,-0.41223747,0.053447306,0.16511217,-0.98536003,-0.042468786,0
-0.94989824,-0.11925781,-0.36614907,-0.97667545,-0.15736043,-0.14609116,0
0.38993329,0.44455895,-0.264853,-0.02511251,0.75942093,-0.65011477,0
1.080754,-0.20302516,-0.16152853,0.97667545,0.15736043,0.14609116,0
0.99182057,-0.1947124,0.42407131,0.97667545,0.15736043,0.14609116,0
0.68124628,-0.015696675,-0.39071548,0.17913991,-0.22205329,-0.95843685,0
-0.08920905,0.10079108,0.48154309,-0.17662382,0.20187125,0.96335459,0
-1.0428092,0.11041564,0.0076060891,-0.97667545,-0.15736043,-0.14609116,0
0.85418141,0.61978424,-0.015548792,-0.10730822,0.94703019,-0.30268574,0
1.0742253,-0.27115309,-0.044498146,0.97667545,0.15736043,0.14609116,0
-0.86240017,-0.62969595,-0.01565215,0.11850085,-0.96240222,0.24441665,0
0.47025084,0.54567754,0.26986891,-0.20138043,0.90737677,0.36893505,0
-0.15669948,0.3496024,-0.35449895,-0.020747632,0.74635637,-0.665223,0
0.99453259,0.028943419,0.16503286,0.97667545,0.15736043,0.14609116,0
-0.97665608,-0.33144766,0.041294932,-0.97667545,-0.15736043,-0.14609116,0
0.74141479,0.48295915,-0.23248619,-0.013742298,0.72479302,-0.68882966,0
-1.0221407,0.24143183,-0.27169287,-0.97667545,-0.15736043,-0.14609116,0
-0.68887872,-0.055953085,-0.60417879,0.12609041,0.13039142,-0.98341197,0
0.59780955,0.59832871,0.034450993,-0.1386216,0.98168647,-0.13067377,0
-0.54238063,-0.49778497,-0.38692409,0.21341181,-0.78641021,-0.57966733,0
-0.83777642,-0.6370095,-0.070478596,0.13866512,-0.98171496,0.13041359,0
-0.89056504,-0.46684378,-0.38841614,-0.97667545,-0.15736043,-0.14609116,0
0.081002831,0.18215188,0.49250507,-0.18906546,0.30773973,0.93249691,0
0.97363114,0.26849669,0.046734363,0.97667545,0.15736043,0.14609116,0
0.92198658,0.51800483,0.1232435,0.97667545,0.15736043,0.14609116,0
0.48333144,-0.16650254,0.50924569,-0.049574614,-0.49673969,0.86648256,0
-0.20273584,-0.51971376,-0.18031123,0.19251049,-0.94308162,-0.27117628,0
-1.0156791,-0.0039282441,-0.050604701,-0.97667545,-0.15736043,-0.14609116,0
-0.13033336,-0.31814378,0.38280982,-0.023468375,-0.5980705,0.80109978,0
-0.66147083,0.2909295,-0.40278482,-0.035478443,0.78929305,-0.6129908,0
-0.79179549,-0.564363,0.12711209,0.064188935,-0.86323816,0.50069922,0
-0.78151745,-0.039914012,-0.61296093,0.11512423,0.19055441,-0.97490275,0
-0.21012715,-0.47489041,0.2066585,0.067622505,-0.87117487,0.48629361,0
0.80467355,0.63382,0.18006827,-0.17201048,0.98063052,0.093681037,0
-0.96203488,-0.44610989,0.06705384,-0.97667545,-0.15736043,-0.14609116,0
-0.94737053,0.030155659,-0.5439865,-0.97667545,-0.15736043,-0.14609116,0
0.92215484,0.12908494,0.54103917,0.97667545,0.15736043,0.14609116,0
0.89811242,0.41750681,0.39110216,0.97667545,0.15736043,0.14609116,0
0.083490662,0.51505435,-0.045477808,-0.13764095,0.98102844,-0.1365211,0
1.0118895,-0.1037823,0.19195873,0.97667545,0.15736043,0.14609116,0
1.0743462,-0.10282528,-0.22661918,0.97667545,0.15736043,0.14609116,0
0.41082287,0.24114639,-0.40874571,0.080401003,0.36286458,-0.92836678,0
-1.0229744,-0.20702839,0.21693397,-0.97667545,-0.15736043,-0.14609116,0
0.91295975,0.46451926,0.2412025,0.97667545,0.15736043,0.14609116,0
0.94948906,0.37906259,0.089039057,0.97667545,0.15736043,0.14609116,0
1.0100232,0.28198594,-0.21109051,0.97667545,0.15736043,0.14609116,0
1.0351504,0.1911602,-0.28124276,0.97667545,0.15736043,0.14609116,0
0.29820263,-0.4569352,0.07118541,0.14763603,-0.98617536,0.07524395,0
-0.72634625,-0.57491362,-0.33536771,0.2054438,-0.88267082,-0.42271137,0
0.38268352,0.38572121,-0.32355225,0.0090554059,0.64958662,-0.76023358,0
-0.88661534,-0.4686771,-0.41284674,-0.97667545,-0.15736043,-0.14609116,0
0.74048698,-0.23718143,0.46139061,0.0095192194,-0.71144128,0.70268101,0
0.84396225,0.3983528,-0.29990456,0.040958881,0.531349,-0.8461622,0
-0.53890467,-0.23069012,-0.56859094,0.1834746,-0.2581642,-0.94851899,0
-1.0408273,0.068106949,0.039928854,-0.97667545,-0.15736043,-0.14609116,0
0.42766762,-0.32255045,-0.26590312,0.21446085,-0.74835759,-0.62766826,0
-0.98342544,-0.35051095,0.10708477,-0.97667545,-0.15736043,-0.14609116,0
-0.16165376,-0.21704461,0.43943456,-0.073591173,-0.39385527,0.91622174,0
-1.006492,0.31096876,0.040847898,-0.20005083,0.91403461,0.35287446,0
-1.0364676,0.1132291,-0.037820041,-0.97667545,-0.15736043,-0.14609116,0
-1.0018961,-0.074448407,-0.066789329,-0.97667545,-0.15736043,-0.14609116,0
0.97499061,-0.16273952,0.50214726,0.97667545,0.15736043,0.14609116,0
-0.53293067,0.41973484,-0.097081184,-0.15045583,0.9869585,-0.057235837,0
0.99993891,0.094209015,0.058589041,0.97667545,0.15736043,0.14609116,0
1.0396585,-0.27599227,0.19180584,0.97667545,0.15736043,0.14609116,0
0.67680562,0.48640567,0.44718805,-0.21471614,0.72012484,0.65978557,0
-0.70948118,-0.58099639,0.079222761,0.090558037,-0.91878128,0.38423961,0
0.66397244,0.52288282,-0.17931435,-0.048328549,0.82402265,-0.56449169,0
0.075567067,-0.49328849,0.030928373,0.14976916,-0.98679686,0.06165266,0
-0.90094632,-0.53576493,-0.24477564,-0.97667545,-0.15736043,-0.14609116,0
-0.96115643,0.097345829,-0.52419597,-0.97667545,-0.15736043,-0.14609116,0
-1.0540742,-0.068604767,0.27574658,-0.97667545,-0.15736043,-0.14609116,0
-0.28228897,-0.20472927,0.43382072,-0.086898386,-0.33249566,0.93909281,0
0.76135921,0.083233893,0.61684585,-0.1314072,-0.10004243,0.98626751,0
-0.82005131,0.3642754,-0.21117878,-0.12732436,0.9722873,-0.1960761,0
0.91573936,0.50407404,0.18001403,0.97667545,0.15736043,0.14609116,0
0.97791445,0.049637139,0.25384128,0.97667545,0.15736043,0.14609116,0
-0.37429929,-0.53310645,-0.24824747,0.200194,-0.9133451,-0.35457456,0
0.90760475,0.14652622,0.61952531,0.97667545,0.15736043,0.14609116,0
0.42331201,0.041630298,-0.44203159,0.15237868,-0.02859515,-0.98790836,0
-0.89495206,-0.24116719,-0.60217178,-0.97667545,-0.15736043,-0.14609116,0
0.86025155,-0.2688939,0.41922194,0.042344108,-0.80817032,0.58742464,0
0.35534295,-0.28092387,0.42144176,-0.0011491477,-0.67653757,0.73640728,0
-1.0316272,0.23324579,-0.1994555,-0.97667545,-0.15736043,-0.14609116,0
-0.6721738,0.21712331,0.29437354,-0.21272504,0.61657184,0.75801516,0
1.0410987,0.023624241,-0.14055049,0.97667545,0.15736043,0.14609116,0
1.0545644,0.079656065,-0.29092711,0.97667545,0.15736043,0.14609116,0
-0.87704408,-0.4136771,-0.53607708,-0.97667545,-0.15736043,-0.14609116,0
0.1795643,-0.12727636,0.50397038,-0.088136911,-0.32661542,0.94103885,0
-0.98789191,-0.1528877,-0.075922698,-0.97667545,-0.15736043,-0.14609116,0
-0.1625694,-0.51314306,-0.17464754,0.19257826,-0.94287241,-0.27185494,0
-0.91181535,-0.43299723,-0.28280738,-0.97667545,-0.15736043,-0.14609116,0
0.33832249,-0.10513392,-0.4327988,0.18701941,-0.28915554,-0.9388358,0
-0.95033395,0.1279695,-0.55597937,0.031692922,0.56727797,-0.82291627,0
0.93421322,0.094034314,0.49817857,0.97667545,0.15736043,0.14609116,0
0.031077892,-0.49118581,-0.10820305,0.18472409,-0.9626236,-0.19807237,0
0.96104121,0.41579974,-0.027762413,0.97667545,0.15736043,0.14609116,0
-0.97508919,-0.26982731,0.34424269,-0.10520893,-0.24239597,0.96445596,0
-0.97830862,-0.21886265,-0.068926662,-0.97667545,-0.15736043,-0.14609116,0
-0.90328574,-0.60466248,-0.15492314,-0.97667545,-0.15736043,-0.14609116,0
1.0310602,0.032586277,-0.083092988,0.97667545,0.15736043,0.14609116,0
0.90065098,0.61515182,0.16123962,0.97667545,0.15736043,0.14609116,0
1.01534,-0.019554973,0.078166604,0.97667545,0.15736043,0.14609116,0
-0.8554619,-0.30318853,0.34587884,-0.084390461,-0.34431246,0.93505454,0
-0.23104471,0.17079371,0.4311468,-0.19683838,0.38432428,0.90196979,0
-0.89379478,-0.3116309,-0.53400934,-0.97667545,-0.15736043,-0.14609116,0
-0.40316704,0.25052759,-0.44827285,0.013739258,0.63318419,-0.77387917,0
-0.46281329,-0.57593626,-0.15241003,0.17784828,-0.97408235,-0.13976228,0
-1.0494827,0.13312215,0.027762651,-0.97667545,-0.15736043,-0.14609116,0
-0.19294254,0.26277861,-0.43359393,0.025169432,0.59178567,-0.80570233,0
-1.0601157,0.32130259,-0.10384738,-0.97667545,-0.15736043,-0.14609116,0
1.0169392,-0.27027285,0.3375327,0.97667545,0.15736043,0.14609116,0
0.34772658,0.51212162,-0.15697692,-0.08055611,0.89921379,-0.43002927,0
0.083085418,-0.061516747,-0.48919576,0.16617084,-0.12303349,-0.97839153,0
-0.70016503,-0.60819542,-0.011306927,0.12561169,-0.97053349,0.20563656,0
0.94350505,0.063245535,0.46922231,0.97667545,0.15736043,0.14609116,0
0.36392429,0.14491819,-0.44157082,0.1150223,0.19109875,-0.97480822,0
-1.0190502,-0.12926543,0.10693854,-0.97667545,-0.15736043,-0.14609116,0
-0.33919784,-0.43851247,-0.38944891,0.2146486,-0.73313898,-0.64531624,0
-1.0346481,-0.16697639,0.25183544,-0.97667545,-0.15736043,-0.14609116,0
-0.9768523,0.30101359,-0.35022008,-0.082659654,0.90348709,-0.42056918,0
-0.27215144,-0.15982923,0.44855791,-0.10397053,-0.24871284,0.96298075,0
0.79622501,-0.31268978,0.35729402,0.067574374,-0.87106508,0.48649693,0
0.83479667,-0.36477655,0.19788957,0.13263033,-0.9771862,0.16588026,0
-0.91720641,-0.55006158,-0.12067123,-0.97667545,-0.15736043,-0.14609116,0
-0.70401579,-0.48003298,-0.46262741,0.21465415,-0.69862121,-0.68253338,0
0.51346111,0.29688209,0.53984672,-0.19796413,0.39641237,0.89647496,0
0.17677186,0.53295088,0.082923681,-0.1711821,0.98135877,0.087358832,0
0.6885342,0.5249213,-0.17842227,-0.046944842,0.82040769,-0.56984854,0
1.0183913,-0.045612514,0.085835278,0.97667545,0.15736043,0.14609116,0
-0.40150747,-0.46089938,-0.38417482,0.21427935,-0.75789386,-0.61618274,0
-1.0584298,0.12792867,0.093172252,-0.97667545,-0.15736043,-0.14609116,0
0.98307705,0.28847599,-0.037935376,0.97667545,0.15736043,0.14609116,0
0.92361701,0.61775529,0.0048987269,0.97667545,0.15736043,0.14609116,0
0.96625519,0.12754518,0.24787033,0.97667545,0.15736043,0.14609116,0
1.0531304,-0.32531226,0.15486652,0.97667545,0.15736043,0.14609116,0
-0.54361218,0.24313748,-0.45631954,0.0053566992,0.66230994,-0.74921083,0
0.22675151,-0.370224,-0.27675101,0.21368396,-0.77908731,-0.58937424,0
0.85276306,0.35601389,0.58859903,-0.19876546,0.40521139,0.89235413,0
0.13984275,-0.083598405,0.5126251,-0.1076951,-0.22961092,0.96730584,0
0.40551075,-0.43817025,0.10323411,0.14261724,-0.98403281,0.10648835,0
-0.88506389,-0.50884235,-0.37995481,-0.97667545,-0.15736043,-0.14609116,0
-1.072495,0.062927902,0.25721818,-0.97667545,-0.15736043,-0.14609116,0
0.99334872,0.27040827,-0.087143928,0.97667545,0.15736043,0.14609116,0
-0.96518338,-0.050039887,-0.33851945,-0.97667545,-0.15736043,-0.14609116,0
-0.68222779,-0.35958219,0.3318294,-0.047073007,-0.50690973,0.86071283,0
0.9840259,0.26353472,-0.017413646,0.97667545,0.15736043,0.14609116,0
0.90143514,0.33833867,0.45416322,0.97667545,0.15736043,0.14609116,0
-0.88722974,-0.61554271,0.037875913,0.096585684,-0.92962551,0.35562289,0
-0.97849464,-0.23959768,-0.045348555,-0.97667545,-0.15736043,-0.14609116,0
1.0459642,-0.33203804,0.21001959,0.97667545,0.15736043,0.14609116,0
-0.53926164,0.41849983,-0.1015262,-0.14939147,0.98669994,-0.064072728,0
0.055405617,-0.47327861,-0.15754104,0.19554245,-0.93290544,-0.30240792,0
1.0511608,-0.16620064,-0.0033519268,0.97667545,0.15736043,0.14609116,0
0.97905791,0.38786769,-0.11812486,0.97667545,0.15736043,0.14609116,0
-1.0383148,0.10081792,-0.012102902,-0.97667545,-0.15736043,-0.14609116,0
0.99496919,-0.11776119,0.32013494,0.97667545,0.15736043,0.14609116,0
0.5652557,-0.19438402,-0.33964211,0.20879459,-0.53727365,-0.81715471,0
-0.11192159,-0.36681625,0.34152746,0.004970938,-0.69676632,0.71728098,0
-0.99891227,0.14585304,-0.32403296,-0.97667545,-0.15736043,-0.14609116,0
-0.94985783,0.081191659,-0.58233076,-0.97667545,-0.15736043,-0.14609116,0
-1.0173974,-0.16577184,0.13521084,-0.97667545,-0.15736043,-0.14609116,0
-1.0195169,-0.065899074,0.041803241,-0.97667545,-0.15736043,-0.14609116,0
0.13043502,0.33235273,-0.37181544,0.015972733,0.62524801,-0.78026259,0
-0.71030331,-0.31270272,0.35418069,-0.070450008,-0.40787029,0.91031778,0
0.87436539,0.62842983,0.27900803,-0.19216156,0.94414616,0.26769745,0
-1.0746107,0.20354933,0.18594187,-0.21471852,0.71878266,0.66124666,0
-0.58633167,-0.18932725,0.40654612,-0.11188519,-0.20774359,0.97176349,0
-0.76085365,0.38099617,-0.15565896,-0.14284888,0.98415184,-0.10506839,0
0.97442079,0.43085456,-0.1334264,0.97667545,0.15736043,0.14609116,0
0.31140211,-0.34972596,0.34731513,0.037100792,-0.79381955,0.60702068,0
0.1298013,-0.052971199,-0.48233503,0.16589397,-0.12104061,-0.97868705,0
-0.57667744,-0.4744308,-0.42761481,0.21468264,-0.72844553,-0.65059853,0
-1.0347584,0.23638731,-0.18190503,-0.97667545,-0.15736043,-0.14609116,0
0.74491727,0.20788741,0.61124629,-0.16964149,0.14840251,0.9742682,0
1.0299819,0.13679534,-0.1881313,0.97667545,0.15736043,0.14609116,0
0.063860625,-0.0057334602,0.51434547,-0.13912648,-0.054461032,0.98877585,0
0.56877279,-0.21864018,-0.32167101,0.21144646,-0.586492,-0.78186792,0
-0.97886968,0.024450064,-0.32725692,-0.97667545,-0.15736043,-0.14609116,0
0.975932,-0.11832273,0.44801068,0.97667545,0.15736043,0.14609116,0
0.99217707,0.037983835,0.17104214,0.97667545,0.15736043,0.14609116,0
-1.028607,-0.0078102946,0.04000479,-0.97667545,-0.15736043,-0.14609116,0
0.010180861,0.24233857,-0.43751481,0.051301181,0.48966205,-0.87040174,0
-0.3272374,-0.076025918,0.45539179,-0.13675964,-0.068638414,0.98822343,0
-0.95137239,-0.44982696,-0.00022478402,-0.97667545,-0.15736043,-0.14609116,0
0.8931669,0.53188944,0.30095866,0.97667545,0.15736043,0.14609116,0
-0.90385556,0.3608129,-0.12605864,-0.15827805,0.98737979,-0.0053950548,0
0.94135642,-0.13923264,0.54770178,-0.026696503,-0.58610648,0.80979419,0
0.96063209,-0.081166983,0.51027489,0.97667545,0.15736043,0.14609116,0
-0.65261906,0.39343196,0.0028336048,-0.18191969,0.96785116,0.17369318,0
0.44579095,0.57790548,0.097830385,-0.16444796,0.98566496,0.037699938,0
0.96531755,0.30933779,0.058322936,0.97667545,0.15736043,0.14609116,0
0.59005827,-0.32360476,-0.20595616,0.21265197,-0.80308598,-0.55662566,0
-0.9213779,-0.59486443,-0.044524167,-0.97667545,-0.15736043,-0.14609116,0
-0.94742739,-0.49326211,0.02018711,-0.97667545,-0.15736043,-0.14609116,0
0.32180828,-0.43620151,-0.098317981,0.19181031,-0.94519734,-0.2642172,0
0.81335258,0.62277371,0.012240171,-0.11992211,0.96413368,-0.23678017,0
0.11392259,0.50076067,-0.1255053,-0.10760398,0.94747436,-0.3011871,0
1.0193982,-0.10087365,0.13862723,0.97667545,0.15736043,0.14609116,0
0.31231037,0.5527876,0.12175435,-0.17586255,0.97660261,0.1237725,0
-0.98921347,0.20478809,-0.45235378,-0.97667545,-0.15736043,-0.14609116,0
0.65887773,-0.017630816,0.58573943,-0.10097653,-0.26384556,0.95926487,0
0.92852974,0.44786739,0.15504789,0.97667545,0.15736043,0.14609116,0
-0.80092841,-0.57287973,-0.37366092,0.20886898,-0.85401797,-0.47647345,0
-1.0364206,0.050472021,0.029463649,-0.97667545,-0.15736043,-0.14609116,0
0.58723563,-0.30296922,-0.2345801,0.21421707,-0.76065308,-0.61279505,0
1.0174402,-0.21559262,0.27528548,0.97667545,0.15736043,0.14609116,0
0.034153551,0.30034506,-0.39890549,0.024663806,0.59365833,-0.80433917,0
-1.0200416,-0.20835865,0.19875965,-0.97667545,-0.15736043,-0.14609116,0
-0.43819949,-0.27321464,-0.53351825,0.19582313,-0.37367451,-0.90665346,0
-0.56225699,0.41580945,-0.079223514,-0.15704939,0.98749518,-0.013733745,0
0.97650874,0.060311735,0.25174084,0.97667545,0.15736043,0.14609116,0
-0.6001001,-0.13634843,0.41317573,-0.13133115,-0.1004824,0.98623288,0
0.33144277,-0.42576954,0.20195526,0.10380393,-0.94161743,0.32028311,0
-0.92211884,-0.13034511,-0.53992218,-0.97667545,-0.15736043,-0.14609116,0
0.91417265,0.63181484,0.05289394,0.97667545,0.15736043,0.14609116,0
0.18074396,-0.26522663,-0.39117157,0.2098195,-0.55488992,-0.80502975,0
0.3181282,-0.17319958,-0.41076016,0.19979018,-0.41672194,-0.88680696,0
-0.9986043,-0.10195059,-0.059172571,-0.97667545,-0.15736043,-0.14609116,0
-0.97233689,-0.36192119,0.045243859,-0.97667545,-0.15736043,-0.14609116,0
0.26277778,-0.26843113,-0.36707407,0.21149212,-0.58746368,-0.78112578,0
0.0049026012,0.30723733,0.41032714,-0.21108049,0.57888591,0.78761423,0
-0.77233756,-0.28859931,0.35875151,-0.084883392,-0.34199926,0.93585861,0
0.31388947,0.31918836,0.48173538,-0.20664006,0.50393641,0.83865839,0
0.28516039,-0.14809242,0.50495178,-0.07228148,-0.3997198,0.91378307,0
-0.55418545,-0.49481577,-0.39518467,0.21376795,-0.77661055,-0.59260368,0
-0.73715341,-0.58182001,-0.32584381,0.20385218,-0.89325744,-0.40066844,0
-0.95320559,-0.45694911,0.019701809,-0.97667545,-0.15736043,-0.14609116,0
0.90808392,0.38780993,0.35642636,0.97667545,0.15736043,0.14609116,0
-0.95047802,0.040962815,-0.53485268,-0.97667545,-0.15736043,-0.14609116,0
-0.97947699,-0.41251016,0.14746942,-0.97667545,-0.15736043,-0.14609116,0
-0.26350552,-0.06505394,-0.54486519,0.15118515,-0.020837843,-0.98828578,0
0.9412179,0.19276059,0.34500805,0.97667545,0.15736043,0.14609116,0
-0.98918551,-0.12165642,-0.10091469,-0.97667545,-0.15736043,-0.14609116,0
-1.0105948,0.24690539,-0.35477769,-0.97667545,-0.15736043,-0.14609116,0
0.96945965,0.19506216,0.15372148,0.97667545,0.15736043,0.14609116,0
0.98027956,0.2643441,0.0067604184,0.97667545,0.15736043,0.14609116,0
0.61925703,0.37322375,-0.32636511,0.035513997,0.55262196,-0.83267504,0
-0.96060932,0.34929937,-0.082936645,-0.1722779,0.9803853,0.095733523,0
0.75309062,-0.031783044,0.59081924,-0.089388728,-0.32064191,0.94297308,0
0.90425062,0.64447957,0.10558406,0.97667545,0.15736043,0.14609116,0
0.96049333,0.29040581,0.11096677,0.97667545,0.15736043,0.14609116,0
-1.0366008,0.15684295,-0.083907843,-0.97667545,-0.15736043,-0.14609116,0
1.0379658,-0.31072456,0.24053413,0.97667545,0.15736043,0.14609116,0
-0.21477702,-0.092913806,-0.53555763,0.16158599,-0.09058404,-0.98269248,0
-1.0402402,0.13167673,-0.032470226,-0.97667545,-0.15736043,-0.14609116,0
-0.93243957,-0.47595835,-0.098651074,-0.97667545,-0.15736043,-0.14609116,0
-0.95626986,-0.22125423,-0.21368784,-0.97667545,-0.15736043,-0.14609116,0
-0.89051634,-0.43724948,-0.42061892,-0.97667545,-0.15736043,-0.14609116,0
-0.39739156,0.43018013,0.062618196,-0.18674153,0.95832694,0.21618736,0
0.94689602,0.094947696,0.4124051,0.97667545,0.15736043,0.14609116,0
0.37352312,-0.41954571,0.20660573,0.10444404,-0.94262648,0.31709087,0
