-0.50965822,0.11279881,-0.17284927,-0.78576535,-0.060856491,-0.61552358,0
-0.065106168,-0.66718251,-0.55152631,-0.85454482,-0.4459596,-0.26622015,0
2.4077585,-3.0479653,-3.1598887,0.51037055,-0.62597764,-0.58963889,0
2.6592329,-2.776473,-3.2304454,0.51037055,-0.62597764,-0.58963889,0
-0.52869225,0.67040312,0.004399389,-0.35094976,0.47435272,-0.80735612,0
-0.37346113,1.174274,1.0998566,0.85991907,0.37773144,0.34330481,0
-2.2824802,3.1814377,2.3109241,0.047798932,0.70525235,-0.70734322,0
-2.2344713,3.3878953,2.5917034,0.41971713,0.7797718,-0.46453586,0
2.5621994,-3.3965864,-2.6561036,0.51037055,-0.62597764,-0.58963889,0
0.75065994,-1.4465847,-1.6273608,-0.79350972,-0.078524232,-0.60347021,0
2.3878958,-3.1725864,-3.0447793,0.51037055,-0.62597764,-0.58963889,0
-1.756956,1.3696395,1.5096568,-0.81485367,-0.57115901,-0.098949552,0
0.49938303,0.092167363,0.10335255,0.85970545,0.35489482,0.36736396,0
-0.42990449,-0.19203421,-0.16824099,-0.85980898,-0.38406843,-0.33648199,0
1.6647494,-2.5970204,-2.678546,-0.80929041,-0.1177502,-0.57548594,0
-1.7080896,2.8403044,2.6029854,0.85515952,0.44174355,0.2712281,0
1.713769,-2.8924451,-2.4546199,-0.7907787,-0.61105704,-0.035754234,0
2.2347634,-3.3013747,-3.0406003,0.51037055,-0.62597764,-0.58963889,0
2.5408587,-3.1448331,-2.9418445,0.51037055,-0.62597764,-0.58963889,0
2.4214454,-3.4122629,-2.7612929,0.51037055,-0.62597764,-0.58963889,0
-2.8665366,2.8530006,2.9697671,-0.51037055,0.62597764,0.58963889,0
2.387845,-3.061588,-3.1626625,0.51037055,-0.62597764,-0.58963889,0
-0.7543869,0.27824146,0.14910841,-0.84824222,-0.25366962,-0.46490538,0
2.7705979,-2.8935843,-3.0097232,0.51037055,-0.62597764,-0.58963889,0
-0.25466892,-0.15402989,0.53042841,-0.15583748,-0.74163371,0.65245235,0
2.1553464,-3.2356255,-3.1791422,0.51037055,-0.62597764,-0.58963889,0
1.1805023,-1.3653429,-0.70144904,0.45143372,-0.38856643,0.80325824,0
0.52808607,-1.1506007,-0.41670623,-0.20492887,-0.75444078,0.62355691,0
1.5134902,-1.6731024,-1.0426476,0.54193437,-0.29825622,0.78571647,0
0.55066538,0.11204234,-0.25134423,0.7347728,0.67367399,-0.07919845,0
1.5060674,-1.3781884,-1.9731786,0.15933669,0.74262542,-0.65047628,0
-1.5377396,1.1275536,1.5236468,-0.6368863,-0.73586595,0.22995031,0
-0.59369826,-0.047094852,0.12345137,-0.83389604,-0.52776372,-0.16150171,0
2.8139529,-2.8854709,-2.9808097,0.51037055,-0.62597764,-0.58963889,0
2.331038,-3.430759,-2.5885792,-0.30239826,-0.77251095,0.55837464,0
-1.7729335,1.4195503,1.806406,-0.62799001,-0.73972189,0.24174422,0
2.5010581,-3.2495036,-2.8651729,0.51037055,-0.62597764,-0.58963889,0
2.409698,-3.1002693,-3.1026821,0.51037055,-0.62597764,-0.58963889,0
2.645344,-3.2596927,-2.7294672,0.51037055,-0.62597764,-0.58963889,0
2.340498,-3.0111794,-3.2571597,0.51037055,-0.62597764,-0.58963889,0
1.7186017,-1.7380359,-1.2289798,0.69166577,-0.10862628,0.71400207,0
-1.8455747,3.0465903,2.664629,0.82072282,0.55929708,0.1166226,0
-2.8192327,2.8135839,3.052557,-0.51037055,0.62597764,0.58963889,0
2.7774422,-2.801043,-3.1020432,0.51037055,-0.62597764,-0.58963889,0
2.3554168,-3.4997194,-2.7255986,0.51037055,-0.62597764,-0.58963889,0
2.3062539,-2.5956457,-1.9409916,0.58431244,-0.25064519,0.77185237,0
2.718961,-2.8956623,-3.0522118,0.51037055,-0.62597764,-0.58963889,0
-1.8452828,3.0498538,2.5097885,0.73004669,0.67775661,-0.087623395,0
-2.4539671,3.0697112,3.0968063,-0.51037055,0.62597764,0.58963889,0
2.7447414,-3.0303547,-2.886904,0.51037055,-0.62597764,-0.58963889,0
0.29849938,-0.88910854,-1.1053395,-0.79188132,-0.074733704,-0.60608488,0
-1.9589174,2.4956107,1.7009909,-0.27895352,0.52807587,-0.80207288,0
2.0507634,-2.774744,-1.9312396,0.097863436,-0.63893056,0.7630142,0
-1.7235482,2.9026408,2.387603,0.74249446,0.66668212,-0.065092072,0
-0.1145414,0.28096041,-0.39741859,-0.22908279,0.56192082,-0.79483718,0
2.5815015,-2.8074517,-3.2648387,0.51037055,-0.62597764,-0.58963889,0
1.3037181,-1.7729944,-2.2085576,-0.5338797,0.30688483,-0.78790498,0
1.9774752,-2.2054677,-2.7548332,-0.14248294,0.61463189,-0.77583909,0
0.57350528,-0.70193386,-0.04267627,0.37404567,-0.45581371,0.80766571,0
-1.1751187,0.7007761,1.1567242,-0.59408754,-0.7523936,0.28454164,0
-0.105287,0.58644056,-0.12481157,0.14386845,0.73815185,-0.65911591,0
-2.4651303,3.4281018,2.706666,-0.51037055,0.62597764,0.58963889,0
2.820775,-2.7604966,-3.1075816,0.51037055,-0.62597764,-0.58963889,0
2.6247647,-2.6153331,-2.290755,0.83231258,0.18712041,0.52176785,0
1.4924279,-2.3057723,-1.4982107,-0.16765815,-0.74493545,0.64572597,0
0.75621688,-0.77779633,-0.18107215,0.51251471,-0.32917613,0.79307741,0
-2.6778529,2.821655,3.1663618,-0.51037055,0.62597764,0.58963889,0
-1.6029103,1.1843904,1.3132229,-0.8236078,-0.5530411,-0.12576124,0
-2.5417111,2.8184993,3.2875519,-0.51037055,0.62597764,0.58963889,0
-2.9204664,2.8460598,2.9304554,-0.51037055,0.62597764,0.58963889,0
-2.7862175,3.2195649,2.6501331,-0.51037055,0.62597764,0.58963889,0
-2.2997003,3.0866268,3.2123761,-0.51037055,0.62597764,0.58963889,0
-0.83222425,1.807374,1.473364,0.81071687,0.57891822,0.08713147,0
-2.8581605,2.8822494,2.9459658,-0.51037055,0.62597764,0.58963889,0
0.54475099,0.074705809,0.0041641295,0.85595095,0.43586561,0.27815327,0
1.0359185,-1.7778789,-1.9589438,-0.78285331,-0.054434687,-0.61982065,0
2.6868157,-2.8153911,-3.1652546,0.51037055,-0.62597764,-0.58963889,0
-1.3474605,2.3444815,1.6476972,0.49677604,0.77429479,-0.39202192,0
2.7574148,-3.0415983,-2.8639979,0.51037055,-0.62597764,-0.58963889,0
-1.2179872,0.70731986,0.89476752,-0.81097412,-0.57844877,-0.087852538,0
2.5650978,-3.3249269,-2.7296708,0.51037055,-0.62597764,-0.58963889,0
-2.823642,3.2194526,2.6178589,-0.51037055,0.62597764,0.58963889,0
1.4941142,-2.4840901,-2.4461055,-0.84961033,-0.26100954,-0.45829725,0
1.6859927,-1.3476051,-1.796538,0.55131,0.76439273,-0.33430701,0
2.5866704,-3.3285046,-2.7072005,0.51037055,-0.62597764,-0.58963889,0
-1.9994814,1.6799123,1.7388965,-0.83733535,-0.51796269,-0.17488357,0
1.0432866,-1.6057899,-1.9539045,-0.6589644,0.15586576,-0.73584771,0
2.1883781,-3.154943,-3.2362056,0.51037055,-0.62597764,-0.58963889,0
-2.3892293,3.2479033,2.9636672,-0.51037055,0.62597764,0.58963889,0
-1.4871058,1.6976678,2.2577486,0.24411687,-0.55199534,0.79731309,0
-0.55708635,1.1628079,1.4073676,0.76608431,0.019450873,0.64244568,0
-1.1244588,2.1692164,1.7119701,0.75330198,0.65616286,-0.044569954,0
2.4164679,-2.9200771,-3.2881198,0.51037055,-0.62597764,-0.58963889,0
-2.7979863,2.6438866,2.7296953,-0.80608577,-0.5870986,-0.074438423,0
-2.4986815,3.2656157,2.8501251,-0.51037055,0.62597764,0.58963889,0
-2.6369736,3.2595541,2.7368598,-0.51037055,0.62597764,0.58963889,0
-2.6523035,3.2821693,2.6995816,-0.51037055,0.62597764,0.58963889,0
-2.0778446,2.4343357,1.7233751,-0.48053229,0.36103296,-0.79921466,0
1.3188448,-2.2662973,-1.5362761,-0.42208272,-0.77973515,0.46244943,0
2.5717566,-3.1880708,-2.8691981,0.51037055,-0.62597764,-0.58963889,0
2.7826397,-3.023078,-2.8618259,0.51037055,-0.62597764,-0.58963889,0
-1.658059,2.635756,1.8546299,0.3480469,0.77735531,-0.52400577,0
2.2228725,-3.4552002,-2.8875871,0.51037055,-0.62597764,-0.58963889,0
2.5248339,-3.3654637,-2.7214866,0.51037055,-0.62597764,-0.58963889,0
2.4919627,-3.4830277,-2.6251297,0.51037055,-0.62597764,-0.58963889,0
-2.9468904,2.8814445,2.7566495,-0.85830879,-0.41319841,-0.30425829,0
1.3584549,-2.3176713,-2.2893932,-0.84960139,-0.2609601,-0.45834202,0
2.701426,-3.0117912,-2.9441037,0.51037055,-0.62597764,-0.58963889,0
-2.4248023,3.5074434,2.657341,-0.51037055,0.62597764,0.58963889,0
-0.13485602,0.89504343,0.80815309,0.8588419,0.4058975,0.31247059,0
2.5241818,-3.1504054,-2.9503634,0.51037055,-0.62597764,-0.58963889,0
2.8360207,-2.9578116,-2.8849099,0.51037055,-0.62597764,-0.58963889,0
-1.5677513,2.7048597,2.1592417,0.70910698,0.69424498,-0.12325258,0
-1.1344573,1.3537991,0.67099684,-0.40903544,0.42642638,-0.80675304,0
2.204726,-3.3644562,-2.9996307,0.51037055,-0.62597764,-0.58963889,0
2.5554352,-2.8674328,-3.2237236,0.51037055,-0.62597764,-0.58963889,0
1.1976085,-2.2230887,-1.6231363,-0.62606627,-0.74052501,0.24426195,0
-2.6690683,3.0674839,2.9129863,-0.51037055,0.62597764,0.58963889,0
-0.94713074,0.757734,1.3979995,-0.075273335,-0.71554983,0.69449443,0
-1.0353668,1.5186374,0.74923813,-0.11005986,0.63247722,-0.76671994,0
-1.242672,2.2367017,1.5696775,0.53593868,0.76775229,-0.3511785,0
1.5858001,-2.2252688,-1.4117427,0.073924124,-0.65118885,0.75530684,0
1.9544792,-3.0007532,-2.1992183,-0.35024428,-0.77752632,0.52228528,0
1.0317123,-1.7368267,-0.96148831,-0.1625064,-0.74351329,0.64867538,0
2.4223289,-3.3467717,-2.8300557,0.51037055,-0.62597764,-0.58963889,0
-2.593606,3.1388803,2.9025083,-0.51037055,0.62597764,0.58963889,0
2.139148,-3.3864574,-3.0330353,0.51037055,-0.62597764,-0.58963889,0
-2.4990053,3.3495264,2.7607627,-0.51037055,0.62597764,0.58963889,0
-0.6117692,0.58576006,1.2191874,0.20323506,-0.57844007,0.79000175,0
-0.77654874,1.2991135,1.6497989,0.67449534,-0.13395125,0.72602558,0
-2.1911781,3.4333639,2.9382024,-0.51037055,0.62597764,0.58963889,0
-2.6182764,3.1730051,2.8449256,-0.51037055,0.62597764,0.58963889,0
-2.2798357,2.3631063,2.9069154,-0.11246246,-0.72835904,0.67590344,0
2.2127585,-3.4363403,-2.9163632,0.51037055,-0.62597764,-0.58963889,0
-2.7020128,3.1597824,2.7864842,-0.51037055,0.62597764,0.58963889,0
1.8519168,-1.5151199,-1.529616,0.8503356,0.46962065,0.23745748,0
2.2398512,-3.3355963,-2.9998662,0.51037055,-0.62597764,-0.58963889,0
2.3975825,-2.9381552,-3.2852745,0.51037055,-0.62597764,-0.58963889,0
1.7667301,-2.9273667,-2.300334,-0.64190066,-0.73358679,0.2231905,0
-2.3868983,3.3595755,2.8471298,-0.51037055,0.62597764,0.58963889,0
-2.5671299,2.8934846,3.1859436,-0.51037055,0.62597764,0.58963889,0
-1.5406575,2.1592872,2.514528,0.61441553,-0.2142987,0.75932187,0
1.5856378,-2.4581685,-1.6512909,-0.21930599,-0.75773412,0.61460888,0
-0.49304011,0.88657379,0.15063494,-0.07207936,0.65211105,-0.75468928,0
2.5797701,-3.1382959,-2.9151039,0.51037055,-0.62597764,-0.58963889,0
-2.6598296,2.4919081,2.7781682,-0.6696803,-0.71945727,0.18414509,0
1.775697,-1.909418,-2.4818993,-0.087487161,0.64431006,-0.75974387,0
-2.1607144,3.3720932,3.0296183,-0.51037055,0.62597764,0.58963889,0
2.6479585,-2.830641,-3.1826973,0.51037055,-0.62597764,-0.58963889,0
2.6302915,-3.1621926,-2.846005,0.51037055,-0.62597764,-0.58963889,0
-2.6962914,2.8278308,3.143846,-0.51037055,0.62597764,0.58963889,0
-0.058303103,0.79080445,0.21640088,0.54930526,0.76485777,-0.33653593,0
-0.93720162,0.80646175,0.33080241,-0.67176515,0.13786861,-0.72782135,0
0.25828844,0.21136458,-0.46052602,0.23989749,0.76208079,-0.6014002,0
0.80333948,-0.5383873,-1.1860927,0.13029385,0.73403525,-0.6664952,0
-2.2586477,2.5536728,1.8914742,-0.57052279,0.26656577,-0.77681822,0
1.8090849,-1.6053165,-1.3519925,0.83625942,0.20142442,0.50999844,0
-2.2483308,3.500423,2.8175416,-0.51037055,0.62597764,0.58963889,0
1.3947535,-2.3869705,-2.3154113,-0.85585308,-0.30284894,-0.41928288,0
1.1805192,-1.8727746,-1.0819992,-0.10181153,-0.72482407,0.68136966,0
0.17215797,-1.0009731,-0.68308592,-0.79608166,-0.60323042,-0.048653156,0
-2.1998129,3.4346774,2.9293342,-0.51037055,0.62597764,0.58963889,0
-2.6967645,2.7535241,3.2223225,-0.51037055,0.62597764,0.58963889,0
-1.8785863,2.533257,2.8925529,0.5810774,-0.25441936,0.77305883,0
-2.2729967,3.1428275,3.1758251,-0.51037055,0.62597764,0.58963889,0
0.69584268,-0.11771727,-0.15982972,0.85776865,0.41942284,0.29718271,0
-2.7318802,2.9232752,3.0117149,-0.51037055,0.62597764,0.58963889,0
1.566637,-1.2086426,-1.6752644,0.5365603,0.76762545,-0.35050574,0
2.374136,-3.1232185,-3.1090999,0.51037055,-0.62597764,-0.58963889,0
2.2890258,-2.8867602,-3.3053339,-0.44833457,0.39142212,-0.80360746,0
0.31233451,-0.10068791,0.37723887,0.62466902,-0.20137581,0.75447774,0
-2.6934676,2.6240997,3.0445573,-0.47463608,-0.77681422,0.41386029,0
2.1300993,-2.7817731,-3.1614099,-0.5296874,0.31132609,-0.78899133,0
1.7763188,-1.3924371,-1.5377818,0.81199771,0.57656401,0.090739459,0
-0.40227488,0.92825782,1.2280011,0.73723364,-0.034506381,0.67475617,0
2.3866827,-3.4656343,-2.7347221,0.51037055,-0.62597764,-0.58963889,0
0.96628344,-1.426326,-0.6632058,0.11864609,-0.62784946,0.76923895,0
-2.6010754,3.0204406,3.0217814,-0.51037055,0.62597764,0.58963889,0
-2.4410553,3.2509367,2.9155877,-0.51037055,0.62597764,0.58963889,0
0.26596507,0.46458465,0.16129337,0.78730297,0.61595052,0.027550697,0
2.8611426,-3.2316251,-2.5724766,0.51037055,-0.62597764,-0.58963889,0
0.95833951,-0.47422743,-0.99727905,0.51418227,0.77172965,-0.37423253,0
2.7669959,-3.2064009,-2.4892771,0.54552537,-0.29436815,0.78469712,0
-1.428334,2.0729604,1.266048,-0.026033401,0.67410189,-0.73817956,0
-2.243082,3.2492032,2.3922036,0.19828999,0.75284934,-0.62761378,0
2.1318612,-3.2396808,-3.1951649,0.51037055,-0.62597764,-0.58963889,0
1.3743923,-1.2647631,-0.8254829,0.72781992,-0.050781012,0.68388557,0
-1.0562686,2.0395126,1.4305118,0.60188192,0.7497474,-0.27498579,0
-1.7394396,2.8223386,2.0948422,0.49147636,0.77497196,-0.39732802,0
2.3564491,-2.2743392,-1.985301,0.83718717,0.20494285,0.50706625,0
-2.5311494,3.045136,2.2733662,-0.42968985,0.40830362,-0.80539113,0
2.5923314,-3.3425231,-2.687418,0.51037055,-0.62597764,-0.58963889,0
2.2630601,-3.3471959,-2.9674625,0.51037055,-0.62597764,-0.58963889,0
2.5068026,-3.2173052,-2.8943839,0.51037055,-0.62597764,-0.58963889,0
0.77032411,-0.15779549,-0.38068041,0.80939841,0.58129859,0.083463222,0
2.5175631,-3.3300891,-2.7653351,0.51037055,-0.62597764,-0.58963889,0
-0.65181237,1.5890636,1.2397879,0.79748011,0.60108852,0.052137494,0
2.9108531,-3.0471399,-2.7253041,0.51037055,-0.62597764,-0.58963889,0
-2.7877314,3.2066646,2.6625178,-0.51037055,0.62597764,0.58963889,0
0.92041963,-1.6400018,-0.8799665,-0.21618044,-0.75703603,0.61657321,0
2.3989003,-2.2754822,-2.0609164,0.85373378,0.28649694,0.43480822,0
-1.0199556,2.0416043,1.6506755,0.7894361,0.61296856,0.032562792,0
-2.5298147,3.1242099,2.9732976,-0.51037055,0.62597764,0.58963889,0
-2.8496103,2.972204,2.8578677,-0.51037055,0.62597764,0.58963889,0
-2.7791317,3.301805,2.5689578,-0.51037055,0.62597764,0.58963889,0
0.32301539,0.3740305,0.20443627,0.83978868,0.51041389,0.18502116,0
-2.3438997,3.0044577,2.1705861,-0.24059144,0.55434406,-0.79675502,0
-0.44379029,1.0803465,0.36064553,0.25097525,0.76423621,-0.59409982,0
-1.444149,2.4269376,2.3859806,0.85080546,0.26780444,0.45211816,0
-1.5174098,1.1237472,1.1113336,-0.85740817,-0.42313552,-0.29292926,0
2.3792408,-3.2535162,-2.9663539,0.51037055,-0.62597764,-0.58963889,0
-1.2009456,1.5549731,2.0495992,0.4509052,-0.38905442,0.80331886,0
2.4997916,-2.9588442,-3.1748419,0.51037055,-0.62597764,-0.58963889,0
0.083696574,-0.1145576,-0.72242761,-0.38421342,0.44743907,-0.80757564,0
-2.887053,2.9551971,2.8435137,-0.51037055,0.62597764,0.58963889,0
-1.581725,1.8450782,2.3882713,0.27691802,-0.52950954,0.80183303,0
-2.9180307,3.1395268,2.6210108,-0.51037055,0.62597764,0.58963889,0
1.7268527,-1.583147,-1.2362121,0.79848439,0.090376824,0.59519309,0
-2.656671,2.5058961,2.8347237,-0.62203199,-0.74217474,0.24950528,0
2.2349715,-3.190557,-3.1580677,0.51037055,-0.62597764,-0.58963889,0
2.6641774,-3.0029454,-2.9857364,0.51037055,-0.62597764,-0.58963889,0
-0.68254507,1.2409357,0.48463154,0.075079978,0.71547985,-0.69458747,0
-2.6979382,2.5792959,2.4647839,-0.85882354,-0.40617609,-0.31215894,0
-2.7496042,3.2667007,2.5033188,-0.4728221,0.36845803,-0.80042374,0
2.5649614,-3.1997495,-2.8626809,0.51037055,-0.62597764,-0.58963889,0
2.4043782,-3.2275848,-2.9721253,0.51037055,-0.62597764,-0.58963889,0
-1.7012641,1.9443055,2.493938,0.2271139,-0.56320322,0.79449451,0
1.5744425,-2.4516869,-2.5797439,-0.79052961,-0.071618676,-0.60822189,0
-1.1927396,1.0661476,0.61787844,-0.71100593,0.078526706,-0.69878769,0
-2.4898148,3.2994871,2.821841,-0.51037055,0.62597764,0.58963889,0
-2.2479851,3.1522024,3.1875219,-0.51037055,0.62597764,0.58963889,0
2.7260752,-2.8277376,-3.1181655,0.51037055,-0.62597764,-0.58963889,0
-0.68029344,0.42374909,0.02443108,-0.72072041,0.062691718,-0.69038534,0
0.4475984,0.21463078,-0.24723521,0.65035528,0.72956359,-0.21160129,0
-1.3356332,1.649372,0.93040758,-0.36159253,0.46589214,-0.80758613,0
-0.042716563,-0.3567709,0.34770972,-0.081866801,-0.71791595,0.6912992,0
2.9565458,-2.8726728,-2.8709736,0.51037055,-0.62597764,-0.58963889,0
-2.775367,2.9528975,2.9426265,-0.51037055,0.62597764,0.58963889,0
2.7619259,-2.7661388,-3.1525292,0.51037055,-0.62597764,-0.58963889,0
2.6080885,-2.828124,-3.2198799,0.51037055,-0.62597764,-0.58963889,0
-2.2355313,3.1153746,3.2373991,-0.51037055,0.62597764,0.58963889,0
-0.36844003,-0.33590329,0.037696019,-0.73688006,-0.67180657,0.075392038,0
2.5537906,-3.1399705,-2.9358134,0.51037055,-0.62597764,-0.58963889,0
-1.2465172,0.73805183,0.97215021,-0.7869606,-0.61642313,-0.026752532,0
-2.6462839,3.3562105,2.6261878,-0.51037055,0.62597764,0.58963889,0
-2.420197,3.3485231,2.8300414,-0.51037055,0.62597764,0.58963889,0
2.3514011,-3.4116294,-2.8225932,0.51037055,-0.62597764,-0.58963889,0
-2.1939759,2.0538907,2.5414491,-0.40301239,-0.77981091,0.47903654,0
2.4716408,-3.474838,-2.6514142,0.51037055,-0.62597764,-0.58963889,0
-2.5374739,2.9343839,2.2277174,-0.53728473,0.30325252,-0.78699625,0
0.60823476,-0.19220108,0.052810639,0.80858195,0.1158784,0.57685995,0
-2.6720965,3.2174983,2.7511063,-0.51037055,0.62597764,0.58963889,0
-2.1394851,3.2319686,3.1967535,-0.51037055,0.62597764,0.58963889,0
2.1801536,-3.2375627,-3.1556134,0.51037055,-0.62597764,-0.58963889,0
-1.8241811,2.1585279,1.4468991,-0.44798559,0.39174271,-0.80364579,0
0.87961781,-0.34168828,-0.82405949,0.58669233,0.75476646,-0.2934618,0
2.7256813,-2.8438487,-3.1014023,0.51037055,-0.62597764,-0.58963889,0
1.2860003,-1.8271096,-2.2144883,-0.59823179,0.23412189,-0.76635879,0
-2.7272487,2.7731102,3.1751435,-0.51037055,0.62597764,0.58963889,0
2.7331488,-3.2618341,-2.6511931,0.51037055,-0.62597764,-0.58963889,0
-1.0008782,1.7916709,1.0413605,0.29122716,0.77096051,-0.56639802,0
-2.5610228,3.1747394,2.892642,-0.51037055,0.62597764,0.58963889,0
2.7053454,-3.3363707,-2.596128,0.51037055,-0.62597764,-0.58963889,0
-0.40616876,1.2757531,0.79462898,0.69267744,0.70558149,-0.14950868,0
2.4159446,-3.3985569,-2.7806048,0.51037055,-0.62597764,-0.58963889,0
-2.6772337,2.9000638,3.0836568,-0.51037055,0.62597764,0.58963889,0
0.40972716,-0.60299671,0.083850771,0.27118018,-0.53352654,0.80113095,0
2.1605556,-3.2306573,-3.1799076,0.51037055,-0.62597764,-0.58963889,0
-2.5164368,3.1299181,2.978817,-0.51037055,0.62597764,0.58963889,0
-2.6487925,2.6188846,2.3291233,-0.84248948,-0.22647762,-0.48879385,0
2.5473716,-2.8987851,-3.1974185,0.51037055,-0.62597764,-0.58963889,0
2.3735659,-3.5093012,-2.6997173,0.51037055,-0.62597764,-0.58963889,0
2.7802434,-3.0214162,-2.865664,0.51037055,-0.62597764,-0.58963889,0
1.9286469,-2.4959917,-1.6914285,0.23969433,-0.55493963,0.79661083,0
2.3673067,-3.1980534,-3.0355649,0.51037055,-0.62597764,-0.58963889,0
-0.99092078,1.9763041,1.7451351,0.84750813,0.48236611,0.22147921,0
2.3054473,-3.0041652,-3.294945,0.51037055,-0.62597764,-0.58963889,0
-2.3549566,3.1486897,3.0986605,-0.51037055,0.62597764,0.58963889,0
2.7143042,-3.3479948,-2.5760341,0.51037055,-0.62597764,-0.58963889,0
-2.2221313,3.4563844,2.8869715,-0.51037055,0.62597764,0.58963889,0
-0.70033538,0.10048261,0.20363417,-0.84906137,-0.47559267,-0.23001441,0
0.81021667,-0.20411524,-0.44958398,0.79733372,0.60131407,0.051771462,0
-1.9181694,1.8182536,2.3702416,-0.24868947,-0.76380205,0.59561741,0
0.55874401,-1.3523285,-1.3559551,-0.85378522,-0.28685921,-0.43446812,0
2.5539079,-2.8686917,-3.2237096,0.51037055,-0.62597764,-0.58963889,0
1.2186309,-0.84365398,-0.68767565,0.84945613,0.26016092,0.45906481,0
1.6582501,-1.2898004,-1.7053742,0.60208148,0.7496776,-0.274739,0
-2.7549453,2.6070747,2.8821239,-0.67420566,-0.71689463,0.17750743,0
-2.035141,2.3089323,2.8467989,0.17865384,-0.59352314,0.78473771,0
-2.8292167,2.8237698,3.0331018,-0.51037055,0.62597764,0.58963889,0
0.92900848,-1.5752137,-0.80314207,-0.11584198,-0.72945809,0.6741451,0
2.4153337,-3.0492187,-3.1520007,0.51037055,-0.62597764,-0.58963889,0
2.6564193,-2.8418314,-3.1634946,0.51037055,-0.62597764,-0.58963889,0
1.6361459,-2.1335592,-1.3509443,0.24357951,-0.55235416,0.79722893,0
-1.2102795,0.70798188,1.0781405,-0.68878472,-0.70808494,0.15553574,0
2.4367349,-2.9376001,-3.2519746,0.51037055,-0.62597764,-0.58963889,0
2.4534225,-3.3106766,-2.8414617,0.51037055,-0.62597764,-0.58963889,0
2.5771797,-2.9213161,-3.1476982,0.51037055,-0.62597764,-0.58963889,0
-2.2314966,3.3518989,2.98979,-0.51037055,0.62597764,0.58963889,0
-1.1527714,1.3898532,0.69943106,-0.39597157,0.43758729,-0.80729419,0
0.48107401,-1.0637841,-1.3196921,-0.76246828,-0.012298733,-0.64690876,0
1.3392868,-1.2858744,-0.79286176,0.68204182,-0.12297067,0.72090036,0
1.4686047,-2.3190582,-1.5215681,-0.22544116,-0.75907505,0.61072206,0
-2.37359,3.1840844,3.0449557,-0.51037055,0.62597764,0.58963889,0
-2.5802913,3.4007874,2.6359844,-0.51037055,0.62597764,0.58963889,0
1.4278821,-1.1065196,-0.9260062,0.84754342,0.25007582,0.46811578,0
2.5075469,-2.9066882,-3.2234993,0.51037055,-0.62597764,-0.58963889,0
-2.7125864,3.2930999,2.6357989,-0.51037055,0.62597764,0.58963889,0
2.3413622,-3.2280507,-3.026175,0.51037055,-0.62597764,-0.58963889,0
1.2566662,-1.1980848,-0.69984585,0.67191964,-0.13764769,0.7277205,0
-2.0187242,1.774509,2.2217441,-0.51474154,-0.77163839,0.37365165,0
-2.7408183,3.1361778,2.7779551,-0.51037055,0.62597764,0.58963889,0
2.4352865,-3.0148029,-3.171268,0.51037055,-0.62597764,-0.58963889,0
-0.63571084,0.14124578,0.73886526,-0.40529394,-0.77982807,0.47707984,0
2.2061837,-3.3414526,-3.0227904,0.51037055,-0.62597764,-0.58963889,0
0.66015315,-0.92976403,-1.4425237,-0.48589742,0.35580939,-0.79831302,0
-2.5050032,3.1117425,3.008009,-0.51037055,0.62597764,0.58963889,0
-0.14605662,0.86408091,0.86624545,0.85745585,0.31819698,0.4043763,0
2.6755536,-2.8580451,-3.1297195,0.51037055,-0.62597764,-0.58963889,0
-1.6900684,1.8379854,2.4107997,0.12570024,-0.62399471,0.77125239,0
2.6910834,-3.3519282,-2.5919569,0.51037055,-0.62597764,-0.58963889,0
2.7672029,-2.6812084,-2.5249245,0.8599543,0.37087288,0.35061654,0
-2.5358548,3.2728715,2.8102462,-0.51037055,0.62597764,0.58963889,0
0.98087883,-1.9321651,-1.7862735,-0.85891736,-0.40472728,-0.31377825,0
1.2981942,-1.5823648,-2.1132455,-0.36287931,0.46485978,-0.80760396,0
1.0239772,-1.8552749,-1.1179706,-0.34381264,-0.77700949,0.5273037,0
2.5471859,-3.021472,-3.0673313,0.51037055,-0.62597764,-0.58963889,0
-0.3398298,0.38575852,0.99363303,0.34189805,-0.48143965,0.80704498,0
-2.6107621,2.7072678,3.2192893,-0.194004,-0.75179833,0.63020784,0
-2.6766388,3.1609049,2.8072555,-0.51037055,0.62597764,0.58963889,0
-2.7293141,3.3554106,2.5551686,-0.51037055,0.62597764,0.58963889,0
-0.14974792,0.25667578,-0.40211087,-0.29949585,0.51335156,-0.80422175,0
2.5559139,-3.0768571,-3.0009785,0.51037055,-0.62597764,-0.58963889,0
-0.68401909,1.1409342,1.5333321,0.64018273,-0.18124652,0.7465359,0
-2.7768645,3.1625509,2.7187562,-0.51037055,0.62597764,0.58963889,0
2.2153089,-3.3204937,-3.0371423,0.51037055,-0.62597764,-0.58963889,0
0.9910264,-0.43059015,-0.62263572,0.81589627,0.56912911,0.10200706,0
-1.1143093,1.4804318,0.73907948,-0.25734553,0.54306531,-0.79928297,0
0.19291213,-0.59728968,0.12405524,-0.021654367,-0.69480026,0.71887678,0
-2.3236849,3.2649741,2.3922527,0.089180946,0.72049284,-0.68770409,0
-2.7641575,3.282464,2.6024516,-0.51037055,0.62597764,0.58963889,0
2.3621395,-2.3835227,-2.9092407,0.21974885,0.75783223,-0.61432964,0
1.4925129,-2.5534892,-2.3850641,-0.85958308,-0.39150384,-0.32839277,0
-2.291471,3.4795399,2.6953576,0.45635509,0.77830124,-0.43126234,0
2.7325814,-2.8450437,-3.094161,0.51037055,-0.62597764,-0.58963889,0
-2.7850294,2.8106174,3.0853119,-0.51037055,0.62597764,0.58963889,0
-2.1777215,3.1820111,3.2166934,-0.51037055,0.62597764,0.58963889,0
2.3477159,-2.8495526,-2.0767777,0.40167475,-0.43274313,0.8070879,0
-2.9530661,3.0508881,2.6847866,-0.51037055,0.62597764,0.58963889,0
2.6580162,-2.9644628,-3.0319235,0.51037055,-0.62597764,-0.58963889,0
-1.1205847,0.62237281,1.0615759,-0.62079293,-0.7426722,0.25110596,0
2.7309523,-2.9627903,-2.9705677,0.51037055,-0.62597764,-0.58963889,0
1.4469151,-2.5605812,-2.1881266,-0.81302524,-0.5746448,-0.093666255,0
-1.5206919,1.5247608,1.0054221,-0.66977519,0.14070597,-0.72911119,0
-2.9190776,2.8633914,2.9132574,-0.51037055,0.62597764,0.58963889,0
1.796223,-1.6246015,-1.3255141,0.82085043,0.15020362,0.55103856,0
1.2103256,-0.71507114,-0.81850135,0.84059173,0.50782573,0.18846387,0
0.025457257,0.69867766,0.62260127,0.85880429,0.40646547,0.31183508,0
-2.7477567,2.9793327,2.9384608,-0.51037055,0.62597764,0.58963889,0
0.38116303,-1.1031592,-1.1686896,-0.8445164,-0.23550031,-0.48096949,0
-2.6294651,3.2677841,2.7346215,-0.51037055,0.62597764,0.58963889,0
-1.9458401,1.5973952,1.7570066,-0.79982245,-0.59742248,-0.058056921,0
2.3803511,-3.4321904,-2.7757068,0.51037055,-0.62597764,-0.58963889,0
2.552784,-3.2517672,-2.8179977,0.51037055,-0.62597764,-0.58963889,0
-2.5746856,2.9888043,3.0782094,-0.51037055,0.62597764,0.58963889,0
-1.6312354,1.217396,1.3540134,-0.81986177,-0.56110674,-0.11395618,0
-2.2767284,3.4414649,2.8555536,-0.51037055,0.62597764,0.58963889,0
-2.6461291,2.914062,3.0957189,-0.51037055,0.62597764,0.58963889,0
2.6933398,-3.2363744,-2.7126791,0.51037055,-0.62597764,-0.58963889,0
-1.9093947,2.8614402,2.9668441,0.78992051,0.070224285,0.60917509,0
0.82806778,-1.8014494,-1.3288114,-0.72607732,-0.68107682,0.094584003,0
-2.6885352,3.394876,2.5485678,-0.51037055,0.62597764,0.58963889,0
-1.6717222,2.2011631,1.4089499,-0.21809033,0.56902957,-0.79286945,0
2.3323843,-3.039607,-3.2340035,0.51037055,-0.62597764,-0.58963889,0
-0.95860344,1.4631624,1.8468986,0.62867749,-0.19624293,0.75249809,0
0.62250382,-0.019546896,-0.087422982,0.85560346,0.43851641,0.27503839,0
1.0208308,-2.0169575,-1.7706447,-0.84459907,-0.49387002,-0.20674834,0
-0.81455123,0.32135797,0.23806399,-0.85613853,-0.30533665,-0.41688895,0
-2.4676471,2.9569902,3.2046332,-0.51037055,0.62597764,0.58963889,0
-2.4244037,2.2486906,2.6389956,-0.56064451,-0.76211774,0.32381219,0
0.33769703,-0.59417963,0.11084968,0.18652809,-0.58875722,0.78649378,0
2.084698,-1.8010272,-2.1638005,0.63025022,0.73876446,-0.23877145,0
-1.3631444,0.91334808,0.96955377,-0.84901255,-0.47581306,-0.2297383,0
2.4758954,-3.4511673,-2.6728606,0.51037055,-0.62597764,-0.58963889,0
-1.1421932,1.4965769,0.75919259,-0.27616528,0.5300386,-0.80174303,0
2.6784112,-3.0801301,-2.891474,0.51037055,-0.62597764,-0.58963889,0
-2.7336507,2.9300964,3.0029411,-0.51037055,0.62597764,0.58963889,0
2.2226942,-3.3447046,-3.0050468,0.51037055,-0.62597764,-0.58963889,0
-0.15757793,0.25090411,-0.40276092,-0.31515586,0.50180823,-0.80552185,0
-2.7327445,2.9438329,2.9891424,-0.51037055,0.62597764,0.58963889,0
0.47856134,-0.36513084,-1.0216118,-0.14036715,0.6158272,-0.77527666,0
-2.8174608,3.209722,2.6335392,-0.51037055,0.62597764,0.58963889,0
2.2911649,-3.3146071,-2.9777329,0.51037055,-0.62597764,-0.58963889,0
-2.926003,3.0223725,2.7384844,-0.51037055,0.62597764,0.58963889,0
-0.34476495,-0.063620932,-0.36518693,-0.7703684,-0.028092206,-0.63697994,0
-1.0817949,1.4917188,0.73762929,-0.20291606,0.57863975,-0.7899375,0
2.3471417,-2.2974141,-2.8026452,0.31674337,0.77429467,-0.54785174,0
2.7264264,-3.2609267,-2.657975,0.51037055,-0.62597764,-0.58963889,0
0.030411452,-0.3288348,0.37542355,0.060822904,-0.6576696,0.7508471,0
-1.9393225,3.1538992,2.5554714,0.68493414,0.7104969,-0.16142938,0
2.013622,-3.2559519,-2.7014415,-0.72810405,-0.67939371,0.091042899,0
0.25824121,-1.1057227,-0.69791824,-0.74461871,-0.66468471,0.061132878,0
-0.083630286,-0.41188568,-0.66482764,-0.78701067,-0.063638002,-0.61364853,0
1.5469341,-1.5130743,-1.0286076,0.70210135,-0.092608094,0.70602942,0
2.394136,-3.4530575,-2.7416224,0.51037055,-0.62597764,-0.58963889,0
2.7447209,-2.8220091,-3.108108,0.51037055,-0.62597764,-0.58963889,0
0.40008599,0.047248498,0.29613984,0.80017197,0.094496995,0.59227967,0
-0.65605998,0.041432738,0.16281354,-0.8458752,-0.48899108,-0.21303254,0
-1.9078999,3.0689211,2.3756549,0.56888533,0.75995553,-0.3143838,0
-2.2250299,2.5079069,1.8510909,-0.57434881,0.26219174,-0.77548635,0
-2.9383216,2.9685495,2.7849622,-0.51037055,0.62597764,0.58963889,0
2.7191801,-3.0326905,-2.9065495,0.51037055,-0.62597764,-0.58963889,0
-1.9132686,2.8956528,2.966877,0.80607146,0.10933784,0.58163059,0
2.2701423,-3.2134342,-3.103338,0.51037055,-0.62597764,-0.58963889,0
2.8832922,-2.8335428,-2.9759207,0.51037055,-0.62597764,-0.58963889,0
2.1595702,-1.8630646,-1.9770811,0.81373012,0.57331181,0.095691621,0
-2.5412543,3.0602121,3.0313377,-0.51037055,0.62597764,0.58963889,0
-2.7115846,3.3590722,2.5666277,-0.51037055,0.62597764,0.58963889,0
2.6469209,-3.1519837,-2.8424489,0.51037055,-0.62597764,-0.58963889,0
-1.8935816,2.6604638,2.9386659,0.66793329,-0.14331907,0.73029089,0
2.5686805,-3.1256251,-2.9381542,0.51037055,-0.62597764,-0.58963889,0
1.338322,-0.95527673,-0.84967494,0.85765994,0.32045996,0.40215045,0
-2.6996217,3.0264893,2.9300618,-0.51037055,0.62597764,0.58963889,0
-2.404063,3.348815,2.8436971,-0.51037055,0.62597764,0.58963889,0
0.010739267,-0.59453088,0.078597039,-0.31669313,-0.77428883,0.54788899,0
-2.8060436,2.9263773,2.9442282,-0.51037055,0.62597764,0.58963889,0
-1.822772,2.8643684,2.0857351,0.38959819,0.77957004,-0.49039161,0
-2.7551181,3.0514283,2.8555503,-0.51037055,0.62597764,0.58963889,0
-2.0418444,1.8035314,1.6750379,-0.85943842,-0.34753156,-0.3749499,0
2.7889175,-3.0213833,-2.8581915,0.51037055,-0.62597764,-0.58963889,0
0.30259287,-1.0294255,-1.0655489,-0.8515352,-0.27215981,-0.44812596,0
-2.464848,3.1383481,2.3003697,-0.25581601,0.54410744,-0.79906535,0
-0.48209411,1.1130254,1.3176036,0.79116571,0.073081076,0.60721993,0
-2.0318201,2.4878204,1.7259357,-0.37674397,0.45360419,-0.80765545,0
-0.9468568,0.63057357,0.33446845,-0.79622471,-0.084940374,-0.59900868,0
2.395838,-3.3640022,-2.8346925,0.51037055,-0.62597764,-0.58963889,0
2.5933294,-3.1091995,-2.9342573,0.51037055,-0.62597764,-0.58963889,0
1.8192334,-1.6764756,-1.3464838,0.80911696,0.11729102,0.57582343,0
1.7101164,-2.8870029,-2.381448,-0.7486642,-0.66078776,0.053494185,0
0.75876439,-0.14749089,-0.34508425,0.82030964,0.56016874,0.11533955,0
0.48509344,-0.0045217276,-0.63845468,0.33031958,0.77576423,-0.53766072,0
2.9030235,-2.8270841,-2.9656987,0.51037055,-0.62597764,-0.58963889,0
0.76723361,-1.2987108,-0.53658026,-0.018004179,-0.69329047,0.72043341,0
1.5836118,-1.2652938,-1.7669011,0.47031558,0.77721298,-0.41802314,0
-2.5619988,3.2826548,2.7772305,-0.51037055,0.62597764,0.58963889,0
-2.6746221,2.8291388,3.1612136,-0.51037055,0.62597764,0.58963889,0
2.4368188,-3.4759932,-2.6803284,0.51037055,-0.62597764,-0.58963889,0
-2.4826894,3.2337742,2.8977709,-0.51037055,0.62597764,0.58963889,0
-0.023023605,-0.67173707,-0.65811849,-0.85936761,-0.34592378,-0.37659547,0
1.55111,-1.3744315,-1.9543067,0.23971593,0.76204437,-0.60151869,0
-2.4795415,2.6456456,2.1046777,-0.71014678,0.079902887,-0.69950497,0
-2.2053154,2.241807,2.7878237,-0.15142721,-0.74036694,0.65492487,0
2.4066641,-3.3633413,-2.8260236,0.51037055,-0.62597764,-0.58963889,0
2.5482945,-2.8190908,-3.2812254,0.51037055,-0.62597764,-0.58963889,0
-0.30932841,1.0029347,1.0912991,0.84014457,0.21662632,0.49722257,0
1.0631161,-0.51279533,-0.79147077,0.76837754,0.63983953,-0.014191702,0
-2.5058305,2.8909836,3.2416573,-0.51037055,0.62597764,0.58963889,0
2.4389682,-3.4417834,-2.7147863,0.51037055,-0.62597764,-0.58963889,0
-0.69301093,0.24096981,0.060823828,-0.83441544,-0.19461468,-0.51563179,0
-2.6084349,3.2205496,2.8029702,-0.51037055,0.62597764,0.58963889,0
-1.621666,2.7695408,2.2136517,0.70344055,0.69830132,-0.13246362,0
1.8846533,-1.7486011,-1.4238081,0.81325161,0.12844656,0.56755912,0
-2.2457874,1.9698185,2.2302768,-0.72064722,-0.68546581,0.1039436,0
-2.5640976,3.2909956,2.4365773,-0.22309569,0.56580806,-0.79378188,0
-2.4756396,3.0426476,3.1067786,-0.51037055,0.62597764,0.58963889,0
2.67208,-3.3016644,-2.6617668,0.51037055,-0.62597764,-0.58963889,0
2.5953789,-2.8834581,-3.1721368,0.51037055,-0.62597764,-0.58963889,0
0.93788731,-1.5054103,-0.73123217,-0.014827788,-0.69196659,0.72177726,0
2.7363005,-2.9218163,-3.009438,0.51037055,-0.62597764,-0.58963889,0
1.4585497,-1.2204697,-0.93281454,0.81599474,0.13609907,0.56180936,0
0.40282845,-1.276318,-1.0011775,-0.82229394,-0.55592835,-0.12155882,0
1.6261122,-2.5817862,-1.7961683,-0.32562649,-0.77528048,0.54120934,0
-2.5997238,3.2210631,2.8099647,-0.51037055,0.62597764,0.58963889,0
2.5181155,-3.391566,-2.5088339,0.047336578,-0.66417342,0.74607849,0
-2.5266814,2.6298876,3.152195,-0.15946966,-0.74266279,0.650401,0
-2.6495283,3.4074123,2.5436406,-0.21062696,0.57378554,-0.79145849,0
2.692812,-3.3496571,-2.5928714,0.51037055,-0.62597764,-0.58963889,0
-1.2521769,1.1524451,1.7712915,-0.04957217,-0.70593834,0.70653653,0
-1.2380438,0.85308808,0.71883476,-0.85338694,-0.28409189,-0.43706131,0
0.22521442,-0.91862762,-0.98511004,-0.84677207,-0.24621762,-0.47154412,0
1.9675243,-1.6736122,-2.074672,0.59200203,0.75307614,-0.28707135,0
2.0485034,-2.0813715,-2.6418037,0.10989213,0.72751582,-0.6772331,0
0.4281503,0.19281942,0.17181447,0.85986698,0.38126466,0.33950868,0
-2.3351421,3.2390287,3.0199046,-0.51037055,0.62597764,0.58963889,0
-2.8945007,3.0376112,2.7495739,-0.51037055,0.62597764,0.58963889,0
2.5703058,-2.7959023,-3.2867908,0.51037055,-0.62597764,-0.58963889,0
2.2355826,-3.1103816,-3.242655,0.51037055,-0.62597764,-0.58963889,0
-2.8005724,2.7691209,3.1159122,-0.51037055,0.62597764,0.58963889,0
-2.0655544,2.3114762,2.8549881,0.14022541,-0.61590713,0.77523899,0
2.2578557,-3.4511318,-2.8616264,0.51037055,-0.62597764,-0.58963889,0
2.3636336,-2.9534507,-3.2984207,0.51037055,-0.62597764,-0.58963889,0
-2.3963637,2.9773729,3.2446942,-0.51037055,0.62597764,0.58963889,0
2.3625576,-3.1908202,-3.0473542,0.51037055,-0.62597764,-0.58963889,0
2.7344332,-3.1863103,-2.7302597,0.51037055,-0.62597764,-0.58963889,0
2.6604826,-3.3410206,-2.6300232,0.51037055,-0.62597764,-0.58963889,0
-0.42161766,0.094357401,0.77118874,-0.099146008,-0.72392255,0.68271983,0
-0.58291906,0.19833073,-0.087761343,-0.78825808,-0.066446453,-0.61174679,0
-2.6604283,3.3283529,2.6435189,-0.51037055,0.62597764,0.58963889,0
0.25687563,-0.9856407,-1.0048118,-0.85462034,-0.29295176,-0.42872298,0
-2.291877,3.2535384,3.0419493,-0.51037055,0.62597764,0.58963889,0
2.4634521,-2.8818388,-3.2880468,0.51037055,-0.62597764,-0.58963889,0
2.4890413,-3.3891313,-2.7273417,0.51037055,-0.62597764,-0.58963889,0
-0.022923082,0.0055969879,-0.60507441,-0.39450324,0.43882748,-0.80733985,0
-2.1079059,1.858925,2.2696118,-0.56389642,-0.76128203,0.32011023,0
2.8733754,-3.0101855,-2.7969749,0.51037055,-0.62597764,-0.58963889,0
-2.0119848,1.9747658,2.5297852,-0.19141698,-0.75115502,0.63176405,0
0.04918763,0.52308619,-0.14491835,0.31976056,0.77463973,-0.54560655,0
2.5360463,-3.4129291,-2.6613915,0.51037055,-0.62597764,-0.58963889,0
2.7158103,-2.8819828,-3.0694618,0.51037055,-0.62597764,-0.58963889,0
-2.4450021,2.9399004,3.2423766,-0.51037055,0.62597764,0.58963889,0
-2.204711,3.3987219,2.9632659,-0.51037055,0.62597764,0.58963889,0
2.3465734,-3.5039854,-2.7287242,0.51037055,-0.62597764,-0.58963889,0
-0.17640191,0.45079029,0.92771816,0.58549571,-0.24925879,0.77140462,0
2.4202967,-2.8252668,-2.1063075,0.50676906,-0.3350291,0.79431784,0
2.2302656,-3.185585,-3.1674192,0.51037055,-0.62597764,-0.58963889,0
-1.9831204,2.4261975,1.6686115,-0.37859181,0.45208567,-0.80764276,0
-2.7467015,3.2701297,2.6306553,-0.51037055,0.62597764,0.58963889,0
-0.70582616,0.7948668,0.1587877,-0.44048965,0.39858711,-0.80442369,0
-2.6454959,2.8455539,3.1689973,-0.51037055,0.62597764,0.58963889,0
-2.7785656,3.1997616,2.6777799,-0.51037055,0.62597764,0.58963889,0
-0.49519455,0.21178022,0.88442326,-0.064788699,-0.71170342,0.69948608,0
-0.78512442,0.17437935,0.41007629,-0.80299973,-0.59228444,-0.066261828,0
-0.96257597,0.59439063,1.1961696,-0.32396275,-0.77510285,0.54246086,0
-2.5452776,3.1744075,2.9066222,-0.51037055,0.62597764,0.58963889,0
-1.7870251,1.4883504,1.3831246,-0.85963166,-0.35257769,-0.36976004,0
2.420666,-3.3781862,-2.7981443,0.51037055,-0.62597764,-0.58963889,0
2.2227757,-3.3825653,-2.9647822,0.51037055,-0.62597764,-0.58963889,0
-2.141314,2.1572571,1.7099249,-0.75954378,-0.0066045225,-0.65042263,0
2.3993835,-3.301537,-2.8979387,0.51037055,-0.62597764,-0.58963889,0
-0.26370955,1.0991759,0.62156832,0.68639499,0.7095893,-0.15920134,0
-2.6009164,2.9573169,3.088933,-0.51037055,0.62597764,0.58963889,0
1.8872586,-3.0488925,-2.8267064,-0.85809124,-0.41581711,-0.30128989,0
2.9566851,-2.9992261,-2.7365003,0.51037055,-0.62597764,-0.58963889,0
2.0306511,-2.8595934,-3.1024532,-0.69101608,0.10960701,-0.71448112,0
-2.4306121,3.2902861,2.8828528,-0.51037055,0.62597764,0.58963889,0
-1.4474399,2.1313086,2.4265523,0.68146145,-0.12382311,0.72130311,0
-2.4351945,3.1030135,3.0777004,-0.51037055,0.62597764,0.58963889,0
-2.6145196,2.41607,2.5495925,-0.78869462,-0.6140126,-0.030812651,0
0.021695554,-0.333022,0.37232468,0.043391109,-0.666044,0.74464935,0
-1.3735108,1.5871395,2.1460238,0.27426198,-0.5313735,0.80151278,0
-2.2090333,3.4217985,2.9350264,-0.51037055,0.62597764,0.58963889,0
1.1886781,-2.0254211,-2.1258035,-0.81551218,-0.13473752,-0.56283718,0
-2.3960049,3.162066,3.0489292,-0.51037055,0.62597764,0.58963889,0
2.5831442,-3.3250773,-2.7138908,0.51037055,-0.62597764,-0.58963889,0
-0.8599962,1.8219161,1.5793626,0.84273005,0.5006125,0.19797263,0
2.6355531,-2.8916292,-3.1286883,0.51037055,-0.62597764,-0.58963889,0
-2.4428432,3.4877739,2.662607,-0.51037055,0.62597764,0.58963889,0
-2.5550199,2.9949956,3.0886588,-0.51037055,0.62597764,0.58963889,0
-1.3029145,1.3688111,0.78305292,-0.5811556,0.2543284,-0.77303004,0
2.5909271,-3.4119399,-2.6149387,0.51037055,-0.62597764,-0.58963889,0
1.6131067,-1.6062362,-2.1992846,0.035853028,0.7005555,-0.71269679,0
0.19187477,0.13421619,-0.55997324,0.032519817,0.69922125,-0.71416545,0
1.6331801,-1.4853277,-2.0619678,0.22544497,0.75907588,-0.61071968,0
-2.9126525,2.8958774,2.8843312,-0.51037055,0.62597764,0.58963889,0
2.3908584,-3.1953325,-3.0180676,0.51037055,-0.62597764,-0.58963889,0
-2.7213206,2.8447185,3.1042531,-0.51037055,0.62597764,0.58963889,0
-1.8869877,1.8168751,2.3799067,-0.1976341,-0.75268966,0.628012,0
-1.6720245,1.6037894,2.1896386,-0.13036394,-0.73405695,0.66645765,0
2.7264876,-3.1987538,-2.723927,0.51037055,-0.62597764,-0.58963889,0
-2.7501571,3.2837172,2.6132393,-0.51037055,0.62597764,0.58963889,0
-2.8116832,3.136796,2.5029867,-0.64784372,0.17103368,-0.74232471,0
-2.2515547,3.4989629,2.8163013,-0.51037055,0.62597764,0.58963889,0
-0.64900798,0.7586422,0.11028439,-0.40879163,0.42663682,-0.80676556,0
-1.9461387,2.9946897,2.1958168,0.35665852,0.77799153,-0.51722717,0
-0.28631723,-0.37946138,0.1550211,-0.57263446,-0.75892276,0.3100422,0
-2.8122945,2.7762573,3.0981898,-0.51037055,0.62597764,0.58963889,0
1.2263609,-1.3278702,-0.71358162,0.53590202,-0.3047303,0.78736818,0
2.3790753,-3.20434,-2.3335128,0.066840529,-0.65471286,0.75291669,0
1.8797243,-1.6907516,-2.2135758,0.36758852,0.77866733,-0.50848407,0
2.4938898,-3.1894093,-2.9351759,0.51037055,-0.62597764,-0.58963889,0
-2.5223205,3.398849,2.6882195,-0.51037055,0.62597764,0.58963889,0
-2.6769576,2.9487934,3.0321629,-0.51037055,0.62597764,0.58963889,0
-2.2620845,3.3107114,3.00704,-0.51037055,0.62597764,0.58963889,0
2.4199491,-3.1811652,-3.0079279,0.51037055,-0.62597764,-0.58963889,0
-2.9138031,2.9595876,2.8156986,-0.51037055,0.62597764,0.58963889,0
2.9398913,-2.9630313,-2.7894619,0.51037055,-0.62597764,-0.58963889,0
2.570153,-3.1662574,-2.8937435,0.51037055,-0.62597764,-0.58963889,0
1.9988745,-3.2348228,-2.6641965,-0.7139985,-0.69061136,0.11516119,0
2.5376875,-3.17453,-2.9130621,0.51037055,-0.62597764,-0.58963889,0
2.3470063,-3.3727617,-2.8676605,0.51037055,-0.62597764,-0.58963889,0
-1.0695397,1.9399581,1.2146268,0.3887074,0.77954561,-0.49113679,0
2.5133209,-3.48454,-2.6050372,0.51037055,-0.62597764,-0.58963889,0
2.1332576,-3.3783908,-2.7286782,-0.64578402,-0.73176754,0.21789774,0
2.2551429,-3.101881,-3.2347488,0.51037055,-0.62597764,-0.58963889,0
-0.31463605,-0.36959031,0.12002994,-0.6292721,-0.73918062,0.24005988,0
-2.6789057,3.069108,2.9027476,-0.51037055,0.62597764,0.58963889,0
2.6006546,-3.3691688,-2.5031571,0.18714333,-0.58838224,0.78662813,0
2.3904057,-2.6653128,-2.0279665,0.6119144,-0.21740714,0.76045704,0
2.2245965,-3.1369779,-3.2239285,0.51037055,-0.62597764,-0.58963889,0
2.298717,-3.0854616,-3.2144642,0.51037055,-0.62597764,-0.58963889,0
2.6886108,-3.2902923,-2.6595321,0.51037055,-0.62597764,-0.58963889,0
2.1451874,-3.3370838,-3.080224,0.51037055,-0.62597764,-0.58963889,0
-0.30468276,-0.14224732,0.52942783,-0.22288376,-0.75852078,0.61234725,0
0.31289926,-0.60786533,-1.0820137,-0.57684064,0.25932539,-0.77460003,0
-2.2179368,3.4598641,2.8869081,-0.51037055,0.62597764,0.58963889,0
-1.1720877,1.1484303,1.7667711,0.063597023,-0.65631068,0.75180578,0
-2.9273477,2.8016596,2.8867567,-0.80207598,-0.59379852,-0.063854933,0
-2.2293625,3.1150756,3.2430558,-0.51037055,0.62597764,0.58963889,0
-2.7626095,2.8768554,3.0343981,-0.51037055,0.62597764,0.58963889,0
-1.5444766,1.1034831,1.3168712,-0.78668261,-0.61680555,-0.026106,0
2.6659625,-3.2676272,-2.7031972,0.51037055,-0.62597764,-0.58963889,0
-2.444025,3.0865798,3.0875039,-0.51037055,0.62597764,0.58963889,0
-0.83645844,0.3834613,0.96420741,-0.4118157,-0.77983791,0.47144541,0
1.3197738,-1.9756486,-1.1742063,-0.017077208,-0.69290507,0.72082657,0
2.5503638,-3.3050485,-2.7635283,0.51037055,-0.62597764,-0.58963889,0
-2.7815485,2.9196565,2.9725657,-0.51037055,0.62597764,0.58963889,0
-2.7173691,3.367986,2.5521579,-0.51037055,0.62597764,0.58963889,0
2.2759914,-3.3481832,-2.9552217,0.51037055,-0.62597764,-0.58963889,0
0.014289245,-0.47130388,-0.78041339,-0.74971676,0.011983722,-0.66165048,0
1.2856858,-1.8834641,-1.088106,0.043228328,-0.66612089,0.74459016,0
2.672209,-2.9994431,-2.9825022,0.51037055,-0.62597764,-0.58963889,0
2.0657067,-2.0759897,-2.6326263,0.14429939,0.7382797,-0.65887856,0
-2.6298273,2.5279946,2.9358573,-0.50733978,-0.77280146,0.381293,0
-2.9368784,3.0930095,2.6540806,-0.51037055,0.62597764,0.58963889,0
2.4829347,-3.4167161,-2.7033427,0.51037055,-0.62597764,-0.58963889,0
-2.6757293,3.1301131,2.8407321,-0.51037055,0.62597764,0.58963889,0
-2.5623155,3.0932271,2.9780583,-0.51037055,0.62597764,0.58963889,0
-2.7800889,2.9262829,2.9667945,-0.51037055,0.62597764,0.58963889,0
2.6019549,-3.1154082,-2.9202001,0.51037055,-0.62597764,-0.58963889,0
0.99402463,-1.9724703,-1.3851602,-0.62381011,-0.74145335,0.24720037,0
1.3503693,-2.3196111,-2.2729056,-0.85287619,-0.28065687,-0.44026589,0
0.35702327,0.34528756,-0.057540558,0.71404654,0.69057512,-0.11508112,0
0.25180146,-0.4153648,-0.96461606,-0.47354868,0.36776239,-0.80031407,0
2.7295969,-3.180928,-2.7401597,0.51037055,-0.62597764,-0.58963889,0
0.43045661,-1.3186507,-0.92127508,-0.76038885,-0.64874864,0.03056471,0
1.8625815,-2.6056929,-2.8993783,-0.65514141,0.1611273,-0.73812455,0
-0.77752423,1.2690511,1.6445071,0.65065891,-0.16723311,0.74072671,0
-2.7784128,2.7469795,3.1585989,-0.51037055,0.62597764,0.58963889,0
2.6646295,-3.2374582,-2.7363789,0.51037055,-0.62597764,-0.58963889,0
1.9020998,-1.8435512,-2.4070539,0.1866017,0.74993974,-0.63464189,0
-0.42990145,-0.19216155,-0.16810319,-0.8598029,-0.38432309,-0.33620638,0
0.41852245,-1.3007282,-0.86804628,-0.73455143,-0.67386848,0.079596594,0
2.5151446,-2.9395308,-3.1820564,0.51037055,-0.62597764,-0.58963889,0
0.46917984,-0.47601393,-1.0999423,-0.27223757,0.53278893,-0.80126321,0
2.3681135,-3.3931887,-2.8277047,0.51037055,-0.62597764,-0.58963889,0
-0.96408623,0.61188102,0.36207384,-0.81703687,-0.13906349,-0.55956423,0
-1.2004993,1.7054461,2.110415,0.5843147,-0.2506426,0.77185154,0
-1.9065976,1.8679807,2.4342432,-0.16127986,-0.74317092,0.64937347,0
-0.37235612,-0.33229801,0.030478895,-0.74471223,-0.66459602,0.060957789,0
2.2552202,-3.4753594,-2.8381863,0.51037055,-0.62597764,-0.58963889,0
1.6980224,-2.8386121,-2.5723231,-0.8505134,-0.4687528,-0.23853269,0
-2.6667049,3.329401,2.6369731,-0.51037055,0.62597764,0.58963889,0
2.5279322,-2.7989798,-3.3202007,0.51037055,-0.62597764,-0.58963889,0
1.8478186,-2.8724186,-2.8757429,-0.83317834,-0.19017284,-0.51927662,0
2.524344,-3.1059196,-2.9974504,0.51037055,-0.62597764,-0.58963889,0
-2.4447613,3.4438827,2.7075431,-0.51037055,0.62597764,0.58963889,0
1.8279207,-1.4963381,-1.8970927,0.6056729,0.74840468,-0.27027899,0
-2.4155354,3.1667399,3.0270629,-0.51037055,0.62597764,0.58963889,0
0.9569484,-0.39190793,-0.56781828,0.82320285,0.55393779,0.12445882,0
-2.2683876,3.3375559,2.9730854,-0.51037055,0.62597764,0.58963889,0
-1.3050609,1.4572923,0.81780827,-0.50687629,0.33492035,-0.79429519,0
-2.431684,3.2828619,2.8898063,-0.51037055,0.62597764,0.58963889,0
0.59303415,-0.40772256,-1.0705855,-0.027746975,0.67331886,-0.73883146,0
-0.31698135,-0.17473525,0.4819442,-0.29041123,-0.77084184,0.56697822,0
-2.2830455,3.4150066,2.8781738,-0.51037055,0.62597764,0.58963889,0
-2.9472446,3.076654,2.6624725,-0.51037055,0.62597764,0.58963889,0
2.7506375,-3.1907711,-2.711498,0.51037055,-0.62597764,-0.58963889,0
2.6773667,-3.3910272,-2.5623212,0.51037055,-0.62597764,-0.58963889,0
2.42032,-3.2363372,-2.3652067,0.088322699,-0.64388061,0.7600112,0
-2.3789439,2.9566839,3.2817366,-0.51037055,0.62597764,0.58963889,0
-2.0566268,1.7684225,2.1369548,-0.62572205,-0.74066758,0.24471119,0
-2.5100784,3.0254927,3.0951815,-0.51037055,0.62597764,0.58963889,0
-2.8457355,2.9875879,2.5252123,-0.78016913,-0.048613757,-0.62367702,0
0.82361031,-0.32261407,-0.86887646,0.48906857,0.77526397,-0.39972222,0
-2.5382264,3.0992246,2.992542,-0.51037055,0.62597764,0.58963889,0
-2.4127607,3.3019187,2.8859544,-0.51037055,0.62597764,0.58963889,0
-1.8958592,3.1158204,2.6109025,0.7582494,0.65103304,-0.034841701,0
-2.1567974,3.2073159,3.2079403,-0.51037055,0.62597764,0.58963889,0
0.23447993,0.40337232,0.42171752,0.85836381,0.3291344,0.39355072,0
1.6663048,-2.1391883,-2.5936563,-0.46336022,0.37744105,-0.80177045,0
-2.3978529,3.493098,2.6958971,-0.51037055,0.62597764,0.58963889,0
1.0224113,-0.57148457,-1.1082242,0.48002952,0.77627462,-0.40861896,0
-1.5092623,2.5599294,2.4198928,0.85988772,0.36292478,0.35899687,0
2.904644,-3.0778852,-2.6980386,0.51037055,-0.62597764,-0.58963889,0
-1.1540947,1.1501657,0.59998393,-0.61093438,0.21862054,-0.76089698,0
2.4008367,-3.0102098,-3.2059622,0.51037055,-0.62597764,-0.58963889,0
1.2447314,-1.9491665,-2.2005427,-0.72886664,0.04899928,-0.68290013,0
-0.78109586,0.30075324,0.87518573,-0.43635869,-0.77934569,0.44967929,0
-1.0044287,0.62085652,0.42139989,-0.83526379,-0.19771844,-0.51307106,0
2.5080147,-3.315989,-2.788569,0.51037055,-0.62597764,-0.58963889,0
2.9161043,-3.063221,-2.7036862,0.51037055,-0.62597764,-0.58963889,0
-2.3007393,3.3111134,2.9731555,-0.51037055,0.62597764,0.58963889,0
2.7617328,-2.7582583,-3.1610618,0.51037055,-0.62597764,-0.58963889,0
2.2705178,-3.2984815,-3.0127239,0.51037055,-0.62597764,-0.58963889,0
-2.5026641,3.3170891,2.4434302,-0.11143559,0.63174051,-0.76712859,0
2.7471418,-3.140965,-2.7673993,0.51037055,-0.62597764,-0.58963889,0
-1.2951123,0.8013047,1.1136842,-0.73323381,-0.67501926,0.081958756,0
1.0028032,-1.8195004,-1.9050369,-0.82598168,-0.16601248,-0.53869683,0
-2.6870983,3.3822131,2.5632551,-0.51037055,0.62597764,0.58963889,0
1.0439445,-2.0690289,-1.6017599,-0.74203807,-0.66710699,0.065938145,0
-2.9548035,2.9248936,2.8170426,-0.51037055,0.62597764,0.58963889,0
2.8247988,-2.7731113,-3.0907063,0.51037055,-0.62597764,-0.58963889,0
-1.5111198,1.2168469,1.0179408,-0.84482819,-0.23693594,-0.47971529,0
-2.1207664,2.5490499,3.0383956,0.32075202,-0.4976151,0.80591404,0
-2.1615887,3.1855373,3.2269139,-0.51037055,0.62597764,0.58963889,0
2.4274759,-3.0588179,-3.1313004,0.51037055,-0.62597764,-0.58963889,0
-0.0091975033,0.16758533,-0.50780165,-0.21215293,0.5728178,-0.79175186,0
2.8052676,-3.1506639,-2.7067916,0.51037055,-0.62597764,-0.58963889,0
-2.8453729,3.1805851,2.6403124,-0.51037055,0.62597764,0.58963889,0
-2.5558901,2.3474908,2.5687976,-0.73423994,-0.67414153,0.080156118,0
-2.4696827,2.8332407,3.3342469,-0.51037055,0.62597764,0.58963889,0
1.9105563,-2.3910179,-2.8522203,-0.41863281,0.41807926,-0.80619884,0
