1.1460874,-1.2824116,3.3655553,-0.70270705,0.44306299,0.55668455,0
-0.66134489,0.38726598,-0.26556623,-0.81214094,0.26176593,0.52144575,0
1.6623561,-1.7745566,3.7899604,0.39970779,-0.40144336,0.82406121,0
-1.4462507,1.622098,-3.9690521,-0.39970779,0.40144336,-0.82406121,0
2.0736299,-1.9955935,3.482795,0.39970779,-0.40144336,0.82406121,0
0.82447881,-1.5308301,2.5376134,-0.77746159,-0.62470531,0.072778046,0
-1.9766003,1.2836399,-3.4765418,-0.6194343,-0.78096241,-0.079993427,0
2.1136103,-1.5000987,3.7047837,0.39970779,-0.40144336,0.82406121,0
-0.59844154,0.6672051,-2.1807427,0.64506,-0.515531,-0.564026,0
1.9284426,-1.3774843,3.8543308,0.39970779,-0.40144336,0.82406121,0
-1.8631153,1.6863894,-3.7355337,-0.39970779,0.40144336,-0.82406121,0
0.95720869,-0.3021065,0.97014332,0.87250727,0.4422214,-0.20777714,0
-2.1682458,1.5142055,-3.671411,-0.39970779,0.40144336,-0.82406121,0
-1.646994,1.1962838,-3.5972152,-0.014080524,-0.90158236,-0.43237829,0
-1.6322281,1.571342,-3.9035702,-0.39970779,0.40144336,-0.82406121,0
-1.7783434,1.7191401,-3.7606976,-0.39970779,0.40144336,-0.82406121,0
1.7822207,-2.2014108,3.5238776,0.39970779,-0.40144336,0.82406121,0
1.7892598,-2.1618738,3.5397234,0.39970779,-0.40144336,0.82406121,0
1.5659511,-2.1786938,3.6398451,0.39970779,-0.40144336,0.82406121,0
0.89801335,-0.77669573,2.5910447,-0.44707096,0.69944578,0.55758679,0
1.8512557,-1.7801208,3.6956246,0.39970779,-0.40144336,0.82406121,0
1.7026246,-2.033989,3.6440454,0.39970779,-0.40144336,0.82406121,0
-0.51905149,-0.11626667,-0.027631521,-0.89135873,-0.37991488,0.24727368,0
0.086061284,-0.19275308,1.1596453,-0.6811716,0.47149324,0.56008869,0
-0.3764334,-0.29945827,-0.33634323,-0.50711429,-0.84573615,-0.1660285,0
-0.508376,-0.1472888,-0.69801402,-0.44174841,-0.872078,-0.21056652,0
1.4747124,-2.0927382,3.7259731,0.39970779,-0.40144336,0.82406121,0
1.5350958,-2.1684132,3.6598194,0.39970779,-0.40144336,0.82406121,0
1.7909418,-1.4838629,3.8692026,0.39970779,-0.40144336,0.82406121,0
1.2498631,-0.70851755,2.5746291,0.1768949,0.91588217,0.36037201,0
-1.5859183,2.2130041,-3.6134458,-0.39970779,0.40144336,-0.82406121,0
-2.0174906,1.4382257,-3.781548,-0.39970779,0.40144336,-0.82406121,0
2.0292721,-1.4057312,3.7916636,0.39970779,-0.40144336,0.82406121,0
0.36878854,-1.0784137,1.4532597,-0.68370765,-0.72937155,-0.023685277,0
-1.642226,2.2060418,-3.5895252,-0.39970779,0.40144336,-0.82406121,0
0.47323048,-1.1346722,1.3320366,-0.44639307,-0.87044239,-0.20751682,0
-1.5747664,2.2039766,-3.6232526,-0.39970779,0.40144336,-0.82406121,0
-1.5407436,1.5724831,-3.9473886,-0.39970779,0.40144336,-0.82406121,0
0.72418708,-0.17194211,1.4687049,0.19425827,0.91567743,0.35185018,0
-0.05144725,-0.26791441,1.0111279,-0.83853269,0.20300378,0.5056209,0
-2.177768,1.744391,-3.554657,-0.39970779,0.40144336,-0.82406121,0
1.9260707,-1.2286346,3.3223491,0.65375,0.75500983,0.05070585,0
-0.24164027,0.94935656,-1.1607507,0.66326374,0.74719036,0.042282045,0
-1.371217,1.8573699,-3.8908336,-0.39970779,0.40144336,-0.82406121,0
-1.8806995,1.6428027,-3.7482381,-0.39970779,0.40144336,-0.82406121,0
0.58869284,-0.5798378,2.0844178,-0.56994885,0.59524643,0.56642729,0
-0.38630486,0.72777367,-1.9212233,0.85002363,-0.17413211,-0.49712962,0
-1.5778348,1.9756203,-3.7330081,-0.39970779,0.40144336,-0.82406121,0
-1.3902054,2.0179625,-3.8033907,-0.39970779,0.40144336,-0.82406121,0
0.13245435,0.1341576,-0.81981802,0.80570847,-0.27483273,-0.52469134,0
2.1510725,-1.9347835,3.4748559,0.39970779,-0.40144336,0.82406121,0
1.3663278,-2.0134611,3.8171649,0.39970779,-0.40144336,0.82406121,0
1.6537184,-2.0082421,3.6803098,0.39970779,-0.40144336,0.82406121,0
0.64526725,-1.2874186,1.6087185,-0.38857913,-0.88843256,-0.24432325,0
-0.72843498,1.4089732,-2.4593239,0.84817868,0.50288808,-0.16642272,0
1.4425385,-1.7873697,3.8903401,0.39970779,-0.40144336,0.82406121,0
1.8480303,-1.7606869,3.706656,0.39970779,-0.40144336,0.82406121,0
2.100419,-1.7559276,3.5865548,0.39970779,-0.40144336,0.82406121,0
0.45808971,0.073194414,-0.18653786,0.91617942,0.14638883,-0.37307572,0
-1.5019388,1.8642268,-3.8240869,-0.39970779,0.40144336,-0.82406121,0
2.1550326,-1.5706019,3.6503465,0.39970779,-0.40144336,0.82406121,0
0.42359662,-0.76506829,1.9980506,-0.84993601,0.1743618,0.497199,0
-1.9948694,1.7697363,-3.038547,-0.78267354,0.31848148,0.53478187,0
1.9716381,-2.010571,3.5249693,0.39970779,-0.40144336,0.82406121,0
-2.0954592,1.6397009,-3.6455803,-0.39970779,0.40144336,-0.82406121,0
0.10382706,-0.62520027,0.15265706,-0.12672681,-0.91456771,-0.38406545,0
-1.7365988,2.253602,-3.5205805,-0.39970779,0.40144336,-0.82406121,0
1.6043838,-1.7434921,3.8332129,0.39970779,-0.40144336,0.82406121,0
0.26064226,0.35499471,-0.53304791,0.90308028,0.32653579,-0.27896297,0
-2.019345,2.1450119,-3.4363358,-0.39970779,0.40144336,-0.82406121,0
0.63568103,-0.49483562,2.0268245,-0.42576724,0.71482754,0.55474675,0
2.192687,-1.5697451,3.4705138,0.89471459,0.3663258,-0.25552154,0
-0.9535675,0.42980361,-2.0105641,-0.1400125,-0.91518855,-0.37792373,0
1.8335092,-1.4300256,3.8747823,0.39970779,-0.40144336,0.82406121,0
-1.153067,1.395601,-1.7905246,-0.31027603,0.7866773,0.53372991,0
1.2781285,-1.9525635,3.0330858,-0.47686136,-0.85883784,-0.18708512,0
-2.0613317,1.7767067,-3.5953913,-0.39970779,0.40144336,-0.82406121,0
-1.5808085,1.453825,-3.9857597,-0.39970779,0.40144336,-0.82406121,0
2.1919563,-1.5229344,3.6556582,0.39970779,-0.40144336,0.82406121,0
-1.8274863,2.0020647,-3.5990334,-0.39970779,0.40144336,-0.82406121,0
-0.42368227,0.44858539,-1.7794064,0.60419071,-0.56068742,-0.56620067,0
-1.8435824,1.7897139,-3.6946731,-0.39970779,0.40144336,-0.82406121,0
0.92156619,-1.6046388,2.8522663,-0.84527886,-0.509193,0.16194469,0
-1.6024141,1.5553989,-3.9257982,-0.39970779,0.40144336,-0.82406121,0
1.2137197,-0.52956963,1.9957914,0.55490458,0.82152647,0.13105416,0
-1.6175948,1.1095521,-2.1977999,-0.91439903,-0.11176398,0.38907981,0
2.2165039,-1.8720784,3.4736648,0.39970779,-0.40144336,0.82406121,0
-1.4741319,2.1253176,-3.3376553,0.40356523,0.88425207,0.23501778,0
1.8416485,-1.9474001,3.6187944,0.39970779,-0.40144336,0.82406121,0
1.2859925,-1.9999433,3.356812,-0.69211185,-0.72161663,-0.015830994,0
-1.2179034,1.6357341,-3.6537886,0.88528991,-0.064048529,-0.46060795,0
-0.97699749,1.6875176,-2.6702189,0.65879887,0.75089586,0.046252847,0
-1.7385838,1.0398769,-2.7839482,-0.75394142,-0.65529615,0.046467304,0
0.92403942,-1.6150904,2.3969901,-0.54455566,-0.8271572,-0.13881695,0
-1.0684016,1.3891649,-3.3184705,0.83649683,-0.20788103,-0.50700939,0
-1.1856127,0.72114849,-2.6212246,-0.034175158,-0.90490091,-0.4242481,0
-1.8598272,1.4155788,-2.6886384,-0.89990395,-0.0008367002,0.43608737,0
1.8824459,-2.2128768,3.4696779,0.39970779,-0.40144336,0.82406121,0
0.11614247,-0.68895555,1.3498824,-0.91518462,-0.22545904,0.3340739,0
1.5348011,-1.6816916,3.8970699,0.39970779,-0.40144336,0.82406121,0
-1.2325624,1.37941,-1.8221416,-0.42823291,0.71308368,0.55509317,0
-1.7109524,1.9782138,-3.6671767,-0.39970779,0.40144336,-0.82406121,0
-0.18585971,0.55712056,-1.5174563,0.86611074,-0.12896428,-0.48292899,0
-1.0318329,1.7422345,-2.7776687,0.65499389,0.75400364,0.049612343,0
0.95732766,-1.3303878,3.107543,-0.86533809,0.13128941,0.48368698,0
1.1942722,-0.53499305,1.4704773,0.86654317,0.45862377,-0.19689369,0
1.2193604,-1.034601,3.1682708,-0.37008208,0.75179762,0.54574692,0
1.6471509,-1.8386478,2.7336657,0.3770746,-0.74740154,-0.54699701,0
1.5284102,-1.8315606,3.8271611,0.39970779,-0.40144336,0.82406121,0
1.8980534,-1.7968364,3.6647825,0.39970779,-0.40144336,0.82406121,0
1.567168,-1.5661936,3.9376357,0.39970779,-0.40144336,0.82406121,0
0.020727448,0.28619993,-1.0692226,0.83104801,-0.22062199,-0.51057327,0
-0.74001884,0.78708601,-2.4517918,0.62417454,-0.53917718,-0.56541497,0
0.95583582,-0.71932709,0.89237535,0.78753674,-0.30963787,-0.5328325,0
-0.63469362,0.14788625,-0.16574034,-0.90993798,-0.065237626,0.4095813,0
1.4518402,-1.0834677,3.3561301,-0.11884534,0.86871547,0.48084226,0
-0.43972522,0.037994027,-1.2159231,0.07425952,-0.88186312,-0.46562105,0
1.3458524,-0.97939014,1.639922,0.86702794,-0.1261804,-0.48201764,0
-0.14110366,0.84597754,-1.1148833,0.76881969,0.63636398,-0.062906861,0
-2.0036135,1.5306015,-3.743278,-0.39970779,0.40144336,-0.82406121,0
2.0609601,-1.7751737,3.5963187,0.39970779,-0.40144336,0.82406121,0
-1.5800511,2.0693567,-3.108355,0.05655694,0.90808737,0.41494423,0
1.1439885,-1.6137106,2.1713073,-0.025823176,-0.90357411,-0.42765287,0
-0.45832103,-0.088057458,0.17940944,-0.91664207,-0.17611492,0.35881889,0
1.5479892,-1.9588685,2.8830469,0.073447943,-0.88208252,-0.46533418,0
-2.1037607,1.8938756,-3.5177321,-0.39970779,0.40144336,-0.82406121,0
1.5715439,-2.0857949,3.6823878,0.39970779,-0.40144336,0.82406121,0
-1.5582783,1.9439626,-3.7579162,-0.39970779,0.40144336,-0.82406121,0
-1.3434441,0.69494653,-2.4340982,-0.43108726,-0.87570316,-0.21750364,0
-1.8581274,1.3857245,-3.8844228,-0.39970779,0.40144336,-0.82406121,0
-2.0662293,1.4065237,-3.7733517,-0.39970779,0.40144336,-0.82406121,0
-1.2677529,1.9548688,-3.5577476,0.84066695,0.51890385,-0.15497714,0
1.9657924,-1.5196199,3.7669725,0.39970779,-0.40144336,0.82406121,0
-1.4963684,1.7331853,-3.8906262,-0.39970779,0.40144336,-0.82406121,0
-1.4555486,1.695426,-3.9288197,-0.39970779,0.40144336,-0.82406121,0
1.1165817,-0.7470299,1.1667019,0.86805701,-0.12302583,-0.48098004,0
0.010033935,0.23932862,-1.0625474,0.79363871,-0.29827267,-0.53025556,0
-2.1349418,1.6607022,-3.6161985,-0.39970779,0.40144336,-0.82406121,0
-1.7040056,1.6760976,-2.5951681,-0.6160202,0.54808086,0.56579721,0
0.13605154,-0.84247959,1.0865541,-0.75752485,-0.65086043,0.050366402,0
1.6864761,-1.3997376,2.3707814,0.82307088,-0.23852167,-0.51542383,0
0.90081841,-1.576885,2.8296187,-0.85631835,-0.48427299,0.17943919,0
1.8815405,-1.9058371,3.6196921,0.39970779,-0.40144336,0.82406121,0
-0.98344982,1.6545186,-3.0136898,0.86363363,0.46621394,-0.19178498,0
0.77177864,-1.1284442,1.1902609,0.15070355,-0.85798621,-0.49106821,0
-1.9557871,2.1714101,-3.4016132,-0.34891587,0.76469094,0.54176134,0
1.3835139,-2.0835981,3.3897638,-0.57678431,-0.80886436,-0.11427319,0
-1.9542553,1.7864027,-3.6426051,-0.39970779,0.40144336,-0.82406121,0
-0.025235653,0.53771889,-1.1899109,0.91403157,0.10674678,-0.39134568,0
-1.7870864,1.2335825,-2.5669775,-0.91621804,-0.20233117,0.345842,0
-1.6381155,1.9501348,-3.7161846,-0.39970779,0.40144336,-0.82406121,0
-1.8883296,1.4242268,-3.8510168,-0.39970779,0.40144336,-0.82406121,0
-0.71527112,0.2899003,-0.32996643,-0.89158398,0.038501948,0.45121568,0
-0.92377323,0.40267134,-1.9558755,-0.13467836,-0.91496277,-0.38040107,0
0.9575007,-1.4220502,3.1195893,-0.90239918,-0.014465526,0.4306584,0
-1.5537865,1.2601204,-3.6930845,0.22619414,-0.8280021,-0.5130778,0
2.1529951,-1.8260627,3.5268867,0.39970779,-0.40144336,0.82406121,0
1.9774824,-1.8322706,3.6089942,0.39970779,-0.40144336,0.82406121,0
-1.9630291,1.7139411,-3.6736491,-0.39970779,0.40144336,-0.82406121,0
1.7294255,-1.9677486,3.6633148,0.39970779,-0.40144336,0.82406121,0
1.5928642,-1.9708223,3.728056,0.39970779,-0.40144336,0.82406121,0
-1.5426636,0.8688612,-2.2327111,-0.84272385,-0.51461929,0.15806198,0
1.0788028,-1.476898,3.363766,-0.87701213,0.093999669,0.47118354,0
-0.80875039,0.94175947,-0.93310666,-0.44214904,0.70306331,0.55696166,0
-1.6483406,1.6149032,-2.4753089,-0.62107491,0.54258269,0.56557047,0
2.019459,-1.4249153,3.7870774,0.39970779,-0.40144336,0.82406121,0
-0.7411564,0.54314375,-0.4743011,-0.75872922,0.35956225,0.54318041,0
0.54170811,-0.41947526,0.11952856,0.69696319,-0.45081949,-0.55767715,0
0.1766876,0.2833004,0.55989462,0.018994272,0.90243375,0.4304097,0
0.52142161,-1.2267027,1.6886752,-0.62988573,-0.77341318,-0.071246386,0
-0.67851323,0.59531313,-0.43399635,-0.66326892,0.49385613,0.56229931,0
-1.9491347,1.8809543,-3.5990276,-0.39970779,0.40144336,-0.82406121,0
2.2484365,-1.7648249,3.5104251,0.39970779,-0.40144336,0.82406121,0
-0.10578544,0.51950169,-1.361079,0.88558388,-0.062915802,-0.46019864,0
0.86327314,-0.21771973,0.75690186,0.88220942,0.41256362,-0.22693098,0
-1.8397557,1.8927784,-3.6463215,-0.39970779,0.40144336,-0.82406121,0
1.428519,-1.9596901,3.813194,0.39970779,-0.40144336,0.82406121,0
-0.043832928,-0.58209741,0.14168631,-0.35380486,-0.89690012,-0.26531532,0
2.173933,-1.7468681,3.555311,0.39970779,-0.40144336,0.82406121,0
-2.0591514,1.6175098,-3.6740022,-0.39970779,0.40144336,-0.82406121,0
0.47871298,-0.40303171,1.784068,-0.50016522,0.65785694,0.56307989,0
-1.6922625,2.2084293,-3.5640924,-0.39970779,0.40144336,-0.82406121,0
2.2281799,-1.6546431,3.4911981,0.91348803,0.24896984,-0.32179761,0
-0.17230177,0.851004,-0.79714739,0.50869149,0.84500772,0.16490871,0
1.8197122,-1.4768829,3.8586478,0.39970779,-0.40144336,0.82406121,0
-0.29076299,-0.40298954,-0.055283844,-0.58152598,-0.80597907,-0.11056769,0
2.1794286,-1.5604186,3.4376092,0.89710408,0.3559472,-0.26173639,0
1.9115462,-1.7273126,3.6921062,0.39970779,-0.40144336,0.82406121,0
0.51062506,-0.37831914,1.7806281,-0.43634105,0.70728219,0.55619985,0
2.2369399,-1.8004236,3.4986589,0.39970779,-0.40144336,0.82406121,0
-1.3354964,1.1495965,-3.4054353,0.36806011,-0.75305581,-0.54537916,0
-0.67325002,0.0085766315,-0.40381485,-0.86260229,-0.46884575,0.1900028,0
-1.7213876,1.5269632,-3.8819427,-0.39970779,0.40144336,-0.82406121,0
1.0634115,-1.278204,1.5661459,0.34510124,-0.76694971,-0.54101139,0
-1.8940319,1.5411062,-3.7913127,-0.39970779,0.40144336,-0.82406121,0
-0.37291193,1.0642712,-1.6823146,0.82313383,0.55277264,-0.12997347,0
1.5268692,-1.9468956,2.8571539,0.058856606,-0.88590449,-0.46011865,0
1.7554407,-2.1318135,3.5707712,0.39970779,-0.40144336,0.82406121,0
-0.41381699,0.32212722,-1.6316788,0.48286772,-0.67193824,-0.56154943,0
0.87647671,-1.5404999,2.8082345,-0.87145978,-0.44519067,0.20582259,0
-0.4697417,0.75428551,-0.45021436,-0.25073361,0.81683075,0.51953846,0
1.9513896,-1.7815988,2.9851134,0.74100035,-0.38769028,-0.54828358,0
-1.568094,2.1568093,-3.649466,-0.39970779,0.40144336,-0.82406121,0
-1.8048985,1.6125698,-3.7997332,-0.39970779,0.40144336,-0.82406121,0
0.38935673,-0.4483037,1.7414676,-0.63679016,0.52504313,0.56464875,0
1.4608729,-0.75873017,2.3001008,0.6962263,0.71772313,0.011938572,0
1.8319774,-1.9274011,3.6332278,0.39970779,-0.40144336,0.82406121,0
-1.5989166,1.0263882,-3.2071371,-0.24478137,-0.91309845,-0.32608786,0
0.72559524,-1.4114461,1.9630404,-0.52680933,-0.83630395,-0.1518805,0
-1.7967603,1.5695834,-3.8246212,-0.39970779,0.40144336,-0.82406121,0
1.1604563,-0.61841464,2.3895202,0.17750955,0.9158808,0.36007324,0
0.79779381,-0.15232313,1.3304477,0.41532743,0.88073885,0.22760102,0
-1.9476427,1.7111039,-3.6824944,-0.39970779,0.40144336,-0.82406121,0
-1.4839,1.8380039,-2.6485772,-0.15899706,0.85500836,0.4936403,0
-0.33738807,0.99069071,-1.7137527,0.8799274,0.41992703,-0.22223699,0
-1.2113945,0.51570797,-1.6452024,-0.78640246,-0.61207676,0.083266795,0
1.7038788,-1.4939227,2.4486942,0.77076268,-0.33940092,-0.53919554,0
-1.2107595,1.8997076,-2.9687808,0.53074837,0.83432788,0.14900732,0
1.5095798,-1.8845139,3.8104982,0.39970779,-0.40144336,0.82406121,0
-2.0419469,1.6770816,-3.6533267,-0.39970779,0.40144336,-0.82406121,0
1.5851046,-2.1934056,3.6233873,0.39970779,-0.40144336,0.82406121,0
-1.465261,1.6624918,-3.9401531,-0.39970779,0.40144336,-0.82406121,0
-1.76601,1.1307976,-2.6069002,-0.88748574,-0.39442214,0.23832786,0
-0.95978796,1.0201086,-1.1568034,-0.52345473,0.63803381,0.56471944,0
-1.1148041,1.7154484,-3.3903575,0.91058648,0.27706593,-0.30670321,0
-1.5552375,1.9782376,-2.9211416,-0.054316878,0.88704681,0.45847321,0
1.8726213,-1.6553097,3.7460637,0.39970779,-0.40144336,0.82406121,0
-1.9432714,1.6209078,-3.7285538,-0.39970779,0.40144336,-0.82406121,0
0.47938642,-0.77533484,2.094399,-0.82294899,0.23878872,0.51549482,0
-1.3713078,2.0802598,-3.6630249,0.77624047,0.62638438,-0.071367979,0
0.46138844,-1.069011,2.0338132,-0.90752876,-0.29976898,0.29416025,0
1.7638124,-2.0619221,3.6007586,0.39970779,-0.40144336,0.82406121,0
1.7496095,-2.1424956,3.5683961,0.39970779,-0.40144336,0.82406121,0
1.9309888,-1.8059635,3.644361,0.39970779,-0.40144336,0.82406121,0
1.915061,-1.3600831,2.8320212,0.91607654,0.20653296,-0.3437264,0
1.3188539,-1.8221502,3.8603821,-0.91156781,-0.079613909,0.40336835,0
-1.4661793,1.5811386,-3.9793391,-0.39970779,0.40144336,-0.82406121,0
1.8394469,-2.2242327,3.4850023,0.39970779,-0.40144336,0.82406121,0
-0.447007,0.70695847,-0.36550635,-0.28351974,0.80077195,0.52761817,0
-2.1777132,1.8627534,-3.4970229,-0.39970779,0.40144336,-0.82406121,0
1.2627566,-0.59444189,1.6354463,0.85387427,0.49001378,-0.17545706,0
1.9609805,-1.5084672,2.8973467,0.90258884,0.015548319,-0.43022287,0
-2.0344229,2.1465306,-3.428283,-0.39970779,0.40144336,-0.82406121,0
-0.67794108,1.3134902,-2.4475381,0.89462566,0.36670029,-0.25529587,0
0.33990648,-0.45242369,1.6869433,-0.6852932,0.46618655,0.55950278,0
-1.4086502,1.6878886,-3.9552398,-0.39970779,0.40144336,-0.82406121,0
1.694484,-1.0875952,3.3004026,0.32429636,0.90278864,0.28249693,0
1.9448633,-1.3571997,3.8562474,0.39970779,-0.40144336,0.82406121,0
1.8392032,-1.9721618,3.6079173,0.39970779,-0.40144336,0.82406121,0
-2.2461848,1.6608143,-3.5621862,-0.39970779,0.40144336,-0.82406121,0
0.49770021,0.13813126,0.75260526,0.38490626,0.88940746,0.24657962,0
-0.15173338,-0.50984818,0.68396294,-0.86917591,-0.45153058,0.2016263,0
2.1010127,-2.0511508,3.4424481,0.39970779,-0.40144336,0.82406121,0
-1.8802398,1.9125748,-3.6170406,-0.39970779,0.40144336,-0.82406121,0
-1.6384274,2.2154884,-3.5867662,-0.39970779,0.40144336,-0.82406121,0
-2.0095041,1.9699855,-3.5263739,-0.39970779,0.40144336,-0.82406121,0
0.60839796,-0.28185761,1.6965877,-0.18571758,0.84488785,0.50167072,0
-0.14840293,0.82504749,-1.267585,0.8504318,0.49787566,-0.16995734,0
1.7866735,-1.6256795,3.8021865,0.39970779,-0.40144336,0.82406121,0
1.5984436,-2.2444119,3.5726733,-0.38770524,-0.88866627,-0.24486092,0
0.60301632,-0.77957922,0.56691039,0.38970459,-0.73928571,-0.54916954,0
-0.92268991,0.27002084,-1.5571201,-0.43811533,-0.87333357,-0.21294031,0
-2.0931492,1.6719885,-3.6309719,-0.39970779,0.40144336,-0.82406121,0
-0.84384757,1.2111855,-1.3570888,-0.13535881,0.86329412,0.48621109,0
2.0838642,-1.7980337,3.5740728,0.39970779,-0.40144336,0.82406121,0
1.7141089,-1.8319812,3.7368834,0.39970779,-0.40144336,0.82406121,0
-1.6292784,2.0564752,-3.6686676,-0.39970779,0.40144336,-0.82406121,0
0.16190007,-0.11024904,1.1600146,-0.52749312,0.63449162,0.56495267,0
0.35760799,-0.96471953,1.8199151,-0.90754986,-0.29962659,0.29423976,0
-1.6988087,1.0166128,-2.588155,-0.82354909,-0.55201972,0.13054174,0
-1.0393254,1.5230737,-1.986562,0.050914943,0.90733486,0.41731423,0
-0.86863983,0.16396558,-1.0397173,-0.72216916,-0.69158715,0.01337713,0
1.631954,-0.93959117,2.5018072,0.79280257,0.60265249,-0.090962231,0
-2.0539112,1.5465426,-3.7111154,-0.39970779,0.40144336,-0.82406121,0
-1.781224,1.532136,-3.8503995,-0.39970779,0.40144336,-0.82406121,0
-2.0567737,1.5790958,-3.6938684,-0.39970779,0.40144336,-0.82406121,0
0.20373546,0.44155419,0.11628306,0.40747091,0.88310838,0.23256612,0
1.9943725,-1.6851935,3.6724505,0.39970779,-0.40144336,0.82406121,0
1.2865723,-0.68789625,2.4906602,0.30051738,0.90670294,0.29593766,0
1.5389557,-2.0409999,3.7200172,0.39970779,-0.40144336,0.82406121,0
-0.37024301,0.016977668,-1.1614717,0.14840674,-0.85879731,-0.49034932,0
1.784304,-1.466579,3.8808422,0.39970779,-0.40144336,0.82406121,0
1.4780508,-2.0617876,3.7394319,0.39970779,-0.40144336,0.82406121,0
2.2119694,-1.6640201,3.5772204,0.39970779,-0.40144336,0.82406121,0
-1.4583206,1.9594259,-3.7988675,-0.39970779,0.40144336,-0.82406121,0
2.1720195,-1.763618,3.548079,0.39970779,-0.40144336,0.82406121,0
-0.36782786,0.85481858,-1.9017414,0.90901101,0.057829455,-0.41274053,0
-1.0990815,1.7766631,-2.6823614,0.49024829,0.85324121,0.17786539,0
-1.1797051,1.3709335,-1.7723609,-0.37492245,0.74876189,0.54661584,0
0.71222639,-1.4005485,1.9497116,-0.5369975,-0.83112991,-0.1444183,0
1.8915529,-2.2113285,3.4660151,0.39970779,-0.40144336,0.82406121,0
1.8766209,-1.4314303,3.8531871,0.39970779,-0.40144336,0.82406121,0
1.9250464,-1.8263311,3.637321,0.39970779,-0.40144336,0.82406121,0
-1.3915658,1.1536105,-3.4460597,0.30188704,-0.79119396,-0.53186119,0
-1.7504874,2.2013946,-3.3772914,-0.010316193,0.89697242,0.44196606,0
-1.5050519,1.9830899,-3.7646728,-0.39970779,0.40144336,-0.82406121,0
-0.032681972,0.71820426,-0.99817389,0.83312964,0.53401363,-0.1439603,0
-2.1161175,1.8333631,-3.5412178,-0.39970779,0.40144336,-0.82406121,0
0.73170108,-0.3293891,1.8143711,-0.071356416,0.88264441,0.46459347,0
1.4790409,-2.1707878,3.6858513,0.39970779,-0.40144336,0.82406121,0
-1.5996048,1.1617627,-3.5264447,0.0078554749,-0.8974663,-0.4410131,0
1.5503309,-1.6234879,3.9178913,0.39970779,-0.40144336,0.82406121,0
-0.9677729,1.0310888,-2.9356887,0.63852257,-0.523067,-0.56452626,0
-0.74134731,0.12129116,-1.3059013,-0.34660017,-0.89844543,-0.26956281,0
-0.72691619,1.4156516,-1.9820143,0.53843838,0.83038151,0.14335483,0
2.08641,-2.0363131,3.3609557,0.63856214,-0.52302164,-0.5645234,0
1.594605,-1.7005615,3.8588693,0.39970779,-0.40144336,0.82406121,0
-1.6914167,2.1251893,-3.6050529,-0.39970779,0.40144336,-0.82406121,0
-0.51839274,0.47271132,-1.8999298,0.53217208,-0.63034743,-0.56520331,0
-2.090528,1.8525257,-3.5442944,-0.39970779,0.40144336,-0.82406121,0
0.60540837,0.088358074,0.36689761,0.80402476,0.58527464,-0.10487121,0
1.8282874,-1.5176864,3.8346107,0.39970779,-0.40144336,0.82406121,0
-0.82975477,1.040768,-1.0805137,-0.3485654,0.76489937,0.54169285,0
1.4336562,-0.9908421,1.8100337,0.89884031,-0.0046643615,-0.43825138,0
-1.5242103,1.8648567,-3.8129773,-0.39970779,0.40144336,-0.82406121,0
0.54828346,-1.0761707,2.2642021,-0.91557455,-0.13146262,0.3800537,0
1.9504231,-1.6719871,3.7002017,0.39970779,-0.40144336,0.82406121,0
-1.2082554,1.2104428,-3.3704605,0.57837123,-0.58700043,-0.56649542,0
-1.6856773,1.7209096,-3.8047829,-0.39970779,0.40144336,-0.82406121,0
-1.6190131,2.1808515,-3.6130562,-0.39970779,0.40144336,-0.82406121,0
0.64283377,-1.2624373,1.5265965,-0.33055234,-0.90163696,-0.27890143,0
2.0845976,-1.9007783,3.5236645,0.39970779,-0.40144336,0.82406121,0
-1.3654634,1.0436008,-1.6947143,-0.84328187,0.19135995,0.50225216,0
-1.4161119,1.1703994,-1.8349316,-0.79533231,0.29506266,0.52951342,0
-1.9794816,1.3889012,-3.8240128,-0.39970779,0.40144336,-0.82406121,0
-1.0740414,0.40994501,-1.8168602,-0.47644359,-0.85900742,-0.18737036,0
-1.9742587,1.3118141,-3.0947771,-0.85795194,-0.48035803,0.18213874,0
1.9326558,-1.7422528,3.6745896,0.39970779,-0.40144336,0.82406121,0
-1.7024151,2.153224,-3.2784078,-0.010132313,0.89700955,0.44189501,0
0.6901015,-0.98860562,0.92515969,0.23296463,-0.82499123,-0.51489508,0
2.166517,-1.4946513,3.6817753,0.39970779,-0.40144336,0.82406121,0
1.7187947,-1.4440341,3.9236,0.39970779,-0.40144336,0.82406121,0
-2.1525035,1.5650477,-3.3466256,-0.9103089,-0.27934244,0.30545962,0
1.4521848,-1.604147,3.9749184,0.39970779,-0.40144336,0.82406121,0
0.65201765,-0.48816502,0.31456888,0.73180473,-0.40161461,-0.55060655,0
1.9188761,-1.7094884,3.6972346,0.39970779,-0.40144336,0.82406121,0
1.9701003,-2.1232753,3.4708114,0.39970779,-0.40144336,0.82406121,0
-2.0783515,1.9891682,-3.4836345,-0.39970779,0.40144336,-0.82406121,0
1.4631803,-2.033268,3.7605381,0.39970779,-0.40144336,0.82406121,0
-1.2927066,1.7707212,-2.4941909,0.039000452,0.90563333,0.42226443,0
0.0090247691,-0.042760313,-0.82827216,0.54708189,-0.61685002,-0.56585997,0
0.69922882,-1.2623786,1.4782705,-0.20392787,-0.91541392,-0.34703153,0
-1.0308698,1.577369,-2.1154697,0.16746885,0.9158501,0.36492842,0
2.0530224,-1.7759221,3.1302738,0.81798607,-0.24950756,-0.5183093,0
-0.51751792,1.219975,-1.9245012,0.7896409,0.60734975,-0.087140501,0
-0.14862669,0.85530818,-0.95856589,0.6561951,0.75302756,0.048554182,0
-2.1474714,1.5806284,-3.6491294,-0.39970779,0.40144336,-0.82406121,0
-0.065070361,-0.27979115,-0.54922199,0.16267037,-0.85366476,-0.49476743,0
1.3987026,-2.0169187,3.7997775,0.39970779,-0.40144336,0.82406121,0
1.0318619,-1.4043174,1.7523731,0.12893057,-0.86544019,-0.48413855,0
0.64071167,-1.1083856,2.4662862,-0.90371686,-0.0221425,0.42755759,0
-1.825174,2.0962572,-3.5542688,-0.39970779,0.40144336,-0.82406121,0
-1.3842866,1.9516325,-3.8385739,-0.39970779,0.40144336,-0.82406121,0
1.0875189,-1.6996672,2.4136605,-0.30795777,-0.90555632,-0.29177016,0
1.8971441,-1.2082353,3.350971,0.59283185,0.79888785,0.10162926,0
-0.42289773,0.092518665,0.25019565,-0.84579545,0.18503733,0.5003913,0
-1.227924,0.54785335,-1.6008489,-0.83308208,-0.5341059,0.14389229,0
2.1200113,-1.7040339,3.2263615,0.89032948,-0.043829158,-0.45320243,0
-2.0141807,1.3740439,-3.81442,-0.39970779,0.40144336,-0.82406121,0
0.036080576,-0.24828911,1.1351424,-0.7668435,0.34606963,0.5405432,0
1.2794681,-1.9568024,3.6112769,-0.85686409,-0.48297235,0.18033749,0
-1.9760128,1.8425908,-3.6046791,-0.39970779,0.40144336,-0.82406121,0
0.037810043,0.5671953,-1.0050933,0.90768546,0.29871204,-0.29475117,0
0.5824393,-0.14303775,0.055285007,0.89644665,-0.016477898,-0.44284534,0
1.5132188,-0.91762137,2.0337102,0.9086895,0.2917006,-0.29865384,0
-1.7574304,1.5171218,-3.8692548,-0.39970779,0.40144336,-0.82406121,0
1.5265336,-1.7102194,3.8871827,0.39970779,-0.40144336,0.82406121,0
1.5678103,-1.5963378,3.9226394,0.39970779,-0.40144336,0.82406121,0
-1.7548844,1.9651208,-3.6522462,-0.39970779,0.40144336,-0.82406121,0
1.1669437,-0.4755218,1.8506542,0.58925569,0.80116367,0.10447252,0
-1.5629113,1.5846047,-3.9307315,-0.39970779,0.40144336,-0.82406121,0
-0.92357564,1.5121384,-3.0056021,0.91322935,0.25190985,-0.3202399,0
2.0153155,-1.78162,3.6153173,0.39970779,-0.40144336,0.82406121,0
-1.4444318,2.0337381,-3.7694025,-0.39970779,0.40144336,-0.82406121,0
1.7757576,-1.4189994,2.5283787,0.86310416,-0.13791361,-0.48583031,0
-2.0756292,1.5066915,-3.7199945,-0.39970779,0.40144336,-0.82406121,0
-1.7160485,1.4719725,-2.4534845,-0.79510266,0.29549971,0.52961493,0
1.2268333,-1.9050837,3.49966,-0.85518813,-0.48694468,0.17758954,0
-1.3994296,1.6971879,-3.9551823,-0.39970779,0.40144336,-0.82406121,0
-1.0153031,1.3637481,-3.2194667,0.85235006,-0.16797812,-0.49526012,0
1.3290186,-1.4483981,1.9858983,0.46030736,-0.68952322,-0.55917329,0
0.66531509,-0.76947647,0.6024946,0.47419608,-0.67879993,-0.56068599,0
-0.024846226,-0.67104971,0.83218718,-0.80532432,-0.58318639,0.10651886,0
-1.8761399,1.7705789,-2.8795741,-0.68760812,0.46317881,0.55916041,0
-1.912775,1.5141344,-3.7953606,-0.39970779,0.40144336,-0.82406121,0
2.1691239,-1.7878156,3.3328986,0.87579107,-0.098139882,-0.47260821,0
-2.1697445,1.4777436,-3.688447,-0.39970779,0.40144336,-0.82406121,0
-1.7876313,2.068079,-3.586206,-0.39970779,0.40144336,-0.82406121,0
0.97727609,-0.55015087,2.2703946,-0.029935956,0.89280307,0.44945145,0
-0.60268408,0.84791827,-2.3218954,0.78891188,-0.30710304,-0.53226465,0
-2.1331806,1.6716523,-3.6117189,-0.39970779,0.40144336,-0.82406121,0
-1.7700496,1.7406192,-3.754257,-0.39970779,0.40144336,-0.82406121,0
-1.1871285,1.4781618,-3.5497479,0.81789869,-0.24969393,-0.51835769,0
1.7220296,-1.6470323,3.8231397,0.39970779,-0.40144336,0.82406121,0
0.91708893,-1.1247662,1.2553346,0.35320449,-0.76212817,-0.54259306,0
-0.99022305,0.65874648,-2.4726193,0.17624831,-0.84856665,-0.49886996,0
-1.4228132,2.1021328,-3.7465701,-0.39970779,0.40144336,-0.82406121,0
-1.7225974,1.6439021,-2.5865164,-0.66329485,0.49382454,0.56229639,0
0.086901426,0.60332876,-0.33486938,0.56025636,0.81852591,0.12699664,0
0.82742763,-1.4653943,1.9664392,-0.37523523,-0.89188248,-0.25247619,0
2.0362191,-1.8680339,3.5630817,0.39970779,-0.40144336,0.82406121,0
1.7168665,-1.5981998,3.8494329,0.39970779,-0.40144336,0.82406121,0
-0.81916934,1.4418766,-1.8977398,0.33630902,0.90053159,0.27557069,0
-1.926253,1.9627075,-3.5703001,-0.39970779,0.40144336,-0.82406121,0
1.8357055,-1.9656749,3.6127739,0.39970779,-0.40144336,0.82406121,0
0.01955932,0.34426713,-1.0921451,0.86282057,-0.13874444,-0.48609746,0
0.29176575,0.088004738,-0.53542113,0.87126327,-0.11297177,-0.47763747,0
1.3709418,-1.976757,3.8328073,0.39970779,-0.40144336,0.82406121,0
-1.4776387,1.9458342,-3.7961183,-0.39970779,0.40144336,-0.82406121,0
-1.6346375,1.694417,-3.8424454,-0.39970779,0.40144336,-0.82406121,0
-1.7039915,2.2460008,-3.5401001,-0.39970779,0.40144336,-0.82406121,0
1.4038184,-2.0378098,3.7871184,0.39970779,-0.40144336,0.82406121,0
0.19385189,-0.88725471,0.9265942,-0.56938618,-0.81326395,-0.12000483,0
0.088248551,0.60672778,-0.70494783,0.80740654,0.57980645,-0.10917538,0
-2.0993211,1.664854,-3.6314542,-0.39970779,0.40144336,-0.82406121,0
-1.4208397,0.73998356,-2.0047462,-0.82953805,-0.54091138,0.13885802,0
0.11500865,-0.50681722,-0.095368572,0.093446255,-0.87647039,-0.47230029,0
1.7788997,-1.2022491,2.5658417,0.91326427,0.25152004,-0.32044685,0
1.5267493,-2.1586614,3.3768649,-0.35167396,-0.8973645,-0.26657516,0
-1.9069171,2.1932492,-3.46737,-0.39970779,0.40144336,-0.82406121,0
-1.9884137,2.010674,-3.5167825,-0.39970779,0.40144336,-0.82406121,0
0.45597976,-0.37652767,1.7328979,-0.49615282,0.66117102,0.56274807,0
-1.6337302,1.8863134,-3.7494025,-0.39970779,0.40144336,-0.82406121,0
0.98311269,-1.5438585,2.0539994,-0.19647402,-0.91562653,-0.35075063,0
2.1230454,-1.9465461,3.4827192,0.39970779,-0.40144336,0.82406121,0
-1.822984,1.9675746,-3.6180191,-0.39970779,0.40144336,-0.82406121,0
2.0604906,-1.6396918,3.6625466,0.39970779,-0.40144336,0.82406121,0
1.5292666,-1.5886941,3.9450586,0.39970779,-0.40144336,0.82406121,0
-1.1376696,0.99924827,-3.0620687,0.42605335,-0.71462572,-0.55478716,0
-1.3762422,1.9864564,-3.825511,-0.39970779,0.40144336,-0.82406121,0
0.89904898,-0.79160476,2.6104002,-0.46286583,0.6875723,0.55946374,0
-1.153752,0.72715378,-2.6337526,0.029546022,-0.89288986,-0.44930464,0
-1.8207822,1.6038866,-3.7962582,-0.39970779,0.40144336,-0.82406121,0
-1.5705179,1.3916297,-3.8982069,0.37540936,-0.74845457,-0.54670238,0
2.0807748,-1.9773803,3.4882016,0.39970779,-0.40144336,0.82406121,0
0.44578743,-1.1560733,1.6746417,-0.72507513,-0.68847674,0.01630187,0
-1.5416901,1.4110379,-3.902735,0.43306494,-0.70963871,-0.55575866,0
-1.5416852,1.5465636,-3.9595585,-0.39970779,0.40144336,-0.82406121,0
-1.6175287,1.9216194,-3.7400618,-0.39970779,0.40144336,-0.82406121,0
-1.9814972,1.7471414,-3.6485176,-0.39970779,0.40144336,-0.82406121,0
2.0457747,-2.0776458,3.4563339,0.39970779,-0.40144336,0.82406121,0
-1.6901121,1.7676864,-3.7798443,-0.39970779,0.40144336,-0.82406121,0
-0.38603717,0.99795723,-0.97624195,0.31465805,0.90446311,0.28798765,0
1.0987206,-0.40984058,1.7307518,0.57467526,0.81013107,0.11591327,0
-1.4402927,1.6160707,-3.9748778,-0.39970779,0.40144336,-0.82406121,0
-0.23613364,0.068506986,0.54427397,-0.73337972,0.39926001,0.55022341,0
1.3467069,-0.66818404,1.8419638,0.8352378,0.52987659,-0.14699823,0
0.56285691,-0.44427902,0.16602206,0.69391453,-0.45488399,-0.55817848,0
1.617135,-1.6013021,3.8962953,0.39970779,-0.40144336,0.82406121,0
0.054753453,0.63567418,-0.40152022,0.56052041,0.8183763,0.12679571,0
1.9134507,-1.6751466,3.7165956,0.39970779,-0.40144336,0.82406121,0
0.085644424,-0.59221494,0.080701217,-0.099294364,-0.91267174,-0.39644784,0
-1.8265227,2.1083269,-3.5477352,-0.39970779,0.40144336,-0.82406121,0
-1.3893838,1.9473214,-3.838202,-0.39970779,0.40144336,-0.82406121,0
-1.3838512,1.7894964,-3.9177701,-0.39970779,0.40144336,-0.82406121,0
-1.884542,1.6493487,-3.743185,-0.39970779,0.40144336,-0.82406121,0
1.9503837,-1.8147116,3.630692,0.39970779,-0.40144336,0.82406121,0
-1.9496857,2.027544,-3.5273488,-0.39970779,0.40144336,-0.82406121,0
2.1528862,-1.880415,3.5004613,0.39970779,-0.40144336,0.82406121,0
-1.8520765,1.846139,-3.6630659,-0.39970779,0.40144336,-0.82406121,0
1.1806703,-1.2286084,1.5972711,0.53756243,-0.62551963,-0.56546605,0
1.8007085,-1.8713799,3.6756854,0.39970779,-0.40144336,0.82406121,0
-0.12560087,0.01773566,0.7250275,-0.68300092,0.46914551,0.55983239,0
-1.3960091,0.72410917,-1.9223411,-0.84719098,-0.50505376,0.16488862,0
-0.43767607,0.049806565,0.2365565,-0.87535214,0.09961313,0.473113,0
0.4051103,-0.58777666,1.8750488,-0.74307561,0.38448739,0.54773003,0
1.1703146,-0.5045166,1.4369549,0.85814703,0.47988617,-0.18246335,0
2.1154242,-1.8551397,3.5309453,0.39970779,-0.40144336,0.82406121,0
-0.52048129,0.34872293,-1.7492594,0.38961554,-0.73934364,-0.54915452,0
-1.3163598,1.823971,-2.6081579,0.091418326,0.91197556,0.39992893,0
1.6737275,-1.9234657,3.7119033,0.39970779,-0.40144336,0.82406121,0
1.8007109,-1.5479183,3.8332593,0.39970779,-0.40144336,0.82406121,0
-1.756907,1.7764144,-3.7431936,-0.39970779,0.40144336,-0.82406121,0
-1.3366904,1.7198391,-3.8918495,0.86948967,-0.11857618,-0.47950739,0
-0.93275815,0.35182309,-0.82186723,-0.91314316,-0.25286213,0.31973422,0
1.9244751,-1.5369787,3.7785571,0.39970779,-0.40144336,0.82406121,0
1.8820544,-1.603281,3.7668335,0.39970779,-0.40144336,0.82406121,0
-1.8872533,1.6945534,-3.7198486,-0.39970779,0.40144336,-0.82406121,0
-2.020174,1.5903344,-3.7061465,-0.39970779,0.40144336,-0.82406121,0
0.23557189,0.26786059,-0.65421003,0.91280502,0.092142269,-0.39786524,0
1.0101045,-1.6856546,2.4911056,-0.48457173,-0.85565257,-0.18179351,0
-0.92441279,1.6146317,-2.3928313,0.54104102,0.82901901,0.14142871,0
1.5754848,-2.1191697,3.6642179,0.39970779,-0.40144336,0.82406121,0
1.312782,-1.9384065,3.7731454,-0.90161097,-0.33432162,0.27445745,0
-1.9326462,2.1910801,-3.4559469,-0.39970779,0.40144336,-0.82406121,0
1.8294381,-1.4445171,3.8696971,0.39970779,-0.40144336,0.82406121,0
0.79874802,-0.39258403,0.50427771,0.88408029,-0.068654373,-0.46226496,0
-1.2848023,1.2964711,-1.772523,-0.57532442,0.59000206,0.5664798,0
0.98162812,-1.2967429,1.5510532,0.21166003,-0.83428371,-0.50908822,0
-2.0600138,1.580893,-3.6914217,-0.39970779,0.40144336,-0.82406121,0
1.4314094,-1.9362779,3.8231974,0.39970779,-0.40144336,0.82406121,0
2.0539927,-1.3954844,3.7846646,0.39970779,-0.40144336,0.82406121,0
-1.755921,1.4270134,-3.9138837,-0.39970779,0.40144336,-0.82406121,0
-0.72821623,1.1329079,-2.6424935,0.8806178,-0.081382558,-0.46678603,0
-0.63683444,0.095934153,-1.318637,-0.17071724,-0.91587251,-0.36336371,0
2.1288915,-1.6733208,3.6129866,0.39970779,-0.40144336,0.82406121,0
1.8008041,-1.7672181,3.7263815,0.39970779,-0.40144336,0.82406121,0
2.1335931,-1.9537435,3.4740973,0.39970779,-0.40144336,0.82406121,0
-2.1951566,1.8000498,-3.5191083,-0.39970779,0.40144336,-0.82406121,0
-2.1161339,1.7575493,-3.5781422,-0.39970779,0.40144336,-0.82406121,0
2.0509801,-1.9575734,3.5123024,0.39970779,-0.40144336,0.82406121,0
-2.0026503,1.9845252,-3.5226147,-0.39970779,0.40144336,-0.82406121,0
-1.9146165,2.0245519,-3.5458164,-0.39970779,0.40144336,-0.82406121,0
-1.8013383,2.0289931,-3.5985982,-0.39970779,0.40144336,-0.82406121,0
-1.602623,2.0731497,-3.6734729,-0.39970779,0.40144336,-0.82406121,0
0.80083215,-1.439573,2.6970105,-0.89291805,-0.37373155,0.25104225,0
-1.8872942,1.9292812,-3.6054802,-0.39970779,0.40144336,-0.82406121,0
-1.0081606,1.4085047,-3.2186253,0.87816167,-0.090042233,-0.46981323,0
-1.2280477,0.60427141,-2.289582,-0.36146948,-0.89517862,-0.26075891,0
1.3945699,-1.844779,3.8856399,0.39970779,-0.40144336,0.82406121,0
-1.8571522,1.1619129,-2.9956856,-0.77454275,-0.62870097,0.069415808,0
1.9747825,-1.3677001,3.8366206,0.39970779,-0.40144336,0.82406121,0
-0.49574929,-0.20744775,-0.20997638,-0.76133907,-0.64605439,0.054557681,0
-0.23549169,0.74477881,-0.39440227,0.10309768,0.91298372,0.39475507,0
-1.0706704,1.2613792,-1.5475056,-0.3749786,0.74872637,0.54662585,0
-1.514954,1.6617327,-3.9164197,-0.39970779,0.40144336,-0.82406121,0
1.7890077,-1.5071702,3.8587863,0.39970779,-0.40144336,0.82406121,0
0.7918011,-1.2265589,2.7773314,-0.89264691,0.033883214,0.44948131,0
-0.8688041,0.78052235,-2.5714197,0.4844557,-0.67066753,-0.5617007,0
0.6028226,0.097219706,0.63295543,0.62725312,0.77534294,0.07346344,0
1.6457949,-1.9691663,2.9291782,0.20411253,-0.83744872,-0.50696915,0
-0.72252417,1.4137902,-1.9881016,0.54923177,0.82464063,0.13532293,0
0.6349228,-1.23737,2.3974085,-0.90946454,-0.28596741,0.30182266,0
1.9029484,-1.6241455,3.7465348,0.39970779,-0.40144336,0.82406121,0
1.447506,-1.5797811,3.9826865,-0.69816107,0.44921285,0.55747551,0
-0.92495292,0.29446173,-1.6458983,-0.37559056,-0.89179385,-0.25226071,0
2.1439743,-1.6140642,3.6345375,0.39970779,-0.40144336,0.82406121,0
1.0153161,-1.5366979,2.0224757,-0.1192925,-0.9141354,-0.38746083,0
1.8110245,-1.3814788,3.909338,0.39970779,-0.40144336,0.82406121,0
-1.7485843,1.0971482,-2.6012018,-0.87275505,-0.44151294,0.20824254,0
-1.7501423,1.586834,-3.8388293,-0.39970779,0.40144336,-0.82406121,0
-1.6111695,0.91062737,-2.6416225,-0.67506415,-0.73708045,-0.031633198,0
-0.52753991,1.0168854,-0.9485727,0.064714015,0.90911478,0.41148812,0
-1.5452961,1.614017,-3.9249468,-0.39970779,0.40144336,-0.82406121,0
1.9568658,-1.5644746,3.7494516,0.39970779,-0.40144336,0.82406121,0
-2.1623685,1.756772,-3.5560946,-0.39970779,0.40144336,-0.82406121,0
1.7948124,-1.427494,3.8947849,0.39970779,-0.40144336,0.82406121,0
0.11431378,-0.75961399,1.2664597,-0.88597715,-0.39978337,0.2349844,0
0.78814507,-1.2265971,1.3765984,0.023954332,-0.89411783,-0.44719058,0
-1.5984515,1.207,-2.1548648,-0.87924057,0.0862737,0.46850079,0
-0.97108209,0.52187598,-0.85635334,-0.90025353,-0.0026828051,0.43535763,0
-1.805845,1.6915202,-3.7608128,-0.39970779,0.40144336,-0.82406121,0
1.0763223,-0.65119982,2.4777138,-0.032495618,0.89222866,0.45041317,0
1.738337,-1.8403416,2.8064902,0.48179197,-0.67279643,-0.56144577,0
2.0017831,-1.467968,3.774678,0.39970779,-0.40144336,0.82406121,0
1.9326186,-1.6142235,2.8643789,0.84270632,-0.19279161,-0.50267041,0
-1.1890749,1.8799758,-2.9357469,0.53909433,0.83003944,0.14287007,0
-1.4591415,1.5709805,-3.9877017,-0.39970779,0.40144336,-0.82406121,0
-2.1339736,2.0002799,-3.4512424,-0.39970779,0.40144336,-0.82406121,0
-0.61246318,0.29567134,-1.7212379,0.19955778,-0.83932686,-0.50567484,0
0.59504247,-0.4446336,0.20727064,0.72071457,-0.41785866,-0.55314064,0
-0.15034123,-0.17366391,0.8092472,-0.84148145,0.19581936,0.50355124,0
2.0971675,-1.9929047,3.3355379,0.68731493,-0.46356076,-0.55920428,0
1.5242682,-1.6073146,3.9384117,0.39970779,-0.40144336,0.82406121,0
1.1830261,-0.49514723,1.9089594,0.57157421,0.8119756,0.11831594,0
-1.4605732,2.1383309,-3.7106206,-0.39970779,0.40144336,-0.82406121,0
0.06937933,-0.63785511,0.20125359,-0.22069007,-0.91470069,-0.33855373,0
0.66392046,-0.23984885,0.22423258,0.89100718,-0.040967345,-0.45213699,0
-1.6732466,1.9252038,-3.7112894,-0.39970779,0.40144336,-0.82406121,0
-1.3987241,2.0568457,-3.7803161,-0.39970779,0.40144336,-0.82406121,0
-0.82901871,0.82170224,-2.5804079,0.57045048,-0.59475988,-0.56643355,0
-0.26186931,0.20497978,-1.3597178,0.52145702,-0.63977432,-0.56459838,0
1.8124461,-1.8098564,3.6999636,0.39970779,-0.40144336,0.82406121,0
-0.67063409,1.3575811,-1.8571615,0.5321337,0.83362561,0.14799327,0
1.7166255,-1.6607819,3.8190627,0.39970779,-0.40144336,0.82406121,0
-1.7686059,1.7000945,-2.6902285,-0.65425581,0.50471383,0.56321687,0
1.6427307,-2.0255632,3.677201,0.39970779,-0.40144336,0.82406121,0
1.4771011,-1.732964,3.9000797,0.39970779,-0.40144336,0.82406121,0
-1.4543159,1.602612,-3.9746325,-0.39970779,0.40144336,-0.82406121,0
1.3435867,-2.0313826,3.7129099,-0.84000146,-0.52027464,0.15398651,0
-2.1035025,1.9129968,-3.2840505,-0.757523,0.3615334,0.5435555,0
1.9190736,-1.4112034,3.8424489,0.39970779,-0.40144336,0.82406121,0
2.1581714,-2.0068765,3.4362917,0.39970779,-0.40144336,0.82406121,0
-1.0481172,0.37050927,-1.2186369,-0.83962476,-0.52104747,0.1534273,0
-2.0454159,1.6616349,-3.659169,-0.39970779,0.40144336,-0.82406121,0
-1.4862349,2.0603848,-3.1210363,0.21968651,0.9147526,0.33906579,0
-0.16593479,-0.15962923,0.77772778,-0.84241796,0.19350675,0.50287896,0
0.8620066,-0.61123538,2.3385262,-0.28812838,0.79840839,0.5287022,0
0.1733854,0.44480479,-0.7103616,0.90207827,0.3318907,-0.2758683,0
-1.4128299,1.8818932,-3.8587027,-0.39970779,0.40144336,-0.82406121,0
1.0842595,-0.38615394,1.3979175,0.77723587,0.62501657,-0.072517037,0
1.7205848,-2.1219068,3.5925045,0.39970779,-0.40144336,0.82406121,0
-2.0934782,1.7125258,-3.6110644,-0.39970779,0.40144336,-0.82406121,0
0.30461183,0.34164086,-0.39796627,0.88369679,0.40761667,-0.23006237,0
2.1249776,-1.4548512,3.4295595,0.84478271,0.51025617,-0.16118622,0
1.5533698,-1.7218518,3.8684988,0.39970779,-0.40144336,0.82406121,0
1.3437597,-2.0312052,3.2315369,-0.52254111,-0.83841091,-0.15497726,0
0.64116234,-0.69705462,0.49647397,0.52669269,-0.63519621,-0.56490767,0
1.4348779,-1.8612304,3.8580747,0.39970779,-0.40144336,0.82406121,0
-1.8948386,1.3519416,-3.8830736,-0.39970779,0.40144336,-0.82406121,0
-2.0925984,1.6675611,-3.6333961,-0.39970779,0.40144336,-0.82406121,0
-0.2891174,0.87099385,-0.68857092,0.24727511,0.91289324,0.32477829,0
1.7879655,-1.9113059,3.6624165,0.39970779,-0.40144336,0.82406121,0
1.6179237,-1.814363,3.7921207,0.39970779,-0.40144336,0.82406121,0
1.4364235,-2.0250583,3.7775159,0.39970779,-0.40144336,0.82406121,0
-2.0164158,2.1144056,-3.4526668,-0.39970779,0.40144336,-0.82406121,0
-1.7705109,1.8211455,-3.7148046,-0.39970779,0.40144336,-0.82406121,0
1.2023804,-1.5361419,3.5995893,-0.84370923,0.19029292,0.50193971,0
-0.27957138,-0.31832036,-0.43020713,-0.28855956,-0.90839887,-0.30256394,0
1.6977742,-1.5776634,3.8686981,0.39970779,-0.40144336,0.82406121,0
1.5671639,-1.081974,2.0885773,0.91045409,0.06958203,-0.4077152,0
1.4640739,-1.6159058,3.9634233,0.39970779,-0.40144336,0.82406121,0
1.4206197,-1.7416086,3.9232645,0.39970779,-0.40144336,0.82406121,0
-2.1977451,1.9470706,-3.4462314,-0.39970779,0.40144336,-0.82406121,0
1.8269603,-2.2450552,3.4809151,0.39970779,-0.40144336,0.82406121,0
-0.057197541,0.27916649,0.49182191,-0.33052462,0.77540112,0.53805828,0
1.4690542,-1.8284535,3.8574648,0.39970779,-0.40144336,0.82406121,0
1.5097828,-1.8916154,3.8069398,0.39970779,-0.40144336,0.82406121,0
-1.8130647,2.2140551,-3.5027566,-0.39970779,0.40144336,-0.82406121,0
-0.91011012,1.0057249,-2.8460214,0.66821289,-0.48778889,-0.56174171,0
1.6945825,-1.9197564,2.8782957,0.33547479,-0.77256274,-0.53907651,0
-0.84351528,0.17876071,-0.75688428,-0.86152136,-0.47157222,0.18815017,0
0.40034068,0.10556218,-0.31374934,0.91332424,0.097992346,-0.39526731,0
-0.11362812,0.82257199,-0.98514527,0.72201312,0.69175303,-0.013220608,0
-0.55163044,0.54135823,-2.0066864,0.56867534,-0.59647954,-0.56641018,0
0.054344565,-0.76318192,0.8328411,-0.7022447,-0.71190888,-0.0061869621,0
0.41671404,0.26581034,-0.07549727,0.83531338,0.52972716,-0.14710772,0
-0.87097502,0.7630949,-2.5521357,0.46251118,-0.68784332,-0.5594238,0
1.8809688,-1.2631102,3.6461804,0.35356486,0.89695275,0.26545739,0
-1.4950254,1.0226383,-3.2391815,-0.050288916,-0.90724921,-0.41757619,0
1.3009855,-2.0122957,3.3287106,-0.65236872,-0.7561214,-0.051917374,0
-1.8687775,2.0058713,-3.1178675,-0.44274616,0.70262647,0.55703855,0
1.9732687,-1.7571855,3.6476159,0.39970779,-0.40144336,0.82406121,0
2.080956,-2.0022621,3.4759924,0.39970779,-0.40144336,0.82406121,0
0.38040954,-0.97587657,1.8780599,-0.9111172,-0.27255705,0.30915713,0
0.82616162,-1.5374587,2.4780836,-0.73754418,-0.67467272,0.029074669,0
1.3170027,-0.72143173,2.5624516,0.29359847,0.9077062,0.29978237,0
-0.5379625,-0.075873785,-0.037995994,-0.90334725,-0.32507467,0.27980435,0
2.0865731,-2.0553565,3.447403,0.39970779,-0.40144336,0.82406121,0
1.8817792,-1.3875875,3.8720431,0.39970779,-0.40144336,0.82406121,0
-1.5681314,1.7174044,-3.8635051,-0.39970779,0.40144336,-0.82406121,0
0.14142685,-0.07398665,1.0999541,-0.5106945,0.64902073,0.56388235,0
0.40040594,-0.3858124,1.6910421,-0.56494921,0.60006654,0.56635028,0
0.73289573,-0.042690098,0.61407036,0.81337774,0.56986648,-0.11691403,0
-2.0104775,2.0833411,-3.4706802,-0.39970779,0.40144336,-0.82406121,0
0.59153193,-0.27949822,1.6861042,-0.20639706,0.83649766,0.50761396,0
2.145509,-1.9421611,3.4739594,0.39970779,-0.40144336,0.82406121,0
1.973699,-2.026443,3.516238,0.39970779,-0.40144336,0.82406121,0
-1.6096679,1.4429502,-3.9770598,-0.39970779,0.40144336,-0.82406121,0
0.38601929,-1.0764461,1.7134782,-0.8255437,-0.54837257,0.13328582,0
-1.3493356,1.5309658,-3.8180883,0.73903525,-0.39070216,-0.54879773,0
1.7779708,-1.7343426,3.7534726,0.39970779,-0.40144336,0.82406121,0
-1.834854,1.492723,-3.8435869,-0.39970779,0.40144336,-0.82406121,0
-1.7232383,1.1037755,-3.3178799,-0.3559114,-0.89643496,-0.26406702,0
1.7510571,-1.6211152,3.8216856,0.39970779,-0.40144336,0.82406121,0
-1.9881684,1.2882576,-3.383358,-0.69877851,-0.71527505,-0.0095080137,0
0.81408525,-0.40014935,1.9612246,-0.052363038,0.88753164,0.45776165,0
1.6646008,-1.6914439,3.82936,0.39970779,-0.40144336,0.82406121,0
0.87122214,-1.5836353,2.5212135,-0.70505321,-0.7091459,-0.0034787655,0
2.0102155,-1.822648,3.5978043,0.39970779,-0.40144336,0.82406121,0
2.1481268,-1.6671391,3.6066675,0.39970779,-0.40144336,0.82406121,0
1.9995499,-1.3504405,3.1160102,0.87406868,0.43771902,-0.21072781,0
1.6168416,-2.0751662,3.6655943,0.39970779,-0.40144336,0.82406121,0
0.6235649,0.050581813,0.84925079,0.50465453,0.84686291,0.16777056,0
0.89190781,-1.5802386,2.3157451,-0.53384608,-0.83275247,-0.14673734,0
-1.762049,2.209115,-3.5299087,-0.39970779,0.40144336,-0.82406121,0
-1.2496179,0.56962276,-2.0938392,-0.53778571,-0.83072108,-0.1438368,0
-0.033254225,-0.3914752,1.0757904,-0.89021045,0.044328511,0.45338798,0
-0.14398932,0.78764153,-1.3306254,0.88737315,0.39482754,-0.23807585,0
1.5479156,-1.7748361,3.8453331,0.39970779,-0.40144336,0.82406121,0
-1.6359406,2.0367694,-3.6750355,-0.39970779,0.40144336,-0.82406121,0
-1.8123186,1.9512014,-3.6311684,-0.39970779,0.40144336,-0.82406121,0
-0.44513905,0.64429188,-0.27328178,-0.36124635,0.75725484,0.54411972,0
-1.6464273,1.5367808,-3.9135199,-0.39970779,0.40144336,-0.82406121,0
-0.40897375,-0.28099898,0.061481833,-0.81794751,-0.56199795,0.12296367,0
-1.5937129,1.7200665,-3.8498006,-0.39970779,0.40144336,-0.82406121,0
-0.76303774,0.065908432,-0.71720487,-0.78863758,-0.60882324,0.08593595,0
-0.60880184,0.3803122,-0.18254057,-0.78077006,0.32189393,0.53552097,0
-1.4250835,1.8011804,-2.566524,-0.12602913,0.86639392,0.48319584,0
-1.0142051,1.1802375,-3.1169028,0.72773713,-0.40763998,-0.55156898,0
-2.0934935,1.7913227,-3.5726709,-0.39970779,0.40144336,-0.82406121,0
-1.9110103,2.1539264,-3.4845409,-0.39970779,0.40144336,-0.82406121,0
-1.41247,2.0651355,-3.7696109,-0.39970779,0.40144336,-0.82406121,0
-2.1278157,1.6022673,-3.6481218,-0.39970779,0.40144336,-0.82406121,0
-1.9149637,1.5802231,-3.762104,-0.39970779,0.40144336,-0.82406121,0
-1.3236827,2.0360627,-3.5238492,0.75040466,0.65960103,-0.042654753,0
-2.0489032,2.1191583,-3.4345934,-0.39970779,0.40144336,-0.82406121,0
-1.6177819,0.99884796,-2.2763207,-0.89851332,-0.34950203,0.26555979,0
-1.871954,1.9000368,-3.6271679,-0.39970779,0.40144336,-0.82406121,0
-1.488609,1.8399463,-3.842381,-0.39970779,0.40144336,-0.82406121,0
2.140831,-1.8177238,3.536849,0.39970779,-0.40144336,0.82406121,0
-0.83100891,1.5060127,-2.6877303,0.85741502,0.4816519,-0.18124801,0
-1.584794,2.091639,-3.6731138,-0.39970779,0.40144336,-0.82406121,0
-2.205457,1.6513333,-3.5865598,-0.39970779,0.40144336,-0.82406121,0
0.70516747,-1.1661333,1.2522275,-0.014151096,-0.90159476,-0.4323501,0
1.1387086,-0.5547564,1.2496358,0.91231084,0.26152116,-0.31511223,0
-1.789149,1.5637197,-3.8311696,-0.39970779,0.40144336,-0.82406121,0
-2.0478146,2.0208035,-3.4830356,-0.39970779,0.40144336,-0.82406121,0
1.9108117,-1.7296002,2.8936276,0.74976587,-0.3740043,-0.5458681,0
1.8301615,-1.1774731,3.4115069,0.45026264,0.8690533,0.20496321,0
-1.8489906,1.3998265,-3.8819847,-0.39970779,0.40144336,-0.82406121,0
1.9831423,-1.7650409,3.6389999,0.39970779,-0.40144336,0.82406121,0
1.4956222,-1.9460578,3.7872868,0.39970779,-0.40144336,0.82406121,0
2.1613646,-1.6227112,3.6218901,0.39970779,-0.40144336,0.82406121,0
1.8717169,-1.9853673,3.5857136,0.39970779,-0.40144336,0.82406121,0
0.66970384,-1.1637511,2.523226,-0.91027474,-0.0680518,0.40837365,0
-1.5961795,2.0326405,-3.6963327,-0.39970779,0.40144336,-0.82406121,0
1.393767,-1.2251244,3.5487652,-0.38879746,0.73987615,0.54901713,0
1.7046149,-2.1249847,3.2227807,0.059536576,-0.88573146,-0.46036416,0
-0.66728044,1.2662666,-1.5128733,0.28165901,0.9092958,0.30634803,0
-0.93553627,0.71669471,-0.86117232,-0.77482414,0.33238098,0.53774571,0
