-0.54281747,0.23131123,-0.074932396,-0.6931951,0.32675898,-0.64242411,0
-0.74952948,-0.13754821,-0.039498568,-0.6931951,0.32675898,-0.64242411,0
0.19919932,0.43959248,0.74310285,-0.17049491,0.79168981,0.58665019,0
-0.75671399,-0.13845569,-0.032207847,-0.6931951,0.32675898,-0.64242411,0
0.59095997,0.15602005,0.21999529,0.6931951,-0.32675898,0.64242411,0
-0.019088626,-0.38806537,-0.73491764,0.30594856,-0.6736362,-0.67276251,0
-0.14465578,0.31966442,-0.45962143,-0.6931951,0.32675898,-0.64242411,0
0.014811456,-0.75623113,-0.13762797,-0.13641179,-0.93469715,-0.32822698,0
0.40065652,-0.60184187,-0.32970846,0.29151833,-0.68805623,-0.6645264,0
0.63447344,-0.4649851,-0.31157047,0.48403186,-0.44937193,-0.75085127,0
-0.38911003,0.29437745,0.56959206,-0.51881331,0.39250317,0.7594561,0
0.043251872,-0.11793914,-0.88495982,-0.6931951,0.32675898,-0.64242411,0
-0.15347722,-0.24966297,-0.7396825,-0.6931951,0.32675898,-0.64242411,0
0.61182892,-0.51716006,-0.29190007,0.44091034,-0.51284415,-0.73660606,0
-0.69385815,-0.43739301,0.0091658235,-0.61813408,-0.72790951,0.29674524,0
0.42751604,0.50003678,0.57133514,0.6931951,-0.32675898,0.64242411,0
-0.46462667,0.32005858,-0.11416264,-0.6931951,0.32675898,-0.64242411,0
-0.78173745,-0.28815889,0.10777265,-0.69248188,-0.54911715,0.46790874,0
0.83597022,-0.097035646,-0.17309099,0.6931951,-0.32675898,0.64242411,0
0.39490378,0.54944158,-0.34855282,0.6464228,0.67607749,-0.35363328,0
0.43784565,-0.38876793,-0.48373395,0.47308296,-0.46617004,-0.74758118,0
-0.2196371,-0.4588697,-0.7216475,0.13777757,-0.81481558,-0.56310976,0
-0.27807909,-0.43658385,0.65852582,-0.71547282,-0.41962647,0.55858028,0
-0.38966689,-0.61069238,0.203264,-0.57502615,-0.78810889,0.21961111,0
0.19212899,0.35185069,0.74995232,0.6931951,-0.32675898,0.64242411,0
-0.029240847,0.51886272,0.56850111,-0.20110857,0.76823765,0.60775483,0
-0.46325696,0.046614081,-0.25472397,-0.6931951,0.32675898,-0.64242411,0
-0.74247634,0.27133074,0.31427145,-0.61892855,0.18687311,0.76289278,0
-0.16077316,0.35678932,0.67131019,-0.40220577,0.56426406,0.72099662,0
-0.21047068,0.42430592,0.58904934,-0.36739385,0.60664123,0.70498788,0
0.10927409,0.56862092,0.52925062,-0.066834271,0.85834521,0.50870055,0
-0.15426204,-0.19682056,-0.71195823,-0.6931951,0.32675898,-0.64242411,0
-0.058923841,-0.73235744,0.46937996,0.6931951,-0.32675898,0.64242411,0
-0.12542517,-0.37669605,0.72203875,0.6931951,-0.32675898,0.64242411,0
-0.8183887,-0.20761928,-0.0008379221,-0.6931951,0.32675898,-0.64242411,0
-0.33744314,-0.57968348,-0.49304688,-0.11604232,-0.93029678,-0.34796816,0
-0.42585212,-0.380575,0.51097268,-0.71329892,-0.43884921,0.54645723,0
-0.29252279,0.56782776,-0.17384388,-0.6931951,0.32675898,-0.64242411,0
-0.33628017,0.40601942,0.53393072,-0.42732966,0.53143966,0.73141026,0
0.52790445,-0.29941455,0.056384251,0.6931951,-0.32675898,0.64242411,0
0.002384685,-0.30130905,0.62247252,0.6931951,-0.32675898,0.64242411,0
0.032659411,0.47082728,0.64920729,-0.22066194,0.75231224,0.62075305,0
-0.313384,0.58042538,-0.14492644,-0.6931951,0.32675898,-0.64242411,0
-0.059097886,0.78747976,0.066006213,0.15770137,0.93849212,0.30718514,0
0.097605348,-0.44894224,0.44463503,0.6931951,-0.32675898,0.64242411,0
-0.61638737,-0.1131877,-0.17077234,-0.6931951,0.32675898,-0.64242411,0
-0.33221763,0.59109151,0.37034848,-0.27149224,0.70729691,0.65270418,0
-0.047653764,0.091320574,-0.68043315,-0.6931951,0.32675898,-0.64242411,0
-0.53275269,0.02636537,-0.19003513,-0.6931951,0.32675898,-0.64242411,0
-0.18748987,0.67497027,0.30824792,-0.10904241,0.83352208,0.54161835,0
-0.88221419,-0.097073615,0.13466448,-0.72033399,-0.3443585,0.60210949,0
0.23269767,-0.29377919,0.37778762,0.6931951,-0.32675898,0.64242411,0
-0.44943756,-0.31004959,-0.45104712,-0.6931951,0.32675898,-0.64242411,0
-0.39176524,0.10976487,-0.29974499,-0.6931951,0.32675898,-0.64242411,0
0.47971326,0.47149104,-0.33370769,0.67280877,0.6130091,-0.41418344,0
-0.41367409,0.196518,-0.23197907,-0.6931951,0.32675898,-0.64242411,0
-0.26335561,0.26525664,0.66988117,-0.50005388,0.42387021,0.75516856,0
-0.37111548,0.21947771,-0.26622298,-0.6931951,0.32675898,-0.64242411,0
-0.55600417,-0.56622338,-0.17529395,-0.45203274,-0.89133799,0.034391522,0
-0.16401798,-0.56475329,-0.54174131,0.037501216,-0.87376851,-0.48489395,0
0.32866424,-0.31882754,0.26149637,0.6931951,-0.32675898,0.64242411,0
0.57591122,0.51246172,0.41753206,0.6931951,-0.32675898,0.64242411,0
-0.35939038,0.034492821,0.6807788,-0.64273536,0.12308389,0.75613558,0
-0.59590095,-0.28619778,-0.28087676,-0.6931951,0.32675898,-0.64242411,0
0.58551204,-0.3660976,-0.039693356,0.6931951,-0.32675898,0.64242411,0
0.6612671,0.39498872,-0.15163034,0.66734445,0.62768984,-0.40082002,0
0.32381359,-0.38950917,0.23077923,0.6931951,-0.32675898,0.64242411,0
0.6989156,-0.043824404,0.001860112,0.6931951,-0.32675898,0.64242411,0
0.79124314,0.26350147,-0.1214298,0.69972837,0.51879925,-0.49114871,0
0.28432864,-0.69455934,-0.25729322,0.13994551,-0.81334394,-0.56470048,0
-0.1618982,-0.752823,0.14154822,-0.4235445,-0.90586746,-0.0037383437,0
-0.18905976,-0.20592889,-0.67904323,-0.6931951,0.32675898,-0.64242411,0
-0.72102553,0.15779313,0.079965681,-0.6931951,0.32675898,-0.64242411,0
0.58552319,0.54034698,0.079566479,0.52150369,0.84264177,-0.13412142,0
0.22260052,-0.55160725,-0.45855758,0.25986737,-0.71806663,-0.64563841,0
0.058826983,0.69674569,-0.48738885,-0.6931951,0.32675898,-0.64242411,0
-0.66338867,0.19993639,0.039209217,-0.6931951,0.32675898,-0.64242411,0
0.22672141,-0.51044935,0.27403039,0.6931951,-0.32675898,0.64242411,0
-0.14346975,0.36942026,0.67070472,-0.38604659,0.58436346,0.71378362,0
-0.80323505,0.0054551661,0.26292306,-0.71082067,-0.1624987,0.68434453,0
0.75485891,0.043768585,-0.01395154,0.6931951,-0.32675898,0.64242411,0
0.31245869,0.24402648,0.56526971,0.6931951,-0.32675898,0.64242411,0
-0.42093703,0.42157426,-0.10967062,-0.6931951,0.32675898,-0.64242411,0
0.53849238,0.29324314,-0.43189597,0.71798986,0.39099085,-0.57586133,0
-0.095039308,0.53326464,0.52813685,-0.21836686,0.75422049,0.6192472,0
0.29886889,0.20611265,0.56064928,0.6931951,-0.32675898,0.64242411,0
0.058775961,-0.71155643,-0.25451276,-0.023065686,-0.90092808,-0.43335479,0
0.37298054,-0.53251672,-0.41031426,0.34114689,-0.63641119,-0.69180864,0
0.54633164,-0.21850425,0.077654526,0.6931951,-0.32675898,0.64242411,0
0.12231141,-0.58643401,-0.45146483,0.17567348,-0.78784752,-0.59028375,0
0.54714715,-0.50365806,-0.06826438,0.6931951,-0.32675898,0.64242411,0
0.096228004,-0.26784313,0.53823459,0.6931951,-0.32675898,0.64242411,0
0.76428652,-0.14544639,-0.12036556,0.6931951,-0.32675898,0.64242411,0
0.1791341,-0.32602346,0.41918385,0.6931951,-0.32675898,0.64242411,0
0.36842141,0.044281304,0.40328693,0.6931951,-0.32675898,0.64242411,0
-0.11542761,0.30781299,0.73429275,-0.42298591,0.53725767,0.72968245,0
0.29575157,0.49358597,0.67994517,-0.049811363,0.867477,0.49497688,0
-0.044088781,0.74245328,0.18307444,0.084987521,0.92216605,0.3773416,0
-0.44508684,-0.46645367,0.39549297,-0.68398988,-0.57925904,0.44341439,0
0.12672679,0.57625484,-0.62194061,-0.6931951,0.32675898,-0.64242411,0
0.38184997,0.63234675,0.2595613,0.30134127,0.94107831,0.15350878,0
-0.079435408,-0.23847759,0.74271703,0.6931951,-0.32675898,0.64242411,0
0.19601536,-0.62299418,0.24991876,0.6931951,-0.32675898,0.64242411,0
0.063518524,0.48602033,0.64053917,-0.18955243,0.77730042,0.5998947,0
-0.8415947,-0.21707873,0.09740603,-0.70631915,-0.4854418,0.51522714,0
-0.4790082,-0.10748235,0.57132614,-0.70347607,-0.11276507,0.70171583,0
-0.10203207,0.82866025,-0.04347536,0.20540684,0.94392747,0.25847411,0
-0.38719043,0.071489185,-0.32414979,-0.6931951,0.32675898,-0.64242411,0
0.34573716,0.24629527,0.53051519,0.6931951,-0.32675898,0.64242411,0
0.4297303,0.51689744,0.5775218,0.6931951,-0.32675898,0.64242411,0
-0.58037603,0.11613961,0.47926712,-0.65148962,0.097181752,0.75240719,0
-0.29185283,0.16636348,-0.37876546,-0.6931951,0.32675898,-0.64242411,0
-0.31527513,-0.36847866,-0.62553144,-0.6931951,0.32675898,-0.64242411,0
-0.66773671,0.37315688,0.13200688,-0.6931951,0.32675898,-0.64242411,0
0.13972954,-0.05767262,0.59819508,0.6931951,-0.32675898,0.64242411,0
-0.20592746,-0.73207426,0.10246736,-0.4245697,-0.90539199,-0.0023902655,0
0.18121569,0.63389117,-0.57593441,0.65893012,0.64847654,-0.38116783,0
0.65795928,-0.045370996,-0.41229576,0.68683439,0.029277217,-0.72622365,0
-0.60431242,-0.53887713,-0.3772347,-0.3573283,-0.9298802,-0.08740133,0
-0.62438941,0.23431668,0.01461488,-0.6931951,0.32675898,-0.64242411,0
0.14790684,0.63152802,0.40862712,0.050545096,0.91117185,0.40891403,0
-0.39214319,0.51302212,-0.094226517,-0.6931951,0.32675898,-0.64242411,0
0.50696272,0.14464355,-0.53490669,0.71243685,0.17565899,-0.67939466,0
-0.34524003,-0.61436385,0.29908025,-0.60225558,-0.75224596,0.26723361,0
-0.79803407,-0.38528511,-0.11316824,-0.6931951,0.32675898,-0.64242411,0
-0.082038403,0.52743763,-0.42150685,-0.6931951,0.32675898,-0.64242411,0
0.17376417,0.40836,-0.75809258,-0.6931951,0.32675898,-0.64242411,0
-0.019885302,-0.76901281,-0.077379763,-0.20007789,-0.94353563,-0.26402494,0
-0.074927561,-0.63104326,0.53818023,0.6931951,-0.32675898,0.64242411,0
-0.49672413,-0.51766115,0.22110969,-0.63167816,-0.70464891,0.32319099,0
-0.51819575,0.57419205,0.072901063,-0.6931951,0.32675898,-0.64242411,0
-0.55235583,-0.53215873,0.059012175,-0.57834113,-0.78408599,0.22523421,0
0.6804381,0.14887622,0.11981207,0.6931951,-0.32675898,0.64242411,0
-0.75659716,0.13226962,0.10536641,-0.6931951,0.32675898,-0.64242411,0
0.50375468,-0.31211179,0.075984322,0.6931951,-0.32675898,0.64242411,0
-0.59458262,-0.19182017,-0.23429555,-0.6931951,0.32675898,-0.64242411,0
0.14980042,-0.76940691,0.22531542,0.6931951,-0.32675898,0.64242411,0
0.1854569,-0.15869355,0.49747109,0.6931951,-0.32675898,0.64242411,0
0.61050296,-0.10058266,0.068390787,0.6931951,-0.32675898,0.64242411,0
0.3809875,-0.23276183,0.24881405,0.6931951,-0.32675898,0.64242411,0
0.062082648,-0.64826488,-0.37234849,0.068306327,-0.85753202,-0.50987524,0
0.12729919,-0.090349227,-0.8491894,0.56510687,-0.30683762,-0.7658357,0
-0.10031211,-0.76903009,0.37033457,-0.52162796,-0.84253478,0.13430995,0
-0.72984362,-0.10416254,-0.043759167,-0.6931951,0.32675898,-0.64242411,0
0.73084688,-0.19825915,-0.3382777,0.64719605,-0.11007831,-0.75433379,0
0.2712391,-0.56275022,-0.42642418,0.27111131,-0.70765436,-0.65247494,0
-0.78456151,-0.073697507,0.25831205,-0.71905386,-0.25241825,0.64749211,0
0.17989749,-0.80689967,-0.056163564,-0.08574003,-0.92238307,-0.37664011,0
0.65845132,0.49050465,0.070619643,0.56227601,0.80280185,-0.19837993,0
-0.42377055,0.17182264,0.59536242,-0.59513509,0.24328898,0.76591402,0
-0.37774184,-0.65093613,-0.072506845,-0.41517684,-0.90962219,-0.014677167,0
-0.38781071,-0.016713262,-0.36834326,-0.6931951,0.32675898,-0.64242411,0
-0.37625378,-0.60844773,-0.38009679,-0.21867728,-0.9446618,-0.24452835,0
0.19919747,-0.39789504,-0.61724854,0.38430554,-0.58648378,-0.71298361,0
0.07849586,-0.63661498,0.36979792,0.6931951,-0.32675898,0.64242411,0
0.28445378,-0.18501496,0.37726259,0.6931951,-0.32675898,0.64242411,0
-0.58532798,0.24916452,-0.019981384,-0.6931951,0.32675898,-0.64242411,0
-0.30038476,0.64233911,-0.12746149,-0.6931951,0.32675898,-0.64242411,0
-0.25419223,0.28398752,0.66503823,-0.48517436,0.44759014,0.75117779,0
0.70313513,0.34655631,-0.1540581,0.68315822,0.58197325,-0.44113654,0
0.078976989,0.46283412,0.67509878,-0.20636797,0.76402777,0.61128843,0
-0.084533721,-0.10258213,-0.73926419,-0.6931951,0.32675898,-0.64242411,0
0.11616582,0.39683729,0.76701337,-0.25511712,0.72238481,0.64270914,0
-0.16904682,0.75975847,0.16011627,0.017294765,0.89861166,0.43840358,0
-0.095453829,-0.24698061,0.75567645,0.6931951,-0.32675898,0.64242411,0
0.047341287,0.5125944,0.6004492,-0.16892755,0.79284275,0.58554542,0
-0.031773597,0.83022153,-0.32173753,-0.6931951,0.32675898,-0.64242411,0
-0.48989785,-0.53171456,-0.5201357,-0.6931951,0.32675898,-0.64242411,0
0.094162852,-0.22834218,0.5605545,0.6931951,-0.32675898,0.64242411,0
-0.36809695,0.76818466,0.0096114129,-0.6931951,0.32675898,-0.64242411,0
0.038497508,-0.094403088,-0.86785847,-0.6931951,0.32675898,-0.64242411,0
-0.20980483,0.4454104,0.57081145,-0.34972972,0.62687248,0.69621807,0
-0.39934573,-0.055848032,-0.37580195,-0.6931951,0.32675898,-0.64242411,0
-0.16591556,-0.48732895,0.70945728,0.6931951,-0.32675898,0.64242411,0
-0.6943419,0.027650952,-0.015021712,-0.6931951,0.32675898,-0.64242411,0
0.1757441,-0.43832266,0.36572242,0.6931951,-0.32675898,0.64242411,0
-0.069402993,0.25103796,0.80177438,-0.44832247,0.50242764,0.73930568,0
-0.56813204,0.28548294,-0.020063505,-0.6931951,0.32675898,-0.64242411,0
0.65186882,0.35445228,-0.22209114,0.69042945,0.5568524,-0.46175981,0
0.61271352,0.27853081,-0.34863538,0.71551776,0.41918829,-0.55885148,0
0.73983711,0.23493595,-0.21807235,0.71287847,0.44220403,-0.54429716,0
-0.12075439,-0.76710594,0.29123122,-0.48823702,-0.86855733,0.085044086,0
-0.32806933,0.2941401,-0.27469516,-0.6931951,0.32675898,-0.64242411,0
0.75429183,0.42163008,0.080252826,0.6021384,0.75241536,-0.26702106,0
-0.031407103,-0.67145824,0.47066396,0.6931951,-0.32675898,0.64242411,0
0.71642947,0.2433036,0.12900534,0.6931951,-0.32675898,0.64242411,0
-0.64923835,0.22754985,0.037985712,-0.6931951,0.32675898,-0.64242411,0
-0.25056094,-0.0070737004,-0.51153696,-0.6931951,0.32675898,-0.64242411,0
0.19531184,0.66547984,-0.4876101,0.6257897,0.71507609,-0.31153345,0
-0.42612454,-0.22518532,0.59695321,-0.71761072,-0.2298018,0.65743858,0
0.44738424,0.59363288,-0.10969776,0.55429482,0.81141096,-0.18538904,0
-0.57085276,0.29388317,-0.012855113,-0.6931951,0.32675898,-0.64242411,0
-0.29383934,-0.68113029,0.1684348,-0.50924468,-0.85280579,0.11572373,0
0.36549726,0.21321583,0.49236816,0.6931951,-0.32675898,0.64242411,0
0.43715554,0.56734025,0.48147053,0.18825305,0.94247049,0.27624252,0
-0.32816854,-0.41866842,-0.63714737,-0.6931951,0.32675898,-0.64242411,0
0.49623773,-0.29845667,0.091040827,0.6931951,-0.32675898,0.64242411,0
-0.53162563,-0.57329261,-0.088163793,-0.48901719,-0.86800772,0.086165428,0
-0.22480616,0.41260302,-0.32586491,-0.6931951,0.32675898,-0.64242411,0
0.86667138,-0.042301893,-0.178379,0.6931951,-0.32675898,0.64242411,0
-0.25543654,-0.032278597,-0.51909608,-0.6931951,0.32675898,-0.64242411,0
-0.20543458,-0.65809423,0.48415738,-0.62852049,-0.7103036,0.31690758,0
0.099194869,-0.56150454,0.38566688,0.6931951,-0.32675898,0.64242411,0
-0.23602854,-0.69469297,0.29920423,-0.55094528,-0.81489795,0.18000114,0
0.0091158152,-0.82628804,0.17394066,-0.34651405,-0.93264782,-0.10047793,0
-0.47345236,0.1224719,-0.20513889,-0.6931951,0.32675898,-0.64242411,0
-0.3611674,-0.50723457,-0.64658839,-0.6931951,0.32675898,-0.64242411,0
-0.49536932,-0.55653006,-0.4737303,-0.22990537,-0.94501066,-0.23259041,0
-0.32410508,0.83218241,0.017781571,0.016281486,0.89819908,0.43928707,0
-0.011615038,0.043331772,0.81287479,0.6931951,-0.32675898,0.64242411,0
0.30041492,0.32082021,0.61732543,0.6931951,-0.32675898,0.64242411,0
0.24548145,-0.10398531,0.46052939,0.6931951,-0.32675898,0.64242411,0
0.64205122,-0.47770619,-0.29900852,0.47797984,-0.45871794,-0.7490747,0
0.15649804,-0.69547004,0.25569546,0.6931951,-0.32675898,0.64242411,0
-0.28692782,-0.68842506,-0.083744854,-0.35692453,-0.92998904,-0.087892354,0
0.52818739,0.21242768,0.31641966,0.6931951,-0.32675898,0.64242411,0
0.017622709,0.22118354,0.87178802,0.6931951,-0.32675898,0.64242411,0
-0.20433998,0.44801354,0.5711872,-0.34538144,0.63172829,0.69399607,0
-0.3600595,0.38643599,0.53349954,-0.44945848,0.50081396,0.73971069,0
-0.13706201,-0.009999454,-0.63549376,-0.6931951,0.32675898,-0.64242411,0
0.32429382,0.11432993,-0.72142041,0.6875037,0.032184996,-0.72546697,0
0.38631856,-0.071451738,-0.65143877,0.63280368,-0.1507563,-0.7594943,0
0.76783925,0.071938306,-0.013629675,0.6931951,-0.32675898,0.64242411,0
0.14067078,0.50422001,0.63658512,-0.1282692,0.82116961,0.55608189,0
0.31358004,-0.45580244,-0.50794774,0.38114369,-0.5903129,-0.71151924,0
0.15734011,-0.85854769,0.10895067,-0.21500182,-0.94449306,-0.24840859,0
-0.3294439,-0.6709953,0.071240842,-0.4731344,-0.87869197,0.06359303,0
0.58216029,-0.47339112,-0.33942831,0.46179998,-0.48297948,-0.74395645,0
0.16607639,-0.44634444,0.37207404,0.6931951,-0.32675898,0.64242411,0
0.17450981,-0.1376068,0.52000886,0.6931951,-0.32675898,0.64242411,0
-0.65454972,0.19380197,0.026551664,-0.6931951,0.32675898,-0.64242411,0
0.60336846,-0.57489759,-0.2536374,0.39489371,-0.57345372,-0.71778083,0
0.22337212,-0.22118378,0.42477483,0.6931951,-0.32675898,0.64242411,0
0.7043792,-0.17833909,-0.36385167,0.65006453,-0.1015055,-0.75306851,0
-0.23280869,0.35326183,-0.34741297,-0.6931951,0.32675898,-0.64242411,0
-0.49680853,0.24530131,-0.11746161,-0.6931951,0.32675898,-0.64242411,0
-0.28880152,-0.13378805,-0.53472549,-0.6931951,0.32675898,-0.64242411,0
-0.78868163,0.14098188,0.29156506,-0.67681664,0.011321675,0.73606414,0
0.050849199,0.79394382,-0.084659815,0.32526791,0.93722582,0.12573171,0
-0.25774974,-0.60203195,-0.45824024,-0.088259995,-0.92310297,-0.37428707,0
0.39640909,0.016148537,0.35877806,0.6931951,-0.32675898,0.64242411,0
0.17111072,0.58130473,-0.66726369,-0.6931951,0.32675898,-0.64242411,0
0.6462369,0.046298355,0.10454154,0.6931951,-0.32675898,0.64242411,0
0.38121462,0.63035876,0.27256149,0.29258168,0.94215733,0.16350946,0
0.62446684,-0.32441786,-0.060527116,0.6931951,-0.32675898,0.64242411,0
-0.64638096,-0.045326024,-0.10389155,-0.6931951,0.32675898,-0.64242411,0
-0.63064289,0.39788213,0.35102007,-0.52506834,0.38165271,0.76068652,0
0.5232603,-0.43694639,-0.39959106,0.46773303,-0.47420231,-0.74589384,0
-0.074446559,-0.64697623,-0.38166937,-0.020335674,-0.8998394,-0.43574685,0
0.20566559,-0.7990526,-0.0790371,-0.051940382,-0.91165727,-0.40765536,0
0.07416299,0.13165593,-0.79136109,-0.6931951,0.32675898,-0.64242411,0
-0.32119775,-0.37245658,-0.62116408,-0.6931951,0.32675898,-0.64242411,0
-0.068796217,0.15926254,0.85805607,-0.50903761,0.40906161,0.75733006,0
0.75821835,0.17092232,-0.24041682,0.71954465,0.36526299,-0.59062505,0
-0.72836787,0.26043749,0.14009675,-0.6931951,0.32675898,-0.64242411,0
-0.26758143,-0.019212753,-0.4993456,-0.6931951,0.32675898,-0.64242411,0
0.5360775,-0.32204127,0.036056533,0.6931951,-0.32675898,0.64242411,0
-0.13646895,-0.074729741,0.88754588,0.6931951,-0.32675898,0.64242411,0
0.045828808,-0.43420756,0.50799811,0.6931951,-0.32675898,0.64242411,0
-0.61375594,0.35382721,0.063928276,-0.6931951,0.32675898,-0.64242411,0
0.35317135,0.44253588,-0.55450338,0.70751727,0.47850868,-0.52004653,0
-0.33513892,0.42769551,0.51844001,-0.41079491,0.55326402,0.72466958,0
-0.78624547,-0.30546892,0.079542279,-0.68406993,-0.57899582,0.44363475,0
-0.48919025,-0.57419592,0.069770396,-0.55367351,-0.81206322,0.18438691,0
-0.45819846,0.060681015,-0.25302732,-0.6931951,0.32675898,-0.64242411,0
0.07160598,0.50923377,0.61189461,-0.15993178,0.79937208,0.57915968,0
-0.24052757,0.25105405,0.69296038,-0.50223535,0.42030942,0.75571108,0
-0.13724075,0.51437294,-0.36858693,-0.6931951,0.32675898,-0.64242411,0
-0.50958157,0.5550372,0.053863287,-0.6931951,0.32675898,-0.64242411,0
-0.552423,-0.4718577,-0.4222239,-0.6931951,0.32675898,-0.64242411,0
-0.10623968,-0.058522522,0.86317122,0.6931951,-0.32675898,0.64242411,0
0.10797967,-0.3042618,0.50703037,0.6931951,-0.32675898,0.64242411,0
-0.32080472,0.19537425,-0.33276963,-0.6931951,0.32675898,-0.64242411,0
0.60476387,-0.51800275,-0.13773105,0.6931951,-0.32675898,0.64242411,0
-0.1105805,-0.64372194,-0.38593543,-0.041847646,-0.90807039,-0.41672134,0
-0.23423022,-0.12700227,-0.5901581,-0.6931951,0.32675898,-0.64242411,0
0.16004324,-0.60350329,-0.41745245,0.17645752,-0.78726137,-0.59083158,0
0.19530106,0.48787278,0.67315924,-0.11708367,0.82843632,0.54770833,0
-0.14813632,0.75971907,0.15899423,0.032432437,0.90456593,0.42509806,0
-0.3513326,0.49321595,0.4563385,-0.36534965,0.60902476,0.70399439,0
0.30430186,-0.69987446,-0.24465808,0.14467221,-0.81010562,-0.56815362,0
0.74446911,-0.18283701,-0.11800018,0.6931951,-0.32675898,0.64242411,0
0.66573745,-0.03927511,0.039974183,0.6931951,-0.32675898,0.64242411,0
0.45073473,0.076826632,0.33102208,0.6931951,-0.32675898,0.64242411,0
-0.19177878,-0.41754597,-0.76969612,0.19808316,-0.77063519,-0.60570967,0
-0.28677422,0.69288933,-0.11643609,-0.6931951,0.32675898,-0.64242411,0
0.26604986,-0.80967534,0.079396993,0.6931951,-0.32675898,0.64242411,0
-0.33573294,0.19160508,0.6548115,-0.56348115,0.31007692,0.76572901,0
0.71719885,0.15979013,0.085697353,0.6931951,-0.32675898,0.64242411,0
0.04194212,0.78045607,0.0090695322,0.25937164,0.94470602,0.20064053,0
-0.54478115,0.089196831,-0.14509784,-0.6931951,0.32675898,-0.64242411,0
0.33580017,-0.64639705,0.087183267,0.6931951,-0.32675898,0.64242411,0
-0.58270204,-0.51304787,-0.41050264,-0.6931951,0.32675898,-0.64242411,0
-0.3354964,-0.46962503,0.55279279,-0.70244032,-0.50591177,0.50062996,0
-0.67207551,-0.50970352,-0.2493737,-0.47137278,-0.87981337,0.061121821,0
-0.17492253,0.31376806,0.69502097,-0.43907762,0.5153901,0.73592341,0
-0.10888204,0.78307974,-0.26251325,-0.6931951,0.32675898,-0.64242411,0
0.61308694,0.5397948,0.30063072,0.40916806,0.91218239,0.022462964,0
0.87628114,0.036245316,-0.1710161,0.7194382,0.25994748,-0.64407724,0
0.3349601,-0.70802855,0.056741908,0.6931951,-0.32675898,0.64242411,0
-0.26176411,0.090157181,0.74716628,-0.59772277,0.23744389,0.76573324,0
-0.31404752,0.48778218,0.48025262,-0.35536486,0.62050712,0.69906098,0
0.67785019,-0.21752688,-0.3794874,0.62913811,-0.16056541,-0.76052827,0
0.058354177,0.63282186,-0.51939261,-0.6931951,0.32675898,-0.64242411,0
0.61517841,0.45546299,0.34616995,0.6931951,-0.32675898,0.64242411,0
0.33159757,0.40477878,-0.61378956,0.71637356,0.41043195,-0.56422877,0
0.19080487,-0.66307938,0.23515242,0.6931951,-0.32675898,0.64242411,0
0.11814219,0.41220474,-0.69611925,-0.6931951,0.32675898,-0.64242411,0
-0.036183983,-0.075484455,0.77895141,0.6931951,-0.32675898,0.64242411,0
0.70748973,-0.289202,-0.13219926,0.6931951,-0.32675898,0.64242411,0
-0.061809599,-0.16349521,-0.79476666,-0.6931951,0.32675898,-0.64242411,0
0.45257759,-0.42065567,0.075996816,0.6931951,-0.32675898,0.64242411,0
0.11751115,-0.29819095,-0.74007714,0.43076962,-0.52678782,-0.7327562,0
-0.041565061,-0.77924109,0.42680264,0.6931951,-0.32675898,0.64242411,0
0.61696255,-0.21560171,-0.4297421,0.61738604,-0.19072708,-0.7631886,0
0.75132889,-0.12578636,-0.096384108,0.6931951,-0.32675898,0.64242411,0
0.57920986,0.38945717,-0.2885161,0.69011587,0.55800676,-0.46083426,0
0.083523095,-0.14476994,-0.85564786,0.52218497,-0.38667974,-0.76013225,0
-0.76400745,-0.016111463,0.29853773,-0.71131027,-0.16636856,0.68290448,0
0.82966739,0.27598733,-0.050773442,0.68816006,0.56505018,-0.45514131,0
0.019310936,-0.56785989,0.46863157,0.6931951,-0.32675898,0.64242411,0
-0.023896068,0.37846333,-0.5600177,-0.6931951,0.32675898,-0.64242411,0
0.61362803,0.039135218,0.13608411,0.6931951,-0.32675898,0.64242411,0
0.019548118,-0.51347762,-0.5785147,0.20196712,-0.7675541,-0.60833341,0
0.094576359,0.69942236,0.25369975,0.12610179,0.93256313,0.33826634,0
0.39863074,0.04225564,0.36965987,0.6931951,-0.32675898,0.64242411,0
0.18574429,-0.23130652,-0.74032426,0.49837726,-0.42659244,-0.75474393,0
-0.044721305,0.22807349,0.83224678,-0.45625585,0.49106058,0.7420845,0
0.055176616,0.10195994,-0.78597867,-0.6931951,0.32675898,-0.64242411,0
0.68749964,-0.18405607,-0.057148516,0.6931951,-0.32675898,0.64242411,0
-0.8854264,-0.090436786,0.13110095,-0.6931951,0.32675898,-0.64242411,0
0.48600337,0.58524781,0.34346861,0.30943629,0.93992496,0.14418739,0
-0.080806494,-0.16768932,0.78020179,0.6931951,-0.32675898,0.64242411,0
-0.10675341,0.85247475,-0.1379579,0.26542944,0.94441903,0.19395792,0
0.1445377,0.60176283,-0.62818485,-0.6931951,0.32675898,-0.64242411,0
0.15496448,-0.71946561,0.24514514,0.6931951,-0.32675898,0.64242411,0
0.27555174,-0.16426346,-0.71016836,0.56292361,-0.31118304,-0.76569027,0
0.53129792,-0.42021498,-0.40486476,0.48148453,-0.45332432,-0.75011289,0
0.20954192,0.1307207,-0.82826614,0.67641354,-0.012855541,-0.73640943,0
0.019421034,0.53629041,-0.52648169,-0.6931951,0.32675898,-0.64242411,0
-0.02554512,-0.12381843,-0.81371617,-0.6931951,0.32675898,-0.64242411,0
-0.46773204,0.37952083,-0.0805673,-0.6931951,0.32675898,-0.64242411,0
-0.72255456,-0.28949443,0.19172376,-0.70174038,-0.50933683,0.49813271,0
-0.19947416,0.53554714,-0.2906653,-0.6931951,0.32675898,-0.64242411,0
-0.021514475,0.66380227,0.34852004,-0.021366239,0.88161933,0.47147709,0
0.71888387,-0.045507461,-0.020542383,0.6931951,-0.32675898,0.64242411,0
0.10628355,-0.028013825,0.6493699,0.6931951,-0.32675898,0.64242411,0
-0.69523805,0.15401739,0.37471884,-0.65753102,0.078341387,0.7493431,0
0.62112808,-0.10317951,-0.44487029,0.66320658,-0.059811682,-0.74604225,0
0.54203755,0.33674163,0.36470538,0.6931951,-0.32675898,0.64242411,0
-0.2668286,0.22282036,0.68996811,-0.52720255,0.37790319,0.76108229,0
0.59826219,0.32549661,0.29831767,0.6931951,-0.32675898,0.64242411,0
-0.13173485,-0.74387133,-0.06379655,-0.27802169,-0.94357067,-0.17993906,0
-0.71862304,-0.47001523,-0.24195179,-0.6931951,0.32675898,-0.64242411,0
0.70982748,-0.12698737,-0.052213758,0.6931951,-0.32675898,0.64242411,0
0.84370601,-0.10024634,-0.23792928,0.6953842,0.068823367,-0.71533465,0
-0.36723584,-0.022929162,-0.39370576,-0.6931951,0.32675898,-0.64242411,0
0.44986084,-0.17142531,0.20569544,0.6931951,-0.32675898,0.64242411,0
-0.056131482,0.36485249,0.72047764,-0.35648555,0.6192314,0.69962132,0
0.09729059,-0.10823315,0.61827123,0.6931951,-0.32675898,0.64242411,0
0.021926127,-0.31335557,0.59525931,0.6931951,-0.32675898,0.64242411,0
-0.63723755,-0.12893629,-0.15628466,-0.6931951,0.32675898,-0.64242411,0
-0.38140827,0.28381231,0.58027852,-0.52301478,0.38523757,0.76029408,0
-0.35924596,-0.51552838,-0.63979429,-0.02463448,-0.90154791,-0.43197721,0
-0.10658205,0.77195877,0.12504286,0.085070312,0.92218995,0.37726441,0
-0.31693673,0.44364655,0.51606804,-0.39196151,0.57709473,0.71646875,0
0.49839947,0.18042639,0.33228481,0.6931951,-0.32675898,0.64242411,0
0.085920513,0.65704751,0.35936135,0.044570386,0.90905541,0.41428441,0
0.77595484,-0.013559133,-0.065873682,0.6931951,-0.32675898,0.64242411,0
0.55518216,0.32360876,0.34384215,0.6931951,-0.32675898,0.64242411,0
-0.2484639,-0.55822372,0.57890612,-0.68442106,-0.57783681,0.44460315,0
0.075372487,0.77582169,-0.42183709,0.53698552,0.8286764,-0.15793008,0
-0.28258532,-0.52666259,0.56656265,-0.69119412,-0.55400819,0.46403146,0
-0.13528609,-0.45962685,-0.69733208,0.18153608,-0.78343678,-0.59436619,0
-0.72457713,0.46304569,0.23906022,-0.6931951,0.32675898,-0.64242411,0
-0.27637902,0.37825674,-0.28768587,-0.6931951,0.32675898,-0.64242411,0
-0.037053853,0.40964454,-0.52996016,-0.6931951,0.32675898,-0.64242411,0
-0.23553592,-0.41063252,-0.73301333,-0.6931951,0.32675898,-0.64242411,0
-0.47171563,-0.57713777,-0.41078699,-0.25711936,-0.94479299,-0.20311499,0
-0.28419074,-0.57200444,0.50223082,-0.66780174,-0.62649983,0.40191865,0
-0.7495147,0.069249213,0.065669715,-0.6931951,0.32675898,-0.64242411,0
0.69309115,0.28735319,0.17659327,0.6931951,-0.32675898,0.64242411,0
0.61780727,0.53335792,0.38041389,0.36312088,0.92827243,0.080333173,0
-0.17810851,-0.43505189,-0.74277443,0.18627965,-0.7798205,-0.5976451,0
-0.6806252,-0.29987347,-0.19641268,-0.6931951,0.32675898,-0.64242411,0
0.39529958,0.49960625,0.60587871,0.6931951,-0.32675898,0.64242411,0
-0.77977991,-0.41686323,-0.14892685,-0.6931951,0.32675898,-0.64242411,0
-0.028130859,-0.036318183,0.79018319,0.6931951,-0.32675898,0.64242411,0
-0.18534434,-0.028710067,-0.59291255,-0.6931951,0.32675898,-0.64242411,0
-0.2640807,0.64320499,-0.16619435,-0.6931951,0.32675898,-0.64242411,0
-0.06050013,0.53504646,-0.44087714,-0.6931951,0.32675898,-0.64242411,0
0.16870967,0.42337334,-0.74500221,-0.6931951,0.32675898,-0.64242411,0
0.81437612,0.13496721,-0.031785667,0.6931951,-0.32675898,0.64242411,0
0.69575453,-0.15264654,-0.050079703,0.6931951,-0.32675898,0.64242411,0
0.27626365,-0.00016915798,0.48011893,0.6931951,-0.32675898,0.64242411,0
0.77541065,0.18096127,-0.21273911,0.71805054,0.39015809,-0.57635039,0
0.013047636,-0.64309025,-0.38681269,0.044493794,-0.87022668,-0.49063784,0
0.40957481,0.62010849,-0.10225987,0.53168595,0.83360553,-0.14970452,0
-0.068910167,-0.32628065,0.68670034,0.6931951,-0.32675898,0.64242411,0
-0.41153157,0.11584213,0.62085134,-0.61869913,0.18744823,0.76293772,0
-0.032884028,0.32430345,-0.57786691,-0.6931951,0.32675898,-0.64242411,0
-0.59361684,0.0011791736,0.47120512,-0.690593,-0.045988258,0.72177958,0
-0.56756318,0.53252202,0.10497531,-0.6931951,0.32675898,-0.64242411,0
0.21605319,0.010303944,-0.80952883,0.63343072,-0.14905742,-0.75930667,0
0.37547344,-0.60532373,0.065265879,0.6931951,-0.32675898,0.64242411,0
-0.045954585,-0.22249117,-0.84188217,-0.6931951,0.32675898,-0.64242411,0
0.49118307,0.44990084,0.47713557,0.6931951,-0.32675898,0.64242411,0
0.082610905,0.52181077,0.59704065,-0.13969105,0.81351703,0.56451404,0
-0.53751928,0.039416283,-0.17825374,-0.6931951,0.32675898,-0.64242411,0
0.50675488,-0.011741526,-0.55277598,0.67567313,-0.015655324,-0.73703462,0
-0.32103851,-0.33758235,-0.60359764,-0.6931951,0.32675898,-0.64242411,0
-0.70097584,0.079798371,0.018660665,-0.6931951,0.32675898,-0.64242411,0
0.12187415,0.14021701,0.71811521,0.6931951,-0.32675898,0.64242411,0
0.16324341,0.3631081,0.78684664,0.6931951,-0.32675898,0.64242411,0
-0.67416692,0.2191214,0.060597509,-0.6931951,0.32675898,-0.64242411,0
0.054173052,-0.7965669,0.31468582,0.6931951,-0.32675898,0.64242411,0
-0.65167004,-0.52119499,-0.26571485,-0.45100677,-0.89191031,0.032993317,0
0.0018113405,-0.43209481,0.55656886,0.6931951,-0.32675898,0.64242411,0
0.13576107,0.39278215,-0.7250095,-0.6931951,0.32675898,-0.64242411,0
0.79153287,0.19945386,-0.17895103,0.71474022,0.42650828,-0.55428934,0
0.30525577,-0.066664964,-0.71911687,0.61828691,-0.18847963,-0.76301777,0
0.10957643,0.2218647,-0.78368992,-0.6931951,0.32675898,-0.64242411,0
0.35917372,-0.55304009,-0.39752305,0.31779039,-0.66144371,-0.67933869,0
0.0024833679,-0.36393958,-0.74805737,0.33597845,-0.64206576,-0.68910784,0
-0.86535054,-0.24897815,0.028798759,-0.6931951,0.32675898,-0.64242411,0
-0.68911266,-0.077313483,0.36095071,-0.71497744,-0.19917056,0.67017722,0
-0.53714317,0.25778484,0.47921008,-0.57873255,0.27891791,0.76633734,0
0.77467024,-0.21024442,-0.29887325,0.65053314,-0.10008845,-0.75285351,0
-0.081809253,0.6048106,-0.38239953,-0.6931951,0.32675898,-0.64242411,0
0.53214693,-0.57441121,-0.088066339,0.6931951,-0.32675898,0.64242411,0
-0.67816246,-0.14769527,0.34693724,-0.72032833,-0.28360844,0.63300294,0
-0.3468931,-0.59793997,0.33798331,-0.62153989,-0.72229636,0.30327541,0
-0.35219342,0.0089536905,-0.39372033,-0.6931951,0.32675898,-0.64242411,0
0.46019322,0.5190931,0.54576814,0.6931951,-0.32675898,0.64242411,0
0.59306186,-0.40844852,-0.37107444,0.50775462,-0.4111999,-0.75703329,0
0.016634881,-0.049807787,-0.82158542,-0.6931951,0.32675898,-0.64242411,0
0.044082671,0.028785288,0.74537641,0.6931951,-0.32675898,0.64242411,0
-0.68410522,0.53089345,0.22989935,-0.6931951,0.32675898,-0.64242411,0
-0.22967422,0.85522324,-0.095480144,-0.6931951,0.32675898,-0.64242411,0
-0.84918416,-0.0018960834,0.21259201,-0.71498215,-0.19921821,0.67015833,0
0.40427333,-0.31954581,0.17954646,0.6931951,-0.32675898,0.64242411,0
-0.68231511,-0.063044526,0.37212253,-0.71259338,-0.17699695,0.67888314,0
0.29842293,-0.15417045,0.37787801,0.6931951,-0.32675898,0.64242411,0
-0.42962432,-0.33605582,0.53844559,-0.71877897,-0.37927791,0.58267033,0
0.35781163,0.65031266,0.19168812,0.33041805,0.93621838,0.11966205,0
0.77216834,0.31071967,-0.094388843,0.68472064,0.57684249,-0.44543225,0
0.11531401,0.75941747,0.0035873652,0.3070932,0.94027442,0.14689332,0
-0.50746882,-0.077616304,-0.27020591,-0.6931951,0.32675898,-0.64242411,0
0.10465155,0.59183723,-0.590195,-0.6931951,0.32675898,-0.64242411,0
0.68303317,-0.35085642,-0.13716963,0.6931951,-0.32675898,0.64242411,0
0.66253603,0.45629334,-0.027833164,0.61323106,0.7357347,-0.28747475,0
0.074379146,0.60887676,-0.54886317,-0.6931951,0.32675898,-0.64242411,0
-0.28475475,0.73218727,0.20034617,-0.095063448,0.84209013,0.53089261,0
0.18313852,-0.47380424,0.33969653,0.6931951,-0.32675898,0.64242411,0
-0.16503894,-0.104204,0.86689997,-0.66052014,0.068689652,0.74765927,0
0.36711118,-0.54279304,0.1060943,0.6931951,-0.32675898,0.64242411,0
0.66116035,0.44124365,-0.066319108,0.6305849,0.70662367,-0.32100672,0
0.55261695,0.41232318,-0.30029291,0.6855951,0.57391202,-0.44786632,0
0.64255679,-0.47870725,-0.15852356,0.6931951,-0.32675898,0.64242411,0
0.63635606,0.45638889,0.32378954,0.6931951,-0.32675898,0.64242411,0
0.021556795,-0.83817655,0.26478088,-0.39542529,-0.91762406,-0.040059626,0
-0.42510903,-0.58708942,0.19385207,-0.58685791,-0.77333653,0.23989159,0
0.43572527,-0.71144915,-0.053726856,0.6931951,-0.32675898,0.64242411,0
0.70467985,0.45213932,0.055261433,0.59182823,0.76677275,-0.24859339,0
0.58276188,-0.10493985,0.096108019,0.6931951,-0.32675898,0.64242411,0
-0.53152412,-0.35349256,0.39373201,-0.70869875,-0.47132343,0.5249759,0
0.50889468,-0.69856304,-0.17971018,0.24821359,-0.72857612,-0.63840926,0
0.085884929,0.20928651,0.79207975,0.6931951,-0.32675898,0.64242411,0
-0.16949481,0.19647956,0.77019203,-0.51537478,0.3983818,0.75873595,0
-0.12937209,0.58931428,-0.33895969,-0.6931951,0.32675898,-0.64242411,0
-0.29837692,0.3264662,0.61083269,-0.47076416,0.46966529,0.74685693,0
0.21154583,-0.49295193,0.29930496,0.6931951,-0.32675898,0.64242411,0
-0.48412746,0.68168342,0.090814292,-0.6931951,0.32675898,-0.64242411,0
-0.37116525,-0.22554132,-0.49252146,-0.6931951,0.32675898,-0.64242411,0
0.46381071,0.593849,0.33467799,0.30188203,0.941006,0.15288854,0
0.18065679,0.60677773,0.45933586,0.035644948,0.90577883,0.42224863,0
-0.055806994,0.64059001,0.38604385,-0.074409366,0.85412002,0.51472515,0
0.032046661,0.27543527,-0.67278516,-0.6931951,0.32675898,-0.64242411,0
0.68017715,-0.13670054,-0.025160611,0.6931951,-0.32675898,0.64242411,0
0.61482656,-0.27224043,-0.023585588,0.6931951,-0.32675898,0.64242411,0
0.50104171,0.59295541,0.1731604,0.42330372,0.90597862,0.0040547252,0
0.86508071,0.14867878,-0.12270719,0.71695197,0.40399086,-0.56812912,0
0.59874183,-0.30396554,-0.022366196,0.6931951,-0.32675898,0.64242411,0
-0.7408663,0.097915828,0.070918858,-0.6931951,0.32675898,-0.64242411,0
-0.10444702,-0.75103784,0.44527733,-0.56355667,-0.80137956,0.20048523,0
-0.091041625,-0.71672875,-0.20508209,-0.15774781,-0.93849945,-0.30713877,0
0.50150901,-0.48091385,-0.38296983,0.4295193,-0.52848327,-0.73226923,0
0.28692576,0.1524125,0.54622251,0.6931951,-0.32675898,0.64242411,0
-0.43369877,-0.58813453,0.16882843,-0.57826489,-0.78417933,0.22510451,0
-0.15641725,-0.23438916,-0.72874141,-0.6931951,0.32675898,-0.64242411,0
0.066987932,-0.55309361,-0.51234746,0.18357348,-0.78188872,-0.59577715,0
0.33795211,0.56566465,-0.42086518,0.65481204,0.65795922,-0.37190115,0
-0.67265069,-0.38125184,0.15385145,-0.67239916,-0.61414587,0.41316319,0
-0.00096589327,-0.18414515,0.68568146,0.6931951,-0.32675898,0.64242411,0
-0.30095869,0.0879426,-0.4088276,-0.6931951,0.32675898,-0.64242411,0
-0.088639341,-0.54976809,0.59431511,0.6931951,-0.32675898,0.64242411,0
0.17702217,0.72553706,-0.33963352,0.54339588,0.82249612,-0.16799051,0
0.26979738,-0.85428715,0.039576173,-0.094630241,-0.92487299,-0.36831364,0
-0.63436568,0.12363485,-0.030916989,-0.6931951,0.32675898,-0.64242411,0
0.048027039,-0.78561878,-0.065880507,-0.16488212,-0.93958414,-0.29999238,0
-0.68383902,0.23493627,0.079077929,-0.6931951,0.32675898,-0.64242411,0
0.099420428,-0.76964837,-0.12906846,-0.086942732,-0.92272812,-0.37551779,0
0.2595852,-0.77937013,-0.12159516,0.016620398,-0.88384336,-0.46748739,0
0.74908465,0.45504183,0.20146692,0.6931951,-0.32675898,0.64242411,0
0.44604895,0.58474851,0.40715903,0.24379414,0.94509006,0.21764439,0
-0.57725853,0.50336939,0.10060894,-0.6931951,0.32675898,-0.64242411,0
0.32010967,0.54192454,-0.48862416,0.67551702,0.60533184,-0.42101049,0
-0.65849501,0.57143867,0.22288787,-0.6931951,0.32675898,-0.64242411,0
0.23177165,0.54893291,0.57473058,-0.014938176,0.8846224,0.46606845,0
-0.80340523,0.032500684,0.10512769,-0.6931951,0.32675898,-0.64242411,0
0.84057212,0.12099844,-0.067156971,0.6931951,-0.32675898,0.64242411,0
0.46353143,0.583408,-0.1058448,0.5601033,0.80518866,-0.19482148,0
-0.34918642,0.49786645,0.45339966,-0.36071354,0.61438894,0.70172036,0
-0.20057601,-0.73147023,0.024396181,-0.3743245,-0.92490774,-0.066532731,0
0.33979359,-0.55127883,0.13125463,0.6931951,-0.32675898,0.64242411,0
0.38410336,0.32281125,-0.60135645,0.7206037,0.33214813,-0.60861117,0
-0.14835525,0.55782312,0.47942406,-0.21895462,0.75373268,0.61963338,0
-0.70899993,0.35434347,0.31410924,-0.57057422,0.29580379,0.76612306,0
-0.7419467,-0.3385064,-0.14989501,-0.6931951,0.32675898,-0.64242411,0
-0.37694389,-0.64380598,-0.18841517,-0.34364817,-0.93333107,-0.10391784,0
-0.75633156,0.0096177161,0.31195146,-0.70618773,-0.12965335,0.69605196,0
0.64002258,-0.40108758,-0.3429364,0.52579719,-0.38037503,-0.76082301,0
-0.21959774,0.42503649,-0.32516086,-0.6931951,0.32675898,-0.64242411,0
-0.33086371,0.83384514,0.014623806,0.013977289,0.89725411,0.44129276,0
0.45081952,0.15480494,0.37059307,0.6931951,-0.32675898,0.64242411,0
-0.18164068,-0.71175063,0.38500899,-0.56937361,-0.79477155,0.210123,0
-0.66286033,0.41205063,0.14652798,-0.6931951,0.32675898,-0.64242411,0
-0.023089707,-0.78944999,0.0089079738,-0.25970441,-0.94469231,-0.20027441,0
0.77996069,0.36177206,0.12071043,0.6931951,-0.32675898,0.64242411,0
-0.24759406,0.045485407,0.77104706,-0.61557895,0.19520469,0.76351619,0
0.42854446,0.18603006,-0.60641807,0.71308148,0.18125063,-0.67724615,0
-0.0027733445,-0.25278142,-0.84333068,0.42247856,-0.53793329,-0.72947878,0
-0.11075389,0.78693604,0.088301301,0.10852003,0.92848402,0.35516289,0
0.36700651,0.33961886,0.55503273,0.6931951,-0.32675898,0.64242411,0
0.50214124,0.19771761,0.33704224,0.6931951,-0.32675898,0.64242411,0
0.36471701,-0.38486969,-0.53171879,0.45210022,-0.49704343,-0.74064338,0
-0.61774784,-0.53627497,-0.33898786,-0.38855809,-0.92013383,-0.048746109,0
-0.01174587,0.18871212,-0.66964209,-0.6931951,0.32675898,-0.64242411,0
0.16224277,0.069138944,-0.86514384,0.64695054,-0.11080401,-0.7544381,0
0.099027634,-0.43286538,-0.63622081,0.31562763,-0.66369516,-0.67815018,0
-0.1155328,-0.32015145,0.740125,0.6931951,-0.32675898,0.64242411,0
-0.26286697,-0.3894254,-0.69273567,-0.6931951,0.32675898,-0.64242411,0
-0.25651741,0.7967701,0.087635994,0.010923266,0.89598787,0.44394404,0
-0.3101503,-0.32015878,-0.60648417,-0.6931951,0.32675898,-0.64242411,0
-0.057834268,0.75339347,-0.33269471,-0.6931951,0.32675898,-0.64242411,0
0.69594944,0.47013146,0.094741285,0.56777322,0.79661423,-0.20745873,0
-0.59720266,0.27269748,0.004801333,-0.6931951,0.32675898,-0.64242411,0
-0.62578946,0.47234848,0.13719687,-0.6931951,0.32675898,-0.64242411,0
-0.31129202,-0.15875697,-0.5231576,-0.6931951,0.32675898,-0.64242411,0
-0.073547721,-0.54117143,-0.5664826,0.12197709,-0.8252849,-0.55138564,0
-0.32315636,0.22133863,-0.31702575,-0.6931951,0.32675898,-0.64242411,0
-0.32340175,-0.67129409,-0.116887,-0.35733548,-0.92987835,-0.087392628,0
-0.70750988,0.11415488,0.36651111,-0.67319632,0.024862768,0.73904532,0
-0.32259798,-0.48064402,-0.67468113,-0.6931951,0.32675898,-0.64242411,0
-0.54640758,0.53586328,0.08384718,-0.6931951,0.32675898,-0.64242411,0
-0.15754426,0.59021062,0.43568635,-0.18956792,0.77728832,0.59990543,0
0.76726377,-0.11106902,-0.10609251,0.6931951,-0.32675898,0.64242411,0
-0.61993885,-0.30183125,-0.26289088,-0.6931951,0.32675898,-0.64242411,0
0.51457894,-0.60992074,-0.26917234,0.33204132,-0.64632869,-0.68702793,0
0.33235222,0.35975203,-0.64224303,0.72019243,0.34907043,-0.59956014,0
0.088620067,-0.74636823,-0.18191484,-0.056014299,-0.91305524,-0.40397057,0
0.077133417,-0.59100544,0.39446667,0.6931951,-0.32675898,0.64242411,0
0.69878161,0.08877492,-0.34695256,0.71682453,0.21965885,-0.66174924,0
-0.20482767,-0.71916854,-0.073677868,-0.31532103,-0.93899089,-0.13736248,0
-0.13189453,-0.76654291,0.20560634,-0.44494188,-0.89521682,0.024767339,0
-0.64725786,0.43117145,0.13941783,-0.6931951,0.32675898,-0.64242411,0
0.13088101,-0.27125376,-0.75069416,0.45446956,-0.49364015,-0.74146903,0
0.4824155,0.36398166,0.44289461,0.6931951,-0.32675898,0.64242411,0
-0.46578068,-0.25039113,0.54259801,-0.72041631,-0.28701115,0.63136715,0
-0.18656451,0.64438474,0.35375881,-0.14466149,0.81011301,0.56814575,0
-0.29270542,0.11121315,-0.40589696,-0.6931951,0.32675898,-0.64242411,0
0.53452677,0.47977254,-0.22641754,0.64957058,0.66945583,-0.36039782,0
0.60277402,0.36915219,-0.27754432,0.69379026,0.54401159,-0.47191751,0
0.21566559,0.05918777,0.575697,0.6931951,-0.32675898,0.64242411,0
0.51660264,-0.013021499,0.21424873,0.6931951,-0.32675898,0.64242411,0
0.010351777,0.12793845,0.83220589,0.6931951,-0.32675898,0.64242411,0
0.18110365,0.39198259,0.78226149,0.6931951,-0.32675898,0.64242411,0
-0.17176169,-0.4289602,0.74545377,0.6931951,-0.32675898,0.64242411,0
0.44910908,0.38959575,-0.47255921,0.70932341,0.46736813,-0.5276618,0
-0.54340476,0.34154686,0.43933323,-0.53409511,0.36562377,0.76227373,0
0.082668245,0.29775593,0.84054935,0.6931951,-0.32675898,0.64242411,0
-0.51392728,0.0014844835,-0.22300364,-0.6931951,0.32675898,-0.64242411,0
-0.41342646,-0.62067634,-0.26810786,-0.3146131,-0.93910766,-0.13818568,0
0.78513777,0.032769144,-0.27174419,0.71506763,0.2000882,-0.66980791,0
-0.25260416,-0.25378436,-0.63481778,-0.6931951,0.32675898,-0.64242411,0
0.35070813,0.26303396,0.5336653,0.6931951,-0.32675898,0.64242411,0
0.67692816,0.1762825,-0.33451414,0.72073054,0.32075936,-0.6145407,0
0.097047508,-0.66403133,-0.34114629,0.069235981,-0.8570165,-0.51061618,0
0.22064179,-0.85704029,0.10430208,0.6931951,-0.32675898,0.64242411,0
-0.4705556,-0.1123473,-0.32770178,-0.6931951,0.32675898,-0.64242411,0
-0.46844834,0.65632081,0.24299684,-0.27053404,0.70819557,0.65212733,0
0.12357825,-0.6222319,-0.4012835,0.13594365,-0.81605393,-0.56176066,0
-0.33643669,0.47332361,-0.17452756,-0.6931951,0.32675898,-0.64242411,0
0.63843894,0.26120946,-0.32864171,0.71623337,0.41192442,-0.56331849,0
0.2181845,0.69572568,0.18008089,0.25431389,0.94488627,0.20618957,0
0.29908672,-0.47947744,0.21169928,0.6931951,-0.32675898,0.64242411,0
0.65444505,-0.036845714,0.053394824,0.6931951,-0.32675898,0.64242411,0
-0.15251845,-0.74869859,0.29219025,-0.50524837,-0.8559593,0.10980767,0
-0.46042523,-0.1141071,-0.3395279,-0.6931951,0.32675898,-0.64242411,0
0.4803443,0.5861147,-0.040168047,0.53356934,0.83187205,-0.15261841,0
0.4847576,0.39709342,-0.41664726,0.70308071,0.50271308,-0.50294805,0
0.38739133,-0.80638516,-0.049860701,0.6931951,-0.32675898,0.64242411,0
0.34736189,-0.48345616,0.15758516,0.6931951,-0.32675898,0.64242411,0
0.34055638,0.668594,0.026507378,0.42206645,0.90654701,0.0056788325,0
0.37066925,-0.65691245,-0.28028917,0.22477251,-0.74886817,-0.62343681,0
-0.32006943,-0.30115977,-0.58611751,-0.6931951,0.32675898,-0.64242411,0
-0.7923488,0.0015547276,0.077457428,-0.6931951,0.32675898,-0.64242411,0
0.23769936,0.64513624,-0.44915867,0.62617385,0.71441108,-0.3122862,0
0.074936718,-0.72783095,0.32724273,0.6931951,-0.32675898,0.64242411,0
0.33756268,-0.72761893,-0.19637033,0.13065922,-0.81958795,-0.5578562,0
0.25549471,-0.17868221,0.4117313,0.6931951,-0.32675898,0.64242411,0
-0.036600232,0.088509858,-0.69378984,-0.6931951,0.32675898,-0.64242411,0
0.13235599,0.27436206,0.77503574,0.6931951,-0.32675898,0.64242411,0
-0.142281,-0.30300987,0.77770603,0.6931951,-0.32675898,0.64242411,0
-0.7979902,-0.36700049,-0.10391545,-0.6931951,0.32675898,-0.64242411,0
-0.078369141,-0.13456875,0.79441822,0.6931951,-0.32675898,0.64242411,0
-0.55504882,-0.21552607,-0.28901133,-0.6931951,0.32675898,-0.64242411,0
-0.48379552,0.62752914,0.062911347,-0.6931951,0.32675898,-0.64242411,0
-0.24353737,0.44697037,0.55226839,-0.36161286,0.61335278,0.70216382,0
0.12150484,-0.86370736,0.17333904,-0.27961266,-0.94343907,-0.1781553,0
-0.62204725,-0.11415231,-0.16515586,-0.6931951,0.32675898,-0.64242411,0
-0.33628881,0.72239566,-0.048000321,-0.6931951,0.32675898,-0.64242411,0
-0.69254887,0.43927738,0.19241121,-0.6931951,0.32675898,-0.64242411,0
0.35216817,0.35463494,0.57868135,0.6931951,-0.32675898,0.64242411,0
-0.40044123,-0.23028265,0.62315029,-0.71691597,-0.22078362,0.66127586,0
-0.43571052,0.32301879,-0.14385836,-0.6931951,0.32675898,-0.64242411,0
-0.29456925,-0.68833381,-0.044588923,-0.38543925,-0.92122877,-0.052668333,0
0.23415259,0.2450386,0.65027928,0.6931951,-0.32675898,0.64242411,0
-0.62280333,0.026999347,0.44480151,-0.68733329,-0.031441946,0.72566104,0
0.3570855,0.66036916,0.067186058,0.40687755,0.91312897,0.025415957,0
-0.79393065,-0.25072402,-0.049153566,-0.6931951,0.32675898,-0.64242411,0
-0.63953477,-0.20831598,0.36135763,-0.72044373,-0.34010392,0.60439199,0
0.5248602,0.052587092,0.23870936,0.6931951,-0.32675898,0.64242411,0
-0.13140312,0.70886379,-0.27596116,-0.6931951,0.32675898,-0.64242411,0
-0.21275634,0.36315811,0.63704842,-0.41594452,0.54656011,0.72681618,0
-0.71900356,-0.01746808,0.34469169,-0.70795321,-0.1414746,0.69194424,0
0.54051971,0.34073448,0.36837405,0.6931951,-0.32675898,0.64242411,0
-0.3312152,0.14887787,0.67426383,-0.58480614,0.26599884,0.76631975,0
0.53632736,-0.44888121,-0.028728172,0.6931951,-0.32675898,0.64242411,0
0.14236587,0.39530623,0.77899128,-0.24454439,0.7318266,0.63610339,0
-0.062912822,0.68697125,0.30327892,-0.016180396,0.88404757,0.46711653,0
-0.18352079,-0.49664879,-0.65734643,0.11320359,-0.83090466,-0.5447771,0
-0.32795063,-0.50590754,0.52376729,-0.69093722,-0.55496836,0.46326602,0
-0.64686942,0.18761267,0.41126025,-0.63557976,0.14318788,0.75864017,0
-0.1078229,0.33802846,0.71549803,-0.39743364,0.5702796,0.718907,0
0.15524769,0.64597541,-0.60026664,0.65904093,0.64821559,-0.38142008,0
-0.77095169,0.2873188,0.19971877,-0.6931951,0.32675898,-0.64242411,0
-0.88353133,-0.033175051,0.16415668,-0.71945971,-0.2604003,0.64387017,0
-0.20796487,-0.07430777,-0.59169698,-0.6931951,0.32675898,-0.64242411,0
-0.5087375,0.076085925,-0.19065866,-0.6931951,0.32675898,-0.64242411,0
-0.16358095,0.80325562,-0.19322926,-0.6931951,0.32675898,-0.64242411,0
0.82908624,0.035826415,-0.098084748,0.6931951,-0.32675898,0.64242411,0
-0.36299473,-0.65362602,0.05922538,-0.48399296,-0.87150145,0.078967154,0
0.16735905,-0.038387656,-0.83687305,0.60123396,-0.22940727,-0.76543421,0
-0.46736509,0.57521552,0.32448828,-0.34266531,0.63473725,0.69259572,0
-0.23291832,-0.71679938,0.0028088689,-0.37947747,-0.92324501,-0.060126841,0
0.057353854,-0.61617571,0.40300688,0.6931951,-0.32675898,0.64242411,0
0.17211449,0.4612965,-0.72938716,-0.6931951,0.32675898,-0.64242411,0
0.12471706,-0.49646091,-0.5591923,0.26847768,-0.71011746,-0.650886,0
0.60549837,-0.13959664,0.053946972,0.6931951,-0.32675898,0.64242411,0
0.1857321,-0.72597092,0.20863712,0.6931951,-0.32675898,0.64242411,0
0.1885311,0.014383316,0.58218694,0.6931951,-0.32675898,0.64242411,0
0.61331391,0.53879213,0.21871567,0.45766088,0.88812959,-0.042096376,0
0.0055849552,0.42395127,0.69190615,-0.27892494,0.70025837,0.65714419,0
-0.33724201,0.51667249,0.44251215,-0.34029609,0.63734663,0.69136643,0
-0.080967009,0.33055657,0.73624867,-0.39340967,0.57529956,0.71711838,0
0.27354205,0.37872338,-0.70172793,0.72050792,0.33725417,-0.6059106,0
-0.10259169,0.6332202,0.38958558,-0.11114311,0.83220458,0.54321492,0
0.18737483,-0.2233077,-0.74371147,0.50393361,-0.41752166,-0.75612581,0
-0.35518306,-0.4931173,0.49847353,-0.69091821,-0.55503953,0.46320927,0
-0.29636976,-0.53235483,-0.60763508,-0.0052607059,-0.89359736,-0.44883823,0
0.10826148,0.53854972,-0.62119406,-0.6931951,0.32675898,-0.64242411,0
-0.13623691,-0.45310092,0.69484264,0.6931951,-0.32675898,0.64242411,0
-0.012075722,0.0066112876,0.79469466,0.6931951,-0.32675898,0.64242411,0
-0.6040352,-0.54232371,-0.33369035,-0.38403237,-0.92171365,-0.054432988,0
0.38352466,-0.62004125,-0.31760994,0.26697206,-0.711519,-0.64997423,0
-0.48016202,-0.6021052,-0.10855532,-0.4499653,-0.89248747,0.031576097,0
0.022887707,-0.83483338,0.20733094,-0.35938188,-0.92932034,-0.084900677,0
0.44258502,0.50767064,-0.33878714,0.66103506,0.64346319,-0.38598913,0
