0.45119005,-2.3083494,-3.9010117,0.21045142,-0.40345895,-0.89046657,0
-1.1389637,0.86496329,1.5720034,-0.96064401,0.083585024,-0.26490837,0
1.2943566,-1.8009062,-3.9316547,0.21045142,-0.40345895,-0.89046657,0
-0.92552054,1.5135155,4.1490383,-0.21045142,0.40345895,0.89046657,0
0.17104617,-0.47842795,0.65618593,0.32775629,-0.82902968,0.45308417,0
-1.1049259,1.8339701,3.9614441,-0.21045142,0.40345895,0.89046657,0
0.6900267,-2.2769685,-3.8587832,0.21045142,-0.40345895,-0.89046657,0
1.2202897,-2.2209029,-3.3138988,0.47552678,-0.75359893,0.4538312,0
1.2826393,-2.1313448,-3.7847066,0.21045142,-0.40345895,-0.89046657,0
0.96723825,-1.9225016,-3.9538724,0.21045142,-0.40345895,-0.89046657,0
-0.84064555,2.4943926,3.7246742,-0.21045142,0.40345895,0.89046657,0
-0.64942753,1.7245612,4.1186676,-0.21045142,0.40345895,0.89046657,0
1.0168142,-0.64525461,-3.019453,0.46819553,0.84120691,-0.27048743,0
0.41184527,-0.27887315,0.70774847,0.67007744,-0.6037063,0.43189657,0
0.96200532,-0.41621828,-2.373781,0.58561492,0.78138208,-0.21563083,0
-0.76363719,2.0401075,2.6900501,-0.069970489,0.90231353,-0.42536336,0
1.4154389,-1.6237581,-2.8776901,0.90079921,-0.27387026,0.33698055,0
0.92916989,-1.9018705,-2.4970586,0.34477776,-0.82170755,0.45378929,0
-1.6197696,1.5014338,3.9904342,-0.21045142,0.40345895,0.89046657,0
0.48093888,0.29980564,1.1686418,0.93879694,-0.17068645,0.29920959,0
-0.69194329,1.6502762,4.1422768,-0.21045142,0.40345895,0.89046657,0
-0.15050274,1.9098608,3.4153023,0.87780559,0.47892216,-0.0095342994,0
1.6074343,-1.9698954,-3.7810957,0.21045142,-0.40345895,-0.89046657,0
-0.38098034,-0.85120595,-0.76781195,-0.77369249,-0.62552869,0.10056573,0
-0.98951125,1.4042163,4.1834369,-0.21045142,0.40345895,0.89046657,0
-0.23431391,1.735584,2.2197132,0.45253876,0.8476035,-0.27708602,0
-0.1190711,-0.32059205,1.1024365,0.08743754,-0.89944714,0.42819279,0
1.0501313,-1.3702617,-4.1844945,0.21045142,-0.40345895,-0.89046657,0
-0.36076334,-0.81191361,-0.46460551,-0.66772091,-0.72462082,0.17050815,0
-0.39655513,0.63204122,3.0985038,0.34044492,-0.82360309,0.45362413,0
-0.81146055,0.33423162,2.3984623,-0.39689347,-0.86768311,0.29933494,0
0.78911442,-1.0789635,-0.99807364,0.63401663,-0.63700449,0.43846098,0
-0.7840777,2.3399658,3.8080127,-0.21045142,0.40345895,0.89046657,0
-0.23464049,-0.25400949,-1.7132053,-0.75582743,0.5105505,-0.40995488,0
1.37413,-2.3202977,-3.6774719,0.21045142,-0.40345895,-0.89046657,0
-0.72672153,2.0472474,3.9541948,-0.21045142,0.40345895,0.89046657,0
1.4028949,-1.5019202,-4.0414696,0.21045142,-0.40345895,-0.89046657,0
-1.0390874,2.4065886,3.7175579,-0.21045142,0.40345895,0.89046657,0
-0.66678178,0.9534564,3.8724751,0.22587785,-0.86615145,0.4458257,0
-0.67361522,0.21354443,-0.25131342,-0.8969937,0.28250232,-0.33999223,0
-1.4770846,1.3527794,4.0915098,-0.21045142,0.40345895,0.89046657,0
1.185508,-0.78663135,-1.7780242,0.97734487,0.10781428,0.18213487,0
-1.3228182,1.3391838,4.134129,-0.21045142,0.40345895,0.89046657,0
-0.67660701,1.3078985,4.3010287,-0.21045142,0.40345895,0.89046657,0
-0.015146538,0.36615872,2.2611666,0.58714259,-0.67612344,0.44510713,0
-1.2622635,1.3408251,4.147697,-0.21045142,0.40345895,0.89046657,0
0.11516747,1.1546111,2.7722201,0.97015613,-0.02603136,0.2410796,0
-0.52013779,2.3354857,3.5920262,0.49912998,0.82754296,-0.25698543,0
-1.3805798,1.3774948,4.1031194,-0.21045142,0.40345895,0.89046657,0
0.49759859,-1.753653,-4.1413693,0.21045142,-0.40345895,-0.89046657,0
1.2239478,-1.3817701,-4.1382003,0.21045142,-0.40345895,-0.89046657,0
-1.3967552,2.2284198,3.7137532,-0.21045142,0.40345895,0.89046657,0
1.4510183,-2.1190686,-3.7504745,0.21045142,-0.40345895,-0.89046657,0
-1.1085109,1.1355557,4.2770391,-0.21045142,0.40345895,0.89046657,0
0.0092192888,-1.3884966,-1.5368106,-0.52944344,-0.81276077,0.24312359,0
0.32680115,-1.6343145,-4.235806,0.21045142,-0.40345895,-0.89046657,0
-1.0545995,1.1239758,4.2770777,-0.14790931,-0.91352105,0.37894791,0
-0.021386564,1.1727095,3.2344995,0.91370541,-0.24272963,0.32592136,0
-1.1387277,2.4410772,3.6783824,-0.21045142,0.40345895,0.89046657,0
-0.65393305,0.064346313,1.8239154,-0.37027356,-0.87589973,0.309349,0
-1.4858007,2.2033048,3.704088,-0.21045142,0.40345895,0.89046657,0
1.2744368,-1.5916448,-4.0311766,0.21045142,-0.40345895,-0.89046657,0
1.1927552,-1.2513542,-4.2046623,0.21045142,-0.40345895,-0.89046657,0
-0.087056786,1.1858315,3.4184282,0.87746626,-0.3236222,0.35400802,0
-0.61471123,1.4398637,4.2558651,-0.21045142,0.40345895,0.89046657,0
0.10871297,-1.8198359,-3.4409792,-0.9272812,-0.37085867,-0.051120877,0
-0.54465908,2.2425551,3.9087319,-0.21045142,0.40345895,0.89046657,0
0.79781008,-1.2423363,-4.3020887,0.21045142,-0.40345895,-0.89046657,0
0.45120543,-1.4969993,-4.2686205,0.21045142,-0.40345895,-0.89046657,0
-0.74546903,1.8476214,2.287945,-0.16908351,0.88211679,-0.43963659,0
1.1676184,-1.8508983,-3.9389575,0.21045142,-0.40345895,-0.89046657,0
0.45341942,-0.022744477,0.95599806,0.81408054,-0.43200183,0.38813296,0
-1.2033639,1.7210598,3.9893372,-0.21045142,0.40345895,0.89046657,0
0.8446787,-2.0867758,-3.9084074,0.21045142,-0.40345895,-0.89046657,0
-1.4247763,1.9766216,3.8212173,-0.21045142,0.40345895,0.89046657,0
0.64138895,-1.5707293,-4.1902666,0.21045142,-0.40345895,-0.89046657,0
-1.3410573,1.5649228,4.0275393,-0.21045142,0.40345895,0.89046657,0
1.195806,-2.2309375,-3.7601047,0.21045142,-0.40345895,-0.89046657,0
1.2882073,-0.92258954,-2.2722809,0.96932214,0.20443191,0.1364626,0
0.7165488,-1.2090492,-4.3363762,0.21045142,-0.40345895,-0.89046657,0
0.68121296,-1.9026794,-2.3851335,0.056685835,-0.90429735,0.42312253,0
-0.35777456,-0.283535,1.1531183,-0.19987854,-0.90938222,0.36479038,0
-0.068779737,1.6622396,3.491482,0.97294497,0.17526379,0.15053451,0
0.74074131,-2.0205264,-3.9629881,0.21045142,-0.40345895,-0.89046657,0
-1.4066827,2.0633187,3.7862124,-0.21045142,0.40345895,0.89046657,0
-0.14874268,1.5515325,1.7969978,0.43512112,0.85432565,-0.28424811,0
-0.35346818,1.7166953,4.1921782,-0.21045142,0.40345895,0.89046657,0
0.78869951,-0.23908028,-0.10744999,0.95110953,-0.12612319,0.28192848,0
-0.64380312,1.3600245,4.2851639,-0.21045142,0.40345895,0.89046657,0
-0.76015228,2.0369897,3.9509418,-0.21045142,0.40345895,0.89046657,0
-0.32740328,-0.94882727,-1.7362978,-0.95846456,-0.26451087,-0.10667551,0
-0.67082548,1.9741645,4.0005188,-0.21045142,0.40345895,0.89046657,0
0.6708914,0.33520147,0.0066819191,0.89452183,0.44693524,0.0089092255,0
0.91711867,-0.14016294,-1.1834028,0.85710526,0.51424164,-0.030429423,0
-1.509576,1.7664585,3.8963985,-0.21045142,0.40345895,0.89046657,0
-0.26211587,0.96804214,0.33797699,-0.13996649,0.88904691,-0.43589526,0
0.91508168,-2.235621,-3.8243284,0.21045142,-0.40345895,-0.89046657,0
-0.080936134,-1.4382303,-2.7286246,-0.94775164,-0.30757844,-0.084630251,0
0.96889949,-1.6427803,-4.0802178,0.21045142,-0.40345895,-0.89046657,0
1.2979202,-1.6840229,-3.9837711,0.21045142,-0.40345895,-0.89046657,0
0.58091629,-1.8576097,-4.0745769,0.21045142,-0.40345895,-0.89046657,0
0.78392923,-2.4204664,-3.7715738,0.21045142,-0.40345895,-0.89046657,0
-1.4961672,2.1169767,3.7407517,-0.21045142,0.40345895,0.89046657,0
0.96629339,-1.6335263,-4.0850263,0.21045142,-0.40345895,-0.89046657,0
0.090457559,-1.6434872,-2.2374887,-0.62986708,-0.75256777,0.19211704,0
0.56306666,-2.025187,-4.0028682,0.21045142,-0.40345895,-0.89046657,0
1.2509882,-0.77744198,-2.5341821,0.87288666,0.48770213,-0.014674902,0
-1.2109349,2.3340259,3.7098215,-0.21045142,0.40345895,0.89046657,0
-1.269472,1.2197366,2.172354,-0.93677616,0.17726028,-0.30171055,0
0.79599696,-2.2559128,-3.8432786,0.21045142,-0.40345895,-0.89046657,0
1.2482138,-0.80877638,-2.1805048,0.95417583,0.28298986,0.097289264,0
1.0518386,-2.413187,-3.711555,0.21045142,-0.40345895,-0.89046657,0
-1.1161222,1.2262926,4.2341285,-0.21045142,0.40345895,0.89046657,0
-0.45784593,1.6388092,4.2027988,-0.21045142,0.40345895,0.89046657,0
0.54657924,0.071640313,0.82208729,0.91001779,-0.25194755,0.32922634,0
-0.59401268,0.070840269,-0.57982773,-0.89379841,0.28958002,-0.34244385,0
-0.35711184,-0.26981235,-1.4774283,-0.85476661,0.36610222,-0.36789036,0
1.1590774,-1.6902671,-4.0137558,0.21045142,-0.40345895,-0.89046657,0
1.455247,-1.3854003,-4.0818911,0.21045142,-0.40345895,-0.89046657,0
-0.98103911,2.3828232,3.7420447,-0.21045142,0.40345895,0.89046657,0
0.68922675,-1.639667,-4.1477256,0.21045142,-0.40345895,-0.89046657,0
-1.3713906,1.0977173,3.6879683,-0.70176148,-0.69650102,0.14972252,0
-0.95529306,2.0040998,3.9197242,-0.21045142,0.40345895,0.89046657,0
-0.64500976,1.4293518,4.2534671,-0.21045142,0.40345895,0.89046657,0
-0.62173635,2.1212358,3.9454834,-0.21045142,0.40345895,0.89046657,0
1.3028908,-1.5755186,-2.5569851,0.84297597,-0.38638705,0.37429455,0
1.0506402,-1.2494965,-4.2390914,0.21045142,-0.40345895,-0.89046657,0
-0.91931748,0.58225822,2.9726138,-0.36279255,-0.87805408,0.31209314,0
-0.55826056,0.38156557,2.6594255,-0.003681004,-0.91118664,0.41197705,0
-0.40648603,0.45301127,2.7683284,0.22502199,-0.86641645,0.44574344,0
-1.1434927,2.4484823,3.6739013,-0.21045142,0.40345895,0.89046657,0
-0.476013,2.0905442,3.9938297,-0.21045142,0.40345895,0.89046657,0
0.37804398,-1.7701917,-4.1621313,0.21045142,-0.40345895,-0.89046657,0
-1.4295911,1.1337528,3.0390594,-0.93398631,-0.35202146,-0.061240435,0
-0.65900981,1.9404812,4.0185723,-0.21045142,0.40345895,0.89046657,0
0.46219319,-2.0771651,-4.0031581,0.21045142,-0.40345895,-0.89046657,0
0.8039341,-0.037056684,-0.17589174,0.97629273,0.13390438,0.17006508,0
0.8065601,-1.8081679,-4.0436502,0.21045142,-0.40345895,-0.89046657,0
-0.96874535,2.4755468,3.7029381,-0.21045142,0.40345895,0.89046657,0
-0.22980469,0.72211862,-0.16228557,-0.25163329,0.8578189,-0.44813728,0
-1.154448,1.0957835,1.7515291,-0.90938652,0.25349861,-0.32977992,0
-1.0526055,1.112484,4.2501211,-0.15340507,-0.91321069,0.37750858,0
0.032262847,1.1188698,3.0418601,0.92784029,-0.20447862,0.31193089,0
0.073234707,-0.51574087,-2.5645168,-0.6058535,0.66103327,-0.44269213,0
1.2185459,-1.3373976,-4.1595821,0.21045142,-0.40345895,-0.89046657,0
-0.98493063,2.1507311,3.8462832,-0.21045142,0.40345895,0.89046657,0
0.89573562,-1.5812526,-4.1253862,0.21045142,-0.40345895,-0.89046657,0
0.79016578,-1.8248959,-4.0399451,0.21045142,-0.40345895,-0.89046657,0
0.87498105,-1.8849459,-3.992692,0.21045142,-0.40345895,-0.89046657,0
-0.32258219,1.7482295,4.1851897,-0.21045142,0.40345895,0.89046657,0
-0.29878592,1.6371936,1.8674701,0.27123064,0.89920408,-0.3433156,0
0.092289537,-1.0399063,-0.49234015,-0.12314582,-0.91455114,0.3852672,0
-0.94003391,1.619854,4.0974274,-0.21045142,0.40345895,0.89046657,0
-1.6080122,1.7668138,3.872973,-0.21045142,0.40345895,0.89046657,0
-1.2076013,2.3374186,3.7090721,-0.21045142,0.40345895,0.89046657,0
1.3977311,-1.1140337,-2.7680137,0.96334541,0.24059027,0.11866716,0
-0.98463833,2.1717634,3.8368225,-0.21045142,0.40345895,0.89046657,0
-0.5349468,2.0819182,2.8457549,0.26508409,0.90029162,-0.34526104,0
1.1224821,-2.3472843,-3.7247186,0.21045142,-0.40345895,-0.89046657,0
0.0062055886,-1.0385387,-0.53164822,-0.24250792,-0.90394104,0.35225016,0
0.44555879,-2.3376682,-3.8890586,0.21045142,-0.40345895,-0.89046657,0
-0.30763727,1.1079721,3.7625248,0.67354864,-0.60033852,0.43119103,0
0.63755542,0.037625939,0.52601361,0.94811726,-0.13779217,0.28650838,0
-0.73873812,2.2891078,3.8417714,-0.21045142,0.40345895,0.89046657,0
-1.4140328,2.2164264,3.7151036,-0.21045142,0.40345895,0.89046657,0
0.93708789,-1.2123607,-1.4139957,0.70354921,-0.56992662,0.42450213,0
0.42331493,-1.4140091,-4.3128138,0.21045142,-0.40345895,-0.89046657,0
1.2873766,-0.86493659,-2.9145255,0.81431508,0.57634515,-0.068680704,0
-1.0042952,1.4394383,4.1639838,-0.21045142,0.40345895,0.89046657,0
-0.38433844,1.7197589,2.0207169,0.20985124,0.90827686,-0.36193264,0
-0.45678467,1.8575153,2.3244159,0.20901442,0.90837353,-0.36217427,0
1.1229365,-0.77262211,-3.2221496,0.53835839,0.80813742,-0.23892188,0
-0.30941594,1.9647241,4.0902104,-0.21045142,0.40345895,0.89046657,0
-1.2372613,2.0291533,3.841733,-0.21045142,0.40345895,0.89046657,0
-0.36796981,2.176399,3.4151914,0.63083893,0.75189018,-0.19158036,0
0.24018583,1.0189517,2.2255986,0.97752386,0.098530322,0.18638363,0
-0.6200704,-0.2247557,-0.63667846,-0.97467297,-0.016109318,-0.22305372,0
-0.19548404,0.29462528,2.3342559,0.36750627,-0.81140339,0.45449227,0
0.66480601,-1.5806937,-4.1802177,0.21045142,-0.40345895,-0.89046657,0
0.44111067,-1.60006,-4.2243109,0.21045142,-0.40345895,-0.89046657,0
-0.87273717,1.8067389,4.028657,-0.21045142,0.40345895,0.89046657,0
0.85939205,-2.233376,-3.8385074,0.21045142,-0.40345895,-0.89046657,0
-1.1340628,1.0383434,4.0043116,-0.32701752,-0.88744664,0.32480389,0
1.2167368,-2.307683,-3.7203856,0.21045142,-0.40345895,-0.89046657,0
-0.06169685,0.71988702,2.8354144,0.71135587,-0.56160593,0.42257714,0
-1.2483402,2.3446212,3.6961801,-0.21045142,0.40345895,0.89046657,0
-0.24866939,2.020411,4.0793366,-0.21045142,0.40345895,0.89046657,0
0.97096723,-1.4025046,-1.7313021,0.6459102,-0.62635112,0.436445,0
0.31487575,-1.6123433,-4.2485795,0.21045142,-0.40345895,-0.89046657,0
-0.29816082,1.4054866,4.1219606,0.80911738,-0.43932962,0.39028013,0
0.70256138,-1.3550634,-4.2735243,0.21045142,-0.40345895,-0.89046657,0
1.3593521,-1.3910952,-4.101974,0.21045142,-0.40345895,-0.89046657,0
-1.2407727,2.0420346,3.8350668,-0.21045142,0.40345895,0.89046657,0
1.2210158,-0.96337891,-1.9066577,0.97044063,-0.023849823,0.24015844,0
0.96743655,-2.274231,-3.7944615,0.21045142,-0.40345895,-0.89046657,0
-0.20119226,1.4912997,1.5637276,0.30318034,0.89289188,-0.33290464,0
0.90463853,-1.4783807,-4.1698923,0.21045142,-0.40345895,-0.89046657,0
-1.3324356,1.8327017,3.9082494,-0.21045142,0.40345895,0.89046657,0
1.220587,-2.1068959,-3.8104496,0.21045142,-0.40345895,-0.89046657,0
0.9580915,-2.1690435,-3.0171893,0.22142157,-0.86752313,0.44539398,0
0.2919234,1.0368847,1.8239664,0.94512773,0.3167966,0.079833567,0
-1.4742378,1.3851712,2.9816523,-0.97675955,-0.048919886,-0.20868081,0
-1.6037102,1.8336897,3.8436892,-0.21045142,0.40345895,0.89046657,0
0.91390163,-2.4693518,-3.7187071,0.21045142,-0.40345895,-0.89046657,0
-0.87562138,1.6806598,4.0851002,-0.21045142,0.40345895,0.89046657,0
0.88692915,-0.51691526,-0.57265562,0.92858803,-0.20230415,0.31112242,0
-1.1672076,0.9934082,3.8369415,-0.41616049,-0.86118567,0.29183733,0
0.41302562,-2.2257705,-3.9474471,0.21045142,-0.40345895,-0.89046657,0
1.173669,-1.4140861,-2.1033278,0.80994105,-0.43812272,0.38992795,0
-1.2172161,2.2032793,3.2814569,-0.48171148,0.74981385,-0.45357794,0
0.95799911,-2.3082809,-3.7812641,0.21045142,-0.40345895,-0.89046657,0
0.6746555,0.32313374,-0.18133706,0.85097247,0.52395552,-0.036280036,0
-0.3401686,1.0478473,3.7242396,0.61572152,-0.65279919,0.44129354,0
-1.2561661,1.6698108,4.0000787,-0.21045142,0.40345895,0.89046657,0
1.0818291,-1.4257154,-4.1518774,0.21045142,-0.40345895,-0.89046657,0
-0.89134872,1.6235828,4.107244,-0.21045142,0.40345895,0.89046657,0
0.58742118,-1.4514132,-4.2570815,0.21045142,-0.40345895,-0.89046657,0
1.2513293,-1.0107055,-2.0341027,0.97186643,-0.012199096,0.23521663,0
0.6925208,-2.1132574,-3.9323697,0.21045142,-0.40345895,-0.89046657,0
0.98904204,-0.53648782,-2.7242632,0.51887757,0.81807554,-0.24802887,0
0.52354604,0.20067012,-1.2293774,0.38268211,0.8721776,-0.30473006,0
-0.071410626,0.17372894,-1.2817024,-0.3915838,0.79981232,-0.45493096,0
1.5868011,-1.5554547,-3.4762807,0.97732723,0.10851435,0.18181348,0
0.48534089,-2.0070367,-4.0294614,0.21045142,-0.40345895,-0.89046657,0
1.3572855,-1.5795393,-4.0170813,0.21045142,-0.40345895,-0.89046657,0
0.82406348,-2.0544982,-2.7343726,0.13426664,-0.89030558,0.43511838,0
1.2029192,-2.2797194,-3.736321,0.21045142,-0.40345895,-0.89046657,0
1.4117893,-2.126421,-3.7564144,0.21045142,-0.40345895,-0.89046657,0
0.98871541,-2.4728863,-3.6451194,0.069147795,-0.90244132,0.42522681,0
0.94299144,-0.2154268,-0.91533691,0.94853443,0.3047446,0.086099267,0
0.36970887,-1.609199,-4.2370448,0.21045142,-0.40345895,-0.89046657,0
-1.3256373,1.9794836,3.8433514,-0.21045142,0.40345895,0.89046657,0
0.45036298,-2.2937634,-3.9078157,0.21045142,-0.40345895,-0.89046657,0
0.55742294,-2.2774096,-3.8899233,0.21045142,-0.40345895,-0.89046657,0
-1.1447046,1.8707952,3.9353576,-0.21045142,0.40345895,0.89046657,0
-0.69432855,1.4613209,4.2273264,-0.21045142,0.40345895,0.89046657,0
1.5807549,-1.6855617,-3.9162292,0.21045142,-0.40345895,-0.89046657,0
-0.39221537,1.2276821,4.0606532,0.65381706,-0.619093,0.43502516,0
-0.24082863,-0.65934634,-2.1169682,-0.91048849,0.25078627,-0.32881144,0
-0.49109274,2.0050998,4.0289793,-0.21045142,0.40345895,0.89046657,0
0.48998916,0.25461257,-1.1170162,0.37410343,0.87477076,-0.30793226,0
-0.68617916,-0.15321231,1.0540137,-0.62836701,-0.75360954,0.19294351,0
0.4023585,-0.95248413,-3.6545742,-0.50827098,0.73292184,-0.45220137,0
0.880404,-0.6172365,-0.62972343,0.89465636,-0.28769436,0.34179226,0
-1.3076098,1.1567385,2.2772899,-0.96628654,0.052351501,-0.25209042,0
-1.3816613,1.5441594,4.0273499,-0.21045142,0.40345895,0.89046657,0
-1.2579761,2.1772194,3.7697506,-0.21045142,0.40345895,0.89046657,0
-1.2779686,1.3739476,4.1289773,-0.21045142,0.40345895,0.89046657,0
0.27732593,-2.1380401,-3.7345562,-0.82180071,-0.56634951,0.062382638,0
0.34406152,-1.6629667,-4.2187448,0.21045142,-0.40345895,-0.89046657,0
-0.1347959,1.8788509,3.4466298,0.9021374,0.43107736,0.017894089,0
-0.71723378,0.40480042,2.6721044,-0.20045894,-0.90932065,0.36462528,0
0.4700225,-0.66755795,-3.2145936,-0.27985463,0.84788334,-0.4503054,0
-1.1694283,1.9234934,3.9056377,-0.21045142,0.40345895,0.89046657,0
1.5962157,-1.8628197,-3.832262,0.21045142,-0.40345895,-0.89046657,0
1.2401611,-1.4161806,-4.1187778,0.21045142,-0.40345895,-0.89046657,0
-0.52407587,0.78212833,3.4638734,0.28623298,-0.84551901,0.45074159,0
-1.1589259,2.4354572,3.6761556,-0.21045142,0.40345895,0.89046657,0
-0.23709883,0.95097756,3.4335849,0.66346949,-0.61003572,0.43320268,0
1.0414264,-0.85475492,-3.5959373,0.33179623,0.88627785,-0.32314491,0
0.8516416,-2.116962,-3.8930845,0.21045142,-0.40345895,-0.89046657,0
0.038878784,0.46924281,2.3317115,0.68528318,-0.58872759,0.42870361,0
-0.88822126,1.9681897,3.9518464,-0.21045142,0.40345895,0.89046657,0
-0.58380812,1.3293266,4.3132515,-0.21045142,0.40345895,0.89046657,0
0.35848194,-1.5363054,-4.2727256,0.21045142,-0.40345895,-0.89046657,0
1.3026458,-1.5640359,-4.0370193,0.21045142,-0.40345895,-0.89046657,0
-0.67738217,2.4640126,3.7770247,-0.21045142,0.40345895,0.89046657,0
-0.18238604,1.3105645,3.7665813,0.85710305,-0.36194947,0.366561,0
0.56380534,-1.8201776,-4.0955811,0.21045142,-0.40345895,-0.89046657,0
-1.3698668,1.0255857,2.7542443,-0.94129252,-0.32957429,-0.07313776,0
0.48987678,0.47571862,1.1874529,0.97480178,0.017685056,0.22237025,0
-0.31850982,-0.72924292,-0.048480928,-0.50054312,-0.82688522,0.2563535,0
-0.053353965,-0.23109877,1.2602992,0.22075588,-0.86772633,0.44532871,0
-0.51255518,2.2938542,3.8930769,-0.21045142,0.40345895,0.89046657,0
-0.0039817989,-1.5665939,-3.1102686,-0.95958275,-0.25934243,-0.10928154,0
0.12656263,0.061487556,1.6110752,0.57079136,-0.68877465,0.44697484,0
0.26174831,1.1131533,1.8444717,0.92043436,0.38869631,0.041420639,0
0.30372757,0.68878245,1.9437268,0.95068473,-0.12781946,0.28259665,0
-0.8064909,1.3481088,4.2521133,-0.21045142,0.40345895,0.89046657,0
1.155308,-2.0354478,-2.9390326,0.50738388,-0.73350304,0.45225513,0
-0.032361805,1.6819234,3.0251672,0.90506327,0.4247348,0.021459401,0
-0.3800188,-0.49317396,-1.595596,-0.9387697,0.17077649,-0.29924396,0
-0.60308224,2.1603408,3.9321742,-0.21045142,0.40345895,0.89046657,0
-0.58926779,2.0795398,3.9720492,-0.21045142,0.40345895,0.89046657,0
-0.35309958,-0.63008249,0.20203131,-0.47079945,-0.84010988,0.26937497,0
-1.0594418,0.57490182,2.6816823,-0.61487716,-0.76276684,0.20028067,0
0.15740931,-1.7426503,-2.4096856,-0.59880447,-0.77319682,0.20880502,0
1.2116402,-2.3432364,-3.7054811,0.21045142,-0.40345895,-0.89046657,0
0.81271684,-0.76768726,-0.6282956,0.7917279,-0.46398851,0.39734295,0
-1.6164453,1.7893105,3.5952871,-0.95889169,0.092173479,-0.26838553,0
-1.4278586,1.1295342,3.4669704,-0.8253355,-0.56151402,0.059356332,0
0.48453537,0.68385363,0.57531244,0.83860528,0.54264927,-0.047672808,0
-0.6185813,0.54560041,-0.0078234375,-0.72843254,0.54276782,-0.41807765,0
0.69603521,-2.2760663,-3.8577724,0.21045142,-0.40345895,-0.89046657,0
0.015496314,-1.6302619,-2.5773342,-0.80880749,-0.58349693,0.073222637,0
-0.83198434,0.70157361,0.59470415,-0.83215833,0.40409598,-0.37976164,0
-0.029712677,-0.22554064,-1.9874003,-0.55998123,0.69687581,-0.44809055,0
0.54084241,-2.3165853,-3.876092,0.21045142,-0.40345895,-0.89046657,0
0.6239782,0.41168758,0.36384463,0.93264341,0.35591626,0.059158385,0
-1.1807793,2.2690215,3.7464008,-0.21045142,0.40345895,0.89046657,0
1.2184927,-1.4017129,-4.1304541,0.21045142,-0.40345895,-0.89046657,0
-0.1709016,1.8109589,3.9628642,0.97743249,0.10391513,0.18392223,0
-0.51321381,-0.24081695,1.1270059,-0.39964017,-0.86678541,0.29827899,0
1.0269984,-2.0033875,-2.7575417,0.3928597,-0.79917818,0.45494527,0
1.0987148,-0.67190194,-2.9289007,0.59216905,0.77735597,-0.2122578,0
0.83812511,-1.5449653,-4.1554432,0.21045142,-0.40345895,-0.89046657,0
-0.44798177,2.143765,3.1193721,0.45127138,0.84810644,-0.27761328,0
-0.78171682,1.8613276,4.0254354,-0.21045142,0.40345895,0.89046657,0
-0.016205609,-1.5799997,-2.5383427,-0.83377171,-0.54965591,0.051989734,0
-0.074639738,0.50771952,2.5544233,0.60063297,-0.6653114,0.44339669,0
-0.84962106,1.2167296,4.301446,-0.21045142,0.40345895,0.89046657,0
0.5090915,-0.29886699,0.51835835,0.74441063,-0.52429396,0.41348362,0
-1.5711219,1.5848927,3.9641178,-0.21045142,0.40345895,0.89046657,0
0.31536636,1.0022562,1.2310712,0.82293558,0.56480533,-0.061414778,0
0.63151586,-2.1284909,-3.9398854,0.21045142,-0.40345895,-0.89046657,0
0.10051645,-1.1231203,-3.3895178,-0.84599137,0.38130173,-0.37270314,0
-1.3116603,1.719727,3.9643466,-0.21045142,0.40345895,0.89046657,0
-0.22407186,-0.54330808,0.57878476,-0.20241997,-0.90911013,0.36406648,0
0.2260524,0.21018994,1.6729391,0.72986174,-0.54114985,0.41768235,0
-0.70139426,1.9812207,3.9900961,-0.21045142,0.40345895,0.89046657,0
-0.97823405,1.5182352,4.1344414,-0.21045142,0.40345895,0.89046657,0
-1.4814677,1.6753259,3.9443321,-0.21045142,0.40345895,0.89046657,0
-0.88820994,2.0194488,3.9286244,-0.21045142,0.40345895,0.89046657,0
0.16556317,-1.6789589,-3.9581649,-0.96811688,0.040580869,-0.24718985,0
1.2977897,-1.562223,-4.0389876,0.21045142,-0.40345895,-0.89046657,0
-1.4568586,1.2450266,2.9872205,-0.96908832,-0.20606257,-0.13566852,0
0.95055377,-2.2139814,-3.1021588,0.18549782,-0.87783808,0.44157743,0
1.2052954,-1.7861848,-3.959374,0.21045142,-0.40345895,-0.89046657,0
-0.54869115,1.4621029,4.2613916,-0.21045142,0.40345895,0.89046657,0
1.1266949,-0.69916487,-2.9483819,0.61986911,0.75942194,-0.19758546,0
1.1725572,-2.3657739,-3.7045064,0.21045142,-0.40345895,-0.89046657,0
1.0316447,-1.4967809,-4.1315393,0.21045142,-0.40345895,-0.89046657,0
0.40384501,-2.1110086,-4.0016136,0.21045142,-0.40345895,-0.89046657,0
0.59308207,-1.6990767,-4.1435304,0.21045142,-0.40345895,-0.89046657,0
0.72264117,0.17973934,0.089350253,0.96352148,0.23965243,0.11913371,0
0.95827639,-1.1427647,-1.360507,0.75179344,-0.51546061,0.41122627,0
0.92814362,-2.4760642,-3.7122998,0.21045142,-0.40345895,-0.89046657,0
-0.32505512,0.58561122,-0.33751392,-0.43224698,0.77859133,-0.45492631,0
1.0518303,-1.1594448,-4.2796111,0.21045142,-0.40345895,-0.89046657,0
-1.539399,1.5962586,3.9664655,-0.21045142,0.40345895,0.89046657,0
1.0902803,-2.2365627,-3.7824955,0.21045142,-0.40345895,-0.89046657,0
0.057817966,-1.0686966,-0.5765698,-0.19137794,-0.91024476,0.36719018,0
-0.96943593,2.2468534,3.8063936,-0.21045142,0.40345895,0.89046657,0
0.56834912,-0.17514303,0.5429132,0.84006375,-0.3912352,0.37580296,0
-0.90940785,1.517365,4.1511021,-0.21045142,0.40345895,0.89046657,0
-0.17401016,1.9490628,3.683342,0.91926306,0.39162472,0.039817035,0
-1.5081234,1.3423519,4.0888987,-0.21045142,0.40345895,0.89046657,0
-1.4225856,1.8941584,3.8590984,-0.21045142,0.40345895,0.89046657,0
1.1664737,-2.1333256,-3.8112638,0.21045142,-0.40345895,-0.89046657,0
0.52927399,0.27825809,-0.99107748,0.45830804,0.84528595,-0.27467239,0
0.57874846,0.13641495,0.76788926,0.94480133,-0.15003601,0.29127222,0
1.4194252,-1.2790689,-4.1385341,0.21045142,-0.40345895,-0.89046657,0
0.34857908,-1.7115445,-4.1956673,0.21045142,-0.40345895,-0.89046657,0
-1.5394553,1.5902829,3.9691598,-0.21045142,0.40345895,0.89046657,0
0.28865385,-1.5915179,-4.2642121,0.21045142,-0.40345895,-0.89046657,0
-1.1755135,1.9000397,2.7519131,-0.59521639,0.6696943,-0.44410235,0
-1.1430911,1.680613,4.0219083,-0.21045142,0.40345895,0.89046657,0
-0.49646071,-0.65395081,-0.45461172,-0.82025707,-0.56843758,0.063693583,0
0.60336947,-0.055162787,0.56781161,0.90449399,-0.26526409,0.33395442,0
-0.2602995,0.23549008,2.2704203,0.26226807,-0.85417473,0.44899946,0
-1.003629,1.6198072,4.0824189,-0.21045142,0.40345895,0.89046657,0
0.34286556,-0.053012133,-1.9317449,-0.051773518,0.90498805,-0.42227441,0
-0.86898041,1.842505,4.0133395,-0.21045142,0.40345895,0.89046657,0
0.92067194,-1.2149245,-1.3906744,0.68816757,-0.58581877,0.42806739,0
-0.024135351,0.99926573,0.4220233,0.18782261,0.91058379,-0.36818415,0
-1.2194321,2.2498116,3.7459695,-0.21045142,0.40345895,0.89046657,0
0.12915951,-1.0950531,-0.61158735,-0.11220235,-0.91481525,0.38797331,0
0.74939394,-2.2178135,-3.8715556,0.21045142,-0.40345895,-0.89046657,0
0.87846577,-1.2374105,-4.2852588,0.21045142,-0.40345895,-0.89046657,0
-1.0587509,1.9513626,3.9191678,-0.21045142,0.40345895,0.89046657,0
0.023141533,-0.46569306,0.76265228,0.16732842,-0.88255835,0.43942201,0
0.62517464,-2.0465302,-3.9785194,0.21045142,-0.40345895,-0.89046657,0
0.65267199,-1.6730103,-4.1412578,0.21045142,-0.40345895,-0.89046657,0
1.3801554,-1.8872719,-3.8722463,0.21045142,-0.40345895,-0.89046657,0
0.65581954,-1.7580981,-4.1019616,0.21045142,-0.40345895,-0.89046657,0
0.94111836,-1.4698029,-4.1651573,0.21045142,-0.40345895,-0.89046657,0
-0.26221675,2.079144,3.458055,0.76529801,0.63476497,-0.10673457,0
-0.44742236,-0.72038352,-0.46557951,-0.76802993,-0.6317904,0.10474116,0
0.61715907,-1.5564013,-4.2024846,0.21045142,-0.40345895,-0.89046657,0
-1.2535617,2.0558677,3.8257766,-0.21045142,0.40345895,0.89046657,0
-0.85601068,0.31507659,2.2702127,-0.48787671,-0.83267492,0.26197028,0
-0.92890751,1.7491131,4.041492,-0.21045142,0.40345895,0.89046657,0
1.4569701,-1.5379272,-4.0123754,0.21045142,-0.40345895,-0.89046657,0
0.99571794,-0.29023385,-1.5051874,0.85986972,0.50975877,-0.027744949,0
1.0535098,-1.60221,-4.0786033,0.21045142,-0.40345895,-0.89046657,0
-0.39261171,1.3887558,4.2809272,0.72658682,-0.54484767,0.41858387,0
-0.49636835,2.0871234,2.8937154,0.32681677,0.88749522,-0.32487339,0
-0.33448762,1.8590457,2.4397798,0.39385372,0.8686654,-0.30049831,0
0.86776865,-2.231782,-3.83725,0.21045142,-0.40345895,-0.89046657,0
0.22918361,-0.91405416,-3.3692963,-0.65331209,0.6195609,-0.43511781,0
0.43882552,-1.7021508,-4.1785946,0.21045142,-0.40345895,-0.89046657,0
-0.47406089,2.3628016,3.8709345,-0.21045142,0.40345895,0.89046657,0
0.087479353,1.2315414,1.2244412,0.55684483,0.79813182,-0.23001939,0
1.5926933,-1.5400572,-3.9793339,0.21045142,-0.40345895,-0.89046657,0
-0.86377668,0.7161504,0.68106723,-0.84944117,0.37539887,-0.37084395,0
0.6851697,-1.5034747,-4.2103915,0.21045142,-0.40345895,-0.89046657,0
0.78792197,-2.210052,-3.8659663,0.21045142,-0.40345895,-0.89046657,0
0.87757635,-2.1274915,-3.8821847,0.21045142,-0.40345895,-0.89046657,0
-0.26258361,1.7367411,2.1807368,0.40690723,0.86436486,-0.29546475,0
-0.51165658,-0.068947077,1.5996157,-0.26010877,-0.9011423,0.34682238,0
-0.3592425,-0.93220651,-1.3431007,-0.89890814,-0.43791202,-0.014034271,0
1.067975,-0.68413985,-1.2609307,0.96838272,-0.038780376,0.24643689,0
0.78468758,-1.4162295,-1.5215824,0.45938569,-0.76322132,0.45437628,0
0.74787831,-0.44755137,-0.14497593,0.86611396,-0.34548408,0.36123037,0
-1.5122476,1.4150214,3.1593707,-0.97740918,-0.10503242,-0.1834105,0
-0.53716642,1.5368662,4.2302413,-0.21045142,0.40345895,0.89046657,0
-0.7281177,1.5835767,4.1639481,-0.21045142,0.40345895,0.89046657,0
0.52423686,-1.4832292,-4.2575994,0.21045142,-0.40345895,-0.89046657,0
0.92130244,-1.8872604,-3.980696,0.21045142,-0.40345895,-0.89046657,0
0.58184099,-2.3357091,-3.8577375,0.21045142,-0.40345895,-0.89046657,0
-0.41490903,1.7832417,4.1475058,-0.21045142,0.40345895,0.89046657,0
0.46310666,-1.4649878,-4.2803116,0.21045142,-0.40345895,-0.89046657,0
0.52340853,-2.4017823,-3.8416107,0.21045142,-0.40345895,-0.89046657,0
-0.92366111,1.9394488,3.9564927,-0.21045142,0.40345895,0.89046657,0
-1.36736,1.2686124,4.1555772,-0.21045142,0.40345895,0.89046657,0
-0.9764002,1.521503,1.9142272,-0.59365445,0.67094767,-0.44430107,0
-0.67149925,1.943646,4.0141869,-0.21045142,0.40345895,0.89046657,0
-1.345999,0.99898601,2.5865083,-0.95580113,-0.27621549,-0.10074282,0
1.0332521,-1.4647055,-4.1456923,0.21045142,-0.40345895,-0.89046657,0
1.4444915,-1.3468132,-4.1019163,0.21045142,-0.40345895,-0.89046657,0
-0.46505713,-0.69086415,-0.41732782,-0.77510321,-0.62394828,0.099516332,0
-0.73524922,0.85580635,3.6993542,0.084318876,-0.89998055,0.42769742,0
0.095536262,-1.5284441,-3.6586919,-0.96548265,0.057217766,-0.25410524,0
0.25875863,-1.8248582,-4.165554,0.21045142,-0.40345895,-0.89046657,0
-0.30844966,-0.044876814,-1.3147558,-0.72664559,0.54478163,-0.41856775,0
0.035499245,1.2996544,1.3372129,0.52649665,0.81426096,-0.24449986,0
-1.0662417,0.45828271,1.4153804,-0.95315158,-0.28713137,-0.095170796,0
-0.37160164,1.1722836,3.9507434,0.64635026,-0.62595087,0.43636769,0
1.0479047,-1.262269,-4.2339506,0.21045142,-0.40345895,-0.89046657,0
1.2902135,-0.92833376,-2.277967,0.96980751,0.20097028,0.13814574,0
-0.88186139,2.1643839,3.8644564,-0.21045142,0.40345895,0.89046657,0
-0.46958309,-0.70785111,-0.59020931,-0.82599092,-0.56060886,0.05879128,0
-0.12772706,0.95259476,0.28541684,0.016400635,0.91219491,-0.40942776,0
0.69195354,-1.7144361,-4.1132045,0.21045142,-0.40345895,-0.89046657,0
1.570116,-1.8205161,-3.8575974,0.21045142,-0.40345895,-0.89046657,0
1.2373471,-2.1364298,-3.793107,0.21045142,-0.40345895,-0.89046657,0
-0.77776599,-0.11412013,0.2713629,-0.93620706,-0.34543258,-0.064750612,0
-0.39096504,0.15546334,-0.91004944,-0.70798981,0.56521535,-0.42341697,0
-0.5407179,0.54554439,3.0066748,0.12400359,-0.8924917,0.43368328,0
0.53122413,0.24595845,-1.0861034,0.43339258,0.85497051,-0.28494883,0
1.376555,-2.0315893,-3.242435,0.71394128,-0.55881095,0.42192179,0
-1.3943697,2.1220069,3.7625318,-0.21045142,0.40345895,0.89046657,0
-1.1859008,1.6602416,4.0210209,-0.21045142,0.40345895,0.89046657,0
-0.19372603,0.85180974,3.2274168,0.65599716,-0.61706656,0.43462226,0
0.047547936,-1.700686,-3.195158,-0.93031108,-0.36253101,-0.05561012,0
-0.54739094,-0.4023028,-0.93718135,-0.97724497,-0.062128253,-0.20281099,0
0.42399809,-0.93242693,-0.35780412,0.34532768,-0.82146537,0.45380956,0
1.3290093,-1.0864496,-3.8022103,0.6204859,0.75900525,-0.19725084,0
-0.66565323,-0.24483332,-0.39416519,-0.97443551,-0.15985158,-0.15786985,0
-0.7973246,1.1715336,4.3342834,-0.21045142,0.40345895,0.89046657,0
1.4973772,-1.6921597,-3.9329453,0.21045142,-0.40345895,-0.89046657,0
-1.1218725,1.47785,4.1187921,-0.21045142,0.40345895,0.89046657,0
0.16980964,-1.9007618,-3.0597987,-0.76334465,-0.6368736,0.10815156,0
0.67146242,-1.8713989,-4.0469294,0.21045142,-0.40345895,-0.89046657,0
0.75651306,-1.0043671,-0.84260827,0.63976419,-0.63189518,0.43750447,0
0.093790352,-1.790699,-3.0019174,-0.83329135,-0.55034351,0.052414834,0
1.0347974,-2.3223104,-3.7567577,0.21045142,-0.40345895,-0.89046657,0
-0.93650758,2.2209604,3.1105294,-0.16471729,0.88320959,-0.43909997,0
-0.58432209,1.4034128,4.2795625,-0.21045142,0.40345895,0.89046657,0
-0.79108882,1.9221416,3.9956663,-0.21045142,0.40345895,0.89046657,0
-0.79470199,0.28291845,2.2715273,-0.41306445,-0.86226171,0.29305673,0
-1.2377015,0.98312187,3.675354,-0.54752952,-0.80324531,0.23453778,0
0.79881424,-2.0848694,-3.9201107,0.21045142,-0.40345895,-0.89046657,0
-1.2269543,1.6595998,4.0116091,-0.21045142,0.40345895,0.89046657,0
1.1717565,-0.64440131,-2.4346089,0.81186509,0.57954705,-0.070710421,0
-1.0258391,1.394875,4.1790838,-0.21045142,0.40345895,0.89046657,0
0.60351002,-0.60894275,-3.1539087,-0.087955028,0.8993578,-0.42827457,0
-0.003169328,1.261081,3.2346823,0.94696951,-0.14210656,0.28819191,0
0.91371697,-2.2203617,-3.8315651,0.21045142,-0.40345895,-0.89046657,0
0.24818508,1.1389924,1.9033797,0.92079544,0.3877866,0.041918278,0
1.3215014,-1.4746985,-4.07304,0.21045142,-0.40345895,-0.89046657,0
-1.390361,1.6476331,3.9784117,-0.21045142,0.40345895,0.89046657,0
0.32292509,0.95737994,0.98229975,0.76532733,0.63473308,-0.10671318,0
-0.096806407,-1.3805188,-1.8798088,-0.74935055,-0.65155458,0.11811066,0
1.1373727,-2.1418519,-3.8142784,0.21045142,-0.40345895,-0.89046657,0
-0.64351422,1.3267894,4.3002906,-0.21045142,0.40345895,0.89046657,0
1.4344788,-2.0896811,-3.7676985,0.21045142,-0.40345895,-0.89046657,0
0.77536738,-2.4813151,-3.7460275,0.21045142,-0.40345895,-0.89046657,0
1.025238,-1.1229262,-4.2843962,0.10878471,0.91487378,-0.38880754,0
0.077345639,0.95441651,0.37741417,0.30091405,0.89337647,-0.33365977,0
1.2197241,-0.91755533,-1.9012601,0.97533107,0.024570979,0.2193754,0
-0.58244765,0.98387766,3.8768063,0.33786941,-0.82471961,0.45352143,0
1.3518511,-1.8678093,-3.887754,0.21045142,-0.40345895,-0.89046657,0
-1.5738841,1.404222,4.0301986,-0.83958316,-0.54121208,0.046790481,0
0.081335381,-0.88257551,-3.0783453,-0.7654494,0.49859071,-0.4068101,0
-0.10073644,1.1648226,3.4316876,0.86096919,-0.35497463,0.3643145,0
0.43484432,-1.2163366,-0.90226936,0.19096327,-0.87635332,0.44219637,0
0.53037465,0.58345872,0.26519126,0.80816251,0.58432353,-0.073749542,0
0.71310717,-2.321959,-3.8329444,0.21045142,-0.40345895,-0.89046657,0
1.2161107,-1.5205455,-2.3114133,0.79997766,-0.45247993,0.39407825,0
-1.4584104,1.3042948,2.9361548,-0.97711533,-0.11561532,-0.17854604,0
-0.15700442,1.6300616,2.025867,0.49067065,0.83141828,-0.26074064,0
0.87832034,-2.4774222,-3.6558969,-0.074733049,-0.91484016,0.39684004,0
-1.4788458,1.8142376,3.8820126,-0.21045142,0.40345895,0.89046657,0
1.4308666,-2.0123663,-3.8035824,0.21045142,-0.40345895,-0.89046657,0
0.48122412,-0.29654813,-2.4704509,-0.037641674,0.90684634,-0.41977656,0
-0.69629276,-0.27628374,-0.03673166,-0.92772853,-0.36964697,-0.051775575,0
-0.018331707,-1.5853372,-2.670465,-0.87009823,-0.49256611,0.017537713,0
-1.4585347,1.9595785,3.820961,-0.21045142,0.40345895,0.89046657,0
-0.41643173,0.016164541,1.8487102,-0.066889673,-0.91467416,0.39861846,0
-1.3583165,1.0816133,2.5381472,-0.97422647,-0.16220717,-0.15675315,0
-1.6686277,1.7444096,3.8687985,-0.21045142,0.40345895,0.89046657,0
0.73102427,-0.39625096,-2.6424417,0.2264114,0.90621608,-0.35708511,0
-0.67782158,0.041148141,-0.35487577,-0.94774789,0.13918975,-0.2870543,0
0.47531608,-1.2644129,-4.2325511,-0.59503365,0.66984117,-0.44412571,0
-0.90338767,1.8226295,4.0142136,-0.21045142,0.40345895,0.89046657,0
-0.92607319,1.7470412,4.0430999,-0.21045142,0.40345895,0.89046657,0
0.41317773,-1.7719402,-4.1530352,0.21045142,-0.40345895,-0.89046657,0
0.70358348,-1.6601105,-4.1350698,0.21045142,-0.40345895,-0.89046657,0
-0.38711357,1.9810333,4.0644579,-0.21045142,0.40345895,0.89046657,0
1.4342954,-1.859417,-3.8720715,0.21045142,-0.40345895,-0.89046657,0
-1.520316,1.9348226,3.8175762,-0.21045142,0.40345895,0.89046657,0
0.64134383,-2.131104,-3.9363787,0.21045142,-0.40345895,-0.89046657,0
0.32520312,-1.2167268,-3.9392679,-0.70763928,0.56558925,-0.42350352,0
0.4242475,-1.730072,-4.1693892,0.21045142,-0.40345895,-0.89046657,0
1.1310105,-1.9318833,-3.9109159,0.21045142,-0.40345895,-0.89046657,0
-0.28543854,-0.56511831,0.47718948,-0.30847275,-0.89173782,0.33113092,0
-0.11383003,-1.1548965,-2.777622,-0.96983385,0.028452426,-0.2421004,0
0.13142149,-0.14547801,-2.015964,-0.35272413,0.81817418,-0.45406646,0
1.4505816,-1.9441938,-3.8298111,0.21045142,-0.40345895,-0.89046657,0
1.3932277,-1.1379113,-3.7725718,0.70389783,0.69463205,-0.14837068,0
1.2019722,-1.0704117,-4.0144701,0.4073844,0.86420363,-0.29527891,0
-0.19647406,0.55646348,2.7812958,0.50758827,-0.73336929,0.45224279,0
0.81313419,-1.4260302,-4.2152381,0.21045142,-0.40345895,-0.89046657,0
-0.84672713,1.216495,4.3022366,-0.21045142,0.40345895,0.89046657,0
-0.13020045,1.7078552,2.3598948,0.61709583,0.76128662,-0.19908571,0
0.47030231,-1.5766139,-4.2280345,0.21045142,-0.40345895,-0.89046657,0
-0.67635453,1.2840681,4.3118854,-0.21045142,0.40345895,0.89046657,0
0.66009367,-2.1006746,-3.9457347,0.21045142,-0.40345895,-0.89046657,0
-1.0464511,0.38559556,1.5548782,-0.90130591,-0.43285352,-0.01689291,0
0.67350018,-1.1251134,-0.92209721,0.50045103,-0.73800468,0.45265615,0
-1.4235837,1.4461732,4.0618386,-0.21045142,0.40345895,0.89046657,0
-0.082377017,1.4369005,1.5542626,0.4460606,0.85015142,-0.27977145,0
-1.5914479,2.0274172,3.758812,-0.21045142,0.40345895,0.89046657,0
0.8018589,-1.3578506,-1.4435174,0.50738186,-0.73350435,0.45225519,0
1.2987368,-1.6272707,-4.0092916,0.21045142,-0.40345895,-0.89046657,0
1.6676086,-1.8530421,-3.8018694,0.9652546,-0.058567688,0.25466302,0
1.1689464,-1.6838312,-4.0143394,0.21045142,-0.40345895,-0.89046657,0
1.6667724,-1.6861873,-3.8956165,0.21045142,-0.40345895,-0.89046657,0
-1.3174572,1.7328067,3.9570503,-0.21045142,0.40345895,0.89046657,0
-0.79249227,1.9189663,3.9967735,-0.21045142,0.40345895,0.89046657,0
-0.4584235,-0.56596184,-1.3155706,-0.97695059,-0.053491063,-0.20665483,0
-0.22036505,1.9030628,4.139194,-0.21045142,0.40345895,0.89046657,0
0.11514896,0.024846554,1.5680633,0.54135168,-0.71036506,0.44979942,0
0.17337087,-0.57582402,-2.7854614,-0.54026079,0.711137,-0.44989139,0
-0.96601355,0.7144227,3.2884674,-0.32841283,-0.88710803,0.32432067,0
0.62079746,-2.4469974,-3.7658753,-0.42692471,-0.85734886,0.2875551,0
0.30556035,-1.5611348,-4.273983,0.21045142,-0.40345895,-0.89046657,0
-0.23759317,1.6562018,4.1963873,0.93327773,-0.18825352,0.30586463,0
0.87928098,-0.22974372,-0.46847749,0.97738391,0.067494176,0.2004126,0
1.1199851,-1.840642,-3.9548616,0.21045142,-0.40345895,-0.89046657,0
-1.311443,1.2550397,4.174942,-0.21045142,0.40345895,0.89046657,0
0.35644767,-0.75105435,0.021062732,0.37444922,-0.8081333,0.45465153,0
-0.15646324,-0.98395211,-0.55870593,-0.45037451,-0.84846097,0.27798593,0
-0.12221517,0.87448001,3.1421552,0.72838449,-0.542822,0.41809094,0
0.62679464,-1.9563527,-4.0189943,0.21045142,-0.40345895,-0.89046657,0
1.5531983,-1.7684183,-3.8852007,0.21045142,-0.40345895,-0.89046657,0
0.68168169,-1.4566121,-4.2324491,0.21045142,-0.40345895,-0.89046657,0
-1.3430014,2.2732577,3.5401034,-0.56944728,0.68979311,-0.44711864,0
-0.62423855,2.3998055,3.818676,-0.21045142,0.40345895,0.89046657,0
-1.1318234,1.1445255,4.2674656,-0.21045142,0.40345895,0.89046657,0
-0.14951849,-0.16423368,1.4335617,0.14907771,-0.88696849,0.43710679,0
0.93437195,-1.6833191,-4.0700107,0.21045142,-0.40345895,-0.89046657,0
0.76212895,-1.4407215,-4.2206364,0.21045142,-0.40345895,-0.89046657,0
-0.73518407,2.0867453,3.9342992,-0.21045142,0.40345895,0.89046657,0
-0.094528317,1.7593937,2.758872,0.76807797,0.63173795,-0.10470599,0
-0.34443158,-0.63367987,0.20570982,-0.45924214,-0.84490651,0.27427971,0
0.63344276,-1.7703068,-2.0964677,0.082927346,-0.90021545,0.42747498,0
-0.018020034,-1.4803057,-3.1403627,-0.97522205,-0.15019277,-0.16243201,0
1.2308193,-1.3476334,-4.1520433,0.21045142,-0.40345895,-0.89046657,0
-0.63522458,0.52761316,-0.0011562705,-0.75001115,0.51761079,-0.4117792,0
0.96398556,-1.7065957,-2.1914876,0.48760197,-0.74615747,0.45331341,0
-0.82922095,1.353622,4.2442431,-0.21045142,0.40345895,0.89046657,0
0.98882294,-1.4839494,-1.8753951,0.62343895,-0.64622194,0.44013748,0
-1.4952695,1.4373713,4.0488844,-0.21045142,0.40345895,0.89046657,0
0.31459001,0.10504258,-1.5851907,0.016681463,0.91221547,-0.40937066,0
0.99461234,-0.76617289,-3.4010537,0.33086526,0.88650763,-0.3234691,0
1.2083006,-0.87008643,-1.8577347,0.97702384,0.055417389,0.20579933,0
0.51192558,-0.6269418,0.057270348,0.59566969,-0.66932964,0.44404423,0
-0.15489841,1.5110664,1.6692553,0.39077717,0.86964798,-0.30167079,0
0.16607708,0.85936332,2.4737074,0.92701554,-0.20685713,0.3128137,0
1.0909054,-1.9524059,-3.9110959,0.21045142,-0.40345895,-0.89046657,0
1.4596853,-1.432404,-4.059545,0.21045142,-0.40345895,-0.89046657,0
-0.79337138,2.4128156,3.7728088,-0.21045142,0.40345895,0.89046657,0
-1.0254933,2.2214015,3.1546335,-0.26704001,0.85250044,-0.44936883,0
1.1394761,-2.2249956,-3.7761097,0.21045142,-0.40345895,-0.89046657,0
1.0404239,-1.2589202,-4.2372355,0.21045142,-0.40345895,-0.89046657,0
1.2758209,-1.4071789,-4.1144285,0.21045142,-0.40345895,-0.89046657,0
-0.84935045,1.2157049,4.3019743,-0.21045142,0.40345895,0.89046657,0
-1.5482759,1.8136911,3.8658509,-0.21045142,0.40345895,0.89046657,0
-1.2099888,1.6489635,4.0204377,-0.21045142,0.40345895,0.89046657,0
-0.10725242,1.7684758,2.7255001,0.74455357,0.6564219,-0.12144971,0
-0.86983991,1.7834167,4.0399089,-0.21045142,0.40345895,0.89046657,0
-0.29680496,2.1882811,3.9754107,0.8628484,0.50485313,-0.024818361,0
1.1763262,-0.65718412,-2.4856873,0.803478,0.59026217,-0.077547491,0
-0.47604346,1.4066558,1.3015521,-0.12214884,0.89287585,-0.43341899,0
0.46529382,-2.0351419,-4.0214653,0.21045142,-0.40345895,-0.89046657,0
-1.4931439,1.7302089,3.9167061,-0.21045142,0.40345895,0.89046657,0
-0.72674036,1.8801618,4.0298948,-0.21045142,0.40345895,0.89046657,0
1.2220132,-1.7329538,-2.5854089,0.71498966,-0.55767196,0.42165354,0
-0.35967582,-0.19771135,1.3620973,-0.14036816,-0.91389847,0.38090122,0
-0.71909738,2.1965418,3.8883533,-0.21045142,0.40345895,0.89046657,0
0.93486798,-1.4142537,-4.1918035,0.21045142,-0.40345895,-0.89046657,0
0.14588958,-1.5736059,-1.868718,-0.45917627,-0.84493327,0.27430749,0
1.3635889,-1.1201205,-3.8184466,0.65668154,0.73311162,-0.1769644,0
0.35891002,0.86144507,1.6560133,0.96865994,0.20899162,0.13424012,0
-0.70344383,1.4794371,1.560662,-0.33893794,0.82425731,-0.45356435,0
0.20645446,-1.7604303,-4.1316714,-0.96858698,0.037377782,-0.24584967,0
-0.88551927,0.38629872,0.50198239,-0.95923764,0.090511471,-0.26771426,0
0.46088082,-1.9475636,-4.0621891,0.21045142,-0.40345895,-0.89046657,0
1.2060907,-2.1626439,-3.7886167,0.21045142,-0.40345895,-0.89046657,0
-0.49892604,2.036479,2.755332,0.28324676,0.89696062,-0.3394593,0
-1.2638228,1.4393659,4.1026807,-0.21045142,0.40345895,0.89046657,0
-0.55726475,-0.16452891,-0.85185647,-0.94158864,0.16130695,-0.29561967,0
0.39190114,-0.14713883,-2.1394815,-0.051850975,0.90497732,-0.42228794,0
0.99443263,-1.3493299,-4.2071419,0.21045142,-0.40345895,-0.89046657,0
-1.2169709,2.4060111,3.6757789,-0.21045142,0.40345895,0.89046657,0
1.3345808,-0.93686533,-2.8392155,0.8851409,0.46532011,-0.0016377568,0
-0.21529241,0.69110703,3.017633,0.55790436,-0.69840884,0.44829425,0
0.40197617,-1.480473,-4.2877426,0.21045142,-0.40345895,-0.89046657,0
0.97289193,-0.38564205,-2.2244544,0.64026093,0.74521607,-0.18632966,0
-1.1444281,0.81696081,3.3236747,-0.53535718,-0.8097083,0.24034303,0
-1.1729438,1.36026,4.1600013,-0.21045142,0.40345895,0.89046657,0
-0.30774465,0.72211289,-0.11131018,-0.33821425,0.82457054,-0.45353532,0
-0.59516823,-0.45185167,0.064067006,-0.79355776,-0.60246903,0.085422814,0
0.82640606,-2.2993846,-3.8163958,0.21045142,-0.40345895,-0.89046657,0
-0.38198456,0.018384695,-1.1022708,-0.76009482,0.50529015,-0.40858001,0
-1.563282,1.6885128,3.370728,-0.95866764,0.093241744,-0.26881659,0
1.2596412,-2.0416508,-3.8307817,0.21045142,-0.40345895,-0.89046657,0
0.21129054,-2.0249372,-3.7825069,-0.90512478,-0.42459995,-0.021534979,0
0.045604974,1.5305276,2.7259121,0.91250122,0.40790966,0.030840516,0
0.40204275,-2.2325306,-3.9469795,0.21045142,-0.40345895,-0.89046657,0
0.95844507,-2.3880024,-3.4603262,0.086358398,-0.89963281,0.42802185,0
-1.1950271,2.2698369,3.7426643,-0.21045142,0.40345895,0.89046657,0
1.3143528,-2.2443981,-3.7259891,0.21045142,-0.40345895,-0.89046657,0
0.51760471,-1.9711561,-4.0380936,0.21045142,-0.40345895,-0.89046657,0
-0.50345737,-0.5025214,0.28473645,-0.62729073,-0.75435406,0.19353527,0
-0.07790339,-0.99119723,-0.47757161,-0.33081472,-0.88651997,0.32348663,0
-0.42366937,-0.31298184,-1.3464884,-0.91174918,0.24765408,-0.32769021,0
0.48379129,-1.7129683,-4.1630659,0.21045142,-0.40345895,-0.89046657,0
0.5169577,-2.2981026,-3.890111,0.21045142,-0.40345895,-0.89046657,0
0.51487118,0.12095422,0.94736236,0.90649784,-0.26049805,0.33226857,0
1.0694301,-0.9192791,-3.74405,0.32316744,0.88836956,-0.32613194,0
-0.53344268,0.53889918,2.9909,0.12858036,-0.8915295,0.43432903,0
-1.1917362,1.9892378,3.8705778,-0.21045142,0.40345895,0.89046657,0
-0.36645001,2.1601334,3.9881935,-0.21045142,0.40345895,0.89046657,0
-0.96973115,1.2008176,4.2802687,-0.21045142,0.40345895,0.89046657,0
-0.35593486,0.28908116,-0.77528942,-0.61455244,0.65378493,-0.44146389,0
-1.0269716,1.5755963,4.0969334,-0.21045142,0.40345895,0.89046657,0
-0.4930467,2.3535116,3.870657,-0.21045142,0.40345895,0.89046657,0
0.38286191,-2.2186427,-3.5327716,-0.64602429,-0.74103725,0.18307418,0
0.93903464,-0.40834856,-0.71255577,0.97231972,-0.0081975907,0.23351072,0
-0.36844057,1.8637447,4.1220136,-0.21045142,0.40345895,0.89046657,0
0.48372886,-0.35892254,0.483091,0.69648039,-0.57731104,0.42617726,0
0.22101381,-0.63173819,0.33846653,0.2946851,-0.84231758,0.4512887,0
0.0054271817,1.425929,1.7039222,0.59410053,0.77615398,-0.21125662,0
-0.62281048,1.9898753,4.0047479,-0.21045142,0.40345895,0.89046657,0
0.14491874,-0.058436275,1.4004834,0.52798557,-0.71968865,0.45086497,0
-0.79155713,2.2276826,3.8571191,-0.21045142,0.40345895,0.89046657,0
-0.67090964,1.5721226,4.1826582,-0.21045142,0.40345895,0.89046657,0
1.4692503,-1.6104991,-3.0222869,0.93474102,-0.18371218,0.30415285,0
-1.2507355,2.3721328,3.6831489,-0.21045142,0.40345895,0.89046657,0
-0.47032407,1.3997321,4.3081722,-0.21045142,0.40345895,0.89046657,0
-0.36549002,2.2204432,3.6081581,0.68720126,0.70890218,-0.15878242,0
0.61733967,-2.1607037,-3.9286406,0.21045142,-0.40345895,-0.89046657,0
0.25031734,-2.034667,-3.2881727,-0.73297763,-0.66783965,0.12935883,0
1.0841693,-0.45683265,-1.7615569,0.8896625,0.45660597,0.0033791065,0
0.52073866,-0.49959683,-2.906384,-0.11920169,0.89347923,-0.43299592,0
-1.4243116,2.1517467,3.7419801,-0.21045142,0.40345895,0.89046657,0
0.42258644,0.16799188,-1.4055957,0.20630074,0.90868205,-0.36295539,0
0.51064479,-1.6954904,-4.1646385,0.21045142,-0.40345895,-0.89046657,0
0.67727923,-2.422534,-3.7958429,0.21045142,-0.40345895,-0.89046657,0
-0.50628585,-0.6134392,-0.95917112,-0.95426333,-0.28263173,-0.09747225,0
-0.99584836,0.55821824,2.781553,-0.51077574,-0.82203203,0.25173628,0
-0.6199891,0.30960613,-0.28680578,-0.82665217,0.41280815,-0.38240772,0
0.56090176,-1.9624639,-4.0317988,0.21045142,-0.40345895,-0.89046657,0
1.2708604,-2.3859596,-3.6721277,0.21045142,-0.40345895,-0.89046657,0
-0.77555025,1.4784694,4.2003608,-0.21045142,0.40345895,0.89046657,0
-0.20851123,-1.1856612,-1.5217247,-0.78016043,-0.61821252,0.095722318,0
-0.9267658,0.17033136,0.90836596,-0.93470556,-0.34990805,-0.062367976,0
-0.91689599,1.837328,4.0043612,-0.21045142,0.40345895,0.89046657,0
0.46493441,-0.64560533,-3.1700482,-0.27272257,0.85047483,-0.44979399,0
-1.0396249,2.1909285,3.8151441,-0.21045142,0.40345895,0.89046657,0
0.031916767,-1.3034072,-3.3498161,-0.94389707,0.1532639,-0.29252103,0
-0.9218179,1.2720785,4.259305,-0.21045142,0.40345895,0.89046657,0
0.51779604,0.36345714,-0.74179214,0.5156157,0.81968075,-0.24952698,0
0.38616842,0.87642932,1.2995298,0.91601777,0.39956796,0.035451055,0
-0.7222892,0.4001492,0.038287222,-0.86553073,0.34657249,-0.36158565,0
0.61787987,-0.27536154,-2.401731,0.15606561,0.9130497,-0.3768068,0
-0.57302141,2.2629681,3.8927798,-0.21045142,0.40345895,0.89046657,0
-1.0816913,1.5424457,4.099021,-0.21045142,0.40345895,0.89046657,0
-0.67812628,0.36036286,-0.10433425,-0.84939539,0.37547785,-0.37086892,0
1.4610717,-2.2534776,-3.6871998,0.21045142,-0.40345895,-0.89046657,0
1.0205593,-1.4671535,-1.8978044,0.660182,-0.61314529,0.43383458,0
1.2627391,-1.8334098,-3.9244006,0.21045142,-0.40345895,-0.89046657,0
0.34369257,-1.5329852,-4.2777252,0.21045142,-0.40345895,-0.89046657,0
-0.6970489,1.9113302,4.02279,-0.21045142,0.40345895,0.89046657,0
