-0.32376772,0.31688654,-0.90095472,0.35780883,0.85109556,-0.38419932,0
0.21006113,-0.33406392,0.75700635,-0.35780883,-0.85109556,0.38419932,0
-0.87920678,-0.38548696,-0.52299893,-0.72114891,-0.0095253736,-0.69271457,0
0.82689786,-0.095041662,-0.74184954,0.35780883,0.85109556,-0.38419932,0
0.25435358,0.40203243,-0.17392541,0.35780883,0.85109556,-0.38419932,0
0.65992743,-0.017089784,-0.72466838,0.35780883,0.85109556,-0.38419932,0
0.75190836,-0.36402494,0.61564696,0.85113293,-0.12800615,0.50910401,0
-0.6505599,0.063129157,0.83538091,-0.35780883,-0.85109556,0.38419932,0
0.72480971,-0.76912844,-0.10089666,0.85236645,-0.46571794,-0.23786142,0
0.0087127686,-0.2395542,-0.98711389,-0.055149853,-0.39145985,-0.91854101,0
-0.76335204,-0.42412362,-0.62629175,-0.62256038,-0.089232042,-0.77746761,0
0.079242468,0.64485013,0.20089245,0.35780883,0.85109556,-0.38419932,0
0.83650529,-0.50736153,0.33253646,0.92963022,-0.28585154,0.23254323,0
0.0042268783,-0.40751612,0.40259635,-0.35780883,-0.85109556,0.38419932,0
0.94499052,0.011481404,-0.39589405,0.35780883,0.85109556,-0.38419932,0
0.51765549,-0.82880306,-0.052496046,-0.35780883,-0.85109556,0.38419932,0
0.22735488,0.56326157,0.83034611,0.14086521,0.35753432,0.92321503,0
0.54173112,0.59519541,0.52161568,0.35780883,0.85109556,-0.38419932,0
0.98690939,-0.087157726,0.23301089,0.91913235,-0.24837458,0.30578697,0
-0.8215909,0.45064214,-0.43287849,-0.91314662,0.23286495,-0.33456993,0
-0.41087818,0.13880581,0.98957127,-0.26450884,0.48696479,0.8324064,0
-0.914904,0.17127109,-0.36775136,-0.90048325,0.20557266,-0.38323569,0
0.68189847,-0.78379452,-0.20085898,0.80567342,-0.48937944,-0.33376306,0
-0.82794952,0.60255277,-0.18467999,-0.93083251,0.35783195,-0.074208736,0
-0.25053057,-0.64938927,-0.37047011,-0.35780883,-0.85109556,0.38419932,0
0.90514284,-0.25475407,-0.43766534,0.80667424,-0.48897457,-0.33193412,0
0.41947713,-0.51730263,0.54611921,-0.35780883,-0.85109556,0.38419932,0
0.86683583,-0.19328436,-0.591977,0.73333895,-0.51082408,-0.448634,0
0.82611144,0.06148085,-0.39584643,0.35780883,0.85109556,-0.38419932,0
0.9064678,0.047649473,-0.35164952,0.35780883,0.85109556,-0.38419932,0
0.48137206,0.012708783,-0.82494783,0.35780883,0.85109556,-0.38419932,0
-0.079021215,0.85889733,0.67323875,-0.23791385,0.48095012,0.84385049,0
1.0047153,0.31729946,0.33719003,0.35780883,0.85109556,-0.38419932,0
-0.9095484,-0.11509576,0.19937056,-0.35780883,-0.85109556,0.38419932,0
-0.67214143,0.44891262,0.59522462,-0.64097071,0.52305627,0.56175488,0
-0.6994527,0.82797432,0.076536,-0.85152495,0.46625033,0.23982447,0
-0.74652022,0.75009578,0.054077983,-0.87193757,0.45177409,0.18874562,0
-0.063215375,0.098853767,-1.1057926,-0.23723924,-0.31508496,-0.91893351,0
-0.7691974,-0.38010392,-0.25697696,-0.35780883,-0.85109556,0.38419932,0
0.22756857,-0.80225945,-0.26385638,-0.35780883,-0.85109556,0.38419932,0
0.77832085,0.026125818,-0.51867419,0.35780883,0.85109556,-0.38419932,0
0.28747332,-0.77788043,-0.64053851,0.3995018,-0.51140618,-0.76082963,0
-0.23030984,0.094821662,1.0497669,-0.085388541,0.43953621,0.89415693,0
-0.240206,0.9283191,0.56402528,-0.4146173,0.51345915,0.75130028,0
0.48469347,0.19210073,-0.4244574,0.35780883,0.85109556,-0.38419932,0
-0.45539111,0.89131677,0.24896637,0.35780883,0.85109556,-0.38419932,0
0.74448514,-0.35043171,-0.60228926,0.67309093,-0.52025223,-0.52562934,0
-0.070715189,0.33891767,0.9433955,-0.035183549,0.42343414,0.90524334,0
-0.44421509,0.62322789,-0.33450758,0.35780883,0.85109556,-0.38419932,0
-0.2577464,-0.25192297,-0.93425769,-0.27646226,-0.29644102,-0.91416138,0
0.68443894,-0.51892275,-0.51211572,0.68443894,-0.51892275,-0.51211572,0
0.30509269,-0.80977595,-0.60903633,0.42890894,-0.51526237,-0.7419849,0
-0.46093953,-0.39250934,-0.81713742,-0.39472789,-0.23501626,-0.88823259,0
-0.33112371,-0.26906034,-0.90441334,-0.33112371,-0.26906034,-0.90441334,0
-0.085079551,-0.56035715,-0.019155912,-0.35780883,-0.85109556,0.38419932,0
0.67661679,0.31063068,0.016855478,0.35780883,0.85109556,-0.38419932,0
0.1050157,0.78870964,0.54357934,0.35780883,0.85109556,-0.38419932,0
0.12317079,-0.26029688,0.83949661,-0.35780883,-0.85109556,0.38419932,0
0.66493249,-0.75002193,-0.28341463,0.7692458,-0.50189871,-0.39542174,0
0.5421387,0.24936019,0.80812693,0.50788581,0.1678852,0.84490615,0
-0.46067604,-0.65569508,-0.58014965,-0.35780883,-0.85109556,0.38419932,0
0.21043904,-0.54246068,0.29570869,-0.35780883,-0.85109556,0.38419932,0
-0.55678457,-0.56274992,-0.4637602,-0.35780883,-0.85109556,0.38419932,0
0.86713946,-0.33877909,-0.40617463,0.80345351,-0.49026459,-0.33779144,0
0.37064993,-0.93312955,-0.42051232,-0.35780883,-0.85109556,0.38419932,0
-0.25814402,-0.76235795,-0.62781382,-0.35780883,-0.85109556,0.38419932,0
-0.3886236,0.82953835,0.5388748,-0.51740897,0.5232051,0.67715895,0
-0.082947195,0.030802965,-1.0773284,-0.22980839,-0.31852579,-0.91963542,0
-0.38232028,0.038215935,-0.96044374,-0.47704297,-0.18709442,-0.85873485,0
0.44070208,0.053461522,-0.77254677,0.35780883,0.85109556,-0.38419932,0
0.48507738,-0.23303542,0.92454213,0.62103719,0.090363011,0.77855444,0
0.96169853,0.17201459,-0.024713576,0.35780883,0.85109556,-0.38419932,0
0.84673858,0.43550617,0.45192122,0.35780883,0.85109556,-0.38419932,0
0.80096328,0.025072642,0.60302806,0.77368104,-0.039821655,0.63232243,0
0.34924266,0.37927642,0.86460292,0.30788615,0.2809045,0.9090097,0
0.48833573,-0.16177276,-0.94653088,0.34496057,-0.50280964,-0.7925809,0
-0.6317721,-0.46034604,-0.30674732,-0.35780883,-0.85109556,0.38419932,0
0.93938398,-0.17182305,0.30544233,0.91343164,-0.23355415,0.3333087,0
0.28527272,0.7286458,0.57839835,0.35780883,0.85109556,-0.38419932,0
0.044615328,0.65315372,0.80075395,-0.049921751,0.42828506,0.90226352,0
0.33184338,-0.65721607,-0.69831431,0.39350295,-0.5105508,-0.76452148,0
-1.0526893,0.043023169,0.32673275,-0.88610238,0.43927222,0.14785904,0
-0.69388652,0.66139817,-0.48247242,0.35780883,0.85109556,-0.38419932,0
0.022365987,-0.11130083,1.0756788,-0.35780883,-0.85109556,0.38419932,0
0.5350374,-0.051364124,-0.91690594,0.35780883,0.85109556,-0.38419932,0
0.95117658,-0.12539923,0.30509913,0.90952981,-0.2244615,0.3498174,0
-0.50393695,-0.2259291,0.33159775,-0.35780883,-0.85109556,0.38419932,0
-0.71884155,-0.13758355,-0.69011176,-0.67978168,-0.044674456,-0.73205268,0
-0.14012435,-0.62861443,-0.22162631,-0.35780883,-0.85109556,0.38419932,0
0.82736433,0.16713765,0.57815158,0.75001937,-0.016837612,0.66120124,0
-0.15721351,0.17624202,-1.0574031,0.35780883,0.85109556,-0.38419932,0
-0.22585374,0.42758375,-0.56454498,0.35780883,0.85109556,-0.38419932,0
0.75949544,-0.748698,0.31522459,0.93359393,-0.33458173,0.12828541,0
-0.5345372,-0.25613934,0.2361764,-0.35780883,-0.85109556,0.38419932,0
-0.23657018,0.87409639,0.41460934,0.35780883,0.85109556,-0.38419932,0
-0.12580568,0.48139039,-0.35217428,0.35780883,0.85109556,-0.38419932,0
0.74678367,-0.37708145,0.62093139,0.85136694,-0.1283164,0.50863457,0
-0.96677488,0.26439813,-0.067021668,-0.93273199,0.34537375,-0.10357559,0
-0.2127459,0.36804503,-0.68423039,0.35780883,0.85109556,-0.38419932,0
0.13220978,0.24115083,0.96886104,0.17503506,0.34301639,0.92287725,0
1.0396187,-0.038384527,-0.40180737,0.86297214,-0.4585619,-0.21213198,0
-0.48661327,0.78136075,-0.023690373,0.35780883,0.85109556,-0.38419932,0
0.23241025,0.21645874,-0.60545254,0.35780883,0.85109556,-0.38419932,0
-0.22787702,0.78288871,0.22065803,0.35780883,0.85109556,-0.38419932,0
-0.43829262,0.45222989,0.78007674,-0.41265965,0.51320165,0.75255299,0
0.44180274,0.62106085,0.48584944,0.35780883,0.85109556,-0.38419932,0
0.72715199,-0.027567685,-0.68527257,0.35780883,0.85109556,-0.38419932,0
-0.0034631491,0.67867208,0.1987918,0.35780883,0.85109556,-0.38419932,0
0.79631925,0.38432959,0.29159677,0.35780883,0.85109556,-0.38419932,0
-0.66792977,-0.42872691,-0.27037716,-0.35780883,-0.85109556,0.38419932,0
-0.25651759,-0.060943604,-0.99356061,-0.34170198,-0.2635659,-0.90209341,0
-0.44611681,0.12727341,0.98453128,-0.29241681,0.49286926,0.81949496,0
-0.17583489,-0.26785877,0.54427797,-0.35780883,-0.85109556,0.38419932,0
0.36971718,-0.297052,0.98768622,-0.35780883,-0.85109556,0.38419932,0
0.33288199,-0.4718335,0.56619757,-0.35780883,-0.85109556,0.38419932,0
0.465289,-0.43428981,0.77267802,-0.35780883,-0.85109556,0.38419932,0
-0.1150398,-0.69784868,-0.35163569,-0.35780883,-0.85109556,0.38419932,0
-0.60455537,0.49092218,0.62857556,-0.59024596,0.52495915,0.61321068,0
0.95841217,0.070355058,-0.25297475,0.35780883,0.85109556,-0.38419932,0
0.56023067,-0.15834911,0.85440862,0.65418339,0.065129861,0.75352621,0
0.22843671,-0.24662369,-0.97334957,0.14048851,-0.45582011,-0.87891459,0
-0.65031129,0.79487437,0.254821,-0.77408624,0.50045925,0.38772511,0
0.19489554,0.64949685,0.31889492,0.35780883,0.85109556,-0.38419932,0
-0.72558218,0.78241897,-0.24390048,0.35780883,0.85109556,-0.38419932,0
1.0479577,-0.066359058,-0.0049169064,0.93332297,-0.3390328,0.11817271,0
-0.81939024,-0.49536103,-0.55904484,-0.35780883,-0.85109556,0.38419932,0
0.76051444,-0.58172655,0.50800717,0.91013646,-0.22583061,0.34734952,0
0.13207984,0.22164533,-0.68740171,0.35780883,0.85109556,-0.38419932,0
-0.13359521,0.55461377,-0.19722104,0.35780883,0.85109556,-0.38419932,0
-0.10998875,0.62832308,-0.011951923,0.35780883,0.85109556,-0.38419932,0
0.99133474,0.21814476,0.36166871,0.84770393,-0.12349987,0.51589298,0
1.0023208,-0.19586587,-0.10218632,0.91959596,-0.39263803,-0.013359964,0
0.041494936,0.35269585,-0.48145539,0.35780883,0.85109556,-0.38419932,0
0.70829183,-0.69679308,-0.26376578,0.79354542,-0.49400616,-0.35530728,0
-0.11678246,-0.28764409,0.5554449,-0.35780883,-0.85109556,0.38419932,0
-0.82302856,0.54310316,-0.34240687,-0.93011999,0.28837165,-0.22741687,0
0.14558709,-0.20212391,-1.0043241,0.050436378,-0.42845264,-0.90215546,0
0.1871655,-0.5060277,-0.84290802,0.20142901,-0.47209981,-0.85822368,0
0.21834362,0.052998573,-0.98065722,0.35780883,0.85109556,-0.38419932,0
-0.022047043,-0.055234551,1.1078739,0.14989549,0.35375342,0.92324954,0
0.20075789,0.67865121,0.3889387,0.35780883,0.85109556,-0.38419932,0
0.43719739,0.19952443,-0.45224577,0.35780883,0.85109556,-0.38419932,0
-0.7696923,0.054178178,0.70460308,-0.35780883,-0.85109556,0.38419932,0
-0.89817578,0.24522409,0.46752259,-0.79359263,0.49398914,0.35522574,0
0.02318266,-0.59474957,0.0054821521,-0.35780883,-0.85109556,0.38419932,0
-0.68620938,0.68111789,-0.43163872,0.35780883,0.85109556,-0.38419932,0
-0.8226251,0.37016389,0.45876318,-0.7669664,0.50255543,0.39899936,0
0.8037973,-0.071310893,0.5906136,0.8037973,-0.071310893,0.5906136,0
-0.34440088,0.43534106,0.83502871,-0.31809103,0.49792239,0.80677831,0
-0.35341388,0.43072331,-0.67638803,0.35780883,0.85109556,-0.38419932,0
0.59699416,-0.85474014,-0.03606385,-0.35780883,-0.85109556,0.38419932,0
0.26954687,-0.087695867,-1.0488514,0.117558,-0.4492214,-0.88565236,0
-0.13700569,-0.67176539,-0.79355949,-0.023983479,-0.40292695,-0.91491777,0
0.82469344,-0.55157661,0.3239392,0.93161345,-0.29725301,0.20913327,0
-0.65648305,0.24740344,0.78335023,-0.54009008,0.52425987,0.6583724,0
0.24279174,0.49196517,0.014530048,0.35780883,0.85109556,-0.38419932,0
-0.14817101,0.19983771,-0.99671137,0.35780883,0.85109556,-0.38419932,0
-0.83522493,0.59359062,-0.09084934,-0.92154837,0.38825893,0.0018409491,0
-0.096948385,0.07838437,1.0609019,0.037435532,0.39803389,0.91660643,0
-0.34065413,0.10837638,-0.99879175,-0.46734878,-0.19298366,-0.86275268,0
-0.79722416,0.020123377,-0.6044153,-0.78437495,0.050687052,-0.61821222,0
-0.75542241,0.20646563,-0.6400038,-0.80956393,0.077682793,-0.58186889,0
0.55254769,0.6242435,0.59603769,0.35780883,0.85109556,-0.38419932,0
0.10112929,-0.29989177,-0.96037191,0.04748559,-0.42749035,-0.90277183,0
-0.36273801,-0.36052766,0.16492908,-0.35780883,-0.85109556,0.38419932,0
0.73280078,0.35396969,0.16518676,0.35780883,0.85109556,-0.38419932,0
-0.67373407,0.64504868,0.39319348,-0.72986197,0.51154125,0.45346108,0
0.54354435,0.10837901,-0.55511308,0.35780883,0.85109556,-0.38419932,0
-0.016861364,-0.53659093,0.097024441,-0.35780883,-0.85109556,0.38419932,0
0.27780467,0.36523595,0.89108753,0.25351071,0.30744964,0.91717333,0
-0.25315928,-0.79105937,-0.68675214,-0.35780883,-0.85109556,0.38419932,0
0.7960279,-0.65578389,0.29070795,0.93378383,-0.32811311,0.14279169,0
0.52321947,0.21249309,-0.34340379,0.35780883,0.85109556,-0.38419932,0
-0.88000774,0.015005404,-0.48833215,-0.83904344,0.11244453,-0.53231764,0
-0.94853634,0.3120549,-0.071135819,-0.93190694,0.35161024,-0.088991821,0
0.20016038,0.086255938,-0.92391813,0.35780883,0.85109556,-0.38419932,0
0.16708586,-0.68628705,-0.063277133,-0.35780883,-0.85109556,0.38419932,0
-0.46752983,0.62134326,-0.36039567,0.35780883,0.85109556,-0.38419932,0
0.60819697,0.54895169,0.48107475,0.35780883,0.85109556,-0.38419932,0
0.91352093,-0.3231363,-0.29784203,0.85402566,-0.46465373,-0.2339586,0
0.25788942,-0.05304116,1.0251324,0.38195008,0.24205342,0.89192164,0
-0.12992108,0.7279979,0.19028878,0.35780883,0.85109556,-0.38419932,0
-0.49339938,0.46121296,0.74063462,-0.46886885,0.51956213,0.71429479,0
-0.92960548,0.36358607,-0.060319245,-0.92960554,0.36358607,-0.060319245,0
0.64463568,-0.40795165,-0.66098315,0.59547281,-0.52489209,-0.60819423,0
-0.26093453,0.74831617,0.11328458,0.35780883,0.85109556,-0.38419932,0
-0.53879941,0.25929675,-0.8813597,-0.66994238,-0.052644238,-0.7405442,0
0.048525393,0.80886447,0.53561723,0.35780883,0.85109556,-0.38419932,0
-0.18124619,0.26534304,-0.88240427,0.35780883,0.85109556,-0.38419932,0
-0.81070501,0.57463783,0.17340887,-0.85806829,0.46197769,0.22426555,0
-0.82884878,0.2407749,-0.51615214,-0.86701208,0.14999844,-0.47517395,0
0.51478225,0.39279976,0.048161924,0.35780883,0.85109556,-0.38419932,0
0.17068717,-0.22346371,0.96534348,-0.35780883,-0.85109556,0.38419932,0
0.22956949,-0.42740041,0.56841165,-0.35780883,-0.85109556,0.38419932,0
-0.13625687,-0.019898802,-1.0459676,-0.25654161,-0.30601197,-0.91681111,0
-0.43732557,-0.71672082,-0.69358993,-0.35780883,-0.85109556,0.38419932,0
0.79251337,-0.41327593,-0.46156496,0.75345349,-0.50618488,-0.41962427,0
-0.042548776,-0.15718278,0.91358316,-0.35780883,-0.85109556,0.38419932,0
-0.19280356,0.26238587,-0.8997187,0.35780883,0.85109556,-0.38419932,0
-0.39909643,0.85283774,0.2161539,0.35780883,0.85109556,-0.38419932,0
-0.7398324,0.67502624,-0.49507308,0.35780883,0.85109556,-0.38419932,0
0.81500137,-0.27832839,0.52955103,0.86821556,-0.15175131,0.47241187,0
0.44734907,0.1006116,-0.66190749,0.35780883,0.85109556,-0.38419932,0
-0.1035763,0.43725598,-0.42924041,0.35780883,0.85109556,-0.38419932,0
0.061566383,0.63872069,0.17085229,0.35780883,0.85109556,-0.38419932,0
-0.94177127,0.31566572,0.17968237,-0.89262754,0.43256053,0.12691402,0
0.84392846,-0.48207384,0.33366239,0.92855692,-0.28077376,0.24279213,0
-1.0168045,-0.016143903,-0.22495794,-0.91263461,0.2316381,-0.33681107,0
0.47711104,-0.87816584,-0.19960608,-0.35780883,-0.85109556,0.38419932,0
0.30294532,-0.38469493,0.73135036,-0.35780883,-0.85109556,0.38419932,0
0.21934986,-0.06842798,-1.0635426,0.065900326,-0.43342802,-0.89877534,0
-0.51501971,0.33692932,-0.90832055,-0.67655492,-0.047303438,-0.73487115,0
0.029592156,-0.61450255,-0.81331742,0.10113096,-0.44433787,-0.89013267,0
0.34821495,0.41190889,-0.064632535,0.35780883,0.85109556,-0.38419932,0
0.10325639,-0.56696337,0.14160889,-0.35780883,-0.85109556,0.38419932,0
0.61235785,-0.22063367,0.80898023,0.71235937,0.017233074,0.70160294,0
-0.8906976,0.23948303,-0.38790727,-0.90291941,0.21041203,-0.37478399,0
-0.17215282,0.76364183,0.22991815,0.35780883,0.85109556,-0.38419932,0
0.18785846,0.26944798,0.94690555,0.21192366,0.32669029,0.92106551,0
-1.0926353,-0.075024009,-0.020099998,-0.93266445,0.30548787,-0.19186974,0
-0.81198478,0.5936566,0.12609702,-0.87148005,0.45213914,0.18998045,0
-0.79464412,0.6757009,-0.016694963,-0.90097404,0.42278117,0.097477376,0
-0.075479724,-0.52620006,0.065450773,-0.35780883,-0.85109556,0.38419932,0
-0.11981681,0.41367686,-0.49659887,0.35780883,0.85109556,-0.38419932,0
-0.78593433,0.075561263,-0.61396885,-0.79272634,0.059405684,-0.60667598,0
-0.92728174,0.20165813,-0.31770098,-0.91364962,0.23408385,-0.33233845,0
-0.18887015,-0.4223738,0.18984964,-0.35780883,-0.85109556,0.38419932,0
0.65907693,-0.32643494,-0.716582,0.57559764,-0.52500111,-0.62694579,0
-0.57142353,0.49469775,-0.73770392,0.35780883,0.85109556,-0.38419932,0
-0.6381678,0.90968585,0.12095517,-0.81686354,0.48463461,0.31283072,0
0.64479482,-0.23737544,0.77475154,0.74103647,-0.0084520578,0.67141163,0
-0.52164948,0.10084412,0.97064096,-0.35214019,0.50404423,0.78862947,0
-0.22913373,0.65745312,0.7430672,-0.29786301,0.49397185,0.81686556,0
0.12151921,-0.28081197,-0.96825898,0.05837059,-0.43101954,-0.90045261,0
-0.45726287,-0.32221651,0.16176561,-0.35780883,-0.85109556,0.38419932,0
-0.9581275,0.17878288,0.41567466,-0.8327629,0.47697878,0.28106382,0
-0.54814744,0.5420807,0.63725889,-0.55544519,0.52472174,0.64509505,0
-0.20444083,0.29447085,0.95236266,-0.13702059,0.45483854,0.87996978,0
-0.24847794,0.66807961,0.72920573,-0.31987214,0.49825919,0.80586565,0
0.20714712,-0.20216614,-0.99896634,0.10486436,-0.44545919,-0.88913977,0
0.94727826,0.22527108,0.079832852,0.35780883,0.85109556,-0.38419932,0
-0.23318827,-0.27858165,0.46711048,-0.35780883,-0.85109556,0.38419932,0
0.49532291,0.3360844,-0.095599115,0.35780883,0.85109556,-0.38419932,0
-0.56072485,0.14133814,0.92489541,-0.4048332,0.51214719,0.75750583,0
0.73413914,-0.64929932,-0.2717827,0.80051821,-0.49140787,-0.34305766,0
0.18320906,0.54128116,0.84503323,0.11108387,0.36972195,0.92247808,0
-0.59341383,0.53203171,-0.67547971,0.35780883,0.85109556,-0.38419932,0
0.73161125,0.10367131,0.67963195,0.69980311,0.028011441,0.71378613,0
0.73323518,-0.72912651,-0.14731783,0.84114987,-0.47243702,-0.263192,0
-0.54652631,0.65559852,-0.35808229,0.35780883,0.85109556,-0.38419932,0
0.47203958,0.38542587,0.81397611,0.40612936,0.22864972,0.88474751,0
-0.66641986,0.12294793,-0.7515105,-0.72185147,-0.0089032948,-0.69199073,0
0.70035613,-0.60799342,-0.39165363,0.74200284,-0.50893116,-0.43637207,0
-0.81315142,-0.096924275,0.32940033,-0.35780883,-0.85109556,0.38419932,0
0.84035552,0.444049,0.55852258,0.67432117,0.049114496,0.73680294,0
-0.16235524,-0.67134559,-0.33699012,-0.35780883,-0.85109556,0.38419932,0
-0.7202518,0.6423232,-0.54928255,0.35780883,0.85109556,-0.38419932,0
1.0630872,-0.017193794,-0.34113139,0.88532388,-0.44002739,-0.15025699,0
-0.2690714,0.55474448,-0.32310197,0.35780883,0.85109556,-0.38419932,0
-0.41507769,-0.31931984,0.20746985,-0.35780883,-0.85109556,0.38419932,0
0.1076138,0.10172752,-0.97583449,0.35780883,0.85109556,-0.38419932,0
-0.98080921,0.24580309,0.026945114,-0.9263891,0.37524843,-0.031488776,0
-0.21627843,0.53064007,0.82162941,-0.23723519,0.48079181,0.84413189,0
0.0085507035,0.74685574,0.36102372,0.35780883,0.85109556,-0.38419932,0
-0.22925639,0.36687744,0.90942091,-0.18661249,0.46831203,0.86363149,0
-0.13637498,0.54633456,-0.21815038,0.35780883,0.85109556,-0.38419932,0
-0.056375861,0.20513916,-0.8994776,0.35780883,0.85109556,-0.38419932,0
0.87111729,-0.46295786,-0.16487747,0.8779093,-0.44680232,-0.1721704,0
0.2954241,-0.82659698,-0.25457522,-0.35780883,-0.85109556,0.38419932,0
0.6816802,-0.82358962,0.11181104,-0.35780883,-0.85109556,0.38419932,0
-0.47349674,0.59712374,-0.4196049,0.35780883,0.85109556,-0.38419932,0
-0.47886419,-0.30816594,-0.82999247,-0.43780991,-0.21051303,-0.8740747,0
0.030614853,-0.83983344,-0.53051686,-0.35780883,-0.85109556,0.38419932,0
-0.92046261,0.1787743,0.50989002,-0.78696603,0.49631393,0.36654714,0
-0.66634071,0.40258384,0.64373618,-0.61513519,0.52438271,0.58875406,0
0.38441101,-0.70791948,0.091198683,-0.35780883,-0.85109556,0.38419932,0
0.47713715,0.1236628,-0.58310151,0.35780883,0.85109556,-0.38419932,0
-0.94253898,-0.20630059,-0.43442392,-0.81876397,0.088114545,-0.5673281,0
0.54108417,-0.73509955,-0.47806013,0.62995136,-0.52371734,-0.5734818,0
-0.24214625,-0.59120786,-0.81726217,-0.14345372,-0.35645458,-0.92323399,0
-0.80094671,0.14643797,0.72988772,-0.64266086,0.52294183,0.55992734,0
-0.65006185,-0.27583483,-0.73209548,-0.5834775,-0.11745527,-0.80359077,0
-0.017201006,-0.20280296,0.83612996,-0.35780883,-0.85109556,0.38419932,0
0.96799523,0.27632129,0.40852976,0.81607813,-0.085033625,0.5716517,0
-0.22541879,0.56388396,-0.26220164,0.35780883,0.85109556,-0.38419932,0
0.70316565,-0.36869463,0.6905694,0.82035226,-0.089950755,0.56473958,0
-0.23062551,0.22357881,-1.0209099,0.35780883,0.85109556,-0.38419932,0
-0.39139652,0.72069603,-0.069401354,0.35780883,0.85109556,-0.38419932,0
-0.052825689,0.81643605,0.45800072,0.35780883,0.85109556,-0.38419932,0
0.60910946,0.42988288,0.21815807,0.35780883,0.85109556,-0.38419932,0
0.85265744,0.17419778,-0.12142831,0.35780883,0.85109556,-0.38419932,0
-0.47249341,0.34170985,-0.94633216,-0.64615434,-0.071365714,-0.75986278,0
-0.28172949,0.36117077,-0.76370358,0.35780883,0.85109556,-0.38419932,0
-0.93047231,0.29952231,0.28131193,-0.8638882,0.45790187,0.20981669,0
0.88068759,-0.23526648,-0.51705194,0.76850224,-0.50211442,-0.39659214,0
-0.052512944,0.36458921,-0.54265922,0.35780883,0.85109556,-0.38419932,0
-0.14145187,0.24570361,-0.8888495,0.35780883,0.85109556,-0.38419932,0
-0.040937245,-0.38314542,0.41452163,-0.35780883,-0.85109556,0.38419932,0
-0.86703551,0.15003246,-0.47512054,-0.86703551,0.15003246,-0.47512054,0
0.67544836,-0.80654013,0.143776,-0.35780883,-0.85109556,0.38419932,0
-0.84471691,0.54243767,-0.23261839,-0.9337365,0.33069283,-0.13703299,0
-0.47276643,0.096757829,-0.91499275,-0.56748903,-0.1285525,-0.81328356,0
0.97730589,-0.24635461,-0.15490472,0.90591156,-0.41617513,-0.078244805,0
-0.17305255,0.35998911,0.92337728,-0.13358784,0.45386118,0.88100183,0
-0.36396372,-0.43222737,0.0049550831,-0.35780883,-0.85109556,0.38419932,0
0.36827815,0.56407404,0.79940468,0.25924551,0.30472535,0.91647917,0
0.82859957,0.47076839,0.51314294,0.35780883,0.85109556,-0.38419932,0
-0.81784683,0.47216532,-0.42783475,-0.91574299,0.23930655,-0.32271838,0
0.032799125,-0.43347791,-0.9006362,0.036796451,-0.42396998,-0.90492821,0
0.054050982,0.24132541,0.98080188,0.1084711,0.37077075,0.92236805,0
-0.051460445,-0.13444886,0.95564473,-0.35780883,-0.85109556,0.38419932,0
-0.17639077,0.62019825,-0.091791451,0.35780883,0.85109556,-0.38419932,0
0.50682181,-0.17643648,0.90062463,0.61947381,0.091521084,0.77966392,0
0.11687028,0.610394,0.1596069,0.35780883,0.85109556,-0.38419932,0
0.28374586,0.23732188,0.93063778,0.30308184,0.28331521,0.90987563,0
0.48720598,-0.14383778,-0.95834619,0.33688939,-0.50138551,-0.79694289,0
-0.07232964,-0.83857685,-0.62360656,-0.35780883,-0.85109556,0.38419932,0
0.68092632,0.043738231,0.73104465,0.68092632,0.043738231,0.73104465,0
0.13932228,0.084611595,1.023237,0.2363829,0.31548291,0.91901767,0
-0.024374008,0.34421033,0.941778,0.0033905506,0.41025189,0.91196585,0
0.035367012,-0.34102187,0.57889855,-0.35780883,-0.85109556,0.38419932,0
-0.59534562,0.75366658,0.39306989,-0.69460368,0.51756829,0.49964878,0
0.72160453,-0.73298848,0.34969676,-0.35780883,-0.85109556,0.38419932,0
0.6881671,-0.48785901,-0.53837991,0.67461944,-0.52008396,-0.52383304,0
0.21437299,0.75015867,0.56002486,0.35780883,0.85109556,-0.38419932,0
-0.33542496,-0.06126076,0.85331535,-0.35780883,-0.85109556,0.38419932,0
-0.27426326,-0.76029426,-0.63825423,-0.35780883,-0.85109556,0.38419932,0
0.089574575,0.21001753,-0.75274563,0.35780883,0.85109556,-0.38419932,0
0.07123208,0.71951389,0.35883078,0.35780883,0.85109556,-0.38419932,0
0.081648946,0.77027267,0.48097518,0.35780883,0.85109556,-0.38419932,0
0.1299625,-0.89190197,-0.55333805,-0.35780883,-0.85109556,0.38419932,0
0.47986743,-0.43289077,0.78935426,-0.35780883,-0.85109556,0.38419932,0
-0.24209654,0.77264553,0.18472417,0.35780883,0.85109556,-0.38419932,0
0.72508806,0.55146694,0.59550846,0.35780883,0.85109556,-0.38419932,0
-0.16750151,-0.37651184,0.31134596,-0.35780883,-0.85109556,0.38419932,0
0.57122791,-0.61840624,-0.55085164,0.6106925,-0.52453417,-0.59322715,0
-0.48107457,0.82576525,0.46029603,-0.60767698,0.52462465,0.59623611,0
0.32596564,-0.75530154,-0.068194821,-0.35780883,-0.85109556,0.38419932,0
0.52992052,0.37218541,0.01659447,0.35780883,0.85109556,-0.38419932,0
0.39812165,0.26371706,0.87909174,0.38769037,0.23890473,0.89029247,0
0.47854957,0.548491,0.76686615,0.35567155,0.25620943,0.89880717,0
0.72475553,-0.42393884,-0.5544787,0.68484485,-0.51887167,-0.5116244,0
0.23099151,-0.25585967,0.94974053,-0.35780883,-0.85109556,0.38419932,0
-0.34369385,-0.30378684,-0.88947815,-0.32945612,-0.26992056,-0.9047659,0
0.031465113,0.54421371,0.85121554,-0.021275878,0.41876233,0.90784651,0
0.26208472,-0.42275321,-0.8702051,0.23764467,-0.48088738,-0.84396219,0
0.64479965,0.60159874,0.67520988,0.47186422,0.19024909,0.86090028,0
0.83941185,0.20801443,0.56549406,0.74633622,-0.013378277,0.66543436,0
0.61377382,0.50557482,0.3901782,0.35780883,0.85109556,-0.38419932,0
-0.18596494,0.10011223,1.0505111,-0.048229694,0.42773339,0.90261722,0
0.065892518,-0.1693421,0.98763973,-0.35780883,-0.85109556,0.38419932,0
-0.60521585,0.48230952,-0.79661787,0.35780883,0.85109556,-0.38419932,0
0.19124007,-0.90867418,-0.60179693,0.36074531,-0.50548363,-0.78380406,0
0.062378824,0.67887264,0.2605553,0.35780883,0.85109556,-0.38419932,0
-0.64686203,0.09444505,0.9066788,-0.46816635,0.51949632,0.71480328,0
-0.39355963,-0.21637625,0.45555526,-0.35780883,-0.85109556,0.38419932,0
0.78570646,0.041600645,-0.47751543,0.35780883,0.85109556,-0.38419932,0
0.74025637,0.079848237,0.67173767,0.71351105,0.016230956,0.70045567,0
0.78476459,-0.41667151,0.53774762,0.88510633,-0.17799546,0.43000507,0
0.68054402,-0.49129823,-0.54468799,0.66815257,-0.52077311,-0.5313825,0
-0.58907849,-0.20636892,0.29563504,-0.35780883,-0.85109556,0.38419932,0
0.017053246,0.49314141,0.87441182,-0.015100837,0.41665873,0.90893739,0
-0.91663712,-0.25265476,-0.11195803,-0.35780883,-0.85109556,0.38419932,0
0.55649406,0.30482578,0.78842843,0.50080448,0.17236069,0.84822547,0
-0.53610742,0.27977556,-0.88521934,-0.67436206,-0.049081415,-0.73676765,0
-0.85218084,0.42082483,-0.36654902,-0.9216215,0.25565082,-0.29198658,0
0.091804266,0.64881694,0.22137886,0.35780883,0.85109556,-0.38419932,0
-0.6507315,-0.61535341,-0.66778362,-0.35780883,-0.85109556,0.38419932,0
0.10604668,-0.14654523,1.0755365,-0.35780883,-0.85109556,0.38419932,0
0.47192371,0.32480228,-0.14238375,0.35780883,0.85109556,-0.38419932,0
-0.33703983,-0.011837095,-0.97223765,-0.42393827,-0.21853654,-0.87892991,0
0.40056753,0.59077018,0.38034552,0.35780883,0.85109556,-0.38419932,0
0.53377128,0.48918331,0.27935976,0.35780883,0.85109556,-0.38419932,0
0.098178864,-0.42841846,-0.89836729,0.092576861,-0.44174343,-0.89235198,0
0.18755472,-0.014408439,1.0410179,0.31103906,0.27931541,0.90842581,0
-0.93680066,-0.17657097,0.037807584,-0.35780883,-0.85109556,0.38419932,0
0.4833554,-0.046668947,-0.95463681,0.35780883,0.85109556,-0.38419932,0
0.33143467,0.023176432,0.97206455,0.41557381,0.22331241,0.88171983,0
0.12015533,-0.24403197,0.87271905,-0.35780883,-0.85109556,0.38419932,0
0.36425635,0.044905156,0.95079321,0.43465218,0.21235093,0.87520528,0
0.34156767,0.37671837,-0.1487788,0.35780883,0.85109556,-0.38419932,0
0.1280511,0.084677458,-0.99457091,0.35780883,0.85109556,-0.38419932,0
-0.46715194,0.61501789,-0.3740561,0.35780883,0.85109556,-0.38419932,0
-0.74872315,-0.22261359,0.1109705,-0.35780883,-0.85109556,0.38419932,0
0.19743788,-0.19790465,1.0468764,-0.35780883,-0.85109556,0.38419932,0
-0.038721442,-0.83913577,-0.5935449,-0.35780883,-0.85109556,0.38419932,0
-0.21988025,0.31215692,-0.81468028,0.35780883,0.85109556,-0.38419932,0
0.34055921,0.65309858,0.77566129,0.20470071,0.32994115,0.9215402,0
-0.27974018,0.36760402,-0.74759978,0.35780883,0.85109556,-0.38419932,0
-0.063650429,-0.70734942,-0.77607465,0.05322051,-0.42935672,-0.90156543,0
0.286544,-0.52056259,0.41509557,-0.35780883,-0.85109556,0.38419932,0
-0.13082033,-0.67126667,-0.79392427,-0.018791974,-0.40479243,-0.91421539,0
-0.88568902,0.38056841,-0.29131293,-0.9282378,0.27936038,-0.24562597,0
0.36922672,-0.27659479,1.0151486,0.54573935,0.14326388,0.82561713,0
0.64627343,0.18543305,0.74722493,0.60978401,0.098638088,0.78640556,0
-0.72138458,0.83177161,-0.1306631,0.35780883,0.85109556,-0.38419932,0
0.40219143,-0.28141946,0.99339318,0.57296222,0.12478144,0.81002712,0
0.94756669,-0.25809854,-0.30132729,0.86342764,-0.45823449,-0.21098238,0
0.16299987,-0.67346138,-0.75522858,0.24339914,-0.48222122,-0.84155768,0
0.033003271,-0.23798609,0.80494648,-0.35780883,-0.85109556,0.38419932,0
-0.95101607,0.21152999,0.38039961,-0.8413837,0.47230482,0.26268131,0
-0.81791949,0.24816662,-0.53355873,-0.86212587,0.1430158,-0.48609185,0
-0.78650898,0.0083407015,-0.61860931,-0.77339458,0.039534919,-0.63269091,0
0.045640711,-0.44612902,0.35562837,-0.35780883,-0.85109556,0.38419932,0
-0.52988464,-0.15245619,0.47019285,-0.35780883,-0.85109556,0.38419932,0
0.07186687,-0.27704382,-0.97199225,0.013414145,-0.41608104,-0.90922844,0
0.40395868,0.69870526,0.62260634,0.35780883,0.85109556,-0.38419932,0
0.23543875,-0.53454775,0.33652025,-0.35780883,-0.85109556,0.38419932,0
-0.71432322,0.24176937,-0.69126117,-0.79152393,0.058137134,-0.60836637,0
-0.2673741,-0.66332871,-0.41703588,-0.35780883,-0.85109556,0.38419932,0
-0.8226338,0.48323357,-0.40501356,-0.92015028,0.25127745,-0.30030441,0
0.11287543,-0.62654871,0.018571019,-0.35780883,-0.85109556,0.38419932,0
0.098047793,0.11293751,-0.95991039,0.35780883,0.85109556,-0.38419932,0
-0.77133507,0.69594675,-0.35397071,-0.93317986,0.31097746,-0.18018889,0
-0.075081468,0.87603319,0.569296,0.35780883,0.85109556,-0.38419932,0
0.18919468,-0.14054853,-1.0309741,0.06604588,-0.4334743,-0.89874238,0
-0.078129768,0.25126892,-0.81754863,0.35780883,0.85109556,-0.38419932,0
0.73130935,-0.29985008,0.66065145,0.8198148,-0.089328155,0.56561828,0
-0.36920899,0.39651448,-0.7668792,0.35780883,0.85109556,-0.38419932,0
-0.088115424,0.653965,0.065221965,0.35780883,0.85109556,-0.38419932,0
-0.46326387,-0.3184666,0.16448379,-0.35780883,-0.85109556,0.38419932,0
0.76035404,-0.38493207,-0.54533905,0.7052635,-0.51597214,-0.48618525,0
0.016224205,-0.26168281,-0.97800171,-0.040608704,-0.39686722,-0.91697711,0
-0.61437708,0.72987103,-0.25674045,0.35780883,0.85109556,-0.38419932,0
0.13898724,-0.87061828,-0.4977845,-0.35780883,-0.85109556,0.38419932,0
-0.25109518,-0.2158117,-0.94794464,-0.28354108,-0.29298845,-0.91310585,0
0.21098799,0.26822442,-0.51072967,0.35780883,0.85109556,-0.38419932,0
0.15304255,0.50677431,-0.03624852,0.35780883,0.85109556,-0.38419932,0
-0.71989661,0.83894283,-0.043860435,-0.88924253,0.43613094,0.13797587,0
-0.82862973,-0.17373231,-0.57688141,-0.74893987,0.015820593,-0.66244888,0
-1.0880268,-0.025021076,0.23268932,-0.35780883,-0.85109556,0.38419932,0
-0.73162973,-0.17667486,-0.67583895,-0.67706603,-0.046887964,-0.73442698,0
0.56262445,-0.49150383,-0.66587132,0.54873335,-0.52454561,-0.65095568,0
-0.17071798,0.66477543,0.012241051,0.35780883,0.85109556,-0.38419932,0
0.63277662,-0.044806153,-0.81135285,0.35780883,0.85109556,-0.38419932,0
-0.54527336,-0.24566025,0.24939138,-0.35780883,-0.85109556,0.38419932,0
0.39841026,0.4011578,-0.041701347,0.35780883,0.85109556,-0.38419932,0
0.67053962,-0.085619181,0.74658823,0.71339935,0.016328305,0.70056736,0
0.97369552,-0.24879736,0.056675732,0.93259346,-0.3465642,0.1008094,0
0.0081381202,-0.6821959,-0.20224404,-0.35780883,-0.85109556,0.38419932,0
0.8535282,-0.50667989,-0.14105684,0.87916136,-0.44570813,-0.16858047,0
-0.02325356,0.76424658,0.36992905,0.35780883,0.85109556,-0.38419932,0
-0.73255837,0.75543153,0.099837661,-0.85509753,0.46395597,0.23141479,0
-0.94455814,0.32656014,-0.052508414,-0.93029457,0.360488,-0.067824006,0
0.36276585,0.37276486,-0.13779478,0.35780883,0.85109556,-0.38419932,0
-0.60523552,-0.19320229,0.30975518,-0.35780883,-0.85109556,0.38419932,0
-0.33325768,-0.34154606,0.23443326,-0.35780883,-0.85109556,0.38419932,0
-0.66291499,0.49433023,-0.72870183,-0.82875651,0.099854074,-0.55062842,0
0.068004847,-0.1890665,0.94591266,-0.35780883,-0.85109556,0.38419932,0
-0.25781631,0.71239579,0.036616206,0.35780883,0.85109556,-0.38419932,0
-0.20581841,0.65888113,0.75036681,-0.27696395,0.48965213,0.82675982,0
-0.61817098,-0.49073863,-0.71407568,-0.48774785,-0.18050995,-0.85411829,0
-0.062274396,-0.87306559,-0.69453859,0.11609447,-0.44879165,-0.88606328,0
0.37316412,0.63469625,0.7742523,0.2385416,0.3144789,0.91880399,0
-0.68171167,0.49116859,-0.70029664,-0.8402791,0.11399496,-0.53003383,0
0.42177856,0.66793668,0.57104218,0.35780883,0.85109556,-0.38419932,0
1.0030612,0.21365172,0.34081829,0.85643107,-0.13512722,0.49826312,0
0.95400065,-0.30760953,0.020240247,0.9283213,-0.36869135,0.047813654,0
-0.84543335,-0.47357023,-0.53502703,-0.35780883,-0.85109556,0.38419932,0
-1.0111231,0.16497725,0.19609511,-0.90495521,0.41751179,0.082096636,0
-0.76846325,-0.22813009,-0.63838291,-0.68836516,-0.037606284,-0.72438872,0
0.0045499206,0.10851708,-1.0567783,0.35780883,0.85109556,-0.38419932,0
0.40572843,0.51443726,0.80370313,0.30760783,0.28104448,0.9090606,0
-1.0060725,0.13198161,-0.11127746,-0.93275756,0.30637115,-0.18999982,0
0.13601673,-0.76573825,-0.26821613,-0.35780883,-0.85109556,0.38419932,0
0.12473872,0.31078225,-0.49677846,0.35780883,0.85109556,-0.38419932,0
-0.017715428,-0.47904956,0.22369713,-0.35780883,-0.85109556,0.38419932,0
0.080703139,-0.23604318,-0.99059069,0.0060766935,-0.41355222,-0.91046,0
-0.22401273,-0.13433102,0.79520625,-0.35780883,-0.85109556,0.38419932,0
-0.21663131,-0.50567758,-0.020542815,-0.35780883,-0.85109556,0.38419932,0
0.28197312,0.28101528,-0.41628557,0.35780883,0.85109556,-0.38419932,0
0.87612069,0.092592277,0.51195407,0.80613464,-0.07387881,0.58710182,0
0.54583991,0.28004834,-0.17268577,0.35780883,0.85109556,-0.38419932,0
-0.13044688,0.64630592,0.0088314563,0.35780883,0.85109556,-0.38419932,0
-0.11772048,0.019172251,1.0874549,0.041004717,0.39672127,0.91702271,0
0.27091169,0.72773945,0.75970131,0.11904562,0.3665058,0.92276829,0
-0.68262869,0.58325565,-0.64509296,0.35780883,0.85109556,-0.38419932,0
0.11760116,0.73146039,0.42847916,0.35780883,0.85109556,-0.38419932,0
1.0050405,-0.069195293,0.19155121,0.92377257,-0.26250187,0.278813,0
0.68394178,-0.79324007,0.18114895,-0.35780883,-0.85109556,0.38419932,0
0.11761028,-0.83683246,-0.44284928,-0.35780883,-0.85109556,0.38419932,0
0.44444627,-0.58892888,0.4107036,-0.35780883,-0.85109556,0.38419932,0
0.2193155,0.72502184,0.50894392,0.35780883,0.85109556,-0.38419932,0
-0.71550411,0.58857805,0.3883217,-0.74975687,0.50710309,0.42510092,0
-0.28175986,-0.57577115,-0.81608868,-0.18253523,-0.33975238,-0.92263162,0
0.32717061,0.18255195,-0.59231299,0.35780883,0.85109556,-0.38419932,0
-0.1814068,-0.48516127,0.057710744,-0.35780883,-0.85109556,0.38419932,0
-0.22008973,-0.52414942,-0.064683363,-0.35780883,-0.85109556,0.38419932,0
0.95721608,-0.051702648,-0.52447641,0.35780883,0.85109556,-0.38419932,0
-0.63006461,-0.083621219,-0.77202702,-0.63006461,-0.083621219,-0.77202702,0
0.21195632,0.76860178,0.59863037,0.35780883,0.85109556,-0.38419932,0
-0.75958657,0.74273962,0.004355371,-0.88792616,0.43746668,0.14216083,0
-1.0669398,0.042268634,0.16801423,-0.92011774,0.3915045,0.010363042,0
1.0802813,0.10823195,0.10930157,0.92404175,-0.26340443,0.27706444,0
0.20359015,-0.69272178,-0.73097813,0.28799164,-0.49196127,-0.82160491,0
0.61387801,-0.067208946,0.7997551,0.66569436,0.056042999,0.74411702,0
0.28873932,-0.94076991,-0.51372176,-0.35780883,-0.85109556,0.38419932,0
-0.35509562,0.86444187,0.53711921,-0.49904394,0.52204144,0.6916846,0
0.97016317,-0.27237606,-0.067089498,0.9196797,-0.39245772,-0.01288259,0
0.53098381,-0.86112881,-0.11169249,-0.35780883,-0.85109556,0.38419932,0
-0.64789033,0.46870938,-0.75459027,-0.81141204,0.07975129,-0.57900786,0
-0.63044959,0.88878584,0.08032614,0.35780883,0.85109556,-0.38419932,0
0.82135892,-0.091120109,0.56308663,0.82135892,-0.091120109,0.56308663,0
-0.31611693,0.94713765,0.50233102,0.35780883,0.85109556,-0.38419932,0
0.28690225,0.21636164,-0.55491877,0.35780883,0.85109556,-0.38419932,0
-0.89927602,0.13780597,0.60177451,-0.74338448,0.50861496,0.43438491,0
-0.99105382,0.16317922,-0.13451827,-0.93235713,0.30279711,-0.19754422,0
0.87670618,0.31339392,0.20932204,0.35780883,0.85109556,-0.38419932,0
0.0097100921,0.45685923,-0.28030965,0.35780883,0.85109556,-0.38419932,0
-0.89903384,0.29845876,0.38650399,-0.82169002,0.48243156,0.3034555,0
-0.80903864,-0.084849939,-0.59650505,-0.76162195,0.027937062,-0.6474191,0
0.43623859,0.70722926,0.7325536,0.26572013,0.30162856,0.91564888,0
0.18643063,0.21493012,-0.65166014,0.35780883,0.85109556,-0.38419932,0
-0.73105329,-0.49094889,-0.46700174,-0.35780883,-0.85109556,0.38419932,0
-0.29767364,0.86288995,0.33287811,0.35780883,0.85109556,-0.38419932,0
0.59117061,-0.15271357,0.82635319,0.6755892,0.048087254,0.73570824,0
-0.26938021,0.45673442,0.8485049,-0.25733745,0.48537976,0.83557391,0
-0.514274,-0.48375249,-0.24917108,-0.35780883,-0.85109556,0.38419932,0
-0.68936998,-0.41114458,-0.25139552,-0.35780883,-0.85109556,0.38419932,0
-0.78204226,-0.26933143,-0.023551345,-0.35780883,-0.85109556,0.38419932,0
-0.76911861,0.69836605,-0.3611874,-0.93297601,0.30860958,-0.18524468,0
0.64785761,0.10380182,-0.46810469,0.35780883,0.85109556,-0.38419932,0
-0.92026019,0.11390838,-0.38385653,-0.88989902,0.18612626,-0.41645694,0
-0.51714736,-0.024739861,0.76497811,-0.35780883,-0.85109556,0.38419932,0
-0.31126899,0.6495598,-0.15236178,0.35780883,0.85109556,-0.38419932,0
-0.10275875,0.46749541,-0.36149126,0.35780883,0.85109556,-0.38419932,0
-0.97612673,0.25664681,0.018573046,-0.9267593,0.3740738,-0.03443557,0
0.11395283,0.47311273,-0.14722173,0.35780883,0.85109556,-0.38419932,0
0.076268911,-0.79817176,-0.70814872,0.21222198,-0.47478911,-0.85412943,0
-1.0316671,-0.16916174,-0.27202964,-0.88546687,0.17859489,-0.42901301,0
-0.51503748,-0.38606915,-0.033489704,-0.35780883,-0.85109556,0.38419932,0
-1.046189,-0.12237358,0.055993676,-0.35780883,-0.85109556,0.38419932,0
-0.70204854,0.24455905,0.7455833,-0.58414745,0.52500242,0.61898625,0
0.49500865,-0.85257936,-0.12625754,-0.35780883,-0.85109556,0.38419932,0
-0.94351983,-0.26996833,-0.17534816,-0.35780883,-0.85109556,0.38419932,0
-0.67758435,-0.0057044327,0.65772963,-0.35780883,-0.85109556,0.38419932,0
-0.10161549,-0.85972184,-0.69772196,-0.35780883,-0.85109556,0.38419932,0
0.30019575,0.28365481,-0.39346743,0.35780883,0.85109556,-0.38419932,0
0.030545652,0.099971086,1.0397925,0.13913107,0.3582558,0.9231984,0
-0.62779683,-0.39795142,-0.1648258,-0.35780883,-0.85109556,0.38419932,0
0.71391606,0.57197225,0.63052821,0.35780883,0.85109556,-0.38419932,0
-0.11637318,0.48150051,0.86935675,-0.12859499,0.45242941,0.88247985,0
-0.13991678,0.41052708,-0.52229571,0.35780883,0.85109556,-0.38419932,0
0.43861765,-0.12435824,0.94284546,0.54994631,0.14045176,0.82330561,0
0.31855726,0.1150637,-0.7498377,0.35780883,0.85109556,-0.38419932,0
-0.65874082,-0.095993549,0.47526634,-0.35780883,-0.85109556,0.38419932,0
1.0449409,-0.069670975,-0.29246885,0.89217126,-0.43305373,-0.12843156,0
-0.0091745555,0.6549955,0.14102319,0.35780883,0.85109556,-0.38419932,0
0.56700003,-0.38772774,-0.74388039,0.51022208,-0.52278191,-0.68291461,0
0.60997808,-0.59677714,0.54747927,-0.35780883,-0.85109556,0.38419932,0
0.42883217,-0.91735649,-0.43263519,0.59381783,-0.52491635,-0.60978949,0
0.68482071,-0.37972918,0.71509206,0.81108743,-0.079387069,0.57951236,0
-0.023253918,-0.7933588,-0.47773269,-0.35780883,-0.85109556,0.38419932,0
0.20361125,-0.78512651,-0.67463249,0.32389605,-0.49901345,-0.80378896,0
0.45441282,-0.12883964,0.93285453,0.56371051,0.13113947,0.81549537,0
0.84886295,0.0022233725,-0.50592756,0.35780883,0.85109556,-0.38419932,0
0.18219057,0.68217301,0.37944838,0.35780883,0.85109556,-0.38419932,0
-0.79716325,-0.44801158,-0.43345404,-0.35780883,-0.85109556,0.38419932,0
0.92635334,-0.36930016,-0.090441406,0.90778482,-0.41346797,-0.070503235,0
0.17484522,0.75643158,0.53710848,0.35780883,0.85109556,-0.38419932,0
-0.56188536,0.81437343,-0.020660996,0.35780883,0.85109556,-0.38419932,0
-0.25008583,0.56560004,-0.28137282,0.35780883,0.85109556,-0.38419932,0
0.91349578,0.27892426,0.1672259,0.35780883,0.85109556,-0.38419932,0
0.75964212,0.12686914,0.65090108,0.71323121,0.016474679,0.70073509,0
0.3205269,0.75131941,0.66145861,0.35780883,0.85109556,-0.38419932,0
0.50446099,0.017008573,0.87472063,0.5549444,0.13709016,0.82051373,0
-0.28803468,0.74526882,0.081295386,0.35780883,0.85109556,-0.38419932,0
1.008213,-0.1635565,-0.22955042,0.8973859,-0.42717355,-0.11054909,0
-0.74950397,-0.26179886,0.023438275,-0.35780883,-0.85109556,0.38419932,0
-0.22821915,0.064549267,-1.0406485,-0.36171591,-0.25299048,-0.89730555,0
-0.16783911,-0.044215024,1.0471501,-0.35780883,-0.85109556,0.38419932,0
0.50795847,0.15117252,-0.49345642,0.35780883,0.85109556,-0.38419932,0
-0.17709225,0.82915127,0.37043735,0.35780883,0.85109556,-0.38419932,0
0.7638787,0.2478115,-0.041036487,0.35780883,0.85109556,-0.38419932,0
0.59681094,0.34063148,0.0089905262,0.35780883,0.85109556,-0.38419932,0
0.82855248,-0.42312473,0.43283105,0.9108305,-0.22741565,0.34448457,0
-0.83593136,-0.16697073,0.15301508,-0.35780883,-0.85109556,0.38419932,0
-0.86599708,0.51934093,-0.028529644,-0.91720247,0.39754197,0.026452541,0
0.35292721,-0.42411223,0.69058007,-0.35780883,-0.85109556,0.38419932,0
0.48111439,-0.04763943,-0.95887399,0.35780883,0.85109556,-0.38419932,0
-0.32187545,-0.093187988,-0.95804405,-0.38399035,-0.24093661,-0.89134765,0
-0.21343195,0.67296791,-0.009390533,0.35780883,0.85109556,-0.38419932,0
0.24700958,-0.70888293,-0.038898811,-0.35780883,-0.85109556,0.38419932,0
-0.83007073,0.3064222,-0.49012244,-0.88449085,0.17697681,-0.43168855,0
-0.99182826,0.15090612,0.35297838,-0.86227876,0.45905674,0.21387386,0
0.18173599,-0.31675088,-0.94428778,0.12511766,-0.45142508,-0.88349354,0
0.44238281,-0.17273277,-0.95836622,0.30660141,-0.49570659,-0.81257033,0
0.6395154,-0.10318181,0.77801526,0.69601572,0.031211525,0.71734786,0
0.72509623,-0.61486387,-0.33785948,0.77306277,-0.50076878,-0.38936397,0
-0.43769491,-0.42870921,-0.055917829,-0.35780883,-0.85109556,0.38419932,0
-0.0021268725,0.084614009,1.0503594,0.11677074,0.36742786,0.9226923,0
0.37396717,-0.43821466,-0.82093245,0.34668505,-0.50310892,-0.79163802,0
0.25664434,0.38176525,-0.21668877,0.35780883,0.85109556,-0.38419932,0
-0.34806812,0.60918921,-0.27606401,0.35780883,0.85109556,-0.38419932,0
-0.12078613,-0.33574986,0.44515026,-0.35780883,-0.85109556,0.38419932,0
-0.54644608,0.52166593,-0.65470082,0.35780883,0.85109556,-0.38419932,0
0.083881021,-0.23017946,0.86962301,-0.35780883,-0.85109556,0.38419932,0
-0.033762574,0.83699036,0.69673741,-0.18854785,0.46881309,0.86293906,0
-0.85916996,0.1655708,0.63465691,-0.71234787,0.51480669,0.47700581,0
-0.56142735,0.2276409,0.86499661,-0.43996179,0.51656288,0.73457217,0
-0.29431713,-0.15611902,0.68146527,-0.35780883,-0.85109556,0.38419932,0
0.60166788,0.61010861,0.61047161,0.35780883,0.85109556,-0.38419932,0
-0.49160826,0.58581483,0.64849728,-0.51791811,0.52323347,0.67674756,0
0.033245742,0.73246545,0.35214448,0.35780883,0.85109556,-0.38419932,0
0.51592779,-0.58783007,0.47970921,-0.35780883,-0.85109556,0.38419932,0
-0.076113038,0.49784043,-0.26945418,0.35780883,0.85109556,-0.38419932,0
0.95929515,0.05977875,-0.27558166,0.35780883,0.85109556,-0.38419932,0
-0.58903861,-0.3685481,-0.063594341,-0.35780883,-0.85109556,0.38419932,0
0.813537,-0.027887166,-0.60552913,0.35780883,0.85109556,-0.38419932,0
0.67259532,0.40057594,0.21236104,0.35780883,0.85109556,-0.38419932,0
0.035372797,-0.4692519,0.2948429,-0.35780883,-0.85109556,0.38419932,0
1.0002704,-0.052584141,-0.48633236,0.35780883,0.85109556,-0.38419932,0
0.75650346,-0.51202452,0.5557816,0.89198029,-0.18977498,0.41031241,0
0.20438322,0.67967391,0.39458057,0.35780883,0.85109556,-0.38419932,0
-0.60591775,0.44250011,-0.81222725,-0.77475494,0.040898435,-0.63093722,0
-0.78355598,0.69405723,0.0026545525,-0.89423549,0.43079132,0.12149733,0
-0.77089059,0.74188077,-0.22591281,-0.92917645,0.36537692,-0.05595237,0
0.86210942,-0.37252411,0.3760612,0.91687775,-0.24225053,0.31725359,0
-0.49303186,0.33972865,0.82673335,-0.41971672,0.51411813,0.74801093,0
-0.85459995,-0.20618288,0.048764348,-0.35780883,-0.85109556,0.38419932,0
-0.46287704,0.94189191,0.354031,0.35780883,0.85109556,-0.38419932,0
-0.9865222,0.21338058,-0.05846715,-0.93323874,0.34012243,-0.11568052,0
0.44594103,-0.91291231,-0.30560681,-0.35780883,-0.85109556,0.38419932,0
0.6300506,0.4297674,0.71934628,0.51739872,0.16180982,0.84030706,0
-0.51078355,-0.0996041,-0.85612339,-0.53274822,-0.15184996,-0.83253866,0
0.18593669,-0.095329225,-1.0527772,0.046437025,-0.42714739,-0.90298867,0
-0.73989499,0.38311523,-0.63088822,-0.84856641,0.12462594,-0.51420176,0
0.96618277,0.08569333,0.368626,0.867064,-0.1500738,0.47505546,0
-0.75197953,0.61369318,-0.50937331,-0.91261697,0.23159592,-0.33688796,0
0.76777339,0.20102005,-0.14106375,0.35780883,0.85109556,-0.38419932,0
1.0861188,0.0034734011,-0.19259763,0.91953194,-0.39277542,-0.013724029,0
0.20091265,-0.67769998,-0.01275152,-0.35780883,-0.85109556,0.38419932,0
0.73724073,0.39289516,0.2555511,0.35780883,0.85109556,-0.38419932,0
-0.80631983,0.66155773,-0.096899152,-0.9178735,0.39621243,0.022882342,0
-0.64470941,-0.094514519,0.49161041,-0.35780883,-0.85109556,0.38419932,0
1.0815248,-0.0072962344,-0.19169438,0.91892987,-0.39404953,-0.017107189,0
0.25197971,-0.52127188,-0.81631535,0.26624334,-0.487344,-0.831631,0
0.29792964,-0.94177341,-0.50738573,-0.35780883,-0.85109556,0.38419932,0
0.45767903,0.25675339,-0.30639485,0.35780883,0.85109556,-0.38419932,0
-1.0798974,0.0095582306,0.1273067,-0.92705107,0.37312329,-0.036812901,0
-0.15812638,-0.24262553,0.61666799,-0.35780883,-0.85109556,0.38419932,0
-0.066675365,0.61831933,0.0062254965,0.35780883,0.85109556,-0.38419932,0
0.47054982,-0.83413351,-0.10817415,-0.35780883,-0.85109556,0.38419932,0
0.53610432,-0.7099508,0.22797257,-0.35780883,-0.85109556,0.38419932,0
-0.031836808,-0.86367834,-0.64150107,-0.35780883,-0.85109556,0.38419932,0
0.43641439,0.47490963,0.15707058,0.35780883,0.85109556,-0.38419932,0
-0.9575851,0.22801137,0.32541916,-0.85968912,0.46087012,0.2203027,0
-0.35114241,0.50387448,0.78918272,-0.35114241,0.50387448,0.78918272,0
0.19292668,-0.42744046,0.53419697,-0.35780883,-0.85109556,0.38419932,0
-0.77283472,0.18407224,-0.61864793,-0.81499183,0.083796099,-0.57338142,0
-0.025476158,0.13249707,-1.0316204,0.35780883,0.85109556,-0.38419932,0
-0.18429682,0.20645115,-1.0157053,0.35780883,0.85109556,-0.38419932,0
-0.082980275,-0.26244298,0.64275187,-0.35780883,-0.85109556,0.38419932,0
0.71628743,0.35763371,0.15792435,0.35780883,0.85109556,-0.38419932,0
-0.85900855,-0.28861853,-0.13795662,-0.35780883,-0.85109556,0.38419932,0
-0.81678635,-0.36497954,-0.26779288,-0.35780883,-0.85109556,0.38419932,0
0.28203046,-0.67897511,-0.70812106,0.35534549,-0.50458562,-0.78684354,0
-0.88670647,0.29178751,0.42783597,-0.80322719,0.49035379,0.3381997,0
-0.34383357,-0.2486425,0.43038794,-0.35780883,-0.85109556,0.38419932,0
-0.67678082,0.47024059,0.56968343,-0.65502226,0.52199614,0.54632008,0
-1.0802381,-0.15855789,-0.15089691,-0.91439652,0.23591822,-0.32897031,0
-0.26694554,0.40482903,-0.65322155,0.35780883,0.85109556,-0.38419932,0
-0.86406243,-0.099918924,-0.52903318,-0.79573691,0.062602498,-0.60239804,0
0.17991483,0.34258866,-0.37493339,0.35780883,0.85109556,-0.38419932,0
-0.82453543,0.59956157,0.035752058,-0.89664185,0.42804691,0.11317682,0
0.71231025,0.21920975,0.68970788,0.64917344,0.069030523,0.75750136,0
1.0091627,-0.17621326,-0.037574172,0.92845923,-0.368177,0.049081564,0
0.62702429,-0.27100515,-0.78824979,0.52091658,-0.52339637,-0.67431593,0
0.97301483,0.095604211,-0.18344218,0.35780883,0.85109556,-0.38419932,0
0.3235094,-0.60748863,0.25695938,-0.35780883,-0.85109556,0.38419932,0
0.43073952,0.47101152,0.14315018,0.35780883,0.85109556,-0.38419932,0
-0.14178601,0.29196998,-0.78666931,0.35780883,0.85109556,-0.38419932,0
0.86440992,0.097962409,-0.27936298,0.35780883,0.85109556,-0.38419932,0
-0.67221713,-0.26490903,0.088526487,-0.35780883,-0.85109556,0.38419932,0
-0.23182452,-0.094385922,0.87641919,-0.35780883,-0.85109556,0.38419932,0
0.97247761,0.20517354,0.38908994,0.83898085,-0.11236615,0.53243291,0
0.73657084,0.40816838,0.28876114,0.35780883,0.85109556,-0.38419932,0
