1.7292087,0.32639003,0.65290022,0.16555169,0.32226157,0.93206233,0
-0.11965162,-0.72255123,-0.68088412,-0.11965162,-0.72255123,-0.68088412,0
4.3095169,0.53501415,-1.4576644,0.98443109,0.0025991201,-0.17575204,0
-2.0042706,0.21396422,1.3488169,0.17089605,0.21970724,0.96048081,0
4.5103979,-0.064097881,-0.34134001,0.98443109,0.0025991201,-0.17575204,0
-4.3452411,-0.29359961,1.2611309,-0.98443109,-0.0025991201,0.17575204,0
-4.3765264,-0.49391174,1.0829357,-0.98443109,-0.0025991201,0.17575204,0
0.68271244,0.96151304,0.16310717,0.046852589,0.95983422,0.27662826,0
-4.3855715,-0.14119577,1.0374861,-0.98443109,-0.0025991201,0.17575204,0
2.8430908,0.67917073,0.24467409,0.12843341,0.67200327,0.72932613,0
1.4581184,0.078106165,0.75265205,0.17507015,0.074718535,0.98171675,0
4.418262,0.34063005,-0.85143018,0.98443109,0.0025991201,-0.17575204,0
-3.0086751,-0.50910258,-0.34165919,-0.15076441,-0.50155711,-0.85188657,0
2.095665,-0.98977065,-0.27530548,0.019647062,-0.99525189,0.095329314,0
-4.3913045,-0.23918343,1.0039279,-0.98443109,-0.0025991201,0.17575204,0
-4.5414,-0.17749929,0.16411626,-0.98443109,-0.0025991201,0.17575204,0
1.7806221,-0.51835072,0.54812753,0.15117431,-0.52265275,0.83903545,0
4.537127,-0.55254269,-0.1988467,0.98443109,0.0025991201,-0.17575204,0
4.3285689,-0.28267097,-1.3630401,0.98443109,0.0025991201,-0.17575204,0
4.2843819,-0.8646903,-0.27454531,0.087080181,-0.87577206,0.47480571,0
-4.4932976,0.5926404,0.44494033,-0.98443109,-0.0025991201,0.17575204,0
4.3721347,-0.64064598,-1.1243148,0.98443109,0.0025991201,-0.17575204,0
-2.5417638,0.55551219,-0.3865428,-0.14682859,0.56183541,-0.81411451,0
4.5589228,0.55528998,-0.060379148,0.98443109,0.0025991201,-0.17575204,0
-4.3565211,-0.86321902,1.189528,-0.98443109,-0.0025991201,0.17575204,0
4.5321074,-0.35408211,-0.2240274,0.98443109,0.0025991201,-0.17575204,0
2.909636,0.91224074,-0.086791158,0.072544336,0.90475029,0.41971937,0
-3.862514,-0.61705184,1.4972492,0.14129212,-0.60648084,0.78244334,0
4.4434147,0.54063296,-0.70758724,0.98443109,0.0025991201,-0.17575204,0
-4.4903598,0.67856741,0.46266657,-0.98443109,-0.0025991201,0.17575204,0
-0.17234427,0.2107558,-0.96222639,-0.17234427,0.2107558,-0.96222639,0
4.4451809,-0.43122196,-0.71206605,0.98443109,0.0025991201,-0.17575204,0
-4.3683715,-0.44146299,1.1293883,-0.98443109,-0.0025991201,0.17575204,0
-0.46267617,-0.18692851,1.080832,0.17318462,-0.18524972,0.96731067,0
4.5001216,0.012622356,-0.39776415,0.98443109,0.0025991201,-0.17575204,0
1.1633992,0.4260183,0.71258038,0.1581414,0.42336413,0.89205056,0
0.099932969,0.6289854,-0.80806553,-0.13833004,0.62835628,-0.76552802,0
-3.501277,-0.97583985,0.36517298,-0.042496204,-0.966708,-0.25232866,0
4.4056401,-0.6273489,-0.93644476,0.98443109,0.0025991201,-0.17575204,0
4.3898406,-0.51040697,-1.0232098,0.98443109,0.0025991201,-0.17575204,0
-4.5257502,0.57116604,0.26284695,-0.98443109,-0.0025991201,0.17575204,0
0.42471224,-0.57910252,-0.90288758,-0.14161026,-0.5805977,-0.80178124,0
-4.4762497,0.10586977,0.53323042,-0.98443109,-0.0025991201,0.17575204,0
-4.4795055,-0.60589528,0.50446892,-0.98443109,-0.0025991201,0.17575204,0
-0.99578202,-0.91031015,-0.24809688,-0.071360588,-0.90786952,-0.41313532,0
-0.7131505,0.99363357,0.030728638,-0.019259155,0.99546564,-0.09315291,0
3.0795379,0.74567437,-1.2361224,-0.12063271,0.73722517,-0.66479093,0
1.4498527,0.85494345,-0.79252994,-0.094513774,0.85086596,-0.51681167,0
-0.1854381,0.50770545,0.9077279,0.15002286,0.50859112,0.84783745,0
-2.6106648,-0.98648202,0.67075312,0.037917137,-0.97948921,0.19789752,0
3.7892811,-0.95303988,-0.9496665,-0.044796765,-0.9631626,-0.26516244,0
4.0599389,-0.53707957,0.12527072,0.14848205,-0.54740649,0.82358927,0
-4.3850446,0.72829676,1.0532999,-0.98443109,-0.0025991201,0.17575204,0
4.5100002,-0.25899887,-0.34644902,0.98443109,0.0025991201,-0.17575204,0
1.9884832,-0.39600348,-1.2852685,-0.1599232,-0.40167582,-0.90171015,0
4.5796208,-0.20600414,0.044297218,0.98443109,0.0025991201,-0.17575204,0
-4.465363,-0.33591843,0.58767593,-0.98443109,-0.0025991201,0.17575204,0
-3.1141346,0.30475616,-0.40895414,-0.16774817,0.3125352,-0.93497729,0
-0.83204859,-0.99554652,0.032027766,-0.017617941,-0.99339622,-0.11337385,0
0.91444671,0.82497716,-0.74131566,-0.1021179,0.82229322,-0.55982679,0
4.5422888,0.48085904,-0.15465331,0.98443109,0.0025991201,-0.17575204,0
-3.2461054,0.14544749,1.5831511,0.17324774,0.15447536,0.9726885,0
-0.9213711,-1.0024334,0.16733472,0.0030502677,-0.99999279,0.0022962987,0
-1.6173182,-0.24505603,-0.69706917,-0.16994476,-0.24123466,-0.95547098,0
-4.4223843,-0.26016474,0.82953179,-0.98443109,-0.0025991201,0.17575204,0
-0.37156323,0.18160796,1.0649853,0.17231485,0.18304393,0.96788579,0
-4.4857044,0.92008829,0.49231529,-0.98443109,-0.0025991201,0.17575204,0
4.5366492,-0.61600924,-0.202461,0.98443109,0.0025991201,-0.17575204,0
-4.2532678,-0.97375488,1.0352888,0.050205886,-0.96239269,0.26698273,0
-1.1072841,-0.0096204281,1.2134774,0.17576516,-0.0062327534,0.98441255,0
-4.5363178,-0.154181,0.19292676,-0.98443109,-0.0025991201,0.17575204,0
2.8299696,0.8746171,-1.0115836,-0.089824378,0.86690807,-0.49030811,0
4.4488759,-0.5377903,-0.69294441,0.98443109,0.0025991201,-0.17575204,0
4.1673031,-0.64299679,-1.5121459,-0.13122869,-0.65434563,-0.74472207,0
4.4790192,-0.18473387,-0.518884,0.98443109,0.0025991201,-0.17575204,0
4.5640287,0.50998163,-0.032450318,0.98443109,0.0025991201,-0.17575204,0
-2.0728893,0.2062397,-0.62280893,-0.17232651,0.21125765,-0.96211946,0
4.2943959,0.25982618,-1.546429,0.98443109,0.0025991201,-0.17575204,0
-0.66232955,0.25043756,1.1011076,0.16940513,0.25263351,0.95261657,0
-4.4978747,-0.5277853,0.40273172,-0.98443109,-0.0025991201,0.17575204,0
-1.1524493,0.089369416,-0.80576003,-0.17524336,0.091949455,-0.98022205,0
4.0092788,0.80685997,-1.3306627,-0.10842144,0.79598814,-0.59552318,0
3.3211403,0.50417137,-1.4755616,-0.15397704,0.49499607,-0.85514331,0
-3.6183076,0.42497087,-0.26912451,-0.15943973,0.43410322,-0.8866418,0
-4.3531609,0.7949481,1.2328713,-0.98443109,-0.0025991201,0.17575204,0
-4.4253788,-0.28371763,0.81240767,-0.98443109,-0.0025991201,0.17575204,0
4.5750237,-0.24755192,0.017932057,0.98443109,0.0025991201,-0.17575204,0
3.4092593,0.97261739,-0.88064343,-0.049522996,0.96348536,-0.26314151,0
-4.5581827,0.52412319,0.080489159,-0.98443109,-0.0025991201,0.17575204,0
4.5062456,-0.64838934,-0.3732385,0.98443109,0.0025991201,-0.17575204,0
4.4278164,0.96682668,-0.78865099,0.98443109,0.0025991201,-0.17575204,0
4.2578278,0.19914246,-1.7521541,0.98443109,0.0025991201,-0.17575204,0
-0.68517035,0.84319091,0.66515285,0.091755688,0.84524226,0.52644694,0
-0.16723643,0.32164019,-0.93197608,-0.16723643,0.32164019,-0.9319762,0
-1.8079977,-0.41411757,-0.6038295,-0.15927142,-0.40976453,-0.89817905,0
-1.5341303,0.38874912,-0.66046,-0.16266248,0.39237022,-0.90531039,0
4.3435349,-0.55377722,-1.2832222,0.98443109,0.0025991201,-0.17575204,0
4.4346223,0.60677361,-0.75585663,0.98443109,0.0025991201,-0.17575204,0
-4.3835239,0.40885067,1.0570898,-0.98443109,-0.0025991201,0.17575204,0
3.9852262,1.0088263,-0.6527679,0.007605195,0.99832451,0.057363078,0
-4.4506292,-0.59323668,0.6663968,-0.98443109,-0.0025991201,0.17575204,0
4.5283446,-0.3304019,-0.24475467,0.98443109,0.0025991201,-0.17575204,0
3.5486732,-0.34957504,0.31473637,0.164987,-0.35850868,0.91883123,0
-3.9966919,-0.58343291,-0.11879444,-0.1425404,-0.57325685,-0.80688232,0
1.3806566,-0.096736073,0.7642374,0.17512876,-0.099918947,0.97946221,0
4.4487109,0.56016088,-0.67763323,0.98443109,0.0025991201,-0.17575204,0
4.0085673,-0.021312714,-1.7309358,-0.1755778,-0.032359764,-0.98393363,0
0.80020928,0.84424657,0.40454054,0.092554569,0.84237814,0.53087926,0
-1.6501708,-0.17740452,1.2951758,0.17355686,-0.17258957,0.96958292,0
-4.4949508,-0.019164562,0.42662865,-0.98443109,-0.0025991201,0.17575204,0
-4.5265226,-0.14712238,0.24789709,-0.98443109,-0.0025991201,0.17575204,0
4.3321705,-0.69246817,-1.3489288,0.98443109,0.0025991201,-0.17575204,0
0.034656703,0.87933457,-0.49051332,-0.086045742,0.8790158,-0.4689641,0
-4.4277563,-0.87009764,0.79042077,-0.98443109,-0.0025991201,0.17575204,0
-0.75877327,-0.43567306,-0.77965075,-0.15721977,-0.4340848,-0.88704711,0
1.3279512,0.098808765,-1.2483144,-0.1752031,0.094840199,-0.97995371,0
4.1628728,0.56247258,-1.5908427,-0.14806589,0.5510906,-0.82120395,0
3.7153256,0.76405501,-1.3306357,-0.11738902,0.75393587,-0.64637512,0
1.6394655,0.75589514,-0.96314126,-0.11792064,0.75125527,-0.64939237,0
3.6300418,0.23038936,-1.6389208,-0.17199653,0.22035146,-0.96013677,0
-4.5205088,0.63649988,0.29317296,-0.98443109,-0.0025991201,0.17575204,0
0.14751199,-0.5559389,0.81802958,0.14751199,-0.5559389,0.81802958,0
-4.5502291,-0.52584839,0.10950971,-0.98443109,-0.0025991201,0.17575204,0
4.4472227,0.58315349,-0.68562877,0.98443109,0.0025991201,-0.17575204,0
4.4939008,0.034439564,-0.43228549,0.98443109,0.0025991201,-0.17575204,0
-4.4085956,0.52648973,0.91839737,-0.98443109,-0.0025991201,0.17575204,0
4.4022675,-0.82268333,-0.95822346,0.98443109,0.0025991201,-0.17575204,0
1.5095929,-0.81774402,0.30976951,0.10232705,-0.82145959,0.56101096,0
-4.4689536,-0.70382929,0.56212193,-0.98443109,-0.0025991201,0.17575204,0
-3.502089,-0.27691913,-0.35338533,-0.16863158,-0.26811793,-0.94851273,0
-4.3419013,-0.56674886,-0.069383144,-0.14469951,-0.55566734,-0.81871611,0
-4.4832726,-0.81910348,0.48021528,-0.98443109,-0.0025991201,0.17575204,0
4.5736327,-0.33622503,0.0088304281,0.98443109,0.0025991201,-0.17575204,0
4.5284624,-0.10359859,-0.24074173,0.98443109,0.0025991201,-0.17575204,0
4.4384394,-0.74095774,-0.75440782,0.98443109,0.0025991201,-0.17575204,0
-2.8542004,-0.89968824,0.96886909,0.081749618,-0.8919366,0.44470918,0
-4.5346704,0.47912502,0.21152186,-0.98443109,-0.0025991201,0.17575204,0
-4.4119143,-0.60525179,0.88307202,-0.98443109,-0.0025991201,0.17575204,0
2.1935918,0.77899492,-1.0361786,-0.1134963,0.77290374,-0.62429053,0
4.0486107,-0.73476267,-1.3995556,-0.11518103,-0.74575591,-0.65618706,0
-4.5456948,0.26912498,0.14666677,-0.98443109,-0.0025991201,0.17575204,0
2.3575101,0.66638458,-1.1842046,-0.13375464,0.65980709,-0.73943514,0
2.6217179,-0.27805328,-1.4416163,-0.16771147,-0.28541821,-0.94361514,0
0.45918915,0.069227636,-1.0954711,-0.17552404,0.067551814,-0.98215491,0
2.0245256,0.89494967,-0.82582104,-0.082621217,0.88938624,-0.44962877,0
-4.3866954,0.64981174,1.0428911,-0.98443109,-0.0025991201,0.17575204,0
4.3844528,0.99175692,-0.58197236,0.032231927,0.98026627,0.19503662,0
4.298142,0.27032614,-1.525293,0.98443109,0.0025991201,-0.17575204,0
4.3638916,0.723912,-1.1503031,0.98443109,0.0025991201,-0.17575204,0
4.4034481,0.51911306,-0.93176591,0.98443109,0.0025991201,-0.17575204,0
3.6613955,-0.69237256,-1.376744,-0.1233061,-0.7023654,-0.70105529,0
-4.3860178,-0.45345354,1.0303688,-0.98443109,-0.0025991201,0.17575204,0
0.90151262,1.0002114,-0.09449707,0.0089439154,0.99785471,0.064854637,0
1.7187569,-0.44839597,-1.2122808,-0.15549439,-0.45334461,-0.87766755,0
2.7719297,1.0073166,-0.49198538,-0.0020584464,0.99999261,0.0032591522,0
-4.47756,-0.35537386,0.51906931,-0.98443109,-0.0025991201,0.17575204,0
-3.2544708,0.25341558,1.5612277,0.16891995,0.26245439,0.95004416,0
-0.8623721,0.26087403,1.133846,0.16886222,0.26359665,0.94973814,0
4.4050517,0.51994514,-0.92277294,0.98443109,0.0025991201,-0.17575204,0
-1.0379775,0.99153239,0.076249033,-0.021413684,0.99421638,-0.10523972,0
1.7463942,1.0023643,-0.24414936,0.009149313,0.99777746,0.066003755,0
-4.3952231,-0.17582273,-0.2172575,-0.17293185,-0.16467521,-0.97106987,0
-4.3919778,-0.023227692,1.0033488,-0.98443109,-0.0025991201,0.17575204,0
4.2666345,0.17067194,-1.7032479,0.98443109,0.0025991201,-0.17575204,0
-4.5390339,-0.20815229,0.17691326,-0.98443109,-0.0025991201,0.17575204,0
-4.5165892,-0.30611944,0.3011874,-0.98443109,-0.0025991201,0.17575204,0
-0.80131841,-1.0002935,0.08217781,-0.0079796314,-0.99819887,-0.059458211,0
-1.1491036,-0.56537873,-0.63456255,-0.14384478,-0.56272459,-0.81403303,0
3.1965241,-0.23018265,-1.5570357,-0.17004442,-0.23907137,-0.95599687,0
4.2567329,0.055356026,-1.7604107,0.98443109,0.0025991201,-0.17575204,0
3.6766024,-0.97202039,-0.84924513,-0.030855,-0.9818092,-0.18734676,0
-4.382184,-0.88955426,1.0453949,-0.98443109,-0.0025991201,0.17575204,0
-4.4170976,-0.51288271,0.8554033,-0.98443109,-0.0025991201,0.17575204,0
1.9557359,0.52595937,-1.2165867,-0.151411,0.52039605,-0.84039444,0
-4.3435163,0.11408329,1.2768261,-0.98443109,-0.0025991201,0.17575204,0
3.3846478,0.73288941,0.096152008,0.11933106,0.72426784,0.67911422,0
3.653384,0.93329859,-0.2633816,0.064915955,0.92382407,0.37727332,0
-3.3117459,0.92304468,0.22206306,-0.066259623,0.93161392,-0.35735869,0
4.3151736,-0.32766247,-1.4387363,0.98443109,0.0025991201,-0.17575204,0
4.469111,0.86528826,-0.55885345,0.98443109,0.0025991201,-0.17575204,0
-1.4535059,-0.86753941,0.77188158,0.090860605,-0.86346179,0.49616343,0
1.0201626,-0.24022353,-1.1674021,-0.16984579,-0.24336542,-0.95494807,0
-4.5077443,0.67134523,0.36518466,-0.98443109,-0.0025991201,0.17575204,0
4.4314327,-0.10152674,-0.78419697,0.98443109,0.0025991201,-0.17575204,0
4.5319295,-0.68298435,-0.22988975,0.98443109,0.0025991201,-0.17575204,0
-0.18395951,-0.32884634,0.99248517,0.16687348,-0.32792008,0.92985046,0
4.533021,-0.40808058,-0.21971059,0.98443109,0.0025991201,-0.17575204,0
-4.5072289,-0.31475544,0.35348588,-0.98443109,-0.0025991201,0.17575204,0
-4.4440627,0.19195318,0.71479023,-0.98443109,-0.0025991201,0.17575204,0
4.371995,0.6024909,-1.1067088,0.98443109,0.0025991201,-0.17575204,0
-3.1279418,-1.0038218,0.46328688,-0.013914943,-0.9956001,-0.09266533,0
4.3369818,0.66927624,-0.0095169544,0.13063425,0.6581704,0.74144894,0
-1.9729869,0.043018103,1.3668476,0.17541961,0.048690364,0.98328906,0
4.4035406,-0.22995186,-0.9423247,0.98443109,0.0025991201,-0.17575204,0
-4.3345165,-0.025239944,1.325173,-0.98443109,-0.0025991201,0.17575204,0
-4.4006453,-0.85820699,0.94245386,-0.98443109,-0.0025991201,0.17575204,0
-1.0409057,-0.99194568,0.037369579,-0.02315563,-0.98925859,-0.14433096,0
0.9775725,0.92580259,-0.56531453,-0.069974601,0.92303693,-0.37829429,0
4.532095,-0.45194244,-0.2255441,0.98443109,0.0025991201,-0.17575204,0
1.1994798,-0.11437869,0.79468,0.1748434,-0.11708396,0.97760999,0
-3.7940333,-1.0098784,0.69496948,0.0056059957,-0.99984628,0.016613871,0
-4.5407677,0.60062885,0.17916572,-0.98443109,-0.0025991201,0.17575204,0
3.5807753,0.29782462,0.3332417,0.16752395,0.28881294,0.94261491,0
-4.4666138,-0.34875965,0.58047736,-0.98443109,-0.0025991201,0.17575204,0
-1.7862319,-0.37832534,1.2613285,0.16401115,-0.37317625,0.9131484,0
3.3525891,0.75471425,-1.2755296,-0.11903781,0.74554843,-0.65573448,0
-4.308147,0.024817467,1.4736168,-0.98443109,-0.0025991201,0.17575204,0
-3.3379734,-0.50635982,1.477322,0.1537672,-0.49714088,0.85393608,0
-0.86314929,0.92792457,-0.21919519,-0.066965997,0.93002665,-0.36133903,0
2.2711244,0.35207081,0.54741168,0.16397759,0.34650737,0.92360395,0
-1.4582332,-0.96580219,-0.016756356,-0.045480728,-0.96207219,-0.26897731,0
-4.3350525,0.44512939,1.3291273,-0.98443109,-0.0025991201,0.17575204,0
-4.3395224,-0.54662609,1.2894237,-0.98443109,-0.0025991201,0.17575204,0
-4.4415898,0.13940144,0.72786438,-0.98443109,-0.0025991201,0.17575204,0
-1.733409,-0.99387473,0.45817405,0.028259814,-0.98922348,0.14366049,0
4.4064937,0.99997187,-0.63245475,0.024157643,0.98840135,0.14993075,0
3.4441726,-0.98920274,-0.67375171,-0.0076289773,-0.99831659,-0.057496011,0
4.3329649,0.093006611,-1.332864,0.98443109,0.0025991201,-0.17575204,0
-3.8747516,-0.79436851,1.3225372,0.11113989,-0.78384513,0.61092961,0
3.8573284,0.82601905,-1.276473,-0.10378927,0.8155604,-0.56928825,0
3.7113519,0.73581052,0.035622716,0.11894464,0.72632587,0.67698085,0
2.7521982,-0.82183719,0.07697618,0.10045165,-0.82883835,0.55039674,0
-4.2821798,0.026554108,1.6190923,-0.98443109,-0.0025991201,0.17575204,0
4.4402337,-0.67862272,-0.74343604,0.98443109,0.0025991201,-0.17575204,0
4.3667803,0.39192009,-1.1390349,0.98443109,0.0025991201,-0.17575204,0
-4.5553498,0.59529924,0.005972147,-0.1412299,0.60695392,-0.78208774,0
1.7270888,0.76203889,0.35448861,0.11274153,0.75777662,0.64270067,0
4.5721526,0.4158237,0.011662126,0.98443109,0.0025991201,-0.17575204,0
-4.3173194,-0.4938364,1.4145677,-0.98443109,-0.0025991201,0.17575204,0
-2.6700916,-0.29481292,-0.49601352,-0.16755769,-0.28820556,-0.94279492,0
-4.4071169,0.38786983,0.92463005,-0.98443109,-0.0025991201,0.17575204,0
3.4439979,-0.98566318,-0.51046872,0.020607114,-0.99470198,0.10071474,0
4.3545108,-0.69659472,-0.059795737,0.12597179,-0.70775884,0.6951322,0
4.3471103,0.49814272,-1.2476405,0.98443109,0.0025991201,-0.17575204,0
-4.5059056,0.27755642,0.36966044,-0.98443109,-0.0025991201,0.17575204,0
-4.4471154,0.32064772,0.69959641,-0.98443109,-0.0025991201,0.17575204,0
1.741935,-0.21565461,-1.3017528,-0.17085391,-0.2207047,-0.96025956,0
4.5593991,0.12332726,-0.064097762,0.98443109,0.0025991201,-0.17575204,0
4.5492077,-0.45443773,-0.12972844,0.98443109,0.0025991201,-0.17575204,0
0.26037842,-0.34580499,-0.99920791,-0.16394931,-0.34692526,-0.92345208,0
2.4644227,-0.38378525,-1.3750427,-0.1607824,-0.39071661,-0.90636069,0
4.4061251,-0.071674824,-0.92551023,0.98443109,0.0025991201,-0.17575204,0
0.1411076,0.46237773,-0.92631108,-0.15708993,0.46159041,-0.87307334,0
-4.2165613,-0.50473261,1.6364635,0.15415259,-0.49319285,0.85615307,0
4.3099914,0.66546535,-1.453076,0.98443109,0.0025991201,-0.17575204,0
-4.5989199,0.21043825,-0.15232778,-0.98443109,-0.0025991201,0.17575204,0
-4.530427,0.26180935,0.23207784,-0.98443109,-0.0025991201,0.17575204,0
-4.4365077,0.41281509,0.76037276,-0.98443109,-0.0025991201,0.17575204,0
4.3045659,0.33498049,-1.4883554,0.98443109,0.0025991201,-0.17575204,0
-4.397604,0.64093876,0.98165697,-0.98443109,-0.0025991201,0.17575204,0
-4.3349266,-0.30196571,1.3187828,-0.98443109,-0.0025991201,0.17575204,0
4.3858428,-0.28493404,-1.0422688,0.98443109,0.0025991201,-0.17575204,0
-4.5100465,0.23784733,0.34587491,-0.98443109,-0.0025991201,0.17575204,0
4.4713869,0.16914129,-0.55639827,0.98443109,0.0025991201,-0.17575204,0
-4.1527014,0.75436449,1.3948474,0.11110044,0.76562226,0.63362402,0
-4.4409986,-0.10985994,0.72749001,-0.98443109,-0.0025991201,0.17575204,0
4.3457651,-0.64493465,-1.2720804,0.98443109,0.0025991201,-0.17575204,0
4.341454,-0.70490313,-1.2971156,0.98443109,0.0025991201,-0.17575204,0
4.4334345,-0.37061548,-0.77696639,0.98443109,0.0025991201,-0.17575204,0
-3.2108316,-0.98973107,0.76948303,0.03646481,-0.98115742,0.18973801,0
-4.5346713,0.14561176,0.20658362,-0.98443109,-0.0025991201,0.17575204,0
3.0422103,0.45552897,-1.4517682,-0.15835366,0.44707853,-0.88036644,0
-4.4852738,0.60503149,0.49006593,-0.98443109,-0.0025991201,0.17575204,0
-4.3825679,0.12952185,1.0583146,-0.98443109,-0.0025991201,0.17575204,0
-4.4563189,0.33827257,0.64830315,-0.98443109,-0.0025991201,0.17575204,0
4.1454225,-0.70615125,-0.031753778,0.12438798,-0.71676803,0.68612796,0
0.84886837,0.011147618,-1.1673255,-0.17576799,0.0084423125,-0.98439544,0
0.82889199,-0.72977662,-0.83975649,-0.11781466,-0.7322762,-0.67073947,0
-4.3130064,0.44841433,1.4526633,-0.98443109,-0.0025991201,0.17575204,0
-4.5598631,0.48236752,0.070458412,-0.98443109,-0.0025991201,0.17575204,0
-4.4019532,-0.25039721,0.94411421,-0.98443109,-0.0025991201,0.17575204,0
-4.3829684,0.76641321,1.0654911,-0.98443109,-0.0025991201,0.17575204,0
3.0883999,-0.94323254,-0.86380762,-0.05162102,-0.95152313,-0.30321461,0
-1.4093493,-0.22485185,1.2423824,0.17198445,-0.22067672,0.96006429,0
-4.3054261,0.16260672,1.4908941,-0.98443109,-0.0025991201,0.17575204,0
-2.4721684,0.98265791,0.29187837,-0.028393805,0.98911017,-0.14441267,0
3.3461556,0.26148629,0.3853426,0.16938257,0.25309902,0.95249695,0
-4.1506195,0.66637564,-0.0066125393,-0.1310848,0.67698818,-0.72422636,0
0.12569106,-0.709373,0.69353592,0.12569106,-0.709373,0.69353592,0
-4.3567033,-0.32040548,1.1965345,-0.98443109,-0.0025991201,0.17575204,0
4.4830165,0.55439949,-0.48556221,0.98443109,0.0025991201,-0.17575204,0
-4.3508835,-0.093096733,1.2324946,-0.98443109,-0.0025991201,0.17575204,0
0.79970419,-0.17131853,-1.1431093,-0.17263025,-0.17388569,-0.96951681,0
-4.504055,0.30848217,0.38048434,-0.98443109,-0.0025991201,0.17575204,0
-4.5262952,0.34053183,0.25638413,-0.98443109,-0.0025991201,0.17575204,0
-4.4462218,-0.96294451,0.6856184,-0.98443109,-0.0025991201,0.17575204,0
-4.2945495,0.15114784,1.5516497,-0.98443109,-0.0025991201,0.17575204,0
-1.6434153,0.96183527,0.55492675,0.04277575,0.9662872,0.25388837,0
2.5071726,0.38482225,0.49257302,0.16169864,0.37862957,0.91131407,0
4.5413423,-0.61089849,-0.17609859,0.98443109,0.0025991201,-0.17575204,0
3.2184653,0.072455406,-1.58836,-0.17556047,0.063494228,-0.98241901,0
-4.3388548,-0.55558634,1.2930321,-0.98443109,-0.0025991201,0.17575204,0
-1.2170355,0.96266949,-0.046263933,-0.048068583,0.96575576,-0.25496143,0
-2.3934813,0.54914498,-0.41763973,-0.14761129,0.55507457,-0.81859845,0
-4.43606,0.59282207,0.7655437,-0.98443109,-0.0025991201,0.17575204,0
3.3000746,0.9658885,-0.88371617,-0.053410709,0.95703447,-0.28501308,0
1.0572984,-0.98188812,-0.011147261,0.033249617,-0.98459196,0.17167786,0
2.0493844,0.19959617,-1.3624474,-0.17291872,0.19372882,-0.96569598,0
4.5471096,0.54456806,-0.12670684,0.98443109,0.0025991201,-0.17575204,0
-4.3737035,0.71976852,1.116697,-0.98443109,-0.0025991201,0.17575204,0
4.5595002,-0.4688344,-0.072291732,0.98443109,0.0025991201,-0.17575204,0
-4.5296297,0.33542919,0.23763156,-0.98443109,-0.0025991201,0.17575204,0
4.4537354,0.47694731,-0.65071911,0.98443109,0.0025991201,-0.17575204,0
1.7268463,-0.9188813,0.081955373,0.069882572,-0.92325622,0.37777567,0
-0.6190117,-0.84949452,0.64952123,0.095426381,-0.84760821,0.52197134,0
-0.18095665,-0.43804583,0.94591653,0.15918858,-0.43714774,0.88518983,0
-4.4939294,0.24017,0.43618894,-0.98443109,-0.0025991201,0.17575204,0
-0.14953816,-0.95370412,-0.2796348,-0.050560951,-0.95344281,-0.29730535,0
4.0683746,0.99010491,-0.93211716,-0.038109779,0.97926235,-0.19897991,0
-3.0205066,0.48553634,-0.34446943,-0.15416117,0.4931041,-0.8562026,0
-4.3587809,-0.56783915,1.1812375,-0.98443109,-0.0025991201,0.17575204,0
-4.3246493,0.25856733,1.3846382,-0.98443109,-0.0025991201,0.17575204,0
-4.4692616,0.8970418,0.58407426,-0.98443109,-0.0025991201,0.17575204,0
3.2460728,0.38823819,0.36004579,0.16158935,0.38009432,0.91072351,0
-4.2724814,-0.15108109,1.6707854,-0.98443109,-0.0025991201,0.17575204,0
3.7526312,0.93425703,-0.28281042,0.064618289,0.92451978,0.3756164,0
1.0967547,-0.58157533,0.62871611,0.14415076,-0.58409035,0.79878604,0
-4.410553,-0.79542637,0.15693295,-0.10707927,-0.78406435,-0.61137307,0
4.483479,0.23484087,-0.48769689,0.98443109,0.0025991201,-0.17575204,0
-1.6725106,-0.037330508,-0.71664977,-0.17556931,-0.033378199,-0.98390108,0
1.0057727,0.8487078,0.36157289,0.091460049,0.84629387,0.52480662,0
-0.79189038,-0.44915625,-0.76705748,-0.15602964,-0.4474774,-0.8805787,0
4.5612006,-0.30570841,-0.060354471,0.98443109,0.0025991201,-0.17575204,0
0.52877474,0.91321838,0.32225144,0.06975466,0.91200644,0.40420103,0
0.58466971,0.69000983,0.63203198,0.12564963,0.68879795,0.71398163,0
-3.4926968,0.16571712,1.6236218,0.17257935,0.1753941,0.96925414,0
4.2793913,0.21086693,-1.6311976,0.98443109,0.0025991201,-0.17575204,0
-4.3860378,0.31436205,1.0416106,-0.98443109,-0.0025991201,0.17575204,0
4.3497458,0.048627853,-1.2395248,0.98443109,0.0025991201,-0.17575204,0
-3.1833644,0.8436687,1.0996329,0.089743376,0.85231042,0.51527965,0
-3.0636597,0.73499179,-0.13317668,-0.11957574,0.74276465,-0.65878856,0
-1.5848461,-0.66010058,1.0500253,0.1343953,-0.65556133,0.74308628,0
1.6855365,0.57761693,-1.1335887,-0.14553115,0.57278246,-0.80668533,0
4.5154238,0.49102569,-0.3049776,0.98443109,0.0025991201,-0.17575204,0
4.4985213,-0.14573669,-0.40907049,0.98443109,0.0025991201,-0.17575204,0
-4.0364127,-0.84746289,0.16486079,-0.094015181,-0.83705425,-0.5389818,0
-3.6912272,0.42581272,1.5731897,0.1570546,0.43597299,0.88614976,0
4.271987,-0.0074152946,-1.6759014,0.98443109,0.0025991201,-0.17575204,0
4.5552158,0.61204028,-0.080302477,0.98443109,0.0025991201,-0.17575204,0
4.4319592,-0.6337142,-0.78911906,0.98443109,0.0025991201,-0.17575204,0
0.51389748,-0.11967403,-1.1000342,-0.17413989,-0.12149063,-0.97719777,0
1.4668636,-0.86950254,0.23328447,0.087906301,-0.87314332,0.47947192,0
-4.4316926,0.79438782,0.79298741,-0.98443109,-0.0025991201,0.17575204,0
4.5548768,-0.58720922,-0.099938869,0.98443109,0.0025991201,-0.17575204,0
2.5076547,0.49989176,0.43570292,0.15157968,0.49367127,0.85633665,0
4.5156069,0.25074673,-0.30750668,0.98443109,0.0025991201,-0.17575204,0
-2.8670332,-0.49298596,-0.37602305,-0.15237504,-0.48581862,-0.86067539,0
-4.3388462,0.18388796,1.3040171,-0.98443109,-0.0025991201,0.17575204,0
4.510788,-0.55924845,-0.34647989,0.98443109,0.0025991201,-0.17575204,0
4.4413896,-0.20378876,-0.7299369,0.98443109,0.0025991201,-0.17575204,0
-1.9953823,0.68837833,1.0876191,0.1247654,0.69397622,0.70910561,0
-4.49964,-0.37435722,0.39511263,-0.98443109,-0.0025991201,0.17575204,0
4.5122991,-0.8675046,-0.34257138,0.98443109,0.0025991201,-0.17575204,0
-0.15120944,-0.4991104,0.90770519,0.1536527,-0.4983055,0.8532775,0
-4.5098796,-0.88119054,0.33026433,-0.98443109,-0.0025991201,0.17575204,0
4.4443722,0.17168617,-0.70767677,0.98443109,0.0025991201,-0.17575204,0
4.5809875,-0.071927547,0.053935528,0.98443109,0.0025991201,-0.17575204,0
-4.3725796,-0.0082345009,1.1122243,-0.98443109,-0.0025991201,0.17575204,0
2.9241848,-0.99220896,-0.50923443,0.0047774315,-0.99991697,0.01197204,0
-4.4044943,-0.72861552,0.92280889,-0.98443109,-0.0025991201,0.17575204,0
-4.3587804,0.31760502,1.1943383,-0.98443109,-0.0025991201,0.17575204,0
-0.64037192,-0.6370101,-0.66983593,-0.13404691,-0.63567328,-0.76023084,0
4.5029502,0.21750116,-0.37889111,0.98443109,0.0025991201,-0.17575204,0
4.5172729,-0.10179901,-0.30338764,0.98443109,0.0025991201,-0.17575204,0
-1.5015779,0.36752844,1.2110205,0.16219315,0.37192118,0.91398484,0
-4.3277984,-0.55154848,1.3550205,-0.98443109,-0.0025991201,0.17575204,0
3.2735476,-0.78318739,0.036343336,0.10943002,-0.79154134,0.60123831,0
4.4631,-0.5582242,-0.61357391,0.98443109,0.0025991201,-0.17575204,0
-2.3890159,-0.70188165,-0.3029741,-0.12443322,-0.69590271,-0.7072736,0
4.5710917,-0.08481741,-0.0016844273,0.98443109,0.0025991201,-0.17575204,0
-4.5200982,0.14291906,0.28816974,-0.98443109,-0.0025991201,0.17575204,0
4.4405999,0.8676188,-0.71851659,0.98443109,0.0025991201,-0.17575204,0
4.3435688,-0.63004589,-1.2841619,0.98443109,0.0025991201,-0.17575204,0
4.4819899,0.95330095,-0.48541343,0.98443109,0.0025991201,-0.17575204,0
-4.2766051,-0.12284374,1.6481069,-0.98443109,-0.0025991201,0.17575204,0
4.3706856,0.9317503,-1.1091765,0.98443109,0.0025991201,-0.17575204,0
4.5280881,0.43600869,-0.23485613,0.98443109,0.0025991201,-0.17575204,0
-3.9226973,0.45085001,-0.20121515,-0.15716085,0.46079177,-0.87348241,0
-4.3880496,0.74822378,1.0367618,-0.98443109,-0.0025991201,0.17575204,0
-3.5427461,-0.0870893,1.6452667,0.17542486,-0.077272385,0.98145568,0
4.0780816,0.3663888,-1.6776428,-0.1652016,0.35518521,-0.92008269,0
-2.7755477,-1.0060198,0.44397807,-0.0063626766,-0.99870849,-0.05040893,0
4.5094848,-0.36168003,-0.35085571,0.98443109,0.0025991201,-0.17575204,0
4.4319181,0.84892941,-0.76742148,0.98443109,0.0025991201,-0.17575204,0
-4.0108452,-0.14430308,-0.2905643,-0.17382017,-0.13417207,-0.97559452,0
2.095572,-0.88219213,0.093952298,0.083256304,-0.88750505,0.45321429,0
-4.3426766,-0.038054466,1.2792779,-0.98443109,-0.0025991201,0.17575204,0
0.15145957,-0.91028452,-0.446253,-0.070200145,-0.91086972,-0.40667975,0
4.5363317,0.15836716,-0.19278657,0.98443109,0.0025991201,-0.17575204,0
-1.173632,-0.36776233,1.155565,0.16461198,-0.36422902,0.91664612,0
-3.3289561,-0.76914954,1.2544565,0.11615896,-0.76005363,0.6393947,0
-0.43938732,-0.73297465,-0.61349285,-0.11784357,-0.73212576,-0.67089868,0
-4.5338302,0.11177921,0.21079433,-0.98443109,-0.0025991201,0.17575204,0
4.4608307,0.50614929,-0.6105445,0.98443109,0.0025991201,-0.17575204,0
-2.9860334,-1.0063426,0.59001267,0.012401402,-0.99842602,0.054697275,0
-4.3424282,0.34058332,1.286271,-0.98443109,-0.0025991201,0.17575204,0
4.2917624,0.14598083,-1.5628647,0.98443109,0.0025991201,-0.17575204,0
-4.5852103,-0.11169672,-0.080304503,-0.98443109,-0.0025991201,0.17575204,0
4.3666239,-0.58747435,-1.1543953,0.98443109,0.0025991201,-0.17575204,0
-1.5127743,0.27061379,1.2467091,0.16826987,0.27505225,0.94658947,0
4.4886532,-0.2029767,-0.4651913,0.98443109,0.0025991201,-0.17575204,0
0.73998797,-0.98915982,-0.26679265,-0.02076596,-0.99116832,-0.13097401,0
-2.4230006,0.48088312,-0.45470178,-0.15476094,0.4868716,-0.85965419,0
-4.2633076,-0.10905409,1.7227908,-0.98443109,-0.0025991201,0.17575204,0
-4.4953241,0.64618874,0.43438137,-0.98443109,-0.0025991201,0.17575204,0
4.4064202,-0.40769768,-0.92882681,0.98443109,0.0025991201,-0.17575204,0
-4.3835554,0.23659182,1.054368,-0.98443109,-0.0025991201,0.17575204,0
-4.0851426,-0.9280858,1.1342595,0.072406888,-0.91710913,0.39200544,0
-4.3405433,0.083393574,1.2930219,-0.98443109,-0.0025991201,0.17575204,0
-4.3727884,-0.69518399,1.1008958,-0.98443109,-0.0025991201,0.17575204,0
4.5307331,0.11155605,-0.22483742,0.98443109,0.0025991201,-0.17575204,0
-4.4567251,0.48870993,0.64825392,-0.98443109,-0.0025991201,0.17575204,0
3.2567,-0.50173807,0.29239023,0.15248942,-0.50993401,0.84658992,0
-4.3239012,-0.38843155,1.379262,-0.98443109,-0.0025991201,0.17575204,0
-1.2475494,-1.0010537,0.15518714,-0.0091323853,-0.9977839,-0.06590943,0
-4.3928728,0.75022173,1.0097728,-0.98443109,-0.0025991201,0.17575204,0
2.038008,0.80048072,0.25184792,0.10449076,0.79537594,0.59704185,0
-4.5677404,0.37383556,0.024729848,-0.98443109,-0.0025991201,0.17575204,0
0.62339497,0.91055387,-0.53532159,-0.075688779,0.9087081,-0.41051292,0
0.81318718,0.95701069,-0.44738194,-0.054728985,0.95471913,-0.29243141,0
-3.7500329,0.94620228,0.96672159,0.048977613,0.95623308,0.28847817,0
-4.2709117,0.19475031,1.6846924,-0.98443109,-0.0025991201,0.17575204,0
-4.4437838,-0.22901344,0.71012634,-0.98443109,-0.0025991201,0.17575204,0
-0.23956943,-0.93455839,0.40633869,0.065292716,-0.93375349,0.35191113,0
-4.3107071,0.35186291,1.4641107,-0.98443109,-0.0025991201,0.17575204,0
0.69549668,0.99852306,-0.041973047,0.011670828,0.99671763,0.080111489,0
2.8322818,-0.44316912,-1.4122576,-0.15570402,-0.45105818,-0.87880772,0
4.3835373,0.72714734,-1.0402173,0.98443109,0.0025991201,-0.17575204,0
4.2929134,-0.52423191,-1.566331,0.98443109,0.0025991201,-0.17575204,0
4.515696,-0.47532797,-0.31774491,0.98443109,0.0025991201,-0.17575204,0
4.188765,-0.98812008,-0.7885862,-0.0044953227,-0.99919134,-0.039956734,0
-4.1940417,-0.11584854,-0.26140225,-0.17450745,-0.10523608,-0.97901613,0
1.0582415,-0.89807016,0.2524668,0.078673542,-0.90065646,0.42735058,0
0.78838021,-0.95524973,0.15327424,0.053320467,-0.95719045,0.28450561,0
-3.7399678,0.98634124,0.57890117,-0.017913103,0.99616838,-0.085603148,0
-4.3480682,-0.29345465,1.2453035,-0.98443109,-0.0025991201,0.17575204,0
-3.6248522,0.74817872,1.3096601,0.11268574,0.75804687,0.64239156,0
4.2819095,-0.32474232,-1.6250149,0.98443109,0.0025991201,-0.17575204,0
3.8003445,0.77170157,-1.3370575,-0.11589289,0.76136148,-0.63788533,0
-4.3598332,0.23148584,1.187166,-0.98443109,-0.0025991201,0.17575204,0
4.2979302,-0.015599251,-1.5307069,0.98443109,0.0025991201,-0.17575204,0
-2.8334422,0.91277599,0.10791528,-0.071205199,0.92006886,-0.38523138,0
-3.7515554,0.079555988,1.6814678,0.17481051,0.08992295,0.98048741,0
-2.0179958,-0.17929268,1.3606806,0.17353091,-0.17350677,0.96942389,0
-4.4687467,-0.84564328,0.56118584,-0.98443109,-0.0025991201,0.17575204,0
-0.12265503,0.72636235,-0.67627943,-0.12265503,0.72636235,-0.67627943,0
2.8885915,0.75596547,0.15775001,0.11460346,0.74864161,0.65299463,0
-4.534914,0.15777731,0.20540166,-0.98443109,-0.0025991201,0.17575204,0
0.068703294,-0.9260363,0.37112892,0.068703294,-0.9260363,0.37112892,0
-4.5091996,-0.055971622,0.34627467,-0.98443109,-0.0025991201,0.17575204,0
-4.4308367,0.9507761,0.80009389,-0.98443109,-0.0025991201,0.17575204,0
4.5300665,-0.60194969,-0.23912477,0.98443109,0.0025991201,-0.17575204,0
4.5363798,0.29657602,-0.1904766,0.98443109,0.0025991201,-0.17575204,0
-4.3211923,0.62639761,-0.011208296,-0.13704759,0.63744426,-0.75821024,0
-4.4795413,-0.044868469,0.51256406,-0.98443109,-0.0025991201,0.17575204,0
4.3500786,0.6175127,-1.2292491,0.98443109,0.0025991201,-0.17575204,0
-4.5315857,-0.052520275,0.22093582,-0.98443109,-0.0025991201,0.17575204,0
4.1787252,0.4938519,0.14330578,0.15263444,0.48322189,0.86209017,0
-1.1320068,0.35842735,-0.74521959,-0.1648258,0.36098096,-0.91789186,0
-0.68453437,0.97688293,-0.086855769,-0.038676083,0.97858816,-0.20216188,0
-0.67200726,-0.21692567,-0.87194633,-0.17106742,-0.21560305,-0.96137995,0
3.868777,-0.94848132,-0.97918999,-0.047460437,-0.95882088,-0.28001791,0
1.3946226,0.55998886,0.59487116,0.14457685,0.55668843,0.81804383,0
-4.5438752,0.39421892,0.15870786,-0.98443109,-0.0025991201,0.17575204,0
0.55980039,0.52796692,0.76343584,0.14803082,0.52687973,0.83694971,0
2.898176,-0.60858989,0.28288603,0.14004171,-0.61587179,0.7753002,0
-1.2198354,0.96615076,-0.032174468,-0.045726299,0.96925068,-0.24179006,0
4.5533462,-0.35331535,-0.1050545,0.98443109,0.0025991201,-0.17575204,0
-0.20255309,0.74273789,0.71538103,0.1156137,0.74357802,0.6585784,0
3.9308424,-0.54828143,0.14099634,0.14724299,-0.55827087,0.81648839,0
4.3927426,0.61363459,-0.99033248,0.98443109,0.0025991201,-0.17575204,0
2.6575356,0.98375928,-0.25709385,0.035107434,0.97683555,0.21109241,0
-4.3525252,-0.30965996,1.220098,-0.98443109,-0.0025991201,0.17575204,0
-4.4457421,-0.11761904,0.70080614,-0.98443109,-0.0025991201,0.17575204,0
4.4809155,-0.76855183,-0.51689625,0.98443109,0.0025991201,-0.17575204,0
-0.3138741,0.58902323,-0.76452267,-0.14347893,0.58947313,-0.79494369,0
4.5656114,0.066618443,-0.030142426,0.98443109,0.0025991201,-0.17575204,0
-2.899497,0.916116,0.90622377,0.064865351,0.92394269,0.37699148,0
2.603255,-0.16307259,0.53635204,0.17364359,-0.16948742,0.97011459,0
0.50149989,-0.79725438,-0.7005688,-0.10367531,-0.79885209,-0.59252584,0
-2.6321168,0.65415239,1.2317662,0.13012046,0.66144538,0.73861951,0
4.0185518,0.99037766,-0.51458007,0.032590747,0.97985369,0.19703999,0
-3.9974904,-0.69414258,1.4554113,0.13008061,-0.68324471,0.71850955,0
-2.086916,-0.9989748,0.25707421,-0.017442346,-0.99351084,-0.11239225,0
-4.5757895,0.012486458,-0.025699735,-0.98443109,-0.0025991201,0.17575204,0
4.3546629,0.27598381,-1.2086203,0.98443109,0.0025991201,-0.17575204,0
4.3417397,0.74698067,-1.274042,0.98443109,0.0025991201,-0.17575204,0
4.4223609,0.26477003,-0.82959497,0.98443109,0.0025991201,-0.17575204,0
-4.5067148,-0.17768478,0.35839337,-0.98443109,-0.0025991201,0.17575204,0
-3.1902685,0.6591866,-0.18703663,-0.13261199,0.66725969,-0.73292488,0
4.1162286,1.0079021,-0.65712583,0.010900974,0.9970631,0.075804897,0
4.5094013,-0.74988317,-0.35706383,0.98443109,0.0025991201,-0.17575204,0
-4.3189464,-0.37427044,1.4072254,-0.98443109,-0.0025991201,0.17575204,0
0.17485066,0.087722495,0.98067945,0.17485066,0.087722495,0.98067945,0
-3.3751137,0.58228326,-0.21699774,-0.14330992,0.59081578,-0.79397678,0
-1.3167632,-0.78959024,0.86331284,0.11070502,-0.78582138,0.60846478,0
-4.3987131,-0.56720233,0.95757735,-0.98443109,-0.0025991201,0.17575204,0
4.4518046,-0.53844452,-0.67655075,0.98443109,0.0025991201,-0.17575204,0
-1.6449301,-0.21043932,-0.70023513,-0.17143422,-0.20654893,-0.9633007,0
0.63239551,-0.90361464,-0.54400575,-0.072271168,-0.90547526,-0.41820043,0
-0.53284067,0.0035822988,-0.92067242,-0.17576241,0.0045250803,-0.98442233,0
2.6151624,-0.8608613,0.038356781,0.089635968,-0.86752915,0.48924303,0
4.4678831,-0.40496111,-0.584517,0.98443109,0.0025991201,-0.17575204,0
4.5545359,0.65378141,-0.083494067,0.98443109,0.0025991201,-0.17575204,0
4.5745454,0.19963837,0.02186811,0.98443109,0.0025991201,-0.17575204,0
-2.315578,-0.99398983,0.57158989,0.029896438,-0.98779738,0.1528486,0
-4.3863349,-0.64593458,1.0257478,-0.98443109,-0.0025991201,0.17575204,0
-1.8529261,0.40300012,1.2580808,0.15938947,0.40831333,0.89881891,0
-2.1253166,0.23239231,-0.6072979,-0.17132954,0.23755114,-0.95614636,0
4.3896537,-0.68527126,-1.0268443,0.98443109,0.0025991201,-0.17575204,0
-3.5921571,-0.78638387,1.281263,0.11270928,-0.77660209,0.61982739,0
-4.2992921,-0.12335682,-0.24180758,-0.17434983,-0.11246586,-0.97824007,0
3.9028707,-0.98959541,-0.68170524,0.0051676631,-0.99988639,0.014157951,0
-4.3706341,-0.17081547,1.1207161,-0.98443109,-0.0025991201,0.17575204,0
4.3783007,-0.12459183,-1.0821416,0.98443109,0.0025991201,-0.17575204,0
4.3659372,-0.26483107,-1.1534691,0.98443109,0.0025991201,-0.17575204,0
0.73971206,0.37999102,0.8081888,0.16171086,0.37846497,0.91138029,0
4.4732661,-0.61401939,-0.55745673,0.98443109,0.0025991201,-0.17575204,0
0.40055352,-0.77939039,0.56396651,0.11194468,-0.78015238,0.61549228,0
-4.312151,0.7146244,1.4613935,-0.98443109,-0.0025991201,0.17575204,0
4.5541306,-0.50917149,-0.10296202,0.98443109,0.0025991201,-0.17575204,0
4.5428586,0.23605728,-0.15507925,0.98443109,0.0025991201,-0.17575204,0
2.6678448,-0.93027735,-0.8298384,-0.058770299,-0.93747634,-0.3430514,0
-4.3021965,-0.083220959,1.505349,-0.98443109,-0.0025991201,0.17575204,0
2.3259933,-0.54359651,0.43354249,0.14826339,-0.54934639,0.82233614,0
-3.2418079,0.57246995,1.4052444,0.14150727,0.58140278,0.80121565,0
-4.4948921,0.50220537,0.43466914,-0.98443109,-0.0025991201,0.17575204,0
4.485291,-0.14656925,-0.48318863,0.98443109,0.0025991201,-0.17575204,0
4.5668921,-0.15662336,-0.026269555,0.98443109,0.0025991201,-0.17575204,0
-0.70872176,0.72740495,-0.56885558,-0.12217855,0.7289536,-0.67357212,0
1.1258867,-0.54305387,0.65026689,0.14868081,-0.54563391,0.82472885,0
0.72323805,-0.95712984,0.15909457,0.052319765,-0.95890123,0.2788747,0
-2.6857519,-0.73076797,-0.22122109,-0.11938262,-0.72399229,-0.67939913,0
4.4573774,-0.97815037,-0.65184104,0.98443109,0.0025991201,-0.17575204,0
0.71677876,0.98862171,0.036530469,0.025935948,0.98679769,0.15986773,0
-4.5008125,0.90596724,0.40748006,-0.98443109,-0.0025991201,0.17575204,0
-2.8501918,0.0081458092,1.524529,0.17568848,0.016134843,0.98431361,0
-4.3687396,0.77700949,1.1453447,-0.98443109,-0.0025991201,0.17575204,0
-2.5823553,-0.47859168,1.3569167,0.1562093,-0.47136116,0.86799634,0
-4.4410133,-1.00471,0.71417254,-0.98443109,-0.0025991201,0.17575204,0
2.0888171,0.029006243,-1.3884624,-0.17576498,0.023027048,-0.98416293,0
-2.4216456,0.90577388,0.84821439,0.069618762,0.91235161,0.40344507,0
4.3794575,0.92307639,-1.0601716,0.98443109,0.0025991201,-0.17575204,0
4.541719,0.43517113,-0.15851951,0.98443109,0.0025991201,-0.17575204,0
-3.2944598,-0.76951289,1.2477578,0.11606663,-0.76050812,0.63887101,0
-4.4948812,0.89681625,0.44056857,-0.98443109,-0.0025991201,0.17575204,0
-3.0235331,-0.12516332,-0.46896195,-0.17423125,-0.11764069,-0.97765243,0
-3.9200876,-0.75683522,1.3761379,0.11891693,-0.746171,0.65504801,0
-4.4033332,0.38008595,0.94570798,-0.98443109,-0.0025991201,0.17575204,0
4.5436635,0.16854477,-0.15156877,0.98443109,0.0025991201,-0.17575204,0
3.0425966,-0.71784592,0.15584314,0.12280273,-0.72555494,0.67711866,0
-4.4995642,-0.0082707405,0.40095109,-0.98443109,-0.0025991201,0.17575204,0
4.3439531,0.34381771,-1.2676036,0.98443109,0.0025991201,-0.17575204,0
-3.0496686,0.96646476,0.31612587,-0.0419994,0.97440583,-0.22083816,0
4.2816896,-0.40692425,-1.6274614,0.98443109,0.0025991201,-0.17575204,0
-4.5671787,0.14875698,0.024549007,-0.98443109,-0.0025991201,0.17575204,0
-3.8670232,0.014675856,-0.32512307,-0.17576271,0.024421506,-0.98412973,0
-3.0370159,-1.0075493,0.51144475,-0.0027641654,-0.99953812,-0.030265063,0
-4.4875846,-0.047201157,0.46747535,-0.98443109,-0.0025991201,0.17575204,0
4.5154686,0.051899433,-0.3112213,0.98443109,0.0025991201,-0.17575204,0
4.3303823,-0.24238968,-1.352289,0.98443109,0.0025991201,-0.17575204,0
-4.5808353,0.49650955,-0.046803951,-0.98443109,-0.0025991201,0.17575204,0
-1.0696182,-0.98038465,-0.022579886,-0.034444571,-0.9776516,-0.20739111,0
2.7452779,-0.51393819,-1.3568114,-0.14861786,-0.52157897,-0.84015965,0
4.3335838,-0.78223228,-1.3423407,0.98443109,0.0025991201,-0.17575204,0
-1.5822269,0.0018897057,-0.73331845,-0.17576423,0.005603075,-0.98441643,0
0.46014559,0.70977473,0.63432628,0.12214875,0.70888233,0.69466949,0
4.5790391,0.36570454,0.049495339,0.98443109,0.0025991201,-0.17575204,0
4.4555793,0.84557533,-0.63493931,0.98443109,0.0025991201,-0.17575204,0
-4.3113995,0.31677055,1.4597158,-0.98443109,-0.0025991201,0.17575204,0
4.3480101,-0.55658197,-1.2581961,0.98443109,0.0025991201,-0.17575204,0
2.1045694,-0.71568966,-1.0790261,-0.11983544,-0.72156262,-0.68189961,0
2.4231977,0.43704128,-1.3496137,-0.15975669,0.43022197,-0.88847452,0
-4.48281,0.37762642,0.50050175,-0.98443109,-0.0025991201,0.17575204,0
4.4731579,-0.55561876,-0.55720007,0.98443109,0.0025991201,-0.17575204,0
2.5470607,0.9090445,-0.89304686,-0.078144372,0.90211308,-0.42436486,0
4.5352817,0.39933109,-0.19510603,0.98443109,0.0025991201,-0.17575204,0
4.4576492,-0.89756393,-0.64912641,0.98443109,0.0025991201,-0.17575204,0
-1.6001947,-1.0022777,0.34957409,0.013607502,-0.99801683,0.061459392,0
4.476244,-0.82855511,-0.54394865,0.98443109,0.0025991201,-0.17575204,0
3.4201403,1.0080357,-0.56570613,0.0052116513,0.99901944,0.043966532,0
4.0893421,-0.4080925,-1.6522751,-0.15848303,-0.41930759,-0.89390403,0
-4.474731,0.29620266,0.54455298,-0.98443109,-0.0025991201,0.17575204,0
4.4262919,-0.56205893,-0.819803,0.98443109,0.0025991201,-0.17575204,0
4.5258732,0.73678923,-0.24281538,0.98443109,0.0025991201,-0.17575204,0
-1.0027483,0.77854574,0.81281781,0.10765773,0.78147751,0.61457539,0
-4.3823004,0.81842089,1.070002,-0.98443109,-0.0025991201,0.17575204,0
-4.441215,-0.95008183,0.71385241,-0.98443109,-0.0025991201,0.17575204,0
4.5674553,0.45473957,-0.014074206,0.98443109,0.0025991201,-0.17575204,0
-4.3489552,-0.72856331,1.2338971,-0.98443109,-0.0025991201,0.17575204,0
4.5656619,0.025822163,-0.030463934,0.98443109,0.0025991201,-0.17575204,0
4.350873,-0.16173744,-1.2363224,0.98443109,0.0025991201,-0.17575204,0
-1.7056078,-0.29242635,-0.66815531,-0.16754881,-0.28836557,-0.94274747,0
3.1584797,-0.034821033,-1.5787332,-0.1754737,-0.043623582,-0.98351729,0
-4.5133376,-0.74832129,0.31285846,-0.98443109,-0.0025991201,0.17575204,0
4.5546064,-0.4246006,-0.099046588,0.98443109,0.0025991201,-0.17575204,0
4.4447608,-0.51575518,-0.71566844,0.98443109,0.0025991201,-0.17575204,0
4.4205379,0.1371212,-0.84169257,0.98443109,0.0025991201,-0.17575204,0
4.3090076,-0.57303381,-1.4769024,0.98443109,0.0025991201,-0.17575204,0
-4.455718,-0.92947412,0.63292003,-0.98443109,-0.0025991201,0.17575204,0
-4.0885563,0.24967861,1.710561,0.16899702,0.26091954,0.95045322,0
-4.5367818,0.60469532,0.20155168,-0.98443109,-0.0025991201,0.17575204,0
-4.4447017,-0.15628052,0.70606047,-0.98443109,-0.0025991201,0.17575204,0
-4.4310341,0.88274431,0.79798412,-0.98443109,-0.0025991201,0.17575204,0
-0.59797782,-0.76045263,0.76865381,0.1164602,-0.75856632,0.64110392,0
-1.2423282,-0.90564895,-0.21556526,-0.073361218,-0.90256262,-0.42426282,0
4.4286957,-0.43089581,-0.80439883,0.98443109,0.0025991201,-0.17575204,0
0.49091929,-0.48099017,0.80244875,0.15523422,-0.48187643,0.86237901,0
4.4997215,-0.90605164,-0.41359228,0.98443109,0.0025991201,-0.17575204,0
4.4390178,-0.22077894,-0.74347389,0.98443109,0.0025991201,-0.17575204,0
-4.2614989,-0.2448082,1.7309151,-0.98443109,-0.0025991201,0.17575204,0
4.476306,0.55273819,0.05495739,0.14639205,0.54130608,0.82798386,0
4.3679428,-0.70392656,-1.1487294,0.98443109,0.0025991201,-0.17575204,0
4.340713,-0.62721252,-1.3001139,0.98443109,0.0025991201,-0.17575204,0
4.4753923,-0.010733604,-0.53662539,0.98443109,0.0025991201,-0.17575204,0
1.6041002,0.38200068,-1.2271026,-0.163726,0.37733313,-0.91148984,0
-4.3766632,0.57771254,1.0980173,-0.98443109,-0.0025991201,0.17575204,0
4.5740771,0.086751938,0.017573476,0.98443109,0.0025991201,-0.17575204,0
-4.292212,0.59006405,1.5712341,-0.98443109,-0.0025991201,0.17575204,0
4.3876839,-0.11034012,-1.0293752,0.98443109,0.0025991201,-0.17575204,0
4.5662789,0.43924451,-0.020890832,0.98443109,0.0025991201,-0.17575204,0
-1.1502444,0.18737268,-0.79196215,-0.17303878,0.18995282,-0.96642423,0
-4.34271,-0.1771636,1.2770349,-0.98443109,-0.0025991201,0.17575204,0
3.4478393,0.58209419,-1.4483401,-0.14555228,0.57260686,-0.80680615,0
-2.3663771,-0.9402014,0.78596735,0.065279961,-0.93378127,0.35183972,0
4.522953,-0.63950205,-0.27952504,0.98443109,0.0025991201,-0.17575204,0
4.4730654,0.76679802,-0.53816068,0.98443109,0.0025991201,-0.17575204,0
4.4379163,0.45253372,-0.73968655,0.98443109,0.0025991201,-0.17575204,0
-3.8507962,0.76402521,1.330086,0.10919845,0.77448052,0.62310171,0
4.4979968,0.8357861,-0.39749327,0.98443109,0.0025991201,-0.17575204,0
-3.5804465,-0.6359458,-0.15223515,-0.13533163,-0.62684995,-0.76729697,0
2.0109205,0.37545168,-1.3028517,-0.16424611,0.36970863,-0.91451573,0
3.6110647,-0.64373279,-1.4134827,-0.13134181,-0.65361339,-0.74534488,0
-4.4278936,-0.52690911,0.79472524,-0.98443109,-0.0025991201,0.17575204,0
-0.81183285,0.83853966,-0.40555316,-0.097394705,0.84042597,-0.53310287,0
1.4247622,0.7303378,-0.9526605,-0.12267524,0.7262522,-0.67639399,0
-4.0523233,0.69747829,0.0059329271,-0.12595686,0.70784461,-0.69504762,0
-4.5347281,-0.41283655,0.19800842,-0.98443109,-0.0025991201,0.17575204,0
4.3408089,-0.10083294,-1.2917937,0.98443109,0.0025991201,-0.17575204,0
4.5198374,0.7124362,-0.27698141,0.98443109,0.0025991201,-0.17575204,0
4.5554557,0.47096515,-0.081045985,0.98443109,0.0025991201,-0.17575204,0
-4.5231466,-0.14955473,0.26677126,-0.98443109,-0.0025991201,0.17575204,0
-2.3132646,-0.38671446,1.3525295,0.16352884,-0.38017517,0.91034353,0
4.3553376,0.28729916,-1.2046734,0.98443109,0.0025991201,-0.17575204,0
-1.7186017,-0.93029755,0.69135952,0.068899453,-0.92557812,0.37223405,0
-2.4615014,-0.89318752,-0.02981019,-0.078921556,-0.88689703,-0.455176,0
-4.3205166,0.4225049,1.4102137,-0.98443109,-0.0025991201,0.17575204,0
-4.5556617,-0.21969748,0.08360827,-0.98443109,-0.0025991201,0.17575204,0
4.4476972,0.45635557,-0.68484461,0.98443109,0.0025991201,-0.17575204,0
4.3733878,0.8000946,-1.0959876,0.98443109,0.0025991201,-0.17575204,0
3.4140499,-0.28878617,0.36034763,0.16856363,-0.29735476,0.93976939,0
-4.3059654,0.11258507,1.4871348,-0.98443109,-0.0025991201,0.17575204,0
4.3113365,-0.56917953,-1.4638016,0.98443109,0.0025991201,-0.17575204,0
2.4291048,-0.7223134,-1.1289638,-0.11843181,-0.72903943,-0.67414796,0
-4.549284,0.21415186,0.1257478,-0.98443109,-0.0025991201,0.17575204,0
-4.2882042,-0.34738588,1.5798168,-0.98443109,-0.0025991201,0.17575204,0
4.5280056,-0.5523138,-0.24993527,0.98443109,0.0025991201,-0.17575204,0
-4.2649021,-0.24809456,1.7118059,-0.98443109,-0.0025991201,0.17575204,0
4.5070429,0.47682858,-0.35213196,0.98443109,0.0025991201,-0.17575204,0
-0.98133719,0.43814564,1.0868225,0.15659732,0.4411501,0.88366514,0
3.1548629,-0.16359949,-1.5638474,-0.17268047,-0.17238523,-0.9697758,0
-4.4961267,0.18535948,0.42307007,-0.98443109,-0.0025991201,0.17575204,0
-4.317749,-0.38417959,1.4137831,-0.98443109,-0.0025991201,0.17575204,0
-4.5024939,0.20737076,0.38773096,-0.98443109,-0.0025991201,0.17575204,0
2.6596692,-0.86227942,-0.97652829,-0.084576547,-0.86952478,-0.48659372,0
0.26823378,-0.92889166,-0.42185658,-0.062323749,-0.92976433,-0.36284161,0
4.384583,0.13528728,-1.0431116,0.98443109,0.0025991201,-0.17575204,0
3.8731279,0.51587319,-1.5680969,-0.15296307,0.50524354,-0.84931237,0
-3.2378545,-0.86866832,0.060301721,-0.087379396,-0.86035037,-0.50215763,0
4.4157782,-0.6384306,-0.8798219,0.98443109,0.0025991201,-0.17575204,0
2.9881096,0.50661206,0.34676039,0.1510179,0.49912161,0.85327083,0
-4.494031,-0.43079758,0.42569676,-0.98443109,-0.0025991201,0.17575204,0
3.6269991,-0.18883348,0.34817636,0.17278124,-0.19795349,0.9648633,0
-4.5566354,-0.49153447,0.074135065,-0.98443109,-0.0025991201,0.17575204,0
4.5109882,0.54142332,-0.32907909,0.98443109,0.0025991201,-0.17575204,0
-4.4894238,-0.76756167,0.44652301,-0.98443109,-0.0025991201,0.17575204,0
2.7479827,0.24288917,-1.4779215,-0.17142481,0.23518136,-0.95671487,0
-4.4218559,-0.43579054,0.82989287,-0.98443109,-0.0025991201,0.17575204,0
