1.1946447,3.5017328,1.7532778,0.17893291,0.94612432,0.26987335,0
-0.16981028,-3.9175808,-0.97488713,-0.17893291,-0.94612432,-0.26987335,0
1.6020112,3.5302911,1.3830647,0.17893291,0.94612432,0.26987335,0
-0.20540315,3.993387,0.95790106,0.17893291,0.94612432,0.26987335,0
-1.3741252,-3.6692009,-1.0471678,-0.17893291,-0.94612432,-0.26987335,0
0.88987362,3.5336862,1.8433279,0.17893291,0.94612432,0.26987335,0
0.21861364,3.9442511,0.84902769,0.17893291,0.94612432,0.26987335,0
0.25366706,3.5694723,1.9415375,-0.45249599,-0.16442981,0.87647593,0
0.95623809,4.0046124,0.14834794,0.17893291,0.94612432,0.26987335,0
-1.4113846,-3.7319155,-0.80259871,-0.17893291,-0.94612432,-0.26987335,0
1.3031144,3.6674237,1.1004813,0.17893291,0.94612432,0.26987335,0
0.0072501898,-1.8189976,-1.4752735,0.38620108,0.18474033,-0.90372539,0
-0.3046506,-3.9595215,-0.73844814,-0.17893291,-0.94612432,-0.26987335,0
-0.097001374,-3.890604,-1.1177367,-0.17893291,-0.94612432,-0.26987335,0
1.3010741,1.498325,0.48661214,0.98226392,-0.18741368,0.0057705045,0
0.59325755,3.562088,1.9404204,0.17893291,0.94612432,0.26987335,0
0.78991312,3.2626758,-0.083790302,0.21632105,0.22975495,-0.94890344,0
0.66014767,3.6618817,1.5462127,0.17893291,0.94612432,0.26987335,0
-0.32053688,-4.035789,-0.19299084,0.38227519,-0.31960523,0.86701679,0
-1.2686861,-1.6346899,-0.17010224,-0.94311112,0.086817235,0.32094204,0
1.4419607,2.4617717,1.0460418,0.92852062,-0.2530899,0.2716521,0
-0.31523615,1.7001197,-0.35836411,-0.57565618,0.32312483,-0.75113934,0
-0.54005408,-3.8404796,-0.9997077,-0.17893291,-0.94612432,-0.26987335,0
-0.65815479,-2.6935079,-1.8034267,-0.094005108,0.28948599,-0.95255494,0
-1.4993945,-3.1316004,-1.4113111,-0.85307992,0.28584811,-0.43651509,0
-0.41155595,-0.25028729,-1.0601121,-0.30481532,0.31411359,-0.89912194,0
-0.24369693,4.010499,0.9232986,0.17893291,0.94612432,0.26987335,0
-0.13737437,1.6392183,-0.48853651,-0.38689286,0.31986612,-0.86486971,0
-1.2937346,-2.3281972,-0.14273721,-0.85127324,0.011357278,0.52459943,0
-0.64283192,-4.0334592,-0.25501287,-0.17893291,-0.94612432,-0.26987335,0
-0.80107754,-3.9978437,-0.27495447,-0.17893291,-0.94612432,-0.26987335,0
0.67085826,0.76010573,1.1326554,0.46600389,-0.32308057,0.82368642,0
-1.3238369,-2.3077805,-1.2129909,-0.83218664,0.29186594,-0.47146535,0
-0.31243193,2.4961929,0.0095965862,-0.72547972,0.31216455,-0.61337775,0
-1.466025,-3.5985727,-1.2338438,-0.17893291,-0.94612432,-0.26987335,0
1.5278049,3.0776989,1.3107736,0.89456058,-0.27063859,0.35569066,0
1.4989507,3.6755638,0.94209802,0.17893291,0.94612432,0.26987335,0
-0.09850204,3.7861521,1.6135477,0.17893291,0.94612432,0.26987335,0
0.2524274,-3.5539422,-0.53148162,0.87166727,-0.27965489,0.40247899,0
0.35197908,3.8535068,1.0787352,0.17893291,0.94612432,0.26987335,0
1.4649093,3.7061257,0.85752404,0.17893291,0.94612432,0.26987335,0
-1.3994604,-2.5161934,-1.202049,-0.87063438,0.28002283,-0.40445375,0
0.305639,3.711278,1.6080861,0.17893291,0.94612432,0.26987335,0
1.1985939,3.8635001,0.48237318,0.17893291,0.94612432,0.26987335,0
0.53118527,3.9113274,0.75721049,0.17893291,0.94612432,0.26987335,0
-1.4445146,-3.5999761,-1.2431877,-0.17893291,-0.94612432,-0.26987335,0
1.4605818,3.7317591,0.77052653,0.17893291,0.94612432,0.26987335,0
1.4527708,3.7119584,0.84512395,0.17893291,0.94612432,0.26987335,0
0.23183239,-0.68770015,-1.1479701,0.39626724,0.18176353,-0.8999635,0
-0.72071904,-3.606688,-1.6995507,-0.17893291,-0.94612432,-0.26987335,0
1.5748892,3.6091318,1.1246467,0.17893291,0.94612432,0.26987335,0
-0.66310024,-3.6017952,-1.7549071,-0.17893291,-0.94612432,-0.26987335,0
-0.32684511,-3.8347869,-1.1610299,-0.17893291,-0.94612432,-0.26987335,0
-1.5562754,-3.4688182,-1.520725,-0.84576744,0.2880578,-0.44911033,0
-1.1957281,-0.95027828,-0.38427162,-0.9780131,0.20091027,-0.055905521,0
-0.96043438,0.10847074,0.25651473,-0.96043438,0.10847074,0.25651473,0
0.028528869,2.7189484,-0.16238463,-0.42484152,0.32171053,-0.8461749,0
1.3294389,3.487411,1.7141166,0.17893291,0.94612432,0.26987335,0
0.46281379,-2.9153125,-0.69192302,0.97494972,-0.20734626,0.080499828,0
0.50347281,-2.3897777,-0.27413905,0.90516317,-0.26580223,0.33170569,0
0.26115906,-0.38745224,-1.0739588,0.370251,0.18938173,-0.90942216,0
-0.75893712,-3.5165968,-1.9900538,-0.17893291,-0.94612432,-0.26987335,0
1.3527716,3.8699083,0.31331584,0.63918257,0.096739918,-0.76294607,0
-0.99091923,-0.19238904,0.25565761,-0.93896836,0.082305729,0.33401179,0
-0.060089767,0.59256488,1.1836249,-0.21563923,-0.22991699,0.94901943,0
1.4390764,2.3063202,0.88671172,0.95973945,-0.22821817,0.16375762,0
-0.99825847,-3.7295465,-1.0848173,-0.17893291,-0.94612432,-0.26987335,0
-0.34625828,-3.8651874,-1.0415784,-0.17893291,-0.94612432,-0.26987335,0
-0.92855591,-0.11024868,-0.54839146,-0.85368055,0.28566125,-0.43546176,0
1.2247415,3.8338966,0.56882077,0.17893291,0.94612432,0.26987335,0
-0.97304654,-3.9116144,-0.46323672,-0.17893291,-0.94612432,-0.26987335,0
-0.14967501,2.8949785,1.5460368,-0.70963877,-0.065881997,0.70147836,0
-1.5772675,-3.5116901,-1.4646807,-0.17893291,-0.94612432,-0.26987335,0
-0.54608953,-3.7257762,-1.3978339,-0.17893291,-0.94612432,-0.26987335,0
-1.6745872,-3.5270085,-0.91204399,-0.97983295,0.14656921,0.13581061,0
0.16103476,3.2072487,1.8253684,-0.47523093,-0.15706459,0.86572868,0
0.93643165,3.9693322,0.28516716,0.17893291,0.94612432,0.26987335,0
-0.44498342,-3.8587303,-0.99875867,-0.17893291,-0.94612432,-0.26987335,0
-0.47209382,-1.878189,0.48983756,-0.16266876,-0.2420755,0.95652401,0
0.92624474,0.78666198,-0.40528655,0.78298396,0.029157203,-0.62135792,0
-0.0061464012,3.9802577,0.87181711,0.17893291,0.94612432,0.26987335,0
-0.8730756,-3.6598463,-1.4121722,-0.17893291,-0.94612432,-0.26987335,0
-0.8570016,-3.8852043,-0.63276678,-0.17893291,-0.94612432,-0.26987335,0
0.48689163,0.57901621,-0.77967954,0.41092968,0.17736031,-0.89424819,0
0.42942303,-3.0861852,-0.72850919,0.97332239,-0.21026751,0.0918203,0
-0.57025182,-4.0213819,-0.34547579,-0.17893291,-0.94612432,-0.26987335,0
0.37196681,-2.405257,-0.03751862,0.76906204,-0.30557942,0.56139529,0
-0.38321704,0.87250233,-0.65465695,-0.48704308,0.32351258,-0.81125128,0
-0.056081489,2.9229867,-0.030122876,-0.54767191,0.32365665,-0.77155805,0
0.32488117,-0.92681491,0.66614902,0.43921477,-0.32226565,0.83859122,0
0.057781041,1.8866988,-0.47010249,-0.24077263,0.3080689,-0.92039239,0
-1.1199239,-0.56532705,-0.31390077,-0.97320348,0.21047074,-0.092611551,0
0.1738975,-2.2866549,-1.454753,0.62569296,0.10225535,-0.77333814,0
-0.51092923,-3.95467,-0.61868823,-0.17893291,-0.94612432,-0.26987335,0
-1.0692338,-3.6890059,-1.1798874,-0.17893291,-0.94612432,-0.26987335,0
-0.27749228,-3.6791079,-1.739531,-0.17893291,-0.94612432,-0.26987335,0
-0.94845623,-0.070348501,-0.47855121,-0.88307112,0.27538109,-0.37993497,0
-0.36722004,-3.6060946,-1.9360111,-0.17893291,-0.94612432,-0.26987335,0
-1.4747846,-3.5261908,-0.41632152,-0.81050384,-0.013744872,0.58557165,0
-0.0039761066,0.8949306,-0.77713072,-0.11782712,0.29293305,-0.94884503,0
1.3242785,3.548017,1.5050654,0.17893291,0.94612432,0.26987335,0
0.21177793,-3.5538826,-1.4824669,0.87823153,-0.029948343,-0.47729677,0
-0.41755784,-2.9399135,0.19750702,0.083979785,-0.28798655,0.95394504,0
-0.67154205,-3.8345866,-0.93318802,-0.17893291,-0.94612432,-0.26987335,0
0.13622016,1.2827655,1.3932016,-0.15258086,-0.2442963,0.95762116,0
-0.70432639,-3.8338318,-0.91409671,-0.17893291,-0.94612432,-0.26987335,0
-0.55230671,0.32359606,-0.76827264,-0.55230671,0.32359606,-0.76827264,0
0.25768781,3.6389778,1.8933496,0.17893291,0.94612432,0.26987335,0
-0.64685082,1.3550647,-0.1392951,-0.84881693,0.28715062,-0.44390786,0
-0.81097895,0.84893543,0.50088876,-0.95292014,0.098408788,0.28680789,0
0.40170425,2.2131763,1.6688018,-0.066417098,-0.26205859,0.96276367,0
0.71379095,0.76589411,-0.6129986,0.59087849,0.1159825,-0.79838002,0
-1.2823066,-3.6429763,-1.1999847,-0.17893291,-0.94612432,-0.26987335,0
1.0174596,2.5526614,1.6396253,0.47356027,-0.32325724,0.8192957,0
-0.57389891,-3.622896,-1.740075,-0.17893291,-0.94612432,-0.26987335,0
-1.3493049,-3.7037482,-0.9425081,-0.17893291,-0.94612432,-0.26987335,0
-0.54550385,1.93613,0.04317522,-0.85789621,0.28432629,-0.42798668,0
0.44755116,-1.8243759,0.17236751,0.73375219,-0.31106174,0.60402668,0
-0.15864503,3.9782555,0.97994679,0.17893291,0.94612432,0.26987335,0
-0.36571664,-4.0310087,-0.44733655,-0.17893291,-0.94612432,-0.26987335,0
-1.1230577,-1.2017996,-0.88240778,-0.84103394,0.28942704,-0.45704895,0
-0.54267216,-3.6772156,-1.5703443,-0.17893291,-0.94612432,-0.26987335,0
1.6205503,3.5688334,1.2356526,0.17893291,0.94612432,0.26987335,0
-0.16453892,-0.24166049,0.95630908,-0.16453892,-0.24166049,0.95630908,0
-0.010259211,1.3869843,-0.61916637,-0.21483812,0.30525425,-0.92772001,0
-0.26198506,3.2188523,1.4104254,-0.86663401,0.021715216,0.49847111,0
-0.65103227,-0.5467397,-1.0598395,-0.48645025,0.32350296,-0.8116107,0
-0.82258409,-0.98574644,0.496333,-0.65333515,-0.090827174,0.75160062,0
-0.14094096,3.8361084,1.4665487,0.17893291,0.94612432,0.26987335,0
-0.025511563,-3.9430051,-0.98142767,-0.17893291,-0.94612432,-0.26987335,0
0.75248426,-0.58488274,0.42843038,0.80671984,-0.29810703,0.51023054,0
-1.0476243,-0.55830717,-0.6013326,-0.89052725,0.27235803,-0.36439294,0
0.040568888,1.6187574,1.4504558,-0.30481535,-0.20749383,0.92953408,0
1.3637445,3.8342729,0.47533959,0.17893291,0.94612432,0.26987335,0
-0.047132552,-3.774303,-1.5585291,-0.17893291,-0.94612432,-0.26987335,0
-1.4504066,-3.8131504,-0.49193186,-0.17893291,-0.94612432,-0.26987335,0
0.69577086,3.8986144,0.69265378,0.17893291,0.94612432,0.26987335,0
-0.9298234,-3.5320876,-1.8224461,-0.17893291,-0.94612432,-0.26987335,0
-1.3472512,-3.1980014,-1.6611981,-0.68249965,0.31693384,-0.65859485,0
1.2730925,3.8118315,0.61411995,0.17893291,0.94612432,0.26987335,0
-0.48618364,-0.89162397,-1.2575502,-0.25894582,0.30991685,-0.91482162,0
0.096575618,-1.60724,-1.3923109,0.43281144,0.1706375,-0.88518751,0
0.48037392,-2.7396927,-0.93032795,0.97372895,-0.13103274,-0.18623137,0
-1.0231748,-1.8638735,-1.3477151,-0.60979521,0.32190871,-0.72424066,0
-0.16503558,-3.8799641,-1.1099293,-0.17893291,-0.94612432,-0.26987335,0
-0.10376114,3.9011865,1.2137464,0.17893291,0.94612432,0.26987335,0
-0.10875219,-0.25359941,0.96117651,-0.10875219,-0.25359941,0.96117651,0
-0.94828069,-3.5172355,-1.8622751,-0.17893291,-0.94612432,-0.26987335,0
0.52830136,3.655839,0.0091891885,-0.10796428,0.29152575,-0.95045066,0
0.78544235,3.8402762,0.83772165,0.17893291,0.94612432,0.26987335,0
-0.2517159,-4.0233736,-0.54969233,-0.17893291,-0.94612432,-0.26987335,0
0.044617355,4.0381737,0.63511854,0.17893291,0.94612432,0.26987335,0
-1.1370602,-1.4201841,0.091108441,-0.86462748,0.020328678,0.50200164,0
1.5524802,3.3433492,0.55791223,0.90982831,-0.054732002,-0.41135943,0
0.20581868,3.9895651,0.69864917,0.17893291,0.94612432,0.26987335,0
-0.021027446,3.785929,1.5629635,0.17893291,0.94612432,0.26987335,0
-1.2662947,-3.4843249,-1.7668015,-0.17893291,-0.94612432,-0.26987335,0
0.59222233,3.5701189,1.9129524,0.17893291,0.94612432,0.26987335,0
0.41312361,3.6061232,1.9054763,0.17893291,0.94612432,0.26987335,0
0.062994897,3.8094461,1.4248086,0.17893291,0.94612432,0.26987335,0
0.76704216,-0.68213797,0.34451914,0.84132826,-0.2893433,0.45656019,0
-0.23281956,-0.46868032,-1.1692553,-0.08955878,0.28882453,-0.95318389,0
0.31869113,-3.669292,-0.89013916,0.97265649,-0.21138971,0.096196055,0
0.6519388,3.6807191,1.485616,0.17893291,0.94612432,0.26987335,0
-0.77200526,-3.5829866,-1.7486386,-0.17893291,-0.94612432,-0.26987335,0
1.4080555,2.4822214,0.35546136,0.92558676,-0.068877444,-0.3722164,0
-0.47668752,-3.9560668,-0.63649464,-0.17893291,-0.94612432,-0.26987335,0
-1.2607589,-3.5467415,-1.5516527,-0.17893291,-0.94612432,-0.26987335,0
0.1118716,-0.29208663,0.94982636,0.1118716,-0.29208663,0.94982636,0
-1.5056872,-3.7422638,-0.70379394,-0.17893291,-0.94612432,-0.26987335,0
-0.9746812,-0.22019863,0.30336475,-0.92084599,0.064459711,0.384561,0
-0.57814109,-4.0632219,-0.19356292,-0.17893291,-0.94612432,-0.26987335,0
0.75358891,-0.30912814,0.58012462,0.75378066,-0.3081142,0.58041382,0
-0.26061004,-3.7030847,-1.6666665,-0.17893291,-0.94612432,-0.26987335,0
-0.11954394,-3.6500113,-0.15155923,0.5095228,-0.32376248,0.79722291,0
0.92226118,3.7445102,1.0827446,0.17893291,0.94612432,0.26987335,0
0.23503739,2.3793299,-0.34761983,-0.15850496,0.29843837,-0.9411751,0
1.5777233,3.0609579,0.72592837,0.9739567,-0.13151394,-0.1846953,0
-1.0594074,-3.287792,-1.8982273,-0.37722486,0.31931111,-0.8693341,0
-0.110277,-2.1089478,0.40938264,0.23051468,-0.30698037,0.92337751,0
0.41616583,3.8747787,0.96160364,0.17893291,0.94612432,0.26987335,0
0.60069966,3.9172773,0.69026089,0.17893291,0.94612432,0.26987335,0
-0.7285291,-3.6867247,-1.4137796,-0.17893291,-0.94612432,-0.26987335,0
0.070927203,3.7407086,1.6605283,0.17893291,0.94612432,0.26987335,0
1.2517554,3.9112101,0.27986512,0.17893291,0.94612432,0.26987335,0
-1.2511499,-3.916678,-0.26109561,-0.17893291,-0.94612432,-0.26987335,0
-0.15026674,4.0186958,0.63445699,-0.85642946,0.28479555,-0.43060422,0
-1.542901,-3.6437106,-1.0246294,-0.17893291,-0.94612432,-0.26987335,0
1.0966506,2.1513326,1.413179,0.62909263,-0.32092312,0.70799065,0
-0.84631711,-3.5853608,-1.6910461,-0.17893291,-0.94612432,-0.26987335,0
-1.255233,-3.8560181,-0.47105053,-0.17893291,-0.94612432,-0.26987335,0
-0.91406202,-3.5922129,-0.026327461,-0.27538925,-0.21517217,0.9369427,0
-1.2755061,-1.4182476,-0.30861828,-0.97966635,0.14603338,0.13757861,0
0.44428292,3.9299357,0.74959028,0.17893291,0.94612432,0.26987335,0
-0.73212349,-4.0302396,-0.20709926,-0.17893291,-0.94612432,-0.26987335,0
-0.20354241,0.38245004,1.0943739,-0.31461811,-0.20487297,0.92684531,0
0.66565597,3.5581827,1.9061083,0.17893291,0.94612432,0.26987335,0
0.65002704,3.5342197,2.0004802,0.17893291,0.94612432,0.26987335,0
-0.72109187,1.5477178,0.29752767,-0.97438967,0.2083829,-0.084505439,0
-0.63772964,1.5952507,0.80557078,-0.92627639,0.069533467,0.37037385,0
-1.5186322,-2.6603875,-0.74300069,-0.98374683,0.16786869,0.063733637,0
-0.88875222,-3.8020849,-0.9031167,-0.17893291,-0.94612432,-0.26987335,0
0.67542726,3.2131059,1.9562678,0.015379667,-0.27695644,0.96075934,0
0.54091132,2.9865141,-0.18761635,0.027057469,0.26946428,-0.96263015,0
-0.10593516,3.8339462,1.4509192,0.17893291,0.94612432,0.26987335,0
0.12779552,2.6940875,-0.21413541,-0.3220453,0.31551245,-0.89260221,0
-1.0569072,-0.34084511,-0.37894958,-0.94706643,0.23994826,-0.2132836,0
-0.055658519,3.7965071,1.5488398,0.17893291,0.94612432,0.26987335,0
-0.25814074,-3.1147094,-1.853308,0.36691678,0.19034049,-0.91057259,0
-1.4306092,-3.5190811,-1.536009,-0.17893291,-0.94612432,-0.26987335,0
0.4313232,3.8164341,1.156098,0.17893291,0.94612432,0.26987335,0
-1.053197,-3.7538419,-0.9632175,-0.17893291,-0.94612432,-0.26987335,0
1.0646168,1.0672606,0.90020126,0.80638152,-0.29818293,0.51072091,0
0.28236556,-3.0537026,-1.3817749,0.8570199,-0.01516518,-0.51505983,0
1.1689279,0.97664881,0.59412211,0.93747306,-0.24719021,0.24503314,0
-0.91754103,-4.0138206,-0.14172533,-0.17893291,-0.94612432,-0.26987335,0
0.93329799,-0.25003049,0.2577588,0.93329799,-0.25003049,0.2577588,0
1.3644314,3.3270874,0.26919284,0.74449539,0.049118124,-0.66581815,0
-0.70298058,-0.95588255,-1.1912539,-0.46112448,0.32295391,-0.82647747,0
0.12197214,-3.9613457,-1.0149142,-0.17893291,-0.94612432,-0.26987335,0
-1.2670221,-3.721117,-0.93617141,-0.17893291,-0.94612432,-0.26987335,0
0.2976259,-3.6227949,-1.2520102,0.96186864,-0.11055051,-0.25017446,0
-0.99207848,-0.47035444,-0.65997797,-0.84881765,0.28715038,-0.44390661,0
-1.1170197,-3.4502258,-1.9323912,-0.40384385,0.32075664,-0.85675281,0
-0.22379169,-4.0496516,-0.47608095,-0.17893291,-0.94612432,-0.26987335,0
0.037312999,4.0097322,0.7396695,0.17893291,0.94612432,0.26987335,0
-0.15391266,2.9055958,1.5426961,-0.71537697,-0.063198343,0.69587457,0
0.52592325,4.0512004,0.27033103,0.17893291,0.94612432,0.26987335,0
0.13243699,3.8673291,1.1758393,0.17893291,0.94612432,0.26987335,0
-0.8036136,-0.65787971,0.5504005,-0.69308841,-0.073467627,0.71709877,0
-0.3438406,-3.8831961,-0.98004603,-0.17893291,-0.94612432,-0.26987335,0
-1.5586909,-3.5035357,-1.5055845,-0.17893291,-0.94612432,-0.26987335,0
-0.090026289,3.9733377,0.95169252,0.17893291,0.94612432,0.26987335,0
-0.4400301,1.9443766,-0.11922407,-0.74935341,0.30880105,-0.58575702,0
0.53410101,-2.5082147,-0.80274993,0.98038751,-0.14843312,-0.1296438,0
0.68929935,3.9995704,0.34301412,0.17893291,0.94612432,0.26987335,0
-0.16304255,-0.36092371,-1.141907,-0.041578829,0.28132695,-0.95871067,0
0.55925584,-2.121321,-0.21156222,0.91069067,-0.2630766,0.31848508,0
0.34317946,-2.1979094,0.10462135,0.69923002,-0.31525886,0.64163017,0
-0.37063301,-0.28743517,-1.0855737,-0.25768423,0.30979189,-0.91522008,0
0.32772523,-3.6453004,-0.95131779,0.98029405,-0.1947827,0.032911003,0
1.5589204,3.6548815,0.97484314,0.17893291,0.94612432,0.26987335,0
-0.095941678,3.5913353,0.3110553,-0.71587783,0.31336588,-0.62395573,0
1.6049852,3.6180592,1.0733943,0.17893291,0.94612432,0.26987335,0
-0.13805816,-3.8740628,-1.1485046,-0.17893291,-0.94612432,-0.26987335,0
1.5107316,2.750417,1.0744431,0.94485259,-0.24172013,0.22096324,0
-0.023503184,-3.7614293,-1.6193308,-0.17893291,-0.94612432,-0.26987335,0
0.36839515,3.9479129,0.73688036,0.17893291,0.94612432,0.26987335,0
-0.1383808,-2.7037346,0.21449637,0.31341463,-0.3148241,0.89591128,0
0.16629994,1.0633113,1.3394144,-0.083714724,-0.25866434,0.96233284,0
-1.4951985,-3.5831671,-0.44612569,-0.81917924,-0.0086528771,0.57347208,0
0.86090523,-0.74604154,0.021260858,0.95861441,-0.22939511,0.16862959,0
-1.3470303,-3.5688295,-1.4170144,-0.17893291,-0.94612432,-0.26987335,0
-0.28532681,-3.729583,-1.5573815,-0.17893291,-0.94612432,-0.26987335,0
-1.3658462,-3.3934398,-0.27585474,-0.73431027,-0.054134522,0.67665172,0
1.0221771,3.6491299,0.076470584,0.3679859,0.19003347,-0.91020513,0
1.3334805,3.6789346,1.0399904,0.17893291,0.94612432,0.26987335,0
1.1737576,3.8982887,0.3768793,0.17893291,0.94612432,0.26987335,0
-1.3082118,-3.0015891,-0.18236123,-0.74937344,-0.046678659,0.66050011,0
0.90355366,3.878366,0.62587517,0.17893291,0.94612432,0.26987335,0
0.74740785,3.5767303,1.7868829,0.17893291,0.94612432,0.26987335,0
1.4206959,3.6253872,1.1698923,0.17893291,0.94612432,0.26987335,0
0.88623041,-0.27412382,0.37343228,0.88623041,-0.27412382,0.37343228,0
1.2642475,1.4159365,0.6669634,0.95185518,-0.23586731,0.19580144,0
-0.31141251,-3.922092,-0.86518544,-0.17893291,-0.94612432,-0.26987335,0
-0.86394405,0.28233564,-0.41699791,-0.86394405,0.28233564,-0.41699791,0
0.77815992,3.6710122,1.4359579,0.17893291,0.94612432,0.26987335,0
-0.099759638,-1.501588,0.60265827,0.12854052,-0.29442984,0.94698912,0
0.74286735,-1.2029314,-0.60570222,0.95197946,-0.097231567,-0.2903114,0
0.14584374,-1.6025839,-1.3657775,0.47843254,0.15601008,-0.86415446,0
1.0733967,3.4955304,1.8554142,0.17893291,0.94612432,0.26987335,0
0.51849854,-0.64796287,0.65518552,0.57995486,-0.32300705,0.74787629,0
-0.38115853,3.3135905,0.74821323,-0.96605265,0.22090869,-0.13394606,0
0.10880554,-0.79351622,0.79151368,0.20143691,-0.30371922,0.93122381,0
-0.15914792,-2.3501954,-1.6523961,0.3236115,0.20244035,-0.92427993,0
0.14324073,4.0506716,0.52591187,0.17893291,0.94612432,0.26987335,0
-0.96823519,0.12064396,0.21900994,-0.96823525,0.12064397,0.21900994,0
0.27116871,-2.7079661,-1.3946807,0.78827381,0.026275665,-0.61476314,0
-0.038660429,3.4378462,0.18023717,-0.62812877,0.32097772,-0.70882124,0
0.095870912,-3.8867745,-1.259042,-0.17893291,-0.94612432,-0.26987335,0
-0.73911649,-3.5389647,-1.9247782,-0.17893291,-0.94612432,-0.26987335,0
-0.78935653,-3.8571796,-0.77586657,-0.17893291,-0.94612432,-0.26987335,0
0.83915079,3.8668838,0.70883101,0.17893291,0.94612432,0.26987335,0
-0.85966289,0.60629034,-0.17785239,-0.92619133,0.25451517,-0.27819312,0
-0.37527952,-3.9678543,-0.66240734,-0.17893291,-0.94612432,-0.26987335,0
0.69142395,3.8340564,0.92186391,0.17893291,0.94612432,0.26987335,0
0.64041793,3.9807563,0.44138026,0.17893291,0.94612432,0.26987335,0
0.54779077,3.814332,1.0862473,0.17893291,0.94612432,0.26987335,0
-0.58003205,-3.6913395,-1.4960581,-0.17893291,-0.94612432,-0.26987335,0
-0.71660382,-3.5824888,-1.7871164,-0.17893291,-0.94612432,-0.26987335,0
1.1666178,1.897809,1.2152417,0.74929768,-0.30880955,0.58582389,0
0.2884706,3.8655584,1.0785927,0.17893291,0.94612432,0.26987335,0
1.1429472,0.93726075,-0.010188401,0.948174,-0.092620783,-0.30395281,0
-0.79740649,-2.2010934,0.31526732,-0.41447067,-0.17628482,0.8928256,0
0.46526977,3.7266386,1.4483961,0.17893291,0.94612432,0.26987335,0
-1.4409834,-3.6011696,-1.2413434,-0.17893291,-0.94612432,-0.26987335,0
-0.33788642,-3.8251321,-1.187556,-0.17893291,-0.94612432,-0.26987335,0
1.4990337,3.5815711,1.2715633,0.17893291,0.94612432,0.26987335,0
-0.79109561,-0.68370861,0.55949289,-0.67703766,-0.080616519,0.73151946,0
-1.1215401,-0.6347034,-0.41789454,-0.95800114,0.23002346,-0.17123914,0
-0.84805483,-1.1907531,0.44923404,-0.64100999,-0.095983863,0.76150697,0
0.64716893,-0.61685896,0.55013406,0.7043128,-0.31470564,0.63632059,0
-1.3122489,-1.6662636,-0.31930131,-0.97272933,0.12897724,0.19277483,0
0.60738909,4.0552583,0.20209163,0.17893291,0.94612432,0.26987335,0
-0.50699079,-3.7046604,-1.4977851,-0.17893291,-0.94612432,-0.26987335,0
-0.18753463,3.0391695,0.13912737,-0.70275831,0.31487709,-0.63795233,0
0.43042392,3.8541124,1.0246011,0.17893291,0.94612432,0.26987335,0
0.22927892,-1.5708139,-1.3094993,0.55110037,0.13084643,-0.82411617,0
-0.12461397,4.0736141,0.62307394,0.17893291,0.94612432,0.26987335,0
-0.67130649,-3.9560251,-0.50760412,-0.17893291,-0.94612432,-0.26987335,0
-0.045228451,-3.2546749,-0.038504839,0.50907195,-0.3237597,0.79751199,0
-0.7813257,1.2138922,0.17351276,-0.97019207,0.21524407,-0.11134261,0
0.51536,1.1914514,1.3504262,0.2319445,-0.30713406,0.92296827,0
-0.11685884,3.8441169,1.4225059,0.17893291,0.94612432,0.26987335,0
0.32242951,3.9675965,0.69835019,0.17893291,0.94612432,0.26987335,0
0.74900013,3.6156394,1.6494172,0.17893291,0.94612432,0.26987335,0
1.2182515,3.730937,0.9340812,0.17893291,0.94612432,0.26987335,0
-0.20662034,0.85988963,1.1938146,-0.40322661,-0.17968357,0.89728582,0
1.2369127,3.4520755,0.1645931,0.60495073,0.11051882,-0.78855562,0
1.1992537,3.0408981,1.720197,0.56298804,-0.32341537,0.76055706,0
-0.37226927,2.3869567,1.2479184,-0.82470584,-0.0053440705,0.56553626,0
-1.5872989,-3.0209851,-0.85353172,-0.98383081,0.16990754,0.0566414,0
-0.43550485,3.0140119,0.64699048,-0.96305454,0.2245443,-0.14867973,0
-0.51699299,1.2213962,-0.39480799,-0.68814909,0.31639272,-0.65295208,0
1.424566,3.7827711,0.61556721,0.17893291,0.94612432,0.26987335,0
1.5788352,3.6735444,0.89621252,0.17893291,0.94612432,0.26987335,0
-0.48500758,-1.0860132,-1.3229058,-0.22174281,0.30602381,-0.9258399,0
0.12608397,-1.6120034,-1.3781958,0.46149975,0.16153845,-0.87230909,0
1.0496662,0.47452188,0.5303638,0.910115,-0.26336771,0.31988758,0
0.19010162,3.7082059,1.695461,0.17893291,0.94612432,0.26987335,0
0.33205867,-2.7891254,-1.3068794,0.85671419,-0.014960665,-0.5155741,0
1.1799495,1.1802348,0.74058181,0.90660363,-0.26510647,0.32831132,0
0.7088123,1.7669891,-0.44208065,0.4083274,0.17814769,-0.89528328,0
0.86765552,-0.79326755,-0.16334069,0.98205787,-0.18835442,0.0092052817,0
-0.21538854,1.9611678,1.3777628,-0.60703504,-0.1096999,0.7870667,0
-0.7899313,-3.7504683,-1.1495938,-0.17893291,-0.94612432,-0.26987335,0
-0.41198307,-3.7284389,-1.4774158,-0.17893291,-0.94612432,-0.26987335,0
-1.1503489,-2.2990832,-1.4315741,-0.6551702,0.3192192,-0.68472707,0
1.3374143,3.8231416,0.53182244,0.17893291,0.94612432,0.26987335,0
-1.6013947,-3.1422486,-1.0982516,-0.9651289,0.22206482,-0.13861173,0
-0.26212072,-3.902123,-0.96787608,-0.17893291,-0.94612432,-0.26987335,0
-1.0028228,-3.8787947,-0.11888653,-0.30832237,-0.20655985,0.92858505,0
-0.13589694,3.6048779,0.36731255,-0.75956309,0.30718559,-0.57332438,0
-0.52063078,2.3669324,0.30490679,-0.91939008,0.2584556,-0.29651695,0
-1.2268727,-1.7432384,-1.0342315,-0.8425318,0.28899878,-0.45455438,0
-0.48172393,-3.8037887,-1.1670136,-0.17893291,-0.94612432,-0.26987335,0
0.37989771,-1.0955641,-1.1302364,0.60778391,0.10940517,-0.78652984,0
1.4076315,3.5480518,1.4496768,0.17893291,0.94612432,0.26987335,0
-0.59547162,2.1796701,0.42379475,-0.9658736,0.22113535,-0.13485944,0
0.35285056,-2.369072,-1.2748435,0.8041814,0.01738162,-0.59412944,0
-1.3212284,-1.605414,-0.52667487,-0.98170882,0.18982691,-0.014598787,0
-0.1235361,-3.9879956,-0.75870776,-0.17893291,-0.94612432,-0.26987335,0
-0.93490142,-1.2393299,-1.1433567,-0.63994724,0.32026759,-0.69849575,0
0.26755133,3.8785257,1.0470004,0.17893291,0.94612432,0.26987335,0
-0.20242941,-4.1038599,-0.28290683,0.51246703,-0.32377854,0.79532695,0
-0.3289566,0.11789542,0.99005342,-0.3861922,-0.18474291,0.9037286,0
-0.69153154,-3.6676602,-1.5051467,-0.17893291,-0.94612432,-0.26987335,0
-1.0171024,-2.4726839,-1.6080971,-0.48827648,0.32353202,-0.81050175,0
1.6673605,3.4674647,1.1556515,0.97115433,-0.21379007,0.10560703,0
-1.1078334,-0.51403075,-0.32178342,-0.96980333,0.21581495,-0.11360157,0
-0.36453962,2.5464251,0.10516965,-0.78903818,0.30184975,-0.53507507,0
0.9147321,3.9941573,0.21252444,0.17893291,0.94612432,0.26987335,0
-1.3995565,-2.6669202,-1.3014003,-0.84041286,0.28960329,-0.4580788,0
-0.65707684,-1.9065696,0.4342081,-0.33423817,-0.19953081,0.92112541,0
-0.043679059,-3.8006516,-1.4684465,-0.17893291,-0.94612432,-0.26987335,0
-0.12917548,-3.776721,-1.4956564,-0.17893291,-0.94612432,-0.26987335,0
-1.0604125,-1.7880424,0.18403845,-0.73264557,-0.054944817,0.67838877,0
0.1922074,3.7919848,1.4003522,0.17893291,0.94612432,0.26987335,0
-0.46803814,-1.9877528,0.46248588,-0.13887382,-0.24726591,0.95894396,0
-0.40240818,-1.9092102,0.49093944,-0.090015769,-0.25740665,0.96210134,0
-0.10807556,-3.8136632,-0.22699738,0.55197203,-0.3236008,0.76851118,0
-0.98069918,-2.0592182,-1.4634652,-0.5300197,0.32379121,-0.78373361,0
1.0743556,3.5480595,1.6706228,0.17893291,0.94612432,0.26987335,0
-0.48919812,-3.880156,-0.89432746,-0.17893291,-0.94612432,-0.26987335,0
-1.3949958,-2.1408689,-0.90251964,-0.94431663,0.24213932,-0.22278827,0
-0.35526475,-3.7559276,-1.4186504,-0.17893291,-0.94612432,-0.26987335,0
-0.36582899,-3.7704585,-1.360703,-0.17893291,-0.94612432,-0.26987335,0
-0.16960454,-3.6223507,-1.9018714,0.54090351,0.13452633,-0.83025646,0
-0.04741776,3.5118899,1.7071488,-0.72287428,-0.059648391,0.68839997,0
-0.41287559,-3.834645,-1.1044853,-0.17893291,-0.94612432,-0.26987335,0
-0.17429784,-3.8079565,-1.3562336,-0.17893291,-0.94612432,-0.26987335,0
1.0187114,3.6128678,1.4803081,0.17893291,0.94612432,0.26987335,0
-1.227602,-3.7371063,-0.90625203,-0.17893291,-0.94612432,-0.26987335,0
0.86535156,3.5326014,1.8633889,0.17893291,0.94612432,0.26987335,0
-0.3763116,2.8669209,0.32266295,-0.86519349,0.2819128,-0.41468716,0
-0.071213365,3.8200257,1.4767003,0.17893291,0.94612432,0.26987335,0
-1.3007854,-3.4888411,-1.7281011,-0.17893291,-0.94612432,-0.26987335,0
-0.69922942,-3.6278212,-1.6397103,-0.17893291,-0.94612432,-0.26987335,0
-0.029759109,3.8459268,1.3584101,0.17893291,0.94612432,0.26987335,0
-0.19194609,-1.0229542,0.74682337,-0.048685253,-0.26544946,0.96289468,0
-0.0093955994,3.5451362,1.7486297,-0.69370079,-0.07319089,0.71653473,0
1.5136001,2.7876189,1.1022031,0.93999082,-0.24539323,0.23706394,0
-0.042068481,-4.0539055,-0.58165586,-0.17893291,-0.94612432,-0.26987335,0
-0.57000959,-1.6453056,0.52159238,-0.29840851,-0.20918964,0.93123138,0
-1.1541357,-0.72187668,-0.24340647,-0.98322135,0.18184897,0.014373064,0
-0.83915669,-3.7556324,-1.0988537,-0.17893291,-0.94612432,-0.26987335,0
0.70953143,3.9956656,0.34328723,0.17893291,0.94612432,0.26987335,0
0.11920303,3.6862056,1.8195993,0.17893291,0.94612432,0.26987335,0
0.16780269,3.9957347,0.70222455,0.17893291,0.94612432,0.26987335,0
-0.340159,-3.9086258,-0.89333636,-0.17893291,-0.94612432,-0.26987335,0
-0.58046943,1.2006164,-0.33165884,-0.74912477,0.30883595,-0.58603108,0
-1.1061784,-3.51928,-1.7504188,-0.17893291,-0.94612432,-0.26987335,0
-0.33716959,3.2301264,1.249626,-0.93355495,0.07668294,0.35013503,0
1.308275,1.6365218,0.3193256,0.97391665,-0.13142908,-0.18496633,0
0.053343534,-1.9000882,0.42882815,0.35259914,-0.31774658,0.88017666,0
-0.97145295,-3.5587444,-1.7013884,-0.17893291,-0.94612432,-0.26987335,0
0.61853713,2.5844834,-0.28610033,0.1750145,0.23931673,-0.95503783,0
-1.5139832,-3.7233543,-0.76458734,-0.17893291,-0.94612432,-0.26987335,0
-0.042702079,2.4891465,1.57994,-0.53902364,-0.13519923,0.83136904,0
-0.48273921,-3.6286254,-1.7804296,-0.17893291,-0.94612432,-0.26987335,0
-1.5992184,-3.5962715,-1.1536022,-0.17893291,-0.94612432,-0.26987335,0
-0.027752817,1.321297,1.3615699,-0.31629944,-0.20442025,0.926373,0
1.1809121,3.6415,1.2723875,0.17893291,0.94612432,0.26987335,0
0.19630486,3.6594226,1.8623725,0.17893291,0.94612432,0.26987335,0
-0.6629526,-4.0524359,-0.17514509,-0.17893291,-0.94612432,-0.26987335,0
0.5543648,3.7402899,1.3414656,0.17893291,0.94612432,0.26987335,0
1.1277949,3.5880666,1.4949337,0.17893291,0.94612432,0.26987335,0
-0.93632114,-3.7975578,-0.88744897,-0.17893291,-0.94612432,-0.26987335,0
0.51535499,3.365952,1.9849344,-0.16682756,-0.24115121,0.9560411,0
0.49918818,3.9425938,0.66880971,0.17893291,0.94612432,0.26987335,0
-1.2185816,-3.6216249,-1.3170893,-0.17893291,-0.94612432,-0.26987335,0
0.78398412,3.6775088,1.4093211,0.17893291,0.94612432,0.26987335,0
-0.6280387,-3.8778353,-0.81040955,-0.17893291,-0.94612432,-0.26987335,0
1.2142334,2.2497592,0.026511133,0.79320896,0.023554027,-0.60849363,0
1.5212708,3.6441293,1.0375036,0.17893291,0.94612432,0.26987335,0
-0.30369598,3.2979851,0.46472633,-0.87473899,0.27854237,-0.39654225,0
1.546299,3.6107316,1.1379948,0.17893291,0.94612432,0.26987335,0
-1.4515511,-3.5606918,-1.3762455,-0.17893291,-0.94612432,-0.26987335,0
-0.58115602,1.6096563,0.92478716,-0.8797096,0.031026384,0.47449744,0
0.46360874,-2.2628167,-1.0998561,0.88495523,-0.034908444,-0.46436554,0
-0.63732547,0.15763552,0.79449749,-0.6819725,-0.078439549,0.7271592,0
-0.4799515,-3.6234593,-0.0056859255,0.14911532,-0.29721057,0.94309628,0
0.54365182,3.9628553,0.56829697,0.17893291,0.94612432,0.26987335,0
-0.28392768,-3.9946518,-0.62902755,-0.17893291,-0.94612432,-0.26987335,0
1.1617519,3.9244094,0.29326433,0.17893291,0.94612432,0.26987335,0
-0.83180845,-3.7542386,-1.1086127,-0.17893291,-0.94612432,-0.26987335,0
-0.68571734,-3.9865913,-0.39088959,-0.17893291,-0.94612432,-0.26987335,0
1.5295658,2.7709694,0.68236464,0.97853762,-0.14264287,-0.14871675,0
-0.86439317,-3.8277421,-0.82931727,-0.17893291,-0.94612432,-0.26987335,0
0.902345,0.59519076,0.86591196,0.73087889,-0.31145209,0.60730028,0
-0.1903443,3.3448162,0.30017281,-0.76499856,0.30627906,-0.56654239,0
1.3225727,3.0062253,0.19927041,0.76167285,0.04041611,-0.64669979,0
0.88860428,3.6194468,1.543509,0.17893291,0.94612432,0.26987335,0
0.10871392,3.7424343,1.6294243,0.17893291,0.94612432,0.26987335,0
-1.4310446,-2.2026515,-0.59817302,-0.98344857,0.1640543,0.07690835,0
-0.59039104,-0.76749796,0.69176507,-0.47496146,-0.15715311,0.8658604,0
0.77740091,3.1414227,-0.11594433,0.22628927,0.22736999,-0.94715148,0
0.52246237,-1.7040544,0.13715029,0.78759599,-0.30213597,0.53703475,0
-1.4912839,-2.5147922,-0.83602494,-0.97743022,0.20225647,-0.061011493,0
1.388496,3.594873,1.2982199,0.17893291,0.94612432,0.26987335,0
1.1220996,3.8944421,0.42461485,0.17893291,0.94612432,0.26987335,0
0.42946434,-2.9370041,-1.0480304,0.9635365,-0.11304852,-0.24252272,0
1.4934688,2.5160627,0.78526747,0.98178113,-0.18953308,0.013520896,0
-1.2364221,-2.596833,-0.07234247,-0.75371706,-0.044485524,0.65569139,0
-1.3842666,-3.4793959,-1.7058623,-0.17893291,-0.94612432,-0.26987335,0
0.017853737,-3.9168825,-1.1017609,-0.17893291,-0.94612432,-0.26987335,0
-0.9926312,-0.25386012,0.26489347,-0.93066502,0.073792212,0.35835326,0
1.3349482,3.5837188,1.3728261,0.17893291,0.94612432,0.26987335,0
0.76492971,3.806706,0.96901369,0.17893291,0.94612432,0.26987335,0
-0.39284348,-3.4184284,-1.9676244,0.2934646,0.21048903,-0.93250889,0
0.40193248,1.7893091,-0.52281499,0.11139297,0.25305462,-0.96101767,0
-0.14323801,-0.8190378,0.80544996,-0.038889289,-0.26728436,0.96283257,0
0.45077133,4.0853724,0.20035744,0.17893291,0.94612432,0.26987335,0
-0.4976204,-0.60842872,0.76889908,-0.415815,-0.17587525,0.89228106,0
-0.10055371,-3.997236,-0.74154907,-0.17893291,-0.94612432,-0.26987335,0
-1.4416287,-3.4845123,-0.37080431,-0.78766328,-0.026610084,0.61553073,0
0.97589171,1.1853205,1.0773426,0.69195628,-0.31601411,0.64910054,0
0.90948081,0.59599775,0.85763901,0.73804915,-0.31046319,0.59907925,0
0.6982165,-1.680917,-0.36812431,0.97820532,-0.20045027,0.054165363,0
0.94561493,3.6014409,1.5688354,0.17893291,0.94612432,0.26987335,0
-0.60063422,-1.516946,0.53891653,-0.35061955,-0.19497022,0.9159981,0
0.55683255,3.6054044,1.8127117,0.17893291,0.94612432,0.26987335,0
0.35089779,1.1449616,-0.69585598,0.17943168,0.23831867,-0.95446765,0
0.71973729,3.7281244,1.2744682,0.17893291,0.94612432,0.26987335,0
-0.34707826,-3.7881465,-0.093567252,0.30985844,-0.31453323,0.89724946,0
1.323015,1.6145393,0.50260901,0.98305541,-0.18302771,-0.010130644,0
-0.68293881,1.5973042,0.66546482,-0.96362007,0.11317611,0.24213088,0
-0.79344541,0.65754628,0.58852893,-0.90777916,0.052996106,0.41608655,0
0.71873385,-0.89652455,0.29739726,0.83313626,-0.29161137,0.46994328,0
-1.3416981,-3.4695935,-1.7684535,-0.17893291,-0.94612432,-0.26987335,0
1.3073988,1.8443723,0.92487824,0.90863919,-0.26410598,0.32345408,0
0.050645471,2.4175539,1.6204751,-0.43850201,-0.16885869,0.8827244,0
1.6060452,3.6102815,1.0999594,0.17893291,0.94612432,0.26987335,0
-1.2479315,-3.8682904,-0.43286648,-0.17893291,-0.94612432,-0.26987335,0
0.71626878,2.5594881,1.753304,0.17536741,-0.30057806,0.93749619,0
0.67659825,0.84460592,-0.62679714,0.54221737,0.13405503,-0.82947534,0
1.6344495,3.7080221,0.73846507,0.17893291,0.94612432,0.26987335,0
0.28368169,4.0448947,0.45304924,0.17893291,0.94612432,0.26987335,0
0.75005478,-1.1358678,0.05658561,0.91560209,-0.26052126,0.3062703,0
0.20834672,-3.7926824,-1.465332,0.91450971,-0.058780402,-0.4002704,0
-0.35786092,-3.6623137,-1.745123,-0.17893291,-0.94612432,-0.26987335,0
-0.5005368,-3.7223923,-1.4399011,-0.17893291,-0.94612432,-0.26987335,0
1.5885072,3.0243998,0.865215,0.98385823,-0.17273724,-0.04673934,0
0.02952826,-2.1462801,-1.5282054,0.46572852,0.16016901,-0.87031186,0
0.0011426806,-1.1916602,0.68437201,0.16979778,-0.29988062,0.93874395,0
-0.76665103,-3.9638643,-0.41690621,-0.17893291,-0.94612432,-0.26987335,0
0.26357022,4.0281339,0.52514136,0.17893291,0.94612432,0.26987335,0
-0.45980388,-3.6053383,-1.8772773,-0.17893291,-0.94612432,-0.26987335,0
-0.44347575,-3.6318765,-1.7950642,-0.17893291,-0.94612432,-0.26987335,0
-0.41494843,-3.9169867,-0.81443727,-0.17893291,-0.94612432,-0.26987335,0
-0.3459042,1.6673709,-0.34829974,-0.60028416,0.32231331,-0.73196518,0
0.3721773,2.4788702,1.7358843,-0.1432181,-0.24633069,0.95854557,0
0.8970741,0.59922385,-0.45076621,0.78867537,0.02605544,-0.61425728,0
-0.51883757,-4.0168324,-0.39551526,-0.17893291,-0.94612432,-0.26987335,0
-1.4170935,-3.7314534,-0.80043381,-0.17893291,-0.94612432,-0.26987335,0
0.40556753,2.039371,-0.45558852,0.069331646,0.2614927,-0.96271217,0
0.89257532,-0.34872377,-0.39858419,0.94228142,-0.085897744,-0.32361549,0
0.61052436,1.4974133,1.4275239,0.26854181,-0.31085068,0.91173303,0
1.0054392,3.7556973,0.98837578,0.17893291,0.94612432,0.26987335,0
-0.93663412,0.33762744,0.23453933,-0.97512949,0.13407937,0.1764791,0
-0.45911965,-3.8535433,-1.007571,-0.17893291,-0.94612432,-0.26987335,0
1.3078771,3.6925192,1.0093416,0.17893291,0.94612432,0.26987335,0
-1.3396721,-3.1412721,-1.6417372,-0.68570679,0.31662968,-0.65540206,0
-0.51216114,2.6678796,0.75430304,-0.98384088,0.17382967,0.04289794,0
-0.92463833,-3.7932925,-0.91014647,-0.17893291,-0.94612432,-0.26987335,0
0.50457346,-1.1145912,-1.0193589,0.72633481,0.057992782,-0.68489009,0
-0.26999807,3.2419217,0.36255395,-0.82769495,0.29304746,-0.4785856,0
1.3633784,3.514051,1.5982182,0.17893291,0.94612432,0.26987335,0
1.1824,3.8398485,0.57602817,0.17893291,0.94612432,0.26987335,0
-1.5008097,-2.6526439,-0.61108923,-0.97417569,0.13198191,0.18319994,0
-0.80213839,-3.7999868,-0.96789944,-0.17893291,-0.94612432,-0.26987335,0
0.090930283,3.7461243,1.6282809,0.17893291,0.94612432,0.26987335,0
1.0164137,0.073099256,0.25152177,0.95935017,-0.22862911,0.16545647,0
-1.0839102,-0.36942679,-0.24645871,-0.97476411,0.20769355,-0.081840396,0
-0.11308229,-1.1315562,-1.3509252,0.14733768,0.24543872,-0.95814991,0
-1.412291,-2.2184191,-0.45577234,-0.96950239,0.12286656,0.21205813,0
-0.4797253,2.8446672,0.76341802,-0.98281264,0.1845471,0.0046429634,0
1.3715336,2.0307255,0.88198888,0.94124341,-0.24447353,0.23300904,0
-1.2810808,-3.6764283,-1.0835199,-0.17893291,-0.94612432,-0.26987335,0
-1.2269835,-3.6053772,-1.36848,-0.17893291,-0.94612432,-0.26987335,0
-0.73390013,-3.6181743,-1.6505425,-0.17893291,-0.94612432,-0.26987335,0
0.36278403,3.714309,1.5595732,0.17893291,0.94612432,0.26987335,0
-0.96613014,-3.9686899,-0.26772857,-0.17893291,-0.94612432,-0.26987335,0
-1.4955785,-3.667799,-0.97155583,-0.17893291,-0.94612432,-0.26987335,0
1.5539017,3.5879588,1.2127903,0.17893291,0.94612432,0.26987335,0
-0.13981295,-3.7943709,-1.4267261,-0.17893291,-0.94612432,-0.26987335,0
-0.59549397,1.1877494,-0.3188715,-0.76210743,0.30676538,-0.5701642,0
0.47704285,-2.4357121,-1.0496227,0.92480344,-0.068136871,-0.37429339,0
-1.334939,-3.5088487,-1.6353135,-0.17893291,-0.94612432,-0.26987335,0
0.23910171,3.8142908,1.2910597,0.17893291,0.94612432,0.26987335,0
-0.13894832,-3.8896015,-1.0934389,-0.17893291,-0.94612432,-0.26987335,0
-1.3740196,-1.9150558,-0.71048325,-0.97151375,0.213231,-0.10340875,0
-0.75832945,-3.8315158,-0.88641131,-0.17893291,-0.94612432,-0.26987335,0
0.17772418,-3.4488628,-0.33950484,0.77229601,-0.30500883,0.55725086,0
-0.26078844,-2.4186835,0.33929875,0.1406424,-0.29608041,0.94475186,0
1.3729018,3.6957326,0.95496297,0.17893291,0.94612432,0.26987335,0
-0.97900301,-3.8007727,-0.84787941,-0.17893291,-0.94612432,-0.26987335,0
1.0950493,3.9679065,0.18499702,0.17893291,0.94612432,0.26987335,0
1.3963999,3.72328,0.84280765,0.17893291,0.94612432,0.26987335,0
-0.98815662,-3.5236204,-1.8134515,-0.17893291,-0.94612432,-0.26987335,0
-0.48017597,-3.8979528,-0.83791864,-0.17893291,-0.94612432,-0.26987335,0
-0.14345801,3.9407704,1.1012943,0.17893291,0.94612432,0.26987335,0
-0.72060096,-3.7320907,-1.2599908,-0.17893291,-0.94612432,-0.26987335,0
-0.072499603,1.6669054,-0.50493026,-0.3279908,0.31597212,-0.89027166,0
-0.087187052,3.7707491,1.6600455,0.17893291,0.94612432,0.26987335,0
-0.28344291,-3.9938455,-0.63217705,-0.17893291,-0.94612432,-0.26987335,0
0.78949898,3.9640536,0.40109208,0.17893291,0.94612432,0.26987335,0
0.73107857,3.967694,0.0923962,0.03150785,0.26864901,-0.96272266,0
1.0401819,3.7886915,0.8496688,0.17893291,0.94612432,0.26987335,0
-0.55682349,2.0491643,0.14816844,-0.89305943,0.2712858,-0.3589552,0
0.14288193,2.7726941,1.7338259,-0.41481501,-0.17618002,0.89268637,0
-0.051099122,-1.4582092,0.60867083,0.16800898,-0.29965469,0.93913794,0
0.16835809,1.9180489,1.556396,-0.2369011,-0.22479749,0.94516861,0
-1.4299977,-3.7789516,-0.62535715,-0.17893291,-0.94612432,-0.26987335,0
0.061133802,-3.915844,-1.1340982,-0.17893291,-0.94612432,-0.26987335,0
-0.20900744,-3.7599428,-1.5015464,-0.17893291,-0.94612432,-0.26987335,0
1.3975701,2.6001217,0.31541508,0.89741105,-0.044515491,-0.43894356,0
-0.23481435,-1.8522155,-1.5541396,0.1613186,0.24237442,-0.9566769,0
0.85798901,3.7932611,0.9544459,0.17893291,0.94612432,0.26987335,0
-0.73962653,1.1041675,-0.11105841,-0.89751047,0.26934081,-0.34918511,0
1.5230708,3.7494583,0.66704488,0.17893291,0.94612432,0.26987335,0
-1.0688627,-3.5901256,-1.5267882,-0.17893291,-0.94612432,-0.26987335,0
-0.28719187,-3.6879876,-1.7019701,-0.17893291,-0.94612432,-0.26987335,0
0.24705644,4.0848269,0.33733839,0.17893291,0.94612432,0.26987335,0
-0.84771264,-3.8012991,-0.93308228,-0.17893291,-0.94612432,-0.26987335,0
-1.1596714,-3.6157637,-1.376696,-0.17893291,-0.94612432,-0.26987335,0
-0.8710323,-1.3204155,0.41354692,-0.63957745,-0.096576765,0.76263583,0
0.37008309,-0.038776919,-0.95588577,0.41095787,0.17735177,-0.89423704,0
1.1164528,1.0920731,0.8240844,0.85603273,-0.28492159,0.43130916,0
-0.38303947,1.4045023,-0.43341845,-0.58761835,0.32277229,-0.74197215,0
-0.061520457,-2.0511444,-1.5517461,0.36262584,0.19156851,-0.91203278,0
-0.30175191,3.6847508,0.79873711,-0.95446301,0.23348093,-0.1857062,0
-1.3309408,-3.1223657,-1.6416962,-0.68045789,0.31712341,-0.66061318,0
0.48849618,-1.4665349,-1.0623856,0.77243155,0.034799874,-0.63414365,0
-0.39715815,-0.79288685,0.76839221,-0.2873174,-0.21209353,0.93405819,0
0.17837656,-4.027832,-0.81922579,-0.17893291,-0.94612432,-0.26987335,0
0.76758528,3.8969474,0.65088254,0.17893291,0.94612432,0.26987335,0
0.93789339,-0.081166044,-0.3372947,0.93789339,-0.081166044,-0.3372947,0
0.60527104,-1.7558053,-0.047450423,0.88542861,-0.2744461,0.37509388,0
1.1434216,3.469141,1.9015005,0.17893291,0.94612432,0.26987335,0
-0.33520901,-1.817275,-1.5564177,0.058333158,0.26361564,-0.96286243,0
1.1465032,2.359128,1.4629307,0.63976836,-0.32027897,0.69865423,0
-0.9980467,-3.6352382,-1.4155852,-0.17893291,-0.94612432,-0.26987335,0
0.71547353,3.7369223,1.2464538,0.17893291,0.94612432,0.26987335,0
-0.75005424,0.68670142,-0.37177879,-0.82434046,0.29390615,-0.48382008,0
-0.60221398,-3.718684,-1.3854872,-0.17893291,-0.94612432,-0.26987335,0
-0.40441304,-3.3549869,-1.9566405,0.2709949,0.21629484,-0.93796492,0
0.929775,3.0711682,1.8697774,0.28978965,-0.3128137,0.90452725,0
-1.2917275,-2.4460428,-0.13864592,-0.82957786,-0.0023830235,0.55838573,0
0.54381794,3.4255052,-0.061418533,-0.050541043,0.28277728,-0.95785308,0
-0.44625008,-3.7311697,-1.4451213,-0.17893291,-0.94612432,-0.26987335,0
-1.0098925,-3.7367601,-1.051813,-0.17893291,-0.94612432,-0.26987335,0
-0.7110762,-3.7741218,-1.1189535,-0.17893291,-0.94612432,-0.26987335,0
0.72570872,-1.231225,-0.65021133,0.94230944,-0.085928604,-0.32352591,0
1.4223503,3.5583963,1.4036536,0.17893291,0.94612432,0.26987335,0
0.053786874,-3.9055109,-1.1654522,-0.17893291,-0.94612432,-0.26987335,0
0.69891649,3.8924623,0.71213567,0.17893291,0.94612432,0.26987335,0
0.93865383,3.0733888,-0.077115238,0.39202201,0.18302342,-0.90156579,0
-0.44292319,-0.94951671,0.71860576,-0.3026967,-0.20805611,0.93010062,0
-0.78097606,-3.7648511,-1.1051096,-0.17893291,-0.94612432,-0.26987335,0
-0.056976557,-2.9742122,-1.7234007,0.53158212,0.13784602,-0.8357144,0
-0.6627636,-3.8836999,-0.7668274,-0.17893291,-0.94612432,-0.26987335,0
-0.52063614,2.3575597,0.29680681,-0.91741741,0.25954205,-0.30163372,0
-1.0870504,-3.9167819,-0.36953494,-0.17893291,-0.94612432,-0.26987335,0
1.2401862,3.9005108,0.32504559,0.17893291,0.94612432,0.26987335,0
0.23552191,-3.9137275,-0.77015805,0.92773747,-0.25357375,0.27386755,0
0.22260195,1.9791574,1.5835676,-0.19605142,-0.23451124,0.95213878,0
-0.43554842,2.0240071,1.1521401,-0.81988925,-0.0082307272,0.5724628,0
0.28740078,3.7081161,1.6312636,0.17893291,0.94612432,0.26987335,0
1.109773,2.6632972,1.6255378,0.54486835,-0.32368815,0.77352726,0
-0.96032917,-3.8875632,-0.5559898,-0.17893291,-0.94612432,-0.26987335,0
0.037571132,3.8873036,1.1687111,0.17893291,0.94612432,0.26987335,0
1.0505308,3.6203318,1.4330447,0.17893291,0.94612432,0.26987335,0
0.1126765,-0.79490578,-1.2162963,0.30237478,0.2081414,-0.93018627,0
-0.91843086,-3.6174986,-1.5305635,-0.17893291,-0.94612432,-0.26987335,0
-0.88469219,-3.8761425,-0.64617729,-0.17893291,-0.94612432,-0.26987335,0
0.53840244,1.6380116,-0.53285688,0.26959205,0.21665195,-0.93828672,0
0.56611371,-1.5031773,0.1860522,0.79348129,-0.30095044,0.52897656,0
1.1482469,2.2997928,1.4339089,0.65290272,-0.31938517,0.68681228,0
-0.38072789,-0.50722915,-1.1565568,-0.22681868,0.30658022,-0.92442518,0
1.3323905,3.5993037,1.3198855,0.17893291,0.94612432,0.26987335,0
-0.36882269,-3.4491684,0.028350651,0.22553632,-0.30644038,0.9247852,0
-0.62248808,1.5635358,0.8461132,-0.90811139,0.053276062,0.4153254,0
-1.4248443,-3.7558265,-0.70984709,-0.17893291,-0.94612432,-0.26987335,0
-0.23605311,-3.6727045,-1.7894566,-0.17893291,-0.94612432,-0.26987335,0
0.12821081,3.9894409,0.75054032,0.17893291,0.94612432,0.26987335,0
1.4892609,3.5478206,1.396365,0.17893291,0.94612432,0.26987335,0
-0.29867369,-0.20911972,0.93116212,-0.29867369,-0.20911972,0.93116212,0
0.55992568,3.9995036,0.42902446,0.17893291,0.94612432,0.26987335,0
-0.54074091,-3.9496007,-0.61669564,-0.17893291,-0.94612432,-0.26987335,0
1.4530931,3.5617285,1.3715885,0.17893291,0.94612432,0.26987335,0
-0.27387053,-3.6326704,-1.9047345,-0.17893291,-0.94612432,-0.26987335,0
-1.4037132,-3.8061719,-0.54735595,-0.17893291,-0.94612432,-0.26987335,0
-0.7816503,-3.9697948,-0.38616931,-0.17893291,-0.94612432,-0.26987335,0
0.42871386,3.0290892,-0.17155111,-0.089531183,0.28882042,-0.95318782,0
-0.092359304,-3.6978769,-1.7964795,-0.17893291,-0.94612432,-0.26987335,0
-0.79824412,-0.43827188,-0.9009707,-0.65498328,0.31923303,-0.68489939,0
-0.34498864,-3.7216198,-1.5457411,-0.17893291,-0.94612432,-0.26987335,0
-1.3681097,-3.7046928,-0.92672694,-0.17893291,-0.94612432,-0.26987335,0
-1.0369651,-0.95361519,-0.87738401,-0.79995626,0.29959124,-0.51991832,0
0.61705863,1.0288304,-0.62935239,0.45351964,0.16410276,-0.87600803,0
0.8266257,4.0079379,0.22262645,0.17893291,0.94612432,0.26987335,0
-0.37523767,-3.9557128,-0.70499849,-0.17893291,-0.94612432,-0.26987335,0
-1.0687978,-3.7282753,-1.0425053,-0.17893291,-0.94612432,-0.26987335,0
1.1126157,3.5124421,1.7701225,0.17893291,0.94612432,0.26987335,0
0.093065619,-3.8436539,-1.408354,-0.17893291,-0.94612432,-0.26987335,0
-0.2503233,2.870616,1.4281681,-0.79724842,-0.021301433,0.60327488,0
1.4753993,3.6941042,0.89271337,0.17893291,0.94612432,0.26987335,0
-0.30884141,3.6499653,0.79145807,-0.95508498,0.23289248,-0.18323088,0
-0.24372989,3.5292313,1.4218233,-0.90205866,0.048257299,0.42890701,0
-0.82226992,-3.7308779,-1.1968343,-0.17893291,-0.94612432,-0.26987335,0
0.42570767,3.7966621,1.229138,0.17893291,0.94612432,0.26987335,0
0.11008003,4.0963869,0.38762796,0.17893291,0.94612432,0.26987335,0
-1.5752118,-3.6544075,-0.9657051,-0.17893291,-0.94612432,-0.26987335,0
1.3275661,3.5050507,1.6535169,0.17893291,0.94612432,0.26987335,0
0.28712341,3.8183007,1.2451634,0.17893291,0.94612432,0.26987335,0
-0.43565691,-3.5736477,-2.0043886,-0.17893291,-0.94612432,-0.26987335,0
-1.1565425,-3.6294522,-1.3307812,-0.17893291,-0.94612432,-0.26987335,0
1.0922396,0.39934343,0.12057692,0.98384088,-0.17382506,-0.042914152,0
1.2934012,3.6780157,1.0697874,0.17893291,0.94612432,0.26987335,0
0.64370841,-1.8250301,-0.71465546,0.96657336,-0.11785139,-0.22769833,0
-0.1993531,2.8497746,0.059621215,-0.67829585,0.3173207,-0.66273832,0
-0.62997055,-3.911787,-0.69009995,-0.17893291,-0.94612432,-0.26987335,0
-0.71686488,-3.5629013,-1.8556139,-0.17893291,-0.94612432,-0.26987335,0
-0.56566477,-4.0479484,-0.25538182,-0.17893291,-0.94612432,-0.26987335,0
1.3748893,1.9267795,0.72582543,0.96962994,-0.21606639,0.1145981,0
-0.035974503,-3.7982202,-1.4820807,-0.17893291,-0.94612432,-0.26987335,0
-1.3689964,-3.7548361,-0.75034738,-0.17893291,-0.94612432,-0.26987335,0
-0.77314717,-3.8987265,-0.64095831,-0.17893291,-0.94612432,-0.26987335,0
-0.77366865,-1.4731615,-1.3533723,-0.43414918,0.32207921,-0.84129632,0
-0.90869534,-3.5801284,-1.6680301,-0.17893291,-0.94612432,-0.26987335,0
-0.47181928,1.1897135,1.0599885,-0.70930892,-0.066035427,0.70179749,0
-0.22256573,3.0585432,0.1900456,-0.74240637,0.30983776,-0.59399772,0
-0.97751534,-3.9900074,-0.18544546,-0.17893291,-0.94612432,-0.26987335,0
0.74202222,3.7470748,1.1932569,0.17893291,0.94612432,0.26987335,0
0.44637704,1.3189716,-0.63242453,0.23933238,0.22420324,-0.94469726,0
0.9161247,3.6371915,0.037285805,0.26924235,0.21674086,-0.93836665,0
0.60452342,-0.72359055,0.54370522,0.68141192,-0.3170352,0.65967143,0
-0.15524095,3.9451392,1.0937891,0.17893291,0.94612432,0.26987335,0
-1.4061948,-3.5036373,-1.6063387,-0.17893291,-0.94612432,-0.26987335,0
0.84355539,3.6177073,1.5794765,0.17893291,0.94612432,0.26987335,0
-0.20793283,1.6962117,1.3436788,-0.55331707,-0.13003954,0.82275724,0
