0.20592976,1.1664846,-1.6071377,-0.80897248,0.36246341,-0.46280003,0
-1.9350071,-0.38248384,0.97357804,-0.78432465,0.52910471,-0.32385647,0
-1.2642412,-1.8840417,1.3301233,-0.58732754,-0.46529007,0.66223228,0
1.3679278,0.082403183,-0.16584063,0.80903399,-0.36036134,0.46433157,0
-0.65560997,-0.14179307,1.8067847,0.31203777,0.6247927,0.7157281,0
-1.8250335,-1.276309,1.2597601,-0.58732754,-0.46529007,0.66223228,0
-0.97354037,-1.0266224,2.1903729,-0.58732754,-0.46529007,0.66223228,0
1.2600743,1.2489505,-1.7800394,0.58732754,0.46529007,-0.66223228,0
1.4334569,-0.13444614,-1.0455264,0.56906718,-0.81922901,-0.070897102,0
-0.09336102,0.22756881,1.2365537,0.35760885,0.58483422,0.72806942,0
-1.3084879,-0.50464165,-0.029609442,-0.73072946,-0.046932399,-0.68105215,0
0.70598322,1.4981169,-2.0963907,0.58732754,0.46529007,-0.66223228,0
1.7112558,0.80787945,-0.42357194,0.73542953,0.034814477,0.67670637,0
1.7270355,1.658308,-0.80690181,0.36426759,0.57870209,0.72966647,0
0.56964833,1.2830973,-2.1107068,-0.79844934,0.19926903,-0.568129,0
-0.94357079,-1.2808592,2.0383241,-0.58732754,-0.46529007,0.66223228,0
-1.2754972,-1.6100175,1.5126723,-0.58732754,-0.46529007,0.66223228,0
-0.94731063,-1.5931915,0.52864301,0.020465493,-0.82650429,-0.56255835,0
-1.417675,-1.4420525,1.5045897,-0.58732754,-0.46529007,0.66223228,0
0.80802637,1.1213108,-2.270637,0.58732754,0.46529007,-0.66223228,0
2.1136177,0.6964184,-1.4112536,0.58732754,0.46529007,-0.66223228,0
-1.7839472,-0.72241151,1.6853724,-0.58732754,-0.46529007,0.66223228,0
1.0040224,-0.19350708,-1.4325138,0.15338993,-0.86739117,-0.47339642,0
0.69238406,1.5200999,-2.0930066,0.58732754,0.46529007,-0.66223228,0
-1.9232724,-0.81763613,1.4949007,-0.58732754,-0.46529007,0.66223228,0
-1.2123455,-1.3966613,1.7185868,-0.58732754,-0.46529007,0.66223228,0
-1.9138221,-0.34108543,1.8381107,-0.58732754,-0.46529007,0.66223228,0
-0.77382219,-0.9001289,2.3304229,0.64550734,0.2242859,0.73007953,0
-1.7925107,-1.125996,1.3942155,-0.58732754,-0.46529007,0.66223228,0
1.8464597,0.23124838,-1.0576922,0.73493528,-0.64931864,0.1955902,0
-0.56263196,-1.4816625,0.42399299,0.20126617,-0.87649053,-0.43732876,0
0.34013438,-0.77652657,0.95462847,0.80631125,-0.40721402,0.4289977,0
1.6878757,1.3561401,-1.3253139,0.58732754,0.46529007,-0.66223228,0
0.55097985,-0.64499921,0.68022144,0.80175149,-0.446334,0.39746767,0
1.962935,0.85723221,-1.4319036,0.58732754,0.46529007,-0.66223228,0
1.4783663,0.16625082,-1.9375634,0.16935587,-0.87076759,-0.46160865,0
0.13188082,1.3542981,-1.102457,-0.71250904,0.6853593,-0.15037811,0
-1.3667451,-1.3639665,1.604623,-0.58732754,-0.46529007,0.66223228,0
-0.39925867,-0.86014277,-0.45860142,-0.20484686,-0.70612675,-0.67780745,0
-1.0998583,-0.73280168,-0.16258603,-0.5834372,-0.3236849,-0.74486864,0
0.92024648,-0.27398762,0.33758736,0.80898249,-0.36213267,0.46304142,0
1.5839726,1.660501,-1.203618,0.58732754,0.46529007,-0.66223228,0
1.7843912,0.89011395,-1.5671492,0.58732754,0.46529007,-0.66223228,0
-0.94222534,-1.4661257,1.9093474,-0.58732754,-0.46529007,0.66223228,0
1.4016027,0.73856437,-2.0131207,0.58732754,0.46529007,-0.66223228,0
-1.1062539,0.015320718,-0.19648802,-0.80525792,0.25377443,-0.53587151,0
1.2856972,0.9399786,-0.074499846,0.5563398,0.3621701,0.74787629,0
-0.56805301,-0.77180493,-0.47433305,-0.34567457,-0.59563327,-0.7250725,0
0.25885838,0.66725636,0.69839913,0.25885838,0.66725636,0.69839913,0
-1.9555761,-0.57460475,0.80892098,-0.80933887,0.33346218,-0.48350149,0
1.2211419,1.492254,-0.44850767,0.21765906,0.69727921,0.68295413,0
-1.2749531,-0.84680891,2.0493917,-0.58732754,-0.46529007,0.66223228,0
-0.78509283,0.65378159,0.19454187,-0.61726964,0.78673381,0.005315423,0
1.1779286,0.41750014,0.17555296,0.7257852,0.059305221,0.68536043,0
-0.67906046,0.12960857,-0.7379964,-0.76727688,0.059722155,-0.6385293,0
-1.9585564,-0.85826814,1.4350588,-0.58732754,-0.46529007,0.66223228,0
-0.46089208,0.89814425,0.012784004,-0.54237616,0.83359128,0.10466012,0
-1.4967626,-0.046937227,0.46108812,-0.78828311,0.51433128,-0.33774722,0
-0.46244138,-0.99361849,2.0277963,0.75731903,-0.027305275,0.65247405,0
1.5676849,1.6317567,-1.2382598,0.58732754,0.46529007,-0.66223228,0
-1.3759027,-0.85691178,1.9527621,-0.58732754,-0.46529007,0.66223228,0
-1.9515792,-0.58347237,1.6343209,-0.58732754,-0.46529007,0.66223228,0
1.3629677,1.1205878,-1.7789729,0.58732754,0.46529007,-0.66223228,0
-0.086231411,-1.1934325,0.085559897,0.30293113,-0.88513178,-0.35323438,0
0.80132663,1.0959955,-2.2943656,0.58732754,0.46529007,-0.66223228,0
1.2215115,0.55418849,-2.302386,0.58732754,0.46529007,-0.66223228,0
2.1764975,0.62919462,-1.4027182,0.58732754,0.46529007,-0.66223228,0
-2.2359207,-1.076551,1.0357002,-0.58732754,-0.46529007,0.66223228,0
1.6177931,1.4905909,-0.62223268,0.41036862,0.53405046,0.73918045,0
0.81584328,1.2295057,-2.1876855,0.58732754,0.46529007,-0.66223228,0
-1.8366348,-1.2521194,1.2664669,-0.58732754,-0.46529007,0.66223228,0
0.36775488,-0.88230562,-0.29375723,0.36775488,-0.88230562,-0.29375723,0
0.6705147,0.17851478,0.72009909,0.6705147,0.17851478,0.72009909,0
0.77819729,0.76772386,-2.2856107,-0.58902848,-0.31541356,-0.74401593,0
-0.25005221,-1.1107206,1.7153649,0.80692589,-0.27336615,0.5235855,0
0.3587721,-0.27822867,1.1020341,0.73967922,0.023531854,0.67254812,0
1.9692807,1.3452168,-1.0834134,0.58732754,0.46529007,-0.66223228,0
-0.3544693,0.21339035,1.3588289,0.23800415,0.68275696,0.69079453,0
0.30195713,-0.97716546,0.72957069,0.74859798,-0.6233297,0.22596753,0
1.7353702,0.2328527,-0.73491126,0.78727287,-0.51824486,0.3341015,0
-0.58386421,0.49033648,-0.75203252,-0.80895716,0.3120144,-0.49823236,0
1.6014824,1.4554864,-0.58802438,0.42258286,0.5215438,0.74122584,0
-0.59615868,-1.1301367,2.1766973,0.76494992,-0.051845312,0.64199984,0
-0.47573656,0.57518899,-0.87445515,-0.80893278,0.31122586,-0.49876481,0
0.94309258,1.4339036,-0.31556901,0.10317588,0.76850837,0.63146633,0
1.6677958,1.2377146,-1.4263296,0.58732754,0.46529007,-0.66223228,0
0.31707892,1.4981745,-0.75992042,-0.49728519,0.85302258,0.1583035,0
0.16378042,-0.67020822,1.2939849,0.79372853,-0.17115346,0.58369642,0
-1.6864239,-0.38048327,2.0121064,-0.58732754,-0.46529007,0.66223228,0
1.1055229,0.83313417,-2.2092655,0.58732754,0.46529007,-0.66223228,0
0.050395191,-1.2132461,0.38080782,0.51267844,-0.84701812,-0.1404326,0
-1.3680085,-2.0097723,1.1497535,-0.58732754,-0.46529007,0.66223228,0
-1.944093,-0.71415651,0.7216115,-0.79763931,0.19408217,-0.57105488,0
-1.3718312,-0.69161421,0.060967922,-0.68589699,-0.14820647,-0.71244675,0
-0.6972391,-1.2998209,0.1148375,-0.056846142,-0.79249179,-0.6072278,0
0.014922321,-1.0823915,-0.10251841,0.26569396,-0.88372624,-0.3852722,0
-2.1455393,-1.2007096,1.0286233,-0.58732754,-0.46529007,0.66223228,0
-0.57273757,0.46651101,-0.7835936,-0.80743325,0.28058138,-0.51896596,0
-1.087322,0.41024888,0.42074609,-0.6607101,0.74821746,-0.060273528,0
-1.2616413,0.20891416,1.1873101,-0.42172408,0.87430954,0.24027433,0
0.29446143,1.3491267,-0.29744762,-0.29149175,0.88492537,0.36323497,0
0.79825842,1.0086151,-2.3584809,0.58732754,0.46529007,-0.66223228,0
-1.3994665,-0.55511749,0.071740746,-0.73711085,-0.03038916,-0.67508823,0
1.0350459,0.34559542,0.33218563,0.7127623,0.090277255,0.69557172,0
-1.4454231,-0.47237957,2.1612804,-0.58732754,-0.46529007,0.66223228,0
1.6620114,1.0832952,-1.539956,0.58732754,0.46529007,-0.66223228,0
0.92945099,0.88851166,-2.3265133,0.58732754,0.46529007,-0.66223228,0
-1.7270802,-0.98168075,1.5536423,-0.58732754,-0.46529007,0.66223228,0
1.2904556,1.1172254,-1.8456454,0.58732754,0.46529007,-0.66223228,0
0.40860051,-0.8906033,-0.20356694,0.43185753,-0.87217873,-0.22978997,0
-1.2220314,-0.84466243,2.0978353,-0.58732754,-0.46529007,0.66223228,0
-1.4937871,-0.98409784,1.7588494,-0.58732754,-0.46529007,0.66223228,0
-1.3655653,-0.47374046,2.2311497,-0.58732754,-0.46529007,0.66223228,0
1.2879745,1.01342,-1.9207807,0.58732754,0.46529007,-0.66223228,0
0.37532878,0.75262642,0.57364273,0.26329851,0.66387433,0.69996071,0
1.4439907,1.6741744,-1.3181598,0.58732754,0.46529007,-0.66223228,0
-1.0549716,-1.5801108,1.7292669,-0.58732754,-0.46529007,0.66223228,0
0.8374933,1.2518221,-2.1528049,0.58732754,0.46529007,-0.66223228,0
-1.2646232,-1.6510966,1.4934536,-0.58732754,-0.46529007,0.66223228,0
0.028240442,0.3388494,1.0873379,0.34881574,0.59281427,0.72587788,0
-1.828671,-0.70171285,1.6602503,-0.58732754,-0.46529007,0.66223228,0
-1.0662073,-1.6354556,1.6804163,-0.58732754,-0.46529007,0.66223228,0
1.6222029,1.3173182,-1.4108353,0.58732754,0.46529007,-0.66223228,0
0.46779725,-0.81103122,0.62420678,0.77084917,-0.57094884,0.28250515,0
-1.4266863,-0.42133772,2.2137604,-0.58732754,-0.46529007,0.66223228,0
-1.3305291,-1.0280472,1.8727622,-0.58732754,-0.46529007,0.66223228,0
-0.74881589,-1.4181187,0.27895162,0.00552845,-0.82051528,-0.57159799,0
-1.1191366,-0.62194395,2.3455758,-0.58732754,-0.46529007,0.66223228,0
1.3543937,1.2215528,-1.715638,0.58732754,0.46529007,-0.66223228,0
-0.36502367,0.91330564,-0.69419801,-0.75869995,0.60142922,-0.25031441,0
-2.2526999,-1.0139879,1.0534754,-0.78877634,0.14575511,-0.59714949,0
-0.22736543,-0.89673817,-0.45449513,-0.080650926,-0.7805087,-0.61992073,0
-0.72372448,-0.53051448,-0.54131097,-0.53963673,-0.38467729,-0.74887633,0
1.1009413,1.6765066,-1.6207683,0.58732754,0.46529007,-0.66223228,0
1.3160925,1.4987329,-0.48787802,0.26277262,0.6642763,0.69977683,0
1.6960888,0.78926945,-1.716318,0.58732754,0.46529007,-0.66223228,0
0.34506345,-0.029003801,1.073429,0.65146589,0.21373299,0.7279495,0
-1.6211221,-1.1106894,1.5569727,-0.58732754,-0.46529007,0.66223228,0
1.9457364,0.91146541,-1.4090521,0.58732754,0.46529007,-0.66223228,0
-0.21382582,-0.6999501,-0.68143117,-0.21382582,-0.6999501,-0.68143117,0
2.0624471,1.3968031,-0.96454006,0.58732754,0.46529007,-0.66223228,0
1.0447159,1.8046185,-1.5806217,0.58732754,0.46529007,-0.66223228,0
0.53951573,0.1361305,0.85086739,0.64714891,0.22139919,0.72950709,0
0.55072141,-0.64676851,0.6787492,0.80149305,-0.44810328,0.39599538,0
-0.92004299,-1.6415031,1.805799,-0.58732754,-0.46529007,0.66223228,0
-0.96280396,-0.95151496,2.2526665,-0.58732754,-0.46529007,0.66223228,0
-0.94279373,0.099225819,1.5975025,-0.02334559,0.82762706,0.56079286,0
0.891177,-0.56877708,-0.35791582,0.59998602,-0.79946315,-0.029587805,0
-2.2245872,-1.0259722,1.0812886,-0.58732754,-0.46529007,0.66223228,0
1.1116585,0.79999685,-2.2271066,0.58732754,0.46529007,-0.66223228,0
0.71126926,-0.70708871,0.015802801,0.66529238,-0.74351227,0.067643285,0
1.1896224,1.7886354,-1.4633353,0.58732754,0.46529007,-0.66223228,0
-0.63409305,0.097241774,-0.79210478,-0.75002134,0.0054015815,-0.66139156,0
1.7037923,0.073995113,-1.2195743,0.62149179,-0.78342032,0.00075733662,0
1.0614252,1.4431338,-1.8197844,0.58732754,0.46529007,-0.66223228,0
-1.0567669,-1.1079893,2.0593913,-0.58732754,-0.46529007,0.66223228,0
-1.5908588,-0.11874902,0.57137996,-0.78739822,0.51776493,-0.33454978,0
1.0986429,0.84547949,-2.2066932,0.58732754,0.46529007,-0.66223228,0
2.087965,1.0788985,-0.84733748,0.74330562,0.013638288,0.66881311,0
1.4577943,0.93630373,-1.8243518,0.58732754,0.46529007,-0.66223228,0
-1.679396,-0.35644758,2.0352273,-0.58732754,-0.46529007,0.66223228,0
-1.7560909,-0.40775502,1.9311583,-0.58732754,-0.46529007,0.66223228,0
-0.47786796,-0.72762305,2.0140347,0.66917068,0.181079,0.72070879,0
0.012030482,-0.15429011,1.3998752,0.59452206,0.30716893,0.74309546,0
-1.2895917,-1.4401436,0.42301303,-0.28665358,-0.64560044,-0.70783472,0
-1.7773759,-0.41368711,1.9081126,-0.58732754,-0.46529007,0.66223228,0
-0.16953045,0.27650264,-1.2978034,-0.69138932,-0.13692218,-0.70938927,0
1.7578017,0.84080362,-1.6253774,0.58732754,0.46529007,-0.66223228,0
-0.96423262,-1.2801135,2.0205231,-0.58732754,-0.46529007,0.66223228,0
-0.081932783,-0.77984315,-0.62058991,-0.081932783,-0.77984315,-0.62058991,0
-1.2660097,-0.95336974,1.9824529,-0.58732754,-0.46529007,0.66223228,0
-0.97983527,-0.85254633,2.3070974,-0.58732754,-0.46529007,0.66223228,0
-0.90214574,-1.3771386,2.0074165,-0.58732754,-0.46529007,0.66223228,0
0.28206992,0.93880522,0.39441267,0.081620097,0.78000569,0.62042671,0
-1.4675815,-0.38726008,2.2014341,-0.58732754,-0.46529007,0.66223228,0
0.44312572,0.28154612,-1.794094,-0.4844802,-0.45331776,-0.74818587,0
0.34895509,-0.80558234,-0.50666308,0.25166422,-0.88265765,-0.39696422,0
1.232779,-0.27568752,-0.44794297,0.70864046,-0.69091815,0.14304149,0
-1.5850248,-0.77289164,1.8263268,-0.58732754,-0.46529007,0.66223228,0
0.80428559,1.83509,-1.7724473,0.58732754,0.46529007,-0.66223228,0
0.52881265,-0.60187358,0.76446676,0.80821264,-0.38052848,0.44943351,0
1.498297,0.023058176,-1.5970922,0.35396832,-0.883497,-0.3068215,0
-0.59735084,0.80129206,0.03320986,-0.59735084,0.80129206,0.03320986,0
1.9114506,1.5856628,-0.96576285,0.58732754,0.46529007,-0.66223228,0
-1.5683477,-1.4077601,1.3950536,-0.58732754,-0.46529007,0.66223228,0
-1.8782964,-1.1044147,1.3332963,-0.58732754,-0.46529007,0.66223228,0
1.1798953,1.8683963,-1.4159214,0.58732754,0.46529007,-0.66223228,0
1.7068028,0.38622797,-1.9899963,0.58732754,0.46529007,-0.66223228,0
1.7362485,0.44404328,-0.53451645,0.80807763,-0.29126823,0.51202875,0
1.0889368,0.7605027,-2.2750072,0.58732754,0.46529007,-0.66223228,0
-0.63490236,0.42428535,1.1236019,-0.094816327,0.85214996,0.51463616,0
0.2094754,-1.1055114,0.35192668,0.57620871,-0.81497967,-0.061577737,0
1.8534157,1.5121825,-1.0688612,0.58732754,0.46529007,-0.66223228,0
0.49946821,0.21772677,-1.787035,-0.42738736,-0.51654267,-0.74197298,0
-1.179726,-1.6494528,1.5699031,-0.58732754,-0.46529007,0.66223228,0
-0.89874446,0.47038642,0.8656764,-0.3805629,0.88089788,0.28140873,0
-1.9013219,-1.3171827,1.1633825,-0.58732754,-0.46529007,0.66223228,0
-1.7537634,-1.6149491,1.0850375,-0.58732754,-0.46529007,0.66223228,0
-1.7602062,-0.4422003,0.57394624,-0.80893844,0.31140879,-0.49864143,0
-1.7185485,-0.14466906,1.6710424,-0.43624675,0.87119031,0.22520268,0
1.1339308,1.2607056,-1.8836555,0.58732754,0.46529007,-0.66223228,0
-0.33507907,0.48553377,1.0445187,0.054084659,0.79383552,0.60572284,0
-1.1008174,-1.4663895,1.7685084,-0.58732754,-0.46529007,0.66223228,0
0.93949091,1.0539974,-2.2013376,0.58732754,0.46529007,-0.66223228,0
2.1208739,1.3028166,-0.97875738,0.58732754,0.46529007,-0.66223228,0
-0.53051448,-0.40930837,1.9266832,0.51372135,0.41795164,0.74927092,0
1.1589375,0.065932035,-1.832211,0.028506637,-0.82961297,-0.55761087,0
-1.638956,-0.11291528,0.70424038,-0.76882261,0.57641792,-0.27686524,0
-1.9353001,-1.4167612,1.0632828,-0.58732754,-0.46529007,0.66223228,0
1.1946427,0.14603424,-1.9470122,-0.014646649,-0.81198359,-0.58349657,0
1.6587932,1.2734122,-1.4092325,0.58732754,0.46529007,-0.66223228,0
0.69279683,1.7763133,-1.0910299,-0.4559657,0.86624557,0.2042399,0
-1.0392489,-0.9540205,2.1831076,-0.58732754,-0.46529007,0.66223228,0
1.8862597,1.1002766,-1.3291409,0.58732754,0.46529007,-0.66223228,0
0.25508726,0.52434701,-1.7557832,-0.65910542,-0.19989061,-0.72499931,0
-1.3692588,-1.1934955,1.722168,-0.58732754,-0.46529007,0.66223228,0
-2.169627,-1.0571588,1.1081202,-0.58732754,-0.46529007,0.66223228,0
-1.07809,-1.9748495,1.4314167,-0.58732754,-0.46529007,0.66223228,0
1.5321662,1.8853332,-1.0915956,0.58732754,0.46529007,-0.66223228,0
0.63545763,0.64990127,-2.1226468,-0.5869469,-0.31850678,-0.74434322,0
-1.8212594,-0.76762879,1.6205105,-0.58732754,-0.46529007,0.66223228,0
0.33413994,0.18575078,0.99860263,0.55651945,0.36192328,0.7478621,0
1.41933,0.55027473,-2.1296926,0.58732754,0.46529007,-0.66223228,0
2.1595216,0.44997668,-1.539289,0.69291604,-0.71189123,0.11435992,0
-1.7484591,-0.38021839,1.9572741,-0.58732754,-0.46529007,0.66223228,0
-0.0029058754,1.2728646,-0.65529203,-0.60462296,0.79617494,0.023164988,0
1.8140347,0.16744947,-1.4791431,0.56720799,-0.82030594,-0.073302627,0
1.5867136,0.23370111,-0.43049169,0.80806726,-0.38315487,0.44745916,0
0.94656861,1.3188604,-2.0089655,0.58732754,0.46529007,-0.66223228,0
1.1337779,0.71260393,-2.2688923,0.58732754,0.46529007,-0.66223228,0
-1.6869342,-1.7311592,1.0626574,-0.58732754,-0.46529007,0.66223228,0
-0.43194485,0.2972903,1.2908924,0.13790226,0.74873209,0.64836973,0
0.031452298,1.3003602,-0.70493853,-0.6089406,0.79303098,0.017126739,0
-1.0227327,-1.0634278,2.1208851,-0.58732754,-0.46529007,0.66223228,0
-1.1821641,-1.5134225,1.6633168,-0.58732754,-0.46529007,0.66223228,0
1.2511065,-0.27718294,-0.5705983,0.67334807,-0.73489225,0.080844402,0
0.75490332,0.31943944,0.60409224,0.64216107,0.23012322,0.73121309,0
-1.0556781,-1.7583032,1.6034408,-0.58732754,-0.46529007,0.66223228,0
1.0641567,-0.065645456,0.23558635,0.80664206,-0.26965255,0.52594298,0
-1.042383,0.27223426,-0.10680091,-0.79874468,0.46524835,-0.38151157,0
-1.5566882,-1.4683594,1.3628169,-0.58732754,-0.46529007,0.66223228,0
0.91806316,0.032071471,-1.7726018,-0.096838951,-0.77194989,-0.62826413,0
-1.9540193,-0.72456348,1.5330249,-0.58732754,-0.46529007,0.66223228,0
-1.6242657,-1.2790823,1.4358706,-0.58732754,-0.46529007,0.66223228,0
-1.3961751,-1.3667073,0.410842,-0.38127303,-0.56268597,-0.73349541,0
-1.9104893,-0.26180124,1.7251421,-0.50892538,0.84853947,0.14483014,0
1.815092,0.32178938,-1.939231,0.58732754,0.46529007,-0.66223228,0
1.2718096,0.3999539,0.072953463,0.75217086,-0.011711985,0.6588642,0
1.8697762,1.2560973,-1.2342792,0.58732754,0.46529007,-0.66223228,0
-1.35768,-1.7363877,0.7518934,-0.12238061,-0.7577641,-0.64094973,0
-1.8763205,-0.64299333,0.65142119,-0.7999928,0.2096903,-0.56217575,0
-1.2728662,-1.1367238,1.8475459,-0.58732754,-0.46529007,0.66223228,0
-1.1522503,-0.74285352,2.2312555,-0.58732754,-0.46529007,0.66223228,0
1.360002,1.1562541,-0.24468684,0.47971582,0.45887747,0.74786657,0
-1.2208689,-1.360068,0.32246423,-0.30262798,-0.63262326,-0.71288443,0
1.8278743,0.20225072,-1.0897582,0.71821344,-0.67683989,0.16142309,0
1.9692485,1.5042579,-0.97169828,0.58732754,0.46529007,-0.66223228,0
-1.3192005,0.21198636,0.56988639,-0.70041299,0.70219958,-0.12781811,0
-1.2161512,-1.3502177,1.7478429,-0.58732754,-0.46529007,0.66223228,0
-0.081267118,0.23707877,-1.3706014,-0.65111375,-0.2143625,-0.72807944,0
0.75620282,0.36995488,-2.039783,-0.39912051,-0.54531014,-0.7371158,0
0.20912099,1.1650853,0.045217991,-0.16382051,0.86963528,0.46572244,0
-2.1476214,-1.1383308,1.0706047,-0.58732754,-0.46529007,0.66223228,0
-0.92464972,-1.7195735,1.7468605,-0.58732754,-0.46529007,0.66223228,0
2.0714927,0.85917175,-1.3342618,0.58732754,0.46529007,-0.66223228,0
1.5381118,0.8098855,-1.8419415,0.58732754,0.46529007,-0.66223228,0
1.8283772,0.67905211,-0.57474041,0.78855848,-0.14470866,0.59769148,0
2.1364615,1.1591109,-1.065902,0.58732754,0.46529007,-0.66223228,0
0.7077806,-0.31122315,-1.2937493,0.045479178,-0.83590853,-0.54698145,0
1.1977894,0.02503705,-1.7638829,0.091708302,-0.85121787,-0.51673776,0
-0.18135011,-0.12183164,-1.1418918,-0.52963442,-0.39774802,-0.7491889,0
-0.3295908,0.72367954,-1.0172718,-0.80932772,0.34362432,-0.47635168,0
-0.34804773,0.95422286,0.071899563,-0.4607901,0.86490661,0.19902042,0
1.2840375,0.94399595,-1.9730504,0.58732754,0.46529007,-0.66223228,0
1.2401408,1.2783554,-1.7770581,0.58732754,0.46529007,-0.66223228,0
-1.6321192,-1.2389778,1.4570832,-0.58732754,-0.46529007,0.66223228,0
2.150671,0.70362449,-1.0475433,0.80906516,-0.35921627,0.46516383,0
0.19957089,-0.7556448,-0.65490496,0.082505465,-0.84838575,-0.52290976,0
-0.98457253,-0.89309466,2.2744067,-0.58732754,-0.46529007,0.66223228,0
1.3196108,1.8658521,-1.2937967,0.58732754,0.46529007,-0.66223228,0
1.581053,1.9048082,-1.0345551,0.58732754,0.46529007,-0.66223228,0
-1.8119944,-0.85833251,1.5649981,-0.58732754,-0.46529007,0.66223228,0
2.0221827,0.35993004,-1.2936883,0.72308636,-0.66923469,0.17108834,0
-1.1001786,-1.6812731,1.6180959,-0.58732754,-0.46529007,0.66223228,0
-2.0010254,-1.2200459,0.77706695,-0.67511517,-0.16963896,-0.71794307,0
-0.33414268,0.48494342,1.0452074,0.055127382,0.79332924,0.60629183,0
0.79509163,0.23311248,0.58965743,0.68646312,0.1470553,0.71213984,0
0.39445245,-0.54337424,-0.964755,0.031637907,-0.83080155,-0.55566895,0
-0.31350386,-1.0411961,1.8341846,0.79257721,-0.16494143,0.58703989,0
-1.1571587,-0.92334843,2.1000853,-0.58732754,-0.46529007,0.66223228,0
1.7932607,1.1678413,-1.3641495,0.58732754,0.46529007,-0.66223228,0
0.5120945,-0.2946417,-1.3085752,-0.093002081,-0.77400857,-0.62630779,0
-1.7244618,-1.5838673,1.132863,-0.58732754,-0.46529007,0.66223228,0
-2.0177116,-0.48774254,1.0089144,-0.79599118,0.48012367,-0.36861807,0
-0.36462256,-1.5645943,1.1220942,0.62515926,-0.78047347,0.0060805082,0
0.092648163,-1.1650555,0.89566833,0.72744024,-0.66216326,0.17991823,0
1.6786647,0.72091281,-1.7797992,0.58732754,0.46529007,-0.66223228,0
-1.9327252,-0.40070558,1.7794558,-0.58732754,-0.46529007,0.66223228,0
-1.8797364,-0.72413039,1.5992103,-0.58732754,-0.46529007,0.66223228,0
1.4970702,1.5946119,-1.3269852,0.58732754,0.46529007,-0.66223228,0
1.0386808,1.1918678,-2.0164981,0.58732754,0.46529007,-0.66223228,0
2.0786881,0.68208098,-1.4523062,0.58732754,0.46529007,-0.66223228,0
-1.6660601,-1.251031,1.4185127,-0.58732754,-0.46529007,0.66223228,0
-2.1124296,-0.73668635,1.3840148,-0.58732754,-0.46529007,0.66223228,0
-1.4683964,-0.06786716,1.7385896,-0.26710165,0.88381743,0.38408783,0
-1.6065292,-0.31230652,2.1308658,-0.58732754,-0.46529007,0.66223228,0
1.4788471,1.9219617,-1.1131485,0.58732754,0.46529007,-0.66223228,0
-0.90291131,-1.971858,1.4768988,0.52185166,-0.84313834,-0.12957105,0
-1.2199643,-1.7102611,1.4914919,-0.58732754,-0.46529007,0.66223228,0
1.2912518,1.3335463,-1.6929507,0.58732754,0.46529007,-0.66223228,0
-1.1321243,-0.30148852,2.1300764,0.16928339,0.72950685,0.66269368,0
-1.1985564,-0.69238305,2.2256479,-0.58732754,-0.46529007,0.66223228,0
1.7117518,1.3291715,-1.3230869,0.58732754,0.46529007,-0.66223228,0
-1.0592902,-1.4679979,0.37827468,-0.14558434,-0.74414575,-0.65196055,0
0.75775069,1.7904464,-1.8450857,0.58732754,0.46529007,-0.66223228,0
0.99544108,1.2567241,-2.0092781,0.58732754,0.46529007,-0.66223228,0
1.5712566,0.61916566,-0.26520121,0.7568925,-0.025986254,0.65302259,0
-0.31500712,0.87823355,-0.88766038,-0.79159898,0.50067002,-0.35028648,0
-0.056294203,0.41667014,1.0546209,0.2594499,0.66680759,0.69860834,0
-0.44511205,-0.097385243,-0.94579864,-0.63282162,-0.24609172,-0.73414963,0
-1.0119328,-0.17262363,1.9568343,0.1454165,0.74424666,0.65188259,0
1.5489303,0.74075508,-1.880918,0.58732754,0.46529007,-0.66223228,0
-1.7194045,-0.79095876,1.6944529,-0.58732754,-0.46529007,0.66223228,0
2.0637267,0.48807251,-1.6018872,0.58732754,0.46529007,-0.66223228,0
-1.8585198,-1.5180207,1.0602326,-0.58732754,-0.46529007,0.66223228,0
-1.9099035,-1.6006174,0.95662773,-0.58732754,-0.46529007,0.66223228,0
1.8304923,1.4967899,-0.75585449,0.49603057,0.43960857,0.74879771,0
-1.6097846,-1.6558024,1.184027,-0.58732754,-0.46529007,0.66223228,0
0.23289412,0.92591703,-1.7555737,-0.78330159,0.12087089,-0.60977775,0
-0.7764219,0.6149801,-0.15365052,-0.73641461,0.64667445,-0.19876009,0
-0.89008403,0.55964828,0.48426446,-0.5476324,0.83094388,0.098138362,0
0.11171067,-0.67152572,-0.78075707,-0.046984673,-0.79724663,-0.60182256,0
-1.1487089,-0.69707787,2.2665586,-0.58732754,-0.46529007,0.66223228,0
-0.70799983,-1.2189745,2.2907305,-0.58732754,-0.46529007,0.66223228,0
0.19697241,1.4144452,-1.1322341,-0.69788951,0.70552152,-0.12324601,0
-1.802299,-0.61169708,1.7468851,-0.58732754,-0.46529007,0.66223228,0
1.3394483,1.4702182,-0.47067696,0.29255456,0.64085245,0.70973235,0
0.9753598,-0.39832014,0.072541773,0.7759729,-0.55627763,0.2973575,0
1.1418679,0.82531178,-2.182528,0.58732754,0.46529007,-0.66223228,0
-0.48275614,0.31522855,1.2787719,0.095002174,0.77293772,0.62732923,0
-0.83343065,-1.1108582,-0.061547995,-0.26630181,-0.66157001,-0.7010054,0
1.6412905,1.7819741,-1.0674353,0.58732754,0.46529007,-0.66223228,0
0.86750531,1.3001627,-2.0922229,0.58732754,0.46529007,-0.66223228,0
1.890833,0.44716358,-1.7839679,0.58732754,0.46529007,-0.66223228,0
1.9641725,0.28610373,-1.3902445,0.66770649,-0.74097669,0.071565926,0
-1.5223175,-0.9384656,1.7656076,-0.58732754,-0.46529007,0.66223228,0
1.6371528,0.93798923,-1.6640962,0.58732754,0.46529007,-0.66223228,0
1.0706124,0.85545671,-2.2245431,0.58732754,0.46529007,-0.66223228,0
0.71347773,0.088631272,0.69504976,0.71347773,0.088631272,0.69504976,0
1.2790942,0.49387598,-2.2936926,0.58732754,0.46529007,-0.66223228,0
1.6732947,0.97300017,-1.6074433,0.58732754,0.46529007,-0.66223228,0
1.738331,0.39124715,-1.9585075,0.58732754,0.46529007,-0.66223228,0
1.4307353,1.3740033,-1.5408186,0.58732754,0.46529007,-0.66223228,0
1.0786474,1.8387474,-1.5265487,0.58732754,0.46529007,-0.66223228,0
1.3983164,0.39969301,-2.2541294,0.58732754,0.46529007,-0.66223228,0
0.69021738,1.2628056,-2.2757053,0.58732754,0.46529007,-0.66223228,0
-1.6864022,-1.8424386,0.98494327,-0.58732754,-0.46529007,0.66223228,0
-2.099236,-1.261175,1.0272057,-0.58732754,-0.46529007,0.66223228,0
1.0618697,0.70813024,-2.3358099,0.58732754,0.46529007,-0.66223228,0
0.64129072,-0.50022471,0.64797044,0.80880165,-0.36751986,0.45909595,0
-2.0865412,-0.38529301,1.5069622,-0.67536044,0.73266625,-0.08419317,0
-0.40655804,0.56086212,0.93716192,-0.055078745,0.83930933,0.54085702,0
1.7992263,0.27491462,-0.82048291,0.78432411,-0.5291068,0.32385463,0
-0.2254231,-0.85734618,-0.50333107,-0.10913825,-0.7652235,-0.63444626,0
-0.49536818,-0.98583394,-0.29722366,-0.17068696,-0.72861642,-0.66331297,0
-1.6960466,-1.1368387,1.4721502,-0.58732754,-0.46529007,0.66223228,0
-0.07984674,0.78916585,0.61516321,-0.028698683,0.82968616,0.55749202,0
-2.0119383,-1.0274296,1.2688607,-0.58732754,-0.46529007,0.66223228,0
-0.87840211,-1.8579097,1.6906807,-0.58732754,-0.46529007,0.66223228,0
-1.7308625,-0.80053306,1.6775637,-0.58732754,-0.46529007,0.66223228,0
1.9402564,1.5816914,-0.9430058,0.58732754,0.46529007,-0.66223228,0
-0.21026039,-1.273385,0.18078002,0.28057134,-0.88454056,-0.37264979,0
-0.57489026,-0.39342803,1.9471817,0.48828626,0.44883689,0.74841315,0
1.7240611,1.6557083,-1.0827425,0.58732754,0.46529007,-0.66223228,0
-1.4011333,-0.14803493,0.17527092,-0.80918157,0.32091838,-0.4921754,0
-1.4799529,-1.9154369,0.99156618,-0.060324788,-0.79078519,-0.60911393,0
-0.27233145,-1.3850081,1.4826155,0.77676129,-0.5539006,0.29972684,0
-0.52543998,0.84155715,0.12527758,-0.52543998,0.84155715,0.12527758,0
2.0758641,0.41616178,-1.3060349,0.73808086,-0.64365083,0.20236218,0
0.69094622,-0.37456742,0.64938468,0.80753917,-0.28220066,0.5179221,0
1.4808745,1.3766979,-1.4944574,0.58732754,0.46529007,-0.66223228,0
-0.83583528,-1.8723694,1.7182734,-0.58732754,-0.46529007,0.66223228,0
1.5279003,1.1135862,-1.6376152,0.58732754,0.46529007,-0.66223228,0
-1.5048895,-1.4064212,1.4522747,-0.58732754,-0.46529007,0.66223228,0
-0.43787193,0.89143157,0.13512263,-0.47787923,0.85973716,0.1802322,0
0.12758708,-0.62227917,1.3524535,0.77966344,-0.10569403,0.61721456,0
-1.389985,-0.087166905,0.20085919,-0.80856025,0.37344688,-0.4547174,0
-1.4259787,-0.81246459,1.9395791,-0.58732754,-0.46529007,0.66223228,0
-1.5023313,-1.1193278,0.32252944,-0.55276251,-0.36706457,-0.74814254,0
-1.8246813,-1.5513253,1.0668437,-0.58732754,-0.46529007,0.66223228,0
2.0564775,0.44901717,-1.6357569,0.58732754,0.46529007,-0.66223228,0
2.1378162,0.46140325,-1.3884152,0.73425722,-0.65051788,0.19414639,0
-2.0410953,-1.3872217,0.9902088,-0.58732754,-0.46529007,0.66223228,0
-0.53754532,-0.60855472,-0.61445433,-0.42480302,-0.51923853,-0.7415753,0
-1.0350338,-0.37130034,-0.32852578,-0.70430636,-0.10929281,-0.70143259,0
-0.66700721,0.5013265,-0.60093004,-0.80765212,0.38990545,-0.44234812,0
1.7494417,1.046044,-1.4885881,0.58732754,0.46529007,-0.66223228,0
1.1385794,0.86070836,-2.1605744,0.58732754,0.46529007,-0.66223228,0
1.8404934,1.0137789,-0.58034992,0.70283979,0.11251229,0.70239401,0
-1.0662599,-0.69122922,2.3437915,-0.58732754,-0.46529007,0.66223228,0
-1.4124111,-0.4473983,2.2081108,-0.58732754,-0.46529007,0.66223228,0
-1.8621616,-0.19986093,1.4332937,-0.60770905,0.79393595,0.018854797,0
-0.095350027,0.43855035,-1.3960596,-0.72529823,-0.060504407,-0.68577099,0
1.0628932,1.8570459,-0.9469741,-0.17956781,0.87274885,0.45394385,0
2.0710993,0.56837714,-1.5389255,0.58732754,0.46529007,-0.66223228,0
1.5557783,0.51769483,-2.031569,0.58732754,0.46529007,-0.66223228,0
2.1546612,0.82511866,-1.2844267,0.58732754,0.46529007,-0.66223228,0
1.9133196,0.56918931,-1.6782886,0.58732754,0.46529007,-0.66223228,0
-1.4561777,-0.91131473,0.19862604,-0.62756693,-0.25487638,-0.73566151,0
0.9948945,1.7331107,-0.74372107,-0.11118662,0.85685587,0.50342393,0
0.60162365,1.5230149,-0.48915669,-0.21237063,0.87815583,0.42865032,0
-1.6283596,-0.93126976,1.676616,-0.58732754,-0.46529007,0.66223228,0
1.260821,1.6372309,-1.5065681,0.58732754,0.46529007,-0.66223228,0
1.4258567,0.48511696,-2.1696846,0.58732754,0.46529007,-0.66223228,0
0.68298197,-0.54507983,-0.87408495,0.25637007,-0.8830483,-0.39306509,0
-0.83377039,0.58582652,-0.0288831,-0.71748561,0.67794913,-0.1599983,0
0.30474502,1.3731263,-1.5807936,-0.79046792,0.5054816,-0.34590286,0
-1.1369776,-1.6809965,0.65432453,-0.030896544,-0.8047418,-0.59282041,0
0.77874005,-0.36235255,-1.1959902,0.14395666,-0.86523789,-0.48024979,0
1.6531361,1.2402923,-1.4375199,0.58732754,0.46529007,-0.66223228,0
-0.70011288,-0.11844015,-0.70414048,-0.70011288,-0.11844015,-0.70414048,0
0.68113953,1.5429795,-2.0869038,0.58732754,0.46529007,-0.66223228,0
1.3674948,0.48586762,-2.2209177,0.58732754,0.46529007,-0.66223228,0
-1.4725347,-0.84622192,0.1927017,-0.65837419,-0.20123121,-0.72529262,0
-0.80818582,-1.0965697,2.287879,-0.58732754,-0.46529007,0.66223228,0
1.3406794,1.6452103,-1.4301358,0.58732754,0.46529007,-0.66223228,0
-1.076216,-1.8499827,0.92868072,0.1617955,-0.86921096,-0.46722025,0
1.6573021,0.092011452,-1.5857122,0.44370657,-0.86941779,-0.21734115,0
1.1968312,0.82830417,-2.1316788,0.58732754,0.46529007,-0.66223228,0
-2.003897,-0.32347751,1.3851377,-0.68550068,0.72097647,-0.10139978,0
-1.4028513,-0.7762394,1.9855427,-0.58732754,-0.46529007,0.66223228,0
-0.65108788,-1.5499249,0.52010173,0.19935918,-0.87618744,-0.43880701,0
2.2250404,0.5753746,-1.3974804,0.58732754,0.46529007,-0.66223228,0
-0.40261185,-1.3990492,0.33645979,0.24946451,-0.88246405,-0.39877909,0
-1.9741579,-1.1853899,1.1913836,-0.58732754,-0.46529007,0.66223228,0
-1.7472441,-1.3672278,1.2648705,-0.58732754,-0.46529007,0.66223228,0
-1.8105211,-0.58580732,1.7577835,-0.58732754,-0.46529007,0.66223228,0
1.6235988,1.8477043,-1.0369436,0.58732754,0.46529007,-0.66223228,0
-1.0426002,0.41949394,0.202824,-0.71870208,0.67609119,-0.16238248,0
-1.426493,0.1253612,1.1566896,-0.51878625,0.84446061,0.13321871,0
-0.95370114,-1.4855571,1.8855169,-0.58732754,-0.46529007,0.66223228,0
1.1674112,0.34521639,-2.1870804,-0.1802901,-0.72245377,-0.66749984,0
0.22574711,1.2512228,-1.5660167,-0.80315435,0.43611103,-0.40589458,0
1.9963191,0.64309084,-1.5527532,0.58732754,0.46529007,-0.66223228,0
0.024806827,1.2892957,-0.59406137,-0.56714469,0.82034254,0.073384583,0
-1.3808677,-0.099907398,1.8479803,-0.15846312,0.86850071,0.46967661,0
-1.843555,-1.4316678,1.1341772,-0.58732754,-0.46529007,0.66223228,0
-1.634248,-1.6955158,1.1344278,-0.58732754,-0.46529007,0.66223228,0
-0.19635719,1.1151767,-0.59453636,-0.66461921,0.74421215,-0.066554666,0
1.5721951,1.0711905,-0.35496855,0.59906435,0.30026096,0.74227035,0
0.88802254,-0.47791111,0.15081429,0.77095717,-0.57065207,0.28280956,0
1.3462437,0.018951178,-0.18129838,0.80615771,-0.40891346,0.42766756,0
-0.58150631,-0.90906799,-0.34768638,-0.26771742,-0.66047949,-0.70149451,0
-0.47559375,-1.6514297,1.2916962,0.64216453,-0.7659241,0.031384766,0
2.0041664,0.52767622,-0.93542516,0.80478871,-0.42248946,0.41691476,0
-1.5004555,-1.9385785,1.082309,-0.58732754,-0.46529007,0.66223228,0
-1.3522533,-1.1702476,1.7535841,-0.58732754,-0.46529007,0.66223228,0
-1.8058183,-1.6996033,0.97939163,-0.58732754,-0.46529007,0.66223228,0
1.5166004,1.3237553,-1.4999703,0.58732754,0.46529007,-0.66223228,0
-1.704983,-0.97619176,1.5770966,-0.58732754,-0.46529007,0.66223228,0
-0.56653285,0.15576154,1.4821966,0.16282487,0.7335701,0.6598205,0
-0.51126027,-1.5651171,1.7684519,0.7806468,-0.54164821,0.31178164,0
1.6531237,1.5959449,-1.1876465,0.58732754,0.46529007,-0.66223228,0
0.90959162,1.3371642,-2.0288997,0.58732754,0.46529007,-0.66223228,0
0.81501555,0.96371663,-2.3751655,0.58732754,0.46529007,-0.66223228,0
-2.1055617,-1.2233672,1.0481598,-0.58732754,-0.46529007,0.66223228,0
1.3614756,1.1294504,-1.7740692,0.58732754,0.46529007,-0.66223228,0
1.2068444,1.9713717,-1.3196691,0.58732754,0.46529007,-0.66223228,0
2.0083404,0.75717878,-1.4619324,0.58732754,0.46529007,-0.66223228,0
-0.57499397,-1.0652945,2.155247,0.75275087,-0.01343435,0.65816849,0
0.33493966,-0.83993077,0.89546168,0.79722267,-0.47370291,0.37422144,0
0.91516972,0.48245335,-2.2090049,-0.39155138,-0.5527516,-0.73563123,0
1.4738872,1.6388972,-1.3164308,0.58732754,0.46529007,-0.66223228,0
-0.86710131,-1.1047072,2.2299099,-0.58732754,-0.46529007,0.66223228,0
-0.88228452,-1.9684415,1.5591061,0.56640387,-0.820768,-0.074340403,0
0.9879967,1.4942607,-1.8489854,0.58732754,0.46529007,-0.66223228,0
-0.18482208,0.58278072,0.90329152,0.071004748,0.7854507,0.61483788,0
0.4925257,0.92014819,-2.0601749,-0.73012805,-0.048457235,-0.68159014,0
2.011786,1.1168571,-1.2061634,0.58732754,0.46529007,-0.66223228,0
-2.1254075,-0.67162335,1.4182184,-0.58732754,-0.46529007,0.66223228,0
-1.691483,-1.5412922,1.1920254,-0.58732754,-0.46529007,0.66223228,0
0.4649491,-0.87828946,0.44356486,0.71710348,-0.6785289,0.15925193,0
1.0592182,-0.41020149,-0.77898419,0.5029521,-0.85088402,-0.15177488,0
0.20692599,0.65774131,-1.734879,-0.71897626,-0.075773001,-0.69089198,0
-0.88602769,-1.676522,1.8113624,-0.58732754,-0.46529007,0.66223228,0
-1.1261706,-1.0285302,2.0536664,-0.58732754,-0.46529007,0.66223228,0
1.853889,0.78958571,-1.5761447,0.58732754,0.46529007,-0.66223228,0
1.8089786,1.0375003,-1.4417882,0.58732754,0.46529007,-0.66223228,0
-0.88712448,-0.61093938,-0.38126493,-0.56244361,-0.3537221,-0.74735391,0
1.3200109,0.15789032,-0.042714477,0.80490673,-0.25018311,0.53808337,0
1.9098294,1.3645381,-1.122565,0.58732754,0.46529007,-0.66223228,0
1.4372272,1.1215255,-0.27669442,0.52734309,0.40070114,0.74923158,0
1.46803,1.0799013,-1.7143809,0.58732754,0.46529007,-0.66223228,0
-0.79025167,-1.0800946,2.3153601,-0.58732754,-0.46529007,0.66223228,0
-1.6272308,-0.41680014,2.0390878,-0.58732754,-0.46529007,0.66223228,0
2.092886,0.83697605,-1.3308835,0.58732754,0.46529007,-0.66223228,0
0.50722063,0.83829689,-2.0654964,-0.7002039,-0.11824358,-0.70408314,0
-1.0102295,-1.7404075,1.6563225,-0.58732754,-0.46529007,0.66223228,0
0.28463688,-0.98516309,0.76442093,0.75299281,-0.61412418,0.23633325,0
1.4118912,1.9357599,-1.1628361,0.58732754,0.46529007,-0.66223228,0
0.86664754,1.6396453,-1.8544604,0.58732754,0.46529007,-0.66223228,0
0.50668311,-0.22639166,0.93505245,0.75745487,-0.027726442,0.65229863,0
-1.6126804,-1.4484255,0.58954763,-0.43125516,-0.51248205,-0.74255043,0
-1.3346651,-1.9909164,1.107651,0.10062325,-0.85385847,-0.51068652,0
1.3497581,0.67658305,-2.1026497,0.58732754,0.46529007,-0.66223228,0
0.22470015,0.089514144,1.1265776,0.56090605,0.35586172,0.74749374,0
-0.28770936,-1.4635267,0.67022407,0.47216809,-0.86154008,-0.18656409,0
-1.9798341,-1.5494245,0.93057567,-0.58732754,-0.46529007,0.66223228,0
0.86012554,-0.47268045,-0.90528542,0.34048694,-0.88434637,-0.31937477,0
2.0638523,0.56188738,-1.5499129,0.58732754,0.46529007,-0.66223228,0
0.8784759,1.9486198,-1.4251877,-0.51139468,0.84754276,0.14193973,0
-0.83567756,-0.24071151,-0.54867584,-0.69503242,-0.12929019,-0.70725811,0
-1.0507165,0.10121572,1.5818894,-0.10065663,0.85386819,0.51066375,0
1.328936,0.31231618,-2.1788044,-0.062274218,-0.78982216,-0.61016625,0
0.34971565,-0.91524726,0.73486173,0.765019,-0.58623743,0.26659262,0
-1.8602905,-0.66159904,1.6603917,-0.58732754,-0.46529007,0.66223228,0
1.9846183,1.5274084,-0.94180125,0.58732754,0.46529007,-0.66223228,0
-0.9979459,-2.0153108,1.4235966,0.45074254,-0.86763716,-0.20985001,0
-0.63609737,-1.6415403,1.9456184,0.78866589,-0.51282042,0.33914822,0
1.9421098,1.2180179,-1.196882,0.58732754,0.46529007,-0.66223228,0
-2.0015206,-1.5473341,0.91281098,-0.58732754,-0.46529007,0.66223228,0
0.39420629,1.5191746,-1.5394776,-0.75570863,0.60819411,-0.24290842,0
-1.6428325,-0.34870505,2.0730948,-0.58732754,-0.46529007,0.66223228,0
-1.0111821,-1.5425949,1.7944624,-0.58732754,-0.46529007,0.66223228,0
2.2152925,0.55943954,-1.4173216,0.58732754,0.46529007,-0.66223228,0
-1.6685402,-0.51964426,1.9301915,-0.58732754,-0.46529007,0.66223228,0
2.1947582,0.87191141,-1.2159879,0.58732754,0.46529007,-0.66223228,0
-0.70898724,-0.72679913,2.2133875,0.59508944,0.30631071,0.74299562,0
-0.38148364,-1.5084343,1.5267826,0.7561698,-0.60716742,0.24403876,0
-0.84555817,-1.0900931,2.2592843,-0.58732754,-0.46529007,0.66223228,0
0.41712156,-0.57492054,0.96682835,0.80639213,-0.26653427,0.52791226,0
1.882727,1.0582101,-1.3618305,0.58732754,0.46529007,-0.66223228,0
0.38004559,1.5305607,-0.74701792,-0.45987117,0.86516565,0.20001742,0
-1.4103994,-0.76204062,1.9888244,-0.58732754,-0.46529007,0.66223228,0
-0.45472905,-1.5454116,0.66918254,0.38473457,-0.88037544,-0.2773419,0
-0.87029731,-1.4472404,1.9864088,-0.58732754,-0.46529007,0.66223228,0
-0.97830731,-1.0346473,2.1805069,-0.58732754,-0.46529007,0.66223228,0
-1.9204919,-1.5601189,0.97569162,-0.58732754,-0.46529007,0.66223228,0
0.74926293,-0.3250255,-1.266796,0.086907387,-0.84975386,-0.51996702,0
-0.16244492,1.1382846,-0.66865695,-0.677549,0.73021102,-0.087859213,0
-0.87962258,0.57607102,0.20397729,-0.65428448,0.75458729,-0.050099134,0
1.4338124,0.71021676,-0.12495673,0.69652569,0.1261268,0.70635974,0
1.4128848,0.88904595,-1.8973852,0.58732754,0.46529007,-0.66223228,0
-0.49846023,-1.2290244,2.0296197,0.79876542,-0.20134202,0.56695276,0
-1.1225466,-0.49599755,-0.21971834,-0.68523383,-0.14955154,-0.7128036,0
-1.098912,-1.1240228,2.0107479,-0.58732754,-0.46529007,0.66223228,0
-1.0192254,-0.73965466,2.3514817,-0.58732754,-0.46529007,0.66223228,0
0.87892163,1.7797647,-1.7451255,0.58732754,0.46529007,-0.66223228,0
1.5332994,1.2492881,-1.5374814,0.58732754,0.46529007,-0.66223228,0
1.6594667,0.35080028,-2.05687,0.58732754,0.46529007,-0.66223228,0
-2.0672557,-1.3910357,0.96432745,-0.58732754,-0.46529007,0.66223228,0
1.6716849,0.20072925,-0.63613355,0.79275393,-0.49557352,0.35489178,0
1.7579217,0.64172947,-1.7651421,0.58732754,0.46529007,-0.66223228,0
1.6234138,1.6217431,-1.1958697,0.58732754,0.46529007,-0.66223228,0
-1.2937738,-1.6465619,1.4707863,-0.58732754,-0.46529007,0.66223228,0
1.2341422,1.6969748,-0.68402505,0.07862556,0.78155613,0.6188603,0
1.2674743,1.6943005,-1.4605694,0.58732754,0.46529007,-0.66223228,0
-1.5588294,-0.30056119,0.33614647,-0.80822563,0.29407886,-0.51018536,0
0.70809948,1.5191143,-2.079761,0.58732754,0.46529007,-0.66223228,0
1.3988221,1.4229227,-1.5347508,0.58732754,0.46529007,-0.66223228,0
-1.3467422,-1.8779993,1.2611992,-0.58732754,-0.46529007,0.66223228,0
0.46537888,0.23749441,-1.7802413,-0.4524771,-0.48964548,-0.74532664,0
-1.457725,-0.64466834,2.0293188,-0.58732754,-0.46529007,0.66223228,0
0.82718945,0.18430579,0.56610692,0.71166652,0.092786789,0.69636303,0
-1.4343765,-1.6878793,1.3170571,-0.58732754,-0.46529007,0.66223228,0
-1.7884942,-0.14587629,1.2036321,-0.6635325,0.74533576,-0.064801395,0
1.4731758,0.40491664,-0.17252266,0.78724152,-0.13849112,0.60089189,0
-1.2785195,-0.7447207,2.1179566,-0.58732754,-0.46529007,0.66223228,0
-0.41375118,-0.3027404,-0.88154763,-0.53116953,-0.39576113,-0.74915433,0
1.8952186,1.4583572,-1.0696049,0.58732754,0.46529007,-0.66223228,0
2.0271025,0.7997508,-0.80882514,0.79470181,-0.17657623,0.58074939,0
-2.0027003,-1.006025,1.2920929,-0.58732754,-0.46529007,0.66223228,0
-0.98038954,-1.9353485,1.54582,-0.58732754,-0.46529007,0.66223228,0
-0.045160651,-0.48892975,-0.94793892,-0.26466691,-0.66282618,-0.70043778,0
-1.6224306,-1.3878834,1.3610536,-0.58732754,-0.46529007,0.66223228,0
-1.6615189,-0.26731968,2.0573516,-0.21511817,0.87854147,0.42648453,0
-0.39186859,0.50925612,1.0146415,-0.0012183189,0.8187353,0.57416987,0
1.3754923,1.1958489,-0.27922601,0.46560824,0.47502458,0.74669993,0
1.30932,-0.15569198,-0.34857702,0.76463437,-0.58720028,0.26557505,0
-0.20890111,-1.2713228,0.1769117,0.27939361,-0.88448822,-0.37365752,0
0.22930354,-0.47386086,1.2461445,0.76438451,-0.049961329,0.64282203,0
1.0427543,1.1882021,-0.094783068,0.32147765,0.61679554,0.7184813,0
-0.2488656,-0.25124812,1.6436727,0.54494405,0.37762016,0.7486248,0
-1.7560117,-1.499602,1.1640873,-0.58732754,-0.46529007,0.66223228,0
1.9451573,1.5585289,-0.95493335,0.58732754,0.46529007,-0.66223228,0
-1.1556993,-0.036633372,1.7880564,-0.051566005,0.83807826,0.54310763,0
0.82246649,0.9979797,-2.3444839,0.58732754,0.46529007,-0.66223228,0
-0.96579969,-0.19059634,1.9652609,0.1838249,0.72015405,0.6690191,0
2.1136823,1.024756,-1.1805034,0.58732754,0.46529007,-0.66223228,0
-1.6998737,-1.5364339,1.1879971,-0.58732754,-0.46529007,0.66223228,0
1.8352619,1.0849547,-1.3851358,0.58732754,0.46529007,-0.66223228,0
1.2989906,-0.24619246,-0.80225462,0.60614341,-0.79507703,-0.021045208,0
1.320428,2.0235009,-1.1823064,0.58732754,0.46529007,-0.66223228,0
-0.033289433,0.11952683,-1.3683619,-0.58669078,-0.31888637,-0.74438274,0
-1.0020064,-1.5005856,1.8321164,-0.58732754,-0.46529007,0.66223228,0
1.656183,1.8220057,-1.0261009,0.58732754,0.46529007,-0.66223228,0
1.6978621,1.6098893,-1.1381707,0.58732754,0.46529007,-0.66223228,0
-0.050996982,-1.2492547,1.1475024,0.7543059,-0.61128116,0.23949528,0
1.7700139,0.47928214,-1.8685544,0.58732754,0.46529007,-0.66223228,0
-0.53865677,-1.5005171,1.9173214,0.80294955,-0.43767574,0.40461355,0
-2.2318747,-0.9784714,1.1082,-0.58732754,-0.46529007,0.66223228,0
-1.0144404,-1.7052362,1.6772995,-0.58732754,-0.46529007,0.66223228,0
0.094535351,-0.39645588,-1.0880654,-0.25293237,-0.67172527,-0.69628334,0
-1.6063833,-0.49345911,2.003716,-0.58732754,-0.46529007,0.66223228,0
0.48973101,1.6608769,-1.3402762,-0.6543808,0.75449371,-0.050250292,0
0.53324771,-0.83798957,-0.11584637,0.53324777,-0.83798963,-0.1158464,0
-1.4881314,-0.30687547,2.1734574,-0.045572639,0.83594209,0.54692221,0
1.8990813,1.0247949,-1.3708037,0.58732754,0.46529007,-0.66223228,0
0.89636374,1.2489178,-0.096666038,0.20826042,0.70379174,0.67919427,0
0.30533552,-0.21150425,-1.3429054,-0.26451105,-0.66294557,-0.7003836,0
-1.7739241,-0.91082633,1.5618796,-0.58732754,-0.46529007,0.66223228,0
-1.1020011,-0.8298291,2.2147112,-0.58732754,-0.46529007,0.66223228,0
0.92288959,1.0917841,-2.1895118,0.58732754,0.46529007,-0.66223228,0
0.76634562,1.2465343,-2.2196202,0.58732754,0.46529007,-0.66223228,0
-1.1411179,-1.0966425,1.9925536,-0.58732754,-0.46529007,0.66223228,0
-1.2304969,-1.915247,1.3381257,-0.58732754,-0.46529007,0.66223228,0
-0.83949214,-0.44812125,-0.48764688,-0.61711359,-0.27194953,-0.73838633,0
1.1055969,1.9639841,-1.4146551,0.58732754,0.46529007,-0.66223228,0
1.6021702,0.83371878,-1.7683831,0.58732754,0.46529007,-0.66223228,0
0.11155592,-1.1230439,0.95758426,0.75242686,-0.61533594,0.23497987,0
1.5702093,1.0252054,-1.6621889,0.58732754,0.46529007,-0.66223228,0
-1.7358463,-0.55450821,1.8460029,-0.58732754,-0.46529007,0.66223228,0
-1.1306477,-1.4825456,1.7307007,-0.58732754,-0.46529007,0.66223228,0
0.81785506,1.8876309,-1.7234972,0.58732754,0.46529007,-0.66223228,0
-1.6668864,-1.1923188,1.4590315,-0.58732754,-0.46529007,0.66223228,0
0.86528206,1.901967,-1.6713618,0.58732754,0.46529007,-0.66223228,0
1.1695105,0.85500681,0.053058982,0.55306655,0.36665031,0.74812108,0
-1.4816573,-0.62347806,2.0229816,-0.58732754,-0.46529007,0.66223228,0
-0.41528326,0.15632744,-1.0323477,-0.71627933,-0.082126379,-0.69296402,0
-1.3835821,-1.0389524,1.8180479,-0.58732754,-0.46529007,0.66223228,0
1.6180959,0.0810045,-0.7148512,0.75975168,-0.59898901,0.25296175,0
-1.0094467,-1.6193419,1.7420785,-0.58732754,-0.46529007,0.66223228,0
-1.1845994,-1.1107056,1.9441093,-0.58732754,-0.46529007,0.66223228,0
0.69551075,1.3848033,-0.2317175,-0.012969851,0.82353377,0.567119,0
0.25527576,1.4140104,-0.53547812,-0.42747283,0.87312639,0.2343446,0
-1.7664181,-0.36660695,1.9509101,-0.58732754,-0.46529007,0.66223228,0
-1.13511,-1.5676121,1.6669747,-0.58732754,-0.46529007,0.66223228,0
0.28731781,1.4869496,-1.2286887,-0.69603866,0.70791912,-0.11991996,0
1.0566559,1.3893547,-1.8618,0.58732754,0.46529007,-0.66223228,0
-0.13875341,0.68746376,0.76061881,0.017082214,0.81091923,0.58490878,0
1.4721698,0.073451281,-0.3715384,0.7997582,-0.45924377,0.38662928,0
1.0970744,1.8262691,-0.87991911,-0.12268603,0.85995573,0.49540323,0
1.0230378,-0.37797639,-0.015988708,0.76721096,-0.58064634,0.27246499,0
1.1840069,0.54953551,-2.3389177,0.58732754,0.46529007,-0.66223228,0
0.88760185,1.6071702,-1.8586934,0.58732754,0.46529007,-0.66223228,0
-1.7030311,-1.368618,1.3031057,-0.58732754,-0.46529007,0.66223228,0
0.37999719,0.84533674,-1.9342015,-0.73439819,-0.037504733,-0.67768186,0
-0.2876417,-0.3828868,-0.91529447,-0.43978548,-0.50341749,-0.743747,0
1.2081302,1.7226179,-1.4933052,0.58732754,0.46529007,-0.66223228,0
-0.054230571,-0.84386218,-0.53814101,-0.014223218,-0.81216782,-0.58325058,0
1.3934001,0.91541076,-1.8961419,0.58732754,0.46529007,-0.66223228,0
1.1902078,-0.30972481,-0.90763205,0.51126146,-0.847597,-0.14209613,0
-1.8396401,-1.6333796,0.84902012,-0.42845941,-0.51542014,-0.74213523,0
0.37652344,1.173985,0.065398693,-0.048746943,0.83707911,0.54490578,0
0.76447368,0.85568488,0.30948967,0.38730139,0.55688298,0.73476464,0
1.2709528,1.342265,-1.7048278,0.58732754,0.46529007,-0.66223228,0
1.8596308,1.439248,-1.1145939,0.58732754,0.46529007,-0.66223228,0
-0.55703402,-0.86850309,2.1200657,0.69705313,0.12500429,0.70603883,0
-1.4154873,-1.3528751,1.5691867,-0.58732754,-0.46529007,0.66223228,0
0.85120052,1.857147,-1.1087855,-0.38120013,0.8808201,0.28078908,0
-1.6018722,-1.1451793,1.5498126,-0.58732754,-0.46529007,0.66223228,0
-2.003346,-1.1793158,1.1697648,-0.58732754,-0.46529007,0.66223228,0
-1.7482238,-0.32391763,1.9970402,-0.58732754,-0.46529007,0.66223228,0
-0.14289474,-1.2151186,1.4384527,0.79794443,-0.46977121,0.37762398,0
-1.5131943,-1.3253756,1.501853,-0.58732754,-0.46529007,0.66223228,0
-2.108418,-1.1056297,0.87067699,-0.74032015,-0.021801531,-0.67190087,0
-0.23074412,-0.45211223,1.7124813,0.63846886,0.23649192,0.73241323,0
1.3017403,0.6346184,-2.174721,0.58732754,0.46529007,-0.66223228,0
-1.5035809,-1.4743459,0.54946792,-0.36829537,-0.57495517,-0.73060608,0
1.7068357,0.88996696,-1.6360359,0.58732754,0.46529007,-0.66223228,0
-1.2696499,-1.47947,0.45230824,-0.25144941,-0.67283565,-0.69574821,0
1.2524779,0.74588275,-2.1402361,0.58732754,0.46529007,-0.66223228,0
1.1633942,1.0818458,-0.075660527,0.43700504,0.50638884,0.74336874,0
1.6611946,0.55989385,-1.9084269,0.58732754,0.46529007,-0.66223228,0
0.54649061,1.0473809,0.21619788,0.15584052,0.73790181,0.6566695,0
2.018872,0.85127759,-1.3864772,0.58732754,0.46529007,-0.66223228,0
-1.7658798,-0.73298335,0.48728251,-0.76689792,0.058425456,-0.63910419,0
1.440587,1.9161199,-1.1511854,0.58732754,0.46529007,-0.66223228,0
0.51300335,0.026358426,-1.6438408,-0.31052953,-0.62605721,-0.71527886,0
-0.89119315,0.56367868,0.17787987,-0.66862774,0.73999846,-0.073070347,0
-1.4259411,-1.4696447,1.4778719,-0.58732754,-0.46529007,0.66223228,0
1.280916,0.7188673,-2.1339962,0.58732754,0.46529007,-0.66223228,0
-0.33847255,-0.20570561,-0.98560911,-0.54885036,-0.3723703,-0.74840081,0
-2.0274544,-0.7089777,0.84483194,-0.80573392,0.2588886,-0.5327003,0
-1.5636377,-1.6312751,1.2421873,-0.58732754,-0.46529007,0.66223228,0
1.7678547,1.1290408,-1.4139434,0.58732754,0.46529007,-0.66223228,0
0.36061069,-0.96441722,0.54588211,0.71208978,-0.68597001,0.14957726,0
-0.90330225,-1.6905183,1.7862079,-0.58732754,-0.46529007,0.66223228,0
0.88283008,-0.422499,-1.0151386,0.29891878,-0.88508254,-0.3567583,0
-1.0257485,-1.0512742,2.1267498,-0.58732754,-0.46529007,0.66223228,0
-0.66665423,-0.1858463,-0.72182655,-0.66665423,-0.1858463,-0.72182655,0
-0.79373688,-1.7170949,1.8647072,-0.58732754,-0.46529007,0.66223228,0
-0.55134767,-1.678373,0.99616539,0.4849593,-0.85739428,-0.17230681,0
-0.53967321,-1.654068,0.91441596,0.45416838,-0.86673117,-0.20617515,0
-1.24406,-0.69759798,2.1816273,-0.58732754,-0.46529007,0.66223228,0
