0.095435023,0.022035003,-2.0772564,0.063278973,-0.26309645,-0.96269202,0
1.0526178,-0.33290744,-0.82479155,0.99261582,-0.083435148,0.0880481,0
0.59392548,0.38816309,-1.9007494,0.48221946,0.85260606,-0.20131388,0
0.71464324,0.3015424,-1.9300168,0.5992288,0.78140378,-0.17416365,0
0.072215825,-1.1156316,-0.29133487,0.03560549,-0.96341604,0.26563472,0
-0.2767123,-0.43756807,2.147891,-0.15204346,-0.95590651,0.25124794,0
-0.3356362,0.92949271,1.8014224,-0.063278973,0.26309645,0.96269202,0
-0.0021226406,-0.665856,1.3477944,0.068905532,-0.96117157,0.26721013,0
-0.43917686,0.62689638,1.8773136,-0.063278973,0.26309645,0.96269202,0
-0.081517816,0.45816493,-2.0414591,-0.19792545,0.9421562,-0.2704941,0
0.64077401,-0.20024753,-1.9806623,0.063278973,-0.26309645,-0.96269202,0
0.91835564,-0.61056954,-0.43209958,0.87819064,-0.44357422,0.17895013,0
-0.17599213,-0.2546978,-2.0194688,0.063278973,-0.26309645,-0.96269202,0
0.19108081,-0.084280849,-2.041914,0.063278973,-0.26309645,-0.96269202,0
0.13781106,0.23157132,-2.1317356,0.063278973,-0.26309645,-0.96269202,0
-0.74827331,0.48822364,-0.60744971,-0.77415359,0.59582675,-0.21372098,0
1.0503025,-0.46245933,-0.96611649,0.97954345,-0.16826326,0.11037171,0
-0.80673939,0.036490917,-1.5342281,-0.89636385,0.4091247,-0.17072982,0
0.22462702,-0.87080777,0.49610764,0.23945192,-0.93244553,0.27056974,0
-0.35435736,-1.2021224,-1.772269,0.063278973,-0.26309645,-0.96269202,0
-0.08497566,-0.85279608,-1.8500302,0.063278973,-0.26309645,-0.96269202,0
1.1148541,-0.38219142,-1.8648465,0.99042416,0.13515449,0.028165162,0
-0.25200763,-0.88963223,-1.8509424,0.063278973,-0.26309645,-0.96269202,0
-0.64953959,-0.32172954,2.0418944,-0.52790654,-0.82744628,0.19143483,0
0.8488735,0.71760064,1.3440319,0.93929738,0.34164339,-0.031627327,0
-0.28976196,1.0926516,1.7598476,-0.063278973,0.26309645,0.96269202,0
0.58197451,-0.98050594,-0.39580119,0.53920871,-0.80269772,0.25481409,0
-0.29460743,-1.321134,-1.7358165,0.063278973,-0.26309645,-0.96269202,0
0.024219349,1.2653251,0.85471541,0.097255826,0.96165961,-0.25642157,0
0.66683877,-1.1988119,-1.706049,0.063278973,-0.26309645,-0.96269202,0
0.0059510469,0.29859543,1.9962946,-0.063278973,0.26309645,0.96269202,0
-0.47748733,-0.028788328,-2.1010256,0.063278973,-0.26309645,-0.96269202,0
-0.24491471,1.0105768,1.785226,-0.063278973,0.26309645,0.96269202,0
0.37698823,0.33332157,2.011193,-0.063278973,0.26309645,0.96269202,0
-0.012501836,1.3130372,1.0210207,0.071606994,0.96333599,-0.2585656,0
-0.092434645,0.56200027,1.9178412,-0.063278973,0.26309645,0.96269202,0
0.84190828,0.34560275,-1.120513,0.77603114,0.61950123,-0.11829548,0
-0.14043808,0.69607103,1.8780453,-0.063278973,0.26309645,0.96269202,0
0.38309318,-0.57482743,1.2822334,0.45010054,-0.85342526,0.26282042,0
0.22895777,-1.1764812,-0.56951141,0.17376077,-0.94698733,0.27022594,0
0.89486969,0.54734725,0.91833353,0.95634204,0.29176188,-0.016874641,0
-0.42448094,1.0982863,1.7494524,-0.063278973,0.26309645,0.96269202,0
1.0261239,-0.44237816,-0.72967619,0.97019947,-0.20986032,0.1211257,0
-0.71175814,0.91386348,0.50784653,-0.66275656,0.71012849,-0.23763663,0
0.35340056,0.72342587,1.90303,-0.063278973,0.26309645,0.96269202,0
-0.058902204,-1.0399904,-1.7971576,0.063278973,-0.26309645,-0.96269202,0
-0.75555032,1.0485772,1.0328821,-0.67214638,0.70180672,-0.23597962,0
0.26256657,0.46750546,1.9670005,-0.063278973,0.26309645,0.96269202,0
-0.15351152,0.90905654,-0.41595495,-0.16310167,0.94892955,-0.27005625,0
0.49435574,-0.26997912,-1.9712296,0.063278973,-0.26309645,-0.96269202,0
0.11583173,1.0365232,0.034168839,0.13470596,0.95804942,-0.25297326,0
0.27934319,-0.71026653,0.9856748,0.32644531,-0.90610397,0.2690891,0
0.67039341,0.13907921,2.083564,-0.063278973,0.26309645,0.96269202,0
0.434946,-0.69662869,-1.8585346,0.063278973,-0.26309645,-0.96269202,0
0.20114627,-1.0562901,-1.7756096,0.063278973,-0.26309645,-0.96269202,0
0.86355966,0.36847329,-0.84099495,0.81500441,0.57035249,-0.10230173,0
-0.98812115,0.39969784,0.36475652,-0.95528984,0.26319432,-0.13472146,0
-0.48426098,0.48587576,-1.3681667,-0.55757904,0.79071176,-0.25274593,0
-0.39715886,-0.65588188,1.1732289,-0.33501703,-0.91425049,0.22783661,0
0.75879455,-0.93424892,-1.7723078,0.063278973,-0.26309645,-0.96269202,0
0.27274942,0.39306927,1.9880127,-0.063278973,0.26309645,0.96269202,0
0.68792021,-0.92848814,-1.7785406,0.063278973,-0.26309645,-0.96269202,0
0.11659443,-0.054215908,-2.0550265,0.063278973,-0.26309645,-0.96269202,0
-0.11066556,0.47367454,1.9407815,-0.063278973,0.26309645,0.96269202,0
-0.33554256,0.41736412,-1.8748015,-0.44145995,0.85773939,-0.26343149,0
-0.69525635,-0.59833699,0.64549136,-0.66311169,-0.73198593,0.15645902,0
-0.044789314,1.0958301,1.7750812,-0.063278973,0.26309645,0.96269202,0
0.10181685,-1.3753407,-1.239235,0.0030198693,-0.96457034,0.26380825,0
1.0036736,0.070125997,-0.13305771,0.99271649,0.11568254,0.033637404,0
0.28874058,0.79587924,1.878979,-0.063278973,0.26309645,0.96269202,0
0.017485976,-0.17875481,-2.0275056,0.063278973,-0.26309645,-0.96269202,0
-0.85886091,-0.50564545,0.081735015,-0.85886091,-0.50564545,0.081735015,0
0.65914983,-0.58349669,-1.8747153,0.063278973,-0.26309645,-0.96269202,0
-0.21400133,-1.3382404,-1.725843,0.063278973,-0.26309645,-0.96269202,0
0.61302805,0.88659686,0.3560726,0.64702511,0.74524641,-0.16114037,0
0.72617197,0.79747123,0.48764181,0.76624715,0.63084978,-0.12204003,0
0.29155231,0.52351975,-1.8091015,0.18889344,0.95034671,-0.24730635,0
0.32504183,-1.4589282,-1.6224982,0.20061162,-0.9415822,0.27051377,0
0.27548271,-0.40300894,-1.9492604,0.063278973,-0.26309645,-0.96269202,0
0.34051591,1.1712344,0.82544506,0.40893626,0.88676137,-0.21546522,0
0.73028672,1.0122194,1.7037858,0.84800589,0.52277565,-0.087130085,0
-0.58632255,0.44240856,-1.2504623,-0.65278524,0.71874189,-0.23933524,0
-0.028964877,0.48774779,-1.9706311,-0.1407758,0.95262706,-0.26959914,0
0.31354785,0.95141679,-0.10981137,0.32144248,0.91859317,-0.22991574,0
-0.089346886,0.45514047,-2.0461364,-0.20605859,0.94039559,-0.27054751,0
0.9430486,-0.056961536,-1.9999526,0.063278973,-0.26309645,-0.96269202,0
0.89583045,0.20999968,1.4285742,0.98276561,-0.15145272,0.1059894,0
-0.60561538,0.89099896,1.7941964,-0.063278973,0.26309645,0.96269202,0
-0.57273531,-0.62552822,-1.9442019,0.063278973,-0.26309645,-0.96269202,0
0.86060172,0.090381801,1.4956183,0.94977075,-0.28035817,0.13904947,0
0.086713433,0.54256725,-1.8075581,-0.014713883,0.96427453,-0.26449609,0
-0.50885236,-0.1435883,2.0833015,-0.063278973,0.26309645,0.96269202,0
0.51725924,-0.86343765,0.10716248,0.50734127,-0.82220137,0.25804961,0
0.43741736,-1.3109605,-1.2291394,0.33896345,-0.90161616,0.2686854,0
0.35274333,-1.4037607,-1.670684,0.063278973,-0.26309645,-0.96269202,0
0.26107943,-0.64132047,-1.8850783,0.063278973,-0.26309645,-0.96269202,0
-0.35678825,-0.98318434,-0.085223138,-0.37691969,-0.89948308,0.22104651,0
-0.96324348,0.65652168,1.8347697,-0.063278973,0.26309645,0.96269202,0
-0.60961533,-0.46669471,1.5252769,-0.5220269,-0.830863,0.1927551,0
0.85807985,0.43287665,-0.52212781,0.83004355,0.54944384,-0.095598973,0
0.78746384,0.46509409,-0.83950722,0.74091244,0.65864164,-0.1313006,0
0.066579252,-1.2176025,-0.66210246,0.0057073832,-0.96451414,0.26396954,0
-0.86932927,-0.25933945,-1.7390585,-0.97610611,0.18460923,-0.11461306,0
-0.3625302,-0.81617522,-1.8782825,0.063278973,-0.26309645,-0.96269202,0
-0.72415459,-0.12991154,2.0654116,-0.063278973,0.26309645,0.96269202,0
0.69778216,0.70131516,-0.14579797,0.69778216,0.70131516,-0.14579797,0
0.27469981,-0.92308283,-1.8071795,0.063278973,-0.26309645,-0.96269202,0
-0.35825825,0.3877672,1.9479847,-0.063278973,0.26309645,0.96269202,0
0.00022947788,-1.4400797,-1.6839294,0.063278973,-0.26309645,-0.96269202,0
0.84524524,-0.07860449,1.2252212,0.91519022,-0.36941656,0.16111541,0
-0.37341297,0.45699358,-1.6807725,-0.46669906,0.84485137,-0.26156825,0
0.98921978,-0.14515221,-1.9728156,0.063278973,-0.26309645,-0.96269202,0
0.25198847,-0.30222833,-1.9783472,0.063278973,-0.26309645,-0.96269202,0
0.28608865,-0.35471284,-1.9617622,0.063278973,-0.26309645,-0.96269202,0
-0.73480237,0.12144911,1.9960167,-0.063278973,0.26309645,0.96269202,0
0.52672827,1.1585131,1.2705758,0.62130773,0.76527774,-0.16830525,0
1.1106598,-0.3844316,-1.731571,0.99432826,0.099243253,0.038236141,0
0.26146039,-1.3849232,-1.3214272,0.15685773,-0.95001405,0.26994216,0
-0.19072843,0.89618862,-0.43584365,-0.20159534,0.94137025,-0.27052045,0
-0.066055536,0.081114173,-2.1040173,0.063278973,-0.26309645,-0.96269202,0
0.87929106,-0.8460629,-0.87223643,0.80854952,-0.55193889,0.20398778,0
-0.63334394,0.091580391,-2.1282163,-0.75893021,0.61373353,-0.21761417,0
-0.44010493,1.4347124,1.6491034,-0.31399649,0.91038847,-0.26944172,0
0.7512691,-0.62456095,-1.8574378,0.063278973,-0.26309645,-0.96269202,0
0.015888035,-0.80719662,0.83427441,0.053208232,-0.96236396,0.26650423,0
-0.66228807,0.49655503,-0.8702628,-0.70438409,0.67157847,-0.22983748,0
0.85264164,-0.68706918,-0.33696395,0.81726158,-0.53996867,0.201289,0
-0.29258534,1.253449,0.88371664,-0.21671134,0.9379859,-0.27058911,0
-0.35464728,-0.18756056,2.1054549,-0.063278973,0.26309645,0.96269202,0
-0.47044444,-0.46131396,1.8441244,-0.36390018,-0.90429562,0.22321755,0
-0.2297956,1.237564,1.7241857,-0.063278973,0.26309645,0.96269202,0
-0.76049095,-0.71363783,-1.9324636,0.063278973,-0.26309645,-0.96269202,0
0.68927747,-0.2404902,-1.9664762,0.063278973,-0.26309645,-0.96269202,0
0.74233401,0.95202827,1.4601973,0.84416389,0.52864784,-0.088987447,0
-0.35606444,-1.1711767,-0.85556519,-0.42625642,-0.87933779,0.21229795,0
0.71441948,0.14856362,-2.0711491,0.063278973,-0.26309645,-0.96269202,0
0.1764991,-1.4535258,-1.6686684,0.063278973,-0.26309645,-0.96269202,0
0.63107497,-0.97817922,-1.768697,0.063278973,-0.26309645,-0.96269202,0
1.0935855,-0.62034738,-1.5917013,0.98191524,-0.15605298,0.10719067,0
0.51066244,0.6789037,1.9255347,-0.063278973,0.26309645,0.96269202,0
0.069839597,-1.0308539,0.015862167,0.053364098,-0.96235329,0.2665115,0
0.3695873,1.200379,1.7737464,-0.063278973,0.26309645,0.96269202,0
-0.36257917,-0.29232144,-2.021451,0.063278973,-0.26309645,-0.96269202,0
0.39994916,-1.1066738,-0.4965983,0.34967139,-0.89763278,0.26830059,0
-0.37671405,-0.90921819,-1.8537869,0.063278973,-0.26309645,-0.96269202,0
0.77088475,-0.57280326,-1.8702934,0.063278973,-0.26309645,-0.96269202,0
-0.12131542,0.81541657,1.8466859,-0.063278973,0.26309645,0.96269202,0
-0.79851913,-0.18856215,2.0765522,-0.063278973,0.26309645,0.96269202,0
-0.4825235,0.75943255,1.8382434,-0.063278973,0.26309645,0.96269202,0
0.3887766,-0.79254353,-1.8353565,0.063278973,-0.26309645,-0.96269202,0
0.54598975,1.1849302,1.7895635,-0.063278973,0.26309645,0.96269202,0
0.66134948,0.57271063,1.9644612,-0.063278973,0.26309645,0.96269202,0
-1.0288179,0.4003312,0.68179154,-0.97649986,0.18280727,-0.11414647,0
0.32924843,0.43644953,-2.1142547,0.2063998,0.94722033,-0.24530119,0
0.95961547,0.15900436,0.64721835,0.99784744,4.61936e-05,0.065577209,0
0.91791606,-0.7150265,-1.8217602,0.063278973,-0.26309645,-0.96269202,0
-0.038049936,0.44501507,-2.1162214,-0.15940517,0.94957644,-0.26998997,0
0.28130031,-1.2315985,-1.7224307,0.063278973,-0.26309645,-0.96269202,0
-0.53793228,-1.1502652,-1.7985076,0.063278973,-0.26309645,-0.96269202,0
-0.5730952,1.2695602,1.3000885,-0.470465,0.84285271,-0.26126963,0
0.35015625,0.61465251,1.9325438,-0.063278973,0.26309645,0.96269202,0
-0.12869322,-0.39416599,2.1767709,-0.063278973,0.26309645,0.96269202,0
0.02509582,0.3892529,1.9727771,-0.063278973,0.26309645,0.96269202,0
-0.60765398,-0.54751301,1.1807127,-0.54240918,-0.81878287,0.18811388,0
-0.19526809,1.0298305,1.7832273,-0.063278973,0.26309645,0.96269202,0
-0.84971637,-0.69461584,-1.1391122,-0.92727083,-0.37216586,0.040759355,0
-0.3832382,-0.5508973,1.6106076,-0.29275995,-0.92708087,0.23412073,0
-0.79644203,-0.5714764,0.23418778,-0.78850079,-0.6044938,0.11337438,0
-0.17937745,1.3384428,1.6999304,-0.063278973,0.26309645,0.96269202,0
0.28027159,-0.75396109,-1.8530328,0.063278973,-0.26309645,-0.96269202,0
-0.81507856,-0.68708378,-0.5806573,-0.85862637,-0.50602442,0.081854045,0
0.40337956,-0.66083741,-1.8703909,0.063278973,-0.26309645,-0.96269202,0
0.50958234,0.52651501,1.9671104,-0.063278973,0.26309645,0.96269202,0
0.41003582,-1.3727949,-1.4052619,0.29993308,-0.91501778,0.26978236,0
0.070834637,-0.1272049,-2.0380871,0.063278973,-0.26309645,-0.96269202,0
0.48004544,0.36172187,2.0102057,-0.063278973,0.26309645,0.96269202,0
-0.84165192,0.91401219,1.772392,-0.063278973,0.26309645,0.96269202,0
-0.093303978,0.50438058,1.933531,-0.063278973,0.26309645,0.96269202,0
-0.9336158,0.16002369,1.9724064,-0.063278973,0.26309645,0.96269202,0
0.65608561,-0.15256691,-1.9926867,0.063278973,-0.26309645,-0.96269202,0
-0.90337944,-0.023204327,2.0244687,-0.063278973,0.26309645,0.96269202,0
0.28294802,0.010170341,-2.0616884,0.063278973,-0.26309645,-0.96269202,0
-0.96212751,0.24020499,-0.12888813,-0.96212751,0.24020499,-0.12888813,0
-0.29972982,0.15056181,2.0166583,-0.063278973,0.26309645,0.96269202,0
0.36969244,-0.15739703,-2.0101917,0.063278973,-0.26309645,-0.96269202,0
0.49938977,-0.46517575,-1.9175529,0.063278973,-0.26309645,-0.96269202,0
-1.0221447,0.11726844,0.30583012,-0.99746877,0.014673054,-0.069574952,0
-0.064929485,-0.43967497,2.1774487,0.060656726,-0.96182805,0.26684731,0
-0.49030483,1.4079798,1.6229882,-0.36603135,0.89128506,-0.26764119,0
-0.89680088,-0.54616416,-1.2401956,-0.97785318,-0.20917132,-0.0071106553,0
0.39964777,-0.0027537346,2.1045294,-0.063278973,0.26309645,0.96269202,0
1.0295987,-0.021855831,-1.2648172,0.9480617,0.31715226,-0.024357975,0
0.514606,1.1909139,1.3732862,0.6160304,0.7692194,-0.16972932,0
0.98935282,-0.44938129,-0.47212106,0.94914901,-0.28222466,0.13951868,0
-1.040657,0.39473736,1.9012249,-0.063278973,0.26309645,0.96269202,0
-0.25030351,-0.0349015,2.0705929,-0.063278973,0.26309645,0.96269202,0
0.98030508,0.19927028,-0.21320206,0.96670943,0.25579748,-0.006364435,0
-0.36337435,0.70761007,-0.87980759,-0.40373501,0.87541831,-0.26578325,0
-0.12252855,-1.201319,-0.66652077,-0.18264127,-0.95138705,0.24800164,0
0.25912338,-0.89475739,-1.8159444,0.063278973,-0.26309645,-0.96269202,0
-0.88114095,-0.58764464,-0.89973921,-0.94220644,-0.33375087,0.029279113,0
-0.92121875,0.45992234,0.082628906,-0.9048394,0.39182138,-0.16655809,0
0.27698159,-0.57498217,1.4424601,0.35417193,-0.89591831,0.26812786,0
0.95816952,-0.60130012,-0.61601764,0.90679538,-0.38770062,0.16556054,0
-0.26798517,-1.2189816,-1.7619839,0.063278973,-0.26309645,-0.96269202,0
0.18827277,1.1670716,0.59127575,0.24296826,0.93966287,-0.24083209,0
-0.076872289,0.84453058,1.8416507,-0.063278973,0.26309645,0.96269202,0
1.0963254,-0.42612863,-1.4344689,0.99745584,-0.015056431,0.069678903,0
1.0846448,-0.29583383,-1.9253631,0.063278973,-0.26309645,-0.96269202,0
-0.29477626,-1.3901629,-1.7169625,0.063278973,-0.26309645,-0.96269202,0
-1.1110647,0.41389966,1.6868504,-0.99696505,-0.060495079,-0.048998952,0
-0.38515392,-1.0938683,-1.8038782,0.063278973,-0.26309645,-0.96269202,0
0.97787714,0.14090148,0.33808517,0.99690282,0.061797976,0.048638761,0
0.83937997,-0.45039532,0.34322917,0.84942937,-0.49217808,0.19034266,0
0.24754381,-0.52973676,1.6319103,0.33714622,-0.90227902,0.26874709,0
-0.98511386,0.99125886,1.7069212,-0.8606838,0.47391298,-0.18609071,0
0.80592752,-1.188732,-1.6996611,0.063278973,-0.26309645,-0.96269202,0
-0.90606928,-0.28154868,-1.4095194,-0.99299383,0.079859674,-0.087095797,0
-0.44222525,0.97842818,0.13231975,-0.41610453,0.86982536,-0.26506782,0
-0.42198414,1.0606807,0.37341237,-0.37988812,0.88565707,-0.26701397,0
0.53005707,0.93030727,1.8581028,-0.063278973,0.26309645,0.96269202,0
0.66627824,-0.7578513,0.085042715,0.65617383,-0.71584016,0.23876488,0
0.67261267,-0.70138812,0.23589575,0.67261267,-0.70138812,0.23589575,0
-0.5113011,0.41157711,1.9314181,-0.063278973,0.26309645,0.96269202,0
0.22799325,0.66814518,-1.3000133,0.1590094,0.95496064,-0.25053161,0
-0.56500447,1.3375021,1.6748396,-0.063278973,0.26309645,0.96269202,0
0.062131584,1.1417305,1.7695651,-0.063278973,0.26309645,0.96269202,0
-0.35688484,0.67599869,1.8693036,-0.063278973,0.26309645,0.96269202,0
0.34640682,-0.5374282,1.4650515,0.42532074,-0.86553001,0.26449972,0
0.74397993,-1.1377574,-1.7176642,0.063278973,-0.26309645,-0.96269202,0
-0.89556998,0.34510207,1.9243267,-0.063278973,0.26309645,0.96269202,0
0.21036273,0.43972158,1.9711623,-0.063278973,0.26309645,0.96269202,0
-0.02099812,1.1623523,0.46121606,0.026533842,0.96472782,-0.26190871,0
-0.47800368,-0.33872223,-2.0163569,0.063278973,-0.26309645,-0.96269202,0
0.48623383,1.0426469,0.62432581,0.53967816,0.82044029,-0.18874638,0
1.0264018,-0.048842311,-1.6275558,0.92233086,0.38385546,-0.044278741,0
0.97409034,0.17512459,-0.77460444,0.9259178,0.37541211,-0.04173544,0
-0.34688401,0.41168082,-1.8739939,-0.45280144,0.85205609,-0.26262379,0
-0.93070108,0.57028913,1.8604755,-0.063278973,0.26309645,0.96269202,0
0.2113204,-0.85655141,-1.8295281,0.063278973,-0.26309645,-0.96269202,0
0.29207343,0.60923982,1.9302051,-0.063278973,0.26309645,0.96269202,0
-0.85585439,0.42457521,1.9052176,-0.063278973,0.26309645,0.96269202,0
0.36224341,0.084615469,-2.0768213,0.063278973,-0.26309645,-0.96269202,0
0.96052539,-0.71291423,-0.89465177,0.89030981,-0.42097685,0.17357105,0
0.35496336,0.57955015,1.9424529,-0.063278973,0.26309645,0.96269202,0
0.59000009,-0.20954704,1.9304039,0.70174557,-0.67415404,0.23036778,0
0.6746549,-0.2334919,-1.9693499,0.063278973,-0.26309645,-0.96269202,0
0.70516282,-0.40473977,0.99450886,0.75618452,-0.61687404,0.21829194,0
0.90969384,-1.0540842,-1.5571351,0.79364455,-0.57158315,0.20837665,0
-0.87491149,-0.63402689,-1.637026,-0.98168838,-0.19007832,-0.012580693,0
0.37630856,-0.23965526,2.1677387,-0.063278973,0.26309645,0.96269202,0
0.20454621,0.49769723,-1.9556921,0.092875898,0.96199155,-0.25680012,0
-0.93324089,0.037551943,-0.715298,-0.97245347,0.20058686,-0.11873955,0
-0.41277426,-0.005412221,-2.1031604,0.063278973,-0.26309645,-0.96269202,0
0.83151072,-0.66917717,-1.8399701,0.063278973,-0.26309645,-0.96269202,0
0.1332283,0.10367036,2.0579324,-0.063278973,0.26309645,0.96269202,0
0.82696116,-0.78504324,-0.50526297,0.7798003,-0.5889616,0.21221608,0
-0.47263002,1.0079176,1.7709846,-0.063278973,0.26309645,0.96269202,0
0.49582231,-0.41404969,1.5655642,0.58231491,-0.77366209,0.24971235,0
-0.1200062,0.10514212,2.0408847,-0.063278973,0.26309645,0.96269202,0
0.97570407,-0.46779817,-0.42046863,0.93839478,-0.31267655,0.14713413,0
-1.0179068,-0.015948117,0.36821392,-0.99166548,-0.12505233,-0.031007648,0
0.56396407,-1.1758969,-0.9818396,0.48231697,-0.83643138,0.26029366,0
-0.18082273,-0.65497363,-1.9103937,0.063278973,-0.26309645,-0.96269202,0
-1.106766,0.49901342,1.6043596,-0.99629182,0.039692134,-0.076335132,0
1.0898807,-0.6671859,-1.6317672,0.97500467,-0.1895631,0.11589456,0
0.83867782,-0.41428432,0.43941301,0.85519063,-0.48293987,0.1881966,0
-0.76175719,0.24202669,1.961292,-0.063278973,0.26309645,0.96269202,0
0.0071201921,-0.5193795,-1.9350969,0.063278973,-0.26309645,-0.96269202,0
-0.93921286,-0.15876436,1.3827698,-0.85385931,-0.51364034,0.084248737,0
0.74867815,-0.22577202,-1.9665941,0.063278973,-0.26309645,-0.96269202,0
0.42037165,0.50656247,-1.7378094,0.32125777,0.91865075,-0.22994357,0
0.45813662,-0.93055546,-1.7930797,0.063278973,-0.26309645,-0.96269202,0
0.40167558,1.3143946,1.7446959,-0.063278973,0.26309645,0.96269202,0
-0.41921777,-1.1435608,-0.88023621,-0.49020004,-0.84843612,0.19964969,0
-0.21751817,1.278396,0.92158008,-0.13922286,0.95286566,-0.2695623,0
-0.67166007,0.8685379,1.7959936,-0.063278973,0.26309645,0.96269202,0
0.92940855,-0.71233737,-1.8217397,0.063278973,-0.26309645,-0.96269202,0
-0.46433607,-1.2072572,-1.7780945,0.063278973,-0.26309645,-0.96269202,0
0.41255701,0.78045875,-0.64445537,0.38463944,0.89653224,-0.21973264,0
-0.53636539,0.05363071,2.0275946,-0.063278973,0.26309645,0.96269202,0
0.29831871,1.1060611,0.48815063,0.34527564,0.91082716,-0.22622672,0
0.9289124,0.41172028,0.7753762,0.97928184,0.20229807,0.0090828836,0
0.51864326,0.13830924,-2.0812151,0.063278973,-0.26309645,-0.96269202,0
0.87363625,0.41839457,-0.46394446,0.84884101,0.5214864,-0.086722866,0
0.31756657,1.3483464,1.7298887,-0.063278973,0.26309645,0.96269202,0
-0.89312208,0.32005119,1.9313338,-0.063278973,0.26309645,0.96269202,0
-0.45726827,-0.93419337,-0.084578305,-0.47614253,-0.85571957,0.20256421,0
-0.89947313,-0.47352338,-0.25756276,-0.91944504,-0.39048535,0.046280354,0
-0.41032445,0.34150839,1.9572046,-0.063278973,0.26309645,0.96269202,0
-0.29623744,1.1865697,0.65548742,-0.23536554,0.93348122,-0.27058423,0
-0.042971313,0.45078647,1.9514862,-0.063278973,0.26309645,0.96269202,0
-0.7572484,1.0679898,1.7358589,-0.063278973,0.26309645,0.96269202,0
0.91673899,-0.14413178,-1.9778589,0.063278973,-0.26309645,-0.96269202,0
0.091387868,-0.23885548,-2.0062227,0.063278973,-0.26309645,-0.96269202,0
0.48091254,-1.2440093,-1.0657336,0.39335343,-0.87996268,0.26634288,0
0.90349197,0.38162398,1.500275,0.9976216,-0.0097411871,0.068237185,0
0.98496789,-0.42237389,-1.8973327,0.063278973,-0.26309645,-0.96269202,0
0.88264698,0.58965373,0.97769994,0.94848919,0.31590015,-0.023987651,0
-0.039193809,-1.0192163,0.058632374,-0.052433491,-0.96416938,0.26005369,0
0.35894603,-0.67827922,0.98312944,0.40610689,-0.87436092,0.26565027,0
0.84082389,-0.63629556,-0.15278006,0.81755662,-0.53955662,0.20119584,0
-0.10948858,1.1600373,0.45868284,-0.061795175,0.96174139,-0.26689851,0
0.55710602,0.13711953,2.076653,-0.063278973,0.26309645,0.96269202,0
0.063707948,-0.27284551,2.1562617,-0.063278973,0.26309645,0.96269202,0
-0.40115094,0.20355999,1.9955078,-0.063278973,0.26309645,0.96269202,0
0.25442851,0.52481532,-1.829429,0.15070152,0.95608312,-0.25138444,0
1.015144,-0.62497675,-1.0060611,0.93938684,-0.30999944,0.14646763,0
-0.12631524,0.39350784,1.9616618,-0.063278973,0.26309645,0.96269202,0
-0.86888683,-0.18760073,1.7685503,-0.76079404,-0.63702065,0.12408491,0
-0.15407528,1.2920302,0.94492835,-0.07438463,0.96069884,-0.26744109,0
-0.72812372,-0.56026459,-1.9722518,0.063278973,-0.26309645,-0.96269202,0
-1.014755,-0.056876004,0.60062057,-0.97504991,-0.22195888,-0.003431648,0
0.07618171,-0.33739269,-1.980293,0.063278973,-0.26309645,-0.96269202,0
-0.99463218,-0.047810316,1.4289258,-0.90439773,-0.42297962,0.05614984,0
-0.43563539,0.72858,1.8497571,-0.063278973,0.26309645,0.96269202,0
-0.070828855,1.0413002,1.7882723,-0.063278973,0.26309645,0.96269202,0
0.94639772,-0.58874869,-1.854399,0.063278973,-0.26309645,-0.96269202,0
-0.47977602,0.83751291,-0.26151103,-0.47984236,0.8377887,-0.26050198,0
-0.46436837,1.2496147,1.7054735,-0.063278973,0.26309645,0.96269202,0
-0.31267646,1.025988,1.7765601,-0.063278973,0.26309645,0.96269202,0
0.69065785,-1.0423743,-1.7472367,0.063278973,-0.26309645,-0.96269202,0
0.59422094,-1.3535907,-1.6092137,0.47127596,-0.84241974,0.26120454,0
0.95680684,0.26743674,-0.31308424,0.93835545,0.34415251,-0.032374948,0
-0.94788289,-0.27868313,-0.7745024,-0.99590826,-0.079006881,-0.04387033,0
0.05572021,1.0966657,1.7814596,-0.063278973,0.26309645,0.96269202,0
-0.8446058,0.1277591,1.9870747,-0.063278973,0.26309645,0.96269202,0
-0.23734534,-0.82114059,0.70611382,-0.2070505,-0.94709802,0.24522507,0
-0.34529841,0.046386719,2.0421333,-0.063278973,0.26309645,0.96269202,0
0.1817053,1.0480516,0.1232768,0.20593601,0.94730723,-0.24535543,0
-1.0390632,0.47584832,0.89178407,-0.97265452,0.19973946,-0.11852115,0
-0.95900005,0.72358727,0.91282439,-0.88750577,0.42633379,-0.17485076,0
0.94662845,0.098928571,-1.669769,0.84276569,0.53076118,-0.089656934,0
-0.54699337,-0.21817601,2.1011786,-0.063278973,0.26309645,0.96269202,0
-0.85559964,-0.71893293,-1.766608,-0.97176135,-0.23596486,0.00061225891,0
0.15490282,-0.89214456,0.47448826,0.16833466,-0.94799042,0.27014345,0
-0.46911693,-1.2348207,-1.7708759,0.063278973,-0.26309645,-0.96269202,0
0.73736656,-0.46507287,-1.9019384,0.063278973,-0.26309645,-0.96269202,0
-1.0553122,0.11702371,1.0933688,-0.98253226,-0.18557543,-0.013866782,0
-0.8824451,-0.58974719,-1.6405402,-0.98866874,-0.14809889,-0.024512172,0
0.81848252,0.21192718,-1.9220759,0.70164418,0.69770926,-0.14455867,0
-0.89976448,-0.50362951,-0.54443526,-0.93771231,-0.34585309,0.032881945,0
-0.76567751,0.45557326,-0.63311356,-0.79359508,0.57164675,-0.20839083,0
-0.79823291,-0.88801426,-1.7442541,-0.91607749,-0.39804924,0.048568904,0
1.0018423,-0.01453054,0.0047713518,0.99787939,0.0019459128,0.065060079,0
-0.61120117,0.77176321,-0.18629527,-0.60725391,0.75535136,-0.24634737,0
0.61304224,0.96469426,0.72036755,0.67053157,0.72566921,-0.15424499,0
-0.89748698,0.097947769,-0.8630687,-0.94483912,0.2948249,-0.14267892,0
-0.16432488,0.43025005,-2.064091,-0.28224444,0.9205271,-0.27012533,0
1.0338086,-0.056648254,-1.5254965,0.93579537,0.35086346,-0.034377277,0
-0.15426584,1.2355204,0.74233031,-0.087857246,0.9594115,-0.26797485,0
-0.069781065,0.18972707,2.0210695,-0.063278973,0.26309645,0.96269202,0
0.65090847,-0.11512899,2.0000658,0.76822567,-0.60290158,0.21526492,0
0.70463854,0.78711945,0.3089245,0.73374045,0.66612172,-0.13381629,0
0.59140712,-0.71174705,-1.8441184,0.063278973,-0.26309645,-0.96269202,0
-0.88840443,-0.043986827,-1.208401,-0.95919299,0.25033227,-0.13146293,0
-0.055171371,-0.57688046,-1.9234769,0.063278973,-0.26309645,-0.96269202,0
-1.1151984,0.53505874,1.7331612,-0.99624389,0.040479034,-0.076547086,0
0.044728756,-0.67679751,1.2928314,0.11203891,-0.95665449,0.26881093,0
-0.030959249,-0.66763091,-1.8970839,0.063278973,-0.26309645,-0.96269202,0
0.31854022,-0.83959544,-1.8271143,0.063278973,-0.26309645,-0.96269202,0
0.080713749,-0.77173162,-1.8612936,0.063278973,-0.26309645,-0.96269202,0
-0.030068696,-0.27866018,-2.0033281,0.063278973,-0.26309645,-0.96269202,0
0.28600746,1.1943682,0.82513964,0.3550126,0.90746373,-0.22466752,0
0.010190904,1.2334695,0.73088539,0.075209618,0.96313936,-0.25827503,0
0.25731298,-1.2089177,-1.7302059,0.063278973,-0.26309645,-0.96269202,0
0.94086063,0.070480227,-1.8854702,0.82340729,0.55881923,-0.098597392,0
0.29382467,0.18296003,2.0468192,-0.063278973,0.26309645,0.96269202,0
-0.16919577,-0.85257351,0.6338833,-0.14409739,-0.95692593,0.25204897,0
1.0111713,0.019757032,-1.3494394,0.92524612,0.37701115,-0.042216688,0
0.17373991,0.40835047,-2.1776862,0.063278973,-0.26309645,-0.96269202,0
-0.89727223,-0.46913964,-1.5723369,-0.99727368,-0.053361267,-0.050968826,0
-0.61923712,1.194237,1.7104282,-0.063278973,0.26309645,0.96269202,0
-1.0207455,-0.019652724,1.0653806,-0.95208442,-0.30512691,0.020807117,0
-0.87905318,0.44549942,1.8979745,-0.063278973,0.26309645,0.96269202,0
0.93391049,0.38856772,0.39237598,0.96054274,0.27783805,-0.012793303,0
-0.99933529,0.083756804,1.9889297,-0.063278973,0.26309645,0.96269202,0
0.2447139,0.90627384,-0.36924815,0.23632812,0.94113946,-0.24167216,0
0.30488956,-0.11367333,2.1286144,-0.063278973,0.26309645,0.96269202,0
0.85249841,0.29779124,1.9430592,0.9724102,-0.2007688,0.11878639,0
0.58233815,-0.23875988,1.8676496,0.68980509,-0.68557805,0.232705,0
0.42030534,-1.1204469,-1.7436706,0.063278973,-0.26309645,-0.96269202,0
-0.050889611,0.35094655,-2.1767633,0.063278973,-0.26309645,-0.96269202,0
-0.48386747,0.98795414,0.23185104,-0.45135808,0.85278898,-0.26272923,0
-0.75594938,-0.884094,-1.1861364,-0.83989847,-0.53505701,0.091019392,0
-0.60433602,-0.89501745,-0.36047792,-0.63877642,-0.75182366,0.1634801,0
-0.63950145,0.27958834,1.9590627,-0.063278973,0.26309645,0.96269202,0
-0.24350685,0.61877882,1.8923938,-0.063278973,0.26309645,0.96269202,0
-0.071774811,1.1359409,1.7623456,-0.063278973,0.26309645,0.96269202,0
0.88629574,-0.1171487,0.89465648,0.93529725,-0.32088363,0.14917338,0
-0.56326354,-0.24224854,-2.048327,0.063278973,-0.26309645,-0.96269202,0
-0.15267098,-1.4336154,-1.6957464,0.063278973,-0.26309645,-0.96269202,0
-0.74410164,0.95692515,1.7670763,-0.063278973,0.26309645,0.96269202,0
0.40251586,-1.23467,-1.7136235,0.063278973,-0.26309645,-0.96269202,0
-0.83473045,1.179373,1.653591,-0.71101958,0.66501713,-0.22848034,0
-0.9290297,-0.24096513,-1.10014,-0.99633992,0.038891941,-0.076119602,0
-0.65870821,0.02651906,-2.1280527,0.063278973,-0.26309645,-0.96269202,0
0.21006149,-0.55807316,-1.9111825,0.063278973,-0.26309645,-0.96269202,0
-0.055670448,-1.3375514,-1.1424959,-0.14731449,-0.9565208,0.25172675,0
0.91829538,-0.14308619,-1.9780421,0.063278973,-0.26309645,-0.96269202,0
-0.70858979,-0.038751721,2.0415215,-0.063278973,0.26309645,0.96269202,0
0.55948502,-0.30693734,-1.9568481,0.063278973,-0.26309645,-0.96269202,0
-0.65185738,-0.36061728,-2.021801,0.063278973,-0.26309645,-0.96269202,0
0.1423074,-0.039703369,2.097712,-0.063278973,0.26309645,0.96269202,0
0.42812473,-0.5630216,1.2390256,0.49251616,-0.83074325,0.25940955,0
0.0066311359,0.72179234,1.8806829,-0.063278973,0.26309645,0.96269202,0
-0.25855213,-0.58247578,-1.9353161,0.063278973,-0.26309645,-0.96269202,0
-0.24652421,0.55073428,1.9107914,-0.063278973,0.26309645,0.96269202,0
-0.7878921,-0.46929008,0.81601024,-0.74284029,-0.65660304,0.13061674,0
0.34175935,1.2098747,0.98721993,0.42067301,0.88177329,-0.2133306,0
-0.165555,0.039425611,-2.0991645,0.063278973,-0.26309645,-0.96269202,0
-0.97205085,0.35461187,1.9167004,-0.063278973,0.26309645,0.96269202,0
-0.73870146,1.0232587,1.7493029,-0.063278973,0.26309645,0.96269202,0
0.10981607,0.38292587,-2.1749399,0.063278973,-0.26309645,-0.96269202,0
0.410669,1.0694923,0.5474149,0.46017748,0.86364973,-0.20578086,0
-0.89621544,-0.54841661,-1.0484451,-0.96562636,-0.25982493,0.0075363219,0
0.27098805,-1.4078583,-1.4077065,0.16070926,-0.94934976,0.27001369,0
0.20786679,-0.16120005,2.1352255,-0.063278973,0.26309645,0.96269202,0
0.59953344,0.44340265,-1.6518162,0.50388902,0.84106535,-0.19673552,0
0.062762499,0.5176788,-1.8952957,-0.044328213,0.96293235,-0.26607585,0
-0.37912774,-0.95640576,-1.8410497,0.063278973,-0.26309645,-0.96269202,0
-0.69788146,-0.3260566,1.8769431,-0.58617538,-0.79049951,0.17750746,0
-0.72514319,-0.21376002,2.0882618,-0.063278973,0.26309645,0.96269202,0
-0.8289392,0.20317265,-1.0160972,-0.8841362,0.43266651,-0.17635989,0
-0.75666344,-0.67686331,-1.9422623,0.063278973,-0.26309645,-0.96269202,0
0.16820168,-0.81852925,-1.8427534,0.063278973,-0.26309645,-0.96269202,0
0.35404563,0.75433207,1.894626,-0.063278973,0.26309645,0.96269202,0
0.27423739,0.3855598,-2.1648519,0.063278973,-0.26309645,-0.96269202,0
0.22256923,-0.99817395,0.057128668,0.20854008,-0.93984485,0.27056003,0
-0.16158408,0.65111101,1.8889426,-0.063278973,0.26309645,0.96269202,0
-0.36774278,-0.92189455,-1.8497328,0.063278973,-0.26309645,-0.96269202,0
-0.20677854,-1.4136739,-1.5878488,-0.32621491,-0.91709054,0.22919136,0
-0.27002573,0.72956038,-0.93166459,-0.31355372,0.91053772,-0.26945329,0
0.71241808,-0.77380574,-0.094261467,0.69094038,-0.68450779,0.2324872,0
-0.36671519,-1.1550086,-0.8101477,-0.43382859,-0.87596941,0.21087971,0
1.0583495,-0.17094064,-0.9259097,0.99486095,0.093026996,0.039969921,0
-0.81305063,-0.40505111,0.99433696,-0.75596523,-0.64239621,0.12587141,0
0.61815804,-0.89593709,-1.7920222,0.063278973,-0.26309645,-0.96269202,0
-0.2807855,-0.80181348,-1.8768344,0.063278973,-0.26309645,-0.96269202,0
0.48596761,-1.1016988,-1.7444782,0.063278973,-0.26309645,-0.96269202,0
1.0091962,-0.06464839,-0.10910398,0.99743229,-0.015737891,0.069863617,0
0.38021687,0.84805655,1.8707322,-0.063278973,0.26309645,0.96269202,0
0.085443974,-0.65324664,-1.8933637,0.063278973,-0.26309645,-0.96269202,0
0.3167637,1.138694,0.64979762,0.37403721,0.90056628,-0.22153196,0
-0.89923352,0.48900023,0.037546217,-0.88520443,0.43067116,-0.17588484,0
-0.88810039,1.0309457,1.4123884,-0.78134048,0.58706725,-0.2117995,0
-0.39754277,0.55246472,-1.3293498,-0.46773481,0.84430367,-0.26148671,0
-0.48784554,-0.34589326,-2.0150442,0.063278973,-0.26309645,-0.96269202,0
0.37059218,0.45823777,1.976634,-0.063278973,0.26309645,0.96269202,0
-0.72208273,0.18754596,-1.5326664,-0.80943626,0.55073768,-0.20371777,0
-0.881006,-0.59589177,-0.99501336,-0.94801325,-0.31729385,0.024399817,0
0.96851301,0.078723773,0.50042707,0.99643058,-0.03734982,0.075704098,0
0.52076268,-1.1921643,-1.7174675,0.063278973,-0.26309645,-0.96269202,0
-0.62913692,0.73829341,-0.24312401,-0.62913692,0.73829341,-0.24312401,0
0.96102583,0.27618402,-0.012309492,0.96102595,0.27618408,-0.012309521,0
0.97894824,-0.93340838,-1.7580663,0.063278973,-0.26309645,-0.96269202,0
-0.6752364,0.80246103,1.8138168,-0.063278973,0.26309645,0.96269202,0
-0.62752753,0.11102676,-2.0932901,-0.75068569,0.62308455,-0.21962798,0
0.47585982,-0.43798208,-1.9265313,0.063278973,-0.26309645,-0.96269202,0
0.87601167,0.31960338,1.7676631,0.98550761,-0.13565043,0.10185099,0
0.25597334,-1.0382748,-1.7769294,0.063278973,-0.26309645,-0.96269202,0
-0.0051625073,1.0315371,1.7952569,-0.063278973,0.26309645,0.96269202,0
0.86783469,-0.177665,0.86975992,0.91438603,-0.37121251,0.16155332,0
0.22110742,0.74953645,-0.99378526,0.1721611,0.95304167,-0.24914271,0
0.96525562,0.22953057,-0.47071725,0.93653667,0.34893626,-0.033801883,0
-1.0106845,0.92804265,1.6737227,-0.88922685,0.42305526,-0.17406785,0
-0.44951159,-0.4856385,-1.974333,0.063278973,-0.26309645,-0.96269202,0
-0.60069132,-0.7050606,-1.9243039,0.063278973,-0.26309645,-0.96269202,0
-0.50235963,-1.2352505,-1.5297908,-0.61410517,-0.77064347,0.17024511,0
0.96879166,0.24823359,0.028745592,0.97079629,0.23989913,-0.0017509162,0
1.1228701,-0.51557159,-1.8365799,0.99790937,0.003980875,0.064505935,0
0.1901834,-0.936939,-1.808948,0.063278973,-0.26309645,-0.96269202,0
-1.0425153,0.22937667,0.62561154,-0.99641085,0.03768754,-0.075795174,0
-0.95008254,-0.034998577,-0.67082965,-0.98772663,0.12151489,-0.098133683,0
-0.34982604,-1.3275018,-1.7377058,0.063278973,-0.26309645,-0.96269202,0
0.37093279,0.72718799,1.9031544,-0.063278973,0.26309645,0.96269202,0
-0.087463856,0.60733718,-1.5159588,-0.16935188,0.94780463,-0.2701596,0
0.83199716,-0.33233386,0.67916936,0.8645066,-0.46749887,0.18458909,0
-0.79288828,-0.91346413,-1.852208,-0.91775423,-0.3943058,0.047435611,0
0.51121777,-0.20273352,2.1665158,-0.063278973,0.26309645,0.96269202,0
0.92628592,-0.34356579,0.15477991,0.92628592,-0.34356579,0.15477991,0
-0.069361567,0.78174126,-0.90908569,-0.11144894,0.95672864,-0.26879239,0
1.0327648,-0.027449965,-1.2040772,0.95482206,0.29661387,-0.018300593,0
-0.80722022,-0.19381821,2.0614665,-0.68163419,-0.71597111,0.15086478,0
-0.79313421,0.93824315,0.82310039,-0.72419626,0.65161812,-0.22568464,0
-0.17622858,0.71815348,1.8696579,-0.063278973,0.26309645,0.96269202,0
-0.69672233,0.34456205,1.9375448,-0.063278973,0.26309645,0.96269202,0
-0.50537717,1.1588646,1.7275794,-0.063278973,0.26309645,0.96269202,0
1.0030262,-0.18770516,-0.13783389,0.98748833,-0.12310272,0.098551989,0
0.51051933,0.22746897,2.0488989,-0.063278973,0.26309645,0.96269202,0
0.95470709,-0.11162888,0.41407567,0.9742505,-0.19288501,0.1167528,0
-0.23205459,-0.32503915,2.1510849,-0.063278973,0.26309645,0.96269202,0
0.71372336,0.53533173,1.9781193,-0.063278973,0.26309645,0.96269202,0
0.45691562,0.72769737,-0.77871281,0.41976333,0.88216633,-0.21349776,0
-0.056310892,-0.15757382,-2.0381451,0.063278973,-0.26309645,-0.96269202,0
-0.7688092,-0.29862297,-2.0464308,0.063278973,-0.26309645,-0.96269202,0
-0.41084617,-0.25360513,-2.0352046,0.063278973,-0.26309645,-0.96269202,0
-0.9183948,0.79395306,1.8001587,-0.063278973,0.26309645,0.96269202,0
0.47636163,0.25534809,-2.1159804,0.063278973,-0.26309645,-0.96269202,0
-0.12602237,-1.0239486,-1.8059537,0.063278973,-0.26309645,-0.96269202,0
-0.24065009,-1.1665854,-1.7745067,0.063278973,-0.26309645,-0.96269202,0
-0.49100292,1.326731,1.3541138,-0.38445869,0.88374937,-0.26679295,0
0.71364856,0.70640826,1.9313605,-0.063278973,0.26309645,0.96269202,0
0.10287702,-0.37510216,-1.9682326,0.063278973,-0.26309645,-0.96269202,0
-0.96347213,0.23541892,-0.1276685,-0.96347213,0.23541892,-0.1276685,0
-0.33942774,-0.61724937,-1.931129,0.063278973,-0.26309645,-0.96269202,0
0.77067947,-0.81208992,-0.38699245,0.73049855,-0.64502883,0.22429812,0
0.86083937,0.37501329,-0.82616234,0.81330752,0.5726378,-0.10303781,0
0.57095844,-0.56262434,0.92652154,0.61574733,-0.74884433,0.24512738,0
-0.20607734,-0.12537885,-2.056788,0.063278973,-0.26309645,-0.96269202,0
-0.93079269,-0.32784182,0.34506869,-0.91150266,-0.40804431,0.051601142,0
0.84963733,-0.53897834,0.067797661,0.84139216,-0.50469702,0.19323575,0
0.074797302,-1.436913,-1.6798935,0.063278973,-0.26309645,-0.96269202,0
-0.51100338,-0.4411726,-1.9905272,0.063278973,-0.26309645,-0.96269202,0
-0.8019048,0.058377385,-1.5064676,-0.88949311,0.42254546,-0.17394614,0
0.32163036,-0.81017208,0.5973686,0.34324488,-0.90003961,0.26853597,0
-0.80354047,-0.6494993,-1.9528219,0.063278973,-0.26309645,-0.96269202,0
0.74265879,0.99319869,1.7134986,0.86060345,0.50281751,-0.080847621,0
0.024338365,0.042650819,-2.0875638,0.063278973,-0.26309645,-0.96269202,0
0.61461431,0.81535691,0.034903944,0.62785399,0.76031005,-0.16651732,0
0.28587508,0.99679053,1.8238831,-0.063278973,0.26309645,0.96269202,0
-0.97742057,-0.16787666,0.76463348,-0.92972153,-0.36619598,0.038966775,0
-0.98259932,0.31182706,1.9276998,-0.063278973,0.26309645,0.96269202,0
0.12508291,-0.78337038,-1.8551962,0.063278973,-0.26309645,-0.96269202,0
-0.26247269,1.0201874,1.7814453,-0.063278973,0.26309645,0.96269202,0
-0.8694784,-0.63852209,-1.8657053,-0.99028254,-0.13625172,-0.027856052,0
0.6421563,-1.1150038,-0.94847488,0.5632425,-0.78690219,0.25207698,0
-0.030922413,0.24985123,2.0071924,-0.063278973,0.26309645,0.96269202,0
-0.026227295,0.61928332,1.906538,-0.063278973,0.26309645,0.96269202,0
0.092112422,-1.2919309,-0.93435174,0.013315856,-0.96431673,0.2644158,0
-0.62632465,1.1731578,1.715723,-0.063278973,0.26309645,0.96269202,0
-0.85832012,1.0006402,1.2203304,-0.76388383,0.60800016,-0.21637291,0
-1.0585518,0.26825976,0.85963076,-0.99747992,0.014339566,-0.069484532,0
-0.8964926,-0.54759222,-1.2404577,-0.97758585,-0.21042904,-0.0067493618,0
-1.0778961,0.24938798,1.2301064,-0.99449217,-0.097382367,-0.038755417,0
-0.11080253,-0.6892941,-1.8964117,0.063278973,-0.26309645,-0.96269202,0
-0.62055624,0.12841284,2.0016232,-0.063278973,0.26309645,0.96269202,0
0.91719985,0.2739259,1.2706807,0.99549508,-0.051604271,0.079538286,0
0.94871509,-0.2073158,-1.9584892,0.063278973,-0.26309645,-0.96269202,0
0.72230542,0.72264361,0.084910408,0.73661667,0.66314149,-0.13281277,0
-0.58269066,-0.82613552,0.030154839,-0.59227431,-0.78628916,0.17595589,0
-0.17321619,1.2939793,1.712487,-0.063278973,0.26309645,0.96269202,0
0.20083535,0.0089216232,-2.0667446,0.063278973,-0.26309645,-0.96269202,0
-0.061954618,0.23673844,2.0087364,-0.063278973,0.26309645,0.96269202,0
-0.097448528,0.37534881,1.9685221,-0.063278973,0.26309645,0.96269202,0
0.75643396,-0.91350222,-1.7781328,0.063278973,-0.26309645,-0.96269202,0
1.0770493,-0.46061623,-1.2231375,0.9905566,-0.10100386,0.09271419,0
-0.15536797,0.47454751,-1.9218183,-0.26391909,0.92587274,-0.27038169,0
0.67363358,-1.2197341,-1.6998844,0.063278973,-0.26309645,-0.96269202,0
0.40195286,0.67362058,-1.0947571,0.34486753,0.91096574,-0.22629148,0
0.56173891,0.19259417,2.0617967,-0.063278973,0.26309645,0.96269202,0
-0.85410923,-0.66847646,-1.9509596,0.063278973,-0.26309645,-0.96269202,0
-0.82433438,0.75095499,0.40111935,-0.78409588,0.58365428,-0.21104795,0
0.75643438,-1.1234699,-1.2588971,0.65801162,-0.71425551,0.23845261,0
-0.83263361,0.23287107,-0.92464215,-0.88175011,0.43708393,-0.1774103,0
0.12223387,-1.2361848,-0.73607969,0.056323171,-0.9621464,0.26664954,0
-0.33605489,-0.82118201,-1.8751739,0.063278973,-0.26309645,-0.96269202,0
0.0076887608,0.6012032,1.9137084,-0.063278973,0.26309645,0.96269202,0
0.59148216,-1.2776321,-1.3597648,0.48500875,-0.8349449,0.26006436,0
0.14232886,-0.063676119,-2.0507498,0.063278973,-0.26309645,-0.96269202,0
0.99047363,-0.83426797,-1.7844031,0.063278973,-0.26309645,-0.96269202,0
0.058212876,0.55568093,-1.7569686,-0.039800346,0.96319264,-0.26584941,0
-1.0264858,0.0033900142,0.5909301,-0.98632061,-0.16360539,-0.020120025,0
0.15791297,0.25287139,2.0187793,-0.063278973,0.26309645,0.96269202,0
-0.32602459,0.68727767,1.8682497,-0.063278973,0.26309645,0.96269202,0
0.33157068,0.067605138,2.080826,-0.063278973,0.26309645,0.96269202,0
-0.41144904,-0.97246397,-1.8387855,0.063278973,-0.26309645,-0.96269202,0
-0.51632577,0.91322815,1.7939903,-0.063278973,0.26309645,0.96269202,0
-0.35696194,-0.89356625,-1.856766,0.063278973,-0.26309645,-0.96269202,0
1.0067228,0.069888771,-0.23238131,0.98969889,0.14066932,0.026610374,0
0.44572484,0.24768233,-2.1158991,0.063278973,-0.26309645,-0.96269202,0
0.41164654,-0.91417688,0.12610143,0.40246043,-0.8759836,0.265854,0
-0.15073359,-0.012925148,2.0711319,-0.063278973,0.26309645,0.96269202,0
0.7208333,-0.1638813,-1.9853387,0.063278973,-0.26309645,-0.96269202,0
-0.11321223,-0.14537871,2.1097968,-0.063278973,0.26309645,0.96269202,0
-0.46897313,-0.84658515,-1.8769684,0.063278973,-0.26309645,-0.96269202,0
-0.68124753,0.52481866,1.8892992,-0.063278973,0.26309645,0.96269202,0
1.0390987,-0.069599628,-0.70141459,0.99105042,0.13017234,0.029567897,0
-0.10559982,0.76607502,-0.94698185,-0.15011138,0.95114183,-0.26980686,0
1.1102138,-0.41184092,-1.672115,0.99704951,0.058664858,0.049504697,0
0.15510657,1.0611168,1.7977076,-0.063278973,0.26309645,0.96269202,0
0.54804176,0.22921717,2.0508876,-0.063278973,0.26309645,0.96269202,0
-1.0756769,0.20177233,1.7835177,-0.95936161,-0.28183368,0.013962895,0
0.85151291,0.63249397,0.6714741,0.89953828,0.43281773,-0.059157953,0
0.20013556,0.95948386,1.8284429,-0.063278973,0.26309645,0.96269202,0
-0.36114848,0.9380281,1.7974128,-0.063278973,0.26309645,0.96269202,0
0.51806283,0.68783045,-0.81325418,0.47789782,0.85482574,-0.20220453,0
-0.25593376,-0.73190868,-1.8943051,0.063278973,-0.26309645,-0.96269202,0
0.96184158,-0.57003731,-0.56389904,0.91414827,-0.37174144,0.16168231,0
-0.28876793,-0.78754282,-1.881259,0.063278973,-0.26309645,-0.96269202,0
0.75346506,-0.88560903,-0.5459891,0.70244342,-0.67347479,0.23022801,0
0.26169014,0.26399708,-2.1324546,0.063278973,-0.26309645,-0.96269202,0
0.10435089,1.1887866,1.7594802,-0.063278973,0.26309645,0.96269202,0
-0.57130659,1.3042749,1.6835063,-0.063278973,0.26309645,0.96269202,0
-0.66215098,0.89277744,1.789994,-0.063278973,0.26309645,0.96269202,0
0.90620166,-0.63266021,-0.42900282,0.86590612,-0.46512255,0.18403155,0
0.042486534,-1.4652297,-1.5798275,-0.078317642,-0.96295953,0.25802165,0
0.13366896,1.0428587,1.8012881,-0.063278973,0.26309645,0.96269202,0
-0.47530502,-0.059996009,-2.0923533,0.063278973,-0.26309645,-0.96269202,0
0.81880289,0.68384075,0.60024023,0.86347473,0.49810791,-0.079371795,0
-0.99231529,0.19206086,0.040586054,-0.98267186,0.15196618,-0.10612351,0
-0.18730512,1.0916817,0.24634773,-0.15337324,0.95060223,-0.2698738,0
-0.71816993,0.76756048,1.8205328,-0.063278973,0.26309645,0.96269202,0
0.46774596,-0.12464845,2.1423185,-0.063278973,0.26309645,0.96269202,0
-0.85263789,-0.19436729,-1.7557175,-0.95941472,0.24958137,-0.13127238,0
0.94292277,0.28046048,0.87663829,0.9972195,0.054709584,0.050596833,0
0.89893639,0.53272164,0.89846212,0.95893842,0.28324941,-0.014377594,0
0.32596093,-0.89545,-1.8113618,0.063278973,-0.26309645,-0.96269202,0
-0.042416215,1.0477133,0.041347146,-0.022284746,0.96401227,-0.26492208,0
0.90190727,-0.79991758,-1.7996124,0.063278973,-0.26309645,-0.96269202,0
0.78838509,0.47446883,1.9996601,-0.063278973,0.26309645,0.96269202,0
-0.28043509,0.45427644,1.9349238,-0.063278973,0.26309645,0.96269202,0
-0.0056140423,-0.25111616,-2.0092483,0.063278973,-0.26309645,-0.96269202,0
-0.075495213,-1.2190691,-1.7493076,0.063278973,-0.26309645,-0.96269202,0
0.28176844,0.070957541,-2.0783784,0.063278973,-0.26309645,-0.96269202,0
0.85627437,-0.36742526,0.47517991,0.87567568,-0.44809049,0.18001914,0
-0.88458043,0.41660666,1.9055073,-0.063278973,0.26309645,0.96269202,0
0.44637099,-1.3514291,-1.3762344,0.33824673,-0.90187806,0.26870984,0
0.92711991,0.15679514,-1.509148,0.83408344,0.5436154,-0.093740545,0
-0.75099742,1.2255199,1.5518271,-0.63305283,0.73513842,-0.24251908,0
-1.069483,0.17771268,1.2873089,-0.98382145,-0.17844465,-0.015900314,0
-0.48976511,-0.70858669,0.7901718,-0.45146507,-0.86782771,0.20749536,0
0.57397372,0.63661265,1.9412541,-0.063278973,0.26309645,0.96269202,0
-0.86105341,-0.41252232,0.61314893,-0.82712162,-0.5536018,0.096927397,0
-0.033451557,-0.89716983,-1.8345165,0.063278973,-0.26309645,-0.96269202,0
0.28921032,-0.33902574,2.1891708,-0.063278973,0.26309645,0.96269202,0
-0.47289205,-0.40546525,2.066015,-0.35189104,-0.9085542,0.22517073,0
0.65769076,0.4523586,1.9971122,-0.063278973,0.26309645,0.96269202,0
0.25950038,-0.9977138,-1.7877824,0.063278973,-0.26309645,-0.96269202,0
0.1164943,-0.11259818,-2.0390778,0.063278973,-0.26309645,-0.96269202,0
-0.62525785,1.3067044,1.679296,-0.063278973,0.26309645,0.96269202,0
-0.21500319,0.73964047,-0.95581657,-0.26005492,0.92695338,-0.27042305,0
-0.40977561,0.21679723,1.9913232,-0.063278973,0.26309645,0.96269202,0
0.59907132,-0.36315703,1.4510846,0.67902392,-0.69557786,0.23472929,0
-0.34802958,-1.2592338,-1.7562449,0.063278973,-0.26309645,-0.96269202,0
-0.67490363,0.19962424,-1.6777362,-0.77108228,0.59950876,-0.21452552,0
0.51083261,-0.0089836121,2.1135402,-0.063278973,0.26309645,0.96269202,0
-1.0208714,0.0046694875,0.38391799,-0.99331826,-0.10988879,-0.035260379,0
0.25910538,0.066169739,2.0764551,-0.063278973,0.26309645,0.96269202,0
-0.60066748,1.05059,0.65613794,-0.54080081,0.80168098,-0.25464088,0
-0.77282059,-0.69762349,-1.9376508,0.063278973,-0.26309645,-0.96269202,0
0.30497849,-0.57605886,1.400494,0.37948236,-0.88582516,0.26703328,0
-0.38182896,-1.3268373,-1.5674875,-0.49787831,-0.84433609,0.19802448,0
0.48482573,-0.7542876,-1.839498,0.063278973,-0.26309645,-0.96269202,0
-0.67280072,0.13636696,-1.8614624,-0.78123325,0.58719939,-0.21182871,0
0.2533915,-0.17350078,-2.0134351,0.063278973,-0.26309645,-0.96269202,0
0.55954087,-0.93281686,-1.7857963,0.063278973,-0.26309645,-0.96269202,0
-0.68191671,0.21811879,1.973074,-0.063278973,0.26309645,0.96269202,0
0.48898375,-0.5933786,1.0204768,0.53931248,-0.80263156,0.25480288,0
0.55958325,1.1753479,1.4790968,0.66701412,0.72867984,-0.15529895,0
-0.13910383,-0.48002934,-1.9554625,0.063278973,-0.26309645,-0.96269202,0
0.55591428,0.5773257,1.9562696,-0.063278973,0.26309645,0.96269202,0
0.16312447,1.1386429,1.7770473,-0.063278973,0.26309645,0.96269202,0
-0.011821046,1.3132712,1.0220817,0.072353601,0.96329629,-0.2585057,0
-0.72207707,0.51986957,1.8879679,-0.063278973,0.26309645,0.96269202,0
0.086236954,-0.10605967,-2.0428536,0.063278973,-0.26309645,-0.96269202,0
-0.17070317,0.80635273,1.8459167,-0.063278973,0.26309645,0.96269202,0
-0.31791878,-0.11170185,2.0871375,-0.063278973,0.26309645,0.96269202,0
0.40225288,-0.99034333,-1.7804134,0.063278973,-0.26309645,-0.96269202,0
0.45578665,0.91899133,1.8563135,-0.063278973,0.26309645,0.96269202,0
0.044629812,0.70017016,-1.2306108,-0.018858671,0.96413779,-0.26473117,0
-0.60132021,-0.79760826,-1.8990526,0.063278973,-0.26309645,-0.96269202,0
-0.77859825,0.44728756,1.904089,-0.063278973,0.26309645,0.96269202,0
0.24002194,-0.43240935,1.967658,0.35172793,-0.89685231,0.26822257,0
-0.79994386,-0.5621804,0.25935936,-0.79030049,-0.60227507,0.11264973,0
-0.54839861,-0.3287822,2.131314,-0.063278973,0.26309645,0.96269202,0
0.38806862,-0.57973695,-1.8935615,0.063278973,-0.26309645,-0.96269202,0
-0.56399947,-1.085158,-1.8180144,0.063278973,-0.26309645,-0.96269202,0
0.29426625,0.98125529,1.8286803,-0.063278973,0.26309645,0.96269202,0
0.97421938,-0.85406542,-1.780061,0.063278973,-0.26309645,-0.96269202,0
0.31372148,0.52949178,1.9534228,-0.063278973,0.26309645,0.96269202,0
-0.21238753,1.4804149,1.6381656,-0.087096393,0.95948899,-0.267946,0
-0.24896336,-0.56856483,1.666258,-0.1559267,-0.95538521,0.25085026,0
-0.24748296,0.66501808,1.8794956,-0.063278973,0.26309645,0.96269202,0
0.90935671,-0.12429726,-1.9837646,0.063278973,-0.26309645,-0.96269202,0
0.70932651,-0.59902108,-1.8671744,0.063278973,-0.26309645,-0.96269202,0
0.79402435,0.87373775,1.5623801,0.90056854,0.43075615,-0.058526814,0
-0.59296995,0.4280895,1.9215372,-0.063278973,0.26309645,0.96269202,0
-0.32431251,-0.69204605,-1.909694,0.063278973,-0.26309645,-0.96269202,0
0.90215397,0.18398893,-1.5610218,0.80651009,0.58164978,-0.1059475,0
1.0867842,-0.30244923,-1.3324507,0.99622679,0.074063957,0.045242131,0
