1.444489,1.9812374,-1.9688103,0.70273399,0.48014855,-0.52499735,0
-0.73436749,0.26707759,1.5462704,0.086914659,0.67445725,0.73318017,0
1.6266249,-0.39254284,-0.52359664,0.6100949,-0.78630555,0.097507179,0
1.2553662,-0.16993546,-1.6586965,0.064650059,-0.7779668,-0.62497044,0
1.4867446,1.3253449,-2.5121105,0.70273399,0.48014855,-0.52499735,0
2.75315,0.41861796,-1.6462346,0.70273399,0.48014855,-0.52499735,0
-0.17273283,-0.56726074,1.6879051,0.58135736,0.037825227,0.81276858,0
0.30078757,1.3201764,0.38122383,-0.12204421,0.80834103,0.57592517,0
1.1394908,1.3385043,-2.4106746,-0.61139369,0.030211031,-0.79074943,0
1.6420588,1.2677737,-2.3568683,0.70273399,0.48014855,-0.52499735,0
-0.71698451,-0.78952765,-0.79970974,-0.31324184,-0.45373875,-0.83426648,0
2.4321098,1.7733061,-0.83700085,0.70273399,0.48014855,-0.52499735,0
-1.2174726,-1.3354906,2.4698372,0.59646451,0.0046248138,0.80262595,0
-2.1698265,-2.1339579,0.85823739,-0.70273399,-0.48014855,0.52499735,0
-0.11711192,0.71100307,1.064479,0.074831724,0.68394589,0.72568452,0
1.7252136,-0.087160468,-0.042864084,0.70947027,-0.5279898,0.46677452,0
-2.5021758,-0.21528482,1.5846796,-0.48738509,0.86246759,0.13640153,0
0.94028026,1.987746,-0.49700356,-0.30249846,0.86954904,0.39035764,0
2.9157152,0.57964301,-1.2813644,0.70273399,0.48014855,-0.52499735,0
0.32110691,-0.97683084,-0.72377771,0.18008494,-0.83393914,-0.5216462,0
-1.1434388,-1.8937345,2.2375021,0.70855892,-0.40584809,0.57726216,0
-2.6397581,-1.1076512,1.1678439,-0.70273399,-0.48014855,0.52499735,0
-0.0099297762,-1.2775668,-0.34860748,0.23794669,-0.85404682,-0.46258545,0
-0.16593611,-0.51646948,-1.1514244,-0.26761973,-0.50532717,-0.82038045,0
-2.0339875,-2.1435165,1.0313222,-0.70273399,-0.48014855,0.52499735,0
-1.3364329,-1.9111396,2.1775579,-0.70273399,-0.48014855,0.52499735,0
1.2089686,0.6985935,-2.3223126,-0.3844468,-0.36463159,-0.84808278,0
-2.7209408,-0.52143955,1.5953104,-0.70273399,-0.48014855,0.52499735,0
2.1903567,0.86476326,-1.9915283,0.70273399,0.48014855,-0.52499735,0
1.3218739,1.5208797,0.13837296,0.16557312,0.60728812,0.77703702,0
-2.4854305,-1.3376412,1.1640759,-0.70273399,-0.48014855,0.52499735,0
-2.2352595,-0.54493427,2.2239306,-0.70273399,-0.48014855,0.52499735,0
-2.6293464,-1.649395,0.45140016,-0.48625022,-0.21453282,-0.8470751,0
-2.2238817,-0.97095788,1.8495302,-0.70273399,-0.48014855,0.52499735,0
2.1316977,2.3198638,-0.73924947,0.70273399,0.48014855,-0.52499735,0
1.9257371,1.8530035,-1.4419159,0.70273399,0.48014855,-0.52499735,0
1.9788486,-0.1463443,-1.166595,0.49648535,-0.85949898,-0.12150538,0
2.3169551,0.97427392,-1.7219143,0.70273399,0.48014855,-0.52499735,0
1.0905268,1.0860159,0.49761987,0.29530811,0.4744955,0.82924497,0
1.5218798,-0.47407407,-0.60647845,0.56522596,-0.82493341,0.002120018,0
-2.4367106,-1.4058638,1.1668956,-0.70273399,-0.48014855,0.52499735,0
-0.43101841,1.0955901,-0.7434805,-0.68970531,0.64082277,-0.33712423,0
-2.5702579,-1.9113899,0.52579534,-0.70273399,-0.48014855,0.52499735,0
2.533411,0.7509706,-1.6364052,0.70273399,0.48014855,-0.52499735,0
0.6018846,1.3816395,0.33994663,-0.028894305,0.75657558,0.65326756,0
-1.02618,-2.1144972,0.73211682,0.37132233,-0.87697244,-0.30502295,0
-0.38375288,0.44244868,-1.2584105,-0.64624125,0.12217122,-0.75329024,0
1.2459929,-0.26423913,0.45021808,0.70874965,-0.4082002,0.57536632,0
1.8853441,2.2921095,-1.0943891,0.70273399,0.48014855,-0.52499735,0
2.793632,0.87318969,-0.65537083,0.70209712,-0.34875202,0.62083131,0
-2.5250142,-0.35782695,2.0072036,-0.70273399,-0.48014855,0.52499735,0
2.2218235,1.8833355,-1.0178492,0.70273399,0.48014855,-0.52499735,0
-1.767524,-0.97268975,2.4588032,-0.70273399,-0.48014855,0.52499735,0
2.1612382,1.7456359,-1.2248821,0.70273399,0.48014855,-0.52499735,0
2.4826689,0.43864441,-1.9899716,0.70273399,0.48014855,-0.52499735,0
-2.627327,-0.2829814,1.3659121,-0.58435786,0.81046152,-0.040964425,0
-1.3823223,-1.4656029,2.5236089,-0.70273399,-0.48014855,0.52499735,0
-2.4066958,-1.2942873,1.3091168,-0.70273399,-0.48014855,0.52499735,0
-1.4389504,-0.55051816,2.3318758,0.25417185,0.51978993,0.81560713,0
2.7506106,1.0082803,-1.1103444,0.70273399,0.48014855,-0.52499735,0
-2.0070641,-1.2712747,1.8650892,-0.70273399,-0.48014855,0.52499735,0
-1.7552518,-2.4255228,1.1465076,-0.70273399,-0.48014855,0.52499735,0
-2.2628403,-1.3682498,1.4340301,-0.70273399,-0.48014855,0.52499735,0
2.8614674,1.327105,-0.67036903,0.70273399,0.48014855,-0.52499735,0
-1.8172587,-1.5889179,1.8286452,-0.70273399,-0.48014855,0.52499735,0
-1.4704672,-2.0055583,1.9117939,-0.70273399,-0.48014855,0.52499735,0
-0.075538993,0.85263401,-1.436155,-0.68461901,0.2556259,-0.68260676,0
-2.3726285,-2.0757275,0.64003313,-0.70273399,-0.48014855,0.52499735,0
-1.4955301,-2.5067205,1.3477821,0.46885324,-0.86756253,-0.16586691,0
-1.4771159,-1.2244499,2.6172752,-0.70273399,-0.48014855,0.52499735,0
-0.58600527,1.0844681,0.20742935,-0.46880418,0.86757433,0.16594344,0
1.0391697,-0.28199685,0.67831022,0.69711447,-0.31730536,0.64292198,0
0.14561856,1.6029109,-0.45929146,-0.50927198,0.85476851,0.10006362,0
-2.027534,-0.44647098,0.035859942,-0.68991184,0.27969852,-0.6676752,0
2.6707697,1.1243939,-1.1110208,0.70273399,0.48014855,-0.52499735,0
-1.7309568,-1.6986413,1.8438141,-0.70273399,-0.48014855,0.52499735,0
0.9397378,-0.44044858,-1.3520555,0.10036671,-0.79744923,-0.59498006,0
1.5345312,-0.29339921,-1.3594369,0.29934549,-0.86897373,-0.39405194,0
0.93740875,0.70223105,0.74565661,0.41010922,0.32960171,0.85039574,0
-2.2778287,-1.2457851,1.5259701,-0.70273399,-0.48014855,0.52499735,0
2.7591288,0.42835832,-1.154843,0.66078281,-0.71398532,0.23149741,0
-1.0242985,0.052930117,1.7775077,0.095566869,0.66752911,0.73842514,0
-0.91525412,-2.0999527,1.5294545,0.64764529,-0.73716956,0.19270855,0
-0.81605172,0.17015207,-0.93145877,-0.65129215,0.13718021,-0.7463243,0
1.7171656,1.157514,0.19122589,0.43932331,0.28756854,0.85105771,0
-2.0974078,-2.1602159,0.93115836,-0.70273399,-0.48014855,0.52499735,0
-2.458076,-1.3695275,1.1715291,-0.70273399,-0.48014855,0.52499735,0
-0.97778153,-0.10926217,1.9009827,0.19462729,0.58003277,0.7910006,0
-2.3189585,-0.44995987,2.1987567,-0.70273399,-0.48014855,0.52499735,0
-0.64455545,0.8979286,0.70235121,-0.29608524,0.86835843,0.39785314,0
2.6362989,0.51776719,-0.7440207,0.7081635,-0.5429455,0.45134729,0
1.969588,2.2219887,-1.0457555,0.70273399,0.48014855,-0.52499735,0
-2.6443448,-1.1425095,1.1298237,-0.70273399,-0.48014855,0.52499735,0
-2.125536,-0.80905831,0.034579754,-0.63209933,0.082697988,-0.7704618,0
2.4747114,0.75038815,-1.7155099,0.70273399,0.48014855,-0.52499735,0
-2.7499444,-1.297832,0.84642005,-0.70273399,-0.48014855,0.52499735,0
2.2761412,1.3419334,-1.4402943,0.70273399,0.48014855,-0.52499735,0
0.30951637,1.6648532,-0.32581282,-0.42022902,0.87557423,0.23828018,0
-1.7866688,-1.2812033,2.1510186,-0.70273399,-0.48014855,0.52499735,0
1.3424382,2.3351281,-1.7817509,0.70273399,0.48014855,-0.52499735,0
0.019906044,0.47636437,-1.5742931,-0.58517361,-0.029613793,-0.81036687,0
2.6037307,1.6209967,-0.74657631,0.70273399,0.48014855,-0.52499735,0
1.8619497,1.8596777,-0.24187368,0.1805855,0.59337497,0.78440726,0
1.2833738,2.3820293,-1.3247818,-0.51431537,0.85271323,0.091433048,0
-1.7284697,-1.3840603,2.1348505,-0.70273399,-0.48014855,0.52499735,0
-2.9263496,-0.59356093,1.2544011,-0.70273399,-0.48014855,0.52499735,0
1.672213,2.1468596,-0.49978,-0.049885035,0.76936102,0.63686347,0
0.19430986,1.6418195,-0.78788531,-0.59704143,0.79931122,-0.068139732,0
-2.3535159,-1.3632156,1.3172605,-0.70273399,-0.48014855,0.52499735,0
-1.9957309,-1.5505289,1.6248609,-0.70273399,-0.48014855,0.52499735,0
-1.9984536,-0.65709281,2.4383292,-0.70273399,-0.48014855,0.52499735,0
-2.3845742,-0.9013195,1.6981254,-0.70273399,-0.48014855,0.52499735,0
2.2093251,0.87273598,-1.9588463,0.70273399,0.48014855,-0.52499735,0
2.1595118,1.3565047,-1.583082,0.70273399,0.48014855,-0.52499735,0
0.61595583,-1.0759394,-0.1595391,0.49276471,-0.86075151,-0.12763119,0
0.76552856,-0.97975379,0.12864006,0.61242288,-0.78380311,0.10291201,0
2.2326741,1.7560649,-1.1197233,0.70273399,0.48014855,-0.52499735,0
-2.6112936,-0.34946847,1.8993589,-0.70273399,-0.48014855,0.52499735,0
-2.7102127,-1.3545213,0.84775627,-0.70273399,-0.48014855,0.52499735,0
-1.8212152,-2.1523309,1.3080667,-0.70273399,-0.48014855,0.52499735,0
1.5129772,1.8388373,-2.0073709,0.70273399,0.48014855,-0.52499735,0
-1.9466288,-1.4055051,0.013686538,-0.40481979,-0.33696079,-0.85004598,0
-2.2775865,-1.389812,1.3945712,-0.70273399,-0.48014855,0.52499735,0
2.0256591,2.2565074,-0.93913174,0.70273399,0.48014855,-0.52499735,0
-2.3738916,-1.1480674,1.4867555,-0.70273399,-0.48014855,0.52499735,0
1.7376587,1.5747542,-1.9481471,0.70273399,0.48014855,-0.52499735,0
-2.7809346,-0.43138671,1.5973659,-0.70273399,-0.48014855,0.52499735,0
0.27091503,0.65427518,-1.7620356,-0.58696783,-0.02571401,-0.80920184,0
2.3680313,0.96059823,-1.6660541,0.70273399,0.48014855,-0.52499735,0
2.1955857,2.055341,-0.89565796,0.70273399,0.48014855,-0.52499735,0
-1.9882267,-0.95260596,-0.070794463,-0.56885099,-0.063979477,-0.81994826,0
2.3249514,0.8284961,-1.8445355,0.70273399,0.48014855,-0.52499735,0
-2.1766579,-0.97107661,1.9126329,-0.70273399,-0.48014855,0.52499735,0
-1.8234893,-2.1811328,1.278681,-0.70273399,-0.48014855,0.52499735,0
2.4528353,0.55000663,-1.9280556,0.70273399,0.48014855,-0.52499735,0
1.9087987,1.4631697,-0.020779848,0.37184203,0.38123831,0.84639865,0
0.42622587,1.8042911,-0.89405888,-0.57832462,0.81531036,-0.028454065,0
1.2308421,-0.31286651,-1.4688101,0.14934576,-0.82103765,-0.55099261,0
-2.8875413,-0.77670503,1.1388483,-0.70273399,-0.48014855,0.52499735,0
1.6128237,1.540138,-2.146904,0.70273399,0.48014855,-0.52499735,0
0.11783206,0.37273061,-1.6307811,-0.53421819,-0.13123214,-0.83509815,0
-2.790905,-0.94434667,1.1148804,-0.70273399,-0.48014855,0.52499735,0
0.54474974,0.36595982,1.0638707,0.43579984,0.29276791,0.85109657,0
2.2261631,1.5051485,-1.3579199,0.70273399,0.48014855,-0.52499735,0
-1.4903711,-0.078953505,-0.36523449,-0.68998444,0.28004611,-0.66745448,0
0.95856845,1.01824,-2.2683148,-0.55618787,-0.089387357,-0.82623529,0
-0.76480711,-2.0355847,1.1482769,0.57868761,-0.81502622,0.029199898,0
2.7082748,1.5060546,-0.71176159,0.70273399,0.48014855,-0.52499735,0
-0.89726245,0.10416144,-0.87266636,-0.64901143,0.1303362,-0.74953091,0
1.8343395,1.4400322,-1.9419484,0.70273399,0.48014855,-0.52499735,0
1.5896887,1.6341782,-2.0918646,0.70273399,0.48014855,-0.52499735,0
2.8691335,1.1293802,-0.62663543,0.67199671,-0.20563525,0.71143132,0
-0.65970421,-1.3953893,1.9692726,0.69075137,-0.28375161,0.66509205,0
2.7413938,0.95870566,-1.1680211,0.70273399,0.48014855,-0.52499735,0
0.58668923,-0.52820462,-1.274597,0.0039559603,-0.74054885,-0.67199087,0
-1.3354471,-2.0329027,0.39990476,0.12601376,-0.81025827,-0.57236516,0
-2.3719838,-0.29789567,2.0260768,-0.28208989,0.86548465,0.41395837,0
-0.20934391,-1.266825,-0.43664059,0.12831521,-0.81135887,-0.5702911,0
-0.52462661,-1.3113019,1.8648129,0.69191962,-0.2895177,0.66138238,0
-2.4058795,-0.9844265,0.24586892,-0.63592041,0.093030214,-0.76612693,0
0.782745,0.9086951,-2.1380672,-0.55937243,-0.083092898,-0.82474113,0
1.8692913,2.2039342,-1.1965194,0.70273399,0.48014855,-0.52499735,0
-1.9135456,-2.1134763,1.2200133,-0.70273399,-0.48014855,0.52499735,0
-0.81395864,0.17100155,-0.93312907,-0.65116692,0.13680127,-0.74650323,0
0.095021725,0.68904269,-1.6262453,-0.62749934,0.07055071,-0.77541411,0
-0.80376971,-1.8267546,1.8330419,0.70864642,-0.53786969,0.45663583,0
-2.1575437,-2.3187032,0.70571506,-0.70273399,-0.48014855,0.52499735,0
2.3349674,0.28527117,-0.5525192,0.70542431,-0.56610429,0.42650032,0
1.5222173,-0.46677387,-0.47103131,0.60336882,-0.79321611,0.082183659,0
2.1352806,1.860206,-1.1548448,0.70273399,0.48014855,-0.52499735,0
-0.78490794,-1.2756879,2.1252913,0.6537894,-0.14480782,0.74269104,0
2.4112985,0.44944429,-2.0756266,0.70273399,0.48014855,-0.52499735,0
1.994512,-0.1193763,-0.67496991,0.64064997,-0.74798489,0.17345375,0
1.1991578,-0.61908394,-0.85331768,0.40083474,-0.87686098,-0.26541728,0
1.5238829,2.3018529,-1.5693111,0.70273399,0.48014855,-0.52499735,0
2.1516795,2.3129919,-0.71878797,0.70273399,0.48014855,-0.52499735,0
-2.5359886,-0.61801028,1.7545567,-0.70273399,-0.48014855,0.52499735,0
1.155918,-0.5038451,-1.1763052,0.25689,-0.85938609,-0.44211194,0
2.2020051,0.18358469,-0.46787989,0.70401329,-0.5757395,0.4157995,0
-2.7307272,-0.69165468,1.4265363,-0.70273399,-0.48014855,0.52499735,0
-2.3183274,-0.92666757,1.7636169,-0.70273399,-0.48014855,0.52499735,0
-1.3427613,-0.45978224,2.2438445,0.24264717,0.53192651,0.81128067,0
1.4262724,2.2209909,-1.773922,0.70273399,0.48014855,-0.52499735,0
1.4846898,-0.49074227,-0.42774737,0.60741782,-0.78911185,0.091357172,0
-2.1214337,-1.4854356,1.5161344,-0.70273399,-0.48014855,0.52499735,0
1.4370422,2.4049511,-1.5912607,0.70273399,0.48014855,-0.52499735,0
2.2965925,0.062096238,-1.3308091,0.52041763,-0.85007548,-0.080852389,0
-1.5225992,0.12298012,1.672574,-0.15609062,0.82399631,0.54467034,0
-2.1537707,-1.9667587,0.39345646,-0.22510934,-0.54995,-0.80428898,0
1.7398223,0.0061534643,0.028710485,0.71132237,-0.4600586,0.53138173,0
-1.2147474,-2.0466762,0.45693529,0.19543922,-0.83981681,-0.50646925,0
1.8975885,2.4626026,-0.92207128,0.70273399,0.48014855,-0.52499735,0
-0.41769016,1.1990671,0.083787262,-0.46807462,0.86774993,0.16708052,0
-1.2227969,0.34338003,-0.41817856,-0.7112633,0.45711631,-0.5339936,0
-1.7130013,-1.615171,1.9441884,-0.70273399,-0.48014855,0.52499735,0
0.74379277,-0.7898618,0.65184635,0.70678592,-0.5555343,0.43798989,0
-2.2358897,-1.911281,0.97346282,-0.70273399,-0.48014855,0.52499735,0
0.57773793,-0.015379339,1.1248658,0.57009643,0.061424255,0.8192783,0
0.87813163,0.10622269,-1.8725755,-0.22577429,-0.54927623,-0.80456293,0
2.2556486,1.0996809,-1.6892824,0.70273399,0.48014855,-0.52499735,0
-2.5628211,-0.52967358,1.7994308,-0.70273399,-0.48014855,0.52499735,0
-2.1040592,-0.57025003,2.3763955,-0.70273399,-0.48014855,0.52499735,0
1.965142,-0.075447202,-0.46054006,0.68018758,-0.6697734,0.29790658,0
1.9500459,0.71591818,-2.4493253,0.70273399,0.48014855,-0.52499735,0
0.58905321,-0.41146818,1.0815289,0.66880512,-0.19418833,0.71762824,0
2.4718301,1.3177383,-0.29363191,0.55855685,0.084710777,0.82512927,0
-2.1045377,-2.3037186,0.79037088,-0.70273399,-0.48014855,0.52499735,0
-1.7675319,-2.2558029,1.2852912,-0.70273399,-0.48014855,0.52499735,0
-0.43413544,-1.311699,-0.41206598,0.056656003,-0.77334726,-0.63144594,0
-2.7528441,-1.0055497,1.1098526,-0.70273399,-0.48014855,0.52499735,0
-1.6434639,-2.4364548,1.2861428,-0.70273399,-0.48014855,0.52499735,0
1.703572,2.1126158,-1.50186,0.70273399,0.48014855,-0.52499735,0
-0.088967085,-1.0849189,-0.65877426,0.062395096,-0.77667332,-0.62680572,0
-1.7335438,-1.6813786,0.080707192,-0.22428644,-0.55078244,-0.80394906,0
-2.1559615,-0.50161886,0.14618361,-0.69446832,0.30266631,-0.65276849,0
1.0635808,1.2604429,0.39406118,0.20674801,0.5682565,0.79645437,0
1.8098392,2.1074638,-1.364328,0.70273399,0.48014855,-0.52499735,0
0.73395753,-0.90037519,0.49403751,0.68605775,-0.6527316,0.32135028,0
-2.4513314,-1.0156503,1.5042037,-0.70273399,-0.48014855,0.52499735,0
-2.2020578,-2.1225998,0.82548159,-0.70273399,-0.48014855,0.52499735,0
-0.55598766,1.0067987,-0.65653229,-0.69067913,0.63743335,-0.34152746,0
-1.9819015,-0.72681499,2.396719,-0.70273399,-0.48014855,0.52499735,0
-1.9732339,-1.7572423,1.4659196,-0.70273399,-0.48014855,0.52499735,0
-1.807642,-1.3934678,2.0202711,-0.70273399,-0.48014855,0.52499735,0
-0.17340326,-0.58420324,1.6890726,0.58600384,0.027812511,0.80983078,0
-2.2879496,-1.0902684,1.6546547,-0.70273399,-0.48014855,0.52499735,0
2.2711704,1.7757119,-1.0502257,0.70273399,0.48014855,-0.52499735,0
1.7413064,2.1908352,-0.54750073,-0.047862053,0.76815695,0.63847011,0
-0.78964311,-0.30726135,-0.94219464,-0.51489729,-0.16599286,-0.84102726,0
-1.871565,-1.2543175,-0.078790069,-0.44252884,-0.28280601,-0.85099292,0
-2.9002445,-0.72150517,1.1723293,-0.70273399,-0.48014855,0.52499735,0
-1.647489,-1.615321,2.0317421,-0.70273399,-0.48014855,0.52499735,0
2.3459325,2.1284246,-0.6275714,0.70273399,0.48014855,-0.52499735,0
0.97604799,0.73204172,0.71546471,0.40879756,0.33143359,0.85031539,0
0.79310203,0.50552571,-2.048111,-0.41979927,-0.31592527,-0.85085815,0
-0.98283684,-0.82468683,2.2486989,0.4883247,0.21112722,0.84673733,0
-1.5893922,-1.55503,2.1646481,-0.70273399,-0.48014855,0.52499735,0
0.19404531,-0.38012582,-1.3484417,-0.21680439,-0.55830032,-0.80080974,0
1.0272963,1.8676436,-2.1101949,-0.71097159,0.4468112,-0.54302776,0
-0.52863252,-0.42105803,1.8832947,0.45544589,0.26329449,0.85043818,0
-0.03590095,1.136654,0.56510222,-0.15457022,0.82333553,0.54610115,0
-1.5074487,-2.0611987,1.8114052,-0.70273399,-0.48014855,0.52499735,0
1.6762655,0.32556498,0.26770496,0.66990477,-0.1980876,0.71553397,0
-1.3323872,-2.143235,1.9707052,-0.70273399,-0.48014855,0.52499735,0
2.7559648,1.3753226,-0.76749051,0.70273399,0.48014855,-0.52499735,0
-2.2874961,-0.15096676,0.68778324,-0.68253225,0.66324109,-0.30701935,0
1.7240676,2.3207278,-1.2840921,0.70273399,0.48014855,-0.52499735,0
-0.87687212,-0.92937487,-0.66329694,-0.2999742,-0.46915579,-0.83060718,0
0.98936903,-0.4774746,0.61349791,0.71058542,-0.43726203,0.55124426,0
2.2995667,2.1113501,-0.70525038,0.70273399,0.48014855,-0.52499735,0
1.8985004,1.7551322,-1.5678837,0.70273399,0.48014855,-0.52499735,0
-1.857633,-1.8741821,0.25197721,-0.17194033,-0.60143119,-0.78020316,0
-0.76442027,-0.93310076,2.127614,0.57029527,0.061015129,0.81917048,0
-1.0649506,-1.102066,2.3489523,0.55953765,0.082764506,0.82466209,0
-2.1758399,-1.9556581,1.013256,-0.70273399,-0.48014855,0.52499735,0
-0.54927629,1.1375319,-0.060477793,-0.54732716,0.83629781,0.032232106,0
2.7698302,0.99274707,-1.0988249,0.70273399,0.48014855,-0.52499735,0
-2.3343489,-0.25358045,0.59624553,-0.70082247,0.59426296,-0.39458746,0
-2.6180999,-1.1569598,1.1517378,-0.70273399,-0.48014855,0.52499735,0
2.9686038,0.83831573,-0.97399485,0.70273399,0.48014855,-0.52499735,0
-2.1238,-2.1266198,0.92655706,-0.70273399,-0.48014855,0.52499735,0
1.4938576,1.9327047,-1.9471145,0.70273399,0.48014855,-0.52499735,0
2.8905778,0.49721122,-1.3904018,0.70273399,0.48014855,-0.52499735,0
2.1303201,2.0098319,-1.0246408,0.70273399,0.48014855,-0.52499735,0
-2.1214204,-1.104932,1.864151,-0.70273399,-0.48014855,0.52499735,0
-1.0911453,0.44042704,-0.51039326,-0.71136647,0.46272182,-0.52900499,0
1.9176228,1.9856167,-1.3314927,0.70273399,0.48014855,-0.52499735,0
1.1463959,1.7592146,-2.3188486,-0.69505918,0.30583969,-0.65065712,0
-0.68909925,-1.9378295,1.3881159,0.65374458,-0.7269215,0.21024537,0
2.5134771,0.41779566,-1.9678011,0.70273399,0.48014855,-0.52499735,0
-1.5883338,-2.2245622,1.5537283,-0.70273399,-0.48014855,0.52499735,0
1.7593102,-0.19729245,-1.3878248,0.35604477,-0.87621379,-0.32477888,0
-1.814577,-1.9842623,0.33583838,-0.10003972,-0.66390353,-0.7410965,0
-1.5480843,-1.4701055,2.2976105,-0.70273399,-0.48014855,0.52499735,0
0.92532486,1.3475252,0.35420758,0.11549473,0.65114439,0.7501145,0
1.0121142,1.9290799,-2.0327497,-0.71084523,0.50434524,-0.49023962,0
1.4811506,2.0165854,-1.8874085,0.70273399,0.48014855,-0.52499735,0
1.5310323,1.84901,-1.9738994,0.70273399,0.48014855,-0.52499735,0
-0.48977661,-0.76357889,-0.89333183,-0.25587475,-0.51797658,-0.81622809,0
1.4823794,2.087857,-1.8205804,0.70273399,0.48014855,-0.52499735,0
-2.8467159,-0.77441335,1.1955913,-0.70273399,-0.48014855,0.52499735,0
-1.95419,-1.7798196,1.4707624,-0.70273399,-0.48014855,0.52499735,0
0.8748734,-0.91573894,-0.16118169,0.55388039,-0.83235931,-0.019858241,0
-2.5139394,-0.74750769,0.41302049,-0.69429529,0.30174628,-0.65337825,0
-1.8438731,-1.3554263,2.0065656,-0.70273399,-0.48014855,0.52499735,0
-1.6776963,-1.4391391,2.1524396,-0.70273399,-0.48014855,0.52499735,0
-2.3593149,-0.67951345,1.9347939,-0.70273399,-0.48014855,0.52499735,0
0.15703133,-1.222393,1.0475694,0.7027384,-0.58359718,0.4069066,0
-2.0877481,0.078346729,0.87527502,-0.60820961,0.78828967,-0.093168974,0
-1.6808006,-1.962196,1.6699103,-0.70273399,-0.48014855,0.52499735,0
-1.0051759,-1.8307781,2.1109984,0.71021456,-0.42992699,0.55745649,0
-2.4136724,-1.1734364,1.410305,-0.70273399,-0.48014855,0.52499735,0
0.47379518,1.0401316,-1.8970952,-0.64883304,0.12980548,-0.7497775,0
-2.1375237,-0.54955339,2.3505301,-0.70273399,-0.48014855,0.52499735,0
-0.89371812,-1.3934534,-0.31701031,-0.079320073,-0.68044668,-0.72849202,0
-1.119056,-2.1317549,0.68094802,0.32326996,-0.87284404,-0.36556762,0
2.9210968,0.75216222,-1.1163793,0.70273399,0.48014855,-0.52499735,0
-1.3584639,-1.8572788,2.1973281,-0.70273399,-0.48014855,0.52499735,0
1.2778146,0.60956907,0.58333296,0.52505362,0.14794084,0.83811218,0
-1.6039685,-1.045342,2.611284,-0.70273399,-0.48014855,0.52499735,0
-2.2461884,-1.0659347,1.7328084,-0.70273399,-0.48014855,0.52499735,0
-1.5284359,-2.334296,1.5335453,-0.70273399,-0.48014855,0.52499735,0
2.0335224,1.9416946,-1.2165254,0.70273399,0.48014855,-0.52499735,0
-1.1274277,0.69176447,-0.047512054,-0.65728474,0.72057569,-0.22078782,0
-2.6431699,-0.96192694,1.2965523,-0.70273399,-0.48014855,0.52499735,0
1.4882854,1.680539,-2.1851974,0.70273399,0.48014855,-0.52499735,0
0.14852357,1.4064562,0.17943883,-0.26654661,0.86186087,0.43144941,0
2.370034,1.6731519,-1.0116904,0.70273399,0.48014855,-0.52499735,0
2.23668,1.0685041,-0.11166751,0.58431983,0.031460941,0.81091338,0
-2.0260625,-0.60315275,2.4507055,-0.70273399,-0.48014855,0.52499735,0
1.2973099,2.056211,-2.0972476,0.70273399,0.48014855,-0.52499735,0
-2.4714117,-1.5478902,0.9905529,-0.70273399,-0.48014855,0.52499735,0
1.7511616,-0.2413044,-1.2677481,0.40006554,-0.87689155,-0.26647478,0
-2.150209,-0.86544764,2.044642,-0.70273399,-0.48014855,0.52499735,0
-2.605021,-0.36228609,1.8960325,-0.70273399,-0.48014855,0.52499735,0
0.073320329,-1.4463103,0.24324238,0.49188936,-0.86103827,-0.1290651,0
1.1230568,2.123589,-1.9635715,-0.69800794,0.60808194,-0.37818152,0
1.8361011,-0.2026763,-1.2628243,0.42548645,-0.87504858,-0.23076206,0
1.8173997,0.97400832,-2.390836,0.70273399,0.48014855,-0.52499735,0
1.6014435,1.4907724,-2.2072852,0.70273399,0.48014855,-0.52499735,0
0.63383996,0.47043559,0.98170465,0.41942269,0.3164615,0.85084462,0
1.9048837,1.955434,-1.3761488,0.70273399,0.48014855,-0.52499735,0
-2.9488659,-0.69734716,1.1293416,-0.70273399,-0.48014855,0.52499735,0
2.1743455,1.8804855,-1.0840073,0.70273399,0.48014855,-0.52499735,0
2.0426021,1.408304,-1.6921967,0.70273399,0.48014855,-0.52499735,0
-1.8917899,-1.2154665,2.07043,-0.70273399,-0.48014855,0.52499735,0
1.8009183,2.1247501,-1.3604596,0.70273399,0.48014855,-0.52499735,0
-0.6125868,-1.4197183,1.9077255,0.69823241,-0.32385784,0.63842577,0
-0.82750458,0.88950533,-0.29413652,-0.66200364,0.71160424,-0.2353093,0
-2.0203183,-0.43765712,0.03210628,-0.69047707,0.28241944,-0.66594338,0
-1.7022693,-0.38739991,2.2630448,0.083199382,0.67739803,0.73089647,0
1.1957486,1.252039,0.36203134,0.25308204,0.52094769,0.81520712,0
-0.49041224,1.1713127,-0.011585236,-0.5181793,0.85106248,0.084751248,0
-0.87726915,-1.0263827,-0.60508287,-0.25676751,-0.51702368,-0.81655169,0
-1.6372609,-1.4332615,2.2119396,-0.70273399,-0.48014855,0.52499735,0
-1.88726,-1.63952,0.10285532,-0.29129314,-0.47905624,-0.82804179,0
-2.4298649,-1.4529905,1.1329577,-0.70273399,-0.48014855,0.52499735,0
-1.4738954,-1.2721415,2.5779686,-0.70273399,-0.48014855,0.52499735,0
2.3916481,2.0443749,-0.64324856,0.70273399,0.48014855,-0.52499735,0
1.6183486,0.28286994,0.31010365,0.67049098,-0.20018524,0.71440023,0
2.8175139,0.55573654,-1.4346758,0.70273399,0.48014855,-0.52499735,0
-1.6027153,-1.8615495,1.8664801,-0.70273399,-0.48014855,0.52499735,0
-2.0038898,-0.34611189,0.058466196,-0.7007556,0.33965248,-0.62735784,0
-2.0396144,-1.0490519,2.0247583,-0.70273399,-0.48014855,0.52499735,0
2.0718226,1.1703535,-1.8707069,0.70273399,0.48014855,-0.52499735,0
1.3568684,2.1583662,-1.9240974,0.70273399,0.48014855,-0.52499735,0
1.6774436,-0.025467157,0.084679127,0.71111763,-0.45139825,0.53902811,0
-2.9336886,-1.0874629,0.79286766,-0.70273399,-0.48014855,0.52499735,0
1.6994539,1.8376775,-1.7588236,0.70273399,0.48014855,-0.52499735,0
2.4741645,0.70702934,-1.7558972,0.70273399,0.48014855,-0.52499735,0
1.3497434,1.7457464,-2.3110056,0.70273399,0.48014855,-0.52499735,0
-2.3997533,-1.8734236,0.78874683,-0.70273399,-0.48014855,0.52499735,0
-1.4985816,-2.0034149,1.8761218,-0.70273399,-0.48014855,0.52499735,0
-1.3108881,-2.3379552,1.8213966,-0.70273399,-0.48014855,0.52499735,0
-1.6201787,0.40138531,0.81091332,-0.52507085,0.84794939,0.0726794,0
1.1157942,-0.75153953,-0.30795217,0.56379521,-0.82591432,-0.00069236755,0
1.7932293,2.052434,-0.39747864,0.054800868,0.69919974,0.71282291,0
-2.3119283,-1.8391304,0.93766844,-0.70273399,-0.48014855,0.52499735,0
-0.5754894,1.0868633,0.22369611,-0.46039158,0.86949062,0.17895687,0
-1.2986007,-1.8535845,0.17582765,0.026394486,-0.75501001,-0.65518165,0
-0.21350598,-1.5248656,1.2454823,0.69275689,-0.62985718,0.3512376,0
0.70075911,-0.91328001,0.53815502,0.68911922,-0.6428172,0.33451563,0
2.4023883,0.13642645,-1.1121011,0.60774457,-0.7887733,0.092104197,0
-2.489398,-0.88455045,1.5731499,-0.70273399,-0.48014855,0.52499735,0
-2.7763405,-1.5612545,0.57016838,-0.70273399,-0.48014855,0.52499735,0
-2.7258196,-1.0715015,1.0857079,-0.70273399,-0.48014855,0.52499735,0
2.8319318,0.67468309,-1.3065912,0.70273399,0.48014855,-0.52499735,0
-0.41425771,0.61331463,-1.1860209,-0.6833505,0.25018293,-0.68588668,0
0.38280553,1.7051122,-0.34580019,-0.40731835,0.87654239,0.25644708,0
2.8041012,0.93824267,-1.1027988,0.70273399,0.48014855,-0.52499735,0
2.0687799,0.63601911,-2.3634675,0.70273399,0.48014855,-0.52499735,0
-1.2804668,-2.2336798,1.9574847,-0.70273399,-0.48014855,0.52499735,0
2.6476142,0.3633287,-1.838066,0.70273399,0.48014855,-0.52499735,0
-1.1328702,-0.66661561,2.2739377,0.39235193,0.35401922,0.84895837,0
-2.0254498,-2.3373728,0.8654542,-0.70273399,-0.48014855,0.52499735,0
1.7871165,0.84585834,-2.5485742,0.70273399,0.48014855,-0.52499735,0
2.1031237,1.1696548,-1.829448,0.70273399,0.48014855,-0.52499735,0
2.2775669,0.67607999,-2.0473578,0.70273399,0.48014855,-0.52499735,0
-1.6997807,-1.382051,2.1750898,-0.70273399,-0.48014855,0.52499735,0
2.3546505,0.78194785,-1.8473535,0.70273399,0.48014855,-0.52499735,0
-2.0042362,-2.404691,0.83228236,-0.70273399,-0.48014855,0.52499735,0
-1.5681653,-2.4572933,1.0625749,0.34192097,-0.87504542,-0.34261578,0
-0.55874228,-1.839433,0.52806258,0.42612779,-0.8749792,-0.22984022,0
2.5382667,1.53575,-0.91216755,0.70273399,0.48014855,-0.52499735,0
-1.9238069,-1.4517905,0.022400022,-0.38051271,-0.36985567,-0.84759462,0
0.57484949,-0.92432117,0.75303876,0.70453709,-0.57229286,0.41965264,0
-0.38229173,-1.6780691,1.2960448,0.6806882,-0.66840661,0.29982698,0
-2.075063,-0.95267975,2.065448,-0.70273399,-0.48014855,0.52499735,0
2.9289203,0.62827206,-1.2192138,0.70273399,0.48014855,-0.52499735,0
-0.27829623,0.7235136,-1.2810984,-0.68610358,0.2621437,-0.67863286,0
-2.1639209,-0.8887856,2.0049434,-0.70273399,-0.48014855,0.52499735,0
2.244287,1.5425932,-1.2994142,0.70273399,0.48014855,-0.52499735,0
-2.5667427,-0.24370432,1.2871007,-0.59368843,0.80239224,-0.060833871,0
0.55103946,-0.77372503,0.94352365,0.71046561,-0.43475038,0.55338115,0
-0.13308135,-1.5711545,0.92264009,0.64253235,-0.74516505,0.17855227,0
-1.3122181,0.18239236,1.6350816,-0.098003745,0.79621899,0.59701794,0
1.1504753,2.2940955,-1.5137131,-0.60015637,0.79635763,-0.075010538,0
1.8377033,-0.2492882,-0.68929183,0.60799372,-0.78851444,0.092674375,0
-1.0887116,-2.0853348,1.9609256,0.70080823,-0.5943383,0.39449942,0
-2.2374954,-0.91127133,0.11574543,-0.62588888,0.06636861,-0.77708316,0
-1.8070241,-2.4690514,1.0373979,-0.70273399,-0.48014855,0.52499735,0
-1.5579119,-1.443709,2.3085971,-0.70273399,-0.48014855,0.52499735,0
-1.8877251,-1.915337,1.4357883,-0.70273399,-0.48014855,0.52499735,0
1.6524284,1.2559115,-2.353837,0.70273399,0.48014855,-0.52499735,0
2.2210751,0.81461048,-1.9962784,0.70273399,0.48014855,-0.52499735,0
1.1856223,0.64426661,-2.2878938,-0.36907721,-0.38483042,-0.84598309,0
-2.6235266,-0.48811698,1.7561799,-0.70273399,-0.48014855,0.52499735,0
1.4225881,1.4297005,-2.5025465,0.70273399,0.48014855,-0.52499735,0
-1.903316,0.18928504,0.64209545,-0.63229531,0.75977182,-0.15149045,0
0.021907687,-1.220595,-0.43508983,0.20993507,-0.84501112,-0.49181643,0
1.7706611,1.0541723,0.19223905,0.48917967,0.20971897,0.8465938,0
1.5778153,1.548203,-2.1863883,0.70273399,0.48014855,-0.52499735,0
-2.0026717,-1.7789446,1.4066675,-0.70273399,-0.48014855,0.52499735,0
-2.4216504,-1.9881439,0.65451634,-0.70273399,-0.48014855,0.52499735,0
0.76071876,0.068749845,0.99062514,0.58186114,0.036747485,0.81245738,0
0.081276178,1.0365509,-1.5207105,-0.69572115,0.30945748,-0.64823455,0
-2.314903,-2.0177569,0.77031952,-0.70273399,-0.48014855,0.52499735,0
2.3749707,0.97167599,-1.646634,0.70273399,0.48014855,-0.52499735,0
2.3550467,0.51183009,-2.0938659,0.70273399,0.48014855,-0.52499735,0
-1.8809836,-2.0984893,1.277306,-0.70273399,-0.48014855,0.52499735,0
-1.5019368,-2.1436439,1.743381,-0.70273399,-0.48014855,0.52499735,0
1.9390485,1.173497,-2.0455561,0.70273399,0.48014855,-0.52499735,0
-2.865581,-0.90576839,1.0502056,-0.70273399,-0.48014855,0.52499735,0
1.3835592,1.606634,-2.3929698,0.70273399,0.48014855,-0.52499735,0
-1.1570553,-2.2216678,0.88332361,0.39188379,-0.8771227,-0.27763784,0
0.74048054,-0.97889334,-0.32298148,0.46875322,-0.86758673,-0.16602296,0
-1.2436349,-2.127543,2.1038556,-0.70273399,-0.48014855,0.52499735,0
2.4798145,1.7246637,-0.81763279,0.70273399,0.48014855,-0.52499735,0
1.5413632,-0.29032636,-0.0069897175,0.70045292,-0.59618998,0.39233017,0
2.2548044,0.8562355,-1.9130609,0.70273399,0.48014855,-0.52499735,0
-0.53566933,-0.37921527,-1.0638393,-0.42853552,-0.3033722,-0.85107142,0
-0.34224486,0.18852548,-1.3016616,-0.57365632,-0.054061741,-0.81730986,0
-0.72217911,-0.056874216,-1.0186868,-0.57774323,-0.045499295,-0.81494933,0
-0.72964919,-0.04094553,-1.014118,-0.58371931,-0.032756388,-0.81129438,0
0.091045499,1.5275794,-0.9468869,-0.65494806,0.72479904,-0.21379757,0
0.91543758,0.73870575,-2.1878729,-0.47445506,-0.23359448,-0.84872013,0
-0.9929719,-2.0141473,0.51528072,0.29368293,-0.86789179,-0.40064195,0
-2.4096961,-0.63219607,1.9106314,-0.70273399,-0.48014855,0.52499735,0
-2.3282628,-1.4666789,1.256438,-0.70273399,-0.48014855,0.52499735,0
-1.7541051,-0.62298155,-0.24823892,-0.6153965,0.039945215,-0.78720486,0
-1.4002585,-1.7028705,2.2826018,-0.70273399,-0.48014855,0.52499735,0
1.4513657,1.3561184,-2.5313225,0.70273399,0.48014855,-0.52499735,0
-1.3491633,-1.7175708,2.3375506,-0.70273399,-0.48014855,0.52499735,0
-1.6833553,-1.3902335,2.1895924,-0.70273399,-0.48014855,0.52499735,0
0.96049964,0.41137266,0.81699085,0.51902592,0.15871152,0.83989441,0
2.1593409,0.73145485,-2.1549644,0.70273399,0.48014855,-0.52499735,0
-2.517487,-0.56544757,1.8273947,-0.70273399,-0.48014855,0.52499735,0
-2.068624,-1.0176363,-0.0099071264,-0.56588191,-0.070029259,-0.82150686,0
-2.4193335,-0.77019799,1.7715187,-0.70273399,-0.48014855,0.52499735,0
2.0921483,0.79485714,-2.186919,0.70273399,0.48014855,-0.52499735,0
-2.2985725,-0.063769102,1.3356124,-0.51935029,0.85054898,0.08271414,0
0.98490942,1.8865428,-2.0361376,-0.71137917,0.48482114,-0.5088104,0
2.3439474,1.7663418,-0.96137959,0.70273399,0.48014855,-0.52499735,0
-2.504643,-1.1960073,0.3108598,-0.5996182,0.0025539398,-0.800282,0
-0.63996255,-1.9235427,0.71599162,0.4714098,-0.86693227,-0.16186851,0
1.0620315,-0.55686349,-1.1275231,0.24758172,-0.8568418,-0.4522447,0
1.2217062,1.9757214,-2.2720604,0.70273399,0.48014855,-0.52499735,0
-1.6002004,-1.448652,2.2474713,-0.70273399,-0.48014855,0.52499735,0
1.6690998,1.2342423,-2.3513396,0.70273399,0.48014855,-0.52499735,0
2.3452802,0.77806032,-1.8634516,0.70273399,0.48014855,-0.52499735,0
-0.31399322,1.192139,-0.79785275,-0.68442762,0.65770125,-0.31462318,0
-0.52287614,0.25022724,-1.1660239,-0.62342209,0.060031146,-0.77957749,0
0.010022163,0.15745819,1.4014965,0.3752023,0.37684834,0.84688157,0
0.15700385,1.3690668,-1.3679426,-0.70972478,0.52450901,-0.47029871,0
-2.1681304,-2.28584,0.72159994,-0.70273399,-0.48014855,0.52499735,0
0.093283236,1.1851207,-1.4466047,-0.70909101,0.41261524,-0.57178533,0
-0.78554219,-1.9469143,1.6118768,0.68318647,-0.66135669,0.30961853,0
-0.439798,-0.37867403,1.8224903,0.46203065,0.25314322,0.84996825,0
-1.6097753,-2.2035241,1.544269,-0.70273399,-0.48014855,0.52499735,0
2.0074062,1.1257416,0.035046458,0.51933146,0.15816972,0.83980787,0
-1.012477,0.68561804,-0.33240759,-0.69316453,0.62831068,-0.35319769,0
-2.5658855,-1.2314135,1.1535358,-0.70273399,-0.48014855,0.52499735,0
-2.2353606,-1.5892613,0.22409046,-0.4100346,-0.32970607,-0.85039133,0
0.50450647,0.36898553,-1.8538461,-0.44246751,-0.28289744,-0.85099441,0
-2.0268531,-2.2970083,0.90049219,-0.70273399,-0.48014855,0.52499735,0
2.5202055,1.9690272,-0.51978195,0.33559346,0.42695823,0.83969259,0
-2.3143349,-2.0466108,0.74469119,-0.70273399,-0.48014855,0.52499735,0
1.5799551,1.3048997,0.19353271,0.34465873,0.41579705,0.84161919,0
2.011004,0.8756429,-2.2216499,0.70273399,0.48014855,-0.52499735,0
2.3878989,0.39487171,-0.50643754,0.71087396,-0.50363308,0.49092948,0
2.8386822,0.44211483,-1.3835196,0.62178993,-0.77310669,0.12523288,0
0.085653424,0.092034981,-1.5439724,-0.44585812,-0.2778267,-0.85089523,0
2.5463266,1.4674673,-0.96382821,0.70273399,0.48014855,-0.52499735,0
2.4653497,0.76641333,-1.7133849,0.70273399,0.48014855,-0.52499735,0
1.5550265,-0.10268843,-1.6939745,0.15742767,-0.82457435,-0.54340911,0
-2.4987736,-0.75030708,1.6833761,-0.70273399,-0.48014855,0.52499735,0
-2.0415177,-2.2010899,0.9685874,-0.70273399,-0.48014855,0.52499735,0
-1.5324557,-2.4401162,1.4313842,-0.70273399,-0.48014855,0.52499735,0
-1.503839,-2.4672358,1.4448862,-0.70273399,-0.48014855,0.52499735,0
2.1950874,0.0052592754,-1.3539598,0.4878245,-0.86233157,-0.13568908,0
2.367552,1.2276578,-1.4224498,0.70273399,0.48014855,-0.52499735,0
-2.8518047,-1.1708126,0.82624376,-0.70273399,-0.48014855,0.52499735,0
0.87871534,2.1106412,-1.0799129,-0.53264546,0.84426737,0.059172988,0
1.3248053,2.0617447,-2.0553827,0.70273399,0.48014855,-0.52499735,0
1.4151546,1.6844523,-2.2795074,0.70273399,0.48014855,-0.52499735,0
-2.3910642,-0.62804091,0.33854008,-0.69876993,0.32709798,-0.63618183,0
0.18275416,1.380631,0.24678582,-0.22583729,0.85030496,0.4753722,0
2.7410095,0.54430747,-1.5475333,0.70273399,0.48014855,-0.52499735,0
2.4560413,1.0328847,-1.4821372,0.70273399,0.48014855,-0.52499735,0
-1.916759,-2.0786691,0.43450165,-0.086813092,-0.67453808,-0.73311794,0
1.4583035,2.448431,-1.523036,0.70273399,0.48014855,-0.52499735,0
-1.6450572,-0.94213617,-0.29234529,-0.4981069,-0.19484556,-0.84494054,0
-2.4940205,-0.26731229,1.8261721,-0.39876312,0.87693977,0.26826209,0
-1.5929854,-0.21682918,2.087642,0.029639602,0.71752417,0.69590253,0
1.718768,-0.13136518,-0.086395741,0.7059443,-0.56223941,0.43073112,0
-2.2824113,-0.49316478,0.29151165,-0.70506072,0.37131023,-0.60416704,0
2.1876547,0.67298436,-2.1705408,0.70273399,0.48014855,-0.52499735,0
0.21882975,-0.35354286,1.3968033,0.59630609,0.0049829185,0.80274147,0
0.32012498,0.41911045,1.1468692,0.35499156,0.40285695,0.84361547,0
0.38598794,1.6502564,-0.1811734,-0.34263319,0.8751148,0.34172562,0
-1.7879409,-2.0469332,1.4489996,-0.70273399,-0.48014855,0.52499735,0
-1.2457652,-1.0829889,-0.44000977,-0.34198272,-0.41911042,-0.84106743,0
-0.56121957,-1.8485332,0.55906826,0.43673223,-0.87365955,-0.21443862,0
-2.7389152,-0.69807315,1.4097064,-0.70273399,-0.48014855,0.52499735,0
2.1836984,1.140619,-0.080539346,0.55258709,0.096431315,0.82785761,0
1.5377474,1.9681108,-1.8559847,0.70273399,0.48014855,-0.52499735,0
2.1335759,2.0990143,-0.9387185,0.70273399,0.48014855,-0.52499735,0
2.5963383,0.84830022,-1.4631591,0.70273399,0.48014855,-0.52499735,0
-2.4307022,-1.5902787,1.0062771,-0.70273399,-0.48014855,0.52499735,0
1.1814964,-0.53649372,-1.0915332,0.30108058,-0.86929274,-0.39202106,0
-1.4358335,-1.1573951,-0.32463419,-0.36480999,-0.39033952,-0.84530979,0
-1.7555161,-1.5575652,1.9399648,-0.70273399,-0.48014855,0.52499735,0
-1.5132996,-2.3960657,1.4973128,-0.70273399,-0.48014855,0.52499735,0
2.302609,1.1546775,-1.5761248,0.70273399,0.48014855,-0.52499735,0
1.6126143,2.3326221,-0.77786285,-0.20623732,0.84371912,0.49558452,0
-0.59281921,0.8354938,-0.83063978,-0.71073979,0.50681531,-0.48783952,0
2.2918694,0.24473369,-0.53536367,0.70397842,-0.57596451,0.41554707,0
-1.696131,-2.0061285,1.6092108,-0.70273399,-0.48014855,0.52499735,0
-1.5103375,-1.9038237,1.9514691,-0.70273399,-0.48014855,0.52499735,0
2.7701695,0.87772369,-1.2035674,0.70273399,0.48014855,-0.52499735,0
0.82753217,0.09126091,-1.848017,-0.23497653,-0.53987515,-0.80828261,0
2.572063,1.9081378,-0.52635348,0.70273399,0.48014855,-0.52499735,0
2.3385797,0.44742417,-2.1748118,0.70273399,0.48014855,-0.52499735,0
0.26745829,1.6960288,-0.76877052,-0.57641256,0.81679028,-0.024541199,0
-0.40549469,-1.2452539,-0.48921061,0.027548909,-0.75573421,-0.65429872,0
1.5911852,-0.18628979,-1.5397706,0.24014908,-0.85470009,-0.46023479,0
0.81188232,0.23230827,0.94064617,0.54367799,0.11353889,0.83157867,0
1.5653164,2.387733,-0.9059127,-0.27805954,0.86458814,0.41853333,0
2.8705862,0.85310984,-1.0916661,0.70273399,0.48014855,-0.52499735,0
0.43878543,1.6040963,-1.5273327,-0.70610833,0.56098008,-0.43210226,0
1.3963289,2.4545369,-1.3701203,-0.50152987,0.85771292,0.11311954,0
-2.3643713,-2.1377189,0.59439003,-0.70273399,-0.48014855,0.52499735,0
-1.4357644,-2.4682922,1.3159837,0.47329599,-0.86645257,-0.15890503,0
-0.32069528,-0.88135487,-0.85067546,-0.14302695,-0.62751395,-0.76535577,0
-2.3194907,-1.0489883,1.6501888,-0.70273399,-0.48014855,0.52499735,0
0.3983478,1.5107965,0.11585525,-0.21231639,0.84583092,0.48937869,0
-1.8708494,-0.98639572,2.3079622,-0.70273399,-0.48014855,0.52499735,0
0.58353162,1.1293125,-1.976523,-0.65191305,0.13906327,-0.74543321,0
1.9990586,1.1558377,-1.9813809,0.70273399,0.48014855,-0.52499735,0
-2.8954265,-1.2768989,0.67083025,-0.70273399,-0.48014855,0.52499735,0
1.5561796,1.5454662,-2.2178516,0.70273399,0.48014855,-0.52499735,0
-1.449906,-1.9420984,1.9973546,-0.70273399,-0.48014855,0.52499735,0
-2.2785518,-0.52002382,2.1887641,-0.70273399,-0.48014855,0.52499735,0
-2.9164455,-0.62720704,1.0694072,-0.69602561,0.61681706,-0.36753923,0
0.60638994,0.27049318,1.0590678,0.48511189,0.21639454,0.84725416,0
2.0225835,0.5139215,-2.412255,-0.031685233,-0.71606904,-0.69730985,0
1.7281294,1.9090539,-1.6551609,0.70273399,0.48014855,-0.52499735,0
2.9023538,1.0384812,-0.87960792,0.70273399,0.48014855,-0.52499735,0
-0.028590083,-1.5173621,0.32904926,0.49512744,-0.85996246,-0.12374687,0
0.25283542,-1.186545,0.93074191,0.6973747,-0.61095059,0.37471032,0
2.2339048,0.89172733,-1.9085763,0.70273399,0.48014855,-0.52499735,0
-0.51178098,1.1640451,-0.16779208,-0.57097429,0.82085609,-0.013543427,0
0.43881714,1.6229281,-0.074485078,-0.2823754,0.86554694,0.41363314,0
2.2363605,0.058978915,-0.8045584,0.65219057,-0.7296114,0.20570517,0
2.3347216,1.4506658,-1.2624378,0.70273399,0.48014855,-0.52499735,0
-1.5362127,0.46279174,0.6865952,-0.54433811,0.83801365,0.037802339,0
0.48898339,0.042930007,-1.7052445,-0.31688082,-0.44944873,-0.83521396,0
1.3226571,2.4081979,-1.3479731,-0.51231682,0.8535409,0.094865143,0
-1.9274013,-1.0245802,2.1973419,-0.70273399,-0.48014855,0.52499735,0
1.8115706,2.3970695,-1.0971448,0.70273399,0.48014855,-0.52499735,0
-2.2003441,-0.8538202,1.9881675,-0.70273399,-0.48014855,0.52499735,0
-2.2534945,-0.55969107,2.1860256,-0.70273399,-0.48014855,0.52499735,0
0.24846262,-1.2825705,-0.094844282,0.41882598,-0.87570143,-0.24027443,0
-0.30956879,-1.7224929,0.66562974,0.5360626,-0.84251314,-0.052994668,0
-0.022740338,1.3772999,-1.0432278,-0.68889284,0.64357847,-0.3335163,0
2.2969575,1.4941046,-1.2732589,0.70273399,0.48014855,-0.52499735,0
-2.5832615,-1.3098327,1.0585574,-0.70273399,-0.48014855,0.52499735,0
2.2186112,0.039407849,-1.4682803,0.45439082,-0.87071466,-0.18810856,0
1.8999151,1.2526746,-2.0255244,0.70273399,0.48014855,-0.52499735,0
-1.789626,-1.4437619,1.9983888,-0.70273399,-0.48014855,0.52499735,0
2.104852,1.0365912,-1.9488312,0.70273399,0.48014855,-0.52499735,0
0.85350811,1.6631912,-2.0426667,-0.70622468,0.38148651,-0.5964182,0
2.3497002,0.87669301,-1.7673286,0.70273399,0.48014855,-0.52499735,0
2.1206198,2.1609221,-0.8994422,0.70273399,0.48014855,-0.52499735,0
-1.5114627,-1.9890838,0.32346612,0.020350575,-0.75118709,-0.6597755,0
0.27020389,1.6209435,-0.23754025,-0.39824176,0.87695777,0.26897645,0
-2.3714025,-1.744157,0.94491941,-0.70273399,-0.48014855,0.52499735,0
2.3737416,0.83932281,-0.24379814,0.66268623,-0.17325836,0.7285797,0
1.7613361,0.18712211,-2.05072,0.057447195,-0.77380872,-0.63080889,0
1.9110017,-0.13865936,-1.3650801,0.4083553,-0.87648118,-0.25500309,0
-2.5797594,-1.8184388,0.59808779,-0.70273399,-0.48014855,0.52499735,0
2.5913575,0.95957303,-1.3680588,0.70273399,0.48014855,-0.52499735,0
-2.711251,-0.53746176,1.593627,-0.70273399,-0.48014855,0.52499735,0
1.394436,1.5391216,0.10824502,0.18113959,0.59285468,0.78467304,0
2.8605571,0.52861619,-1.4018638,0.70273399,0.48014855,-0.52499735,0
-2.930423,-0.61557412,1.1173176,-0.69068503,0.63741237,-0.34155458,0
1.9497892,1.399083,-1.8248641,0.70273399,0.48014855,-0.52499735,0
-1.7562406,-2.0600221,1.4794613,-0.70273399,-0.48014855,0.52499735,0
2.3888719,1.6440047,-1.0131323,0.70273399,0.48014855,-0.52499735,0
2.2928426,1.152535,-1.5911572,0.70273399,0.48014855,-0.52499735,0
-2.2621624,-1.1297466,1.6530659,-0.70273399,-0.48014855,0.52499735,0
-1.3556573,-0.44644904,2.2387769,0.23233044,0.54259318,0.80722678,0
-2.2661219,-1.3720757,1.4261386,-0.70273399,-0.48014855,0.52499735,0
-0.59714031,0.84328938,0.83739161,-0.22227967,0.84915787,0.47908512,0
-1.9778464,-1.1420368,2.0223963,-0.70273399,-0.48014855,0.52499735,0
-2.4926875,-1.2465152,1.2377034,-0.70273399,-0.48014855,0.52499735,0
0.58926159,-1.1041408,0.22675234,0.60358042,-0.79300559,0.082659602,0
-0.97981346,-0.26328212,2.0054817,0.2662226,0.50684512,0.81989849,0
1.5922437,1.4520502,-2.2550139,0.70273399,0.48014855,-0.52499735,0
1.61605,1.2664157,-2.3929245,0.70273399,0.48014855,-0.52499735,0
2.4428318,0.59506631,-1.9002354,0.70273399,0.48014855,-0.52499735,0
-2.0152636,-1.9465055,1.2365658,-0.70273399,-0.48014855,0.52499735,0
1.032516,-0.2962231,0.67843354,0.69829655,-0.32424152,0.63816077,0
-0.84048718,-0.27028793,-0.91664279,-0.53792447,-0.12435585,-0.83377022,0
-0.7032752,0.97830856,0.4103291,-0.42774934,0.87479836,0.22750431,0
-1.1553782,-2.0869131,2.0714016,0.70684552,-0.55503553,0.43852586,0
2.9059389,0.90329361,-0.99844825,0.70273399,0.48014855,-0.52499735,0
-2.7271008,-1.5187688,0.67493427,-0.70273399,-0.48014855,0.52499735,0
-1.118626,-1.1994027,2.3938293,0.57732248,0.046386182,0.81519741,0
-1.5607315,-1.6193464,2.1441898,-0.70273399,-0.48014855,0.52499735,0
1.5131468,-0.083504319,0.24935281,0.7088576,-0.40956634,0.57426137,0
2.8070121,0.42240477,-1.3483082,0.62467885,-0.76959008,0.13231599,0
-1.7813163,-1.3634239,2.0829864,-0.70273399,-0.48014855,0.52499735,0
-1.6937851,-1.6895914,1.9018471,-0.70273399,-0.48014855,0.52499735,0
-1.9779614,-1.6702582,1.5391451,-0.70273399,-0.48014855,0.52499735,0
-0.88513613,-0.95522726,2.2120085,0.55229503,0.096999228,0.82798624,0
1.878078,0.8298434,-2.4414649,0.70273399,0.48014855,-0.52499735,0
-0.74622643,-1.7151809,1.8656108,0.71144271,-0.47815365,0.51499355,0
0.85182321,-0.83284259,0.37851059,0.68145859,-0.66627407,0.30280846,0
0.4810468,0.17051056,1.1563048,0.49004436,0.20829189,0.84644604,0
-1.5407884,-2.1605678,1.675898,-0.70273399,-0.48014855,0.52499735,0
-1.2438489,-2.3206964,1.0931821,0.44540852,-0.87233245,-0.20161134,0
-1.545862,-0.3731811,-0.39351463,-0.64137936,0.10820544,-0.7595551,0
-1.8972175,-2.1073766,1.2474477,-0.70273399,-0.48014855,0.52499735,0
0.39748776,1.3068269,0.41442022,-0.069485903,0.78071535,0.62101126,0
-1.0369443,0.46803468,-0.55901313,-0.71122098,0.45528072,-0.53561568,0
-1.8985257,0.21506989,0.82328391,-0.58383852,0.81088984,-0.039877653,0
1.2437658,2.3162768,-1.8043327,-0.65414292,0.72622281,-0.21141756,0
2.3739088,1.7067982,-0.97573203,0.70273399,0.48014855,-0.52499735,0
-1.9571557,0.079498529,0.45142865,-0.68073642,0.66827404,-0.30001271,0
-1.3459311,-1.8262695,2.2424641,-0.70273399,-0.48014855,0.52499735,0
-1.7121037,-0.69037902,-0.28085184,-0.58982164,-0.019456625,-0.80729896,0
-2.6119885,-0.9800365,1.3217276,-0.70273399,-0.48014855,0.52499735,0
2.1050329,0.02802825,-0.54774976,0.68316269,-0.66142547,0.30952376,0
2.3431003,1.9556167,-0.44609559,0.2892462,0.48136953,0.82741761,0
1.0602583,1.616659,-2.2890959,-0.68267715,0.24733868,-0.68758655,0
-0.70920682,0.096215189,1.6840309,0.18388426,0.59026951,0.78598249,0
-0.80750561,0.51115644,-0.81244987,-0.70475489,0.36878341,-0.60606867,0
2.8533144,0.55644464,-1.3861074,0.70273399,0.48014855,-0.52499735,0
-1.3548057,-2.4196584,1.294459,0.48659801,-0.86270946,-0.13767636,0
2.1299133,1.0307368,-1.9206392,0.70273399,0.48014855,-0.52499735,0
0.51413494,1.7387707,-1.454497,-0.69045275,0.63822985,-0.340496,0
-2.5111563,-1.5795782,0.90837216,-0.70273399,-0.48014855,0.52499735,0
-2.816144,-1.4586968,0.61068571,-0.70273399,-0.48014855,0.52499735,0
2.2861848,1.6831969,-1.1147395,0.70273399,0.48014855,-0.52499735,0
-2.266459,-1.7043015,1.121842,-0.70273399,-0.48014855,0.52499735,0
-2.3983612,-1.2671874,1.3450575,-0.70273399,-0.48014855,0.52499735,0
0.21661937,-1.0390234,-0.66030771,0.17329538,-0.83121872,-0.52824622,0
2.2176323,0.62362945,-2.1755524,0.70273399,0.48014855,-0.52499735,0
0.62442768,-0.53511506,-1.2660481,0.023626089,-0.75326556,-0.65729195,0
1.4658191,1.2474896,-2.611325,0.70273399,0.48014855,-0.52499735,0
-1.548896,-1.7740723,2.0185244,-0.70273399,-0.48014855,0.52499735,0
0.5595066,1.7761147,-0.32977167,-0.35020155,0.8757838,0.3322069,0
-2.3282056,-0.22884536,0.62402415,-0.69681287,0.61343253,-0.37168843,0
0.067267418,-0.44017774,1.5098183,0.5916754,0.015356004,0.80602992,0
0.88385141,2.1059933,-1.3661939,-0.61380595,0.78228796,-0.10614896,0
-1.5535336,0.093542933,1.7081586,-0.15016818,0.82140219,0.55022526,0
2.4368145,0.46377659,-2.0283637,0.70273399,0.48014855,-0.52499735,0
-1.2327008,0.15794158,-0.52964199,-0.69811577,0.32316232,-0.6389057,0
-2.3732245,-0.96483111,1.6552315,-0.70273399,-0.48014855,0.52499735,0
2.2829456,1.1935127,-1.5669279,0.70273399,0.48014855,-0.52499735,0
1.5472878,1.872458,-1.9306955,0.70273399,0.48014855,-0.52499735,0
-2.2636704,-1.4493922,1.3587075,-0.70273399,-0.48014855,0.52499735,0
-1.7224849,-0.94222605,2.5469513,-0.70273399,-0.48014855,0.52499735,0
0.36149323,0.22053607,1.2075995,0.44326919,0.28170153,0.85097378,0
0.76882595,2.0386641,-1.0611508,-0.55217665,0.8334071,0.023097157,0
-1.6745893,-2.1176794,1.5360239,-0.70273399,-0.48014855,0.52499735,0
-1.9745162,-0.169155,1.9846709,-0.16811466,0.82909328,0.53323704,0
0.97429496,1.1936562,0.46487647,0.20952225,0.56552696,0.79767132,0
2.450727,1.8498243,-0.74209905,0.70273399,0.48014855,-0.52499735,0
2.9421592,1.0886915,-0.78040552,0.70273399,0.48014855,-0.52499735,0
-2.4721906,-0.47064519,1.9747298,-0.70273399,-0.48014855,0.52499735,0
2.1112022,2.3387103,-0.74944717,0.70273399,0.48014855,-0.52499735,0
-0.36738646,-1.4267648,-0.24159914,0.16505778,-0.82781911,-0.53616357,0
-2.2671995,-1.1235938,1.6519506,-0.70273399,-0.48014855,0.52499735,0
-0.27023745,-1.4110807,1.4897319,0.71115953,-0.49524558,0.49898279,0
2.0381408,1.4532086,-1.6571,0.70273399,0.48014855,-0.52499735,0
0.066429019,0.031835847,1.4237103,0.43850923,0.28877306,0.85106969,0
-0.034018099,-1.5187448,0.31746736,0.48988444,-0.86168408,-0.13233954,0
0.58714628,1.4235445,0.28877276,-0.061277509,0.77602941,0.62771285,0
2.0540633,1.01735,-2.0344114,0.70273399,0.48014855,-0.52499735,0
-1.4273872,0.49214238,0.19451773,-0.65342897,0.72747225,-0.20931935,0
0.83312619,-0.74469709,-0.89470661,0.2743082,-0.8637265,-0.42276657,0
1.0077858,-0.66354936,-0.94297051,0.30888397,-0.87065411,-0.38282099,0
-2.2897639,-1.7097954,1.0856228,-0.70273399,-0.48014855,0.52499735,0
-1.1826171,-0.73440838,2.3248301,0.40552819,0.33597955,0.85009682,0
-0.5327608,-1.8778697,0.91190308,0.56031322,-0.82824701,-0.0074866414,0
-2.4007921,-2.1023889,0.57795084,-0.70273399,-0.48014855,0.52499735,0
