1.516449,1.5351133,1.6002202,-0.46670222,0.64903754,0.60078228,0
3.8786597,0.061707497,1.0564821,0.40345737,-0.88114905,-0.24657351,0
-3.7728713,-0.77049255,-2.6146441,-0.88306034,-0.30439341,-0.35714012,0
3.7176929,1.0910211,2.4778886,0.88306034,0.30439341,0.35714012,0
-4.1823149,-1.9566197,-0.59131145,-0.88306034,-0.30439341,-0.35714012,0
4.2321243,1.1471143,1.1581033,0.88306034,0.30439341,0.35714012,0
3.7303021,2.1248231,1.5655923,0.88306034,0.30439341,0.35714012,0
3.7102656,2.1984744,1.5523607,0.88306034,0.30439341,0.35714012,0
4.1660547,1.1819038,1.2918137,0.88306034,0.30439341,0.35714012,0
2.901448,1.5651293,2.4537656,-0.44452089,0.2987659,0.84447634,0
0.29387826,0.89128983,-0.85582566,0.076034963,0.65820074,-0.74899292,0
4.2871661,1.1372585,1.0304066,0.88306034,0.30439341,0.35714012,0
-0.82116073,-0.37024888,0.99237353,-0.31541777,-0.17847928,0.93201756,0
-2.3387392,-2.0398664,-1.5809247,0.42551774,-0.84028023,-0.33595237,0
3.8971572,1.8617141,0.40960932,0.18285257,0.47771183,-0.85927671,0
2.6897221,1.8498816,0.24431753,0.014394253,0.74314296,-0.6689778,0
-3.8398795,-2.4408627,-1.0252905,-0.88306034,-0.30439341,-0.35714012,0
-2.0973947,-1.8121097,-0.2252214,0.077011943,-0.84475923,0.5295763,0
0.83676451,1.610166,0.53793716,-0.33456191,0.94206023,0.024308205,0
4.0874987,0.61028624,1.9732443,0.88306034,0.30439341,0.35714012,0
1.8606261,-0.33174229,1.5372436,0.011263549,-0.77460158,0.63234913,0
-3.8686786,-0.21060705,-0.71824294,-0.45501804,0.74150401,0.49308237,0
-0.037159085,1.0369834,0.92935359,-0.46401396,0.67988688,0.56784225,0
2.8116519,1.3155661,2.4718065,-0.4112258,0.1353547,0.90142792,0
-3.8123715,-1.6941056,-1.7297724,-0.88306034,-0.30439341,-0.35714012,0
-3.4632237,-2.2560506,-2.114121,-0.88306034,-0.30439341,-0.35714012,0
2.96632,2.1709723,2.0058603,-0.45036525,0.76353651,0.46279937,0
-0.20620507,-0.6389088,1.0544074,-0.16496402,-0.51112705,0.84352595,0
4.0680761,2.1025681,0.7493856,0.88306034,0.30439341,0.35714012,0
4.4546056,0.35088396,1.2866315,0.88306034,0.30439341,0.35714012,0
-4.2381382,-0.70145941,-1.5230668,-0.88306034,-0.30439341,-0.35714012,0
2.9915829,2.2441843,0.82848549,-0.16460544,0.91364211,-0.37170315,0
-1.5557306,-1.7438941,-0.23480105,0.16018142,-0.91088831,0.3802948,0
-1.171692,0.59956527,-1.2202628,-0.027465314,0.79329324,-0.60821986,0
1.3574626,-0.21458197,1.6101396,-0.12096113,-0.58769816,0.79998702,0
-3.535665,-1.9262457,-2.2160993,-0.88306034,-0.30439341,-0.35714012,0
-2.6037092,-1.0203137,-2.400804,0.36645305,0.028071463,-0.93001306,0
-4.2352328,-0.8784337,-1.3794155,-0.88306034,-0.30439341,-0.35714012,0
3.1820426,0.082050323,2.0183218,0.033691317,-0.80023378,0.59874105,0
-0.10650337,-0.077474654,1.2894679,-0.32743609,-0.14547825,0.93360686,0
4.446332,0.9489994,0.79730916,0.88306034,0.30439341,0.35714012,0
-2.7386799,-0.61102104,-2.361237,0.24467999,0.35074943,-0.90393949,0
-4.4875832,-0.40191555,-1.1615967,-0.88306034,-0.30439341,-0.35714012,0
3.0721588,0.10629225,0.19581991,0.46893981,-0.60050672,-0.6476782,0
0.36270481,-0.92733443,0.82572985,0.054975241,-0.82293779,0.56546545,0
-3.5467005,-1.8897834,-2.2198899,-0.88306034,-0.30439341,-0.35714012,0
3.6758897,2.4463072,1.4261289,0.88306034,0.30439341,0.35714012,0
-3.7249899,-1.9162955,-1.7564579,-0.88306034,-0.30439341,-0.35714012,0
3.12326,0.33040905,0.065408349,0.46265131,-0.43747282,-0.77108449,0
-3.775018,-1.131237,-2.3018706,-0.88306034,-0.30439341,-0.35714012,0
3.9318244,1.6781049,1.448052,0.88306034,0.30439341,0.35714012,0
-0.51346773,-0.67509443,0.96993041,-0.18999755,-0.46397319,0.86523396,0
4.1863804,0.36237669,1.9400458,0.88306034,0.30439341,0.35714012,0
-4.1524296,-0.28038216,-2.0938783,-0.88306034,-0.30439341,-0.35714012,0
-0.11133211,-1.233376,0.37875414,0.15005028,-0.90427697,0.39971018,0
2.7206516,1.5575151,2.3597052,-0.4510017,0.34029746,0.8251031,0
3.4273934,0.24654698,0.32333833,0.46918607,-0.58617836,-0.66049922,0
4.2053638,1.7202511,0.73578048,0.88306034,0.30439341,0.35714012,0
4.0031943,1.6981516,1.2544987,0.88306034,0.30439341,0.35714012,0
3.6670718,1.8332362,1.970457,0.88306034,0.30439341,0.35714012,0
-1.988163,-0.86802125,-2.152266,0.37943488,-0.015364468,-0.92509085,0
3.9489298,1.3173718,1.7132132,0.88306034,0.30439341,0.35714012,0
-1.3065146,-0.80529672,0.71650827,-0.23776644,-0.36590868,0.89976549,0
0.78959763,-0.43203968,-0.90104914,0.4593389,-0.40503746,-0.79053926,0
3.7118888,0.79792523,0.19487751,0.43314719,-0.23595181,-0.86989099,0
3.8344865,2.3224564,1.139544,0.88306034,0.30439341,0.35714012,0
4.4776049,0.4346385,1.1583797,0.88306034,0.30439341,0.35714012,0
4.1505957,1.2213697,1.2964002,0.88306034,0.30439341,0.35714012,0
3.7172871,0.19594049,2.1323309,0.074726492,-0.84257662,0.53336704,0
-0.35897905,-1.3986503,-0.65867841,0.40370953,-0.88076764,-0.24752182,0
3.4792809,2.3106155,2.0279121,0.88306034,0.30439341,0.35714012,0
4.2748346,1.4322057,0.80951047,0.88306034,0.30439341,0.35714012,0
1.6794331,0.81195736,2.0255637,-0.38979882,0.052076906,0.91942644,0
1.9414685,-0.48380041,-0.013397291,0.44943169,-0.7675038,-0.45710957,0
-3.6964192,-2.2016096,-1.5839258,-0.88306034,-0.30439341,-0.35714012,0
1.8820477,1.9471426,1.1756362,-0.38377613,0.90642792,0.17636442,0
3.7969937,1.3767972,2.03824,0.88306034,0.30439341,0.35714012,0
-3.9902496,-1.3941274,-1.5456276,-0.88306034,-0.30439341,-0.35714012,0
0.36702335,0.24522805,1.4960809,-0.36553997,-0.031031519,0.93027818,0
3.8672526,1.8732743,1.4413677,0.88306034,0.30439341,0.35714012,0
-2.3837321,0.35473228,-1.4283162,-0.13584206,0.89430416,-0.42634141,0
4.0701032,0.8284452,0.3691926,0.44570869,-0.30598769,-0.84125817,0
-0.89969176,0.95448411,-0.59688073,-0.21314979,0.93821496,-0.27261651,0
4.4345059,0.41564178,1.2811348,0.88306034,0.30439341,0.35714012,0
0.8143326,1.4153,-0.21639121,-0.10629219,0.87103868,-0.47957647,0
-1.9095536,-0.39386857,0.57188511,-0.39598411,0.074991196,0.91519004,0
-3.4447534,-2.001121,-2.3770692,-0.88306034,-0.30439341,-0.35714012,0
3.725199,2.2509003,1.4707537,0.88306034,0.30439341,0.35714012,0
-2.2015488,0.3785454,-0.0663504,-0.45249406,0.75396442,0.47622135,0
0.83311832,-0.71950531,-0.65609127,0.46701869,-0.64436424,-0.60554802,0
4.1868458,1.0521779,1.3509724,0.88306034,0.30439341,0.35714012,0
-4.1337528,-0.89157438,-1.6191325,-0.88306034,-0.30439341,-0.35714012,0
4.2386775,1.6634319,0.70183659,0.88306034,0.30439341,0.35714012,0
3.4776134,2.1093535,2.2035732,0.88306034,0.30439341,0.35714012,0
-4.2501383,-1.7694426,-0.58314562,-0.88306034,-0.30439341,-0.35714012,0
-4.317656,-0.71392202,-1.3158313,-0.88306034,-0.30439341,-0.35714012,0
-2.5574861,0.40831208,-0.5796423,-0.39209408,0.89675194,0.2051782,0
3.7574129,1.9118228,1.6801002,0.88306034,0.30439341,0.35714012,0
3.6067643,2.035532,0.48602772,0.075037897,0.65968156,-0.74778974,0
-1.0853884,-1.319195,0.37919092,-0.0031987429,-0.75714952,0.65323383,0
-1.0015912,0.92963386,-0.60094684,-0.22473112,0.94244254,-0.24758399,0
-3.6410871,-1.6571026,-2.1848264,-0.88306034,-0.30439341,-0.35714012,0
4.4798489,1.1996217,0.50082874,0.88306034,0.30439341,0.35714012,0
4.1789994,0.27391338,2.0336938,0.88306034,0.30439341,0.35714012,0
-2.5741625,-0.95301008,-2.3858695,0.35341734,0.069272906,-0.93289721,0
3.4208784,1.2962594,0.065108538,0.30746186,0.19964093,-0.93038201,0
-3.4514883,-1.964973,-2.3912253,-0.88306034,-0.30439341,-0.35714012,0
3.8510525,2.4351573,0.96481252,-0.088660002,0.85558939,-0.51000619,0
3.8281553,1.366456,1.9700038,0.88306034,0.30439341,0.35714012,0
-3.8699591,-2.1673496,-1.1840324,-0.88306034,-0.30439341,-0.35714012,0
3.4242616,0.74372339,2.5936632,-0.21108276,-0.4220643,0.88164955,0
-4.2816157,-1.6932287,-0.57027245,-0.88306034,-0.30439341,-0.35714012,0
1.6689103,1.6436405,0.019668579,-0.064406782,0.83248878,-0.55028558,0
3.9792247,1.9610357,1.0897064,0.88306034,0.30439341,0.35714012,0
-4.0385628,-0.35472918,-0.67434186,-0.46502993,0.66960257,0.57911968,0
-3.4345384,-1.676887,-2.6786742,-0.88306034,-0.30439341,-0.35714012,0
1.3104618,1.5721571,1.3801246,-0.45542508,0.73936337,0.49591309,0
2.5715032,2.1593895,0.83697581,-0.22251606,0.94168609,-0.25241637,0
-4.2604222,-0.19383621,-1.9006194,-0.88306034,-0.30439341,-0.35714012,0
4.434761,1.2230406,0.59235287,0.88306034,0.30439341,0.35714012,0
-0.11014605,-1.1620953,-0.88913798,0.45482156,-0.74252379,-0.49172741,0
0.70350188,0.013415694,1.5739926,-0.27607346,-0.27842993,0.91992402,0
-3.467032,-1.2423129,-0.070667505,-0.32579035,-0.1500746,0.93345505,0
-3.5999141,-1.4078598,-2.4990618,-0.88306034,-0.30439341,-0.35714012,0
3.3187885,1.7538021,0.23079586,0.14928508,0.53930372,-0.82877344,0
-3.8943732,-2.0587893,-1.2161934,-0.88306034,-0.30439341,-0.35714012,0
3.2932682,1.7569518,2.5904412,-0.4512291,0.34186262,0.8243314,0
-4.3985481,-0.78715611,-1.0533998,-0.88306034,-0.30439341,-0.35714012,0
-4.5210776,-0.90667629,-0.64856577,-0.88306034,-0.30439341,-0.35714012,0
3.9422736,0.055479527,1.6565249,0.26461175,-0.95153451,0.15672481,0
-2.0030718,-0.31794953,-2.0477386,0.2321496,0.37803453,-0.8962124,0
4.2229166,1.5236621,0.85993552,0.88306034,0.30439341,0.35714012,0
4.0549564,1.3086629,1.4584749,0.88306034,0.30439341,0.35714012,0
-3.3247142,-0.91988516,0.0020856857,-0.38840908,0.047036827,0.92028588,0
4.1802425,1.4710212,1.0103157,0.88306034,0.30439341,0.35714012,0
4.5422101,0.51887131,0.8891263,0.4642671,-0.67743909,-0.57055449,0
-3.5358682,-1.821322,-2.3050246,-0.88306034,-0.30439341,-0.35714012,0
-1.8049458,0.69992459,-0.58033884,-0.32205606,0.94666195,-0.010535836,0
1.59912,1.6893597,1.4696409,-0.45236218,0.75458038,0.47537026,0
-3.8523843,-0.63433361,-2.5340896,-0.88306034,-0.30439341,-0.35714012,0
-3.6673384,-1.4913459,-2.261194,-0.88306034,-0.30439341,-0.35714012,0
-4.1882434,-1.6329794,-0.85249448,-0.88306034,-0.30439341,-0.35714012,0
3.9679842,2.3015552,0.82727265,0.88306034,0.30439341,0.35714012,0
4.1414709,0.31638098,2.0902913,0.88306034,0.30439341,0.35714012,0
3.5495944,2.4889097,1.7020941,0.88306034,0.30439341,0.35714012,0
-4.1074538,-1.9735541,-0.7619791,-0.88306034,-0.30439341,-0.35714012,0
3.879425,1.7129669,1.5479007,0.88306034,0.30439341,0.35714012,0
-0.067720026,-1.3381505,-0.33233666,0.35967255,-0.92786551,-0.098494768,0
4.1536789,1.1940389,1.312071,0.88306034,0.30439341,0.35714012,0
4.3314071,1.2521548,0.82309008,0.88306034,0.30439341,0.35714012,0
-0.33693731,1.1900229,-0.18115926,-0.26954982,0.95201838,-0.14492726,0
4.3145151,1.7263682,0.46068168,0.88306034,0.30439341,0.35714012,0
-4.0664263,-1.521656,-1.2485805,-0.88306034,-0.30439341,-0.35714012,0
-3.6473911,-2.4592638,-1.4855509,-0.88306034,-0.30439341,-0.35714012,0
2.5306311,-0.40584207,1.2066579,0.2286354,-0.94371486,0.23901474,0
1.7287633,1.9103148,1.0078559,-0.36052868,0.92724884,0.1011371,0
1.1168027,1.1915133,-0.50824869,0.068750679,0.66893715,-0.74013257,0
3.1296694,2.2066638,0.70789719,-0.10178661,0.86720037,-0.48744559,0
1.2326756,1.5621995,1.3227787,-0.45251852,0.7538498,0.47637954,0
1.1168947,0.72200376,-0.80035186,0.24342734,0.35351565,-0.90319967,0
4.1994872,1.416182,1.0094721,0.88306034,0.30439341,0.35714012,0
3.7267952,0.021707058,1.7460008,0.21133968,-0.93749428,0.27647805,0
-3.6332331,-2.5354252,-1.4556448,-0.88306034,-0.30439341,-0.35714012,0
3.4443312,2.0330234,2.3509226,0.88306034,0.30439341,0.35714012,0
4.1098824,1.0813694,1.5163908,0.88306034,0.30439341,0.35714012,0
1.533235,1.6704009,1.4369984,-0.45165607,0.75782502,0.47085887,0
-2.7931542,-2.2080376,-0.83492613,0.19341323,-0.92951334,0.31400049,0
3.6633892,2.0464435,1.7978437,0.88306034,0.30439341,0.35714012,0
0.63079214,1.2561344,1.2125731,-0.46492764,0.67069679,0.57793427,0
-2.469532,-1.6998721,-0.078269958,-0.049756408,-0.6960451,0.71627206,0
-3.9569473,-0.50405693,-2.3865848,-0.88306034,-0.30439341,-0.35714012,0
4.1988459,0.33158398,1.9354686,0.88306034,0.30439341,0.35714012,0
-4.496243,-0.72782087,-0.86241281,-0.88306034,-0.30439341,-0.35714012,0
-3.7970877,-1.0289097,-2.3345153,-0.88306034,-0.30439341,-0.35714012,0
-2.9565563,-1.0566552,0.13730907,-0.32825935,-0.14316943,0.93367445,0
1.8402839,0.99218225,2.0771766,-0.4132399,0.14381987,0.89919335,0
1.3462262,-0.12543106,1.6689,-0.15693671,-0.52567977,0.83608115,0
0.71438336,-0.15598845,1.513625,-0.2224974,-0.39848614,0.8897773,0
-3.9979291,-1.3096166,-1.5986691,-0.88306034,-0.30439341,-0.35714012,0
-3.3285923,-0.38407898,-0.15835977,-0.46383059,0.45075324,0.76268125,0
2.990608,2.3473432,1.249342,-0.29314268,0.95213056,-0.086687803,0
3.2212238,0.1319921,0.28070003,0.46825787,-0.6212883,-0.62827969,0
-3.9073024,-1.8833771,-1.3337306,-0.88306034,-0.30439341,-0.35714012,0
0.18970805,-1.0496678,-0.78134668,0.45627284,-0.73476994,-0.5019244,0
-1.1042928,0.79769754,-0.90678519,-0.13728873,0.89535642,-0.42366111,0
1.6260794,1.425771,-0.24644327,0.0420385,0.70669633,-0.70626706,0
4.0144153,1.6572766,1.2615908,0.88306034,0.30439341,0.35714012,0
-3.9580538,-1.0727868,-1.8991156,-0.88306034,-0.30439341,-0.35714012,0
3.4498441,1.8775434,2.4698086,0.88306034,0.30439341,0.35714012,0
-2.0414314,-0.040894032,0.4149285,-0.45551896,0.37321594,0.8082155,0
-4.5409508,-0.56317377,-0.89219868,-0.88306034,-0.30439341,-0.35714012,0
4.2115507,0.50384855,1.757232,0.88306034,0.30439341,0.35714012,0
-3.8602264,-1.1317916,-2.0907128,-0.88306034,-0.30439341,-0.35714012,0
-3.7547319,-2.2578058,-1.3918452,-0.88306034,-0.30439341,-0.35714012,0
3.8210616,0.67041397,2.5807862,0.88306034,0.30439341,0.35714012,0
3.5764356,1.4812522,2.4945624,0.88306034,0.30439341,0.35714012,0
2.2456603,1.9043281,0.35463071,-0.10337357,0.86856085,-0.48468113,0
0.20133001,-1.1876103,-0.4901703,0.41451907,-0.86272144,-0.28963023,0
2.0493927,-0.0056046247,-0.38749921,0.45999986,-0.41106564,-0.78703558,0
0.5325678,-0.2513625,-1.1025826,0.42605424,-0.20109004,-0.88206607,0
-4.1112399,-0.85494804,-1.706015,-0.88306034,-0.30439341,-0.35714012,0
0.85314626,-0.5694564,-0.77596241,0.46852422,-0.529329,-0.70731598,0
-4.3929162,-0.39162207,-1.4044425,-0.88306034,-0.30439341,-0.35714012,0
-3.814889,-1.7750483,-1.6545601,-0.88306034,-0.30439341,-0.35714012,0
-3.5476062,-1.3578286,-2.6710396,-0.88306034,-0.30439341,-0.35714012,0
-3.9235325,-1.1733942,-1.8987246,-0.88306034,-0.30439341,-0.35714012,0
3.824543,0.8978343,2.3783453,0.88306034,0.30439341,0.35714012,0
0.64563876,-0.1789515,1.4861506,-0.22273785,-0.39798239,0.88994265,0
3.9218743,0.54044199,2.4422939,0.88306034,0.30439341,0.35714012,0
0.36977822,1.3368757,0.8410483,-0.43453535,0.81774414,0.37745675,0
-1.1280713,0.81376642,0.24972963,-0.43672293,0.81155294,0.38814276,0
4.2874804,0.54206848,1.5369136,0.88306034,0.30439341,0.35714012,0
-4.1267338,-0.74303484,-1.7630908,-0.88306034,-0.30439341,-0.35714012,0
3.6919336,2.34306,1.474457,0.88306034,0.30439341,0.35714012,0
1.01407,-0.97253644,0.22982174,0.32979038,-0.94399172,-0.01086396,0
-1.8665032,0.43330586,0.15600216,-0.46134663,0.70232838,0.54211992,0
-3.5009351,-2.1019998,-2.1521757,-0.88306034,-0.30439341,-0.35714012,0
-4.3699574,-1.1647553,-0.80226159,-0.88306034,-0.30439341,-0.35714012,0
-3.7144191,-0.98308229,-2.57798,-0.88306034,-0.30439341,-0.35714012,0
0.85072577,-0.23589978,-0.94828194,0.43984675,-0.27170151,-0.85598654,0
-3.1665325,-1.5459385,-2.5940106,0.42907995,-0.21563545,-0.87714982,0
3.90152,2.0828271,1.1780355,0.88306034,0.30439341,0.35714012,0
3.3619542,1.6283894,0.16715693,0.19991386,0.4445225,-0.87317479,0
-2.1708083,0.16242909,-1.7346461,0.020307273,0.73557019,-0.67714405,0
-1.9422867,0.64977932,-0.53273904,-0.34747684,0.93565643,0.06169945,0
4.268075,1.0923018,1.1159275,0.88306034,0.30439341,0.35714012,0
4.0573692,2.0603695,0.81182456,0.88306034,0.30439341,0.35714012,0
0.90108043,1.2726723,-0.43368721,-0.005515933,0.76775241,-0.64072293,0
1.0527937,1.552399,-0.010296345,-0.14576343,0.90135318,-0.40781772,0
1.3754314,1.7817264,0.52109826,-0.27231205,0.95222223,-0.13827133,0
1.1369298,0.11411214,1.7335863,-0.26163852,-0.31242019,0.91320252,0
4.1569295,1.3948894,1.1328472,0.88306034,0.30439341,0.35714012,0
3.7415881,2.3941555,1.3081324,0.88306034,0.30439341,0.35714012,0
4.2613573,1.310535,0.94653559,0.88306034,0.30439341,0.35714012,0
-3.9460826,-0.069286346,-1.7242603,-0.24522404,0.94822252,-0.20183969,0
-4.3414984,-0.55021143,-1.39641,-0.88306034,-0.30439341,-0.35714012,0
-3.9860983,-2.1005344,-0.58452272,-0.10303426,-0.61672837,0.78040385,0
-3.4359818,-1.7662153,-2.5989704,-0.88306034,-0.30439341,-0.35714012,0
4.0240417,2.0718558,0.5679853,0.120058,0.58918995,-0.79902518,0
0.65071064,1.3794148,1.0582526,-0.44899362,0.76932102,0.4544777,0
-4.3467016,-0.35956955,-1.5460317,-0.88306034,-0.30439341,-0.35714012,0
3.8528743,1.2291565,2.0259051,0.88306034,0.30439341,0.35714012,0
-0.29618895,-0.92946815,-1.2667408,0.4672935,-0.50081939,-0.72857171,0
1.4700878,1.0109768,1.894501,-0.43640733,0.25295594,0.86345923,0
1.0704479,-0.85666716,-0.22173893,0.42873502,-0.83273673,-0.35033682,0
-0.26715547,0.69839573,1.0631928,-0.46548945,0.47193241,0.74873185,0
3.5212111,1.8475246,2.3189321,0.88306034,0.30439341,0.35714012,0
-1.5468136,-1.0920911,-1.9080409,0.44374979,-0.29415807,-0.84649694,0
0.10219693,0.46254408,1.361015,-0.42484671,0.19540733,0.88392371,0
-3.6033101,-2.0382528,-1.9533762,-0.88306034,-0.30439341,-0.35714012,0
-4.2281227,-0.399261,-1.8053974,-0.88306034,-0.30439341,-0.35714012,0
-3.9159606,-0.6958313,-2.3244777,-0.88306034,-0.30439341,-0.35714012,0
1.2308332,1.7461059,0.63195598,-0.31809473,0.94781923,-0.021316886,0
4.0028729,1.6211953,1.3208824,0.88306034,0.30439341,0.35714012,0
3.9100614,0.84637427,0.28060138,0.43601155,-0.25085407,-0.86427206,0
-2.5154939,-1.7678173,-0.14989972,-0.025170267,-0.72925144,0.68378258,0
4.3735809,1.0432224,0.89688611,0.88306034,0.30439341,0.35714012,0
1.4935361,-0.32922292,1.5289532,-0.051854253,-0.69311363,0.7189607,0
4.3463168,1.0082779,0.99408257,0.88306034,0.30439341,0.35714012,0
-3.9759164,-1.1951509,-1.7506573,-0.88306034,-0.30439341,-0.35714012,0
-2.3206375,-1.6204838,0.0085659027,-0.062506974,-0.67798901,0.73240954,0
4.2508297,0.31584644,1.8203487,0.88306034,0.30439341,0.35714012,0
4.3103337,0.6511817,1.3874099,0.88306034,0.30439341,0.35714012,0
-3.7051258,-0.8712635,-2.6962624,-0.88306034,-0.30439341,-0.35714012,0
1.7698303,1.8577793,0.4284761,-0.19581887,0.93067157,-0.30903959,0
-1.9580507,-1.0450108,-2.1227844,0.41536075,-0.15287593,-0.89671868,0
-1.0725766,0.85958701,-0.77331489,-0.17868483,0.92185259,-0.34388864,0
3.5533006,2.0933461,2.0300727,0.88306034,0.30439341,0.35714012,0
-3.5770271,-1.1932664,-2.7385523,-0.88306034,-0.30439341,-0.35714012,0
-2.520817,-0.22248125,0.22843814,-0.45386928,0.36071137,0.81479448,0
3.6149721,2.3033581,1.6985903,0.88306034,0.30439341,0.35714012,0
-0.53107345,-0.96100378,0.77037621,-0.081269979,-0.65036696,0.75526023,0
-1.1822716,-1.7063051,-0.89067674,0.38336635,-0.90687072,-0.17497373,0
4.3984847,0.97635603,0.89230096,0.88306034,0.30439341,0.35714012,0
3.0383539,1.1858478,-0.084817171,0.30164403,0.21479231,-0.92891085,0
3.8505478,2.2222145,1.1852672,0.88306034,0.30439341,0.35714012,0
-3.8381288,-0.12963915,-1.9797162,-0.14877647,0.90341592,-0.40212584,0
-0.33744144,-1.2565972,-0.95596164,0.45196164,-0.7564317,-0.4728021,0
4.4942236,0.79789114,0.80768538,0.88306034,0.30439341,0.35714012,0
-2.7420464,0.37271428,-0.83725375,-0.35195634,0.9330039,0.075036287,0
-4.256906,-0.47597504,-1.6688453,-0.88306034,-0.30439341,-0.35714012,0
-0.88972783,0.4262197,0.84532237,-0.46166676,0.42719129,0.77741325,0
-4.3525267,-0.89627934,-1.0741848,-0.88306034,-0.30439341,-0.35714012,0
0.095262408,-0.9828462,-0.94481361,0.46650869,-0.65173984,-0.59800065,0
3.9297156,0.94318008,2.0796494,0.88306034,0.30439341,0.35714012,0
-3.9084907,-1.6115475,-1.5624741,-0.88306034,-0.30439341,-0.35714012,0
-4.2768202,-1.4053268,-0.82751107,-0.88306034,-0.30439341,-0.35714012,0
3.6738,1.4787655,2.255939,0.88306034,0.30439341,0.35714012,0
2.5255713,1.9801641,1.8874316,-0.45709831,0.73011076,0.50793642,0
2.1963863,1.7081362,0.077103376,0.0001552701,0.76088214,-0.64889002,0
1.9055634,-0.58777153,0.16399658,0.42070764,-0.85068059,-0.31519455,0
-4.195436,-0.80105543,-1.5437665,-0.88306034,-0.30439341,-0.35714012,0
3.9869485,0.73949909,2.1117351,0.88306034,0.30439341,0.35714012,0
4.0219364,1.2420273,0.27836585,0.37120312,0.012478203,-0.92846775,0
-4.1057248,-0.11846447,-1.2379172,-0.38547677,0.90455747,0.1821636,0
-0.37020063,-1.2165209,-1.0444763,0.45990509,-0.71259892,-0.52980202,0
3.4942429,2.2669168,2.0281622,0.88306034,0.30439341,0.35714012,0
3.0472021,2.0379095,2.2453055,-0.46791542,0.62873244,0.62108833,0
4.4484439,0.98313904,0.76299,0.88306034,0.30439341,0.35714012,0
3.7911627,1.8917875,1.6137275,0.88306034,0.30439341,0.35714012,0
-3.3052964,-1.0251935,0.010707855,-0.36451846,-0.034329385,0.93056315,0
-4.297996,-0.17864943,-1.3481129,-0.37860358,0.91180015,0.15899587,0
-4.0833445,-1.3758183,-1.3310471,-0.88306034,-0.30439341,-0.35714012,0
-0.85411513,0.7494275,0.60601109,-0.46451673,0.67495447,0.57328922,0
3.8602631,0.92081404,2.2704394,0.88306034,0.30439341,0.35714012,0
-0.55392098,-1.4836638,-0.10421002,0.24775599,-0.94877827,0.19605303,0
-4.3380928,-0.5801425,-1.3793209,-0.88306034,-0.30439341,-0.35714012,0
3.3332257,-0.16010427,0.99702436,0.37007111,-0.91969681,-0.13116825,0
-0.4046244,0.35097283,1.1402497,-0.43443877,0.24260604,0.86741292,0
-0.85427409,-1.3496428,0.32943535,0.056615978,-0.8246218,0.56284392,0
-3.897758,-2.247216,-1.0472267,-0.88306034,-0.30439341,-0.35714012,0
1.3724601,0.81287646,1.8907195,-0.4100526,0.1304822,0.90268004,0
-3.4681108,-2.185132,-2.1624815,-0.88306034,-0.30439341,-0.35714012,0
-3.491323,-1.627223,-2.5805972,-0.88306034,-0.30439341,-0.35714012,0
-0.57783175,0.54170638,0.96703911,-0.46226537,0.43336508,0.77363133,0
3.9514694,2.0188348,0.51845646,0.13117111,0.57061648,-0.81067324,0
3.5095897,1.6460919,2.5193496,0.88306034,0.30439341,0.35714012,0
-1.1543689,0.84702796,-0.76243734,-0.19313736,0.92937875,-0.31456804,0
2.9490199,1.0776083,-0.13653302,0.32223016,0.15993199,-0.93305385,0
-0.42084861,-0.14897576,1.1675584,-0.33667886,-0.11918059,0.93404675,0
0.75782233,1.5306255,0.090334296,-0.21843369,0.94022691,-0.26126647,0
1.9354635,-0.36107635,1.4959491,0.041173846,-0.80839628,0.58719689,0
-4.0760369,-0.77430964,-1.8617852,-0.88306034,-0.30439341,-0.35714012,0
3.9012222,2.2803671,1.0104058,0.88306034,0.30439341,0.35714012,0
3.9379816,2.2258685,0.96596456,0.88306034,0.30439341,0.35714012,0
-4.4936256,-0.32170963,-1.2150159,-0.88306034,-0.30439341,-0.35714012,0
-0.23910737,0.32744139,1.2267015,-0.42203236,0.182414,0.88803935,0
3.2293065,1.8931661,2.4838009,-0.46488261,0.46376592,0.75419176,0
-3.512012,-1.7847257,-2.3952017,-0.88306034,-0.30439341,-0.35714012,0
2.5188751,2.151186,0.85489726,-0.23454469,0.94548965,-0.22591615,0
3.8716309,0.22769976,2.1598904,0.088133663,-0.85511065,0.51089954,0
-0.64720702,-1.1303349,0.59870303,-0.022002459,-0.73337698,0.67946619,0
4.5216789,0.47014141,1.0191417,0.88306034,0.30439341,0.35714012,0
3.9154754,2.0819664,1.1442633,0.88306034,0.30439341,0.35714012,0
-3.9422293,-0.86564159,-2.1147945,-0.88306034,-0.30439341,-0.35714012,0
-0.80911595,-0.016890153,1.0171301,-0.39552766,0.073272109,0.91552669,0
0.75361419,0.38355553,1.6525908,-0.36667007,-0.027366102,0.92994857,0
4.4108305,0.45537949,1.3058068,0.88306034,0.30439341,0.35714012,0
-4.2121496,-1.7026768,-0.73398113,-0.88306034,-0.30439341,-0.35714012,0
3.1720912,-0.088535547,0.53586912,0.44264501,-0.79299057,-0.4186064,0
-2.8001366,-1.5933537,-2.3883309,0.45192832,-0.34672984,-0.82191187,0
3.9172359,0.58865595,2.4126699,0.88306034,0.30439341,0.35714012,0
3.8677442,0.8643837,2.3000379,0.88306034,0.30439341,0.35714012,0
-4.0362988,-1.0785713,-1.7007177,-0.88306034,-0.30439341,-0.35714012,0
4.4762173,0.91929388,0.74873292,0.88306034,0.30439341,0.35714012,0
-1.3958158,-1.2007267,0.46852183,-0.10589826,-0.61217153,0.78360158,0
4.1762581,0.85824347,1.5424438,0.88306034,0.30439341,0.35714012,0
-3.733053,-1.9533415,-1.7049465,-0.88306034,-0.30439341,-0.35714012,0
-3.4403293,-2.2680717,-2.1604836,-0.88306034,-0.30439341,-0.35714012,0
1.9472938,1.8799317,1.4806029,-0.43477258,0.81708789,0.37860286,0
-3.8361571,-1.8978467,-1.4973112,-0.88306034,-0.30439341,-0.35714012,0
2.6364172,1.0404634,2.4142697,-0.36842161,-0.02164951,0.9294067,0
4.2907743,0.21941471,1.803771,0.88306034,0.30439341,0.35714012,0
-0.48279011,-0.96834624,-1.3591866,0.46610552,-0.48087358,-0.74263459,0
-1.7337965,0.42153203,0.27830905,-0.46629483,0.65460807,0.59502721,0
4.1231761,1.2385426,1.3495607,0.88306034,0.30439341,0.35714012,0
-1.7344676,0.50359607,-1.304504,-0.084714621,0.85197616,-0.51668179,0
-4.35005,-1.282444,-0.75117755,-0.88306034,-0.30439341,-0.35714012,0
0.27504969,-0.75361645,-1.0208749,0.46807778,-0.51739365,-0.71638459,0
-4.4117813,-0.34488344,-1.3976316,-0.88306034,-0.30439341,-0.35714012,0
3.4108925,1.9387102,2.5139866,0.88306034,0.30439341,0.35714012,0
-3.767386,-1.4462676,-2.0522382,-0.88306034,-0.30439341,-0.35714012,0
-1.8689148,-0.88654757,-2.1016369,0.39165211,-0.058858335,-0.91822875,0
-0.4582268,-0.31265295,-1.533664,0.37345445,0.0049701631,-0.92763513,0
-4.4102006,-0.87409258,-0.95049059,-0.88306034,-0.30439341,-0.35714012,0
2.9996037,1.309566,-0.061378956,0.26230013,0.31089064,-0.91353476,0
-3.6193211,-2.485919,-1.5322371,-0.88306034,-0.30439341,-0.35714012,0
3.4368966,2.2101545,2.2183354,0.88306034,0.30439341,0.35714012,0
-3.9194908,-2.3606393,-0.89681864,-0.88306034,-0.30439341,-0.35714012,0
3.8767271,1.1493139,2.0349777,0.88306034,0.30439341,0.35714012,0
1.702759,1.8205023,1.324064,-0.42557612,0.84014755,0.33620977,0
-2.8401005,-2.1275465,-0.62882257,0.11583418,-0.8789162,0.46269727,0
3.9024248,1.2105427,1.9192525,0.88306034,0.30439341,0.35714012,0
3.9377341,1.6916304,1.4219127,0.88306034,0.30439341,0.35714012,0
-3.1157882,-1.5900173,-0.092289448,-0.183689,-0.47611511,0.85998416,0
-3.462317,-2.5040841,-1.3869734,0.27847469,-0.9525001,0.12327039,0
-3.9482481,-1.9500775,-1.1756399,-0.88306034,-0.30439341,-0.35714012,0
3.5913222,2.1593919,1.8797691,0.88306034,0.30439341,0.35714012,0
3.3997982,2.1362991,2.3730116,0.88306034,0.30439341,0.35714012,0
-3.8718905,-1.2987723,-1.9195516,-0.88306034,-0.30439341,-0.35714012,0
1.2986817,1.5634949,1.3821666,-0.45615292,0.73543155,0.50106382,0
-3.8251221,-1.1628308,-2.1510561,-0.88306034,-0.30439341,-0.35714012,0
-3.9752464,-1.9703603,-1.0915964,-0.88306034,-0.30439341,-0.35714012,0
2.2794476,0.99496973,-0.37343407,0.28181672,0.2645334,-0.92228055,0
-0.15994507,1.1834111,0.55804634,-0.42345077,0.84487098,0.32692876,0
0.80095583,1.1086793,1.4672779,-0.46750498,0.50491989,0.72559983,0
0.055928886,0.87873447,-0.88724172,0.044743121,0.70298755,-0.70979339,0
-4.3501253,-0.85556173,-1.1148264,-0.88306034,-0.30439341,-0.35714012,0
-4.1574922,-0.53736639,-1.8623307,-0.88306034,-0.30439341,-0.35714012,0
-2.9576893,-1.9825284,-0.39920092,0.0060012341,-0.76833498,0.64001977,0
-2.8861761,-1.826185,-0.23020935,-0.057657421,-0.68492424,0.72632939,0
-4.1421065,-1.9448087,-0.70079708,-0.88306034,-0.30439341,-0.35714012,0
-1.9221039,-0.09571898,0.50230056,-0.44475234,0.30016115,0.84385937,0
3.4843299,1.9481163,2.3243895,0.88306034,0.30439341,0.35714012,0
-0.70612466,-0.94385409,0.76217043,-0.11372513,-0.59956205,0.79220688,0
-3.1300619,-1.7165709,-2.5177097,0.45294625,-0.35397187,-0.81825644,0
1.2165959,1.0310146,-0.61820138,0.1485852,0.54053807,-0.82809496,0
3.9535246,0.86829567,2.084604,0.88306034,0.30439341,0.35714012,0
3.8089881,0.97987604,2.3468814,0.88306034,0.30439341,0.35714012,0
4.3742757,1.2670679,0.70438266,0.88306034,0.30439341,0.35714012,0
0.33505362,1.370528,0.7129364,-0.41556621,0.86078036,0.29387391,0
3.5741777,-0.01871109,1.7236105,0.19879474,-0.93206739,0.30287135,0
-3.7251949,-1.8920245,-1.7766373,-0.88306034,-0.30439341,-0.35714012,0
4.2414274,1.7144575,0.65154815,0.88306034,0.30439341,0.35714012,0
-3.2874751,-1.6910796,-2.6123791,0.44361949,-0.29338527,-0.84683341,0
-0.89057297,0.17702734,-1.5452335,0.19490987,0.45439422,-0.86921585,0
-2.8297625,-1.4888916,0.024787903,-0.18458641,-0.47439885,0.86074018,0
-0.11576176,0.3010273,1.2886653,-0.41025692,0.13132778,0.90246451,0
3.5016646,2.3320279,1.9543167,0.88306034,0.30439341,0.35714012,0
4.4660292,0.35493708,1.0640433,0.44196716,-0.79526532,-0.41499165,0
-3.9943449,-1.6719589,-1.298703,-0.88306034,-0.30439341,-0.35714012,0
-0.14732927,-1.3578618,-0.42413926,0.37304887,-0.91707063,-0.14076942,0
-4.4748802,-0.8646698,-0.79859638,-0.88306034,-0.30439341,-0.35714012,0
0.6841777,0.39637458,-1.031647,0.29557711,0.23031557,-0.92714024,0
2.9418166,1.874006,0.28040409,0.044511676,0.70330596,-0.70949239,0
-4.0509825,-1.8096437,-1.041312,-0.88306034,-0.30439341,-0.35714012,0
-3.2390378,-2.4007995,-1.7880642,0.39679384,-0.89065957,-0.2219913,0
3.8465681,1.9844532,1.3977525,0.88306034,0.30439341,0.35714012,0
1.8791065,0.26706862,1.9941362,-0.22952265,-0.38364851,0.89450157,0
1.725498,1.6568165,1.6273173,-0.46288282,0.6900689,0.55636716,0
4.2281442,0.42991209,1.7792205,0.88306034,0.30439341,0.35714012,0
3.6397502,1.5549417,2.2752039,0.88306034,0.30439341,0.35714012,0
4.0054584,1.7625098,1.194047,0.88306034,0.30439341,0.35714012,0
-2.5290587,-1.1186488,-2.3683219,0.3925544,-0.062185407,-0.91762412,0
-2.9458501,-0.18062592,-2.1251481,0.05606705,0.68718034,-0.72432011,0
-4.0796952,-1.3794103,-1.3370084,-0.88306034,-0.30439341,-0.35714012,0
4.0573144,0.8050952,1.8818403,0.88306034,0.30439341,0.35714012,0
3.6057205,1.2252765,2.6403213,0.88306034,0.30439341,0.35714012,0
-3.8090048,-0.85203409,-2.4558012,-0.88306034,-0.30439341,-0.35714012,0
-0.49919307,-0.60247898,-1.5208868,0.42533767,-0.19770941,-0.88317543,0
3.493438,2.3145552,1.9895498,0.88306034,0.30439341,0.35714012,0
-1.8973264,-1.9010274,-1.3675183,0.41958004,-0.85298038,-0.31044638,0
-4.126009,-1.3084402,-1.2829815,-0.88306034,-0.30439341,-0.35714012,0
3.9937088,2.167732,0.87772465,0.88306034,0.30439341,0.35714012,0
3.5551748,2.1995468,1.9349221,0.88306034,0.30439341,0.35714012,0
-3.2401776,-1.4364164,-0.051660776,-0.24888265,-0.34140491,0.90636641,0
-3.8736539,-2.2644308,-1.0921538,-0.88306034,-0.30439341,-0.35714012,0
0.67641461,1.5031389,0.059485078,-0.21908085,0.94046378,-0.25986838,0
3.3366864,0.21853828,0.28377312,0.46921214,-0.58356279,-0.66279298,0
2.7920699,0.82839704,-0.21885467,0.36894119,0.019945025,-0.92923874,0
-3.7563417,-1.4743156,-2.0556407,-0.88306034,-0.30439341,-0.35714012,0
0.14681911,-0.081249714,1.3745338,-0.3034603,-0.21009055,0.92939436,0
0.90608293,-0.9681738,0.54024482,0.23150879,-0.94460076,0.23266506,0
-0.91794509,-0.72813129,-1.6942718,0.42233402,-0.18379059,-0.88761199,0
-3.7514327,0.025124073,-1.4559965,-0.29891872,0.95156443,-0.071923256,0
-3.8134117,-1.2077355,-2.1417375,-0.88306034,-0.30439341,-0.35714012,0
-3.503931,0.046502113,-1.6840457,-0.20237827,0.93369365,-0.29539669,0
1.4376483,1.6516094,0.076034069,-0.12108141,0.88310111,-0.45328987,0
0.66869384,-0.25208831,1.4562399,-0.19540274,-0.45342705,0.86961001,0
-3.7146213,-2.5150936,-1.2717345,-0.88306034,-0.30439341,-0.35714012,0
4.0657511,0.91741896,1.7652463,0.88306034,0.30439341,0.35714012,0
-3.7459273,-0.13173676,-2.0136268,-0.1235272,0.88501579,-0.44887424,0
4.5156608,0.34459496,1.1410279,0.88306034,0.30439341,0.35714012,0
3.6536732,2.492517,1.4416759,0.88306034,0.30439341,0.35714012,0
3.7696204,2.377188,1.2532825,0.88306034,0.30439341,0.35714012,0
4.1529484,1.497468,1.0552615,0.88306034,0.30439341,0.35714012,0
-3.9813759,-1.5170436,-1.4628062,-0.88306034,-0.30439341,-0.35714012,0
-1.1441963,-0.71805477,0.79446399,-0.24760056,-0.34426618,0.90563494,0
3.7893648,1.185369,2.220259,0.88306034,0.30439341,0.35714012,0
3.9291155,2.1469703,1.0551331,0.88306034,0.30439341,0.35714012,0
2.2479649,-0.35770404,0.077524185,0.45337,-0.74978918,-0.48194575,0
0.020070612,-0.97528231,0.78161466,0.016056508,-0.78022587,0.62529182,0
4.1726284,1.7067356,0.82824039,0.88306034,0.30439341,0.35714012,0
-3.4430315,-1.9967418,-2.3850594,-0.88306034,-0.30439341,-0.35714012,0
-1.7145628,-1.6359093,-1.6436336,0.46443003,-0.67582554,-0.57233262,0
4.1574173,0.42714643,1.9564557,0.88306034,0.30439341,0.35714012,0
-3.2129741,-1.3403935,-2.6457911,0.38976264,-0.051945299,-0.91944909,0
-4.2954435,-1.4983613,-0.70216846,-0.88306034,-0.30439341,-0.35714012,0
3.4003315,1.9716358,2.5120363,0.88306034,0.30439341,0.35714012,0
-4.0851941,-1.8461916,-0.92557049,-0.88306034,-0.30439341,-0.35714012,0
-2.4260125,-2.1552861,-1.2377793,0.34838694,-0.93513632,-0.064393103,0
4.1850796,1.8460596,0.67870808,0.88306034,0.30439341,0.35714012,0
4.2173853,1.5435221,0.38167453,0.31473631,0.18031272,-0.93189502,0
-4.4283013,-0.98073959,-0.81484091,-0.88306034,-0.30439341,-0.35714012,0
-3.1198237,-0.11200571,-2.0582728,-0.0062093437,0.76858467,-0.63971788,0
-1.3853788,-0.087068558,-1.7902056,0.22634053,0.39040065,-0.89238852,0
3.747869,2.3208466,1.3550851,0.88306034,0.30439341,0.35714012,0
-3.7392275,-1.849442,-1.7782332,-0.88306034,-0.30439341,-0.35714012,0
3.4004824,2.0328283,2.4595084,0.88306034,0.30439341,0.35714012,0
-3.4904156,-1.9685593,-2.291919,-0.88306034,-0.30439341,-0.35714012,0
2.0966403,1.5158722,2.0175059,-0.46563768,0.4740167,0.74732167,0
4.0966549,0.23237514,0.90562683,0.44322106,-0.79102325,-0.42170751,0
3.7115469,1.1751509,2.42138,0.88306034,0.30439341,0.35714012,0
1.6698506,1.8097879,0.34908152,-0.18308036,0.92424005,-0.33505499,0
-4.186511,-0.1620245,-1.8646214,-0.23222327,0.94481432,-0.23108053,0
-2.2257595,-1.8273017,-1.8320591,0.46307254,-0.68843877,-0.55822569,0
3.7878113,1.1681771,0.18378806,0.36970156,0.017443329,-0.92898685,0
4.3407483,0.9475913,1.059575,0.88306034,0.30439341,0.35714012,0
3.3856356,1.7462847,0.23845029,0.16074622,0.51880699,-0.83964282,0
0.93529069,-0.99823529,0.14901119,0.34182718,-0.93867731,-0.045155466,0
-4.0414858,-1.7291088,-1.1334331,-0.88306034,-0.30439341,-0.35714012,0
-3.5002813,-1.9595585,-2.2751954,-0.88306034,-0.30439341,-0.35714012,0
-2.1264515,0.40174866,-1.4054819,-0.10638998,0.87112111,-0.47940493,0
-2.1049623,0.57244992,-0.94414753,-0.25570682,0.95028639,-0.17767906,0
3.5795398,2.072299,1.9831324,0.88306034,0.30439341,0.35714012,0
-3.8139009,-0.67006588,-2.5987883,-0.88306034,-0.30439341,-0.35714012,0
-0.10489178,1.1984417,-0.36754584,-0.1834567,0.9244405,-0.33429539,0
4.154479,1.7277904,0.85517144,0.88306034,0.30439341,0.35714012,0
3.9645252,1.3448334,1.6512468,0.88306034,0.30439341,0.35714012,0
-0.27385613,-1.2474513,0.4004494,0.11897247,-0.88143182,0.45708168,0
2.8498871,2.0686784,0.52507782,-0.075276464,0.84310359,-0.5324564,0
-4.2378011,-1.8555391,-0.54026961,-0.88306034,-0.30439341,-0.35714012,0
2.9443941,1.1608086,-0.12109733,0.29962969,0.21997711,-0.92834914,0
-2.7596562,0.24466109,-1.537789,-0.15077651,0.90476483,-0.39833021,0
3.031574,1.8100786,2.4128511,-0.46394795,0.45214492,0.76178551,0
-3.5087938,-0.81725669,-0.092189431,-0.41912061,0.16931534,0.89200354,0
3.9729629,0.95315742,1.9642137,0.88306034,0.30439341,0.35714012,0
3.6855111,0.46437478,0.32928872,0.46631438,-0.48408517,-0.74041355,0
-3.4732006,-2.3469524,-2.0119767,-0.88306034,-0.30439341,-0.35714012,0
-2.5158129,-2.0385301,-1.7842107,0.44532555,-0.78355289,-0.4332782,0
-4.3946958,-0.61664629,-1.2082516,-0.88306034,-0.30439341,-0.35714012,0
1.0177714,-0.39623559,1.4226949,-0.094447315,-0.63020778,0.77066058,0
-3.8183031,-1.8204665,-1.607408,-0.88306034,-0.30439341,-0.35714012,0
3.7146995,0.97507381,2.5841126,0.88306034,0.30439341,0.35714012,0
-0.067834139,-1.3455492,-0.19786501,0.32731616,-0.94490653,-0.0039663911,0
-0.48307329,-1.4565709,-0.06291151,0.24399121,-0.94793892,0.20464647,0
-3.998719,-1.2763233,-1.6250913,-0.88306034,-0.30439341,-0.35714012,0
-3.8404479,-1.0529327,-2.2068284,-0.88306034,-0.30439341,-0.35714012,0
-4.1630683,-0.30360842,-2.0477755,-0.88306034,-0.30439341,-0.35714012,0
4.282382,1.0397034,1.1253819,0.88306034,0.30439341,0.35714012,0
-3.8260977,-0.9064436,-2.3671644,-0.88306034,-0.30439341,-0.35714012,0
-4.432827,-0.52113676,-1.1953721,-0.88306034,-0.30439341,-0.35714012,0
-1.224298,0.89281982,-0.19049877,-0.35960397,0.9279145,0.09828347,0
2.0336883,1.8744471,0.35202003,-0.13363104,0.89268017,-0.43042409,0
1.4961782,-0.55181921,1.2616212,0.063926011,-0.83200955,0.55106604,0
-4.5309925,-0.91470766,-0.6172061,-0.88306034,-0.30439341,-0.35714012,0
-3.4587805,-1.5692639,-2.7104619,-0.88306034,-0.30439341,-0.35714012,0
4.3453574,1.4661267,0.60622621,0.88306034,0.30439341,0.35714012,0
1.0238731,0.95964694,1.6787312,-0.44953728,0.33041519,0.82990485,0
4.2812252,0.88559914,1.259588,0.88306034,0.30439341,0.35714012,0
4.1071386,0.13764668,1.8444953,0.22856078,-0.94369131,0.23917913,0
2.8864496,2.2367954,1.7815311,-0.42199141,0.84800053,0.32065308,0
0.9510771,-0.72733378,1.0595804,0.056616426,-0.82462227,0.56284332,0
-1.9935672,-1.5940892,0.054555178,-0.02216807,-0.73316211,0.67969257,0
2.3348322,1.6999869,2.0407174,-0.46912488,0.55442202,0.68741411,0
-4.250906,-0.19803905,-1.9205682,-0.88306034,-0.30439341,-0.35714012,0
-4.4711733,-0.95601368,-0.7299093,-0.88306034,-0.30439341,-0.35714012,0
-2.0297484,-2.0107007,-1.1576002,0.36687359,-0.9223702,-0.12098372,0
3.8294287,2.1007938,1.3409739,0.88306034,0.30439341,0.35714012,0
3.8139839,1.9968252,1.4677761,0.88306034,0.30439341,0.35714012,0
-3.4079051,-2.0167909,-2.4548233,-0.88306034,-0.30439341,-0.35714012,0
3.5109494,2.2831264,0.77154374,-0.06711933,0.83517718,-0.54586971,0
-0.99443567,0.24474299,-1.5278484,0.15766531,0.52437007,-0.83676618,0
4.3908482,0.43916559,1.3690341,0.88306034,0.30439341,0.35714012,0
0.18402159,-0.74039257,1.0368025,-0.069955707,-0.66717422,0.74160963,0
3.7421877,1.2136693,2.3127875,0.88306034,0.30439341,0.35714012,0
-3.950557,-0.52370071,-2.3856425,-0.88306034,-0.30439341,-0.35714012,0
-1.7859383,-1.2907927,-1.9570405,0.45671588,-0.38270846,-0.80308461,0
-4.000452,-1.2413087,-1.6506495,-0.88306034,-0.30439341,-0.35714012,0
-1.8251812,-1.6763537,-0.05167532,0.051987469,-0.81984657,0.57021827,0
-0.7345109,-0.52472627,-1.640627,0.39737409,-0.080254763,-0.91414064,0
-0.79248106,-1.5337203,-0.07376349,0.20881283,-0.93646157,0.28184569,0
4.0084434,0.44726276,2.3076625,0.88306034,0.30439341,0.35714012,0
-0.3379153,-0.89793038,-1.3135388,0.4649682,-0.46488422,-0.75345016,0
3.4703395,2.330678,2.0329204,0.88306034,0.30439341,0.35714012,0
-4.4772682,-1.0284352,-0.65311253,-0.88306034,-0.30439341,-0.35714012,0
-4.2514467,-0.75715494,-1.4426914,-0.88306034,-0.30439341,-0.35714012,0
-4.0770059,-0.46216583,-2.1254344,-0.88306034,-0.30439341,-0.35714012,0
-4.5043783,-0.92023468,-0.67830157,-0.88306034,-0.30439341,-0.35714012,0
0.75143421,-0.49566627,-0.88896781,0.46324992,-0.44406664,-0.76694477,0
-4.2591205,-1.7548029,-0.45183325,-0.25895393,-0.31859979,0.91183162,0
-2.1123731,-0.57693362,-2.1649523,0.2981593,0.22374228,-0.92792261,0
-3.74418,-0.78945112,-2.6694272,-0.88306034,-0.30439341,-0.35714012,0
-0.36619887,0.91305757,-0.84587884,-0.047437072,0.81507826,-0.57740545,0
1.4222829,1.7987125,0.54589188,-0.27396667,0.95232105,-0.13426423,0
-1.2101904,0.56196785,0.53188777,-0.4682318,0.62189829,0.62769538,0
1.0949602,0.69909024,1.7809711,-0.40677994,0.11710539,0.90598923,0
-3.6071832,-2.2810888,-1.7368286,-0.88306034,-0.30439341,-0.35714012,0
-0.83818865,-0.30965212,0.99651742,-0.3324936,-0.13119236,0.93393612,0
-0.73298597,-1.453954,0.11290359,0.1550446,-0.9075889,0.39018393,0
-3.581007,-1.176898,-2.7426624,-0.88306034,-0.30439341,-0.35714012,0
3.8522112,1.1916866,2.0594823,0.88306034,0.30439341,0.35714012,0
1.7703815,1.6936537,0.083888054,-0.073488653,0.8413868,-0.53541362,0
4.467721,0.89521694,0.79026258,0.88306034,0.30439341,0.35714012,0
-1.9852579,-0.56157923,-2.12009,0.30593181,0.20365149,-0.93001693,0
0.74465871,0.23923685,-1.039149,0.34191495,0.10389969,-0.9339695,0
-2.9490502,0.2876122,-0.80999899,-0.37699908,0.91337383,0.15368754,0
-0.77573311,0.40357149,-1.383261,0.12555903,0.58005565,-0.80484176,0
-3.8014038,-0.71620655,-2.590363,-0.88306034,-0.30439341,-0.35714012,0
-3.6456449,-1.2844176,-2.4911993,-0.88306034,-0.30439341,-0.35714012,0
-0.54054117,-1.2720034,0.40990973,0.07488507,-0.84272873,0.53310454,0
-3.6080947,-2.489337,-1.5570827,-0.88306034,-0.30439341,-0.35714012,0
-1.5419447,0.74171877,-0.82572389,-0.22280128,0.94178486,-0.25179505,0
-4.4339304,-0.85553455,-0.90763354,-0.88306034,-0.30439341,-0.35714012,0
3.9056063,2.1800959,1.0850284,0.88306034,0.30439341,0.35714012,0
-3.8760018,-0.69109917,-2.4273114,-0.88306034,-0.30439341,-0.35714012,0
-3.9360366,-2.1160674,-1.0643587,-0.88306034,-0.30439341,-0.35714012,0
-4.3580446,-1.3939803,-0.41529107,-0.36319113,-0.038593024,0.930915,0
4.154808,0.81579351,0.41960597,0.45063192,-0.33777064,-0.82634246,0
-2.923322,0.30438685,-1.1840162,-0.28170907,0.95254564,-0.11531198,0
3.8229086,0.94103479,2.3455667,0.88306034,0.30439341,0.35714012,0
3.6029897,1.9574704,2.0230205,0.88306034,0.30439341,0.35714012,0
3.6984396,1.1561351,2.4699967,0.88306034,0.30439341,0.35714012,0
1.1998297,-0.83724785,0.76305908,0.1988859,-0.93210953,0.30268157,0
-3.5466118,-2.4137511,-1.7735267,-0.88306034,-0.30439341,-0.35714012,0
-4.0734987,-1.924052,-0.88812733,-0.88306034,-0.30439341,-0.35714012,0
3.8936584,1.9942584,1.2729609,0.88306034,0.30439341,0.35714012,0
-4.4365778,-0.57684231,-1.13862,-0.88306034,-0.30439341,-0.35714012,0
3.6235812,1.7630634,2.1378002,0.88306034,0.30439341,0.35714012,0
-0.31400728,-1.2426758,-0.9557339,0.45303875,-0.75138551,-0.47976619,0
4.267293,0.5864048,1.5490422,0.88306034,0.30439341,0.35714012,0
4.3196282,0.77783108,1.2564838,0.88306034,0.30439341,0.35714012,0
-0.022686962,-1.2646099,0.24987018,0.20490035,-0.93480206,0.29010522,0
-3.3306966,0.1197679,-1.5686812,-0.21672207,0.93959022,-0.264956,0
3.6055913,2.3139162,0.80702114,-0.066018909,0.83408976,-0.54766405,0
3.6241708,1.5580235,0.20295763,0.25220579,0.33394504,-0.90822518,0
-2.4900649,-0.39613628,-2.2033024,0.20242125,0.43953204,-0.87512124,0
-4.337595,-0.52146101,-1.430566,-0.88306034,-0.30439341,-0.35714012,0
3.1513376,1.5197854,2.5928063,-0.42582887,0.2000238,0.88241732,0
2.6662591,0.88443613,2.4118099,-0.32899207,-0.14110935,0.93373042,0
-2.4987125,-0.35863984,0.28983688,-0.43618691,0.25178388,0.86391318,0
-4.4905119,-0.51678181,-1.0564537,-0.88306034,-0.30439341,-0.35714012,0
-3.0372357,0.24129796,-1.3691022,-0.24151258,0.94734335,-0.21026731,0
-3.5430639,0.092689276,-1.1205312,-0.36137927,0.9266265,0.10377073,0
-1.5753809,-1.8647794,-0.83627188,0.3344664,-0.94210106,-0.024037063,0
1.0475473,1.4593685,-0.18460774,-0.08270365,0.85011268,-0.52006602,0
3.6098328,1.9453311,2.0164466,0.88306034,0.30439341,0.35714012,0
3.7842927,1.9677019,1.5660114,0.88306034,0.30439341,0.35714012,0
-0.57652926,0.68667501,-1.1167269,0.032526553,0.71953696,-0.69369197,0
3.9496441,0.67802763,0.36660063,0.4574877,-0.38904354,-0.79959369,0
3.6472476,2.2106018,1.697843,0.88306034,0.30439341,0.35714012,0
4.1005492,1.048058,1.56786,0.88306034,0.30439341,0.35714012,0
3.5818903,1.4780402,2.4838121,0.88306034,0.30439341,0.35714012,0
-2.3208585,-1.7797936,-0.16213369,0.014779508,-0.77873516,0.62717867,0
-2.3026197,0.39835405,-0.20382461,-0.43987367,0.80203295,0.40404719,0
1.1273648,-0.78163725,-0.31273103,0.4455848,-0.78260016,-0.43473116,0
-2.0211787,-0.057421446,-1.9092066,0.13798457,0.55899119,-0.81761175,0
4.12323,0.13349104,1.2039133,0.39390841,-0.89445686,-0.21162033,0
2.4139426,0.60096192,-0.37016869,0.38941282,-0.050673038,-0.91966838,0
-4.2415442,-1.1828561,-1.1043463,-0.88306034,-0.30439341,-0.35714012,0
3.5304475,2.0236192,2.1460085,0.88306034,0.30439341,0.35714012,0
3.8255789,2.0726309,1.3744962,0.88306034,0.30439341,0.35714012,0
1.188139,-0.22058159,-0.77448976,0.45214474,-0.34825355,-0.8211484,0
1.3496679,-0.62372345,-0.34883997,0.4598994,-0.71263778,-0.5297547,0
-0.22658311,1.1572926,-0.41454911,-0.18418664,0.92482746,-0.3328203,0
3.4260628,2.1666207,2.2822266,0.88306034,0.30439341,0.35714012,0
1.5118864,1.8287388,0.97266066,-0.37231278,0.91773236,0.1383853,0
-1.2848449,-1.5374724,0.094643831,0.080393791,-0.84795415,0.52393758,0
3.6200116,1.8821664,2.0451138,0.88306034,0.30439341,0.35714012,0
-3.6449461,-0.46870852,-0.30116177,-0.46533287,0.46977013,0.75018752,0
-2.9303656,0.056910515,-0.26190132,-0.46238351,0.69422776,0.55158794,0
4.1448183,0.25107384,2.137676,0.88306034,0.30439341,0.35714012,0
-0.37113702,0.99958736,-0.70855224,-0.10156184,0.8670069,-0.48783636,0
4.285635,1.759501,0.50384903,0.88306034,0.30439341,0.35714012,0
-4.4474821,-0.71645784,-0.99266291,-0.88306034,-0.30439341,-0.35714012,0
0.10471451,0.20788646,-1.2631565,0.29243904,0.23823741,-0.92613304,0
-4.0913987,-2.038106,-0.74665904,-0.88306034,-0.30439341,-0.35714012,0
0.64170367,0.91899848,-0.79022539,0.11479968,0.59781289,-0.79337317,0
-3.1535826,-0.4331131,-0.030819893,-0.45463449,0.36643478,0.81180859,0
-0.7804569,0.091579705,1.0168115,-0.41372377,0.14587262,0.89863998,0
3.7216036,1.1888881,2.3848062,0.88306034,0.30439341,0.35714012,0
4.2646861,1.2201967,1.0153018,0.88306034,0.30439341,0.35714012,0
-0.14672267,0.05611968,-1.3799374,0.31024456,0.1922985,-0.93100452,0
-3.9817913,-0.43672371,-2.382545,-0.88306034,-0.30439341,-0.35714012,0
0.78761297,0.80088401,-0.84180033,0.17891508,0.48518589,-0.85591125,0
4.0230379,0.68621826,2.0679121,0.88306034,0.30439341,0.35714012,0
-3.4520719,-1.7325726,-2.5878596,-0.88306034,-0.30439341,-0.35714012,0
-3.2279217,-2.4273205,-1.3266494,0.28803957,-0.95242906,0.099559903,0
-3.9502635,-0.076014042,-1.7498085,-0.23806801,0.94645977,-0.21803129,0
1.1680324,1.0320809,1.7276949,-0.45207125,0.34773493,0.82140851,0
-4.3075886,-1.1740766,-0.94853032,-0.88306034,-0.30439341,-0.35714012,0
0.028332591,-1.2150104,-0.64528507,0.42907092,-0.83191937,-0.35186395,0
0.84812909,1.3582349,-0.31602466,-0.06292963,0.83101374,-0.55268073,0
4.2318187,0.44465399,1.7575697,0.88306034,0.30439341,0.35714012,0
2.8729858,-0.33136368,1.0336246,0.31658661,-0.94822377,0.025390625,0
-3.9546509,-0.52248955,-2.3765526,-0.88306034,-0.30439341,-0.35714012,0
-0.53028464,0.21435094,-1.4414401,0.22416627,0.39498413,-0.89091915,0
3.6358311,1.5605354,2.2801275,0.88306034,0.30439341,0.35714012,0
-0.56747198,1.1260269,-0.10315669,-0.31608021,0.9483552,-0.026754856,0
-3.8682861,-1.1624579,-2.0446472,-0.88306034,-0.30439341,-0.35714012,0
-4.3408804,-0.4498024,-1.4835182,-0.88306034,-0.30439341,-0.35714012,0
-1.5652081,0.47019482,-1.3711741,-0.030893803,0.7971319,-0.60301423,0
-1.2413756,-1.3096581,-1.6091313,0.46892691,-0.54376137,-0.69601083,0
0.523193,1.2896326,-0.37840211,-0.089681506,0.85651565,-0.50826967,0
-2.9221911,-1.8347692,-2.328711,0.46729803,-0.50090599,-0.72850931,0
-4.0132689,-0.64551163,-2.1267619,-0.88306034,-0.30439341,-0.35714012,0
2.3533216,0.63056469,2.2549663,-0.28995645,-0.24445432,0.92529321,0
-4.0442686,-1.7230706,-1.1316988,-0.88306034,-0.30439341,-0.35714012,0
3.4469874,0.49601221,2.4480536,-0.11707449,-0.59409535,0.79582942,0
3.7343864,1.4541411,2.127121,0.88306034,0.30439341,0.35714012,0
-3.4870377,-1.6776586,-2.5482066,-0.88306034,-0.30439341,-0.35714012,0
4.1404123,1.3667789,0.33013725,0.35218602,0.073052853,-0.93307459,0
-3.7912471,-2.1376853,-1.4039381,-0.88306034,-0.30439341,-0.35714012,0
3.5507965,1.4516406,2.5831952,0.88306034,0.30439341,0.35714012,0
3.4593034,1.5853267,2.695478,0.88306034,0.30439341,0.35714012,0
0.0033186674,0.33383381,1.337996,-0.4087801,0.12524414,0.9039982,0
-4.1248016,-1.4707179,-1.147657,-0.88306034,-0.30439341,-0.35714012,0
0.10993963,-0.59521455,1.1404343,-0.1403715,-0.55487525,0.8200056,0
0.13946074,1.3570004,0.40849042,-0.3703016,0.91949832,0.13190746,0
-0.83263808,-1.5889888,-0.73202848,0.37970439,-0.91069573,-0.16265917,0
-1.2018626,0.22724064,0.76403546,-0.45335668,0.35694751,0.81673503,0
4.0189152,1.2694516,1.5810108,0.88306034,0.30439341,0.35714012,0
0.00976336,-0.52984095,1.1621174,-0.1775474,-0.48776618,0.85472864,0
4.4683309,0.78552628,0.88224459,0.88306034,0.30439341,0.35714012,0
4.423501,1.2890663,0.56391931,0.88306034,0.30439341,0.35714012,0
3.5863895,1.9517784,2.0689173,0.88306034,0.30439341,0.35714012,0
1.7765331,1.3996694,1.8917351,-0.46530885,0.46944171,0.75040793,0
4.3304758,1.4943416,0.61897564,0.88306034,0.30439341,0.35714012,0
1.4073746,0.72837603,-0.71591294,0.27192497,0.2883333,-0.91810709,0
-3.7970822,-2.2146077,-1.3239486,-0.88306034,-0.30439341,-0.35714012,0
