-0.52289104,1.2625886,-1.2298636,-0.45316482,0.14333768,-0.87982714,0
-1.5236737,-4.8179173,-0.32455093,-0.14755063,-0.98543435,-0.084545165,0
-0.12801892,-5.0312672,-0.27354315,-0.14755063,-0.98543435,-0.084545165,0
-0.35137159,-5.1023784,0.94510776,-0.14755063,-0.98543435,-0.084545165,0
0.58241546,5.0129585,-0.30607551,0.14755063,0.98543435,0.084545165,0
1.8597387,3.6512721,-0.42378086,0.86242419,-0.086340412,-0.49876827,0
-0.021270715,5.0336995,0.50573778,0.14755063,0.98543435,0.084545165,0
-1.0651445,-4.8918424,-0.26314366,-0.14755063,-0.98543435,-0.084545165,0
0.011104895,-5.0008368,-0.87103826,-0.14755063,-0.98543435,-0.084545165,0
-0.31938946,-4.8668046,-1.856492,-0.14755063,-0.98543435,-0.084545165,0
0.96217918,5.0130129,-0.96948653,0.14755063,0.98543435,0.084545165,0
-0.21542184,-4.9411731,-1.1711161,-0.14755063,-0.98543435,-0.084545165,0
-1.4377531,-4.8410249,-0.2051734,-0.14755063,-0.98543435,-0.084545165,0
-0.90261722,-4.9052224,-0.39083871,-0.14755063,-0.98543435,-0.084545165,0
-0.068031102,3.1540594,1.6704502,-0.36399546,-0.025378052,0.93105495,0
-1.0361769,-4.9379959,0.22425491,-0.14755063,-0.98543435,-0.084545165,0
-1.1106144,-3.2103879,-1.6527684,-0.39934805,0.13756119,-0.90642041,0
-0.41767946,-3.5128736,-1.8015722,0.083109975,0.072825208,-0.99387586,0
-0.86998922,-4.9316726,-0.1394833,-0.14755063,-0.98543435,-0.084545165,0
-0.51290596,1.2615452,-1.2351279,-0.44650799,0.14264205,-0.88333672,0
1.0252295,-3.2423453,-0.12530865,0.98394263,-0.1549304,0.08861962,0
0.60791874,4.901032,0.95399773,0.14755063,0.98543435,0.084545165,0
0.38388735,5.0513372,-0.40693161,0.14755063,0.98543435,0.084545165,0
-2.0690169,-4.750237,-0.16166818,-0.14755063,-0.98543435,-0.084545165,0
-1.2416946,1.3412279,0.56204242,-0.94445944,0.11500365,0.30784798,0
0.31563234,3.6809003,-1.1742873,-0.14119926,0.1055927,-0.98433375,0
-0.26890972,5.1590276,-0.52286243,0.14755063,0.98543435,0.084545165,0
1.8974129,2.6108766,0.068301797,0.98375118,-0.137382,-0.11558527,0
-0.93558741,-4.9551334,0.24845099,-0.14755063,-0.98543435,-0.084545165,0
-0.23639961,-4.958591,-0.93149382,-0.14755063,-0.98543435,-0.084545165,0
-0.58347118,-4.5384836,-1.8905371,0.0751452,0.074064307,-0.99441826,0
-0.35028115,-3.1664383,-1.7704718,0.093223885,0.071243659,-0.99309295,0
-0.85437,-5.0300374,0.97976518,-0.14755063,-0.98543435,-0.084545165,0
-0.28669506,-4.947567,-0.97220248,-0.14755063,-0.98543435,-0.084545165,0
-0.11684236,4.0786958,-0.98009884,-0.46341369,0.14439788,-0.87429792,0
-1.2056259,-1.2100136,-1.2267866,-0.65875757,0.16167697,-0.73477811,0
-1.0287392,-1.7497361,-1.4586158,-0.48915491,0.14700143,-0.85971969,0
0.87430775,5.0276937,-0.98724639,0.14755063,0.98543435,0.084545165,0
-0.31527624,5.0471377,0.86221457,0.14755063,0.98543435,0.084545165,0
1.1148345,3.6332293,1.7135912,0.36060664,-0.13319641,0.92315847,0
-1.7922626,-4.696012,-1.2766985,-0.14755063,-0.98543435,-0.084545165,0
-0.73814172,5.1436567,0.26402175,-0.98217368,0.15605339,-0.10479637,0
-0.32114512,5.1498866,-0.32515451,0.14755063,0.98543435,0.084545165,0
1.6277201,4.5389338,-0.77369779,0.62797785,-0.027301021,-0.77775204,0
-1.8822658,-3.9191129,0.43041885,-0.85120749,0.082991563,0.51822579,0
-1.9080172,-2.8121538,0.036856711,-0.97203064,0.12868866,0.19645742,0
1.9460148,4.7776337,0.057009995,0.14755063,0.98543435,0.084545165,0
0.88221014,4.9802132,-0.44761938,0.14755063,0.98543435,0.084545165,0
-1.598671,-2.0244222,0.59280902,-0.85127145,0.083010405,0.51811779,0
1.0394063,-3.0436232,-0.49542984,0.97700322,-0.13191594,-0.16751948,0
-1.9457784,-4.7138348,-0.80103838,-0.14755063,-0.98543435,-0.084545165,0
1.8243561,3.484515,1.0864581,0.84295392,-0.17000797,0.5104174,0
-0.630288,-0.1323835,-1.3970982,-0.38659245,0.13614255,-0.91214657,0
-0.92095649,-1.5233997,1.1997348,-0.46291199,-0.0067341402,0.88637859,0
-2.0318496,-3.8244987,-0.75709826,-0.94805443,0.1652731,-0.27180451,0
-0.10177663,0.94683349,1.5640286,-0.17116173,-0.058749996,0.98348975,0
0.63415313,-2.9760196,0.81544256,0.69526148,-0.16413873,0.69976419,0
1.0368595,4.9353352,-0.19443661,0.14755063,0.98543435,0.084545165,0
1.1042048,4.803844,1.2206552,0.14755063,0.98543435,0.084545165,0
1.1083076,4.9009824,0.081281453,0.14755063,0.98543435,0.084545165,0
1.3389606,4.7529483,1.4041841,0.14755063,0.98543435,0.084545165,0
-1.2728565,0.12332527,0.7839815,-0.84857094,0.082216851,0.52265429,0
-0.29996541,-2.7481608,-1.7356918,0.085202664,0.072498709,-0.9937225,0
-0.65632594,4.7325745,-0.26752394,-0.8845486,0.16972056,-0.434475,0
1.8568895,4.7563167,0.46101302,0.14755063,0.98543435,0.084545165,0
-0.74616516,-4.90907,-0.61903584,-0.14755063,-0.98543435,-0.084545165,0
1.4803404,4.7736721,0.91589087,0.14755063,0.98543435,0.084545165,0
-0.92164475,-4.9378848,0.023072779,-0.14755063,-0.98543435,-0.084545165,0
1.9959548,4.7067766,0.79573566,0.14755063,0.98543435,0.084545165,0
-0.24994639,3.7167945,-0.96619815,-0.51525283,0.14955093,-0.84388924,0
-1.5099148,-4.858954,0.12974685,-0.14755063,-0.98543435,-0.084545165,0
0.37960476,-1.5000765,-1.5018891,0.40545946,0.01770135,-0.91394156,0
0.88606405,-3.9086323,-0.68246555,0.9624052,-0.12334023,-0.24199867,0
0.14970157,-3.154876,1.1100855,0.39421201,-0.13699217,0.90875179,0
-0.7628119,3.4603117,-0.5253455,-0.82852364,0.16983433,-0.53357738,0
-0.11897625,1.8055288,1.6049649,-0.26595598,-0.042801339,0.96303439,0
-1.5578402,-4.8141079,-0.30932951,-0.14755063,-0.98543435,-0.084545165,0
-0.5337826,0.31924427,1.4104037,-0.39078295,-0.020440623,0.9202559,0
-0.61521113,-2.5693016,-1.7112324,-0.13792661,0.10514659,-0.98484534,0
0.16497281,5.0454578,0.043651864,0.14755063,0.98543435,0.084545165,0
-0.23557247,5.0717754,0.43594065,0.14755063,0.98543435,0.084545165,0
0.63435483,-0.017592367,1.3726872,0.40398553,-0.13807237,0.90428513,0
1.7772996,1.7873945,0.027328819,0.98558336,-0.13933939,-0.095968187,0
0.32485852,-3.0966923,-1.5417249,0.52485466,-0.0055610538,-0.85117364,0
1.4910272,4.904952,-0.63292217,0.14755063,0.98543435,0.084545165,0
1.1823807,2.4384084,1.4876217,0.52235532,-0.15022844,0.83939046,0
-1.2204874,1.5681466,0.54035473,-0.95244491,0.11852738,0.28071293,0
1.7727476,4.8525829,-0.51418716,0.14755063,0.98543435,0.084545165,0
0.37655348,-1.7576907,-1.5076913,0.42848951,0.013352744,-0.90344805,0
-1.1850617,-3.3830152,-1.6451234,-0.43122903,0.1410249,-0.89115286,0
0.11723477,4.986773,0.81097758,0.14755063,0.98543435,0.084545165,0
1.4101393,3.8763034,1.6031458,0.53054667,-0.15100083,0.83409762,0
0.11861056,0.87868589,-1.4301109,0.0040708482,0.08487498,-0.99638325,0
-0.36353245,5.1578021,-0.34343994,0.14755063,0.98543435,0.084545165,0
0.58773732,4.8296466,1.8212665,0.14755063,0.98543435,0.084545165,0
1.7161522,4.8284616,-0.13426542,0.14755063,0.98543435,0.084545165,0
0.72132349,2.8532503,1.7253069,0.17948675,-0.11073992,0.97750759,0
-0.017983049,-4.9456158,-1.46391,-0.14755063,-0.98543435,-0.084545165,0
0.36132982,4.9610362,0.68496066,0.14755063,0.98543435,0.084545165,0
-1.7789524,-4.8215342,0.16312265,-0.14755063,-0.98543435,-0.084545165,0
0.84820312,4.8653483,0.95056379,0.14755063,0.98543435,0.084545165,0
-0.1110663,-5.020885,-0.42414707,-0.14755063,-0.98543435,-0.084545165,0
-1.4128959,-4.8336158,-0.33491331,-0.14755063,-0.98543435,-0.084545165,0
0.32913548,5.0950627,-0.82103175,0.14755063,0.98543435,0.084545165,0
1.4393001,4.8604088,-0.023463845,0.14755063,0.98543435,0.084545165,0
-1.4556373,-0.13973927,0.45828405,-0.93956339,0.1129529,0.3232061,0
-0.29670596,-4.9725971,-0.66299081,-0.14755063,-0.98543435,-0.084545165,0
-0.30872467,5.1290503,-0.1039671,0.14755063,0.98543435,0.084545165,0
2.0904846,4.7710056,-0.11787504,0.14755063,0.98543435,0.084545165,0
-1.1757624,0.31878322,0.90166497,-0.80517608,0.070036978,0.58888543,0
1.1714418,4.8610888,0.43608579,0.14755063,0.98543435,0.084545165,0
0.0012898147,5.0544705,0.2242682,0.14755063,0.98543435,0.084545165,0
1.5160742,4.7589855,1.024711,0.14755063,0.98543435,0.084545165,0
-1.2226768,-1.6363916,-1.303596,-0.62790805,0.15937568,-0.76179451,0
-0.021670014,-5.0933952,0.26499677,-0.14755063,-0.98543435,-0.084545165,0
0.47567168,1.1376648,-1.3731296,0.21135129,0.052091565,-0.97602105,0
0.28383681,-5.0098462,-1.2420062,-0.14755063,-0.98543435,-0.084545165,0
-0.35955811,2.5165696,-1.1094105,-0.46920234,0.14499083,-0.87110662,0
0.006362319,-5.0495186,-0.29534316,-0.14755063,-0.98543435,-0.084545165,0
-0.34383929,-4.8992023,-1.4362035,-0.14755063,-0.98543435,-0.084545165,0
0.80600351,-0.22745046,1.2444373,0.53733575,-0.15163365,0.82962501,0
0.82096601,-4.6466265,-0.37451369,0.98892725,-0.14836247,0.0033664405,0
0.70830053,2.2128611,1.6527417,0.23367289,-0.1177934,0.96515369,0
0.86614221,-4.3445187,-0.36790019,0.98904932,-0.14728446,-0.0094115436,0
0.44995365,-4.5985551,0.614411,0.73408651,-0.16639917,0.65835261,0
1.220147,4.8027611,1.030937,0.14755063,0.98543435,0.084545165,0
-0.33024845,5.0480914,0.87723058,0.14755063,0.98543435,0.084545165,0
-1.1261735,1.762112,-0.46862435,-0.90134871,0.16916585,-0.39868942,0
1.9645641,3.244817,0.63186771,0.96140647,-0.16297111,0.22167073,0
1.1560476,0.64871526,1.1467322,0.68149984,-0.1632462,0.71337831,0
-1.7442453,-4.8374972,0.2886076,-0.14755063,-0.98543435,-0.084545165,0
0.73739445,3.426168,-1.1920574,0.15869416,0.060785379,-0.9854548,0
1.0342648,4.9629121,-0.5113281,0.14755063,0.98543435,0.084545165,0
1.1109523,4.9745727,-0.78108382,0.14755063,0.98543435,0.084545165,0
-1.2243729,-4.7417173,-1.7350718,-0.14755063,-0.98543435,-0.084545165,0
-0.66318321,-4.9853992,0.1258111,-0.14755063,-0.98543435,-0.084545165,0
-0.26134408,5.0051689,1.257272,0.14755063,0.98543435,0.084545165,0
0.82369876,-1.6855255,0.92980599,0.69282973,-0.16398428,0.70220786,0
0.098363504,4.9967942,0.72710657,0.14755063,0.98543435,0.084545165,0
1.7837926,2.7306075,0.88707525,0.89123797,-0.16953665,0.42065686,0
-0.34271029,3.4566946,-0.95405006,-0.55063736,0.15285361,-0.82063031,0
0.49402559,4.8738585,1.4694952,0.14755063,0.98543435,0.084545165,0
0.56033134,-5.1040244,-0.62683338,-0.14755063,-0.98543435,-0.084545165,0
1.1106608,-1.6565377,-0.79409701,0.8914997,-0.09549208,-0.44284248,0
-0.82796586,-5.0403814,1.0542552,-0.14755063,-0.98543435,-0.084545165,0
0.31632116,5.043704,-0.20004576,0.14755063,0.98543435,0.084545165,0
1.3431755,4.7670679,1.232249,0.14755063,0.98543435,0.084545165,0
-2.1746523,-4.6866131,-0.71889007,-0.14755063,-0.98543435,-0.084545165,0
-0.16706553,0.65185261,1.5348929,-0.18490393,-0.056490034,0.98113161,0
2.0372581,3.618922,0.5808515,0.9729749,-0.15997159,0.16651979,0
-0.99431753,-4.8320761,-1.0833688,-0.14755063,-0.98543435,-0.084545165,0
0.14837687,4.9270029,1.4532949,0.14755063,0.98543435,0.084545165,0
0.22458217,-4.9903359,-1.3660008,-0.14755063,-0.98543435,-0.084545165,0
1.080119,-0.072647259,-1.0382991,0.7200793,-0.048431501,-0.69219947,0
-0.66798043,-0.85123956,-1.4863732,-0.3407495,0.13089569,-0.93099737,0
1.366696,-1.0011981,-0.048344791,0.98874664,-0.14909703,0.012243509,0
0.41136426,1.2682343,-1.3776641,0.15679413,0.061094325,-0.98573983,0
-2.1550539,-4.4945874,-0.72416872,-0.96372175,0.16246796,-0.21176536,0
-1.3231329,-4.9176464,0.48786968,-0.14755063,-0.98543435,-0.084545165,0
1.565753,0.46619067,0.30708039,0.97336614,-0.15984336,0.16434206,0
1.1328759,-0.86209059,-0.89319217,0.82980216,-0.076825023,-0.55274415,0
1.0347204,3.8399513,-1.099337,0.31171519,0.034791857,-0.94953835,0
-1.5593452,-4.8417625,0.015635371,-0.14755063,-0.98543435,-0.084545165,0
1.2060834,4.8914289,0.021995544,0.14755063,0.98543435,0.084545165,0
1.9004385,4.7404666,0.56975693,0.14755063,0.98543435,0.084545165,0
-0.17082596,-4.9555764,-1.0810664,-0.14755063,-0.98543435,-0.084545165,0
-0.82003433,2.0513961,1.1690845,-0.74336076,0.054105289,0.66669881,0
1.1485968,0.049749359,-0.97304171,0.75233012,-0.056334168,-0.65637314,0
-1.6080651,-0.78177822,0.19021314,-0.97450453,0.13023961,0.18269759,0
-0.99476928,-4.822968,-1.1887418,-0.14755063,-0.98543435,-0.084545165,0
1.6387415,4.7171278,1.2985114,0.14755063,0.98543435,0.084545165,0
0.8969065,-0.03117764,-1.2019094,0.5979377,-0.020785097,-0.80127299,0
0.16442543,2.0089498,1.6699358,-0.10139363,-0.069959521,0.99238348,0
-0.55252558,5.0864797,0.81771022,0.14755063,0.98543435,0.084545165,0
-1.0711977,-3.3088107,1.1015925,-0.38700843,-0.021141164,0.92183363,0
0.37769404,5.0860782,-0.80105388,0.14755063,0.98543435,0.084545165,0
0.90117323,3.8499408,-1.1361006,0.22395951,0.049971689,-0.97331649,0
-1.1553124,2.1177766,0.5244137,-0.96308637,0.12369162,0.23909169,0
0.84685701,4.9873056,-0.46858931,0.14755063,0.98543435,0.084545165,0
2.1348002,4.4047418,0.74597204,0.95904076,-0.16344781,0.23135576,0
0.21472704,3.9395311,-1.1253378,-0.23248208,0.11764134,-0.9654597,0
-0.37425148,5.1358199,-0.068512574,0.14755063,0.98543435,0.084545165,0
-0.060398936,-3.3186388,-1.720937,0.29661274,0.037458494,-0.95426285,0
-1.31365,-4.9043007,0.31576461,-0.14755063,-0.98543435,-0.084545165,0
-0.45991558,-4.8633871,-1.6510708,-0.14755063,-0.98543435,-0.084545165,0
0.50519758,4.8788781,1.3914855,0.14755063,0.98543435,0.084545165,0
1.4638195,4.777524,0.89982468,0.14755063,0.98543435,0.084545165,0
-0.66601545,-1.3516953,1.3115419,-0.31422541,-0.034346368,0.94872683,0
-0.35104364,4.9897199,-0.62406528,-0.7074191,0.16488902,-0.68729162,0
0.69216186,-4.0567789,-1.1078709,0.85384971,-0.083772555,-0.5137341,0
-0.074396044,-5.1204848,0.67276299,-0.14755063,-0.98543435,-0.084545165,0
0.10891065,0.49869755,-1.4617901,0.034842372,0.08024884,-0.99616563,0
-2.0528839,-4.7217188,-0.5222258,-0.14755063,-0.98543435,-0.084545165,0
0.0069428086,2.5585861,-1.2435713,-0.23314491,0.11772599,-0.96528959,0
-0.39147845,-3.2954571,-1.7834368,0.078971073,0.073469803,-0.99416584,0
1.0403483,-2.0881433,-0.84245777,0.8878848,-0.094311394,-0.45029533,0
-0.50680572,1.4206913,-1.2123637,-0.4581458,0.14385459,-0.87715912,0
-0.0072110295,0.30548316,1.5300156,-0.047038808,-0.078392312,0.99581212,0
-1.9417098,-2.8876493,-0.41507146,-0.98292673,0.15560031,-0.098201066,0
-1.4172156,-4.8927927,0.3623749,-0.14755063,-0.98543435,-0.084545165,0
-1.1001673,-4.9272628,0.21083063,-0.14755063,-0.98543435,-0.084545165,0
-1.6848783,-4.3195295,0.71389312,-0.68602425,0.040393293,0.72645658,0
-0.0031079501,-5.0511465,-0.25983796,-0.14755063,-0.98543435,-0.084545165,0
-1.0414864,-4.7634292,-1.8011844,-0.14755063,-0.98543435,-0.084545165,0
1.4363688,4.7108111,1.7253208,0.14755063,0.98543435,0.084545165,0
-0.11994079,-2.9024158,1.2275823,0.19291484,-0.11251336,0.97474325,0
1.7166743,2.5989704,-0.48842633,0.87166607,-0.089169703,-0.48192003,0
-0.58821821,-5.0521798,0.77335435,-0.14755063,-0.98543435,-0.084545165,0
1.4705579,0.092999205,0.4458096,0.94630575,-0.16551591,0.27768672,0
0.35827717,-5.1727538,0.52688289,-0.14755063,-0.98543435,-0.084545165,0
-1.2558266,1.2183956,0.56437707,-0.94178849,0.11387572,0.31633326,0
-0.37324461,-5.1050868,1.0148524,-0.14755063,-0.98543435,-0.084545165,0
0.018477887,-4.6986041,-1.7179264,0.48179346,0.0030405298,-0.87627947,0
-1.4361706,-4.8563681,-0.029095113,-0.14755063,-0.98543435,-0.084545165,0
0.60828853,4.9002047,0.96299458,0.14755063,0.98543435,0.084545165,0
-0.90022182,-4.8351445,-1.2118247,-0.14755063,-0.98543435,-0.084545165,0
0.33867252,5.0349727,-0.13728145,0.14755063,0.98543435,0.084545165,0
-1.1255543,-4.913826,0.098517656,-0.14755063,-0.98543435,-0.084545165,0
0.97851449,-1.1983838,-1.0605366,0.76312512,-0.059050918,-0.64354724,0
0.57912159,5.0252991,-0.44417027,0.14755063,0.98543435,0.084545165,0
0.65405577,-1.2746106,-1.3489233,0.56131595,-0.013051637,-0.82749867,0
-0.79590309,3.6738892,0.99215591,-0.88342738,0.092873856,0.45927161,0
0.17828697,4.9519753,1.1100181,0.14755063,0.98543435,0.084545165,0
-1.3008034,-4.9572134,0.91007978,-0.14755063,-0.98543435,-0.084545165,0
0.73629576,-4.7668691,-0.83218771,0.94917125,-0.11705288,-0.29218587,0
0.74165124,4.8444843,1.3797063,0.14755063,0.98543435,0.084545165,0
0.10947608,4.9891524,0.79678619,0.14755063,0.98543435,0.084545165,0
0.35075226,-2.6078689,-1.5278026,0.49424189,0.00057987869,-0.86932409,0
0.66419971,4.9094167,0.75804108,0.14755063,0.98543435,0.084545165,0
0.02624087,4.9405975,1.5079954,0.14755063,0.98543435,0.084545165,0
0.47108847,1.9991726,1.6693836,0.09954977,-0.099843532,0.99001062,0
-0.046845064,-5.0619249,-0.057872117,-0.14755063,-0.98543435,-0.084545165,0
-1.2806776,-0.41999692,-0.94869763,-0.78659523,0.16873734,-0.59396589,0
1.2764766,4.925941,-0.50312036,0.14755063,0.98543435,0.084545165,0
0.95498109,-3.7499671,-0.27523857,0.98858279,-0.14958006,0.018159628,0
0.30011362,-3.0060515,-1.5568182,0.50005656,-0.00057660788,-0.86599243,0
-1.7411397,-2.0922544,-0.70514107,-0.92681313,0.16760409,-0.33604473,0
1.2870841,4.8527751,0.3311646,0.14755063,0.98543435,0.084545165,0
2.0454237,4.7233019,0.51679367,0.14755063,0.98543435,0.084545165,0
1.7421774,4.8357682,-0.26484472,0.14755063,0.98543435,0.084545165,0
0.64304256,4.8764582,1.179122,0.14755063,0.98543435,0.084545165,0
0.23740864,4.9444919,1.0940627,0.14755063,0.98543435,0.084545165,0
-0.78684074,-4.9842868,0.32866216,-0.14755063,-0.98543435,-0.084545165,0
-0.091008395,5.0705609,0.19780353,0.14755063,0.98543435,0.084545165,0
0.92277825,4.7754903,1.8677769,0.14755063,0.98543435,0.084545165,0
1.2780578,-1.527343,-0.28444874,0.98390621,-0.13753492,-0.11407351,0
0.32910797,5.0648031,-0.46828407,0.14755063,0.98543435,0.084545165,0
0.31016326,1.2893673,1.6129885,0.063875467,-0.094796613,0.99344516,0
0.031789988,-0.66716152,1.4441206,0.073392808,-0.096154034,0.99265695,0
-2.1441257,-4.1914172,-0.35526857,-0.98905033,0.14676394,0.015480459,0
-0.40229633,5.1700826,-0.41892532,0.14755063,0.98543435,0.084545165,0
-1.2665979,1.5186207,-0.14817083,-0.97198921,0.16028464,-0.17188887,0
1.337754,0.09879604,0.76132321,0.85651147,-0.17005531,0.48730814,0
0.98600352,-3.0995522,-0.68895239,0.94920743,-0.11706895,-0.29206184,0
1.3736675,4.1780314,1.6773944,0.47689617,-0.14577228,0.86678743,0
-1.0705332,-4.9129667,-0.0075206161,-0.14755063,-0.98543435,-0.084545165,0
0.23975015,-4.9593945,-1.5601418,0.65006405,-0.032199968,-0.75919688,0
-0.9589783,0.77491277,1.1149377,-0.70978802,0.045971368,0.70291346,0
-1.6186519,-3.7034583,-1.4038091,-0.68494105,0.16347355,-0.71002263,0
1.5949183,1.3784206,-0.47001308,0.91042256,-0.10192153,-0.40092728,0
-1.706167,-2.6018286,-0.98715472,-0.85226512,0.17005351,-0.49469784,0
1.1181644,-2.3813891,-0.53754139,0.96452248,-0.12444386,-0.23283029,0
-0.90260088,-4.8874083,-0.59849977,-0.14755063,-0.98543435,-0.084545165,0
0.0339064,0.20294625,-1.4879298,0.014814034,0.083269261,-0.99641693,0
-0.59185207,1.2816844,-1.1887077,-0.5003311,0.14810461,-0.85307306,0
1.1008251,4.7573309,1.768702,0.14755063,0.98543435,0.084545165,0
0.52097631,-5.1490903,-0.032878079,-0.14755063,-0.98543435,-0.084545165,0
0.56058693,4.9726758,0.20154227,0.14755063,0.98543435,0.084545165,0
0.23819479,2.6797173,1.7245239,-0.11875913,-0.067210272,0.99064571,0
1.1974372,-1.0296777,0.61167669,0.87563586,-0.16989836,0.45210198,0
0.89828503,-3.9798832,-0.064217314,0.97214019,-0.16023757,0.17107646,0
0.2065216,-5.1138005,0.10458854,-0.14755063,-0.98543435,-0.084545165,0
0.56584483,2.0261791,1.6598125,0.1588071,-0.10797638,0.9813875,0
-1.1855049,-4.900269,0.045129478,-0.14755063,-0.98543435,-0.084545165,0
0.2361477,5.0958328,-0.66771877,0.14755063,0.98543435,0.084545165,0
0.38367936,4.9303904,1.0031517,0.14755063,0.98543435,0.084545165,0
-0.28909281,0.24872345,1.4873714,-0.22501203,-0.049794041,0.97308278,0
1.5585438,4.5327725,1.626155,0.56350327,-0.15400799,0.81163138,0
-0.32391408,-5.0819316,0.65886348,-0.14755063,-0.98543435,-0.084545165,0
1.642967,4.767827,0.70020217,0.14755063,0.98543435,0.084545165,0
-0.3096931,5.0873432,0.3838515,0.14755063,0.98543435,0.084545165,0
-0.15343292,-2.2193089,1.3067272,0.10419816,-0.10049284,0.98946649,0
0.68034279,5.0246096,-0.61278325,0.14755063,0.98543435,0.084545165,0
0.70985293,4.8199434,1.7212441,0.14755063,0.98543435,0.084545165,0
0.24804623,-4.9990444,-1.305446,-0.14755063,-0.98543435,-0.084545165,0
0.37627888,4.9021006,1.3458083,0.14755063,0.98543435,0.084545165,0
-0.46463409,5.1174765,0.30302897,0.14755063,0.98543435,0.084545165,0
1.4048656,4.8725405,-0.10477048,0.14755063,0.98543435,0.084545165,0
1.3393672,4.8459506,0.31946218,0.14755063,0.98543435,0.084545165,0
-0.6207245,2.0742486,1.3544421,-0.61713719,0.024930689,0.78646058,0
-1.9324026,-3.9014955,-1.0412656,-0.87337285,0.16993217,-0.45644572,0
-1.8441603,-4.6865625,-1.2962652,-0.14755063,-0.98543435,-0.084545165,0
0.34760049,-3.2880142,0.9819476,0.5372436,-0.1516251,0.82968611,0
-1.2989486,-1.3661113,0.91131061,-0.72226852,0.048958484,0.68987763,0
-0.48591691,-3.094152,1.2394757,-0.027270511,-0.081394851,0.99630874,0
0.29084623,1.6187245,1.6441079,0.019093007,-0.088302776,0.99591058,0
-0.60304105,-3.6424839,1.1910714,-0.050098523,-0.077924535,0.99569964,0
-1.1645133,2.3522625,0.18277866,-0.98897541,0.14807951,1.5586615e-05,0
-1.3739017,-4.8045225,-0.74206543,-0.14755063,-0.98543435,-0.084545165,0
1.2299649,4.9689569,-0.92333114,0.14755063,0.98543435,0.084545165,0
-0.47208604,-3.7720575,-1.8250331,0.072947517,0.074405223,-0.99455637,0
-1.6481516,-1.7536876,0.44448578,-0.90855026,0.1012646,0.40531674,0
1.3821328,1.1869359,1.031945,0.77772444,-0.16840947,0.60562605,0
-0.97887832,3.3300664,-0.073016331,-0.96056855,0.16314405,-0.22514901,0
-0.54294825,-5.0502391,0.67173392,-0.14755063,-0.98543435,-0.084545165,0
1.6689529,3.8888745,1.3975055,0.69982433,-0.16442464,0.69513345,0
0.6270963,-4.4764757,0.41204762,0.83945966,-0.16997696,0.51615417,0
-0.83725721,-4.9048748,-0.50895619,-0.14755063,-0.98543435,-0.084545165,0
1.2792869,-1.2843153,-0.45619839,0.9625783,-0.12342922,-0.24126348,0
0.19815418,1.8178107,1.6586242,-0.060775355,-0.07628575,0.99523211,0
-0.52120233,5.1274629,0.28535604,0.14755063,0.98543435,0.084545165,0
1.2530186,-0.64770341,0.64756149,0.87455857,-0.16991501,0.45417631,0
0.33542627,5.0853729,-0.71907008,0.14755063,0.98543435,0.084545165,0
0.39907169,5.023057,-0.10380378,0.14755063,0.98543435,0.084545165,0
0.92718697,2.911932,1.680266,0.30842733,-0.1270621,0.94272363,0
-0.071413726,-1.1569861,1.4040096,0.053902626,-0.093365692,0.99417168,0
-0.40265405,-0.41813368,1.4269216,-0.23392731,-0.048285116,0.97105432,0
-0.79497629,-2.7468023,-1.696906,-0.23807415,0.11835416,-0.96400881,0
1.0488756,4.8703485,0.54206347,0.14755063,0.98543435,0.084545165,0
1.4077859,0.6352489,-0.68316019,0.86219531,-0.086271182,-0.49917585,0
-0.42567301,4.7935352,1.385964,-0.75378811,0.05669887,0.65466678,0
-1.9890651,-4.7744851,-0.018571675,-0.14755063,-0.98543435,-0.084545165,0
-1.2760861,-4.8396573,-0.50325614,-0.14755063,-0.98543435,-0.084545165,0
0.97497284,4.841578,1.0063812,0.14755063,0.98543435,0.084545165,0
-0.30981842,-1.5407245,1.3701597,-0.064094678,-0.07577423,0.99506295,0
-1.5995817,-0.55403376,-0.083531499,-0.98877168,0.14901248,-0.011214331,0
1.3261232,3.8845046,1.6541822,0.47453594,-0.14553335,0.86812186,0
-0.60172367,-5.0422044,0.68065804,-0.14755063,-0.98543435,-0.084545165,0
-2.1475768,-4.2360983,-0.28138268,-0.98758441,0.14213324,0.066896096,0
1.0773294,-2.8703718,-0.39649028,0.98411798,-0.13774715,-0.1119695,0
-0.41839463,-5.03828,0.31496459,-0.14755063,-0.98543435,-0.084545165,0
-1.738734,-2.5317271,-0.90141886,-0.88101196,0.16979989,-0.44157201,0
1.4678962,1.1811819,-0.67252594,0.84838825,-0.082163319,-0.52295935,0
1.6856521,4.796216,0.29480883,0.14755063,0.98543435,0.084545165,0
-1.7534781,-4.7484989,-0.73261303,-0.14755063,-0.98543435,-0.084545165,0
-0.74631506,4.0920067,1.0024014,-0.89170361,0.095559083,0.44241729,0
1.6832507,4.8397222,-0.20809239,0.14755063,0.98543435,0.084545165,0
1.2723116,0.80073744,1.0619053,0.74329114,-0.1668738,0.64782053,0
0.14263681,-5.1107845,0.18092787,-0.14755063,-0.98543435,-0.084545165,0
-0.61501449,-3.0509567,1.2334356,-0.11559872,-0.067712612,0.99098527,0
0.49773827,1.3605292,1.5972534,0.17943588,-0.11073314,0.97751766,0
2.1286001,4.7113719,0.51068437,0.14755063,0.98543435,0.084545165,0
1.9840814,4.1418762,-0.28602177,0.89481241,-0.096586399,-0.43586877,0
0.89137816,-3.5728989,0.22324392,0.92579424,-0.16768792,0.33880004,0
-1.08163,-4.9348936,0.26742113,-0.14755063,-0.98543435,-0.084545165,0
-0.20729293,-4.9922457,-0.59001929,-0.14755063,-0.98543435,-0.084545165,0
-0.33587131,4.0945554,-0.83497703,-0.60899818,0.15787464,-0.77730095,0
1.6528718,4.7072954,1.3884526,0.14755063,0.98543435,0.084545165,0
-0.75781703,-4.9926724,0.37575048,-0.14755063,-0.98543435,-0.084545165,0
-1.3708479,-4.8542004,-0.16836575,-0.14755063,-0.98543435,-0.084545165,0
-1.5460211,-4.754024,-1.0302767,-0.14755063,-0.98543435,-0.084545165,0
0.63409734,0.56575501,-1.3477216,0.36989534,0.02429739,-0.92875564,0
2.1634195,4.3953381,0.58041668,0.97999346,-0.15720798,0.12205869,0
0.58857006,4.91012,0.881836,0.14755063,0.98543435,0.084545165,0
-1.5640419,-4.7987518,-0.47749072,-0.14755063,-0.98543435,-0.084545165,0
1.1511989,4.0641165,-1.0502357,0.36553922,0.025095668,-0.93045753,0
-0.51418304,3.8715482,1.3612216,-0.72193217,0.048877448,0.69023538,0
1.7307585,4.873796,-0.68816066,0.14755063,0.98543435,0.084545165,0
-0.25645822,5.0540338,0.67918313,0.14755063,0.98543435,0.084545165,0
1.8658284,4.726984,0.78731108,0.14755063,0.98543435,0.084545165,0
0.16156381,-5.0315452,-0.77569747,-0.14755063,-0.98543435,-0.084545165,0
-1.3157074,-4.8295612,-0.5517835,-0.14755063,-0.98543435,-0.084545165,0
-1.895524,-4.7581072,-0.37272072,-0.14755063,-0.98543435,-0.084545165,0
-0.16590963,-5.0480523,-0.011777222,-0.14755063,-0.98543435,-0.084545165,0
0.040011555,-0.13412175,1.4934558,0.02667436,-0.089414507,0.99563712,0
-1.5381367,-2.2928331,-1.1390003,-0.77137309,0.16815671,-0.61376441,0
0.70428574,5.0267,-0.6789369,0.14755063,0.98543435,0.084545165,0
-1.3012497,-4.8162251,-0.73245937,-0.14755063,-0.98543435,-0.084545165,0
0.88972497,-2.4679952,0.6431663,0.81412089,-0.16954935,0.55539185,0
1.6938655,4.787313,0.38424501,0.14755063,0.98543435,0.084545165,0
-1.4119236,0.5350523,0.29764178,-0.97512984,0.13064757,0.17903358,0
1.5817751,3.3653202,1.3613582,0.694022,-0.16406019,0.7010119,0
0.79913282,1.7706596,1.5676218,0.33648178,-0.13039576,0.93261826,0
1.7566768,4.8675585,-0.66069359,0.14755063,0.98543435,0.084545165,0
1.8506436,4.7152085,0.95105958,0.14755063,0.98543435,0.084545165,0
-0.0083804429,5.0995836,-0.2846795,0.14755063,0.98543435,0.084545165,0
0.60461694,4.2219934,-1.1432624,-0.0054456294,0.086288914,-0.99625528,0
-0.88557327,-4.4835029,-1.8776478,-0.12730825,0.10369247,-0.98642802,0
-0.4588989,4.8773203,1.3378962,-0.78317839,0.06420473,0.61847341,0
1.8279843,4.1963806,1.296216,0.77457142,-0.16828582,0.60968751,0
-0.078577727,5.0696721,0.18646695,0.14755063,0.98543435,0.084545165,0
1.6167111,4.768198,0.74170005,0.14755063,0.98543435,0.084545165,0
-0.79498351,4.2105756,0.85769683,-0.93373281,0.1105999,0.34045643,0
0.24249025,-4.178638,-1.5819834,0.57635057,-0.016199924,-0.81704199,0
0.23001608,-1.5115515,-1.5595851,0.30949706,0.035184965,-0.9502492,0
0.059518069,5.0670424,-0.02388981,0.14755063,0.98543435,0.084545165,0
0.27778643,4.9114337,1.4089149,0.14755063,0.98543435,0.084545165,0
-0.099272549,-5.1354747,0.89090121,-0.14755063,-0.98543435,-0.084545165,0
-0.9984659,-4.9808226,0.65761578,-0.14755063,-0.98543435,-0.084545165,0
0.50395328,-4.9649453,-1.2667097,0.82046247,-0.074215271,-0.5668627,0
1.3470318,4.8864865,-0.16638678,0.14755063,0.98543435,0.084545165,0
-2.0909894,-4.7178645,-0.50064617,-0.14755063,-0.98543435,-0.084545165,0
0.80947471,4.1965137,1.8569322,0.10567173,-0.10069828,0.98928928,0
-0.92353761,1.8268031,1.0661132,-0.78823358,0.065527566,0.61187732,0
0.17146814,0.14210689,1.5120702,0.085473299,-0.097865522,0.99152237,0
-0.16156569,-5.0087686,-0.47723699,-0.14755063,-0.98543435,-0.084545165,0
0.47276977,-1.3643448,-1.4556247,0.45267546,0.0087176487,-0.8916328,0
0.32445526,-2.364866,-1.5407041,0.45364416,0.0085304901,-0.89114201,0
0.21814381,-5.0471582,-0.69245785,-0.14755063,-0.98543435,-0.084545165,0
-1.0352174,2.9643481,-0.097582728,-0.96165514,0.16291888,-0.22062802,0
-0.57766092,5.0188498,-0.31128478,-0.86063302,0.17004503,-0.47999507,0
1.6103902,4.7092156,1.4402128,0.14755063,0.98543435,0.084545165,0
-1.7548147,-4.7318535,-0.92429793,-0.14755063,-0.98543435,-0.084545165,0
1.3108177,4.8842669,-0.077311933,0.14755063,0.98543435,0.084545165,0
-0.59666914,-4.9578657,-0.31119186,-0.14755063,-0.98543435,-0.084545165,0
-0.53754318,-2.585207,-1.7216525,-0.085646778,0.097890005,-0.99150503,0
0.31797361,4.9842806,0.48969311,0.14755063,0.98543435,0.084545165,0
0.23840199,-5.0713468,-0.44587806,-0.14755063,-0.98543435,-0.084545165,0
-0.21599463,-5.06637,0.28913629,-0.14755063,-0.98543435,-0.084545165,0
-1.299364,1.3648773,0.29482225,-0.98213893,0.13589181,0.13014069,0
0.061736017,-5.117146,0.39626738,-0.14755063,-0.98543435,-0.084545165,0
-1.00931,1.8938057,-0.64088809,-0.83646894,0.16994472,-0.52099752,0
0.98736429,4.8194571,1.2425915,0.14755063,0.98543435,0.084545165,0
0.92472637,5.0036807,-0.79535002,0.14755063,0.98543435,0.084545165,0
-0.096026689,-4.7281423,0.97947079,0.38754952,-0.1362496,0.91172445,0
0.1703857,4.9172678,1.5283549,0.14755063,0.98543435,0.084545165,0
-1.5999418,-3.1973689,0.7254166,-0.73950428,0.05315455,0.67104995,0
-1.6003678,-4.8820395,0.55668604,-0.14755063,-0.98543435,-0.084545165,0
0.74902576,-1.4213061,-1.273829,0.63684607,-0.029256601,-0.77043557,0
1.1148479,-1.7073925,0.51563179,0.88826758,-0.16962397,0.42685863,0
0.23754099,-5.1453648,0.41835791,-0.14755063,-0.98543435,-0.084545165,0
-0.46309942,-5.0479312,0.50547212,-0.14755063,-0.98543435,-0.084545165,0
-1.500156,-1.1444516,0.61091644,-0.87247455,0.089420468,0.48040816,0
1.2068448,-2.0675282,-0.12827359,0.98852813,-0.14972073,0.019894451,0
-0.35633317,-5.0907798,0.81857365,-0.14755063,-0.98543435,-0.084545165,0
0.21319571,4.7964187,1.8246665,-0.34107628,-0.029540453,0.93957126,0
1.8890681,4.8060665,-0.17501688,0.14755063,0.98543435,0.084545165,0
-0.82951152,-4.9523931,0.031382769,-0.14755063,-0.98543435,-0.084545165,0
-0.40179485,-5.0125403,-0.014019042,-0.14755063,-0.98543435,-0.084545165,0
0.35332403,-5.0235853,-1.2031382,-0.14755063,-0.98543435,-0.084545165,0
-1.0938876,-1.0688382,-1.2896494,-0.59904921,0.15705903,-0.78515756,0
1.6123295,4.7514205,0.94489783,0.14755063,0.98543435,0.084545165,0
1.5830871,4.6812096,1.6372777,0.56502813,-0.15414311,0.81054491,0
0.90235519,4.9553051,-0.19245327,0.14755063,0.98543435,0.084545165,0
0.496665,5.0342741,-0.40487272,0.14755063,0.98543435,0.084545165,0
0.59618872,-2.7587788,-1.3477278,0.66743457,-0.036122575,-0.7437917,0
1.6705098,2.0544088,0.85395205,0.88318276,-0.1697526,0.43723235,0
-0.23486783,-5.0690236,0.35300675,-0.14755063,-0.98543435,-0.084545165,0
-0.40244463,-4.2007904,1.1309427,0.13534003,-0.10479331,0.98524183,0
-0.73628682,-4.9783311,0.17100948,-0.14755063,-0.98543435,-0.084545165,0
-1.7683998,-2.5435817,0.37226826,-0.90980208,0.10170326,0.40238857,0
0.2734749,-5.1308875,0.18690097,-0.14755063,-0.98543435,-0.084545165,0
0.72349924,0.65833199,1.4360037,0.39607444,-0.13719885,0.90791047,0
-0.0091623962,-5.1428833,0.81998944,-0.14755063,-0.98543435,-0.084545165,0
1.5488791,4.7796292,0.72683704,0.14755063,0.98543435,0.084545165,0
-2.1958649,-4.6976938,-0.55272043,-0.14755063,-0.98543435,-0.084545165,0
1.4069451,0.96017164,-0.73501861,0.83058202,-0.077045016,-0.55154097,0
-1.8081795,-3.1756475,-1.0079395,-0.86299717,0.17003357,-0.4757356,0
-1.2225105,-4.7492814,-1.6501502,-0.14755063,-0.98543435,-0.084545165,0
1.7871943,4.6986823,1.2544203,0.14755063,0.98543435,0.084545165,0
1.2451735,4.82197,0.76336634,0.14755063,0.98543435,0.084545165,0
0.43796405,-2.4809904,1.0704002,0.51721048,-0.14973839,0.84265751,0
0.15465572,-2.0782781,-1.6050801,0.31566417,0.034090746,-0.94825822,0
-1.2323115,-4.862329,0.99625432,-0.3406139,-0.029623847,0.93973637,0
0.35124415,-5.078321,-0.56152606,-0.14755063,-0.98543435,-0.084545165,0
-0.92075914,-4.924685,-0.13232675,-0.14755063,-0.98543435,-0.084545165,0
0.6752466,0.62906981,-1.3292676,0.39044017,0.0205043,-0.92039979,0
-0.55281055,5.1690211,-0.14387237,0.14755063,0.98543435,0.084545165,0
-1.6221044,-4.7320795,-1.1532717,-0.14755063,-0.98543435,-0.084545165,0
-0.33900177,5.1396923,-0.17516984,0.14755063,0.98543435,0.084545165,0
-1.9244745,-3.1429703,-0.71677589,-0.94442809,0.16576459,-0.28386176,0
-1.2908182,-4.8691378,-0.13392618,-0.14755063,-0.98543435,-0.084545165,0
-0.15869221,5.0424919,0.64308733,0.14755063,0.98543435,0.084545165,0
1.2144874,-1.5846372,-0.55357146,0.95024067,-0.11752964,-0.28849524,0
-1.0882576,1.4264772,0.87844193,-0.85529006,0.084200278,0.5112623,0
-0.070882827,-4.9227576,-1.6380192,-0.14755063,-0.98543435,-0.084545165,0
1.1321769,0.27298784,-1.0083276,0.72027594,-0.048478767,-0.69199157,0
-0.088126332,5.1109753,-0.27828288,0.14755063,0.98543435,0.084545165,0
-1.446478,-4.8129616,-0.51704347,-0.14755063,-0.98543435,-0.084545165,0
-1.0407381,2.1755085,-0.48376516,-0.88557816,0.1696952,-0.43238273,0
0.13046336,2.9915683,1.7247157,-0.21924709,-0.050765757,0.97434771,0
-1.7795866,-4.8222275,0.1723088,-0.14755063,-0.98543435,-0.084545165,0
-0.97918117,2.601959,-0.44245356,-0.88711494,0.1696554,-0.42923659,0
0.26971066,-1.365162,1.318783,0.29725593,-0.12571217,0.94648576,0
-0.79244834,-0.91057587,1.2708849,-0.43910041,-0.011327982,0.89836651,0
1.3938506,4.8053951,0.69707906,0.14755063,0.98543435,0.084545165,0
1.4772966,2.1270361,1.1683068,0.74752378,-0.16708346,0.64287722,0
-0.39255428,5.1526031,-0.23218732,0.14755063,0.98543435,0.084545165,0
-1.7388613,-1.5084765,-0.25389192,-0.9856683,0.15357465,-0.069805712,0
-0.58364522,0.53647542,-1.3157933,-0.42168587,0.14000058,-0.89586878,0
1.0248275,-3.1427019,-0.50243104,0.97715783,-0.13202405,-0.16652927,0
-0.16883481,4.8327103,1.6206176,-0.59203923,0.019524459,0.80567253,0
-1.4449792,-4.7978044,-0.6963284,-0.14755063,-0.98543435,-0.084545165,0
0.13547301,-5.0100822,-0.98032898,-0.14755063,-0.98543435,-0.084545165,0
1.2834475,-0.91066647,-0.58978772,0.93018341,-0.10920895,-0.35047436,0
1.3856701,4.8756838,-0.1079036,0.14755063,0.98543435,0.084545165,0
-0.5898608,-3.8748109,1.1727989,-0.018830597,-0.082666352,0.99639928,0
-1.8208946,-4.7741795,-0.3156324,-0.14755063,-0.98543435,-0.084545165,0
-0.22532097,-4.8889594,-1.7624344,-0.14755063,-0.98543435,-0.084545165,0
-1.1883699,-4.887969,-0.093233973,-0.14755063,-0.98543435,-0.084545165,0
-0.34759179,-2.8924885,-1.750082,0.068252951,0.075132042,-0.99483496,0
-1.8360002,-4.7119441,-1.0146672,-0.14755063,-0.98543435,-0.084545165,0
-0.84386992,-4.7835383,-1.9116828,-0.14755063,-0.98543435,-0.084545165,0
-0.727175,-4.908392,-0.66008103,-0.14755063,-0.98543435,-0.084545165,0
-1.1203969,1.7143298,0.76069987,-0.90317333,0.099404991,0.41760784,0
-1.8903179,-2.5199213,-0.12990138,-0.98742843,0.14186919,0.069701537,0
1.8144891,4.6884756,1.3257518,0.14755063,0.98543435,0.084545165,0
0.74519283,-4.9459643,-0.10305212,0.96627009,-0.16186614,0.20030341,0
-0.35617143,0.20242871,1.4682084,-0.26411065,-0.043119989,0.96352792,0
-1.1330734,0.25378692,-0.94960171,-0.75564003,0.16746978,-0.63321549,0
0.44305485,-2.3883991,-1.4733918,0.53271061,-0.0071582757,-0.8462671,0
0.73169518,4.9708424,-0.075709283,0.14755063,0.98543435,0.084545165,0
0.68005753,4.3833337,1.8815709,0.0029578805,-0.085920036,0.9962976,0
0.18973596,-0.69167745,-1.5326314,0.20353015,0.053399093,-0.97761142,0
1.2921002,-1.3874565,0.12374417,0.9761095,-0.15887123,0.14822353,0
-0.62424767,4.1852388,-0.50794792,-0.8085736,0.16941254,-0.56347847,0
0.54417741,-4.9647093,0.38590014,0.83292794,-0.16989984,0.52665436,0
1.6795917,3.1139529,1.1856959,0.78364033,-0.16863148,0.59788895,0
-1.2055272,-4.806181,-1.0165867,-0.14755063,-0.98543435,-0.084545165,0
-1.8246474,-2.142066,-0.0074443817,-0.98224694,0.13598673,0.12922281,0
0.15641469,-5.1473556,0.58314264,-0.14755063,-0.98543435,-0.084545165,0
0.24388188,2.3306236,1.7004071,-0.081010565,-0.073152348,0.99402517,0
-1.4458104,-4.7478313,-1.2773464,-0.14755063,-0.98543435,-0.084545165,0
1.3618033,-1.0102335,0.036771327,0.98572409,-0.15352455,0.069124445,0
-0.86515623,2.3873949,-0.7014001,-0.78980124,0.16884834,-0.58966458,0
-1.8575368,-4.1704721,-1.2498444,-0.79674119,0.16907437,-0.58018732,0
1.2830985,4.768312,1.3225987,0.14755063,0.98543435,0.084545165,0
-0.28901479,5.1455054,-0.33016255,0.14755063,0.98543435,0.084545165,0
-1.7595872,-4.7170033,0.66524577,-0.69581228,0.042674091,0.71695477,0
0.7241106,4.9630837,0.027958274,0.14755063,0.98543435,0.084545165,0
0.4531523,4.8438187,1.8909628,0.14755063,0.98543435,0.084545165,0
0.13322568,5.1310544,-0.89863515,0.14755063,0.98543435,0.084545165,0
-1.4523987,-2.8893647,0.85363263,-0.67420614,0.037669249,0.73758197,0
0.1239548,2.1034536,-1.3153402,-0.11212036,0.10159504,-0.98848736,0
0.81662303,5.0058975,-0.63252306,0.14755063,0.98543435,0.084545165,0
1.4605744,0.89068943,0.82174438,0.85934496,-0.17004956,0.48229581,0
-1.4371221,-1.9511694,0.80551118,-0.75478667,0.056949042,0.65349358,0
0.035436183,-4.3480148,-1.706787,0.45877609,0.0075371303,-0.88852,0
-1.3672,-4.8270063,-0.49169946,-0.14755063,-0.98543435,-0.084545165,0
0.90985531,4.9311924,0.075509995,0.14755063,0.98543435,0.084545165,0
0.05832836,-5.1391487,0.65867639,-0.14755063,-0.98543435,-0.084545165,0
-2.1469338,-4.2097139,-0.39872536,-0.9887467,0.14909708,-0.012244105,0
-0.43211487,3.536305,1.455474,-0.63669854,0.02922393,0.77055883,0
0.98842043,4.9422059,-0.18997365,0.14755063,0.98543435,0.084545165,0
-1.1239349,-3.0365303,-1.6198322,-0.42516184,0.14037493,-0.89416569,0
0.90366578,4.7829437,1.8142515,0.14755063,0.98543435,0.084545165,0
-0.82320595,-4.8288174,-1.4199831,-0.14755063,-0.98543435,-0.084545165,0
0.13724317,-5.0680757,-0.30745813,-0.14755063,-0.98543435,-0.084545165,0
1.1233003,2.8297353,1.5872481,0.44506446,-0.14249049,0.88408941,0
0.33167359,5.0227704,0.017159224,0.14755063,0.98543435,0.084545165,0
0.65769351,-0.21269102,1.3312407,0.43846238,-0.14179403,0.88749379,0
-0.012135535,-5.0996304,0.32103184,-0.14755063,-0.98543435,-0.084545165,0
1.092604,3.1253352,-1.0958115,0.41870552,0.01520779,-0.90799463,0
-1.2153805,-4.9332461,0.48163939,-0.14755063,-0.98543435,-0.084545165,0
0.20118934,4.1124778,-1.1004409,-0.25828239,0.12090512,-0.95847386,0
-1.7092712,-1.4222876,0.10531557,-0.97771281,0.13241673,0.16292098,0
-0.78125501,1.7804915,1.2279626,-0.69230038,0.041853119,0.72039461,0
-0.12185994,-1.2935834,-1.6137809,0.05934231,0.076506287,-0.9953016,0
-1.3207488,-4.7608027,-1.3444157,-0.14755063,-0.98543435,-0.084545165,0
-0.44014806,-4.9875474,-0.23839357,-0.14755063,-0.98543435,-0.084545165,0
-1.4574659,-4.8982325,0.49602729,-0.14755063,-0.98543435,-0.084545165,0
0.32677689,1.9483882,-1.337386,0.03536503,0.080169544,-0.99615365,0
0.20177774,-5.0623894,-0.48636615,-0.14755063,-0.98543435,-0.084545165,0
-1.8544924,-4.68993,-1.2389899,-0.14755063,-0.98543435,-0.084545165,0
0.069896013,-1.3425202,1.3694036,0.16433051,-0.10871833,0.98039567,0
-0.25976956,-4.9727464,-0.72571272,-0.14755063,-0.98543435,-0.084545165,0
0.54338288,-0.73823947,1.3031691,0.41509145,-0.13928649,0.89905411,0
-1.8146613,-2.4528651,-0.67856944,-0.94002593,0.16630267,-0.29781631,0
0.39328337,-5.1758337,0.50169158,-0.14755063,-0.98543435,-0.084545165,0
1.3052273,4.9480081,-0.81050551,0.14755063,0.98543435,0.084545165,0
0.62615407,4.6477165,-1.1059232,-0.032977849,0.090334997,-0.9953652,0
1.3864323,1.0013182,0.97323406,0.79900938,-0.1691439,0.57703912,0
-0.55012614,0.60466337,-1.3206722,-0.40639541,0.13833702,-0.90316409,0
1.6174216,4.8934336,-0.7192508,0.14755063,0.98543435,0.084545165,0
1.522843,4.8954115,-0.57724613,0.14755063,0.98543435,0.084545165,0
0.58171177,-3.3489461,0.78006101,0.69750524,-0.16427995,0.69749433,0
-0.26266736,5.0133443,1.1642884,0.14755063,0.98543435,0.084545165,0
0.82654345,4.8197236,1.5201511,0.14755063,0.98543435,0.084545165,0
0.96494031,4.7837286,1.6981682,0.14755063,0.98543435,0.084545165,0
0.28115797,-5.0312552,-0.98778838,-0.14755063,-0.98543435,-0.084545165,0
-0.1244993,4.9975386,1.1073803,0.14755063,0.98543435,0.084545165,0
1.4129945,-0.61635607,0.15056956,0.97998184,-0.15721364,0.12214505,0
-0.62622845,5.114377,0.62117487,0.14755063,0.98543435,0.084545165,0
0.67237008,4.7907972,1.9151888,-0.041832358,-0.079186425,0.99598163,0
-1.4554449,-4.7447872,-1.2960137,-0.14755063,-0.98543435,-0.084545165,0
-0.72360134,0.29145953,1.3139422,-0.5110783,0.00278138,0.85952961,0
-0.93698299,0.72503406,1.1396224,-0.69081414,0.041506581,0.72183996,0
-0.59390593,-4.8771358,-1.2569788,-0.14755063,-0.98543435,-0.084545165,0
-1.5708051,-4.8645473,0.30120724,-0.14755063,-0.98543435,-0.084545165,0
-1.3462921,-4.8923507,0.23344898,-0.14755063,-0.98543435,-0.084545165,0
0.64336139,4.8396449,1.6076458,0.14755063,0.98543435,0.084545165,0
-1.7402333,-3.7389121,0.6096915,-0.77753919,0.062740654,0.62569666,0
1.3635858,4.8381219,0.36844733,0.14755063,0.98543435,0.084545165,0
0.60145414,-2.1737783,1.0166912,0.59449828,-0.1566802,0.78868437,0
1.6388729,4.8769298,-0.77551347,0.60250282,-0.021764912,-0.79781973,0
2.1962504,4.7167158,0.33032906,0.14755063,0.98543435,0.084545165,0
-1.5540364,-0.592619,0.31939638,-0.95867991,0.12147408,0.25724846,0
-1.0766504,2.2715666,-0.36033785,-0.91933632,0.16817284,-0.35572261,0
1.1950212,3.6688201,1.6850451,0.40968794,-0.13869753,0.90162003,0
0.28120768,-5.04073,-0.87744486,-0.14755063,-0.98543435,-0.084545165,0
0.90145642,-3.6807353,-0.73069233,0.95075357,-0.11775994,-0.28670606,0
1.6180885,0.82402641,-0.16608429,0.97674531,-0.13173686,-0.1691567,0
1.0037599,4.9636331,-0.46649605,0.14755063,0.98543435,0.084545165,0
-1.0413747,-4.8336496,-0.98290527,-0.14755063,-0.98543435,-0.084545165,0
-1.1436074,0.088302717,0.96662533,-0.76240492,0.058868475,0.64441693,0
0.44568056,-1.7225106,1.1946702,0.44768661,-0.14276561,0.88271999,0
0.093690455,0.50176013,1.5485585,-0.00041584671,-0.085418969,0.99634498,0
-0.72929716,-4.893786,-0.82662594,-0.14755063,-0.98543435,-0.084545165,0
1.7475669,3.3866608,1.1723557,0.80164653,-0.16922198,0.57334673,0
0.28400132,-5.1513963,0.40757766,-0.14755063,-0.98543435,-0.084545165,0
0.24289694,5.0953751,-0.67416716,0.14755063,0.98543435,0.084545165,0
-1.3661882,-2.8438885,-1.4369367,-0.60334247,0.15741313,-0.78179204,0
-0.529374,5.1634603,-0.1199621,0.14755063,0.98543435,0.084545165,0
-1.1554378,-3.548506,1.0597491,-0.41836312,-0.015272502,0.90815139,0
0.33354339,-5.1354599,0.13536192,-0.14755063,-0.98543435,-0.084545165,0
0.85457468,-2.2548711,0.75212294,0.76963246,-0.16808492,0.61596537,0
-0.41612294,-3.644834,-1.8109612,0.096994609,0.070651695,-0.99277401,0
2.0919509,4.761354,-0.20090789,0.90440327,-0.099826947,-0.41483629,0
1.7155349,4.7027946,1.3315489,0.14755063,0.98543435,0.084545165,0
-2.1766164,-4.4214511,-0.47823256,-0.98691821,0.15230817,-0.052862704,0
-1.7539533,-2.912559,0.47875702,-0.86549997,0.087274604,0.49324742,0
0.99564588,1.4397386,-1.1577016,0.51938081,-0.0044533648,-0.85453117,0
-0.23385641,5.1214333,-0.14584891,0.14755063,0.98543435,0.084545165,0
-0.39705622,5.1418929,-0.099493727,0.14755063,0.98543435,0.084545165,0
0.54919076,4.1793404,1.8610728,-0.062442943,-0.076028883,0.9951483,0
-0.012870342,-5.1274323,0.64637017,-0.14755063,-0.98543435,-0.084545165,0
-1.274405,-4.780642,-1.1940548,-0.14755063,-0.98543435,-0.084545165,0
-0.66357678,4.2662888,1.1211979,-0.85562748,0.084300697,0.51068091,0
0.43200633,5.0294652,-0.23597497,0.14755063,0.98543435,0.084545165,0
-1.4402509,-1.8516698,0.79284149,-0.76636666,0.059874326,0.63960701,0
-1.7935771,-2.0012219,0.069520652,-0.97627687,0.13141552,0.17208484,0
0.83538467,5.0115342,-0.73096406,0.14755063,0.98543435,0.084545165,0
-0.089257568,5.1463656,-0.68881196,0.14755063,0.98543435,0.084545165,0
0.22604454,4.9841151,0.65205878,0.14755063,0.98543435,0.084545165,0
-1.7095187,-4.7626963,-0.6438542,-0.14755063,-0.98543435,-0.084545165,0
0.88414729,-2.2395506,0.7182827,0.78771448,-0.16877656,0.59246951,0
-0.79572684,-5.011281,0.6588034,-0.14755063,-0.98543435,-0.084545165,0
-1.2358775,-4.9497533,0.70981783,-0.14755063,-0.98543435,-0.084545165,0
1.1865749,-2.1838017,-0.26550201,0.9877212,-0.14237556,-0.064310491,0
0.44323656,-0.79016334,1.3376753,0.35452709,-0.13249649,0.92561072,0
0.12953836,-5.0886464,-0.054247618,-0.14755063,-0.98543435,-0.084545165,0
0.066632867,-5.1236858,0.46394518,-0.14755063,-0.98543435,-0.084545165,0
-1.3123521,-4.9446607,0.78392696,-0.14755063,-0.98543435,-0.084545165,0
1.0180104,4.9581199,-0.42710936,0.14755063,0.98543435,0.084545165,0
1.6489743,0.92399073,0.23310609,0.98387766,-0.15497552,0.089258887,0
0.2354674,5.012042,0.31010625,0.14755063,0.98543435,0.084545165,0
1.470848,4.8586893,-0.058477879,0.14755063,0.98543435,0.084545165,0
0.82553911,0.35238272,-1.2553976,0.51465994,-0.0035014823,-0.85738719,0
1.7173536,4.1375923,1.4074878,0.70719659,-0.16487564,0.68752366,0
-1.9374223,-4.7582693,-0.29770625,-0.14755063,-0.98543435,-0.084545165,0
-1.1707218,-4.334878,-1.7920154,-0.32838759,0.12944232,-0.93563145,0
-1.0994066,2.7870715,0.21746121,-0.98895216,0.14822492,-0.0017197877,0
-0.79064786,-3.7994332,-1.817971,-0.1322085,0.10436478,-0.98571241,0
0.79230428,-2.7505586,0.69446373,0.77755129,-0.16840278,0.6058501,0
-0.3467496,-4.9332023,-1.0348285,-0.14755063,-0.98543435,-0.084545165,0
1.4251925,1.1948669,-0.73978937,0.81977177,-0.074024051,-0.56788605,0
0.9950155,5.0135784,-1.0333836,0.14755063,0.98543435,0.084545165,0
-1.5582747,-4.8756967,0.40929037,-0.14755063,-0.98543435,-0.084545165,0
0.56803215,-1.5897479,1.1489321,0.51498961,-0.14952569,0.84405422,0
1.1859412,-0.5937283,0.78065985,0.82447493,-0.16976489,0.53983414,0
0.10789781,-3.2071648,-1.6553825,0.39501712,0.019652855,-0.91846341,0
0.11079515,5.0306554,0.31073636,0.14755063,0.98543435,0.084545165,0
-0.57903761,-5.0676289,0.93740267,-0.14755063,-0.98543435,-0.084545165,0
1.1434149,1.0911897,-1.0429972,0.64858121,-0.031868033,-0.76047796,0
1.758157,4.7361259,0.86866254,0.14755063,0.98543435,0.084545165,0
-0.13295934,-4.0656343,1.086569,0.29835325,-0.12584533,0.94612277,0
-0.83957243,-3.0303166,1.1910317,-0.26369277,-0.0431921,0.96363926,0
1.8872108,2.5027618,0.3463805,0.98526525,-0.15392265,0.074565247,0
-0.31031466,5.041028,0.92476779,0.14755063,0.98543435,0.084545165,0
-0.45326999,3.4124284,-0.8813796,-0.61905265,0.15868095,-0.76915157,0
0.66095316,4.8928361,0.9569689,0.14755063,0.98543435,0.084545165,0
1.5414535,4.7725496,0.82232088,0.14755063,0.98543435,0.084545165,0
-1.1663601,-4.7933583,-1.2344027,-0.14755063,-0.98543435,-0.084545165,0
-0.60011399,-4.0377007,-1.851741,0.015425846,0.083177522,-0.99641532,0
-0.09812884,4.9521747,1.5901076,0.14755063,0.98543435,0.084545165,0
-0.57717705,2.4597085,1.37626,-0.62628329,0.026929054,0.77913022,0
0.61389625,2.3887458,1.6919148,0.15473175,-0.10742718,0.98209846,0
0.94398808,4.9488268,-0.18960369,0.14755063,0.98543435,0.084545165,0
-0.42827818,5.0540771,0.97854084,0.14755063,0.98543435,0.084545165,0
0.037286788,-2.8491199,-1.671862,0.31439817,0.03431569,-0.94867074,0
0.19784382,4.9228802,1.4150188,0.14755063,0.98543435,0.084545165,0
0.57249492,5.0041866,-0.18652171,0.14755063,0.98543435,0.084545165,0
-0.55966574,4.6071243,-0.47377545,-0.80763578,0.16938798,-0.56482929,0
0.23825809,5.0162268,0.25645936,0.14755063,0.98543435,0.084545165,0
1.5102189,1.9852515,1.0893449,0.78339463,-0.16862252,0.59821349,0
0.17599064,-0.55490196,1.438913,0.15659514,-0.10767849,0.98177552,0
0.18568011,4.9524775,1.0912641,0.14755063,0.98543435,0.084545165,0
0.49049807,5.0872502,-1.0115857,0.14755063,0.98543435,0.084545165,0
-0.86138755,-1.9403319,1.2210505,-0.38382614,-0.021730538,0.92314959,0
2.0228524,4.7030582,0.79213625,0.14755063,0.98543435,0.084545165,0
0.10619335,-1.3908259,-1.588058,0.21728007,0.051096596,-0.97477096,0
0.7448827,-3.0063651,0.68410116,0.7715078,-0.16816224,0.6135937,0
-0.067619197,-4.9498358,-1.3280983,-0.14755063,-0.98543435,-0.084545165,0
-0.11625671,5.1381989,-0.54650587,0.14755063,0.98543435,0.084545165,0
-1.4305946,-3.0249946,0.87910575,-0.64705122,0.031525992,0.76179445,0
0.36936986,4.7690744,1.8708259,-0.23696011,-0.047770079,0.97034419,0
0.12502109,-3.8689368,-1.656319,0.47034022,0.0052864961,-0.8824693,0
0.60389405,-0.9087202,1.2454154,0.47155973,-0.14523107,0.86979264,0
