0.85391748,1.0056829,-1.3809026,0.36905661,0.90840632,-0.19645655,0
-0.31833112,-0.47404069,1.6371928,0.0017682314,0.21069172,0.97755098,0
-0.32345963,-1.6238743,-0.48108688,-0.36905661,-0.90840632,0.19645655,0
0.11893836,-1.7089273,-0.043293953,-0.36905661,-0.90840632,0.19645655,0
-0.21371144,-1.4639099,0.46475127,-0.36905661,-0.90840632,0.19645655,0
-0.60546607,1.8909699,0.50432169,-0.74692589,0.41568303,0.51895052,0
-0.69735372,0.16040817,1.3723413,-0.37109995,0.33782697,0.86496109,0
0.52734494,0.46781853,1.3696402,0.2653234,0.099605843,0.95900077,0
0.72474694,-0.64368057,-1.1483968,0.50571185,-0.37362236,-0.77760029,0
-1.1459279,-0.76913786,1.5407401,-0.41352272,0.3497977,0.84061909,0
0.1306752,-0.82862759,1.6086624,0.33820724,0.065622628,0.93878096,0
0.93602657,1.2958139,0.11489773,0.36905661,0.90840632,-0.19645655,0
-1.3329805,-1.0762901,0.15446663,-0.36905661,-0.90840632,0.19645655,0
-1.5770407,-1.0269426,-0.075835824,-0.36905661,-0.90840632,0.19645655,0
0.55866468,-1.9337442,-0.25678253,-0.36905661,-0.90840632,0.19645655,0
0.13365853,-1.8897529,-0.85177028,-0.36905661,-0.90840632,0.19645655,0
-0.68180811,1.3854645,0.77260447,-0.66493934,0.40575707,0.62707031,0
1.1773374,0.93336505,1.0689671,0.52104741,-0.027190432,0.8530947,0
0.64585412,1.4217948,0.15231875,0.36905661,0.90840632,-0.19645655,0
-0.55442786,-1.2363647,0.8768518,-0.36905661,-0.90840632,0.19645655,0
-0.41784966,-1.4340352,0.2194033,-0.36905661,-0.90840632,0.19645655,0
-0.75590831,1.7798355,0.34904456,-0.8162269,0.41788244,0.39893383,0
-0.75818741,0.028187037,-1.2939699,-0.50545818,0.018791333,-0.86264658,0
-0.87666935,1.2611938,0.61795628,-0.75685328,0.41642821,0.50374675,0
-1.5470116,-0.99370271,0.13427556,-0.36905661,-0.90840632,0.19645655,0
-1.4195079,-0.95212907,0.56603456,-0.36905661,-0.90840632,0.19645655,0
1.0389874,0.77944708,1.1460884,0.47950512,-0.005029723,0.87752485,0
0.07613802,-1.5651832,0.54096895,-0.36905661,-0.90840632,0.19645655,0
-0.44127512,1.608698,-1.0256923,0.36905661,0.90840632,-0.19645655,0
0.58808619,1.3393091,-0.33761206,0.36905661,0.90840632,-0.19645655,0
-0.34507406,-1.6708601,-0.73895067,-0.36905661,-0.90840632,0.19645655,0
-0.74547964,0.91713536,-1.2204812,-0.69327009,0.12828532,-0.7091682,0
-1.0568608,-1.3199652,-0.45356691,-0.36905661,-0.90840632,0.19645655,0
0.38293791,1.1057549,1.2943927,0.035947204,0.19726853,0.97969031,0
0.87484241,0.81485355,1.2237096,0.38081813,0.045018017,0.92355359,0
1.1162987,0.19790721,-1.2966325,0.53593051,-0.38069934,-0.75355589,0
-1.5645262,-0.64647287,1.1474617,-0.70100385,0.41085941,0.58291352,0
-0.7377122,-1.4824414,-0.60530853,-0.36905661,-0.90840632,0.19645655,0
-0.11727238,-1.0130708,1.7012229,0.24112034,0.1105583,0.96417731,0
0.055919528,-0.25117797,-1.4801056,0.016798973,-0.21786377,-0.97583473,0
-1.8575066,-0.59932953,0.37203085,-0.91773891,0.38957819,0.07735908,0
-1.2648468,-0.84615457,1.3465967,-0.36905661,-0.90840632,0.19645655,0
-0.75936717,1.4263949,-1.067713,-0.80770403,0.20890982,-0.55133563,0
-0.52148616,1.0582439,1.0807018,-0.48458898,0.36844897,0.7933594,0
0.9960447,-1.4522974,-0.1128155,0.89272583,-0.40527946,-0.19695008,0
-0.83878958,-1.1804627,0.60114765,-0.36905661,-0.90840632,0.19645655,0
1.8962129,0.82584405,-0.25444877,0.36905661,0.90840632,-0.19645655,0
-0.36672997,0.88695252,1.2298981,-0.34997475,0.33165029,0.87608558,0
-1.8159459,-0.95281065,-0.40563178,-0.85239047,0.24657504,-0.46111977,0
0.047448277,-1.3236158,1.6040709,-0.36905661,-0.90840632,0.19645655,0
-1.7401314,-1.0261985,-0.37877226,-0.36905661,-0.90840632,0.19645655,0
0.55039442,1.1149039,-1.4460583,0.36905661,0.90840632,-0.19645655,0
-1.1455126,-0.092586517,1.2191398,-0.58003914,0.39028236,0.71500659,0
1.1868091,0.98897243,-0.83281237,0.36905661,0.90840632,-0.19645655,0
-1.1091704,-1.2818415,-1.1036214,-0.40558213,-0.032776684,-0.9134708,0
0.94858027,-0.85040557,1.0056924,0.78493249,-0.19145712,0.58925837,0
0.39076382,1.6199059,0.58917278,0.36905661,0.90840632,-0.19645655,0
1.3702849,1.1289841,0.15926683,0.36905661,0.90840632,-0.19645655,0
0.44733101,-1.8045404,0.13150263,-0.36905661,-0.90840632,0.19645655,0
-1.2903988,-0.83366698,1.3563378,-0.36905661,-0.90840632,0.19645655,0
0.35357416,-0.25023019,1.4878809,0.33145583,0.068835989,0.94095635,0
-0.25928199,0.043917805,-1.4958351,-0.23142946,-0.11489889,-0.96604294,0
0.37011242,-1.5154887,1.3230046,-0.36905661,-0.90840632,0.19645655,0
1.5002887,0.39289135,-1.0437665,0.7257002,-0.41371545,-0.54972637,0
0.52594399,1.3141553,-0.57065952,0.36905661,0.90840632,-0.19645655,0
0.62513548,-1.7422448,0.75357163,-0.36905661,-0.90840632,0.19645655,0
0.072958708,1.841526,1.0169165,0.36905661,0.90840632,-0.19645655,0
-1.6687615,-0.74586475,1.0515524,-0.36905661,-0.90840632,0.19645655,0
-0.40979207,-0.052659631,1.525821,-0.15046358,0.26698729,0.95188165,0
-1.7354069,-0.78697103,0.73628128,-0.36905661,-0.90840632,0.19645655,0
-0.60956877,-1.6038218,-0.92583954,-0.36905661,-0.90840632,0.19645655,0
-0.15965331,-1.4318451,0.71456897,-0.36905661,-0.90840632,0.19645655,0
0.37398648,-1.5427017,1.2044506,-0.36905661,-0.90840632,0.19645655,0
-0.32615691,-1.5416882,-0.10612862,-0.36905661,-0.90840632,0.19645655,0
0.020250082,-1.3193895,1.5725197,-0.36905661,-0.90840632,0.19645655,0
0.55189985,1.3242137,-0.47539026,0.36905661,0.90840632,-0.19645655,0
-1.6575632,-1.1026458,-0.57714987,-0.36905661,-0.90840632,0.19645655,0
-0.86867934,1.7262063,-0.62874556,-0.91644371,0.32050505,-0.23959887,0
1.5721006,0.25033343,0.47533059,0.87234271,-0.26564375,0.41042864,0
-0.98069525,-0.62287146,1.5561918,-0.35031509,0.33175087,0.87591147,0
1.2248374,-0.76772887,0.53174686,0.90263224,-0.29995432,0.30867887,0
1.0869265,-0.81490088,-0.66907334,0.77571464,-0.41749537,-0.4732489,0
-1.2818116,-1.1768848,-0.21455431,-0.36905661,-0.90840632,0.19645655,0
-0.400949,1.4454825,-1.4498914,-0.62404245,0.0855572,-0.77669233,0
-1.9094734,-0.79516453,0.37139964,-0.36905661,-0.90840632,0.19645655,0
0.96110904,-0.69808155,-0.92121994,0.6649639,-0.40576085,-0.62704182,0
0.38060546,-0.45274153,-1.3784647,0.25373685,-0.3018277,-0.91897655,0
1.6893237,1.1017804,0.63281381,0.36905661,0.90840632,-0.19645655,0
-0.25000703,1.9311314,0.82453501,0.36905661,0.90840632,-0.19645655,0
1.6558151,0.88858664,-0.41593266,0.36905661,0.90840632,-0.19645655,0
-0.01320529,-1.2781575,1.6914172,0.35982239,0.055241361,0.93138421,0
-0.59860277,1.4831266,0.79562652,-0.6377393,0.40128028,0.65746713,0
-0.55328333,-1.2595736,0.77168441,-0.36905661,-0.90840632,0.19645655,0
0.34233826,-1.7238781,0.30724543,-0.36905661,-0.90840632,0.19645655,0
-0.8737483,-1.3665639,-0.32504809,-0.36905661,-0.90840632,0.19645655,0
-1.3521369,-1.19507,-0.43075287,-0.36905661,-0.90840632,0.19645655,0
0.28120178,-1.7377717,0.12815326,-0.36905661,-0.90840632,0.19645655,0
-0.54483593,-0.91946435,1.7329926,-0.024484038,0.22080763,0.9750101,0
-0.65461278,1.9048057,-0.057272553,0.36905661,0.90840632,-0.19645655,0
-1.7787628,-0.75005281,-0.35946429,-0.87406337,0.26738513,-0.40560901,0
-0.56848764,0.10003167,1.44172,-0.28004289,0.31024367,0.90847403,0
1.7149642,0.96571934,0.051840067,0.36905661,0.90840632,-0.19645655,0
0.15534818,1.8027891,0.99257231,0.36905661,0.90840632,-0.19645655,0
1.3511925,-0.27526182,0.60446298,0.86884296,-0.26215541,0.41998398,0
-0.55452013,1.0859668,1.046541,-0.51145935,0.37499845,0.77316594,0
-1.7209184,-0.25070795,0.17832828,-0.92636293,0.37663019,0.0012872219,0
-1.3940609,0.53838331,-0.12937498,-0.92937404,0.35892224,-0.086250067,0
-0.0064405203,1.4738016,-0.832582,0.36905661,0.90840632,-0.19645655,0
-0.57925731,-1.3488432,0.3101123,-0.36905661,-0.90840632,0.19645655,0
-0.40691191,1.9337817,0.54203379,0.36905661,0.90840632,-0.19645655,0
-1.3888265,0.52484083,0.22849965,-0.90603477,0.39875227,0.14176667,0
-0.20141828,1.8963752,0.75510061,0.36905661,0.90840632,-0.19645655,0
0.39729941,1.1872027,-1.3993509,0.36905661,0.90840632,-0.19645655,0
-1.620622,-0.91245115,0.37169778,-0.36905661,-0.90840632,0.19645655,0
-0.11478008,-1.5562366,0.22368538,-0.36905661,-0.90840632,0.19645655,0
1.2319207,-0.18296164,-0.96280468,0.70377433,-0.4112075,-0.57931882,0
1.4062357,0.71564978,-1.3476838,0.58471113,-0.39124131,-0.71066409,0
-0.080497585,1.6379039,-0.21290183,0.36905661,0.90840632,-0.19645655,0
0.21379003,-1.5936081,0.6681214,-0.36905661,-0.90840632,0.19645655,0
-1.1769421,-0.94910592,1.0356897,-0.36905661,-0.90840632,0.19645655,0
0.72098541,1.4014158,0.19922718,0.36905661,0.90840632,-0.19645655,0
0.73352599,-1.974847,-0.11835122,-0.36905661,-0.90840632,0.19645655,0
-0.66598272,1.4934676,-1.1725978,-0.77398783,0.18337566,-0.60606647,0
-0.53053498,-1.0590436,1.7416604,-0.36905661,-0.90840632,0.19645655,0
1.1907821,0.92105472,-1.1393979,0.36905661,0.90840632,-0.19645655,0
0.46675599,1.424614,-0.1710926,0.36905661,0.90840632,-0.19645655,0
1.544312,1.1093183,0.39525437,0.36905661,0.90840632,-0.19645655,0
-1.8640409,-0.69722247,-0.060709238,-0.92053926,0.32814574,-0.21196246,0
0.75281668,1.4722784,0.58668923,0.36905661,0.90840632,-0.19645655,0
0.61246037,1.1129849,-1.3383367,0.36905661,0.90840632,-0.19645655,0
0.69984168,-1.2701555,1.1931912,0.74457061,-0.1624701,0.64747065,0
0.98296869,-0.28700244,1.1020437,0.68347085,-0.12202509,0.71970665,0
-0.18537176,-1.0434722,1.7207911,0.20964503,0.12456407,0.96981078,0
0.93271732,-1.6029668,-0.089662433,0.89105189,-0.40592885,-0.20309722,0
0.29784083,1.2838914,-1.1391058,0.36905661,0.90840632,-0.19645655,0
1.5755572,0.97192377,-0.1813556,0.36905661,0.90840632,-0.19645655,0
0.50025213,0.61648917,1.3593328,0.21599519,0.12175971,0.96877283,0
-1.9062526,-0.7082293,0.23558986,-0.92806554,0.37154967,-0.02540338,0
0.24677336,-1.5309576,1.0197769,-0.36905661,-0.90840632,0.19645655,0
1.1536702,0.25358915,-1.298043,0.54493833,-0.38273108,-0.7460289,0
-0.29767251,1.8192364,0.85977143,-0.53646481,0.38082087,0.75311428,0
-1.1096501,-0.81785482,-1.1064378,-0.5096966,0.021064728,-0.86009645,0
-0.93234086,-0.40359882,-1.2013315,-0.50476438,0.018419817,-0.86306083,0
-1.1514882,0.60150373,-0.79992795,-0.83620405,0.23228323,-0.49679732,0
1.073409,-0.28499913,1.0101058,0.73066056,-0.15294358,0.66538984,0
0.434659,-1.6639185,0.75792688,-0.36905661,-0.90840632,0.19645655,0
-1.5945361,-0.34060413,-0.48529971,-0.8655687,0.25895262,-0.42864263,0
1.6952753,0.42785078,-0.73041797,0.84531844,-0.41594091,-0.33530563,0
-0.73104823,-1.2149951,0.64387041,-0.36905661,-0.90840632,0.19645655,0
-1.7362454,-0.62415481,-0.36777616,-0.87811941,0.2715646,-0.39390254,0
-0.23263884,-1.5060965,0.23412558,-0.36905661,-0.90840632,0.19645655,0
-1.4382193,-1.0002985,0.30815041,-0.36905661,-0.90840632,0.19645655,0
1.3459147,1.2265981,0.56484818,0.36905661,0.90840632,-0.19645655,0
-1.6258999,-0.8673628,0.57026911,-0.36905661,-0.90840632,0.19645655,0
0.15169375,-1.6090498,0.48006833,-0.36905661,-0.90840632,0.19645655,0
-0.26039612,1.4942994,-1.214874,0.36905661,0.90840632,-0.19645655,0
1.6675549,0.27619845,0.24793053,0.91053915,-0.31101876,0.27237105,0
-1.5272391,-0.53383714,1.1128114,-0.70638102,0.41152889,0.57590806,0
0.51516503,1.2982078,-0.66464949,0.36905661,0.90840632,-0.19645655,0
0.83859968,1.5123982,0.93335128,0.36905661,0.90840632,-0.19645655,0
1.3298404,-0.14996552,0.71079183,0.8336826,-0.23013172,0.50200903,0
-1.1480047,-0.91628474,1.2418146,-0.36905661,-0.90840632,0.19645655,0
-0.16367209,1.4499264,-1.2383503,0.36905661,0.90840632,-0.19645655,0
1.6135521,0.12313822,-0.54179585,0.87547809,-0.41074306,-0.25461423,0
-1.2684146,-1.0878747,0.22219181,-0.36905661,-0.90840632,0.19645655,0
-1.3447833,0.59379613,-0.31629217,-0.92241639,0.33212745,-0.19707751,0
-0.46566731,-1.6333927,-0.79224551,-0.36905661,-0.90840632,0.19645655,0
-1.1159555,0.94719654,-0.66567755,-0.88651609,0.28059831,-0.3679049,0
1.1255851,1.3956832,0.93278694,0.36905661,0.90840632,-0.19645655,0
-1.4026198,-1.0582496,0.10706353,-0.36905661,-0.90840632,0.19645655,0
0.68871522,-1.1350428,-0.91824502,0.60590744,-0.39544624,-0.6902889,0
0.0051038563,-1.5806993,0.33578092,-0.36905661,-0.90840632,0.19645655,0
-1.7150719,-0.23879322,0.11971617,-0.92849219,0.36973858,-0.034579039,0
1.1790731,1.1975751,0.11722469,0.36905661,0.90840632,-0.19645655,0
-0.18976402,1.3054962,1.1421286,-0.34585416,0.33042932,0.8781808,0
-0.35125548,-1.6535478,-0.6705122,-0.36905661,-0.90840632,0.19645655,0
0.31959915,-0.39806896,-1.4108582,0.20482039,-0.28567559,-0.93618274,0
0.63863522,1.5443484,0.70544028,0.36905661,0.90840632,-0.19645655,0
-1.7331887,-0.89699042,-0.51989329,-0.82273245,0.22098926,-0.52371281,0
-0.57430863,0.48155802,-1.3918355,-0.50562876,0.018882647,-0.86254466,0
0.68326902,-1.6194656,-0.60785437,0.7260437,-0.41375107,-0.54924566,0
-1.7349679,-0.39059073,0.55269682,-0.88509393,0.40800989,0.22391212,0
-0.88818216,1.0270422,-1.0285791,-0.79073626,0.19581884,-0.57999265,0
-0.19800043,1.4910659,-1.1126114,0.36905661,0.90840632,-0.19645655,0
1.1229935,0.063874364,-1.2216477,0.57336718,-0.38889357,-0.72111863,0
-0.311409,-1.0099961,1.7379212,0.13041055,0.15867274,0.97868079,0
1.0888996,1.4403522,1.0704181,0.36905661,0.90840632,-0.19645655,0
0.087255955,1.6139964,-0.0083126426,0.36905661,0.90840632,-0.19645655,0
-0.68532795,1.876529,-0.24572325,0.36905661,0.90840632,-0.19645655,0
0.10844606,-1.7729869,-0.35921285,-0.36905661,-0.90840632,0.19645655,0
1.2577833,-0.88446844,-0.005738616,0.92171645,-0.38486898,-0.048111796,0
0.50985968,1.3730658,-0.3284758,0.36905661,0.90840632,-0.19645655,0
-0.22014368,1.7640334,0.10798109,0.36905661,0.90840632,-0.19645655,0
1.268925,0.96495694,1.0111942,0.56393594,-0.050852537,0.82425129,0
0.27602756,1.1856375,-1.6344057,0.36905661,0.90840632,-0.19645655,0
-0.88663882,-1.471506,-0.83451211,-0.36905661,-0.90840632,0.19645655,0
1.1176853,1.2604121,1.100502,0.41512424,0.028005272,0.90933371,0
0.21965754,1.6749187,1.1390676,-0.19279742,0.2816081,0.93996084,0
0.27492797,1.3109895,-1.0568489,0.36905661,0.90840632,-0.19645655,0
0.73486423,1.2163194,-0.63057816,0.36905661,0.90840632,-0.19645655,0
1.183754,-0.9966476,-0.19935012,0.89479959,-0.40443063,-0.18912923,0
0.9379493,0.47951221,-1.5188915,0.35954332,-0.33446527,-0.87112677,0
1.3929857,0.61033392,-1.299921,0.60292774,-0.39486989,-0.69322139,0
0.51055574,-0.1834659,1.4219804,0.40374857,0.033690006,0.91424966,0
0.77217495,1.4253423,0.40602517,0.36905661,0.90840632,-0.19645655,0
0.10166931,1.7471691,0.63454843,0.36905661,0.90840632,-0.19645655,0
-1.1398002,-0.51452655,1.4332196,-0.47209734,0.36530623,0.80229396,0
0.034357309,-1.8307035,-0.76527286,-0.36905661,-0.90840632,0.19645655,0
1.2064495,1.3341984,0.80039293,0.36905661,0.90840632,-0.19645655,0
1.4427214,-0.31356373,-0.42393303,0.88040352,-0.40942901,-0.23928547,0
-0.81075585,0.17383721,1.3121432,-0.44231546,0.35757545,0.82249445,0
-0.32134819,-1.5555933,-1.188397,0.10518348,-0.2508437,-0.96229625,0
-1.7071412,-0.88820809,0.32126415,-0.36905661,-0.90840632,0.19645655,0
0.24967563,1.2185739,-1.5316126,0.36905661,0.90840632,-0.19645655,0
-0.63432264,-1.2483709,0.6712482,-0.36905661,-0.90840632,0.19645655,0
-0.92540646,1.7002474,-0.33738041,-0.92922556,0.36482376,-0.05868268,0
-1.0264945,1.2089258,0.38594353,-0.84266472,0.4162198,0.34158075,0
0.88137555,1.4162335,0.56904697,0.36905661,0.90840632,-0.19645655,0
1.6099443,0.33129126,0.44719493,0.87468147,-0.26801518,0.40385675,0
0.12226737,-0.35486072,1.5656071,0.22539639,0.11758825,0.96714514,0
-1.1689544,-0.86768568,1.4271784,-0.36905661,-0.90840632,0.19645655,0
1.7313234,0.94070458,-0.033095002,0.36905661,0.90840632,-0.19645655,0
0.31361604,-1.7360182,-0.89029133,0.52557164,-0.37831786,-0.76200414,0
-0.23412621,0.79760641,-1.5664287,-0.38880616,-0.041091368,-0.92040288,0
0.11782527,1.0736524,-1.7081295,-0.25467598,-0.10444389,-0.96136975,0
-0.48420709,-1.5719289,-0.54286766,-0.36905661,-0.90840632,0.19645655,0
-0.28525358,1.8101094,0.19872153,0.36905661,0.90840632,-0.19645655,0
-0.78205574,-1.5711043,-1.0985837,-0.36905661,-0.90840632,0.19645655,0
1.9284745,0.79155695,-0.35238481,0.36905661,0.90840632,-0.19645655,0
-0.16204715,-1.7850745,-0.92324543,-0.36905661,-0.90840632,0.19645655,0
-0.77498972,1.9535837,-0.057861447,0.36905661,0.90840632,-0.19645655,0
-0.19963935,-1.518932,0.23676656,-0.36905661,-0.90840632,0.19645655,0
0.039508462,0.017616928,-1.5357566,-0.055417776,-0.18949378,-0.98031688,0
-1.4207176,-0.4828648,1.197566,-0.65233475,0.40374464,0.64144361,0
-1.0805111,1.3246076,-0.19873428,-0.92788708,0.3722114,-0.0220083,0
-0.51007354,-0.31748539,-1.3894308,-0.28993392,-0.088301972,-0.95296454,0
-0.88281447,-1.4516438,-0.73548555,-0.36905661,-0.90840632,0.19645655,0
-1.2266955,-1.1377609,0.069892287,-0.36905661,-0.90840632,0.19645655,0
-1.8498189,-0.68528676,-0.10172558,-0.91699946,0.32147807,-0.23614383,0
0.2328347,1.0298674,-1.728461,-0.17964268,-0.13767006,-0.97405112,0
-1.2528133,-1.1309986,0.052096367,-0.36905661,-0.90840632,0.19645655,0
-1.101159,-0.95034921,1.1723036,-0.36905661,-0.90840632,0.19645655,0
-0.56085587,-0.86798775,-1.3136904,-0.19247806,-0.13209194,-0.97237033,0
-1.4446852,-1.16908,-0.48443437,-0.36905661,-0.90840632,0.19645655,0
-0.84248912,-1.5591376,-1.1567783,-0.36905661,-0.90840632,0.19645655,0
-0.36354554,1.7982731,-0.0030856133,0.36905661,0.90840632,-0.19645655,0
-0.0047354102,-1.4660794,0.84729517,-0.36905661,-0.90840632,0.19645655,0
-0.41107607,0.98760271,-1.4756634,-0.52878284,0.031396762,-0.84817636,0
-0.17961943,-1.3219725,1.1851076,-0.36905661,-0.90840632,0.19645655,0
1.254599,1.2095491,0.31447208,0.36905661,0.90840632,-0.19645655,0
1.3755424,0.97944117,-0.52233684,0.36905661,0.90840632,-0.19645655,0
0.58565271,1.2297487,-0.848786,0.36905661,0.90840632,-0.19645655,0
0.60762072,1.1471245,-1.1895683,0.36905661,0.90840632,-0.19645655,0
-0.70677394,-1.4950385,-0.60543656,-0.36905661,-0.90840632,0.19645655,0
1.0250592,0.85293919,1.1533513,0.45540971,0.0075114965,0.89025033,0
0.22852647,1.230855,-1.5145553,0.36905661,0.90840632,-0.19645655,0
-0.058460116,-1.7037519,-1.0870873,0.29458189,-0.31481162,-0.90228337,0
1.6736543,1.0193388,0.6458137,0.76718998,-0.17844428,0.61609852,0
-0.25155771,0.5843311,-1.5478802,-0.35028046,-0.059841871,-0.9347313,0
-0.59955794,-1.2228448,0.85458732,-0.36905661,-0.90840632,0.19645655,0
0.54618025,-0.39409292,-1.3446132,0.3376137,-0.32797211,-0.88229895,0
1.084458,-1.2049152,0.50039661,0.91798949,-0.3232553,0.2297858,0
0.70575052,1.5450042,0.83455348,0.36905661,0.90840632,-0.19645655,0
0.14069319,-1.3606468,1.6080077,-0.36905661,-0.90840632,0.19645655,0
-0.64271736,1.8246465,-0.40557897,0.36905661,0.90840632,-0.19645655,0
-1.013564,1.243845,-0.68418896,-0.89474869,0.29008019,-0.33952665,0
-0.96817327,-0.90491802,1.6321985,-0.36905661,-0.90840632,0.19645655,0
1.0330222,0.3841365,1.13676,0.563972,-0.050872713,0.82422554,0
1.4396557,-0.14782712,-0.65760517,0.83030093,-0.41723135,-0.36948407,0
-0.69872355,1.5975082,-1.0915869,-0.81217968,0.21245562,-0.54334784,0
-0.11732708,-1.5588702,0.2067236,-0.36905661,-0.90840632,0.19645655,0
0.95646489,0.67871344,-1.5861458,0.32243288,-0.32339174,-0.88963747,0
-0.75976408,1.8634361,-0.44609761,0.36905661,0.90840632,-0.19645655,0
0.31030059,-1.9017212,-0.57527804,-0.36905661,-0.90840632,0.19645655,0
1.7550085,0.57498211,-0.7623421,0.84528953,-0.41594407,-0.33537501,0
-1.582382,-0.96551561,0.19816601,-0.36905661,-0.90840632,0.19645655,0
1.3752542,-0.58573031,-0.1248852,0.91683608,-0.39048687,-0.083256841,0
0.45949507,0.61545545,1.3680594,0.19317758,0.13178676,0.97227311,0
-1.0364548,-0.039411969,-1.1022344,-0.64132643,0.095918991,-0.76124901,0
-0.53551972,-1.6819555,-1.1480207,-0.36905661,-0.90840632,0.19645655,0
-1.6903784,-1.0467135,-0.38016748,-0.36905661,-0.90840632,0.19645655,0
0.44581842,1.2496161,1.2631121,0.03849256,0.19625744,0.97979677,0
-1.2447102,-0.19965595,-0.93280435,-0.71724904,0.14394888,-0.68178654,0
0.94021416,-1.5606353,0.57623029,0.91809428,-0.32344693,0.22909665,0
-1.0192449,0.041721553,-1.1063536,-0.64974868,0.1010371,-0.75340474,0
0.93114877,1.3063278,0.15435016,0.36905661,0.90840632,-0.19645655,0
1.5769868,0.96879137,-0.19315434,0.36905661,0.90840632,-0.19645655,0
-0.77078223,1.818628,-0.67398715,0.36905661,0.90840632,-0.19645655,0
0.22988832,-1.4450912,1.3850993,-0.36905661,-0.90840632,0.19645655,0
1.6926351,0.61563563,-0.93658805,0.79186225,-0.41799688,-0.44523364,0
-0.96688056,0.95499349,-0.94189751,-0.815763,0.21532509,-0.53681111,0
-0.06827116,-0.29019001,-1.4700781,-0.045514226,-0.19345999,-0.98005199,0
-0.7331624,0.27519953,-1.3007469,-0.5465827,0.041176781,-0.83639216,0
0.2190491,1.2860643,-1.2770741,0.36905661,0.90840632,-0.19645655,0
-0.81609416,-0.98373991,1.5534203,-0.36905661,-0.90840632,0.19645655,0
0.38391823,1.6405736,0.67187923,0.36905661,0.90840632,-0.19645655,0
1.0879042,-0.5259667,-0.89426059,0.70081586,-0.41083553,-0.58315647,0
0.55141038,1.4359508,0.040356904,0.36905661,0.90840632,-0.19645655,0
-1.3156749,0.024213279,-0.78374779,-0.80094558,0.20363156,-0.56304592,0
0.47721183,-1.3367245,-0.97569513,0.52640939,-0.3785122,-0.76132905,0
0.25647801,1.5039874,-0.19909482,0.36905661,0.90840632,-0.19645655,0
0.42388487,1.0705428,-1.7604649,-0.080261707,-0.17943791,-0.98048985,0
-0.51749051,-1.1006812,-1.2850269,-0.1141125,-0.1654902,-0.97958738,0
-1.4267193,-0.96533108,0.49144197,-0.36905661,-0.90840632,0.19645655,0
0.72160196,-1.9382794,0.028335929,-0.36905661,-0.90840632,0.19645655,0
1.2085555,0.22189206,0.97383118,0.69344223,-0.12839589,0.70898002,0
-1.4315248,-1.0630151,0.030727863,-0.36905661,-0.90840632,0.19645655,0
0.10005254,1.3948334,-0.99767315,0.36905661,0.90840632,-0.19645655,0
1.3605224,0.27197197,0.81916845,0.76228571,-0.17492588,0.6231547,0
0.51959121,-0.12843469,-1.4465859,0.25799799,-0.303204,-0.91733557,0
1.0701184,1.0591873,1.1279829,0.43403476,0.018456951,0.90070719,0
-0.64462101,-0.54055691,1.625119,-0.1718477,0.27443039,0.94612718,0
1.171191,1.191009,0.072056293,0.36905661,0.90840632,-0.19645655,0
0.68299019,1.4769408,0.47707415,0.36905661,0.90840632,-0.19645655,0
-0.5565387,-1.0592624,-1.2865599,-0.14593041,-0.15211861,-0.97752982,0
-0.30607939,1.5132456,-1.2130864,0.36905661,0.90840632,-0.19645655,0
0.037281394,1.814781,0.82622623,0.36905661,0.90840632,-0.19645655,0
-1.4167322,-1.0400345,0.16477811,-0.36905661,-0.90840632,0.19645655,0
0.72575784,-1.792865,0.70853198,-0.36905661,-0.90840632,0.19645655,0
0.68474191,-1.7579918,0.79273331,-0.36905661,-0.90840632,0.19645655,0
-1.1546719,-0.0056113601,-0.98644829,-0.71136153,0.14005527,-0.68873024,0
-0.79120493,0.20979092,1.3070145,-0.43934035,0.35678533,0.82442981,0
-0.72433919,1.3466681,-1.1424874,-0.77332771,0.18289393,-0.6070537,0
0.41002142,1.2270495,-1.1912019,0.36905661,0.90840632,-0.19645655,0
-0.43647921,0.22503662,1.4373531,-0.23217368,0.29478696,0.9269284,0
0.90289378,1.0299671,-1.1766087,0.36905661,0.90840632,-0.19645655,0
-0.59825027,-1.6574445,-1.1753825,-0.030881763,-0.19927599,-0.97945684,0
0.15121138,0.97169977,-1.7041804,-0.21247256,-0.12331668,-0.96935475,0
1.086189,1.0050126,-0.94766486,0.36905661,0.90840632,-0.19645655,0
-0.32218814,0.39394206,-1.509208,-0.3465324,-0.061641261,-0.93601066,0
0.15348867,-1.7285004,-0.06889385,-0.36905661,-0.90840632,0.19645655,0
0.72526121,0.69612104,-1.6554952,0.18204832,-0.27793956,-0.94319052,0
0.58923495,1.3956957,-0.074724615,0.36905661,0.90840632,-0.19645655,0
0.020915151,-0.19960231,-1.4912988,-0.015427232,-0.20536172,-0.97856462,0
0.94726127,0.71751243,1.1940908,0.44284606,0.013964996,0.89648914,0
0.91229016,-1.3940967,0.81310809,0.87624168,-0.26961625,0.39938438,0
-1.2251281,-1.0775115,-1.0443213,-0.5151599,0.024006307,-0.85675782,0
-0.66555715,1.9522903,0.14173424,0.36905661,0.90840632,-0.19645655,0
-1.7649474,-0.68320811,-0.34440231,-0.88031954,0.2738789,-0.38733447,0
-0.73489833,-1.2863771,0.30657077,-0.36905661,-0.90840632,0.19645655,0
-0.17894053,0.83527923,1.3077558,-0.22652102,0.29292047,0.92891657,0
-1.2923348,-0.4399153,-0.9313544,-0.69090575,0.12676772,-0.71174395,0
-1.4449631,0.25333583,-0.38666928,-0.90741432,0.30647022,-0.28753304,0
-1.1386901,-0.59425855,1.4695892,-0.45187998,0.36009395,0.81617218,0
0.69328278,-0.71095008,1.2959039,0.62077457,-0.083618626,0.77951723,0
0.38820374,-1.9163167,-0.49642092,-0.36905661,-0.90840632,0.19645655,0
-0.71759844,-0.96320176,1.7313392,-0.11427629,0.25412691,0.96039605,0
0.4464829,-0.17329431,-1.4512609,0.22569776,-0.2926479,-0.9292028,0
0.6142047,-1.6597347,1.1145611,-0.36905661,-0.90840632,0.19645655,0
1.3016685,0.91426003,-0.96250844,0.36905661,0.90840632,-0.19645655,0
0.45276877,1.431488,-0.1655837,0.36905661,0.90840632,-0.19645655,0
-1.1871914,0.14242825,1.0410293,-0.66517591,0.40579376,0.62679547,0
-1.7890754,-0.47493601,0.47969997,-0.90092957,0.40158927,0.16447544,0
-1.2639489,-1.3485171,-0.97461867,-0.36905661,-0.90840632,0.19645655,0
-1.302444,0.69374061,0.2848146,-0.89131743,0.40582782,0.20213115,0
-0.44538367,-0.25569919,-1.4143422,-0.26769471,-0.098524094,-0.95845342,0
0.23794287,1.4386628,-0.53597242,0.36905661,0.90840632,-0.19645655,0
-0.89555246,-0.60478222,-1.2213764,-0.43958306,-0.015631661,-0.8980661,0
-1.8429546,-0.79581642,-0.24112415,-0.89508092,0.29047871,-0.33830822,0
0.10974783,1.7158074,0.50470966,0.36905661,0.90840632,-0.19645655,0
0.2999692,-1.6963671,0.35486192,-0.36905661,-0.90840632,0.19645655,0
-0.22483754,-1.4245833,-1.211417,0.13036692,-0.25988603,-0.95679879,0
-0.49987,1.9061635,0.2397002,0.36905661,0.90840632,-0.19645655,0
-1.04137,1.2040898,0.3539114,-0.85169864,0.41517001,0.31975591,0
1.0395247,0.80514604,-1.6016055,0.341259,-0.32906163,-0.88048899,0
-0.19720089,-1.7585416,-0.866597,-0.36905661,-0.90840632,0.19645655,0
-0.82382083,1.1591847,0.76545846,-0.69649076,0.41027814,0.58870417,0
-0.31657779,1.8655701,0.39632446,0.36905661,0.90840632,-0.19645655,0
-0.34387052,-1.5594456,-0.22151461,-0.36905661,-0.90840632,0.19645655,0
-1.3486986,-0.2329964,1.1125953,-0.67081481,0.40665656,0.62019205,0
0.80207276,1.554221,1.0581198,0.36905661,0.90840632,-0.19645655,0
-1.2903872,-1.2741766,-0.68053699,-0.36905661,-0.90840632,0.19645655,0
0.1603446,-1.9116682,-0.90297478,-0.36905661,-0.90840632,0.19645655,0
1.4376032,0.12342113,-0.91978574,0.75582153,-0.41635638,-0.50535274,0
0.77606153,1.5018625,0.76715213,0.36905661,0.90840632,-0.19645655,0
-0.13553882,-0.50634378,1.6325873,0.11402917,0.1655249,0.97959125,0
0.80835873,-1.88081,-0.076196313,0.8821876,-0.40890989,-0.2335335,0
0.072105765,-1.1199596,-1.2440116,0.23170638,-0.29463297,-0.92709428,0
0.6606797,1.0929337,-1.3404698,0.36905661,0.90840632,-0.19645655,0
-0.9904598,-1.3190209,-0.324462,-0.36905661,-0.90840632,0.19645655,0
1.5556438,0.88575739,-0.61719406,0.36905661,0.90840632,-0.19645655,0
1.7792864,0.39441308,-0.20057452,0.92678142,-0.37557608,0.0043729544,0
1.8733312,0.63229644,-0.34557498,0.92076218,-0.38612565,-0.055715322,0
-1.1160831,-1.1786497,0.088617086,-0.36905661,-0.90840632,0.19645655,0
-0.40859199,1.4116549,0.98500091,-0.50319099,0.37301448,0.77952504,0
-1.4598742,-0.89416355,0.75823385,-0.36905661,-0.90840632,0.19645655,0
1.7049308,0.21157625,-0.18407559,0.92562437,-0.37830079,-0.010399461,0
0.92782772,0.92884105,-1.5973712,0.36905661,0.90840632,-0.19645655,0
-0.82770097,1.7770712,0.17563248,-0.86533397,0.41297448,0.2839886,0
0.2632333,-1.011519,1.5587895,0.45300877,0.0087492764,0.89146316,0
-0.79301482,-1.1199703,0.9668529,-0.36905661,-0.90840632,0.19645655,0
-0.85493737,1.8318573,-0.036437035,-0.90351373,0.40021521,0.15326726,0
0.085496023,1.5523702,-0.29657531,0.36905661,0.90840632,-0.19645655,0
1.6184498,1.0292506,0.71357083,0.73645937,-0.15688953,0.65803754,0
-0.63225311,-1.2264035,0.77671194,-0.36905661,-0.90840632,0.19645655,0
0.11673447,-1.7067575,-0.037400842,-0.36905661,-0.90840632,0.19645655,0
-0.48698369,1.8126377,-0.16855145,0.36905661,0.90840632,-0.19645655,0
-1.3062968,-1.3275146,-0.95705771,-0.36905661,-0.90840632,0.19645655,0
0.66125739,1.5990211,1.000742,0.36905661,0.90840632,-0.19645655,0
-0.23769313,1.7597311,0.055119991,0.36905661,0.90840632,-0.19645655,0
-0.2552526,1.899725,0.66945839,0.36905661,0.90840632,-0.19645655,0
-0.16152525,1.5129969,-0.94268203,0.36905661,0.90840632,-0.19645655,0
-0.96684527,-0.31743532,-1.1771878,-0.54272491,0.039044932,-0.83900261,0
0.44468856,-1.5754763,1.1857209,-0.36905661,-0.90840632,0.19645655,0
0.68317616,1.1348714,-1.1042905,0.36905661,0.90840632,-0.19645655,0
1.5585001,0.7642141,0.71516132,0.76124954,-0.17418657,0.62462664,0
0.26128471,1.658832,0.52592969,0.36905661,0.90840632,-0.19645655,0
-0.98700714,0.6069954,0.95256168,-0.65800488,0.40466359,0.63504112,0
-1.7291934,-0.92057347,0.13018203,-0.36905661,-0.90840632,0.19645655,0
-1.234046,-1.1400931,0.045300007,-0.36905661,-0.90840632,0.19645655,0
-0.47871006,-1.4782945,-1.2149596,-0.0039961338,-0.20982546,-0.97773075,0
1.1720231,-0.95199531,0.5018661,0.91195798,-0.31317818,0.26505125,0
1.5181165,0.78915113,-1.1343951,0.36905661,0.90840632,-0.19645655,0
0.033992887,1.813509,0.81416631,0.36905661,0.90840632,-0.19645655,0
0.033614159,0.056491226,-1.5428003,-0.067841053,-0.18448433,-0.9804914,0
1.1875732,-0.73241103,-0.56285846,0.82037079,-0.41774052,-0.39049274,0
0.82245296,1.5168227,0.92347717,0.36905661,0.90840632,-0.19645655,0
-0.083990872,-1.7029923,-0.39706701,-0.36905661,-0.90840632,0.19645655,0
1.4866048,1.0495918,0.010674834,0.36905661,0.90840632,-0.19645655,0
-1.8018878,-0.93795335,-0.4234966,-0.84847909,0.24303889,-0.47012293,0
-0.029971957,-1.8585191,-1.014738,-0.36905661,-0.90840632,0.19645655,0
1.4780489,0.385813,-1.0671964,0.71334261,-0.41235724,-0.56666058,0
-1.6176195,-0.98727512,0.031355023,-0.36905661,-0.90840632,0.19645655,0
0.26080668,1.2505252,-1.3629607,0.36905661,0.90840632,-0.19645655,0
0.77303898,-1.8667437,0.45574129,-0.36905661,-0.90840632,0.19645655,0
-1.9099061,-0.72777915,0.16102123,-0.92940444,0.36121619,-0.075699925,0
-0.85308421,-0.98337376,1.4856246,-0.36905661,-0.90840632,0.19645655,0
-0.32942259,-1.3421088,0.81058311,-0.36905661,-0.90840632,0.19645655,0
0.79007071,1.5449563,0.99273312,0.36905661,0.90840632,-0.19645655,0
-0.14517182,1.552152,-0.73090887,0.36905661,0.90840632,-0.19645655,0
-0.34371674,-1.4187113,0.42952359,-0.36905661,-0.90840632,0.19645655,0
-1.7377768,-0.86356562,0.37765896,-0.36905661,-0.90840632,0.19645655,0
1.1139091,1.1153684,-0.38531047,0.36905661,0.90840632,-0.19645655,0
1.0375562,-1.041612,-0.54471219,0.80396569,-0.41808423,-0.42290068,0
1.890269,0.74965501,-0.59064436,0.8924405,-0.40539232,-0.19800782,0
-0.31141794,1.0135212,1.2040739,-0.34765923,0.3309648,0.87726599,0
0.71609437,-1.5230565,-0.63702273,0.72198915,-0.41332313,-0.55488372,0
-1.4274125,-0.82180226,1.153811,-0.36905661,-0.90840632,0.19645655,0
-0.98384339,-1.3534726,-0.47133529,-0.36905661,-0.90840632,0.19645655,0
-0.19134116,1.0054671,-1.5931635,-0.41191745,-0.029612258,-0.91074002,0
0.46706972,1.5378027,0.35287642,0.36905661,0.90840632,-0.19645655,0
1.5150456,-0.1619657,-0.41461802,0.88862032,-0.40681943,-0.21178305,0
1.4043391,-0.41922098,-0.3839345,0.88384849,-0.40840411,-0.22807479,0
1.3230326,0.80694282,-1.418605,0.36905661,0.90840632,-0.19645655,0
0.50969267,1.3397853,-0.48267704,0.36905661,0.90840632,-0.19645655,0
0.71439183,1.0757446,-1.3190489,0.36905661,0.90840632,-0.19645655,0
-0.63361764,0.57360435,-1.3508854,-0.55837595,0.047736749,-0.82821363,0
0.11744438,-1.5968003,0.47236979,-0.36905661,-0.90840632,0.19645655,0
1.7621562,1.0305626,0.44032657,0.36905661,0.90840632,-0.19645655,0
-0.76634407,-0.77392042,-1.2675551,-0.32960588,-0.069714129,-0.94154143,0
-0.18343782,0.81925237,-1.5881941,-0.36550659,-0.052487418,-0.92932785,0
-0.68909752,-1.3211579,0.23178607,-0.36905661,-0.90840632,0.19645655,0
0.5601033,-1.6594359,1.0143101,-0.36905661,-0.90840632,0.19645655,0
0.52108133,0.4717437,-1.6246763,0.11610675,-0.25478533,-0.96000189,0
1.0362391,0.88474739,-1.5976007,0.36905661,0.90840632,-0.19645655,0
1.1042531,-1.2653489,0.19787729,0.92827344,-0.37071422,0.029656768,0
1.7190185,0.85178983,-0.46734774,0.36905661,0.90840632,-0.19645655,0
-0.23327661,-1.2345506,1.4885442,-0.36905661,-0.90840632,0.19645655,0
-0.22141972,1.6217495,-0.5523302,0.36905661,0.90840632,-0.19645655,0
-0.994542,-1.0506998,0.90857446,-0.36905661,-0.90840632,0.19645655,0
0.46682453,-1.7624531,-0.75264746,0.62636042,-0.3992646,-0.66952264,0
-0.95786691,-0.33949307,-1.1838734,-0.53294784,0.033672422,-0.84547812,0
-0.95305091,-0.92726159,-1.1856091,-0.39889079,-0.036104336,-0.91628748,0
1.1441567,0.83793479,1.0861776,0.52410054,-0.02884756,0.85116774,0
-1.3854545,0.39417827,0.48691761,-0.86239874,0.4135175,0.29201353,0
1.6079288,-0.014608711,0.0039744377,0.92940688,-0.36060524,0.078529596,0
-1.3239259,0.70100254,-0.20293438,-0.92888701,0.35344547,-0.11065936,0
0.54327726,1.0798613,-1.621464,0.36905661,0.90840632,-0.19645655,0
0.90795428,1.2680101,-0.06640178,0.36905661,0.90840632,-0.19645655,0
0.5608474,-1.9503771,-0.32959187,-0.36905661,-0.90840632,0.19645655,0
-0.68878496,0.30601591,1.3180387,-0.40133393,0.3464191,0.84789443,0
-0.34104025,-1.3031285,0.96900153,-0.36905661,-0.90840632,0.19645655,0
-1.2907517,-0.39483434,1.2659106,-0.59386355,0.3930867,0.70200372,0
-1.4348991,-0.62446004,-0.82214046,-0.72647846,0.15011954,-0.67059183,0
0.30413747,-1.4785819,1.3697221,-0.36905661,-0.90840632,0.19645655,0
-0.48722661,1.7914757,0.71527261,-0.64640224,0.40275988,0.64803457,0
-0.44972301,1.5556099,-1.2870393,0.36905661,0.90840632,-0.19645655,0
1.1674043,0.31983322,-1.3218813,0.53688967,-0.3809174,-0.75276268,0
0.075892687,1.2821603,-1.5640546,0.36905661,0.90840632,-0.19645655,0
0.29029197,-1.5580006,0.9764834,-0.36905661,-0.90840632,0.19645655,0
0.34041885,1.5246798,0.054274753,0.36905661,0.90840632,-0.19645655,0
-0.78269917,-1.1228385,0.97296917,-0.36905661,-0.90840632,0.19645655,0
-1.1531882,0.98598099,0.33404076,-0.8683033,0.41238087,0.27566576,0
0.70720893,-1.7782863,0.74109805,-0.36905661,-0.90840632,0.19645655,0
0.65441215,-1.80398,0.52310967,-0.36905661,-0.90840632,0.19645655,0
0.70201278,1.5652659,0.92122078,0.36905661,0.90840632,-0.19645655,0
-0.55977309,-1.3257583,0.45345813,-0.36905661,-0.90840632,0.19645655,0
-0.37715769,-1.617166,-1.1781552,0.087301373,-0.24432686,-0.96575516,0
0.95985448,-1.3353063,-0.39483774,0.8321057,-0.41711128,-0.36553866,0
0.17120349,0.96780807,-1.7079271,-0.20027113,-0.12868425,-0.97125286,0
-1.2104135,0.44746351,0.78918147,-0.75889796,0.41656667,0.50054592,0
-0.37078965,1.5634495,0.93643093,-0.51769614,0.37647593,0.7682817,0
0.64243311,-1.7681714,0.66618311,-0.36905661,-0.90840632,0.19645655,0
1.7771014,0.58155757,-0.71176004,0.85898745,-0.41409767,-0.30110478,0
-1.1582102,-0.052109122,1.1860905,-0.5979954,0.39390516,0.69802606,0
1.5058053,0.29317871,0.62167943,0.83166349,-0.22842193,0.50612199,0
0.089271545,-1.365165,-1.1569508,0.30060375,-0.31668586,-0.89963752,0
0.19959894,1.5694046,-0.0034591854,0.36905661,0.90840632,-0.19645655,0
-1.4650787,0.1304978,-0.44552183,-0.89438856,0.28964961,-0.34084094,0
-0.25608397,-0.45710176,-1.4242036,-0.11414647,-0.1654761,-0.97958589,0
1.3155259,0.85794938,-1.1968544,0.36905661,0.90840632,-0.19645655,0
-0.99604589,0.76844561,-0.96881938,-0.79216564,0.19690174,-0.57767069,0
0.1152463,-1.8414537,-0.66302598,-0.36905661,-0.90840632,0.19645655,0
0.28925389,-1.8233222,-0.25230229,-0.36905661,-0.90840632,0.19645655,0
-0.76759785,1.1248543,-1.1516566,-0.74910629,0.16562313,-0.64141178,0
1.4154868,1.1226079,0.21469831,0.36905661,0.90840632,-0.19645655,0
-1.1167972,-1.1051127,0.42730719,-0.36905661,-0.90840632,0.19645655,0
-1.1593192,0.4111923,-0.8662107,-0.80138248,0.20397013,-0.5623011,0
-1.5886216,-1.0104134,-0.021160841,-0.36905661,-0.90840632,0.19645655,0
0.42142022,-1.2132063,-1.0691121,0.4621591,-0.36276323,-0.80920458,0
-0.93268156,-0.16654915,-1.191918,-0.55748653,0.04723978,-0.82884097,0
-1.6891353,-1.0732224,-0.50040877,-0.36905661,-0.90840632,0.19645655,0
-0.18355989,-1.5978422,-0.097903997,-0.36905661,-0.90840632,0.19645655,0
1.1421484,-1.1654249,0.2298944,0.92931032,-0.36373031,0.063897848,0
0.77776617,-1.6833149,0.91182172,0.86818641,-0.26150858,0.42174149,0
-0.69389963,-1.0263445,-1.2644216,-0.23131883,-0.11494824,-0.9660635,0
-0.035124063,1.4411981,-1.0372233,0.36905661,0.90840632,-0.19645655,0
1.4707869,-0.29690808,0.22573233,0.92424512,-0.33646697,0.18044722,0
1.013248,-0.54325068,1.0148488,0.75396502,-0.16902775,0.63479644,0
-0.80791992,-1.1186726,0.94485331,-0.36905661,-0.90840632,0.19645655,0
1.2948065,-0.068880171,-0.96698928,0.71428829,-0.41246635,-0.56538838,0
0.75895178,1.474912,0.61039293,0.36905661,0.90840632,-0.19645655,0
-0.4343318,-1.3488115,0.58251107,-0.36905661,-0.90840632,0.19645655,0
0.83287996,-1.6862423,-0.28196549,0.8428762,-0.41619849,-0.34108472,0
0.37999141,-1.8298125,-0.79064429,0.58957469,-0.39222744,-0.70608753,0
1.0356631,-1.3300031,0.51926589,0.91875982,-0.32468134,0.22463906,0
-1.9189889,-0.87635612,-0.0219028,-0.36905661,-0.90840632,0.19645655,0
-0.51625711,-1.4987911,-0.26489025,-0.36905661,-0.90840632,0.19645655,0
1.2161982,-0.31703579,0.81874943,0.81079882,-0.21135719,0.54583299,0
-0.45430773,-1.2586226,0.96201408,-0.36905661,-0.90840632,0.19645655,0
-0.70086008,1.9146596,-0.098587394,0.36905661,0.90840632,-0.19645655,0
-1.2288951,-0.45039737,1.3440473,-0.54204714,0.38208303,0.74846357,0
0.69330484,-1.907909,0.11560822,-0.36905661,-0.90840632,0.19645655,0
1.206296,1.3640627,0.93819523,0.36905661,0.90840632,-0.19645655,0
1.238959,-0.39930087,-0.78580451,0.7647351,-0.4169324,-0.49127162,0
-1.102742,1.270617,-0.17067659,-0.92726582,0.37422657,-0.011523128,0
0.77564418,-1.3759525,-0.66911441,0.72185248,-0.41330844,-0.55507237,0
0.046323657,1.6780204,0.21083724,0.36905661,0.90840632,-0.19645655,0
1.7189283,0.30577001,0.077991486,0.92529988,-0.33927327,0.16945219,0
1.8519516,0.57339013,-0.25968325,0.92576766,-0.37799281,-0.008706212,0
-0.48568273,1.0454054,1.1076267,-0.45980012,0.3621541,0.81081957,0
-0.4113127,1.3916332,-1.4474192,-0.61785567,0.081892505,-0.78201544,0
1.2113283,1.3540678,0.90143365,0.36905661,0.90840632,-0.19645655,0
1.0945265,-1.0703775,0.61821938,0.89941317,-0.29580972,0.32179606,0
1.2187344,-0.8009665,-0.40321696,0.86135429,-0.41370073,-0.29482311,0
-1.2681497,-1.2507088,-0.53024876,-0.36905661,-0.90840632,0.19645655,0
-0.42734265,-1.6754034,-0.9145059,-0.36905661,-0.90840632,0.19645655,0
0.4906832,-1.5894139,1.2076776,-0.36905661,-0.90840632,0.19645655,0
-1.4722764,0.19514102,0.51195323,-0.86670101,0.41270682,0.28018284,0
-0.0026084185,-1.6709718,-0.09612307,-0.36905661,-0.90840632,0.19645655,0
0.11710918,-1.2724028,1.6349869,0.43085212,0.020072639,0.90219939,0
-0.23146117,-0.68314302,-1.3849275,-0.047547817,-0.19264755,-0.98011547,0
-1.8561075,-0.58610404,0.19308794,-0.92853844,0.36951691,-0.035690904,0
-0.74544489,1.7327212,-0.94719148,-0.86232573,0.25583398,-0.43697095,0
0.62433213,-1.9439085,-0.43128502,0.77315247,-0.41737917,-0.47752517,0
-1.0780319,1.0962487,-0.64025366,-0.89676166,0.29251638,-0.33204329,0
-0.26404953,1.5437129,-0.99325156,0.36905661,0.90840632,-0.19645655,0
1.2604144,-0.88056517,0.017252803,0.92347038,-0.3822667,-0.032784343,0
0.64374,1.4915354,0.47082493,0.36905661,0.90840632,-0.19645655,0
1.8329282,0.81033444,-0.44504952,0.36905661,0.90840632,-0.19645655,0
-0.033453166,1.5459929,-0.54951811,0.36905661,0.90840632,-0.19645655,0
0.10966206,1.8098962,0.93961108,0.36905661,0.90840632,-0.19645655,0
0.43124208,1.5282289,0.24130298,0.36905661,0.90840632,-0.19645655,0
-0.23628926,-1.773281,-1.0081811,-0.36905661,-0.90840632,0.19645655,0
0.0057711601,-1.6351541,0.085237682,-0.36905661,-0.90840632,0.19645655,0
0.80883205,-0.16978388,1.2559717,0.56443334,-0.051131934,0.82389373,0
-0.93889761,-1.4329603,-1.1554154,-0.27625597,-0.094605416,-0.95641661,0
-1.0220762,-1.2679485,-1.1404432,-0.36031252,-0.055004314,-0.93120855,0
1.3087444,-0.6141842,0.43059635,0.91174465,-0.31284925,0.26617146,0
-0.28733087,-0.22372204,1.5817082,-0.03900826,0.2263319,0.97326887,0
-1.2699417,-1.2777922,-0.65884709,-0.36905661,-0.90840632,0.19645655,0
-1.4572171,-1.0449038,0.066209435,-0.36905661,-0.90840632,0.19645655,0
0.087004662,-1.8572426,-0.78908694,-0.36905661,-0.90840632,0.19645655,0
-1.1310432,0.39459479,-0.91072786,-0.7835415,0.19041982,-0.59144157,0
-0.5090431,-0.31769198,1.5844469,-0.14554989,0.26526046,0.95312774,0
0.57291901,-0.45363545,-1.3111911,0.36793506,-0.33691052,-0.86666906,0
-0.24626446,-1.7887957,-1.0986598,-0.36905661,-0.90840632,0.19645655,0
-0.32654333,0.92521453,1.2312208,-0.33532035,0.32728463,0.8834281,0
1.2062939,1.048388,-0.52147406,0.36905661,0.90840632,-0.19645655,0
0.11890531,-1.3318999,-1.1586603,0.31015122,-0.31963599,-0.89534307,0
0.94505054,-1.5643319,0.55064046,0.92046869,-0.3280032,0.21248901,0
-0.074074626,0.13377523,-1.5442382,-0.14719784,-0.15158071,-0.97742325,0
0.012834668,1.1365981,-1.6817793,-0.32793128,-0.070508078,-0.94206685,0
0.14870572,-1.5765581,0.62469524,-0.36905661,-0.90840632,0.19645655,0
0.6035589,1.1358926,-1.2491341,0.36905661,0.90840632,-0.19645655,0
1.15145,0.87804168,-1.4121759,0.36905661,0.90840632,-0.19645655,0
-1.1736155,-0.96150976,0.98458374,-0.36905661,-0.90840632,0.19645655,0
0.4181726,-1.3386624,-1.0135131,0.49101615,-0.37004212,-0.78865212,0
0.96657407,0.91722357,-1.5783023,0.36905661,0.90840632,-0.19645655,0
-1.4195601,-1.2437565,-0.78253639,-0.36905661,-0.90840632,0.19645655,0
-0.9775188,-0.6966418,1.5849578,-0.33060765,0.32586679,0.88572538,0
0.50318098,1.6984764,1.1636621,0.36905661,0.90840632,-0.19645655,0
1.234599,-0.93991178,-0.0054605007,0.92077053,-0.38611504,-0.055650473,0
0.54128301,1.6173543,0.86013436,0.36905661,0.90840632,-0.19645655,0
1.0635844,-1.1939141,-0.30488908,0.86458623,-0.41311678,-0.28605139,0
1.3164535,-0.61528218,-0.37199247,0.87763566,-0.41018811,-0.24799514,0
-1.8184991,-0.6451596,0.6784215,-0.87022293,0.41197199,0.27016878,0
-1.1272402,0.17522925,-0.97614455,-0.73548472,0.1562238,-0.65928477,0
-0.74725831,-1.0035679,1.591049,-0.36905661,-0.90840632,0.19645655,0
-0.53704476,-1.2303431,0.93735045,-0.36905661,-0.90840632,0.19645655,0
0.87919652,-1.7523366,0.54200375,0.92414761,-0.33622074,0.18140256,0
1.0356195,0.34876788,1.1326573,0.57317424,-0.056062877,0.81751347,0
1.3191533,0.81002069,0.96060407,0.62504411,-0.086152598,0.77582079,0
0.81322801,-0.75882679,-1.023821,0.58842176,-0.3919948,-0.7071777,0
0.41185048,1.5621139,0.36155713,0.36905661,0.90840632,-0.19645655,0
-0.34137815,-1.4187483,0.43374646,-0.36905661,-0.90840632,0.19645655,0
0.82553089,0.4028191,-1.5331724,0.31125629,-0.3199757,-0.89483815,0
-0.44841039,-0.12618347,-1.4258354,-0.29894024,-0.084122315,-0.95055687,0
-0.79619938,-1.1534607,0.80601221,-0.36905661,-0.90840632,0.19645655,0
-1.6286662,-0.050436348,0.30931783,-0.91166782,0.39493412,0.11352968,0
0.98482007,-0.49870458,1.05826,0.72973657,-0.15231812,0.66654623,0
1.3427234,1.0326147,-0.33811784,0.36905661,0.90840632,-0.19645655,0
-1.0695636,-0.029630303,1.2445507,-0.54914546,0.38366729,0.74245471,0
-0.36891812,-1.2810862,1.0185535,-0.36905661,-0.90840632,0.19645655,0
-1.3348607,-0.80802548,1.3913791,-0.36905661,-0.90840632,0.19645655,0
0.52228928,-0.28689981,1.4195552,0.43350595,0.018725604,0.90095615,0
1.2949468,1.0163896,-0.50289309,0.36905661,0.90840632,-0.19645655,0
-0.9518128,1.6405958,-0.18681228,-0.92382205,0.38168812,0.02944839,0
0.41187048,-1.7355136,0.38406479,-0.36905661,-0.90840632,0.19645655,0
-0.57051945,1.9141121,0.14373422,0.36905661,0.90840632,-0.19645655,0
1.5975525,1.069163,0.30959404,0.36905661,0.90840632,-0.19645655,0
0.63526177,-1.5423226,-0.72012746,0.67572963,-0.40738946,-0.61434799,0
1.694331,0.18527225,-0.1586237,0.9266296,-0.37596887,0.0022716522,0
-0.061761975,1.3927652,-1.3112165,0.36905661,0.90840632,-0.19645655,0
0.88840139,-0.81749284,-0.92041767,0.64982158,-0.40333036,-0.64424896,0
1.4179037,1.0440199,-0.1441493,0.36905661,0.90840632,-0.19645655,0
-0.77730179,-1.5575026,-1.0267597,-0.36905661,-0.90840632,0.19645655,0
-1.585026,-0.91409886,0.4309479,-0.36905661,-0.90840632,0.19645655,0
1.0865668,1.0560627,-0.71090174,0.36905661,0.90840632,-0.19645655,0
-0.66740817,-1.2117194,0.77856952,-0.36905661,-0.90840632,0.19645655,0
-0.82957673,1.0781357,0.81417269,-0.67933625,0.40791565,0.61000586,0
-0.48898396,1.7734734,-0.35340309,0.36905661,0.90840632,-0.19645655,0
0.84924424,0.72683477,1.238519,0.38646549,0.042244181,0.92133605,0
-1.0499603,-0.86820775,1.6210361,-0.33223486,0.3263571,0.88493574,0
0.42237049,1.45654,-0.10684924,0.36905661,0.90840632,-0.19645655,0
-0.94941139,-1.2390335,0.12250853,-0.36905661,-0.90840632,0.19645655,0
0.99405682,1.3139269,0.30766475,0.36905661,0.90840632,-0.19645655,0
-0.82835156,1.2680705,0.68077093,-0.72752953,0.4139038,0.54716063,0
-0.28113064,1.7151215,-0.23275298,0.36905661,0.90840632,-0.19645655,0
0.72726303,1.3488194,-0.032183707,0.36905661,0.90840632,-0.19645655,0
0.54086065,1.675281,1.1271918,0.36905661,0.90840632,-0.19645655,0
0.09391129,-1.5273284,0.74939609,-0.36905661,-0.90840632,0.19645655,0
1.5679009,0.99817771,-0.074341536,0.36905661,0.90840632,-0.19645655,0
-1.6651196,-0.34282386,-0.32240224,-0.89784533,0.29385024,-0.32791138,0
-0.6481601,1.7147478,-0.92397034,0.36905661,0.90840632,-0.19645655,0
0.14495295,-1.7484142,-0.17700976,-0.36905661,-0.90840632,0.19645655,0
0.96206307,1.3021563,0.19313544,0.36905661,0.90840632,-0.19645655,0
0.28165054,-1.4943643,1.2545013,-0.36905661,-0.90840632,0.19645655,0
-0.20374131,-1.224792,1.589151,-0.36905661,-0.90840632,0.19645655,0
0.010846019,1.3190145,-1.5158373,0.36905661,0.90840632,-0.19645655,0
1.5513788,0.90011537,-0.55881524,0.36905661,0.90840632,-0.19645655,0
-0.85623038,-1.4407027,-0.63495433,-0.36905661,-0.90840632,0.19645655,0
0.63735199,1.2006788,-0.88608372,0.36905661,0.90840632,-0.19645655,0
0.19245434,0.23781204,-1.5857878,-0.018973947,-0.20397024,-0.97879338,0
-1.3451378,-0.89134026,0.98682863,-0.36905661,-0.90840632,0.19645655,0
0.16204304,1.3849576,-0.92688543,0.36905661,0.90840632,-0.19645655,0
1.1010795,1.1850364,1.1103325,0.42288315,0.024102658,0.90586376,0
1.0413495,0.97541296,-1.1687665,0.36905661,0.90840632,-0.19645655,0
1.004565,-1.2514549,-0.38807333,0.8394388,-0.41652802,-0.34906572,0
0.81312501,-1.4532166,-0.5542264,0.76625836,-0.41702044,-0.48881716,0
-0.44680727,0.77975857,1.2379354,-0.37174189,0.33801249,0.86461306,0
-0.18321848,-0.014268667,-1.5041333,-0.17502332,-0.13966715,-0.97460771,0
-0.3889811,1.9424309,0.61571121,0.36905661,0.90840632,-0.19645655,0
0.67140943,-1.5922619,1.1330488,0.79728198,-0.2008066,0.56922621,0
1.3160255,-0.6844908,0.29535949,0.92511451,-0.33875933,0.17148054,0
-0.83300686,-0.60836685,1.6019008,-0.26629889,0.30587062,0.91407233,0
1.4418228,0.074307948,0.62664616,0.84397632,-0.23903619,0.48017275,0
0.71975601,1.5197648,0.74415731,0.36905661,0.90840632,-0.19645655,0
0.52611017,1.6869589,1.1534798,0.36905661,0.90840632,-0.19645655,0
0.21431166,-1.518409,1.0168194,-0.36905661,-0.90840632,0.19645655,0
-0.55098403,1.7914424,-0.38678598,0.36905661,0.90840632,-0.19645655,0
0.97030181,-0.30750829,1.1105827,0.68117225,-0.12056769,0.72212744,0
-0.97868252,1.3329531,0.352718,-0.84445798,0.41603395,0.33735251,0
-0.25524879,1.9221535,0.77317488,0.36905661,0.90840632,-0.19645655,0
-0.68026227,1.715843,0.5369187,-0.74928147,0.41587055,0.51539218,0
0.76813769,0.18666935,-1.4754863,0.32930386,-0.32547337,-0.88635558,0
-1.5779934,-0.025873244,0.50688493,-0.87842751,0.40997654,0.24552917,0
1.3689997,1.1445725,0.22893286,0.36905661,0.90840632,-0.19645655,0
-1.0550804,0.61673886,0.86973506,-0.7033869,0.41115925,0.57982337,0
0.51319063,-1.8211318,0.17850626,-0.36905661,-0.90840632,0.19645655,0
-0.8977797,1.4836509,-0.7822516,-0.8864097,0.28048018,-0.3682512,0
1.5241385,-0.23009616,-0.0075961351,0.92875767,-0.36836571,0.041425943,0
0.53859383,1.2010316,-1.0699759,0.36905661,0.90840632,-0.19645655,0
1.4037713,0.96660781,-0.5286479,0.36905661,0.90840632,-0.19645655,0
1.1070402,1.1550039,-0.21494138,0.36905661,0.90840632,-0.19645655,0
-0.42424864,1.9232972,0.46098524,0.36905661,0.90840632,-0.19645655,0
1.1551834,-0.8103013,0.67416894,0.8789202,-0.27240291,0.39153063,0
1.6433372,0.8247748,-0.73443711,0.36905661,0.90840632,-0.19645655,0
1.3847835,1.2603348,0.7938633,0.36905661,0.90840632,-0.19645655,0
0.25057042,1.2498192,-1.3854553,0.36905661,0.90840632,-0.19645655,0
