0.50857854,0.10714531,1.8665259,-0.3538329,0.31065989,0.882209,0
3.7156658,-1.972738,0.61833996,0.84746391,-0.29260051,0.44293335,0
2.4676497,0.70180762,0.69934297,0.40460655,0.89617193,-0.18212438,0
0.59949672,-0.27971137,1.996371,-0.4331975,0.10108468,0.89561248,0
-0.54400408,0.43527195,1.3283818,-0.36266941,0.29018125,0.88558781,0
-1.5258586,2.0877292,-0.74762738,0.24555542,0.95581949,0.16159081,0
3.6717041,-1.6490922,0.91625118,0.84746391,-0.29260051,0.44293335,0
2.9965773,-1.9142551,2.0328045,0.84746391,-0.29260051,0.44293335,0
3.8358808,-0.62461615,1.2788985,0.84746391,-0.29260051,0.44293335,0
3.0611765,-2.2511463,1.6866574,0.84746391,-0.29260051,0.44293335,0
-0.41083679,-1.2619344,-0.76858616,-0.093460977,-0.90358615,-0.4180876,0
-3.9208274,0.15156484,-1.4288661,-0.84746391,0.29260051,-0.44293335,0
3.5314898,-0.94837999,1.6474113,0.84746391,-0.29260051,0.44293335,0
1.0103264,0.3615222,1.9096054,-0.22829837,0.55239272,0.80171204,0
3.9923825,-1.2467086,0.56851017,0.84746391,-0.29260051,0.44293335,0
3.8889627,-0.29092336,1.3977728,0.84746391,-0.29260051,0.44293335,0
-2.8565888,2.4106109,-1.9727533,-0.84746391,0.29260051,-0.44293335,0
-2.7506919,1.9579601,-2.4743857,-0.84746391,0.29260051,-0.44293335,0
-3.2203581,1.4230609,-1.9291265,-0.84746391,0.29260051,-0.44293335,0
-0.52298295,-0.80968893,1.1936703,-0.53081638,-0.47689858,0.70057237,0
1.2310951,-1.9462116,1.3652519,-0.43209651,-0.86491585,0.25536871,0
-3.5618646,0.53303218,-1.8636731,-0.84746391,0.29260051,-0.44293335,0
-2.7112439,1.391335,-2.9241717,-0.84746391,0.29260051,-0.44293335,0
1.7903607,-2.0299149,0.39934921,-0.099150509,-0.90694273,-0.4094193,0
-0.023024082,0.80465531,-1.587423,0.52594113,0.34954768,-0.77537239,0
0.034882069,0.37323403,-1.6669012,0.48538989,0.089263022,-0.8697291,0
-0.73217618,-0.61476505,-1.6437014,0.17214864,-0.63781071,-0.75070781,0
2.9224384,-2.4902067,1.7941827,0.84746391,-0.29260051,0.44293335,0
-3.4033365,2.2064736,-1.0615141,-0.84746391,0.29260051,-0.44293335,0
1.1586372,-0.75720382,2.2933018,-0.48139316,-0.071901858,0.87355071,0
3.5916498,-1.0665948,1.454215,0.84746391,-0.29260051,0.44293335,0
3.3852379,-1.3707404,1.6482251,0.84746391,-0.29260051,0.44293335,0
-1.0002075,-0.63401115,-1.6813095,0.12802333,-0.69710135,-0.70545006,0
3.7286153,-1.1102426,1.1633257,0.84746391,-0.29260051,0.44293335,0
-3.4982457,1.6198449,-1.2674499,-0.84746391,0.29260051,-0.44293335,0
2.4618909,0.18125898,-0.15116644,0.5303086,0.50441331,-0.68142492,0
-2.2414398,0.12586546,0.46019173,-0.5154537,-0.25404981,0.81839234,0
-0.032716751,-0.62390345,-1.4478744,0.25304037,-0.51083255,-0.82159638,0
3.2436748,-0.077497721,2.7733898,0.84746391,-0.29260051,0.44293335,0
3.698019,-0.9939177,1.2987093,0.84746391,-0.29260051,0.44293335,0
3.2865691,-2.2831745,1.2342564,0.84746391,-0.29260051,0.44293335,0
-3.3047485,2.3336115,-1.1661551,-0.84746391,0.29260051,-0.44293335,0
-2.3647599,-0.32388866,0.11137724,-0.52568209,-0.57873988,0.62347281,0
-2.4453266,2.2790608,-0.79461098,0.11620188,0.91639435,0.38303858,0
-4.1527605,0.79072428,-0.56288171,-0.84746391,0.29260051,-0.44293335,0
3.9128776,-0.95218158,0.91519165,0.84746391,-0.29260051,0.44293335,0
3.6754329,-1.2628851,1.1642442,0.84746391,-0.29260051,0.44293335,0
-2.6625206,2.4678302,-2.0068028,0.40995049,0.89082617,-0.19588065,0
-4.0095348,0.64019632,-0.93635416,-0.84746391,0.29260051,-0.44293335,0
3.8372512,-1.2521551,0.86172545,0.84746391,-0.29260051,0.44293335,0
-2.9986124,0.15056109,-2.8134913,0.16560709,-0.64701712,-0.74427354,0
3.0180333,-2.1969495,1.8050063,0.84746391,-0.29260051,0.44293335,0
2.0900755,-1.4026041,-0.30900455,0.23812217,-0.53619689,-0.80980909,0
3.6696329,-1.7355306,0.86311251,0.84746391,-0.29260051,0.44293335,0
2.940717,-0.82013297,2.8624563,0.84746391,-0.29260051,0.44293335,0
3.3580492,-1.089648,1.8859338,0.84746391,-0.29260051,0.44293335,0
-3.144037,1.8850138,-0.32693189,-0.19724077,0.60109013,0.774459,0
3.9151106,-0.43019962,1.2557383,0.84746391,-0.29260051,0.44293335,0
-3.6918077,1.5052311,-0.97282135,-0.84746391,0.29260051,-0.44293335,0
-3.0061026,1.4621263,-2.3132551,-0.84746391,0.29260051,-0.44293335,0
-2.3926773,-0.68992186,-1.5004761,-0.18807569,-0.94575214,-0.26491624,0
-3.5876322,-0.28152442,-2.1098747,-0.19255883,-0.94699073,-0.25715691,0
3.974788,-0.93488431,0.80816531,0.84746391,-0.29260051,0.44293335,0
-3.0982547,2.5613387,-1.4108038,-0.84746391,0.29260051,-0.44293335,0
-2.6316471,0.88227302,0.30163884,-0.42404103,0.1288434,0.89643091,0
-3.8924778,-0.13068748,-1.6695628,-0.84746391,0.29260051,-0.44293335,0
-1.324563,0.64748645,-2.3839691,0.45477206,-0.030244321,-0.89009416,0
3.5308843,-1.1544313,1.5124536,0.84746391,-0.29260051,0.44293335,0
3.0509312,-0.55821776,-0.074782133,0.49961215,0.15761101,-0.85179007,0
2.6039925,-1.7670295,2.8811936,0.84746391,-0.29260051,0.44293335,0
-4.1254416,0.53104019,-0.78669763,-0.84746391,0.29260051,-0.44293335,0
-1.9932606,-0.42040539,-2.0601392,0.071570933,-0.76378489,-0.6414907,0
-3.9680276,1.3987381,-0.51467931,-0.84746391,0.29260051,-0.44293335,0
3.6308055,-0.64758301,1.6560969,0.84746391,-0.29260051,0.44293335,0
-4.0700541,1.1455054,-0.48675609,-0.84746391,0.29260051,-0.44293335,0
3.0222714,-1.7850151,2.0690196,0.84746391,-0.29260051,0.44293335,0
-3.2478988,2.253499,-1.3278476,-0.84746391,0.29260051,-0.44293335,0
-0.3637135,-0.49358606,-1.6307321,0.25815856,-0.50190938,-0.82549447,0
3.6777954,-0.88740182,1.4077671,0.84746391,-0.29260051,0.44293335,0
-3.5937359,1.1990571,-1.3627197,-0.84746391,0.29260051,-0.44293335,0
1.9500858,-1.1366084,-0.50624746,0.30515403,-0.41423267,-0.85749185,0
3.7484019,-1.0400219,1.1718557,0.84746391,-0.29260051,0.44293335,0
-2.8835716,0.72925472,-3.031826,-0.84746391,0.29260051,-0.44293335,0
-1.3009753,2.036026,-0.94866663,0.32956642,0.94410729,-0.0068844557,0
1.7284794,-2.0239835,0.40206394,-0.110475,-0.91332233,-0.3919664,0
-3.4993372,1.427989,-1.392101,-0.84746391,0.29260051,-0.44293335,0
4.0898991,-0.8307538,0.65671086,0.84746391,-0.29260051,0.44293335,0
-3.1179476,2.3153012,-1.535657,-0.84746391,0.29260051,-0.44293335,0
2.7432227,-0.54633558,-0.24968517,0.48753613,0.09887448,-0.86748618,0
-2.977174,2.0777919,-1.9618969,-0.84746391,0.29260051,-0.44293335,0
-3.0334954,0.90161037,-2.6311193,-0.84746391,0.29260051,-0.44293335,0
3.8415935,0.17318702,1.7949953,0.84746391,-0.29260051,0.44293335,0
-3.1447151,0.90980124,-2.4129128,-0.84746391,0.29260051,-0.44293335,0
-0.24887469,-1.4100552,-0.44701123,-0.16799232,-0.93932003,-0.29909259,0
-0.11743879,1.5238459,0.29404283,0.15626392,0.93491286,0.31862122,0
-1.893056,-0.8797617,-1.1730317,-0.20753649,-0.95059121,-0.23087853,0
-0.56483746,1.1966572,0.84095812,-0.11874086,0.70875585,0.69538897,0
3.2992156,-0.2164588,2.5753264,0.84746391,-0.29260051,0.44293335,0
-0.93277109,-1.0123594,-1.1778196,-0.047849625,-0.87308812,-0.48520887,0
0.48528451,-1.7539636,0.4683367,-0.31598091,-0.94851005,-0.022017121,0
0.72758323,-1.7578114,0.097760558,-0.17836094,-0.94281918,-0.2815659,0
-3.2495048,1.4279492,-1.8701313,-0.84746391,0.29260051,-0.44293335,0
-4.0613341,0.26779485,-1.0832536,-0.84746391,0.29260051,-0.44293335,0
-1.2398604,0.79194045,-2.335187,0.48235756,0.076030672,-0.87266862,0
-1.2274963,-0.68623936,-1.6581885,0.070902646,-0.76451516,-0.6406945,0
3.8637857,-0.81934285,1.0968715,0.84746391,-0.29260051,0.44293335,0
0.16034544,-0.12977445,1.767035,-0.43352377,0.10007262,0.89556819,0
-1.0537565,-0.54817069,-1.7728808,0.15506899,-0.66153818,-0.73370349,0
3.4034767,-1.0141513,1.8488908,0.84746391,-0.29260051,0.44293335,0
-3.2263391,0.77781343,-2.3439317,-0.84746391,0.29260051,-0.44293335,0
-2.7923348,2.2031875,-2.2327137,-0.84746391,0.29260051,-0.44293335,0
-4.1623731,0.45170331,-0.76844668,-0.84746391,0.29260051,-0.44293335,0
0.12624657,0.055001259,-1.6197519,0.43814796,-0.085550904,-0.8948226,0
-2.8206959,1.146204,-2.8766913,-0.84746391,0.29260051,-0.44293335,0
-1.0870416,-0.49352291,0.97195983,-0.52903759,-0.39656886,0.75023472,0
-1.6816628,1.1136566,0.6109848,-0.28472978,0.45366451,0.84446275,0
2.0871928,-1.0697434,-0.48490825,0.33662581,-0.34896317,-0.87459004,0
-3.423665,0.39892793,-2.2166786,-0.84746391,0.29260051,-0.44293335,0
1.1693696,-1.8426365,1.5487065,-0.47247949,-0.7961306,0.37807286,0
-3.4455767,0.23171735,-2.2852144,-0.84746391,0.29260051,-0.44293335,0
-3.2160695,1.4500518,-1.9195019,-0.84746391,0.29260051,-0.44293335,0
-2.5397604,2.4242134,-1.9481963,0.4111371,0.88959515,-0.198964,0
-0.97412741,0.56617856,-2.2016234,0.46153581,-0.0061224997,-0.8871004,0
2.662251,-1.4344678,2.9894168,0.84746391,-0.29260051,0.44293335,0
-1.5899595,0.21257591,-2.4118183,0.33998513,-0.3416408,-0.87618017,0
-1.7567186,0.9921751,-2.6032577,0.48544049,0.089486837,-0.8696779,0
-0.89560682,1.0989739,0.85573256,-0.20072812,0.59580541,0.7776401,0
2.1024015,0.13392556,-0.44600058,0.52872789,0.39065713,-0.75354737,0
2.0627067,0.34750032,-0.3381443,0.5295862,0.52360713,-0.66736335,0
4.0076103,-0.42426586,1.0826793,0.84746391,-0.29260051,0.44293335,0
-2.8305118,0.83593273,-3.0628741,-0.84746391,0.29260051,-0.44293335,0
-2.002723,2.2676454,-1.4949849,0.37273297,0.92208993,-0.1040194,0
-0.48701954,-0.58739662,-1.6039908,0.21279311,-0.57716894,-0.78841311,0
-2.2193546,-0.52400756,-1.9258956,-0.021626085,-0.85271698,-0.52192515,0
2.8950698,-0.67666626,3.0445659,0.84746391,-0.29260051,0.44293335,0
-0.35634243,-0.063438058,-1.8176599,0.37743026,-0.25462779,-0.89034325,0
3.2031889,-1.3895502,1.984113,0.84746391,-0.29260051,0.44293335,0
-0.68173212,-1.1730461,-0.90006661,-0.096757233,-0.90554303,-0.41307372,0
3.6858711,-1.9502989,0.69016916,0.84746391,-0.29260051,0.44293335,0
-0.29768455,-1.0814025,1.1490912,-0.52225125,-0.60913962,0.59682691,0
0.2848655,-1.0191274,1.6599768,-0.53036028,-0.43073326,0.73019648,0
-3.8797255,0.84781241,-1.0475672,-0.84746391,0.29260051,-0.44293335,0
-2.7032897,1.4709036,-2.8868279,-0.84746391,0.29260051,-0.44293335,0
-3.8195868,0.05927968,-1.683533,-0.84746391,0.29260051,-0.44293335,0
1.9297415,0.63285315,-0.16167402,0.50761735,0.69082189,-0.51486862,0
-2.293328,0.48968464,0.49255753,-0.47315753,-0.038050592,0.88015562,0
-1.0997926,1.3577415,-2.0500529,0.53085202,0.46872827,-0.70603824,0
-2.2330556,0.67088556,-2.8207204,0.39725739,-0.20390114,-0.8947686,0
4.0355148,-0.86510229,0.73807406,0.84746391,-0.29260051,0.44293335,0
3.9473019,-0.01668644,1.4673128,0.84746391,-0.29260051,0.44293335,0
3.6494999,-0.8485477,1.4875717,0.84746391,-0.29260051,0.44293335,0
3.6405396,-2.0926101,0.68289173,0.84746391,-0.29260051,0.44293335,0
-4.0632477,0.47403097,-0.94335365,-0.84746391,0.29260051,-0.44293335,0
-3.6226296,-0.10643148,-0.80757976,-0.49608365,-0.73352081,0.4645946,0
0.68093991,-0.83934784,2.0003612,-0.51141,-0.22625571,0.82901639,0
3.5697389,-0.86397624,0.17900145,0.48302644,0.078916281,-0.87204218,0
2.9856684,-1.4776962,2.3420663,0.84746391,-0.29260051,0.44293335,0
1.472851,-1.2124405,2.3827562,-0.52000362,-0.28973708,0.80352271,0
3.7603879,-0.55849266,1.4670191,0.84746391,-0.29260051,0.44293335,0
3.6049836,-1.0646036,1.4300189,0.84746391,-0.29260051,0.44293335,0
0.42708886,-1.3346186,1.5248518,-0.52198064,-0.6112172,0.59493667,0
3.6920252,0.14444351,2.062175,0.84746391,-0.29260051,0.44293335,0
-3.3202534,2.3279359,-1.1402392,-0.84746391,0.29260051,-0.44293335,0
-2.9869294,0.94226694,-2.6933565,-0.84746391,0.29260051,-0.44293335,0
3.2513766,-0.06728363,2.7654018,0.84746391,-0.29260051,0.44293335,0
-3.7562394,0.28010559,-1.6588584,-0.84746391,0.29260051,-0.44293335,0
2.3252256,-1.5748928,-0.1219196,0.20700109,-0.58618456,-0.78328681,0
4.0334044,-1.0365763,0.62883711,0.84746391,-0.29260051,0.44293335,0
3.3739038,-0.41655636,2.3002424,0.84746391,-0.29260051,0.44293335,0
1.6078528,-1.2176223,2.467474,-0.51669765,-0.26325855,0.81468916,0
3.4754238,0.13649416,2.4713473,0.84746391,-0.29260051,0.44293335,0
-3.1317103,2.312912,-1.5109035,-0.84746391,0.29260051,-0.44293335,0
-3.5021815,2.000205,-0.50758642,-0.20027465,0.59649509,0.77722824,0
-2.3884323,1.890563,-0.18074928,-0.090949655,0.74201399,0.66418624,0
3.3749669,-0.015458107,2.5631719,0.84746391,-0.29260051,0.44293335,0
3.9291403,-0.54555511,1.1526923,0.84746391,-0.29260051,0.44293335,0
1.5537938,0.78626883,-0.32546616,0.50333798,0.70804197,-0.49530536,0
-3.8424802,1.5834391,-0.63287556,-0.84746391,0.29260051,-0.44293335,0
-1.3242983,1.9786136,-0.46169657,0.19383118,0.94732887,0.25494587,0
1.4743385,1.0766486,0.5800159,0.30982015,0.95015478,0.034891009,0
-1.5629836,-1.0146815,-0.90348661,-0.23528247,-0.95498276,-0.18069327,0
0.50574207,0.48128039,-1.3648978,0.51613635,0.25905958,-0.8163892,0
-3.4146776,2.2155969,-1.0337876,-0.84746391,0.29260051,-0.44293335,0
3.9427571,-1.3947525,0.56566179,0.84746391,-0.29260051,0.44293335,0
3.2083199,0.17609167,2.45327,0.017934561,0.84968507,0.52698535,0
-0.020156801,1.2334328,0.85336822,-0.013437927,0.82228845,0.56891227,0
-3.9630322,1.012944,-0.779091,-0.84746391,0.29260051,-0.44293335,0
-0.85039377,-1.2669086,0.11087918,-0.39694613,-0.90329516,0.1627624,0
1.2168056,0.98558199,-0.36702061,0.48337564,0.77024251,-0.41602212,0
-1.2630315,-0.098729581,1.001291,-0.5041768,-0.18246594,0.84410429,0
-3.6579523,-0.24240208,-1.1397915,-0.4420625,-0.85095024,0.28366244,0
2.8853688,-0.54220009,3.0379891,-0.30780476,0.40895432,0.85907656,0
-2.863687,1.2763801,-2.7084422,-0.84746391,0.29260051,-0.44293335,0
-3.4748735,2.1005702,-0.58403385,-0.15942192,0.65558589,0.73810011,0
3.4393132,-1.9802964,1.1420916,0.84746391,-0.29260051,0.44293335,0
1.3745036,-0.0042044073,-0.9553315,0.49660146,0.14211708,-0.85626495,0
-0.15168083,0.99297249,-1.5784253,0.53064996,0.44385281,-0.72208405,0
4.0911775,-0.12258244,1.1220813,0.84746391,-0.29260051,0.44293335,0
3.1793385,-1.7054803,1.8210443,0.84746391,-0.29260051,0.44293335,0
3.8855066,-0.67904091,1.1479961,0.84746391,-0.29260051,0.44293335,0
3.5358143,-0.059040308,2.2266326,0.84746391,-0.29260051,0.44293335,0
2.6382029,-2.0921082,2.6009924,0.84746391,-0.29260051,0.44293335,0
-3.8529677,0.46565247,-1.3512166,-0.84746391,0.29260051,-0.44293335,0
3.5347972,-1.3354497,1.3853869,0.84746391,-0.29260051,0.44293335,0
-2.6578608,1.6280921,-0.0076476336,-0.22827494,0.55243081,0.80169237,0
3.6365342,-1.0130002,1.4037428,0.84746391,-0.29260051,0.44293335,0
-3.3539259,0.91088462,-2.0119135,-0.84746391,0.29260051,-0.44293335,0
-2.9926004,1.5032933,-2.3118942,-0.84746391,0.29260051,-0.44293335,0
3.8383946,-0.82341814,1.1427608,0.84746391,-0.29260051,0.44293335,0
-0.88456875,0.13308123,1.2286361,-0.45164621,0.041051149,0.89125228,0
1.5133985,0.70329237,1.6558399,-0.013783395,0.82197058,0.56936324,0
2.7863717,-1.3802261,2.7877686,0.84746391,-0.29260051,0.44293335,0
-2.8489847,0.27368212,-2.8708546,0.22842604,-0.5521847,-0.80181897,0
1.490887,-1.0794725,2.4338233,-0.50741327,-0.20128727,0.83786345,0
0.98505163,-1.6709317,-0.18188232,-0.045648366,-0.87145692,-0.48834312,0
0.18411505,-0.06877923,-1.5759935,0.41760683,-0.14765909,-0.8965497,0
3.0363886,-1.2502916,2.3952456,0.84746391,-0.29260051,0.44293335,0
3.578656,0.054853678,2.2199016,0.84746391,-0.29260051,0.44293335,0
1.0631775,-1.2090871,-0.72669131,0.18171436,-0.62407827,-0.75993812,0
2.0621045,0.16141033,-0.45992243,0.52918476,0.39954719,-0.74854887,0
-0.58427429,0.53255415,-1.9950268,0.47751898,0.055678368,-0.87685549,0
3.2391026,-0.12885165,2.7482138,0.84746391,-0.29260051,0.44293335,0
-0.021567583,0.81770092,1.296631,-0.19335353,0.60692793,0.77087796,0
2.8716965,0.098477125,2.5411372,-0.080125928,0.75431585,0.65160382,0
-3.5588961,-0.12865019,-2.306458,-0.84746391,0.29260051,-0.44293335,0
1.0801189,-1.7585897,1.6033621,-0.48903051,-0.75492847,0.4369579,0
-1.5731492,-0.9926154,-0.99583197,-0.21043536,-0.95119071,-0.22572815,0
-0.40465564,-1.0373156,-1.1438611,0.038743734,-0.79806334,-0.60132682,0
3.6726854,-1.3021362,1.143572,0.84746391,-0.29260051,0.44293335,0
-1.2393999,-1.0868642,-0.90213311,-0.1867622,-0.94537532,-0.26718038,0
-3.0289938,-0.48605859,-0.89938998,-0.42433912,-0.87473506,0.23404002,0
2.735213,0.055572987,-0.030768156,0.53075099,0.48338252,-0.69616425,0
-3.5289679,1.1222796,-1.5373594,-0.84746391,0.29260051,-0.44293335,0
-1.4597874,-0.68605101,-1.677842,0.032211423,-0.80449897,-0.59307992,0
0.82698369,-1.0717061,2.0123086,-0.52537411,-0.34272379,0.77879536,0
3.9373355,-0.79773331,0.40255451,0.50709414,0.19938105,-0.83851218,0
3.4083681,-2.3280969,0.97154349,0.84746391,-0.29260051,0.44293335,0
2.8393111,0.46553493,1.940393,0.12480316,0.92081165,0.36949974,0
3.6728628,-2.061599,0.64153367,0.84746391,-0.29260051,0.44293335,0
3.681942,-1.1733263,1.2109531,0.84746391,-0.29260051,0.44293335,0
3.5830016,-1.3331673,1.2946646,0.84746391,-0.29260051,0.44293335,0
1.2864051,-1.7611334,-0.048700094,-0.03727299,-0.86511856,-0.50018054,0
2.8390646,-1.6425745,2.5136454,0.84746391,-0.29260051,0.44293335,0
3.2330556,-1.8923275,1.5948365,0.84746391,-0.29260051,0.44293335,0
1.1039129,0.030152798,2.1265521,-0.31978589,0.38460886,0.86591744,0
-3.6691568,0.85690331,-1.4444427,-0.84746391,0.29260051,-0.44293335,0
-3.9844737,0.80841255,-0.87317991,-0.84746391,0.29260051,-0.44293335,0
3.4607332,-1.2500474,1.5835094,0.84746391,-0.29260051,0.44293335,0
-0.1603272,-0.17889166,1.6087159,-0.46226943,0.003441155,0.88673282,0
1.412325,-0.5667302,-0.92007542,0.40189195,-0.19149444,-0.89543992,0
3.0581067,-1.3362324,2.2969201,0.84746391,-0.29260051,0.44293335,0
2.4828005,-0.75417441,-0.38850141,0.43899071,-0.082866997,-0.89466208,0
-2.900341,1.9620414,-2.1853664,-0.84746391,0.29260051,-0.44293335,0
4.0706992,-0.11756635,1.1645756,0.84746391,-0.29260051,0.44293335,0
-1.9326701,-0.81179643,-0.16549802,-0.45587519,-0.8286562,0.32481766,0
3.0156229,-1.27003,2.4219384,0.84746391,-0.29260051,0.44293335,0
3.7716632,0.2294364,1.2867916,0.42449564,0.87454534,-0.234465,0
2.0550659,-0.49496773,-0.61820757,0.45896542,-0.01541397,-0.88832033,0
1.4838353,-1.5577251,-0.31462121,0.09999007,-0.73146123,-0.67451203,0
0.98554504,0.50601876,1.7939415,-0.18012244,0.62638617,0.75841701,0
-3.9754653,1.0227404,-0.74883163,-0.84746391,0.29260051,-0.44293335,0
3.980773,0.069419861,1.4601543,0.84746391,-0.29260051,0.44293335,0
0.9585349,1.0790594,-0.49397445,0.48207706,0.773561,-0.41134524,0
-3.1868706,2.3166821,-0.78725809,-0.018732727,0.81737715,0.57579833,0
-2.6809516,2.1136103,-2.5049973,-0.84746391,0.29260051,-0.44293335,0
2.3874888,-1.502975,-0.1550903,0.23888814,-0.53491747,-0.81042939,0
3.0229044,-0.45026517,2.9495406,0.84746391,-0.29260051,0.44293335,0
0.90276247,1.2199599,0.66245925,0.20549801,0.95015061,0.23448765,0
-3.2909541,1.8975246,-1.4806261,-0.84746391,0.29260051,-0.44293335,0
-1.3564134,-1.1030532,-0.68894577,-0.26477128,-0.95616806,-0.12505531,0
-3.1053398,1.192287,-2.3016398,-0.84746391,0.29260051,-0.44293335,0
-1.3392251,1.660151,-1.9905645,0.52097517,0.61863291,-0.58811396,0
3.8271174,-1.0330973,1.0258236,0.84746391,-0.29260051,0.44293335,0
-0.48326916,-0.91904455,1.1425138,-0.52863133,-0.54141557,0.65377223,0
2.8872566,-1.1158659,2.769381,0.84746391,-0.29260051,0.44293335,0
-3.4004397,1.9826567,-1.214909,-0.84746391,0.29260051,-0.44293335,0
1.4647311,-0.59713769,2.4505854,-0.436786,0.089863509,0.89506567,0
-3.547132,0.16104722,-2.1375933,-0.84746391,0.29260051,-0.44293335,0
-2.6917105,2.3847973,-2.3052673,-0.84746391,0.29260051,-0.44293335,0
2.9872189,0.30956292,2.2397428,0.051895171,0.87604785,0.47942358,0
1.015784,-1.5112351,1.8591219,-0.52422935,-0.59268093,0.61148411,0
1.2545289,-1.3607675,-0.55220175,0.14892346,-0.66983241,-0.7274245,0
-0.35244322,0.83203316,-1.7948284,0.52048165,0.29385957,-0.80171406,0
2.5228817,0.6821115,0.72514319,0.40527052,0.89552498,-0.18382239,0
-2.7139716,2.3483677,-2.2867403,-0.84746391,0.29260051,-0.44293335,0
3.0308824,-1.9687912,1.9311426,0.84746391,-0.29260051,0.44293335,0
-1.850328,0.97142124,-2.6566277,0.47777891,0.056749791,-0.87664515,0
2.4426353,0.70847952,0.67674994,0.40666378,0.89415187,-0.18739522,0
-1.6391076,-0.98721218,-0.26305509,-0.40530878,-0.89548767,0.18392026,0
-2.7926922,2.547456,-1.8283933,0.35401189,0.9332611,-0.060820818,0
-2.8552172,1.9150729,-2.3027279,-0.84746391,0.29260051,-0.44293335,0
2.0362239,-1.8624628,2.3935232,-0.52431369,-0.59192133,0.61214733,0
4.0122614,-0.26789451,1.1770787,0.84746391,-0.29260051,0.44293335,0
-3.326859,2.2803631,-0.74845964,-0.060745537,0.77544779,0.62848306,0
-0.95191908,1.833998,-1.2697022,0.44208398,0.85091835,-0.28372455,0
-0.1553721,-1.5216956,-0.028692603,-0.2735644,-0.95577443,-0.10797131,0
3.609674,-1.594629,1.070912,0.84746391,-0.29260051,0.44293335,0
0.048045754,0.62614167,-1.6082181,0.51498646,0.2506794,-0.81972492,0
0.67194736,1.1795322,0.8881067,0.098984092,0.90684605,0.40967375,0
-3.8723288,-0.14673209,-1.7187128,-0.84746391,0.29260051,-0.44293335,0
-3.6257834,0.35114312,-1.8615327,-0.84746391,0.29260051,-0.44293335,0
1.384783,-0.40134978,2.3825021,-0.4024021,0.19011486,0.89550483,0
3.2515228,-1.5296478,1.7990882,0.84746391,-0.29260051,0.44293335,0
2.5124712,-2.2707279,0.75816727,-0.093089968,-0.9033637,-0.41865051,0
3.8678102,-1.4076741,0.70052147,0.84746391,-0.29260051,0.44293335,0
3.607162,-1.9566752,0.83655131,0.84746391,-0.29260051,0.44293335,0
-3.3757155,0.74159503,-2.082056,-0.84746391,0.29260051,-0.44293335,0
0.11803579,-0.17081869,1.7501059,-0.44402117,0.066595554,0.893538,0
1.3376694,0.40859234,1.9577121,-0.1710577,0.63935661,0.74964154,0
1.4931765,-2.0940061,1.2071141,-0.36771807,-0.92534816,0.092272162,0
-3.8795178,0.81530046,-1.0694416,-0.84746391,0.29260051,-0.44293335,0
-3.6134782,0.82303524,-1.5733457,-0.84746391,0.29260051,-0.44293335,0
0.9268353,-0.66625547,2.1730046,-0.47980285,-0.065174103,0.87495232,0
0.81524932,1.2465075,0.63133943,0.20123327,0.94917792,0.24200487,0
0.22667384,-0.48062408,-1.4350505,0.32224882,-0.37950239,-0.8672564,0
-2.5238349,-0.43885088,-0.16397119,-0.50566697,-0.69890732,0.5057959,0
-3.0005436,1.6585426,-2.1941388,-0.84746391,0.29260051,-0.44293335,0
1.1319158,-0.40269399,2.2665448,-0.42111242,0.13747466,0.89652938,0
-3.4612079,1.5259051,-1.4003701,-0.84746391,0.29260051,-0.44293335,0
-0.74280751,-0.072434187,-1.9719456,0.34194732,-0.33732972,-0.8770864,0
-2.9385605,1.7871926,-2.2277451,-0.84746391,0.29260051,-0.44293335,0
2.8832393,-2.4757397,1.8787397,0.84746391,-0.29260051,0.44293335,0
3.2215471,-0.10184252,0.23078632,0.53064269,0.4904193,-0.69130832,0
1.0910807,0.51458859,1.8107915,-0.16309547,0.65051264,0.74177712,0
-0.71760964,1.5922731,0.29685616,0.05411765,0.87765288,0.47623175,0
-3.8697643,1.4086611,-0.69613063,-0.84746391,0.29260051,-0.44293335,0
3.9188614,-1.2559463,0.36262953,0.43786651,-0.086444467,-0.89487439,0
0.23382556,1.2226663,-1.0422947,0.5068813,0.69392323,-0.51141167,0
-2.9030674,2.1284547,-2.0702176,-0.84746391,0.29260051,-0.44293335,0
0.12357152,-1.2789325,1.3128661,-0.51674819,-0.64576274,0.56210482,0
2.9553101,-1.2185199,2.5713613,0.84746391,-0.29260051,0.44293335,0
-4.0495663,0.26664758,-1.1065276,-0.84746391,0.29260051,-0.44293335,0
1.2812561,-1.4483396,2.125803,-0.53069371,-0.48741308,0.6933921,0
3.4572229,-1.0787749,1.7033677,0.84746391,-0.29260051,0.44293335,0
-3.6484423,1.4397881,-1.0990238,-0.84746391,0.29260051,-0.44293335,0
-2.4514928,0.83446026,-2.9523873,0.41620952,-0.15167454,-0.89652908,0
3.1745269,-0.36485934,2.7158604,0.84746391,-0.29260051,0.44293335,0
3.618897,-1.7388175,0.95801497,0.84746391,-0.29260051,0.44293335,0
-3.2388399,0.37732768,-2.5845737,-0.84746391,0.29260051,-0.44293335,0
-2.9258344,2.0988162,-0.48742235,-0.08074069,0.75362676,0.6523248,0
-3.9964552,0.038729668,-1.358706,-0.84746391,0.29260051,-0.44293335,0
-1.2195277,-0.89665461,0.50730681,-0.50429249,-0.70436239,0.4995625,0
3.3202031,-2.3661139,1.1151152,0.84746391,-0.29260051,0.44293335,0
-0.67694032,1.609409,0.25836158,0.074224085,0.89149594,0.44690686,0
-2.8037853,2.0151041,-0.37704676,-0.099271119,0.73230976,0.67369699,0
-0.63653195,0.80722916,-1.9816144,0.50975209,0.21563753,-0.83285844,0
3.3651175,-1.4156504,1.6570539,0.84746391,-0.29260051,0.44293335,0
-2.8909888,0.75540638,-3.0003593,-0.84746391,0.29260051,-0.44293335,0
-3.9789534,0.47233462,-1.1057546,-0.84746391,0.29260051,-0.44293335,0
4.0046411,-0.41891837,1.0918927,0.84746391,-0.29260051,0.44293335,0
-3.1628716,1.8497524,-1.7572446,-0.84746391,0.29260051,-0.44293335,0
-3.1927242,1.7919075,-1.7383395,-0.84746391,0.29260051,-0.44293335,0
0.7752409,-0.48939133,2.0975952,-0.46017414,0.01106447,0.88775969,0
3.4461145,-1.789211,1.2553093,0.84746391,-0.29260051,0.44293335,0
3.5327852,-1.5594959,1.2412312,0.84746391,-0.29260051,0.44293335,0
-1.3959552,2.0577464,-1.1813878,0.37355092,0.92153931,-0.10594833,0
-2.6238434,2.4529188,-1.9935964,0.4114469,0.88927114,-0.19977093,0
4.0532761,-0.1952703,1.1465805,0.84746391,-0.29260051,0.44293335,0
3.2090459,-0.77680564,2.3776846,0.84746391,-0.29260051,0.44293335,0
0.9071781,-1.425226,-0.54014766,0.06999439,-0.76550549,-0.63961089,0
-2.73422,1.5456743,-2.7782564,-0.84746391,0.29260051,-0.44293335,0
1.3865187,0.10003761,-0.92647332,0.50886953,0.2101416,-0.83480072,0
3.1537268,-0.37344646,2.7499843,0.84746391,-0.29260051,0.44293335,0
-3.7957659,1.0866475,-1.0504339,-0.84746391,0.29260051,-0.44293335,0
2.6191392,-0.69385958,2.9932775,-0.37170351,0.26863006,0.88863623,0
-3.2428942,0.6519959,-2.3953717,-0.84746391,0.29260051,-0.44293335,0
2.3560202,-2.2869256,2.0901165,-0.45847592,-0.82401806,0.33285749,0
-3.5670028,0.023622036,-2.1903567,-0.84746391,0.29260051,-0.44293335,0
-1.7919644,-0.81610918,0.0094594955,-0.47393638,-0.79290831,0.38298887,0
-1.4568313,-0.077876724,0.88918966,-0.50908566,-0.21147746,0.83433163,0
-4.0303998,1.3020239,-0.4592315,-0.84746391,0.29260051,-0.44293335,0
-2.2228432,2.3165507,-1.7746017,0.40943685,0.89135414,-0.19454896,0
4.0106516,-1.1069672,0.62587011,0.84746391,-0.29260051,0.44293335,0
-1.6263326,1.2196937,-2.4785166,0.51633167,0.26051208,-0.81580323,0
0.877505,-0.59748542,-1.1378851,0.35083711,-0.31747392,-0.8809787,0
1.6460977,-1.9791235,1.8538489,-0.48184058,-0.77415812,0.41049838,0
2.1302509,-1.4738603,-0.2484964,0.21874845,-0.56776446,-0.79359478,0
-1.0409484,1.1175401,0.80348921,-0.21189046,0.57858253,0.78761965,0
3.1354699,-2.2219152,1.563822,0.84746391,-0.29260051,0.44293335,0
3.7909529,-0.28547907,1.5888917,0.84746391,-0.29260051,0.44293335,0
1.7395728,0.94692373,1.0299563,0.22560847,0.95379788,0.19841969,0
-2.8121176,2.0422943,-2.3011484,-0.84746391,0.29260051,-0.44293335,0
1.5442812,0.5172503,1.8918133,-0.097787976,0.73405504,0.67201233,0
-1.2155603,-1.1302571,-0.026519537,-0.40857625,-0.8922317,0.19232273,0
0.26927531,0.18407047,1.7434475,-0.35527414,0.30735883,0.8827858,0
2.1953259,-1.9369681,2.457345,-0.52271104,-0.60552329,0.60009557,0
3.3534331,0.28034472,0.81365418,0.47273973,0.79556012,-0.37894756,0
-3.8173001,-0.055369616,-1.7636454,-0.84746391,0.29260051,-0.44293335,0
-3.328784,1.5363336,-1.6468475,-0.84746391,0.29260051,-0.44293335,0
-3.8713145,0.20537806,-1.4880505,-0.84746391,0.29260051,-0.44293335,0
-3.7866321,0.93879724,-1.1655785,-0.84746391,0.29260051,-0.44293335,0
1.649967,-2.1565604,1.1131457,-0.32508746,-0.94568002,-0.0027239323,0
-2.9701133,2.1232278,-1.9453914,-0.84746391,0.29260051,-0.44293335,0
0.4590584,-0.99299753,-1.0485735,0.18449062,-0.62003189,-0.762577,0
-3.647321,1.1105258,-1.3186787,-0.84746391,0.29260051,-0.44293335,0
2.6261179,-0.43370426,-0.30072522,0.49692762,0.14376464,-0.85580063,0
2.0526738,-1.4536185,2.6702399,-0.52288377,-0.31606585,0.79164058,0
-0.79085302,1.1567523,0.83381981,-0.16601288,0.6464504,0.74467552,0
-1.5751221,0.75113529,0.80206156,-0.37245965,0.26679707,0.88887191,0
2.5837886,-2.4752014,1.7211418,-0.35447475,-0.93301654,0.061868072,0
3.6290154,-1.6465383,0.99961406,0.84746391,-0.29260051,0.44293335,0
3.8254194,-0.25970507,0.58424997,0.52954245,0.52455521,-0.66665328,0
3.7389112,-0.90162396,1.2814395,0.84746391,-0.29260051,0.44293335,0
1.0027425,0.81842703,-0.80011201,0.52390659,0.59553951,-0.60897833,0
0.94145614,-0.45204404,-1.1551713,0.39122069,-0.21973604,-0.89367914,0
0.87479508,-1.5823241,-0.32486868,-0.01593253,-0.84802383,-0.52971852,0
-2.1764665,2.3328104,-1.252844,0.29026937,0.95401347,0.074846506,0
-2.0927172,1.9861615,-2.3095901,0.51314527,0.66523993,-0.54234463,0
2.7800109,-2.2853525,2.2020149,0.84746391,-0.29260051,0.44293335,0
2.5948949,-1.0835421,-0.27484673,0.37715954,-0.25529569,-0.8902666,0
-0.99132723,-0.0084355474,1.1701235,-0.48045474,-0.067920148,0.8743856,0
-3.3119028,0.7255342,-2.2147584,-0.84746391,0.29260051,-0.44293335,0
-2.2061615,0.91489029,-2.8430235,0.44822812,-0.052639663,-0.89236796,0
-3.5574348,0.35883951,-1.9872193,-0.84746391,0.29260051,-0.44293335,0
-2.9542911,0.20246768,-2.8462148,0.19070339,-0.61087608,-0.76841563,0
1.9291034,0.82864404,1.3292167,0.16677368,0.9388842,0.30113631,0
-2.9371533,1.1494889,-2.6517031,-0.84746391,0.29260051,-0.44293335,0
0.13565767,-0.98196936,1.5733947,-0.53058231,-0.44022891,0.72434855,0
-3.890434,0.40211463,-1.3215055,-0.84746391,0.29260051,-0.44293335,0
0.0296444,-1.5813321,0.50426292,-0.38203439,-0.91549444,0.1261729,0
-1.5037944,-1.0674131,-0.56086957,-0.31861854,-0.94774008,-0.016461968,0
-2.9416757,2.5818455,-1.5206261,0.25468966,0.95618737,0.14435709,0
2.6380172,0.53671622,1.8309828,0.12613271,0.92147332,0.36739302,0
-3.2041173,2.0115733,-1.5714308,-0.84746391,0.29260051,-0.44293335,0
-1.1024151,1.8721139,-0.24530762,0.16376005,0.93778414,0.30617559,0
-2.9122493,2.0629306,-0.44510138,-0.094711423,0.73765379,0.66850328,0
3.9945962,-0.063563585,1.3458583,0.84746391,-0.29260051,0.44293335,0
-2.6571958,1.8299749,-2.7378178,-0.84746391,0.29260051,-0.44293335,0
0.56386161,-1.2994175,1.6738983,-0.52776432,-0.55427092,0.64362121,0
2.0354481,-0.67487931,2.7321582,-0.41287959,0.16114798,0.89641607,0
-2.13625,0.93016064,0.51312631,-0.37597853,0.25820324,0.88992763,0
3.7750769,-1.8169029,0.47280836,0.29054868,-0.44264799,-0.84831846,0
2.7997427,-0.98590708,3.0226719,0.84746391,-0.29260051,0.44293335,0
3.1384931,-1.8987153,1.771543,0.84746391,-0.29260051,0.44293335,0
-3.659435,1.7950575,-0.84330124,-0.84746391,0.29260051,-0.44293335,0
-2.6508753,1.8706253,-2.7230575,-0.84746391,0.29260051,-0.44293335,0
4.1165791,-0.52213764,0.80953479,0.84746391,-0.29260051,0.44293335,0
-3.5252693,0.13203239,-2.1985903,-0.84746391,0.29260051,-0.44293335,0
2.7247312,-2.3045974,2.295069,0.84746391,-0.29260051,0.44293335,0
2.9462399,-1.6441524,2.307544,0.84746391,-0.29260051,0.44293335,0
3.4270873,-0.8905046,1.8853966,0.84746391,-0.29260051,0.44293335,0
-0.18924344,0.36517024,-1.7901891,0.47280288,0.036644518,-0.88040596,0
1.7441863,-0.78559244,-0.7206825,0.3781606,-0.25282219,-0.89054781,0
2.5496736,0.03442359,-0.18202043,0.53024787,0.42674971,-0.73261297,0
0.62864518,-1.0940106,-0.92442101,0.16858351,-0.64284664,-0.7472133,0
-0.20415616,-0.34560263,-1.6541497,0.31845826,-0.38734674,-0.86518604,0
1.1010606,-0.36809638,-1.0994906,0.42114925,-0.13736698,-0.89652866,0
-2.4309614,-0.56979704,-1.8127769,-0.097257704,-0.90583718,-0.41231042,0
-3.1329422,2.355706,-1.4802772,-0.84746391,0.29260051,-0.44293335,0
-0.46035731,-1.0078351,-1.1864614,0.043813169,-0.79298103,-0.60766882,0
-1.3066967,1.8717167,-0.16631645,0.10554868,0.91059667,0.39959139,0
0.84970152,0.81273341,1.4654257,-0.072729647,0.76251537,0.64286917,0
3.036077,-1.4009829,2.2962961,0.84746391,-0.29260051,0.44293335,0
-3.7004502,1.3673253,-1.0473855,-0.84746391,0.29260051,-0.44293335,0
3.6187983,-0.028561115,2.0879946,0.84746391,-0.29260051,0.44293335,0
2.5023489,-2.440268,1.7550638,-0.37248871,-0.92225337,0.10344434,0
3.1886592,-0.83709574,2.376863,0.84746391,-0.29260051,0.44293335,0
1.6555772,0.3157475,2.1092758,-0.16460907,0.64840865,0.74328321,0
-0.12399828,-0.92425948,1.4176168,-0.53084081,-0.46143323,0.71083581,0
0.43720448,-0.28551465,-1.4168413,0.38949835,-0.22418913,-0.89332539,0
-0.57689345,1.4312742,-1.5545715,0.51725245,0.64280516,-0.56502324,0
3.189044,0.45683789,1.0972872,0.40005416,0.9004792,-0.17056918,0
0.83961976,-1.2334223,1.9361768,-0.53068221,-0.44579351,0.72086382,0
-2.876121,1.5910349,-2.4767914,-0.84746391,0.29260051,-0.44293335,0
-3.4438946,1.3268397,-1.5649979,-0.84746391,0.29260051,-0.44293335,0
2.6262736,-0.20494342,-0.24107194,0.51984566,0.2883946,-0.80410755,0
2.8806365,-1.3469591,2.6293881,0.84746391,-0.29260051,0.44293335,0
1.6087692,-1.5268788,-0.32549539,0.13128185,-0.69294405,-0.7089383,0
-0.54372829,-1.1772771,0.78915954,-0.49425307,-0.73935658,0.45723706,0
-2.048461,-0.16857797,0.46573877,-0.52926195,-0.40115851,0.74763191,0
-3.1579144,0.29926229,-2.7909782,-0.84746391,0.29260051,-0.44293335,0
3.9013352,-0.17626452,1.4498444,0.84746391,-0.29260051,0.44293335,0
3.6818156,-0.6514194,1.5559651,0.84746391,-0.29260051,0.44293335,0
1.2601669,-1.7735882,-0.024284005,-0.050371289,-0.87493861,-0.48160666,0
3.6416388,-2.0824928,0.68747181,0.84746391,-0.29260051,0.44293335,0
3.3447545,-2.0998995,1.2440017,0.84746391,-0.29260051,0.44293335,0
-2.7084789,0.910007,-3.0844152,0.41345793,-0.15951264,-0.89644206,0
3.3871083,-0.54438877,2.1905322,0.84746391,-0.29260051,0.44293335,0
-3.1792889,0.89870977,-2.3540897,-0.84746391,0.29260051,-0.44293335,0
3.8092284,-0.24185967,1.5827396,0.84746391,-0.29260051,0.44293335,0
3.5708251,-0.43918252,1.9085257,0.84746391,-0.29260051,0.44293335,0
0.28746545,-0.41188478,1.8409352,-0.47477144,-0.044499218,0.87898344,0
-2.7647307,2.4566257,-2.118108,-0.84746391,0.29260051,-0.44293335,0
2.3729777,-2.40558,1.5427303,-0.33792362,-0.9408406,0.025032282,0
-3.1861563,2.1224678,-1.5325385,-0.84746391,0.29260051,-0.44293335,0
1.3387405,-0.86749125,2.3826375,-0.48814487,-0.10163975,0.86682403,0
3.3218701,-1.2856717,1.8256627,0.84746391,-0.29260051,0.44293335,0
2.6146059,-1.8324839,0.16061497,0.14808065,-0.67095989,-0.72655678,0
-3.580528,0.09467268,-2.1175432,-0.84746391,0.29260051,-0.44293335,0
-3.2609477,1.1691763,-2.0191822,-0.84746391,0.29260051,-0.44293335,0
-3.0115738,-0.18415546,-0.31179118,-0.51820278,-0.63704866,0.5706442,0
-3.9282203,0.57308912,-1.1362634,-0.84746391,0.29260051,-0.44293335,0
-2.6269832,2.1101732,-2.6105256,-0.84746391,0.29260051,-0.44293335,0
0.60274667,0.74589795,1.4981856,-0.13837188,0.683779,0.7164492,0
3.4234123,-1.9737809,1.1768193,0.84746391,-0.29260051,0.44293335,0
-2.6335874,2.1199203,-2.5914509,-0.84746391,0.29260051,-0.44293335,0
-3.3112838,-0.23057914,-2.3464808,-0.073009491,-0.8906945,-0.44870138,0
0.66603494,1.2239221,0.78419197,0.13121583,0.92394984,0.35930359,0
-0.25044882,0.88276029,-1.706476,0.52591926,0.34927732,-0.77550912,0
3.6457775,-0.26908946,1.8774827,0.84746391,-0.29260051,0.44293335,0
2.2150064,-1.991183,2.4171581,-0.51791954,-0.63879085,0.56895131,0
-3.6970482,1.7735722,-0.7855292,-0.84746391,0.29260051,-0.44293335,0
-1.5815299,1.1645107,-2.4670954,0.51276827,0.2352666,-0.82566231,0
0.86792338,0.93773162,1.3015854,-0.0076421499,0.82756919,0.5613116,0
3.6691275,-0.33739853,1.7876819,0.84746391,-0.29260051,0.44293335,0
2.660888,-1.1075684,-0.23999864,0.37686515,-0.25602156,-0.89018291,0
3.9065969,-0.78976202,1.034502,0.84746391,-0.29260051,0.44293335,0
2.0479269,0.80322909,0.31338167,0.43910488,0.85526454,-0.27515352,0
-2.9371219,1.0165091,-2.7396092,-0.84746391,0.29260051,-0.44293335,0
-0.15759277,-0.22452104,1.6096299,-0.46952754,-0.02384308,0.88259584,0
4.156374,-0.34294677,0.78243566,0.52836275,0.54564637,-0.6504634,0
4.0348907,-0.32374144,1.0968895,0.84746391,-0.29260051,0.44293335,0
-3.2394149,0.11657572,-2.7557259,-0.84746391,0.29260051,-0.44293335,0
1.4148339,-1.0665683,-0.72543377,0.27102548,-0.47895861,-0.83495134,0
-3.1017957,0.58390427,-2.7103162,-0.84746391,0.29260051,-0.44293335,0
-4.0398264,0.54433298,-0.9417243,-0.84746391,0.29260051,-0.44293335,0
-4.0072656,0.64529181,-0.93733001,-0.84746391,0.29260051,-0.44293335,0
-2.8615863,2.4672842,-1.9257534,-0.84746391,0.29260051,-0.44293335,0
2.4788327,-0.87065268,2.9709649,-0.42170531,0.13573655,0.89651561,0
-3.5353119,-0.026193619,-2.2838991,-0.84746391,0.29260051,-0.44293335,0
-3.0699708,0.99881911,-2.4971156,-0.84746391,0.29260051,-0.44293335,0
0.57384217,-1.2920759,1.6883012,-0.52828002,-0.54690123,0.64947611,0
-2.758997,0.73695707,-3.0647969,0.37045044,-0.27165794,-0.88823891,0
-2.1724637,2.2573543,-0.85520172,0.17903891,0.94303477,0.28041101,0
-3.0452363,0.63839173,-2.782537,-0.84746391,0.29260051,-0.44293335,0
-2.218941,0.0014231205,-2.5024505,0.2095927,-0.58216637,-0.78559101,0
3.3920391,-0.15309978,2.4395826,0.84746391,-0.29260051,0.44293335,0
3.5438182,0.35986924,1.4864702,0.35328373,0.93364275,-0.059175611,0
2.764472,-2.4633005,2.1141937,0.84746391,-0.29260051,0.44293335,0
0.69100875,-1.5799447,-0.31653172,-0.052153319,-0.87623501,-0.4790535,0
-3.6473432,1.5820491,-1.0071492,-0.84746391,0.29260051,-0.44293335,0
2.6732888,-0.31392574,2.8439426,-0.26135224,0.49628276,0.82788789,0
3.6904583,-1.1053138,1.2395874,0.84746391,-0.29260051,0.44293335,0
-4.1713142,0.34834075,-0.81962013,-0.84746391,0.29260051,-0.44293335,0
-0.11340511,0.032433271,1.6148682,-0.42005926,0.14055097,0.89654648,0
-3.7114139,1.3905795,-1.011047,-0.84746391,0.29260051,-0.44293335,0
3.1405673,-1.2689404,2.1836021,0.84746391,-0.29260051,0.44293335,0
-3.4309318,-0.16276646,-2.4598634,-0.055903822,-0.87893212,-0.47365928,0
-1.668234,1.1506844,-2.5240769,0.50845295,0.2075817,-0.83569467,0
3.1035788,-0.29010582,2.9009874,0.84746391,-0.29260051,0.44293335,0
-3.4401717,-0.38010001,-1.2870088,-0.38707066,-0.91160744,0.13837659,0
-3.7989004,1.8051734,-0.56977999,-0.84746391,0.29260051,-0.44293335,0
1.0610335,-1.952692,0.76681268,-0.31535986,-0.94868553,-0.023321271,0
-1.208298,-0.094426841,1.0346999,-0.50154305,-0.16790831,0.84868211,0
-3.5126843,1.2509565,-1.483511,-0.84746391,0.29260051,-0.44293335,0
-4.061007,-0.052499056,-1.2954652,-0.84746391,0.29260051,-0.44293335,0
-3.2434506,1.4046206,-1.8971252,-0.84746391,0.29260051,-0.44293335,0
-3.7558839,0.065148354,-1.8015389,-0.84746391,0.29260051,-0.44293335,0
-3.5873032,1.5746191,-1.1269325,-0.84746391,0.29260051,-0.44293335,0
-3.2643762,0.23072577,-2.6325603,-0.84746391,0.29260051,-0.44293335,0
-3.5188987,1.7896409,-1.1157675,-0.84746391,0.29260051,-0.44293335,0
-3.4789171,1.3290484,-1.4965302,-0.84746391,0.29260051,-0.44293335,0
2.5161474,-2.4371302,1.3132379,-0.25881225,-0.95623422,-0.13650036,0
3.8521891,-0.1437943,1.5653257,0.84746391,-0.29260051,0.44293335,0
3.458533,-0.15998697,2.3078098,0.84746391,-0.29260051,0.44293335,0
-3.5526552,1.2743506,-1.39158,-0.84746391,0.29260051,-0.44293335,0
-3.6362348,2.1253567,-0.66949588,-0.84746391,0.29260051,-0.44293335,0
1.0820612,-0.70128012,2.2553949,-0.47704852,-0.053745598,0.87723207,0
2.7047155,-2.3545902,2.3003397,0.84746391,-0.29260051,0.44293335,0
-0.061036944,-0.72203946,1.566205,-0.52276659,-0.31491548,0.79217637,0
-2.9535501,1.9011526,-2.1237838,-0.84746391,0.29260051,-0.44293335,0
-2.3003623,0.76845044,0.47470689,-0.42392868,0.12917697,0.8964361,0
-3.2624993,2.4659066,-1.1595968,-0.84746391,0.29260051,-0.44293335,0
-3.6904485,-0.23423195,-2.1245065,-0.84746391,0.29260051,-0.44293335,0
3.7598009,0.1225822,1.9180586,0.84746391,-0.29260051,0.44293335,0
2.3883905,-0.46230984,-0.43898749,0.48213667,0.075081557,-0.87287289,0
-0.70947468,-1.1925366,0.56965089,-0.47298312,-0.79502434,0.37976718,0
2.8960261,-1.3823321,2.5765755,0.84746391,-0.29260051,0.44293335,0
1.8052293,-1.7612504,-0.039076343,0.057770848,-0.77859038,-0.62486756,0
0.86928719,-1.8157041,1.1946429,-0.43580055,-0.8599121,0.26576126,0
3.742393,-0.2057004,1.7345026,0.84746391,-0.29260051,0.44293335,0
-3.1402202,2.2666535,-1.5251795,-0.84746391,0.29260051,-0.44293335,0
3.1342165,-1.9716916,1.7315176,0.84746391,-0.29260051,0.44293335,0
-0.40096831,1.0601568,-1.7201021,0.53037679,0.43135622,-0.72981662,0
-0.94503212,-0.14075243,-2.0175953,0.3040852,-0.41635031,-0.85684574,0
-3.5174551,0.92575359,-1.6892107,-0.84746391,0.29260051,-0.44293335,0
-3.6719055,0.37083459,-1.7602788,-0.84746391,0.29260051,-0.44293335,0
-3.2166164,0.94381785,-2.2528722,-0.84746391,0.29260051,-0.44293335,0
-3.1621459,1.2509339,-2.1542106,-0.84746391,0.29260051,-0.44293335,0
2.8123932,-2.4108582,2.0571496,0.84746391,-0.29260051,0.44293335,0
-0.5205943,-1.4033334,-0.13275635,-0.29657042,-0.95298892,-0.062113881,0
-4.1776447,0.60849738,-0.63564897,-0.84746391,0.29260051,-0.44293335,0
3.3450334,-0.63903594,2.2085104,0.84746391,-0.29260051,0.44293335,0
-0.62573934,-0.9911676,-1.2183158,0.023469567,-0.81291288,-0.58191222,0
3.3796101,-0.44119716,2.273046,0.84746391,-0.29260051,0.44293335,0
3.6867609,-0.63936853,1.5544634,0.84746391,-0.29260051,0.44293335,0
-3.3820467,0.78626597,-0.082131028,-0.48485273,-0.086890161,0.87026888,0
-3.517312,0.189008,-0.39614129,-0.53041905,-0.5004648,0.68424451,0
0.24270499,0.1134541,-1.5650485,0.45600057,-0.025940329,-0.88960141,0
-3.0519538,0.97403932,-2.5479565,-0.84746391,0.29260051,-0.44293335,0
-3.7053008,0.41946149,-1.6642611,-0.84746391,0.29260051,-0.44293335,0
0.37711382,0.73352993,-1.3456937,0.52886522,0.39322382,-0.75211477,0
-2.6786077,-0.52670097,-1.8420876,-0.12932383,-0.92303777,-0.36232108,0
-2.8575361,1.2699232,-2.7244761,-0.84746391,0.29260051,-0.44293335,0
2.7610726,0.19894755,0.1069386,0.52485013,0.58695531,-0.6164543,0
-2.6862082,0.96775055,0.26206863,-0.41025877,0.168511,0.89626551,0
-3.9986851,1.1066599,-0.64896786,-0.84746391,0.29260051,-0.44293335,0
-2.1265168,-0.69754976,-0.15912151,-0.47500256,-0.79050696,0.3866151,0
-0.83406985,0.4102087,-2.1237421,0.44257516,-0.071317732,-0.89389098,0
2.9925785,-2.0927479,0.48938745,0.093791306,-0.73872441,-0.66744995,0
-0.53892821,1.3049217,0.72438681,-0.06680429,0.76896405,0.63579202,0
-4.0660658,0.0021247864,-1.1148973,-0.48454115,-0.76720411,0.42025912,0
3.7000833,0.22692823,2.1012475,0.84746391,-0.29260051,0.44293335,0
-3.5892487,-0.089704752,-2.2226572,-0.84746391,0.29260051,-0.44293335,0
-1.5410485,0.13000807,0.87786645,-0.48770797,-0.099653423,0.86730045,0
-2.1194603,-0.43494314,0.21441126,-0.52374017,-0.59698427,0.60770553,0
-3.0759931,0.82834184,0.084819078,-0.4621774,0.0037781596,0.88677943,0
0.66778338,-1.4537588,-0.51960468,0.015161693,-0.82069874,-0.57116002,0
-3.300144,0.7416296,-2.2266235,-0.84746391,0.29260051,-0.44293335,0
-3.2584867,2.109262,-1.4028728,-0.84746391,0.29260051,-0.44293335,0
0.0081315041,1.3103313,-1.1468661,0.5051409,0.7010178,-0.50339514,0
-3.024302,0.63083696,-2.8275814,-0.84746391,0.29260051,-0.44293335,0
-0.71655327,1.7367779,-0.037204862,0.16180217,0.93705273,0.30943859,0
-2.7208357,1.1539855,-3.0626132,-0.84746391,0.29260051,-0.44293335,0
-3.1490519,-0.26159644,-2.3097358,-0.056853801,-0.87960845,-0.47228867,0
2.5714202,-0.16409254,2.7162213,-0.22375923,0.55974418,0.79788363,0
-3.5289314,0.98884749,-1.6255739,-0.84746391,0.29260051,-0.44293335,0
-2.7047305,1.5056119,-2.8611436,-0.84746391,0.29260051,-0.44293335,0
-1.3263726,1.5190029,-2.1083968,0.5295434,0.52453423,-0.66666883,0
-3.3280635,2.2855501,-0.75499839,-0.058477938,0.7778458,0.62572861,0
-0.68302763,0.43149126,-2.0488424,0.45572639,-0.026903659,-0.88971323,0
-2.9982431,2.018585,-1.9606974,-0.84746391,0.29260051,-0.44293335,0
2.9284239,-1.890413,2.1789522,0.84746391,-0.29260051,0.44293335,0
3.2035871,-0.3544302,2.6671491,0.84746391,-0.29260051,0.44293335,0
1.5566084,-1.6764131,2.1621993,-0.52577472,-0.57778054,0.62428403,0
-3.1425917,1.0356615,-2.3338318,-0.84746391,0.29260051,-0.44293335,0
2.9316287,0.56705999,1.1136518,0.36581939,0.92652941,-0.087859035,0
3.1100781,-0.30932617,2.8758554,0.84746391,-0.29260051,0.44293335,0
3.2735834,-1.0198703,2.093637,0.84746391,-0.29260051,0.44293335,0
-1.8545624,2.156929,-0.72144783,0.18869004,0.94592619,0.2638557,0
2.6698713,-2.2640827,0.71939093,-0.05271709,-0.87664312,-0.47824442,0
-0.59697032,-1.3548503,0.24086201,-0.39640105,-0.90377891,0.16139996,0
-3.5927546,0.17325234,-2.0422411,-0.84746391,0.29260051,-0.44293335,0
-3.1454747,1.7040184,-1.8868012,-0.84746391,0.29260051,-0.44293335,0
1.1086483,-1.8731765,0.24523818,-0.16274729,-0.93740749,-0.30786449,0
-1.0593338,0.65476692,1.0448215,-0.35223919,0.31429285,0.88155973,0
-2.7963846,2.2864237,-2.1699798,-0.84746391,0.29260051,-0.44293335,0
-1.390637,1.8316666,-0.067954838,0.058543414,0.88080484,0.46984613,0
-2.9824929,1.3377433,-2.4405947,-0.84746391,0.29260051,-0.44293335,0
2.9267178,-1.5909086,0.066107035,0.27030271,-0.48026785,-0.83443344,0
3.8103921,-0.35235333,1.5075219,0.84746391,-0.29260051,0.44293335,0
3.034492,-1.0559001,2.5272896,0.84746391,-0.29260051,0.44293335,0
2.122297,0.500848,-0.14209509,0.51707113,0.64387649,-0.56396872,0
0.19722188,-0.52838159,-1.4238515,0.30601823,-0.412516,-0.85801125,0
-0.71797287,1.0883211,-1.9299314,0.52798611,0.37799048,-0.76049566,0
-1.4567491,1.4522548,-2.2551413,0.5307377,0.44961357,-0.71844637,0
-2.0402112,1.0022314,-2.757694,0.47249037,0.035408884,-0.88062429,0
1.8931702,0.82642078,0.14737654,0.45540684,0.82947564,-0.32338017,0
2.6000891,-1.4878221,3.007195,-0.51001698,-0.21730787,0.83226204,0
-1.4356065,-0.29596615,-2.0727153,0.20005578,-0.59682763,-0.77702922,0
-3.3224413,0.89726257,-2.0811517,-0.84746391,0.29260051,-0.44293335,0
4.139997,-0.58682466,0.72199798,0.84746391,-0.29260051,0.44293335,0
3.1950157,-1.7552309,1.7581832,0.84746391,-0.29260051,0.44293335,0
0.41601324,-0.70111728,-1.2591138,0.27734214,-0.46741152,-0.83940911,0
-3.3590748,0.37998629,-2.3527725,-0.84746391,0.29260051,-0.44293335,0
-3.3053422,1.8884823,-1.459071,-0.84746391,0.29260051,-0.44293335,0
-2.9954898,1.0322721,-2.6175208,-0.84746391,0.29260051,-0.44293335,0
3.3067954,-1.2564757,1.8737915,0.84746391,-0.29260051,0.44293335,0
-3.2946372,2.1867461,-1.2825201,-0.84746391,0.29260051,-0.44293335,0
-3.3811316,1.4091388,-0.15260863,-0.36407548,0.28686878,0.88608992,0
-2.5694389,2.4344246,-1.963866,0.41117066,0.88955998,-0.19905162,0
-3.9892113,0.29053259,-1.2062256,-0.84746391,0.29260051,-0.44293335,0
-0.38770932,1.1919084,0.87368846,-0.094439507,0.73797041,0.66819227,0
1.9373922,-2.248858,1.4237231,-0.36406779,-0.92759442,0.08380425,0
-2.7349908,2.0138683,-2.4674933,-0.84746391,0.29260051,-0.44293335,0
-3.436698,1.8752875,-1.2164638,-0.84746391,0.29260051,-0.44293335,0
-2.8625546,0.55520582,0.18324494,-0.49186224,-0.11893469,0.86251152,0
2.7305841,-2.21294,0.62902677,-0.010243118,-0.84323817,-0.53744256,0
3.620008,-1.3952026,1.1828802,0.84746391,-0.29260051,0.44293335,0
-4.0170197,-0.14255905,-1.4070418,-0.4261367,-0.87253588,0.23893201,0
2.604043,-0.89551258,3.0335135,-0.41794425,0.14668551,0.89655221,0
-2.1626494,0.98172367,0.4863984,-0.3657257,0.28296202,0.8866663,0
3.1484473,-0.82911348,2.4590735,0.84746391,-0.29260051,0.44293335,0
-2.7188945,1.1803024,-3.0489419,-0.84746391,0.29260051,-0.44293335,0
1.1492457,0.83470464,1.4572664,-0.010780394,0.82472223,0.56543529,0
0.44853783,0.19025218,-1.4542395,0.47963643,0.064475954,-0.87509531,0
3.3140669,-2.0812702,1.315022,0.84746391,-0.29260051,0.44293335,0
2.3640666,-1.6636844,2.786757,-0.52826685,-0.38257575,0.75800395,0
0.00015556812,-0.66658938,-1.4107819,0.24287724,-0.52821445,-0.81363386,0
3.9302025,-0.44679284,1.2159021,0.84746391,-0.29260051,0.44293335,0
-4.0832901,-0.049072504,-1.2505665,-0.84746391,0.29260051,-0.44293335,0
2.9113481,-2.3422956,1.9131112,0.84746391,-0.29260051,0.44293335,0
0.57410097,1.3658789,0.3304199,0.25096637,0.95608091,0.1514107,0
1.3166412,0.97322357,1.1880523,0.11093697,0.91357398,0.3912487,0
-3.3274941,1.9794188,-1.3566145,-0.84746391,0.29260051,-0.44293335,0
3.2740698,-1.8467345,1.5464822,0.84746391,-0.29260051,0.44293335,0
1.2598219,1.1236207,0.092620134,0.39925319,0.90121448,-0.16855097,0
3.8284812,-1.2569487,0.87533855,0.84746391,-0.29260051,0.44293335,0
2.3137155,-0.037425995,2.5544107,-0.21074206,0.58037627,0.78660738,0
-0.21444094,1.1442517,-1.5199612,0.52923697,0.53074735,-0.6619783,0
2.3463991,0.16044241,-0.25378048,0.5308488,0.46376562,-0.70931017,0
0.96122873,-1.9050164,0.97583199,-0.37853518,-0.91806233,0.11778152,0
1.6774825,-2.1605978,0.9929378,-0.29050404,-0.9539789,-0.074374676,0
2.5140631,-2.4514945,1.6790209,-0.35311449,-0.93373096,0.058793545,0
2.0350368,-1.4013726,-0.32586089,0.2322039,-0.54600108,-0.80496228,0
-2.9056773,0.73509812,-2.9856715,-0.84746391,0.29260051,-0.44293335,0
-3.4016252,0.81575894,-1.98349,-0.84746391,0.29260051,-0.44293335,0
