-1.9949933,0.79754996,-1.5549589,-0.74928212,0.64140058,0.16486758,0
-0.35453698,-0.7253741,2.4214051,0.34309998,0.16303277,0.92504191,0
0.45965338,0.78191245,-2.4703574,-0.34309998,-0.16303277,-0.92504191,0
-1.476557,-0.66372991,0.66463643,-0.8437469,-0.37927425,0.37979221,0
-0.095783234,-1.0428956,-1.942734,-0.34309998,-0.16303277,-0.92504191,0
1.0491593,0.38550377,1.7049859,0.34309998,0.16303277,0.92504191,0
-1.6054571,1.1562428,-1.6892922,-0.53999519,0.84004557,0.052232742,0
0.35257193,-0.44353449,2.1094644,0.34309998,0.16303277,0.92504191,0
0.98387229,0.40215588,1.7262661,0.34309998,0.16303277,0.92504191,0
0.34621382,1.7173436,-0.19881898,0.1557129,0.96132302,-0.22718132,0
-0.76532722,1.4659348,-1.6672943,-0.13032275,0.98355913,-0.12500906,0
0.59902,1.8419375,0.50173753,0.1521318,0.96217382,-0.22600305,0
1.8793943,0.33739269,0.072963238,0.92350101,0.12131098,-0.36390883,0
-1.4885138,-0.35723424,-1.5470107,-0.34309998,-0.16303277,-0.92504191,0
1.6945001,-0.50789136,-0.19135988,0.90524077,-0.32018107,-0.27932596,0
-2.3025737,-0.39520097,-1.2383828,-0.34309998,-0.16303277,-0.92504191,0
-0.073650956,1.1948137,-2.345325,-0.34309998,-0.16303277,-0.92504191,0
-1.4359418,-1.1789534,-1.4216868,-0.34309998,-0.16303277,-0.92504191,0
1.1581566,0.25856161,1.6869311,0.34309998,0.16303277,0.92504191,0
-2.0154877,-0.93798137,-1.2492018,-0.34309998,-0.16303277,-0.92504191,0
0.41314399,1.1311252,1.8094742,0.34309998,0.16303277,0.92504191,0
-0.43444633,1.7154794,1.4208527,-0.5315516,0.84565824,0.048111677,0
0.51954055,0.62397599,-2.4647346,-0.34309998,-0.16303277,-0.92504191,0
-0.68417197,0.30842805,2.3614664,0.34309998,0.16303277,0.92504191,0
-0.75230902,1.5584596,-0.71158582,-0.30004525,0.95224774,-0.056540132,0
-1.6033081,-1.4828775,-1.3060458,-0.34309998,-0.16303277,-0.92504191,0
-0.070802927,1.4745936,-1.5064194,0.19037622,0.95231217,-0.23844992,0
0.32348803,-0.052640915,2.0513592,0.34309998,0.16303277,0.92504191,0
-0.049148858,-0.013762951,-2.1414089,-0.34309998,-0.16303277,-0.92504191,0
-1.8419352,0.40031314,-1.5494387,-0.34309998,-0.16303277,-0.92504191,0
-0.40480256,-1.2571725,1.6445035,-0.46215087,-0.82807142,0.31735507,0
-0.10160202,0.16446269,2.170763,0.34309998,0.16303277,0.92504191,0
1.6883292,0.00059461594,1.5357542,0.34309998,0.16303277,0.92504191,0
0.40255857,1.1162566,1.8160208,0.34309998,0.16303277,0.92504191,0
-1.5210023,-1.1312195,-0.024380505,-0.72625089,-0.57851177,0.37132707,0
-0.97118765,1.4756026,-0.4964571,-0.4467631,0.89461619,0.0080348849,0
-1.4863379,-0.37361312,-1.5449309,-0.34309998,-0.16303277,-0.92504191,0
1.4134988,0.44606277,-1.0003738,0.87980247,0.28914791,-0.37728116,0
0.64491063,-0.70432615,2.0469983,0.34309998,0.16303277,0.92504191,0
-1.303157,1.0832901,0.46503949,-0.77596748,0.60414696,0.18133092,0
1.9256194,0.93550134,1.2829713,0.34309998,0.16303277,0.92504191,0
0.2398212,1.9602067,1.1788868,-0.15555108,0.9810856,-0.1152159,0
-0.54424381,0.80010843,2.2229111,0.34309998,0.16303277,0.92504191,0
0.52865303,-1.6776292,-1.0263977,0.50629836,-0.86160928,-0.035934031,0
1.182812,-1.3430752,0.3588773,0.57417142,-0.81580693,-0.069180608,0
-1.2276828,0.85715818,1.2764318,-0.87784332,0.40602636,0.2540344,0
-1.5481632,-0.88136989,0.26750606,-0.80086738,-0.46382153,0.37878901,0
-0.72135985,-1.7675282,-0.31192049,-0.25061464,-0.93323207,0.25742978,0
-0.5915314,0.92764831,-2.1061559,-0.34309998,-0.16303277,-0.92504191,0
-0.079052806,-0.17887402,-2.1012177,-0.34309998,-0.16303277,-0.92504191,0
-0.056231141,-0.86481977,2.3353391,0.34309998,0.16303277,0.92504191,0
1.33004,0.39888954,1.5984476,0.34309998,0.16303277,0.92504191,0
-2.1190386,0.25151396,-0.89506423,-0.91404676,0.28476974,0.28883302,0
-1.7942016,-1.170077,-0.62463152,-0.75388318,-0.5396648,0.37472934,0
-1.8820078,0.69512594,-0.77833593,-0.82989454,0.51388878,0.21724004,0
-2.1323495,-0.2035284,-0.71750683,-0.93841493,0.016780734,0.34510261,0
0.77740169,1.994065,1.5222826,0.34309998,0.16303277,0.92504191,0
0.35871029,0.57886231,-2.397131,-0.34309998,-0.16303277,-0.92504191,0
-0.70384192,1.47535,-1.6511021,-0.10256189,0.98543578,-0.13563633,0
1.3342638,0.53489327,-1.1071129,0.85637432,0.3502903,-0.37936753,0
1.1560686,-0.58575296,-1.802963,0.92855525,-0.20739517,-0.30785102,0
1.3198838,0.20071951,-1.3810571,0.90948868,0.18847701,-0.37054917,0
0.95673764,0.023875237,1.803,0.34309998,0.16303277,0.92504191,0
1.0455773,0.79490626,1.6341598,0.34309998,0.16303277,0.92504191,0
-1.8502419,0.51605141,-0.33374476,-0.88878709,0.3749508,0.26357037,0
-1.6537544,-1.6380134,-1.2120414,-0.56158483,-0.75381702,0.3411485,0
1.2867768,-0.48364615,1.7700351,0.34309998,0.16303277,0.92504191,0
-0.58871281,1.6553659,0.66506875,-0.47033548,0.88228405,0.018951535,0
-0.21333489,-0.78803301,2.3800762,0.34309998,0.16303277,0.92504191,0
0.74712765,0.94267213,1.7188127,0.34309998,0.16303277,0.92504191,0
-0.043874502,1.2703398,-2.2036366,0.33692938,0.89792228,-0.28322092,0
-0.67589772,-0.29775584,2.4652333,0.34309998,0.16303277,0.92504191,0
-0.81271464,-0.23411989,-1.8193642,-0.34309998,-0.16303277,-0.92504191,0
-0.46890152,1.7120199,0.51527929,-0.3845762,0.92287612,-0.020010889,0
-1.9775958,-0.42228699,-1.3541437,-0.34309998,-0.16303277,-0.92504191,0
0.30870834,-0.3051033,2.1013358,0.34309998,0.16303277,0.92504191,0
1.8820425,-0.10748255,0.083899021,0.93707252,-0.12717354,-0.32514876,0
-0.25860375,-1.3668332,1.5346653,-0.36501747,-0.88427657,0.29123393,0
-0.52114224,-0.25419426,-1.9239709,-0.34309998,-0.16303277,-0.92504191,0
0.7693063,1.7268572,1.5723791,0.34309998,0.16303277,0.92504191,0
1.282331,0.29671597,1.6341503,0.34309998,0.16303277,0.92504191,0
0.06653294,-1.0751114,2.3268681,0.34309998,0.16303277,0.92504191,0
0.2065717,1.6344566,-0.64449906,0.16878927,0.95808959,-0.2314615,0
-0.24705207,1.8117503,0.92222184,-0.3497197,0.93618959,-0.035285652,0
0.56681848,-1.663646,-0.80711031,0.48532271,-0.87394899,-0.02597928,0
-0.34490502,1.4690499,2.0310793,0.34309998,0.16303277,0.92504191,0
1.0524863,0.71176463,-1.5204892,0.78362983,0.49330398,-0.37759167,0
0.78303552,1.5344033,-0.35989109,0.41100121,0.85948288,-0.30391961,0
0.96487647,0.53425932,1.7100291,0.34309998,0.16303277,0.92504191,0
0.83257699,-1.5363567,0.5737859,0.36479843,-0.93064344,0.028715432,0
-0.55548692,1.6303838,1.4494181,-0.59503615,0.79973197,0.079752564,0
-1.1938555,-1.1089816,0.63825458,-0.68220305,-0.63370383,0.36471689,0
-1.8516949,-0.9259882,-0.43500185,-0.82506257,-0.41839701,0.37975734,0
1.4922019,-0.81745553,-0.4093895,0.8526867,-0.46711737,-0.23393685,0
-0.24247459,-0.052278757,2.2612119,0.34309998,0.16303277,0.92504191,0
0.76778758,-0.23317981,-2.4057417,-0.34309998,-0.16303277,-0.92504191,0
-0.44393563,0.82812881,2.1807683,0.34309998,0.16303277,0.92504191,0
-2.3107443,-0.30831599,-1.2506652,-0.34309998,-0.16303277,-0.92504191,0
1.6072333,-1.0308492,0.72097528,0.71249783,-0.6869055,-0.14320421,0
0.55486941,0.42916417,1.8806242,0.34309998,0.16303277,0.92504191,0
-0.86801577,-1.3584665,-1.6006938,-0.34309998,-0.16303277,-0.92504191,0
-0.66486257,1.3297068,-2.1498172,-0.34309998,-0.16303277,-0.92504191,0
-1.7680681,0.88900256,-1.6629646,-0.34309998,-0.16303277,-0.92504191,0
-1.4971012,1.0733243,-0.3778398,-0.72056246,0.67744064,0.14786363,0
-0.33379143,-0.56794882,2.3859653,0.34309998,0.16303277,0.92504191,0
0.18556261,1.4279144,-1.4275171,0.30680805,0.91135323,-0.274416,0
1.6242437,0.26474953,1.5129678,0.34309998,0.16303277,0.92504191,0
0.65660775,-0.90622824,-2.2458842,-0.34309998,-0.16303277,-0.92504191,0
0.004422307,-0.52635777,-2.0709369,-0.34309998,-0.16303277,-0.92504191,0
0.63450015,-1.6263702,-0.76347423,0.5103398,-0.85913855,-0.03786844,0
-0.42271876,1.6852318,1.8858848,-0.60901093,0.78838301,0.086935997,0
-0.82908106,1.3829716,-2.0982959,-0.34309998,-0.16303277,-0.92504191,0
-2.1287239,-0.73476386,-0.89040375,-0.88824981,-0.26392972,0.37596974,0
-0.76078129,1.2482753,-2.099889,-0.34309998,-0.16303277,-0.92504191,0
0.51319903,-0.94396627,2.1380851,0.34309998,0.16303277,0.92504191,0
0.4912985,-1.0048274,2.1569345,0.34309998,0.16303277,0.92504191,0
1.5235385,-1.1963441,1.4876699,0.53654337,-0.84235746,-0.050545037,0
-0.85275173,1.062513,2.2422717,-0.87054724,0.42503428,0.24797827,0
0.71468306,1.1587565,1.6927627,0.34309998,0.16303277,0.92504191,0
-1.5769711,-0.24404073,-1.5341513,-0.34309998,-0.16303277,-0.92504191,0
-0.6885612,-1.7982267,-0.39567187,-0.2179085,-0.94413853,0.24722114,0
-1.8935363,0.18833375,-1.4929398,-0.34309998,-0.16303277,-0.92504191,0
0.64404702,-1.433507,-2.1103647,0.75326198,-0.63609266,-0.16727918,0
-2.0248294,-1.2275196,-1.1730663,-0.76885599,-0.51698166,0.37628508,0
1.161754,1.7743964,1.4184407,0.34309998,0.16303277,0.92504191,0
-1.4186758,-0.66326815,0.79323798,-0.8379035,-0.39195016,0.37985891,0
-1.1954582,0.94706237,1.2318718,-0.85638911,0.45884469,0.23676807,0
1.9367799,1.2231784,0.98808199,0.75815248,0.53332281,-0.37519521,0
1.7739649,-0.46004176,0.011478066,0.90698761,-0.31358543,-0.28113616,0
0.36940044,1.1349604,-2.0037212,0.51335704,0.79218048,-0.33002201,0
-0.80262971,-0.26360905,2.5062203,0.34309998,0.16303277,0.92504191,0
-0.24439228,0.30870533,2.1983023,0.34309998,0.16303277,0.92504191,0
1.8001602,-0.75556684,0.61020613,0.82105416,-0.53040302,-0.21105063,0
-1.5662252,1.1002939,-0.88482261,-0.66432726,0.73834258,0.11627227,0
-1.692561,0.40951431,0.29608357,-0.92011154,0.25637284,0.29608715,0
1.755982,0.80782199,0.1001085,0.84132147,0.38458809,-0.3798292,0
0.64365447,-0.81301153,-2.2575085,-0.34309998,-0.16303277,-0.92504191,0
-0.55089879,-1.9775876,-1.1386582,-0.0080224872,-0.98427713,0.1764482,0
-0.49477518,0.52487183,-2.0710559,-0.34309998,-0.16303277,-0.92504191,0
1.2652712,0.64276958,1.579488,0.34309998,0.16303277,0.92504191,0
1.7599041,0.18670726,-0.27424836,0.93104577,0.07123521,-0.35788167,0
-1.0807794,-0.97013819,1.0860482,-0.71084487,-0.59867787,0.36916712,0
2.093173,-0.041848183,0.66789424,0.93550444,-0.14774126,-0.32094216,0
0.34852326,-0.75523853,-2.158226,-0.34309998,-0.16303277,-0.92504191,0
0.030607283,-0.20921278,-2.1365438,-0.34309998,-0.16303277,-0.92504191,0
-1.6872234,0.7262305,-0.1193037,-0.85220879,0.46816996,0.23357409,0
-0.89219666,1.3877529,1.1210885,-0.69749069,0.70382833,0.13465554,0
0.37244928,1.6133739,-0.58632267,0.24254113,0.93604684,-0.25493133,0
0.40176249,-1.681438,0.31116164,0.19986552,-0.97494054,0.097696543,0
-1.3506559,-0.87415016,0.68927002,-0.77801418,-0.50246561,0.37712353,0
-0.84192824,1.1310687,2.1533313,-0.85115147,0.47048649,0.23277366,0
1.0550559,-0.46003729,-2.1599939,0.93836182,-0.10347006,-0.32980448,0
1.1544204,0.87467432,1.579731,0.34309998,0.16303277,0.92504191,0
1.6025032,-0.75711155,1.7011281,0.34309998,0.16303277,0.92504191,0
1.3462638,-0.89307386,-0.7902298,0.85059702,-0.47169444,-0.23235506,0
-0.46685982,-1.7003809,-1.6892232,-0.34309998,-0.16303277,-0.92504191,0
-1.0055258,0.47723144,2.2954855,-0.93851316,0.09977448,0.33051193,0
0.88726366,-1.4827454,-0.44694746,0.57577705,-0.81460559,-0.069987893,0
-0.16464746,0.81283236,2.0798755,0.34309998,0.16303277,0.92504191,0
-0.1029174,0.32234788,-2.1807034,-0.34309998,-0.16303277,-0.92504191,0
-0.32682255,-1.0871258,2.1840672,-0.52612752,-0.78247589,0.33304822,0
-1.6479293,-0.83798665,0.10460836,-0.82300901,-0.42246282,0.37971219,0
-0.20056535,-0.8218956,2.3813078,0.34309998,0.16303277,0.92504191,0
-0.77691746,0.90411806,-2.0332487,-0.34309998,-0.16303277,-0.92504191,0
-0.84115493,-0.29243076,2.444082,-0.85799211,-0.34640223,0.37928233,0
-1.5732269,-0.51796007,-1.4872634,-0.34309998,-0.16303277,-0.92504191,0
-0.13298917,-1.1050996,-1.9179711,-0.34309998,-0.16303277,-0.92504191,0
-0.81233311,0.8368535,-2.0082579,-0.34309998,-0.16303277,-0.92504191,0
2.0371633,-0.57357287,1.5075641,0.34309998,0.16303277,0.92504191,0
-0.52215111,-0.69174457,2.4776464,0.34309998,0.16303277,0.92504191,0
-1.2354118,1.1416926,0.55626559,-0.76022458,0.62660563,0.1715337,0
0.080603957,1.4444759,-1.4823288,0.26330322,0.92864382,-0.26132733,0
0.75832772,-0.17500579,-2.4124856,-0.34309998,-0.16303277,-0.92504191,0
-1.0027814,-1.3020141,0.6014055,-0.57301795,-0.74400806,0.34366027,0
-1.4996346,0.1707316,0.980272,-0.93929815,0.05842346,0.33809096,0
-0.61580384,1.3316777,-2.1683607,-0.34309998,-0.16303277,-0.92504191,0
-1.2455266,-1.4213873,-1.4495851,-0.34309998,-0.16303277,-0.92504191,0
-1.5578593,1.082233,-1.7749872,-0.34309998,-0.16303277,-0.92504191,0
-1.1076381,-1.5207438,-0.071813866,-0.49679548,-0.80430567,0.32601628,0
-1.3453507,-0.80229938,-1.5216701,-0.34309998,-0.16303277,-0.92504191,0
-2.275547,-0.60574079,-1.2113006,-0.34309998,-0.16303277,-0.92504191,0
-0.25795972,0.20476723,-2.1024749,-0.34309998,-0.16303277,-0.92504191,0
0.74679786,0.29003191,1.8339587,0.34309998,0.16303277,0.92504191,0
-0.47749397,-0.71239436,2.4647224,0.34309998,0.16303277,0.92504191,0
-2.1243267,-0.60415602,-0.79889667,-0.90680361,-0.19930679,0.37146196,0
0.97541142,-1.1881254,-1.5049661,0.80268401,-0.56236529,-0.19860393,0
0.010730267,-0.88213682,2.313555,0.34309998,0.16303277,0.92504191,0
1.4670341,-0.82145023,1.7627131,0.34309998,0.16303277,0.92504191,0
1.0642316,0.18137735,-2.0115588,0.89556551,0.24022539,-0.37450537,0
-0.71728623,1.5850687,-0.42472517,-0.33526409,0.94120824,-0.041531742,0
-0.61075246,-0.36236179,2.4524572,0.34309998,0.16303277,0.92504191,0
-1.7807162,0.077254057,0.21409726,-0.93906647,0.081439584,0.33394855,0
-0.77971876,-1.4677739,0.54788524,-0.4455536,-0.83872801,0.31307724,0
0.083574533,-1.7890198,-0.16399074,0.12906033,-0.98366362,0.12549567,0
-2.1315637,0.074869394,-1.3846576,-0.34309998,-0.16303277,-0.92504191,0
-0.035849452,1.0367979,1.9926314,0.34309998,0.16303277,0.92504191,0
1.8920441,-0.67463231,1.5792003,0.34309998,0.16303277,0.92504191,0
0.81846267,0.70246971,1.7346884,0.34309998,0.16303277,0.92504191,0
-0.30190676,-1.322668,1.6089804,-0.40173876,-0.8647303,0.30140901,0
-1.6726178,-0.14834857,-1.5155407,-0.34309998,-0.16303277,-0.92504191,0
-1.302379,1.2861615,-0.68008471,-0.57437861,0.81565213,0.069284797,0
-0.85365415,-1.8877071,-0.88319105,-0.2098648,-0.9466207,0.24467522,0
0.010086909,-0.39083862,2.2272053,0.34309998,0.16303277,0.92504191,0
-1.933099,-1.3229157,-1.1290356,-0.72754526,-0.57677144,0.37150043,0
1.7839894,-0.72821903,1.6287223,0.34309998,0.16303277,0.92504191,0
-0.8472172,0.17356026,2.4457097,0.34309998,0.16303277,0.92504191,0
-0.52862036,0.81211257,-2.109127,-0.34309998,-0.16303277,-0.92504191,0
-0.6485877,-0.67365134,-1.8027744,-0.34309998,-0.16303277,-0.92504191,0
-0.57463974,0.049592376,2.3664587,0.34309998,0.16303277,0.92504191,0
-0.47904992,-1.7276816,-1.6798904,-0.34309998,-0.16303277,-0.92504191,0
0.62798059,0.57744801,1.8273729,0.34309998,0.16303277,0.92504191,0
-1.3427795,1.296976,-1.364485,-0.47096932,0.88193953,0.019247234,0
-1.4340637,0.16437653,1.1623304,-0.93905509,0.037103117,0.34175843,0
1.8998783,-0.81850696,1.2083807,0.76485449,-0.62014991,-0.17438871,0
1.197179,-0.14971185,1.7444133,0.34309998,0.16303277,0.92504191,0
-2.0957489,0.63461399,-1.4575663,-0.81253439,0.54559642,0.20521283,0
0.94997096,-1.3941849,2.0345716,0.15450984,-0.9812023,0.1156227,0
0.56539416,0.065548062,-2.3833222,-0.34309998,-0.16303277,-0.92504191,0
-0.77835178,-1.6200473,-1.5878483,-0.34309998,-0.16303277,-0.92504191,0
-0.15467477,1.8639076,1.6581535,-0.43828315,0.89882737,0.00414747,0
-0.40633631,0.71175337,2.1873329,0.34309998,0.16303277,0.92504191,0
1.6616102,-0.43943542,-0.36605525,0.91815382,-0.26599684,-0.29366499,0
-1.7543578,-0.78654921,-0.075229406,-0.8456946,-0.37495124,0.37975273,0
-1.9341915,0.83965659,-1.4437952,-0.74013484,0.65329856,0.15937787,0
-1.5924122,-0.35834813,-1.5082781,-0.34309998,-0.16303277,-0.92504191,0
-0.6836257,0.016512632,-1.9114159,-0.34309998,-0.16303277,-0.92504191,0
1.4600159,-0.7554276,1.7536801,0.34309998,0.16303277,0.92504191,0
-1.785543,0.13289976,0.183864,-0.93779552,0.1151517,0.32753563,0
2.0919232,0.89482164,1.2284582,0.34309998,0.16303277,0.92504191,0
0.58114588,0.59339464,-2.4821942,-0.34309998,-0.16303277,-0.92504191,0
0.66050541,1.5363064,-0.51574719,0.37743175,0.87788934,-0.29471266,0
0.8928768,1.181322,-1.0421364,0.60139751,0.71836865,-0.34966758,0
-1.1685548,1.3794692,-1.3753121,-0.3838051,0.92318976,-0.020352185,0
-1.7767658,-0.28301501,0.20558465,-0.92401552,-0.11834928,0.3635776,0
0.93569452,-1.4719349,1.1955781,0.30195814,-0.95169055,0.055732489,0
-1.3938806,-0.65661693,-1.5293459,-0.34309998,-0.16303277,-0.92504191,0
1.2700853,0.23368196,-1.4844122,0.9020732,0.21731082,-0.37288052,0
-0.35525602,-0.095719576,2.310699,0.34309998,0.16303277,0.92504191,0
-0.13187164,-1.2951053,1.9111137,-0.37168986,-0.88087118,0.29310852,0
0.22805002,-0.19996464,2.1127219,0.34309998,0.16303277,0.92504191,0
-0.73187339,-1.3097763,1.0202538,-0.5121513,-0.79308057,0.32973343,0
-0.3252728,0.60612404,2.1758828,0.34309998,0.16303277,0.92504191,0
-0.99144584,-1.2431914,0.74532127,-0.59528399,-0.72405326,0.3484019,0
-1.8352623,-0.94519782,-0.42091289,-0.81871909,-0.43082157,0.37959424,0
0.49369818,-1.5218421,1.4400268,0.036382496,-0.98638928,0.16035056,0
0.965083,1.8957646,1.0143815,0.24199253,0.93623507,-0.25476104,0
-1.1905214,-1.7264826,-1.4162153,-0.34309998,-0.16303277,-0.92504191,0
-1.4646052,0.29013771,1.0474675,-0.93764102,0.11793151,0.32698846,0
1.5425,-0.46477205,-0.71423161,0.92205852,-0.2462776,-0.29858869,0
0.053523183,-1.7491693,0.13867617,0.057743788,-0.98662001,0.1524682,0
0.50504303,0.86150181,1.8229082,0.34309998,0.16303277,0.92504191,0
-0.12147141,1.6547326,-0.69281894,0.011517704,0.98401743,-0.17769876,0
-0.48734742,-0.53585422,2.437263,0.34309998,0.16303277,0.92504191,0
0.61855423,1.4225396,1.6819272,0.34309998,0.16303277,0.92504191,0
0.1690836,-1.3073277,2.2206328,-0.27570391,-0.92396343,0.26510188,0
0.8996911,1.5226597,1.5600073,0.34309998,0.16303277,0.92504191,0
1.993167,0.6355958,0.50129348,0.8936466,0.24663416,-0.37492314,0
1.8340892,-0.12393284,1.5036386,0.34309998,0.16303277,0.92504191,0
-0.50985122,-0.2630825,-1.9265924,-0.34309998,-0.16303277,-0.92504191,0
1.0980604,-0.79686499,-1.7930176,0.90425408,-0.32382709,-0.27831727,0
0.70650792,-1.378992,-2.0322125,0.76883608,-0.61450058,-0.17686111,0
-0.24489665,-1.5808113,-1.7926232,-0.34309998,-0.16303277,-0.92504191,0
1.0661337,-0.45597476,-2.1297483,0.9383316,-0.10417092,-0.32966977,0
0.1085813,-1.479714,-1.9415468,-0.34309998,-0.16303277,-0.92504191,0
0.69236636,1.4616547,-0.68719947,0.42697567,0.85012221,-0.30819482,0
-0.34463018,0.12367678,2.2680907,0.34309998,0.16303277,0.92504191,0
-0.60405099,1.4284768,-1.9769466,0.0083425641,0.984254,-0.17656279,0
-0.99892831,-0.45452309,-1.7114525,-0.34309998,-0.16303277,-0.92504191,0
1.2953146,-1.2956957,0.73803341,0.5606122,-0.82572365,-0.062403738,0
-0.97558928,-1.145218,-1.5983783,-0.34309998,-0.16303277,-0.92504191,0
0.50079477,0.69875753,1.8531665,0.34309998,0.16303277,0.92504191,0
1.79579,-0.85582936,0.88549066,0.77212977,-0.60975683,-0.1789189,0
-0.069121361,-1.9257689,-1.1820054,0.24107617,-0.96711725,0.081032634,0
1.1166624,0.76418638,1.6132084,0.34309998,0.16303277,0.92504191,0
-0.94078803,0.94699764,-1.9800259,-0.34309998,-0.16303277,-0.92504191,0
1.3299065,0.32338142,1.6118048,0.34309998,0.16303277,0.92504191,0
0.042730689,1.0454185,1.9619664,0.34309998,0.16303277,0.92504191,0
0.41134906,-1.7325321,-1.3622547,0.50982457,-0.85945529,-0.037621498,0
-1.3203049,-0.06880863,1.4353813,-0.92376947,-0.11977106,0.36373699,0
0.3541764,1.5059731,-0.97975528,0.30811495,0.91079569,-0.27480245,0
0.43241882,1.1516756,1.7987032,0.34309998,0.16303277,0.92504191,0
1.7871951,0.54105902,-0.051831841,0.89314067,0.24830008,-0.37502909,0
0.32732856,-0.070082664,-2.2711191,-0.34309998,-0.16303277,-0.92504191,0
0.87154448,1.0887842,1.6469147,0.34309998,0.16303277,0.92504191,0
-1.302882,1.3115333,-1.1067749,-0.4980582,0.86655259,0.032006562,0
1.4322813,0.49524784,-0.9178654,0.87273598,0.30879581,-0.37812302,0
-1.8624697,0.79448128,-0.96905088,-0.78863168,0.58496505,0.18940884,0
2.073786,0.16982269,1.3629619,0.34309998,0.16303277,0.92504191,0
-1.8004739,0.79815137,-0.72540462,-0.80168104,0.56402791,0.19793886,0
0.11725116,1.5740442,1.8411599,0.34309998,0.16303277,0.92504191,0
0.03393507,1.3743079,-1.7745128,0.29500836,0.91628516,-0.27090865,0
-0.98120981,-0.69084167,-1.6763744,-0.34309998,-0.16303277,-0.92504191,0
-1.6025274,-1.5041125,-0.84171438,-0.60720098,-0.71288729,0.35085407,0
-1.4347626,-0.36473569,1.0078486,-0.89447796,-0.24387495,0.37474531,0
-0.50571311,-1.5249352,0.74259681,-0.34089649,-0.8960616,0.2843644,0
2.0731034,-0.19524527,0.70237339,0.9240362,-0.2353968,-0.30123991,0
1.146858,1.397074,-0.15478204,0.56161714,0.75378966,-0.34115568,0
-0.96673828,-0.21380758,-1.7658163,-0.34309998,-0.16303277,-0.92504191,0
-0.14544475,-0.14204752,-2.0830832,-0.34309998,-0.16303277,-0.92504191,0
0.47941566,-1.6556467,0.40480947,0.22120672,-0.97114694,0.089112401,0
1.5273385,0.70136839,-0.51412171,0.84084827,0.38561597,-0.37983486,0
-1.4257644,-0.81065613,0.61278236,-0.80403858,-0.45815533,0.37896663,0
0.14356875,0.85326934,1.9584305,0.34309998,0.16303277,0.92504191,0
1.2008289,0.77315867,-1.1323687,0.78606611,0.48926458,-0.37778342,0
-0.50205618,0.44444358,2.2699471,0.34309998,0.16303277,0.92504191,0
-1.8526349,-1.231631,-0.83156675,-0.74384546,-0.5542025,0.37356859,0
1.8328081,1.3576574,0.99106216,0.70089507,0.61119217,-0.36768225,0
-0.38028681,-0.99132943,2.3117852,-0.5793072,-0.73848784,0.34502009,0
1.5520215,1.1078243,0.049550593,0.7380724,0.56233776,-0.37286112,0
-1.1222359,0.25282645,-1.7903831,-0.34309998,-0.16303277,-0.92504191,0
1.7109865,0.2069478,1.4909822,0.34309998,0.16303277,0.92504191,0
-1.1319376,-1.3780206,-1.4993584,-0.34309998,-0.16303277,-0.92504191,0
1.6145496,-0.28569198,1.6135753,0.34309998,0.16303277,0.92504191,0
0.91249776,-0.39132285,1.8925846,0.34309998,0.16303277,0.92504191,0
0.044916987,-1.6039848,0.93007457,-0.094764471,-0.97378886,0.20677251,0
-0.32390773,-1.3190813,-1.809446,-0.34309998,-0.16303277,-0.92504191,0
-1.4777435,-1.1679183,-1.4081273,-0.34309998,-0.16303277,-0.92504191,0
1.9930522,0.58128858,1.3203881,0.34309998,0.16303277,0.92504191,0
-1.6144868,-1.5285921,-0.9124279,-0.59962338,-0.72002774,0.3493019,0
1.1414208,-1.1976193,-0.76765978,0.75296432,-0.63649249,-0.16709834,0
0.8612566,0.50845885,-2.1751091,0.81244016,0.4427436,-0.37936655,0
-1.3844311,1.1454287,-0.16294074,-0.70503771,0.69542694,0.13893545,0
-1.6118989,0.5587492,-1.6626831,-0.34309998,-0.16303277,-0.92504191,0
0.45702943,1.0809733,-1.9887056,0.55653846,0.75805593,-0.34002388,0
-0.55963498,-0.51051307,-1.8645194,-0.34309998,-0.16303277,-0.92504191,0
0.2834909,1.7176607,-0.23776954,0.13114446,0.96686101,-0.21904486,0
-0.18988395,1.2550025,2.0113058,0.34309998,0.16303277,0.92504191,0
-0.86145651,-1.5396714,-1.5711905,-0.34309998,-0.16303277,-0.92504191,0
-1.5022038,0.24309468,-1.647737,-0.34309998,-0.16303277,-0.92504191,0
-1.6495143,-0.18114352,-1.51833,-0.34309998,-0.16303277,-0.92504191,0
1.6767894,0.95163083,1.37242,0.34309998,0.16303277,0.92504191,0
-0.17640257,-1.9011968,-0.77798837,0.11293083,-0.98483777,0.13168514,0
1.4941384,0.71236968,-0.57600844,0.83498234,0.39812982,-0.37986457,0
1.5352869,-1.0548474,0.47927368,0.72082752,-0.67712498,-0.14801764,0
-1.8135328,0.7765882,-0.71784914,-0.80894601,0.55179989,0.20278853,0
-0.056894541,-1.9002355,-1.8060571,-0.34309998,-0.16303277,-0.92504191,0
1.0121861,0.17487311,1.7558216,0.34309998,0.16303277,0.92504191,0
-2.1598949,0.48168969,-1.3547498,-0.85863322,0.45372355,0.23850304,0
0.52346408,-1.6215913,-1.7461557,0.63242722,-0.76824534,-0.099170268,0
-0.99047804,-1.1704683,-1.5884057,-0.34309998,-0.16303277,-0.92504191,0
1.9910641,-0.42158711,0.67559397,0.89476657,-0.35636708,-0.26906341,0
-0.43628478,-1.9261962,-0.84683061,-0.0048074126,-0.98450398,0.17529562,0
0.1015687,1.9729385,1.7558119,-0.33029145,0.94286817,-0.043668747,0
-0.28441298,-1.5653596,0.84629971,-0.24684119,-0.9345578,0.25626379,0
0.49339485,-1.638032,0.5568617,0.2001152,-0.97489929,0.097596645,0
-0.68550664,1.5533831,-1.0068321,-0.21265769,0.97273254,-0.092562735,0
-1.3630006,0.76259065,-1.7909256,-0.34309998,-0.16303277,-0.92504191,0
-0.51430202,1.6583147,-0.2675221,-0.2637791,0.96191478,-0.071695149,0
0.10592484,-1.6513858,-1.9103054,-0.34309998,-0.16303277,-0.92504191,0
0.05539012,-1.884569,-1.0866182,0.28523374,-0.95640051,0.062765658,0
-0.31005684,0.40279782,-2.1180539,-0.34309998,-0.16303277,-0.92504191,0
0.52365351,0.62726462,-2.4668396,-0.34309998,-0.16303277,-0.92504191,0
-1.8065245,-1.3586936,-1.2525589,-0.34309998,-0.16303277,-0.92504191,0
-0.46942836,1.5712693,-1.1284262,-0.082238674,0.98625374,-0.14331841,0
-0.36547497,0.87774265,-2.181205,-0.34309998,-0.16303277,-0.92504191,0
0.22796613,-0.087641239,-2.2311709,-0.34309998,-0.16303277,-0.92504191,0
-1.6504352,-0.88180232,-1.3945017,-0.34309998,-0.16303277,-0.92504191,0
0.34117901,-1.111753,2.2314594,0.34309998,0.16303277,0.92504191,0
2.0899532,0.12037039,1.3656812,0.34309998,0.16303277,0.92504191,0
0.42513308,-0.80203688,2.145735,0.34309998,0.16303277,0.92504191,0
-0.044817567,0.37075055,2.1133444,0.34309998,0.16303277,0.92504191,0
-0.48636448,1.7060523,0.8021214,-0.44521171,0.8953954,0.0073221922,0
1.2350701,-1.0674782,1.8921101,0.34309998,0.16303277,0.92504191,0
-1.5908151,0.42544192,0.59713614,-0.92392337,0.23603606,0.30108535,0
0.544572,1.4420154,-0.94311666,0.39950454,0.86597657,-0.3008,0
-1.5794433,0.35190955,0.68228447,-0.93128246,0.187433,0.31238079,0
-1.0927129,-0.41809613,1.7602265,-0.8567763,-0.34932807,0.37934709,0
0.88176477,-1.4580998,1.5570921,0.20876211,-0.97342581,0.09412986,0
-2.2940612,-0.13754177,-1.177825,-0.93856883,0.098323673,0.33078825,0
-1.8166807,0.63422167,-0.40959334,-0.86188805,0.44614556,0.24104577,0
1.7132632,-0.45491582,-0.18836248,0.91246355,-0.291572,-0.28704697,0
1.991251,-0.25414538,1.4682961,0.34309998,0.16303277,0.92504191,0
-1.1464254,1.3627627,-1.9048942,-0.27606875,0.95882809,-0.066592872,0
-1.743251,-1.4612089,-1.0072433,-0.6494993,-0.67025983,0.35902974,0
1.4346642,0.85138017,-0.54384172,0.79472071,0.47458199,-0.37840575,0
2.0009835,0.27308047,0.37070942,0.93285763,0.055992305,-0.35586721,0
-1.199051,-1.1878364,-1.5079846,-0.34309998,-0.16303277,-0.92504191,0
0.33100218,-0.20893955,-2.2480092,-0.34309998,-0.16303277,-0.92504191,0
1.0486689,-0.36163402,1.836846,0.34309998,0.16303277,0.92504191,0
-2.0314574,0.16807032,-0.55604434,-0.92870975,0.20633945,0.3080945,0
-0.9584046,1.4744468,-0.15764987,-0.50172776,0.86436665,0.033752799,0
-0.65271252,1.4518965,-1.8339537,-0.042872608,0.9865135,-0.15796524,0
1.0477591,1.1561308,1.5696869,0.34309998,0.16303277,0.92504191,0
-0.3181724,0.15842676,2.2521529,0.34309998,0.16303277,0.92504191,0
2.0290234,-0.68255353,1.5297904,0.34309998,0.16303277,0.92504191,0
0.065886721,-0.45354652,2.217561,0.34309998,0.16303277,0.92504191,0
-0.090200841,-0.074839473,2.2087097,0.34309998,0.16303277,0.92504191,0
-1.9601276,0.81996417,-1.5795619,-0.34309998,-0.16303277,-0.92504191,0
-0.40629578,-1.2688032,-1.7877494,-0.34309998,-0.16303277,-0.92504191,0
-1.6238918,-0.03380847,-1.5538002,-0.34309998,-0.16303277,-0.92504191,0
0.70679116,1.8980451,1.5653952,0.34309998,0.16303277,0.92504191,0
0.454613,-1.2115325,2.2069719,0.34309998,0.16303277,0.92504191,0
0.97989154,-1.3372138,-0.9299612,0.70542461,-0.69499052,-0.13915586,0
-1.0957826,-1.5705156,-0.17958029,-0.46968287,-0.82308269,0.31926948,0
-0.72376108,0.10222268,-1.9116355,-0.34309998,-0.16303277,-0.92504191,0
-0.61696547,1.4216554,-2.0155787,0.0090560317,0.98420179,-0.17681819,0
-0.46275645,-0.44546175,2.4122109,0.34309998,0.16303277,0.92504191,0
1.4839307,1.6866353,1.0546498,0.50295669,0.7998544,-0.32751703,0
-0.59798002,-1.5227995,-1.6718881,-0.34309998,-0.16303277,-0.92504191,0
-0.42326355,-1.6679227,-1.7111138,-0.34309998,-0.16303277,-0.92504191,0
0.48183635,-0.745085,2.1146662,0.34309998,0.16303277,0.92504191,0
-0.23430896,-1.9911456,-1.4803653,0.21399564,-0.97249031,0.092023849,0
0.29699731,-1.7962016,-1.2891668,0.44095242,-0.89751422,-0.0053690672,0
1.4991798,0.37595129,1.5397558,0.34309998,0.16303277,0.92504191,0
0.92417049,-1.4451478,-0.55012572,0.61189473,-0.78598028,-0.088429034,0
-1.418215,-0.14118201,1.1624255,-0.92131537,-0.13337561,0.36522454,0
0.61123979,-0.036564112,1.941798,0.34309998,0.16303277,0.92504191,0
-1.4752922,-1.303153,-1.3852022,-0.34309998,-0.16303277,-0.92504191,0
-1.9483774,0.54770529,-0.72170413,-0.86891425,0.42912844,0.24665105,0
0.22250402,-1.1401672,-2.043644,-0.34309998,-0.16303277,-0.92504191,0
-1.3460439,-1.5414033,-1.3911508,-0.34309998,-0.16303277,-0.92504191,0
-1.2921242,0.19031191,-1.7163535,-0.34309998,-0.16303277,-0.92504191,0
-0.85877848,0.82653069,-1.9892118,-0.34309998,-0.16303277,-0.92504191,0
0.35314286,1.2797719,1.8055309,0.34309998,0.16303277,0.92504191,0
-1.5635401,0.63099205,0.46871209,-0.89345145,0.36056688,0.26783544,0
-0.53221339,-0.42994905,-1.8888891,-0.34309998,-0.16303277,-0.92504191,0
0.20614165,1.3918704,-1.5208979,0.33527106,0.89869368,-0.28274181,0
-1.1763543,-1.7897706,-1.410316,-0.34309998,-0.16303277,-0.92504191,0
-2.1441128,-0.89889193,-1.0573859,-0.86047822,-0.34034228,0.37913635,0
-0.22198975,-1.6366636,0.62405074,-0.1727832,-0.95706213,0.23276186,0
1.3388439,-1.3000382,1.4175398,0.45946097,-0.88808918,-0.013894975,0
1.6198274,0.72309899,1.4338247,0.34309998,0.16303277,0.92504191,0
-0.51758003,-1.7479032,-1.6620353,-0.34309998,-0.16303277,-0.92504191,0
-1.5409899,1.122174,-1.7882835,-0.34309998,-0.16303277,-0.92504191,0
0.9494437,1.7015918,0.34768689,0.36122662,0.8861829,-0.29016384,0
1.1781502,-0.84786034,1.8745154,0.34309998,0.16303277,0.92504191,0
1.0914538,-1.2552214,-0.76438987,0.72902107,-0.66721773,-0.15280259,0
-0.35599208,1.2805766,2.0684085,0.34309998,0.16303277,0.92504191,0
1.3968465,0.44640934,-1.0388978,0.87838274,0.29319298,-0.37746745,0
-0.32911086,0.56807458,2.1840124,0.34309998,0.16303277,0.92504191,0
-1.5214384,0.12751737,0.92623276,-0.93910897,0.039739907,0.34131366,0
0.75957072,-0.14823604,-2.4176645,-0.34309998,-0.16303277,-0.92504191,0
1.287931,-0.83779335,1.8320233,0.34309998,0.16303277,0.92504191,0
0.71357346,1.7620745,0.28457484,0.25182271,0.93280387,-0.25780243,0
-1.411391,1.2664194,-1.6822501,-0.44695348,0.8945201,0.0081225038,0
1.9144284,1.3408285,1.1207538,0.71906185,0.58804566,-0.37034091,0
0.40640509,1.0695051,1.8228339,0.34309998,0.16303277,0.92504191,0
1.9151682,0.098869443,0.13203013,0.93844843,-0.017598957,-0.34497082,0
-2.0296137,0.64132953,-1.2158542,-0.82324344,0.52638775,0.21257031,0
1.9447153,-0.05073452,0.24302995,0.93799579,-0.11132488,-0.32828438,0
-0.53081977,-1.4529405,-1.7091103,-0.34309998,-0.16303277,-0.92504191,0
1.6173902,-0.3858006,1.6301653,0.34309998,0.16303277,0.92504191,0
0.067995131,0.96839201,-2.3579564,-0.34309998,-0.16303277,-0.92504191,0
0.58953547,-1.5652895,-1.7427485,0.66332018,-0.73933345,-0.11572415,0
-1.7326963,0.99569726,-1.1840751,-0.6906395,0.71127182,0.13080257,0
-2.2565317,-0.44131374,-1.2473326,-0.34309998,-0.16303277,-0.92504191,0
0.6462394,-1.0136693,-2.2231026,-0.34309998,-0.16303277,-0.92504191,0
-1.4976532,-0.42541021,0.81764501,-0.88975018,-0.25922292,0.37569669,0
-0.43960977,-1.977582,-1.1529434,0.050675809,-0.98660028,0.15508622,0
0.94357634,0.26548743,1.7652988,0.34309998,0.16303277,0.92504191,0
0.012054682,-1.9117448,-1.3105357,0.30486435,-0.95083487,0.054503798,0
-0.4386797,1.7282262,0.97740412,-0.45366895,0.89109957,0.011216164,0
-1.2476773,0.73876476,-1.8295004,-0.34309998,-0.16303277,-0.92504191,0
-0.48533064,-0.074713826,2.355242,0.34309998,0.16303277,0.92504191,0
-1.3894503,-0.23287261,1.1939559,-0.90960073,-0.18801421,0.37050918,0
-0.23715004,1.0607957,-2.2610631,-0.34309998,-0.16303277,-0.92504191,0
-1.4080266,-0.28453803,-1.5896758,-0.34309998,-0.16303277,-0.92504191,0
-1.9228054,-0.76341891,-1.3143435,-0.34309998,-0.16303277,-0.92504191,0
-1.2367771,0.64524293,-1.8170607,-0.34309998,-0.16303277,-0.92504191,0
-0.0085430145,-1.2716529,2.1363039,-0.35110277,-0.8911745,0.28728864,0
-0.96471232,-0.49433351,-1.7171268,-0.34309998,-0.16303277,-0.92504191,0
2.0723557,-0.18844318,1.4266346,0.34309998,0.16303277,0.92504191,0
-0.89927816,-0.84883595,-1.6789179,-0.34309998,-0.16303277,-0.92504191,0
-0.57786334,0.96449429,2.2064085,0.34309998,0.16303277,0.92504191,0
-1.5529339,-0.021250784,0.84227461,-0.9350059,-0.03476879,0.35292345,0
-1.0227249,0.64357209,2.1661735,-0.9290489,0.2039935,0.30863369,0
-0.1040684,0.8716495,2.0470405,0.34309998,0.16303277,0.92504191,0
-0.38599277,-1.7588634,-1.7089097,-0.34309998,-0.16303277,-0.92504191,0
-1.4132149,-1.703706,-0.99024808,-0.47843909,-0.81716025,0.32147342,0
0.66316569,-0.45027268,-2.3286757,-0.34309998,-0.16303277,-0.92504191,0
-0.11223674,-1.4727112,-1.8608789,-0.34309998,-0.16303277,-0.92504191,0
-0.12885118,-1.0994419,-1.9205031,-0.34309998,-0.16303277,-0.92504191,0
-1.06117,-0.98843896,-1.5942676,-0.34309998,-0.16303277,-0.92504191,0
-0.40968788,1.7414683,1.0927558,-0.46039587,0.88759792,0.01432842,0
-1.9508915,-0.45984113,-0.30061138,-0.91434652,-0.16751805,0.36865711,0
-0.36059403,0.21513617,2.2578926,0.34309998,0.16303277,0.92504191,0
-0.054337382,-0.42631269,-2.0667751,-0.34309998,-0.16303277,-0.92504191,0
1.6328061,-0.89896822,1.71489,0.34309998,0.16303277,0.92504191,0
-1.473133,0.95436597,-1.7838767,-0.34309998,-0.16303277,-0.92504191,0
2.0733011,-0.45575571,1.0041265,0.87773639,-0.40631405,-0.2539441,0
-0.015202641,-1.6590762,0.64028418,-0.070756912,-0.97753751,0.19852871,0
0.58744091,-0.56356919,-2.2806215,-0.34309998,-0.16303277,-0.92504191,0
0.94737417,0.74503672,-1.6908145,0.76046324,0.52984935,-0.37544006,0
0.29975569,-0.29772258,2.1033556,0.34309998,0.16303277,0.92504191,0
-0.46291506,-1.881712,-0.61594987,-0.061528027,-0.97880572,0.19532919,0
1.1909232,1.6770591,0.5982008,0.43832195,0.84322929,-0.31118837,0
1.761151,-0.92852199,1.0048499,0.73534256,-0.65937054,-0.1565302,0
-0.54982668,0.16891253,2.336226,0.34309998,0.16303277,0.92504191,0
-2.1606154,0.31239033,-1.4157437,-0.34309998,-0.16303277,-0.92504191,0
0.23003912,-0.65834761,-2.1313562,-0.34309998,-0.16303277,-0.92504191,0
0.037696838,-1.4548757,1.5557269,-0.21663982,-0.94453514,0.24682049,0
-0.45834196,-0.916749,-1.8304927,-0.34309998,-0.16303277,-0.92504191,0
-0.31401128,0.20407021,-2.0815625,-0.34309998,-0.16303277,-0.92504191,0
-1.3499063,1.2882855,-1.8884327,-0.34309998,-0.16303277,-0.92504191,0
-2.2386899,-0.021252155,-1.3279831,-0.34309998,-0.16303277,-0.92504191,0
0.60703802,-0.78019094,2.0744159,0.34309998,0.16303277,0.92504191,0
-0.79111934,-1.4605496,0.55084038,-0.45206809,-0.83459973,0.31476599,0
2.1424198,0.76218939,0.94228995,0.88486797,0.27427563,-0.37653884,0
-0.41878057,1.7217493,0.2734319,-0.3157565,0.94752812,-0.049881041,0
1.6714325,-0.67585766,-0.030942559,0.86988634,-0.42669782,-0.24744004,0
0.76582134,-1.5468117,0.8314988,0.28473788,-0.95653462,0.062973261,0
0.41423702,1.6238894,1.7222222,0.34309998,0.16303277,0.92504191,0
-1.0793161,-0.19631886,1.9658642,-0.8944056,-0.24411641,0.37476096,0
-1.81126,-1.4542766,-1.1184435,-0.66384101,-0.65464681,0.36159742,0
0.33554578,-0.22804153,-2.2463279,-0.34309998,-0.16303277,-0.92504191,0
0.42720366,1.1552409,1.8000093,0.34309998,0.16303277,0.92504191,0
-0.78047907,-0.99720442,1.6006532,-0.65190923,-0.66767985,0.35946891,0
-0.40265083,-1.5998826,0.6055879,-0.26169282,-0.92923737,0.26083463,0
0.11751175,-1.3868322,-1.9612288,-0.34309998,-0.16303277,-0.92504191,0
0.82649392,0.388412,-2.3830683,0.83646703,0.39500153,-0.37986398,0
-1.3226947,-0.33627683,1.2934712,-0.89068824,-0.25624162,0.37551916,0
-0.77484262,-0.93078697,1.7313313,-0.67489046,-0.64217758,0.363498,0
-0.008646369,-0.12513685,2.1873255,0.34309998,0.16303277,0.92504191,0
0.31198907,-1.7706056,-0.52639735,0.30935615,-0.94949031,0.052600801,0
0.57687622,1.161976,-1.6114575,0.54595333,0.76677138,-0.33763388,0
0.86781526,-0.37701917,1.9066366,0.34309998,0.16303277,0.92504191,0
0.22768164,-1.6277689,0.84553146,0.013471365,-0.98557448,0.16870469,0
-0.20751886,-0.35737526,2.3020182,0.34309998,0.16303277,0.92504191,0
-0.3342061,1.6383274,-0.74446559,-0.085843682,0.98614275,-0.14196175,0
1.8276247,0.68866158,0.15258783,0.871732,0.31149375,-0.37822607,0
1.4328946,1.1862831,-0.055911422,0.69463205,0.61887592,-0.36671349,0
0.48076916,-1.6853313,0.014989376,0.29353619,-0.95410794,0.059282243,0
0.8584559,-0.64270425,1.9569334,0.34309998,0.16303277,0.92504191,0
1.5525241,1.4760388,1.3260868,0.34309998,0.16303277,0.92504191,0
-0.098234177,-0.17586946,-2.0946326,-0.34309998,-0.16303277,-0.92504191,0
0.046483755,-1.0387067,-1.9962393,-0.34309998,-0.16303277,-0.92504191,0
-0.18992013,-0.049677372,-2.0828667,-0.34309998,-0.16303277,-0.92504191,0
-1.3271781,0.94232965,0.75557327,-0.83626384,0.50146914,0.22179127,0
1.6869308,-0.59179449,1.6406776,0.34309998,0.16303277,0.92504191,0
-1.9701328,-0.096540213,-0.28234124,-0.93897325,0.03360492,0.34234458,0
-0.93901151,0.52284336,-1.9059303,-0.34309998,-0.16303277,-0.92504191,0
0.8297205,1.2244879,-1.057789,0.57101554,0.74574691,-0.34322405,0
-1.5592806,-0.98647577,0.10910511,-0.77438498,-0.50827944,0.37680212,0
-0.087407351,1.8957124,1.711519,-0.41506439,0.90976948,-0.0063928366,0
-0.71691525,1.4242198,-1.9893036,-0.046182096,0.98655856,-0.15674558,0
0.23496902,1.1400646,1.8739843,0.34309998,0.16303277,0.92504191,0
1.6757698,-0.6581378,1.6565099,0.34309998,0.16303277,0.92504191,0
0.20376766,1.8606869,0.48657101,-0.044987738,0.98654372,-0.15718597,0
0.75581932,-0.095956206,-2.425487,-0.34309998,-0.16303277,-0.92504191,0
0.37736869,-1.726366,-0.14255166,0.27128917,-0.96005142,0.068581283,0
-0.52815175,-1.5442176,-1.6940128,-0.34309998,-0.16303277,-0.92504191,0
1.5203526,0.048359632,1.5896388,0.34309998,0.16303277,0.92504191,0
0.47185707,-1.6961217,-1.3470583,0.53641045,-0.84244603,-0.050480068,0
0.24985027,1.4482927,1.8141415,0.34309998,0.16303277,0.92504191,0
-0.7233423,-1.3068449,1.0405539,-0.51162553,-0.79347229,0.32960749,0
1.351272,0.0041691661,-1.3735588,0.93023598,0.077498406,-0.35868514,0
2.0342236,-0.68694258,1.3552339,0.80174732,-0.56391823,-0.19798285,0
-0.31238315,0.37992191,-2.1131592,-0.34309998,-0.16303277,-0.92504191,0
-1.5023957,-1.6201849,-0.92600393,-0.53772157,-0.77338827,0.33574688,0
0.57762158,1.7947537,0.29028428,0.18120116,0.954835,-0.2354915,0
-1.1958299,1.3091427,-0.12299383,-0.62242997,0.77702039,0.093915701,0
0.64043337,-1.475863,1.68466,0.064524174,-0.98658609,0.1499474,0
-1.6869334,-0.044205546,0.48372614,-0.93680274,-0.012354881,0.34963965,0
0.47212946,1.3555994,1.7480341,0.34309998,0.16303277,0.92504191,0
-0.089433029,-0.85726476,2.3463221,0.34309998,0.16303277,0.92504191,0
0.15367295,-0.76395774,2.2397089,0.34309998,0.16303277,0.92504191,0
-1.0266075,1.444653,-0.41578114,-0.4883458,0.87221968,0.027405262,0
-0.14304209,-1.1511277,-1.9061303,-0.34309998,-0.16303277,-0.92504191,0
-0.37346566,-1.8838034,-0.60797596,-0.017810345,-0.9835155,0.17994434,0
0.36305118,1.5885212,-0.68568748,0.25661832,0.9310863,-0.25927836,0
-0.39939195,-0.23261321,-1.9729319,-0.34309998,-0.16303277,-0.92504191,0
-1.2582732,0.74439073,-1.8265617,-0.34309998,-0.16303277,-0.92504191,0
-0.21408987,-1.992882,-1.5519004,0.23721856,-0.96793759,0.082608044,0
-1.1188934,0.64699912,-1.8610933,-0.34309998,-0.16303277,-0.92504191,0
-1.6834327,1.0635729,-1.3298924,-0.6415267,0.76001865,0.1039952,0
-0.068990231,1.636619,1.8992087,0.34309998,0.16303277,0.92504191,0
-1.4987159,0.9110201,0.17128742,-0.81577909,0.53988922,0.20742214,0
-2.141726,-0.43340373,-1.2913084,-0.34309998,-0.16303277,-0.92504191,0
0.24401593,1.8650687,0.50436276,-0.02806282,0.98616123,-0.16339606,0
1.5300455,0.85095644,1.444591,0.34309998,0.16303277,0.92504191,0
-1.6783954,1.0568252,-1.2518634,-0.65292287,0.74937987,0.11009705,0
-1.4212685,0.77779776,0.73398769,-0.87452686,0.41481757,0.25125498,0
-1.5228581,0.67815518,-1.7167531,-0.34309998,-0.16303277,-0.92504191,0
0.27382088,-0.65477479,-2.1482246,-0.34309998,-0.16303277,-0.92504191,0
-0.10784043,-0.82817459,2.3480225,0.34309998,0.16303277,0.92504191,0
-0.27864242,-1.2072989,-1.8459359,-0.34309998,-0.16303277,-0.92504191,0
0.95493662,0.42165428,-2.0651946,0.8425104,0.38199267,-0.37981275,0
-2.1713998,0.10986257,-0.93897784,-0.92795348,0.21143565,0.3069157,0
-1.1718824,-0.45735574,-1.6468041,-0.34309998,-0.16303277,-0.92504191,0
0.97900832,0.26294065,1.7526062,0.34309998,0.16303277,0.92504191,0
-0.12412214,-1.8428301,-0.40095705,0.069044232,-0.98653495,0.14826185,0
-1.6427573,0.34228396,-1.6130872,-0.34309998,-0.16303277,-0.92504191,0
-0.95472348,-1.4701699,0.28549495,-0.48612016,-0.81185454,0.32338724,0
-0.77923608,1.0496447,-2.0580368,-0.34309998,-0.16303277,-0.92504191,0
0.042446248,-0.53051043,2.2398195,0.34309998,0.16303277,0.92504191,0
-2.0894046,-0.40904653,-0.63035339,-0.92600083,-0.1064201,0.36221153,0
0.07687819,-1.7806773,-0.093865275,0.11269963,-0.98485249,0.13177347,0
-1.8785893,0.14254439,-0.088766813,-0.93556952,0.14698541,0.32109946,0
1.8747799,-0.63780105,0.62637043,0.85197884,-0.46867517,-0.23339987,0
0.47416735,-1.0479325,2.1708856,0.34309998,0.16303277,0.92504191,0
1.5537738,0.11796832,1.5649745,0.34309998,0.16303277,0.92504191,0
0.54374135,-1.6298335,-1.5402366,0.60556793,-0.79122394,-0.085158288,0
-0.27312303,-1.9669354,-1.1929586,0.14152884,-0.98255134,0.12067509,0
1.1384184,-1.3964914,1.0023713,0.43679255,-0.89955556,-0.0034663081,0
0.16352864,0.67481041,-2.3416483,-0.34309998,-0.16303277,-0.92504191,0
1.8621235,0.5157268,0.11222041,0.90197361,0.21767655,-0.37290806,0
-0.00083714724,-0.11490858,-2.1415014,-0.34309998,-0.16303277,-0.92504191,0
1.6624726,-0.78665817,0.1567235,0.8348754,-0.5042159,-0.22079223,0
-0.14454556,-0.606534,-2.0015538,-0.34309998,-0.16303277,-0.92504191,0
0.11824763,-1.4899256,1.4793617,-0.16105932,-0.96002519,0.22893557,0
0.302163,0.24953806,2.0060115,0.34309998,0.16303277,0.92504191,0
0.078575015,-0.57644296,-2.0896132,-0.34309998,-0.16303277,-0.92504191,0
2.0413756,-0.32963872,1.4630098,0.34309998,0.16303277,0.92504191,0
-1.5333972,0.53441572,-1.687511,-0.34309998,-0.16303277,-0.92504191,0
1.0926616,0.36838818,1.6918674,0.34309998,0.16303277,0.92504191,0
-0.061843812,1.3820065,-1.8477914,0.25976408,0.92994392,-0.26024377,0
-1.4702485,0.55179119,-1.7139952,-0.34309998,-0.16303277,-0.92504191,0
0.93993402,1.4191197,-0.43399036,0.50722694,0.79672813,-0.32854986,0
-1.6761377,0.92834044,-0.61773491,-0.76268405,0.6231913,0.1730476,0
-0.40724468,0.76837218,-2.1464367,-0.34309998,-0.16303277,-0.92504191,0
-0.77045429,-0.30951202,2.5023766,0.34309998,0.16303277,0.92504191,0
-1.2790245,1.3295847,-1.361711,-0.44037193,0.89780092,0.0051031113,0
-1.3883009,-1.0050641,0.42910776,-0.74562538,-0.55166149,0.37378094,0
1.0618963,0.088120759,-2.0714772,0.90823579,0.19359058,-0.37098569,0
1.7139724,0.48855472,1.440243,0.34309998,0.16303277,0.92504191,0
-1.4546605,1.0083122,0.066468,-0.77766776,0.60163206,0.18240488,0
-1.4751445,0.13765001,-1.6391895,-0.34309998,-0.16303277,-0.92504191,0
1.3993001,0.27134657,1.5952373,0.34309998,0.16303277,0.92504191,0
-1.6072198,1.072577,-0.94443417,-0.67329812,0.72937298,0.12118036,0
0.22351044,-0.052560806,-2.2357011,-0.34309998,-0.16303277,-0.92504191,0
1.6640611,-1.0132291,0.92023897,0.70444632,-0.6960932,-0.13859862,0
1.1883076,-1.2960616,-0.025136828,0.6450845,-0.75673801,-0.10589302,0
0.48194635,1.7541499,0.052093029,0.17746192,0.95583463,-0.23428079,0
-0.083735049,-1.234985,2.1510174,-0.39285213,-0.86964297,0.29897875,0
0.75908977,0.65371215,-2.2010713,0.7609973,0.5290423,-0.37549591,0
2.0676596,0.25038469,0.54415327,0.93574262,0.026289672,-0.35170239,0
-2.2749381,-0.068623066,-1.30619,-0.34309998,-0.16303277,-0.92504191,0
1.0149211,-0.1376816,-2.2762861,0.92891449,0.087141901,-0.35989463,0
1.5805095,-0.90325981,0.13402677,0.80139625,-0.56449866,-0.19775027,0
-0.86718947,-1.4091113,0.56998938,-0.4955368,-0.80520642,0.32570821,0
1.0497065,-1.3917558,1.8624761,0.23592645,-0.96820819,0.083134949,0
0.85596609,-1.0921803,-2.177928,0.8614465,-0.44718418,-0.24069893,0
1.8736808,0.67438769,0.24779671,0.87814087,0.29387701,-0.3774983,0
-1.7321851,-1.2897239,-0.6865977,-0.70755434,-0.60285926,0.36868355,0
0.15722322,-0.011504889,-2.2183506,-0.34309998,-0.16303277,-0.92504191,0
-1.7349597,0.49529362,-1.6058559,-0.34309998,-0.16303277,-0.92504191,0
0.25831974,0.94853044,1.89908,0.34309998,0.16303277,0.92504191,0
-0.77383494,1.5695767,0.01038909,-0.44219136,0.89690095,0.0059366226,0
2.1672971,0.29662085,0.81270701,0.93579292,0.025679737,-0.35161352,0
-0.072900116,1.2487659,-2.3064754,0.34163624,0.8957122,-0.28457722,0
0.5438987,-0.6444006,2.0739021,0.34309998,0.16303277,0.92504191,0
-1.1422,1.0898659,1.1075929,-0.81156355,0.54728568,0.20455503,0
0.76393759,-0.044633627,1.8865843,0.34309998,0.16303277,0.92504191,0
-2.09144,-0.86510611,-1.2338749,-0.34309998,-0.16303277,-0.92504191,0
-1.1667666,0.41998535,1.8545599,-0.93800789,0.11108401,0.32833129,0
-1.5817889,-0.94193494,0.12101829,-0.78931701,-0.48381123,0.37802809,0
-0.27189553,0.74421167,2.131748,0.34309998,0.16303277,0.92504191,0
0.16213536,1.5961208,1.8206215,0.34309998,0.16303277,0.92504191,0
0.32040983,-0.25233316,-2.2364323,-0.34309998,-0.16303277,-0.92504191,0
0.55063272,1.8102384,0.33443087,0.15909302,0.96050638,-0.22829115,0
-0.13883281,1.85313,0.99768364,-0.31016815,0.94924432,-0.052256227,0
1.52546,0.50632501,1.507031,0.34309998,0.16303277,0.92504191,0
-0.38663638,-1.8043134,-0.21123362,-0.098944962,-0.97306949,0.20819622,0
1.3759475,0.7100544,-0.83645165,0.82270324,0.42306435,-0.37970483,0
-0.65832645,-1.0114117,1.7919594,-0.62456596,-0.6959734,0.35431379,0
-1.8882294,-0.72746754,-1.333504,-0.34309998,-0.16303277,-0.92504191,0
0.18586373,-1.849004,-1.5896752,0.44111168,-0.89743567,-0.0054419041,0
1.1509974,0.15217912,-1.8196052,0.90542972,0.20466852,-0.37189737,0
2.1867609,-0.059187174,0.95265704,0.93159723,-0.1849179,-0.31294078,0
0.47108126,-1.6661987,-1.7188653,0.60249424,-0.79373533,-0.083575606,0
2.2120557,0.55285335,1.2441709,0.34309998,0.16303277,0.92504191,0
-1.3754371,0.43195605,-1.7280408,-0.34309998,-0.16303277,-0.92504191,0
-0.73575276,0.30594277,-1.9430921,-0.34309998,-0.16303277,-0.92504191,0
-0.46933305,1.6551123,-0.43437427,-0.21074456,0.97307539,-0.093332767,0
0.35960937,-1.7624491,-1.354019,0.48320204,-0.87515235,-0.024980664,0
-1.9583845,0.29647541,-0.43233478,-0.91840959,0.26476678,0.29397666,0
-0.096290112,0.42220879,2.1233664,0.34309998,0.16303277,0.92504191,0
-0.64333677,0.10043192,-1.9411492,-0.34309998,-0.16303277,-0.92504191,0
0.11044073,-1.0701239,2.3097036,0.34309998,0.16303277,0.92504191,0
-0.85076034,-1.878655,-0.84582108,-0.21547252,-0.94489849,0.24645159,0
-0.45742404,-1.6263632,0.45629579,-0.2613852,-0.92935038,0.26074046,0
1.0885344,-1.389394,1.7613535,0.27376628,-0.95942104,0.067551434,0
-1.6437716,0.10207474,0.59168851,-0.93929815,0.05832842,0.33810771,0
1.6430309,-0.052388608,-0.60017061,0.93887472,-0.029936343,-0.34295464,0
1.1793827,0.53429717,-1.4540108,0.84122199,0.38480437,-0.37983042,0
1.1323305,-0.63587689,-1.8390226,0.92472953,-0.23140985,-0.3021996,0
0.87363815,-1.3385893,-1.4359485,0.74366605,-0.64875424,-0.16148853,0
-1.1977401,0.73426199,-1.8472285,-0.34309998,-0.16303277,-0.92504191,0
1.6952174,-0.94989395,1.700717,0.34309998,0.16303277,0.92504191,0
1.7703583,-0.70385671,0.37857008,0.84638619,-0.48072517,-0.22920173,0
1.2158779,0.91919863,1.5490892,0.34309998,0.16303277,0.92504191,0
0.55221605,-1.2662228,2.1804094,0.34309998,0.16303277,0.92504191,0
0.43471885,1.9293514,0.86460263,0.00069391727,0.98477745,-0.17381814,0
0.49766254,-1.6200206,0.71975285,0.17214888,-0.97905487,0.10870177,0
-2.0107415,0.44105864,-0.76828539,-0.8884989,0.37581494,0.26331121,0
0.60968536,-0.6354841,-2.2761974,-0.34309998,-0.16303277,-0.92504191,0
1.9905908,0.41867781,0.38280851,0.92076981,0.13626879,-0.36553201,0
2.121871,0.60341048,0.79250145,0.90674913,0.19952172,-0.37147966,0
0.41992861,1.2700243,-1.5889081,0.45928323,0.8299455,-0.31662175,0
1.8141789,-0.54939771,1.586009,0.34309998,0.16303277,0.92504191,0
-0.14523339,0.40159523,2.1451526,0.34309998,0.16303277,0.92504191,0
-1.1319044,-0.74677998,1.3099194,-0.784361,-0.49209586,0.37764996,0
-1.0156902,-0.56542063,-1.6856903,-0.34309998,-0.16303277,-0.92504191,0
