-0.5067867,0.26081294,1.669554,-0.39695126,0.18906558,0.89815581,0
1.4156749,-0.50723565,-1.2135983,0.41452616,-0.14278227,-0.89876652,0
1.5829649,-0.47799999,-1.1025101,0.84218419,-0.31401491,0.43831533,0
0.025570631,-0.10512984,1.9740372,-0.42803937,0.10497171,0.89764309,0
-1.291124,0.66506815,0.67578197,-0.84218419,0.31401491,-0.43831533,0
1.4787018,1.1372693,0.25502217,0.84218419,-0.31401491,0.43831533,0
-0.67097771,-0.13698006,-1.0903724,-0.84218419,0.31401491,-0.43831533,0
1.3557,0.96176928,0.36562872,0.84218419,-0.31401491,0.43831533,0
-1.2960598,0.7127257,1.2186106,-0.36465853,0.26709706,0.89201087,0
-1.2751985,-0.84097242,-0.43376487,-0.84218419,0.31401491,-0.43831533,0
-1.527336,0.17944974,0.78173929,-0.84218419,0.31401491,-0.43831533,0
0.3618741,-1.3601434,0.61172843,0.84218419,-0.31401491,0.43831533,0
0.25216049,-1.0812492,1.022337,0.84218419,-0.31401491,0.43831533,0
-0.64477479,1.2716057,1.112072,-0.14953053,0.64500874,0.74940264,0
-0.25787669,-1.587948,0.99450159,-0.4925887,-0.77867699,0.38861108,0
-0.41267002,-0.14902902,-1.5953197,-0.84218419,0.31401491,-0.43831533,0
0.77373391,0.20164084,0.93925905,0.84218419,-0.31401491,0.43831533,0
-1.5014273,0.27105975,0.79758823,-0.84218419,0.31401491,-0.43831533,0
0.39479601,-0.058566689,-1.7544296,0.42681319,-0.10849145,-0.89780849,0
-0.30961001,1.0622022,1.3558643,-0.17692006,0.60697269,0.77477956,0
-0.14971979,-1.4517953,1.3281662,-0.52442813,-0.66595978,0.53053993,0
1.6853759,0.50880182,-0.59232616,0.84218419,-0.31401491,0.43831533,0
0.34955418,0.41537523,1.9074051,0.84218419,-0.31401491,0.43831533,0
0.4487541,-0.90596527,0.77017558,0.84218419,-0.31401491,0.43831533,0
0.19591445,-0.82507819,1.3139331,0.84218419,-0.31401491,0.43831533,0
0.62949014,-0.48714119,-1.5585042,0.35970873,-0.27836645,-0.89057386,0
0.68160486,0.9979279,1.5861242,-0.070534289,0.74176764,0.66693747,0
-0.17395639,0.4654634,-1.6137563,-0.84218419,0.31401491,-0.43831533,0
-0.12621963,-0.85697114,-1.6153827,0.19027287,-0.58753514,-0.78651041,0
0.58794427,-1.8934869,-0.27160668,-0.13117516,-0.9078145,-0.39832884,0
-0.87393129,0.23252511,-0.43569648,-0.84218419,0.31401491,-0.43831533,0
1.4688382,-0.043141127,-1.1961082,0.48980233,0.1056743,-0.86540544,0
-1.6074158,-0.33042079,0.57032728,-0.84218419,0.31401491,-0.43831533,0
1.1106362,-0.74031979,-0.38290209,0.84218419,-0.31401491,0.43831533,0
-0.34349787,-1.2677658,-1.2345786,0.0117715,-0.80201292,-0.59719062,0
-1.2135196,-1.1288707,0.67382276,-0.51432985,-0.7118516,0.47825944,0
-0.73005211,-1.5902663,0.082760096,-0.37905967,-0.92293417,0.067127407,0
1.4233458,-0.089404196,-1.226267,0.48161519,0.072598279,-0.87337065,0
-1.1888313,-1.4137778,-0.50992167,-0.3035861,-0.94797295,-0.095826507,0
-1.032541,1.070792,1.1567612,-0.25372338,0.48648897,0.836034,0
-0.84431589,1.1801771,0.18631065,-0.84218419,0.31401491,-0.43831533,0
-0.21843421,-1.288269,-1.2039437,0.022987723,-0.79126477,-0.61104143,0
-1.004086,0.32173115,1.4326134,-0.42038131,0.12665665,0.89846408,0
-1.5674534,-1.097367,0.31751239,-0.49320811,-0.77713448,0.39090633,0
-1.3160212,-1.1797411,0.47055626,-0.49616909,-0.76953077,0.40204304,0
-0.14745367,-0.23490524,1.8960445,-0.45994374,0.0058452785,0.88792884,0
0.94401884,-0.91943038,-1.2669671,0.28513753,-0.4305703,-0.85633278,0
-1.5001404,-0.31659365,0.37411317,-0.84218419,0.31401491,-0.43831533,0
-0.3416611,0.095723748,1.774292,-0.41656053,0.13722226,0.89869201,0
1.2363594,-0.32565618,-0.32739738,0.84218419,-0.31401491,0.43831533,0
0.7180419,-1.7637631,-0.53698838,-0.033979237,-0.84220797,-0.53808087,0
-1.3705575,-0.26712096,0.16057396,-0.84218419,0.31401491,-0.43831533,0
1.1711853,1.0918405,-0.76969218,0.52192342,0.67884016,-0.51649976,0
1.4403945,1.1484396,0.33662927,0.84218419,-0.31401491,0.43831533,0
-1.4354471,0.20319062,0.62219095,-0.84218419,0.31401491,-0.43831533,0
0.34685624,0.34481847,-1.7834669,0.48593324,0.089756817,-0.86937481,0
0.67189479,1.4479518,-0.74948299,0.48852915,0.78840411,-0.37384242,0
1.1814445,1.3816044,-0.12302625,0.43101001,0.8805033,-0.19734323,0
0.61698902,1.5220166,0.69701827,0.18547761,0.93202376,0.31133533,0
-0.70092285,-1.3097522,-1.14992,-0.071809947,-0.87099475,-0.48601586,0
-0.004258208,-1.5156021,1.2038468,0.84218419,-0.31401491,0.43831533,0
0.69246012,0.91616184,-1.3536435,0.53902268,0.47007892,-0.69891375,0
1.0639715,1.301945,1.0737357,0.14701313,0.91584504,0.37365079,0
-0.034087658,-0.64874446,1.8821896,0.84218419,-0.31401491,0.43831533,0
-1.3436569,-0.0039871931,0.29739913,-0.84218419,0.31401491,-0.43831533,0
1.304109,0.80476302,0.35227531,0.84218419,-0.31401491,0.43831533,0
-0.33860195,-1.0246828,-1.5135229,0.10815942,-0.69800425,-0.70787835,0
0.068953276,0.34710586,1.8801811,-0.33269298,0.33708477,0.88073218,0
-0.50909436,-1.6760602,0.13857186,-0.36709011,-0.92934465,0.039536476,0
-0.58359402,1.3789837,-0.17221606,-0.84218419,0.31401491,-0.43831533,0
0.32377636,1.7423214,-0.011682391,0.31955096,0.94544947,0.063343704,0
-0.0013763905,1.8210771,-0.74548447,0.43222225,0.87916493,-0.20063138,0
-0.2239303,-0.8998695,1.7062594,-0.53310448,-0.36314994,0.76414776,0
-1.0527062,1.2338477,0.62516463,-0.84218419,0.31401491,-0.43831533,0
1.5765202,0.67955661,-0.8255403,0.53873789,0.52334136,-0.66020852,0
1.2322652,-0.089987338,-0.15069468,0.84218419,-0.31401491,0.43831533,0
-1.3115979,-1.371572,-0.19630802,-0.38375634,-0.92012012,0.078167498,0
-0.33254874,-0.37171102,-1.9087979,-0.84218419,0.31401491,-0.43831533,0
0.038609099,1.4903934,-1.2879087,-0.84218419,0.31401491,-0.43831533,0
-0.20977092,0.71186721,-1.3684151,-0.84218419,0.31401491,-0.43831533,0
-0.97324377,-1.3791685,0.49230027,-0.47394776,-0.81874204,0.32409102,0
-0.52602983,-0.61406803,-1.710669,-0.84218419,0.31401491,-0.43831533,0
-0.88709128,-0.52903533,1.4132128,-0.52541977,-0.29540405,0.79791629,0
-0.50132287,1.3530328,-0.34888422,-0.84218419,0.31401491,-0.43831533,0
-1.437054,-0.28744632,0.27377966,-0.84218419,0.31401491,-0.43831533,0
0.50918508,-1.5557408,-0.83019614,0.024608493,-0.78968245,-0.61302215,0
0.4840686,-1.0607846,0.59140712,0.84218419,-0.31401491,0.43831533,0
1.1145585,1.4520856,0.25077438,0.35170034,0.93609858,-0.0051277876,0
0.020093799,-1.0291672,1.505545,0.84218419,-0.31401491,0.43831533,0
-0.014558852,0.66936672,-1.7739456,-0.84218419,0.31401491,-0.43831533,0
-0.92526704,-1.2985487,-1.126364,-0.11235577,-0.89727402,-0.42693752,0
-0.81453973,0.073384285,-0.66382283,-0.84218419,0.31401491,-0.43831533,0
0.30517006,-1.7826015,0.41802585,0.84218419,-0.31401491,0.43831533,0
1.2986882,-0.23770958,-0.38415039,0.84218419,-0.31401491,0.43831533,0
-1.1133988,0.76520681,0.40603924,-0.84218419,0.31401491,-0.43831533,0
-1.3491759,0.13124686,1.2691896,-0.4720242,-0.036461473,0.88083124,0
0.36122,-0.09362638,-1.7655215,0.41827679,-0.13249639,-0.89860404,0
-0.29955351,-0.86311871,1.6709332,-0.53266233,-0.35842681,0.76668191,0
0.6703583,-0.73171186,-1.4501406,0.30668068,-0.38964176,-0.86840445,0
1.0537918,0.17428708,0.38155603,0.84218419,-0.31401491,0.43831533,0
-0.65552282,0.42773736,-0.71549654,-0.84218419,0.31401491,-0.43831533,0
1.4013751,-0.021195635,-1.2316079,0.4893994,0.10399103,-0.86583722,0
1.1927462,-1.0277226,-0.74656814,0.84218419,-0.31401491,0.43831533,0
-1.1828129,0.73653567,0.51887208,-0.84218419,0.31401491,-0.43831533,0
1.0037287,0.86202729,0.97045386,0.84218419,-0.31401491,0.43831533,0
-0.060652018,-1.3915025,-1.0625048,0.0037644506,-0.80947059,-0.58714849,0
0.11221126,1.3887293,-1.4370311,0.53163022,0.61924505,-0.5778451,0
-0.7743057,-0.25089061,-0.97344351,-0.84218419,0.31401491,-0.43831533,0
0.64865017,-0.83728743,0.43529445,0.84218419,-0.31401491,0.43831533,0
0.15718043,1.6464736,0.58588552,0.15134001,0.91790283,0.36681134,0
-0.48729733,1.3457475,-0.38105226,-0.84218419,0.31401491,-0.43831533,0
0.20764482,-0.28577948,-1.7912743,0.36915761,-0.25670472,-0.89321059,0
-0.9042486,-0.45283031,-0.86844236,-0.84218419,0.31401491,-0.43831533,0
0.0016914606,0.77618915,1.6391281,-0.22817719,0.52897465,0.81738663,0
0.30303705,-1.1122537,-1.3169292,0.16005147,-0.63068438,-0.75935549,0
-0.39146626,0.16920698,1.7391443,-0.40631586,0.16478136,0.89875162,0
-0.68450576,-0.99652046,1.3020097,-0.53895342,-0.5143292,0.66707915,0
1.0901266,1.1584411,1.0168028,0.84218419,-0.31401491,0.43831533,0
-0.9608885,1.2426482,1.0641228,-0.19630802,0.57855117,0.79167008,0
-0.6004945,1.8540614,0.35994542,0.10449821,0.89255846,0.43865669,0
0.49388522,0.05992353,1.3754356,0.84218419,-0.31401491,0.43831533,0
1.3227865,0.95365626,-0.78923571,0.53034896,0.62903666,-0.56836855,0
0.17694552,1.6677021,-0.92748106,0.4770588,0.81279767,-0.33432728,0
0.32360387,0.79086256,-1.6862447,0.52896827,0.32363912,-0.78450644,0
-0.19996516,0.88786644,-1.2611678,-0.84218419,0.31401491,-0.43831533,0
-0.067577243,1.8899232,-0.24326813,0.32569152,0.94412136,0.050593495,0
0.96418953,0.27575672,0.62641311,0.84218419,-0.31401491,0.43831533,0
-1.5563413,-0.24155372,0.53585768,-0.84218419,0.31401491,-0.43831533,0
-1.2413802,-0.44957328,-0.21834022,-0.84218419,0.31401491,-0.43831533,0
0.82894456,-1.2973368,-1.0523053,0.16363108,-0.62573004,-0.76268387,0
1.2140082,0.90860057,-0.93315172,0.53582639,0.57807183,-0.61540484,0
-0.9016946,-1.3159105,-1.0958846,-0.11749256,-0.90025711,-0.41920453,0
0.8436597,1.5013986,0.58473623,0.24370301,0.94682699,0.21006566,0
0.21659625,-1.7724032,0.59551883,0.84218419,-0.31401491,0.43831533,0
0.74947333,-1.7820785,-0.51024842,-0.03716588,-0.84478909,-0.53380722,0
-0.41072494,-0.17125678,-1.6149813,-0.84218419,0.31401491,-0.43831533,0
-0.53434587,0.57358164,-0.84384251,-0.84218419,0.31401491,-0.43831533,0
1.1866385,0.26151884,0.18879698,0.84218419,-0.31401491,0.43831533,0
-1.1029706,0.53677183,1.3471659,-0.38628799,0.21575657,0.89678907,0
1.1569338,1.0987569,-0.77499926,0.52172053,0.67983162,-0.51539952,0
0.6214608,-1.0939473,0.30366194,0.84218419,-0.31401491,0.43831533,0
0.38001668,-0.76654923,1.0021279,0.84218419,-0.31401491,0.43831533,0
1.7606039,0.54994398,-0.70739549,0.84218419,-0.31401491,0.43831533,0
-0.57007098,-1.2699909,-1.2282677,-0.027536333,-0.83690226,-0.54665935,0
-0.86755538,0.71858346,-0.099728703,-0.84218419,0.31401491,-0.43831533,0
0.70587265,-0.49281943,0.57212806,0.84218419,-0.31401491,0.43831533,0
0.86022449,1.2253009,-0.90804809,0.51961678,0.68970948,-0.50428075,0
-1.0357053,1.098961,0.49586427,-0.84218419,0.31401491,-0.43831533,0
1.4577202,0.70448077,-0.90246445,0.53899455,0.51217628,-0.66870046,0
-1.096925,1.3571298,0.7984482,-0.84218419,0.31401491,-0.43831533,0
-0.076075196,1.8390657,0.12920523,0.23802531,0.94593632,0.22033685,0
1.3050375,0.7703703,0.32585144,0.84218419,-0.31401491,0.43831533,0
0.62762052,-0.73474908,0.54916102,0.84218419,-0.31401491,0.43831533,0
-0.0099694729,1.5391495,0.8417201,0.053387523,0.85748386,0.51173347,0
0.27051461,-0.53651518,-1.6782757,0.3178755,-0.36746618,-0.87402731,0
1.1582894,1.3852202,-0.15683603,0.43484139,0.87620723,-0.20778286,0
1.7114412,0.56828737,-0.80112928,0.53918803,0.48833758,-0.68615061,0
-0.95705634,-0.57017589,-0.85104448,-0.84218419,0.31401491,-0.43831533,0
-0.3224355,-1.346022,-1.1240193,-0.019876599,-0.83044285,-0.55674905,0
0.11705863,-0.22600067,1.8946345,0.84218419,-0.31401491,0.43831533,0
-1.1776106,0.87971729,0.61145371,-0.84218419,0.31401491,-0.43831533,0
0.10785623,1.6302607,-1.0992587,0.49615753,0.76956141,-0.40199882,0
1.3655362,-0.18997473,-0.47839522,0.84218419,-0.31401491,0.43831533,0
0.56034815,-0.015389442,1.1937778,0.84218419,-0.31401491,0.43831533,0
-0.63305193,-1.4286215,-0.92868173,-0.12516558,-0.90456516,-0.40754789,0
0.56629008,0.24030435,1.3655432,0.84218419,-0.31401491,0.43831533,0
1.0220008,0.26992774,0.51115781,0.84218419,-0.31401491,0.43831533,0
-1.669076,-0.98851597,0.21733379,-0.84218419,0.31401491,-0.43831533,0
-1.3714906,0.72429335,0.87262881,-0.84218419,0.31401491,-0.43831533,0
1.3923222,-0.25998336,-0.58001733,0.84218419,-0.31401491,0.43831533,0
0.81704497,0.73384762,1.2373209,0.84218419,-0.31401491,0.43831533,0
-0.51924443,1.618222,-0.12446463,-0.84218419,0.31401491,-0.43831533,0
-0.76857191,-1.2903014,-1.1747237,-0.074876845,-0.87314975,-0.48166686,0
-0.63387895,1.3378066,1.0548148,-0.12563854,0.67625087,0.72587854,0
1.3146358,-0.02551806,-1.2807376,0.48469964,0.084792614,-0.870561,0
-0.67222452,0.7045095,-0.4851225,-0.84218419,0.31401491,-0.43831533,0
-0.7920866,-0.53711426,-1.1443336,-0.84218419,0.31401491,-0.43831533,0
-0.47031599,0.021062851,-1.3627021,-0.84218419,0.31401491,-0.43831533,0
1.3259311,-0.64865577,-0.73090279,0.84218419,-0.31401491,0.43831533,0
-0.12788451,-1.3354065,-1.1393359,0.017278969,-0.79677933,-0.60402322,0
-1.0616779,-0.530083,1.2960781,-0.52987385,-0.33153981,0.7805863,0
0.74414337,-0.34902936,-1.5460812,0.39700675,-0.18892404,-0.89816105,0
-1.1924452,-1.1902714,0.59927028,-0.50438154,-0.74615669,0.43456811,0
-1.3370262,-0.76933944,-0.26364946,-0.84218419,0.31401491,-0.43831533,0
0.095293939,1.8316934,-0.31187868,0.35842213,0.93334496,-0.020015895,0
0.10412204,1.5086274,0.88073921,0.05949831,0.86207283,0.50327963,0
-0.10425301,-1.6379462,1.0888656,-0.494528,-0.77379298,0.39583635,0
-1.2905385,0.7457847,0.73248339,-0.84218419,0.31401491,-0.43831533,0
0.90079629,0.58415592,0.96915889,0.84218419,-0.31401491,0.43831533,0
0.76525235,0.50210905,1.1708151,0.84218419,-0.31401491,0.43831533,0
-1.5502601,-1.0253887,-0.037376523,-0.84218419,0.31401491,-0.43831533,0
-0.85252625,-0.73516834,-1.1700929,-0.84218419,0.31401491,-0.43831533,0
-0.74372804,0.85751873,1.3647357,-0.28184259,0.436638,0.85434884,0
1.5742004,0.99925715,-0.027343333,0.84218419,-0.31401491,0.43831533,0
0.13460858,-1.4945952,0.95207584,0.84218419,-0.31401491,0.43831533,0
0.15696408,1.5682364,-1.1519728,0.50606215,0.74088895,-0.44157094,0
0.0018414259,-1.0589918,-1.4229965,0.14043671,-0.65710872,-0.74059808,0
-1.232828,-1.2014775,-0.77344704,-0.84218419,0.31401491,-0.43831533,0
1.5210946,0.57435381,-0.22971168,0.84218419,-0.31401491,0.43831533,0
-0.40947264,-0.05539453,-1.5343822,-0.84218419,0.31401491,-0.43831533,0
0.95671141,-1.3503534,-0.52418506,0.84218419,-0.31401491,0.43831533,0
1.6457264,1.0064009,-0.38834614,0.50740641,0.73653698,-0.44727176,0
1.6652374,0.55388933,-0.52133065,0.84218419,-0.31401491,0.43831533,0
1.5590039,0.5537827,-0.31728852,0.84218419,-0.31401491,0.43831533,0
-1.0154841,0.69081461,1.3379074,-0.34652215,0.30759409,0.88617623,0
-1.6553519,0.039775372,1.0884521,-0.49858752,-0.14406088,0.85478473,0
0.2208854,-1.7004297,-0.58177316,-0.097553551,-0.88823831,-0.44890511,0
0.77807707,1.5716573,0.24264085,0.31558633,0.94619936,0.071498513,0
1.0072805,1.3577784,-0.49612606,0.47717685,0.81256711,-0.33471918,0
0.53549552,1.5119561,-0.79205012,0.48452055,0.7974112,-0.35968769,0
-1.2691257,-0.70967245,-0.35136831,-0.84218419,0.31401491,-0.43831533,0
1.2894698,1.3862661,0.30234039,0.35993436,0.9326843,-0.023394704,0
-1.2292728,-0.23991014,1.2849933,-0.5115273,-0.20827538,0.83364332,0
0.6520018,-0.43508935,0.7169947,0.84218419,-0.31401491,0.43831533,0
-1.4689933,-0.074759722,0.48751968,-0.84218419,0.31401491,-0.43831533,0
1.5543476,1.2283158,0.17490268,0.84218419,-0.31401491,0.43831533,0
-1.2106707,0.0080775023,0.050521255,-0.84218419,0.31401491,-0.43831533,0
-0.7078011,-1.411813,0.77688682,-0.49481344,-0.77306044,0.39690959,0
0.66635942,-1.2145519,0.13099051,0.84218419,-0.31401491,0.43831533,0
0.80926901,1.5343673,0.46488285,0.26825359,0.94918513,0.16458327,0
0.22513521,1.7186813,0.31948423,0.22973555,0.94441259,0.23517317,0
0.028973699,1.8355465,-0.006013155,0.28346789,0.94936383,0.13547832,0
-0.87027061,-1.1029634,1.0458293,-0.5318616,-0.61737734,0.57962781,0
0.022860676,1.7798629,-0.85410357,0.45293236,0.85305583,-0.25912905,0
1.5998297,-0.40620369,-1.0834787,0.84218419,-0.31401491,0.43831533,0
-1.2371826,-0.65802944,-0.37574616,-0.84218419,0.31401491,-0.43831533,0
-0.0074924231,1.2563001,1.2258835,-0.069979787,0.74238193,0.6663121,0
1.1707156,0.29454601,0.24305254,0.84218419,-0.31401491,0.43831533,0
-1.0539299,1.4533743,0.87356818,-0.13972479,0.65804499,0.73990101,0
-1.1642616,0.95785713,0.64178514,-0.84218419,0.31401491,-0.43831533,0
0.4987489,0.60658884,1.7577287,0.84218419,-0.31401491,0.43831533,0
0.89893019,-0.22809386,0.39083797,0.84218419,-0.31401491,0.43831533,0
-0.29596472,0.72162127,-1.1958133,-0.84218419,0.31401491,-0.43831533,0
-0.52064818,1.2508705,-0.38494301,-0.84218419,0.31401491,-0.43831533,0
1.6025605,0.4445374,-0.4792437,0.84218419,-0.31401491,0.43831533,0
-0.48246753,-1.2052519,-1.321165,0.016396105,-0.79762405,-0.60293204,0
0.18644559,1.2037619,1.3045168,-0.062287331,0.75081265,0.65757167,0
-0.0022529364,1.7327451,0.43256652,0.1702317,0.92618781,0.33644807,0
1.7412515,0.12780654,-0.97263628,0.84218419,-0.31401491,0.43831533,0
-0.42302537,0.72643387,-0.94822955,-0.84218419,0.31401491,-0.43831533,0
-0.7322281,-0.39808249,-1.1597426,-0.84218419,0.31401491,-0.43831533,0
0.23475832,0.54465222,-1.8175914,0.50470746,0.1730638,-0.84576553,0
-0.84583575,-0.82280028,-1.2457286,-0.84218419,0.31401491,-0.43831533,0
1.1555635,1.4220371,0.041199088,0.39817905,0.91033471,-0.11289012,0
-0.47593451,-0.3017894,-1.5832021,-0.84218419,0.31401491,-0.43831533,0
1.4340043,1.1680579,-0.34377754,0.48726147,0.79131371,-0.36932218,0
1.5102336,-0.39606273,-0.90406263,0.84218419,-0.31401491,0.43831533,0
0.15511054,-1.2077891,1.1181551,0.84218419,-0.31401491,0.43831533,0
-0.53016835,-1.1432447,1.3078005,-0.53670788,-0.56612557,0.62565684,0
0.81763327,0.44308996,1.0278881,0.84218419,-0.31401491,0.43831533,0
-1.1488178,0.034667045,1.3724183,-0.47510883,-0.047811151,0.87862712,0
-0.43077657,-1.6916332,0.34117162,-0.39916867,-0.90959632,0.11532062,0
1.2805829,0.4215219,-1.1932852,0.52815169,0.31678721,-0.78784621,0
-1.6340883,0.029921383,1.0991931,-0.49880978,-0.14507836,0.85448289,0
0.60871565,-1.4807512,0.051039219,0.84218419,-0.31401491,0.43831533,0
-0.26411936,-1.580162,1.0020882,-0.49404943,-0.77501321,0.39404273,0
1.5439742,0.30819279,-0.4643541,0.84218419,-0.31401491,0.43831533,0
0.26483664,-0.57319283,1.3619592,0.84218419,-0.31401491,0.43831533,0
-0.49207881,0.56288242,-0.93271995,-0.84218419,0.31401491,-0.43831533,0
0.95095754,-1.2372525,-0.4321028,0.84218419,-0.31401491,0.43831533,0
-1.1134329,-1.3732705,-0.83598691,-0.21615911,-0.94135922,-0.25907153,0
-0.018802345,0.60484719,-1.8120148,-0.84218419,0.31401491,-0.43831533,0
0.96303904,1.383474,-0.49634504,0.47375634,0.81909955,-0.32346708,0
-0.33853185,0.28470683,1.7367827,-0.37956959,0.2320869,0.89557946,0
0.45516288,-1.2352551,0.52195382,0.84218419,-0.31401491,0.43831533,0
-1.1307788,-1.1803218,-0.95436901,-0.84218419,0.31401491,-0.43831533,0
-0.46496081,-0.13556123,-1.485199,-0.84218419,0.31401491,-0.43831533,0
-0.58114183,0.8263011,-0.57287657,-0.84218419,0.31401491,-0.43831533,0
1.2391351,-0.12018031,-0.18552512,0.84218419,-0.31401491,0.43831533,0
0.8358593,-0.11916888,-1.5343971,0.44451511,-0.055747807,-0.89403498,0
-0.43740249,-1.6584038,-0.34767222,-0.24994427,-0.94765925,-0.19866985,0
-0.0021098033,1.3625546,-1.3012564,-0.84218419,0.31401491,-0.43831533,0
0.15910727,-0.70983231,1.4672185,0.84218419,-0.31401491,0.43831533,0
0.89462328,0.38993645,0.84187835,0.84218419,-0.31401491,0.43831533,0
-1.418595,-1.2880278,0.021930099,-0.43494123,-0.87609267,0.20805669,0
-0.90645337,-0.093995214,-0.60713154,-0.84218419,0.31401491,-0.43831533,0
-0.8201642,-0.55538356,-1.1034737,-0.84218419,0.31401491,-0.43831533,0
-0.20699608,-1.0945762,-1.4242455,0.10062873,-0.70709515,-0.69992149,0
-0.71139634,0.45451146,1.534481,-0.37317914,0.24729243,0.89419448,0
-1.1645757,-1.4269668,-0.12672353,-0.3823809,-0.92096233,0.074921489,0
0.22438857,1.1137054,-1.5814505,0.5391683,0.48317862,-0.68980867,0
-1.5654275,-1.200912,-0.13398099,-0.84218419,0.31401491,-0.43831533,0
0.00026482344,-0.59731042,1.8530325,0.84218419,-0.31401491,0.43831533,0
-0.26636195,-0.96687078,1.6415932,-0.5366382,-0.40915936,0.73797566,0
0.14466785,-1.3201882,1.0576955,0.84218419,-0.31401491,0.43831533,0
1.4736333,-0.76674342,-1.1298007,0.36726207,-0.26110092,-0.89271772,0
-1.3906436,-1.1647577,-0.44391102,-0.84218419,0.31401491,-0.43831533,0
-0.1435762,0.57923615,-1.590621,-0.84218419,0.31401491,-0.43831533,0
1.7259837,0.48585016,-0.68679345,0.84218419,-0.31401491,0.43831533,0
1.4528959,0.62245911,-0.064210594,0.84218419,-0.31401491,0.43831533,0
1.113006,0.62268013,-1.2163603,0.53557861,0.3932614,-0.74732929,0
-0.84219396,1.1373525,1.1690123,-0.21462673,0.55050188,0.8067733,0
-0.61270773,0.049636722,1.6496308,-0.44225806,0.06271866,0.89469224,0
-0.40092874,-1.7178664,0.072770953,-0.34155852,-0.93970776,-0.016944647,0
-0.98010159,1.4491479,0.89099431,-0.13177437,0.66839552,0.73204029,0
-1.3810606,-1.2393068,0.24831164,-0.46909559,-0.82752031,0.30847919,0
1.1138847,1.085446,-0.83490521,0.52519369,0.6617583,-0.53502101,0
-1.0326443,-0.40499556,-0.58747166,-0.84218419,0.31401491,-0.43831533,0
-1.6508104,-0.50736529,0.5269407,-0.84218419,0.31401491,-0.43831533,0
1.0052069,1.2003741,-0.79134959,0.51531953,0.70795822,-0.48295027,0
0.60159576,0.059797049,-1.6596384,0.45906052,-0.0088176131,-0.88836128,0
-0.80101681,0.57236135,1.4624563,-0.35506558,0.28878665,0.88911796,0
-0.6995464,-0.42977977,-1.2452456,-0.84218419,0.31401491,-0.43831533,0
-0.78647208,-1.216742,0.99379236,-0.52415776,-0.66741186,0.52898014,0
0.98486048,-0.059523582,0.3464964,0.84218419,-0.31401491,0.43831533,0
-0.52526152,0.79443371,1.4689373,-0.27706248,0.44535387,0.85140842,0
1.2585211,-0.95497513,-1.1422484,0.3057059,-0.39154246,-0.8678931,0
-0.13702202,0.28661418,-1.8128525,-0.84218419,0.31401491,-0.43831533,0
1.3652709,0.98868495,0.36652237,0.84218419,-0.31401491,0.43831533,0
-0.85747331,0.34756017,-0.38490644,-0.84218419,0.31401491,-0.43831533,0
-0.9394117,1.1813917,0.36989868,-0.84218419,0.31401491,-0.43831533,0
0.42663068,1.5046026,-0.94622874,0.49784595,0.76504576,-0.4084782,0
-0.21467414,1.5011274,-0.79355752,-0.84218419,0.31401491,-0.43831533,0
-0.98693776,-0.58673447,1.3223946,-0.53156972,-0.34735554,0.77251399,0
1.1147754,-0.65234983,-0.32783234,0.84218419,-0.31401491,0.43831533,0
0.54250038,-0.14959705,1.1319227,0.84218419,-0.31401491,0.43831533,0
-0.6357969,-0.46096051,1.593926,-0.51150453,-0.2081515,0.83368826,0
-1.0725274,-1.2156036,0.69406378,-0.50828362,-0.73362762,0.4510414,0
-1.1465194,0.44219738,0.23826948,-0.84218419,0.31401491,-0.43831533,0
0.54334188,1.6376237,0.3019973,0.2740382,0.94937301,0.1536032,0
-1.0128708,1.3114045,0.99997365,-0.18102181,0.60106552,0.77842867,0
-0.35090309,1.808571,-0.31154883,-0.84218419,0.31401491,-0.43831533,0
-0.33201754,0.027782917,1.7879789,-0.42811263,0.10476089,0.89763278,0
1.0632966,0.98770076,-0.98960787,0.53465116,0.59159923,-0.60345542,0
1.1830637,-0.91767561,-0.64912516,0.84218419,-0.31401491,0.43831533,0
-0.34630072,1.8693125,0.23031855,0.17637521,0.92863232,0.32639515,0
0.60309023,-0.44237983,0.80575097,0.84218419,-0.31401491,0.43831533,0
0.73088926,1.4382819,0.87002218,0.15525264,0.91971266,0.36059016,0
0.0487746,1.0341784,1.4545933,-0.14244264,0.65446186,0.74255621,0
0.29780942,1.7513628,-0.015942216,0.31750202,0.94584751,0.067565739,0
-0.32257265,-1.3864332,1.2393494,-0.52453166,-0.66539973,0.53114009,0
-1.4798939,0.03273797,0.58547682,-0.84218419,0.31401491,-0.43831533,0
0.35525775,-1.9203744,-0.073451996,-0.2156927,-0.94124216,-0.2598837,0
1.5431647,1.2573667,0.21720195,0.84218419,-0.31401491,0.43831533,0
-0.36049032,1.6481519,0.69494784,0.042588115,0.84911513,0.52648807,0
-0.30325443,-0.29609704,1.8115777,-0.4772566,-0.055861324,0.87698662,0
-0.1563468,0.14415026,-1.8777845,-0.84218419,0.31401491,-0.43831533,0
-0.64109617,0.37998354,-0.77742743,-0.84218419,0.31401491,-0.43831533,0
0.57393587,-1.7868997,-0.48317611,-0.0727669,-0.87167007,-0.48466092,0
-1.1686251,0.29585361,0.17590109,-0.84218419,0.31401491,-0.43831533,0
-1.1391356,-0.22464621,-0.25365371,-0.84218419,0.31401491,-0.43831533,0
-0.13238549,-1.2991912,-1.1861718,0.031883538,-0.7824893,-0.62184709,0
1.4178491,0.78512943,0.11966777,0.84218419,-0.31401491,0.43831533,0
0.061510205,0.43481195,1.8416402,-0.31254566,0.37810466,0.8714081,0
0.68605328,1.4284093,0.91167581,0.13752574,0.91112787,0.38850051,0
0.43298942,-0.24537921,1.2737186,0.84218419,-0.31401491,0.43831533,0
-0.3946456,-0.921965,1.5732013,-0.53673726,-0.41079429,0.73699468,0
1.2640147,-0.66255832,-1.2463166,0.37276024,-0.24827835,-0.89409596,0
-0.43632686,0.52199924,-1.0691316,-0.84218419,0.31401491,-0.43831533,0
-0.76981896,1.4916693,0.26632857,-0.84218419,0.31401491,-0.43831533,0
1.2356857,0.74052262,0.43772179,0.84218419,-0.31401491,0.43831533,0
0.0052788854,1.1072438,-1.4983613,-0.84218419,0.31401491,-0.43831533,0
0.7899338,1.1218165,1.4389774,-0.0027769208,0.8103779,0.5859009,0
-0.70815778,0.60943401,-0.48419309,-0.84218419,0.31401491,-0.43831533,0
-0.71710742,0.64389032,-0.44231224,-0.84218419,0.31401491,-0.43831533,0
-0.15303516,-1.511907,-0.86857986,-0.070684671,-0.87019736,-0.48760653,0
1.5634339,1.1234922,0.082347035,0.84218419,-0.31401491,0.43831533,0
-0.28286648,-0.30984497,-1.9599364,-0.84218419,0.31401491,-0.43831533,0
0.90579867,-1.5967549,-0.60288596,0.84218419,-0.31401491,0.43831533,0
1.0590515,0.62127733,-1.2555425,0.53466827,0.38130361,-0.75414681,0
1.3312763,-1.0067692,-0.99772996,0.84218419,-0.31401491,0.43831533,0
-0.2551558,1.6714548,0.642923,0.074582756,0.8729443,0.48208469,0
0.056928277,-1.8437713,0.76561487,-0.43066922,-0.88087595,0.19642168,0
0.29586101,-1.1484373,0.8902359,0.84218419,-0.31401491,0.43831533,0
0.24062005,-1.5105023,0.73698807,0.84218419,-0.31401491,0.43831533,0
0.80561429,-0.14125907,0.6323458,0.84218419,-0.31401491,0.43831533,0
0.59914744,-1.6224874,-0.032118082,0.84218419,-0.31401491,0.43831533,0
-0.44182524,0.5387547,-1.046563,-0.84218419,0.31401491,-0.43831533,0
-0.85215795,0.90454781,0.0039141178,-0.84218419,0.31401491,-0.43831533,0
0.053714633,0.60104465,-1.914048,0.50349915,0.16716501,-0.84767002,0
-1.0655578,0.05605343,1.4177876,-0.46761525,-0.020644963,0.88369101,0
1.0338728,1.4390812,0.64318049,0.25355738,0.94806975,0.19202167,0
-1.4455169,-1.2762976,0.014980555,-0.43617523,-0.8746658,0.21144992,0
0.26150036,1.7477021,0.12292635,0.28162414,0.94939691,0.13904476,0
-1.3758134,-0.3506968,0.11079773,-0.84218419,0.31401491,-0.43831533,0
0.20302576,-0.40147722,1.6037427,0.84218419,-0.31401491,0.43831533,0
0.61997956,1.6357641,0.060121179,0.33750996,0.94097292,0.025629997,0
1.5893948,-0.11482137,-0.85467887,0.84218419,-0.31401491,0.43831533,0
1.5887163,-0.041219413,-0.80064577,0.84218419,-0.31401491,0.43831533,0
0.3681345,-0.75140947,1.0358045,0.84218419,-0.31401491,0.43831533,0
0.1268779,1.5890365,0.72583592,0.10810518,0.89474589,0.43329322,0
-1.2750537,1.0354046,0.91021806,-0.84218419,0.31401491,-0.43831533,0
-1.07496,-0.15425742,-0.32653379,-0.84218419,0.31401491,-0.43831533,0
0.8056317,-0.67602152,0.24920142,0.84218419,-0.31401491,0.43831533,0
-0.58557165,0.018489122,-1.1430922,-0.84218419,0.31401491,-0.43831533,0
0.1447314,-0.68223023,1.5146148,0.84218419,-0.31401491,0.43831533,0
0.49105626,0.80074286,-1.5670083,0.5331285,0.36341143,-0.76400661,0
0.068909854,-1.554172,1.0356286,0.84218419,-0.31401491,0.43831533,0
1.5771427,0.85494256,-0.66112792,0.53066456,0.62670475,-0.57064557,0
1.3786327,1.130926,-0.48481214,0.5022009,0.75272757,-0.42567062,0
0.64993274,0.62401199,1.4797246,0.84218419,-0.31401491,0.43831533,0
-1.3297952,0.95205617,1.118191,-0.31291318,0.37737593,0.87159204,0
-1.4880793,-0.30256581,0.36098847,-0.84218419,0.31401491,-0.43831533,0
1.5202204,0.26855826,-1.0925013,0.52358752,0.28213876,-0.80389917,0
-0.1784696,1.5095322,-0.85709977,-0.84218419,0.31401491,-0.43831533,0
-0.53139853,-0.98334849,-1.5831966,0.097073615,-0.71132874,-0.69612372,0
-1.3195131,0.16852838,0.37460139,-0.84218419,0.31401491,-0.43831533,0
-1.4427041,-0.14558244,0.38626897,-0.84218419,0.31401491,-0.43831533,0
0.86714441,0.22319019,0.77521741,0.84218419,-0.31401491,0.43831533,0
0.71992141,0.53871101,-1.5186218,0.52134502,0.26683488,-0.81055444,0
1.368417,-0.97185123,-1.0440772,0.84218419,-0.31401491,0.43831533,0
-0.93043399,-1.4484181,0.35828543,-0.44903186,-0.85848218,0.24774706,0
1.316283,0.65466905,0.22135442,0.84218419,-0.31401491,0.43831533,0
1.1222782,-0.019443765,-1.3859324,0.47585106,0.050578922,-0.87807035,0
-0.99462599,-1.4932352,-0.079268098,-0.37417197,-0.92568099,0.055768132,0
1.7460618,0.55483478,-0.67595011,0.84218419,-0.31401491,0.43831533,0
0.018948853,-1.5642275,1.1244204,0.84218419,-0.31401491,0.43831533,0
0.22473341,-1.2387942,0.96216851,0.84218419,-0.31401491,0.43831533,0
1.1110051,-1.1866552,-0.70337129,0.84218419,-0.31401491,0.43831533,0
0.63111532,-1.8881078,-0.28383517,0.84218419,-0.31401491,0.43831533,0
-1.0211976,0.23394638,1.4344995,-0.43688786,0.079002708,0.89603996,0
-0.20957935,-0.688851,1.7968391,-0.51793814,-0.24516518,0.81953281,0
0.74825656,1.4386501,-0.66780329,0.48258001,0.80157685,-0.35297453,0
0.91170251,0.083045363,0.58920133,0.84218419,-0.31401491,0.43831533,0
-1.4057935,-0.049873412,0.3839156,-0.84218419,0.31401491,-0.43831533,0
-1.0447088,-0.6094656,-0.71077585,-0.84218419,0.31401491,-0.43831533,0
0.36084631,-0.97328424,0.89085436,0.84218419,-0.31401491,0.43831533,0
-1.2656181,1.0966847,0.93599015,-0.84218419,0.31401491,-0.43831533,0
1.4879161,0.34499353,-1.0850657,0.52820313,0.31721225,-0.78764063,0
-1.23894,-1.250249,0.42466021,-0.48433745,-0.79780948,0.35905045,0
-0.010204025,-1.5515722,1.1895015,0.84218419,-0.31401491,0.43831533,0
0.0029138327,1.0757425,1.4088633,-0.13413417,0.66534376,0.73438799,0
-0.67193556,0.48108906,-0.64573908,-0.84218419,0.31401491,-0.43831533,0
-0.77722621,-0.14390886,1.5631545,-0.48059651,-0.068636507,0.8742516,0
1.1095823,0.85000479,0.75845289,0.84218419,-0.31401491,0.43831533,0
-0.22390819,1.5384699,-0.74906242,-0.84218419,0.31401491,-0.43831533,0
0.75996619,0.88494158,1.4552382,0.84218419,-0.31401491,0.43831533,0
1.5122663,1.2957654,0.28952861,0.38597345,0.91873014,-0.083423436,0
0.12035799,-0.52199006,1.6762445,0.84218419,-0.31401491,0.43831533,0
0.014032125,-0.79300737,1.6863798,0.84218419,-0.31401491,0.43831533,0
0.035778999,-1.8143559,-0.19011426,-0.22813743,-0.94408876,-0.23801172,0
-1.2069802,-0.8771826,-0.59078175,-0.84218419,0.31401491,-0.43831533,0
-0.80119812,-0.61174548,-1.1802936,-0.84218419,0.31401491,-0.43831533,0
0.28948525,1.0451026,-1.5774392,0.53876948,0.45799527,-0.70708406,0
0.15800083,-1.6735239,-0.62131953,-0.095592797,-0.88699287,-0.4517805,0
-0.56794679,-1.4735012,-0.84772849,-0.13820809,-0.91147649,-0.38743919,0
-0.33354422,0.46564937,-1.3069892,-0.84218419,0.31401491,-0.43831533,0
-1.0538074,-0.56978565,1.2839744,-0.532013,-0.35175246,0.77021581,0
-1.311721,-1.2823923,0.23595762,-0.46148136,-0.84020597,0.28476107,0
0.69560933,-0.87577361,0.31749469,0.84218419,-0.31401491,0.43831533,0
-1.410532,-1.2618783,0.13379669,-0.45324701,-0.85260689,0.26005518,0
1.3304377,0.076104105,-0.22033381,0.84218419,-0.31401491,0.43831533,0
0.78757012,1.5618857,0.31549191,0.30031964,0.9483304,0.10235894,0
0.59621227,-0.21347141,0.98295939,0.84218419,-0.31401491,0.43831533,0
-0.2197171,-1.4666736,1.2378962,-0.51926368,-0.69130105,0.50246209,0
1.0676495,0.8007803,0.80375779,0.84218419,-0.31401491,0.43831533,0
-1.3601469,0.09867245,0.40262988,-0.84218419,0.31401491,-0.43831533,0
0.098474622,-1.400539,-1.0466071,0.025480926,-0.78882772,-0.61408603,0
-0.23700997,1.0925488,-1.0433521,-0.84218419,0.31401491,-0.43831533,0
-1.0054756,-0.97961915,1.0479691,-0.53613484,-0.57410866,0.61883664,0
-1.0196077,1.1750606,0.51945257,-0.84218419,0.31401491,-0.43831533,0
0.23153245,-1.8324525,0.52380002,0.84218419,-0.31401491,0.43831533,0
-1.5276244,0.27480468,0.85060662,-0.84218419,0.31401491,-0.43831533,0
-1.3819678,-0.26622921,0.1831367,-0.84218419,0.31401491,-0.43831533,0
-1.3881366,0.78621584,0.94897497,-0.84218419,0.31401491,-0.43831533,0
-0.50952852,-1.3499612,1.0988519,-0.52044255,-0.6859163,0.50858474,0
0.27193385,-1.299549,0.82795143,0.84218419,-0.31401491,0.43831533,0
-0.51062876,1.797664,-0.01246357,-0.84218419,0.31401491,-0.43831533,0
0.75627804,0.25307953,1.0096505,0.84218419,-0.31401491,0.43831533,0
-0.34557819,-0.57102311,-1.8657458,0.24985433,-0.4930886,-0.83332849,0
0.21960425,0.02319324,-1.8475189,0.42970037,-0.10017455,-0.8973977,0
-1.500844,0.72968054,1.1250296,-0.84218419,0.31401491,-0.43831533,0
0.87359607,-0.97760969,-0.097447753,0.84218419,-0.31401491,0.43831533,0
-0.54924923,-1.656376,-0.13131583,-0.31385672,-0.94650054,-0.075037599,0
-0.48443782,-0.70610029,1.6125112,-0.52732497,-0.31008372,0.79106027,0
-0.1314075,0.37198389,1.7942415,-0.34409124,0.3128615,0.88527894,0
-0.1452333,-1.1144979,1.6422635,-0.53896594,-0.46684191,0.70112371,0
0.61386704,1.4242595,-0.86818242,0.50034696,0.75809586,-0.41826254,0
-0.82251972,0.56018394,-0.2997402,-0.84218419,0.31401491,-0.43831533,0
0.26681232,-0.67703807,1.2837671,0.84218419,-0.31401491,0.43831533,0
1.318766,-0.17213231,-0.3757478,0.84218419,-0.31401491,0.43831533,0
0.35420784,-0.7367847,1.0730408,0.84218419,-0.31401491,0.43831533,0
1.0867013,1.1745362,1.034915,0.84218419,-0.31401491,0.43831533,0
1.3859154,0.99661803,0.3325389,0.84218419,-0.31401491,0.43831533,0
-1.3448633,-0.43057561,-0.0058963895,-0.84218419,0.31401491,-0.43831533,0
0.86165947,-1.2397014,-0.26227891,0.84218419,-0.31401491,0.43831533,0
-0.89114994,-0.34301808,1.4665232,-0.50922853,-0.19601037,0.83801317,0
0.66751879,0.54953563,1.3925785,0.84218419,-0.31401491,0.43831533,0
-0.45770907,0.19506848,-1.2622651,-0.84218419,0.31401491,-0.43831533,0
0.77363497,0.51242638,1.1621001,0.84218419,-0.31401491,0.43831533,0
1.3163533,0.43056875,0.060670853,0.84218419,-0.31401491,0.43831533,0
-0.93337506,1.3494356,0.4786886,-0.84218419,0.31401491,-0.43831533,0
0.03545928,-1.8392226,0.73860967,-0.42785206,-0.88390142,0.18884122,0
-1.781456,-0.63119853,0.69607842,-0.5381673,-0.53958476,0.64747524,0
0.27207392,-0.48596859,1.4105419,0.84218419,-0.31401491,0.43831533,0
1.1723843,-1.005029,-0.69118649,0.84218419,-0.31401491,0.43831533,0
0.49952969,-0.28220475,1.1194851,0.84218419,-0.31401491,0.43831533,0
1.2452689,-0.66469383,-0.58740717,0.84218419,-0.31401491,0.43831533,0
1.2741473,0.25632042,0.016932294,0.84218419,-0.31401491,0.43831533,0
-0.27799606,-0.24148929,-1.9203238,-0.84218419,0.31401491,-0.43831533,0
1.5273784,1.257895,0.081329465,0.4266783,0.88513255,-0.18570393,0
0.44820592,-0.66081613,0.94685686,0.84218419,-0.31401491,0.43831533,0
-1.147279,-0.026637435,-0.09615057,-0.84218419,0.31401491,-0.43831533,0
0.24079037,-1.4759609,0.76140702,0.84218419,-0.31401491,0.43831533,0
-0.1511476,-1.7743821,0.61859941,-0.42373943,-0.88814181,0.17790127,0
-1.1271348,1.0580018,0.64219409,-0.84218419,0.31401491,-0.43831533,0
0.61958879,-1.2164619,0.21948779,0.84218419,-0.31401491,0.43831533,0
-1.554745,0.19957137,0.84881824,-0.84218419,0.31401491,-0.43831533,0
1.6675615,1.0304694,-0.32143694,0.5005573,0.75749636,-0.41909623,0
-0.92033494,-0.12060955,1.4860383,-0.48458332,-0.084327102,0.87067097,0
0.64414608,-1.7444121,-0.5625217,-0.037945211,-0.84541601,-0.53275889,0
1.696227,0.44542253,-0.65858132,0.84218419,-0.31401491,0.43831533,0
-0.31673217,0.12668192,-1.5821327,-0.84218419,0.31401491,-0.43831533,0
-0.27724904,1.0013678,-1.0313598,-0.84218419,0.31401491,-0.43831533,0
-1.0296886,-0.42279112,-0.60589987,-0.84218419,0.31401491,-0.43831533,0
0.73709381,-1.2337912,-0.018702745,0.84218419,-0.31401491,0.43831533,0
-0.76666009,0.50405383,-0.4472819,-0.84218419,0.31401491,-0.43831533,0
1.6612871,0.28765005,-0.70447779,0.84218419,-0.31401491,0.43831533,0
-1.5988375,-0.78356034,0.71523917,-0.53489566,-0.58895963,0.60581625,0
1.303412,-0.91480869,-0.87830979,0.84218419,-0.31401491,0.43831533,0
-0.20492357,1.5396814,-0.78467155,-0.84218419,0.31401491,-0.43831533,0
0.89647448,-0.73793697,-1.3656274,0.3254773,-0.35203075,-0.87757552,0
0.018800676,1.8602382,-0.26609385,0.3403703,0.94008917,0.019500911,0
1.5566639,0.46138251,-0.98328006,0.53574228,0.39555681,-0.74599934,0
0.35836458,1.3701494,-1.2243912,0.52486169,0.66359746,-0.53306532,0
-1.559728,0.31210086,0.93901056,-0.84218419,0.31401491,-0.43831533,0
-0.67819333,1.5448591,0.83289957,-0.054900408,0.75874966,0.64906466,0
0.95059544,-0.89253354,-0.1844458,0.84218419,-0.31401491,0.43831533,0
-0.98102129,-0.14651492,1.4490252,-0.49077237,-0.10975242,0.86434764,0
1.0119786,1.1885929,-0.80124229,0.51675087,0.70213509,-0.48987228,0
0.94397485,-1.3904735,-0.52845526,0.84218419,-0.31401491,0.43831533,0
0.48522234,-1.3920656,-1.0232481,0.086084187,-0.72418094,-0.68421602,0
0.46635163,-1.8775015,-0.26501536,-0.15034992,-0.91743708,-0.36838007,0
0.92932099,1.3353174,1.043865,0.13598788,0.91033685,0.39088869,0
-0.68423045,0.74198341,1.440625,-0.30542582,0.39208758,0.86774552,0
-0.28409755,-1.561788,-0.74025667,-0.12706429,-0.90560371,-0.40464383,0
1.5643337,0.73956162,-0.7856673,0.5373705,0.5555433,-0.63451135,0
-1.0050998,0.031376272,1.4492018,-0.46792704,-0.021748632,0.88349938,0
0.87111384,1.219543,1.2852248,0.057910204,0.86089045,0.50548404,0
-0.36271274,-1.2855885,-1.2104139,0.00078874826,-0.81219625,-0.58338368,0
0.10621005,-1.9072498,0.38607514,-0.35201547,-0.93597615,0.0058208108,0
0.94897103,-0.82649493,-0.13401371,0.84218419,-0.31401491,0.43831533,0
-0.84188008,1.4857776,0.87823617,-0.10058504,0.70714742,0.69987506,0
-1.2206382,0.41992944,0.3647292,-0.84218419,0.31401491,-0.43831533,0
0.16031301,-1.666388,-0.6356802,-0.09110105,-0.8840974,-0.45833653,0
1.7584876,0.65659899,-0.69378704,0.53770673,0.54937744,-0.63957477,0
-1.4243863,0.57851124,0.86982322,-0.84218419,0.31401491,-0.43831533,0
-0.19132841,1.7884946,0.37366247,0.15967077,0.92169768,0.35352319,0
-0.98376346,1.4028732,0.61378932,-0.84218419,0.31401491,-0.43831533,0
-0.14070711,1.5044271,-0.93331468,-0.84218419,0.31401491,-0.43831533,0
0.84511948,-0.24174106,0.48445344,0.84218419,-0.31401491,0.43831533,0
-1.1429242,0.51405454,0.28284091,-0.84218419,0.31401491,-0.43831533,0
0.452905,-1.8993392,0.050533295,0.84218419,-0.31401491,0.43831533,0
0.28221738,-1.2104886,-1.2342877,0.12431526,-0.67793,-0.72453892,0
-0.61225992,-0.34689498,-1.3535792,-0.84218419,0.31401491,-0.43831533,0
0.14536126,1.5704318,-1.1615757,0.5064919,0.73951101,-0.44338405,0
1.4101933,-0.53063959,-0.8082568,0.84218419,-0.31401491,0.43831533,0
-0.10550165,0.94409579,1.494241,-0.19004881,0.58786613,0.78631723,0
-0.064561658,-1.4239875,1.3853483,0.84218419,-0.31401491,0.43831533,0
0.18161932,-0.72238421,1.4149714,0.84218419,-0.31401491,0.43831533,0
-0.80632424,0.92078716,1.3112288,-0.2713939,0.45555866,0.84782755,0
-0.79746383,0.15538019,1.5505071,-0.43606246,0.081469059,0.89622116,0
0.041524053,-1.8657571,0.60208821,-0.40205678,-0.90738982,0.12245047,0
0.81270015,-1.4800913,-0.88815928,0.098689914,-0.70940852,-0.69785357,0
-0.79082966,0.68910784,-0.26826715,-0.84218419,0.31401491,-0.43831533,0
-0.76022673,-0.019770503,-0.83491772,-0.84218419,0.31401491,-0.43831533,0
-0.21991718,-0.82118964,1.7436172,-0.52842802,-0.31907868,0.78673548,0
0.11648858,1.4510478,0.97374952,0.033231974,0.84159857,0.53908014,0
-0.079546213,-0.80632353,1.842091,-0.5236336,-0.28246367,0.80375504,0
-0.29339448,1.3854995,-0.72514081,-0.84218419,0.31401491,-0.43831533,0
1.4407362,-0.37713012,-0.75696599,0.84218419,-0.31401491,0.43831533,0
-1.5673603,-0.32378584,0.49811739,-0.84218419,0.31401491,-0.43831533,0
0.40734166,1.6781394,0.28927827,0.26025027,0.94868934,0.17960572,0
0.85747486,1.0625716,1.3951408,0.84218419,-0.31401491,0.43831533,0
-1.0025778,0.98793709,0.35267365,-0.84218419,0.31401491,-0.43831533,0
1.3258799,-0.50811923,-1.2545431,0.40811193,-0.16002753,-0.89879692,0
-1.0978445,0.95600283,0.51284206,-0.84218419,0.31401491,-0.43831533,0
-0.15351591,-1.4618886,1.3115624,-0.52308166,-0.67303813,0.52288175,0
1.2232201,-0.92251736,-0.72975069,0.84218419,-0.31401491,0.43831533,0
0.19804174,0.70454216,-1.7993885,0.51893049,0.25130343,-0.81704205,0
0.44161284,1.4546049,-1.0162771,0.50755513,0.73604769,-0.4479081,0
-1.0384971,0.0027291775,-0.28412688,-0.84218419,0.31401491,-0.43831533,0
0.069033265,-1.7146182,-0.50766397,-0.14055735,-0.91266567,-0.38377744,0
-0.27193117,1.4062426,1.02918,-0.04975915,0.76418221,0.64307821,0
1.5884778,-0.40071359,-1.0577343,0.84218419,-0.31401491,0.43831533,0
1.4069463,-0.26972324,-0.61509401,0.84218419,-0.31401491,0.43831533,0
1.3424422,0.53864467,-1.0961536,0.53563893,0.39410263,-0.74684262,0
-0.088892102,-1.1551113,-1.3459475,0.094585121,-0.71426988,-0.6934495,0
-0.34392363,-0.53425848,1.7542645,-0.50791419,-0.18918765,0.8403756,0
0.26667607,-0.32556593,1.535828,0.84218419,-0.31401491,0.43831533,0
-1.3408549,0.18248236,0.42560449,-0.84218419,0.31401491,-0.43831533,0
-0.25894195,-1.6936585,0.72520363,-0.45193523,-0.85446787,0.25620145,0
0.6770404,-0.0041633844,-1.6196475,0.45349279,-0.027216047,-0.89084423,0
0.47604573,-0.49308443,1.0135301,0.84218419,-0.31401491,0.43831533,0
-1.612303,-0.14165181,0.71495426,-0.84218419,0.31401491,-0.43831533,0
-0.75927281,1.2371445,0.063719869,-0.84218419,0.31401491,-0.43831533,0
-1.3792348,-0.72423977,0.95053142,-0.53908098,-0.50671273,0.67278075,0
-1.6425678,-1.0635537,0.11264241,-0.84218419,0.31401491,-0.43831533,0
0.48077869,1.5396857,0.71877468,0.16093004,0.922252,0.35150081,0
-0.56200427,1.5150427,-0.11622429,-0.84218419,0.31401491,-0.43831533,0
-0.71006966,0.14472353,-0.81344455,-0.84218419,0.31401491,-0.43831533,0
0.91729039,-0.056543946,0.47846115,0.84218419,-0.31401491,0.43831533,0
0.9657498,1.5057654,0.09845376,0.36722124,0.92928016,-0.039834619,0
1.0269642,-0.16266942,0.1917029,0.84218419,-0.31401491,0.43831533,0
-0.01215148,0.060218096,-1.9619405,0.42093003,-0.12512568,-0.89842165,0
0.44661856,-1.1795411,0.57828546,0.84218419,-0.31401491,0.43831533,0
1.5745287,0.0022217333,-1.1284717,0.49994868,0.15033138,-0.8529079,0
-0.2899226,1.9083986,0.060679197,0.22743142,0.94394273,0.23926371,0
-0.12074387,0.034100056,1.8859804,-0.41273165,0.14765003,0.89880586,0
-0.88134277,0.33672357,-0.34680676,-0.84218419,0.31401491,-0.43831533,0
0.062343478,-1.7916847,-0.29250658,-0.19869983,-0.93645018,-0.28910112,0
-0.23232281,1.1674744,1.282782,-0.13275588,0.66712821,0.73301828,0
-0.34885535,0.88407469,-0.97780472,-0.84218419,0.31401491,-0.43831533,0
-0.86629397,1.1215614,0.18654644,-0.84218419,0.31401491,-0.43831533,0
-0.47223341,1.2837923,1.1330936,-0.1234591,0.67901361,0.72367013,0
-0.54812753,-0.76768041,-1.7782601,-0.84218419,0.31401491,-0.43831533,0
0.34984314,-1.9287966,-0.037107229,-0.22553152,-0.94354028,-0.24262571,0
0.88782954,0.98698187,-1.1419559,0.5375284,0.55273038,-0.63682997,0
0.61340976,0.077576339,-1.6535674,0.46242931,0.0026029944,-0.88665229,0
-0.0083544254,1.7940054,0.24311328,0.21843863,0.94191933,0.25509292,0
0.63640785,1.1676534,1.3747214,-0.0078009963,0.80573332,0.59222704,0
0.26047146,-0.78800976,-1.5556144,0.25232744,-0.48887712,-0.83506286,0
-1.3678967,-0.56099457,1.0656035,-0.53680104,-0.41186419,0.73635083,0
1.2990618,0.45395374,0.11064848,0.84218419,-0.31401491,0.43831533,0
0.18002608,-1.694033,0.7219305,0.84218419,-0.31401491,0.43831533,0
-0.7302916,1.7867297,0.40176535,-0.84218419,0.31401491,-0.43831533,0
-0.40166801,1.2343917,-0.62535834,-0.84218419,0.31401491,-0.43831533,0
-0.085414886,-0.91561663,1.7896196,0.84218419,-0.31401491,0.43831533,0
0.19198024,-1.4998605,-0.91129422,-0.0025371313,-0.81521356,-0.57915497,0
-0.7183184,0.72700685,-0.38043952,-0.84218419,0.31401491,-0.43831533,0
-0.072142005,-0.65042841,-1.7366003,0.25603873,-0.48251009,-0.83763242,0
0.80814272,0.84534907,-1.3116052,0.53867227,0.45439264,-0.70947832,0
-0.20434219,1.9397054,-0.4992063,-0.84218419,0.31401491,-0.43831533,0
-0.44919923,-1.5243609,0.8791889,-0.49043977,-0.7839061,0.38073605,0
-1.0995041,1.152216,1.0879382,-0.23802567,0.51289672,0.82479119,0
1.0614328,0.65348011,-1.2370477,0.53602898,0.39970517,-0.74357826,0
-1.0336868,1.4835693,0.76752365,-0.84218419,0.31401491,-0.43831533,0
-0.63705641,1.4353483,-0.029112101,-0.84218419,0.31401491,-0.43831533,0
-0.41205928,1.0065346,-0.76863217,-0.84218419,0.31401491,-0.43831533,0
-0.7181586,-0.8436414,1.3803267,-0.5379613,-0.43450975,0.7223565,0
1.1342871,0.81566596,0.68638372,0.84218419,-0.31401491,0.43831533,0
0.7857216,-0.64872527,0.30701232,0.84218419,-0.31401491,0.43831533,0
1.4102217,1.3418123,0.39972293,0.35273519,0.93569386,-0.0074061155,0
1.0839972,1.1000834,0.98677176,0.84218419,-0.31401491,0.43831533,0
1.2138444,0.092507958,0.015441559,0.84218419,-0.31401491,0.43831533,0
0.798298,0.49477899,1.1020696,0.84218419,-0.31401491,0.43831533,0
1.0646052,-1.4791024,-0.82373095,0.84218419,-0.31401491,0.43831533,0
0.83228129,1.3067353,-0.81656718,0.5079841,0.73462725,-0.44974989,0
-1.1002591,0.96075869,0.52088827,-0.84218419,0.31401491,-0.43831533,0
-0.42679045,1.2745713,-0.54830265,-0.84218419,0.31401491,-0.43831533,0
0.49761367,-1.4436233,0.29111063,0.84218419,-0.31401491,0.43831533,0
0.98218584,0.56936622,-1.3333141,0.53045887,0.33683246,-0.77791858,0
0.17948383,1.780803,0.062523484,0.28574225,0.9493016,0.13106382,0
-1.1389261,-1.3809487,0.21268117,-0.44275895,-0.86668873,0.22981495,0
-0.93802321,1.552969,0.7959379,-0.089043438,0.72075468,0.68744743,0
1.3448364,-0.85393208,-0.91429019,0.84218419,-0.31401491,0.43831533,0
0.69311094,-1.6255724,-0.21487069,0.84218419,-0.31401491,0.43831533,0
1.1929959,0.89144552,0.62786949,0.84218419,-0.31401491,0.43831533,0
-0.20071661,-1.2819283,-1.2113407,0.028449595,-0.7859031,-0.61769491,0
-1.4108527,0.32517433,0.66232562,-0.84218419,0.31401491,-0.43831533,0
-1.6270189,-1.0255139,0.37775379,-0.50495249,-0.74438763,0.43693244,0
-0.61706525,-0.31805539,-1.3236853,-0.84218419,0.31401491,-0.43831533,0
0.60922766,-1.7122786,-0.6105473,-0.028759658,-0.83791858,-0.54503667,0
0.15748131,1.3723862,1.0891867,0.0038045645,0.81635511,0.57753742,0
-0.10564417,0.43704534,-1.7653716,-0.84218419,0.31401491,-0.43831533,0
0.77951092,-0.57707584,0.37027621,0.84218419,-0.31401491,0.43831533,0
-0.18234277,1.8200238,0.28109515,0.18545413,0.93201536,0.31137431,0
1.3119954,-1.0842168,-1.0161684,0.84218419,-0.31401491,0.43831533,0
0.15267617,1.6049768,-1.092118,0.49827629,0.76387286,-0.41014516,0
0.82209319,0.91674316,1.3586502,0.84218419,-0.31401491,0.43831533,0
-0.42542326,-0.2269901,-1.626668,-0.84218419,0.31401491,-0.43831533,0
1.5458417,-0.57912803,-1.1419896,0.41018134,-0.15451014,-0.89882028,0
0.35090429,-0.79868561,1.0350419,0.84218419,-0.31401491,0.43831533,0
1.0047746,-1.049934,-0.40130985,0.84218419,-0.31401491,0.43831533,0
1.3256755,-0.64296478,-1.2255371,0.38158172,-0.22723368,-0.89596885,0
-0.84673953,-0.49713194,-1.0106792,-0.84218419,0.31401491,-0.43831533,0
0.68804079,0.80120218,1.5334446,0.84218419,-0.31401491,0.43831533,0
0.62985051,0.72333634,1.5894678,0.84218419,-0.31401491,0.43831533,0
-1.1010983,-1.4117317,0.16408527,-0.43087581,-0.8806501,0.19698048,0
0.23512794,-1.4224527,0.81062055,0.84218419,-0.31401491,0.43831533,0
-1.0171641,1.4489887,0.71100354,-0.84218419,0.31401491,-0.43831533,0
-0.0053508282,-1.4274451,-1.0123595,-0.0030575991,-0.81568295,-0.57849115,0
-1.5070789,0.29222193,1.1881763,-0.45684123,0.016220152,0.88940042,0
0.32631361,0.80817521,1.6999608,-0.18224633,0.59929121,0.77951026,0
0.27851221,1.6774733,-0.74375999,0.45665479,0.84762907,-0.27016908,0
-1.0078815,0.61241198,0.09383297,-0.84218419,0.31401491,-0.43831533,0
-0.3840282,-1.6848845,-0.28730214,-0.25781339,-0.94848514,-0.1841417,0
0.16459203,-0.1452533,1.8611519,0.84218419,-0.31401491,0.43831533,0
-0.80184036,-0.045562267,-0.77343827,-0.84218419,0.31401491,-0.43831533,0
1.1595178,0.19420218,0.19268052,0.84218419,-0.31401491,0.43831533,0
-1.0434206,0.51467788,0.092100203,-0.84218419,0.31401491,-0.43831533,0
-0.48923784,-1.2151983,1.2750171,-0.53386641,-0.59958059,0.59622955,0
-0.46342379,0.069855452,-1.3409891,-0.84218419,0.31401491,-0.43831533,0
0.67131466,1.6171683,0.0017137527,0.35554835,0.93455857,-0.013624609,0
-0.52560234,-0.34999394,-1.5223041,-0.84218419,0.31401491,-0.43831533,0
-1.4631492,-0.32579231,0.29644766,-0.84218419,0.31401491,-0.43831533,0
-0.56458271,0.058206081,1.6726203,-0.43781739,0.07621336,0.89582777,0
-0.081290007,-0.79601514,1.8445412,-0.52288234,-0.27722481,0.80606478,0
-1.5502359,-0.66727561,0.21913368,-0.84218419,0.31401491,-0.43831533,0
