1.5434716,-2.3171208,-3.0497241,0.58038431,-0.55349147,-0.59732854,0
-3.2716827,1.0954261,2.5025733,-0.58038431,0.55349147,0.59732854,0
-2.6573653,1.9112,2.3435583,-0.58038431,0.55349147,0.59732854,0
-2.3425274,2.2524323,2.3332758,-0.58038431,0.55349147,0.59732854,0
-1.2101216,2.8993647,2.8341038,-0.58038431,0.55349147,0.59732854,0
3.0070441,-2.1759148,-1.7585117,0.58038431,-0.55349147,-0.59732854,0
-1.0320245,-1.2674981,0.70043671,-0.4849897,-0.82417005,0.29245311,0
2.9898052,-1.9002941,-0.58202869,0.66884452,-0.094438583,0.73737937,0
-1.0842779,2.6615171,3.17677,-0.58038431,0.55349147,0.59732854,0
-1.2449774,0.021583378,-1.2296607,-0.71141565,0.012333393,-0.7026633,0
0.018468738,1.20099,-1.2773647,-0.025592089,0.72075075,-0.69272178,0
2.3055544,-2.7659929,-1.8933291,0.58038431,-0.55349147,-0.59732854,0
-3.3809576,0.99076414,2.4933786,-0.58038431,0.55349147,0.59732854,0
1.6757467,0.20337319,-2.2543495,0.22575521,0.81411815,-0.53501993,0
-2.0974503,2.2390468,0.11003521,-0.36201116,0.48168534,-0.79807717,0
-0.6818198,-1.7674412,-0.49456942,-0.68078727,-0.73228246,0.017065704,0
2.9301829,-2.5353775,-1.5001104,0.58038431,-0.55349147,-0.59732854,0
-0.91577613,-0.35871887,2.1868134,0.020337045,-0.7234298,0.6900984,0
1.662499,-1.8183589,0.34116355,0.36379558,-0.48002082,0.79826856,0
-2.3098807,0.47155857,3.0108345,-0.19230175,-0.80591768,0.55992568,0
-1.0583231,2.7163045,3.151222,-0.58038431,0.55349147,0.59732854,0
-1.6469363,2.7786777,2.5215106,-0.58038431,0.55349147,0.59732854,0
0.049032748,-0.81114435,-2.5135472,-0.62825757,0.16235575,-0.7608766,0
0.39479077,-1.0421635,1.3492724,0.22559482,-0.59552193,0.77101272,0
-2.8956351,2.1214142,1.9172616,-0.58038431,0.55349147,0.59732854,0
1.8635795,-0.82167315,0.57765889,0.66980052,-0.092732996,0.73672783,0
2.868469,-0.83188772,-0.62808013,0.80986309,0.31547272,0.49456924,0
0.88994241,-2.9830008,-0.98711663,-0.40588403,-0.83252025,0.37705237,0
0.76533383,0.057754457,1.6802462,0.63348293,-0.15405792,0.75826484,0
-1.7339342,2.6330602,2.5719113,-0.58038431,0.55349147,0.59732854,0
-1.8725538,1.4252305,3.5564127,-0.58038431,0.55349147,0.59732854,0
0.19433153,-1.7539532,-2.6670022,-0.77666318,-0.15568241,-0.61037469,0
3.4722204,-0.92206287,-2.4683635,0.58038431,-0.55349147,-0.59732854,0
-0.51784086,-1.9087734,-0.45460945,-0.63667554,-0.76575106,0.090938449,0
3.3292589,-2.4732199,-1.1699504,0.58038431,-0.55349147,-0.59732854,0
1.9344625,-1.9600167,-3.000721,0.58038431,-0.55349147,-0.59732854,0
2.0392647,-0.66586578,0.41050518,0.7318626,0.032853186,0.68065989,0
0.73419809,1.1272714,-1.2453517,0.23844004,0.81686532,-0.52524048,0
-0.62799585,-0.37101477,-1.8510725,-0.67278409,0.087374419,-0.7346614,0
-1.2413661,3.5183322,2.2302039,-0.58038431,0.55349147,0.59732854,0
2.5001063,-1.0485549,-3.2956929,0.58038431,-0.55349147,-0.59732854,0
-3.2057128,0.78334522,1.3878043,-0.796067,-0.54014909,-0.27297693,0
1.7639484,0.73545766,-0.52643067,0.69915617,0.71476656,0.017012656,0
1.9843732,-1.6352453,-3.2531629,0.58038431,-0.55349147,-0.59732854,0
-3.0403745,1.9892015,1.8991373,-0.58038431,0.55349147,0.59732854,0
3.3877058,-0.83653164,-2.5627053,0.622518,0.77444142,-0.11274701,0
3.5808659,-1.6542549,-1.6843433,0.58038431,-0.55349147,-0.59732854,0
-0.47969529,0.17133474,2.5133471,0.34757414,-0.49497354,0.79636264,0
1.5481693,0.85901308,0.17309952,0.77864712,0.59197313,0.20803034,0
-3.3171287,1.6157155,1.97631,-0.58038431,0.55349147,0.59732854,0
-0.082566619,0.36207128,-1.9364108,-0.34843343,0.49419144,-0.79647285,0
-2.6739259,3.0023632,1.3163836,-0.58038431,0.55349147,0.59732854,0
2.4082739,-3.1661112,-1.4227695,0.58038431,-0.55349147,-0.59732854,0
-3.0850034,1.9462776,1.8955486,-0.58038431,0.55349147,0.59732854,0
-3.5135646,1.7679486,1.6443859,-0.58038431,0.55349147,0.59732854,0
-2.2068472,2.2454059,2.4716187,-0.58038431,0.55349147,0.59732854,0
0.12251246,1.1868039,2.3818347,0.73612893,0.042917669,0.67547929,0
2.6038699,-1.6822467,-2.607688,0.58038431,-0.55349147,-0.59732854,0
2.4588103,-3.1329606,-1.4043839,0.58038431,-0.55349147,-0.59732854,0
-3.1146345,1.8781056,1.9299262,-0.58038431,0.55349147,0.59732854,0
2.6926742,-3.2166796,-1.0995799,0.58038431,-0.55349147,-0.59732854,0
1.6688173,-1.893095,-3.3208411,0.58038431,-0.55349147,-0.59732854,0
2.0171475,0.47951269,-1.0835965,0.63774627,0.76505768,-0.089255691,0
-0.67551756,-0.47100663,-1.8141619,-0.70183492,0.032044083,-0.71161854,0
-1.905583,2.376591,2.6427794,-0.58038431,0.55349147,0.59732854,0
-2.5051568,2.3079653,2.1238027,-0.58038431,0.55349147,0.59732854,0
-2.2032068,3.307055,1.491419,-0.58038431,0.55349147,0.59732854,0
2.0379615,-2.2734694,-0.10540676,0.3340663,-0.50712395,0.79449666,0
1.4437501,-2.3689795,-0.0059198365,0.11106926,-0.67285252,0.73139131,0
0.7160244,-3.0717883,-2.3033867,-0.74884444,-0.65096366,-0.12441182,0
2.7643478,-1.5476036,-2.5765233,0.58038431,-0.55349147,-0.59732854,0
3.1051445,-1.1250057,-2.6369779,0.58038431,-0.55349147,-0.59732854,0
-2.9934726,1.1339886,0.66325402,-0.79480946,-0.22532022,-0.56347907,0
-3.616863,1.5878916,1.7108601,-0.58038431,0.55349147,0.59732854,0
-1.5138719,1.5885367,3.7535982,-0.58038431,0.55349147,0.59732854,0
2.181128,0.21000218,-0.3667593,0.79242086,0.55290544,0.2576139,0
-0.58843803,2.7556708,0.81699347,0.44470608,0.82989937,-0.33690292,0
3.1853776,-2.7498908,-0.96385872,0.51135814,-0.32315657,0.79629308,0
3.3511701,-0.97146702,-2.5402021,0.58038431,-0.55349147,-0.59732854,0
-2.526336,0.36746836,0.38141835,-0.81432873,-0.3901509,-0.42971057,0
0.41228858,0.64017218,2.0796332,0.68572903,-0.063465253,0.72508472,0
0.32397056,-1.8430988,0.56471527,-0.10368842,-0.77776736,0.61994088,0
2.1844628,-3.167702,-1.6387575,0.58038431,-0.55349147,-0.59732854,0
2.6641865,-0.78151083,-3.3348398,0.20548153,0.80931199,-0.55026495,0
-2.637589,2.1850233,2.109046,-0.58038431,0.55349147,0.59732854,0
2.7202713,-1.8669009,-2.3234849,0.58038431,-0.55349147,-0.59732854,0
-3.0003467,2.9535792,0.95489818,-0.40562677,0.4395504,-0.8014127,0
1.4002404,0.44158792,-2.0077479,0.21393347,0.81137723,-0.54396641,0
-0.71326047,0.7657876,-1.402615,-0.4075774,0.43759298,-0.80149424,0
1.9138973,-1.7110765,0.26851785,0.46436357,-0.37762514,0.80110282,0
-1.7226372,1.8823123,3.2785392,-0.58038431,0.55349147,0.59732854,0
2.9950361,-2.2470531,-1.7042608,0.58038431,-0.55349147,-0.59732854,0
2.5556722,-1.4645686,-2.8562207,0.58038431,-0.55349147,-0.59732854,0
-2.928566,1.4843559,2.4755695,-0.58038431,0.55349147,0.59732854,0
-3.0834599,1.2311091,2.559731,-0.58038431,0.55349147,0.59732854,0
2.5140834,-1.7387843,-2.6425383,0.58038431,-0.55349147,-0.59732854,0
-2.2134709,1.1304412,3.4983206,-0.58038431,0.55349147,0.59732854,0
1.8734301,-2.4782007,-2.5798674,0.58038431,-0.55349147,-0.59732854,0
3.2106814,-2.2347608,-1.5061238,0.58038431,-0.55349147,-0.59732854,0
-0.50301027,2.8225646,2.262444,0.77570599,0.59901589,0.19864666,0
2.8037634,-1.565639,-2.5215142,0.58038431,-0.55349147,-0.59732854,0
0.38900879,0.12628579,-2.2801809,-0.28111595,0.55224395,-0.78485698,0
0.69598866,-2.5984468,-0.4017148,-0.29282153,-0.82629395,0.48113808,0
-2.5122831,2.607111,1.8396869,-0.58038431,0.55349147,0.59732854,0
-2.1896005,2.68347,2.0824604,-0.58038431,0.55349147,0.59732854,0
1.5578229,-2.2863863,-3.0642586,0.58038431,-0.55349147,-0.59732854,0
0.79240561,-3.1682324,-2.2049863,-0.71811068,-0.69376075,-0.054893553,0
-2.0349402,1.5143456,3.3160577,-0.58038431,0.55349147,0.59732854,0
-2.7900727,1.6562145,0.37029701,-0.67990565,0.074357882,-0.72951984,0
-3.5048199,1.9309564,1.5018373,-0.58038431,0.55349147,0.59732854,0
-2.8557215,1.6436534,2.3987412,-0.58038431,0.55349147,0.59732854,0
-2.1089659,2.3892026,2.4334793,-0.58038431,0.55349147,0.59732854,0
-0.27925992,2.3062735,0.16420895,0.35005575,0.83185202,-0.43067774,0
-1.2344728,3.5032682,2.25086,-0.58038431,0.55349147,0.59732854,0
-1.7412535,-0.4586122,1.7538646,-0.39657885,-0.83275843,0.38631427,0
-2.4992838,1.8777738,2.5281291,-0.58038431,0.55349147,0.59732854,0
-3.0674148,2.0737925,1.7944812,-0.58038431,0.55349147,0.59732854,0
1.6519585,-1.5563745,-3.6492307,0.58038431,-0.55349147,-0.59732854,0
-1.4891865,3.1693857,2.3127506,-0.58038431,0.55349147,0.59732854,0
-3.0273597,1.1420851,2.6967311,-0.58038431,0.55349147,0.59732854,0
-2.7177491,0.69998455,3.1837883,-0.27066803,-0.82292175,0.49953854,0
2.7690907,-1.3335586,-2.7702518,0.58038431,-0.55349147,-0.59732854,0
2.568629,-1.9477401,-2.3959196,0.58038431,-0.55349147,-0.59732854,0
-1.8859138,3.2971756,1.8088659,-0.58038431,0.55349147,0.59732854,0
-0.44509494,-0.82437187,-2.0523944,-0.72657722,-0.020714164,-0.68677247,0
2.6658986,-1.3819947,-2.8256354,0.58038431,-0.55349147,-0.59732854,0
-1.8733699,1.2524867,3.7156861,-0.58038431,0.55349147,0.59732854,0
0.11529541,-2.4602392,-0.8131941,-0.56901789,-0.80036908,0.18875441,0
1.9538236,-1.2616425,-3.6290307,0.58038431,-0.55349147,-0.59732854,0
2.409601,-2.5177584,-2.0222511,0.58038431,-0.55349147,-0.59732854,0
1.8598776,-3.3091345,-1.8230821,0.58038431,-0.55349147,-0.59732854,0
0.98106897,-0.70032144,-3.0604696,-0.36307055,0.48069775,-0.79819131,0
-2.0309973,3.4123406,1.5611846,-0.58038431,0.55349147,0.59732854,0
-2.0258577,0.4116441,-0.39334434,-0.7700485,-0.13439998,-0.62366813,0
1.6411537,0.34079099,-2.0524359,0.27787101,0.82409018,-0.49362257,0
-2.3298337,1.7117815,2.8465829,-0.58038431,0.55349147,0.59732854,0
-2.4967656,2.1666365,2.262912,-0.58038431,0.55349147,0.59732854,0
-2.7115614,1.2375224,0.2862792,-0.74365532,-0.061314374,-0.66574562,0
0.16466308,-1.9030949,0.44266534,-0.19924891,-0.80773318,0.55485779,0
-1.2771747,0.26903462,2.8336997,0.12677014,-0.66315913,0.73766482,0
3.0190153,-1.4746835,-0.60891575,0.75271404,0.084702134,0.65287608,0
2.1887834,0.3227036,-1.1928482,0.65235925,0.75504982,-0.065783858,0
1.4690527,-0.54198837,-3.1101508,-0.15892911,0.64241862,-0.74969321,0
-0.30186546,-0.41521358,2.0370646,0.21293956,-0.60483932,0.76735002,0
2.3485818,0.13697648,-0.79303277,0.75802583,0.63523197,0.14790994,0
2.0194042,0.43590045,-1.3332418,0.58114028,0.79534924,-0.17232448,0
2.9811692,-1.4526725,-2.4538169,0.58038431,-0.55349147,-0.59732854,0
3.1516707,-1.0827994,-2.6308804,0.58038431,-0.55349147,-0.59732854,0
2.0414121,-1.6461039,-3.1876802,0.58038431,-0.55349147,-0.59732854,0
1.8337324,-1.3909526,-3.625895,0.58038431,-0.55349147,-0.59732854,0
-0.49911916,1.6921188,-0.74724025,-0.026556432,0.72025573,-0.69320023,0
-0.14377315,0.43446374,2.46631,0.51385319,-0.32012743,0.79591048,0
-3.226372,2.6278496,1.1266379,-0.58038431,0.55349147,0.59732854,0
-0.020004392,-1.0328259,1.4446871,0.089026153,-0.68598855,0.72214544,0
3.2957191,-1.4493475,-2.1512706,0.58038431,-0.55349147,-0.59732854,0
-1.9571692,-0.15990567,2.1634979,-0.34241748,-0.83138394,0.43766552,0
-1.6161493,1.2205418,-0.66430163,-0.51998413,0.31262079,-0.79491174,0
1.7969598,-1.4223418,-3.6325388,0.58038431,-0.55349147,-0.59732854,0
-1.6660534,1.8275409,3.3842697,-0.58038431,0.55349147,0.59732854,0
1.0537002,-2.8775458,-0.66647762,-0.2609514,-0.82123739,0.50741869,0
-0.2159071,1.3744643,2.7332437,0.71194917,-0.011210799,0.70214152,0
0.93066812,-2.8950784,-3.109602,0.58038431,-0.55349147,-0.59732854,0
-1.8327031,2.3778045,2.7124677,-0.58038431,0.55349147,0.59732854,0
-0.32044244,0.83856076,-1.5246456,-0.26953691,0.56159985,-0.78227586,0
-1.6589973,1.646338,3.5590305,-0.58038431,0.55349147,0.59732854,0
0.61280251,-1.5984552,-3.1328681,-0.68183124,0.070781812,-0.72807699,0
-3.0982425,1.493814,2.3019428,-0.58038431,0.55349147,0.59732854,0
-1.4539813,2.4740548,2.9912591,-0.58038431,0.55349147,0.59732854,0
-1.4324856,3.2416534,2.3008795,-0.58038431,0.55349147,0.59732854,0
-1.3124272,-0.86828184,1.3109791,-0.39701492,-0.8327505,0.38588318,0
1.6949425,-3.2532749,-2.0350988,0.58038431,-0.55349147,-0.59732854,0
2.839741,-1.2418251,-2.7866073,0.58038431,-0.55349147,-0.59732854,0
0.52175194,-1.1757905,-2.9800777,-0.60847998,0.19273391,-0.76980883,0
1.6768615,0.67484498,-1.299194,0.50194204,0.82074863,-0.27281138,0
1.14222,-2.7279282,-3.0589342,0.58038431,-0.55349147,-0.59732854,0
0.26154101,1.4232253,2.1664698,0.78954726,0.20283602,0.57920027,0
0.48417079,-0.6947962,1.5537932,0.36374527,-0.48006779,0.79826325,0
3.3693249,-2.1975598,-0.96536279,0.6821546,-0.070178717,0.7278325,0
3.1464782,-2.1281061,-1.6673326,0.58038431,-0.55349147,-0.59732854,0
1.4552511,0.60268807,-1.7136613,0.32261109,0.82977057,-0.45541507,0
0.027054548,-2.0467672,-2.2649257,-0.81414974,-0.37841272,-0.44041348,0
-1.0953119,3.3993561,1.8412503,0.57369453,0.79848659,-0.182466,0
0.085057497,2.0214293,-0.08472836,0.38650972,0.83285439,-0.39618662,0
2.0468755,-3.5170398,-1.4487416,0.58038431,-0.55349147,-0.59732854,0
-2.5241423,-0.0075910091,1.2402211,-0.7122137,-0.70065844,-0.042772412,0
3.3864322,-2.259151,-1.3127573,0.58038431,-0.55349147,-0.59732854,0
-2.0785637,1.1297946,3.6300011,-0.58038431,0.55349147,0.59732854,0
-2.2630262,2.3918083,0.27734643,-0.36356893,0.48023254,-0.79824454,0
-0.06152451,-0.82645285,-2.4222817,-0.65488279,0.11875136,-0.74634218,0
0.0088680983,1.4665518,2.4781892,0.76350373,0.1147365,0.6355294,0
0.93508768,-0.50297308,-2.9162126,-0.31569108,0.52322662,-0.79156369,0
1.9049593,0.32992721,-1.8618951,0.41359115,0.83221173,-0.36927783,0
1.3639694,-2.7388287,-2.8333747,0.58038431,-0.55349147,-0.59732854,0
-1.1496005,-1.2866397,0.32945126,-0.60655153,-0.783252,0.13642454,0
-0.039034724,-1.3020697,1.1685851,-0.022305489,-0.74403977,0.66776288,0
0.96661848,0.62940574,-1.871417,0.11109877,0.78046894,-0.61524409,0
-3.0800087,2.4022956,1.4778494,-0.58038431,0.55349147,0.59732854,0
-0.14932227,-2.0442276,-1.9021091,-0.8086459,-0.47832745,-0.34248352,0
1.0500114,1.1715293,-0.92140329,0.43041503,0.83117837,-0.35197365,0
0.43380165,1.9421566,1.2568233,0.76987839,0.61199945,0.18095368,0
-2.7595646,2.4885349,1.7092929,-0.58038431,0.55349147,0.59732854,0
1.9416388,-2.8108423,-2.2053635,0.58038431,-0.55349147,-0.59732854,0
-0.77734542,3.1454163,2.2712936,0.73276496,0.67495435,0.086558342,0
2.6643095,-1.6739707,-2.5566306,0.58038431,-0.55349147,-0.59732854,0
-0.20196843,-0.62665045,1.8397636,0.17289686,-0.63303423,0.75456893,0
2.1693344,-2.3360658,-2.4240606,0.58038431,-0.55349147,-0.59732854,0
-0.60546505,0.076271772,2.5002315,0.27986586,-0.55326259,0.78458631,0
1.3857569,1.0652502,-0.54995865,0.61171955,0.78050882,-0.12886125,0
0.1281327,1.0428061,2.3790989,0.7112838,-0.012610346,0.70279181,0
1.1102021,-0.26702768,1.32614,0.63440114,-0.15258728,0.75779438,0
-2.1371088,3.5698814,1.3121045,-0.58038431,0.55349147,0.59732854,0
-2.647953,2.5995543,1.7148672,-0.58038431,0.55349147,0.59732854,0
1.6840167,-0.095887184,-2.6612568,0.093345761,0.77389264,-0.62639976,0
-1.9455746,2.7577665,2.25072,-0.58038431,0.55349147,0.59732854,0
-1.1076564,-1.0988274,1.0219244,-0.41900051,-0.83193398,0.36376458,0
-0.89763355,2.9159112,0.83959746,0.36143035,0.83238626,-0.42012072,0
2.3275661,-1.0996995,-3.4159484,0.58038431,-0.55349147,-0.59732854,0
-1.1299849,2.7998562,0.51646239,0.18806422,0.80478173,-0.56299037,0
0.20311534,1.2332191,2.2861013,0.75622815,0.094197363,0.64749199,0
1.9809053,-2.1010504,-2.8249125,0.58038431,-0.55349147,-0.59732854,0
-3.2264209,1.426477,2.2397957,-0.58038431,0.55349147,0.59732854,0
2.5025387,-3.339849,-1.1701909,0.58038431,-0.55349147,-0.59732854,0
-2.1100712,1.37392,-0.26111209,-0.59912562,0.20657676,-0.7735467,0
1.3957207,0.95998466,-0.95716482,0.51550353,0.81754452,-0.25666568,0
-0.80574441,3.1678391,2.3340776,0.73855698,0.66676772,0.099771976,0
2.0168753,-2.7285197,-2.2085419,0.58038431,-0.55349147,-0.59732854,0
0.87401414,-2.4769933,-0.14364108,-0.15193999,-0.79423052,0.58831304,0
3.2094476,-0.79184532,-2.8443444,0.58038431,-0.55349147,-0.59732854,0
-2.9106078,0.89412642,0.65776247,-0.80852646,-0.30414602,-0.503766,0
-1.59079,2.9690416,2.3996708,-0.58038431,0.55349147,0.59732854,0
-3.0373187,1.5429482,2.3156095,-0.58038431,0.55349147,0.59732854,0
0.58634812,-0.24344921,1.7222003,0.51867813,-0.31422746,0.7951315,0
-0.33746195,-2.0793762,-1.1453345,-0.73647326,-0.6697675,-0.094967663,0
-2.3820658,1.1788979,3.289609,-0.58038431,0.55349147,0.59732854,0
-0.4630338,1.7950357,-0.63601434,0.028043926,0.7466597,-0.66461492,0
1.5611287,-2.1889689,-3.1513152,0.58038431,-0.55349147,-0.59732854,0
-1.8737953,2.6440988,0.32869366,-0.15958816,0.64198101,-0.749928,0
-2.6970162,2.8155627,1.4670398,-0.58038431,0.55349147,0.59732854,0
-2.2077034,3.1099281,1.6697103,-0.58038431,0.55349147,0.59732854,0
2.3935523,-2.8250566,-1.7530988,0.58038431,-0.55349147,-0.59732854,0
-1.4895029,1.7352667,-0.46869534,-0.33875671,0.50293541,-0.79517287,0
1.5451883,-1.5173779,-3.7891071,0.58038431,-0.55349147,-0.59732854,0
2.0528574,-3.0486984,-1.8768997,0.58038431,-0.55349147,-0.59732854,0
-2.2916787,-0.22650599,1.2751579,-0.65738678,-0.75135815,0.057478249,0
1.527545,-3.0739269,-2.363934,0.58038431,-0.55349147,-0.59732854,0
-0.048595786,1.5711132,2.5273995,0.77067053,0.13633615,0.62247849,0
2.1556263,-1.2772334,0.24749374,0.63143897,-0.15731795,0.75929964,0
-1.7766113,2.1764681,2.9535289,-0.58038431,0.55349147,0.59732854,0
2.8508925,-0.31585646,-1.4540658,0.73429751,0.67283368,0.09001255,0
-0.054086208,2.0357225,-0.17181641,0.31915307,0.82943082,-0.4584603,0
-1.8014913,0.65580177,3.2683616,0.085187197,-0.68822014,0.72048336,0
-1.3803511,-0.349507,-1.0173378,-0.78877193,-0.19971827,-0.5813359,0
1.2683825,1.1088302,-0.73401171,0.53877938,0.81100893,-0.22799402,0
1.3119266,-0.25708485,1.1499037,0.67775589,-0.078321561,0.73110378,0
-1.1302459,3.4918413,2.3627186,-0.58038431,0.55349147,0.59732854,0
2.4635112,-2.7672098,-1.7387257,0.58038431,-0.55349147,-0.59732854,0
-0.40341806,2.6813207,2.2789791,0.79079419,0.55818874,0.25113791,0
2.7382908,-0.5222373,-2.8432665,0.37853861,0.83281362,-0.40389383,0
-1.076575,2.4774423,3.35482,-0.58038431,0.55349147,0.59732854,0
0.56716847,-2.507591,-0.32499307,-0.30976069,-0.82842278,0.46665204,0
-1.4224644,1.8731742,3.5786645,-0.58038431,0.55349147,0.59732854,0
2.3098068,-2.124372,-2.4837303,0.58038431,-0.55349147,-0.59732854,0
0.87673569,1.5284114,-0.144189,0.58423239,0.79399437,-0.16806448,0
-2.5799155,1.1013989,3.1691821,-0.58038431,0.55349147,0.59732854,0
-1.2420056,3.2491853,2.4789767,-0.58038431,0.55349147,0.59732854,0
-3.4948688,2.2769666,1.1908886,-0.58038431,0.55349147,0.59732854,0
-1.5387459,1.9832711,3.3636649,-0.58038431,0.55349147,0.59732854,0
3.3775592,-2.488862,-1.1085265,0.58038431,-0.55349147,-0.59732854,0
-1.9206122,1.9730954,3.0020595,-0.58038431,0.55349147,0.59732854,0
-0.36031079,1.4767215,2.8809505,0.7052601,-0.025091827,0.7085045,0
1.4930437,-1.5784464,-3.7831855,0.58038431,-0.55349147,-0.59732854,0
2.2799106,-3.5126603,-1.2263749,0.58038431,-0.55349147,-0.59732854,0
-3.3389266,1.0992184,2.4337225,-0.58038431,0.55349147,0.59732854,0
1.4550438,-3.4056756,-2.126976,0.58038431,-0.55349147,-0.59732854,0
-1.7261338,2.2583115,2.9267368,-0.58038431,0.55349147,0.59732854,0
2.0176613,-3.0066373,-1.9500719,0.58038431,-0.55349147,-0.59732854,0
0.52501523,-0.25211132,1.7579252,0.5009234,-0.33566871,0.79774821,0
1.7412912,-1.9673011,-3.1816628,0.58038431,-0.55349147,-0.59732854,0
-1.7643384,-0.59083831,-0.096446633,-0.79615068,-0.53983915,-0.27334541,0
0.54876631,0.6129812,-1.9068398,-0.057276607,0.70394814,-0.70793808,0
-1.4865924,1.8495867,3.5382123,-0.58038431,0.55349147,0.59732854,0
-2.0235257,1.4183602,3.4160893,-0.58038431,0.55349147,0.59732854,0
1.7663128,-3.5580044,-1.683388,0.58038431,-0.55349147,-0.59732854,0
2.0412703,-0.59585142,0.40335435,0.74405819,0.062323838,0.66520166,0
-0.51536179,-0.6703248,-1.9805045,-0.71068543,0.013865322,-0.70337331,0
-2.9298704,2.3222475,1.6979024,-0.58038431,0.55349147,0.59732854,0
0.65578794,-2.5527346,-2.9835153,-0.81112665,-0.32779157,-0.48438227,0
-2.4800806,2.4457419,0.41306347,-0.40903452,0.43612653,-0.80155122,0
0.44695508,0.57128108,2.0404968,0.6784668,-0.077014297,0.73058313,0
3.2416933,-2.0480113,-1.6490355,0.58038431,-0.55349147,-0.59732854,0
-1.9903829,2.5886378,2.3638992,-0.58038431,0.55349147,0.59732854,0
2.4438295,-0.89835787,-3.4895482,0.58038431,-0.55349147,-0.59732854,0
-2.7547197,1.7778981,0.35555863,-0.64709198,0.13186339,-0.75092214,0
0.50184703,-2.7050869,-2.5124602,-0.80411077,-0.50543076,-0.31296289,0
1.3184252,1.0936795,-0.65929097,0.56976402,0.80007309,-0.18775508,0
-3.2470038,0.89774656,2.7097237,-0.58038431,0.55349147,0.59732854,0
-1.0785182,-0.99150348,-1.1278653,-0.81413728,-0.37789929,-0.44087714,0
-2.1331546,-0.36335063,1.2468731,-0.62803775,-0.77115613,0.1043396,0
-1.8619421,3.2216232,0.91055083,0.066183984,0.76314366,-0.64283091,0
1.5737884,-3.5117304,-1.441334,-0.33378172,-0.8307507,0.44546968,0
-2.5760944,2.9979875,1.4154946,-0.58038431,0.55349147,0.59732854,0
3.0043685,-0.97826338,-2.8708682,0.58038431,-0.55349147,-0.59732854,0
-0.073491812,-2.031837,0.074132562,-0.38613647,-0.83285487,0.39654976,0
2.5134063,-3.1688185,-1.3181105,0.58038431,-0.55349147,-0.59732854,0
-0.67055607,-0.17295629,-1.7826965,-0.63900995,0.14514847,-0.7553795,0
2.9073033,-0.37148142,-2.0170596,0.63393241,0.76750338,-0.09522748,0
-1.984246,2.4322929,0.19278452,-0.2672469,0.56342924,-0.78174585,0
1.1370813,0.74878252,-1.6510696,0.24125957,0.81744838,-0.52304107,0
0.36726069,-1.503986,0.94666159,0.050629854,-0.70756549,0.70483184,0
-0.96866232,0.75402379,3.0863566,0.3827582,-0.46202502,0.80001813,0
1.2361838,0.67787617,1.0800853,0.80684781,0.2915554,0.51380152,0
0.63678336,-2.1978416,0.17066151,-0.12833083,-0.78650934,0.6040979,0
-1.0915024,3.159328,1.159912,0.39610249,0.83276677,-0.38678479,0
0.43075261,-0.74005771,-2.7743089,-0.52221525,0.30986655,-0.79452753,0
0.64606023,-0.83119917,1.3979322,0.36917728,-0.47497094,0.79881829,0
2.2883346,-1.6341159,0.051883876,0.57746631,-0.23745963,0.78111821,0
-2.1190948,3.1599755,1.7094313,-0.58038431,0.55349147,0.59732854,0
0.083368301,-1.048362,1.4154537,0.11955553,-0.6676482,0.73481452,0
2.8036008,-1.8409176,-2.2665958,0.58038431,-0.55349147,-0.59732854,0
2.8715849,-1.9098864,-2.1366332,0.58038431,-0.55349147,-0.59732854,0
0.89035034,-3.1954386,-2.6504405,-0.77423477,-0.60240847,-0.19407374,0
2.9129505,-2.3882756,-1.6531605,0.58038431,-0.55349147,-0.59732854,0
0.7656219,-2.0548995,0.35657167,-0.016439736,-0.74132413,0.67094588,0
1.5884966,-2.6434102,-2.7036326,0.58038431,-0.55349147,-0.59732854,0
-2.2579191,-0.21600008,0.6692912,-0.76268905,-0.6265344,-0.16050017,0
0.26882929,-0.39947867,-2.5284665,-0.47235501,0.36869311,-0.80059105,0
1.0671391,-0.74275392,1.2109342,0.50793362,-0.32729051,0.79679626,0
-2.1870973,1.1305909,3.5238082,-0.58038431,0.55349147,0.59732854,0
-3.2221556,1.4941039,2.1812756,-0.58038431,0.55349147,0.59732854,0
1.7849839,-1.6899166,-3.3962371,0.58038431,-0.55349147,-0.59732854,0
2.0055928,0.25784111,-1.910502,0.42886424,0.83129472,-0.35358828,0
2.5505743,-1.6962571,-2.6464889,0.58038431,-0.55349147,-0.59732854,0
1.4195316,0.5742718,0.84713745,0.81116104,0.32815534,0.48407847,0
-2.1135993,2.1933308,2.6104743,-0.58038431,0.55349147,0.59732854,0
1.7426575,0.65249038,0.028600693,0.78581148,0.57311398,0.23246664,0
-0.25611317,-1.3514904,-2.1961768,-0.78020734,-0.16779378,-0.60259569,0
1.871848,-3.0237477,-2.0758939,0.58038431,-0.55349147,-0.59732854,0
3.3051233,-1.2534795,-2.3236268,0.58038431,-0.55349147,-0.59732854,0
1.9350885,-2.7648692,-2.2543273,0.58038431,-0.55349147,-0.59732854,0
2.2848732,0.15872025,-0.5916419,0.77777106,0.59410834,0.20520079,0
-1.6986439,2.7505326,2.4973495,-0.58038431,0.55349147,0.59732854,0
-0.61291003,2.044673,-0.35800803,0.072147429,0.76557451,-0.6392892,0
2.7108173,-3.2269793,-1.072407,0.58038431,-0.55349147,-0.59732854,0
1.8990834,-2.3735478,-2.6519141,0.58038431,-0.55349147,-0.59732854,0
2.6814129,-1.9950218,-2.2425237,0.58038431,-0.55349147,-0.59732854,0
3.4953432,-1.222662,-2.1673586,0.58038431,-0.55349147,-0.59732854,0
0.60517347,-1.622133,-3.1277852,-0.68806159,0.059035897,-0.72324687,0
2.1389518,-2.3866878,-2.4066739,0.58038431,-0.55349147,-0.59732854,0
3.5218663,-0.9937129,-2.3537345,0.58038431,-0.55349147,-0.59732854,0
-2.0911689,-0.25675893,0.19790268,-0.80036515,-0.5230242,-0.2930212,0
-3.2635932,2.4991531,1.2097235,-0.58038431,0.55349147,0.59732854,0
1.062799,-0.7426784,1.2137288,0.5068565,-0.32858521,0.79694939,0
0.49446255,0.46729279,1.9845766,0.66630304,-0.098946735,0.73908722,0
-1.3970788,-0.91364777,1.0921201,-0.48077744,-0.82492369,0.29724434,0
1.2950118,-2.2412817,-3.3614094,0.58038431,-0.55349147,-0.59732854,0
-3.3929241,1.6704183,1.8519762,-0.58038431,0.55349147,0.59732854,0
1.1287162,1.2436669,-0.58440542,0.5402422,0.81055212,-0.22614953,0
-1.2161994,-1.1073205,0.84544784,-0.49665183,-0.82188439,0.27900392,0
-1.0355222,2.3873656,3.4781744,-0.58038431,0.55349147,0.59732854,0
0.46063066,-2.1399279,0.20304716,-0.17803657,-0.80200803,0.57016337,0
-1.5040121,3.6339428,1.8678823,-0.58038431,0.55349147,0.59732854,0
2.3402476,-1.6858482,-2.8604944,0.58038431,-0.55349147,-0.59732854,0
1.2923343,-3.5358818,-2.1644201,0.58038431,-0.55349147,-0.59732854,0
-1.6315982,2.9044883,2.4198356,-0.58038431,0.55349147,0.59732854,0
-1.4447187,2.2380726,3.2189226,-0.58038431,0.55349147,0.59732854,0
1.6283799,-2.5673783,-2.735333,0.58038431,-0.55349147,-0.59732854,0
-0.40051556,-2.0232139,-0.59775507,-0.64158058,-0.7625314,0.083189249,0
2.0901055,-1.8699741,-2.9329267,0.58038431,-0.55349147,-0.59732854,0
-2.0838115,3.4728248,1.4538237,-0.58038431,0.55349147,0.59732854,0
2.0992386,-1.8686132,-2.9253144,0.58038431,-0.55349147,-0.59732854,0
3.3838267,-1.3859549,-2.1244032,0.58038431,-0.55349147,-0.59732854,0
-0.53524041,2.5637496,2.758934,0.81433904,0.39671421,0.42363888,0
-2.6498444,1.9613106,0.3149032,-0.58173567,0.23149484,-0.7797395,0
-3.1092536,2.0022838,0.70347124,-0.67132902,0.089994416,-0.73567539,0
1.4308782,-2.9422619,-2.5798607,0.58038431,-0.55349147,-0.59732854,0
-1.5599842,2.9744256,2.424614,-0.58038431,0.55349147,0.59732854,0
1.90347,-1.5139685,0.36088341,0.51489216,-0.31886154,0.79574704,0
-3.3593106,1.4762073,2.0645943,-0.58038431,0.55349147,0.59732854,0
-1.0295515,3.0517151,2.868382,-0.58038431,0.55349147,0.59732854,0
-1.6511555,1.0520878,3.5612538,0.27292323,-0.55888212,0.78304768,0
-2.3788049,2.1126895,2.4275148,-0.58038431,0.55349147,0.59732854,0
1.6784358,-2.7395756,-2.5271368,0.58038431,-0.55349147,-0.59732854,0
1.2529202,-3.4852149,-2.2496643,0.58038431,-0.55349147,-0.59732854,0
1.2007798,1.1933904,0.52175069,0.77745402,0.59487337,0.20418382,0
1.3403969,-3.00471,-2.6099107,0.58038431,-0.55349147,-0.59732854,0
-2.2855172,1.2169104,3.3481956,-0.58038431,0.55349147,0.59732854,0
0.81479132,1.6374333,0.28110981,0.6650244,0.74548763,-0.044617474,0
2.3808916,-2.7565782,-1.8288527,0.58038431,-0.55349147,-0.59732854,0
-2.1230063,2.4502273,2.363291,-0.58038431,0.55349147,0.59732854,0
0.4971869,1.9104717,1.0764943,0.75235778,0.64514405,0.13321811,0
-0.32183862,-1.9266706,-1.6530948,-0.80311006,-0.51044369,-0.30734557,0
-3.1382008,2.4293842,1.3962076,-0.58038431,0.55349147,0.59732854,0
2.8782933,-0.4042778,-2.3074267,0.55939639,0.80403566,-0.20150048,0
2.0960581,0.058169603,-2.2469671,0.35983837,0.83232331,-0.42160934,0
1.5816331,0.28654605,0.75707263,0.80193031,0.26088095,0.5374468,0
-2.2951903,3.1736612,0.8755101,-0.11373895,0.67122412,-0.73247635,0
0.11602521,-1.0608124,-2.6143723,-0.66867495,0.094740525,-0.73749441,0
-2.1588833,3.366425,1.4794726,-0.58038431,0.55349147,0.59732854,0
1.7746955,-0.89594197,0.64320612,0.63547027,-0.15087034,0.7572422,0
-0.84759998,-1.6096337,-0.33874547,-0.68377185,-0.72960246,0.011682451,0
-2.0467432,1.4974515,-0.27027518,-0.55426693,0.26889691,-0.78770715,0
2.5284054,-2.0790176,-2.3133583,0.58038431,-0.55349147,-0.59732854,0
-0.25043714,-1.202265,-2.2352645,-0.75840741,-0.10021895,-0.64402986,0
1.5378644,-2.151042,-3.2090626,0.58038431,-0.55349147,-0.59732854,0
-2.4851422,0.14852428,0.55369306,-0.80478084,-0.50191879,-0.31686819,0
-2.6071515,1.700633,2.5874619,-0.58038431,0.55349147,0.59732854,0
3.148869,-2.6864657,-1.1476275,0.58038431,-0.55349147,-0.59732854,0
1.9491975,-2.1883912,-2.7747896,0.58038431,-0.55349147,-0.59732854,0
-2.0523558,1.5797493,-0.2370733,-0.53470957,0.29421425,-0.79216391,0
2.1936071,-1.0136738,-3.6258194,0.58038431,-0.55349147,-0.59732854,0
2.186722,-2.106555,-2.6198335,0.58038431,-0.55349147,-0.59732854,0
-2.2339692,2.1617627,0.13341129,-0.42330009,0.42157593,-0.80192947,0
-0.2395705,-1.1727049,-2.2520952,-0.7521975,-0.083327711,-0.65364778,0
-1.6042581,0.63580668,-0.8359198,-0.65681255,0.1154549,-0.74516273,0
1.8475856,-2.3439591,-2.729368,0.58038431,-0.55349147,-0.59732854,0
2.2552063,-2.0618508,-0.094792008,0.45733875,-0.38537145,0.80145502,0
0.77608955,1.5681452,-0.26271313,0.52990675,0.81366056,-0.23907208,0
0.055658102,-2.422555,-0.83934975,-0.58988118,-0.79143798,0.16020733,0
-3.2371502,2.3498478,1.373764,-0.58038431,0.55349147,0.59732854,0
2.5116067,-0.57337046,-0.21359968,0.80419606,0.27412871,0.52737284,0
-2.2468271,2.7926128,1.9257238,-0.58038431,0.55349147,0.59732854,0
-3.0800223,2.9320214,0.98698699,-0.58038431,0.55349147,0.59732854,0
1.5279388,-1.0974894,-3.5454659,-0.32482204,0.51528555,-0.79307723,0
0.96516216,-2.2087133,0.19109339,-0.0018414855,-0.73440021,0.67871428,0
2.7404113,-0.21709919,-1.2957641,0.74191928,0.66179079,0.1076507,0
0.82844996,1.5771794,-0.081489563,0.58730787,0.79261565,-0.16379887,0
0.12637618,-0.34233737,-2.4169385,-0.49375391,0.34412262,-0.79861552,0
2.0451553,-3.4354765,-1.5259907,0.58038431,-0.55349147,-0.59732854,0
-3.2247562,2.4048584,0.8777597,-0.60667276,0.1954335,-0.7705543,0
1.4832128,0.94888097,0.15040207,0.76603234,0.61995846,0.16984189,0
-2.3828821,1.6608405,2.8422418,-0.58038431,0.55349147,0.59732854,0
-2.2162447,2.0810132,2.6148157,-0.58038431,0.55349147,0.59732854,0
-1.3868942,2.6923637,0.3331905,0.034671247,0.74963993,-0.66093713,0
0.8540045,1.6036906,0.38302076,0.69387901,0.72005785,0.0069821477,0
-1.2970324,2.8639951,2.7824323,-0.58038431,0.55349147,0.59732854,0
-1.114244,-0.89219946,-1.1425562,-0.81235713,-0.34232074,-0.47211492,0
-3.0268445,2.14217,1.7705411,-0.58038431,0.55349147,0.59732854,0
0.07994175,1.9781511,-0.17734122,0.35827976,0.83225787,-0.42306298,0
1.7513254,-3.2028127,-0.90242702,-0.10303968,-0.77752787,0.62034941,0
2.4809244,-1.7506893,-0.12684786,0.59364122,-0.21454668,0.77560294,0
-3.1212711,1.7328672,2.0580573,-0.58038431,0.55349147,0.59732854,0
1.9314439,0.57507229,-0.81403399,0.67621183,0.73627591,-0.025211811,0
-2.2137902,1.9130502,2.7728367,-0.58038431,0.55349147,0.59732854,0
-1.9436765,2.7773623,2.2344065,-0.58038431,0.55349147,0.59732854,0
-1.6074773,-0.42477673,-0.63277143,-0.81247365,-0.34389889,-0.47076571,0
-3.4607756,0.90686607,2.493566,-0.58038431,0.55349147,0.59732854,0
-3.0923851,2.7904463,1.1061594,-0.58038431,0.55349147,0.59732854,0
3.181283,-0.61807585,-2.129936,0.6701287,0.74137872,-0.035850644,0
0.31578684,-2.7187815,-1.6158608,-0.69951218,-0.71440154,-0.017696798,0
1.7589595,-3.5204766,-1.7253056,0.58038431,-0.55349147,-0.59732854,0
3.3158448,-2.3372221,-0.93744743,0.64178163,-0.14062759,0.75388342,0
1.0315444,-1.5838225,-3.4839146,-0.59000826,0.21976876,-0.77691185,0
1.8043261,-0.5188508,-3.1326897,-0.032096863,0.71739209,-0.69592988,0
2.6061597,-1.872942,-2.4287624,0.58038431,-0.55349147,-0.59732854,0
-3.0211334,0.46669865,1.7464793,-0.71319205,-0.69953811,-0.044761121,0
-2.3664231,2.7549527,1.844417,-0.58038431,0.55349147,0.59732854,0
1.9678276,-2.4342799,-2.5288446,0.58038431,-0.55349147,-0.59732854,0
-1.8807908,-0.61353755,0.90659553,-0.64574105,-0.75971127,0.076533556,0
-1.6119504,2.493227,2.8200059,-0.58038431,0.55349147,0.59732854,0
3.2402828,-2.7430506,-1.0063744,0.58038431,-0.55349147,-0.59732854,0
3.3415718,-0.91455364,-2.6022649,0.58038431,-0.55349147,-0.59732854,0
-1.3199835,3.3223767,2.3353913,-0.58038431,0.55349147,0.59732854,0
-3.192481,1.9678321,1.7711468,-0.58038431,0.55349147,0.59732854,0
-2.6249671,2.6093452,1.7281286,-0.58038431,0.55349147,0.59732854,0
2.4224229,-2.6037962,-0.47816163,0.34527609,-0.49705964,0.79606277,0
-3.5789385,1.4082484,1.4327879,-0.81387782,-0.36946583,-0.44843954,0
2.2188029,-2.2187703,-2.4846826,0.58038431,-0.55349147,-0.59732854,0
-0.8561843,0.61141044,-1.3984369,-0.48924816,0.34937742,-0.79910684,0
-1.2897787,-0.34552169,2.1729364,-0.1217159,-0.78423077,0.60841382,0
1.0460854,-2.6169355,-3.2551894,0.58038431,-0.55349147,-0.59732854,0
-1.4483557,0.39571327,-1.0085607,-0.67600745,0.081523165,-0.73237157,0
-2.6726155,0.80682707,3.3520656,-0.58038431,0.55349147,0.59732854,0
1.058905,-2.3816683,-3.4607348,0.58038431,-0.55349147,-0.59732854,0
0.61348724,0.019748688,-2.4332197,-0.24592471,0.58013475,-0.77650797,0
1.0827755,1.0615222,1.0532318,0.81381857,0.42053419,0.40106148,0
-1.2287135,-0.64743382,-1.1081171,-0.80398208,-0.27282187,-0.52837586,0
-2.396986,0.75676823,-0.0094521046,-0.77128321,-0.13825548,-0.62129521,0
-1.9960862,1.6776457,3.2024937,-0.58038431,0.55349147,0.59732854,0
2.8283854,-0.33676624,-2.1712198,0.57985979,0.7959013,-0.17408016,0
1.1746031,-2.6916971,-3.0610425,0.58038431,-0.55349147,-0.59732854,0
-0.18580818,2.482866,0.71844572,0.52768075,0.81429422,-0.24182191,0
1.5353564,-2.5892096,-2.8054881,0.58038431,-0.55349147,-0.59732854,0
1.7903123,-2.3722744,-2.7587795,0.58038431,-0.55349147,-0.59732854,0
1.1165674,0.95145726,-1.3174238,0.33678615,0.83098346,-0.44276616,0
-3.1625276,2.195612,1.5891868,-0.58038431,0.55349147,0.59732854,0
3.5322576,-1.2435665,-1.5016458,0.8127771,0.43918055,0.38277155,0
-3.5938253,1.466785,1.8454632,-0.58038431,0.55349147,0.59732854,0
-3.0567768,2.736747,1.1905161,-0.58038431,0.55349147,0.59732854,0
-2.9526987,1.6719766,2.27827,-0.58038431,0.55349147,0.59732854,0
-1.3560703,1.1696301,3.5113268,0.39643019,-0.4486925,0.80094826,0
-1.1375432,3.3197887,2.5150545,-0.58038431,0.55349147,0.59732854,0
-3.1310389,0.94624472,2.7774603,-0.58038431,0.55349147,0.59732854,0
1.9320102,-0.99128246,0.49152529,0.64753443,-0.13112688,0.7506696,0
-1.1110345,-0.54973352,-1.3124416,-0.78193128,-0.17389309,-0.5986191,0
-2.7099338,1.2193651,2.9335434,-0.58038431,0.55349147,0.59732854,0
-3.5152462,1.2275496,2.143491,-0.58038431,0.55349147,0.59732854,0
-0.21447754,2.5631673,0.95170504,0.57776672,0.79679245,-0.17693961,0
-2.1763561,1.3822353,-0.20692158,-0.61198235,0.18746735,-0.76833177,0
-1.2790066,2.6882787,2.9627681,-0.58038431,0.55349147,0.59732854,0
2.4801595,-0.71342015,-0.10983884,0.7871266,0.19324189,0.58573818,0
0.098311424,-2.481766,-1.6724705,-0.74963057,-0.64968175,-0.12636358,0
-1.3161848,2.9098756,2.7213099,-0.58038431,0.55349147,0.59732854,0
-3.2474575,1.8077345,1.8660778,-0.58038431,0.55349147,0.59732854,0
3.0120528,-1.1276569,-2.724972,0.58038431,-0.55349147,-0.59732854,0
-2.7063158,2.7125688,0.6741811,-0.39405704,0.45102862,-0.80080718,0
-0.55886233,-1.5582631,0.59595907,-0.37975848,-0.83282638,0.40272039,0
-2.3853316,2.9266279,0.6887309,-0.23024583,0.59204757,-0.77231246,0
-2.8997998,2.094089,1.9385346,-0.58038431,0.55349147,0.59732854,0
-3.5088906,2.1428237,1.3015637,-0.58038431,0.55349147,0.59732854,0
3.0552664,-2.6205268,-1.2996744,0.58038431,-0.55349147,-0.59732854,0
3.1254399,-2.5058298,-1.3377714,0.58038431,-0.55349147,-0.59732854,0
2.4338512,-0.094087124,-2.2106416,0.46709055,0.82711732,-0.31257558,0
0.63449574,1.8015573,0.37091607,0.64462048,0.76047909,-0.078333914,0
2.8677084,-1.3025582,-0.45707262,0.75705367,0.096466184,0.64619195,0
1.8459971,-3.0754979,-0.74463975,-0.012535512,-0.7394954,0.67304486,0
-1.6988403,2.240922,-0.04138495,-0.24061233,0.58420599,-0.77511877,0
-3.199719,1.3796966,0.85717726,-0.7894457,-0.2024253,-0.57948214,0
3.1029243,-0.73761272,-2.9135897,0.46324819,0.82766461,-0.31681606,0
-0.10539818,-1.594413,-2.3191199,-0.79204202,-0.21318829,-0.57203162,0
2.4555144,-1.3441715,-3.0650988,0.58038431,-0.55349147,-0.59732854,0
1.0407745,-1.6011453,0.72782969,0.24466836,-0.58110082,0.77618247,0
2.1614077,-1.0985293,-3.5784776,0.58038431,-0.55349147,-0.59732854,0
-2.8804183,1.1855044,2.7992706,-0.58038431,0.55349147,0.59732854,0
0.95260835,-3.2597044,-2.6990044,-0.77205992,-0.60727811,-0.18744832,0
-0.479002,2.799711,1.1569586,0.56160861,0.8032167,-0.19859204,0
1.2835958,-2.9376948,-2.7271972,0.58038431,-0.55349147,-0.59732854,0
3.6361003,-1.5053096,-1.7686901,0.58038431,-0.55349147,-0.59732854,0
1.875244,-1.31391,-3.6569493,0.58038431,-0.55349147,-0.59732854,0
-2.5899932,2.5898776,1.7801492,-0.58038431,0.55349147,0.59732854,0
0.72100705,-0.14651322,-2.5906587,-0.26688951,0.56371415,-0.78166252,0
-1.9907055,0.21582556,2.7511077,-0.16974807,-0.7996248,0.57600856,0
-0.85463417,1.5170705,-0.84763211,-0.21329778,0.60457838,-0.76745629,0
-0.68187195,-0.23509407,2.277226,0.14957803,-0.64857328,0.74631035,0
-3.2543778,1.652586,2.0031164,-0.58038431,0.55349147,0.59732854,0
-2.9197874,1.7990022,2.1925449,-0.58038431,0.55349147,0.59732854,0
1.6675935,-2.6914988,-0.33961254,0.070585012,-0.6965574,0.71402073,0
-2.9011235,1.338769,2.6371367,-0.58038431,0.55349147,0.59732854,0
1.9899486,0.22893596,0.083782554,0.81270361,0.44019851,0.38175684,0
-1.0494207,-1.1672486,-1.0008962,-0.81021845,-0.46620554,-0.35524398,0
-0.32748461,-1.4079267,0.98640573,-0.18713403,-0.80452955,0.56366044,0
1.2115312,-3.1655459,-2.5860882,0.58038431,-0.55349147,-0.59732854,0
0.45382166,-1.8338182,0.59130162,-0.047511697,-0.75527561,0.65368307,0
-0.61438942,3.0037494,1.9141715,0.6977644,0.71618366,0.014347315,0
0.38904476,1.4233408,-0.94087481,0.22231126,0.81333762,-0.53764272,0
1.8335035,-0.32900703,0.60916919,0.75508153,0.091071039,0.64927489,0
-1.244669,2.3359776,3.3225777,-0.58038431,0.55349147,0.59732854,0
-0.39634717,-1.2432775,-2.0444517,-0.78342724,-0.17930795,-0.5950551,0
-2.3418093,2.1600928,2.4195366,-0.58038431,0.55349147,0.59732854,0
2.7070558,-1.3256288,-2.8378744,0.58038431,-0.55349147,-0.59732854,0
3.0190845,-0.79552269,-0.92880213,0.81403941,0.41434765,0.40700853,0
-3.5562539,1.5859652,1.7715348,-0.58038431,0.55349147,0.59732854,0
-2.4186037,3.4352546,1.1633409,-0.58038431,0.55349147,0.59732854,0
-2.2867701,1.6455374,2.9498076,-0.58038431,0.55349147,0.59732854,0
-1.7315775,-0.065365911,-0.63709986,-0.79438323,-0.22340187,-0.5648424,0
3.2248383,-1.2837052,-2.3736272,0.58038431,-0.55349147,-0.59732854,0
1.4089158,-2.79667,-0.45272341,-0.069152951,-0.76435882,0.64107221,0
-2.1963205,1.7100754,2.9778891,-0.58038431,0.55349147,0.59732854,0
3.3666129,-1.3413529,-1.1197375,0.80771393,0.29786307,0.50879836,0
-2.5976777,0.54179287,2.9867182,-0.29324615,-0.82635218,0.48077959,0
-2.0648022,-0.20119596,1.9718615,-0.42874783,-0.83130324,0.35370937,0
0.8197912,-0.93593282,1.2546679,0.3874054,-0.45752743,0.80036598,0
-1.509531,2.8200321,2.616698,-0.58038431,0.55349147,0.59732854,0
-2.8779097,1.0268061,0.54311252,-0.7944929,-0.22389346,-0.56449342,0
-1.1458145,-1.1181641,-0.84116524,-0.80609339,-0.49462137,-0.32490528,0
2.9825017,-1.9241467,-2.0156488,0.58038431,-0.55349147,-0.59732854,0
2.1168599,-2.2916691,-2.5161848,0.58038431,-0.55349147,-0.59732854,0
2.3296678,-1.9760613,-2.6018598,0.58038431,-0.55349147,-0.59732854,0
0.43011069,-1.3184588,1.1127497,0.14140534,-0.65386903,0.74327654,0
1.2882085,-2.3981905,-3.222626,0.58038431,-0.55349147,-0.59732854,0
1.446835,-1.4416562,0.66046613,0.41447473,-0.43061942,0.80173421,0
0.056740284,2.3593571,1.045514,0.66171497,0.74807143,-0.050227284,0
1.1932992,1.1869667,0.56702793,0.78240961,0.5824002,0.22055668,0
3.2356305,-0.96794224,-2.6557307,0.58038431,-0.55349147,-0.59732854,0
3.1449282,-1.1825614,-2.544991,0.58038431,-0.55349147,-0.59732854,0
0.81266451,-2.3458147,0.015201122,-0.11964142,-0.7835058,0.60975784,0
-0.51223981,-0.678527,-1.9838133,-0.71166342,0.011812359,-0.70242131,0
2.7241795,-0.20409012,-1.8821286,0.62199587,0.77474564,-0.11353618,0
2.0380824,-2.732125,-2.1845958,0.58038431,-0.55349147,-0.59732854,0
-1.6395615,0.32372999,-0.82330233,-0.72497725,-0.017107099,-0.68856037,0
-2.7032948,1.6406255,2.5496497,-0.58038431,0.55349147,0.59732854,0
-0.47218072,1.3977796,-1.034604,-0.1273061,0.66282332,-0.73787439,0
-1.3820047,0.62052226,3.1531818,0.21485621,-0.60344094,0.76791656,0
-3.4663115,0.91937923,1.9876436,-0.75101876,-0.64738965,-0.1298362,0
3.059366,-1.6915021,-2.1565359,0.58038431,-0.55349147,-0.59732854,0
1.561973,0.81523627,0.23747253,0.78859466,0.56499362,0.24269521,0
-2.43893,3.1450672,1.4124819,-0.58038431,0.55349147,0.59732854,0
0.71236289,1.458795,-0.65342909,0.40828317,0.83243513,-0.37464225,0
2.1597624,-0.088255644,0.054207683,0.81296986,0.35123256,0.46445239,0
1.8931162,-3.4501188,-1.6601487,0.58038431,-0.55349147,-0.59732854,0
-2.5529528,2.101202,2.2689509,-0.58038431,0.55349147,0.59732854,0
3.2147136,-0.96681166,-2.6771019,0.58038431,-0.55349147,-0.59732854,0
-2.8755603,2.6971669,1.4032674,-0.58038431,0.55349147,0.59732854,0
0.46606088,-2.7829099,-2.2375045,-0.7774877,-0.59479207,-0.20429182,0
2.3702848,-0.47793722,-2.9977841,0.21660602,0.81201208,-0.54195786,0
-1.9095922,2.6158271,2.4172049,-0.58038431,0.55349147,0.59732854,0
-3.0591137,2.0031166,1.868036,-0.58038431,0.55349147,0.59732854,0
-3.4881625,2.0753379,1.3842363,-0.58038431,0.55349147,0.59732854,0
2.7694626,-1.4749951,-2.6388342,0.58038431,-0.55349147,-0.59732854,0
-1.5906603,1.984674,3.3119226,-0.58038431,0.55349147,0.59732854,0
-0.48199379,1.9997535,2.9699998,0.77279997,0.14306226,0.61831498,0
2.6931906,-2.711288,-1.5673792,0.58038431,-0.55349147,-0.59732854,0
1.2842848,-0.79234982,-3.246387,-0.30189225,0.53500462,-0.78906983,0
-0.37661088,1.0555738,-1.3440343,-0.21520633,0.60318506,-0.76801956,0
-1.0843924,0.035091162,2.5896468,0.10853279,-0.67439204,0.73035336,0
1.5084176,-1.5924664,-3.7552569,0.58038431,-0.55349147,-0.59732854,0
-2.231751,1.0021868,3.599402,-0.58038431,0.55349147,0.59732854,0
-1.3365831,2.4130206,3.1618819,-0.58038431,0.55349147,0.59732854,0
2.9386961,-2.9484203,-1.1091087,0.58038431,-0.55349147,-0.59732854,0
-1.292233,2.6858454,2.9521718,-0.58038431,0.55349147,0.59732854,0
-2.7974634,0.28983498,2.0530705,-0.60016263,-0.78650606,0.14564747,0
2.9940913,-1.5060601,-2.3917918,0.58038431,-0.55349147,-0.59732854,0
-2.916585,2.9432173,1.1354136,-0.58038431,0.55349147,0.59732854,0
-2.5102692,2.6085191,0.52039987,-0.36933056,0.47482651,-0.79883343,0
-3.0812778,1.0627999,2.717808,-0.58038431,0.55349147,0.59732854,0
0.99752069,0.35352248,1.4812052,0.73633093,0.043400407,0.67522824,0
-2.9694915,2.9528611,1.0750716,-0.58038431,0.55349147,0.59732854,0
-0.4579159,-1.5637518,0.66899353,-0.32804465,-0.83026981,0.4505983,0
-2.9635732,0.40864182,1.8562028,-0.68030053,-0.7327137,0.017938137,0
-3.0600727,2.6356914,1.2809529,-0.58038431,0.55349147,0.59732854,0
1.0454555,-3.1962135,-2.7190366,0.58038431,-0.55349147,-0.59732854,0
0.69829559,-2.4163873,-0.11294326,-0.20132113,-0.80826336,0.55333549,0
1.6564838,-2.3734813,-2.8876932,0.58038431,-0.55349147,-0.59732854,0
-3.2056932,2.6802621,1.0981636,-0.58038431,0.55349147,0.59732854,0
-0.50647408,0.035586953,-1.8531014,-0.55249816,0.27122951,-0.78814989,0
-2.4183774,1.310482,3.1323991,-0.58038431,0.55349147,0.59732854,0
0.13788676,1.8939232,-0.29293501,0.34187698,0.83134758,-0.43815696,0
0.58193487,-0.34210467,-2.6630912,-0.36984301,0.47434312,-0.79888344,0
0.7180407,0.93884891,-1.5215199,0.14301991,0.79138911,-0.59434724,0
2.111089,-3.0684097,-0.75170159,0.08782202,-0.68669033,0.72162575,0
0.42889345,0.85607374,-1.6507657,-0.0073496699,0.72991991,-0.68349326,0
2.2901258,-1.9742737,-2.6419358,0.58038431,-0.55349147,-0.59732854,0
-1.2457386,2.0675783,-0.29837868,-0.15164268,0.64722317,-0.74706531,0
0.12199378,2.1261394,0.21049249,0.4782117,0.82536447,-0.30014569,0
-2.2127213,2.0325112,2.6631818,-0.58038431,0.55349147,0.59732854,0
2.8038783,-1.2057538,-2.8548763,0.58038431,-0.55349147,-0.59732854,0
-0.99073172,-0.2176652,2.3354983,0.047280431,-0.7093696,0.70324916,0
-0.32242608,-1.9584408,-1.5950016,-0.79765642,-0.53411973,-0.28010815,0
0.53200203,-0.87639546,-2.893724,-0.53253055,0.29697248,-0.79260242,0
-0.0572083,-1.1626611,1.318675,0.026131392,-0.720474,0.69298947,0
2.9436975,-2.2705789,-1.7323442,0.58038431,-0.55349147,-0.59732854,0
2.2622497,-3.1754215,-0.87227952,0.10157323,-0.67857885,0.72747076,0
-0.082118154,0.42164099,-1.8989576,-0.32990897,0.51080966,-0.79387254,0
1.9158921,0.037149668,-2.4033611,0.25672472,0.82046616,-0.51081091,0
0.60954452,-2.9608431,-2.2391503,-0.75610369,-0.63867021,-0.1428563,0
0.056386471,-2.4513333,-1.0058279,-0.62786752,-0.77125949,0.10460079,0
-2.0687706,1.8092451,3.0099289,-0.58038431,0.55349147,0.59732854,0
1.3628715,-1.2943528,-3.5819497,-0.43073809,0.41384694,-0.80199468,0
-0.39698112,-1.6288848,0.59328896,-0.33190727,-0.83059883,0.44715023,0
-1.916407,2.7209377,2.3131862,-0.58038431,0.55349147,0.59732854,0
2.5359478,-0.10836267,-2.0677831,0.53145987,0.81321096,-0.2371465,0
2.4694524,-2.973232,-1.5420502,0.58038431,-0.55349147,-0.59732854,0
-2.9463243,1.2615976,2.6647253,-0.58038431,0.55349147,0.59732854,0
-0.035815716,-0.93257588,1.5400466,0.12032783,-0.66717052,0.73512232,0
-3.0480783,2.1806159,1.7142851,-0.58038431,0.55349147,0.59732854,0
0.92967224,-1.1173041,-3.2475038,-0.49614233,0.34131891,-0.79833835,0
1.4898288,-2.1182132,-3.2861552,0.58038431,-0.55349147,-0.59732854,0
0.65828234,-0.62797165,-2.8596535,-0.43232596,0.41218403,-0.80199671,0
-2.8714199,1.8657136,2.1777244,-0.58038431,0.55349147,0.59732854,0
-0.51432419,2.1977158,2.9522743,0.79337585,0.21894254,0.56799567,0
-0.78125644,3.0924809,2.5347908,0.77376544,0.6034739,0.19263041,0
-1.6850805,1.6928549,3.4905841,-0.58038431,0.55349147,0.59732854,0
-0.0035774708,-1.3054456,-2.5039022,-0.7370193,-0.045049846,-0.67436868,0
2.0960639,0.41495323,-1.0468745,0.66307509,0.74701691,-0.047928452,0
-1.7810431,0.53121185,3.1440201,0.045433402,-0.71035922,0.70237148,0
0.13163495,2.0722637,1.9044096,0.80754519,0.48575848,0.33452851,0
-1.3007094,-1.0697556,0.79608369,-0.53156012,-0.81318176,0.23702198,0
-1.1812055,3.4624596,2.34043,-0.58038431,0.55349147,0.59732854,0
-2.9954095,2.1062288,1.8343873,-0.58038431,0.55349147,0.59732854,0
0.2323823,-1.9915221,-2.6357954,-0.79967117,-0.24875851,-0.54648453,0
-0.011380911,2.2377758,0.30580389,0.46704376,0.82712418,-0.31262732,0
1.0768354,-0.3191689,1.3420345,0.61533457,-0.18238224,0.76687694,0
0.72801125,1.5502433,1.2165124,0.80144048,0.51827884,0.29846323,0
-2.1937599,0.14011526,2.5424507,-0.30192792,-0.82748759,0.4733963,0
3.0877931,-2.229908,-1.6300223,0.58038431,-0.55349147,-0.59732854,0
-2.2437055,3.4845357,1.287614,-0.58038431,0.55349147,0.59732854,0
-0.90705895,2.7726264,3.246007,-0.58038431,0.55349147,0.59732854,0
2.9625535,-2.2640638,-1.7200599,0.58038431,-0.55349147,-0.59732854,0
-0.17666239,-0.97615409,-2.3286726,-0.70744932,0.02059412,-0.70646399,0
-2.1091244,1.9811873,2.8113971,-0.58038431,0.55349147,0.59732854,0
-0.1488111,2.5396132,1.6692652,0.74047762,0.66394609,0.1042527,0
2.2097847,-2.7882433,-1.9657645,0.58038431,-0.55349147,-0.59732854,0
1.9399781,-3.3606656,-1.6975044,0.58038431,-0.55349147,-0.59732854,0
2.1824107,-2.131917,-2.6005216,0.58038431,-0.55349147,-0.59732854,0
-0.13380003,-1.7820916,0.49473256,-0.27982354,-0.82439494,0.49200785,0
2.1752875,-1.715446,-2.9933493,0.58038431,-0.55349147,-0.59732854,0
0.99399048,0.61200929,-1.8885114,0.11489153,0.78182757,-0.61281788,0
-1.7617209,2.3759477,2.7831557,-0.58038431,0.55349147,0.59732854,0
3.576972,-1.9664469,-1.398846,0.58038431,-0.55349147,-0.59732854,0
-3.2066007,1.5011406,2.1898694,-0.58038431,0.55349147,0.59732854,0
-1.4737849,3.1395676,0.88730317,0.19360638,0.80626309,-0.55897808,0
0.95967054,1.4952999,0.077219963,0.65344387,0.75426447,-0.064002216,0
-2.4350226,1.6807957,2.7730894,-0.58038431,0.55349147,0.59732854,0
0.75257397,-3.0729747,-1.4905899,-0.57419467,-0.79828137,0.18178993,0
-2.2490318,2.219388,2.4547384,-0.58038431,0.55349147,0.59732854,0
2.1764007,0.34089708,-0.91451287,0.70614564,0.70740414,0.03062582,0
-1.3927174,3.2639058,2.3188999,-0.58038431,0.55349147,0.59732854,0
-3.438179,1.3926983,2.0653441,-0.58038431,0.55349147,0.59732854,0
-1.3543713,2.89205,0.58077127,0.13269746,0.78798592,-0.60122341,0
-1.7330385,0.98477447,-0.65686989,-0.60608488,0.19630894,-0.77079427,0
-2.7810724,2.6914089,1.50041,-0.58038431,0.55349147,0.59732854,0
2.7222867,-2.5887971,-1.6526103,0.58038431,-0.55349147,-0.59732854,0
