-2.0175605,0.10732615,0.098391771,-0.97538608,0.1595429,0.15221006,0
0.12536073,1.9802843,3.8048012,0.22049344,0.69909966,0.68017811,0
-1.0115957,1.0702701,-1.4240097,-0.45691389,0.69012713,-0.56120753,0
0.0095362663,4.071558,1.6928985,0.22049344,0.69909966,0.68017811,0
2.7312822,2.1952796,2.7390628,0.22049344,0.69909966,0.68017811,0
-1.3723159,-2.6944518,-2.6665409,-0.22049344,-0.69909966,-0.68017811,0
-0.39603439,-4.1495371,-1.4874585,-0.22049344,-0.69909966,-0.68017811,0
0.77765155,-3.4629407,-2.5736294,-0.22049344,-0.69909966,-0.68017811,0
-1.9668365,-3.3479962,-1.8020899,-0.22049344,-0.69909966,-0.68017811,0
0.26052547,0.17467457,2.9424984,-0.11018348,-0.67502469,0.72952104,0
2.2091897,0.74531317,0.35548294,0.96679175,-0.06426388,-0.24735343,0
0.01248157,2.1898007,3.6260486,0.22049344,0.69909966,0.68017811,0
-1.7228184,-3.7899702,-1.4269241,-0.22049344,-0.69909966,-0.68017811,0
1.0897802,-2.8488686,-3.0842671,0.96925229,-0.078945428,-0.23306119,0
1.0848217,-2.3888397,-3.124253,0.9344359,0.048540711,-0.3528074,0
0.60842186,3.1085637,2.4885409,0.22049344,0.69909966,0.68017811,0
2.4622021,1.1576855,1.7293849,0.95233929,-0.30500349,0.0047681928,0
0.11458871,-3.6311269,-2.1858189,-0.22049344,-0.69909966,-0.68017811,0
1.2695022,1.0701929,3.7454541,0.24054581,-0.71477652,0.65668267,0
0.013540938,3.8717158,1.8970015,0.22049344,0.69909966,0.68017811,0
-0.22935361,-3.0365734,-2.6854162,-0.22049344,-0.69909966,-0.68017811,0
-2.1171432,-3.2788057,-1.1559788,-0.66771388,-0.40014392,0.62772822,0
-0.30726153,-3.008275,-2.6892464,-0.22049344,-0.69909966,-0.68017811,0
1.8652898,1.9039191,3.3192577,0.22049344,0.69909966,0.68017811,0
0.0096268654,-0.65784502,-3.2931235,0.30222458,0.61405367,-0.72910786,0
1.929536,-0.51788235,-0.093209147,0.96476799,-0.25894117,-0.046604574,0
1.9399176,0.23688459,-0.49608409,0.94174451,0.02898562,-0.33507746,0
1.1349514,1.834743,3.6271119,0.22049344,0.69909966,0.68017811,0
-1.7996459,-3.34549,-1.8588641,-0.22049344,-0.69909966,-0.68017811,0
2.4558992,2.5893846,2.4232657,0.22049344,0.69909966,0.68017811,0
-0.66419148,-2.7121127,-2.8779414,-0.22049344,-0.69909966,-0.68017811,0
-0.63755429,2.3768525,3.6445153,0.22049344,0.69909966,0.68017811,0
1.9984573,2.0132728,3.163693,0.22049344,0.69909966,0.68017811,0
-1.6039984,-2.0129814,-3.2918639,-0.22049344,-0.69909966,-0.68017811,0
-1.366843,2.056891,2.1920667,-0.97310436,0.10997275,0.20241952,0
1.0621152,-3.2499807,-2.3137796,0.92923039,-0.36253762,0.071393967,0
1.6414489,3.636307,1.6112397,0.22049344,0.69909966,0.68017811,0
-1.4867444,1.8460587,0.77325428,-0.90749782,0.40265027,-0.11966759,0
1.3149679,-0.1429359,-1.8362563,0.77423155,0.29869339,-0.55798542,0
1.0107441,-3.3231883,-2.1398985,0.89739728,-0.41863364,0.13936988,0
-2.5413885,-2.9732022,-1.5821799,-0.86111808,-0.18799248,0.47237092,0
1.7784588,1.858252,-0.1036675,0.71054929,0.36260027,-0.60302615,0
-1.0954392,2.403125,3.0974429,-0.93857718,-0.037696391,0.34300387,0
-0.15308261,-0.89154494,-3.554903,0.26246738,0.62909329,-0.73167777,0
1.0874221,-2.8726377,-3.0857615,0.97007453,-0.084484428,-0.22763467,0
0.49386072,0.20667827,2.9914556,-0.0053256154,-0.6964674,0.7175684,0
-1.2452681,-3.1969094,-2.1912904,-0.22049344,-0.69909966,-0.68017811,0
1.0832492,3.6607397,1.7670792,0.22049344,0.69909966,0.68017811,0
0.59034747,-3.4223754,-1.2130356,0.63555986,-0.63195473,0.44350511,0
1.9970241,1.5743866,3.615253,0.22049344,0.69909966,0.68017811,0
-2.375699,-2.4031005,-2.6407299,-0.22049344,-0.69909966,-0.68017811,0
1.4096712,-2.1176741,-1.1089444,0.91694158,-0.38633057,0.099832475,0
-1.6000545,0.66154557,1.5196644,-0.92607534,-0.068877071,0.37099916,0
-1.0649616,-3.8006725,-1.6291823,-0.22049344,-0.69909966,-0.68017811,0
2.2816262,1.7994651,0.65725362,0.89737308,0.12787804,-0.42233711,0
0.85270011,3.2407637,2.2734754,0.22049344,0.69909966,0.68017811,0
2.3946609,2.3129909,2.7271991,0.22049344,0.69909966,0.68017811,0
-0.4592241,0.73400223,3.0974569,-0.50729126,-0.51341259,0.69214374,0
1.3382245,-1.5956933,0.26684678,0.73955715,-0.57449293,0.35073197,0
-0.15716112,-3.6747277,-2.0529122,-0.22049344,-0.69909966,-0.68017811,0
-0.86135852,-2.8226466,-0.010106564,-0.19143188,-0.65276188,0.73297715,0
1.7401972,2.7266724,0.42216015,0.58598596,0.46252459,-0.6653505,0
-0.60093492,-2.4912894,0.34544146,-0.11975104,-0.67266262,0.73019469,0
1.0968401,-1.5119257,0.77156794,0.58042884,-0.65447563,0.48452437,0
1.3294678,-0.81923109,-2.1361289,0.85574001,0.19599122,-0.47884887,0
-0.71061462,-3.746351,-1.7998831,-0.22049344,-0.69909966,-0.68017811,0
-1.3996495,1.0592418,-0.98830205,-0.67333031,0.61362457,-0.41242099,0
-1.7824117,-0.25537419,-2.3176556,-0.65440017,0.62313223,-0.42832974,0
0.4748472,1.0311141,-1.6764138,0.27211916,0.62556314,-0.73117828,0
-1.2382673,1.170532,2.4424634,-0.86240387,-0.18605021,0.47079158,0
-1.0059426,-0.31289148,1.9021676,-0.59704113,-0.454705,0.6608972,0
-2.1809795,-0.67347074,-0.26413107,-0.96575975,0.058735162,0.25270146,0
0.41223773,3.5161824,2.1331799,0.22049344,0.69909966,0.68017811,0
0.64087987,-0.82224536,1.915436,0.22460061,-0.71499205,0.66207314,0
2.6585417,3.0529504,1.838194,0.89150238,0.13848016,-0.4313311,0
2.4533944,1.4613432,1.1268828,0.96992576,-0.083452106,-0.22864753,0
-2.2380514,-0.77457201,-2.1560478,-0.84324622,0.48710427,-0.22729942,0
-0.15197897,0.40459073,-2.3883741,0.075619698,0.68298972,-0.72650301,0
-2.5549054,-1.5476382,-1.6202395,-0.974567,0.18651488,0.12422222,0
2.4253445,2.608315,2.413713,0.22049344,0.69909966,0.68017811,0
-0.12229562,0.089531183,-2.6762059,0.13560629,0.66859698,-0.73115587,0
1.9285703,1.2059171,-0.23490882,0.84207511,0.21547781,-0.49444783,0
-2.0394351,-2.762764,-0.74805224,-0.70111132,-0.3712045,0.60881025,0
-2.46979,-1.5012501,-1.182018,-0.97051466,0.08762303,0.22455132,0
-2.6274574,-2.983465,-1.9626085,-0.22049344,-0.69909966,-0.68017811,0
-0.76911271,2.2359281,-0.17637661,-0.52496487,0.67278278,-0.52132052,0
-1.087492,2.2210758,0.23622085,-0.70621002,0.59542704,-0.38305861,0
-0.13668497,3.7469769,2.0739098,0.22049344,0.69909966,0.68017811,0
0.80858451,3.029413,2.5050066,0.22049344,0.69909966,0.68017811,0
0.50722843,-3.0747399,-2.8849661,-0.22049344,-0.69909966,-0.68017811,0
2.2805622,1.2498293,2.9345119,0.76846343,-0.55397546,0.32027322,0
0.30200744,-3.1931245,-0.6098693,0.43550003,-0.69453448,0.57267922,0
-1.5066943,1.8010037,1.5708501,-0.97332501,0.20303719,0.10683757,0
-1.1779531,1.830337,-0.20214088,-0.68625432,0.60673797,-0.40115318,0
0.93975639,-2.784786,-3.3231988,-0.22049344,-0.69909966,-0.68017811,0
0.94662869,-3.1227906,-2.978019,-0.22049344,-0.69909966,-0.68017811,0
0.15362585,-2.261673,-3.6060238,-0.22049344,-0.69909966,-0.68017811,0
1.2929163,3.4405923,1.9253831,0.22049344,0.69909966,0.68017811,0
-0.53429711,1.4195855,3.5177939,-0.62736303,-0.43230861,0.64770728,0
-0.6942662,-2.5425835,-3.0424376,-0.22049344,-0.69909966,-0.68017811,0
-2.3702619,-1.6204762,-3.3577957,-0.75082517,0.5667789,-0.33915067,0
-1.1168479,1.7431417,-0.4252114,-0.63373917,0.63277501,-0.44493842,0
1.3788884,3.8627615,1.4636002,0.22049344,0.69909966,0.68017811,0
-2.2958655,-2.2717776,-2.8015857,-0.22049344,-0.69909966,-0.68017811,0
-0.5043819,-2.9168205,-2.7193446,-0.22049344,-0.69909966,-0.68017811,0
0.18194485,1.8894756,3.8797932,0.22049344,0.69909966,0.68017811,0
2.1537571,0.51112926,1.9041929,0.84233844,-0.4880712,0.22858754,0
0.30405056,-3.4993899,-2.3826385,-0.22049344,-0.69909966,-0.68017811,0
1.1388626,-2.0953441,-2.9368742,0.92347109,0.074851364,-0.37629539,0
0.18814701,-4.0267744,-1.8030107,-0.22049344,-0.69909966,-0.68017811,0
-0.7536099,-3.4882569,-2.0512197,-0.22049344,-0.69909966,-0.68017811,0
-0.1753251,-3.6510201,-2.0713913,-0.22049344,-0.69909966,-0.68017811,0
-1.4147593,-0.44363379,1.3789062,-0.74219686,-0.33220902,0.58204871,0
-2.1159124,-2.1234136,-0.49376369,-0.80583626,-0.26233172,0.53085756,0
-2.2673395,-2.7578812,-2.3112071,-0.22049344,-0.69909966,-0.68017811,0
-0.90517175,2.4506311,3.5522649,-0.88583612,-0.1483537,0.43964225,0
-0.78574049,2.4430575,3.6245062,0.22049344,0.69909966,0.68017811,0
1.0111432,3.7117908,1.7379823,0.22049344,0.69909966,0.68017811,0
-2.2574327,-2.0456834,-3.0464284,-0.22049344,-0.69909966,-0.68017811,0
-1.4707578,1.8853108,0.78496593,-0.90379655,0.40866759,-0.12705207,0
-0.17794132,0.50736582,-2.2933667,0.048224151,0.68867451,-0.72346514,0
0.30632555,1.9673945,-0.87108731,0.059403121,0.68642151,-0.72477341,0
-0.83020258,-0.13476896,-2.879529,-0.16860467,0.7141614,-0.67937165,0
-0.20631647,2.6741862,3.1991158,0.22049344,0.69909966,0.68017811,0
-0.20376968,0.57940346,3.1374462,-0.37685707,-0.58212912,0.72048879,0
1.8932042,0.90017307,3.0743356,0.60066491,-0.64674705,0.47002083,0
-1.9976354,0.30437171,-0.131001,-0.96389341,0.26291749,0.042234123,0
-1.4405401,-3.0061409,-2.3240647,-0.22049344,-0.69909966,-0.68017811,0
-2.519701,-2.4937739,-2.5008533,-0.22049344,-0.69909966,-0.68017811,0
1.1495507,3.7025061,1.7026577,0.22049344,0.69909966,0.68017811,0
1.9693247,3.1941042,1.9594563,0.22049344,0.69909966,0.68017811,0
1.4443491,0.99102676,-1.0168167,0.68693084,0.38376945,-0.6171279,0
-1.215683,-3.9020481,-1.4761269,-0.22049344,-0.69909966,-0.68017811,0
0.4410578,-2.697403,-0.11460283,0.42629921,-0.69628298,0.57745898,0
-1.4445574,1.3000276,2.0208983,-0.93890297,-0.036818177,0.34220678,0
-2.6742737,-2.9447303,-1.9872437,-0.22049344,-0.69909966,-0.68017811,0
1.402879,-2.0432591,-2.0076146,0.97536415,-0.15312004,-0.15880448,0
1.205294,-2.5603843,-2.6950388,0.97277951,-0.10664478,-0.20573473,0
-0.068922043,3.4801009,2.3262424,0.22049344,0.69909966,0.68017811,0
-0.33853513,-3.0307627,-0.16899288,0.085225463,-0.70848227,0.70056355,0
-0.26162937,-3.7083445,-1.9844949,-0.22049344,-0.69909966,-0.68017811,0
1.7456675,1.7087636,-0.23207796,0.71610141,0.35744429,-0.59952664,0
-0.50719988,-2.64745,-2.995295,-0.22049344,-0.69909966,-0.68017811,0
-0.32883966,2.5822258,3.3333526,0.22049344,0.69909966,0.68017811,0
-1.8248338,-2.2255793,-3.0017638,-0.22049344,-0.69909966,-0.68017811,0
-1.1744506,-3.9943848,-1.1363727,-0.16560137,-0.66038531,0.73243928,0
1.5742086,3.3565283,1.9205992,0.22049344,0.69909966,0.68017811,0
-0.085179165,3.4998965,2.3111668,0.22049344,0.69909966,0.68017811,0
-0.55567741,-3.7836576,-1.811765,-0.22049344,-0.69909966,-0.68017811,0
1.8133456,0.5635758,-0.70277798,0.8718555,0.17139578,-0.45879328,0
-1.4062991,-2.8121181,-2.534585,-0.22049344,-0.69909966,-0.68017811,0
-1.9780635,-3.295625,-1.8522787,-0.22049344,-0.69909966,-0.68017811,0
-0.4289239,3.7876089,2.1268821,0.22049344,0.69909966,0.68017811,0
2.0343766,2.5476549,2.6028011,0.22049344,0.69909966,0.68017811,0
-1.3675407,2.2847469,1.8922663,-0.96851671,0.23955259,0.067747712,0
-1.3864434,-3.6049888,-0.86806762,-0.316576,-0.60829633,0.72784269,0
1.6141115,0.20684612,-1.2058411,0.84229946,0.21516696,-0.494201,0
-2.0699625,-2.4430518,-2.6987779,-0.22049344,-0.69909966,-0.68017811,0
-0.63744473,-4.0442028,-1.5174651,-0.22049344,-0.69909966,-0.68017811,0
-0.3870939,-2.3190928,-3.3717213,-0.22049344,-0.69909966,-0.68017811,0
-1.6772194,1.2134993,1.1170934,-0.97513521,0.17387991,0.13739288,0
1.60642,0.93944818,-0.85073638,0.755548,0.3186065,-0.57239586,0
-1.7427356,0.15361667,-1.7694062,-0.7081607,0.59427494,-0.38124207,0
-0.94712114,2.5379834,0.47338769,-0.68164653,0.60923141,-0.40520972,0
0.16634744,-3.7431648,-1.1747322,0.45571876,-0.69038588,0.56186086,0
-0.83252335,2.7220793,3.3528881,0.22049344,0.69909966,0.68017811,0
1.8325534,0.51871818,-0.68158031,0.88286024,0.1534085,-0.44387311,0
-0.032074332,2.3832989,-0.43058562,-0.16665804,0.7140888,-0.67992806,0
0.33309925,2.7575183,2.9386029,0.22049344,0.69909966,0.68017811,0
-1.0994465,2.538518,0.78493142,-0.77750933,0.54703683,-0.31020904,0
-0.65698564,-4.1545887,-1.2672446,0.10271353,-0.71010554,0.69656289,0
1.2853762,-0.57623386,1.798354,0.52100062,-0.67394078,0.52379578,0
-2.1509452,-3.0052505,-1.0249912,-0.71469957,-0.35875285,0.60041714,0
1.2139761,-2.7695684,-2.3731492,0.96889448,-0.23731886,-0.070166111,0
1.5467343,3.5171018,0.87568212,0.39902773,0.57166517,-0.71692091,0
0.34295869,-1.4285266,1.3570888,0.17147934,-0.71426332,0.6785444,0
-0.2556076,-1.7799263,-3.9685106,-0.22049344,-0.69909966,-0.68017811,0
0.89887679,-1.2767943,-3.0182314,0.75232416,0.32193685,-0.57477367,0
1.5272754,-1.8066728,-1.1853416,0.95464385,-0.29772961,-0.003455162,0
-0.37321603,-2.0033526,0.83056325,-0.085412145,-0.68082321,0.72745073,0
2.7445927,2.153651,2.1986275,0.97472024,-0.1837351,-0.1271289,0
-0.42561579,2.5092301,3.4397509,0.22049344,0.69909966,0.68017811,0
2.4112856,1.7285342,0.95774615,0.94198465,0.02830869,-0.3344596,0
2.2168946,1.4015294,0.40568924,0.91611528,0.090953797,-0.39046127,0
0.74787563,-2.6937115,-0.40732151,0.59391558,-0.64939117,0.47492647,0
-2.1077433,-0.32113189,-0.07891643,-0.97196674,0.099123061,0.21320212,0
-1.6141165,-3.2612002,-0.71652937,-0.4627386,-0.53889519,0.70389253,0
0.20546556,2.0248671,3.7330105,0.22049344,0.69909966,0.68017811,0
-0.81676841,-1.6484215,-3.921762,-0.22049344,-0.69909966,-0.68017811,0
1.2932291,-2.5371747,-1.7228452,0.93991834,-0.33863416,0.043360829,0
0.6683566,-2.6813002,-0.29832882,0.5469594,-0.66600335,0.50722259,0
-0.97736478,-0.13155074,2.0523994,-0.60868901,-0.44627002,0.65600342,0
1.0978112,3.3510122,2.0807021,0.22049344,0.69909966,0.68017811,0
-1.3086994,-0.90415311,-3.5466576,-0.28689623,0.71297711,-0.63980788,0
-1.70805,-3.3183508,-1.916451,-0.22049344,-0.69909966,-0.68017811,0
-0.533306,3.4633081,2.4940419,0.22049344,0.69909966,0.68017811,0
1.6513768,2.7851555,2.4828506,0.22049344,0.69909966,0.68017811,0
0.81980425,-3.2347448,-2.8218377,-0.22049344,-0.69909966,-0.68017811,0
-0.46622896,0.017133534,2.5434844,-0.41383097,-0.56441534,0.71426821,0
1.6966976,-0.040279508,2.0184042,0.65885401,-0.62095505,0.4246482,0
-1.4213514,-0.88387418,-3.4666734,-0.34804457,0.70782685,-0.61469185,0
2.0194433,0.88648504,-0.17515469,0.90544158,0.11261058,-0.40926057,0
-1.183357,2.82581,2.5689857,-0.97334921,0.20277457,0.10711539,0
2.4601641,1.5474015,1.128073,0.96642393,-0.062257826,-0.24929619,0
-1.2021866,-3.7556572,-1.6309652,-0.22049344,-0.69909966,-0.68017811,0
1.1939194,0.21077369,-1.7807733,0.68522769,0.38525036,-0.61809784,0
-1.0329063,-3.0243478,-2.437494,-0.22049344,-0.69909966,-0.68017811,0
-2.1631446,-0.62614179,-0.20703375,-0.96520525,0.055884093,0.25545216,0
-1.985646,-2.1810143,-2.9954381,-0.22049344,-0.69909966,-0.68017811,0
-1.5031071,-3.4912,-1.8052299,-0.22049344,-0.69909966,-0.68017811,0
0.27843499,1.7452924,3.9967082,0.22049344,0.69909966,0.68017811,0
0.85887623,-3.0952737,-2.977855,-0.22049344,-0.69909966,-0.68017811,0
-2.3367014,-1.4735522,-3.1860332,-0.75906461,0.56091297,-0.33045048,0
2.6747131,1.8644832,2.1243107,0.96933919,-0.23459987,-0.073104918,0
1.961756,0.25786209,-0.43211591,0.94571924,0.017456144,-0.32451576,0
2.2176256,1.5819385,3.5359783,0.22049344,0.69909966,0.68017811,0
1.2855639,1.0134962,3.6773562,0.25766248,-0.7143172,0.65066189,0
0.98261428,3.152729,2.3218451,0.22049344,0.69909966,0.68017811,0
-0.50536275,-2.9721119,-2.6621971,-0.22049344,-0.69909966,-0.68017811,0
-2.0122898,-0.010825872,0.21190357,-0.97228444,0.1019454,0.21040434,0
0.50734723,-2.0034251,0.65941739,0.34630352,-0.70801878,0.61545348,0
-2.1224554,-3.4963322,-1.5991802,-0.22049344,-0.69909966,-0.68017811,0
-2.6044407,-2.3171329,-2.6549377,-0.22049344,-0.69909966,-0.68017811,0
-0.45441282,3.3246469,0.91247708,-0.54082656,0.66795516,-0.5112167,0
0.32824826,0.078432143,-2.5385945,0.34046251,0.59831685,-0.72532886,0
-0.71504664,-1.871587,-3.7253637,-0.22049344,-0.69909966,-0.68017811,0
-0.31392658,-2.7888865,-2.9125774,-0.22049344,-0.69909966,-0.68017811,0
1.5409136,0.20948935,-1.3241923,0.8161509,0.24962296,-0.52113891,0
-2.3542593,-3.1922107,-1.8366185,-0.22049344,-0.69909966,-0.68017811,0
1.3253844,2.9174936,0.27470422,0.38501322,0.5783338,-0.71923202,0
2.4459558,1.3505925,1.1446609,0.97358984,-0.11541671,-0.19698137,0
-1.6045591,-3.4763834,-1.787571,-0.22049344,-0.69909966,-0.68017811,0
-1.9211644,0.069190264,0.55166936,-0.9605822,0.034595132,0.27583468,0
-0.49367833,-0.34666777,-3.1266799,0.026341915,0.6928184,-0.72063076,0
-0.85066164,-2.8012745,-2.7258511,-0.22049344,-0.69909966,-0.68017811,0
-0.40386975,-2.5545654,-3.1242604,-0.22049344,-0.69909966,-0.68017811,0
-0.8504985,2.9919415,3.0813458,0.22049344,0.69909966,0.68017811,0
-1.1239122,-2.2124693,0.39991188,-0.39410096,-0.57403088,0.71775538,0
-1.2979318,-2.4676189,-2.9237969,-0.22049344,-0.69909966,-0.68017811,0
-1.0843003,-1.577255,-3.9081821,-0.22049344,-0.69909966,-0.68017811,0
0.4844209,-3.5519419,-2.3870957,-0.22049344,-0.69909966,-0.68017811,0
2.2795362,2.8480117,2.2146153,0.22049344,0.69909966,0.68017811,0
1.0152513,1.9604142,-0.6608777,0.38140786,0.58001912,-0.71979547,0
1.3555901,1.0551705,-1.0697784,0.64373672,0.41959953,-0.63995236,0
-0.60127747,-2.6572814,0.19162107,-0.095585763,-0.67849696,0.72835779,0
-2.081614,-2.3424311,-2.7984209,-0.22049344,-0.69909966,-0.68017811,0
-1.2354804,-2.3245854,-3.0910544,-0.22049344,-0.69909966,-0.68017811,0
1.5349243,1.4460902,3.8969173,0.22049344,0.69909966,0.68017811,0
1.7218918,-0.66687644,-1.1700132,0.9582237,-0.025007814,-0.28492409,0
-0.39485061,-1.3018383,1.4660521,-0.19742531,-0.65091914,0.73302603,0
-0.70025313,-2.3704317,-3.2174377,-0.22049344,-0.69909966,-0.68017811,0
-0.72745073,-2.2401607,0.54283655,-0.21409094,-0.64564753,0.73301029,0
-1.1346395,3.0199156,2.6218908,-0.96910232,0.23606044,0.071526825,0
1.8051066,2.315434,2.9158046,0.22049344,0.69909966,0.68017811,0
1.0281057,3.6544924,1.7913761,0.22049344,0.69909966,0.68017811,0
-0.1362379,-3.9437704,-1.7831683,-0.22049344,-0.69909966,-0.68017811,0
2.2371671,1.8555187,0.58560693,0.8772766,0.16266799,-0.45158011,0
0.5766654,-0.76267105,1.9987129,0.183218,-0.71461344,0.67509902,0
-2.386867,-0.99172938,-1.1404604,-0.97345567,0.20160003,0.10835713,0
2.3792946,0.96289253,1.9059365,0.91467518,-0.39038453,0.10473394,0
1.5666151,2.1572981,-0.1265074,0.58844125,0.46080321,-0.66437721,0
-1.3046424,-2.0638809,-3.3365912,-0.22049344,-0.69909966,-0.68017811,0
-2.1010711,-2.2959831,-0.56027222,-0.78048861,-0.29177672,0.55290478,0
-2.2832742,-1.8052603,-0.6625098,-0.89731616,-0.12798277,0.42242622,0
2.6385033,2.2297974,2.7336609,0.22049344,0.69909966,0.68017811,0
-1.9497269,-2.4613554,-2.7189422,-0.22049344,-0.69909966,-0.68017811,0
2.046087,1.4339942,3.6132169,0.59183705,-0.6501919,0.47642332,0
1.2031279,1.1612785,-1.1382728,0.56816983,0.47475958,-0.67215037,0
-0.11762691,-2.0880189,-3.6965768,-0.22049344,-0.69909966,-0.68017811,0
0.67329669,0.0078918934,2.7798924,0.11121607,-0.71081251,0.69453323,0
2.2245479,2.1681676,0.68856025,0.83945662,0.21908532,-0.49730682,0
0.22733134,-3.5477824,-2.3080299,-0.22049344,-0.69909966,-0.68017811,0
-2.2511632,-0.49212301,-1.1547961,-0.94633394,0.32226354,-0.02445507,0
-1.6418711,-1.9057596,-3.3897915,-0.22049344,-0.69909966,-0.68017811,0
-0.81315327,2.4776173,3.5978715,0.22049344,0.69909966,0.68017811,0
0.44092774,-2.3788977,-3.5786729,-0.22049344,-0.69909966,-0.68017811,0
-1.2039156,-3.9398446,-1.4410936,-0.22049344,-0.69909966,-0.68017811,0
-1.2880082,1.4356172,2.4323108,-0.9057349,-0.112039,0.40876812,0
-0.67239553,2.8571906,3.1621094,0.22049344,0.69909966,0.68017811,0
2.227262,2.1760454,2.9222202,0.22049344,0.69909966,0.68017811,0
-2.0796332,-1.8583586,-3.2966018,-0.22049344,-0.69909966,-0.68017811,0
0.48833156,-2.4612398,-3.5094068,-0.22049344,-0.69909966,-0.68017811,0
1.7786884,-0.8770014,-0.8218224,0.97532642,-0.16588406,-0.14567316,0
1.7852514,1.988606,3.2581608,0.22049344,0.69909966,0.68017811,0
0.78152061,3.8636799,1.656305,0.22049344,0.69909966,0.68017811,0
1.7591758,-0.016751647,-0.9983834,0.91298193,0.097503781,-0.39617765,0
-0.28572261,-2.7389209,-2.9730759,-0.22049344,-0.69909966,-0.68017811,0
2.3027,1.8451495,3.2378666,0.22049344,0.69909966,0.68017811,0
-0.62751669,3.6136327,2.3700762,0.22049344,0.69909966,0.68017811,0
1.5489702,1.7158515,-0.44195986,0.63772655,0.424317,-0.64285278,0
0.11832476,0.45347893,3.1624603,-0.21580982,-0.64509135,0.73299593,0
2.1272933,1.1517229,3.0882702,0.69158632,-0.60379845,0.39640343,0
2.4237158,1.1349932,1.2106462,0.97467935,-0.18450467,-0.12632471,0
-0.022074223,1.7434596,4.0960078,0.22049344,0.69909966,0.68017811,0
-2.6592271,-2.10799,-2.8521385,-0.22049344,-0.69909966,-0.68017811,0
0.49008179,0.72437477,3.4848104,-0.084019244,-0.68113559,0.72732031,0
2.1769807,2.2297282,2.8833439,0.22049344,0.69909966,0.68017811,0
1.151696,-2.8131938,-1.5299484,0.87940121,-0.44414687,0.17142665,0
-1.0350325,1.9087579,3.1054354,-0.87233901,-0.1706273,0.45816022,0
-2.4528048,-1.1880363,-2.1024392,-0.91755545,0.38521656,-0.09848851,0
-1.9026086,-2.7699716,-0.60484123,-0.64620769,-0.41764197,0.63874143,0
0.65214211,3.5353098,2.0357506,0.22049344,0.69909966,0.68017811,0
-0.37171817,-2.104506,-3.5972621,-0.22049344,-0.69909966,-0.68017811,0
1.7063036,3.6338398,1.5927515,0.22049344,0.69909966,0.68017811,0
1.1954168,2.2670407,3.1631873,0.22049344,0.69909966,0.68017811,0
0.94486189,3.0844855,2.4042246,0.22049344,0.69909966,0.68017811,0
-1.63447,-2.3782697,-0.086856365,-0.58768857,-0.46133184,0.66467661,0
-1.5600296,-3.8141956,-1.4547964,-0.22049344,-0.69909966,-0.68017811,0
-2.4256322,-1.7844677,-3.2603855,-0.22049344,-0.69909966,-0.68017811,0
-1.3776269,-1.4621884,-3.9313624,-0.22049344,-0.69909966,-0.68017811,0
-1.8467431,-1.5917155,-3.6461585,-0.22049344,-0.69909966,-0.68017811,0
0.020081609,3.5035844,2.2732537,0.22049344,0.69909966,0.68017811,0
0.32220244,-1.4481282,-3.7246881,0.54418588,0.49054953,-0.68060476,0
-0.94438654,0.0046906173,2.1756392,-0.61274356,-0.44328541,0.65425003,0
-1.6655718,-3.3221531,-1.9263132,-0.22049344,-0.69909966,-0.68017811,0
-1.9996688,0.30892503,-0.29469633,-0.95293659,0.30315775,-0.0026774406,0
2.5574656,2.5825465,2.3973691,0.22049344,0.69909966,0.68017811,0
0.86566722,-3.460381,-1.840165,0.81648302,-0.51378608,0.26339927,0
-1.1516397,-2.7120221,-2.7200186,-0.22049344,-0.69909966,-0.68017811,0
2.0882242,0.78139305,2.5790148,0.73973185,-0.57437599,0.35055518,0
-1.5846395,1.2426367,-0.25436574,-0.83049929,0.50026566,-0.24495906,0
0.28114307,-2.7027607,-3.1940029,-0.22049344,-0.69909966,-0.68017811,0
-0.50515532,2.4142036,3.5632055,0.22049344,0.69909966,0.68017811,0
1.1777647,1.5517142,3.9041355,0.22049344,0.69909966,0.68017811,0
2.0151742,2.2750206,2.8892443,0.22049344,0.69909966,0.68017811,0
1.8818158,0.13081622,1.9486139,0.73895949,-0.57489252,0.35133651,0
-0.86411047,2.0969915,3.4866273,-0.83412528,-0.22631359,0.50300795,0
-2.1813426,-2.3978784,-2.7091024,-0.22049344,-0.69909966,-0.68017811,0
1.3082128,-1.4299781,0.58481115,0.68866533,-0.60541606,0.39901292,0
1.3435764,0.56991363,-1.3903226,0.69945908,0.37269059,-0.60980207,0
2.2031891,3.027431,2.0549545,0.22049344,0.69909966,0.68017811,0
0.82619727,3.8758013,1.6293638,0.22049344,0.69909966,0.68017811,0
-1.5634788,-0.007086575,1.3789533,-0.84659135,-0.20916343,0.48942173,0
-1.821852,-2.6400414,-2.5767388,-0.22049344,-0.69909966,-0.68017811,0
0.42287964,3.6160955,2.0270376,0.22049344,0.69909966,0.68017811,0
1.9735061,2.7928641,2.3705029,0.22049344,0.69909966,0.68017811,0
-0.90316665,1.9308779,3.3469541,-0.82942748,-0.23255873,0.50790381,0
0.041194201,-0.19706893,2.5621324,-0.15734321,-0.66271442,0.7321561,0
-1.1421655,-2.2996325,-3.1469512,-0.22049344,-0.69909966,-0.68017811,0
1.3580443,3.8577352,1.0706321,0.26839697,0.62693363,-0.73138028,0
-1.1584616,-2.6650128,-2.766124,-0.22049344,-0.69909966,-0.68017811,0
2.1117687,2.8419924,2.275187,0.22049344,0.69909966,0.68017811,0
0.3355217,1.9826159,3.7342765,0.22049344,0.69909966,0.68017811,0
-1.0956633,-4.0109735,-1.1357155,-0.12689358,-0.67085451,0.7306518,0
-0.69174743,2.7495687,3.2789986,0.22049344,0.69909966,0.68017811,0
2.0629201,2.2541158,2.8952529,0.22049344,0.69909966,0.68017811,0
-1.7029105,-2.4916043,-2.7678623,-0.22049344,-0.69909966,-0.68017811,0
-0.45227027,-1.6412773,-4.0472646,-0.22049344,-0.69909966,-0.68017811,0
-1.4196041,1.8997142,2.0236647,-0.9734602,0.11389869,0.19849968,0
-1.6319513,-1.3656547,0.57245362,-0.7139762,-0.35942632,0.6008749,0
-2.0447919,-1.277041,-3.3978844,-0.61946529,0.63901746,-0.45598173,0
-0.27526736,2.2796583,-0.46174625,-0.27201831,0.7137475,-0.64542264,0
-2.1438179,-2.6407175,-2.4716718,-0.22049344,-0.69909966,-0.68017811,0
-0.30805016,1.347356,3.6625617,-0.52502823,-0.50262964,0.68681049,0
-1.9314463,-2.6160803,-2.5658391,-0.22049344,-0.69909966,-0.68017811,0
1.9100857,-0.49599981,-0.37015343,0.97459638,-0.18600303,-0.12475783,0
-0.46219644,3.862139,1.6561708,-0.6417231,0.6291362,-0.43861023,0
0.090240717,-0.55588108,-3.1730924,0.32371235,0.60536724,-0.72714555,0
-0.45044717,3.6134222,2.312892,0.22049344,0.69909966,0.68017811,0
-1.4193549,0.16691795,1.6948546,-0.8151325,-0.2508983,0.52211958,0
2.0896268,3.0810971,2.0366087,0.22049344,0.69909966,0.68017811,0
-1.2216548,2.4797957,2.65836,-0.97160041,0.096025407,0.21626729,0
1.7565743,2.478292,2.7641487,0.22049344,0.69909966,0.68017811,0
1.6056252,2.6126375,2.6749995,0.22049344,0.69909966,0.68017811,0
-1.0610553,2.700573,3.2120781,-0.95374268,0.0084348917,0.3005054,0
-2.6367612,-1.9581816,-3.0133975,-0.22049344,-0.69909966,-0.68017811,0
-0.94088638,-3.5542228,-1.922709,-0.22049344,-0.69909966,-0.68017811,0
2.2906158,0.64447021,0.94662416,0.9689697,-0.23686564,-0.0706563,0
1.0768036,1.1969441,-1.2124671,0.51089334,0.51125318,-0.6910919,0
-1.0870426,-4.1327915,-1.2806661,-0.22049344,-0.69909966,-0.68017811,0
-0.95551181,2.625792,0.62203354,-0.70355213,0.59698308,-0.38551956,0
-1.5950946,-1.2351246,0.69431674,-0.71564233,-0.35787329,0.59981883,0
-0.31801152,0.081380963,-2.7081926,0.045532644,0.68920314,-0.72313607,0
-1.6333997,-2.9899328,-2.2782044,-0.22049344,-0.69909966,-0.68017811,0
2.511848,2.6431165,2.3499017,0.22049344,0.69909966,0.68017811,0
-0.42387384,2.9562173,2.9797649,0.22049344,0.69909966,0.68017811,0
0.71080458,3.4395669,0.55748987,0.031219602,0.69192511,-0.72129381,0
-2.6134765,-2.8290675,-1.6741949,-0.89961851,-0.12371409,0.41878527,0
-0.33906162,-3.4057527,-0.55317974,0.14268589,-0.7129575,0.68653631,0
0.97477818,-0.90878773,-2.7117405,0.73708326,0.33729017,-0.58561361,0
0.043010831,2.6643314,3.1284204,0.22049344,0.69909966,0.68017811,0
0.13395905,1.6424952,4.1492,0.22049344,0.69909966,0.68017811,0
1.9796394,0.72982359,2.7028322,0.68276894,-0.60862803,0.40422574,0
-1.4931934,-3.1822917,-2.1259451,-0.22049344,-0.69909966,-0.68017811,0
0.7986815,-2.3700614,-3.7037282,-0.22049344,-0.69909966,-0.68017811,0
-0.31971255,-3.8103023,-1.8608718,-0.22049344,-0.69909966,-0.68017811,0
0.88912499,-2.5504313,-0.39956498,0.64948189,-0.6254952,0.43235278,0
-0.063372791,3.0522363,2.7642109,0.22049344,0.69909966,0.68017811,0
-2.1053567,-2.4249454,-2.7059145,-0.22049344,-0.69909966,-0.68017811,0
-1.4445751,-3.2919381,-0.63959932,-0.3854889,-0.57811052,0.71915674,0
1.2924231,2.301331,3.0964966,0.22049344,0.69909966,0.68017811,0
-1.8313228,-1.8680048,-3.3671818,-0.22049344,-0.69909966,-0.68017811,0
1.9709334,1.5058905,3.6941121,0.22049344,0.69909966,0.68017811,0
-2.4141963,-2.3819242,-2.6500158,-0.22049344,-0.69909966,-0.68017811,0
1.6104176,-1.0014597,-1.5153607,0.95688051,-0.019837111,-0.28980327,0
1.6118718,3.2382112,2.0299981,0.22049344,0.69909966,0.68017811,0
2.2937188,2.4267955,0.91940928,0.83511651,0.22498125,-0.5019598,0
1.3180076,3.8968043,1.4483461,0.22049344,0.69909966,0.68017811,0
-0.77737772,-2.4577551,-3.1026835,-0.22049344,-0.69909966,-0.68017811,0
-0.44876719,-1.5147499,-4.1784472,-0.22049344,-0.69909966,-0.68017811,0
2.1739159,2.7812619,2.317461,0.22049344,0.69909966,0.68017811,0
1.0290976,-2.9567738,-1.364574,0.81974733,-0.5107199,0.25918961,0
0.030346841,3.4334059,2.3420568,0.22049344,0.69909966,0.68017811,0
-0.90031326,3.0512891,1.195331,-0.7530793,0.56519347,-0.33679035,0
0.62331146,3.6537538,1.9233578,0.22049344,0.69909966,0.68017811,0
-1.8628434,-1.0650618,0.40777862,-0.8346287,-0.22563766,0.50247627,0
-0.71799612,-3.7645445,-1.7787908,-0.22049344,-0.69909966,-0.68017811,0
1.0320873,2.1849008,3.3005588,0.22049344,0.69909966,0.68017811,0
1.4897752,-0.21230689,-1.6001853,0.84503007,0.21135975,-0.49117309,0
-0.60072917,3.2037585,0.92093873,-0.60174513,0.64631766,-0.46922931,0
-0.049032688,-1.3577026,-3.8984964,0.37365654,0.58360136,-0.72096467,0
0.84939539,2.1066856,3.4401731,0.22049344,0.69909966,0.68017811,0
0.87738013,-0.49389628,-2.5664477,0.6478796,0.41631138,-0.63791585,0
2.4707315,2.7379351,2.2657743,0.22049344,0.69909966,0.68017811,0
1.8949301,3.4325471,1.7384975,0.22049344,0.69909966,0.68017811,0
1.3893224,2.9779758,2.3696167,0.22049344,0.69909966,0.68017811,0
0.0050837994,-0.85059667,1.9537791,-0.0785321,-0.68235266,0.72679245,0
-1.7372713,0.89414895,1.0427822,-0.97351557,0.11454079,0.19785768,0
-2.5412879,-2.745327,-2.2353046,-0.22049344,-0.69909966,-0.68017811,0
1.1337773,-3.035718,-2.1656358,0.93569666,-0.34851086,0.054880857,0
-2.8086178,-2.5604548,-2.338659,-0.22049344,-0.69909966,-0.68017811,0
-1.3247223,1.9153852,0.25434327,-0.79685688,0.53125894,-0.28772044,0
-1.4635607,-2.0565829,-3.2925758,-0.22049344,-0.69909966,-0.68017811,0
2.2222972,1.5445628,0.45474994,0.90398228,0.11543655,-0.41169202,0
1.6534282,2.8993969,2.3647661,0.22049344,0.69909966,0.68017811,0
1.6897969,3.7055326,1.5244153,0.22049344,0.69909966,0.68017811,0
-1.5358088,1.6498189,1.5679072,-0.97530144,0.16733348,0.14417529,0
-0.62042367,1.0398417,3.1804101,-0.613765,-0.44252935,0.6538043,0
-2.6194346,-1.6854901,-1.9661992,-0.96869546,0.23850328,0.068884254,0
-2.2627311,-3.4390318,-1.4175915,-0.70500207,-0.3676815,0.6064505,0
-1.4119987,-2.686413,-2.6619394,-0.22049344,-0.69909966,-0.68017811,0
-2.1446609,-0.46166348,-0.18254864,-0.97092569,0.09068352,0.22153902,0
-1.8031185,0.50965369,0.90479946,-0.96485716,0.054133683,0.25713837,0
2.4989576,1.6976595,3.1579485,0.82108164,-0.50945264,0.25745457,0
-1.2868909,-2.1728597,-3.2303352,-0.22049344,-0.69909966,-0.68017811,0
-1.7585773,-1.7925825,0.16658056,-0.71087092,-0.36230344,0.60282534,0
2.1855137,0.49271905,0.36182106,0.97452241,-0.12851667,-0.18381935,0
0.68018687,4.1860223,1.3578447,0.22049344,0.69909966,0.68017811,0
1.0881197,-1.5236419,-2.8553472,0.84915644,0.20552284,-0.48651147,0
-1.8773538,0.61974978,0.43856204,-0.97369379,0.19884987,0.11126095,0
-0.010783672,-1.1640642,-3.7217584,0.36367375,0.58813262,-0.7223857,0
1.1474515,-2.9902637,-2.5412819,0.96686673,-0.24863315,-0.057879686,0
1.5069081,3.3359032,1.9636146,0.22049344,0.69909966,0.68017811,0
0.56132388,-2.7516079,-3.2346234,-0.22049344,-0.69909966,-0.68017811,0
2.386575,1.6206492,0.87930727,0.94442695,0.021283925,-0.32803118,0
-1.6553209,-2.6982636,-2.5708809,-0.22049344,-0.69909966,-0.68017811,0
-1.6686239,-2.2720344,-3.0046549,-0.22049344,-0.69909966,-0.68017811,0
-1.6856,-3.4302571,-1.8087096,-0.22049344,-0.69909966,-0.68017811,0
-1.523847,0.22172666,1.5441623,-0.85776269,-0.19300601,0.47643632,0
1.3068945,-2.1938958,-2.4020686,0.97089434,-0.090445518,-0.22177351,0
-0.3513093,2.609127,3.3129871,0.22049344,0.69909966,0.68017811,0
-0.057660192,3.970777,1.8182658,0.22049344,0.69909966,0.68017811,0
0.74234015,3.4574711,2.0865149,0.22049344,0.69909966,0.68017811,0
0.069259405,3.1792698,2.5906482,0.22049344,0.69909966,0.68017811,0
-1.7170749,-2.6567965,-2.5934832,-0.22049344,-0.69909966,-0.68017811,0
-1.4075794,2.1633821,1.2954255,-0.93345326,0.35351667,-0.060753167,0
-0.11034596,2.5746212,3.27034,0.22049344,0.69909966,0.68017811,0
0.63391453,2.8163505,-0.039060712,0.087410927,0.68037218,-0.72763503,0
-0.83501333,-1.1251638,1.4271505,-0.41750666,-0.5625819,0.71357524,0
-1.3410496,1.8859715,0.24551177,-0.80169439,0.527098,-0.28187558,0
1.537213,1.80875,-0.39153922,0.62119281,0.43698296,-0.65051132,0
-0.56284857,2.121613,-0.48754895,-0.39470214,0.70164609,-0.59321404,0
-0.16221368,-2.2382345,-3.5277283,-0.22049344,-0.69909966,-0.68017811,0
-2.4748087,-2.1592517,-2.8592341,-0.22049344,-0.69909966,-0.68017811,0
-1.2439005,0.33910006,-2.134007,-0.45782465,0.68992913,-0.56070876,0
-0.1325177,-3.8813043,-1.1420251,0.3217454,-0.71044004,0.62590313,0
0.055311918,3.8905969,1.1955526,-0.36320162,0.70603955,-0.60794127,0
-1.8899412,-0.31005031,0.61504042,-0.92125225,-0.079823375,0.38068646,0
-1.5633333,-3.8773725,-1.3887913,-0.22049344,-0.69909966,-0.68017811,0
1.3862952,3.0024478,0.37600565,0.39984393,0.571271,-0.71678042,0
-0.14069766,3.255239,2.5806274,0.22049344,0.69909966,0.68017811,0
0.22202593,3.5909038,0.78183216,-0.22977507,0.71494436,-0.66034675,0
-0.52818692,-3.5018842,-2.1102881,-0.22049344,-0.69909966,-0.68017811,0
0.13771379,-2.1801066,-3.684701,-0.22049344,-0.69909966,-0.68017811,0
-0.7052635,0.031547517,2.3958447,-0.51757741,-0.50720525,0.68909812,0
-0.86327004,-2.725857,0.075264812,-0.20620275,-0.64816988,0.7330457,0
-1.8630691,-1.503893,0.19359231,-0.78485262,-0.28687441,0.5492807,0
0.71230489,4.0936909,1.4423333,0.22049344,0.69909966,0.68017811,0
-1.9724448,-0.23377812,0.40101552,-0.95032787,-0.0030814409,0.31123513,0
0.26408172,2.9093902,2.8048797,0.22049344,0.69909966,0.68017811,0
2.7476728,2.1146374,2.2976575,0.97176623,-0.21749054,-0.091476917,0
-0.083849907,3.8601818,1.9404278,0.22049344,0.69909966,0.68017811,0
2.445719,3.1625614,1.8374442,0.22049344,0.69909966,0.68017811,0
-1.46803,0.99705911,1.9099309,-0.91839659,-0.086073637,0.38618493,0
-0.29059333,-3.9083686,-1.7695171,-0.22049344,-0.69909966,-0.68017811,0
-0.16507387,-1.8150686,-3.9617393,-0.22049344,-0.69909966,-0.68017811,0
2.2138464,1.6056252,3.5128579,0.22049344,0.69909966,0.68017811,0
-1.1067297,-3.1969705,-2.2361381,-0.22049344,-0.69909966,-0.68017811,0
0.19081759,4.0245886,1.6824082,0.22049344,0.69909966,0.68017811,0
1.7071406,2.175029,3.0918729,0.22049344,0.69909966,0.68017811,0
1.1746409,2.9423585,2.4758182,0.22049344,0.69909966,0.68017811,0
-0.059563637,-0.45000094,2.3113995,-0.16697669,-0.65999234,0.73248124,0
-0.83871019,-2.1199455,-3.4300082,-0.22049344,-0.69909966,-0.68017811,0
0.87070739,-3.5210397,-1.9783808,0.83392024,-0.49681899,0.24030763,0
2.028343,1.8890952,3.2816367,0.22049344,0.69909966,0.68017811,0
-1.4635804,-4.0105195,-1.241356,-0.29402179,-0.61726516,0.72974968,0
-1.2492915,1.3441103,2.485477,-0.88425183,-0.15105554,0.44190586,0
0.45259008,-3.4123962,-2.5202045,-0.22049344,-0.69909966,-0.68017811,0
-1.7297165,0.35212171,1.1359632,-0.93513334,-0.046754211,0.35119724,0
1.4380517,3.4984374,0.80377722,0.35415894,0.59236634,-0.72365278,0
-2.2047315,-2.6092196,-2.4842994,-0.22049344,-0.69909966,-0.68017811,0
1.0747135,-1.7309301,0.49978849,0.60716277,-0.64413702,0.46523184,0
0.88096052,-3.5765519,-2.4903474,-0.22049344,-0.69909966,-0.68017811,0
0.028289318,-3.8429353,-1.1927743,0.39908826,-0.7009598,0.59108686,0
2.317795,0.69971681,1.2743944,0.95306188,-0.30276722,0.002235353,0
1.8685555,-0.067082047,1.645182,0.7706579,-0.55231643,0.31785667,0
-1.0076283,-3.1361313,-2.330795,-0.22049344,-0.69909966,-0.68017811,0
-0.13832355,-1.1402373,1.6654932,-0.1028083,-0.67679894,0.72895372,0
0.63160014,2.2901194,3.3222392,0.22049344,0.69909966,0.68017811,0
-1.6948916,-3.557523,-1.6748909,-0.22049344,-0.69909966,-0.68017811,0
0.69238663,2.085398,-0.68933642,0.22032505,0.64361936,-0.73294657,0
-1.8662444,-3.082695,-2.1073806,-0.22049344,-0.69909966,-0.68017811,0
-0.74367392,1.383646,3.272234,-0.70577788,-0.36697498,0.60597581,0
2.0827537,3.6617975,1.4419824,0.22049344,0.69909966,0.68017811,0
1.3215704,-2.0559006,-0.51496565,0.82573086,-0.50497127,0.2513414,0
-1.303085,-3.6162255,-1.7415674,-0.22049344,-0.69909966,-0.68017811,0
1.1227047,-1.6786449,0.50830734,0.62532324,-0.63649571,0.45149082,0
2.3358486,1.4093089,0.72045887,0.94849724,0.0089359283,-0.31665915,0
-1.5311534,-1.4769603,0.61576641,-0.66069669,-0.40594611,0.63141704,0
2.2384405,0.93533957,2.4776173,0.80692691,-0.52249259,0.27544582,0
-2.2470443,-1.8528346,-0.60398257,-0.88080406,-0.15685171,0.44674557,0
-0.26403648,-4.1162748,-1.3427365,0.29234391,-0.71264863,0.63770425,0
-0.81143105,2.3489478,3.6866417,-0.84348387,-0.21352087,0.49289316,0
0.18821198,3.4052248,2.3198466,0.22049344,0.69909966,0.68017811,0
2.716275,2.1088085,2.8328042,0.22049344,0.69909966,0.68017811,0
0.25178963,-3.6884506,-2.1713772,-0.22049344,-0.69909966,-0.68017811,0
0.36950666,-3.3461819,-2.5613277,-0.22049344,-0.69909966,-0.68017811,0
1.0153029,2.7285047,2.7472734,0.22049344,0.69909966,0.68017811,0
-0.14599705,1.3326999,3.7655408,-0.45453346,-0.54335016,0.70581156,0
2.209938,1.2123909,0.35148537,0.93144822,0.056027979,-0.35953438,0
-0.40180093,-3.2080674,-0.34062415,0.081666052,-0.70812404,0.70134926,0
-2.3410034,-2.1937828,-2.8671184,-0.22049344,-0.69909966,-0.68017811,0
-0.24106336,-2.0173376,-3.7292097,-0.22049344,-0.69909966,-0.68017811,0
0.47196174,-3.2420363,-2.7015834,-0.22049344,-0.69909966,-0.68017811,0
-1.8148844,-1.6419456,-3.6048586,-0.22049344,-0.69909966,-0.68017811,0
-1.1885213,-2.54145,-2.8833799,-0.22049344,-0.69909966,-0.68017811,0
0.91776931,2.6949372,-0.085993171,0.23531514,0.63861609,-0.73266363,0
-1.2160317,1.7187228,-0.30579859,-0.68799245,0.60578609,-0.39961141,0
0.4945038,4.0580478,1.549572,0.22049344,0.69909966,0.68017811,0
1.1663926,2.0097353,-0.53493929,0.44005936,0.55103552,-0.70901871,0
1.58634,0.89509618,3.3715453,0.4327966,-0.69505715,0.57409275,0
0.9726336,2.263479,-0.43306243,0.32069349,0.60661179,-0.72744608,0
-0.21567059,-1.9052104,-3.8526878,-0.22049344,-0.69909966,-0.68017811,0
1.9241204,1.6656971,-0.021777391,0.78853941,0.28268093,-0.5461657,0
-0.33899164,3.2856951,2.6136053,0.22049344,0.69909966,0.68017811,0
0.68233454,2.6073017,2.9797871,0.22049344,0.69909966,0.68017811,0
0.37402415,-2.3938565,-3.5416095,-0.22049344,-0.69909966,-0.68017811,0
-1.2434648,1.0847853,-1.1727312,-0.5871734,0.65196568,-0.47975817,0
1.9619236,2.9018784,2.2622111,0.22049344,0.69909966,0.68017811,0
-1.2674475,-1.8930407,0.55626941,-0.49872383,-0.51848757,0.69458252,0
2.1395371,0.75091934,0.11437082,0.95130688,-0.00013652444,-0.30824512,0
-0.074972987,2.9315653,0.17476928,-0.27471536,0.7136215,-0.64441884,0
0.80154276,1.804168,3.7666185,0.22049344,0.69909966,0.68017811,0
-0.86152291,3.28122,1.4983678,-0.77507263,0.54893208,-0.31294703,0
-1.8435168,-0.83012414,-3.0405722,-0.58495986,0.65279663,-0.4813298,0
-0.74673569,3.7257879,1.9966258,-0.79209673,0.53526592,-0.29338193,0
0.08433748,-3.7486081,-2.055263,-0.22049344,-0.69909966,-0.68017811,0
1.3016144,-0.22201282,-1.8970205,0.77853066,0.29395527,-0.55450898,0
-2.2123685,-0.39043891,-0.72650588,-0.96783328,0.24343838,0.063532352,0
0.50859553,-3.7544098,-2.1868322,-0.22049344,-0.69909966,-0.68017811,0
-2.1914301,-2.8605204,-0.99104965,-0.74765801,-0.32670492,0.5781619,0
-0.27198589,-2.7485185,-2.9676642,-0.22049344,-0.69909966,-0.68017811,0
0.89851433,4.0820961,1.3938868,0.22049344,0.69909966,0.68017811,0
2.6037102,2.3494253,1.5522879,0.94108212,0.030840099,-0.33676875,0
1.5735464,2.7174249,2.5776958,0.22049344,0.69909966,0.68017811,0
1.0244453,0.50534379,3.2185023,0.20702404,-0.71499527,0.66777438,0
1.120276,1.7346014,3.7347965,0.22049344,0.69909966,0.68017811,0
-1.9245789,-0.67482948,-2.7105212,-0.66023904,0.62027061,-0.42349571,0
1.5063944,-1.4235479,-1.8252959,0.96317053,-0.046028942,-0.26492178,0
-1.4884814,0.24432969,-2.0145524,-0.57582295,0.65615261,-0.48774111,0
1.6362011,-0.51314867,-1.4016188,0.92298055,0.075959712,-0.37727559,0
-1.1286006,2.3638391,0.55256164,-0.76048988,0.55987805,-0.32892475,0
0.1360473,3.9766798,1.7494047,0.22049344,0.69909966,0.68017811,0
-2.6801522,-2.6941628,-1.8006065,-0.93225396,-0.054034501,0.35774666,0
0.39880681,-0.19818294,2.597441,0.01020813,-0.69895649,0.71509123,0
-1.4408615,-3.8576782,-1.448735,-0.22049344,-0.69909966,-0.68017811,0
-0.51185119,3.6085649,2.3377895,0.22049344,0.69909966,0.68017811,0
-1.8448733,-2.5275726,-0.38810337,-0.65367866,-0.4116582,0.63501304,0
-1.9482284,-1.7138393,-0.038006306,-0.79181379,-0.27891549,0.54335696,0
-0.0090453029,-3.9477091,-1.8203518,-0.22049344,-0.69909966,-0.68017811,0
-1.75735,-1.2934194,-3.7235162,-0.45705092,0.69009745,-0.56113261,0
-0.69176769,-2.0168514,-3.5836046,-0.22049344,-0.69909966,-0.68017811,0
-0.49925125,3.7442605,1.5413021,-0.6416508,0.62916964,-0.43866807,0
-1.4079202,-2.5553758,-2.7979438,-0.22049344,-0.69909966,-0.68017811,0
-0.46920359,3.2024109,0.76891911,-0.52767622,0.67197973,-0.51961625,0
-0.68830878,3.8289213,2.1685057,0.22049344,0.69909966,0.68017811,0
1.4961605,-1.2724977,-1.870213,0.95002878,0.0040520132,-0.31213582,0
-1.0423086,0.56550157,2.4280324,-0.72147417,-0.35238615,0.59606946,0
0.26678276,1.6500018,4.0984268,0.22049344,0.69909966,0.68017811,0
-2.1879802,-2.8602352,-2.2317314,-0.22049344,-0.69909966,-0.68017811,0
1.3816957,1.6416277,3.7456126,0.22049344,0.69909966,0.68017811,0
1.9441679,1.4970309,3.7118948,0.22049344,0.69909966,0.68017811,0
-0.35888124,-1.9388543,-3.7716832,-0.22049344,-0.69909966,-0.68017811,0
-1.7752697,-1.4827975,-3.7812757,-0.22049344,-0.69909966,-0.68017811,0
1.1369539,-2.5931034,-0.98942196,0.81489265,-0.51526242,0.2654323,0
-1.4637914,-3.106442,-2.2134361,-0.22049344,-0.69909966,-0.68017811,0
-2.0274515,-0.73101544,-2.6194243,-0.71167517,0.59217763,-0.37794712,0
0.3360858,-0.22476053,2.5713778,-0.015624821,-0.69471967,0.71911073,0
-0.68203586,3.8207049,2.0004702,-0.76892358,0.55362898,-0.31976795,0
-1.9974897,-1.5125766,-3.6786313,-0.22049344,-0.69909966,-0.68017811,0
-1.7465274,-3.0914865,-2.1371531,-0.22049344,-0.69909966,-0.68017811,0
1.0403532,-2.5912831,-0.73657703,0.74984014,-0.56746721,0.34017736,0
-0.52278161,-2.5096412,-3.131886,-0.22049344,-0.69909966,-0.68017811,0
-2.7274015,-2.6977327,-2.2238903,-0.22049344,-0.69909966,-0.68017811,0
-0.10507154,2.5154028,-0.26871192,-0.22370231,0.71499813,-0.66237062,0
0.39007658,-3.0532534,-0.50849426,0.45901144,-0.68966961,0.56005728,0
-1.6267275,-1.9940525,-3.3039515,-0.22049344,-0.69909966,-0.68017811,0
-2.1311743,-2.5431123,-2.5760911,-0.22049344,-0.69909966,-0.68017811,0
-0.95109594,3.0531716,3.051023,0.22049344,0.69909966,0.68017811,0
-1.4643016,0.21289515,-2.0841956,-0.55667579,0.66281158,-0.50079221,0
0.77798569,-1.1805559,-3.1088004,0.69419146,0.3773891,-0.61292356,0
-2.2413962,-1.6252286,-3.4837782,-0.22049344,-0.69909966,-0.68017811,0
-2.4248257,-2.2857285,-2.7454417,-0.22049344,-0.69909966,-0.68017811,0
2.542335,2.9551644,2.0192904,0.22049344,0.69909966,0.68017811,0
-2.5183148,-3.1392717,-1.6124084,-0.83507568,-0.22503622,0.50200313,0
-2.2486362,-0.48041081,-1.0516889,-0.95376647,0.30054843,0.00027346611,0
-0.086076498,2.9123197,2.9153798,0.22049344,0.69909966,0.68017811,0
1.9698777,0.52857304,-0.37550223,0.92447269,0.072571725,-0.37427711,0
0.49609232,1.6897448,-1.09419,0.18780279,0.65386403,-0.73293364,0
-1.1521038,1.3891554,-0.87090093,-0.58980614,0.65096825,-0.47787955,0
-1.6860199,-3.4003706,-1.8392912,-0.22049344,-0.69909966,-0.68017811,0
2.4283426,2.1499267,2.8838813,0.22049344,0.69909966,0.68017811,0
2.562952,2.2685573,1.4317085,0.93696856,0.041977704,-0.34688276,0
1.890239,-0.26386017,1.2170922,0.82824028,-0.502509,0.24799713,0
0.8084988,-3.3600454,-2.6893866,-0.22049344,-0.69909966,-0.68017811,0
-1.4652798,-3.1771388,-2.14029,-0.22049344,-0.69909966,-0.68017811,0
1.3327487,-1.9284383,-0.301458,0.80521393,-0.52401245,0.27756321,0
1.382194,2.5588884,0.026416659,0.45829454,0.54131693,-0.70494103,0
1.602246,-0.068327665,-1.3398275,0.86791092,0.17759499,-0.46388632,0
-1.8625275,-1.9526809,-3.2700343,-0.22049344,-0.69909966,-0.68017811,0
0.019717723,4.077878,1.6831023,0.22049344,0.69909966,0.68017811,0
-0.48760659,-3.2193236,-2.4138646,-0.22049344,-0.69909966,-0.68017811,0
-0.82301378,1.9377766,-0.50552016,-0.50294399,0.67897654,-0.53482515,0
1.2308141,-2.1761091,-0.47634745,0.78892791,-0.53788698,0.2971032,0
1.1506655,1.9611144,-0.58248806,0.43989107,0.55112362,-0.70905465,0
-0.48543036,-2.2228055,0.61141574,-0.10544419,-0.6761694,0.72916126,0
2.2317686,0.86145914,2.3553126,0.81861866,-0.51178563,0.26065087,0
-0.080381989,-2.7329316,0.090949237,0.16557932,-0.71404731,0.68023503,0
-1.9007324,-3.3426723,-1.8289914,-0.22049344,-0.69909966,-0.68017811,0
2.7284625,2.1906645,2.0543113,0.97501636,-0.13871792,-0.17349446,0
0.57211441,4.1064658,1.4746482,0.22049344,0.69909966,0.68017811,0
-1.8803586,-0.12816405,-1.9473383,-0.7385664,0.57515484,-0.35173348,0
1.869617,3.3038006,1.8790305,0.22049344,0.69909966,0.68017811,0
1.6874968,2.0427728,3.2341764,0.22049344,0.69909966,0.68017811,0
-1.3162789,-4.0238757,-1.3183,-0.22049344,-0.69909966,-0.68017811,0
-1.3603904,-0.82495797,-3.4324169,-0.32615548,0.71004438,-0.62406683,0
-0.99963182,2.5522411,0.58961904,-0.7164402,0.58928859,-0.37343302,0
1.6650593,1.8525614,3.4369526,0.22049344,0.69909966,0.68017811,0
1.0217748,2.4016352,3.0811381,0.22049344,0.69909966,0.68017811,0
-1.5407425,-2.1503096,-3.1712215,-0.22049344,-0.69909966,-0.68017811,0
1.855216,1.1390054,-0.38634109,0.82369387,0.2400308,-0.5137251,0
-1.2619418,-2.8029666,-2.5907874,-0.22049344,-0.69909966,-0.68017811,0
0.58417058,0.67802882,3.4484963,-0.032966912,-0.69160086,0.72152704,0
-0.35178405,3.9322135,1.9532487,0.22049344,0.69909966,0.68017811,0
1.114845,-2.7961352,-1.3291705,0.84550095,-0.48468211,0.22407898,0
0.36896378,-2.9831493,-2.9342833,-0.22049344,-0.69909966,-0.68017811,0
0.76841545,-2.6553345,-3.4007077,-0.22049344,-0.69909966,-0.68017811,0
-2.3174155,-3.0331516,-2.0120459,-0.22049344,-0.69909966,-0.68017811,0
-1.2345843,-1.8561275,-3.5728345,-0.22049344,-0.69909966,-0.68017811,0
-0.28804773,-3.5829523,-0.7522096,0.19553483,-0.71486616,0.67136598,0
-1.0899601,-1.5775048,-3.9060907,-0.22049344,-0.69909966,-0.68017811,0
-1.4573746,0.27840149,1.6842333,-0.84101415,-0.21694426,0.49561101,0
-1.4405367,1.7601689,0.31730014,-0.84470654,0.48553881,-0.22521695,0
1.5115597,2.7312231,2.5836077,0.22049344,0.69909966,0.68017811,0
-2.8080969,-2.5151072,-2.2526517,-0.97301888,0.10907525,0.20331424,0
2.205914,1.204354,0.33981419,0.93102866,0.057058483,-0.36045766,0
-0.56840134,0.79053301,3.0532832,-0.56027049,-0.48004442,0.67502153,0
1.1775501,2.0636768,3.378,0.22049344,0.69909966,0.68017811,0
0.73458624,1.7127123,3.8823237,0.22049344,0.69909966,0.68017811,0
0.080104589,2.4093704,-0.42658472,-0.11560494,0.71115625,-0.6934638,0
1.1446141,2.0599375,3.3925207,0.22049344,0.69909966,0.68017811,0
2.577363,2.6019115,2.3710151,0.22049344,0.69909966,0.68017811,0
1.5911158,3.6044736,0.97014761,0.40632194,0.56811953,-0.71564126,0
-0.37205029,0.61782444,3.0696373,-0.45478302,-0.54321557,0.70575416,0
2.1179895,1.6465645,0.28239405,0.85942686,0.19052932,-0.4744302,0
0.081640005,0.088481367,-2.626359,0.22895974,0.64075923,-0.73280615,0
-0.70791948,2.0897381,3.7206678,-0.77681762,-0.29585043,0.55590177,0
-0.90126944,-0.33220112,-3.0694039,-0.17295557,0.71431315,-0.67811722,0
-2.3263612,-0.83276522,-1.8712454,-0.90212584,0.41132122,-0.13032117,0
1.7645013,0.97194767,3.3136787,0.51596242,-0.675385,0.52691346,0
0.40909684,-1.1080018,-3.4099023,0.53570104,0.49595645,-0.68341154,0
2.3343487,2.2905464,2.76982,0.22049344,0.69909966,0.68017811,0
0.67245877,-1.6335678,0.99074358,0.37149417,-0.7049728,0.60415667,0
2.6848845,2.2257512,2.722784,0.22049344,0.69909966,0.68017811,0
-1.1999846,1.4455999,2.6184161,-0.87858784,-0.16051909,0.4497965,0
0.044745326,-2.9918885,-0.22874141,0.26903278,-0.71387994,0.64652658,0
-0.63615793,2.629045,3.3848543,0.22049344,0.69909966,0.68017811,0
0.39919841,-2.2502906,-3.6973302,-0.22049344,-0.69909966,-0.68017811,0
1.5213416,3.9682007,1.2304283,0.3255794,0.60459352,-0.72695553,0
-1.6780685,1.3147886,0.87114191,-0.96490258,0.25831443,0.047292411,0
0.078312159,-1.9392723,-3.9129789,-0.22049344,-0.69909966,-0.68017811,0
1.3374445,-2.3745823,-1.4522688,0.92812985,-0.36480972,0.07408607,0
-2.5088091,-1.3404709,-1.6062138,-0.96965814,0.23258543,0.075278699,0
-1.1797971,-2.2686319,0.32382739,-0.41065091,-0.56599081,0.71485668,0
-1.0950572,-3.7307894,-1.6912532,-0.22049344,-0.69909966,-0.68017811,0
1.2709382,-1.3011039,-2.4273686,0.88687682,0.1465652,-0.43814152,0
1.7534357,-1.068102,-0.23616958,0.93412626,-0.35203135,0.05900842,0
0.7192263,2.8270936,2.7419217,0.22049344,0.69909966,0.68017811,0
2.1917889,0.38733876,0.5141443,0.9742071,-0.19215448,-0.11830902,0
-0.64741933,-0.54769766,1.9921734,-0.41514671,-0.56376058,0.7140218,0
