-1.7189426,-3.1559923,2.2484944,-0.69492781,0.23014596,0.6812548,0
0.86788338,-3.8467283,2.5523827,0.62104946,0.13273293,0.77245033,0
2.0620623,3.2593267,-1.8188198,0.86524016,-0.19218692,-0.46305901,0
-1.4450613,0.79108298,1.188694,-0.73821926,0.22314143,0.63658476,0
2.1544514,1.7106948,-0.66319895,0.98909384,-0.11311882,-0.094326526,0
-1.4958068,1.6476313,-1.5471005,-0.82842463,-0.061019331,-0.55676693,0
2.0246916,0.24522392,-0.2618871,0.99132115,-0.10842481,-0.074339852,0
0.06460759,-3.9483185,2.8927097,-0.088044137,-0.96750283,0.23703691,0
2.1283903,2.0168788,-0.023892999,0.96979457,-0.028913146,0.24220349,0
-1.797966,-4.5656843,-0.31899327,-0.088044137,-0.96750283,0.23703691,0
0.71187413,4.2512393,-1.3678774,0.088044137,0.96750283,-0.23703691,0
1.298214,4.5455947,0.051366732,0.088044137,0.96750283,-0.23703691,0
1.9758133,0.95240349,0.42335978,0.94410211,-0.0051599238,0.32961285,0
-1.1469554,-4.0153522,2.1690829,-0.088044137,-0.96750283,0.23703691,0
1.3839428,-4.4533811,1.3212676,-0.088044137,-0.96750283,0.23703691,0
-0.67118961,-0.1468336,1.9956144,-0.30591556,0.25272384,0.91790324,0
-0.38997573,-2.5265913,2.6746731,-0.05795528,0.24253327,0.96841043,0
-1.2143056,-4.5027456,0.15469424,-0.088044137,-0.96750283,0.23703691,0
-0.44640183,-4.1100683,2.0426948,-0.088044137,-0.96750283,0.23703691,0
-1.4582493,-3.7813852,-0.76174247,-0.5703665,-0.1461253,-0.80828792,0
-0.16866359,-3.1735928,-1.2801144,0.038132116,-0.2410602,-0.96976078,0
-1.6063278,-4.6071601,-0.41710109,-0.088044137,-0.96750283,0.23703691,0
2.1400995,4.1198425,-0.066624701,0.88558954,0.032918159,0.46330073,0
-1.671873,-3.3977587,-0.64966112,-0.69152004,-0.11191052,-0.7136358,0
-0.93018466,2.0708985,-2.192359,-0.57256657,-0.14556833,-0.80683172,0
1.737098,-0.71738714,-0.77207398,0.8843143,-0.18545116,-0.42848116,0
-2.3126795,-4.0721173,1.5043956,-0.088044137,-0.96750283,0.23703691,0
1.5562139,4.513886,0.017772172,0.088044137,0.96750283,-0.23703691,0
1.832106,2.6774654,-1.9507391,0.77455902,-0.21612114,-0.59443241,0
-0.67006505,-4.0044675,2.3906455,-0.088044137,-0.96750283,0.23703691,0
-0.76153052,-4.0946188,1.9887052,-0.088044137,-0.96750283,0.23703691,0
0.46359333,2.5836143,-2.6833384,0.09195964,-0.2448394,-0.96519279,0
-0.95148313,4.7365532,-0.0048265457,0.088044137,0.96750283,-0.23703691,0
-0.41628477,-0.20348278,2.0765347,-0.17619394,0.2493349,0.95225406,0
1.286593,4.3737087,-0.6545279,0.088044137,0.96750283,-0.23703691,0
1.7247527,1.2087207,-1.55583,0.78797531,-0.21322028,-0.57760882,0
0.25527388,-3.96753,2.8851151,-0.088044137,-0.96750283,0.23703691,0
1.4514664,-3.3873804,-0.20102641,0.86228341,-0.19316281,-0.46814045,0
2.0280106,0.66471362,0.20621806,0.97998565,-0.041479252,0.19469836,0
0.56831062,4.7259369,0.51634932,0.088044137,0.96750283,-0.23703691,0
-1.0053422,-4.3258514,0.95433247,-0.088044137,-0.96750283,0.23703691,0
1.874743,4.3803415,-0.40899423,0.088044137,0.96750283,-0.23703691,0
1.8745228,-1.4114755,0.45091692,0.99481803,-0.073257074,0.070501529,0
1.4511442,-2.369839,-0.60458618,0.81457382,-0.2068941,-0.54190803,0
0.95031941,-3.754195,-0.68490809,0.62422621,-0.2390302,-0.74377841,0
-1.8427894,-4.5466814,-0.25807714,-0.088044137,-0.96750283,0.23703691,0
-1.1452549,4.6890469,-0.27070358,0.088044137,0.96750283,-0.23703691,0
0.51072049,4.4849925,-0.48849458,0.088044137,0.96750283,-0.23703691,0
-1.5046033,-4.1471062,1.4984658,-0.088044137,-0.96750283,0.23703691,0
0.13300894,3.8623343,1.1050172,-0.086982891,0.24451937,0.96573508,0
-0.01400125,4.0952263,-2.2742872,0.088044137,0.96750283,-0.23703691,0
0.95369554,4.7421675,0.72574216,0.088044137,0.96750283,-0.23703691,0
1.9085815,-1.0366672,0.35978267,0.99480087,-0.073175482,0.07082817,0
0.19212905,3.9090128,-2.9577804,0.088044137,0.96750283,-0.23703691,0
-0.13529545,-4.2508273,1.5837222,-0.088044137,-0.96750283,0.23703691,0
1.9622413,4.0442481,-1.7483127,0.088044137,0.96750283,-0.23703691,0
1.8118,-1.9190664,0.12355393,0.9819029,-0.12435059,-0.1428417,0
-1.6176904,2.2130151,-1.3742492,-0.9111709,-0.017932974,-0.4116382,0
0.7117908,4.6568913,0.28782281,0.088044137,0.96750283,-0.23703691,0
0.053552002,-4.1054616,2.2472,-0.088044137,-0.96750283,0.23703691,0
1.6112492,0.18690056,-1.3329742,0.77750987,-0.21549851,-0.5907951,0
-1.0582629,-1.7412155,2.2869577,-0.42700475,0.25164628,0.86852813,0
-1.5405855,-4.3460879,0.67292506,-0.088044137,-0.96750283,0.23703691,0
0.35501692,-0.49878219,-1.9039905,0.17750846,-0.24939109,-0.95199525,0
1.6869853,-3.4713721,0.95677048,0.99478865,-0.073118009,0.071058258,0
0.53768277,-1.0114448,2.1887219,0.33267531,0.19573833,0.92250395,0
-0.76043844,-4.6363845,-0.22219081,-0.088044137,-0.96750283,0.23703691,0
0.81549066,-4.3318872,1.6060194,-0.088044137,-0.96750283,0.23703691,0
0.63978183,0.39172941,1.8539807,0.32007289,0.19786429,0.92650044,0
1.5887797,2.8513527,0.81516284,0.67529464,0.11695904,0.7282154,0
2.1119208,1.8462716,-1.0123069,0.95857608,-0.14700425,-0.24397054,0
0.92822313,3.9525852,-2.5065222,0.088044137,0.96750283,-0.23703691,0
-0.89275926,2.1914978,-2.2403677,-0.55963641,-0.14881189,-0.8152681,0
1.9559188,3.9708445,-2.0502696,0.088044137,0.96750283,-0.23703691,0
1.2147743,4.4308486,-0.4479785,0.088044137,0.96750283,-0.23703691,0
1.7797364,-1.4063982,0.94560784,0.95273805,-0.012332978,0.30354261,0
-1.3404537,-4.2203145,1.2606251,-0.088044137,-0.96750283,0.23703691,0
-1.6794915,3.602113,-0.77397561,-0.99473184,0.097939029,0.030273696,0
0.76214015,4.0687623,-2.0940142,0.088044137,0.96750283,-0.23703691,0
-1.8852611,0.66965824,-0.6288715,-0.97040743,0.029593665,-0.23965348,0
1.5975333,0.13063246,-1.3304178,0.77312827,-0.21642002,-0.59618384,0
-0.18527219,-4.3111696,1.3188621,-0.088044137,-0.96750283,0.23703691,0
0.41206032,1.345226,-2.3731303,0.12237462,-0.24666414,-0.96134347,0
1.4215851,4.5277309,0.64802849,0.51920199,0.15850767,0.83982408,0
-1.0745428,4.2561159,0.40113467,-0.71019506,0.22782758,0.66612124,0
-0.79303646,-4.1349754,1.8122795,-0.088044137,-0.96750283,0.23703691,0
1.608638,-3.8534632,0.4489868,0.96689397,-0.14022219,-0.21319902,0
-2.2176139,-2.3815169,0.45148265,-0.99406821,0.070086546,-0.083164021,0
-1.7180313,-2.6433659,-0.71406049,-0.74722302,-0.093211755,-0.65800405,0
0.2954241,-4.6119127,0.2698814,-0.088044137,-0.96750283,0.23703691,0
0.73856908,-4.1512709,-0.71893382,0.53572875,-0.24660721,-0.80757636,0
-1.036482,-4.2436604,1.2782418,-0.088044137,-0.96750283,0.23703691,0
0.75369316,0.71764052,1.7429072,0.36154696,0.19069529,0.91264403,0
1.5697343,4.1710234,0.60998935,0.60749817,0.13643232,0.78251654,0
-0.99199772,-4.6839128,-0.50219357,-0.088044137,-0.96750283,0.23703691,0
-0.78986502,4.1027837,-2.5316222,0.088044137,0.96750283,-0.23703691,0
1.1159564,4.222373,-1.3356094,0.088044137,0.96750283,-0.23703691,0
-0.21516754,4.2478714,-1.7259614,0.088044137,0.96750283,-0.23703691,0
1.3168375,-3.2500277,1.9875766,0.81247842,0.067922696,0.57902104,0
-0.97671366,4.5419879,-0.80834466,0.088044137,0.96750283,-0.23703691,0
-0.44137651,4.561789,0.76335818,-0.40530533,0.25216725,0.87871456,0
-0.96181667,-4.0162587,2.2341504,-0.088044137,-0.96750283,0.23703691,0
1.3266916,-3.1767192,-0.48000991,0.78849608,-0.21310399,-0.57694077,0
-0.79233825,-4.2682843,1.2684201,-0.088044137,-0.96750283,0.23703691,0
0.028252155,-4.8297758,-0.71859854,-0.088044137,-0.96750283,0.23703691,0
1.2943358,-3.6087058,2.0611002,0.81735867,0.065845191,0.57235414,0
-2.0225701,-3.2314148,1.8780191,-0.84621817,0.19818541,0.49460822,0
-0.77074659,-4.5497437,0.12761953,-0.088044137,-0.96750283,0.23703691,0
-1.7658787,-3.0260229,-0.60537815,-0.75352925,-0.090944819,-0.65109348,0
1.9197901,-0.2957004,-0.47642875,0.96007705,-0.1458506,-0.23870428,0
1.8616219,-0.28789449,0.73100793,0.94348532,-0.0046705082,0.33138135,0
-1.9061252,0.061858792,0.65763313,-0.94144702,0.15857103,0.29754457,0
0.019397393,4.1935925,-1.8603827,0.088044137,0.96750283,-0.23703691,0
-1.1010321,4.2838821,-1.9080212,0.088044137,0.96750283,-0.23703691,0
-2.200315,-3.3387027,0.18268189,-0.94752276,0.0079267994,-0.31959,0
-0.41667637,-3.0420258,-1.3052887,-0.090779334,-0.2291775,-0.96914226,0
0.91374207,-4.3073502,1.7426653,-0.088044137,-0.96750283,0.23703691,0
2.2274065,2.6924167,-1.0328547,0.97961837,-0.12722857,-0.15543722,0
-1.6076899,3.2371628,-1.4109899,-0.95021272,0.010169284,-0.31143609,0
-0.82368064,4.2223759,-2.056051,0.088044137,0.96750283,-0.23703691,0
0.028508857,-4.6847701,-0.12664072,-0.088044137,-0.96750283,0.23703691,0
0.33346754,-4.4612789,0.89884698,-0.088044137,-0.96750283,0.23703691,0
1.9984727,4.4306159,0.12976997,0.80413812,0.071405381,0.59013826,0
-0.078693286,4.0708222,-2.3979237,0.088044137,0.96750283,-0.23703691,0
1.0627133,-1.589147,2.0077546,0.61587238,0.13415691,0.77633959,0
1.5298624,-0.094365396,-1.3341503,0.74909908,-0.22115879,-0.62445116,0
-0.75208628,2.3327398,-2.3559754,-0.49706721,-0.16354436,-0.85216045,0
1.3738533,-4.515543,1.0637962,-0.088044137,-0.96750283,0.23703691,0
-0.86544305,-3.0153041,-1.2156794,-0.31362635,-0.19893441,-0.92847383,0
-2.1698186,-4.1644983,1.1803914,-0.088044137,-0.96750283,0.23703691,0
-0.5708338,0.70444399,1.7945229,-0.29448214,0.25260559,0.92166734,0
1.3044804,0.58607608,1.4390854,0.63723904,0.12819213,0.75992972,0
1.0181751,-0.82091039,1.9041015,0.55997401,0.1487281,0.81505156,0
2.132097,4.0762334,-1.5546705,0.088044137,0.96750283,-0.23703691,0
0.97525132,-3.0359738,-0.89389068,0.60382468,-0.24109453,-0.75978225,0
-0.75997084,4.7182817,-0.0082689822,0.088044137,0.96750283,-0.23703691,0
-1.8414369,1.6503531,-0.62478173,-0.99039179,0.059548065,-0.12481289,0
1.169926,-3.3140728,-0.62156475,0.71509385,-0.22704984,-0.66112721,0
-1.8000054,2.1104817,-0.21204334,-0.98512739,0.11982079,0.123155,0
0.53630805,4.4297857,-0.70432508,0.088044137,0.96750283,-0.23703691,0
1.2320442,4.3553643,-0.74966574,0.088044137,0.96750283,-0.23703691,0
1.9073387,2.8517282,-1.9118699,0.80486733,-0.20929739,-0.55532265,0
-0.12290869,-1.4951705,-1.6926028,-0.014958516,-0.23665002,-0.97147983,0
-1.9240137,-2.5400865,1.7673054,-0.82792199,0.20339373,0.52266258,0
-0.9768154,3.405828,0.77461123,-0.62159795,0.23930767,0.74588722,0
-0.050259732,-4.5651588,0.33231524,-0.088044137,-0.96750283,0.23703691,0
0.89979386,4.1044836,-1.8970839,0.088044137,0.96750283,-0.23703691,0
-0.29921183,3.9992161,-2.7721043,0.088044137,0.96750283,-0.23703691,0
0.57149696,4.1880231,-1.678046,0.088044137,0.96750283,-0.23703691,0
-1.0627069,4.2187667,-2.159564,0.088044137,0.96750283,-0.23703691,0
-1.172998,4.3630352,-1.6116744,0.088044137,0.96750283,-0.23703691,0
2.2282979,2.4232612,-0.59278595,0.99611646,-0.085409895,0.021380203,0
2.0791552,4.0370579,-1.7342334,0.088044137,0.96750283,-0.23703691,0
-2.0205352,-1.0412374,0.88162518,-0.94888872,0.15386337,0.27556536,0
-1.564128,4.4197989,-1.4578365,-0.97945964,0.040749997,-0.19747955,0
1.0268308,4.3028293,-1.0403199,0.088044137,0.96750283,-0.23703691,0
1.6135112,-2.9983463,-0.013437461,0.9280656,-0.16611719,-0.33331567,0
-1.1817877,-4.0951033,1.8306288,-0.088044137,-0.96750283,0.23703691,0
-2.106472,-4.0556359,1.6482582,-0.088044137,-0.96750283,0.23703691,0
-1.7838274,-4.137455,1.4341433,-0.088044137,-0.96750283,0.23703691,0
-0.71208632,4.7034373,-0.051071752,0.088044137,0.96750283,-0.23703691,0
-0.99566561,-4.3845367,-0.87831151,-0.31639493,-0.19847627,-0.92763215,0
-0.018581688,4.4887953,-0.6695742,0.088044137,0.96750283,-0.23703691,0
1.7965122,3.9906888,-2.028482,0.088044137,0.96750283,-0.23703691,0
0.19536568,4.5667567,-0.27189538,0.088044137,0.96750283,-0.23703691,0
-0.29579133,0.94964164,-2.2452528,-0.21062475,-0.21449886,-0.95374393,0
0.30209911,4.0085688,-2.5105793,0.088044137,0.96750283,-0.23703691,0
1.0506283,3.9043553,-2.657913,0.088044137,0.96750283,-0.23703691,0
0.34023729,4.8335147,0.87072831,0.088044137,0.96750283,-0.23703691,0
2.0323083,4.3506112,0.091329478,0.82393134,0.062998712,0.56317711,0
-1.6059852,4.415555,-1.0813323,-0.99611658,0.085569687,-0.020728029,0
-0.72924846,4.8316588,0.46590966,0.088044137,0.96750283,-0.23703691,0
0.9043923,-4.1379871,2.4304757,-0.088044137,-0.96750283,0.23703691,0
1.6717801,-3.0037169,0.18073261,0.95922911,-0.14650574,-0.24169327,0
0.24281032,-4.5604157,0.46053222,-0.088044137,-0.96750283,0.23703691,0
-0.65948051,4.7383456,0.11095002,0.088044137,0.96750283,-0.23703691,0
2.1578181,2.7575479,-1.3636096,0.93886846,-0.16010918,-0.30478045,0
-0.31406537,4.4235115,-1.0457929,0.088044137,0.96750283,-0.23703691,0
-1.337154,4.4110398,-1.4767119,0.088044137,0.96750283,-0.23703691,0
-1.6288598,-4.234498,1.0956075,-0.088044137,-0.96750283,0.23703691,0
-0.54911488,4.4789095,-0.90698242,0.088044137,0.96750283,-0.23703691,0
0.4812246,-0.98054278,2.2014885,0.30348212,0.20059475,0.93148285,0
1.218547,4.5058193,-0.1405735,0.088044137,0.96750283,-0.23703691,0
0.4268539,-4.2388387,1.8414574,-0.088044137,-0.96750283,0.23703691,0
0.98927557,4.3758383,-0.75627059,0.088044137,0.96750283,-0.23703691,0
1.5176622,-0.74556452,-1.1159266,0.77305901,-0.2164344,-0.5962683,0
1.0379053,4.403131,-0.62680894,0.088044137,0.96750283,-0.23703691,0
-0.53561109,-4.3671126,0.96039456,-0.088044137,-0.96750283,0.23703691,0
0.58508676,-4.2326827,1.9253576,-0.088044137,-0.96750283,0.23703691,0
2.1911261,3.4562318,-1.6213986,0.92294538,-0.16875136,-0.34596926,0
1.0502849,4.4978838,-0.23546104,0.088044137,0.96750283,-0.23703691,0
-2.2188897,-3.4775164,1.5535378,-0.93652123,0.16147202,0.31121501,0
0.42902362,3.9208496,-2.8214757,0.088044137,0.96750283,-0.23703691,0
-2.0357411,-1.3065463,0.97655165,-0.94414234,0.15691426,0.28978097,0
-1.0468168,-4.0804572,1.9405406,-0.088044137,-0.96750283,0.23703691,0
1.7336434,3.9420006,-2.2505603,0.088044137,0.96750283,-0.23703691,0
-1.365447,-4.0035362,2.1361563,-0.088044137,-0.96750283,0.23703691,0
-0.0038667768,3.9328997,-2.9330814,0.088044137,0.96750283,-0.23703691,0
0.65613723,4.1533909,-1.7879633,0.088044137,0.96750283,-0.23703691,0
0.061858311,0.47038209,1.9429138,0.030929156,0.23519105,0.97145689,0
-0.088194788,-4.1660852,-1.0227028,0.1230124,-0.24669997,-0.96125281,0
1.9014664,-1.1462021,0.33898422,0.99571908,-0.078759067,0.048378982,0
-1.9155774,-4.4083872,-0.23854446,-0.76509362,-0.086698219,-0.6380558,0
1.3706321,4.40517,-0.49489918,0.088044137,0.96750283,-0.23703691,0
2.1074336,1.7202834,0.023982424,0.97252953,-0.032012746,0.23056786,0
-0.95720476,1.0459694,-1.9863608,-0.54016912,-0.15356243,-0.82742733,0
-1.5176718,-4.2095366,1.2387917,-0.088044137,-0.96750283,0.23703691,0
-0.33436006,4.5654039,-0.47417501,0.088044137,0.96750283,-0.23703691,0
-1.0874197,-0.74984998,-1.5676157,-0.52391583,-0.15741095,-0.83709854,0
-0.6183666,4.8040352,0.39434442,0.088044137,0.96750283,-0.23703691,0
0.93462819,-4.3030744,1.7678759,-0.088044137,-0.96750283,0.23703691,0
-0.47100258,2.8115432,1.2463493,-0.34041804,0.25285837,0.90563691,0
0.47641245,-4.4668975,0.92900813,-0.088044137,-0.96750283,0.23703691,0
-0.28376085,4.2488947,-1.7472634,0.088044137,0.96750283,-0.23703691,0
0.39861774,3.3791983,1.2266375,0.066638604,0.2317071,0.97050047,0
-1.9027957,-0.3199653,-0.62113017,-0.93687642,-0.00040923245,-0.34966034,0
1.9139334,1.2569798,-1.261618,0.88284713,-0.18599857,-0.43126038,0
-1.5977795,-4.6083746,-0.41888174,-0.088044137,-0.96750283,0.23703691,0
1.3146476,4.2785668,-1.0324458,0.088044137,0.96750283,-0.23703691,0
-0.544146,-4.4663696,0.55209219,-0.088044137,-0.96750283,0.23703691,0
-0.084263206,-4.0514359,2.4165249,-0.088044137,-0.96750283,0.23703691,0
-0.45852154,-4.0159311,2.4224288,-0.088044137,-0.96750283,0.23703691,0
-0.16771078,2.3762193,-2.594377,-0.211484,-0.21438059,-0.95358038,0
-1.4594444,4.0925035,-0.11846028,-0.89960748,0.17941022,0.39814359,0
0.787907,4.6172905,0.15445659,0.088044137,0.96750283,-0.23703691,0
0.41417444,-4.4351954,1.0352883,-0.088044137,-0.96750283,0.23703691,0
0.37510905,4.6637797,0.19088325,0.088044137,0.96750283,-0.23703691,0
-1.0220102,0.34768015,-1.8144575,-0.54078579,-0.15341434,-0.82705188,0
-0.75434196,0.73912376,1.7155885,-0.38782567,0.25247896,0.88647932,0
-1.0602393,-3.6030617,2.8158426,-0.34316766,0.25285447,0.90459967,0
0.58541113,3.9628606,-2.5919135,0.088044137,0.96750283,-0.23703691,0
-1.1525338,-0.12639989,1.7503046,-0.54815203,0.24574931,0.79946017,0
2.311532,3.3553612,-0.95998079,0.99387962,-0.10126162,-0.044151925,0
-0.11813931,-3.8906527,2.9924049,0.13832219,0.22378087,0.96477401,0
0.71743351,4.1043181,-1.9654928,0.088044137,0.96750283,-0.23703691,0
-1.1347878,4.752368,-0.0083618388,0.088044137,0.96750283,-0.23703691,0
-0.042266104,-2.0875926,2.5612862,0.094671078,0.2287565,0.96886933,0
-1.6072,-3.9524448,2.2548974,-0.088044137,-0.96750283,0.23703691,0
0.3102107,4.7946682,0.70101893,0.088044137,0.96750283,-0.23703691,0
0.89874554,-4.0873885,2.5674725,0.64676845,0.12545505,0.75229752,0
-1.3687286,4.5058813,-1.1013284,0.088044137,0.96750283,-0.23703691,0
0.49073231,3.9077687,-2.8519466,0.088044137,0.96750283,-0.23703691,0
-1.7767307,-1.2554619,1.4992484,-0.81236249,0.20745176,0.5450055,0
-2.1441257,-4.2369094,0.89437932,-0.088044137,-0.96750283,0.23703691,0
1.1919285,4.0863156,-1.8627285,0.088044137,0.96750283,-0.23703691,0
-1.1537648,-4.5100532,0.14735551,-0.088044137,-0.96750283,0.23703691,0
-1.0097591,2.8223071,0.93414509,-0.61142439,0.24034938,0.75391805,0
-0.85480195,-1.8230134,-1.471887,-0.36180198,-0.19064966,-0.91255254,0
2.0945644,4.0278339,-1.7661597,0.088044137,0.96750283,-0.23703691,0
-0.27950278,1.6981,-2.4164512,-0.23620798,-0.21089587,-0.94854033,0
0.85765731,-0.49944648,1.9411616,0.46703237,0.1700913,0.86772674,0
2.1605186,2.1816523,-1.017293,0.96835029,-0.13892402,-0.20735937,0
-0.028160274,4.5038648,-0.61162412,0.088044137,0.96750283,-0.23703691,0
-2.1597216,-3.1349888,1.5484593,-0.92180824,0.16931994,0.34871244,0
-1.4930744,4.526638,-1.0627925,0.088044137,0.96750283,-0.23703691,0
-1.4010942,2.8256471,0.50569028,-0.81018835,0.20799412,0.54802674,0
-1.6443844,1.3847665,-1.2719698,-0.88807076,-0.031546339,-0.45862305,0
-0.11254922,4.0135951,-2.6440804,0.088044137,0.96750283,-0.23703691,0
-0.78637761,3.1384885,0.99562985,-0.51342452,0.24799356,0.82151961,0
0.079712451,4.5614271,-0.33660629,0.088044137,0.96750283,-0.23703691,0
-0.41125751,-4.7717562,-0.64503169,-0.088044137,-0.96750283,0.23703691,0
0.40478173,0.12531778,-2.0581913,0.17400758,-0.24924044,-0.95268077,0
0.095327213,-4.1624203,2.0302305,-0.088044137,-0.96750283,0.23703691,0
-0.83589113,-4.0996981,1.9403529,-0.088044137,-0.96750283,0.23703691,0
0.16436352,-4.6865497,-0.083442032,-0.088044137,-0.96750283,0.23703691,0
0.21883598,4.3601503,-1.106473,0.088044137,0.96750283,-0.23703691,0
-0.29889166,-4.8310442,-0.84528953,-0.088044137,-0.96750283,0.23703691,0
0.14563094,4.5940533,-0.17895237,0.088044137,0.96750283,-0.23703691,0
-0.29527593,-4.1542053,1.9186786,-0.088044137,-0.96750283,0.23703691,0
-1.3383362,-4.234026,1.2054468,-0.088044137,-0.96750283,0.23703691,0
1.7927436,-2.3599923,0.47725269,0.994919,-0.097077392,-0.026687296,0
-0.19024591,-2.860528,-1.3581413,0.013276515,-0.23907965,-0.97090924,0
0.94750869,-1.9646819,2.1608751,0.57630903,0.14461596,0.80433464,0
-1.3486189,-4.3950853,0.54423708,-0.088044137,-0.96750283,0.23703691,0
0.67176896,-4.1415453,2.3295469,-0.088044137,-0.96750283,0.23703691,0
1.7274652,3.9390688,-2.2648218,0.088044137,0.96750283,-0.23703691,0
1.6821128,-0.39941293,-1.0054679,0.84105641,-0.19970647,-0.50273395,0
1.4976281,0.69403684,-1.6425316,0.69630975,-0.2299425,-0.67991114,0
0.80988568,-0.50434935,-1.757759,0.40494284,-0.25217468,-0.87887949,0
0.53319442,0.69997793,-2.1834984,0.21193303,-0.25070694,-0.94457942,0
0.48405901,-4.3927603,1.2344514,-0.088044137,-0.96750283,0.23703691,0
-1.1616845,4.2725329,-1.976873,0.088044137,0.96750283,-0.23703691,0
2.0390241,0.97755021,0.20939669,0.97215867,-0.031582728,0.23218532,0
-0.78630078,2.1811478,-2.3067663,-0.50707185,-0.16129072,-0.8466779,0
1.0217854,0.081760295,1.734315,0.52154744,0.15796307,0.83847237,0
-0.17565945,-4.4729624,0.66205019,-0.088044137,-0.96750283,0.23703691,0
-0.00086715817,4.5921698,-0.24105619,0.088044137,0.96750283,-0.23703691,0
0.56086862,4.3302078,-1.1016444,0.088044137,0.96750283,-0.23703691,0
0.63881302,0.07845372,1.9209948,0.33363438,0.19557469,0.92219234,0
-0.049152136,4.0664334,-2.404865,0.088044137,0.96750283,-0.23703691,0
-0.19227009,-4.0808868,2.2561977,-0.088044137,-0.96750283,0.23703691,0
-0.46502379,0.80021751,-2.1676271,-0.28741083,-0.20316689,-0.93601191,0
0.6733551,-4.5236616,0.77046907,-0.088044137,-0.96750283,0.23703691,0
-0.085694157,-4.2848411,1.4633129,-0.088044137,-0.96750283,0.23703691,0
-1.0764508,-3.9548099,2.4423835,-0.088044137,-0.96750283,0.23703691,0
2.2890496,3.1280901,-0.68287277,0.99529719,-0.075794607,0.060322132,0
-0.78453147,1.1042302,-2.0989525,-0.45815805,-0.17196482,-0.87207758,0
-0.017957777,4.6477866,-0.020393966,0.088044137,0.96750283,-0.23703691,0
-2.1902666,-2.0008228,0.55241275,-0.9956618,0.092665583,0.0084039364,0
1.0068195,4.7107587,0.61727583,0.088044137,0.96750283,-0.23703691,0
1.1330217,4.6045952,0.23082781,0.088044137,0.96750283,-0.23703691,0
-2.2473798,-2.6621928,0.81179011,-0.99312162,0.1036967,0.054372631,0
1.5709615,3.8922782,-2.513937,0.088044137,0.96750283,-0.23703691,0
0.51309967,-4.6319008,0.26914901,-0.088044137,-0.96750283,0.23703691,0
-0.085234314,4.5064411,-0.62230796,0.088044137,0.96750283,-0.23703691,0
0.11766407,-4.4412909,0.90027267,-0.088044137,-0.96750283,0.23703691,0
1.2750521,3.3407004,-2.641958,0.46273029,-0.25045225,-0.85038477,0
1.0629898,4.0518327,-2.0513682,0.088044137,0.96750283,-0.23703691,0
-2.2909703,-3.2048326,0.63537538,-0.99347705,0.067976639,-0.091556348,0
0.11775299,3.9574618,-2.7876532,0.088044137,0.96750283,-0.23703691,0
0.22008778,-4.0303931,2.6154599,-0.088044137,-0.96750283,0.23703691,0
0.68147594,2.8063805,-2.7087822,0.19030297,-0.2499153,-0.94938242,0
-1.370699,4.5525923,-0.91140229,0.088044137,0.96750283,-0.23703691,0
-1.7170951,0.38874391,0.94892681,-0.85854757,0.19437195,0.4744634,0
1.313293,4.2904983,-0.98424882,0.088044137,0.96750283,-0.23703691,0
-1.8202631,-3.9481463,2.1933017,-0.088044137,-0.96750283,0.23703691,0
-0.50565225,4.1503181,-2.2320359,0.088044137,0.96750283,-0.23703691,0
0.34359136,-2.9017739,2.6596639,0.32180801,0.19757426,0.92596114,0
-0.16795678,-4.767529,-0.53740758,-0.088044137,-0.96750283,0.23703691,0
-0.18763901,-4.0558338,2.3601751,-0.088044137,-0.96750283,0.23703691,0
0.01600638,4.5534062,-0.3930088,0.088044137,0.96750283,-0.23703691,0
1.4067885,-4.2059889,1.9251803,0.89716995,0.026375517,0.44089732,0
1.9364384,1.0352025,0.52527273,0.92210412,0.01085018,0.38678971,0
0.36584115,-2.9148233,-1.2542069,0.29256177,-0.25258216,-0.92228508,0
2.1725762,4.3992324,-0.22126275,0.088044137,0.96750283,-0.23703691,0
-1.0212535,4.4855862,-1.055101,0.088044137,0.96750283,-0.23703691,0
-0.51608795,4.2770891,-1.7184776,0.088044137,0.96750283,-0.23703691,0
-1.1594439,2.4502852,-2.0630305,-0.70111674,-0.10884548,-0.70468998,0
0.047507808,-4.8236675,-0.68651462,-0.088044137,-0.96750283,0.23703691,0
-2.0251434,-1.3495665,1.0324928,-0.9364686,0.16150218,0.31135762,0
1.0360372,3.9694726,0.95153475,0.35486647,0.19188383,0.91501391,0
0.99342608,-4.2837439,1.8686168,-0.088044137,-0.96750283,0.23703691,0
-0.61660421,4.219552,-1.9906589,0.088044137,0.96750283,-0.23703691,0
1.6196041,3.9899175,-2.0973406,0.088044137,0.96750283,-0.23703691,0
-1.5391873,3.3022513,0.057229042,-0.90367854,0.17768864,0.38960463,0
1.3115985,-0.81494588,-1.3210104,0.67164087,-0.23339225,-0.70315474,0
-0.46588328,2.5372057,1.3245867,-0.32537737,0.25284123,0.91115361,0
0.81141847,-4.4498401,1.1230644,-0.088044137,-0.96750283,0.23703691,0
1.9765708,2.5412083,0.35722554,0.8761183,0.038017116,0.48059493,0
0.97118008,4.2133141,-1.4263612,0.088044137,0.96750283,-0.23703691,0
0.57139099,-4.353941,1.4253359,-0.088044137,-0.96750283,0.23703691,0
-1.2936792,-4.478581,0.22384423,-0.088044137,-0.96750283,0.23703691,0
0.40570772,-4.2990184,-0.85401231,0.37547141,-0.25264254,-0.89173591,0
0.81551391,3.7068002,-2.9181941,0.21626709,-0.25085112,-0.94355828,0
0.12915312,4.6186185,-0.084807687,0.088044137,0.96750283,-0.23703691,0
-1.8962246,-4.4507785,0.11351669,-0.088044137,-0.96750283,0.23703691,0
0.064368516,0.73391449,1.8789146,0.020282479,0.23617046,0.97149992,0
-1.5737364,-1.7036362,1.9058459,-0.68832099,0.2311015,0.68760908,0
0.73821884,-4.3428922,1.5323987,-0.088044137,-0.96750283,0.23703691,0
1.9697188,0.025135681,-0.46268833,0.97132623,-0.13614471,-0.19490978,0
-0.61129183,-4.726161,-0.53322899,-0.088044137,-0.96750283,0.23703691,0
-1.7812307,-3.894491,2.4268038,-0.088044137,-0.96750283,0.23703691,0
0.25387877,4.6256008,-0.0099807065,0.088044137,0.96750283,-0.23703691,0
-0.98571974,-3.913233,2.6457863,-0.088044137,-0.96750283,0.23703691,0
-0.66712546,4.8008618,0.36328241,0.088044137,0.96750283,-0.23703691,0
-2.0613704,-2.432776,-0.18821099,-0.92104393,-0.011558514,-0.38928711,0
2.0560768,4.1763668,-1.1741965,0.088044137,0.96750283,-0.23703691,0
-0.79606283,2.1494536,1.2854928,-0.47308046,0.25002518,0.84479725,0
-0.24967536,4.7170401,0.17620553,0.088044137,0.96750283,-0.23703691,0
-2.0483208,-2.3633471,1.4600786,-0.90032721,0.1791096,0.39664927,0
1.5275888,-4.5239167,1.0867195,-0.088044137,-0.96750283,0.23703691,0
-0.51185387,-1.3179899,-1.6875172,-0.21541694,-0.21383683,-0.95282173,0
-0.13892852,4.4663444,-0.80591375,0.088044137,0.96750283,-0.23703691,0
2.1811197,2.3773291,-0.19980304,0.97876728,-0.039806761,0.20107234,0
1.9041387,4.43716,0.24817514,0.75829363,0.089209564,0.64578044,0
-0.80030376,1.3718256,-2.1428587,-0.47783849,-0.16777287,-0.86227757,0
0.3056336,-3.8219306,2.8685691,0.34434697,0.19372883,0.91863716,0
-0.45073384,-4.7609954,-0.61577272,-0.088044137,-0.96750283,0.23703691,0
-1.1439024,4.2732477,-1.9673502,0.088044137,0.96750283,-0.23703691,0
-1.8644915,-0.99359721,1.2474459,-0.8696835,0.19068782,0.45528975,0
-0.76314336,4.6937718,-0.10948762,0.088044137,0.96750283,-0.23703691,0
-0.17509022,-4.0422864,2.4201326,-0.088044137,-0.96750283,0.23703691,0
-0.49842638,4.1837516,-2.0928898,0.088044137,0.96750283,-0.23703691,0
1.9621136,2.8750327,-1.8372011,0.83182913,-0.20232326,-0.51684201,0
1.7061853,-3.0403836,1.0274274,0.98669517,-0.052055404,0.15402231,0
1.3454785,1.2214189,1.2973812,0.6290403,0.13050854,0.76633918,0
-1.6403221,2.8342564,-1.3244585,-0.94833905,0.0086008664,-0.31714189,0
0.60751885,-3.6545088,-0.94462579,0.44719863,-0.25102395,-0.85848725,0
-2.1166894,-1.8558869,-0.0035926588,-0.97113323,0.030409869,-0.23659162,0
1.549142,-3.4878175,0.053584673,0.91767716,-0.17133836,-0.35848531,0
2.0627229,3.2080276,0.14598967,0.88825542,0.031443637,0.45827243,0
-0.085883126,4.341929,-1.2940319,0.088044137,0.96750283,-0.23703691,0
1.2185313,3.897083,-2.6252303,0.088044137,0.96750283,-0.23703691,0
0.16029756,4.6583261,0.088833034,0.088044137,0.96750283,-0.23703691,0
0.46046051,-4.6167827,0.31130391,-0.088044137,-0.96750283,0.23703691,0
0.47104838,4.3875308,-0.90103519,0.088044137,0.96750283,-0.23703691,0
-1.967296,0.20656949,-0.31174377,-0.98807412,0.054647181,-0.14395575,0
1.2740304,4.62816,0.37938669,0.088044137,0.96750283,-0.23703691,0
-1.2668564,2.8925576,-2.0082455,-0.772672,-0.083849534,-0.62924337,0
1.6600862,-3.8227592,0.85650074,0.99536318,-0.094703481,-0.016832829,0
1.4912509,-3.7546029,1.7206185,0.917714,0.013752084,0.39700365,0
-0.62804019,4.0354552,-2.7463274,0.088044137,0.96750283,-0.23703691,0
-0.36583468,4.3759675,-1.2590812,0.088044137,0.96750283,-0.23703691,0
-0.30807334,-4.6105709,0.051196933,-0.088044137,-0.96750283,0.23703691,0
0.32792509,4.5531483,-0.2782023,0.088044137,0.96750283,-0.23703691,0
-0.40371954,-4.5596523,0.22350124,-0.088044137,-0.96750283,0.23703691,0
0.26650351,4.8299985,0.82898957,0.088044137,0.96750283,-0.23703691,0
-0.61819214,-4.2080326,1.5790303,-0.088044137,-0.96750283,0.23703691,0
-0.70221299,-4.692204,-0.42839774,-0.088044137,-0.96750283,0.23703691,0
-1.4638748,3.6277666,0.076113775,-0.87998128,0.18705288,0.43662822,0
1.4217944,1.7506435,1.1441926,0.6427635,0.12661131,0.75552934,0
-1.084796,-4.2242436,1.3395473,-0.088044137,-0.96750283,0.23703691,0
1.418648,-4.5454707,0.95827949,-0.088044137,-0.96750283,0.23703691,0
0.27016127,4.8012581,0.71304059,0.088044137,0.96750283,-0.23703691,0
0.51814139,-4.4440737,1.0376672,-0.088044137,-0.96750283,0.23703691,0
1.3309572,-2.6610997,-0.66251749,0.76674682,-0.21772934,-0.60389829,0
0.5478341,1.454702,1.6485509,0.22703819,0.2122068,0.95048505,0
0.36374998,-4.1780291,2.0662222,-0.088044137,-0.96750283,0.23703691,0
0.10464002,-3.9959927,2.7129896,-0.088044137,-0.96750283,0.23703691,0
1.7903877,-1.4389256,0.9091931,0.95902777,-0.018002065,0.28273961,0
-0.029952452,2.3730075,1.4672338,-0.10061966,0.24538194,0.96419054,0
-2.1518328,-1.588325,0.49753755,-0.99473536,0.097923473,0.030208878,0
-1.5268996,-4.4621477,0.2042913,-0.088044137,-0.96750283,0.23703691,0
1.8520586,-0.78560138,0.74155623,0.96004891,-0.018964924,0.27918884,0
1.7954377,-2.2358294,0.70213443,0.99331385,-0.067436248,0.0937014,0
1.5015963,3.7186532,-2.6149793,0.55930829,-0.24492475,-0.79195076,0
1.8590339,3.9286282,-2.2585673,0.088044137,0.96750283,-0.23703691,0
1.0052365,1.0829523,-2.1222863,0.43045175,-0.25154954,-0.866853,0
-0.77890855,4.3140345,-1.6653022,0.088044137,0.96750283,-0.23703691,0
1.1442986,1.5236937,-2.1775074,0.48009577,-0.2497143,-0.84092253,0
0.016428337,4.4616523,-0.76735741,0.088044137,0.96750283,-0.23703691,0
0.6520437,4.585834,-0.024401201,0.088044137,0.96750283,-0.23703691,0
-1.4897851,-4.4961491,0.079295531,-0.088044137,-0.96750283,0.23703691,0
-1.0896502,4.7654781,0.20767203,-0.74140346,0.22257112,0.63307428,0
-1.1306629,1.860261,1.142175,-0.62826192,0.23859723,0.74051225,0
-2.2288697,-2.4249697,0.65574223,-0.99567026,0.092598617,0.0081274007,0
0.43151894,0.62304574,1.8615634,0.20697568,0.21499899,0.95442986,0
1.7461432,0.81045383,0.90422755,0.84122086,0.055223703,0.53786409,0
1.4914774,-3.8981819,1.7243825,0.92398089,0.00958395,0.3823185,0
-0.87800455,-2.2658896,-1.3700727,-0.35338816,-0.19214506,-0.91553104,0
1.6253757,-2.7202175,1.3680013,0.93652111,0.00067437999,0.35061061,0
-1.1718549,-4.541954,0.010427076,-0.088044137,-0.96750283,0.23703691,0
0.42530835,0.73453635,-2.2134972,0.15662321,-0.24844697,-0.95589912,0
1.9287688,4.0898705,-1.5745318,0.088044137,0.96750283,-0.23703691,0
-1.7435359,-4.2760825,0.88327998,-0.088044137,-0.96750283,0.23703691,0
-1.6301537,-0.1336406,-1.1509731,-0.81507683,-0.066820301,-0.57548654,0
0.053517029,-4.3138747,1.3965151,-0.088044137,-0.96750283,0.23703691,0
0.70559263,2.0847714,-2.511764,0.23505811,-0.2514202,-0.93890125,0
-0.46948847,0.15476155,1.9708748,-0.21895029,0.250938,0.9429161,0
1.2839245,-3.6535854,2.0810821,0.81431323,0.067145132,0.57652885,0
-0.15017045,3.9864132,-2.7690012,0.088044137,0.96750283,-0.23703691,0
-1.7140638,2.3580089,-1.1089814,-0.9623915,0.021224501,-0.27083614,0
-0.38230342,4.4896808,-0.8010599,0.088044137,0.96750283,-0.23703691,0
-0.91002685,-4.0631561,2.0619671,-0.088044137,-0.96750283,0.23703691,0
-1.7883916,1.0726936,-0.92842209,-0.94263977,0.0040039998,-0.33378777,0
-0.46734703,2.5378561,1.3238828,-0.32613865,0.25284368,0.91088068,0
1.3195496,4.0558228,-1.939787,0.088044137,0.96750283,-0.23703691,0
1.0118831,4.707006,0.6038385,0.088044137,0.96750283,-0.23703691,0
0.96535349,-3.4159901,-0.78084064,0.61627924,-0.23985869,-0.75011176,0
1.2609491,4.526125,-0.041944485,0.088044137,0.96750283,-0.23703691,0
-1.2590711,-4.5650001,-0.11603284,-0.088044137,-0.96750283,0.23703691,0
-1.246366,4.2827158,-1.9667641,0.088044137,0.96750283,-0.23703691,0
1.9093629,1.0222715,-1.1688915,0.89154369,-0.18267468,-0.41446319,0
-1.1701206,-3.0792844,-1.0714229,-0.46055388,-0.1714617,-0.87091392,0
-1.4708023,-1.1532681,-1.1964691,-0.69306612,-0.1114208,-0.71221119,0
-1.7683462,0.70340848,0.71075714,-0.89986175,0.17930418,0.39761636,0
0.77903056,-3.6194887,-0.85445344,0.53173912,-0.24686955,-0.81012893,0
1.8658807,-0.34623563,0.71744764,0.94794154,-0.0082719289,0.31833681,0
2.2141333,2.3622806,-0.81874037,0.98932838,-0.11266558,-0.092389435,0
-0.84252506,-1.3984789,-1.5652328,-0.37476671,-0.1883042,-0.90779477,0
0.88848174,4.2718248,-1.218256,0.088044137,0.96750283,-0.23703691,0
0.843099,-0.60498595,1.9696763,0.46460226,0.17060705,0.86892921,0
-0.63216966,2.3722837,-2.4285676,-0.44001544,-0.17571153,-0.88063151,0
0.0037001465,1.239835,1.7542843,-0.032664973,0.24063727,0.97006536,0
-1.4309425,3.9377041,0.009644933,-0.87753713,0.18793689,0.44114432,0
-1.5488464,-3.9757299,2.181531,-0.088044137,-0.96750283,0.23703691,0
0.94406462,3.4727166,1.0907145,0.33184654,0.19587952,0.92277247,0
-0.45531073,-1.4799393,-1.66259,-0.18020672,-0.21856414,-0.95903862,0
-0.65145695,-4.1119628,1.9587988,-0.088044137,-0.96750283,0.23703691,0
1.1360101,2.4103596,1.2209004,0.47368118,0.16866969,0.86439389,0
1.9410868,-0.54374969,-0.18348327,0.98426449,-0.12109641,-0.12868214,0
-0.85204411,-4.6316018,-0.23669508,-0.088044137,-0.96750283,0.23703691,0
0.60966045,-0.041944053,-1.9635546,0.2837643,-0.25246203,-0.92506254,0
2.289345,4.2749829,-0.68503636,0.088044137,0.96750283,-0.23703691,0
-1.3285089,-0.49387527,1.732682,-0.61999011,0.23947574,0.74717039,0
1.4735507,3.361172,0.82561427,0.59652191,0.13936374,0.79040462,0
-0.58289355,4.7351632,0.12640944,0.088044137,0.96750283,-0.23703691,0
-1.1181715,4.6756048,-0.31551072,0.088044137,0.96750283,-0.23703691,0
-0.028355196,-3.9310095,2.9288299,-0.088044137,-0.96750283,0.23703691,0
0.67882562,0.059131969,1.9100919,0.35419476,0.19200262,0.91524917,0
-1.5050561,0.42291969,-1.386488,-0.77917528,-0.081361398,-0.62150317,0
0.31274253,1.6525313,-2.4603901,0.059101544,-0.24261558,-0.96832055,0
1.9931741,0.14138263,0.26387766,0.98559356,-0.050114296,0.16153607,0
0.31364173,-4.121233,2.2794321,-0.088044137,-0.96750283,0.23703691,0
-0.84588373,-4.4748297,0.40548268,-0.088044137,-0.96750283,0.23703691,0
-1.2892118,3.5284917,-2.0589998,-0.81137806,-0.068386972,-0.5805074,0
-0.0029349923,-4.1524158,2.0345681,-0.088044137,-0.96750283,0.23703691,0
1.0897911,-1.0735632,-1.4234545,0.57154274,-0.24395989,-0.78346819,0
-0.62883502,-4.1323819,-1.0242796,-0.14666416,-0.22277668,-0.96377391,0
-1.079411,-0.40512231,1.8818471,-0.49863029,0.24880798,0.83033878,0
-1.9383521,0.27634111,0.40795439,-0.96917605,0.13817056,0.2039772,0
0.48511845,-4.4498243,1.0019287,-0.088044137,-0.96750283,0.23703691,0
-0.63813138,1.8899931,-2.3288696,-0.4213914,-0.17944396,-0.88894838,0
0.29796267,-4.8559852,-0.72539681,-0.088044137,-0.96750283,0.23703691,0
0.12894177,1.4924734,-2.4241605,-0.0248913,-0.23574983,-0.97149497,0
1.0216625,-3.1134787,2.298728,0.66346592,0.12053878,0.73843306,0
0.98013467,4.6503911,0.36096328,0.088044137,0.96750283,-0.23703691,0
0.64541262,-4.1779923,2.1709933,-0.088044137,-0.96750283,0.23703691,0
1.3322864,-4.2518735,2.0677357,0.86364949,0.044428173,0.50213128,0
-0.66238302,-3.9188735,2.7428634,-0.088044137,-0.96750283,0.23703691,0
-2.1594245,-4.008173,1.8223174,-0.088044137,-0.96750283,0.23703691,0
-0.98888296,4.1678467,0.51615626,-0.66273743,0.23454651,0.71117306,0
-1.7063925,2.340127,-1.1366775,-0.95811301,0.017150279,-0.28587648,0
-1.357921,-4.0367165,2.0035198,-0.088044137,-0.96750283,0.23703691,0
-0.30741963,3.1859965,1.1981363,-0.27571219,0.25233364,0.92752922,0
-1.9627094,0.49921477,-0.054894745,-0.99558264,0.093259543,0.010857655,0
-1.0786432,-4.2667508,1.1683331,-0.088044137,-0.96750283,0.23703691,0
1.5144402,2.5624828,0.92913395,0.65190578,0.12395906,0.74809957,0
-0.92891288,-4.3088589,1.0520794,-0.088044137,-0.96750283,0.23703691,0
0.78095496,1.6789612,-2.380604,0.29109991,-0.25256366,-0.92275262,0
-0.83421785,2.0588603,-2.254245,-0.52508819,-0.15713683,-0.83641517,0
2.2873416,3.9389083,-1.5807165,0.95054686,-0.1527537,-0.27042016,0
1.2226669,-3.5374448,-0.48321062,0.75221729,-0.22057253,-0.62090003,0
0.37095129,4.6617136,0.18090545,0.088044137,0.96750283,-0.23703691,0
-1.093892,1.4730961,1.2952431,-0.59193182,0.24220565,0.76873475,0
-1.1330086,-4.2159739,1.3553946,-0.088044137,-0.96750283,0.23703691,0
-0.48786449,-3.1429868,-1.2737551,-0.12146836,-0.22575732,-0.96658111,0
0.76271319,4.1999969,-1.5581479,0.088044137,0.96750283,-0.23703691,0
-1.5902482,-3.3836079,2.4416831,-0.61936903,0.23954031,0.74766463,0
-0.16086769,4.4329863,-0.95021802,0.088044137,0.96750283,-0.23703691,0
-0.98771149,2.0248404,-2.1419296,-0.59861916,-0.13880801,-0.78891534,0
-0.77297306,3.6560826,-2.5898476,-0.56623322,-0.14716606,-0.81100065,0
-0.61130619,3.6659908,-2.6938243,-0.48753336,-0.16565762,-0.85724491,0
-1.8629569,-3.0977907,2.0632992,-0.77078813,0.2169046,0.59903091,0
-1.6782284,-0.23591985,1.2579446,-0.80943489,0.20818073,0.54906827,0
-0.20676452,-1.6950893,2.4744227,-0.004564262,0.23835035,0.97116852,0
2.3253324,3.4846914,-0.88457799,0.99600482,-0.089068629,0.0064050807,0
0.32121608,4.292737,-1.3436021,0.088044137,0.96750283,-0.23703691,0
-0.88417774,3.8363059,0.71213228,-0.59462482,0.24195984,0.7667312,0
-2.2665381,-2.9690521,0.99546891,-0.98764032,0.11576455,0.10566536,0
0.83131266,4.7494473,0.70999944,0.088044137,0.96750283,-0.23703691,0
-0.24193634,4.0053635,-2.7257383,0.088044137,0.96750283,-0.23703691,0
2.0461726,4.0719671,-1.6039981,0.088044137,0.96750283,-0.23703691,0
-0.58683944,1.1650524,1.6621546,-0.32342213,0.25283426,0.91185141,0
0.88691026,-4.1133566,2.5245154,-0.088044137,-0.96750283,0.23703691,0
-1.7797369,-3.5338194,-0.51754582,-0.73786032,-0.096516922,-0.66801691,0
-1.1185046,0.42062414,-1.7603174,-0.59120077,-0.14076447,-0.79414546,0
0.70462465,-3.0013566,2.5119109,0.50362492,0.16207138,0.848584,0
-0.32569087,3.8267953,-2.8619494,-0.35443598,-0.19195998,-0.91516471,0
-0.63517815,4.2629509,-1.8204179,0.088044137,0.96750283,-0.23703691,0
-1.6783086,2.8251293,-0.09984795,-0.9540177,0.15034929,0.25931707,0
-0.69923711,-4.6747775,-0.35616502,-0.088044137,-0.96750283,0.23703691,0
0.25692105,-4.0709314,2.4636781,-0.088044137,-0.96750283,0.23703691,0
-0.00060901046,4.1193199,-2.1709697,0.088044137,0.96750283,-0.23703691,0
-2.1751945,-4.0046811,1.8307132,-0.088044137,-0.96750283,0.23703691,0
1.6014291,-3.7101948,1.4018844,0.96715873,-0.026069129,0.25283277,0
0.6420424,3.1812236,1.2395103,0.19597381,0.21648629,0.95641404,0
0.40182525,-4.8537941,-0.67787445,-0.088044137,-0.96750283,0.23703691,0
-0.83108664,4.4344039,-1.1933748,0.088044137,0.96750283,-0.23703691,0
-0.65616614,1.0182496,-2.1431158,-0.39127168,-0.18524489,-0.90143824,0
2.3136246,3.3908272,-0.99142969,0.99307925,-0.10382308,-0.054904204,0
1.8580637,4.3811493,-0.41189328,0.088044137,0.96750283,-0.23703691,0
0.9667803,4.2320609,-1.3514762,0.088044137,0.96750283,-0.23703691,0
-0.81307906,1.1750226,1.5624065,-0.4371306,0.25135109,0.86356205,0
0.65440547,3.9319313,-2.6925302,0.088044137,0.96750283,-0.23703691,0
-0.48167664,4.6967092,0.0070483498,0.088044137,0.96750283,-0.23703691,0
-2.1483364,-4.0636301,1.6000795,-0.088044137,-0.96750283,0.23703691,0
1.3262185,4.6008334,0.28723428,0.088044137,0.96750283,-0.23703691,0
1.8621781,-1.5438166,0.18036383,0.99150699,-0.10798562,-0.072478272,0
0.60178578,3.734427,-2.9618053,0.10859965,-0.24586569,-0.96320099,0
1.8918928,4.4563975,-0.092190921,0.088044137,0.96750283,-0.23703691,0
1.2701036,-1.8649724,1.8602351,0.7289722,0.099590331,0.67726016,0
2.2128303,3.1513209,-0.23167074,0.96120161,-0.020067682,0.27511591,0
-0.17965513,4.1898475,-1.9496063,0.088044137,0.96750283,-0.23703691,0
-0.64168143,-2.263577,-1.4454315,-0.23702739,-0.21077766,-0.94836217,0
1.4768021,4.5304179,0.61216807,0.54610777,0.1521298,0.8237856,0
-0.28462934,-3.9047363,2.9408774,-0.088044137,-0.96750283,0.23703691,0
-1.4799874,3.7473876,-1.7458904,-0.91208231,-0.017360328,-0.40963942,0
-0.91562825,4.7259893,-0.03462708,0.088044137,0.96750283,-0.23703691,0
-1.357152,2.2600591,-1.8120469,-0.78848362,-0.077726632,-0.61012477,0
1.4110507,-3.1155713,-0.37896329,0.82879859,-0.2031554,-0.52136421,0
1.4306548,-4.4936323,1.1743282,-0.088044137,-0.96750283,0.23703691,0
-2.1690459,-2.5071626,0.12840274,-0.96799231,0.026954589,-0.24952824,0
-1.0559382,4.6916513,-0.22689736,0.088044137,0.96750283,-0.23703691,0
0.91362143,4.064292,-2.0559969,0.088044137,0.96750283,-0.23703691,0
1.7811308,4.0669403,-1.7229631,0.088044137,0.96750283,-0.23703691,0
0.19398591,4.530777,-0.419265,0.088044137,0.96750283,-0.23703691,0
0.13756552,-4.0336442,2.5715389,-0.088044137,-0.96750283,0.23703691,0
0.18482803,4.2162223,-1.7065706,0.088044137,0.96750283,-0.23703691,0
-1.214954,-0.84547132,1.9285402,-0.54663408,0.24585752,0.80046564,0
-0.72841108,-0.38043723,-1.8233718,-0.36420554,-0.19021861,-0.91168588,0
-1.837666,-4.5420117,-0.23711383,-0.088044137,-0.96750283,0.23703691,0
-0.79190111,4.1861067,0.67146468,-0.56416708,0.24454926,0.78861344,0
0.8287971,3.9401002,-2.5944099,0.088044137,0.96750283,-0.23703691,0
-1.5148987,-4.5155258,-0.0091207568,-0.088044137,-0.96750283,0.23703691,0
0.92313385,4.7216759,0.63075095,0.088044137,0.96750283,-0.23703691,0
-2.0826218,-1.7388757,1.0573434,-0.94814432,0.1543539,0.27784404,0
-0.1721255,-4.0495934,2.3914082,-0.088044137,-0.96750283,0.23703691,0
0.077872641,-0.044093341,-2.0479667,0.01914227,-0.2395604,-0.97069275,0
-1.9172899,0.29390386,0.48746282,-0.95864493,0.14695193,0.24373141,0
-1.8427548,-4.215497,1.093714,-0.088044137,-0.96750283,0.23703691,0
0.92857283,-3.7262774,2.4816043,0.6452902,0.12588285,0.75349462,0
1.5810316,-1.8379735,-0.60139662,0.85639435,-0.19505718,-0.4780601,0
0.80290151,-4.3140154,1.6742892,-0.088044137,-0.96750283,0.23703691,0
-0.63847643,-4.6169767,-0.097674012,-0.088044137,-0.96750283,0.23703691,0
-1.3675913,-4.3758984,0.61550575,-0.088044137,-0.96750283,0.23703691,0
-0.88825822,-4.0927453,1.9492805,-0.088044137,-0.96750283,0.23703691,0
0.59591508,-1.468436,-1.5743964,0.34176207,-0.25285673,-0.90513104,0
-0.11403606,2.8025331,1.3451519,-0.16190359,0.24869597,0.95495421,0
-2.3246732,-3.4769673,0.89554083,-0.99589241,0.090544552,-0.00033906847,0
0.14392987,4.3703451,-1.0926846,0.088044137,0.96750283,-0.23703691,0
0.59871733,4.7395053,0.5830248,0.088044137,0.96750283,-0.23703691,0
-1.5697165,2.7741086,0.22613041,-0.89456791,0.18147206,0.40843123,0
-0.66960967,-4.4197845,0.69563246,-0.088044137,-0.96750283,0.23703691,0
2.0575805,0.88725442,-0.62385213,0.97651601,-0.13080584,-0.17119071,0
1.3136499,3.0362105,0.9959572,0.53280932,0.1553181,0.83185965,0
-0.56609231,4.5637255,-0.56710017,0.088044137,0.96750283,-0.23703691,0
1.9625576,4.4962773,0.09683314,0.088044137,0.96750283,-0.23703691,0
-1.5153817,-0.67257267,1.6167974,-0.7063005,0.22843398,0.67004299,0
1.9815863,3.267298,0.28352928,0.84691226,0.052565437,0.52912802,0
0.020736977,4.3806911,-1.0962139,0.088044137,0.96750283,-0.23703691,0
1.5838932,4.1814837,-1.3286957,0.088044137,0.96750283,-0.23703691,0
-0.19701594,-3.1643553,2.8298106,0.066558853,0.23171525,0.97050393,0
-2.2111959,-2.7908807,1.18823,-0.96576089,0.14120677,0.21763855,0
-0.90682238,-2.1037536,-1.3923934,-0.37482393,-0.18829376,-0.90777332,0
1.0289696,3.9382284,-2.5277002,0.088044137,0.96750283,-0.23703691,0
-0.76076347,0.85179824,1.6805944,-0.39617565,0.25234193,0.88281846,0
1.1439086,-4.4996047,1.0434413,-0.088044137,-0.96750283,0.23703691,0
0.66253823,4.5914459,0.0024017561,0.088044137,0.96750283,-0.23703691,0
-0.21566962,4.0194879,-2.6583307,0.088044137,0.96750283,-0.23703691,0
0.12215631,-0.48551348,-1.936325,0.061078154,-0.24275674,-0.96816248,0
-0.70066983,4.4015799,-1.2789105,0.088044137,0.96750283,-0.23703691,0
-0.13607606,4.6173716,-0.18841197,0.088044137,0.96750283,-0.23703691,0
1.5327015,-1.0946745,-0.96716231,0.79694176,-0.21117735,-0.5659399,0
-0.29530787,4.2699618,-1.665562,0.088044137,0.96750283,-0.23703691,0
1.3904933,-4.4655418,1.2740642,-0.088044137,-0.96750283,0.23703691,0
-2.0802672,-1.8583032,-0.13486816,-0.95433021,0.013728384,-0.29843843,0
1.9350506,3.3998754,0.33982128,0.81876552,0.065240681,0.5704093,0
-1.3063037,-0.58328402,-1.4380251,-0.63825148,-0.12790361,-0.75912827,0
-1.5817366,4.0420637,-1.4412652,-0.97193444,0.031324275,-0.23315695,0
-2.1150126,-1.5200583,0.05247682,-0.98401964,0.047503922,-0.17160612,0
-0.75073314,-4.4415402,0.57670242,-0.088044137,-0.96750283,0.23703691,0
-0.11537725,3.6369395,-2.8883569,-0.24228364,-0.21001516,-0.94720232,0
0.91632092,-4.5662456,0.6869005,-0.088044137,-0.96750283,0.23703691,0
1.4956669,4.0320597,-1.9713645,0.088044137,0.96750283,-0.23703691,0
1.7329326,-1.3482682,-0.49795097,0.9119783,-0.17400964,-0.37150535,0
-0.32013351,-4.6424236,-0.083294377,-0.088044137,-0.96750283,0.23703691,0
1.8950901,-1.2350659,0.20078325,0.99489838,-0.097175464,-0.027095258,0
1.6455567,-2.7845275,-0.029719908,0.93468732,-0.16251351,-0.31614709,0
-2.0083523,-4.3787408,0.36590248,-0.088044137,-0.96750283,0.23703691,0
2.1054602,1.245937,-0.088456318,0.99058026,-0.059986148,0.12309481,0
-0.99673378,0.23132487,1.7405385,-0.48619387,0.24942985,0.8374964,0
-1.064707,-3.8727033,2.7818768,-0.088044137,-0.96750283,0.23703691,0
0.27711201,-4.5284886,0.60358703,-0.088044137,-0.96750283,0.23703691,0
-1.6646925,1.8972226,0.4068985,-0.90245372,0.17821211,0.39219609,0
-0.16950281,-4.5216579,0.46557754,-0.088044137,-0.96750283,0.23703691,0
-0.95954651,-4.6800103,-0.47421181,-0.088044137,-0.96750283,0.23703691,0
0.84918034,-1.0563902,2.05425,0.48772785,0.16561484,0.85714251,0
0.99105579,-0.23159307,-1.7437422,0.48335484,-0.24956396,-0.83909827,0
-1.1520454,4.2623229,-2.0149658,0.088044137,0.96750283,-0.23703691,0
-0.59087235,4.785666,0.32958025,0.088044137,0.96750283,-0.23703691,0
-0.59139305,-4.4168291,0.7367484,-0.088044137,-0.96750283,0.23703691,0
-0.98404783,4.3891358,-1.4349582,0.088044137,0.96750283,-0.23703691,0
-0.60153711,-0.10929975,-1.9274625,-0.3138946,-0.19889012,-0.92839265,0
-1.1385156,-2.9531951,-1.1128174,-0.4506762,-0.1735234,-0.87566012,0
0.7394914,-4.6847286,0.13761392,-0.088044137,-0.96750283,0.23703691,0
1.5995973,3.9510839,-2.2632747,0.088044137,0.96750283,-0.23703691,0
1.8564351,3.8505683,-2.3385661,0.73261815,-0.22412521,-0.64268064,0
-2.2877302,-4.2325754,0.85872847,-0.088044137,-0.96750283,0.23703691,0
1.3221749,4.3470626,-0.75007242,0.088044137,0.96750283,-0.23703691,0
0.38787097,4.1326232,-1.9723744,0.088044137,0.96750283,-0.23703691,0
-1.4781632,4.6207581,-0.41928679,-0.93453258,0.16260046,0.31655952,0
-0.36518896,-3.8440166,-1.1164914,-0.029107133,-0.23536061,-0.9714722,0
-2.2100973,-2.4691856,0.33907223,-0.98777813,0.05407396,-0.14618552,0
0.88925338,4.3047099,-1.0837455,0.088044137,0.96750283,-0.23703691,0
0.96600115,-4.5769572,0.66163534,-0.088044137,-0.96750283,0.23703691,0
-0.92640954,2.1532512,-2.2098897,-0.57438421,-0.14510657,-0.8056221,0
-1.3953806,-4.397984,0.51503754,-0.088044137,-0.96750283,0.23703691,0
0.5089981,3.9426832,-2.7026527,0.088044137,0.96750283,-0.23703691,0
1.9660141,2.1261132,0.40766403,0.8890866,0.030980151,0.45668939,0
-0.034904655,-2.3508945,2.6224816,0.11017624,0.22704251,0.96763265,0
-0.59782994,4.5278044,-0.72550637,0.088044137,0.96750283,-0.23703691,0
-0.87577975,4.1198597,-2.4938374,0.088044137,0.96750283,-0.23703691,0
1.7237251,4.526206,0.13027914,0.088044137,0.96750283,-0.23703691,0
1.5859621,1.1876619,-1.7175591,0.71832722,-0.2265272,-0.65779287,0
-1.7538176,-4.532155,-0.16573772,-0.088044137,-0.96750283,0.23703691,0
1.5676537,-3.87819,1.5093728,0.95867866,-0.017675877,0.28394133,0
-0.80510467,0.8286674,1.6666939,-0.41733429,0.25189707,0.87314373,0
1.2032756,4.2082715,-1.3607321,0.088044137,0.96750283,-0.23703691,0
1.1543272,4.3790121,-0.68201077,0.088044137,0.96750283,-0.23703691,0
-0.16997501,-4.4195023,0.88236928,-0.088044137,-0.96750283,0.23703691,0
-1.9699973,-0.057156611,0.48345378,-0.96988404,0.13751402,0.2010345,0
-0.61881137,-4.4356623,0.64969385,-0.088044137,-0.96750283,0.23703691,0
1.3277695,2.2095177,1.137913,0.57650578,0.14456573,0.80420262,0
1.7520425,-1.1078926,-0.5635947,0.91053629,-0.17466611,-0.37472048,0
2.2227852,2.4432828,-0.46132571,0.99390054,-0.069460876,0.085655488,0
0.22520113,4.1039562,-2.1498039,0.088044137,0.96750283,-0.23703691,0
-2.0543206,-0.50610942,0.16709512,-0.99589831,0.090476945,-0.0006172359,0
0.33895332,-4.8536797,-0.70076019,-0.088044137,-0.96750283,0.23703691,0
1.4835794,4.4950624,-0.086036824,0.088044137,0.96750283,-0.23703691,0
-1.3170059,-4.6834664,-0.67792279,-0.46099663,-0.17136849,-0.87069798,0
