1.5381172,0.888358,1.9266535,-0.047195554,0.21978897,0.97440517,0
-0.9804728,1.8793969,0.32136786,-0.47200739,0.85480636,-0.2156738,0
-1.0204749,-0.6627363,2.152596,-0.047195554,0.21978897,0.97440517,0
0.99141604,0.69200897,1.9444628,-0.047195554,0.21978897,0.97440517,0
0.29724064,-1.8546611,0.75551224,0.15604213,-0.96189374,0.22452486,0
-1.4541874,1.7039186,1.0112647,-0.69338393,0.69497335,-0.19034398,0
-1.0362153,1.5253798,-0.9384104,-0.5306198,0.82095873,-0.21087795,0
0.2889092,-0.32058668,-1.9662288,0.047195554,-0.21978897,-0.97440517,0
-0.3738786,-1.6302862,1.7521868,-0.15468904,-0.96533227,0.21025008,0
-1.5464222,1.2190825,-0.34988022,-0.77321112,0.60954124,-0.17494011,0
-1.7183676,0.10005784,1.9467356,-0.047195554,0.21978897,0.97440517,0
-0.19909769,-0.77026868,-1.8884343,0.047195554,-0.21978897,-0.97440517,0
1.5293106,1.4269222,0.73011148,0.78714085,0.60874599,-0.099184752,0
0.95625162,-0.17696023,2.1387663,-0.047195554,0.21978897,0.97440517,0
-0.72221059,1.7473315,1.6234221,-0.047195554,0.21978897,0.97440517,0
-1.310581,0.24554241,-2.1713977,0.047195554,-0.21978897,-0.97440517,0
-1.1115657,-1.9155464,-1.1664925,-0.59130204,-0.79236096,0.15008682,0
-1.9699587,0.058898091,1.9438339,-0.047195554,0.21978897,0.97440517,0
-1.4565722,-0.7678014,-1.9498968,0.047195554,-0.21978897,-0.97440517,0
-1.2042528,-0.24327922,2.0490808,-0.047195554,0.21978897,0.97440517,0
-0.229929,0.025403857,-2.0694013,0.047195554,-0.21978897,-0.97440517,0
2.0513842,-0.51201558,-1.2340207,0.9923771,-0.1008601,0.070816249,0
-1.5427611,-1.3586469,-0.41783547,-0.78631669,-0.60976619,0.09945479,0
-1.416752,-0.99140847,2.2075381,-0.047195554,0.21978897,0.97440517,0
-1.7959588,-0.39193642,2.0539527,-0.047195554,0.21978897,0.97440517,0
1.5149677,-1.3225509,0.12206388,0.75174385,-0.63454449,0.1795401,0
0.47530097,-1.9943446,-1.5796643,0.047195554,-0.21978897,-0.97440517,0
-1.1581355,1.8145677,1.587142,-0.047195554,0.21978897,0.97440517,0
1.4967927,-0.88265872,1.7402662,0.78216672,-0.59859753,0.17290539,0
-0.62060559,-1.9352627,0.03421855,-0.31886208,-0.92777085,0.19382584,0
-1.9704272,-0.31269073,1.2549268,-0.95578539,-0.29339221,0.019884542,0
1.977502,0.29776999,0.028615043,0.98875099,0.148885,0.014307521,0
-1.4432031,-0.7637378,-1.950166,0.047195554,-0.21978897,-0.97440517,0
-1.8751459,-0.78388202,-1.2106909,-0.96738857,-0.25309002,0.010231856,0
-1.5528412,-0.95486331,-1.9123656,0.047195554,-0.21978897,-0.97440517,0
0.42107022,0.72067595,1.9103718,-0.047195554,0.21978897,0.97440517,0
0.43267518,1.2999531,1.7802708,-0.047195554,0.21978897,0.97440517,0
-0.5588764,1.3091533,1.7301695,-0.047195554,0.21978897,0.97440517,0
1.3700347,1.4775233,-0.014919341,0.69081169,0.71177751,-0.12709048,0
-1.6091816,1.3060997,1.6799867,-0.047195554,0.21978897,0.97440517,0
-0.17338213,1.7147646,1.6573505,-0.047195554,0.21978897,0.97440517,0
-1.0245988,0.40729475,-2.1940312,0.047195554,-0.21978897,-0.97440517,0
0.22127402,1.751422,-1.2879477,0.08985956,0.97247124,-0.21500039,0
1.2414637,1.5414525,-0.28756285,0.62073183,0.77072626,-0.14378142,0
1.7788138,-0.77067763,0.58489841,0.89687777,-0.42013025,0.13820592,0
-0.85965478,1.8140728,-0.18842828,-0.42379394,0.87893873,-0.21878189,0
1.8138914,-1.0450566,-0.47935462,0.88848317,-0.43654853,0.14150274,0
1.0413638,0.27930009,2.0399737,-0.047195554,0.21978897,0.97440517,0
-0.92265248,-0.93025351,-1.8873932,0.047195554,-0.21978897,-0.97440517,0
0.47963315,1.108506,-2.2793403,0.047195554,-0.21978897,-0.97440517,0
-0.75578076,0.22747493,1.9646182,-0.047195554,0.21978897,0.97440517,0
-0.083994247,-1.8521413,-1.6388296,0.047195554,-0.21978897,-0.97440517,0
1.8674487,0.050418615,2.0382967,0.97877419,-0.18458726,0.089043021,0
-1.6787591,0.84539115,1.7805352,-0.047195554,0.21978897,0.97440517,0
0.53579897,0.10489643,2.0548253,-0.047195554,0.21978897,0.97440517,0
-1.6049836,1.5970298,1.2269673,-0.76420867,0.62023085,-0.17691523,0
0.17193791,-1.2817619,-1.7550895,0.047195554,-0.21978897,-0.97440517,0
1.5327833,-1.594997,-0.91882378,0.73528481,-0.65263462,0.18282336,0
-0.23387328,0.82497102,-2.2499442,0.047195554,-0.21978897,-0.97440517,0
-0.70596486,0.34842074,-2.1653185,0.047195554,-0.21978897,-0.97440517,0
-0.59814757,1.7085314,1.6381829,-0.047195554,0.21978897,0.97440517,0
-1.5767975,-1.0104944,1.4289225,-0.75902718,-0.6420297,0.10805395,0
0.27881402,0.96612072,-2.2569504,0.047195554,-0.21978897,-0.97440517,0
0.79230881,1.7809732,-0.45681047,0.39400524,0.90049505,-0.18403393,0
-0.77780455,1.1594722,-2.3517408,0.047195554,-0.21978897,-0.97440517,0
-0.040221337,-2.0168817,-1.5995502,0.047195554,-0.21978897,-0.97440517,0
-1.1092834,1.4069811,-1.202741,-0.57376456,0.7925452,-0.20655859,0
-0.19369659,-1.9701977,-1.6175141,0.047195554,-0.21978897,-0.97440517,0
-0.21949318,2.0682549,1.5753831,-0.047195554,0.21978897,0.97440517,0
1.9756697,-0.42032665,-0.12803486,0.98051047,-0.17605382,0.08720234,0
-0.079422981,-1.8229623,-1.64519,0.047195554,-0.21978897,-0.97440517,0
-0.72148162,1.984957,0.26505053,-0.34354776,0.91241068,-0.22244513,0
-1.8472868,1.0546755,0.72303081,-0.89949071,0.41485918,-0.13714358,0
-1.4162465,0.67212963,1.8323312,-0.047195554,0.21978897,0.97440517,0
-1.791189,0.38125724,-1.6414282,-0.92936486,0.34789687,-0.12348634,0
1.6443383,-0.72862506,1.5212458,0.85153794,-0.5010829,0.15426981,0
0.047809005,-0.45651424,2.1578226,-0.047195554,0.21978897,0.97440517,0
-0.47070238,0.18860805,1.987193,-0.047195554,0.21978897,0.97440517,0
1.4818989,0.50442505,2.0105312,-0.047195554,0.21978897,0.97440517,0
0.26869509,1.3132809,1.7693223,-0.047195554,0.21978897,0.97440517,0
1.6590762,0.86582315,-1.6827101,0.7934891,0.60079116,-0.097082973,0
-1.1730472,1.4980636,-0.67344236,-0.5929324,0.7788775,-0.20440418,0
-0.23647422,-1.601382,1.9598918,-0.081214011,-0.97310698,0.21556252,0
0.91584587,-1.9942412,-0.64458263,0.43173838,-0.87517941,0.21831876,0
-0.068688691,0.24538386,-2.1112106,0.047195554,-0.21978897,-0.97440517,0
-0.33461332,-1.299515,2.3294489,-0.047195554,0.21978897,0.97440517,0
-0.19308096,1.750736,-1.2659667,-0.11635456,0.96764195,-0.22389907,0
-0.58836639,-1.93628,0.080703139,-0.30171481,-0.9330653,0.19585061,0
-1.2794409,1.6430376,0.19576859,-0.62527233,0.75423449,-0.20041198,0
2.0668068,-0.54626822,-1.5012275,0.99374944,-0.088466138,0.068087056,0
-0.33908725,1.333207,1.7353895,-0.047195554,0.21978897,0.97440517,0
0.40181363,0.86774796,-2.2288036,0.047195554,-0.21978897,-0.97440517,0
1.3101754,-0.4874118,2.2259345,-0.047195554,0.21978897,0.97440517,0
1.9303076,0.061578274,1.2794677,0.99274319,-0.097694248,0.070119873,0
-0.17825615,1.0691549,-2.3023291,0.047195554,-0.21978897,-0.97440517,0
-0.99543703,1.1482203,-2.3597438,0.047195554,-0.21978897,-0.97440517,0
1.052111,-1.0684426,-1.7605751,0.047195554,-0.21978897,-0.97440517,0
-0.52063799,1.1663632,-2.3408391,0.047195554,-0.21978897,-0.97440517,0
-0.99031651,0.67617905,1.8520478,-0.047195554,0.21978897,0.97440517,0
-0.329772,0.42561591,1.940559,-0.047195554,0.21978897,0.97440517,0
0.48372823,0.30077279,-2.0969479,0.047195554,-0.21978897,-0.97440517,0
1.6512003,-0.25985003,-1.9139458,0.047195554,-0.21978897,-0.97440517,0
1.2393538,-0.18553495,-1.9506564,0.047195554,-0.21978897,-0.97440517,0
1.9838731,-0.019071117,0.35238719,0.99773091,-0.036519736,0.056562766,0
1.1371143,-0.58802444,2.240247,-0.047195554,0.21978897,0.97440517,0
-1.1408659,0.97400337,-2.3274908,0.047195554,-0.21978897,-0.97440517,0
-1.9709554,0.091589332,1.9364116,-0.047195554,0.21978897,0.97440517,0
-2.0357566,-0.044225693,1.5037171,-0.98126411,-0.19262384,-0.0040790844,0
1.6059279,1.0926739,1.883852,-0.047195554,0.21978897,0.97440517,0
-0.12116952,-2.1482253,-0.46526933,-0.082289964,-0.97303188,0.2154935,0
0.14640063,-1.0115469,2.287792,-0.047195554,0.21978897,0.97440517,0
1.0956805,0.97104812,1.8865721,-0.047195554,0.21978897,0.97440517,0
-0.001391232,-1.144034,2.310518,-0.047195554,0.21978897,0.97440517,0
0.55813265,-1.9991872,-0.10121238,0.26574859,-0.93757331,0.22435266,0
1.4924707,-0.65464276,2.2724853,-0.047195554,0.21978897,0.97440517,0
0.74061567,-0.19702029,2.1328466,-0.047195554,0.21978897,0.97440517,0
-0.9876833,-1.9061,-0.68011242,-0.51826608,-0.83930588,0.1642133,0
0.31986582,0.67602026,1.9155427,-0.047195554,0.21978897,0.97440517,0
1.8877673,0.055457592,1.8170409,0.98384959,-0.15839165,0.083380103,0
1.518182,-0.7632426,2.0516238,0.80061626,-0.57500362,0.16847706,0
1.8738023,0.71915823,0.18587536,0.94281822,0.33202353,-0.029226348,0
-1.9336888,-0.43204188,1.142561,-0.94065976,-0.33796209,0.030670419,0
0.73881805,0.039938807,2.0793107,-0.047195554,0.21978897,0.97440517,0
-1.6844652,-0.045155048,-2.1239367,0.047195554,-0.21978897,-0.97440517,0
-0.70216388,-1.2846866,-1.7967672,0.047195554,-0.21978897,-0.97440517,0
0.41954911,-0.16612673,2.1103272,-0.047195554,0.21978897,0.97440517,0
-1.9087948,-0.63409865,-0.72868001,-0.97231543,-0.23360527,0.0055982154,0
0.70688146,-1.4870926,1.79019,0.38610387,-0.89565808,0.2207275,0
-1.9593959,0.38024899,-0.13481426,-0.97864354,0.1852138,-0.089177996,0
-1.9898208,0.42701972,1.8598375,-0.047195554,0.21978897,0.97440517,0
1.75231,-1.2199395,-0.6705929,0.85245669,-0.49960709,0.15398145,0
-0.36793825,-1.6881981,-1.6895621,0.047195554,-0.21978897,-0.97440517,0
0.99099499,1.3661802,-2.0366118,0.4546501,0.87331569,-0.17496592,0
-0.092910558,1.9139196,1.6163265,-0.047195554,0.21978897,0.97440517,0
0.04171586,0.69783783,1.8971491,-0.047195554,0.21978897,0.97440517,0
-0.29142833,-1.736094,-1.6750526,0.047195554,-0.21978897,-0.97440517,0
-1.8394258,-0.85682857,-0.65080065,-0.93707263,-0.34757018,0.033011384,0
0.12156439,-0.78933913,2.2364676,-0.047195554,0.21978897,0.97440517,0
-1.7035506,-1.2599552,-1.850848,0.047195554,-0.21978897,-0.97440517,0
-0.65497625,-2.0665212,-0.65724051,-0.35258919,-0.91636527,0.18961966,0
0.040046632,-1.5495458,2.2019415,0.062572941,-0.97292584,0.22248596,0
-1.2553573,-1.2921031,1.5580299,-0.597157,-0.78819007,0.14886242,0
1.1693549,-0.67267311,-1.8441668,0.047195554,-0.21978897,-0.97440517,0
-1.375294,0.82193899,1.8005235,-0.047195554,0.21978897,0.97440517,0
-1.4568931,1.3580203,-0.23112118,-0.72509491,0.66340172,-0.18475837,0
0.73029679,0.88299167,-2.2163317,0.047195554,-0.21978897,-0.97440517,0
1.4338006,-0.29803813,2.1892071,-0.047195554,0.21978897,0.97440517,0
-1.8866792,-0.72549343,-0.86612749,-0.96491671,-0.26226231,0.012420509,0
-1.2348835,-1.3212726,1.4849825,-0.58877391,-0.79414207,0.15061104,0
1.8389233,0.62232828,-1.392141,0.88863075,0.45474321,-0.059531838,0
0.9753195,0.35012949,-2.0842705,0.047195554,-0.21978897,-0.97440517,0
1.5596353,-1.2029978,0.346892,0.77981764,-0.6014989,0.173446,0
1.1134921,1.7498361,0.30317849,0.57155269,0.80596352,-0.15411162,0
-1.0138627,1.3864831,-1.5353144,-0.53391385,0.81889874,-0.21057284,0
-1.7372773,-1.221732,-1.7211834,-0.91261697,-0.40605992,0.047388956,0
0.45454079,0.84724778,-2.2216258,0.047195554,-0.21978897,-0.97440517,0
1.1055038,-0.0510813,-1.9874672,0.047195554,-0.21978897,-0.97440517,0
1.0872386,-0.89318514,2.3066638,-0.047195554,0.21978897,0.97440517,0
0.74870402,-1.29056,2.3798997,-0.047195554,0.21978897,0.97440517,0
-0.15327752,1.2078186,-2.3323967,0.047195554,-0.21978897,-0.97440517,0
-0.05410856,0.98643327,-2.277657,0.047195554,-0.21978897,-0.97440517,0
0.63193172,-2.130074,-1.5414625,0.047195554,-0.21978897,-0.97440517,0
-0.059126139,1.508361,-2.3758221,-0.076303214,0.97184867,-0.22290808,0
0.46006653,2.0917251,0.47628748,0.25132132,0.9467243,-0.20137239,0
-0.31307089,0.87117988,-2.2642033,0.047195554,-0.21978897,-0.97440517,0
-0.15069979,-1.4721457,2.3772955,-0.047195554,0.21978897,0.97440517,0
0.56756556,-1.5719866,1.6619059,0.31321102,-0.92304021,0.22337341,0
-1.43107,1.4189963,-0.11066699,-0.70912611,0.67965245,-0.18765062,0
0.90311241,0.15489137,-2.0437298,0.047195554,-0.21978897,-0.97440517,0
-1.2371457,-1.724466,-0.67995954,-0.64177382,-0.75418615,0.13903141,0
-1.7890739,-1.0694907,-1.467255,-0.93182909,-0.36107618,0.03631179,0
-0.44684452,1.4196754,1.7106662,-0.047195554,0.21978897,0.97440517,0
-0.58312964,-1.3482804,2.3284113,-0.047195554,0.21978897,0.97440517,0
-0.59667289,-2.0561507,-0.50506175,-0.31994948,-0.92742372,0.19369489,0
1.7041104,-0.67821503,1.3377092,0.87739873,-0.45713204,0.14560866,0
-1.0243137,1.7695894,-0.012369394,-0.50212252,0.83806461,-0.21335614,0
0.18922934,2.3068445,1.2202761,0.13442725,0.96801579,-0.21183681,0
-0.21197456,-2.0651078,-0.13113666,-0.1194773,-0.96973121,0.21294779,0
-1.9046516,0.16635692,1.9227583,-0.047195554,0.21978897,0.97440517,0
0.90038401,1.2347722,-2.2874422,0.047195554,-0.21978897,-0.97440517,0
-1.9074767,0.35021269,1.8811507,-0.047195554,0.21978897,0.97440517,0
-2.0501714,0.15334964,1.0395792,-0.99810308,-0.048982337,-0.037294775,0
0.52529609,1.2933871,1.7862381,-0.047195554,0.21978897,0.97440517,0
-1.3264104,-0.025031805,1.9939357,-0.047195554,0.21978897,0.97440517,0
-1.9980109,-0.21528411,1.2291517,-0.96963388,-0.24442467,0.0081685334,0
0.80878961,2.014956,0.73225439,0.43078202,0.88459337,-0.17866588,0
1.8171659,-0.63611114,0.72282279,0.91988033,-0.37066752,0.12816319,0
1.297058,-0.97528803,2.2214613,0.69310594,-0.69523805,0.19039011,0
-0.51745623,2.0552382,0.29023516,-0.24081865,0.944215,-0.22464329,0
-1.2801343,-1.7194834,-0.85961998,-0.66732556,-0.73279989,0.13296992,0
1.4087433,1.3505049,-0.51510924,0.69796276,0.70509821,-0.12523749,0
-0.5147168,-1.658962,-1.7032657,0.047195554,-0.21978897,-0.97440517,0
1.1497805,1.6671954,0.0067225695,0.58241129,0.79857248,-0.15191853,0
1.6489505,-1.4264808,-0.8337363,0.7960695,-0.58095556,0.16959947,0
1.3287243,1.6291254,0.61003506,0.68535882,0.71678132,-0.12848324,0
-0.63413763,1.9644213,0.053428054,-0.30494553,0.92575264,-0.22358489,0
-0.5613659,1.2218409,-2.3553252,0.047195554,-0.21978897,-0.97440517,0
1.3349137,-1.2702678,1.0053602,0.68249893,-0.70518446,0.19211996,0
1.0641448,-2.0320604,-1.5426363,0.047195554,-0.21978897,-0.97440517,0
-0.13138831,1.7875001,-1.133912,-0.082349852,0.97131538,-0.22308069,0
1.7065284,1.1437438,0.63560647,0.87191069,0.48503545,-0.067174464,0
0.82942426,0.85927159,-2.2061801,0.047195554,-0.21978897,-0.97440517,0
1.5305119,-0.51188481,-1.862942,0.047195554,-0.21978897,-0.97440517,0
-0.2069459,1.6998434,-1.4780474,-0.12841208,0.9660629,-0.22412694,0
1.1676451,0.14143026,-2.0278807,0.047195554,-0.21978897,-0.97440517,0
-1.8453517,0.67605931,-0.40272486,-0.92637438,0.35525393,-0.12500092,0
1.0549487,-1.941231,-0.73398662,0.49935403,-0.83965975,0.21358174,0
-1.0782275,0.70979017,-2.2648606,0.047195554,-0.21978897,-0.97440517,0
-0.19524777,-1.7385981,1.3558277,-0.075248092,-0.97350276,0.21594071,0
-1.1153792,1.968298,1.5545372,-0.047195554,0.21978897,0.97440517,0
-0.14713383,-0.698681,2.2030039,-0.047195554,0.21978897,0.97440517,0
-1.4711314,0.47565472,-2.2310786,0.047195554,-0.21978897,-0.97440517,0
-0.43880767,1.077227,-2.3167698,0.047195554,-0.21978897,-0.97440517,0
0.2577697,0.93588018,-2.2511487,0.047195554,-0.21978897,-0.97440517,0
-0.47204664,-2.0356176,-0.22745836,-0.25128549,-0.94673294,0.20137608,0
0.55481017,1.6039568,-1.6984948,0.24605133,0.94799244,-0.20191371,0
1.9054093,0.092576742,1.6644201,0.98933411,-0.12429428,0.075954705,0
0.79386163,-0.208462,-1.9670624,0.047195554,-0.21978897,-0.97440517,0
1.109556,0.55056143,-2.1229787,0.047195554,-0.21978897,-0.97440517,0
-0.58258706,1.0193835,-2.3106866,0.047195554,-0.21978897,-0.97440517,0
0.50774056,-1.6287723,1.5055381,0.27947515,-0.93362761,0.22412753,0
-0.36008763,0.15743351,1.9995825,-0.047195554,0.21978897,0.97440517,0
1.8230706,-0.52067453,1.0086812,0.9299978,-0.34631705,0.12316063,0
0.22157353,-1.5643978,2.0514359,0.14959651,-0.96293527,0.22444749,0
0.57745355,-1.3543279,-1.7190802,0.047195554,-0.21978897,-0.97440517,0
-0.67986131,1.019552,-2.3154359,0.047195554,-0.21978897,-0.97440517,0
0.45334625,1.5436287,-2.0867221,0.18619266,0.96033126,-0.20759618,0
1.4963722,-1.1943811,0.6527437,0.75533396,-0.63047791,0.17879677,0
-1.5342286,-0.97421485,1.9212561,-0.72628146,-0.67726535,0.11758783,0
-0.32108405,-2.1568189,-0.63124573,-0.18588558,-0.96038496,0.20762318,0
-0.20866881,1.3840894,1.7302294,-0.047195554,0.21978897,0.97440517,0
0.85416019,1.8832887,0.19037187,0.44027394,0.88020092,-0.17721528,0
1.8291588,-0.41049373,-1.8713468,0.047195554,-0.21978897,-0.97440517,0
0.51081026,-1.0296514,2.309526,-0.047195554,0.21978897,0.97440517,0
-1.866317,-0.75124204,-1.9734781,0.047195554,-0.21978897,-0.97440517,0
-1.9381131,0.79915309,0.66445899,-0.94747484,0.29907063,-0.11335018,0
1.6717541,0.97120035,-0.90897328,0.81815165,0.56814718,-0.088525176,0
1.0637022,1.835554,1.6900235,-0.047195554,0.21978897,0.97440517,0
0.47468695,0.11190438,2.0502846,-0.047195554,0.21978897,0.97440517,0
0.22223186,0.98680997,-2.2643576,0.047195554,-0.21978897,-0.97440517,0
-1.8330066,0.22317898,1.9134116,-0.047195554,0.21978897,0.97440517,0
-1.6174029,0.028111219,1.9678543,-0.047195554,0.21978897,0.97440517,0
-1.658041,-1.3670624,-1.6187422,-0.87148523,-0.4857735,0.067361563,0
0.10087687,-1.7781829,1.1848589,0.068347886,-0.9724955,0.22266853,0
-1.3186655,1.003639,-2.0388484,-0.69953966,0.68906212,-0.1893087,0
0.35853574,-0.73477101,2.2356369,-0.047195554,0.21978897,0.97440517,0
1.2116996,0.0017797947,-1.9942468,0.047195554,-0.21978897,-0.97440517,0
0.90373635,-1.9228411,-1.5750414,0.047195554,-0.21978897,-0.97440517,0
-0.052652478,-0.63776219,-1.9112296,0.047195554,-0.21978897,-0.97440517,0
-0.3601836,1.2328739,1.7569993,-0.047195554,0.21978897,0.97440517,0
-0.76790166,1.2920269,-2.3811603,0.047195554,-0.21978897,-0.97440517,0
-0.32690036,-1.3916665,2.3506083,-0.047195554,0.21978897,0.97440517,0
0.25729612,0.20277774,2.0192575,-0.047195554,0.21978897,0.97440517,0
1.9070778,-1.2014918,-1.6891537,0.047195554,-0.21978897,-0.97440517,0
-1.3401,-0.46327698,2.0921242,-0.047195554,0.21978897,0.97440517,0
2.0334101,-0.22786772,-0.65775025,0.99813437,-0.027450651,0.054536685,0
1.0518363,-1.8054717,-0.19383979,0.51092547,-0.83291513,0.21262091,0
-0.32925099,2.1179507,0.39534426,-0.14418353,0.96377748,-0.22437525,0
0.85347247,2.0191872,0.86543715,0.45615795,0.87257701,-0.17472631,0
1.0445682,1.4637029,-1.3976084,0.49657601,0.85157377,-0.16803104,0
-0.62640083,0.98913372,1.7990834,-0.047195554,0.21978897,0.97440517,0
-0.72387409,-0.59650493,2.1520224,-0.047195554,0.21978897,0.97440517,0
-0.48553073,-0.72656178,2.1929026,-0.047195554,0.21978897,0.97440517,0
-1.9652787,0.66396129,0.56381851,-0.96404272,0.24537593,-0.1020411,0
-1.4040139,-1.2396606,1.1607032,-0.68018383,-0.72146016,0.12978929,0
1.6169199,-0.32707334,-1.9004433,0.047195554,-0.21978897,-0.97440517,0
2.0653834,-0.46483278,-1.3854177,0.99612463,-0.06212391,0.062260315,0
0.7361362,-1.3102386,2.3837295,-0.047195554,0.21978897,0.97440517,0
0.341286,2.0012681,-0.069951653,0.17903407,0.96155691,-0.20821929,0
-1.1893673,-1.108481,2.2449586,-0.047195554,0.21978897,0.97440517,0
-0.80031931,-1.172325,2.278203,-0.047195554,0.21978897,0.97440517,0
2.0051854,-0.45915514,-0.54703712,0.98539966,-0.14950962,0.081451744,0
0.75571704,1.7179086,1.7016424,-0.047195554,0.21978897,0.97440517,0
0.95892406,0.61490321,-2.1447875,0.047195554,-0.21978897,-0.97440517,0
-1.9251493,0.58353728,-0.0030318499,-0.95747375,0.26801389,-0.10682929,0
0.38285017,-0.60572493,-1.8973624,0.047195554,-0.21978897,-0.97440517,0
0.2000809,0.10356498,2.0388651,-0.047195554,0.21978897,0.97440517,0
-1.969744,0.37781769,-0.024228215,-0.9812758,0.17216142,-0.086361408,0
-1.7722533,1.2771784,0.96691281,-0.85529572,0.49501014,-0.15308207,0
-1.4678787,-1.0287814,1.9962711,-0.69173855,-0.71091932,0.12685207,0
-1.1823637,1.660123,1.6208054,-0.047195554,0.21978897,0.97440517,0
-0.78840274,0.53535581,-2.211477,0.047195554,-0.21978897,-0.97440517,0
-1.5434813,0.87165082,-1.5613981,-0.80140328,0.57396382,-0.16828066,0
1.3692573,-1.4520332,0.21614051,0.68054259,-0.70698774,0.19243193,0
-1.472846,-1.2466508,0.73118722,-0.72443569,-0.67915004,0.11810234,0
-0.70028162,0.32902145,-2.1606674,0.047195554,-0.21978897,-0.97440517,0
1.2293179,1.6865817,0.43944836,0.63214201,0.76187283,-0.14123178,0
0.41018915,0.074694633,2.0555537,-0.047195554,0.21978897,0.97440517,0
0.1165019,-2.0482335,-0.0013411045,0.047467142,-0.97389668,0.2219733,0
-0.6973902,0.29116893,1.9530796,-0.047195554,0.21978897,0.97440517,0
0.071150184,2.1045613,0.25322962,0.052233934,0.97470057,-0.21732563,0
-0.60034996,-0.41631067,-1.9877086,0.047195554,-0.21978897,-0.97440517,0
0.026555065,-2.2500219,-1.5437284,0.047195554,-0.21978897,-0.97440517,0
1.6479212,1.2857252,0.92767239,0.85012448,0.52101791,-0.07634598,0
-1.5015533,-1.1115026,1.3322685,-0.7242353,-0.67935401,0.11815813,0
-1.2549967,1.2416753,-1.3851697,-0.65151095,0.73266399,-0.1968174,0
-1.5703797,-0.629035,2.1183593,-0.047195554,0.21978897,0.97440517,0
-1.5144415,0.33889449,1.9027404,-0.047195554,0.21978897,0.97440517,0
-0.49490622,2.0675635,1.5621995,-0.047195554,0.21978897,0.97440517,0
-1.4465876,-1.5336578,-1.776665,0.047195554,-0.21978897,-0.97440517,0
-1.3974173,-0.28148746,2.0483429,-0.047195554,0.21978897,0.97440517,0
-1.9126142,-0.35070074,-1.8433732,-0.99838209,0.020592064,-0.053001657,0
-0.14132765,-1.9816997,0.27866399,-0.074377,-0.97355753,0.21599531,0
0.65178412,0.48533893,-2.1304393,0.047195554,-0.21978897,-0.97440517,0
0.94991505,-2.0408614,-0.89951664,0.44263136,-0.86988795,0.21765274,0
1.1918293,1.5225842,-0.59181595,0.58887613,0.79407036,-0.15058988,0
0.16569723,0.94551456,1.8472877,-0.047195554,0.21978897,0.97440517,0
-1.6066732,-0.18928969,-2.0876575,0.047195554,-0.21978897,-0.97440517,0
1.2236707,1.7003533,0.48849291,0.63052374,0.76314485,-0.14159703,0
-0.10644609,1.7037979,-1.5075142,-0.078931168,0.97162133,-0.22298414,0
0.95911849,1.3127695,-2.3021903,0.047195554,-0.21978897,-0.97440517,0
0.54388297,-1.1389571,-1.7692857,0.047195554,-0.21978897,-0.97440517,0
-1.8928052,1.2465918,1.679672,-0.047195554,0.21978897,0.97440517,0
-0.00387308,-2.1154861,-0.29097748,-0.019594938,-0.97550821,0.21908867,0
-1.2408702,0.96577573,-2.3304787,0.047195554,-0.21978897,-0.97440517,0
-0.52711922,-0.505584,-1.964025,0.047195554,-0.21978897,-0.97440517,0
1.8839887,0.65955722,1.9950147,-0.047195554,0.21978897,0.97440517,0
1.767225,-0.31236935,-1.8964798,0.047195554,-0.21978897,-0.97440517,0
-0.3956404,1.084213,1.7888141,-0.047195554,0.21978897,0.97440517,0
1.4203453,-0.055326343,2.1338086,-0.047195554,0.21978897,0.97440517,0
-0.2574524,0.53348184,1.9197314,-0.047195554,0.21978897,0.97440517,0
1.8548981,-0.63340473,0.4509815,0.93246782,-0.34007478,0.12187234,0
0.2803193,-0.67902732,-1.8857943,0.047195554,-0.21978897,-0.97440517,0
-1.8374372,-0.84388983,-0.46502978,-0.93174189,-0.36129564,0.036365524,0
-0.71801883,1.8468846,1.6011697,-0.047195554,0.21978897,0.97440517,0
-1.0569627,-0.48645329,2.1110659,-0.047195554,0.21978897,0.97440517,0
-1.8285407,0.13942039,-1.9830892,-0.95710951,0.26921153,-0.10708174,0
0.67639685,-0.98015869,-1.7986863,0.047195554,-0.21978897,-0.97440517,0
1.793893,-0.28994459,1.875037,0.93655908,-0.32944727,0.11967328,0
0.51294756,-2.2983444,-1.50927,0.047195554,-0.21978897,-0.97440517,0
0.79911417,-1.9064227,-1.5838122,0.047195554,-0.21978897,-0.97440517,0
-0.055608273,-2.0884871,-0.1778264,-0.042663112,-0.97504562,0.21786702,0
-0.59036493,2.0019212,0.15189016,-0.28064939,0.93328047,-0.22410607,0
-1.7390553,0.7842713,-0.79359597,-0.88177097,0.44915268,-0.14402056,0
0.18074995,1.0129509,-2.2722633,0.047195554,-0.21978897,-0.97440517,0
0.70191884,-2.1555066,-1.5323361,0.047195554,-0.21978897,-0.97440517,0
0.61085737,-0.18456399,2.1237521,-0.047195554,0.21978897,0.97440517,0
-0.79030514,1.381489,1.702644,-0.047195554,0.21978897,0.97440517,0
0.54834527,1.4986838,-2.1994047,0.23076226,0.9515034,-0.20344615,0
-2.0416913,-0.0066977739,1.3933904,-0.98656738,-0.16298312,-0.011021767,0
-0.1117295,0.26479304,1.9873955,-0.047195554,0.21978897,0.97440517,0
1.6170076,-0.81071001,1.3990525,0.83466768,-0.52719975,0.15934366,0
0.16058508,0.057334423,-2.057689,0.047195554,-0.21978897,-0.97440517,0
0.16207916,1.7981883,1.6547813,-0.047195554,0.21978897,0.97440517,0
-1.5288543,0.98229587,-1.2500199,-0.78637242,0.59334683,-0.17192471,0
0.087848008,0.41331935,-2.1415086,0.047195554,-0.21978897,-0.97440517,0
1.9350587,-0.90364563,-0.91979963,0.9395377,-0.32146659,0.11801746,0
-0.97712094,-2.0524082,-1.6369157,0.047195554,-0.21978897,-0.97440517,0
-1.2831215,0.73735082,1.8240677,-0.047195554,0.21978897,0.97440517,0
-1.9346492,0.18312709,-0.81024271,-0.98285067,0.16386846,-0.0845671,0
-1.9774272,0.062718898,-0.42292771,-0.99591076,0.064876392,-0.06287083,0
0.40961239,0.31306612,2.0017583,-0.047195554,0.21978897,0.97440517,0
0.046535194,-0.64222914,2.199651,-0.047195554,0.21978897,0.97440517,0
-0.77691287,-0.40279424,2.1057596,-0.047195554,0.21978897,0.97440517,0
1.4894006,-1.7501704,-1.3095405,0.70385289,-0.68485957,0.18856966,0
-1.1117315,1.6137086,1.6346959,-0.047195554,0.21978897,0.97440517,0
1.5394751,-1.2274038,0.35142064,0.76973754,-0.61370188,0.17571032,0
0.93483102,-1.8182517,-1.597127,0.047195554,-0.21978897,-0.97440517,0
-0.089215532,2.0198362,1.5926145,-0.047195554,0.21978897,0.97440517,0
0.23702154,0.30661213,1.9948546,-0.047195554,0.21978897,0.97440517,0
1.5151857,1.5494215,1.3717438,0.79548305,0.59825659,-0.096414655,0
1.0790806,1.6994472,-0.081434369,0.54528028,0.82299256,-0.15922529,0
1.3325408,-1.4695747,0.27880418,0.66357511,-0.72223538,0.19504941,0
1.0274307,-0.063831806,-1.9883724,0.047195554,-0.21978897,-0.97440517,0
-0.16236842,0.68106449,1.8910477,-0.047195554,0.21978897,0.97440517,0
-0.6574586,-1.7264447,0.97301972,-0.31457791,-0.92912507,0.1943388,0
1.7891898,-0.36234996,1.7097127,0.93003571,-0.34622228,0.1231412,0
-1.5961553,1.3446307,1.6719265,-0.047195554,0.21978897,0.97440517,0
1.891499,0.0049566031,-1.9620372,0.047195554,-0.21978897,-0.97440517,0
0.72330344,1.8873816,-0.079830289,0.36879957,0.91040355,-0.18748969,0
-1.1398201,2.0849662,1.5011349,-0.52331012,0.82546777,-0.21154094,0
1.6017561,1.4427116,1.4889722,0.84081393,0.535375,-0.080035329,0
-1.6188267,1.6131161,1.3433961,-0.76835424,0.61534625,-0.17601418,0
0.67341053,1.715234,-1.0004916,0.32184628,0.92681497,-0.19346577,0
0.87437791,-2.080307,-0.91173339,0.40446138,-0.8877418,0.21983111,0
1.3631973,-1.14641,1.3542784,0.70527446,-0.68346334,0.18832362,0
-0.18031435,-1.3174194,-1.7641079,0.047195554,-0.21978897,-0.97440517,0
-0.30600318,1.8689034,-0.68837154,-0.15879594,0.96143591,-0.22455496,0
1.037079,1.7488768,0.033102393,0.5272162,0.83403099,-0.16258997,0
0.80404854,-1.4351813,1.8175406,0.43547732,-0.87338102,0.21809423,0
0.75090516,-1.4847701,-1.6812563,0.047195554,-0.21978897,-0.97440517,0
-1.2488244,-1.2738676,1.6803919,-0.59098971,-0.79258168,0.15015179,0
-1.9123493,0.85965681,0.62045681,-0.9353196,0.33270657,-0.12034842,0
1.0105588,0.92740816,-2.2127762,0.047195554,-0.21978897,-0.97440517,0
1.2978818,-0.60082757,-1.8541472,0.047195554,-0.21978897,-0.97440517,0
0.46407515,1.5647305,1.722068,-0.047195554,0.21978897,0.97440517,0
0.63843077,1.7266021,-1.0024765,0.30440873,0.93225557,-0.19553757,0
0.047666132,-1.2628584,-1.7653726,0.047195554,-0.21978897,-0.97440517,0
0.093536377,-1.0233221,2.2878876,-0.047195554,0.21978897,0.97440517,0
-2.0461967,0.055424452,1.1633482,-0.99378234,-0.1088125,-0.02359008,0
0.2031804,0.2512424,2.0057049,-0.047195554,0.21978897,0.97440517,0
-0.71245313,-1.6027902,-1.7255135,0.047195554,-0.21978897,-0.97440517,0
-1.1143944,-1.7778493,-0.45318574,-0.57559741,-0.80323517,0.15330029,0
1.1782464,1.70587,0.32394832,0.60410738,0.78315419,-0.14738995,0
-1.4070861,0.38857329,-2.2083344,0.047195554,-0.21978897,-0.97440517,0
1.1343616,-1.4886367,-1.6618114,0.047195554,-0.21978897,-0.97440517,0
1.1390588,-0.50781333,-1.8828204,0.047195554,-0.21978897,-0.97440517,0
-0.56415439,-0.86775422,2.220942,-0.047195554,0.21978897,0.97440517,0
-1.7982417,-0.50574863,-2.0255549,0.047195554,-0.21978897,-0.97440517,0
1.9520503,0.43261003,-0.166379,0.97226918,0.23379646,-0.0056435745,0
0.065763831,-2.3318696,-1.5233674,0.047195554,-0.21978897,-0.97440517,0
1.9181042,-0.5853591,0.061064839,0.955284,-0.27513164,0.1083287,0
-0.33795324,1.9440871,-0.34361076,-0.16641808,0.96012855,-0.22462916,0
0.16452454,0.72948468,1.8959591,-0.047195554,0.21978897,0.97440517,0
0.39222294,-1.7734172,1.0240999,0.21002471,-0.95150232,0.22479558,0
2.022573,0.10619652,-1.5190033,0.97465706,0.22368091,-0.003246231,0
-1.7802252,-0.78243446,1.0160803,-0.86882448,-0.49035549,0.068523943,0
1.890202,-0.74311173,-0.12619936,0.9362399,-0.33028984,0.11984786,0
-1.1862746,-1.4215397,1.1437806,-0.57288921,-0.80506516,0.1538443,0
-1.4170295,1.0826986,-1.3754332,-0.73294753,0.65513259,-0.18327361,0
-1.2189867,0.24451494,-2.1667297,0.047195554,-0.21978897,-0.97440517,0
0.8772403,-0.9613266,-1.7932062,0.047195554,-0.21978897,-0.97440517,0
1.2426538,1.5659629,-0.15086818,0.62459588,0.76775813,-0.14292479,0
-1.1902046,-0.77051353,-1.9363835,0.047195554,-0.21978897,-0.97440517,0
-0.33164611,2.2896609,1.5200101,-0.047195554,0.21978897,0.97440517,0
1.1580895,1.6219298,-0.1993587,0.5815832,0.79914361,-0.15208745,0
1.3513098,-1.4229033,0.38640428,0.67565489,-0.71145165,0.19320214,0
1.7816314,-0.26513946,2.0389459,0.93433952,-0.33525908,0.1208767,0
-0.73146677,-1.3996693,-1.7722507,0.047195554,-0.21978897,-0.97440517,0
-0.65266436,2.1245646,1.541701,-0.047195554,0.21978897,0.97440517,0
1.9707136,-0.12626027,0.44570151,0.99275553,-0.097585827,0.070096001,0
-1.4722049,-1.3341241,0.22962141,-0.73610246,-0.66706204,0.11481071,0
-0.60881817,0.92906797,1.8134837,-0.047195554,0.21978897,0.97440517,0
-0.87915158,-0.87519288,2.2073629,-0.047195554,0.21978897,0.97440517,0
0.062564462,-0.19580758,2.0997314,-0.047195554,0.21978897,0.97440517,0
0.023472687,-2.3032744,-1.5318657,0.047195554,-0.21978897,-0.97440517,0
1.8373492,-0.83196479,0.0088455677,0.91251677,-0.3873052,0.1315594,0
-1.8285452,0.63874829,-0.63284039,-0.92347473,0.36222795,-0.12643361,0
0.72238612,-2.060605,-1.5527509,0.047195554,-0.21978897,-0.97440517,0
0.89167935,1.4500417,-1.8617719,0.40955806,0.89398354,-0.18181193,0
-0.47154975,-1.4030219,2.3461637,-0.047195554,0.21978897,0.97440517,0
1.8277034,-0.45739427,1.1494358,0.93587375,-0.33125359,0.12004757,0
1.7964197,0.90967005,0.19268098,0.90535766,0.42154777,-0.051234052,0
0.90744311,1.8894341,1.6703017,-0.047195554,0.21978897,0.97440517,0
1.198802,-1.1526824,1.9003129,0.6357829,-0.74577093,0.19901204,0
0.025439866,2.3691044,1.4288594,0.05783391,0.97445697,-0.21699947,0
-1.946475,-0.35810018,1.5614736,-0.93702281,-0.34770146,0.033043392,0
1.0057263,1.36384,1.7936163,-0.047195554,0.21978897,0.97440517,0
0.20044318,0.86155152,1.8679094,-0.047195554,0.21978897,0.97440517,0
1.1952951,1.8854988,1.3605471,0.63737971,0.75771749,-0.14004076,0
0.89337701,-1.7625642,-1.6116955,0.047195554,-0.21978897,-0.97440517,0
-0.37531191,-2.0143824,-0.02169764,-0.19818452,-0.95815974,0.20652556,0
0.39240316,-1.9862894,-1.5854964,0.047195554,-0.21978897,-0.97440517,0
1.4713509,1.147524,-1.3067081,0.70994234,0.69360101,-0.12206393,0
1.2978452,-0.49758279,-1.8774371,0.047195554,-0.21978897,-0.97440517,0
-1.7562814,-1.1398468,-1.3857512,-0.91396028,-0.40311232,0.046659052,0
-1.6810915,-1.1846225,-0.61079627,-0.85886204,-0.50701225,0.072763652,0
1.2074022,1.8724178,1.3452582,0.64300036,0.75319296,-0.13874793,0
1.5614491,1.233229,-0.20254076,0.78072453,0.61661452,-0.10127038,0
-0.43430474,-0.96008253,-1.8570118,0.047195554,-0.21978897,-0.97440517,0
-1.8026145,-0.94160068,-0.5823276,-0.91757321,-0.39504993,0.044665486,0
1.4753997,1.1315564,-1.3738906,0.71033454,0.69321781,-0.12195852,0
-0.7948786,1.1283737,1.7595159,-0.047195554,0.21978897,0.97440517,0
-1.2210462,0.95574117,1.7778137,-0.047195554,0.21978897,0.97440517,0
1.4739031,1.0772829,1.8809289,-0.047195554,0.21978897,0.97440517,0
-1.8509312,0.18664384,-1.6627262,-0.96066856,0.25726151,-0.10455865,0
-1.7341133,-0.833498,1.1956592,-0.8419556,-0.53364432,0.079589695,0
-1.9903905,-0.10736829,-0.21473151,-0.99847293,-0.038420215,-0.039695099,0
-1.1877275,1.2602308,1.7107462,-0.047195554,0.21978897,0.97440517,0
1.8760674,0.017569542,1.8754189,0.9791584,-0.18273251,0.088643312,0
-1.380692,1.3178297,-0.66597438,-0.69728661,0.69123721,-0.18969023,0
-1.8868852,-0.53437436,1.2869316,-0.9145214,-0.40187332,0.046352386,0
1.5653527,-1.029266,0.91929257,0.79673272,-0.5800932,0.16943705,0
1.7567163,-1.2383504,-0.75472319,0.85262501,-0.49933624,0.15392852,0
0.80074883,1.6976893,-0.84608424,0.38883305,0.90259272,-0.18475753,0
1.7930948,0.96814698,0.62344742,0.91390717,0.40322936,-0.046688005,0
-1.3758438,1.5678526,0.23323154,-0.67289495,0.71394634,-0.19363111,0
-0.26131177,1.1924756,-2.3341687,0.047195554,-0.21978897,-0.97440517,0
1.8974836,-0.54259604,0.35029519,0.95186907,-0.28586128,0.11058348,0
-0.645069,-1.3931867,-1.7695282,0.047195554,-0.21978897,-0.97440517,0
-0.84797162,-0.56474078,2.1388469,-0.047195554,0.21978897,0.97440517,0
-1.3626561,1.4529266,-0.23612559,-0.67770422,0.70958728,-0.19288075,0
1.7302908,0.76532209,1.9637136,-0.047195554,0.21978897,0.97440517,0
-1.3305799,-0.74739563,2.1566715,-0.047195554,0.21978897,0.97440517,0
1.0752414,-1.4000981,-1.6846457,0.047195554,-0.21978897,-0.97440517,0
-1.7014261,-0.47048068,-2.0288208,0.047195554,-0.21978897,-0.97440517,0
-0.071654439,1.8609464,1.6293046,-0.047195554,0.21978897,0.97440517,0
0.19551829,-1.2709335,-1.7563899,0.047195554,-0.21978897,-0.97440517,0
0.8764745,1.9252872,0.45657313,0.45774502,0.87179625,-0.17447323,0
1.5279433,1.428365,0.7281304,0.7864207,0.60963756,-0.099420756,0
-1.8994199,-0.60253727,-1.9624507,-0.99584383,-0.086423926,-0.028739937,0
1.3280275,-0.96688288,2.1375082,0.70666933,-0.68208808,0.18808097,0
-1.0490521,0.56131375,-2.2299566,0.047195554,-0.21978897,-0.97440517,0
0.12460017,1.2143868,-2.3204193,0.047195554,-0.21978897,-0.97440517,0
-1.7027842,1.3700916,1.6610188,-0.047195554,0.21978897,0.97440517,0
1.5678265,-0.93167186,-1.7664465,0.047195554,-0.21978897,-0.97440517,0
1.6178019,1.0578732,1.8922766,-0.047195554,0.21978897,0.97440517,0
0.97100353,2.0179644,1.1993653,0.52246457,0.83684719,-0.16345537,0
1.8290362,0.75187492,-0.529131,0.90421402,0.42392358,-0.05182533,0
-1.6001344,-0.12360263,2.0029116,-0.047195554,0.21978897,0.97440517,0
1.103086,1.8599951,0.84127283,0.57930547,0.80070817,-0.1525507,0
-1.4295685,-1.288615,-1.8311131,0.047195554,-0.21978897,-0.97440517,0
-1.1581213,1.9146082,0.88552785,-0.54747903,0.810229,-0.20927429,0
0.94086206,-1.5840225,0.93532944,0.48267439,-0.84902835,0.21488714,0
2.0441852,-0.021448851,-1.2696363,0.990511,0.13635074,0.01722005,0
-1.2119269,-0.31028676,2.0638235,-0.047195554,0.21978897,0.97440517,0
1.2270347,-1.2792405,-1.7045543,0.047195554,-0.21978897,-0.97440517,0
1.1588429,0.99048388,1.8852475,-0.047195554,0.21978897,0.97440517,0
-1.8984219,0.28711689,1.8958212,-0.047195554,0.21978897,0.97440517,0
-1.3529365,-1.6687112,-0.96638316,-0.70583707,-0.69758528,0.12316149,0
1.7258786,1.2360314,1.6314313,0.90494066,0.42241594,-0.051450074,0
-1.7820988,-1.1082437,-1.6740835,-0.93330616,-0.35733292,0.035395935,0
-1.4475029,1.1246556,-1.1026722,-0.74166083,0.64573193,-0.18157518,0
0.18304278,0.66984415,1.9103086,-0.047195554,0.21978897,0.97440517,0
-1.60079,1.0316213,1.742305,-0.047195554,0.21978897,0.97440517,0
-1.7708758,0.78613114,-0.58886206,-0.89292854,0.42794931,-0.13977838,0
1.2464585,-0.70958883,2.2729633,-0.047195554,0.21978897,0.97440517,0
0.10999817,1.2353039,1.7792244,-0.047195554,0.21978897,0.97440517,0
-1.6816701,-1.1391345,-0.30321294,-0.85184228,-0.51830649,0.075651169,0
1.3337505,-1.2431695,1.1089208,0.68444037,-0.70338541,0.19180816,0
-0.18499301,2.2669315,0.97602481,-0.058090433,0.97323728,-0.22233921,0
-0.21007924,-1.4292673,-1.7403209,0.047195554,-0.21978897,-0.97440517,0
0.77380234,0.8780669,-2.213114,0.047195554,-0.21978897,-0.97440517,0
-1.173017,-1.8913743,-1.292846,-0.62473923,-0.76764739,0.14289284,0
0.7066617,1.9291599,0.090407252,0.36462831,0.91196793,-0.18804461,0
-0.58838916,-1.9033487,0.23747826,-0.29795051,-0.93418294,0.19628507,0
-1.8154478,1.1815403,0.91338998,-0.87857163,0.45500851,-0.14518654,0
-1.5977449,-1.0936944,0.77185005,-0.78501779,-0.61136836,0.099879056,0
-1.3760021,-1.1937237,1.555268,-0.65689832,-0.74170655,0.13548398,0
-0.92230159,-1.1184262,-1.8449316,0.047195554,-0.21978897,-0.97440517,0
1.4822071,1.2626588,1.8395174,-0.047195554,0.21978897,0.97440517,0
-1.4750137,-1.4612511,-0.53461778,-0.75573581,-0.64573348,0.10904884,0
-1.1713411,1.3698629,-1.1659487,-0.60407078,0.77062094,-0.20308125,0
-1.9007928,-0.19512188,-1.8833671,-0.99259722,0.098967597,-0.0704,0
1.8705714,-0.020123482,1.8553452,0.97575945,-0.19854753,0.092045963,0
1.7382172,-1.2632929,-0.73501861,0.84371978,-0.51341099,0.15667188,0
-1.1798902,1.9258448,0.98647624,-0.5559597,0.80465323,-0.20842743,0
-0.34759998,1.3132832,1.7394714,-0.047195554,0.21978897,0.97440517,0
1.1639786,-0.96993583,2.327693,-0.047195554,0.21978897,0.97440517,0
1.7832587,-0.63783383,0.95473653,0.90828812,-0.39649689,0.1334278,0
1.1458081,0.098192096,-2.0191853,0.047195554,-0.21978897,-0.97440517,0
1.954847,0.34697658,0.81023669,0.9956764,0.088484876,0.028266974,0
0.39213312,1.8987942,-0.49833667,0.19401933,0.95893091,-0.20690113,0
0.65894854,-1.911616,-1.5894297,0.047195554,-0.21978897,-0.97440517,0
0.5736447,-2.276752,-1.2816095,0.24490596,-0.94317198,0.22460592,0
-2.005465,0.73970294,1.132473,-0.97062272,0.22031647,-0.096707374,0
-1.6803865,0.19813323,-2.1786156,0.047195554,-0.21978897,-0.97440517,0
-0.4873082,-0.75765932,-1.9052382,0.047195554,-0.21978897,-0.97440517,0
-1.2061813,1.9747419,1.5486857,-0.047195554,0.21978897,0.97440517,0
-2.0786083,0.2138983,1.8000116,-0.99449062,-0.10174637,-0.025218248,0
0.042287469,1.916344,-0.59226048,0.01741752,0.97552502,-0.21919787,0
0.93903714,-0.29319167,-1.940919,0.047195554,-0.21978897,-0.97440517,0
0.96195769,1.9041413,0.59074509,0.50336695,0.84780997,-0.16685325,0
1.1707271,-1.9553943,-1.554767,0.047195554,-0.21978897,-0.97440517,0
1.8299869,0.31413984,-2.0347567,0.047195554,-0.21978897,-0.97440517,0
1.4410318,-0.85471541,2.0836105,0.76238811,-0.62235594,0.17730641,0
0.74059379,-0.47586405,-1.9093267,0.047195554,-0.21978897,-0.97440517,0
-1.0940956,-2.0189104,-1.6434399,-0.59408933,-0.79038334,0.14950579,0
-0.56823701,1.6619916,-1.2886622,-0.30449694,0.92589772,-0.22359592,0
-1.8522668,0.955423,1.7473122,-0.047195554,0.21978897,0.97440517,0
0.63019365,-2.0726848,-1.5544915,0.047195554,-0.21978897,-0.97440517,0
1.913264,0.0044817924,-1.960876,0.047195554,-0.21978897,-0.97440517,0
1.4117343,1.0511062,-2.1626508,0.66001898,0.73906744,-0.13473755,0
1.8220868,-0.19839275,1.8890455,0.95142144,-0.28723645,0.11087194,0
0.89114588,-1.9513985,-1.5692097,0.047195554,-0.21978897,-0.97440517,0
1.3349035,0.2278564,-2.0392737,0.047195554,-0.21978897,-0.97440517,0
-0.17293303,1.9184829,1.6114211,-0.047195554,0.21978897,0.97440517,0
0.14820796,1.6078795,-1.9548297,0.037329271,0.97519892,-0.21815991,0
-0.9309808,-1.4133288,-1.7788332,0.047195554,-0.21978897,-0.97440517,0
-0.87496084,-0.59302247,2.1439188,-0.047195554,0.21978897,0.97440517,0
1.1589967,-1.5770538,0.41185999,0.57949835,-0.78852689,0.20592999,0
-0.096310914,1.7261257,-1.4135686,-0.071598902,0.97223866,-0.22276825,0
0.074643493,-1.2940485,2.3480382,-0.047195554,0.21978897,0.97440517,0
-0.64182073,2.2112184,1.0879824,-0.28371018,0.93236834,-0.22404867,0
1.7812239,-1.1161958,-0.50308311,0.87127125,-0.46802843,0.14776975,0
1.4450285,1.0687615,-1.8956331,0.68286026,0.71904862,-0.12911573,0
-1.8757882,-0.51329911,-2.0276079,0.047195554,-0.21978897,-0.97440517,0
-1.206179,0.41695726,1.900063,-0.047195554,0.21978897,0.97440517,0
1.8447839,0.88103175,1.9431595,-0.047195554,0.21978897,0.97440517,0
1.0291795,1.3830082,1.7904286,-0.047195554,0.21978897,0.97440517,0
0.53528172,-1.7809263,-1.6248982,0.047195554,-0.21978897,-0.97440517,0
0.058446229,1.5745506,-2.1083708,-0.011154965,0.97531539,-0.22053456,0
-1.4456514,1.7347102,1.0929933,-0.68708646,0.70091808,-0.19137973,0
1.911795,0.60365033,0.25052071,0.96265954,0.27033424,-0.014350556,0
-1.0363804,1.6047622,1.6403636,-0.047195554,0.21978897,0.97440517,0
1.9787003,-0.92718554,-1.3429841,0.95145732,-0.28712636,0.11084887,0
1.5320668,1.1575162,-0.86794555,0.75037324,0.65168715,-0.11065149,0
-1.1345279,-1.2417796,2.2517791,-0.52066398,-0.83790511,0.16378123,0
-0.063499793,2.0461612,1.5879222,-0.047195554,0.21978897,0.97440517,0
0.093098909,0.41970265,1.9623747,-0.047195554,0.21978897,0.97440517,0
-1.4328442,-1.4812293,-0.37319252,-0.73108983,-0.67230701,0.11623654,0
1.0884244,-0.84239376,-1.8098042,0.047195554,-0.21978897,-0.97440517,0
-1.9660333,-0.23336987,-0.703978,-0.99822462,-0.0458619,-0.038004503,0
2.0290325,-0.6965555,-1.2863648,0.9790653,-0.18318358,0.088740557,0
1.037255,-1.9349889,-1.5658344,0.047195554,-0.21978897,-0.97440517,0
0.88415384,1.412215,-2.0642319,0.40095222,0.89762467,-0.18304992,0
1.5778525,-0.27857435,-1.9132749,0.047195554,-0.21978897,-0.97440517,0
1.5562474,0.79278064,-2.1559787,0.047195554,-0.21978897,-0.97440517,0
0.18817,-2.0658321,-1.5774468,0.047195554,-0.21978897,-0.97440517,0
0.036278188,-1.782075,1.1829818,0.036057159,-0.97448158,0.22155267,0
1.877992,0.67048872,-0.21570559,0.93542206,0.351888,-0.034065261,0
1.3001711,-0.47130221,2.2218163,-0.047195554,0.21978897,0.97440517,0
-0.69316876,1.2430825,-2.3665009,0.047195554,-0.21978897,-0.97440517,0
-0.41160804,1.4401273,1.7077599,-0.047195554,0.21978897,0.97440517,0
-1.8440274,-0.8593145,-0.81764591,-0.94321769,-0.33091086,0.028956041,0
1.9676849,-0.15650138,0.44345391,0.99103594,-0.11175098,0.073207855,0
-0.39008567,0.50529993,1.9196639,-0.047195554,0.21978897,0.97440517,0
-0.15565339,-2.0201514,0.099803805,-0.085836038,-0.97277623,0.21526402,0
-0.95635569,0.2617147,1.9471802,-0.047195554,0.21978897,0.97440517,0
-1.6638528,-1.3600187,-1.6438813,-0.87492615,-0.47975993,0.065838471,0
0.79200929,-0.42571449,2.1869206,-0.047195554,0.21978897,0.97440517,0
-1.5976574,-0.23691726,-2.0764778,0.047195554,-0.21978897,-0.97440517,0
1.9969491,-0.28419691,-0.14773488,0.9913795,-0.10905713,0.072616816,0
-0.65053737,0.97870362,1.800267,-0.047195554,0.21978897,0.97440517,0
-0.62335527,-1.8931144,0.23137677,-0.3154819,-0.92884099,0.19423097,0
0.085213929,2.3347774,1.5300243,-0.047195554,0.21978897,0.97440517,0
-2.0091677,0.27094328,1.8941054,-0.047195554,0.21978897,0.97440517,0
1.0832289,-0.90077984,2.3081827,-0.047195554,0.21978897,0.97440517,0
0.88478315,-0.62200427,-1.869379,0.047195554,-0.21978897,-0.97440517,0
1.6308937,0.90433574,-1.6697197,0.77992767,0.61758012,-0.10152674,0
-0.47085148,-0.40791106,-1.9833311,0.047195554,-0.21978897,-0.97440517,0
-2.0328412,0.23773932,0.65283573,-0.99791241,0.032677248,-0.055704832,0
1.2804253,0.75537419,-2.1609006,0.047195554,-0.21978897,-0.97440517,0
-0.24841908,0.059043884,2.0271842,-0.047195554,0.21978897,0.97440517,0
1.1892006,1.3985296,-1.2532824,0.57171166,0.80585682,-0.15407985,0
0.017971456,-0.25591338,2.1111293,-0.047195554,0.21978897,0.97440517,0
1.9166579,0.42287457,1.7576538,0.99880278,0.022951499,0.04320024,0
-0.70703495,1.7729403,1.6183809,-0.047195554,0.21978897,0.97440517,0
-0.17142507,1.7458318,-1.2979579,-0.10631178,0.96884632,-0.22368437,0
1.5650082,0.28498995,-2.0410159,0.047195554,-0.21978897,-0.97440517,0
0.45983881,-1.1020062,2.3233778,-0.047195554,0.21978897,0.97440517,0
-1.4401432,-0.9958905,-1.8976527,0.047195554,-0.21978897,-0.97440517,0
-0.5335542,1.6376355,-1.4358158,-0.29070407,0.93024528,-0.22390854,0
-0.35304689,-1.8175235,0.90735126,-0.16469346,-0.96385396,0.20943201,0
-1.9292744,-0.405563,-1.4616822,-0.99820167,-0.04647246,-0.037865669,0
0.43542224,-1.5334812,1.9897804,0.25502536,-0.94051236,0.22449625,0
1.0857385,1.8649112,0.80209243,0.56977558,0.80715311,-0.15446603,0
-1.3952777,1.3817961,-0.37926161,-0.69763887,0.69089806,-0.18963081,0
0.9138782,-1.5431081,1.1571916,0.47452617,-0.85345668,0.21549141,0
1.9844431,0.22957563,0.12328649,0.99403691,0.10633337,0.0241616,0
0.61357188,-1.658978,1.237114,0.32594419,-0.91870874,0.22301304,0
0.037773579,2.2596486,0.94077128,0.052196369,0.97470212,-0.21732789,0
-0.72287679,1.6651943,-1.0389628,-0.37588644,0.89988142,-0.22118533,0
0.25200021,-0.4699086,2.1707337,-0.047195554,0.21978897,0.97440517,0
1.8957449,0.18468022,1.9380815,0.99128288,-0.10982139,0.072784543,0
1.8185697,-1.1708006,-0.89873934,0.88052166,-0.45145053,0.14447844,0
1.4796329,1.387481,0.13094765,0.74837571,0.65387988,-0.11124283,0
1.6816393,1.0912248,-0.022522807,0.84408861,0.53038907,-0.0787521,0
-0.61388391,0.34013104,-2.1589887,0.047195554,-0.21978897,-0.97440517,0
-0.73933756,-1.6620859,-1.7134407,0.047195554,-0.21978897,-0.97440517,0
-1.8529139,-0.87702495,-1.4506001,-0.96229684,-0.2716065,0.014655124,0
1.9870183,-0.59741169,-0.62518013,0.97382241,-0.20702511,0.093864322,0
-1.2418717,-0.13931799,-2.0812597,0.047195554,-0.21978897,-0.97440517,0
-0.57561916,1.5698802,-1.6592377,-0.31717843,0.92171049,-0.22326571,0
1.039448,1.3169663,-2.1530485,0.4758901,0.86261708,-0.17152393,0
-1.0639493,-1.2934101,2.2026234,-0.48685136,-0.85684359,0.16969073,0
-0.31413096,2.1377571,0.47110558,-0.13479558,0.965168,-0.22423428,0
1.4441206,0.40056729,-2.0729408,0.047195554,-0.21978897,-0.97440517,0
-0.23666784,-0.83639181,-1.875339,0.047195554,-0.21978897,-0.97440517,0
1.6949711,-1.1967154,-0.28653073,0.83280253,-0.52997947,0.15988034,0
0.31617507,0.0020595789,-2.0376849,0.047195554,-0.21978897,-0.97440517,0
-0.055134118,1.5312557,-2.2772834,-0.071927115,0.97221208,-0.2227782,0
1.62148,-1.5768509,-1.2284386,0.77250928,-0.61038578,0.17509657,0
1.4939089,-0.85149568,1.8611633,0.78366959,-0.59672952,0.17255682,0
1.1272112,1.8128797,0.6862638,0.58753258,0.7950123,-0.15086746,0
-0.75513428,-0.97001839,-1.8703101,0.047195554,-0.21978897,-0.97440517,0
-0.13795295,2.1180403,0.31224799,-0.050657809,0.9737103,-0.22208595,0
-1.4618877,0.51128596,-2.238668,0.047195554,-0.21978897,-0.97440517,0
1.7624769,-0.41351873,1.7588475,0.91757345,-0.37597072,0.12924761,0
-0.61177856,1.8508939,-0.44712329,-0.30588928,0.92544693,-0.22356164,0
-0.31014854,1.952059,-0.32920659,-0.15217414,0.96252376,-0.22447968,0
-0.43234885,0.023673654,2.0262537,-0.047195554,0.21978897,0.97440517,0
1.3212779,1.2529027,-1.4884156,0.63144135,0.76242423,-0.14139003,0
0.73229146,1.4264973,1.7662392,-0.047195554,0.21978897,0.97440517,0
1.6807745,0.90126538,-1.273828,0.81389964,0.57398504,-0.090047926,0
0.112896,-1.3225121,-1.7487576,0.047195554,-0.21978897,-0.97440517,0
-1.256532,-1.0243344,2.2227252,-0.047195554,0.21978897,0.97440517,0
-0.36773881,-0.090769291,2.0551968,-0.047195554,0.21978897,0.97440517,0
-0.51555842,0.57903969,-2.2081151,0.047195554,-0.21978897,-0.97440517,0
-1.3588558,-0.019372702,-2.113981,0.047195554,-0.21978897,-0.97440517,0
-0.28136462,0.61200267,-2.2042069,0.047195554,-0.21978897,-0.97440517,0
0.41728887,2.1629786,0.7589975,0.23685029,0.95013511,-0.20284277,0
-2.0327058,-0.033894181,1.0479579,-0.99016839,-0.13888825,-0.016631078,0
1.8320544,-0.66744685,-1.8132478,0.047195554,-0.21978897,-0.97440517,0
0.96192062,1.5038698,-1.4249053,0.45492488,0.87318134,-0.17492223,0
-0.051659554,-0.51517606,-1.9388323,0.047195554,-0.21978897,-0.97440517,0
1.6070571,1.2922795,0.55407363,0.82118148,0.56393045,-0.087427318,0
-0.052220471,2.063452,1.5845683,-0.047195554,0.21978897,0.97440517,0
-1.8484149,-0.57263875,1.6299409,-0.88764036,-0.45661187,0.060001314,0
-0.37855354,1.9117031,-0.44954312,-0.18927677,0.95585155,-0.22477156,0
1.312616,1.5130211,1.7748311,-0.047195554,0.21978897,0.97440517,0
1.1095364,-1.8143692,-0.37129831,0.53558457,-0.81784719,0.21041656,0
-1.4921989,1.1597416,-0.79249752,-0.75664514,0.62898165,-0.17852277,0
1.8617227,-0.62298048,0.42729849,0.93538207,-0.33254302,0.12031457,0
-1.9233525,-0.30572277,-1.62353,-0.99845093,0.018397853,-0.052510053,0
1.8749304,-0.1718322,1.470407,0.96829605,-0.22949511,0.098665059,0
-0.46882844,2.308212,1.3126756,-0.19173709,0.95535922,-0.22477961,0
1.2181218,-1.3365407,1.1489886,0.6271919,-0.75270599,0.20016021,0
1.7227094,-0.15764594,2.1715331,-0.047195554,0.21978897,0.97440517,0
-1.5059553,-1.4222437,-0.52301598,-0.77070308,-0.62857473,0.1044535,0
-1.8902352,-0.15517139,-1.9644167,-0.98898661,0.12671165,-0.07648313,0
