3.6573887,-0.11886358,-2.807013,0.84726709,0.16149402,-0.50602156,0
1.7986846,2.0253255,-3.0291679,-0.47482526,0.65726703,-0.58526981,0
1.2283901,0.24126911,-3.3430467,-0.49765319,-0.091686338,-0.86251658,0
-2.5438223,1.0308683,-0.60299045,-0.49657118,0.57901078,-0.64665556,0
3.3887496,0.8115716,-2.9598708,0.84726709,0.16149402,-0.50602156,0
-1.1948941,0.62166023,-1.802295,-0.53106409,0.27629349,-0.80101997,0
-0.042777538,2.1628578,0.61863875,-0.019012272,0.96127015,0.27495056,0
-3.7071238,-0.58685064,2.498513,-0.84726709,-0.16149402,0.50602156,0
3.4038179,-0.54881811,-3.3688016,0.84726709,0.16149402,-0.50602156,0
3.4494951,0.6917367,-2.8964055,0.84726709,0.16149402,-0.50602156,0
-3.5545654,-0.64772654,2.734524,-0.84726709,-0.16149402,0.50602156,0
4.5752454,1.2557397,-0.83148474,0.84726709,0.16149402,-0.50602156,0
4.5640664,0.73904777,-0.10709378,0.50695992,0.038456276,0.86111134,0
2.3105087,2.7305293,-1.5843539,-0.17822248,0.98386663,0.015585363,0
-3.2828045,-2.3846672,2.635217,-0.84726709,-0.16149402,0.50602156,0
-3.8996854,-1.8359637,1.7774465,-0.84726709,-0.16149402,0.50602156,0
-1.6448324,1.8887718,0.023437023,-0.31664884,0.91843879,-0.23707235,0
2.085052,-0.8029722,1.108285,0.52146828,-0.43411407,0.73458552,0
2.6367776,-1.7839255,-1.4776509,0.15755832,-0.98619545,-0.050927997,0
4.8774061,0.91065693,-0.4356865,0.84726709,0.16149402,-0.50602156,0
-2.9290638,0.093604088,4.0184369,-0.84726709,-0.16149402,0.50602156,0
-0.24703467,0.13155639,2.7286024,0.48095566,0.17106962,0.85989356,0
-3.583967,1.5330133,1.2377226,-0.30679035,0.92647439,-0.21800131,0
-2.5242212,-2.7200737,1.2031049,0.07814157,-0.98019129,-0.18198502,0
-4.1673956,-1.3637872,1.4798927,-0.84726709,-0.16149402,0.50602156,0
-4.086112,1.3545089,2.4835212,-0.84726709,-0.16149402,0.50602156,0
3.1163318,0.96186924,-3.368032,0.84726709,0.16149402,-0.50602156,0
-3.196749,-0.25772977,-0.70711333,-0.51992208,0.057161748,-0.85229897,0
-4.8252535,0.67307043,1.0284482,-0.84726709,-0.16149402,0.50602156,0
2.2810969,1.3199341,0.9463883,0.38610226,0.46699059,0.79551542,0
-4.3243852,-2.0628834,0.99392176,-0.84726709,-0.16149402,0.50602156,0
2.247299,-0.9496994,-3.2745035,-0.28440052,-0.66667414,-0.68895704,0
-0.25776005,-1.9680324,-1.0596727,-0.11456013,-0.87468117,-0.47096568,0
2.9717779,-0.13370943,-3.959717,0.84726709,0.16149402,-0.50602156,0
-2.6989241,-2.0381899,-0.16837549,-0.24656695,-0.72422332,-0.64397597,0
-2.7027216,-2.3342063,3.3992441,0.45076525,-0.72254914,0.52415001,0
2.7570765,0.4094348,-4.145865,0.84726709,0.16149402,-0.50602156,0
-3.0916624,-1.3620917,-0.52431893,-0.40475422,-0.42061648,-0.81194568,0
-3.5227728,-1.5206611,2.5091646,-0.84726709,-0.16149402,0.50602156,0
-0.91490448,1.8107196,1.629775,0.085713208,0.89860666,0.43030098,0
1.192827,1.0490147,1.6323543,0.39682451,0.440817,0.80511522,0
1.0765908,0.40857935,1.9330068,0.47848481,0.18159081,0.85911411,0
-0.77469516,2.0078814,-0.65632164,-0.34430891,0.89239174,-0.29169858,0
-0.017142564,-0.063573122,-2.5908659,-0.49197084,-0.12057492,-0.86222178,0
-1.2248633,1.7376902,1.8436446,0.092039704,0.8936128,0.4393003,0
-2.2149777,-0.64036751,3.94361,0.51264739,0.00074467435,0.85859889,0
-0.98145247,-1.9578056,-0.87402046,-0.17055333,-0.81950182,-0.54710889,0
-1.8550775,-1.689651,3.3735595,0.51296413,-0.4960317,0.7005856,0
-4.8861876,-0.11793327,0.67397702,-0.84726709,-0.16149402,0.50602156,0
-3.1699305,1.1709785,3.3467042,0.16900849,0.82118571,0.54505974,0
-3.7383537,-2.5674992,0.90610158,-0.13997644,-0.85110146,-0.50599676,0
3.4956169,-1.219676,-3.3609228,-0.12791705,-0.86258674,-0.4894703,0
-1.0286503,-2.3118656,-0.15248775,-0.017452955,-0.94368172,-0.33039358,0
-3.5961313,-1.4925587,2.3953042,-0.84726709,-0.16149402,0.50602156,0
-4.3239841,0.54145813,1.8257543,-0.84726709,-0.16149402,0.50602156,0
-4.399394,-1.188261,1.1474603,-0.84726709,-0.16149402,0.50602156,0
4.5231571,-0.85490131,-1.592299,0.84726709,0.16149402,-0.50602156,0
4.2879496,2.4060812,-0.85638392,0.22818279,0.74961436,0.62129778,0
0.48176324,2.2959394,-1.2395357,-0.31540418,0.91948766,-0.23465359,0
-4.3912668,-2.0663893,0.88081837,-0.84726709,-0.16149402,0.50602156,0
4.1813946,-1.1303606,-2.2524462,0.84726709,0.16149402,-0.50602156,0
-2.951237,-0.54220963,3.7783937,-0.84726709,-0.16149402,0.50602156,0
-1.7983226,1.4753828,2.4609025,0.15370053,0.83736455,0.52459192,0
-1.1801444,-1.0099182,-1.6596028,-0.40280393,-0.42565489,-0.81028807,0
2.0822742,2.1051512,0.30653298,0.19149584,0.79572582,0.57458639,0
1.0514872,-1.6967932,-1.8811888,-0.12342131,-0.86673051,-0.48326519,0
-3.5253487,-2.7873747,2.1005864,-0.84726709,-0.16149402,0.50602156,0
2.7009139,-1.2114794,0.29106188,0.4678154,-0.67807132,0.56689316,0
-2.9495075,-1.0503364,3.6191235,-0.84726709,-0.16149402,0.50602156,0
4.8621221,0.47403193,-0.60062414,0.84726709,0.16149402,-0.50602156,0
-3.54831,-1.3295102,2.5274107,-0.84726709,-0.16149402,0.50602156,0
3.4743817,1.0371265,-2.7445064,0.84726709,0.16149402,-0.50602156,0
2.3646634,1.5226099,-3.8353772,-0.52690542,0.37596515,-0.7622472,0
-3.2588043,0.18683624,3.4960837,-0.84726709,-0.16149402,0.50602156,0
-2.3424578,-0.16197944,-1.2206744,-0.51648003,0.028003352,-0.85584122,0
-3.8095248,0.79015923,2.7665212,-0.84726709,-0.16149402,0.50602156,0
2.6162434,-1.7631032,-1.725967,0.10640079,-0.98495245,-0.13618791,0
-3.6539531,0.83063984,3.0399249,-0.84726709,-0.16149402,0.50602156,0
-4.0081682,1.5252786,2.0562565,-0.2035417,0.97865206,-0.028472543,0
3.7994981,1.2016377,-2.1476386,0.84726709,0.16149402,-0.50602156,0
3.3187337,2.8021424,-2.4418235,0.84726709,0.16149402,-0.50602156,0
-0.92030513,2.1073751,0.51282954,-0.14583743,0.98677611,0.070738494,0
-3.292151,-0.21473885,3.312088,-0.84726709,-0.16149402,0.50602156,0
1.2787175,-0.52022505,-3.1390429,-0.40616116,-0.41695255,-0.81313193,0
-1.4676503,-0.11755919,3.460809,0.48256755,0.16406168,0.86035585,0
3.8305118,2.3902183,-0.67277777,0.20677328,0.77723461,0.59426504,0
3.4627833,2.665076,-2.2443752,0.84726709,0.16149402,-0.50602156,0
-3.6304622,0.85596943,3.0873415,-0.84726709,-0.16149402,0.50602156,0
-3.5205054,-2.0445216,2.3457739,-0.84726709,-0.16149402,0.50602156,0
2.6120434,2.0183885,-3.6779819,-0.4960435,0.58123708,-0.64506137,0
-2.4653625,1.2368059,3.0246911,0.19199514,0.79513699,0.57523465,0
4.6697922,-1.1631069,-1.4451401,0.84726709,0.16149402,-0.50602156,0
-0.88257718,0.34719217,-2.0712368,-0.52645671,0.12872835,-0.8404001,0
-4.0423136,0.67629766,2.3404083,-0.84726709,-0.16149402,0.50602156,0
-1.8495133,-1.6792345,3.3768201,0.51364964,-0.49174282,0.70310241,0
3.2087848,1.0786929,-3.1759479,0.84726709,0.16149402,-0.50602156,0
-3.352988,-2.2222447,2.5695405,-0.84726709,-0.16149402,0.50602156,0
2.146801,2.5919907,-2.3124633,-0.32906628,0.90741056,-0.26138341,0
4.5447798,-0.56887054,-1.4648094,0.84726709,0.16149402,-0.50602156,0
3.3552022,1.4819005,0.32941926,0.39337686,0.44937089,0.80207264,0
-0.48609725,-0.24564892,-2.2956843,-0.48345608,-0.16014779,-0.86059451,0
-3.9338756,1.0193524,2.6314578,-0.84726709,-0.16149402,0.50602156,0
4.4882741,1.0017083,-0.09332484,0.48410651,0.15725902,0.86076158,0
1.9680884,0.059805572,1.443012,0.51811576,-0.041387927,0.85430855,0
-0.34406447,-2.1601815,-0.62001723,-0.029921174,-0.93663669,-0.34902155,0
-4.4085293,0.83219147,1.7769808,-0.84726709,-0.16149402,0.50602156,0
-4.1240587,-1.756413,1.427151,-0.84726709,-0.16149402,0.50602156,0
4.0256329,2.0500371,-1.4982431,0.84726709,0.16149402,-0.50602156,0
-2.2362897,-0.66963559,-1.2315282,-0.47436327,-0.19858785,-0.8576377,0
3.2532687,2.6870921,-2.5881529,0.84726709,0.16149402,-0.50602156,0
3.3403559,-0.011769772,-3.3036642,0.84726709,0.16149402,-0.50602156,0
-1.7009796,-1.2662184,3.4971802,0.5300929,-0.31762874,0.78620195,0
-1.1776375,0.20577371,-1.9061288,-0.52339447,0.091454998,-0.84716833,0
-4.2397909,1.3426123,2.2224097,-0.84726709,-0.16149402,0.50602156,0
-3.2565415,-2.795897,2.5479493,-0.84726709,-0.16149402,0.50602156,0
-3.7363482,-1.4853239,2.1628382,-0.84726709,-0.16149402,0.50602156,0
1.9689488,2.5297811,-0.52704012,-0.0073740482,0.95614475,0.29280153,0
-3.7557106,-2.6529844,1.7577652,-0.84726709,-0.16149402,0.50602156,0
3.6247282,1.399071,0.23819762,0.41482899,0.39381394,0.82026058,0
-1.7797959,1.0369458,-1.1735022,-0.50984639,0.51445818,-0.68948483,0
-1.7705237,1.8775638,0.1499958,-0.3076126,0.92582774,-0.21958429,0
-2.6821442,0.99463415,-0.52915859,-0.49764401,0.57442009,-0.64991677,0
-2.546591,1.5352914,0.070622325,-0.39923745,0.82198584,-0.40613866,0
-4.145925,-1.2264445,1.5596743,-0.84726709,-0.16149402,0.50602156,0
-3.5213025,-2.5244732,2.1912644,-0.84726709,-0.16149402,0.50602156,0
-3.2590303,0.74658442,3.6743453,-0.84726709,-0.16149402,0.50602156,0
0.16086251,-1.1858408,2.2478638,0.52061403,-0.44143555,0.73081851,0
0.22367647,-0.71741164,2.4107311,0.53103834,-0.23657914,0.8136515,0
-2.7052715,-2.5127192,3.1125021,0.40666297,-0.81007838,0.42237198,0
-4.5311413,-1.011044,0.98342407,-0.84726709,-0.16149402,0.50602156,0
-3.3976235,-0.68344021,2.9859047,-0.84726709,-0.16149402,0.50602156,0
3.3176596,1.7242861,-2.7876143,0.84726709,0.16149402,-0.50602156,0
3.4666963,2.3163073,-2.3491306,0.84726709,0.16149402,-0.50602156,0
3.2436233,0.24540997,-3.3835537,0.84726709,0.16149402,-0.50602156,0
3.0406044,0.484375,-3.6472175,0.84726709,0.16149402,-0.50602156,0
0.23820817,1.8284473,-1.9755869,-0.45776916,0.70521027,-0.5414108,0
-1.4369595,0.23875546,-1.7405599,-0.52636874,0.12751471,-0.84064019,0
2.4681218,-1.0751743,-3.229475,-0.24049991,-0.73277956,-0.63654822,0
0.44367695,-1.8187242,-1.5072255,-0.12096417,-0.86896384,-0.47986388,0
4.8454947,-0.12698078,-0.82027453,0.84726709,0.16149402,-0.50602156,0
-3.8177905,-2.2621758,0.51198483,-0.24360365,-0.72842455,-0.64035535,0
-3.2270889,-0.62041187,3.2915578,-0.84726709,-0.16149402,0.50602156,0
-4.6615677,-1.3325188,0.66244602,-0.84726709,-0.16149402,0.50602156,0
-4.2283635,-1.6465297,1.2875738,-0.84726709,-0.16149402,0.50602156,0
-3.5341818,-2.8331082,2.0712006,-0.84726709,-0.16149402,0.50602156,0
2.3658156,1.020403,1.051212,0.43491492,0.33599281,0.83543867,0
1.676509,-1.6621189,-2.0917842,-0.087284207,-0.89737976,-0.43253994,0
-3.9389279,0.046402931,2.3124866,-0.84726709,-0.16149402,0.50602156,0
3.4873855,-0.97293019,-0.079078853,0.48139802,-0.63608551,0.60303497,0
1.7320881,2.5788374,-0.78530216,-0.089269996,0.98240304,0.16405764,0
-2.1696661,-1.6015624,-0.80400872,-0.32787257,-0.59049952,-0.73743457,0
-3.1089454,-0.70082664,3.4637101,-0.84726709,-0.16149402,0.50602156,0
-2.6438849,-1.6333482,3.9447842,-0.84726709,-0.16149402,0.50602156,0
-4.2930431,0.54230213,1.87783,-0.84726709,-0.16149402,0.50602156,0
-3.3944221,-1.9616492,2.5833323,-0.84726709,-0.16149402,0.50602156,0
1.730242,2.6038573,-1.5951893,-0.24534637,0.96393013,-0.10316736,0
4.6271243,0.52642536,-0.97737628,0.84726709,0.16149402,-0.50602156,0
3.3659656,0.2558403,0.60345912,0.52150476,-0.072034754,0.8502022,0
4.5705385,-0.23199987,-1.314169,0.84726709,0.16149402,-0.50602156,0
-4.5639944,-0.44028997,1.1105698,-0.84726709,-0.16149402,0.50602156,0
2.5621376,2.7190149,-1.182807,-0.069454908,0.97816443,0.19588274,0
2.58917,2.1491373,-3.5308781,-0.47883219,0.6445657,-0.59603244,0
3.9225898,0.013226271,0.20884417,0.53086293,-0.22523317,0.81697881,0
3.9646506,2.7654505,-1.37203,0.84726709,0.16149402,-0.50602156,0
-2.7070284,1.3497601,2.925046,0.13583517,0.85510671,0.500341,0
4.4435959,1.9456966,-0.48566175,0.34633809,0.55433476,0.7568109,0
1.1778699,1.6477524,-2.9037259,-0.50580806,0.53614283,-0.67580247,0
-2.4888391,0.33568442,-1.0425928,-0.53116643,0.25878841,-0.80677801,0
3.0310268,0.54027891,-3.6454124,0.84726709,0.16149402,-0.50602156,0
3.3796182,1.873033,-2.6364,0.84726709,0.16149402,-0.50602156,0
3.9593201,-1.0436878,-2.596621,0.84726709,0.16149402,-0.50602156,0
-2.7000542,1.4124112,-0.0091509819,-0.42620888,0.77523196,-0.46622017,0
4.3309574,1.6519158,-1.1140757,0.84726709,0.16149402,-0.50602156,0
2.0716205,-0.69593656,1.1763968,0.52625358,-0.38449281,0.75843424,0
-2.2974401,-2.2941089,0.047645092,-0.13949716,-0.85156834,-0.50534326,0
-0.37630808,-2.209548,1.3960614,0.3531999,-0.88282096,0.30963957,0
3.391737,1.7846329,-2.6443217,0.84726709,0.16149402,-0.50602156,0
-4.4897356,-1.307008,0.17350483,-0.4504455,-0.28640798,-0.84561771,0
-4.5477285,0.24118137,0.31126362,-0.52561712,0.3922607,-0.75488943,0
3.2594552,-0.32068205,-3.53771,0.84726709,0.16149402,-0.50602156,0
-0.79032511,0.2548151,2.9949129,0.45607945,0.26713389,0.8488999,0
1.5729057,1.4999603,1.1506349,0.32526994,0.59540063,0.73464102,0
-4.8638153,-0.58511829,0.56233764,-0.84726709,-0.16149402,0.50602156,0
2.7870648,2.8216798,-1.9346443,-0.19075555,0.98161834,-0.0061171055,0
0.78996199,-0.16423416,-3.0210938,-0.46662217,-0.2288544,-0.85433567,0
-1.9985907,-2.6556416,1.1375551,0.12764412,-0.98664755,-0.10115981,0
4.0214601,1.6246784,-1.6409807,0.84726709,0.16149402,-0.50602156,0
-1.8205765,-1.8269014,3.2409348,0.50036544,-0.56235582,0.65832388,0
3.3699508,1.8151634,-2.6710563,0.84726709,0.16149402,-0.50602156,0
-3.1786048,-1.4687812,3.1019859,-0.84726709,-0.16149402,0.50602156,0
-3.0706863,-0.10295439,-0.76918525,-0.52535468,0.1142361,-0.84318,0
2.3257155,2.4003403,-2.959403,-0.41825035,0.79007703,-0.44815686,0
3.5599461,1.8002989,-2.357677,0.84726709,0.16149402,-0.50602156,0
4.0387526,0.030369759,-2.120842,0.84726709,0.16149402,-0.50602156,0
-0.0055947304,-0.8792938,-2.3094535,-0.38729367,-0.46414366,-0.79660165,0
3.4759917,1.8841814,-0.0035609007,0.32061034,0.60406005,0.72960281,0
-3.5075295,1.0642252,3.3596396,-0.84726709,-0.16149402,0.50602156,0
3.3722744,-0.39194632,-3.3715525,0.84726709,0.16149402,-0.50602156,0
3.0951633,-0.23038721,-3.7839777,0.84726709,0.16149402,-0.50602156,0
0.67115623,-1.5607238,1.5471284,0.47387531,-0.66018772,0.5827471,0
-3.4519145,-0.95204735,2.8092773,-0.84726709,-0.16149402,0.50602156,0
-4.8478899,-1.207098,0.39050013,-0.84726709,-0.16149402,0.50602156,0
3.4719558,0.99480534,-2.7620752,0.84726709,0.16149402,-0.50602156,0
-2.7821665,-1.1780119,3.8585684,-0.84726709,-0.16149402,0.50602156,0
3.6760261,2.8510003,-1.5330994,-0.0045534372,0.95483357,0.29710579,0
4.6945772,-0.61844635,-1.2298149,0.84726709,0.16149402,-0.50602156,0
-0.26561689,-1.8394684,-1.2741019,-0.16422296,-0.82634199,-0.53869236,0
-3.7032838,-1.2595365,2.2902584,-0.84726709,-0.16149402,0.50602156,0
3.4513595,-1.3767354,-0.63958633,0.39463279,-0.82904047,0.39617741,0
-0.63350648,-1.0983444,2.8448443,0.52943748,-0.33357248,0.78001624,0
-3.2740288,0.59263754,3.6001017,-0.84726709,-0.16149402,0.50602156,0
-1.1262047,-2.4545424,1.4640818,0.2870267,-0.94079375,0.18033957,0
-3.5060992,1.4183044,2.9407573,0.034461319,0.93394047,0.35576308,0
-3.5838971,-1.7977159,2.318399,-0.84726709,-0.16149402,0.50602156,0
-3.0436823,-2.1206892,3.1198425,-0.84726709,-0.16149402,0.50602156,0
3.463202,1.3463342,-2.6645434,0.84726709,0.16149402,-0.50602156,0
0.33573055,-2.1317456,-0.70191926,0.037985981,-0.96864319,-0.24553463,0
-4.4141002,0.82520866,1.7654243,-0.84726709,-0.16149402,0.50602156,0
3.3668449,2.2959294,-0.38815236,0.20860094,0.77495569,0.59659791,0
-2.8928971,-1.1511488,3.6817365,-0.84726709,-0.16149402,0.50602156,0
-4.375123,-0.88703775,0.01090017,-0.49259734,-0.11749808,-0.86228883,0
1.8496362,-1.1534791,1.0262203,0.49762636,-0.57449651,0.64986289,0
-1.1940805,-1.9255162,2.6505527,0.47242498,-0.66458309,0.57891601,0
4.5634103,0.63898253,-0.10474174,0.5134111,-0.0047318339,0.8581298,0
4.7076139,0.10361242,-0.97754586,0.84726709,0.16149402,-0.50602156,0
-2.2662516,-1.3071787,3.8603201,0.53089768,-0.28779358,0.7970711,0
2.9296846,1.9759023,-3.3569252,0.84726709,0.16149402,-0.50602156,0
-1.5277395,-1.9702973,-0.67740059,-0.20082957,-0.78454643,-0.5866465,0
-0.59904617,-0.35829937,-2.2091851,-0.47428644,-0.19889845,-0.85760814,0
-1.4971032,-2.240963,-0.24916446,-0.098927915,-0.88801455,-0.44904697,0
4.1164265,-0.12117815,-2.0391521,0.84726709,0.16149402,-0.50602156,0
-1.0795755,1.6372988,1.9911604,0.14447218,0.84668028,0.51211321,0
-0.099810839,-2.2631855,-0.21598208,0.083959579,-0.9814018,-0.17262977,0
3.7733836,1.9094772,-1.9654607,0.84726709,0.16149402,-0.50602156,0
0.11524022,-1.8060384,1.7038152,0.44894117,-0.72687542,0.51971513,0
2.6784358,2.6302872,-2.8208141,-0.36159679,0.87319392,-0.32677168,0
-2.8968318,-1.5266895,3.5552964,-0.84726709,-0.16149402,0.50602156,0
-4.2987127,-1.0719566,1.3531557,-0.84726709,-0.16149402,0.50602156,0
3.0288715,1.6110332,-3.3072958,0.84726709,0.16149402,-0.50602156,0
3.1893048,0.34639549,-3.4422731,0.84726709,0.16149402,-0.50602156,0
3.4756072,1.3441496,-2.6444695,0.84726709,0.16149402,-0.50602156,0
2.9814773,0.43001139,0.83840764,0.5074693,0.035270832,0.86094767,0
-4.0439186,-1.3644955,1.6864123,-0.84726709,-0.16149402,0.50602156,0
3.4180408,-0.23449373,-3.244673,0.84726709,0.16149402,-0.50602156,0
-3.5083809,-1.4321671,2.5615039,-0.84726709,-0.16149402,0.50602156,0
4.2319856,0.31795216,-1.705518,0.84726709,0.16149402,-0.50602156,0
4.2152543,1.0256495,-1.5076749,0.84726709,0.16149402,-0.50602156,0
3.4509404,2.4745407,-2.3250129,0.84726709,0.16149402,-0.50602156,0
4.6379948,-0.29837227,-1.2224057,0.84726709,0.16149402,-0.50602156,0
-3.2817369,-0.20112896,3.3338685,-0.84726709,-0.16149402,0.50602156,0
-2.4171147,-2.620415,0.81189466,0.010966837,-0.95777577,-0.2873064,0
2.5986991,2.7764597,-2.0383897,-0.23139417,0.96973157,-0.077954948,0
3.3289394,2.8397501,-2.4127336,0.84726709,0.16149402,-0.50602156,0
-2.6697433,-1.3418863,-0.74402034,-0.39494053,-0.44550794,-0.80345786,0
-3.1365879,0.64977169,3.8484621,-0.84726709,-0.16149402,0.50602156,0
-2.8389261,-0.22685719,4.0670872,-0.84726709,-0.16149402,0.50602156,0
-1.3126519,1.917959,1.3869729,-0.016949475,0.9603951,0.2781252,0
-3.3692203,-2.429318,2.4762754,-0.84726709,-0.16149402,0.50602156,0
2.26019,-1.0015056,0.84314388,0.50498062,-0.54033047,0.67308056,0
-4.5808825,1.2124977,1.6097702,-0.84726709,-0.16149402,0.50602156,0
-4.3924279,0.60913706,1.732754,-0.84726709,-0.16149402,0.50602156,0
-4.7149978,0.92001629,1.2918682,-0.84726709,-0.16149402,0.50602156,0
-1.7901654,-1.6520214,3.3523812,0.51477981,-0.48446023,0.70731878,0
-3.612113,1.3601496,0.76552618,-0.3897841,0.83621138,-0.38577032,0
3.9516022,1.8883095,-1.673813,0.84726709,0.16149402,-0.50602156,0
0.32434797,-1.8355217,1.4760829,0.43356094,-0.76062495,0.483192,0
0.03303051,1.8901633,1.2571585,0.12874633,0.86181426,0.49061236,0
-2.8784478,-0.69528294,3.851418,-0.84726709,-0.16149402,0.50602156,0
4.8434157,0.26079607,-0.69999915,0.84726709,0.16149402,-0.50602156,0
-4.5029182,1.3312006,1.6826334,-0.32497191,0.9111622,-0.25333071,0
4.6697388,0.82363796,-0.81116974,0.84726709,0.16149402,-0.50602156,0
1.2037631,1.6384301,1.1829823,0.2767244,0.67896122,0.68002582,0
3.859843,0.61631966,-2.2333992,0.84726709,0.16149402,-0.50602156,0
-4.994554,0.018346786,0.53602457,-0.84726709,-0.16149402,0.50602156,0
-4.4674592,-1.1250505,1.0536675,-0.84726709,-0.16149402,0.50602156,0
4.4884081,-0.88441944,-1.6599019,0.84726709,0.16149402,-0.50602156,0
4.0284567,1.1997261,-1.7648871,0.84726709,0.16149402,-0.50602156,0
1.8414252,1.9718692,0.56533682,0.21871477,0.76208067,0.60942328,0
3.6935432,1.8856106,-0.10099304,0.32923776,0.58791012,0.73889393,0
-1.1253412,-1.037354,-1.6720006,-0.39662588,-0.44131359,-0.80494106,0
-2.0938425,1.7316201,1.9737225,0.0082296729,0.94855469,0.31650567,0
0.75337112,-1.7815589,1.174943,0.42669457,-0.77429426,0.46733266,0
2.3722084,-1.834516,-1.3164704,0.15817213,-0.98615044,-0.049885929,0
1.557003,-0.51829553,-3.2782543,-0.39790958,-0.43809691,-0.80606389,0
-0.50915551,2.0487435,-0.84415364,-0.34928781,0.88710886,-0.30172104,0
3.1555178,1.7193837,-3.0606635,0.84726709,0.16149402,-0.50602156,0
0.11224139,1.5031382,1.7594628,0.25792867,0.70771581,0.65773165,0
1.2605424,2.1213572,0.52890742,0.12984276,0.86078894,0.49212086,0
2.5891733,2.656291,-0.92499077,-0.013123691,0.95873398,0.28400081,0
-2.8473001,-2.3112838,0.23710203,-0.17130136,-0.81868297,-0.54810011,0
-3.0767615,1.3771777,0.27884912,-0.41642526,0.79334968,-0.44405651,0
0.92285573,-1.8095284,0.96770024,0.41015816,-0.8042348,0.43008906,0
-2.4629686,0.9866662,-0.7026214,-0.50272918,0.55134237,-0.66579652,0
-4.4779406,-0.54035234,1.2227201,-0.84726709,-0.16149402,0.50602156,0
-2.3788667,-2.4066722,2.9978192,0.41929081,-0.78819025,0.45050102,0
4.0872788,2.2284956,-1.3380706,0.84726709,0.16149402,-0.50602156,0
3.5105529,-0.18986225,-3.0755289,0.84726709,0.16149402,-0.50602156,0
-4.4956779,0.83496523,0.74068081,-0.47337484,0.66171306,-0.58142233,0
1.3350618,-2.0151393,-0.19647241,0.25251824,-0.96058404,0.11624366,0
-1.7448208,1.089344,-1.1592307,-0.5059278,0.53553027,-0.67619848,0
-0.25296611,-0.75587094,2.7098281,0.53060138,-0.21337719,0.8203246,0
4.6806002,0.3212018,-0.95333421,0.84726709,0.16149402,-0.50602156,0
-4.1592422,-1.3820071,1.4877304,-0.84726709,-0.16149402,0.50602156,0
2.8960435,0.53508806,-3.8730814,0.84726709,0.16149402,-0.50602156,0
-3.1930282,0.96561527,-0.16080582,-0.48975214,0.60630602,-0.62652677,0
-3.6923113,1.4468503,1.0713061,-0.34684706,0.88972288,-0.29679984,0
-4.0943766,1.4465628,2.4990618,-0.84726709,-0.16149402,0.50602156,0
4.9174438,0.1820817,-0.6011703,0.84726709,0.16149402,-0.50602156,0
3.4189758,2.7189708,-2.3005245,0.84726709,0.16149402,-0.50602156,0
-4.4000783,-1.8085396,0.94835621,-0.84726709,-0.16149402,0.50602156,0
-4.1745334,-2.1142662,1.2284303,-0.84726709,-0.16149402,0.50602156,0
1.314563,-1.9328833,-1.3334736,0.028290987,-0.96502835,-0.26061392,0
2.4750755,2.7493379,-2.0052152,-0.23892522,0.96671468,-0.091527283,0
-1.1633005,-2.3794847,0.056605577,0.0096172094,-0.9571681,-0.28937212,0
-3.3253596,0.053067207,3.3419538,-0.84726709,-0.16149402,0.50602156,0
-3.4731958,-0.60672426,2.8838525,-0.84726709,-0.16149402,0.50602156,0
2.8248765,1.05828,-3.8252673,0.84726709,0.16149402,-0.50602156,0
3.236372,0.059873104,-3.4549077,0.84726709,0.16149402,-0.50602156,0
4.7118192,-0.692626,-1.2246201,0.84726709,0.16149402,-0.50602156,0
-3.3736606,1.1184351,0.15392876,-0.46172345,0.69487029,-0.55133164,0
3.0008929,2.3220038,-3.1272397,0.84726709,0.16149402,-0.50602156,0
-2.6556005,0.6483531,3.7122219,0.33493412,0.57696283,0.74493814,0
-3.0553553,0.70737267,-0.47267258,-0.5162102,0.47482565,-0.71278858,0
2.2741914,0.76517254,1.1864614,0.4647187,0.23599958,0.85342884,0
4.478416,1.8815534,-0.79388762,0.84726709,0.16149402,-0.50602156,0
3.6555796,-1.4484055,-1.0332212,0.34959269,-0.88677925,0.30233645,0
-1.4934485,-2.4311011,2.0382762,0.34896302,-0.88745946,0.30106521,0
4.0918436,-0.548069,-2.2165537,0.84726709,0.16149402,-0.50602156,0
3.8993733,-0.89852238,-2.6506653,0.84726709,0.16149402,-0.50602156,0
-3.5762844,-1.8047116,2.3289132,-0.84726709,-0.16149402,0.50602156,0
1.4183748,-1.9128864,-1.3962511,0.028130233,-0.9649657,-0.26086333,0
-3.4940989,-0.58997822,2.854198,-0.84726709,-0.16149402,0.50602156,0
-4.7067156,-1.3910558,0.56816977,-0.84726709,-0.16149402,0.50602156,0
4.1726413,0.23524404,0.098899126,0.5277667,-0.14833154,0.83633733,0
1.6691961,0.50452298,1.5826019,0.48019046,0.17435575,0.8596611,0
3.5475006,-0.54612923,-3.1273651,0.84726709,0.16149402,-0.50602156,0
0.63737547,2.2453296,-1.590832,-0.35975274,0.87535894,-0.32299304,0
4.0802488,1.8349426,-1.4754424,0.84726709,0.16149402,-0.50602156,0
-1.2955666,-1.5146084,-1.2596835,-0.31038129,-0.62256753,-0.71838212,0
-1.9159977,-2.6505477,1.2203569,0.15346885,-0.98645794,-0.057859063,0
-3.6263821,-0.2330637,2.7466133,-0.84726709,-0.16149402,0.50602156,0
-4.4431725,0.95146561,1.7570405,-0.84726709,-0.16149402,0.50602156,0
-1.8783979,1.3380725,-0.81762373,-0.47271061,0.66372353,-0.57966852,0
1.2082834,-0.072032213,-3.2742319,-0.46800914,-0.22357768,-0.85497391,0
-2.7369785,1.6139026,0.45697165,-0.35427308,0.88162315,-0.31181878,0
4.2605028,-0.51739311,-1.9243654,0.84726709,0.16149402,-0.50602156,0
2.7048881,1.369926,-3.9267118,0.84726709,0.16149402,-0.50602156,0
-1.5977042,1.4634755,2.4184742,0.17149639,0.81846911,0.5483585,0
-0.9463557,-0.30892262,-2.0252006,-0.48578185,-0.14972252,-0.86116153,0
-4.974484,-0.41668129,0.43079239,-0.84726709,-0.16149402,0.50602156,0
-3.1903741,-0.026268005,3.54265,-0.84726709,-0.16149402,0.50602156,0
-3.9588711,-0.27470064,2.1766164,-0.84726709,-0.16149402,0.50602156,0
-4.7223158,-1.4147508,0.53448695,-0.84726709,-0.16149402,0.50602156,0
4.0082364,-0.82461357,-2.4448006,0.84726709,0.16149402,-0.50602156,0
4.2468672,-1.0892129,-2.1296899,0.84726709,0.16149402,-0.50602156,0
-0.69482064,-1.7992628,-1.191151,-0.20468158,-0.77982491,-0.59158957,0
-3.7112091,-0.27999306,2.5896049,-0.84726709,-0.16149402,0.50602156,0
3.7495689,2.1642439,-1.9240273,0.84726709,0.16149402,-0.50602156,0
2.1844637,2.7068481,-1.5696442,-0.18978482,0.98181558,-0.0044288635,0
-4.3199406,1.2965727,2.0735157,-0.84726709,-0.16149402,0.50602156,0
-2.6044457,-0.11948788,-1.0589945,-0.52110791,0.068200268,-0.85076159,0
-1.5657656,1.9896585,0.80329424,-0.16426831,0.98562396,0.039510667,0
3.9395046,-0.47424221,-0.014136553,0.52013952,-0.44536275,0.72877073,0
1.8752228,-1.4567127,0.67185718,0.45175156,-0.72017848,0.52655804,0
0.41824859,-0.35342264,-2.7637808,-0.45269725,-0.27879483,-0.84695846,0
0.83210373,-1.6883681,1.2487308,0.44496027,-0.73606437,0.51011705,0
-2.773123,1.7401805,1.0483387,-0.25380021,0.95995927,-0.11858952,0
-4.0002866,1.3740129,2.6334496,-0.84726709,-0.16149402,0.50602156,0
3.5866952,1.9553401,-2.2634094,0.84726709,0.16149402,-0.50602156,0
-2.4299383,-1.0322011,-1.0130858,-0.43497321,-0.33581546,-0.83547968,0
-3.5955355,-1.7568958,2.3119392,-0.84726709,-0.16149402,0.50602156,0
-3.5549002,1.2173734,3.3292007,-0.84726709,-0.16149402,0.50602156,0
-3.5486193,1.5569282,2.4533482,-0.07217592,0.9788276,0.1915383,0
2.9778752,1.0647211,-3.567035,0.84726709,0.16149402,-0.50602156,0
-3.3714216,0.87010193,3.5255809,-0.84726709,-0.16149402,0.50602156,0
-3.6394148,-1.8995874,2.19293,-0.84726709,-0.16149402,0.50602156,0
1.0691271,2.4635835,-0.46105266,-0.10360742,0.98460805,0.14075518,0
-3.2610192,1.2670865,3.2160535,0.12684649,0.86358023,0.48799485,0
-4.3839245,0.58019257,1.7377539,-0.84726709,-0.16149402,0.50602156,0
-0.29555905,2.2147422,-0.41200602,-0.25025338,0.96166795,-0.11210561,0
-1.6127607,1.4963508,-0.84270191,-0.45380497,0.71516985,-0.53159475,0
4.1309443,2.4090476,-0.80303407,0.21848053,0.762384,0.60912794,0
3.5676339,2.8591895,-2.0068662,0.84726709,0.16149402,-0.50602156,0
-3.1027315,-0.70697737,3.472152,-0.84726709,-0.16149402,0.50602156,0
3.6949768,1.7980151,-0.034910381,0.34733635,0.55230707,0.75783527,0
-4.3559017,0.60164595,1.7915205,-0.84726709,-0.16149402,0.50602156,0
2.7242765,0.31774235,-4.2034268,-0.478672,-0.18080248,-0.85917604,0
-3.8978665,-0.40750122,2.2363777,-0.84726709,-0.16149402,0.50602156,0
0.16284597,-1.8189504,1.6440723,0.44431192,-0.73752928,0.50856388,0
4.0029554,-1.1655927,-2.5624652,0.84726709,0.16149402,-0.50602156,0
2.9096389,-1.3423257,-0.067287564,0.43366238,-0.76041698,0.48342821,0
3.7974553,-0.4793191,0.083946884,0.52132571,-0.43535945,0.73394924,0
-0.96008104,1.9228477,-0.68408465,-0.36767447,0.86585009,-0.33929163,0
-0.4488045,-1.6153505,2.3775899,0.49500373,-0.585563,0.64194012,0
3.6742895,1.9527659,-2.1175656,0.84726709,0.16149402,-0.50602156,0
1.2036312,-1.9112809,0.44420743,0.35180265,-0.88436669,0.30680674,0
4.2600255,-1.4703407,-2.073276,0.22853929,-0.9708063,0.072831869,0
-3.9381704,-1.5277638,1.8113682,-0.84726709,-0.16149402,0.50602156,0
-2.9042134,-0.54062986,3.8576331,-0.84726709,-0.16149402,0.50602156,0
2.9666715,-0.66135025,-3.8399551,-0.31947654,-0.60614538,-0.72836983,0
-0.49152583,-0.72301018,-2.1455517,-0.42649961,-0.36099216,-0.82932663,0
-2.651875,0.44135952,3.8551266,0.37521946,0.49232909,0.78538036,0
0.035266757,-1.2976824,2.266526,0.51522249,-0.48153102,0.70899487,0
-2.1218116,1.78264,0.25191706,-0.32646871,0.90980411,-0.25627017,0
3.8429058,-0.69227695,-2.6793904,0.84726709,0.16149402,-0.50602156,0
0.89955008,0.97498071,1.8173392,0.3998,0.43332475,0.8077063,0
-3.6098273,-0.29025078,2.7560818,-0.84726709,-0.16149402,0.50602156,0
1.8837205,-1.6929486,0.25942969,0.38859561,-0.83792996,0.38323188,0
3.9958849,1.3712718,-1.7646766,0.84726709,0.16149402,-0.50602156,0
-3.9434214,0.18040705,2.3477297,-0.84726709,-0.16149402,0.50602156,0
0.26068825,1.3088428,-2.4731135,-0.51815498,0.46086064,-0.72050178,0
-3.2019975,1.6470494,2.1065249,-0.10027885,0.98416138,0.1461859,0
4.5149107,0.4778018,-1.1807809,0.84726709,0.16149402,-0.50602156,0
3.4015884,2.7798617,-2.310204,0.84726709,0.16149402,-0.50602156,0
-4.432734,-1.3296742,1.0465047,-0.84726709,-0.16149402,0.50602156,0
-4.759028,-1.5541553,0.42852676,-0.84726709,-0.16149402,0.50602156,0
-3.1790657,1.6397967,2.1651731,-0.085786819,0.98175752,0.16968378,0
-3.7922297,-2.0672047,1.8835677,-0.84726709,-0.16149402,0.50602156,0
-2.9802432,-2.6163025,3.0678921,-0.84726709,-0.16149402,0.50602156,0
1.5785644,2.4381807,-2.115591,-0.35345271,0.88253963,-0.31015271,0
2.8473353,2.0819483,-3.4609642,0.84726709,0.16149402,-0.50602156,0
0.71257484,-1.0593972,-2.5196061,-0.32633078,-0.59340852,-0.73578143,0
4.4345198,-0.89232254,-0.75791836,0.46590933,-0.68344706,0.56198609,0
-4.0210629,0.295012,2.2543058,-0.84726709,-0.16149402,0.50602156,0
-2.6377861,0.55532098,-0.85445082,-0.52735001,0.36974993,-0.76497519,0
-1.5917633,0.63316858,-1.5328091,-0.5301789,0.31519723,-0.78712201,0
-4.7787976,-0.47654819,0.73933715,-0.84726709,-0.16149402,0.50602156,0
-3.7178617,0.56066298,-0.090426028,-0.51752645,0.4654938,-0.71797073,0
-4.5256629,-0.39853954,1.1880742,-0.84726709,-0.16149402,0.50602156,0
0.92845094,-1.2572489,-2.430907,-0.27032763,-0.68895584,-0.6725049,0
2.5302739,-1.5027025,-2.594785,-0.085767508,-0.8985644,-0.43037844,0
-3.7598026,-1.1367593,2.2348082,-0.84726709,-0.16149402,0.50602156,0
4.1338544,1.069675,-1.629918,0.84726709,0.16149402,-0.50602156,0
-2.7009072,-1.3379922,-0.73083121,-0.3965719,-0.4414483,-0.80489379,0
-4.6120534,1.1676087,1.543252,-0.84726709,-0.16149402,0.50602156,0
3.1026616,-0.014216423,0.72929287,0.52888817,-0.16834716,0.83182728,0
3.8866968,2.4076202,-1.6167524,0.84726709,0.16149402,-0.50602156,0
-4.0437069,-1.0506995,-0.14326301,-0.47046235,-0.21409306,-0.85605454,0
3.7208266,0.10705566,-2.6286936,0.84726709,0.16149402,-0.50602156,0
0.27852106,-2.2237179,0.36865616,0.24040258,-0.96609145,0.094199896,0
4.2844009,-0.8416276,-1.9878283,0.84726709,0.16149402,-0.50602156,0
-3.2895305,-1.4484422,2.9227464,-0.84726709,-0.16149402,0.50602156,0
-4.4067569,-0.74980307,1.2750627,-0.84726709,-0.16149402,0.50602156,0
-3.0206413,-1.1724969,-0.64894855,-0.43112645,-0.34739524,-0.83273435,0
-2.665077,1.6671045,0.53511316,-0.33360249,0.90311706,-0.27034903,0
3.0369184,0.47809124,-3.6553946,0.84726709,0.16149402,-0.50602156,0
-2.8095484,-1.5806866,3.6842089,-0.84726709,-0.16149402,0.50602156,0
-4.8079724,0.059834003,0.86167192,-0.84726709,-0.16149402,0.50602156,0
3.2782862,0.31568861,-3.3030858,0.84726709,0.16149402,-0.50602156,0
-3.8161449,-0.81984043,2.2416136,-0.84726709,-0.16149402,0.50602156,0
4.1099329,-0.70433378,-0.30771688,0.49956137,-0.56598556,0.65581918,0
4.1091022,1.0824537,-1.6672839,0.84726709,0.16149402,-0.50602156,0
-3.330071,-1.0262203,2.9896166,-0.84726709,-0.16149402,0.50602156,0
3.4789259,1.2368689,-2.6731513,0.84726709,0.16149402,-0.50602156,0
3.2508168,0.67126322,-3.2356002,0.84726709,0.16149402,-0.50602156,0
-3.056463,0.39521313,3.9013801,-0.84726709,-0.16149402,0.50602156,0
2.4733026,0.96161461,-4.079195,-0.52562636,0.11767413,-0.8425377,0
-4.0158505,-0.86088753,1.8941329,-0.84726709,-0.16149402,0.50602156,0
2.6139903,1.3486634,0.76757431,0.39202544,0.45268753,0.80086827,0
-3.1269197,-1.4409689,-0.46431059,-0.3929441,-0.45043513,-0.8016876,0
4.7425485,-0.26040363,-1.0352261,0.84726709,0.16149402,-0.50602156,0
-2.9433112,-0.29970455,3.8690588,-0.84726709,-0.16149402,0.50602156,0
2.2060585,-1.8620818,-0.84982789,0.22793251,-0.97103,0.071744382,0
3.7315588,2.5407159,-1.8340354,0.84726709,0.16149402,-0.50602156,0
-4.9477301,-0.5459218,0.43434158,-0.84726709,-0.16149402,0.50602156,0
-2.9507878,-0.27546549,3.8642762,-0.84726709,-0.16149402,0.50602156,0
3.0720632,1.2123909,-3.3622015,0.84726709,0.16149402,-0.50602156,0
-3.3164616,-2.7884789,2.4499879,-0.84726709,-0.16149402,0.50602156,0
-4.8136926,0.85878611,1.1070753,-0.84726709,-0.16149402,0.50602156,0
-1.8968775,-1.1342251,3.6734922,0.53109753,-0.24217844,0.81196368,0
3.8765817,1.4120109,-1.9514328,0.84726709,0.16149402,-0.50602156,0
-4.2623134,-1.5587127,1.2587569,-0.84726709,-0.16149402,0.50602156,0
3.9769101,1.6855438,-0.091869771,0.37867552,0.4844096,0.78863943,0
-2.9026251,-2.5858545,0.75426006,-0.06299758,-0.91538435,-0.39762107,0
-0.6862992,2.0274453,-0.70076203,-0.34288239,0.89387029,-0.28883797,0
-3.9580491,1.0803928,2.6104631,-0.84726709,-0.16149402,0.50602156,0
3.7210233,0.0044813156,-2.6611004,0.84726709,0.16149402,-0.50602156,0
-3.4944079,-1.4579868,2.5766604,-0.84726709,-0.16149402,0.50602156,0
3.3531034,-0.080872059,-3.3043745,0.84726709,0.16149402,-0.50602156,0
-4.8483868,-0.59524345,0.58493787,-0.84726709,-0.16149402,0.50602156,0
3.4288936,-1.4046197,-2.9665184,-0.049883544,-0.92425793,-0.37849534,0
1.6419117,-1.4617455,0.86349869,0.45931873,-0.70120817,0.5452826,0
1.7456474,-0.14777291,1.5607986,0.52529037,-0.11343368,0.84332842,0
0.94416785,0.73239684,-3.1562018,-0.5275569,0.14497027,-0.83705872,0
-3.22082,-0.5570116,3.322289,-0.84726709,-0.16149402,0.50602156,0
-4.4093394,-1.9459729,0.88898885,-0.84726709,-0.16149402,0.50602156,0
-2.8531361,-2.421819,3.3427839,-0.84726709,-0.16149402,0.50602156,0
-1.7070881,1.4994829,2.3956532,0.15124208,0.83987808,0.52127767,0
-4.6717734,0.19816446,1.1338665,-0.84726709,-0.16149402,0.50602156,0
-2.2146213,-2.5851283,0.7020663,0.013284922,-0.95880502,-0.28375357,0
-0.55824637,-1.6245438,-1.4531752,-0.24810952,-0.72201943,-0.64585567,0
-3.7701347,0.24392557,2.6581476,-0.84726709,-0.16149402,0.50602156,0
3.923748,-0.89069223,-2.6073539,0.84726709,0.16149402,-0.50602156,0
3.480691,-0.95244956,-0.052471042,0.48438317,-0.6258468,0.61130083,0
0.3884666,2.3123493,-1.0316296,-0.28848469,0.93981552,-0.18309301,0
-4.5323987,-1.0892892,0.95634699,-0.84726709,-0.16149402,0.50602156,0
3.3763371,-0.69299364,-3.4608274,0.84726709,0.16149402,-0.50602156,0
-0.11358905,-1.7679957,-1.4283086,-0.17888975,-0.8102507,-0.55811477,0
4.4674277,-1.2519832,-1.8123374,0.84726709,0.16149402,-0.50602156,0
-3.9812741,-1.4760897,1.7556882,-0.84726709,-0.16149402,0.50602156,0
-3.5412097,-0.92651272,2.6679137,-0.84726709,-0.16149402,0.50602156,0
2.0201254,2.6743841,-1.5413665,-0.20302951,0.9787842,-0.027572751,0
3.5206857,-0.36483574,-3.1144052,0.84726709,0.16149402,-0.50602156,0
3.7476878,0.27792501,-2.5291858,0.84726709,0.16149402,-0.50602156,0
4.6920938,-0.67015505,-1.2504762,0.84726709,0.16149402,-0.50602156,0
2.3100779,-1.4935859,0.23060679,0.42444268,-0.77861011,0.46218467,0
-3.300982,-1.3955657,2.9204473,-0.84726709,-0.16149402,0.50602156,0
1.8613675,1.243665,-3.6135163,-0.53077734,0.2938875,-0.79492486,0
-3.7700534,-2.0589883,1.9233204,-0.84726709,-0.16149402,0.50602156,0
0.24560583,-0.56612921,-2.5928507,-0.42883992,-0.35415858,-0.83106434,0
2.1497703,2.5166354,-0.49194968,0.022785902,0.94073284,0.33838174,0
4.1517329,0.80764246,-1.6836089,0.84726709,0.16149402,-0.50602156,0
3.330265,-0.92998743,-3.6136045,0.84726709,0.16149402,-0.50602156,0
-3.0392611,-0.43444824,3.665401,-0.84726709,-0.16149402,0.50602156,0
4.8362961,-0.3193574,-0.89707291,0.84726709,0.16149402,-0.50602156,0
-4.6585574,-1.329911,0.66831797,-0.84726709,-0.16149402,0.50602156,0
-4.9650989,-0.1146369,0.54290235,-0.84726709,-0.16149402,0.50602156,0
-2.7553878,-1.635814,3.7572994,-0.84726709,-0.16149402,0.50602156,0
2.8173552,2.0602281,-3.5180945,0.84726709,0.16149402,-0.50602156,0
-3.5806303,-2.6847048,2.040791,-0.84726709,-0.16149402,0.50602156,0
-2.1787004,-0.85807806,-1.2095749,-0.45149904,-0.28286058,-0.84624964,0
-3.7354519,-1.2057419,-0.2621088,-0.44502628,-0.30426598,-0.84224331,0
-4.2901864,0.97961283,2.0221791,-0.84726709,-0.16149402,0.50602156,0
-4.6723375,-0.95667601,0.76436138,-0.84726709,-0.16149402,0.50602156,0
-1.1889074,-2.4876988,0.54167199,0.10541618,-0.98483437,-0.13779902,0
4.8907208,-0.11830902,-0.74178219,0.84726709,0.16149402,-0.50602156,0
4.6808319,1.0197201,-0.73001826,0.84726709,0.16149402,-0.50602156,0
1.0493233,-1.762472,-1.7563159,-0.095904112,-0.89049286,-0.44477493,0
-3.0051084,-2.055171,3.2053409,-0.84726709,-0.16149402,0.50602156,0
-4.0603414,-0.68599987,1.8754528,-0.84726709,-0.16149402,0.50602156,0
2.1587648,-1.0440621,-3.1436188,-0.26482373,-0.69738156,-0.66597837,0
3.3508096,2.5171521,-2.4790692,0.84726709,0.16149402,-0.50602156,0
4.6028452,0.83155751,-0.13586235,0.50071496,0.075096436,0.86234856,0
3.5545642,1.1718566,0.36992776,0.44494936,0.30451483,0.84219396,0
-4.0380116,0.34506798,2.2419014,-0.84726709,-0.16149402,0.50602156,0
-2.0586867,1.4511516,2.5751352,0.14429277,0.8468582,0.51186967,0
3.0049171,2.0844738,-3.1963084,0.84726709,0.16149402,-0.50602156,0
-0.89461803,0.44866368,-2.0452242,-0.52918059,0.17432761,-0.83040816,0
2.8645687,1.6612659,-3.5663676,0.84726709,0.16149402,-0.50602156,0
-4.2740898,0.51692152,1.9014654,-0.84726709,-0.16149402,0.50602156,0
4.7552862,-0.70985937,-1.1573396,0.84726709,0.16149402,-0.50602156,0
2.959404,1.8905644,-3.334399,0.84726709,0.16149402,-0.50602156,0
2.8592649,1.6975571,0.4200424,0.33534247,0.57616925,0.7453686,0
4.3703661,-0.71736813,-0.51964092,0.49262908,-0.59516221,0.63490033,0
0.4514581,-2.1327498,0.6217128,0.3047756,-0.92804152,0.2141276,0
4.0293899,0.36167336,-2.0307851,0.84726709,0.16149402,-0.50602156,0
0.30137086,-1.9518198,1.2931274,0.40289012,-0.81621248,0.41409713,0
-4.2571535,-0.21723652,-0.042055644,-0.52862769,0.16333009,-0.8329922,0
-4.2405105,0.25456953,1.8739616,-0.84726709,-0.16149402,0.50602156,0
-2.1302805,-2.6335862,0.90953505,0.066340685,-0.97737402,-0.20084485,0
-3.9613545,-0.6844635,2.0416842,-0.84726709,-0.16149402,0.50602156,0
-3.0920103,-1.1684279,3.342833,-0.84726709,-0.16149402,0.50602156,0
3.6770043,0.09842968,-2.7048211,0.84726709,0.16149402,-0.50602156,0
-0.71813196,1.7229602,-1.2980293,-0.44216618,0.74231625,-0.50344348,0
-2.1789837,-2.5114717,0.48002148,-0.029036045,-0.93715423,-0.34770468,0
3.414463,0.16790867,-3.1222389,0.84726709,0.16149402,-0.50602156,0
2.2672732,-0.58990371,1.0926965,0.52839023,-0.35353428,0.77189195,0
0.22144866,1.071087,2.0853677,0.35999781,0.52589667,0.7706064,0
4.1551046,-0.22520351,-2.0075898,0.84726709,0.16149402,-0.50602156,0
4.3618364,0.17137289,-1.5348796,0.84726709,0.16149402,-0.50602156,0
3.7666092,1.0973291,-2.235996,0.84726709,0.16149402,-0.50602156,0
-4.149941,-1.6825471,1.407388,-0.84726709,-0.16149402,0.50602156,0
-0.38761044,1.2135013,2.2476883,0.30589443,0.6304751,0.71339303,0
-1.3624979,0.76232886,-1.6330785,-0.528391,0.35352069,-0.77189773,0
4.1281261,2.4380152,-1.2028106,0.84726709,0.16149402,-0.50602156,0
3.8603158,1.6062844,0.011752784,0.38862038,0.46095577,0.79780567,0
-3.3510547,-0.3889699,3.1578574,-0.84726709,-0.16149402,0.50602156,0
-2.6127584,1.7761879,0.99985921,-0.24511874,0.96403229,-0.10275364,0
-0.11969113,1.5262268,-2.0202906,-0.49278733,0.5945344,-0.63536561,0
-1.4032168,1.3163893,-1.220377,-0.48855099,0.61081296,-0.62307733,0
-3.8719716,1.5114617,2.55691,-0.090224147,0.98257232,0.16251418,0
-1.7912023,1.6631107,-0.41263127,-0.40437225,0.81382406,-0.41734099,0
4.7387199,-0.82342339,-0.92642903,0.46775502,-0.6782434,0.56673706,0
-3.7037702,-1.6130526,2.1766217,-0.84726709,-0.16149402,0.50602156,0
-1.8073363,-2.3431966,0.024838924,-0.079401374,-0.90344894,-0.421278,0
-4.7532091,-0.74274397,0.69722748,-0.84726709,-0.16149402,0.50602156,0
3.2289238,-0.27316618,-3.5736661,0.84726709,0.16149402,-0.50602156,0
-3.3891923,-0.35850859,3.1037221,-0.84726709,-0.16149402,0.50602156,0
-4.8776016,0.21949244,0.79604006,-0.84726709,-0.16149402,0.50602156,0
-1.4356359,0.83961916,3.0149224,0.34341007,0.560238,0.75379229,0
-1.6809592,1.7130532,1.9812653,0.062569559,0.91568327,0.39699987,0
3.4157517,-0.81931591,-3.435148,0.84726709,0.16149402,-0.50602156,0
2.7087965,1.1954255,-3.9758587,0.84726709,0.16149402,-0.50602156,0
-0.33416373,-1.0577556,2.6589308,0.52907962,-0.34095973,0.77705938,0
-4.5061979,-0.83881521,1.0801543,-0.84726709,-0.16149402,0.50602156,0
1.3611655,-1.8866824,-1.4887027,0.0017463565,-0.95350212,-0.30138102,0
-3.3506663,-2.0487719,2.6287909,-0.84726709,-0.16149402,0.50602156,0
-3.7021801,-1.3462379,2.2644367,-0.84726709,-0.16149402,0.50602156,0
4.1359529,1.3465884,-1.5380282,0.84726709,0.16149402,-0.50602156,0
3.2968867,-0.57497311,-3.5561912,0.84726709,0.16149402,-0.50602156,0
4.1766124,0.98453617,-1.5854961,0.84726709,0.16149402,-0.50602156,0
-3.6126089,-1.7351518,-0.04785049,-0.35660082,-0.53311127,-0.76722109,0
3.148659,2.2225449,-2.9115663,0.84726709,0.16149402,-0.50602156,0
-1.8704147,-2.6457086,1.4567807,0.20394081,-0.97854823,0.029173911,0
2.4946158,-1.7607009,-1.8089769,0.075185895,-0.97953117,-0.18672317,0
4.5700054,-0.085322857,-1.2682506,0.84726709,0.16149402,-0.50602156,0
0.19107503,0.2777456,2.4534874,0.47457927,0.19771333,0.8577202,0
-1.0750918,0.2311511,3.1551082,0.45233539,0.28002644,0.84674549,0
-2.9834571,-2.6602173,0.94818926,-0.031658173,-0.93561339,-0.35160351,0
-0.90501517,1.3432794,2.3297262,0.24875462,0.72109431,0.64664054,0
-3.4204264,-1.5568924,2.6689677,-0.84726709,-0.16149402,0.50602156,0
-3.9529159,-0.18925285,2.2138574,-0.84726709,-0.16149402,0.50602156,0
1.1226866,0.19043614,1.9405692,0.49897188,0.08463829,0.86247522,0
-1.1817212,-2.4989529,0.64019084,0.12577426,-0.98656452,-0.10426408,0
3.8581679,2.5940611,-0.98394167,0.13855296,0.85248542,0.50405484,0
4.2974606,-1.3910928,-2.1413209,0.84726709,0.16149402,-0.50602156,0
-1.1061978,-1.5308585,-1.3262174,-0.2983253,-0.64353389,-0.70488715,0
-3.0292659,-1.1701217,3.4473498,-0.84726709,-0.16149402,0.50602156,0
-3.0406485,-1.2324858,3.4083879,-0.84726709,-0.16149402,0.50602156,0
-3.4376724,0.56818056,3.318296,-0.84726709,-0.16149402,0.50602156,0
-1.9234951,1.5448095,-0.49853611,-0.43013591,0.76754194,-0.47524962,0
3.4713466,-0.62731934,0.22473419,0.51626056,-0.47447681,0.71298432,0
4.2700105,1.5976305,-1.233448,0.84726709,0.16149402,-0.50602156,0
3.4772997,2.3188534,-0.45655298,0.20802361,0.77567714,0.59586155,0
-1.4263123,-0.94139576,3.4200952,0.5300929,-0.19653109,0.82484961,0
2.8423595,-1.6715109,-2.1261125,0.052937269,-0.97359025,-0.22207949,0
-4.498384,-0.72265482,1.1303095,-0.84726709,-0.16149402,0.50602156,0
2.3893747,-1.1981368,0.55971879,0.47913092,-0.64359283,0.59684312,0
-4.1996508,0.51748896,2.0262852,-0.84726709,-0.16149402,0.50602156,0
4.3680506,-1.3981199,-1.771495,0.29519737,-0.9351539,0.19582021,0
4.5610127,0.25574732,-1.1744572,0.84726709,0.16149402,-0.50602156,0
-1.0363126,-1.3733066,-1.4906278,-0.33047152,-0.58555841,-0.74020922,0
-3.2711847,-0.9913559,3.0993407,-0.84726709,-0.16149402,0.50602156,0
3.0898826,2.8493826,-2.5150366,-0.26506162,0.95411462,-0.13931072,0
-2.0289528,-2.5512466,0.59628785,0.014350295,-0.95927197,-0.28211865,0
4.7153039,0.60802746,-0.19669731,0.51681811,-0.030707713,0.85554427,0
1.1286365,0.15762669,1.9400604,0.50161624,0.070056275,0.86224902,0
3.9174771,0.019687176,-2.327311,0.84726709,0.16149402,-0.50602156,0
4.0865068,1.4172738,-0.0054709315,0.42519575,0.3647612,0.82834643,0
3.1610708,-0.66284323,-3.8116407,0.84726709,0.16149402,-0.50602156,0
0.07782197,-2.2676411,-0.014033675,0.14498585,-0.98679793,-0.07217139,0
-3.471715,-0.13448906,3.0370438,-0.84726709,-0.16149402,0.50602156,0
-2.98382,-1.0892458,3.5492539,-0.84726709,-0.16149402,0.50602156,0
4.1331768,-0.28798342,-0.047319502,0.52677506,-0.37772286,0.76146793,0
2.9788771,1.9278812,0.17044502,0.28877401,0.65952647,0.69399875,0
3.0669384,2.4753802,-2.9677062,0.84726709,0.16149402,-0.50602156,0
4.2789845,-0.072958946,-1.7515812,0.84726709,0.16149402,-0.50602156,0
-1.9165196,-2.2192097,-0.18371391,-0.14037192,-0.85071564,-0.50653565,0
-3.1068592,-1.4170651,3.23862,-0.84726709,-0.16149402,0.50602156,0
4.0994616,-0.93145037,-2.3261528,0.84726709,0.16149402,-0.50602156,0
-3.2035737,-2.7250352,2.6592522,-0.84726709,-0.16149402,0.50602156,0
-1.1019914,1.3640021,-1.409827,-0.48977393,0.60622317,-0.62658978,0
3.2098923,0.71902227,-3.2888801,0.84726709,0.16149402,-0.50602156,0
-4.4334335,-1.1439643,1.1046021,-0.84726709,-0.16149402,0.50602156,0
2.8990831,0.32669258,-3.9344995,0.84726709,0.16149402,-0.50602156,0
-4.0750399,0.82687378,2.3336682,-0.84726709,-0.16149402,0.50602156,0
1.5195546,2.5276906,-0.5983175,-0.077180445,0.97998005,0.18352678,0
4.5830588,0.18482018,-1.1601799,0.84726709,0.16149402,-0.50602156,0
0.5454675,-2.0897312,-0.83517611,0.036338925,-0.96805149,-0.24810356,0
-3.974369,0.43382359,2.3767886,-0.84726709,-0.16149402,0.50602156,0
3.3230305,-0.35794544,-3.4431539,0.84726709,0.16149402,-0.50602156,0
4.6435456,1.8483224,-0.52800459,0.84726709,0.16149402,-0.50602156,0
-1.5135651,1.4933059,2.3474493,0.16669929,0.82368505,0.54199076,0
3.0943947,0.16118526,-3.6602974,0.84726709,0.16149402,-0.50602156,0
4.2218571,0.94417381,-1.5226215,0.84726709,0.16149402,-0.50602156,0
2.0197172,-0.6237396,1.2465997,0.52873176,-0.34753594,0.77437818,0
3.4132385,-1.4956174,-2.7140551,0.001793921,-0.95352483,-0.30130848,0
3.5180299,-1.3817074,-0.71723068,0.38850027,-0.83806723,0.38302839,0
2.2723718,-1.2496033,0.59749705,0.47478777,-0.65738285,0.58517021,0
3.9963691,2.1192079,-1.525166,0.84726709,0.16149402,-0.50602156,0
-1.4676495,-1.6322589,3.1303957,0.51172078,-0.50358146,0.69609445,0
-4.2026181,1.2490497,2.2547905,-0.84726709,-0.16149402,0.50602156,0
4.2664218,1.0144506,-1.4255751,0.84726709,0.16149402,-0.50602156,0
-4.3133841,-0.79753399,1.4161711,-0.84726709,-0.16149402,0.50602156,0
-2.8162966,-1.8302513,-0.32881033,-0.30450088,-0.63290572,-0.71183538,0
-3.9758503,-0.82470512,1.9726555,-0.84726709,-0.16149402,0.50602156,0
-2.9671209,-1.7909496,3.3532701,-0.84726709,-0.16149402,0.50602156,0
3.6408041,1.1733766,0.32375658,0.44687304,0.29825136,0.84341598,0
-3.7261167,-1.8463719,2.0647423,-0.84726709,-0.16149402,0.50602156,0
2.6336644,2.6884301,-1.0357242,-0.030599356,0.96591789,0.25703281,0
4.145412,-0.12428284,-1.9916112,0.84726709,0.16149402,-0.50602156,0
-0.67847085,1.4463807,2.1254179,0.23196149,0.74452478,0.62600034,0
4.8154931,1.004128,-0.50952142,0.84726709,0.16149402,-0.50602156,0
3.4422665,1.6176028,-2.6130233,0.84726709,0.16149402,-0.50602156,0
-3.9004807,-0.74296904,2.1249373,-0.84726709,-0.16149402,0.50602156,0
-1.7021786,1.326704,2.6432111,0.20953679,0.77378309,0.59779078,0
2.8425641,2.4004712,-3.3672986,0.84726709,0.16149402,-0.50602156,0
-1.3843046,-2.4470339,1.8557522,0.32883823,-0.90762258,0.26093382,0
-3.1510024,-0.7357502,3.3821454,-0.84726709,-0.16149402,0.50602156,0
-2.7050223,1.7701142,1.5332556,-0.15468055,0.98638684,0.05580759,0
-4.8440833,-1.0054822,0.4612188,-0.84726709,-0.16149402,0.50602156,0
3.6430717,0.62842751,-2.5924909,0.84726709,0.16149402,-0.50602156,0
-0.33344948,-2.0885398,1.6407125,0.39783332,-0.8241629,0.40309292,0
4.5800276,0.26270533,-1.1403985,0.84726709,0.16149402,-0.50602156,0
-3.4464087,-0.4701972,2.9722762,-0.84726709,-0.16149402,0.50602156,0
-4.0192156,-2.2984033,1.4297234,-0.84726709,-0.16149402,0.50602156,0
3.7440693,0.7157774,-2.3955069,0.84726709,0.16149402,-0.50602156,0
3.8509536,1.2227416,-2.0547481,0.84726709,0.16149402,-0.50602156,0
-1.2935601,-0.21842337,3.3779106,0.49473524,0.10680458,0.86245573,0
-3.3342738,-2.0772424,2.6471517,-0.84726709,-0.16149402,0.50602156,0
3.6836443,-0.36402845,-2.8412948,0.84726709,0.16149402,-0.50602156,0
-4.4059577,-1.4995756,1.0371156,-0.84726709,-0.16149402,0.50602156,0
-4.1453557,-1.1431379,1.5872146,-0.84726709,-0.16149402,0.50602156,0
-0.87771702,-1.5857654,-1.3681972,-0.27433521,-0.68271989,-0.67722487,0
-0.040446639,2.2339094,-0.75816274,-0.28538918,0.9418782,-0.1772517,0
-1.1621776,-0.036000967,3.2737825,0.48027474,0.17399514,0.85968709,0
4.0237966,0.97672129,-1.8438615,0.84726709,0.16149402,-0.50602156,0
-3.9113407,-2.1129172,1.6695431,-0.84726709,-0.16149402,0.50602156,0
0.33165836,2.1175766,-1.5773572,-0.3877514,0.83914155,-0.3814317,0
4.8515825,-0.42283678,-0.90450275,0.84726709,0.16149402,-0.50602156,0
