0.82233942,-2.8092065,-1.0700598,0.72387028,-0.49493754,-0.48067522,0
-0.043806076,-2.3498654,-2.048846,0.37790468,-0.31041676,-0.87225538,0
0.68161023,-3.3068788,-0.71958494,0.77790207,-0.51836872,-0.35519323,0
-2.7034054,-0.9956665,-1.6185443,-0.62275928,0.33183983,-0.70855713,0
-3.9423611,-3.5115223,-0.81759179,-0.53057212,-0.84468341,0.070734076,0
-1.192206,-5.0608935,1.3090773,-0.53057212,-0.84468341,0.070734076,0
3.1043501,2.2989244,1.8172383,0.50734246,-0.24960846,0.82480264,0
0.52573758,0.47301698,-2.5469856,0.028064758,-0.10090812,-0.99449986,0
2.2617152,2.6163459,-2.6931109,0.14056003,-0.16996831,-0.97537363,0
1.8061349,4.7122383,-0.86755806,0.53057212,0.84468341,-0.070734076,0
-0.58453888,2.6061795,-1.785089,-0.66199207,0.36080456,-0.65695256,0
-4.1431494,-3.3920546,-0.89703751,-0.53057212,-0.84468341,0.070734076,0
2.8070109,1.6023626,-2.1883156,0.4866274,-0.37186378,-0.79051322,0
-2.7589076,-3.9804807,2.4592912,-0.53057212,-0.84468341,0.070734076,0
-1.6249714,-4.6932616,2.4530687,-0.53057212,-0.84468341,0.070734076,0
-2.5836124,-0.17702377,-1.261591,-0.72972757,0.41271567,-0.54512697,0
-0.99206614,-0.51254636,-2.3726635,-0.22885288,0.06239935,-0.97145921,0
1.2982973,4.0089302,1.9926344,-0.31562546,0.27432114,0.90836579,0
-1.3148158,0.65009528,2.0456264,-0.46370602,0.35909432,0.8099556,0
3.0723655,3.9748602,-0.17517292,0.53057212,0.84468341,-0.070734076,0
1.9755318,4.8243251,1.7415849,0.53057212,0.84468341,-0.070734076,0
0.92755401,-0.06862995,2.3360765,0.3139483,-0.11831408,0.94203937,0
2.1192715,4.631403,0.51594543,0.53057212,0.84468341,-0.070734076,0
4.5091419,2.4951849,-0.10934436,0.84697139,-0.52499157,0.08380428,0
-1.1251826,-5.1594286,0.63514036,-0.53057212,-0.84468341,0.070734076,0
-2.3817348,-2.9329119,2.7300296,-0.11774948,0.15608628,0.98069978,0
3.0038352,3.9495783,-0.99112242,0.53057212,0.84468341,-0.070734076,0
-3.0728681,-0.53326178,1.0855154,-0.77124262,0.51569021,0.37315983,0
4.4807444,2.9867635,-1.4105315,0.53057212,0.84468341,-0.070734076,0
-2.4210882,-4.4376001,-0.46552783,-0.53057212,-0.84468341,0.070734076,0
-3.0610309,-0.23542619,0.53626257,-0.82947779,0.53457469,0.16185369,0
-3.5224798,-3.5431805,1.9538714,-0.53057212,-0.84468341,0.070734076,0
-0.59118783,-3.0797293,-2.0245869,0.35179281,-0.29535535,-0.8882606,0
0.93120921,5.3238711,-0.12641734,0.53057212,0.84468341,-0.070734076,0
-0.31335855,0.85412931,2.3607178,-0.20773622,0.21048041,0.95527154,0
4.0290008,3.2186718,-2.0296645,0.53057212,0.84468341,-0.070734076,0
3.9501166,3.4796877,0.49561083,0.53057212,0.84468341,-0.070734076,0
3.0861619,0.2357868,-0.37624651,0.83903784,-0.53521425,-0.097781599,0
3.6915936,3.637701,0.44338024,0.53057212,0.84468341,-0.070734076,0
1.0235211,-1.4240608,1.9522107,0.5787493,-0.30002961,0.75830829,0
1.8265431,-1.6566398,-0.56698895,0.81341153,-0.53084552,-0.23783344,0
0.62996405,-2.9273179,1.5265095,0.72873461,-0.41193134,0.54704529,0
-1.3830959,-4.9183884,1.5789747,-0.53057212,-0.84468341,0.070734076,0
3.8475595,3.3451867,-1.8798413,0.53057212,0.84468341,-0.070734076,0
0.97036874,5.1861334,-1.4774963,0.53057212,0.84468341,-0.070734076,0
2.7961287,4.1004157,-0.74787587,0.53057212,0.84468341,-0.070734076,0
0.15293503,-4.1834536,1.0874134,0.81022894,-0.48086849,0.33510393,0
0.95252562,5.3954148,0.88784373,0.53057212,0.84468341,-0.070734076,0
0.33084798,4.8324208,-1.3076135,-0.79083425,0.46325409,-0.39997113,0
-1.1764219,1.3804927,-1.8473291,-0.61330789,0.32495308,-0.71990204,0
1.2549419,5.0530314,-0.93238926,0.53057212,0.84468341,-0.070734076,0
2.7472987,4.0790505,-1.3692796,0.53057212,0.84468341,-0.070734076,0
-4.4800467,-3.1818924,-0.91439915,-0.53057212,-0.84468341,0.070734076,0
2.2459431,3.7865744,-2.8158417,-0.075597644,-0.035961129,-0.99648976,0
4.3528166,3.0792246,-1.2659816,0.53057212,0.84468341,-0.070734076,0
-2.8697748,-4.0259905,1.0842094,-0.53057212,-0.84468341,0.070734076,0
3.011014,0.82304072,1.1781336,0.73549992,-0.41729277,0.53376627,0
-0.86943352,-5.2837691,1.0686742,-0.53057212,-0.84468341,0.070734076,0
2.1651249,-0.18000042,1.5231881,0.67738485,-0.37235948,0.63442755,0
-1.8774798,-4.6896157,0.60256147,-0.53057212,-0.84468341,0.070734076,0
2.241637,0.010674357,1.5523889,0.66563106,-0.36352554,0.65175498,0
-1.8477309,-4.6343322,1.4858844,-0.53057212,-0.84468341,0.070734076,0
2.3638721,3.1734347,2.2067389,0.14360812,-0.0073346859,0.98960739,0
-0.95518398,-4.959753,-1.3744824,0.59396505,-0.43002447,-0.67991507,0
-1.2129787,1.5297883,-1.7418792,-0.64899486,0.35113651,-0.67491406,0
-4.3382063,-3.0671916,1.5192404,-0.53057212,-0.84468341,0.070734076,0
-0.93697667,-5.2534881,0.92364073,-0.53057212,-0.84468341,0.070734076,0
0.80679142,0.58018893,2.412714,0.16408059,-0.02047657,0.98623443,0
0.35125244,4.744328,-1.4387717,-0.77114713,0.44636604,-0.45397067,0
0.81506479,-2.8315432,-1.0579567,0.72596544,-0.495904,-0.47650123,0
1.0749283,5.1970491,-0.56285828,0.53057212,0.84468341,-0.070734076,0
-2.7929661,-0.79051208,-1.4222629,-0.6823296,0.37609756,-0.62687886,0
-1.0581775,-3.7339387,-1.9913729,0.33535737,-0.28582108,-0.8976869,0
-3.6034353,-3.7847071,-1.537611,-0.53057212,-0.84468341,0.070734076,0
-4.3513007,-3.0327969,1.749292,-0.68061411,0.47427687,0.55841362,0
-2.9606695,-4.1506572,-1.0863229,-0.53057212,-0.84468341,0.070734076,0
2.2684641,-1.0133395,-0.47155559,0.82652909,-0.53406149,-0.17784269,0
-0.78663146,2.8022974,-1.4061927,-0.7495423,0.42856413,-0.50449908,0
-2.1038773,-4.4158173,2.1739812,-0.53057212,-0.84468341,0.070734076,0
-1.8205309,-4.9049997,-1.5423168,-0.53057212,-0.84468341,0.070734076,0
-3.744715,-3.4979587,0.82691926,-0.53057212,-0.84468341,0.070734076,0
-4.3521204,-2.2659683,-0.015249848,-0.84480506,0.52013433,-0.12555736,0
-2.3061898,-4.3302221,1.678584,-0.53057212,-0.84468341,0.070734076,0
-3.8440065,-3.5597372,-0.65560031,-0.53057212,-0.84468341,0.070734076,0
-3.8625276,-3.3202405,2.0654693,-0.53057212,-0.84468341,0.070734076,0
3.7474256,3.4479685,-1.4035611,0.53057212,0.84468341,-0.070734076,0
4.6394076,3.0556769,0.60253537,0.53057212,0.84468341,-0.070734076,0
1.1495197,5.2763219,0.94330984,0.53057212,0.84468341,-0.070734076,0
-3.637867,-2.4433534,-1.4749763,-0.62964463,0.33687767,-0.70004368,0
3.2438955,0.75757694,-1.0393533,0.78087634,-0.51953906,-0.34685904,0
-2.1090832,0.93506777,1.0439574,-0.75809914,0.51019955,0.40617985,0
2.4021559,4.3658657,-0.53311348,0.53057212,0.84468341,-0.070734076,0
-0.77227247,-5.3153129,1.4207784,-0.53057212,-0.84468341,0.070734076,0
3.8988152,3.3363709,-1.6006403,0.53057212,0.84468341,-0.070734076,0
-2.411341,0.66090673,0.77507871,-0.79985577,0.52653819,0.28807688,0
-2.150661,-4.6424947,-0.88385856,-0.53057212,-0.84468341,0.070734076,0
2.3243086,4.4964461,0.44231543,0.53057212,0.84468341,-0.070734076,0
2.8001204,4.3280554,2.0004718,0.53057212,0.84468341,-0.070734076,0
1.8259693,4.7168965,-0.66315901,0.53057212,0.84468341,-0.070734076,0
2.2958915,1.1729307,-2.2852948,0.41525984,-0.3317697,-0.84704673,0
2.9405403,4.1948552,1.4631293,0.53057212,0.84468341,-0.070734076,0
-1.454543,-4.9999995,0.068477184,-0.53057212,-0.84468341,0.070734076,0
3.0563214,4.0473084,0.56964153,0.53057212,0.84468341,-0.070734076,0
3.0054865,3.8594017,-2.0555995,0.53057212,0.84468341,-0.070734076,0
1.4625251,3.3085911,2.1973281,-0.13980678,0.16951092,0.97556156,0
2.5299742,2.389878,-2.5881069,0.25983128,-0.24150267,-0.93496746,0
3.2098656,3.8909869,-0.14537533,0.53057212,0.84468341,-0.070734076,0
1.3548814,5.0052323,-0.75354189,0.53057212,0.84468341,-0.070734076,0
1.1780368,5.1274743,-0.6202665,0.53057212,0.84468341,-0.070734076,0
1.5660212,4.8194861,-1.3879217,0.53057212,0.84468341,-0.070734076,0
-1.2032197,-5.2266746,-0.75324434,-0.53057212,-0.84468341,0.070734076,0
-3.2091517,-4.0625334,-1.8978193,-0.53057212,-0.84468341,0.070734076,0
-3.9029107,-2.0805073,-0.92129505,-0.76255167,0.43920714,-0.47498637,0
2.4891968,2.7888906,-2.688194,0.17508003,-0.19085626,-0.96587831,0
1.9508321,-1.5942112,0.0049571991,0.84652638,-0.5323028,-0.0068418384,0
4.3687725,3.2421756,0.79961979,0.53057212,0.84468341,-0.070734076,0
-3.6722512,-1.8952327,1.6097083,-0.69147944,0.47957981,0.54024023,0
-1.5177721,-5.0231605,-0.68237805,-0.53057212,-0.84468341,0.070734076,0
3.9227352,3.3351865,-1.4353664,0.53057212,0.84468341,-0.070734076,0
1.350235,5.1859856,1.3700973,0.53057212,0.84468341,-0.070734076,0
-3.2157426,-3.7693057,1.5543643,-0.53057212,-0.84468341,0.070734076,0
-0.97884178,-3.7414551,-1.9579257,0.36000776,-0.30010536,-0.88336354,0
1.2587965,4.9690862,-1.905925,0.53057212,0.84468341,-0.070734076,0
2.463408,0.34698713,-1.7409256,0.61963928,-0.44344622,-0.64761293,0
-2.2311387,-4.6326203,-1.3695904,-0.53057212,-0.84468341,0.070734076,0
2.2851424,4.2093439,2.1487355,-0.065592825,0.12411206,0.99009794,0
1.0442393,0.92028308,-2.569483,0.096563369,-0.14313711,-0.98498094,0
-0.53693748,-1.5017916,-2.3719873,0.079298258,-0.13254517,-0.98799968,0
-2.6273215,-4.2529798,0.19220589,-0.53057212,-0.84468341,0.070734076,0
-2.6152136,-4.4284506,-1.8123934,-0.53057212,-0.84468341,0.070734076,0
4.4787436,2.9858584,-1.4363614,0.53057212,0.84468341,-0.070734076,0
-2.8159094,-2.4859762,-2.0133061,-0.39385685,0.17177814,-0.902978,0
-2.536303,0.3380217,-0.83934939,-0.80212265,0.47335228,-0.36405599,0
-2.4538896,-4.2332869,1.7282754,-0.53057212,-0.84468341,0.070734076,0
3.8406229,3.6159205,1.3011442,0.53057212,0.84468341,-0.070734076,0
-2.9882901,-4.1935339,-1.8055131,-0.53057212,-0.84468341,0.070734076,0
1.0668247,5.212852,-0.43491375,0.53057212,0.84468341,-0.070734076,0
3.3142967,3.9478683,1.3172228,0.53057212,0.84468341,-0.070734076,0
0.36381936,-3.831677,-0.64922214,0.7817046,-0.51986188,-0.34450176,0
4.3097377,3.2601705,0.57169473,0.53057212,0.84468341,-0.070734076,0
-2.6268175,-2.0258751,-2.0062859,-0.42188746,0.19077758,-0.88634902,0
1.8196768,4.9013653,1.4925135,0.53057212,0.84468341,-0.070734076,0
-0.24929607,2.8350749,1.6588546,-0.55497766,0.40924662,0.7242353,0
0.45260096,-3.5903602,-0.80006206,0.76169592,-0.51172662,-0.39743584,0
-1.6507056,2.0697227,0.018191159,-0.84516644,0.53354895,0.031924605,0
-2.2881043,-4.3202467,1.933368,-0.53057212,-0.84468341,0.070734076,0
-0.6548357,-5.4687519,0.46934247,-0.53057212,-0.84468341,0.070734076,0
-2.3284168,-4.5963769,-1.6664779,-0.53057212,-0.84468341,0.070734076,0
-0.17168236,-2.3652411,-2.095844,0.34320423,-0.29037821,-0.89324772,0
4.28406,3.3052983,0.91799474,0.53057212,0.84468341,-0.070734076,0
-2.8015728,-4.104805,0.65461773,-0.53057212,-0.84468341,0.070734076,0
-2.7572417,-3.9556327,2.7685077,-0.53057212,-0.84468341,0.070734076,0
2.7140017,4.1843891,-0.36111405,0.53057212,0.84468341,-0.070734076,0
0.33563614,4.3085146,1.2223101,-0.65756106,0.46281722,0.59448612,0
-1.2148678,0.12946698,-2.2137516,-0.40559116,0.17971534,-0.89621317,0
-3.2366292,-4.0192618,-1.5871934,-0.53057212,-0.84468341,0.070734076,0
-2.1865661,-4.4882746,0.68847924,-0.53057212,-0.84468341,0.070734076,0
-2.0815673,0.75347352,-1.2226573,-0.75166345,0.43028522,-0.49985683,0
-2.9033608,-4.2463131,-1.7987485,-0.53057212,-0.84468341,0.070734076,0
-4.6824951,-2.9892588,-0.13257182,-0.53057212,-0.84468341,0.070734076,0
1.7552128,2.3727841,-2.7048621,0.038478643,-0.10736357,-0.9934749,0
-1.2122555,2.5328331,0.67996323,-0.79224277,0.52383989,0.3129589,0
-1.4911392,-4.8841057,1.1779289,-0.53057212,-0.84468341,0.070734076,0
-1.1121835,-5.1993356,0.25609308,-0.53057212,-0.84468341,0.070734076,0
-3.9524164,-3.1456885,2.1996942,-0.53897679,0.40059674,0.7409631,0
-1.223708,-3.0095534,-2.2146626,0.15457463,-0.17846607,-0.97172874,0
-1.4901844,-4.8941102,1.0656431,-0.53057212,-0.84468341,0.070734076,0
3.7886796,2.7375689,1.4804404,0.62032688,-0.33006436,0.711514,0
-1.7333397,0.38527444,1.9048591,-0.5386284,0.4004077,0.74131858,0
-2.6663876,-4.1517787,1.1076846,-0.53057212,-0.84468341,0.070734076,0
-2.9271383,-4.172338,-1.093719,-0.53057212,-0.84468341,0.070734076,0
-4.1257877,-3.1754594,1.819695,-0.53057212,-0.84468341,0.070734076,0
2.6065903,-0.046197414,1.0337274,0.77292675,-0.44786263,0.44944775,0
1.2841437,4.7475662,1.7167661,-0.45624673,0.35491592,0.81601077,0
0.090068169,-1.728981,2.3992465,0.37185022,-0.15695444,0.91492766,0
3.2450509,0.52011323,0.2252233,0.8427611,-0.51673812,0.15078294,0
-1.5950902,-4.7752008,1.6987188,-0.53057212,-0.84468341,0.070734076,0
1.0328445,0.52210283,-2.5040991,0.16565025,-0.18516481,-0.96864545,0
0.27343369,3.1585608,-2.2426996,-0.52130598,0.25936776,-0.81299973,0
-3.5598462,-1.8584845,-1.2225595,-0.70827955,0.39595202,-0.58443296,0
3.2371347,3.9801645,1.1241026,0.53057212,0.84468341,-0.070734076,0
0.73932374,2.5663664,-2.5762694,-0.28625754,0.10000956,-0.95291913,0
0.095218658,4.5349598,0.62855071,-0.77616346,0.51767701,0.35997343,0
2.1905174,4.381855,-1.9296722,0.53057212,0.84468341,-0.070734076,0
1.8656056,3.2399678,-2.7670643,-0.086185306,-0.029257093,-0.99584955,0
0.5448845,0.3200244,2.44945,0.13599949,-0.0024634935,0.99070585,0
0.80005562,-3.3959043,0.45870984,0.84559065,-0.52164447,0.11341688,0
-2.7774041,-4.3539119,-2.1388545,-0.53057212,-0.84468341,0.070734076,0
-2.6551096,-4.3361187,-1.0090574,-0.53057212,-0.84468341,0.070734076,0
2.6013823,4.4108672,1.4986547,0.53057212,0.84468341,-0.070734076,0
-0.64320648,2.8957922,1.2333159,-0.6854592,0.47664988,0.55040944,0
2.5393178,4.2113519,-1.3494309,0.53057212,0.84468341,-0.070734076,0
0.48527521,-0.082653105,-2.4777789,0.11708772,-0.15568261,-0.98084325,0
-2.8097069,-3.9560328,2.3701835,-0.53057212,-0.84468341,0.070734076,0
-1.0541044,-3.3099601,2.5888956,0.32928112,-0.12849711,0.93544769,0
-0.92022014,2.6926739,-1.2958013,-0.76662648,0.44258711,-0.46518886,0
-4.3310075,-2.1949763,0.29244721,-0.84684467,0.53183925,-0.0010807216,0
3.2315056,4.0427518,1.8292687,0.53057212,0.84468341,-0.070734076,0
2.9076948,0.62668538,1.1666099,0.74083304,-0.42154962,0.52293628,0
4.3092895,3.2774248,0.77436841,0.53057212,0.84468341,-0.070734076,0
-2.594182,-0.47038686,-1.4465675,-0.68295205,0.37656909,-0.62591714,0
2.5163152,4.2295313,-1.3048699,0.53057212,0.84468341,-0.070734076,0
2.2529476,-0.80239773,0.85966575,0.80423898,-0.47529003,0.35679007,0
1.3589791,3.6851735,2.0987513,-0.23855406,0.22887518,0.94377327,0
-4.7196627,-2.9640217,-0.11000073,-0.53057212,-0.84468341,0.070734076,0
3.3611453,3.8684006,0.71963847,0.53057212,0.84468341,-0.070734076,0
3.4951973,3.7519717,0.33480459,0.53057212,0.84468341,-0.070734076,0
-0.85065103,2.0068543,-1.8403263,-0.63186246,0.33850425,-0.69725507,0
-1.9841698,1.1643876,-0.97840273,-0.79366791,0.46575502,-0.39136106,0
-0.73083162,-3.8994107,-1.7761841,0.4623296,-0.35832405,-0.81108266,0
3.7194376,3.451385,-1.5726967,0.53057212,0.84468341,-0.070734076,0
-1.8197579,-1.7986569,-2.2602274,-0.23448533,0.066070192,-0.96987176,0
-3.1923218,-3.9732041,-0.70482862,-0.53057212,-0.84468341,0.070734076,0
2.6694763,4.3165307,0.88289356,0.53057212,0.84468341,-0.070734076,0
0.31568152,-1.6792017,2.3088152,0.42640954,-0.19385554,0.88351291,0
-3.917469,-3.3363523,1.460961,-0.53057212,-0.84468341,0.070734076,0
2.5749469,-0.11728108,1.0170414,0.77632499,-0.45073533,0.44063282,0
0.87795317,1.8876872,-2.6390893,-0.12569457,-0.0041227695,-0.99206048,0
2.5917661,1.6646891,1.9373777,0.4755277,-0.22753422,0.84976572,0
2.1777835,4.4744267,-0.91971654,0.53057212,0.84468341,-0.070734076,0
-2.3847911,-4.1888032,2.7777882,-0.53057212,-0.84468341,0.070734076,0
-2.8014145,-4.0373397,1.4614444,-0.53057212,-0.84468341,0.070734076,0
1.062466,-2.9420829,0.55682194,0.84112465,-0.51433116,0.16725054,0
1.5395391,0.15373588,2.1192136,0.44671291,-0.20772108,0.87022948,0
-3.4517331,-3.8787069,-1.5222135,-0.53057212,-0.84468341,0.070734076,0
1.1239333,5.0618806,-1.8094037,0.53057212,0.84468341,-0.070734076,0
4.3102789,3.0889606,-1.4687732,0.53057212,0.84468341,-0.070734076,0
-2.5206614,0.68702781,0.071125686,-0.84652442,0.5323053,0.0068876147,0
1.8136603,4.8011036,0.25008127,0.53057212,0.84468341,-0.070734076,0
4.6347957,2.9269433,-0.96934617,0.53057212,0.84468341,-0.070734076,0
-0.81778479,-5.1530418,1.7770429,0.71541357,-0.40148839,0.57183081,0
-1.6190168,-5.0400386,-1.6433703,-0.53057212,-0.84468341,0.070734076,0
-4.5900884,-3.0582614,-0.7143085,-0.78165919,0.45528704,-0.42628932,0
1.977867,4.506515,-2.0360818,0.53057212,0.84468341,-0.070734076,0
-4.5491333,-3.0513701,0.12604219,-0.53057212,-0.84468341,0.070734076,0
3.5343168,3.6212521,1.9159184,0.39534673,-0.17278464,0.90213448,0
2.3979828,4.1917953,-2.64311,0.53057212,0.84468341,-0.070734076,0
2.0265555,4.3015118,2.1050828,-0.15708786,0.17998742,0.97104478,0
-3.0163884,-4.0977011,-0.87187648,-0.53057212,-0.84468341,0.070734076,0
-0.55770254,-5.425703,-0.30602333,0.80776882,-0.52914393,-0.25983876,0
1.6300979,4.8257899,-0.83201391,0.53057212,0.84468341,-0.070734076,0
3.4261234,3.8206649,0.63699996,0.53057212,0.84468341,-0.070734076,0
2.1681876,4.3334374,-2.6753418,0.53057212,0.84468341,-0.070734076,0
-0.50351214,-1.0938103,2.5861027,0.090197265,0.026713284,0.99556565,0
0.9402684,2.7292995,2.2192357,-0.18572575,0.19726829,0.96259594,0
-0.90332806,-5.1986489,1.8309023,-0.53057212,-0.84468341,0.070734076,0
-4.3472776,-3.1716204,0.20415643,-0.53057212,-0.84468341,0.070734076,0
0.67845762,2.7361741,-2.5354435,-0.33357817,0.1313571,-0.93352616,0
1.086132,-2.9339507,0.44904661,0.84485048,-0.52021748,0.12490588,0
2.4676292,0.10763741,-1.5590676,0.66648978,-0.46728721,-0.58089077,0
3.0991559,3.9656301,-0.084436134,0.53057212,0.84468341,-0.070734076,0
0.83937013,-1.5829092,-1.9008658,0.49645934,-0.3773075,-0.78177178,0
-0.12110019,-4.4623475,-0.77536899,0.75350428,-0.50822437,-0.41706014,0
-2.1961575,-4.6880918,-1.7696284,-0.53057212,-0.84468341,0.070734076,0
3.4924271,3.8870401,1.9269686,0.53057212,0.84468341,-0.070734076,0
4.717968,2.8979144,-0.6921376,0.53057212,0.84468341,-0.070734076,0
-4.4965401,-2.6106339,0.95885444,-0.809901,0.52980417,0.25172958,0
0.14616513,-2.4720802,2.1926162,0.51808304,-0.25711119,0.81577188,0
0.95036328,-2.0686984,-1.5344889,0.6209439,-0.44412211,-0.64589787,0
1.5580637,4.8703032,-0.84076339,0.53057212,0.84468341,-0.070734076,0
-3.4313912,-3.9083996,-1.7242069,-0.53057212,-0.84468341,0.070734076,0
1.7245786,4.6832805,-1.8251143,0.53057212,0.84468341,-0.070734076,0
0.92714596,5.2347579,-1.2210429,0.53057212,0.84468341,-0.070734076,0
-2.4586554,-4.1841903,2.2788134,-0.53057212,-0.84468341,0.070734076,0
1.2889516,4.9775119,-1.5791105,0.53057212,0.84468341,-0.070734076,0
3.0944283,4.0443735,0.82043087,0.53057212,0.84468341,-0.070734076,0
3.0608637,3.9667277,-0.3585636,0.53057212,0.84468341,-0.070734076,0
-1.7024686,1.7047226,-0.89761531,-0.80835885,0.47911087,-0.34206557,0
4.3858376,3.0431767,-1.4487516,0.53057212,0.84468341,-0.070734076,0
-1.3439772,-5.1649675,-1.0721664,-0.53057212,-0.84468341,0.070734076,0
-3.436919,-3.7354889,0.29917595,-0.53057212,-0.84468341,0.070734076,0
-1.6323946,-3.3082337,-2.2173386,0.090622336,-0.13949636,-0.98606724,0
2.5339117,3.8958826,-2.8347104,-0.012714624,-0.075508043,-0.99706417,0
-2.6677291,-4.2568965,-0.15766773,-0.53057212,-0.84468341,0.070734076,0
3.1200182,4.1323018,2.0623786,0.53057212,0.84468341,-0.070734076,0
3.6536639,3.7816858,1.8782918,0.53057212,0.84468341,-0.070734076,0
-2.527308,0.66174322,-0.14324903,-0.84712011,0.52547574,-0.079137295,0
-1.7860057,-3.0937104,2.7558572,0.082674772,0.031481396,0.99607915,0
1.7904319,4.7631459,-0.37743625,0.53057212,0.84468341,-0.070734076,0
-2.3533392,-4.2742639,1.9931587,-0.53057212,-0.84468341,0.070734076,0
-0.4263199,-0.85041606,-2.4374588,-0.0066630542,-0.07928957,-0.99682939,0
0.62774861,-3.0236986,1.4537433,0.74428344,-0.42431891,0.51574755,0
3.9991717,3.3963642,-0.13146588,0.53057212,0.84468341,-0.070734076,0
0.78140628,-3.3927696,-0.23570551,0.82924449,-0.53453803,-0.16316448,0
1.7899437,4.6858521,-1.3040969,0.53057212,0.84468341,-0.070734076,0
4.1591158,3.2534122,-0.63880742,0.53057212,0.84468341,-0.070734076,0
-3.4771571,-3.6535459,0.97587693,-0.53057212,-0.84468341,0.070734076,0
2.0142965,0.94261122,-2.3288722,0.37496459,-0.30872631,-0.87412214,0
-3.2388232,-3.9618669,-0.91825712,-0.53057212,-0.84468341,0.070734076,0
-1.4818232,-4.8366861,1.8140764,-0.53057212,-0.84468341,0.070734076,0
2.9387119,0.16702068,-0.82374531,0.80227083,-0.52735722,-0.27974251,0
2.0682869,4.7546234,1.604975,0.53057212,0.84468341,-0.070734076,0
-4.3952408,-3.1270795,0.37628567,-0.53057212,-0.84468341,0.070734076,0
-2.8301308,-2.7326534,-2.0502815,-0.35427803,0.14517361,-0.92380291,0
3.2202356,3.9059319,0.110888,0.53057212,0.84468341,-0.070734076,0
3.7257853,3.0574522,-2.3072119,0.48804733,-0.37265128,-0.78926605,0
-0.18830991,3.3561435,-1.7695181,-0.68232632,0.37609515,-0.62688375,0
3.328548,3.7264748,-1.2196897,0.53057212,0.84468341,-0.070734076,0
3.3072326,3.6539636,-2.2454793,0.53057212,0.84468341,-0.070734076,0
-1.5464612,-4.9660478,-0.21555397,-0.53057212,-0.84468341,0.070734076,0
-3.3791497,-3.8398929,-0.51425862,-0.53057212,-0.84468341,0.070734076,0
-0.25646389,4.262886,-0.52385962,-0.84576231,0.52199936,-0.11046603,0
3.2300527,3.9622355,0.8568809,0.53057212,0.84468341,-0.070734076,0
1.2509897,5.0614252,-0.86178553,0.53057212,0.84468341,-0.070734076,0
-4.5782442,-2.9859433,0.68898165,-0.53057212,-0.84468341,0.070734076,0
-3.0599298,-4.0472789,-0.59635752,-0.53057212,-0.84468341,0.070734076,0
-0.4734447,0.83919972,2.3254132,-0.25159818,0.2366237,0.93846017,0
-0.10165262,-4.7865081,-0.15592164,0.82650346,-0.5340566,-0.17797609,0
1.4091573,-0.22810997,2.0923371,0.47729015,-0.22875145,0.84844965,0
0.76176739,0.7066499,-2.5628707,0.053778112,-0.11682463,-0.99169558,0
2.4788218,4.4754148,1.3501396,0.53057212,0.84468341,-0.070734076,0
-0.33494234,-1.3873049,2.5604911,0.19087294,-0.037753325,0.98088855,0
-2.3714917,-1.345793,-1.9751635,-0.46995592,0.22369018,-0.85387594,0
2.2884107,3.0753746,-2.7589056,0.064956218,-0.12371983,-0.9901889,0
4.176446,3.3994155,1.2346995,0.53057212,0.84468341,-0.070734076,0
-3.1337566,-3.7554092,2.335289,-0.53057212,-0.84468341,0.070734076,0
3.0374141,2.6826787,-2.5035315,0.35444847,-0.29689205,-0.88669127,0
4.3541842,3.2741008,1.0714334,0.53057212,0.84468341,-0.070734076,0
-1.917787,-0.95882106,2.3736167,-0.34365031,0.29063702,0.89299184,0
-4.0035381,-3.4102678,-0.067322969,-0.53057212,-0.84468341,0.070734076,0
0.73097515,5.3858528,-0.88817823,0.53057212,0.84468341,-0.070734076,0
-0.69112504,3.5742536,0.072420776,-0.838283,0.53525007,0.10387,0
-1.7172039,-2.0061572,2.6612949,-0.093932748,0.14152554,0.98546791,0
-2.6542192,-4.1563025,1.1449329,-0.53057212,-0.84468341,0.070734076,0
-2.4766326,-3.012496,-2.1823766,-0.20450036,0.046575315,-0.97775787,0
2.2242913,-0.6812951,-1.1438447,0.74421728,-0.50415635,-0.43814045,0
-0.6190629,0.45117736,-2.390053,-0.29467681,0.10556351,-0.94974828,0
-0.9863435,-5.1964822,1.2340815,-0.53057212,-0.84468341,0.070734076,0
-4.3298483,-2.3516736,-0.34093964,-0.82792926,0.49853584,-0.25689542,0
-2.156395,0.74333692,1.186424,-0.73518687,0.50011259,0.45758885,0
-1.3726532,1.6723686,-1.4804053,-0.71651947,0.40235001,-0.56983697,0
3.6687491,3.6734138,0.69850445,0.53057212,0.84468341,-0.070734076,0
2.4508333,4.1793675,-2.3950837,0.53057212,0.84468341,-0.070734076,0
-2.526813,-2.813961,-2.1576927,-0.25414205,0.078913748,-0.96394211,0
1.1357971,5.1255426,-0.96018314,0.53057212,0.84468341,-0.070734076,0
3.5734928,3.5316849,-1.7084993,0.53057212,0.84468341,-0.070734076,0
2.876169,4.1033111,-0.11292675,0.53057212,0.84468341,-0.070734076,0
-4.2453194,-3.355885,-1.2314867,-0.53057212,-0.84468341,0.070734076,0
1.3969218,4.9419894,-1.1934181,0.53057212,0.84468341,-0.070734076,0
-2.1162825,0.88683987,-1.036872,-0.78275955,0.45623291,-0.42324817,0
-0.18878579,3.0570929,1.5773393,-0.57861108,0.42189518,0.69800687,0
4.3398457,3.1448994,-0.57899451,0.53057212,0.84468341,-0.070734076,0
3.3931756,3.6083441,-2.145607,0.53057212,0.84468341,-0.070734076,0
-0.15173864,-4.4613276,1.3773786,0.77683264,-0.45116621,0.43929499,0
-3.5327401,-0.99414539,0.6239835,-0.82771623,0.53428042,0.17155254,0
2.1148705,4.7022681,1.3291861,0.53057212,0.84468341,-0.070734076,0
1.6786945,3.9711919,-2.7104876,-0.27013737,0.089403041,-0.95866203,0
2.5357378,4.0887952,-2.8398104,0.53057212,0.84468341,-0.070734076,0
2.248136,-1.0064777,0.52554643,0.83442497,-0.50580096,0.21886146,0
1.8110132,-1.5123956,0.90996814,0.80526191,-0.47623256,0.35320771,0
-0.95237672,-5.2443213,0.91758549,-0.53057212,-0.84468341,0.070734076,0
1.3100097,5.0441408,-0.62548637,0.53057212,0.84468341,-0.070734076,0
2.5164559,2.3073311,2.103348,0.34117123,-0.13641766,0.93004966,0
-1.6774101,-4.7557883,1.3130605,-0.53057212,-0.84468341,0.070734076,0
1.893364,4.7116342,-0.22047436,0.53057212,0.84468341,-0.070734076,0
3.1967521,1.02775,1.078982,0.75069457,-0.4294984,0.50198478,0
1.5674423,-1.8521795,1.0044035,0.79758972,-0.46925223,0.37901586,0
1.4539664,-0.86202013,-1.8501997,0.5446223,-0.40365621,-0.73515189,0
-1.2514182,-2.9540043,2.6778347,0.21009791,-0.050205797,0.97639042,0
-0.47051716,3.8582215,0.28163379,-0.82264614,0.5332464,0.19723481,0
2.8491702,3.9226532,-2.4727907,0.53057212,0.84468341,-0.070734076,0
-2.0068121,-4.8055468,-1.7519716,-0.53057212,-0.84468341,0.070734076,0
2.1190314,4.2746348,2.1231756,-0.12542072,0.1607618,0.97899199,0
-2.7066011,-4.3396921,-1.4379542,-0.53057212,-0.84468341,0.070734076,0
-0.50137711,-2.2533908,2.5373535,0.29795256,-0.10772708,0.94848263,0
-0.95113909,3.1781538,-0.011534274,-0.84326333,0.53446054,0.057086259,0
4.3557076,3.2117605,0.33840978,0.53057212,0.84468341,-0.070734076,0
-0.69171238,-4.5577526,-1.3985133,0.59726053,-0.43175957,-0.67591679,0
2.6869259,4.3434682,1.3354679,0.53057212,0.84468341,-0.070734076,0
0.70339167,3.550391,-2.3848612,-0.47011322,0.22379863,-0.8537609,0
-3.6000719,-3.673727,-0.18709159,-0.53057212,-0.84468341,0.070734076,0
-2.8643346,-4.0836325,0.4366723,-0.53057212,-0.84468341,0.070734076,0
3.2146146,3.6798811,-2.6307154,0.53057212,0.84468341,-0.070734076,0
-0.43567258,1.4812878,-2.2943249,-0.42519784,0.19303045,-0.88427711,0
-2.4585133,-4.3314605,0.52123547,-0.53057212,-0.84468341,0.070734076,0
-1.5650792,-4.7270546,2.498775,-0.53057212,-0.84468341,0.070734076,0
-1.565478,-0.76507282,-2.2259259,-0.34617761,0.13975903,-0.92770064,0
0.93224919,4.8434596,-2.0788968,-0.63155043,0.33827525,-0.69764888,0
1.9763167,4.6695852,-0.10038094,0.53057212,0.84468341,-0.070734076,0
-3.0176549,-0.59109044,-0.9616648,-0.77573967,0.45023909,-0.44216824,0
1.3803616,-2.2013798,0.96281445,0.80579865,-0.47672868,0.35130936,0
-0.095976532,-0.34235859,2.5284164,0.071745992,0.038396716,0.99668354,0
0.98754179,5.2294359,-0.83156717,0.53057212,0.84468341,-0.070734076,0
4.3124661,3.1989374,-0.13906455,0.53057212,0.84468341,-0.070734076,0
-2.8632967,-4.2744918,-1.8347316,-0.53057212,-0.84468341,0.070734076,0
-1.96457,0.14417827,-1.7338824,-0.61648709,0.32726604,-0.71612883,0
1.3763852,5.0716381,0.20074938,0.53057212,0.84468341,-0.070734076,0
-2.8929205,-4.1125717,-0.12333095,-0.53057212,-0.84468341,0.070734076,0
-1.2830421,-5.1453214,-0.38048521,-0.53057212,-0.84468341,0.070734076,0
1.6974628,4.6588907,-2.3197749,0.53057212,0.84468341,-0.070734076,0
-1.2872629,-5.0823555,0.33975393,-0.53057212,-0.84468341,0.070734076,0
0.7464242,2.0685084,2.3095739,-0.12162238,0.15844765,0.97984815,0
1.8194915,4.8727951,1.1499534,0.53057212,0.84468341,-0.070734076,0
-2.1098123,1.335521,0.12277895,-0.843925,0.53420842,0.049111575,0
-2.5173137,-4.4350915,-1.1573426,-0.53057212,-0.84468341,0.070734076,0
-1.0276778,-3.3486814,2.5738223,0.34359121,-0.13803235,0.92891985,0
-3.0010738,-4.0582242,-0.28558993,-0.53057212,-0.84468341,0.070734076,0
-0.28803515,-3.8907807,1.9567497,0.64407915,-0.34749949,0.68147355,0
2.6616695,3.0495777,2.1413989,0.25041685,-0.076475784,0.96511286,0
-3.1015005,-0.57234383,1.080302,-0.77254373,0.51621956,0.36972108,0
-0.91262126,-2.4012525,-2.276118,0.13400981,-0.1659884,-0.97697961,0
1.685827,5.0116649,1.8056711,0.53057212,0.84468341,-0.070734076,0
1.9285401,4.2387581,-2.7548633,-0.2469641,0.074217796,-0.96617836,0
-2.0034108,1.1816542,-0.91653609,-0.80136436,0.47266167,-0.36661452,0
-3.2393711,-3.669693,2.5666833,-0.53057212,-0.84468341,0.070734076,0
0.63690001,2.9404936,-2.4866548,-0.38141695,0.16338888,-0.90984893,0
-3.3370967,-0.6327908,0.39567432,-0.83969474,0.53516448,0.092258826,0
-3.4951546,-3.8056307,-0.97526217,-0.53057212,-0.84468341,0.070734076,0
-1.7104875,-4.9099469,-0.77596098,-0.53057212,-0.84468341,0.070734076,0
1.237483,-0.73822397,2.046006,0.51870215,-0.25754446,0.81524158,0
-4.3161898,-2.2887321,0.85678232,-0.81730705,0.5319252,0.22150561,0
0.079472989,0.92317021,-2.5284464,-0.18060942,0.031124465,-0.98306245,0
1.6821431,5.0001149,1.6401147,0.53057212,0.84468341,-0.070734076,0
-2.6645167,-1.6972618,-1.9047444,-0.490107,0.2376229,-0.83864802,0
2.3721585,4.4176373,-0.13988422,0.53057212,0.84468341,-0.070734076,0
-3.3832922,-3.8188705,-0.29430795,-0.53057212,-0.84468341,0.070734076,0
2.1036654,4.5340228,-0.76399249,0.53057212,0.84468341,-0.070734076,0
-4.383328,-2.2944217,0.09550029,-0.84701073,0.52511477,-0.082627445,0
-1.4179071,-4.6132669,-1.8381872,0.39190561,-0.31844735,-0.86313444,0
2.8362532,3.9213605,-2.5851099,0.53057212,0.84468341,-0.070734076,0
0.9090631,5.3733492,0.29833993,0.53057212,0.84468341,-0.070734076,0
2.3117073,4.3679132,-1.1871164,0.53057212,0.84468341,-0.070734076,0
0.35461974,-3.4974868,-1.0641762,0.71292269,-0.48983037,-0.50180423,0
1.1585517,-1.7294989,-1.5675659,0.61947334,-0.44336018,-0.64783072,0
0.6837796,3.0692325,-2.4829683,-0.39096698,0.169827,-0.9046014,0
2.7721291,4.1015043,-0.91488844,0.53057212,0.84468341,-0.070734076,0
2.8483498,1.7279804,-2.2215567,0.47548994,-0.36567256,-0.80012047,0
-1.9947631,-2.942121,-2.251272,-0.079662472,-0.033388883,-0.99626255,0
2.7269185,4.2138987,0.088180572,0.53057212,0.84468341,-0.070734076,0
1.8377384,4.6785688,-1.0325693,0.53057212,0.84468341,-0.070734076,0
-0.97223914,3.1506588,-0.21804053,-0.84749854,0.53015673,-0.026076853,0
-1.3223547,-5.1725011,-0.9999342,-0.53057212,-0.84468341,0.070734076,0
1.4062847,5.0762196,0.47973168,0.53057212,0.84468341,-0.070734076,0
2.0222721,-0.18465626,1.6629176,0.63926154,-0.34394497,0.68778378,0
-0.88762343,-2.4491367,2.6251791,0.22335553,-0.058820553,0.97296059,0
-3.3293276,-3.434226,2.6320567,-0.30168742,0.26616365,0.9155007,0
1.4691362,4.9709096,-0.306391,0.53057212,0.84468341,-0.070734076,0
-2.3271358,0.968521,-0.23722947,-0.8459968,0.52250355,-0.10620469,0
-0.4477762,3.9866498,-0.26161981,-0.84728849,0.53090477,-0.015568703,0
-2.3966217,-4.5381312,-1.4825181,-0.53057212,-0.84468341,0.070734076,0
1.3516431,3.502492,-2.6618662,-0.2793791,0.095479414,-0.95542181,0
-3.515316,-3.5287418,2.180023,-0.53057212,-0.84468341,0.070734076,0
0.19357729,-4.3636675,0.52908254,0.84583408,-0.52215117,0.10919213,0
-1.5801134,-5.0032496,-0.91223466,-0.53057212,-0.84468341,0.070734076,0
2.0801854,3.672575,2.199887,-0.027504474,0.10056047,0.9945507,0
0.9301669,-0.31766027,-2.3315389,0.28927258,-0.25887442,-0.92157763,0
-1.5943177,-5.0133452,-1.1393313,-0.53057212,-0.84468341,0.070734076,0
1.0422108,-2.020689,1.6411617,0.68640655,-0.37918982,0.62053299,0
-0.8411417,-5.4005809,-0.1140399,-0.53057212,-0.84468341,0.070734076,0
1.5617366,-0.83313519,1.7654645,0.62469459,-0.33325407,0.70618564,0
0.50069928,2.9895282,2.0185075,-0.3617202,0.30109414,0.88232702,0
-2.0577815,-4.3118482,-2.1081231,0.14992091,-0.17564693,-0.9729706,0
-4.3136268,-3.1590385,0.60681927,-0.53057212,-0.84468341,0.070734076,0
1.9527026,4.5574732,-1.6163101,0.53057212,0.84468341,-0.070734076,0
-3.431149,-2.6609068,2.3015804,-0.4745414,0.36514407,0.80092472,0
-2.4140873,-4.4460883,-0.51438165,-0.53057212,-0.84468341,0.070734076,0
3.9376926,3.4691877,1.656271,0.53463787,-0.2687287,0.80121607,0
1.4595464,-1.5936453,1.425612,0.72655743,-0.41021454,0.55121529,0
-2.6409676,-1.1963751,2.097192,-0.51305479,0.38644791,0.7664417,0
2.2879319,0.07351315,-1.7215562,0.6185233,-0.44286764,-0.64907408,0
-1.3643086,1.344786,-1.6920278,-0.65857363,0.35825425,-0.66176623,0
-3.8790576,-3.3167973,1.9825851,-0.53057212,-0.84468341,0.070734076,0
-2.3750722,-4.3871574,0.48200789,-0.53057212,-0.84468341,0.070734076,0
0.37442303,-2.0691719,-1.9542242,0.44920418,-0.35096112,-0.82160938,0
-3.169131,-0.77820611,1.216965,-0.75302482,0.50801682,0.41817755,0
-3.8234687,-3.5585027,-0.48680508,-0.53057212,-0.84468341,0.070734076,0
2.805697,4.0884871,-0.81853098,0.53057212,0.84468341,-0.070734076,0
-0.38978505,3.8170428,-1.0403678,-0.81190759,0.48245984,-0.32869232,0
-0.91611874,-5.2068133,1.6374632,-0.53057212,-0.84468341,0.070734076,0
-1.4225571,-0.52957249,-2.2437744,-0.34758776,0.14070091,-0.92703074,0
2.49786,-0.70843863,0.14840847,0.84710521,-0.5254249,0.079632729,0
3.3404002,3.8016577,-0.23297857,0.53057212,0.84468341,-0.070734076,0
-3.6727867,-2.2502575,-1.339618,-0.67226398,0.36850205,-0.64208049,0
4.3070993,3.175426,-0.46007589,0.53057212,0.84468341,-0.070734076,0
-1.0237927,-5.0907092,-1.3515073,0.598068,-0.43218419,-0.67493069,0
-1.7555672,0.20349672,-1.8760419,-0.56918812,0.29319951,-0.76815295,0
2.652627,4.047368,-2.4577298,0.53057212,0.84468341,-0.070734076,0
2.2945611,0.39260876,1.6950939,0.61451566,-0.32583132,0.71847367,0
-2.3396842,-2.5204735,-2.1830018,-0.25335395,0.078397825,-0.96419168,0
2.7295625,4.2939606,1.0640711,0.53057212,0.84468341,-0.070734076,0
-3.4848044,-3.824204,-1.1194195,-0.53057212,-0.84468341,0.070734076,0
-1.697955,-4.6395392,2.5471637,-0.53057212,-0.84468341,0.070734076,0
-2.0691633,-4.6963367,-0.91551149,-0.53057212,-0.84468341,0.070734076,0
4.4521232,3.099308,-0.28125107,0.53057212,0.84468341,-0.070734076,0
1.9462899,4.6768022,-0.23944637,0.53057212,0.84468341,-0.070734076,0
2.9567409,0.18786204,-0.8111667,0.80390507,-0.5279001,-0.27396753,0
-3.7967582,-3.522367,0.14506161,-0.53057212,-0.84468341,0.070734076,0
-3.437017,-0.80407596,0.47149944,-0.8365677,0.53525889,0.11684356,0
0.62625599,5.5480518,0.26326215,0.53057212,0.84468341,-0.070734076,0
-0.8949759,2.3900056,1.3542696,-0.66533077,0.46670911,0.58268136,0
1.6804593,4.2649422,2.0390992,-0.25098988,0.23626284,0.93871397,0
4.3166175,3.077827,-1.5541745,0.53057212,0.84468341,-0.070734076,0
-1.4188259,-4.8422098,2.2206628,-0.53057212,-0.84468341,0.070734076,0
2.3800709,2.8694527,-2.719908,0.12879935,-0.16281883,-0.97821313,0
-2.5935056,-4.0863633,2.4355495,-0.53057212,-0.84468341,0.070734076,0
3.6426101,3.5586624,-0.86789465,0.53057212,0.84468341,-0.070734076,0
-3.5398958,-3.6098905,1.026603,-0.53057212,-0.84468341,0.070734076,0
3.2634306,3.8177319,-0.61837834,0.53057212,0.84468341,-0.070734076,0
0.088107705,0.50670391,2.4648993,-0.028510332,0.10118461,0.99445921,0
1.3981024,-2.2304752,-0.71551836,0.79091841,-0.52335417,-0.31709379,0
1.5760075,4.7819333,-1.7614553,0.53057212,0.84468341,-0.070734076,0
2.9628866,4.0300465,-0.33734196,0.53057212,0.84468341,-0.070734076,0
-4.7409887,-2.9400711,0.016032577,-0.53057212,-0.84468341,0.070734076,0
-1.4503589,-2.3894556,2.7040985,0.052112728,0.050784692,0.99734908,0
3.7533784,3.5385242,-0.27751312,0.53057212,0.84468341,-0.070734076,0
1.1686251,-1.3653294,-1.7848873,0.55382264,-0.40862453,-0.72546983,0
-2.282506,-2.1761537,-2.1659346,-0.29839006,0.10801615,-0.9483121,0
-2.6201818,0.31438589,0.82813609,-0.79696012,0.52553165,0.29777697,0
-3.2924855,-3.9079175,-0.67652261,-0.53057212,-0.84468341,0.070734076,0
4.1175961,3.3465095,0.1614784,0.53057212,0.84468341,-0.070734076,0
-1.6459692,-5.0145488,-1.7935603,0.39896727,-0.32248551,-0.85838699,0
-0.33724177,0.41631886,2.4419146,-0.1348967,0.16652757,0.97676581,0
0.3342135,4.0769453,1.3882775,-0.61396575,0.44049987,0.65498537,0
2.8977826,4.1092682,0.12035483,0.53057212,0.84468341,-0.070734076,0
-0.54502112,-3.4535158,2.3208163,0.49730062,-0.24261741,0.83296394,0
2.4523926,4.2202091,-1.895681,0.53057212,0.84468341,-0.070734076,0
-2.3053546,-4.6068234,-1.6182221,-0.53057212,-0.84468341,0.070734076,0
-0.67181695,-3.5499601,-1.8903431,0.41493192,-0.33158332,-0.84728044,0
-1.0796854,-0.24427122,2.4351242,-0.22995356,0.22375402,0.94713002,0
-1.5392351,-5.0553784,-1.2281221,-0.53057212,-0.84468341,0.070734076,0
-1.712769,1.1873381,1.3808196,-0.68436623,0.47611573,0.55222893,0
1.1993099,5.1626759,-0.040338099,0.53057212,0.84468341,-0.070734076,0
-4.0161324,-3.5315342,-1.6099181,-0.53057212,-0.84468341,0.070734076,0
2.2889013,4.2912111,-2.2741272,0.53057212,0.84468341,-0.070734076,0
-4.4623394,-2.4383359,0.61687362,-0.83609259,0.53524601,0.12025291,0
3.3683543,3.9589038,1.8544803,0.53057212,0.84468341,-0.070734076,0
2.9798694,3.6757259,2.1075633,0.22911149,-0.062567823,0.97138721,0
-1.0812151,1.6545868,-1.8023689,-0.63440657,0.34037247,-0.69402796,0
4.455081,3.0586367,-0.74473846,0.53057212,0.84468341,-0.070734076,0
-3.5797029,-3.6902933,-0.23213094,-0.53057212,-0.84468341,0.070734076,0
4.2848902,3.1707654,-0.6823386,0.53057212,0.84468341,-0.070734076,0
-2.3596807,-4.5613046,-1.4821494,-0.53057212,-0.84468341,0.070734076,0
-3.4130239,-3.9228258,-1.7587166,-0.53057212,-0.84468341,0.070734076,0
1.813706,-0.17627937,1.8428118,0.58051908,-0.3012968,0.75645071,0
1.0565084,2.7604165,-2.6450202,-0.23091814,0.063744873,-0.97088277,0
0.78287935,5.0326858,1.1531864,-0.65988159,0.46398258,0.59099603,0
-0.85165799,0.72225881,2.2367435,-0.34066316,0.28890347,0.89469737,0
3.1139979,3.9820957,0.22351187,0.53057212,0.84468341,-0.070734076,0
4.2325497,3.220715,-0.47845432,0.53057212,0.84468341,-0.070734076,0
-0.1736021,-4.5188718,-0.80079246,0.74816668,-0.50589818,-0.42931768,0
-2.5878944,-4.4006248,-1.2751858,-0.53057212,-0.84468341,0.070734076,0
2.9020452,2.9308729,-2.6242633,0.26923865,-0.24706635,-0.930843,0
-2.2298744,-4.6792946,-1.917478,-0.53057212,-0.84468341,0.070734076,0
2.0315056,4.8089218,1.9774938,0.53057212,0.84468341,-0.070734076,0
3.3826385,3.7791691,-0.18472153,0.53057212,0.84468341,-0.070734076,0
-0.89560866,-3.6290452,-1.9621602,0.36371398,-0.30224487,-0.88111293,0
-1.6899472,-4.9841733,-1.5082707,-0.53057212,-0.84468341,0.070734076,0
-1.671313,-4.9400215,-0.84125859,-0.53057212,-0.84468341,0.070734076,0
-4.0598574,-1.7883625,0.0020266771,-0.84616894,0.52289009,-0.10287958,0
-0.60800004,2.829535,-1.62377,-0.70635307,0.39446318,-0.58776188,0
1.3399671,-0.099237144,-2.2500844,0.36911497,-0.30535892,-0.87778705,0
0.80651665,4.6768904,1.4231334,-0.5852536,0.42542103,0.69028628,0
4.6723814,2.7931437,0.03728354,0.84267318,-0.51660329,0.15173349,0
-4.0938048,-3.4495144,-1.2130705,-0.53057212,-0.84468341,0.070734076,0
1.0029056,1.8082743,-2.6501477,-0.075713575,-0.035887811,-0.99648356,0
4.3102412,2.451396,-1.1757609,0.78164911,-0.5198403,-0.3446604,0
2.0565186,4.6438146,0.19345109,0.53057212,0.84468341,-0.070734076,0
1.9102134,-1.5734503,0.49840927,0.83853847,-0.5108487,0.18943787,0
4.2453027,3.2431321,-0.11509413,0.53057212,0.84468341,-0.070734076,0
-3.424021,-3.5857973,2.1834943,-0.53057212,-0.84468341,0.070734076,0
2.6726952,0.62340903,-1.7292721,0.63040978,-0.44900677,-0.63322699,0
-3.9006672,-3.6097107,-1.6773856,-0.53057212,-0.84468341,0.070734076,0
4.3928337,2.4519029,-0.95829916,0.80855954,-0.52939117,-0.256859,0
0.78719002,2.6409066,-2.5828247,-0.28596178,0.099814653,-0.95302838,0
-0.69722557,2.1653485,-1.9012263,-0.61709529,0.3277089,-0.71540225,0
0.95023561,5.3123908,-0.12078512,0.53057212,0.84468341,-0.070734076,0
3.1882176,3.8676405,-0.58653724,0.53057212,0.84468341,-0.070734076,0
2.5734165,4.2922587,-0.12748177,0.53057212,0.84468341,-0.070734076,0
-1.4330428,-0.95687151,2.5162036,-0.20254517,0.20736991,0.95706481,0
-4.2934623,-3.2732558,-0.60587633,-0.53057212,-0.84468341,0.070734076,0
3.2922289,2.2323816,1.6671484,0.57101417,-0.2945019,0.76629722,0
3.785655,1.3750854,0.1331172,0.84347904,-0.5178681,0.14267346,0
1.9503117,2.3717122,-2.6915722,0.094941139,-0.1421434,-0.9852823,0
-2.973824,-4.1730738,-1.4526809,-0.53057212,-0.84468341,0.070734076,0
2.4253731,4.357276,-0.46153474,0.53057212,0.84468341,-0.070734076,0
-0.80913568,3.2149155,0.55549371,-0.80053008,0.5267688,0.28577295,0
2.033813,4.6094847,-0.3868123,0.53057212,0.84468341,-0.070734076,0
-1.5915715,-4.8564205,0.75521421,-0.53057212,-0.84468341,0.070734076,0
4.238699,3.0465574,1.2016832,0.69008535,-0.38198829,0.61470896,0
-1.5570195,0.39046541,2.0203471,-0.48715132,0.37215438,0.79005367,0
-1.417168,-5.0230026,0.074141949,-0.53057212,-0.84468341,0.070734076,0
-1.6962698,-3.7830625,2.7300386,0.23165461,-0.064224809,0.97067577,0
2.9110999,3.9270577,-1.9556586,0.53057212,0.84468341,-0.070734076,0
-2.7147305,-4.0729527,1.6863734,-0.53057212,-0.84468341,0.070734076,0
-2.3148329,-4.4964776,-0.37160689,-0.53057212,-0.84468341,0.070734076,0
-2.9198921,-3.9684958,1.3948631,-0.53057212,-0.84468341,0.070734076,0
2.7887783,4.1652322,-0.02896367,0.53057212,0.84468341,-0.070734076,0
-3.8640995,-3.4999709,-0.09260416,-0.53057212,-0.84468341,0.070734076,0
-2.0183809,-4.5614877,1.0757465,-0.53057212,-0.84468341,0.070734076,0
-3.4761314,-3.6207871,1.3747668,-0.53057212,-0.84468341,0.070734076,0
0.62393069,-3.3482845,1.1375661,0.79662704,-0.46838972,0.38209474,0
-4.1062112,-1.8591359,0.50896543,-0.83919328,0.53520411,0.096494108,0
2.5548112,4.3760133,0.73313344,0.53057212,0.84468341,-0.070734076,0
3.4501631,1.6239207,1.1955236,0.71840054,-0.40381771,0.56642026,0
3.0230415,4.0120897,-0.10056336,0.53057212,0.84468341,-0.070734076,0
-4.4574566,-3.0373054,0.98166037,-0.53057212,-0.84468341,0.070734076,0
3.8070092,3.5193276,-0.10447598,0.53057212,0.84468341,-0.070734076,0
0.41857553,-3.5642653,-0.89359939,0.74583519,-0.50487185,-0.43455073,0
-1.2380011,-5.1559668,-0.16975012,-0.53057212,-0.84468341,0.070734076,0
-3.9230268,-3.4311361,0.2873742,-0.53057212,-0.84468341,0.070734076,0
2.583472,2.3427036,2.0835948,0.35379404,-0.14484976,0.92403919,0
-1.0306046,-4.546165,-1.6581998,0.49388796,-0.37588578,-0.78408188,0
-1.5321817,-4.7840109,2.0653844,-0.53057212,-0.84468341,0.070734076,0
-0.069723606,-4.7893624,0.049490273,0.83927524,-0.53519845,-0.095811337,0
2.4269032,4.2741714,-1.4424731,0.53057212,0.84468341,-0.070734076,0
4.5423899,3.0128121,-0.63707697,0.53057212,0.84468341,-0.070734076,0
-1.0125109,2.7578006,0.79560632,-0.77342981,0.51657838,0.36735976,0
-1.7369188,-2.2215071,2.6883636,-0.060587525,0.12102675,0.99079841,0
3.6238408,3.5636191,-0.94949257,0.53057212,0.84468341,-0.070734076,0
3.6947093,3.6931849,1.1293281,0.53057212,0.84468341,-0.070734076,0
0.53678942,3.6773348,1.7628777,-0.47848591,0.36734053,0.79756641,0
-3.8792446,-3.3060994,2.1089354,-0.53057212,-0.84468341,0.070734076,0
0.37565327,5.207478,-0.81676269,-0.83782405,0.50993615,-0.19497687,0
-1.1083149,-5.0969625,1.5076109,-0.53057212,-0.84468341,0.070734076,0
-1.4100156,-4.9184117,1.3767736,-0.53057212,-0.84468341,0.070734076,0
-4.4731212,-3.1629686,-0.6364733,-0.53057212,-0.84468341,0.070734076,0
-0.55682552,3.3535759,0.90103841,-0.74768674,0.50568742,0.43040085,0
0.50309515,4.5249896,-1.8197381,-0.69390684,0.38490385,-0.60855752,0
-3.0065334,-4.0980992,-0.80271065,-0.53057212,-0.84468341,0.070734076,0
-2.8585348,-3.9875517,1.6275386,-0.53057212,-0.84468341,0.070734076,0
4.5856867,2.9735017,-0.78174233,0.53057212,0.84468341,-0.070734076,0
3.212359,3.2335997,1.9815848,0.37329552,-0.15792556,0.91417176,0
1.9710729,-0.89024436,1.2704077,0.74514282,-0.42501062,0.51393384,0
1.5386777,5.0057154,0.63086605,0.53057212,0.84468341,-0.070734076,0
-2.122947,-4.3968921,2.256938,-0.53057212,-0.84468341,0.070734076,0
3.7244334,1.3344665,-0.74784321,0.81994081,-0.53260237,-0.20983745,0
2.6334844,4.1159778,-1.7820166,0.53057212,0.84468341,-0.070734076,0
3.3439922,3.7600641,-0.70273727,0.53057212,0.84468341,-0.070734076,0
-3.2369518,-3.787271,1.1807442,-0.53057212,-0.84468341,0.070734076,0
0.95210195,5.2903852,-0.36957192,0.53057212,0.84468341,-0.070734076,0
-2.8856614,-4.0080833,1.1788735,-0.53057212,-0.84468341,0.070734076,0
2.5354335,-0.63122988,0.23601174,0.84537792,-0.52121848,0.11690798,0
-2.8089385,-4.2184324,-0.75753331,-0.53057212,-0.84468341,0.070734076,0
2.9536614,3.8569431,-2.4736803,0.53057212,0.84468341,-0.070734076,0
1.6399877,4.8123522,-0.91829562,0.53057212,0.84468341,-0.070734076,0
-2.8175731,0.0018514395,-0.63908947,-0.81968868,0.49003404,-0.29660934,0
-2.410151,-4.2846975,1.4424299,-0.53057212,-0.84468341,0.070734076,0
-2.1915472,-4.4189057,1.4794858,-0.53057212,-0.84468341,0.070734076,0
-1.7008047,-4.7849784,0.78900188,-0.53057212,-0.84468341,0.070734076,0
3.4634821,1.8437796,-1.8070048,0.63774168,-0.45276651,-0.62312758,0
0.64133894,-0.67838389,2.3532615,0.3412571,-0.13647494,0.93000996,0
1.6162125,0.12264395,-2.207036,0.4093776,-0.32842302,-0.85120398,0
4.4796791,3.1579771,0.62605202,0.53057212,0.84468341,-0.070734076,0
0.12567163,3.2002025,1.7323676,-0.51156437,0.38562956,0.76784879,0
-3.1879377,-1.5788839,1.8899821,-0.60479212,0.43571189,0.66661966,0
-1.3949223,0.58872873,2.0265019,-0.47601464,0.36596477,0.79967487,0
-3.1229384,-0.42835665,-0.49816525,-0.82821244,0.49884006,-0.25538737,0
2.7741179,3.6640434,2.1492999,0.17269996,-0.026024954,0.98463064,0
1.6525692,4.9645939,0.994102,0.53057212,0.84468341,-0.070734076,0
-0.45976084,-0.43758494,2.5449746,-0.015485168,0.093093313,0.99553692,0
-0.96324122,3.0150139,-0.77607334,-0.82897317,0.4996618,-0.25127983,0
-1.794193,-4.6162333,2.1035924,-0.53057212,-0.84468341,0.070734076,0
-2.2594256,-3.7001452,2.8130841,0.05618751,0.048217352,0.99725527,0
1.9530969,0.35335231,1.9352961,0.52702296,-0.26337665,0.80800956,0
4.1863813,3.323864,0.40700519,0.53057212,0.84468341,-0.070734076,0
1.0042255,0.66157281,-2.5335534,0.1319809,-0.16475458,-0.97746468,0
-1.169919,2.732975,0.40577298,-0.82007003,0.53263444,0.20925029,0
-3.1590185,-4.0713034,-1.62651,-0.53057212,-0.84468341,0.070734076,0
3.1014466,0.25536883,0.086116731,0.84686124,-0.52466011,0.086935759,0
-1.1902816,-5.0732694,1.1757367,-0.53057212,-0.84468341,0.070734076,0
2.3808978,4.4598775,0.43009347,0.53057212,0.84468341,-0.070734076,0
-0.78321433,-5.4859481,-0.69895446,-0.53057212,-0.84468341,0.070734076,0
2.1027279,0.83495653,-2.2475286,0.42089945,-0.33497268,-0.8429929,0
3.1105275,3.7772899,-2.2482381,0.53057212,0.84468341,-0.070734076,0
0.32820845,5.2219882,-0.36664653,-0.84730357,0.53086174,-0.016196758,0
2.421438,-0.12782931,1.2471002,0.73755145,-0.41892707,0.52963942,0
-4.3825703,-3.1113153,0.65956342,-0.53057212,-0.84468341,0.070734076,0
-3.5399661,-3.5615125,1.6037884,-0.53057212,-0.84468341,0.070734076,0
-0.25031042,-5.0694561,0.035217524,0.83737206,-0.53526622,-0.11089684,0
-1.9171894,0.53105521,-1.5814571,-0.66993576,0.36675274,-0.64550638,0
2.3337514,2.3405006,2.168081,0.2836881,-0.098316573,0.95386326,0
2.1779141,4.5420337,-0.11138907,0.53057212,0.84468341,-0.070734076,0
-0.94134092,-5.3657184,-0.44932282,-0.53057212,-0.84468341,0.070734076,0
4.6606417,2.9257112,-0.7901988,0.53057212,0.84468341,-0.070734076,0
-1.8366559,-4.7417173,0.28658727,-0.53057212,-0.84468341,0.070734076,0
-2.8107982,-4.2923465,-1.6541437,-0.53057212,-0.84468341,0.070734076,0
-2.848573,-4.259244,-1.5421997,-0.53057212,-0.84468341,0.070734076,0
-1.410123,-4.8679991,-1.7341665,0.44136906,-0.34655011,-0.82770544,0
-1.4369568,-5.0676179,-0.60708481,-0.53057212,-0.84468341,0.070734076,0
-1.8284221,1.4822,-0.91098368,-0.80486745,0.47586858,-0.35459489,0
1.964427,4.4915285,-2.3158576,0.53057212,0.84468341,-0.070734076,0
-0.18066245,-0.14736247,2.5208247,0.012337327,0.075743929,0.99705094,0
-1.3590224,-4.7053566,-1.7743669,0.42629537,-0.33803192,-0.83905107,0
3.6512115,1.1804924,-0.63267565,0.82822829,-0.53436995,-0.16877998,0
3.8388834,3.4435968,-0.7697438,0.53057212,0.84468341,-0.070734076,0
-0.43500137,-5.2283144,-0.32653373,0.80733985,-0.52900875,-0.26144248,0
1.7988912,4.86696,0.92573267,0.53057212,0.84468341,-0.070734076,0
1.5311296,0.15774447,2.1244617,0.44365621,-0.20562874,0.87228781,0
2.4082227,4.2840805,-1.4642525,0.53057212,0.84468341,-0.070734076,0
-1.9675229,-0.018428683,1.9526267,-0.53284466,0.39726442,0.74716634,0
2.4798081,4.1355329,-2.7012022,0.53057212,0.84468341,-0.070734076,0
-2.6434605,-4.3355384,-0.91473842,-0.53057212,-0.84468341,0.070734076,0
-2.4918137,-4.3958154,-0.49705887,-0.53057212,-0.84468341,0.070734076,0
1.3263869,4.3982582,-2.5038164,-0.44484568,0.2064427,-0.87148947,0
-3.0999186,-4.1022153,-1.5523318,-0.53057212,-0.84468341,0.070734076,0
