0.13561964,2.2264209,-1.1458454,0.11119491,0.85816664,-0.50118434,0
1.8313324,-0.52792096,1.7273843,0.55642062,-0.11096424,0.82345796,0
0.12598491,2.1914887,1.2508709,-0.7274279,0.41389072,0.54730535,0
-1.7652676,1.7403384,-1.3215092,-0.33333063,0.48403361,-0.80907488,0
1.7596977,1.8647829,-0.14417094,0.53303754,0.84311825,0.070870087,0
1.920647,0.49867964,1.5578091,0.66987103,0.25545245,0.6971491,0
0.82494521,1.6951307,-1.8878942,0.058867455,0.83230829,-0.55117834,0
1.3124228,-0.64027715,-0.51215017,0.7274279,-0.41389072,-0.54730535,0
-1.4406028,-0.44084936,-2.0087397,-0.64430594,-0.13761231,-0.752285,0
-1.6203712,2.1251915,-1.0200886,-0.7274279,0.41389072,0.54730535,0
0.3179791,2.6263869,0.018121839,0.37907028,0.90724123,-0.18226083,0
0.71017241,2.3173482,-0.62133121,0.31388545,0.90997446,-0.27096581,0
0.86281013,1.8821743,1.806221,0.67681277,0.5641461,0.47293103,0
-0.056652069,-2.7658703,-0.17030722,-0.37088567,-0.9082157,0.19387612,0
1.107851,-1.1007131,1.9612403,0.38842058,-0.40915087,0.82566643,0
1.2311156,0.94144869,2.0573134,0.67287385,0.27392003,0.68717444,0
-2.5795548,0.28481102,-1.1645324,-0.63698399,-0.11072981,-0.76288289,0
-2.1728876,-1.6327323,0.49453878,-0.52711546,-0.84770596,-0.059529681,0
0.063366294,-2.0587475,1.4219464,-0.0095559955,-0.80364025,0.59503871,0
-1.8483634,0.53767109,-0.12257886,-0.7274279,0.41389072,0.54730535,0
0.22050238,-2.3588834,0.99411505,-0.084238648,-0.84543884,0.52738696,0
1.235096,-1.656357,0.15346789,0.7274279,-0.41389072,-0.54730535,0
0.57500625,2.1049919,1.9130802,-0.7274279,0.41389072,0.54730535,0
1.581794,1.6030309,1.0910128,0.66471159,0.62300855,0.41233343,0
-0.71011257,-1.0470673,2.5887117,-0.7274279,0.41389072,0.54730535,0
0.0029532909,2.8520565,0.54689276,0.43112278,0.89619529,-0.10472422,0
-1.9079198,-1.6568154,1.4496053,-0.32801741,-0.9103173,0.25244185,0
-1.2189029,0.95923942,-1.9713112,-0.42797753,0.34979409,-0.83335429,0
-0.20461762,0.87208217,1.8092438,-0.7274279,0.41389072,0.54730535,0
1.3365232,-2.0057168,1.2843554,0.2147048,-0.62026787,0.75443321,0
-0.57835174,-0.86438215,-2.6686482,-0.63800669,-0.11436877,-0.76149017,0
0.53137934,0.23021901,-2.2085395,0.7274279,-0.41389072,-0.54730535,0
1.7939644,1.040992,-1.1435611,0.7274279,-0.41389072,-0.54730535,0
1.8471388,0.35594106,-0.55482841,0.7274279,-0.41389072,-0.54730535,0
-0.0016107559,-1.1177299,2.3913834,0.2459161,-0.58737946,0.77104515,0
1.6944954,-0.36121988,1.8408053,0.56878698,-0.082462966,0.81834048,0
-0.034937173,-0.67236018,2.7017193,0.34269646,-0.47188228,0.81233382,0
-1.7403018,-1.5403428,-0.92902201,-0.66121823,-0.63599586,-0.39786893,0
-1.2515051,-1.6839972,-1.4858193,-0.6751287,-0.57429683,-0.46301645,0
-0.68604791,0.27254546,1.6227605,-0.7274279,0.41389072,0.54730535,0
-1.8018029,-0.59622979,0.79679906,-0.7274279,0.41389072,0.54730535,0
-0.19556069,1.5491232,1.3092803,-0.7274279,0.41389072,0.54730535,0
0.68324494,-0.95120335,2.2334735,0.36980915,-0.43539411,0.82077593,0
2.5923772,0.99686217,0.37634867,0.6682328,0.60853738,0.42795706,0
0.90220618,1.9723814,1.6280513,0.66672254,0.61493599,0.42111111,0
1.5282302,-2.0730224,1.1740345,0.22513656,-0.60949475,0.76015115,0
-0.25632358,2.4005373,0.58465219,-0.7274279,0.41389072,0.54730535,0
2.0772996,0.60862136,-0.44000521,0.7274279,-0.41389072,-0.54730535,0
0.44485533,0.42340231,2.7873797,0.57866466,-0.058641553,0.81345451,0
0.85227978,0.80730295,-2.2184384,0.7274279,-0.41389072,-0.54730535,0
-0.42874789,2.5978951,0.20623285,-0.7274279,0.41389072,0.54730535,0
1.0448836,-1.7906929,0.0022444725,0.7274279,-0.41389072,-0.54730535,0
-0.57943618,1.3884647,0.92056394,-0.7274279,0.41389072,0.54730535,0
2.4240088,-0.37998509,0.7684263,0.7274279,-0.41389072,-0.54730535,0
0.97511184,1.7618382,-1.7549413,0.11635613,0.86045814,-0.49605751,0
-0.51584536,1.1598811,-2.1800761,-0.30464652,0.51988775,-0.79806471,0
0.18798351,-2.0104623,-0.97047085,0.7274279,-0.41389072,-0.54730535,0
1.1347013,2.1277909,0.83513081,0.60295403,0.76629663,0.22189166,0
-1.2902752,1.8567487,-0.37835014,-0.7274279,0.41389072,0.54730535,0
1.248927,1.7106056,-1.7692081,0.15948445,0.87774408,-0.45180756,0
0.28697199,0.88286644,-2.6601143,-0.26325142,0.56824332,-0.77961421,0
1.3620338,-1.8535153,1.3955768,0.2555511,-0.57682204,0.77586722,0
-2.5934401,-0.18096972,-1.0264101,-0.67369723,-0.27931315,-0.68419027,0
-1.9138513,-1.4204445,-0.83152699,-0.663939,-0.62598693,-0.40905428,0
-1.0976112,1.3222742,-1.846396,-0.34152037,0.47342059,-0.81193393,0
-1.3787189,-1.9575262,-0.75169706,-0.61512053,-0.74680495,-0.25280261,0
-1.3532676,-0.60629308,1.400561,-0.7274279,0.41389072,0.54730535,0
1.5804467,0.017619252,1.9386827,0.60851777,0.020510286,0.79327518,0
-0.81828082,-0.27006027,-2.5099924,-0.58635437,0.039365262,-0.80909759,0
-1.297558,1.4776242,-0.10132313,-0.7274279,0.41389072,0.54730535,0
-1.3574208,0.77292848,-1.9656055,-0.47559476,0.27083731,-0.8369329,0
-2.386914,-0.64124393,0.053164363,-0.7274279,0.41389072,0.54730535,0
0.8382017,0.93332607,-2.3324525,0.7274279,-0.41389072,-0.54730535,0
2.4509878,0.67488587,0.89977151,0.68618304,0.43735456,0.58126909,0
-1.1155341,-1.7505307,1.7372974,-0.14425123,-0.87202233,0.46772712,0
-1.5994101,0.85604024,-0.032454491,-0.7274279,0.41389072,0.54730535,0
-1.5446669,1.6359715,-0.549505,-0.7274279,0.41389072,0.54730535,0
-0.69788647,-2.2671814,-1.4622686,-0.63734323,-0.70307106,-0.31541196,0
-1.7651863,1.7698585,-1.303707,-0.32692522,0.49221563,-0.80674887,0
-0.31260708,-0.31737441,2.5652211,-0.7274279,0.41389072,0.54730535,0
-0.6430887,-1.8086469,1.7358372,-0.062502563,-0.83425754,0.54782093,0
-0.91858387,1.0151551,0.75210881,-0.7274279,0.41389072,0.54730535,0
-0.04559207,1.2147856,1.7614422,-0.7274279,0.41389072,0.54730535,0
1.5704613,1.6804497,0.98394006,0.65484947,0.65700823,0.37351382,0
-0.11799431,-0.72087723,-2.352376,0.7274279,-0.41389072,-0.54730535,0
-1.9820724,1.3955607,-0.94905734,-0.7274279,0.41389072,0.54730535,0
0.89454818,-2.4514508,0.90180802,0.016862869,-0.7865836,0.61725348,0
-0.40400463,1.3204185,-2.1074281,-0.25267977,0.57998872,-0.77444565,0
1.6992769,-0.80267334,0.12483037,0.7274279,-0.41389072,-0.54730535,0
0.17796457,1.8958132,-1.6377988,0.0010113716,0.79825306,-0.60232139,0
-0.17501974,2.6991458,-0.30614084,0.2433427,0.90136856,-0.3582164,0
-1.5189643,-0.99497879,1.4742694,-0.7274279,0.41389072,0.54730535,0
0.98193777,-1.2512927,-0.48932961,0.7274279,-0.41389072,-0.54730535,0
-1.454982,-1.8345001,-0.89688796,-0.63778925,-0.70205307,-0.31677476,0
2.1267905,1.5725744,0.055845231,0.59883749,0.7723434,0.21184768,0
0.27428913,-0.6379655,-1.8936896,0.7274279,-0.41389072,-0.54730535,0
-1.9975563,-1.2102487,1.0009633,-0.7274279,0.41389072,0.54730535,0
-1.9539351,-0.19647396,-1.6132203,-0.64857,-0.15426606,-0.74535835,0
-1.9718459,1.6560074,-1.2788523,-0.3756004,0.42733634,-0.82237953,0
-1.2112093,-0.38728249,1.4237487,-0.7274279,0.41389072,0.54730535,0
-0.22421873,0.20538664,2.2873693,-0.7274279,0.41389072,0.54730535,0
-1.3287048,-1.1491456,-1.8543335,-0.68394214,-0.37291163,-0.62702471,0
-2.3521154,-0.41283774,-1.1663337,-0.67845297,-0.31443101,-0.66395384,0
0.11183167,-1.7498291,-1.2687848,0.7274279,-0.41389072,-0.54730535,0
-1.687284,-1.7361968,-0.64289767,-0.62925434,-0.72045785,-0.29151243,0
-0.51594377,-1.9774899,-1.9310009,0.7274279,-0.41389072,-0.54730535,0
1.9887049,-0.52636003,0.30055404,0.7274279,-0.41389072,-0.54730535,0
-1.7070385,-0.53010929,-1.7490675,-0.66388303,-0.22281578,-0.71387142,0
0.27657127,2.0965586,1.5228056,-0.7274279,0.41389072,0.54730535,0
0.46014786,1.9605122,1.8696816,-0.7274279,0.41389072,0.54730535,0
0.42556763,-2.1390262,1.3118348,0.031457543,-0.77665353,0.62914193,0
0.41104972,-1.4423392,-1.1036258,0.7274279,-0.41389072,-0.54730535,0
-0.08713603,2.1499426,0.99902868,-0.7274279,0.41389072,0.54730535,0
-1.8194313,-1.7206908,1.33298,-0.3376168,-0.91026652,0.23964494,0
1.8297043,1.3734752,-1.347494,0.7274279,-0.41389072,-0.54730535,0
-2.2582893,-1.2260886,-0.56989133,-0.66373837,-0.62674975,-0.40821075,0
-2.1023929,0.61885381,-1.5312096,-0.56528008,0.090687215,-0.81989896,0
-0.13862097,0.11611927,2.4686451,-0.7274279,0.41389072,0.54730535,0
-0.76723194,-1.6765691,-2.132699,-0.68604231,-0.45489985,-0.56781352,0
-1.6643779,-0.20362377,0.68254983,-0.7274279,0.41389072,0.54730535,0
-0.95969772,-1.3927646,-2.1114557,-0.68472946,-0.38592851,-0.61822718,0
-0.15441144,1.6674974,-1.8692967,-0.12595031,0.70351923,-0.69942635,0
0.84430462,0.81430769,-2.2343354,0.7274279,-0.41389072,-0.54730535,0
-0.98875093,-2.1496255,-1.1278327,-0.62470824,-0.72943586,-0.27868074,0
1.8759651,-0.47894144,0.11485112,0.7274279,-0.41389072,-0.54730535,0
2.0477569,0.083246827,1.5541116,0.64319134,0.13338858,0.75399768,0
0.34852338,2.579278,-0.14000142,0.3539685,0.90963167,-0.2174316,0
0.076183558,2.7105289,-0.029075801,0.33614773,0.91028953,-0.24161489,0
-1.6424744,-1.0890589,1.3812577,-0.7274279,0.41389072,0.54730535,0
2.3838744,-0.25862384,0.62330568,0.7274279,-0.41389072,-0.54730535,0
-0.27741814,0.41695362,2.0566676,-0.7274279,0.41389072,0.54730535,0
1.6300876,1.53115,-1.7320449,0.7274279,-0.41389072,-0.54730535,0
-1.7961943,0.90751648,-1.6703236,-0.49500102,0.2358532,-0.83626986,0
-1.2979894,1.4406176,-0.073910713,-0.7274279,0.41389072,0.54730535,0
-1.3408985,-1.9552137,-0.84712529,-0.62291574,-0.73283678,-0.27372646,0
0.84573412,0.30519357,2.4912887,0.59277749,-0.0227184,0.80504584,0
1.8035998,0.12717438,1.7524265,0.63407874,0.10057637,0.76669979,0
1.1591413,1.5251738,1.7773887,0.68503839,0.48410806,0.54439127,0
-1.6394362,2.0858192,-1.0156536,-0.7274279,0.41389072,0.54730535,0
-1.3711329,1.4266777,-0.16058481,-0.7274279,0.41389072,0.54730535,0
-0.41333461,2.8390594,-0.11592853,0.24559969,0.90181148,-0.35555148,0
1.91524,0.33597779,-0.44921774,0.7274279,-0.41389072,-0.54730535,0
-1.3554733,-0.042948008,0.971609,-0.7274279,0.41389072,0.54730535,0
1.3399769,0.54671514,-1.3731711,0.7274279,-0.41389072,-0.54730535,0
-0.95667267,-2.1350832,-1.233001,-0.6336633,-0.71122301,-0.30435619,0
-0.025826216,1.9244312,1.2510551,-0.7274279,0.41389072,0.54730535,0
-2.1077323,1.011106,-0.82533538,-0.7274279,0.41389072,0.54730535,0
-0.29168701,1.3342814,1.3439887,-0.7274279,0.41389072,0.54730535,0
-1.3158394,-1.851319,1.4267323,-0.24357206,-0.90141404,0.35794604,0
-2.3433828,-0.21184254,-1.2560569,-0.66689086,-0.23862419,-0.70591432,0
2.0981345,-0.075665951,0.10516787,0.7274279,-0.41389072,-0.54730535,0
0.63481718,-0.8362639,-1.264549,0.7274279,-0.41389072,-0.54730535,0
1.2274984,-2.3567817,0.67305458,0.7274279,-0.41389072,-0.54730535,0
-0.75139308,0.49575496,1.3671114,-0.7274279,0.41389072,0.54730535,0
-1.2555714,-0.34174025,1.3303463,-0.7274279,0.41389072,0.54730535,0
2.3228986,1.4821767,-0.1745778,0.58819103,0.78687441,0.18670835,0
0.69319797,-2.4267087,0.9350583,-0.012784481,-0.8056435,0.59226274,0
-2.3816831,1.0290592,-1.2030222,-0.7274279,0.41389072,0.54730535,0
-0.33101654,-2.3541543,-1.4003668,0.7274279,-0.41389072,-0.54730535,0
1.2037286,0.68091595,2.164887,0.65347087,0.17451373,0.73656011,0
2.0816598,1.2108529,0.86222041,0.67519063,0.57394004,0.46336854,0
-1.0046295,0.49090803,1.0341985,-0.7274279,0.41389072,0.54730535,0
-0.1601274,-1.4836348,-1.8315527,0.7274279,-0.41389072,-0.54730535,0
0.11354351,1.6419828,1.6498895,-0.7274279,0.41389072,0.54730535,0
1.7597188,-1.7193158,1.3363084,0.33717406,-0.47907439,0.81043291,0
-0.22748798,0.016971827,2.4255099,-0.7274279,0.41389072,0.54730535,0
-1.7262349,-1.8820581,0.098858073,-0.53603184,-0.84070891,-0.076671742,0
-1.4101011,-0.56590474,1.2944801,-0.7274279,0.41389072,0.54730535,0
-2.3192005,-1.5106467,0.80063432,-0.7274279,0.41389072,0.54730535,0
-0.20994282,-2.12745,-1.410888,0.7274279,-0.41389072,-0.54730535,0
-0.53356236,0.89499438,-2.3305709,-0.36385,0.44358635,-0.81905091,0
-1.7704233,-0.50692475,0.77097017,-0.7274279,0.41389072,0.54730535,0
-0.2920202,0.72136104,-2.5316575,-0.37129191,0.43334022,-0.82119346,0
-1.89986,1.2043504,-0.69518864,-0.7274279,0.41389072,0.54730535,0
0.46637732,-0.39992487,-1.818398,0.7274279,-0.41389072,-0.54730535,0
-2.4978201,-0.18300033,-1.1188422,-0.67065257,-0.26009545,-0.69467664,0
-0.95350432,2.5521541,-0.45663452,-0.7274279,0.41389072,0.54730535,0
0.47054809,-0.26682132,2.633358,0.47585189,-0.27038527,0.8369329,0
-0.88641393,-1.7200997,1.841267,-0.080876827,-0.84376276,0.53058773,0
-1.4311405,-0.20714903,0.99521327,-0.7274279,0.41389072,0.54730535,0
-0.89006376,-2.0880294,-1.4590148,-0.6514442,-0.66712493,-0.36133745,0
-1.7095175,-1.6346474,-0.81833065,-0.64914972,-0.67357814,-0.35340777,0
-0.19879824,-1.458153,2.1434493,0.12829715,-0.70150429,0.70102191,0
0.44348311,-2.5387123,-0.23140454,0.7274279,-0.41389072,-0.54730535,0
2.2532654,0.63277948,1.1529059,0.68418485,0.37664902,0.62452096,0
-1.9121658,1.6773911,-1.2944129,-0.364263,0.44302183,-0.8191728,0
1.0190382,0.82284772,-2.0085542,0.7274279,-0.41389072,-0.54730535,0
-0.11692309,2.5432723,0.66198909,-0.7274279,0.41389072,0.54730535,0
-1.7354112,-1.8832563,0.18977457,-0.52342582,-0.85044909,-0.052551277,0
-0.32022154,0.66595966,1.8114704,-0.7274279,0.41389072,0.54730535,0
0.91489065,0.66971993,2.4159167,0.63769948,0.11327201,0.76191133,0
-1.9637322,0.013320923,0.12061489,-0.7274279,0.41389072,0.54730535,0
2.2097821,-0.85607648,0.84373224,0.7274279,-0.41389072,-0.54730535,0
0.011651039,-2.6780734,-0.69996589,0.7274279,-0.41389072,-0.54730535,0
-0.039496899,1.8153811,1.3153526,-0.7274279,0.41389072,0.54730535,0
2.6245131,0.60538316,0.74675369,0.68612635,0.44907856,0.57232773,0
2.3516898,-1.1364214,1.2443491,0.7274279,-0.41389072,-0.54730535,0
1.2756197,-1.4175479,0.02673316,0.7274279,-0.41389072,-0.54730535,0
-0.66527402,0.68330288,1.3397431,-0.7274279,0.41389072,0.54730535,0
0.025436521,-1.6842148,1.873131,0.10025659,-0.72494066,0.68147618,0
-1.3947654,-2.0827267,0.13184622,-0.49251616,-0.87029618,0.0035400875,0
-0.93935657,-2.1943684,0.76854467,-0.31879544,-0.9101491,0.26457173,0
-1.7163364,1.6551412,-0.79216897,-0.7274279,0.41389072,0.54730535,0
0.24116151,-0.76961786,2.5280428,0.35532594,-0.45513359,0.81645375,0
0.51510406,-2.6537943,0.55556285,-0.1341092,-0.86797923,0.47814935,0
0.0057210922,2.3810661,0.94766253,-0.7274279,0.41389072,0.54730535,0
0.019944191,-2.5371196,-0.79553759,0.7274279,-0.41389072,-0.54730535,0
1.0702176,-0.82138872,-0.69710422,0.7274279,-0.41389072,-0.54730535,0
0.17124903,0.15811032,2.8487406,-0.7274279,0.41389072,0.54730535,0
0.32434416,2.5231678,1.2636845,-0.7274279,0.41389072,0.54730535,0
1.2344935,-1.3331532,1.7815937,0.35567084,-0.45467028,0.81656182,0
2.4293373,-0.07613945,1.2559729,0.64838439,0.15352365,0.745673,0
0.47252965,1.0193945,2.5978432,-0.7274279,0.41389072,0.54730535,0
-0.23238444,2.5288079,-0.70186687,0.14900541,0.87385345,-0.46279311,0
-2.1048508,-0.85276425,-1.1743507,-0.6861406,-0.42975244,-0.58696163,0
1.5699914,1.6029525,-1.8580151,0.19284642,0.88877213,-0.41580576,0
0.7347303,0.085532665,-1.8288474,0.7274279,-0.41389072,-0.54730535,0
1.9184626,0.39498651,1.5945594,0.66282421,0.21748742,0.71649361,0
1.5201849,0.80013621,-1.3253007,0.7274279,-0.41389072,-0.54730535,0
1.9755881,0.60999751,-0.57623142,0.7274279,-0.41389072,-0.54730535,0
1.0758005,-2.2712829,0.40677512,0.7274279,-0.41389072,-0.54730535,0
-2.3401518,0.89482689,-1.0463116,-0.7274279,0.41389072,0.54730535,0
1.1157112,0.5358665,-1.6630402,0.7274279,-0.41389072,-0.54730535,0
-0.38582969,-1.364009,-2.2220004,0.7274279,-0.41389072,-0.54730535,0
2.6761646,0.6459651,0.65011442,0.68535191,0.47750753,0.54979944,0
0.50935626,-2.5469224,0.73840165,-0.093204141,-0.84981275,0.51877862,0
0.48115528,-0.90240276,-1.4187655,0.7274279,-0.41389072,-0.54730535,0
2.1946347,-0.17889643,0.31149316,0.7274279,-0.41389072,-0.54730535,0
0.13105249,-1.4593976,-1.4628723,0.7274279,-0.41389072,-0.54730535,0
0.39579302,-1.7372175,1.7543123,0.14470422,-0.6871416,0.71196705,0
0.64401364,-2.8080533,0.23880696,0.7274279,-0.41389072,-0.54730535,0
-2.1538873,-0.5495199,-1.3039529,-0.67949551,-0.32339585,-0.65855998,0
-2.0092702,-1.5106187,1.212544,-0.7274279,0.41389072,0.54730535,0
0.81235206,-1.9317985,-0.20010585,0.7274279,-0.41389072,-0.54730535,0
0.85347426,-0.48963416,2.3436518,0.47500274,-0.2718766,0.83693212,0
-0.49864197,-1.4391878,-2.3150873,0.7274279,-0.41389072,-0.54730535,0
-1.3029265,-2.0738349,-0.54288495,-0.58159924,-0.79515123,-0.17168823,0
-0.62869573,-0.9089821,2.5924988,-0.7274279,0.41389072,0.54730535,0
1.0407455,1.6912264,-1.8610941,0.10330886,0.85457456,-0.50894934,0
-1.7723171,0.70187485,-1.735754,-0.5256893,0.17649168,-0.83216673,0
1.0878134,1.8771367,1.4731182,0.66553646,0.61975574,0.41588956,0
2.323719,-0.75307679,0.91727459,0.7274279,-0.41389072,-0.54730535,0
-0.29403758,2.7192004,-0.33168465,0.21927428,0.89599746,-0.38614413,0
-1.8587253,0.8978008,-0.40869308,-0.7274279,0.41389072,0.54730535,0
-0.35933471,-0.83701909,-2.5853131,0.7274279,-0.41389072,-0.54730535,0
0.70539218,-0.38182661,2.4626164,0.47904167,-0.26475385,0.8369137,0
0.82583952,2.3077314,-0.49897674,0.35399681,0.90962994,-0.21739283,0
-1.5524924,-0.14443612,-1.9542022,-0.62099683,-0.057774365,-0.78168094,0
1.8851308,-0.003534317,-0.23248577,0.7274279,-0.41389072,-0.54730535,0
1.0900042,2.0277233,1.2028251,0.64103991,0.69442689,0.32686239,0
0.32812196,-1.486794,1.9972278,0.20080201,-0.63429183,0.74656034,0
0.51908785,-1.3283916,2.0631614,0.26634482,-0.56476116,0.78109235,0
-0.3740716,-2.3916285,0.70687348,-0.24590725,-0.90187097,0.35518789,0
0.06991601,-1.4970988,-1.5156183,0.7274279,-0.41389072,-0.54730535,0
2.0351529,-1.2370723,0.89975274,0.7274279,-0.41389072,-0.54730535,0
0.38038373,2.0621152,1.6868306,-0.7274279,0.41389072,0.54730535,0
-2.3262568,-0.99603319,0.40208828,-0.7274279,0.41389072,0.54730535,0
0.097704172,-0.093271255,-2.5403061,0.7274279,-0.41389072,-0.54730535,0
1.4563468,2.0345194,-0.45558542,0.44675326,0.89106679,-0.08007133,0
2.4220519,0.067706585,1.2275628,0.65981144,0.20290232,0.72351891,0
0.12626052,0.76893681,2.3270187,-0.7274279,0.41389072,0.54730535,0
-1.3056836,1.2142664,-1.811903,-0.38822299,0.40943477,-0.82561862,0
1.9887954,-0.57327604,0.33615363,0.7274279,-0.41389072,-0.54730535,0
0.25981379,-2.4277894,0.888318,-0.10198146,-0.85395926,0.51024836,0
-1.1411537,-1.3554344,2.2490089,-0.7274279,0.41389072,0.54730535,0
-1.2435151,-1.0298077,1.8667099,-0.7274279,0.41389072,0.54730535,0
1.217888,0.28824693,2.2089179,0.6158604,0.042068332,0.78673142,0
0.31502891,1.8620682,1.7512493,-0.7274279,0.41389072,0.54730535,0
0.28362322,1.1827993,2.2231936,-0.7274279,0.41389072,0.54730535,0
-1.1637574,-0.070567369,1.2473066,-0.7274279,0.41389072,0.54730535,0
1.2663262,0.83318233,-1.6876968,0.7274279,-0.41389072,-0.54730535,0
0.086106777,2.5323877,-0.54762197,0.23398465,0.89942014,-0.36918098,0
0.15431511,1.7163725,-1.8590572,-0.060288131,0.7559725,-0.65182126,0
-2.513798,0.4473722,-1.2338024,-0.61605346,-0.042648762,-0.78654897,0
-1.1198119,0.61074799,-2.1529803,-0.48021442,0.26267138,-0.83689767,0
-0.40838361,1.3520002,1.1754866,-0.7274279,0.41389072,0.54730535,0
-0.017808676,2.5885293,0.75949824,-0.7274279,0.41389072,0.54730535,0
1.0584061,0.1359235,-1.4367545,0.7274279,-0.41389072,-0.54730535,0
-0.13388951,0.78725266,-2.5636861,-0.33867487,0.47712761,-0.81095529,0
1.9094508,0.90378499,1.3635733,0.68561715,0.40598714,0.60423809,0
-0.4119873,2.8766122,0.01773417,-0.7274279,0.41389072,0.54730535,0
-0.31151247,-1.1864382,-2.2575097,0.7274279,-0.41389072,-0.54730535,0
0.96448559,-1.8373824,1.5281651,0.2037347,-0.63136506,0.74824482,0
2.1421623,1.3085786,-0.88312674,0.7274279,-0.41389072,-0.54730535,0
1.6556332,-1.7761059,1.343336,0.31185055,-0.51107073,0.80097187,0
-1.2623916,0.32115906,-2.1371126,-0.53941625,0.14807042,-0.82891816,0
2.2726922,0.027800083,1.3707246,0.64967346,0.15871477,0.74346077,0
-0.38129735,1.0460284,1.4428732,-0.7274279,0.41389072,0.54730535,0
-2.574213,-0.96186399,-0.45183545,-0.67261833,-0.58790898,-0.44938576,0
-0.91277444,-0.69844872,-2.4132345,-0.64033365,-0.12278309,-0.75821978,0
0.22189069,2.2911472,-1.0038865,0.15784532,0.87714881,-0.45353597,0
-1.372623,1.0841534,-1.8396783,-0.42092311,0.36076039,-0.8322714,0
1.8580099,1.7472935,-1.1546181,0.37649059,0.90756935,-0.18593782,0
-1.2785404,2.2328999,-0.64721119,-0.7274279,0.41389072,0.54730535,0
0.82127929,1.686474,2.0584853,0.68559569,0.47141647,0.5547297,0
2.622282,-0.21737909,0.90898502,0.7274279,-0.41389072,-0.54730535,0
-1.4742633,-1.8824778,1.1966218,-0.31380719,-0.90997124,0.27106723,0
-2.186518,-1.6167291,0.4099136,-0.54123199,-0.83637494,-0.086860836,0
1.3846691,1.0163898,1.8680414,0.68067771,0.33440378,0.65180677,0
1.8978193,-0.81989932,0.40174127,0.7274279,-0.41389072,-0.54730535,0
0.76987803,-1.4701879,-0.60564405,0.7274279,-0.41389072,-0.54730535,0
2.6563964,0.8539145,0.46593732,0.67734206,0.56074578,0.47620589,0
-0.89350867,-2.348434,0.095815599,-0.43584681,-0.894741,0.097345769,0
1.4349589,-0.17513937,2.0396614,0.57398355,-0.070055723,0.81586456,0
1.7931542,0.12929869,1.7607832,0.63369811,0.099265367,0.76718521,0
-0.68948972,2.0486493,0.27503735,-0.7274279,0.41389072,0.54730535,0
2.105648,0.39259136,1.4189198,0.66981965,0.255151,0.69730884,0
0.9826203,-2.0216088,1.3598576,0.15816075,-0.67499769,0.72066861,0
-0.0047610998,0.013138831,2.7244368,-0.7274279,0.41389072,0.54730535,0
1.4599569,-1.0225173,-0.026998281,0.7274279,-0.41389072,-0.54730535,0
-0.0066194534,2.1630263,-1.2701428,0.056976795,0.83128548,-0.55291766,0
0.93998653,-0.97638917,-0.7529785,0.7274279,-0.41389072,-0.54730535,0
-1.3513287,1.7669719,-1.4619943,-0.27453437,0.55544227,-0.78492987,0
-0.25086224,1.3138905,1.4136693,-0.7274279,0.41389072,0.54730535,0
0.25471854,-2.5990767,0.5726285,-0.17384279,-0.88274622,0.43650645,0
-1.2428296,-1.2809285,-1.8665709,-0.68558782,-0.40514389,-0.60483682,0
0.29572153,2.1354804,1.5188248,-0.7274279,0.41389072,0.54730535,0
-2.5585241,-0.59028769,-0.83618701,-0.68612242,-0.42802411,-0.58824444,0
1.7138827,0.93123031,-1.1669929,0.7274279,-0.41389072,-0.54730535,0
-0.35886741,-2.4221327,-1.3859758,0.7274279,-0.41389072,-0.54730535,0
1.1600986,0.85198772,-1.843106,0.7274279,-0.41389072,-0.54730535,0
-1.2854691,2.0268865,-0.50062573,-0.7274279,0.41389072,0.54730535,0
-1.9194584,-0.020152807,0.20477349,-0.7274279,0.41389072,0.54730535,0
-2.2642679,-0.46544218,0.083227158,-0.7274279,0.41389072,0.54730535,0
-1.2786608,0.9114511,0.35195261,-0.7274279,0.41389072,0.54730535,0
1.3710166,0.87324584,-1.5788496,0.7274279,-0.41389072,-0.54730535,0
-2.7309315,-0.78796864,-0.43704182,-0.67883646,-0.55048066,-0.48595494,0
-2.2420621,1.3477721,-1.2759534,-0.46315184,0.2923584,-0.8366701,0
-2.3454113,-0.90110552,-0.83784407,-0.68368065,-0.50523806,-0.52660733,0
1.9357457,-0.49896145,0.20944571,0.7274279,-0.41389072,-0.54730535,0
1.9568526,1.7528042,-0.79589617,0.45289671,0.88879591,-0.070188716,0
-0.25644922,2.1604438,-1.2876663,0.0068223476,0.80193013,-0.59737885,0
-0.23812151,-1.9242523,-1.6020057,0.7274279,-0.41389072,-0.54730535,0
0.53167158,-1.1800508,2.1608691,0.30213949,-0.52292728,0.79703116,0
-0.0071312189,-1.5421622,2.0241132,0.13527408,-0.69545591,0.7057209,0
0.85493684,-1.6494145,-0.35705447,0.7274279,-0.41389072,-0.54730535,0
0.15935051,0.5538516,2.5336533,-0.7274279,0.41389072,0.54730535,0
-1.217671,2.4228373,-0.70994639,-0.7274279,0.41389072,0.54730535,0
-2.0255663,-0.26310635,0.24747419,-0.7274279,0.41389072,0.54730535,0
1.2806181,-2.1068568,1.2126415,0.18057486,-0.6540283,0.73460174,0
-1.1998787,1.2595112,0.19344765,-0.7274279,0.41389072,0.54730535,0
0.14876413,2.6492529,-0.15617847,0.32219696,0.91023552,-0.26011619,0
2.2923679,0.50804472,1.1809139,0.68098807,0.33747357,0.64989769,0
1.0427824,0.67950833,-1.8685973,0.7274279,-0.41389072,-0.54730535,0
-0.1439817,0.019261003,2.5347676,-0.7274279,0.41389072,0.54730535,0
-2.0450506,1.1261747,-0.82904339,-0.7274279,0.41389072,0.54730535,0
0.83000851,-2.0088375,-0.11837912,0.7274279,-0.41389072,-0.54730535,0
0.033029795,-2.4260163,-0.86216551,0.7274279,-0.41389072,-0.54730535,0
0.82763124,2.208312,1.3305403,0.63371181,0.71111816,0.30449992,0
-2.3546295,0.73470831,-1.3443431,-0.56907523,0.081781626,-0.8182084,0
0.88080013,-2.2483072,1.1451697,0.077493608,-0.74295259,0.66484308,0
-0.011612535,1.531991,-2.0304132,-0.14103249,0.69039798,-0.70954955,0
0.75140142,2.2218826,1.4543862,0.64071161,0.69521463,0.32583031,0
0.31110168,2.5515623,-0.29678261,0.31861538,0.91014361,-0.26480705,0
0.51008517,-0.68544817,-1.5443835,0.7274279,-0.41389072,-0.54730535,0
0.23284367,-1.069931,2.3456426,0.28854537,-0.5391553,0.79123521,0
0.72975779,-1.7947276,-0.41354012,0.7274279,-0.41389072,-0.54730535,0
-0.56275535,-1.1524667,-2.6171291,0.7274279,-0.41389072,-0.54730535,0
-1.7408559,-1.515532,-0.96678573,-0.66434836,-0.62441659,-0.41078597,0
0.76545596,0.19650209,-1.8719285,0.7274279,-0.41389072,-0.54730535,0
2.553612,0.18416023,0.51405692,0.7274279,-0.41389072,-0.54730535,0
-0.54447585,-0.052284241,2.0565727,-0.7274279,0.41389072,0.54730535,0
0.7086494,-1.2866704,-0.82580554,0.7274279,-0.41389072,-0.54730535,0
1.7760904,1.8198249,0.11089358,0.57132971,0.80707854,0.14901896,0
1.4611502,-0.96405065,1.8416598,0.45237583,-0.31046721,0.83604205,0
-1.7423716,1.7749325,-1.309791,-0.32298607,0.49719638,-0.80527991,0
0.41526628,1.6498266,2.0449798,-0.7274279,0.41389072,0.54730535,0
0.10095158,-0.91515756,2.4978597,0.30658489,-0.51752758,0.79885614,0
1.9501462,-1.1509621,0.72165036,0.7274279,-0.41389072,-0.54730535,0
-0.84431481,-0.20386739,-2.4873796,-0.57968497,0.056122482,-0.81290561,0
-0.67097211,0.80265957,-2.3140008,-0.39821082,0.39492965,-0.82792425,0
1.6071888,-2.0850582,1.1407391,0.2332558,-0.60095847,0.76448709,0
0.54224145,-1.7775285,-0.67577648,0.7274279,-0.41389072,-0.54730535,0
2.5589468,0.64490914,0.79434001,0.68611586,0.44997254,0.57163769,0
-1.0430015,1.3066909,0.36627519,-0.7274279,0.41389072,0.54730535,0
-1.9564236,-0.4516108,0.48192549,-0.7274279,0.41389072,0.54730535,0
-0.27655029,1.4367312,1.2866306,-0.7274279,0.41389072,0.54730535,0
-0.79726708,2.1031244,0.090593159,-0.7274279,0.41389072,0.54730535,0
0.66940033,0.12596032,2.6006196,0.5553928,-0.11327258,0.82383746,0
0.2962389,2.4673645,1.26853,-0.7274279,0.41389072,0.54730535,0
1.273909,1.8324004,-1.4989685,0.22189307,0.89663863,-0.38314843,0
-1.5063541,-1.9719644,-0.32101104,-0.57231116,-0.80598623,-0.15114942,0
-0.37668228,-2.1008539,1.3072534,-0.11577028,-0.86020041,0.49664119,0
0.28884792,2.4677587,-0.57067436,0.26071417,0.90450191,-0.33749729,0
1.6825032,-1.9829764,0.99512088,0.7274279,-0.41389072,-0.54730535,0
-1.4103078,2.2220993,-0.81417668,-0.7274279,0.41389072,0.54730535,0
-0.004763484,2.0405741,-1.4454334,0.014664352,0.8068018,-0.59064019,0
-0.20218229,-2.4572508,-1.1511673,0.7274279,-0.41389072,-0.54730535,0
-0.37650776,-0.21853751,-2.8097687,-0.54468566,0.13680947,-0.82740593,0
-1.1704403,1.1926178,0.28316164,-0.7274279,0.41389072,0.54730535,0
0.93016386,2.2702179,-0.48052675,0.37206554,0.90808713,-0.19221073,0
-1.5865885,1.961428,-1.241297,-0.26027858,0.57157022,-0.77817893,0
-2.1186624,0.45362651,-1.532341,-0.58842283,0.034061253,-0.8078357,0
-1.367077,2.0725613,-0.64363277,-0.7274279,0.41389072,0.54730535,0
-1.0672008,-1.0629203,2.1260917,-0.7274279,0.41389072,0.54730535,0
-1.110955,1.8991178,-0.17205513,-0.7274279,0.41389072,0.54730535,0
2.2840736,-0.56099367,0.71932197,0.7274279,-0.41389072,-0.54730535,0
2.7223761,0.6054647,0.41975856,0.7274279,-0.41389072,-0.54730535,0
0.28162551,-1.2708621,-1.4053214,0.7274279,-0.41389072,-0.54730535,0
-0.36090994,-2.6633878,-0.43911222,-0.45865476,-0.88653058,0.060822532,0
-1.8014425,0.25456595,0.15387779,-0.7274279,0.41389072,0.54730535,0
2.1726713,1.5949105,-0.1914677,0.57078397,0.80768168,0.14783755,0
2.2638624,1.2497436,-0.67688125,0.7274279,-0.41389072,-0.54730535,0
-0.49839348,-0.23259795,2.2541802,-0.7274279,0.41389072,0.54730535,0
-1.4257812,-2.0639758,0.059222635,-0.5076648,-0.86123556,-0.023446107,0
0.23651615,-1.3501835,2.1361475,0.22212403,-0.61262822,0.75851679,0
-0.87900329,-1.9402962,-1.7088797,-0.67136049,-0.59418231,-0.44296995,0
0.48548913,-2.5728288,-0.14977324,0.7274279,-0.41389072,-0.54730535,0
1.5389004,1.9707255,-0.66777617,0.42082727,0.89908898,-0.12059646,0
2.2199597,1.5890664,-0.36147124,0.5519135,0.8268435,0.10826576,0
0.042331696,0.7793619,2.2075844,-0.7274279,0.41389072,0.54730535,0
-1.7040731,1.832348,-0.90987933,-0.7274279,0.41389072,0.54730535,0
0.26559049,-0.42156872,2.6865733,0.42708856,-0.35118547,0.83322501,0
-1.4232721,-2.0505986,0.4597871,-0.44179142,-0.89279413,0.087972604,0
-1.0788335,-1.7006751,1.8367012,-0.11550474,-0.86008334,0.49690565,0
1.8814269,-0.031022549,-0.21662068,0.7274279,-0.41389072,-0.54730535,0
-1.1206715,1.3346049,0.24193424,-0.7274279,0.41389072,0.54730535,0
0.28260946,0.096984982,2.8458116,0.51810217,-0.19167545,0.833565,0
-0.44188762,-1.587244,-2.1276891,0.7274279,-0.41389072,-0.54730535,0
-1.4638381,1.4701589,-0.31668174,-0.7274279,0.41389072,0.54730535,0
-2.0360518,0.91292667,-1.523707,-0.51617527,0.19547555,-0.83387786,0
2.1888814,0.71759975,1.1712565,0.68519616,0.39534849,0.61172378,0
2.4121962,0.40885639,1.1064926,0.67975944,0.3257691,0.65711617,0
0.88209856,0.38430765,2.4647031,0.60492045,0.010294437,0.79621947,0
1.1571097,2.1866891,0.48885015,0.55912232,0.81989527,0.12310164,0
-0.46241546,-2.1771131,-1.708895,0.7274279,-0.41389072,-0.54730535,0
-1.465477,-0.57717121,1.2293998,-0.7274279,0.41389072,0.54730535,0
0.81097794,1.481926,-2.1838942,-0.016577423,0.78677416,-0.61701822,0
-1.3407547,-0.72256422,1.5051202,-0.7274279,0.41389072,0.54730535,0
2.4456053,0.68801093,0.89619476,0.68618047,0.44138119,0.57822073,0
0.38896036,-2.1577005,-0.59200454,0.7274279,-0.41389072,-0.54730535,0
-2.5842571,-1.0380445,0.090948045,-0.7274279,0.41389072,0.54730535,0
-2.5985713,-0.68194342,-0.71554792,-0.68549126,-0.47416002,-0.55251604,0
1.545768,1.9955512,-0.32246581,0.48010123,0.8768568,-0.025002219,0
-0.18324566,1.6339152,-1.8971205,-0.13985616,0.69143611,-0.70877111,0
-1.4852126,-1.4092915,1.8324463,-0.7274279,0.41389072,0.54730535,0
2.4276614,1.4735069,-0.53834367,0.54894805,0.82957804,0.10225643,0
0.67467034,2.030637,-1.3501276,0.15660924,0.87669665,-0.45483688,0
0.014523774,1.038994,-2.454319,-0.26298881,0.56853789,-0.77948797,0
0.78994691,-0.48537138,2.380908,0.46948451,-0.28148997,0.83686769,0
1.0420283,-0.91768277,2.0789506,0.41681126,-0.36707312,0.83158016,0
-0.4884069,2.2103019,0.42005044,-0.7274279,0.41389072,0.54730535,0
1.3489146,-1.936718,1.3361512,0.23359658,-0.60059732,0.76466691,0
-1.259647,-0.07411015,-2.1799881,-0.59332967,0.021262914,-0.8046788,0
0.9916091,2.2843733,0.58919466,0.55569601,0.8232519,0.11600927,0
-1.4475999,-1.9955742,-0.41489604,-0.57903993,-0.79822969,-0.16595839,0
-2.102103,0.12674594,-0.14907086,-0.7274279,0.41389072,0.54730535,0
2.1279786,-1.1236818,1.4128346,0.49045119,-0.24421927,0.83654928,0
-1.6619333,0.34692478,0.26945567,-0.7274279,0.41389072,0.54730535,0
-0.65863729,-0.014753915,-2.5899975,-0.5382815,0.15046877,-0.82922375,0
0.32997727,2.6851511,0.82691538,0.51720762,0.85488051,0.040935215,0
-0.73694968,-0.23661447,1.9401506,-0.7274279,0.41389072,0.54730535,0
-1.8065767,-0.79930019,0.94402283,-0.7274279,0.41389072,0.54730535,0
1.7506523,1.8793894,-0.31375515,0.50608671,0.86223668,0.02059157,0
0.44156003,2.281271,-0.9294579,0.20988101,0.89358592,-0.39680517,0
0.58926576,0.9152084,-2.6496141,0.7274279,-0.41389072,-0.54730535,0
0.54733014,-2.6484261,0.57381296,-0.12448704,-0.86397243,0.48790836,0
-0.50071388,1.7390471,-1.7302538,-0.16041335,0.67293239,-0.72210073,0
-0.44107065,1.1253858,-2.2310777,-0.30283976,0.52207971,-0.7973209,0
-0.25538588,-2.7285104,-0.86233616,-0.51402164,-0.85706079,-0.035052069,0
-0.25206387,1.1922519,1.5040596,-0.7274279,0.41389072,0.54730535,0
-0.85643744,2.3428319,-1.0379852,-0.04445231,0.76750743,-0.63949686,0
-2.1525772,0.17725492,-1.5011618,-0.62312847,-0.064459264,-0.77945876,0
1.6833512,1.9049835,-0.63053125,0.44604695,0.8913185,-0.081200413,0
-2.1943541,-1.4294622,0.90517455,-0.7274279,0.41389072,0.54730535,0
-1.0456009,-2.2106607,-0.77910328,-0.5872308,-0.78811264,-0.18449575,0
-1.3205893,0.075973749,0.92804086,-0.7274279,0.41389072,0.54730535,0
0.25132608,2.6118667,1.0995589,-0.7274279,0.41389072,0.54730535,0
1.2834163,-0.2824834,2.1298618,0.54687899,-0.13206133,0.82673049,0
-0.37762713,1.8966554,0.80447888,-0.7274279,0.41389072,0.54730535,0
-2.3227181,-0.90646195,0.33905452,-0.7274279,0.41389072,0.54730535,0
-0.80691785,1.4578534,-1.8711483,-0.27438533,0.5556131,-0.78486103,0
0.72900152,-2.2315404,-0.08421284,0.7274279,-0.41389072,-0.54730535,0
-0.83341694,0.0021394491,1.6313816,-0.7274279,0.41389072,0.54730535,0
-1.1242123,-1.6597016,1.8968775,-0.10953391,-0.85741913,0.50282681,0
0.47725582,0.69262612,-2.6301632,0.7274279,-0.41389072,-0.54730535,0
1.253999,-1.0048506,1.9340221,0.42315623,-0.35730773,0.83262837,0
-0.37860441,0.71927649,1.6935532,-0.7274279,0.41389072,0.54730535,0
1.9955287,1.015069,-0.85605663,0.7274279,-0.41389072,-0.54730535,0
-0.6123988,1.5483425,-1.8659682,-0.22602718,0.60856485,-0.76063162,0
-0.15873694,2.7498806,0.45017028,-0.7274279,0.41389072,0.54730535,0
2.7183106,0.039731741,0.84218121,0.7274279,-0.41389072,-0.54730535,0
1.427411,0.56025636,1.9950143,0.65401572,0.17684805,0.73551905,0
0.21248722,2.7539244,0.86688459,0.50972688,0.85990638,0.027192038,0
2.4881814,0.23074961,0.39186072,0.7274279,-0.41389072,-0.54730535,0
-1.059648,-1.473128,2.1933625,-0.027689636,-0.81466311,0.5792731,0
-1.7021036,-0.59013402,0.92470026,-0.7274279,0.41389072,0.54730535,0
-0.44652587,0.47856688,1.785311,-0.7274279,0.41389072,0.54730535,0
0.62906599,-2.3422706,-0.13330019,0.7274279,-0.41389072,-0.54730535,0
-2.3222823,-0.8214798,-0.93839079,-0.68574715,-0.46694794,-0.55831033,0
-2.0650978,-0.51850009,0.38806987,-0.7274279,0.41389072,0.54730535,0
1.049052,2.2062027,0.78706169,0.58861113,0.78632921,0.18767901,0
-0.62638617,0.17648683,-2.5681479,-0.50569665,0.21576506,-0.83529419,0
0.76858246,-0.91957331,-1.0237596,0.7274279,-0.41389072,-0.54730535,0
-0.28336287,2.232502,0.67578799,-0.7274279,0.41389072,0.54730535,0
-1.5908287,1.9592671,-1.241461,-0.26136357,0.57035828,-0.77870446,0
0.76712507,-0.15755537,2.4860487,0.52140892,-0.18510151,0.83298874,0
1.5177429,1.9946609,-0.5523479,0.43810701,0.89401621,-0.093793549,0
-1.8691605,1.3324174,-0.75123441,-0.7274279,0.41389072,0.54730535,0
-1.1268678,-0.6097883,1.7041141,-0.7274279,0.41389072,0.54730535,0
1.5780127,1.3396666,-1.6564524,0.7274279,-0.41389072,-0.54730535,0
-0.63481355,-2.5079298,-0.66173232,-0.52697194,-0.84781438,-0.059256949,0
0.017819881,2.6188393,-0.37511456,0.25900674,0.90422219,-0.33955535,0
-0.28380346,2.6642122,-0.4493134,0.19584721,0.88966089,-0.41248941,0
0.24452867,-0.74669755,2.5392344,0.36050269,-0.44814461,0.81804895,0
2.0255868,-0.0060316324,1.586301,0.63339019,0.098208129,0.7675755,0
-1.6167681,-0.36722565,-1.871151,-0.6467073,-0.14689031,-0.74846041,0
0.68934929,-1.3236536,-0.82349002,0.7274279,-0.41389072,-0.54730535,0
-1.6125612,2.1190634,-1.0050738,-0.7274279,0.41389072,0.54730535,0
-1.8376739,-1.8142619,0.13842511,-0.54255438,-0.83524179,-0.089475386,0
-1.582022,0.55729115,0.21658027,-0.7274279,0.41389072,0.54730535,0
-1.6168783,-1.6526284,1.7205894,-0.22954452,-0.89843309,0.37433583,0
0.088469982,1.6653672,1.5988798,-0.7274279,0.41389072,0.54730535,0
1.1619253,2.0056691,1.1075034,0.63674974,0.70441514,0.31360674,0
0.25004578,2.6588693,0.039157808,0.37353778,0.9079212,-0.19012854,0
0.24713922,-0.2498281,2.7636809,0.4565756,-0.30346614,0.83632958,0
-0.58620226,0.47984278,1.5987011,-0.7274279,0.41389072,0.54730535,0
-2.5350513,-1.3095765,0.14846194,-0.61152029,-0.75284451,-0.24345011,0
1.7252704,-1.5177068,0.70011067,0.7274279,-0.41389072,-0.54730535,0
1.5291406,-1.5977991,0.50000167,0.7274279,-0.41389072,-0.54730535,0
-0.9960835,-2.0748436,-1.2867935,-0.6423977,-0.69112706,-0.33116242,0
0.82427883,-1.6715008,1.7044684,0.22538169,-0.60923886,0.76028353,0
-1.101881,-1.8463225,1.5541676,-0.18237942,-0.88553768,0.42727131,0
-1.3027276,-0.93699098,1.717819,-0.7274279,0.41389072,0.54730535,0
-0.9222436,-1.1820984,2.4088817,-0.7274279,0.41389072,0.54730535,0
-1.8787403,-0.57744849,0.68033791,-0.7274279,0.41389072,0.54730535,0
1.8868856,1.7680407,-0.038063526,0.56223905,0.81675339,0.12962006,0
-0.90029359,-2.2177925,-1.1460561,-0.61915958,-0.73972762,-0.26352313,0
1.9863338,-1.5643162,1.3179928,0.39560452,-0.39874446,0.82734501,0
1.0915185,-2.2267342,0.39397633,0.7274279,-0.41389072,-0.54730535,0
-1.2732358,-0.38110697,-2.1572056,-0.62923259,-0.084200591,-0.77264267,0
-0.57875061,-2.2836201,-1.65837,-0.64811409,-0.67640388,-0.34989423,0
-1.6865695,0.52733719,0.1002779,-0.7274279,0.41389072,0.54730535,0
1.5321414,-1.6381581,0.53451109,0.7274279,-0.41389072,-0.54730535,0
1.1592522,-0.43040913,2.1795125,0.51358622,-0.20054731,0.83427203,0
-1.6999352,-1.2324119,1.4132946,-0.7274279,0.41389072,0.54730535,0
1.5640982,0.17828417,1.9421158,0.62533426,0.071487188,0.77707577,0
0.77372479,2.1759109,1.5054102,0.64750504,0.6780411,0.34784672,0
1.0158806,2.253037,0.67922592,0.57083094,0.80762988,0.14793907,0
2.6065621,0.47591639,0.36379766,0.7274279,-0.41389072,-0.54730535,0
-1.8660557,0.59174705,-0.18698788,-0.7274279,0.41389072,0.54730535,0
1.5366102,0.27940404,-0.90967441,0.7274279,-0.41389072,-0.54730535,0
1.850405,1.6991943,0.36644211,0.61149466,0.75288683,0.24338417,0
-2.3757455,-0.83268523,0.21278322,-0.7274279,0.41389072,0.54730535,0
1.0060325,0.3852421,-1.6949077,0.7274279,-0.41389072,-0.54730535,0
2.6819613,1.0516295,0.14130771,0.65427047,0.65877724,0.3714065,0
1.0699761,1.2826724,-2.2885866,0.7274279,-0.41389072,-0.54730535,0
0.95906806,0.63911629,-1.9493167,0.7274279,-0.41389072,-0.54730535,0
-0.24514818,2.6402764,0.41820675,-0.7274279,0.41389072,0.54730535,0
1.5506642,1.8443265,0.66625839,0.6202656,0.73773056,0.26650336,0
-0.30355781,-0.013036728,2.3470981,-0.7274279,0.41389072,0.54730535,0
0.16408229,-2.5292232,0.67737877,-0.16581917,-0.87999809,0.4450925,0
-2.2128644,-0.74936509,-1.1228898,-0.6858362,-0.41314888,-0.59911323,0
0.53756237,0.58785796,2.7238178,0.60580826,0.012795895,0.79550785,0
-2.0717039,0.40799284,-0.32135582,-0.7274279,0.41389072,0.54730535,0
-1.7037563,-0.64509106,0.96406358,-0.7274279,0.41389072,0.54730535,0
-1.0947568,-2.0640516,-1.1112826,-0.63173205,-0.71533602,-0.29867893,0
-0.91070771,0.059212446,1.4854932,-0.7274279,0.41389072,0.54730535,0
-1.1836019,-1.5064073,2.1344206,-0.064429224,-0.83528149,0.54603446,0
-0.25108409,2.6988432,-0.35449857,0.22127944,0.89648956,-0.38385135,0
-2.1427052,0.4671371,-1.5142584,-0.58844429,0.034005761,-0.80782235,0
1.1582161,0.66255456,2.2091017,0.64972907,0.15894008,0.74336416,0
0.91239709,-0.72051489,-0.98314887,0.7274279,-0.41389072,-0.54730535,0
0.90750813,2.2473931,1.0385802,0.60696769,0.76014692,0.23187701,0
0.65578169,-0.11132634,-1.7849073,0.7274279,-0.41389072,-0.54730535,0
-2.1276581,0.41180241,-1.5271075,-0.59432054,0.018639892,-0.80401218,0
0.88524705,-0.55236053,-1.1463981,0.7274279,-0.41389072,-0.54730535,0
-2.3157759,-0.77598739,0.24961227,-0.7274279,0.41389072,0.54730535,0
0.41870058,-0.91625834,-1.4912971,0.7274279,-0.41389072,-0.54730535,0
1.0941845,-0.76184916,-0.71027547,0.7274279,-0.41389072,-0.54730535,0
-0.084766388,-1.7491056,1.8146434,0.062371969,-0.75442266,0.6534189,0
-1.0961516,-2.2017972,-0.64826703,-0.57484806,-0.80311728,-0.15669098,0
0.6120553,-2.7139728,0.47348928,-0.13616699,-0.86881453,0.47604603,0
-0.62150645,0.15444934,1.7978516,-0.7274279,0.41389072,0.54730535,0
-1.8804457,1.10716,-0.59588599,-0.7274279,0.41389072,0.54730535,0
-2.4706135,0.63901639,-1.2681205,-0.59030539,0.029187351,-0.80665213,0
0.91834319,-2.3613381,0.26559973,0.7274279,-0.41389072,-0.54730535,0
0.20613065,0.99965185,-2.5465634,-0.24632955,0.58693045,-0.77125502,0
2.1517344,1.0117456,-0.64592946,0.7274279,-0.41389072,-0.54730535,0
-1.2989312,-0.52044165,1.4078562,-0.7274279,0.41389072,0.54730535,0
0.34938991,0.51856786,-2.6684818,0.7274279,-0.41389072,-0.54730535,0
-2.3276458,0.05150032,-0.39193785,-0.7274279,0.41389072,0.54730535,0
1.2982857,-1.7576802,1.4870262,0.2696496,-0.56101817,0.78265423,0
0.53159404,2.569984,0.68435162,0.51860702,0.85390365,0.043534096,0
-0.99661815,-0.79045105,-2.3226633,-0.65278107,-0.17158377,-0.73785901,0
1.0734657,0.69478488,2.2762198,0.64833724,0.15333563,0.74575263,0
0.091016233,0.57592034,-2.7805812,-0.35630757,0.45381391,-0.81676054,0
-2.5735998,-0.36480832,-0.40401089,-0.7274279,0.41389072,0.54730535,0
-0.44072551,1.0863315,-2.2564671,-0.31152141,0.51147622,-0.80084109,0
-1.7879182,-0.45780909,0.71057498,-0.7274279,0.41389072,0.54730535,0
-2.6153703,-0.15146518,-1.0167651,-0.67273849,-0.27304813,-0.68765378,0
1.1872811,-1.4677012,-0.052750766,0.7274279,-0.41389072,-0.54730535,0
1.0490532,1.1501602,2.1486683,0.67826796,0.31289986,0.66486585,0
-0.82814288,-2.3537498,-0.85266471,-0.57522166,-0.80268955,-0.15751086,0
2.3094246,-0.43669987,1.3909034,0.60386544,0.0073388219,0.7970525,0
0.52517867,2.1602361,-1.1494633,0.17601746,0.8834703,-0.43416369,0
1.0614641,1.1386373,-2.1909764,0.7274279,-0.41389072,-0.54730535,0
-2.426322,-1.0402155,0.30250311,-0.7274279,0.41389072,0.54730535,0
1.318387,2.1200149,-0.25968182,0.46226382,0.8850413,-0.054899342,0
-2.5933845,0.22680664,-1.1435196,-0.64322793,-0.13352647,-0.75394207,0
-1.6587219,-1.9257674,0.52526838,-0.46067441,-0.88570392,0.057513036,0
1.4013376,1.6917081,-1.7464472,0.18953812,0.88777244,-0.41944668,0
-0.14581639,-0.64171016,2.7660918,0.33575603,-0.48090851,0.80993515,0
1.7309198,0.48685944,1.7401037,0.66174477,0.21216774,0.71908188,0
0.086662769,-2.2753925,-0.90478814,0.7274279,-0.41389072,-0.54730535,0
1.4168341,1.8616365,0.91345441,0.63651079,0.7049529,0.31288248,0
1.5549245,1.1699421,1.5849624,0.68615538,0.43145654,0.58569264,0
-1.3579129,-0.67313004,1.4449313,-0.7274279,0.41389072,0.54730535,0
-2.7250624,-0.97255301,-0.14572436,-0.7274279,0.41389072,0.54730535,0
0.51388192,-0.56881404,-1.6275399,0.7274279,-0.41389072,-0.54730535,0
0.27822399,0.24333489,2.8783894,0.54008907,-0.14664367,0.82873356,0
-2.6435246,-0.21444082,-0.61066139,-0.7274279,0.41389072,0.54730535,0
2.1997139,-0.58797574,0.62760353,0.7274279,-0.41389072,-0.54730535,0
-0.89740342,-0.83651483,2.1805551,-0.7274279,0.41389072,0.54730535,0
-1.8222742,1.2188553,-1.5511945,-0.4434469,0.32512006,-0.8352555,0
-0.61064094,0.5179019,1.5374379,-0.7274279,0.41389072,0.54730535,0
1.3335624,2.0148802,0.6846897,0.60285187,0.76644975,0.22164017,0
-0.074295282,-1.3323781,-1.8318579,0.7274279,-0.41389072,-0.54730535,0
-0.23143631,-0.24504668,2.6184092,-0.7274279,0.41389072,0.54730535,0
0.2743988,1.0756636,-2.5074208,-0.21808435,0.6168015,-0.75630367,0
-2.1551499,-0.7937057,-1.1583152,-0.6859479,-0.41768637,-0.59583014,0
1.2076126,-1.8683479,0.27725422,0.7274279,-0.41389072,-0.54730535,0
1.4341443,-1.1995404,0.072564721,0.7274279,-0.41389072,-0.54730535,0
-1.3421669,-1.5236013,-1.5410885,-0.68168914,-0.52703965,-0.50747323,0
-1.4226229,0.6516459,0.35708451,-0.7274279,0.41389072,0.54730535,0
1.3074591,-0.62154603,-0.53291249,0.7274279,-0.41389072,-0.54730535,0
-0.77009416,1.2465248,0.77449816,-0.7274279,0.41389072,0.54730535,0
-0.53143477,2.1456788,0.41173202,-0.7274279,0.41389072,0.54730535,0
-0.19536877,-2.3410854,0.91510743,-0.17300224,-0.88246393,0.43741018,0
0.37122405,-0.93095249,-1.5432861,0.7274279,-0.41389072,-0.54730535,0
-0.55532002,2.6731415,-0.018899083,-0.7274279,0.41389072,0.54730535,0
2.5014997,1.1977507,0.19583601,0.64656341,0.68053925,0.34470582,0
1.6308929,-0.41290295,1.8783232,0.55655849,-0.11065385,0.82340646,0
-0.1169858,2.0462456,1.0377742,-0.7274279,0.41389072,0.54730535,0
0.50639325,-0.059437275,-2.0227008,0.7274279,-0.41389072,-0.54730535,0
-0.39868242,0.50591356,-2.5827913,-0.42547005,0.35371199,-0.83298457,0
0.3855679,1.0711149,2.4431491,-0.7274279,0.41389072,0.54730535,0
1.7724974,-0.73083341,0.16782045,0.7274279,-0.41389072,-0.54730535,0
1.0979418,-1.3321559,1.8404766,0.33944994,-0.47612005,0.81122351,0
-0.5866394,-1.1168208,2.5516624,0.16136611,-0.67205614,0.72270429,0
1.7447991,1.6972103,0.61493361,0.63093817,0.71699512,0.29636928,0
-0.31722155,-0.42696273,2.6419625,-0.7274279,0.41389072,0.54730535,0
0.64283919,2.010257,1.9682274,0.67660809,0.56543207,0.47168645,0
-1.4018636,2.0442915,-0.66848922,-0.7274279,0.41389072,0.54730535,0
0.97781157,-0.5458498,-1.0282934,0.7274279,-0.41389072,-0.54730535,0
-0.69080329,-1.3254793,-2.4313412,-0.67692459,-0.30225703,-0.67112881,0
1.824711,1.179414,1.2466105,0.6842249,0.49774468,0.53299755,0
-2.2373843,-1.3126316,-0.46139163,-0.65294498,-0.66275036,-0.36664018,0
0.68389487,1.7495798,2.1745121,0.68579793,0.46527633,0.5596419,0
0.38581473,-0.51189238,2.5867925,0.42296374,-0.35760599,0.83259809,0
1.7291422,1.506189,-1.5815148,0.7274279,-0.41389072,-0.54730535,0
-1.2618825,1.7488773,-1.5058463,-0.26685071,0.56418979,-0.78133267,0
-0.68766546,-2.2179368,0.93073642,-0.2484014,-0.90234649,0.35223237,0
-1.3775568,2.2580175,-1.0517179,-0.15500087,0.67787915,-0.71864784,0
-0.094148278,-0.14120549,2.7223516,-0.7274279,0.41389072,0.54730535,0
-1.2987585,0.91954947,0.31911623,-0.7274279,0.41389072,0.54730535,0
-0.012755156,-2.4344132,0.79890758,-0.1683532,-0.88087893,0.44239062,0
0.58951283,-1.3386824,-0.9448176,0.7274279,-0.41389072,-0.54730535,0
-0.0091263056,-0.36764187,-2.4748073,0.7274279,-0.41389072,-0.54730535,0
-2.5180242,0.21283579,-0.76697898,-0.7274279,0.41389072,0.54730535,0
-1.3834481,-0.93061149,-1.9105514,-0.67688704,-0.30197123,-0.67129517,0
-1.2914516,2.1651435,-1.1573513,-0.16679078,0.66703457,-0.7261169,0
1.0471458,0.070619464,-1.4023355,0.7274279,-0.41389072,-0.54730535,0
0.97485185,2.1887524,-0.74381733,0.32874203,0.91032171,-0.25148207,0
1.4665959,2.035974,0.016200723,0.52399087,0.85003477,0.053615365,0
-0.5299046,-2.5738325,-0.45216745,-0.48177719,-0.87601423,0.022137661,0
-0.71435976,-1.0894363,-2.497647,-0.66349369,-0.22084308,-0.71484572,0
0.99192762,-0.87111914,2.1245563,0.4202458,-0.36180431,0.83216053,0
-1.576508,-1.393152,1.6988994,-0.7274279,0.41389072,0.54730535,0
-0.87316871,-2.3780937,-0.17841017,-0.47925842,-0.87727559,0.026439037,0
-1.5947196,1.0411713,-0.16622281,-0.7274279,0.41389072,0.54730535,0
-1.0228157,-0.90719354,2.0673182,-0.7274279,0.41389072,0.54730535,0
2.2221119,-1.1431532,1.0772167,0.7274279,-0.41389072,-0.54730535,0
0.68634272,-2.7961164,0.28603995,0.7274279,-0.41389072,-0.54730535,0
0.16564417,-1.2154174,-1.6014018,0.7274279,-0.41389072,-0.54730535,0
-2.7149684,-0.30736446,-0.63534629,-0.7274279,0.41389072,0.54730535,0
-0.47286034,-2.4203341,0.54540485,-0.29368401,-0.90865278,0.29681605,0
-1.3120182,2.1169868,-0.60404956,-0.7274279,0.41389072,0.54730535,0
-1.5677021,-0.8484782,1.298703,-0.7274279,0.41389072,0.54730535,0
0.078961968,2.0423951,-1.4395788,0.031584799,0.81695807,-0.57583153,0
-1.7723911,0.60330296,-0.07123661,-0.7274279,0.41389072,0.54730535,0
-1.7537214,0.28069925,0.19754142,-0.7274279,0.41389072,0.54730535,0
2.2622528,0.23215628,0.09051311,0.7274279,-0.41389072,-0.54730535,0
-0.49009681,-2.5118761,0.18959576,-0.36461735,-0.90883291,0.20267418,0
1.6980786,-1.1424704,1.6468582,0.44448951,-0.32342499,0.83535945,0
-1.625564,-0.46766341,0.93381357,-0.7274279,0.41389072,0.54730535,0
-1.8928471,-1.7539271,-0.020144969,-0.57093167,-0.80751866,-0.14815727,0
0.89882898,1.7262723,-1.8294332,0.085843027,0.84623182,-0.52585429,0
-0.23110926,0.75836223,1.8600323,-0.7274279,0.41389072,0.54730535,0
1.8305664,0.33586478,-0.56167221,0.7274279,-0.41389072,-0.54730535,0
0.45266402,-2.1731288,1.2682316,0.025510073,-0.78074384,0.62433034,0
0.41884613,2.563097,1.2682087,0.589522,0.78513932,0.18978962,0
1.5894482,1.9405795,0.16435137,0.55923331,0.81978482,0.12333257,0
-1.1579508,-0.40949893,1.5113358,-0.7274279,0.41389072,0.54730535,0
-0.55685323,0.57548475,1.5653815,-0.7274279,0.41389072,0.54730535,0
0.56872374,1.3569068,-2.3086867,-0.097132772,0.72746581,-0.67923403,0
0.87412262,-1.806618,-0.21267235,0.7274279,-0.41389072,-0.54730535,0
0.67635512,2.226644,-0.91639459,0.24960369,0.90257096,-0.35080421,0
1.5618596,1.8748006,-1.1100299,0.34317011,0.91012955,-0.23216039,0
-1.126297,-1.8904598,1.4473671,-0.20930147,-0.89343143,0.39745855,0
