0.92933756,0.6997906,2.4339888,-0.0012698844,0.42377338,0.90576732,0
-0.63007963,-2.3316891,-0.65960008,-0.30254495,-0.91319418,-0.27302548,0
-2.2753131,2.083236,-1.0040219,-0.91986984,0.35476714,-0.16727141,0
-0.15772474,-1.8700434,-1.6689124,-0.15109655,-0.71407574,-0.68356836,0
0.84675205,-2.993597,0.072589487,-0.34313381,-0.93447506,-0.094950706,0
-0.64333522,-2.1693296,-1.0630755,-0.25733405,-0.86773169,-0.42523018,0
2.0483358,-2.327466,1.7342415,0.91986984,-0.35476714,0.16727141,0
-0.93583047,-2.3035157,0.26083666,-0.37433219,-0.92140633,0.10433464,0
2.5236812,-1.798785,0.24147499,0.91986984,-0.35476714,0.16727141,0
2.166265,-2.5333939,0.64896309,0.91986984,-0.35476714,0.16727141,0
-0.75756168,-2.1676836,-0.99301171,-0.26846051,-0.88040388,-0.39091945,0
2.8012028,-1.2260162,-0.069899201,0.91986984,-0.35476714,0.16727141,0
2.9823799,-0.46726608,0.54299772,0.91986984,-0.35476714,0.16727141,0
-2.0353813,1.997268,1.8172306,0.023620874,0.47580227,0.87923497,0
-3.7266893,-1.0923334,0.24239159,-0.91986984,0.35476714,-0.16727141,0
-1.5988681,0.17104435,-2.7639561,0.094053484,-0.21451089,-0.97218269,0
3.2842653,0.67543483,1.3064113,0.91986984,-0.35476714,0.16727141,0
-2.5694222,1.4545071,-0.72011417,-0.91986984,0.35476714,-0.16727141,0
1.1203803,0.32580066,2.5896382,-0.047912795,0.32163814,0.94564968,0
-2.4688265,1.3084407,2.0425205,-0.10683415,0.18371722,0.97715634,0
-0.80314255,2.988812,-0.35458449,0.36254865,0.93180066,-0.017488837,0
2.9046187,0.062762499,2.0947671,0.91986984,-0.35476714,0.16727141,0
-2.3907583,0.89282465,-2.8939102,-0.91986984,0.35476714,-0.16727141,0
3.0844052,0.049561024,1.0780749,0.91986984,-0.35476714,0.16727141,0
-1.8140615,2.9091017,0.96978307,0.2084249,0.80340481,0.5577631,0
-2.1211267,1.8579025,-2.3298457,-0.91986984,0.35476714,-0.16727141,0
2.4951875,-2.559978,-1.2162515,0.91986984,-0.35476714,0.16727141,0
-0.83874065,2.984185,-0.015280902,0.338871,0.93359005,0.1165162,0
2.616183,-1.1733634,1.0592428,0.91986984,-0.35476714,0.16727141,0
-1.7124983,0.72605681,-2.8503759,0.16482913,-0.037331507,-0.98561543,0
-2.3882732,2.8020825,1.1417817,-0.91986984,0.35476714,-0.16727141,0
2.4829154,-1.0300109,2.0961556,0.91986984,-0.35476714,0.16727141,0
-0.52799642,-2.0184479,-1.3773482,-0.21119854,-0.80737913,-0.55093932,0
-1.4092554,-0.54646051,-2.5061677,-0.0038047582,-0.43452039,-0.90065396,0
-1.72219,3.3361101,-0.28577384,0.34709418,0.93490028,0.074073821,0
0.15038681,0.96022564,-2.3803208,0.2811,0.29887801,-0.91195107,0
3.0209584,-1.1167579,-1.9889259,0.16253293,-0.043348908,-0.98575044,0
3.4616826,0.33622909,-0.38867569,0.91986984,-0.35476714,0.16727141,0
-3.6899519,-0.9963851,0.24385977,-0.91986984,0.35476714,-0.16727141,0
3.0120692,-1.5499772,-1.9375288,0.10227194,-0.19476695,-0.97550309,0
-3.2239337,-0.85748672,-2.0243063,-0.91986984,0.35476714,-0.16727141,0
1.5709817,1.9810394,-0.53299719,0.38807267,0.88510025,-0.25689927,0
0.80839485,-2.8338773,-0.55526549,-0.28600228,-0.89853829,-0.33291379,0
-1.2702668,0.099389911,-2.7157984,0.10195681,-0.19552791,-0.97538382,0
3.1734993,0.46686256,1.4731796,0.91986984,-0.35476714,0.16727141,0
2.1381843,-2.531898,0.80656064,0.91986984,-0.35476714,0.16727141,0
-2.3071618,1.5065422,-2.0519907,-0.91986984,0.35476714,-0.16727141,0
-2.2130599,0.42210144,2.1265535,-0.21196637,-0.090815321,0.97304827,0
-2.3499808,2.0755136,-0.60978395,-0.91986984,0.35476714,-0.16727141,0
2.4990497,-0.72959828,2.6445761,0.91986984,-0.35476714,0.16727141,0
-1.8300756,-1.7273369,0.87780082,-0.39212066,-0.82202786,0.41293028,0
1.8515221,-0.59775555,-2.2037518,0.17154105,-0.019629285,-0.98498136,0
3.2689459,0.31730723,0.63110256,0.91986984,-0.35476714,0.16727141,0
2.4642239,-2.5299029,-0.98218697,0.91986984,-0.35476714,0.16727141,0
0.95175743,0.84593934,2.3600273,0.023739487,0.47604617,0.87909985,0
2.8196814,-1.3783424,-0.49458811,0.91986984,-0.35476714,0.16727141,0
-1.7268775,3.2972994,0.0040967911,0.32389885,0.92759883,0.18614519,0
3.7110488,1.119745,-0.098242044,0.91986984,-0.35476714,0.16727141,0
-3.409497,-0.90443492,-1.1034166,-0.91986984,0.35476714,-0.16727141,0
-2.502955,-1.6421371,-0.87995481,-0.31422031,-0.92179602,-0.22706309,0
1.5135303,-2.0652184,-1.7472134,-0.068912685,-0.56601983,-0.82150626,0
2.0178959,-3.2338614,-0.02074191,0.91986984,-0.35476714,0.16727141,0
1.5603187,1.4808396,-1.4388945,0.37787795,0.68730706,-0.62033641,0
-3.2437117,0.54941487,1.0683651,-0.91986984,0.35476714,-0.16727141,0
0.97946668,-1.2234836,2.6358449,-0.26166502,-0.23737602,0.93551266,0
-2.5709054,0.57393837,-2.5795617,-0.91986984,0.35476714,-0.16727141,0
-2.7638786,1.2699401,-0.042196929,-0.91986984,0.35476714,-0.16727141,0
-0.71410632,2.9335079,0.027607888,0.33728564,0.9331578,0.12431794,0
1.0977566,-1.9654498,-1.7799356,-0.079460323,-0.58618522,-0.80627096,0
-2.6557088,1.767166,0.41751811,-0.91986984,0.35476714,-0.16727141,0
-3.1582923,0.61043441,0.72803879,-0.91986984,0.35476714,-0.16727141,0
-2.9614425,1.3738551,1.2646539,-0.91986984,0.35476714,-0.16727141,0
2.0611908,-2.3109205,1.6986408,0.91986984,-0.35476714,0.16727141,0
-2.3911371,1.113632,-2.4235153,-0.91986984,0.35476714,-0.16727141,0
1.7585886,-0.43283117,-2.2202649,0.18836717,0.025514483,-0.98176718,0
2.4188764,-0.80052972,2.93503,0.91986984,-0.35476714,0.16727141,0
-1.522064,0.40327328,2.2641988,-0.18037483,-0.0039317459,0.98359007,0
-3.3932829,-1.3668828,-0.59064674,-0.35088295,-0.93490422,-0.053246886,0
-2.9470077,0.46705198,1.9602748,-0.24102876,-0.1748516,0.95463717,0
-3.3404903,-0.57267725,1.3305125,-0.36220396,-0.60471159,0.70931816,0
1.2292699,0.5746733,-2.1739151,0.28445792,0.30979961,-0.90725291,0
2.5429916,-0.99273896,1.8448312,0.91986984,-0.35476714,0.16727141,0
-1.0951934,-1.3852421,1.7829951,-0.35795563,-0.58499748,0.72776759,0
2.0551751,-2.5303504,1.2663312,0.91986984,-0.35476714,0.16727141,0
1.7688363,-0.17381859,2.780283,-0.084961414,0.23611522,0.96800369,0
-2.9989538,-0.020743608,-1.4868764,-0.91986984,0.35476714,-0.16727141,0
2.5107477,-1.0439231,-2.0735407,0.14585204,-0.086491019,-0.98551834,0
3.524183,1.08726,0.86048269,0.91986984,-0.35476714,0.16727141,0
-3.0530343,0.8108331,0.57422334,-0.91986984,0.35476714,-0.16727141,0
-2.8806479,0.59737706,-0.82649612,-0.91986984,0.35476714,-0.16727141,0
2.9766052,-0.48068094,0.54630327,0.91986984,-0.35476714,0.16727141,0
1.5682219,-3.2765841,0.25595957,-0.34696352,-0.93489289,-0.07477659,0
1.8175386,-2.9840326,1.6109393,0.91986984,-0.35476714,0.16727141,0
2.6835337,-1.1821339,0.67026353,0.91986984,-0.35476714,0.16727141,0
-1.7363197,-0.14257967,-2.682569,0.039647013,-0.34018186,-0.93952346,0
-1.5953882,2.442162,-2.2566273,0.3595053,0.59209597,-0.72123384,0
1.9056985,-2.5063636,2.1392171,0.91986984,-0.35476714,0.16727141,0
-0.19027579,-0.097628057,2.5063965,-0.17871436,0.00052019954,0.98390085,0
-2.3749459,2.2072997,-0.19298777,-0.91986984,0.35476714,-0.16727141,0
-3.6346884,-0.47056592,1.0551642,-0.91986984,0.35476714,-0.16727141,0
2.3592155,-0.95740891,2.930397,0.91986984,-0.35476714,0.16727141,0
-2.2710938,2.1556795,-0.87358063,-0.91986984,0.35476714,-0.16727141,0
-2.7585163,1.9300259,1.3282948,-0.91986984,0.35476714,-0.16727141,0
2.0648804,-1.9930141,-1.8202643,-0.021063603,-0.47053629,-0.88212931,0
1.7590983,-3.1152432,1.5231347,-0.39214808,-0.82348382,0.4099932,0
-3.4586675,-0.56698477,-0.11731648,-0.91986984,0.35476714,-0.16727141,0
-1.0533135,1.591339,2.0103347,0.019179881,0.46664551,0.88423657,0
3.0519106,-0.68828046,-0.3081221,0.91986984,-0.35476714,0.16727141,0
0.23814929,2.3113122,1.0181091,0.25370207,0.86341828,0.43605515,0
2.600775,-1.5539221,0.33684605,0.91986984,-0.35476714,0.16727141,0
-2.4235399,1.8033984,-0.78239441,-0.91986984,0.35476714,-0.16727141,0
-1.3647732,3.0279326,-1.3094608,0.39186496,0.84950054,-0.35325709,0
2.5621307,-2.1724119,-0.76239598,0.91986984,-0.35476714,0.16727141,0
-2.4276667,0.87131643,-2.7365592,-0.91986984,0.35476714,-0.16727141,0
3.5653496,0.777264,-0.023376584,0.91986984,-0.35476714,0.16727141,0
-1.1765307,1.0049115,-2.729094,0.22674626,0.13301365,-0.96482819,0
2.6780527,-1.409498,0.21818697,0.91986984,-0.35476714,0.16727141,0
0.63473856,1.3891587,2.0253649,0.09573862,0.61666,0.78138632,0
-0.68693137,-1.0878094,-2.231184,-0.0469459,-0.52298993,-0.85104507,0
1.6938554,0.34514725,2.6001782,-0.010746837,0.40351206,0.91491127,0
-0.60644734,1.9706135,1.7146685,0.11438444,0.65057498,0.75077856,0
-0.021174669,-0.83370054,2.4548635,-0.26122075,-0.23600148,0.93598449,0
-1.0535151,-2.2516167,-0.35031545,-0.33718467,-0.93312848,-0.12481114,0
-0.97240674,-1.9255664,1.2635736,-0.38896263,-0.7702266,0.50542951,0
0.80525178,-2.3522854,1.9132048,-0.37525809,-0.67196298,0.63847244,0
2.2869272,-1.5457547,2.0801027,0.91986984,-0.35476714,0.16727141,0
-1.6132729,1.2276132,2.1398287,-0.070726931,0.26944548,0.96041489,0
-2.6265116,1.1547966,-1.0418234,-0.91986984,0.35476714,-0.16727141,0
0.065663517,-0.54072142,2.531781,-0.22236687,-0.12039831,0.96750051,0
-3.1095605,1.1527674,1.6102865,-0.91986984,0.35476714,-0.16727141,0
2.3572793,0.13920331,2.6982455,-0.002841346,0.4204309,0.90732014,0
-0.63546789,-2.1599979,-1.086549,-0.25418714,-0.86399919,-0.43461967,0
3.3310528,0.78295076,1.2771463,0.91986984,-0.35476714,0.16727141,0
2.4533041,-1.3867342,1.5024195,0.91986984,-0.35476714,0.16727141,0
0.62207794,-1.369092,2.4816258,-0.2931726,-0.33860162,0.89409101,0
-2.5362802,2.2010694,0.68101811,-0.91986984,0.35476714,-0.16727141,0
-2.8453257,0.2709949,-1.7129667,-0.91986984,0.35476714,-0.16727141,0
-0.46698391,-2.4990125,0.12079257,-0.36238134,-0.93188584,0.016387701,0
-2.1815398,1.5928895,-2.5596855,-0.91986984,0.35476714,-0.16727141,0
-2.7845445,2.0166864,1.6552296,-0.91986984,0.35476714,-0.16727141,0
-2.3234413,2.426949,-0.010368705,-0.91986984,0.35476714,-0.16727141,0
-2.6446047,1.7119238,0.23928973,-0.91986984,0.35476714,-0.16727141,0
3.4997354,-0.092100024,-1.6794413,0.30670151,0.38477272,-0.87056535,0
-2.3381925,2.2829459,1.6633909,0.051746696,0.53251183,0.84483933,0
3.0493383,1.1418941,1.6850477,0.23299164,0.83731616,0.49458715,0
2.2772505,-2.8060184,-0.53958535,0.91986984,-0.35476714,0.16727141,0
-3.2182364,0.26518798,1.8359013,-0.27641472,-0.28379193,0.91818142,0
3.0714889,1.3774923,-0.34027636,0.38976163,0.87451088,-0.28864616,0
0.79460806,-2.164392,-1.5692213,-0.13705274,-0.69031668,-0.71040803,0
-1.937765,-1.6623925,0.90356296,-0.39185548,-0.81276566,0.4311164,0
-1.6554433,-1.6828405,-1.4258718,-0.23378161,-0.83835602,-0.49244827,0
-2.1192775,2.0890765,-1.8497162,-0.91986984,0.35476714,-0.16727141,0
-1.6168104,2.2666042,1.6087358,0.097368225,0.61966676,0.77880204,0
-1.7429457,0.60006213,-2.8473444,0.14632209,-0.085288867,-0.9855535,0
-3.0191214,1.3107704,1.4480476,-0.91986984,0.35476714,-0.16727141,0
2.8469195,-0.43904972,1.3477744,0.91986984,-0.35476714,0.16727141,0
-1.3926975,-2.0224283,0.65315783,-0.38990021,-0.8734473,0.29166338,0
2.4902391,-2.427325,-0.90769303,0.91986984,-0.35476714,0.16727141,0
-1.4856956,-0.17969121,2.2094154,-0.25086287,-0.20432179,0.94621366,0
-2.7551925,0.70927954,-1.2790728,-0.91986984,0.35476714,-0.16727141,0
-2.1802938,2.6341116,-0.35820198,-0.91986984,0.35476714,-0.16727141,0
-3.0568328,0.18469667,-0.73286426,-0.91986984,0.35476714,-0.16727141,0
-2.047658,3.0324295,-0.24280861,-0.91986984,0.35476714,-0.16727141,0
-2.3338022,1.7987099,-1.2858286,-0.91986984,0.35476714,-0.16727141,0
2.0867109,-2.8256204,0.46666786,0.91986984,-0.35476714,0.16727141,0
-3.1040537,-0.58182728,-2.0989096,-0.91986984,0.35476714,-0.16727141,0
2.12607,1.8279195,-0.16333836,0.37949145,0.91279447,-0.15097164,0
2.4848857,-0.19953799,2.8374534,-0.047774699,0.32194954,0.94555068,0
-3.0816309,0.35919142,-0.22640538,-0.91986984,0.35476714,-0.16727141,0
3.3257771,1.2085239,-0.48112345,0.39202178,0.84528041,-0.36307016,0
-2.6209366,1.936028,0.58443755,-0.91986984,0.35476714,-0.16727141,0
-3.290741,0.07310462,0.31678188,-0.91986984,0.35476714,-0.16727141,0
-1.7521334,1.7799454,1.9243811,0.0060875565,0.43933162,0.8983044,0
3.4965806,0.91470063,0.64629483,0.91986984,-0.35476714,0.16727141,0
-2.5625827,-1.4795972,-1.3029064,-0.27064085,-0.8827861,-0.38398203,0
-3.0524848,1.3452998,1.7047546,-0.91986984,0.35476714,-0.16727141,0
-1.9537663,2.1403317,1.7297271,0.052703634,0.53440201,0.84358567,0
2.9256449,-0.92057097,-0.10641879,0.91986984,-0.35476714,0.16727141,0
2.1123626,-2.5685906,0.87073755,0.91986984,-0.35476714,0.16727141,0
-3.4199574,-0.91951799,-1.0778823,-0.91986984,0.35476714,-0.16727141,0
3.2892778,-0.42984998,-1.8613727,0.2608597,0.23488565,-0.9363659,0
-1.1896493,-2.0067012,0.92712539,-0.39221442,-0.83494025,0.38606051,0
3.0802379,-0.49170649,-0.046983957,0.91986984,-0.35476714,0.16727141,0
3.0402009,-0.84671009,-0.5797419,0.91986984,-0.35476714,0.16727141,0
0.13911343,2.5095186,-0.87018371,0.38969982,0.87497222,-0.28732812,0
-3.1245675,-0.71651912,-2.2180791,-0.14928764,-0.71105379,-0.68710679,0
3.470361,0.21285272,-0.69807178,0.91986984,-0.35476714,0.16727141,0
-1.4571533,-0.33567691,-2.5993667,0.02649878,-0.3692832,-0.92893904,0
0.3645643,1.1438677,2.213259,0.035529643,0.50008512,0.86524707,0
-2.6686082,-1.6433945,-0.14043462,-0.37009341,-0.92630535,0.070633948,0
-2.3317447,2.6467459,0.50146085,-0.91986984,0.35476714,-0.16727141,0
-1.9595879,2.2584944,-2.368572,-0.91986984,0.35476714,-0.16727141,0
-0.13493943,-1.5509763,2.105217,-0.34033173,-0.50995135,0.79001516,0
-3.3710914,-0.81536925,-1.1257192,-0.91986984,0.35476714,-0.16727141,0
-1.8971773,3.0144088,-1.108561,-0.91986984,0.35476714,-0.16727141,0
3.347419,-0.54104161,-1.6209211,0.91986984,-0.35476714,0.16727141,0
2.391973,-2.6548548,-0.84987223,0.91986984,-0.35476714,0.16727141,0
-2.8065546,0.79827809,-0.80786145,-0.91986984,0.35476714,-0.16727141,0
-2.5858295,-0.57527506,1.6788902,-0.33754605,-0.49884009,0.79826134,0
2.7892237,-0.34434533,1.8659174,0.91986984,-0.35476714,0.16727141,0
0.43302882,-2.6775527,1.1181494,-0.39168882,-0.85315531,0.34453684,0
0.77028072,2.1584527,-1.0246968,0.39222252,0.83094233,-0.39458388,0
-0.35414898,2.1840088,1.4463626,0.17427906,0.75175512,0.63599604,0
-2.4206228,0.89833689,-2.7179871,-0.91986984,0.35476714,-0.16727141,0
-1.0663197,-2.0209751,-1.1093409,-0.2611497,-0.87217152,-0.4136636,0
-2.0884974,2.6495056,-0.83036631,-0.91986984,0.35476714,-0.16727141,0
2.9351368,-0.87410927,-2.0059662,0.18997487,0.029887363,-0.98133385,0
-3.3114557,-0.89237416,-1.6169922,-0.91986984,0.35476714,-0.16727141,0
-0.76525748,-2.3252821,0.55030221,-0.38449287,-0.89988011,0.20586628,0
-1.662415,-1.6064799,-1.5455216,-0.21687871,-0.8154062,-0.53672731,0
-0.12391794,2.252574,-1.598128,0.38477659,0.73351586,-0.56026912,0
-1.3550562,-1.0440739,1.906357,-0.33700436,-0.49669909,0.79982376,0
-0.72728354,2.9121923,0.18383139,0.32407725,0.92769289,0.18536401,0
-1.7992641,-1.6702899,1.0105027,-0.39094543,-0.7949093,0.46398365,0
2.2264128,-2.9138434,-0.48870194,0.91986984,-0.35476714,0.16727141,0
2.5896447,-0.38238311,2.8827815,0.91986984,-0.35476714,0.16727141,0
-0.43763989,0.95947754,-2.5506616,0.25530174,0.21781449,-0.94200736,0
-2.8762095,0.26018858,-1.5660481,-0.91986984,0.35476714,-0.16727141,0
0.73065066,-0.68643093,-2.3490784,0.099936463,-0.20039868,-0.97460395,0
0.091261685,-1.6874237,-1.8788112,-0.099017873,-0.62270236,-0.77616823,0
0.056720972,-2.4414258,-0.93147022,-0.25787383,-0.86836565,-0.42360628,0
-1.7213118,3.1917946,-1.3080387,0.39122748,0.86028868,-0.32687062,0
-2.1658552,-0.10598862,2.0377312,-0.27252951,-0.27141172,0.92307281,0
1.6243837,0.58808994,-2.0390286,0.30222103,0.36926913,-0.8788076,0
-2.5933263,0.42614079,-2.7697289,-0.91986984,0.35476714,-0.16727141,0
-1.1961672,-0.71665752,-2.4231319,-0.018019632,-0.46424413,-0.88552392,0
2.1720793,1.6759574,-0.63666558,0.39161807,0.85443038,-0.34144393,0
3.1622403,0.49381852,1.5922682,0.91986984,-0.35476714,0.16727141,0
-0.36827004,1.0218809,-2.5158048,0.26557094,0.24951681,-0.93124294,0
3.4394355,0.97693264,1.0925381,0.91986984,-0.35476714,0.16727141,0
0.99021387,-1.0849974,-2.2238834,0.056176297,-0.3029058,-0.95136338,0
1.3146245,-0.85745919,-2.2534955,0.10766359,-0.18170136,-0.97744226,0
0.56373823,2.3295317,-0.84060687,0.39051449,0.86816955,-0.30623522,0
-1.2287624,2.4220057,-2.0833762,0.36877161,0.63701856,-0.67691565,0
-2.1140261,-1.0492246,-2.0916924,-0.13831189,-0.69247437,-0.70806003,0
-3.2002895,0.60366762,0.94464093,-0.91986984,0.35476714,-0.16727141,0
-2.709424,-1.6207765,-0.073277712,-0.37378591,-0.92213076,0.09979409,0
1.8519819,-2.9223073,1.5524399,0.91986984,-0.35476714,0.16727141,0
2.2583845,0.60370791,2.4377737,0.067738876,0.56375563,0.82315916,0
0.44537139,-0.84047687,2.5773022,-0.24093175,-0.17456368,0.9547143,0
2.4741256,-2.0057659,0.075006962,0.91986984,-0.35476714,0.16727141,0
-2.5092146,1.3497703,-1.2733493,-0.91986984,0.35476714,-0.16727141,0
2.3705952,-2.628552,-0.67652339,0.91986984,-0.35476714,0.16727141,0
-0.96397531,-2.2401376,0.55003309,-0.38559014,-0.8960548,0.22001319,0
0.27807987,0.093525171,2.5669072,-0.12866567,0.12993166,0.9831394,0
2.3911829,-2.798636,-1.1504734,0.91986984,-0.35476714,0.16727141,0
-3.0393183,0.32161105,-0.53879821,-0.91986984,0.35476714,-0.16727141,0
-0.15197432,-1.9922121,1.7295072,-0.3758533,-0.67537403,0.63451099,0
1.8731068,1.1880705,-1.5539844,0.36599219,0.62303674,-0.69128495,0
-2.4524326,2.7037423,1.2860403,-0.91986984,0.35476714,-0.16727141,0
2.0189383,-2.5630214,1.3963155,0.91986984,-0.35476714,0.16727141,0
2.3701205,-1.3238337,2.0932724,0.91986984,-0.35476714,0.16727141,0
-1.3459744,2.0706444,1.7278891,0.081121042,0.58933043,0.80380905,0
2.078886,1.8775332,0.24428868,0.3579759,0.93365872,0.011598796,0
3.5428677,-0.0048605204,-1.5585542,0.91986984,-0.35476714,0.16727141,0
-0.90217614,0.71323407,2.3256965,-0.10555356,0.18682532,0.97670615,0
1.7952142,1.7974427,1.1115235,0.27668947,0.88921076,0.36434481,0
2.4576094,-0.93880534,2.4287589,0.91986984,-0.35476714,0.16727141,0
-0.073078871,-1.1051996,2.3536184,-0.29362372,-0.34011149,0.89336967,0
-2.390064,2.8044477,1.1566457,-0.91986984,0.35476714,-0.16727141,0
3.0294914,0.42918944,2.1852179,0.91986984,-0.35476714,0.16727141,0
2.5032735,-1.7277166,0.50443137,0.91986984,-0.35476714,0.16727141,0
1.1875429,-1.2041314,2.6969297,-0.25009432,-0.201998,0.94691581,0
-2.694643,0.22654009,-2.635895,-0.91986984,0.35476714,-0.16727141,0
2.6553178,-0.76552367,1.7090211,0.91986984,-0.35476714,0.16727141,0
1.457499,-1.8084483,-1.9035954,-0.029218033,-0.48726475,-0.8727653,0
-3.2226491,-0.28191733,-0.81064224,-0.91986984,0.35476714,-0.16727141,0
-2.8569245,1.5022929,0.96228653,-0.91986984,0.35476714,-0.16727141,0
1.973255,1.2100655,-1.4791908,0.37042272,0.64557576,-0.66784638,0
2.6142154,-1.3211398,0.75664371,0.91986984,-0.35476714,0.16727141,0
-1.7243062,-0.95856559,1.8027836,-0.34218997,-0.51745945,0.78430969,0
3.4604881,0.62155187,0.22303545,0.91986984,-0.35476714,0.16727141,0
2.7398624,-0.63047385,-2.0312388,0.21131715,0.088985771,-0.97335833,0
-1.3241394,3.189599,-0.35214484,0.35654861,0.93405634,0.020291656,0
2.5234776,-1.6505672,0.55695081,0.91986984,-0.35476714,0.16727141,0
-0.57136977,-2.3587332,0.74114984,-0.38867462,-0.88173699,0.26734209,0
1.3474076,-1.5013903,-2.0544448,0.013373818,-0.39785159,-0.91735238,0
2.1425781,-2.1815362,1.5254821,0.91986984,-0.35476714,0.16727141,0
2.0031998,-3.2005706,0.13068275,0.91986984,-0.35476714,0.16727141,0
1.915751,-2.5160313,-1.4408584,-0.12186423,-0.66387302,-0.7378493,0
-2.9898,0.045312881,-1.397115,-0.91986984,0.35476714,-0.16727141,0
1.0504453,-2.8284626,1.4208988,-0.39202803,-0.81814063,0.42066592,0
-2.7272778,-1.3260982,-1.5194479,-0.24741077,-0.85575294,-0.45439497,0
-2.440743,1.5390487,-1.2484496,-0.91986984,0.35476714,-0.16727141,0
2.9112544,-1.3894391,-1.0217079,0.91986984,-0.35476714,0.16727141,0
-1.1223226,-0.85475433,-2.3492389,-0.036050037,-0.5011372,-0.86461657,0
1.6716644,-3.1049297,1.4588095,-0.392223,-0.83281791,0.39060917,0
0.97588962,-3.0501657,0.17551287,-0.34890616,-0.93495435,-0.064224094,0
-1.0832458,0.69955951,2.3074822,-0.11735984,0.15797547,0.98044401,0
-0.31536269,-2.0922914,1.506207,-0.38522792,-0.73699594,0.55537057,0
1.6275053,-2.0814734,-1.7453425,-0.064136162,-0.55678117,-0.82817948,0
-2.8502178,1.2841619,0.46276957,-0.91986984,0.35476714,-0.16727141,0
0.47325349,-2.8619676,0.23629516,-0.35901058,-0.93331897,-0.0051883459,0
1.4183024,1.8866274,-0.95171911,0.39212435,0.82221913,-0.4125458,0
1.0308261,-1.6168422,-1.9960999,-0.024768837,-0.47816032,-0.87792331,0
-0.15347505,-2.3594747,-0.97150445,-0.25764686,-0.86809927,-0.42428961,0
3.7017,0.65457594,-1.03341,0.91986984,-0.35476714,0.16727141,0
2.5288343,-0.57281947,2.8132951,0.91986984,-0.35476714,0.16727141,0
-0.40479892,0.74633396,-2.5830877,0.23149553,0.14680485,-0.96169549,0
-3.1375256,-0.7118451,1.3136953,-0.36684567,-0.62727737,0.68698418,0
1.5431942,1.9722372,-0.60184503,0.38945115,0.8767609,-0.28216654,0
2.1292548,-2.8002625,0.28648841,0.91986984,-0.35476714,0.16727141,0
-3.4866326,-1.3192928,-0.7437185,-0.34099394,-0.93408293,-0.10588747,0
-1.0546197,-1.2147877,-2.1114764,-0.093514755,-0.61254352,-0.78488553,0
-3.1487863,-0.60040617,-1.8923168,-0.91986984,0.35476714,-0.16727141,0
1.0017529,2.2645538,0.38971734,0.3332631,0.93183041,0.14362383,0
-3.3349438,0.40691853,1.2678531,-0.91986984,0.35476714,-0.16727141,0
1.3021262,-0.22848606,2.7425339,-0.11849349,0.15518209,0.98075372,0
-0.93074,0.42929593,2.3613102,-0.14656727,0.084661379,0.98557121,0
2.1985371,-1.6224406,2.4035382,0.91986984,-0.35476714,0.16727141,0
-0.24810505,-2.5807552,-0.002525866,-0.35199291,-0.93482333,-0.046971172,0
-0.2288729,-2.5322943,-0.41047251,-0.31937563,-0.92505169,-0.20561752,0
0.71549809,0.08098802,-2.4048102,0.20260987,0.064633146,-0.97712421,0
-3.682188,-0.86557364,0.79325366,-0.38839728,-0.76448113,0.51450562,0
2.5659349,-1.3588276,0.94221973,0.91986984,-0.35476714,0.16727141,0
3.2334578,-0.33017898,-0.54699719,0.91986984,-0.35476714,0.16727141,0
2.7570813,-0.81773829,1.0386548,0.91986984,-0.35476714,0.16727141,0
0.88373762,-0.8482089,2.6815276,-0.22138062,-0.11757068,0.9680742,0
-3.3467455,-0.92333388,-1.4885865,-0.91986984,0.35476714,-0.16727141,0
2.2623806,-2.7352238,-0.30766433,0.91986984,-0.35476714,0.16727141,0
3.1490138,0.63453984,1.9634618,0.91986984,-0.35476714,0.16727141,0
1.5505767,1.2105874,2.0424938,0.12773126,0.67417777,0.72744012,0
-3.244962,0.53581846,1.046404,-0.91986984,0.35476714,-0.16727141,0
-2.1838713,1.6681342,-2.3872786,-0.91986984,0.35476714,-0.16727141,0
-2.786011,0.81052041,-0.89487135,-0.91986984,0.35476714,-0.16727141,0
1.9313594,0.46383828,-1.9856609,0.30160707,0.36716202,-0.87990069,0
-2.7474079,0.65252471,-1.4422543,-0.91986984,0.35476714,-0.16727141,0
2.1820312,0.98575521,-1.5693752,0.35954005,0.59225643,-0.72108477,0
-2.5768158,2.1162252,0.72398782,-0.91986984,0.35476714,-0.16727141,0
0.82688922,-1.3323103,2.5596061,-0.28056747,-0.29715449,0.91267788,0
-1.6877087,2.5818191,-2.1828487,0.36751366,0.63062811,-0.68355101,0
2.3637848,-1.6188459,1.5024204,0.91986984,-0.35476714,0.16727141,0
2.0607271,1.7974875,0.85822785,0.30862355,0.91787297,0.24952093,0
0.14408863,-2.6166611,-0.56287146,-0.29805827,-0.90948361,-0.28982875,0
-1.1955385,-0.92568755,2.0369625,-0.31977311,-0.43138152,0.84359652,0
0.12132502,-2.5414789,1.0997421,-0.39197421,-0.84670192,0.35979441,0
-1.4236515,-1.8368026,1.0408936,-0.39143813,-0.80337912,0.4487294,0
2.748482,-0.45155358,1.8625882,0.91986984,-0.35476714,0.16727141,0
0.66485703,-1.9282829,2.2045453,-0.34648108,-0.53511888,0.77045345,0
2.4861553,-2.0145855,-0.0098520815,0.91986984,-0.35476714,0.16727141,0
2.800735,-0.14467001,2.2261057,0.91986984,-0.35476714,0.16727141,0
2.9751098,1.377991,1.2343053,0.28698486,0.89948004,0.32950762,0
-0.44885755,2.717289,-1.0325518,0.39063346,0.86701512,-0.30933845,0
-1.5138652,-2.0953526,-0.075191617,-0.36204767,-0.93205136,0.014201701,0
-3.5261793,-1.2067928,-1.1030225,-0.91986984,0.35476714,-0.16727141,0
2.0234115,1.8590605,0.64360011,0.32757443,0.9294368,0.16983014,0
-1.5920684,2.8531091,-1.8190062,0.38641858,0.74660754,-0.54153293,0
2.6761439,-2.057241,-1.1451199,0.91986984,-0.35476714,0.16727141,0
2.8619745,-0.99402702,0.087927401,0.91986984,-0.35476714,0.16727141,0
1.8622311,1.6983942,1.2864398,0.2571184,0.86747801,0.42587787,0
0.96001327,0.7827183,-2.1847892,0.29571557,0.34713817,-0.88997048,0
-0.70839006,-1.1240699,-2.2071664,-0.054477915,-0.53789967,-0.84124672,0
-0.9251225,-0.26383924,-2.597105,0.068475872,-0.27466202,-0.95909947,0
-2.0394485,3.2671957,0.43630007,0.27413404,0.88653016,0.37271255,0
-1.9954116,0.64102888,2.1778038,-0.17314965,0.015361339,0.98477578,0
-2.3640256,1.1458409,-2.5042963,-0.91986984,0.35476714,-0.16727141,0
-0.70585144,2.940074,-0.52729863,0.37280363,0.92335945,-0.091786385,0
-1.9483387,2.4578071,1.4965785,0.1088292,0.64058352,0.7601375,0
0.55764902,-2.5210457,1.5335643,-0.38915801,-0.77230364,0.50209856,0
-3.3231049,-0.42769879,1.4528217,-0.34973699,-0.54884619,0.75924426,0
2.1554031,1.8047267,0.68597615,0.32599604,0.9286741,0.17689279,0
1.8285441,-3.282454,0.91749382,0.91986984,-0.35476714,0.16727141,0
-0.32206059,-2.2574987,1.2486168,-0.39135164,-0.80175042,0.45170817,0
1.3320023,-3.1691442,0.065313324,-0.33574092,-0.93268621,-0.13181248,0
-1.8026371,3.3664935,-0.29245561,0.34652126,0.93486422,0.077148467,0
-2.9088471,-0.13502097,-2.2247691,-0.91986984,0.35476714,-0.16727141,0
-2.0836139,2.0804582,-2.0641203,-0.91986984,0.35476714,-0.16727141,0
-1.9623413,0.1934092,-2.8014779,0.076915666,-0.25502774,-0.96386975,0
-0.66934353,0.074843347,2.4192615,-0.18031755,-0.0037779659,0.98360121,0
-3.3143992,0.20682013,0.7304827,-0.91986984,0.35476714,-0.16727141,0
-1.0357037,2.638768,1.0674208,0.21502423,0.8128022,0.54140282,0
2.9007981,-0.36888838,1.2002873,0.91986984,-0.35476714,0.16727141,0
3.5819168,0.43432593,-0.84182203,0.91986984,-0.35476714,0.16727141,0
-2.5792525,1.4064301,-0.76802218,-0.91986984,0.35476714,-0.16727141,0
-3.0163887,1.0337402,0.8454659,-0.91986984,0.35476714,-0.16727141,0
-0.74684662,2.1080942,-2.1078959,0.35895914,0.58958268,-0.72356105,0
2.2921605,-2.2483871,0.56110501,0.91986984,-0.35476714,0.16727141,0
-1.7877429,-1.5572594,1.19381,-0.38676399,-0.74953234,0.53722888,0
-2.2815142,1.8903441,-1.3790269,-0.91986984,0.35476714,-0.16727141,0
-2.1447527,2.6595588,-0.49968088,-0.91986984,0.35476714,-0.16727141,0
2.4265864,-1.7630304,0.85125685,0.91986984,-0.35476714,0.16727141,0
3.1073563,-0.66172814,-1.9520566,0.224978,0.12790819,-0.96593189,0
-2.895678,1.0682495,0.25483575,-0.91986984,0.35476714,-0.16727141,0
0.28949642,0.28928578,2.5353439,-0.10046673,0.19912153,0.97481132,0
3.6997199,0.85545707,-0.59647131,0.91986984,-0.35476714,0.16727141,0
-2.4548931,1.8958673,-0.41385606,-0.91986984,0.35476714,-0.16727141,0
-3.1861825,0.8040297,1.2920119,-0.91986984,0.35476714,-0.16727141,0
-2.0144522,3.056016,-0.37539002,-0.91986984,0.35476714,-0.16727141,0
2.1857755,1.830193,0.40806782,0.34829384,0.93494648,0.067574978,0
0.081462622,-2.0996904,1.7531803,-0.37697524,-0.68192047,0.6267966,0
-1.97158,2.5915322,-1.596282,-0.91986984,0.35476714,-0.16727141,0
0.89252031,0.63600636,-2.257503,0.27688649,0.28530315,-0.91757071,0
-2.3680482,2.7530346,0.92653292,-0.91986984,0.35476714,-0.16727141,0
-1.7418519,-0.21378708,-2.6559122,0.028370785,-0.36516935,-0.93050873,0
2.4072094,-1.3720021,1.7871513,0.91986984,-0.35476714,0.16727141,0
1.5423797,1.1570585,-1.7451351,0.35335726,0.56448412,-0.7459867,0
2.0799246,-2.0207689,2.2110021,0.91986984,-0.35476714,0.16727141,0
-1.9833095,2.7061236,-1.2887417,-0.91986984,0.35476714,-0.16727141,0
2.1042686,1.0907496,-1.5192775,0.36537695,0.62000656,-0.69432801,0
0.95146179,2.1761527,0.81643486,0.29236549,0.90448445,0.31053194,0
2.0378025,-2.6923473,1.0182878,0.91986984,-0.35476714,0.16727141,0
-2.8897409,0.60320306,-0.76413393,-0.91986984,0.35476714,-0.16727141,0
-2.8871529,1.8324462,1.8287443,-0.91986984,0.35476714,-0.16727141,0
-1.112195,-0.86692452,2.0963273,-0.31062761,-0.39854634,0.86294341,0
-3.1479418,0.66603851,0.78904927,-0.91986984,0.35476714,-0.16727141,0
-2.5661881,1.4939617,-0.65422016,-0.91986984,0.35476714,-0.16727141,0
0.078623533,-2.5190716,1.1058264,-0.39205146,-0.84429663,0.36532015,0
-2.1700401,2.1292779,-1.485296,-0.91986984,0.35476714,-0.16727141,0
-0.4152813,-2.5172622,-0.011479974,-0.35344112,-0.93465769,-0.038656354,0
2.2614567,-1.5636969,2.1821165,0.91986984,-0.35476714,0.16727141,0
-3.3934548,0.20166183,1.1542892,-0.91986984,0.35476714,-0.16727141,0
-1.4991661,-1.0892853,-2.1557045,-0.1017656,-0.62774009,-0.77174222,0
-1.6226444,1.3933532,-2.7713895,0.25260302,0.20959684,-0.94459563,0
2.8410642,-1.5611732,-0.99994612,0.91986984,-0.35476714,0.16727141,0
-1.8098365,2.9858396,-1.6494625,-0.91986984,0.35476714,-0.16727141,0
2.0055246,-2.5642283,1.4675205,0.91986984,-0.35476714,0.16727141,0
2.4639962,1.1945004,-1.202796,0.38157773,0.71075344,-0.59095502,0
-2.7768178,0.34362006,-1.935679,-0.91986984,0.35476714,-0.16727141,0
2.7205715,-0.87074637,1.1270068,0.91986984,-0.35476714,0.16727141,0
0.14609754,-1.1899556,-2.2018394,-0.010824613,-0.44926924,-0.89333081,0
-2.3662243,0.95132351,-2.9047592,-0.91986984,0.35476714,-0.16727141,0
-3.6374741,-0.50641894,1.2342154,-0.36590314,-0.6225968,0.69172835,0
2.6579206,1.6343369,0.011227846,0.37620568,0.91867638,-0.12042779,0
2.3010128,-1.319814,2.4818406,0.91986984,-0.35476714,0.16727141,0
2.0880091,-2.9950182,0.10025257,0.91986984,-0.35476714,0.16727141,0
2.9769793,0.34369302,2.292665,0.91986984,-0.35476714,0.16727141,0
3.6558642,0.93825442,-0.17969298,0.91986984,-0.35476714,0.16727141,0
-2.1220269,2.2388356,-1.5169708,-0.91986984,0.35476714,-0.16727141,0
-2.6443646,2.2160716,1.3072207,-0.91986984,0.35476714,-0.16727141,0
-1.1070762,3.1015213,-0.51835793,0.36863834,0.92764848,-0.059783697,0
2.7838664,1.1563435,-1.0357274,0.38599771,0.74313182,-0.54659021,0
-3.1123779,0.47240448,0.1827932,-0.91986984,0.35476714,-0.16727141,0
-1.2122369,0.82139242,2.2714756,-0.1071777,0.18288249,0.97727531,0
3.3083673,-0.0075407028,-0.27465767,0.91986984,-0.35476714,0.16727141,0
-2.5204446,-0.27197886,-2.628233,-0.028840169,-0.48649365,-0.87320793,0
-1.9875525,3.3388267,0.076498047,-0.91986984,0.35476714,-0.16727141,0
-1.2673402,-2.0149982,-0.98073041,-0.28065503,-0.8932693,-0.35114467,0
-2.6349821,1.0154445,-1.2907925,-0.91986984,0.35476714,-0.16727141,0
-0.60769355,0.86547828,2.3153524,-0.066922396,0.27825341,0.95817345,0
-1.9534192,2.512754,-1.8632356,-0.91986984,0.35476714,-0.16727141,0
0.666857,-2.839951,0.95408773,-0.38840115,-0.88331026,0.26250201,0
2.1148372,-2.8735352,0.21037236,0.91986984,-0.35476714,0.16727141,0
-2.7523928,0.95431614,-0.77476907,-0.91986984,0.35476714,-0.16727141,0
-2.4169722,2.7521055,1.193607,-0.91986984,0.35476714,-0.16727141,0
-1.4713242,-1.6741242,-1.5199308,-0.21552482,-0.81350678,-0.54014409,0
-1.7480104,-0.51221156,-2.519068,-0.019385621,-0.46707091,-0.88400733,0
-2.6005373,2.2758009,1.1928835,-0.91986984,0.35476714,-0.16727141,0
3.1258421,-0.30617249,0.09572655,0.91986984,-0.35476714,0.16727141,0
-2.1596761,2.2355678,-1.3168594,-0.91986984,0.35476714,-0.16727141,0
-2.1944189,-1.7926335,0.20142752,-0.38143557,-0.90847433,0.17082529,0
-2.1949742,1.416795,-2.8592868,-0.91986984,0.35476714,-0.16727141,0
2.0035541,0.20398676,2.6659698,-0.014165051,0.3961429,0.91807961,0
2.1474247,-2.0977464,1.6765382,0.91986984,-0.35476714,0.16727141,0
0.69932085,-2.8512852,-0.39442265,-0.3048861,-0.91504532,-0.26407683,0
-3.2939031,-0.56309223,-1.0151421,-0.91986984,0.35476714,-0.16727141,0
3.0235806,-1.321553,-1.4954393,0.91986984,-0.35476714,0.16727141,0
-0.89777631,2.7339272,0.84172153,0.24982455,0.85872227,0.44741884,0
2.9443145,-1.6682274,-1.7947989,0.91986984,-0.35476714,0.16727141,0
-0.74441367,2.0177727,-2.1768582,0.35156298,0.55668187,-0.75266778,0
3.651422,0.87541813,-0.28853476,0.91986984,-0.35476714,0.16727141,0
3.5444717,0.59651458,-0.29191339,0.91986984,-0.35476714,0.16727141,0
2.7688131,-1.6670243,-0.82711768,0.91986984,-0.35476714,0.16727141,0
-1.3535602,0.16211762,2.2885849,-0.20298621,-0.065678641,0.97697639,0
2.7406259,-1.4533176,-0.2188569,0.91986984,-0.35476714,0.16727141,0
1.6810677,1.7780135,-0.91830677,0.39205945,0.81933504,-0.41830546,0
-2.8647888,0.07833457,-2.0145507,-0.91986984,0.35476714,-0.16727141,0
-3.0989945,0.94500697,1.1115413,-0.91986984,0.35476714,-0.16727141,0
-1.2237616,1.5127028,-2.6227088,0.28357717,0.30692583,-0.90850461,0
0.2408601,1.3171892,-2.1984897,0.32207274,0.43981862,-0.83834875,0
0.7279737,2.3309431,0.53967702,0.3158524,0.92286545,0.22035554,0
2.1560874,-2.2356937,1.3363278,0.91986984,-0.35476714,0.16727141,0
-0.27992344,-0.21637106,2.4859805,-0.19847462,-0.053185865,0.97866189,0
-2.692795,1.2327887,-0.5118984,-0.91986984,0.35476714,-0.16727141,0
-3.4191346,0.20156741,1.2953099,-0.91986984,0.35476714,-0.16727141,0
-3.4160881,0.26570404,1.4145846,-0.91986984,0.35476714,-0.16727141,0
-0.46656269,1.8205069,1.8198707,0.096923217,0.61884648,0.77950943,0
-1.0831951,-1.9005828,-1.3268349,-0.2330865,-0.83744115,-0.4943307,0
1.6397458,-3.0726957,-0.60009086,-0.26326001,-0.87458557,-0.40717834,0
2.2057779,-2.6741772,0.13308422,0.91986984,-0.35476714,0.16727141,0
-2.1336782,0.94079208,-2.9284613,0.17174806,-0.019080594,-0.98495609,0
3.3201838,0.39449596,0.51304269,0.91986984,-0.35476714,0.16727141,0
-2.5592687,0.46229172,-2.8803473,-0.91986984,0.35476714,-0.16727141,0
2.3605936,-1.5564101,1.6523907,0.91986984,-0.35476714,0.16727141,0
0.36424863,2.1618319,1.2228999,0.22934482,0.83247316,0.50437027,0
-2.6310172,-1.458463,-1.3031766,-0.27207655,-0.88433599,-0.37937346,0
-1.9958653,-1.2156875,1.4610978,-0.37143439,-0.65092242,0.6620698,0
-1.8719535,2.7772818,-1.7501963,-0.91986984,0.35476714,-0.16727141,0
-2.0622382,-1.8318319,0.28397632,-0.38349915,-0.9029665,0.19385512,0
0.10272884,-0.78655958,2.4994917,-0.25018936,-0.20228527,0.94682944,0
-2.8979487,-0.052150726,-2.1089413,-0.91986984,0.35476714,-0.16727141,0
2.6134763,0.74804008,2.28335,0.11793458,0.65690899,0.74468923,0
3.5422287,0.38251448,-0.73345405,0.91986984,-0.35476714,0.16727141,0
2.0059109,-3.0782299,0.37524819,0.91986984,-0.35476714,0.16727141,0
2.096977,-0.35252953,2.852169,-0.092521608,0.21816832,0.97151542,0
1.4868557,-2.2817442,2.3282118,-0.34964943,-0.54847312,0.75955415,0
-0.20183921,-2.1107669,1.5598164,-0.38395333,-0.7273646,0.56878877,0
-0.63802838,2.1885939,-1.9811924,0.36836523,0.63494217,-0.6790843,0
-1.5661548,-1.3112549,1.6054614,-0.36635196,-0.6248188,0.68948358,0
-1.3146163,-1.3094279,1.7359782,-0.35866779,-0.58824706,0.72479153,0
2.5347507,-2.1173363,-0.49501759,0.91986984,-0.35476714,0.16727141,0
0.85403013,1.7243354,-1.5987668,0.37604064,0.67645597,-0.63324618,0
-1.3109,-0.95178097,1.9784588,-0.32667732,-0.45695287,0.82733059,0
0.16272175,-2.3716099,-1.1162217,-0.23086658,-0.83450258,-0.50030589,0
2.4601603,1.0034597,-1.4086447,0.36907345,0.63856798,-0.67528933,0
-2.9367306,0.68576908,-0.33060914,-0.91986984,0.35476714,-0.16727141,0
2.7480931,1.5920115,0.70092499,0.33378065,0.93201894,0.14117748,0
-1.4576221,1.028204,-2.7905865,0.21627432,0.1030058,-0.97088373,0
0.15098995,-1.7188982,-1.8611538,-0.10053775,-0.6254918,-0.77372611,0
-2.7203491,1.5411698,0.29367638,-0.91986984,0.35476714,-0.16727141,0
-0.99739599,3.061435,-0.45893809,0.36649787,0.92935961,-0.044382721,0
2.5129194,-0.94200802,2.1178007,0.91986984,-0.35476714,0.16727141,0
3.4348011,-0.2767272,-1.5408709,0.91986984,-0.35476714,0.16727141,0
0.48340058,2.3211408,-0.95882511,0.39175147,0.85194272,-0.34745407,0
0.45262671,-2.0817261,1.9798813,-0.36574322,-0.62180769,0.69252211,0
0.84074152,2.1484041,0.97883129,0.27193511,0.884184,0.3798289,0
-1.9957054,3.2233248,-0.12363727,-0.91986984,0.35476714,-0.16727141,0
2.4176369,-2.2501173,-0.13259235,0.91986984,-0.35476714,0.16727141,0
3.5596869,0.12941682,-1.3662572,0.91986984,-0.35476714,0.16727141,0
3.5881641,0.73443496,-0.2396754,0.91986984,-0.35476714,0.16727141,0
1.0731695,0.58141178,2.4886835,-0.011238057,0.40245506,0.9153707,0
-0.64182901,-0.25650322,-2.5763984,0.085591719,-0.2346255,-0.9683103,0
-1.7862347,2.6179395,1.3173306,0.15073964,0.71348041,0.68426841,0
2.2942224,-1.6407878,1.8384278,0.91986984,-0.35476714,0.16727141,0
0.22085497,1.2146022,2.1782165,0.03807652,0.50522679,0.86214614,0
-1.5902439,-2.0101924,-0.64463055,-0.32058388,-0.92576146,-0.2004784,0
2.4473059,-1.4170144,1.4711819,0.91986984,-0.35476714,0.16727141,0
2.8589113,-0.95530117,0.18690687,0.91986984,-0.35476714,0.16727141,0
0.48912072,-2.4426465,1.5976439,-0.38708496,-0.75231522,0.53309178,0
1.4552127,-1.7788763,2.5977352,-0.30254281,-0.37037522,0.87823117,0
-0.55742025,-2.160583,1.216656,-0.39121658,-0.7993446,0.45606762,0
-2.5683939,1.0527153,-1.5779326,-0.91986984,0.35476714,-0.16727141,0
1.2523391,-1.4982524,2.6363654,-0.28077281,-0.29781869,0.91239828,0
1.6056582,1.761992,1.3092217,0.24822962,0.85676414,0.45203671,0
2.6507707,-0.56069994,2.1684399,0.91986984,-0.35476714,0.16727141,0
-0.63937044,-2.4259646,0.22919774,-0.37012601,-0.92627358,0.070880324,0
-2.8451862,0.2141366,-1.8343251,-0.91986984,0.35476714,-0.16727141,0
3.0934403,0.51492977,2.0153911,0.91986984,-0.35476714,0.16727141,0
-1.899471,3.1510305,-0.80618507,-0.91986984,0.35476714,-0.16727141,0
-2.9463658,1.4587665,1.3618329,-0.91986984,0.35476714,-0.16727141,0
1.8392502,-1.4838738,-2.0457404,0.04539052,-0.32731715,-0.9438237,0
-2.2824464,-1.2729641,1.2255938,-0.38205141,-0.71394885,0.58678257,0
-2.6811826,0.32949591,-2.4915586,-0.91986984,0.35476714,-0.16727141,0
2.5760398,-0.81521201,2.039608,0.91986984,-0.35476714,0.16727141,0
1.8220097,-3.3639445,0.78059441,0.91986984,-0.35476714,0.16727141,0
2.6805856,0.24570107,2.6372614,0.034708723,0.49842393,0.86623836,0
-2.4704165,1.3610029,-1.4628856,-0.91986984,0.35476714,-0.16727141,0
2.0418947,-2.9681618,0.41080719,0.91986984,-0.35476714,0.16727141,0
-3.1651015,0.47735679,0.48323953,-0.91986984,0.35476714,-0.16727141,0
3.4596338,0.28828919,-0.47908604,0.91986984,-0.35476714,0.16727141,0
2.2012622,-2.4264297,0.68336475,0.91986984,-0.35476714,0.16727141,0
3.4648652,1.2540954,-0.17652392,0.38778222,0.88660103,-0.25211817,0
2.7677345,-1.8570266,-1.224164,0.91986984,-0.35476714,0.16727141,0
-2.3062351,2.3254781,-0.32020152,-0.91986984,0.35476714,-0.16727141,0
-0.34422624,-2.5020142,0.55956185,-0.38222426,-0.90649617,0.17935809,0
2.6921222,-0.90837049,1.2036586,0.91986984,-0.35476714,0.16727141,0
3.2483478,0.073958397,0.22825658,0.91986984,-0.35476714,0.16727141,0
-1.9722035,3.1149762,-0.48267752,-0.91986984,0.35476714,-0.16727141,0
3.009778,-0.29424882,0.75928116,0.91986984,-0.35476714,0.16727141,0
2.0203352,-0.51138663,2.8740635,-0.11932187,0.15313822,0.98097444,0
0.7291075,2.2595694,0.78278142,0.29164308,0.90382791,0.31311259,0
0.65502119,-2.0112946,-1.6866231,-0.1184319,-0.65779299,-0.74382943,0
-0.030449152,0.073311985,-2.5443523,0.16429384,-0.038735956,-0.98565054,0
-2.2946453,2.826257,0.67816854,-0.91986984,0.35476714,-0.16727141,0
-1.1238797,3.0387564,-0.95593601,0.38634306,0.89312226,-0.23037323,0
2.4735355,-2.0598843,-0.036528379,0.91986984,-0.35476714,0.16727141,0
-2.6191397,2.2372255,1.2133667,-0.91986984,0.35476714,-0.16727141,0
-1.3175143,0.59808171,-2.7793684,0.16805914,-0.028833672,-0.98535508,0
-1.7452916,0.56981611,2.2227793,-0.16982226,0.024178579,0.98517805,0
-3.2148004,0.18548119,0.13750482,-0.91986984,0.35476714,-0.16727141,0
-3.1064107,0.058983564,1.7998579,-0.2942321,-0.34215081,0.89239013,0
2.2827816,-1.5982409,1.9915804,0.91986984,-0.35476714,0.16727141,0
-2.0794635,1.7782886,-2.7278163,-0.91986984,0.35476714,-0.16727141,0
0.94292974,1.8776009,1.4243122,0.21545571,0.81340969,0.54031801,0
-0.023148656,-2.5902328,0.77068955,-0.38697654,-0.89041859,0.23959082,0
2.0264006,1.54795,1.4793113,0.23571169,0.84088242,0.48719266,0
2.7902715,-1.7707378,-1.1650904,0.91986984,-0.35476714,0.16727141,0
-2.5587904,1.527676,-0.62339741,-0.91986984,0.35476714,-0.16727141,0
3.3299518,0.5575918,0.80523729,0.91986984,-0.35476714,0.16727141,0
-0.71298432,2.8642299,0.3647809,0.30755943,0.91708422,0.25370005,0
3.4194484,0.73448956,0.68825448,0.91986984,-0.35476714,0.16727141,0
2.8620064,-0.90143836,0.28412378,0.91986984,-0.35476714,0.16727141,0
1.442299,-1.9865507,-1.7946521,-0.060107276,-0.5489375,-0.83369941,0
1.7840416,-3.2582209,-0.23557679,-0.30103314,-0.91196734,-0.27873716,0
-0.1246413,-2.3939624,1.1700315,-0.39217997,-0.82556081,0.40576369,0
1.7159921,0.78810024,2.3559382,0.063468903,0.55548537,0.82910049,0
-1.8886954,-1.8403918,-0.90787554,-0.30058223,-0.91159689,-0.28043088,0
3.0193846,-1.4509981,-1.7469056,0.91986984,-0.35476714,0.16727141,0
-2.2532563,2.6903934,0.16240671,-0.91986984,0.35476714,-0.16727141,0
-0.16942143,-0.35552889,-2.5093644,0.097609565,-0.20599313,-0.97367311,0
0.58798128,-1.5701115,2.3829634,-0.31543863,-0.41568214,0.85305732,0
-3.4976232,0.18323386,1.6880581,-0.91986984,0.35476714,-0.16727141,0
2.3938766,-1.7490263,1.0608381,0.91986984,-0.35476714,0.16727141,0
-2.2989168,2.4390225,-0.11963062,-0.91986984,0.35476714,-0.16727141,0
-3.6002231,-0.81220186,0.1410532,-0.91986984,0.35476714,-0.16727141,0
2.7348044,-1.4664767,-0.21475291,0.91986984,-0.35476714,0.16727141,0
1.8983244,1.9141405,0.5816654,0.33087891,0.9308973,0.15475565,0
-2.9017477,0.94686437,0.030768335,-0.91986984,0.35476714,-0.16727141,0
2.7387593,-0.55840755,1.689429,0.91986984,-0.35476714,0.16727141,0
2.4072638,1.1219531,-1.3198885,0.37582338,0.67520189,-0.63471186,0
-2.1181054,1.8697121,-2.321413,-0.91986984,0.35476714,-0.16727141,0
-1.8044095,-0.45420364,2.0323539,-0.29541126,-0.34611323,0.8904705,0
2.8412788,-0.0061275959,2.2969811,0.91986984,-0.35476714,0.16727141,0
-2.038909,2.4955986,-1.4294897,-0.91986984,0.35476714,-0.16727141,0
0.60330099,0.4392935,-2.3860111,0.2413204,0.17571741,-0.95440447,0
-0.46783292,2.8322089,0.11673921,0.33373129,0.93200123,0.14141098,0
-3.4343767,0.21161914,1.4004501,-0.91986984,0.35476714,-0.16727141,0
2.0028784,-2.1386061,2.3847771,0.91986984,-0.35476714,0.16727141,0
-3.398586,-0.76564288,-0.86905491,-0.91986984,0.35476714,-0.16727141,0
-1.9231644,1.1174681,-2.8833218,0.20498651,0.0712464,-0.97616822,0
3.7064667,0.95809323,-0.41589344,0.91986984,-0.35476714,0.16727141,0
-3.4275527,-0.86183429,-0.91377306,-0.91986984,0.35476714,-0.16727141,0
-3.1811838,0.75399303,1.1583991,-0.91986984,0.35476714,-0.16727141,0
2.2823935,1.7045846,0.92522967,0.30601305,0.91591465,0.25972351,0
1.979938,0.57885969,-1.9164355,0.31535017,0.41536438,-0.8532449,0
2.6179643,-1.460264,0.44095927,0.91986984,-0.35476714,0.16727141,0
0.71720171,-2.9396362,0.57356197,-0.37489545,-0.92062676,0.10908578,0
-0.70075971,-0.38647181,-2.5457165,0.063111447,-0.28703406,-0.95583916,0
-1.98744,2.7635379,-1.1442556,-0.91986984,0.35476714,-0.16727141,0
3.6007652,1.0857639,-0.46906406,0.39217657,0.83853859,-0.37821999,0
-2.6982679,-1.3328989,0.83089417,-0.39117032,-0.79855394,0.45749015,0
2.1488926,-3.1485543,-0.56020004,0.91986984,-0.35476714,0.16727141,0
2.6755779,0.055937827,-1.8972275,0.28871465,0.3237834,-0.9010039,0
-3.0799425,1.107339,1.3510607,-0.91986984,0.35476714,-0.16727141,0
1.8891796,-2.661437,1.9011636,0.91986984,-0.35476714,0.16727141,0
2.8589766,-0.56294203,1.0187051,0.91986984,-0.35476714,0.16727141,0
2.3131628,-2.1194072,0.7191602,0.91986984,-0.35476714,0.16727141,0
-2.5310061,-0.50781643,-2.4809861,-0.069337949,-0.56683922,-0.82090539,0
2.9104104,-1.1542819,-0.51831961,0.91986984,-0.35476714,0.16727141,0
-2.2901623,2.0206914,-1.0550138,-0.91986984,0.35476714,-0.16727141,0
-3.3297904,0.17131162,0.73981285,-0.91986984,0.35476714,-0.16727141,0
2.9612138,0.26179361,2.2056632,0.91986984,-0.35476714,0.16727141,0
2.0080538,-2.2477188,2.1248989,0.91986984,-0.35476714,0.16727141,0
1.0907745,-3.1000748,0.38268802,-0.36110252,-0.93249112,0.0080717206,0
-0.67914867,-2.0346174,1.3230515,-0.38881248,-0.76866436,0.50791717,0
-1.8969493,2.8366339,-1.4868585,-0.91986984,0.35476714,-0.16727141,0
1.4544086,-2.847209,1.7264149,-0.38842064,-0.76471168,0.51414526,0
2.3749611,-1.3792267,1.9491694,0.91986984,-0.35476714,0.16727141,0
-2.6419458,-1.6539911,-0.13974857,-0.36987811,-0.92651385,0.069008142,0
3.5165207,0.48536551,-0.37394154,0.91986984,-0.35476714,0.16727141,0
-2.5620124,2.2836781,0.99773228,-0.91986984,0.35476714,-0.16727141,0
3.1796122,-0.62539756,-0.87701744,0.91986984,-0.35476714,0.16727141,0
-3.1319406,1.2481707,1.935702,-0.91986984,0.35476714,-0.16727141,0
-3.0687931,0.28413737,-0.45618874,-0.91986984,0.35476714,-0.16727141,0
1.495555,-0.86517799,-2.2314353,0.11643197,-0.16025871,-0.98018396,0
3.5223715,0.68013263,0.0069662333,0.91986984,-0.35476714,0.16727141,0
3.2226238,-0.66241789,-1.1920657,0.91986984,-0.35476714,0.16727141,0
1.5957153,0.17122328,2.6661315,-0.043548528,0.33145314,0.94246602,0
-3.4760773,0.26052749,1.7544289,-0.28787512,-0.32101285,0.90226299,0
0.94987637,0.020357668,-2.3600607,0.20636389,0.075090408,-0.97558969,0
-3.2760658,-0.49314547,-0.9648844,-0.91986984,0.35476714,-0.16727141,0
2.2260633,-2.8006065,-0.24661475,0.91986984,-0.35476714,0.16727141,0
0.57894838,-2.2746832,-1.4007747,-0.17508787,-0.75303346,-0.63425928,0
0.46079612,1.9496052,-1.5878294,0.3805753,0.70415151,-0.59944391,0
2.1278543,1.03848,2.0994854,0.13728067,0.69070756,0.70998383,0
-3.3997192,-0.53930318,-0.38277829,-0.91986984,0.35476714,-0.16727141,0
-1.4403856,2.7792373,-1.8123699,0.385701,0.74073523,-0.55004179,0
-2.4534388,1.059551,-2.1956036,-0.91986984,0.35476714,-0.16727141,0
2.3337219,-0.7013793,2.9409873,-0.12895723,0.12920296,0.98319715,0
2.5615721,-2.4214272,-1.5890074,-0.060655788,-0.55000812,-0.83295375,0
-2.8263001,-0.97139841,1.2318475,-0.37653762,-0.67934859,0.62984502,0
2.52162,-1.5293419,0.82427311,0.91986984,-0.35476714,0.16727141,0
-0.25400499,-1.1759138,-2.1992481,-0.033771768,-0.49652565,-0.86736482,0
-2.125128,1.4160764,-2.8949533,0.23225349,0.14901693,-0.9611724,0
-2.9595609,0.6991899,-0.176597,-0.91986984,0.35476714,-0.16727141,0
1.9141712,-1.9466033,2.6850853,-0.30157101,-0.36703807,0.87996483,0
1.3397279,-1.0706326,2.7583857,-0.22708553,-0.13399497,0.9646126,0
2.0532069,-3.1803198,-0.10137033,0.91986984,-0.35476714,0.16727141,0
2.5023665,0.76290858,2.2875137,0.112782,0.64770281,0.75349939,0
1.3292863,2.0148864,0.92913604,0.28762794,0.90009177,0.32726911,0
-1.4848876,-1.6365308,-1.5700493,-0.20836753,-0.80332226,-0.55790353,0
-2.6951203,1.5567752,0.18803453,-0.91986984,0.35476714,-0.16727141,0
1.6249001,-1.9383488,-1.8355733,-0.040060133,-0.50921869,-0.85970432,0
-0.28408241,2.420294,1.0910146,0.231305,0.83508503,0.49913022,0
-2.8102889,0.38546944,-1.662854,-0.91986984,0.35476714,-0.16727141,0
2.0210071,-2.160403,-1.7212033,-0.051710576,-0.53244036,-0.84488648,0
-3.3121161,-0.58092141,-0.95279872,-0.91986984,0.35476714,-0.16727141,0
-1.0073473,-0.90281546,-2.3261728,-0.036668286,-0.50238609,-0.86386538,0
2.2669125,-1.5402813,2.2017775,0.91986984,-0.35476714,0.16727141,0
3.1304955,-0.47359622,-0.28495604,0.91986984,-0.35476714,0.16727141,0
-1.4070125,2.9993322,-1.4181734,0.39222336,0.83140612,-0.39360467,0
-0.82326514,1.1707995,2.2019145,-0.033350591,0.35417837,0.93458301,0
2.7564433,-0.55999374,1.5888159,0.91986984,-0.35476714,0.16727141,0
2.6779473,-0.84006286,1.4264852,0.91986984,-0.35476714,0.16727141,0
-0.98928344,-2.2816784,-0.29630154,-0.34048057,-0.93397301,-0.10847691,0
-1.4878312,-2.104377,-0.1858511,-0.35481292,-0.93443513,-0.030640125,0
-1.5590601,-2.0438852,0.28250492,-0.3801257,-0.91146439,0.15728028,0
-2.6303501,1.7565626,0.25557441,-0.91986984,0.35476714,-0.16727141,0
1.8981045,1.7542987,-0.75191414,0.39207834,0.84332383,-0.36753157,0
2.3209124,-1.5596483,1.8637408,0.91986984,-0.35476714,0.16727141,0
0.10809633,-1.3435636,-2.1171706,-0.038425535,-0.50593001,-0.86171818,0
-3.2178702,0.62147343,1.0790858,-0.91986984,0.35476714,-0.16727141,0
2.7543814,-0.68085766,1.3438129,0.91986984,-0.35476714,0.16727141,0
-3.4972656,-1.2023835,0.29507303,-0.39032203,-0.86993504,0.30143261,0
0.61923134,0.80980408,2.3820622,-0.0027958602,0.42052776,0.90727538,0
0.42075109,-2.296103,1.7404511,-0.3809523,-0.70661026,0.59630293,0
3.1395216,-1.1670467,-1.8053365,0.91986984,-0.35476714,0.16727141,0
-0.34147534,-0.56589723,-2.4677887,0.057002604,-0.30102196,-0.95191199,0
2.6637671,0.55284536,2.435761,0.08616893,0.59884048,0.79621917,0
