-0.03343457,0.13759047,1.017922,0.19440053,0.086199164,0.97712755,0
2.5093708,-0.75962973,0.55687797,0.92859435,-0.33717597,-0.15500015,0
-1.2734544,-1.2278917,1.3850839,0.19440053,0.086199164,0.97712755,0
-1.6471465,-0.58404547,1.4026322,0.19440053,0.086199164,0.97712755,0
0.086191177,2.3955865,-1.1352415,0.10337377,0.98878443,-0.10779387,0
-0.88633609,2.3268342,-0.61476183,-0.31002188,0.95047098,-0.022168517,0
2.2459915,-0.92836398,-0.64833796,0.91992927,-0.36179775,-0.15110415,0
2.2541177,-1.2308301,0.37284231,0.84749341,-0.51634437,-0.12305927,0
0.34655684,-2.4713717,0.14906883,0.13862276,-0.98854876,0.059627652,0
0.92490846,1.3055272,0.72422695,0.19440053,0.086199164,0.97712755,0
-2.5691147,-0.056555986,-0.10114056,-0.98074555,-0.0018263161,0.19528142,0
-0.65081877,1.3178829,1.0366293,0.19440053,0.086199164,0.97712755,0
1.7846854,-0.39180359,-1.343909,-0.19440053,-0.086199164,-0.97712755,0
1.291743,1.266505,-1.3921287,-0.19440053,-0.086199164,-0.97712755,0
-0.028225303,-1.0669163,-0.92367244,-0.19440053,-0.086199164,-0.97712755,0
2.0197544,-0.80582708,-1.3541524,-0.19440053,-0.086199164,-0.97712755,0
1.3726034,1.3309574,0.6329143,0.19440053,0.086199164,0.97712755,0
1.3145413,-1.4955361,-1.1530056,-0.19440053,-0.086199164,-0.97712755,0
1.6678025,-0.64595044,0.74858093,0.19440053,0.086199164,0.97712755,0
0.50187689,1.8569236,-1.2870691,-0.19440053,-0.086199164,-0.97712755,0
-1.0281126,1.6785049,1.0798794,0.19440053,0.086199164,0.97712755,0
1.427002,-1.2275977,-1.1990166,-0.19440053,-0.086199164,-0.97712755,0
0.57315475,-1.3747536,1.0306549,0.19440053,0.086199164,0.97712755,0
-0.63003469,-2.4905581,-0.36766577,-0.19786018,-0.97221082,0.12512994,0
1.2693753,1.9465015,-1.1829836,0.56539935,0.80416286,-0.18342754,0
-1.6619064,-0.064440668,1.3597307,0.19440053,0.086199164,0.97712755,0
-1.047116,1.9634439,1.0585237,0.19440053,0.086199164,0.97712755,0
1.5116863,-0.32476461,0.7513063,0.19440053,0.086199164,0.97712755,0
0.22937191,2.4858372,-0.16559839,0.084201574,0.99098843,-0.10417396,0
-1.8031962,-1.7430398,0.21358037,-0.69856507,-0.68714452,0.19959798,0
0.037633508,1.2797997,-1.1437953,-0.19440053,-0.086199164,-0.97712755,0
0.56202573,-2.389806,0.99296308,0.15688595,-0.98604071,0.055772901,0
-1.0792513,2.2561917,-0.31617832,-0.40648505,0.91365749,0.00027048588,0
-1.014922,-0.63726568,-0.76527053,-0.19440053,-0.086199164,-0.97712755,0
-1.4721086,-1.4824896,1.4470662,0.19440053,0.086199164,0.97712755,0
-2.4674168,-0.54513347,-0.48442301,-0.19440053,-0.086199164,-0.97712755,0
-2.0519872,-1.5786753,-0.1605159,-0.76699793,-0.60761601,0.20619702,0
0.15799475,1.0897988,0.89583606,0.19440053,0.086199164,0.97712755,0
-2.0022986,1.5887294,-0.4652437,-0.74595058,0.6598655,0.090196371,0
-0.53948247,2.0624793,-1.0980231,-0.19440053,-0.086199164,-0.97712755,0
-0.72350985,0.38593817,-0.91351128,-0.19440053,-0.086199164,-0.97712755,0
0.11560172,-0.70720148,-0.98401988,-0.19440053,-0.086199164,-0.97712755,0
1.7065047,0.74761099,-1.4288707,-0.19440053,-0.086199164,-0.97712755,0
0.22022188,2.2203436,-1.2630935,-0.19440053,-0.086199164,-0.97712755,0
1.1777421,0.125067,0.77806199,0.19440053,0.086199164,0.97712755,0
-1.4651868,-2.0297332,0.21450055,-0.56661916,-0.80326647,0.18359119,0
-0.35196435,-0.98900175,-0.8661375,-0.19440053,-0.086199164,-0.97712755,0
-1.6592846,1.0826159,1.2580193,0.19440053,0.086199164,0.97712755,0
-0.59845322,2.4394624,0.2954824,-0.26913732,0.96259081,-0.031371653,0
-0.46320021,-2.3585095,0.90969861,-0.2315897,-0.96393794,0.13111061,0
1.4042932,-0.98670411,0.83106661,0.19440053,0.086199164,0.97712755,0
-2.5530963,-0.25987637,-0.066052973,-0.97588366,-0.083839715,0.20154908,0
-1.2456865,-1.1228982,-0.67651874,-0.19440053,-0.086199164,-0.97712755,0
-0.95228601,2.308264,0.95260811,-0.45437175,0.89073384,0.011819959,0
-0.76179338,1.1750305,-0.97550595,-0.19440053,-0.086199164,-0.97712755,0
-0.6807071,1.6159408,-1.030534,-0.19440053,-0.086199164,-0.97712755,0
2.0689089,-1.2065768,-0.96238708,0.87749982,-0.46048844,-0.13395661,0
-2.2335191,-1.1790859,0.15016648,-0.86315095,-0.45821825,0.21214737,0
2.2715235,-0.10755771,-1.3939054,0.98090374,-0.010966986,-0.1941843,0
-0.73646212,2.3502307,0.96259761,0.19440053,0.086199164,0.97712755,0
1.1924547,-1.3390107,-1.1425247,-0.19440053,-0.086199164,-0.97712755,0
-1.7636085,-1.9189649,-0.29017282,-0.6438731,-0.74028504,0.19340488,0
-1.7632965,-0.56021929,1.4236383,0.19440053,0.086199164,0.97712755,0
0.050905585,2.2084644,-1.2283597,-0.19440053,-0.086199164,-0.97712755,0
2.5215986,0.73340482,0.31868246,0.94139141,0.26354352,-0.21053974,0
-0.18355477,2.2415152,-1.1846292,-0.19440053,-0.086199164,-0.97712755,0
-1.4414005,-1.904448,0.82042587,-0.60434318,-0.77409852,0.18852323,0
0.47436619,-2.4002445,1.0241293,0.12084919,-0.99064755,0.063348889,0
2.2962079,0.83430791,-0.53043294,0.91848326,0.33372313,-0.21217318,0
-1.4008882,2.0878153,-0.38592982,-0.52384931,0.85131317,0.029120028,0
1.6452898,0.031134784,-1.3534865,-0.19440053,-0.086199164,-0.97712755,0
-2.0907383,0.62677002,1.3840706,0.19440053,0.086199164,0.97712755,0
-1.4711924,1.1815913,-0.83494925,-0.19440053,-0.086199164,-0.97712755,0
0.43516713,-0.93546474,1.0193549,0.19440053,0.086199164,0.97712755,0
-0.53646886,-2.4824576,-0.16120553,-0.17758971,-0.9765777,0.12148237,0
-0.63762224,-2.4920874,-0.3915596,-0.1989547,-0.97196221,0.1253258,0
0.46135744,-1.3164302,-0.99906409,-0.19440053,-0.086199164,-0.97712755,0
2.2717946,0.29326129,0.54556161,0.19440053,0.086199164,0.97712755,0
0.052158505,-1.3320704,1.1305422,0.19440053,0.086199164,0.97712755,0
0.31028461,-2.5223925,-0.66450953,0.18682125,-0.98115194,0.049386024,0
-1.0216267,-0.87000078,1.3034104,0.19440053,0.086199164,0.97712755,0
0.84581196,-2.3486307,0.2352376,0.32340783,-0.94606662,0.019116759,0
-1.8452306,-1.3274354,1.3272675,-0.80214894,-0.55937755,0.2089349,0
2.3361418,-0.16098014,-1.0574155,0.98056531,-0.043946981,-0.19120753,0
0.40364698,0.27853203,-1.1282852,-0.19440053,-0.086199164,-0.97712755,0
-0.9987393,-0.39842004,-0.78956038,-0.19440053,-0.086199164,-0.97712755,0
-0.30876899,-1.5712669,-0.82336569,-0.19440053,-0.086199164,-0.97712755,0
-2.208986,-0.85050124,0.88016182,-0.91137725,-0.35251972,0.21241762,0
1.9855187,-0.19883651,-1.4008882,-0.19440053,-0.086199164,-0.97712755,0
0.87471443,-1.3246498,-1.0805769,-0.19440053,-0.086199164,-0.97712755,0
1.0513207,-0.087142944,-1.2248818,-0.19440053,-0.086199164,-0.97712755,0
-2.1411557,1.3607576,-0.16794229,-0.82045567,0.5602687,0.11380529,0
-0.019668877,1.7621642,-1.1749476,-0.19440053,-0.086199164,-0.97712755,0
0.27559352,-2.4322317,0.82562625,0.059641808,-0.99532723,0.07593894,0
0.64371526,-2.4203691,-0.098171234,0.27143794,-0.96196127,0.030858457,0
-1.702274,0.38004458,-0.7182653,-0.19440053,-0.086199164,-0.97712755,0
-2.1847568,-1.2737579,0.13333669,-0.84246993,-0.49556547,0.21132749,0
0.30759013,1.975657,0.7879262,0.19440053,0.086199164,0.97712755,0
1.4602284,1.7320521,-1.4324178,0.65924537,0.72614485,-0.19521579,0
-1.6752353,-0.67201829,1.4159812,0.19440053,0.086199164,0.97712755,0
-2.4521549,0.83509445,-0.38347936,-0.92025375,0.36091202,0.15124679,0
-2.4014883,0.99889076,-0.51321423,-0.89199352,0.42997503,0.13953185,0
-1.7179632,-0.54069871,1.4128973,0.19440053,0.086199164,0.97712755,0
-2.10393,1.1358348,0.96693242,-0.89085019,0.43248349,0.13908315,0
-0.12629235,0.98054618,-1.0847828,-0.19440053,-0.086199164,-0.97712755,0
0.81606597,0.69068664,-1.2466954,-0.19440053,-0.086199164,-0.97712755,0
-2.3370543,-1.0200243,0.039344147,-0.8956458,-0.39063868,0.21265054,0
-1.4098128,2.0538867,0.26486063,-0.57650501,0.81597656,0.042713284,0
-2.2410073,-1.2351252,-0.0035436153,-0.8539784,-0.4752385,0.21182393,0
-1.6885637,-1.5233837,1.3444902,-0.74184573,-0.63880497,0.20394436,0
-0.61220402,-2.1228104,1.3324745,0.19440053,0.086199164,0.97712755,0
-2.1016498,1.3370647,0.22516394,-0.83496058,0.53735316,0.11871254,0
-1.3682131,2.1115344,-0.5236733,-0.50096625,0.86515194,0.023346663,0
-1.0084704,0.35349077,1.1928601,0.19440053,0.086199164,0.97712755,0
-1.7869465,1.6622491,0.77314067,-0.75765234,0.64588892,0.093757331,0
1.6847432,-0.096857429,0.6967712,0.19440053,0.086199164,0.97712755,0
1.3501878,1.0579628,-1.3853594,-0.19440053,-0.086199164,-0.97712755,0
-1.2726337,0.16030908,1.2624578,0.19440053,0.086199164,0.97712755,0
-2.2416325,1.2779952,-0.49206173,-0.83394563,0.53900319,0.11836511,0
-0.90962148,-2.044318,1.3847215,0.19440053,0.086199164,0.97712755,0
-2.0031145,0.62139273,1.3671123,0.19440053,0.086199164,0.97712755,0
-0.41132927,-0.79057515,1.1749845,0.19440053,0.086199164,0.97712755,0
2.1454039,-1.18907,-0.52062273,0.87325823,-0.46893394,-0.13236761,0
2.1068649,1.5056372,0.15752202,0.78883648,0.57835078,-0.20796016,0
1.2302699,0.2235465,0.75892401,0.19440053,0.086199164,0.97712755,0
2.4545588,0.66544896,-0.06495145,0.94519365,0.24993752,-0.21009593,0
1.107424,-1.6238325,-1.1004816,-0.19440053,-0.086199164,-0.97712755,0
2.5412848,-0.40447736,0.55349869,0.19440053,0.086199164,0.97712755,0
1.0253472,-0.77069628,0.88740271,0.19440053,0.086199164,0.97712755,0
0.17658085,0.91812265,0.90728313,0.19440053,0.086199164,0.97712755,0
2.1690071,-1.316537,0.15607142,0.83178079,-0.54249877,-0.11762595,0
-0.48961341,-2.386538,0.6560694,-0.22229666,-0.96634406,0.1294741,0
2.3407106,-0.40353978,0.59332031,0.19440053,0.086199164,0.97712755,0
-0.50871021,-1.9971825,1.3008018,0.19440053,0.086199164,0.97712755,0
2.3068883,0.69302529,-0.68947363,0.93562508,0.28291669,-0.21110156,0
-0.25243014,1.939477,-1.1442816,-0.19440053,-0.086199164,-0.97712755,0
-2.1091545,-0.10647726,-0.59439647,-0.19440053,-0.086199164,-0.97712755,0
0.47248596,-1.9125481,-0.94869041,-0.19440053,-0.086199164,-0.97712755,0
0.2695677,-0.88168627,-0.99925911,-0.19440053,-0.086199164,-0.97712755,0
2.4311361,-0.14501435,-0.57318401,0.98022735,-0.054559231,-0.19020411,0
-1.6302243,0.52884638,-0.74572647,-0.19440053,-0.086199164,-0.97712755,0
1.904907,1.653985,0.49851537,0.19440053,0.086199164,0.97712755,0
-1.4703141,1.4063388,1.1918656,0.19440053,0.086199164,0.97712755,0
-0.81177175,2.346302,-0.73243058,-0.27251312,0.96166486,-0.03061831,0
0.23967016,1.253687,0.86512887,0.19440053,0.086199164,0.97712755,0
0.30749357,2.4747505,-0.19472718,0.11655694,0.98704439,-0.11026317,0
1.6617301,-0.011261463,0.6937986,0.19440053,0.086199164,0.97712755,0
2.4513769,-0.40463185,-0.31020081,0.96977603,-0.16663034,-0.17823824,0
1.2633618,2.1857431,0.57924116,0.19440053,0.086199164,0.97712755,0
-0.91788614,0.14597511,-0.85367119,-0.19440053,-0.086199164,-0.97712755,0
-1.1913886,2.1659799,1.0453346,-0.55249012,0.83272165,0.036458373,0
1.9145203,-0.88972956,-1.3258144,-0.19440053,-0.086199164,-0.97712755,0
1.6040429,2.0203805,0.17917001,0.59021348,0.78535926,-0.18670556,0
0.6503967,2.2716031,0.69361711,0.19440053,0.086199164,0.97712755,0
-0.31754878,0.27140474,-0.98417383,-0.19440053,-0.086199164,-0.97712755,0
-2.1981261,-0.45292696,1.4634243,-0.95417964,-0.2143952,0.20874828,0
0.75714993,2.3687449,-0.27075708,0.29610965,0.94450474,-0.1422326,0
2.1644681,0.79883349,-1.1561067,0.91555619,0.34160143,-0.21228583,0
-1.4286169,-2.0465386,0.2524966,-0.55531824,-0.81146383,0.18206596,0
-0.73819005,1.0395281,-0.96824837,-0.19440053,-0.086199164,-0.97712755,0
-0.73999476,-0.10566419,1.179952,0.19440053,0.086199164,0.97712755,0
0.66553032,1.5032575,-1.2884287,-0.19440053,-0.086199164,-0.97712755,0
-0.39241236,1.9953687,-1.1213627,-0.19440053,-0.086199164,-0.97712755,0
2.2326789,1.1991162,-0.10999098,0.85964072,0.46482295,-0.21203165,0
0.7326954,-2.1283174,-0.98142505,-0.19440053,-0.086199164,-0.97712755,0
-1.8627534,-1.4209703,1.0034411,-0.78366131,-0.58548605,0.20755996,0
2.3661242,-0.035290271,-0.91917616,0.98075897,0.0010969639,-0.19521976,0
-0.52732247,2.340039,-1.1249278,-0.19440053,-0.086199164,-0.97712755,0
1.167743,-2.0664587,-1.0734348,-0.19440053,-0.086199164,-0.97712755,0
-0.59860623,0.65955925,1.084317,0.19440053,0.086199164,0.97712755,0
0.015540659,-2.1622763,1.2110655,0.19440053,0.086199164,0.97712755,0
1.3594788,2.0589371,0.57130516,0.19440053,0.086199164,0.97712755,0
-1.2503349,-1.1301589,1.3718624,0.19440053,0.086199164,0.97712755,0
-1.8347682,-1.7817709,-0.030838251,-0.69188559,-0.69407552,0.19888055,0
1.8448882,-1.5054722,0.78917396,0.19440053,0.086199164,0.97712755,0
2.0743182,-1.4719908,0.27125716,0.7876265,-0.60746413,-0.10311043,0
1.8166636,-0.23762274,-1.3638726,-0.19440053,-0.086199164,-0.97712755,0
-1.9578502,1.5783439,-0.030507326,-0.76180547,0.64079756,0.095032752,0
-2.2233047,1.2935461,-0.43399942,-0.83140755,0.54309833,0.11749882,0
-1.9396822,0.8574419,1.3336687,0.19440053,0.086199164,0.97712755,0
0.89820153,0.83225399,0.77129102,0.19440053,0.086199164,0.97712755,0
-0.71458638,-2.4529686,-0.22976947,-0.24113229,-0.96136582,0.13278228,0
0.67605299,-0.67554271,0.94850087,0.19440053,0.086199164,0.97712755,0
-2.2743859,-1.0255196,0.29232627,-0.89071083,-0.40176374,0.21265016,0
-1.1628754,-0.57225758,1.305246,0.19440053,0.086199164,0.97712755,0
0.72779888,0.83480191,0.80496806,0.19440053,0.086199164,0.97712755,0
0.79624403,-0.36268702,-1.1498263,-0.19440053,-0.086199164,-0.97712755,0
1.2313807,1.4160616,0.65350294,0.19440053,0.086199164,0.97712755,0
-0.014371634,-2.4451647,-0.80484366,-0.19440053,-0.086199164,-0.97712755,0
-1.9774897,1.5816543,-0.21156549,-0.75562942,0.64834356,0.093138397,0
0.67855549,1.3220701,-1.2750363,-0.19440053,-0.086199164,-0.97712755,0
1.5892334,1.6975176,-1.116804,0.68514788,0.70093572,-0.1981453,0
1.9083424,-0.54151744,-1.3553035,-0.19440053,-0.086199164,-0.97712755,0
-2.2599163,0.084042668,1.453023,-0.98077053,-0.00043866038,0.19516397,0
1.3892883,2.1855421,0.27907622,0.49885991,0.84900659,-0.17414546,0
2.1374385,-1.3899549,0.28889847,0.8100304,-0.57591116,-0.1103512,0
-1.1421918,-0.25325745,1.2729897,0.19440053,0.086199164,0.97712755,0
-2.3731105,-0.2257483,-0.53136045,-0.19440053,-0.086199164,-0.97712755,0
-1.5496981,-1.406649,-0.59100389,-0.19440053,-0.086199164,-0.97712755,0
-0.87150455,2.3391001,-0.26814938,-0.33073181,0.94356376,-0.017439008,0
2.394208,1.0529263,0.26186189,0.89453655,0.39317065,-0.21265322,0
0.99845493,-0.60414696,-1.1687557,-0.19440053,-0.086199164,-0.97712755,0
-0.80767739,2.350246,-0.64375257,-0.27770165,0.96021569,-0.029458284,0
-2.2730758,-0.71665591,-0.50795615,-0.19440053,-0.086199164,-0.97712755,0
0.76227975,2.3536866,-0.35929143,0.30491194,0.94147456,-0.14371651,0
-0.69923955,0.49629986,-0.92807567,-0.19440053,-0.086199164,-0.97712755,0
-1.9747567,0.38665447,1.3821783,0.19440053,0.086199164,0.97712755,0
-2.5971839,-0.3061862,-0.29944316,-0.97480839,-0.09406735,0.20223741,0
-2.1039963,-0.073604345,-0.59832263,-0.19440053,-0.086199164,-0.97712755,0
-1.0582167,-2.3866112,-0.60233533,-0.19440053,-0.086199164,-0.97712755,0
0.43681341,-2.4581113,0.12994266,0.17472529,-0.98324442,0.051977098,0
-2.2310443,-0.056152821,-0.57458591,-0.19440053,-0.086199164,-0.97712755,0
2.1712029,-0.99520397,-0.94108856,0.913836,-0.3779707,-0.14846516,0
-0.26637179,-1.0981303,-0.87353945,-0.19440053,-0.086199164,-0.97712755,0
-1.7401457,0.34118748,-0.70730281,-0.19440053,-0.086199164,-0.97712755,0
1.2550859,1.5125782,-1.4065435,-0.19440053,-0.086199164,-0.97712755,0
2.1469264,-1.2650052,0.70786977,0.19440053,0.086199164,0.97712755,0
-1.4799266,0.98794472,-0.81612861,-0.19440053,-0.086199164,-0.97712755,0
2.179188,-1.2334709,-0.12841463,0.85675818,-0.50000262,-0.12634426,0
0.094194412,0.77128303,0.93662769,0.19440053,0.086199164,0.97712755,0
1.6195588,0.84790325,0.6263957,0.19440053,0.086199164,0.97712755,0
2.4491303,0.31480432,0.50838012,0.19440053,0.086199164,0.97712755,0
1.9740901,-0.31087029,0.65808487,0.19440053,0.086199164,0.97712755,0
-2.0113556,-1.4211869,0.43814197,-0.79790211,-0.56553042,0.20863277,0
-0.35169685,-1.188833,-0.84856236,-0.19440053,-0.086199164,-0.97712755,0
1.5406185,1.8906064,0.5501169,0.19440053,0.086199164,0.97712755,0
0.48173636,2.315392,-1.1854504,0.25996503,0.95598519,-0.1360544,0
-0.81548584,1.0949471,1.0890567,0.19440053,0.086199164,0.97712755,0
1.857319,-1.5790967,-0.75449324,0.78276336,-0.61397511,-0.10156858,0
-1.0902843,2.2461576,0.32455564,-0.45934832,0.88816065,0.013037086,0
-0.19897091,-2.0594964,1.244676,0.19440053,0.086199164,0.97712755,0
-0.1222142,-2.4189277,0.88625824,-0.098163784,-0.98942161,0.10681355,0
-0.15605938,2.0679049,0.87203181,0.19440053,0.086199164,0.97712755,0
0.099928856,2.4961958,-0.13784933,0.032203257,0.99503374,-0.09418565,0
-0.19128698,1.7533795,0.9067868,0.19440053,0.086199164,0.97712755,0
-1.4189808,-1.8837097,0.97731835,-0.60777414,-0.77130091,0.18895906,0
-0.44304907,-1.5178435,1.2454525,0.19440053,0.086199164,0.97712755,0
0.29104817,2.5445251,0.44939566,0.060818136,0.99315596,-0.099713027,0
-0.11449158,1.2913591,0.93226647,0.19440053,0.086199164,0.97712755,0
1.0282573,-2.1417232,1.0077716,0.19440053,0.086199164,0.97712755,0
0.6847769,0.20854366,-1.1780421,-0.19440053,-0.086199164,-0.97712755,0
1.2776809,1.2493376,0.65899938,0.19440053,0.086199164,0.97712755,0
0.69011593,-0.66169178,0.94448125,0.19440053,0.086199164,0.97712755,0
-0.23297632,-2.4713056,0.29921794,-0.095838964,-0.98969662,0.10637528,0
-1.625006,-1.6581931,-0.55383062,-0.19440053,-0.086199164,-0.97712755,0
-2.5087624,-0.60210216,-0.10980028,-0.95320237,-0.21853618,0.20891917,0
-0.81782663,-2.2893128,0.64396179,-0.34835216,-0.92513508,0.15091759,0
0.74994439,-0.90855062,-1.0924606,-0.19440053,-0.086199164,-0.97712755,0
1.3502704,0.7061702,-1.3543417,-0.19440053,-0.086199164,-0.97712755,0
-1.5844676,1.5105878,1.20538,0.19440053,0.086199164,0.97712755,0
-1.6499138,-1.0989479,-0.59821022,-0.19440053,-0.086199164,-0.97712755,0
0.85558349,0.8163873,0.78116965,0.19440053,0.086199164,0.97712755,0
0.7160691,-0.23731714,-1.1449354,-0.19440053,-0.086199164,-0.97712755,0
2.2131071,-0.63053763,-1.3754023,0.96051985,-0.21883644,-0.17179126,0
-1.8302903,1.5328627,1.2196401,-0.80739313,0.57976639,0.10948646,0
2.0347409,0.55752063,0.56941158,0.19440053,0.086199164,0.97712755,0
-2.3650427,-0.88264632,0.15617152,-0.91621542,-0.33984423,0.21226196,0
-0.38780397,2.4386992,-0.58790767,-0.12093532,0.99063814,-0.063330829,0
-1.0435457,1.076357,1.1360695,0.19440053,0.086199164,0.97712755,0
0.25038758,0.68276238,-1.1334541,-0.19440053,-0.086199164,-0.97712755,0
-1.7773536,1.2264373,1.2688217,0.19440053,0.086199164,0.97712755,0
2.4212921,0.587883,-0.30366105,0.95104718,0.22740701,-0.20927294,0
-1.3966857,-2.1081824,0.067802191,-0.52858198,-0.82992965,0.17837578,0
1.4425895,1.9796243,-0.50154084,0.58006752,0.79319394,-0.18537816,0
2.5078983,0.27965093,-0.14310914,0.97424775,0.099040583,-0.2025646,0
-2.3715863,-1.165189,-0.38602266,-0.87564337,-0.4337106,0.21247073,0
-0.56148624,-2.5419006,-0.68595362,-0.14694884,-0.98233128,0.11589384,0
0.96467209,-0.53069425,0.8783018,0.19440053,0.086199164,0.97712755,0
-1.3469474,-2.2034369,-0.24697328,-0.48488292,-0.85747671,0.17211187,0
-2.3790033,-0.87944913,0.10096024,-0.91741508,-0.33662111,0.2122163,0
-0.77717555,0.6478253,1.1208787,0.19440053,0.086199164,0.97712755,0
-1.7532359,-0.60723484,1.4257843,0.19440053,0.086199164,0.97712755,0
0.84855366,1.5298027,0.71963286,0.19440053,0.086199164,0.97712755,0
0.049371004,2.3891585,-1.2289174,0.096362948,0.98963511,-0.10647416,0
0.35374367,-2.5011988,-0.40808272,0.18392202,-0.98166794,0.050008297,0
-0.75681895,2.3819485,-0.059558392,-0.30272761,0.95277947,-0.02382338,0
-0.70738292,0.77552789,1.0957279,0.19440053,0.086199164,0.97712755,0
-0.1040961,0.090955257,-1.0107218,-0.19440053,-0.086199164,-0.97712755,0
-2.6009071,-0.22936559,-0.48572105,-0.19440053,-0.086199164,-0.97712755,0
0.6882211,-2.4246008,-0.91589069,0.3507275,-0.9363898,0.012827873,0
0.00249587,-0.57143497,1.0733217,0.19440053,0.086199164,0.97712755,0
0.011099339,-2.5571041,-0.60435963,0.067332119,-0.99495459,0.074376047,0
-2.2844536,-0.16993152,1.2713251,-0.97470647,-0.094987452,0.20229833,0
2.4424136,0.91584742,0.23095387,0.91635734,0.33946472,-0.21225676,0
2.3960953,0.23418885,-0.70304668,0.9740662,0.10060517,-0.20266651,0
-2.2223873,-1.1127143,0.33582979,-0.87341845,-0.43819672,0.21242383,0
-2.4923584,-0.70162261,-0.14844368,-0.94328552,-0.25685659,0.21032667,0
-1.3032362,-1.4003673,1.4062243,0.19440053,0.086199164,0.97712755,0
-1.5539739,-1.7069852,1.2046192,-0.67818594,-0.7078895,0.1973736,0
-1.9408396,-1.3203456,0.97716141,-0.81239319,-0.54412639,0.20962758,0
2.4930995,0.25763881,-0.22483134,0.97490871,0.093153641,-0.20217675,0
0.8837133,1.5756971,0.70858908,0.19440053,0.086199164,0.97712755,0
-1.3787078,-0.51416761,1.3430616,0.19440053,0.086199164,0.97712755,0
-1.9037564,-1.2511905,-0.5342775,-0.19440053,-0.086199164,-0.97712755,0
1.9060376,-1.5089128,-0.78733492,0.80353928,-0.58533019,-0.10822886,0
1.2038772,-0.4118202,-1.226591,-0.19440053,-0.086199164,-0.97712755,0
1.926537,0.851367,-1.4817994,-0.19440053,-0.086199164,-0.97712755,0
-0.77760237,-0.46070373,-0.82806134,-0.19440053,-0.086199164,-0.97712755,0
2.4935932,-0.61643803,0.19372404,0.94915509,-0.26798409,-0.16519457,0
0.018262744,2.4316206,-0.84102833,0.054632902,0.99363381,-0.09852463,0
1.9496508,1.2505708,0.52520156,0.19440053,0.086199164,0.97712755,0
2.4901378,-0.076745272,-0.28676635,0.98071611,-0.037499666,-0.19180635,0
-1.4405301,0.89969146,1.2306348,0.19440053,0.086199164,0.97712755,0
-0.64621174,-2.3710034,0.47953475,-0.26925945,-0.95317906,0.13765597,0
0.53942561,0.83721143,-1.2045835,-0.19440053,-0.086199164,-0.97712755,0
-2.3936834,-0.57459199,0.44357121,-0.95114088,-0.22702891,0.20925823,0
-1.9330554,-1.6915197,-0.074689329,-0.72698784,-0.65610719,0.20251468,0
0.44122103,0.49062502,-1.1544708,-0.19440053,-0.086199164,-0.97712755,0
-1.4388853,-1.662106,1.4563016,0.19440053,0.086199164,0.97712755,0
1.847641,-0.10840237,0.66538084,0.19440053,0.086199164,0.97712755,0
2.1033022,1.1943954,0.49958801,0.19440053,0.086199164,0.97712755,0
-1.1222496,-2.2849102,-0.071697116,-0.41117218,-0.89723527,0.16095442,0
-0.15659058,0.3772493,1.0212821,0.19440053,0.086199164,0.97712755,0
1.603756,1.6663716,-1.1754013,0.69539851,0.69044673,-0.19925931,0
2.1803312,0.81708193,-1.0582269,0.91410232,0.34544262,-0.21233544,0
0.39188063,1.8051673,0.78619659,0.19440053,0.086199164,0.97712755,0
0.5062449,1.2641885,-1.2356489,-0.19440053,-0.086199164,-0.97712755,0
-0.8988086,1.475872,-0.97478598,-0.19440053,-0.086199164,-0.97712755,0
-0.50735974,-2.3887281,0.60914516,-0.22554681,-0.96551359,0.13004744,0
0.6318264,-2.4211226,-0.021962166,0.26107663,-0.96474826,0.033165753,0
-2.4098449,0.58823162,0.32623684,-0.95624018,0.23870596,0.16918701,0
0.18333912,1.540298,0.85105205,0.19440053,0.086199164,0.97712755,0
0.075587749,2.574882,0.78122139,0.19440053,0.086199164,0.97712755,0
-2.3277199,0.84115076,0.35404241,-0.92843962,0.33763468,0.15492886,0
0.51083797,-0.64541233,0.97871256,0.19440053,0.086199164,0.97712755,0
-1.316547,-2.1751714,-0.020829916,-0.49055451,-0.85407734,0.17294043,0
1.7086246,1.4467164,-1.4909654,-0.19440053,-0.086199164,-0.97712755,0
0.69446731,2.0628362,-1.3435501,-0.19440053,-0.086199164,-0.97712755,0
-2.6363473,-0.2110188,-0.45569378,-0.97864747,-0.050756425,0.19918045,0
-0.1251533,0.35878825,1.0166562,0.19440053,0.086199164,0.97712755,0
-1.0027062,-2.1673827,0.88149035,-0.43837428,-0.88348871,0.16515374,0
0.70299655,-0.96238351,-1.0783713,-0.19440053,-0.086199164,-0.97712755,0
0.22705245,2.4239039,-0.73364699,0.12688529,0.98555285,-0.11218637,0
-0.92529953,2.3081555,-0.86938941,-0.3055461,0.95189506,-0.023184657,0
2.4316497,-0.81426418,0.21093762,0.92533207,-0.34669125,-0.1535117,0
0.010071158,-2.4844797,0.28597403,-0.0011994243,-0.99610984,0.088112354,0
-0.27185357,1.6369312,0.93308842,0.19440053,0.086199164,0.97712755,0
1.2462052,-0.57346737,0.82606375,0.19440053,0.086199164,0.97712755,0
-1.8757513,-1.3575187,1.1293236,-0.79865402,-0.56444788,0.20868687,0
2.0848897,1.5059929,0.075239718,0.78662813,0.58141148,-0.20779073,0
-1.6076365,-1.378058,1.4648169,0.19440053,0.086199164,0.97712755,0
1.6945729,1.9358953,0.12753069,0.62954688,0.75294924,-0.19167185,0
-0.61141884,-2.3448651,0.72825229,-0.2749415,-0.95141399,0.13863069,0
0.11625725,-0.69152677,1.0612829,0.19440053,0.086199164,0.97712755,0
2.0105031,-0.35200512,0.65446931,0.19440053,0.086199164,0.97712755,0
-2.2936704,-0.47397405,1.0047009,-0.95595747,-0.20665617,0.20841925,0
1.4017684,-0.36546898,-1.2700506,-0.19440053,-0.086199164,-0.97712755,0
-0.30435938,1.4305549,0.95776141,0.19440053,0.086199164,0.97712755,0
0.30790251,1.5524051,0.82520211,0.19440053,0.086199164,0.97712755,0
-0.93109119,-2.3212276,0.1861521,-0.3569468,-0.92162275,0.15231764,0
1.3894297,-2.0267775,-0.96039295,0.62132585,-0.78164363,-0.054659188,0
-0.73190439,2.394372,0.12180376,-0.30700177,0.95143455,-0.022854328,0
0.8407861,2.3988185,0.10319781,0.29968452,0.94328535,-0.14283633,0
0.53712475,2.2414784,0.71881008,0.19440053,0.086199164,0.97712755,0
-1.0175816,-0.032883763,1.2287577,0.19440053,0.086199164,0.97712755,0
1.5306308,1.1778319,0.61498278,0.19440053,0.086199164,0.97712755,0
0.38559693,-0.20602089,-1.0819483,-0.19440053,-0.086199164,-0.97712755,0
0.80640632,-1.0038483,-1.0952867,-0.19440053,-0.086199164,-0.97712755,0
1.5023859,-0.89949661,-1.2429583,-0.19440053,-0.086199164,-0.97712755,0
-0.27960539,2.5069971,0.28719902,-0.14624149,0.98754591,-0.058023453,0
-1.2458882,-1.5064939,-0.6426391,-0.19440053,-0.086199164,-0.97712755,0
0.69780535,1.4764651,0.75432968,0.19440053,0.086199164,0.97712755,0
1.4988565,-0.34496161,-1.2911754,-0.19440053,-0.086199164,-0.97712755,0
-0.49662733,-1.3443241,1.2408047,0.19440053,0.086199164,0.97712755,0
0.3185128,-0.24865305,0.98197496,0.19440053,0.086199164,0.97712755,0
1.1296284,-0.47570214,-1.2061837,-0.19440053,-0.086199164,-0.97712755,0
-2.0292761,-0.94133753,-0.53663957,-0.19440053,-0.086199164,-0.97712755,0
0.34719968,-2.522553,-0.82665658,0.21335045,-0.97600001,0.043653369,0
-1.9637252,-0.83019477,1.4873303,0.19440053,0.086199164,0.97712755,0
2.0507574,0.51457155,0.57001388,0.19440053,0.086199164,0.97712755,0
1.6014389,-1.8775586,-0.57381892,0.67255187,-0.73684478,-0.068802655,0
1.969882,0.87788129,-1.4927619,-0.19440053,-0.086199164,-0.97712755,0
-1.6220491,-0.022810996,1.3481286,0.19440053,0.086199164,0.97712755,0
2.4138324,-0.053623736,-0.67800409,0.98091924,-0.014627069,-0.19386452,0
-0.043412328,1.6169215,0.88940489,0.19440053,0.086199164,0.97712755,0
2.3578753,-0.54459083,-0.67475712,0.96242654,-0.20928897,-0.17301285,0
0.88404953,-0.83379269,0.92108011,0.19440053,0.086199164,0.97712755,0
-0.77298331,-2.4903147,-0.60663915,-0.23472285,-0.96310478,0.13166046,0
0.9977026,-1.0413336,0.91677737,0.19440053,0.086199164,0.97712755,0
0.2618553,-1.9918072,1.1470227,0.19440053,0.086199164,0.97712755,0
-2.1185741,1.4398042,-0.42076087,-0.79308474,0.60001886,0.10485315,0
-2.3698785,0.58319199,-0.6033659,-0.19440053,-0.086199164,-0.97712755,0
0.68564475,2.489255,0.44801688,0.21316701,0.96861362,-0.12785792,0
0.12099688,0.20724607,-1.0657631,-0.19440053,-0.086199164,-0.97712755,0
1.8233011,0.69898522,0.59899807,0.19440053,0.086199164,0.97712755,0
-2.4431632,0.65270734,0.036867976,-0.94750917,0.274277,0.16431201,0
-1.3478386,-2.0305119,0.56981516,-0.54844594,-0.81633312,0.18112832,0
1.9149066,-0.982265,-1.317728,-0.19440053,-0.086199164,-0.97712755,0
0.82859755,1.0700792,0.76415861,0.19440053,0.086199164,0.97712755,0
-0.55939507,0.064279199,-0.91778636,-0.19440053,-0.086199164,-0.97712755,0
-1.5085109,-0.97158146,1.4092376,0.19440053,0.086199164,0.97712755,0
-1.8060567,0.12407851,-0.67503709,-0.19440053,-0.086199164,-0.97712755,0
-1.6595852,0.93673873,1.2709478,0.19440053,0.086199164,0.97712755,0
-1.3549824,-0.88801199,-0.67549521,-0.19440053,-0.086199164,-0.97712755,0
-0.92513978,-0.20600796,-0.82117712,-0.19440053,-0.086199164,-0.97712755,0
-0.32139397,1.1742258,0.98376298,0.19440053,0.086199164,0.97712755,0
-0.25817049,-1.3729309,-0.8509289,-0.19440053,-0.086199164,-0.97712755,0
-2.2503397,0.76500344,-0.64318705,-0.19440053,-0.086199164,-0.97712755,0
-1.8974719,1.5189229,0.79655886,-0.80101037,0.58893645,0.10740757,0
-0.28347436,0.3044728,-0.99387014,-0.19440053,-0.086199164,-0.97712755,0
2.2306037,-1.1878235,0.04151535,0.86332965,-0.48794919,-0.12871492,0
-2.0675681,-0.36025012,-0.58028316,-0.19440053,-0.086199164,-0.97712755,0
-2.3303647,-1.2638829,-0.42840594,-0.85589606,-0.4717432,0.21189712,0
0.42385072,-2.4651973,0.039372206,0.17666546,-0.98291957,0.051562428,0
1.1183432,-0.51783526,0.84659433,0.19440053,0.086199164,0.97712755,0
0.22161126,-2.4805574,-0.84867072,-0.19440053,-0.086199164,-0.97712755,0
2.1574514,1.4123755,0.10119051,0.8132115,0.54288208,-0.20968065,0
-1.1986519,-2.1045935,-0.59927404,-0.19440053,-0.086199164,-0.97712755,0
0.41729844,2.4467411,-0.29886603,0.16691944,0.97869647,-0.11954641,0
0.80022675,-2.0048318,1.0410624,0.19440053,0.086199164,0.97712755,0
0.52875304,0.087163866,-1.1362933,-0.19440053,-0.086199164,-0.97712755,0
1.9814477,1.5069147,0.49626172,0.19440053,0.086199164,0.97712755,0
0.33301544,2.5664539,0.69349074,0.058276951,0.99335706,-0.099225163,0
-0.7620225,-0.65764022,-0.81378788,-0.19440053,-0.086199164,-0.97712755,0
-0.97720557,-0.77148283,-0.76093411,-0.19440053,-0.086199164,-0.97712755,0
1.6991667,1.7292309,0.53280973,0.19440053,0.086199164,0.97712755,0
1.9606853,-1.5373855,-0.20989442,0.7808882,-0.6164555,-0.10097665,0
-0.20301276,1.3307498,-1.1004131,-0.19440053,-0.086199164,-0.97712755,0
1.3417176,-1.0379094,0.84803301,0.19440053,0.086199164,0.97712755,0
0.70671546,-0.37978554,0.91630983,0.19440053,0.086199164,0.97712755,0
2.1098084,-1.2276838,-0.61692894,0.86713445,-0.4807815,-0.13010418,0
2.104907,-1.3814459,0.00857687,0.81875169,-0.5628705,-0.11323673,0
-0.10623056,-2.343118,1.2512454,0.19440053,0.086199164,0.97712755,0
2.1734622,0.35385954,-1.4870369,-0.19440053,-0.086199164,-0.97712755,0
0.92115188,-2.307224,0.9580133,0.29720962,-0.95448309,0.025071383,0
0.97437853,-1.9629676,1.0027214,0.19440053,0.086199164,0.97712755,0
-2.3613877,-1.1600838,-0.3335709,-0.87573767,-0.43351918,0.21247262,0
-0.18708254,0.052568913,-0.99082518,-0.19440053,-0.086199164,-0.97712755,0
2.0448875,0.85133392,0.54147351,0.19440053,0.086199164,0.97712755,0
0.46302587,2.1293921,-1.303376,-0.19440053,-0.086199164,-0.97712755,0
-1.5247387,-0.15162379,1.340132,0.19440053,0.086199164,0.97712755,0
-0.86945581,-2.2846718,0.55159616,-0.36123645,-0.91983438,0.15301335,0
-1.5517941,-1.7208534,1.1621524,-0.67402732,-0.71197957,0.19690707,0
-0.56370461,-1.6510078,1.2812045,0.19440053,0.086199164,0.97712755,0
-1.6318681,-0.036776006,1.3513139,0.19440053,0.086199164,0.97712755,0
1.7722789,1.3306946,0.55342156,0.19440053,0.086199164,0.97712755,0
-1.9686177,-0.73913068,1.4802703,0.19440053,0.086199164,0.97712755,0
0.77445161,-1.0045311,0.95794672,0.19440053,0.086199164,0.97712755,0
-1.4769478,-1.942493,-0.55820692,-0.19440053,-0.086199164,-0.97712755,0
-1.6805129,1.6789789,1.2096334,0.19440053,0.086199164,0.97712755,0
-0.52385443,1.4887538,0.99629593,0.19440053,0.086199164,0.97712755,0
0.97916973,1.1309936,-1.3179876,-0.19440053,-0.086199164,-0.97712755,0
2.1468263,-0.98158282,-1.1244484,0.91829461,-0.36622173,-0.15038872,0
-0.38412452,-2.2183764,-0.7512877,-0.19440053,-0.086199164,-0.97712755,0
-0.36697549,2.4451675,-0.5262754,-0.11764517,0.99099028,-0.064016461,0
0.079676718,-0.98837745,1.094748,0.19440053,0.086199164,0.97712755,0
0.6926862,0.69124883,-1.2221985,-0.19440053,-0.086199164,-0.97712755,0
0.70006442,-0.26813054,0.90778321,0.19440053,0.086199164,0.97712755,0
-1.4513855,0.58852929,1.2602444,0.19440053,0.086199164,0.97712755,0
-2.040076,1.4021838,0.35676825,-0.82169777,0.55836058,0.11422068,0
2.173959,-0.13654625,0.60294247,0.19440053,0.086199164,0.97712755,0
-1.4170129,-1.0711706,-0.6469965,-0.19440053,-0.086199164,-0.97712755,0
-2.4996581,-0.48309606,0.045172691,-0.96227092,-0.17656961,0.20702118,0
-0.13461161,2.4038992,-1.1918488,0.022635758,0.99547207,-0.092320919,0
-0.43415737,-1.5606376,1.2474586,0.19440053,0.086199164,0.97712755,0
1.2613723,2.0743089,0.58946764,0.19440053,0.086199164,0.97712755,0
-1.7965474,-1.7201068,0.31542158,-0.70389783,-0.6815151,0.20016235,0
-1.8052967,-1.2375848,1.4917495,0.19440053,0.086199164,0.97712755,0
-2.3600771,0.14034221,0.93930417,-0.98066497,0.039892942,0.19158506,0
-0.81788546,0.057867527,-0.86579382,-0.19440053,-0.086199164,-0.97712755,0
-2.1169603,-0.80513632,-0.53121001,-0.19440053,-0.086199164,-0.97712755,0
-0.71508044,1.3970779,-1.0043881,-0.19440053,-0.086199164,-0.97712755,0
1.8839805,0.89334273,0.56978023,0.19440053,0.086199164,0.97712755,0
-0.17133537,-0.45987695,-0.94875169,-0.19440053,-0.086199164,-0.97712755,0
-1.3979228,2.101367,-0.79033017,-0.49207178,0.87029845,0.021123171,0
-0.4873203,-2.5032234,-0.7056284,-0.19440053,-0.086199164,-0.97712755,0
-0.71999294,-0.44763458,-0.84067571,-0.19440053,-0.086199164,-0.97712755,0
1.8501608,1.6932224,-0.21601683,0.71715999,0.66713297,-0.20153216,0
1.981989,1.0452979,0.53687638,0.19440053,0.086199164,0.97712755,0
-1.3135937,0.46676034,1.2435727,0.19440053,0.086199164,0.97712755,0
1.0971559,1.6425865,0.66022384,0.19440053,0.086199164,0.97712755,0
-2.0944746,1.0832926,-0.70227492,-0.19440053,-0.086199164,-0.97712755,0
1.6473418,1.924309,-0.073020697,0.62668437,0.75542253,-0.19132054,0
1.2480361,1.0755332,0.68022978,0.19440053,0.086199164,0.97712755,0
-1.1473347,-2.2974086,-0.20545173,-0.41058034,-0.89752287,0.16086209,0
-0.55702442,2.4125619,-0.58409786,-0.18617985,0.98126686,-0.049523711,0
-0.71057367,-2.0179555,-0.70402074,-0.19440053,-0.086199164,-0.97712755,0
-0.23395024,-0.43102151,1.1079761,0.19440053,0.086199164,0.97712755,0
-1.0210438,2.2771411,0.65312982,-0.45787203,0.88892794,0.012675524,0
0.55068433,-1.3954693,1.0369529,0.19440053,0.086199164,0.97712755,0
1.8745601,-1.5587198,-0.74365258,0.78843868,-0.60636556,-0.103369,0
-1.511583,-0.67574275,-0.66306508,-0.19440053,-0.086199164,-0.97712755,0
1.672575,0.59097844,-1.4083028,-0.19440053,-0.086199164,-0.97712755,0
-2.029772,-0.9479447,-0.53595805,-0.19440053,-0.086199164,-0.97712755,0
-0.066509902,2.4021399,-1.1848264,0.048325181,0.99408042,-0.097309113,0
0.57776856,0.98882878,-1.2255871,-0.19440053,-0.086199164,-0.97712755,0
1.3120301,-1.5496528,0.89908409,0.19440053,0.086199164,0.97712755,0
2.293983,-0.60374159,-0.9572202,0.95969397,-0.22282882,-0.17127478,0
2.2377877,-1.0351706,-0.41790044,0.8999787,-0.41191167,-0.14271402,0
0.22804511,2.4755664,-0.26375675,0.091218054,0.99022657,-0.10550267,0
2.2617862,-0.15932289,-1.4378247,0.98084015,-0.029974252,-0.19249487,0
-0.75489867,-1.2358879,-0.76419395,-0.19440053,-0.086199164,-0.97712755,0
-0.4286257,0.69925648,1.0469973,0.19440053,0.086199164,0.97712755,0
-1.4608188,1.7995844,-0.89153028,-0.19440053,-0.086199164,-0.97712755,0
0.49957985,2.3100691,-1.1882347,0.26707992,0.9538461,-0.13728118,0
2.2030375,-1.2751738,0.20906889,0.84057438,-0.52809,-0.12064666,0
2.2793889,0.051946759,0.56533879,0.19440053,0.086199164,0.97712755,0
0.90922403,-1.1806121,0.94666696,0.19440053,0.086199164,0.97712755,0
0.71569711,0.94085813,0.79801965,0.19440053,0.086199164,0.97712755,0
-2.2544396,0.48683432,1.304832,-0.97010279,0.16443688,0.17849681,0
1.2219377,2.0119643,-1.0328428,0.53529465,0.82541299,-0.17931283,0
0.058082819,-2.4310932,0.87943578,-0.028170586,-0.99523008,0.093400717,0
-0.71201766,-0.12042582,-0.87112784,-0.19440053,-0.086199164,-0.97712755,0
1.2655967,-1.6908503,0.92077792,0.19440053,0.086199164,0.97712755,0
-2.1891105,0.98697001,0.85182512,-0.91389084,0.37782896,0.14848858,0
-1.2958416,0.90127683,-0.84510702,-0.19440053,-0.086199164,-0.97712755,0
1.1593149,2.2660649,0.06355381,0.42618299,0.88977897,-0.16328311,0
0.86397755,0.3715539,0.81874144,0.19440053,0.086199164,0.97712755,0
-0.55957365,-2.5049167,-0.37616515,-0.16999885,-0.97809762,0.12010628,0
-0.44753778,1.4463115,0.98485684,0.19440053,0.086199164,0.97712755,0
-1.7983474,1.605085,1.0518751,-0.78283596,0.61387891,0.10159141,0
1.2058033,-1.5816339,0.9230392,0.19440053,0.086199164,0.97712755,0
-1.2556303,-2.1565266,0.24394107,-0.48735133,-0.85600346,0.17247301,0
0.25439823,-0.49047482,1.0160635,0.19440053,0.086199164,0.97712755,0
-1.7939743,-1.7224305,0.3165471,-0.70297742,-0.68249297,0.20006549,0
1.0891531,0.5692057,0.75650632,0.19440053,0.086199164,0.97712755,0
-2.2211969,-1.1699728,0.21997322,-0.86377352,-0.45703453,0.21216679,0
2.3626745,-0.2521044,-0.88871425,0.97856992,-0.085987449,-0.18710187,0
-1.9564338,0.99484318,1.3248805,0.19440053,0.086199164,0.97712755,0
-1.8659536,1.2706177,-0.7642647,-0.19440053,-0.086199164,-0.97712755,0
1.8026063,1.5533421,0.52774656,0.19440053,0.086199164,0.97712755,0
-1.945608,-1.1020629,1.4859016,-0.85434639,-0.47457016,0.21183819,0
0.97959751,-0.80337739,0.89938772,0.19440053,0.086199164,0.97712755,0
-1.7616599,1.7277467,0.49642539,-0.72733366,0.68104672,0.084623873,0
-0.20240283,-2.5506749,-0.75812721,-0.19440053,-0.086199164,-0.97712755,0
-0.36312914,-2.3943863,0.7996577,-0.18447241,-0.97514546,0.12272531,0
-0.66942215,-1.9689603,-0.7165302,-0.19440053,-0.086199164,-0.97712755,0
-1.1885757,-0.21732795,1.2790483,0.19440053,0.086199164,0.97712755,0
0.49798489,2.073483,0.74141717,0.19440053,0.086199164,0.97712755,0
1.9457239,1.2619394,0.52497983,0.19440053,0.086199164,0.97712755,0
0.21134722,2.2163515,-1.2609754,-0.19440053,-0.086199164,-0.97712755,0
1.1424725,-0.97745669,0.88234031,0.19440053,0.086199164,0.97712755,0
2.3898218,0.29753441,-0.69781506,0.97082949,0.12562089,-0.20422937,0
1.0916095,0.31277746,-1.268177,-0.19440053,-0.086199164,-0.97712755,0
2.0307541,-1.5504168,0.42678595,0.75956792,-0.64354956,-0.094344795,0
1.2155679,0.49923688,0.73752838,0.19440053,0.086199164,0.97712755,0
2.5571055,0.27129245,0.49073678,0.19440053,0.086199164,0.97712755,0
0.98309219,-2.2981546,-0.41256309,0.42512727,-0.90512127,-0.0047324896,0
-0.036898375,1.0022968,0.94232941,0.19440053,0.086199164,0.97712755,0
2.358454,0.03070271,0.5514828,0.19440053,0.086199164,0.97712755,0
1.6687803,-1.1564326,-1.2533964,-0.19440053,-0.086199164,-0.97712755,0
0.80742592,1.3662975,-1.3045768,-0.19440053,-0.086199164,-0.97712755,0
2.2092288,-0.23489761,0.60460186,0.19440053,0.086199164,0.97712755,0
1.7166551,-1.6534278,-1.2190778,-0.19440053,-0.086199164,-0.97712755,0
0.95376331,-2.3117559,-0.38982272,0.41220239,-0.91109097,-0.0016343594,0
-0.44660842,-2.4004188,-0.72279716,-0.19440053,-0.086199164,-0.97712755,0
1.8756287,1.5483696,-0.58280784,0.75580245,0.62180918,-0.20522174,0
-0.80448204,2.1021771,0.99801278,0.19440053,0.086199164,0.97712755,0
-1.123927,2.2234972,0.5602572,-0.49005395,0.87144834,0.020620227,0
-2.5556009,-0.33848667,-0.11637107,-0.9724974,-0.11333816,0.20347767,0
1.3841519,-0.3310945,0.77723777,0.19440053,0.086199164,0.97712755,0
-1.0904891,-1.4078777,1.3645605,0.19440053,0.086199164,0.97712755,0
1.4186683,0.67245114,-1.3649751,-0.19440053,-0.086199164,-0.97712755,0
0.68284035,-1.7545505,1.0423373,0.19440053,0.086199164,0.97712755,0
-1.2139478,-1.7081401,1.415611,0.19440053,0.086199164,0.97712755,0
0.15324688,2.4042916,-0.98848319,0.11797312,0.98684663,-0.11052746,0
2.2978041,0.88153803,-0.44752496,0.91248149,0.34967086,-0.21238598,0
-0.35847306,2.4677868,0.87702608,0.19440053,0.086199164,0.97712755,0
0.56987917,-2.4320779,0.10117245,0.22795171,-0.97283119,0.04046905,0
-2.2800443,-1.0706552,0.18192123,-0.88419741,-0.41592631,0.21260369,0
-2.3762603,0.81569099,0.11860812,-0.92906255,0.33578381,0.1552161,0
-0.65335608,-1.2717609,-0.78123122,-0.19440053,-0.086199164,-0.97712755,0
1.8782964,1.5201793,-0.65764594,0.76270449,0.61312032,-0.20582838,0
-1.1046345,-0.43032801,1.2811384,0.19440053,0.086199164,0.97712755,0
0.23310906,1.1777743,0.8731311,0.19440053,0.086199164,0.97712755,0
-1.5370142,-0.18760473,1.3457484,0.19440053,0.086199164,0.97712755,0
2.4674907,-0.32490623,-0.29016876,0.97392142,-0.13576002,-0.18178627,0
-0.86668122,-1.7046809,1.3462168,0.19440053,0.086199164,0.97712755,0
-0.013922811,2.5613236,0.66391611,-0.072972298,0.9946422,-0.073226392,0
-0.75484657,-2.2078462,1.2825922,-0.37318251,-0.91472876,0.15493959,0
-0.47668722,1.0845659,1.0225682,0.19440053,0.086199164,0.97712755,0
-2.0191679,1.5859904,-0.76160359,-0.19440053,-0.086199164,-0.97712755,0
-1.4604895,-1.9365071,0.62696302,-0.59677577,-0.78018087,0.1875543,0
1.8374705,-1.7192096,0.80950499,0.19440053,0.086199164,0.97712755,0
0.26182172,-0.45246923,1.0112337,0.19440053,0.086199164,0.97712755,0
0.77852333,-1.1657286,-1.0754589,-0.19440053,-0.086199164,-0.97712755,0
1.5175954,0.32455063,0.69284999,0.19440053,0.086199164,0.97712755,0
2.220197,-0.058803886,-1.4599309,-0.19440053,-0.086199164,-0.97712755,0
-0.8196032,2.3542488,-0.3695457,-0.30315328,0.95264661,-0.023727059,0
2.3179293,-0.9415561,-0.17423165,0.91168201,-0.38349071,-0.14754963,0
-0.83239067,1.7218595,-1.0097004,-0.19440053,-0.086199164,-0.97712755,0
0.52492023,0.069130301,0.91287619,0.19440053,0.086199164,0.97712755,0
-0.39299321,2.4701402,-0.046867847,-0.16425246,0.98492771,-0.054209113,0
0.5852704,2.1872604,-1.3328016,-0.19440053,-0.086199164,-0.97712755,0
0.82803559,2.3372412,-0.3223567,0.3275241,0.9332602,-0.14749062,0
-0.86354417,-1.0311191,1.2861731,0.19440053,0.086199164,0.97712755,0
1.7889822,1.4036627,-1.3305908,0.78024143,0.59013093,-0.20728934,0
-1.1656358,2.198504,0.59589577,-0.50864726,0.86060411,0.025275946,0
-2.1632848,-0.68051928,1.3406014,-0.92991197,-0.30085123,0.21154709,0
0.00024050474,-0.87538087,-0.9462325,-0.19440053,-0.086199164,-0.97712755,0
-0.74633932,-2.4329166,-0.14592695,-0.25985837,-0.95601672,0.13603598,0
-0.52944762,2.4205172,-0.5290401,-0.17980269,0.98238552,-0.050891161,0
0.20530951,-2.531903,-0.52624083,0.13597587,-0.98888248,0.060183644,0
0.44567913,1.1874294,0.82998818,0.19440053,0.086199164,0.97712755,0
0.81382513,-2.053369,-1.0041773,-0.19440053,-0.086199164,-0.97712755,0
2.3139102,0.010251828,-1.1764975,0.979909,0.028197885,-0.1974414,0
0.47850999,-1.1066847,-1.0209796,-0.19440053,-0.086199164,-0.97712755,0
-0.54209387,-2.3071113,-0.71203148,-0.19440053,-0.086199164,-0.97712755,0
2.3963449,-0.92809713,0.276384,0.90753406,-0.39385438,-0.14581019,0
0.33617118,0.46341747,0.91564512,0.19440053,0.086199164,0.97712755,0
-0.0868119,2.4365711,-0.82655156,0.013058245,0.99581581,-0.090445817,0
1.6492656,-1.8203764,-0.6917758,0.69953895,-0.71048832,-0.076496899,0
-0.69552016,2.3775446,-0.70422566,-0.23012242,0.97233975,-0.039993763,0
-0.39566278,-2.4389706,0.39267612,-0.16577211,-0.97891694,0.11933756,0
-2.4949868,0.19899744,0.22107267,-0.97841024,0.088282987,0.18686762,0
2.3251109,0.93035847,-0.24876584,0.90756214,0.36217451,-0.21251029,0
-0.21681499,2.3247814,0.86145854,0.19440053,0.086199164,0.97712755,0
2.3147492,1.2383999,0.30887264,0.85913897,0.46575758,-0.21201426,0
-0.39271736,-2.5235448,-0.33284664,-0.10894519,-0.98807138,0.10883939,0
0.042922199,-2.1520267,1.2047138,0.19440053,0.086199164,0.97712755,0
-2.121654,0.68529069,-0.66175711,-0.19440053,-0.086199164,-0.97712755,0
0.9115383,1.7096279,-1.3555776,-0.19440053,-0.086199164,-0.97712755,0
-1.123951,1.645115,1.1018921,0.19440053,0.086199164,0.97712755,0
1.7174029,1.4998175,0.5494197,0.19440053,0.086199164,0.97712755,0
-0.26695478,2.4986813,0.12082815,-0.12867555,0.98976463,-0.061713874,0
2.2632458,-0.7400012,0.63841361,0.19440053,0.086199164,0.97712755,0
1.4935694,-1.1548259,0.82813603,0.19440053,0.086199164,0.97712755,0
1.7803447,0.90226007,0.58961213,0.19440053,0.086199164,0.97712755,0
-2.1941302,-0.59311813,1.321119,-0.94088942,-0.26528737,0.2105937,0
-1.003407,0.77120668,1.1550033,0.19440053,0.086199164,0.97712755,0
1.1658287,2.0729785,-0.90956855,0.50392371,0.84586024,-0.17487532,0
-0.96236837,-0.76222605,-0.76470256,-0.19440053,-0.086199164,-0.97712755,0
1.2444273,-0.89797556,-1.1917713,-0.19440053,-0.086199164,-0.97712755,0
-0.3138693,1.4171157,0.96083891,0.19440053,0.086199164,0.97712755,0
-0.58525115,-0.53008533,1.1866068,0.19440053,0.086199164,0.97712755,0
-1.8639418,1.5360225,0.95282567,-0.80009317,0.59023589,0.1071105,0
0.63621479,-2.3920135,0.67889178,0.20931858,-0.97683311,0.04452914,0
-1.3271824,-1.3234093,1.4041994,0.19440053,0.086199164,0.97712755,0
-1.220988,2.187638,-0.2950058,-0.46218643,0.88667649,0.013732553,0
1.1227201,1.5908246,0.65970397,0.19440053,0.086199164,0.97712755,0
2.2204473,0.30858502,-1.4896339,0.96572971,0.15782088,-0.20605534,0
-1.6524441,-1.9434993,-0.019774556,-0.62146878,-0.75988108,0.19067621,0
0.26975387,0.78026545,0.90090758,0.19440053,0.086199164,0.97712755,0
-0.44763744,2.4123402,-0.88596654,-0.1211406,0.99061579,-0.063287973,0
-1.2558945,-2.0191038,0.89852583,-0.53811061,-0.82349467,0.1797038,0
-1.6946156,1.7645258,0.77604103,-0.72302163,0.68577904,0.083348513,0
2.1751578,0.83015728,-1.0590408,0.91208529,0.35069603,-0.21239761,0
0.73780674,2.229948,-1.1913385,0.3595424,0.92054343,-0.15273887,0
0.31198418,2.4100158,-0.74613047,0.16061571,0.97989023,-0.11839759,0
0.69403368,-2.20713,-0.96678019,-0.19440053,-0.086199164,-0.97712755,0
-2.2341955,0.50345683,1.3994648,-0.96961296,0.16771242,0.17811039,0
-0.13966918,-2.4646919,0.43687367,-0.070430219,-0.99233401,0.10155284,0
-0.50496173,-1.9777007,1.2983375,0.19440053,0.086199164,0.97712755,0
0.94200951,-1.7103646,-1.0599384,-0.19440053,-0.086199164,-0.97712755,0
1.9970319,1.620332,0.082632422,0.75148487,0.62714714,-0.20483364,0
1.0934812,0.43712819,0.76729679,0.19440053,0.086199164,0.97712755,0
0.69810331,-2.3912187,0.32612681,0.25993672,-0.96504736,0.033418894,0
0.2982662,-0.9230659,1.0454977,0.19440053,0.086199164,0.97712755,0
0.20520377,-2.1475735,-0.87478113,-0.19440053,-0.086199164,-0.97712755,0
-2.1066837,1.4867114,-0.61128211,-0.77434659,0.6249814,0.098923087,0
0.074064672,-0.89905107,-0.95883173,-0.19440053,-0.086199164,-0.97712755,0
-1.0225189,-1.42717,1.3527397,0.19440053,0.086199164,0.97712755,0
0.14442825,-1.7463816,-0.89808166,-0.19440053,-0.086199164,-0.97712755,0
-0.81824344,2.2815366,-1.0618879,-0.19440053,-0.086199164,-0.97712755,0
-1.9131527,-0.84628022,1.4786879,0.19440053,0.086199164,0.97712755,0
0.80264187,-2.3650503,0.14582396,0.31369621,-0.94928384,0.02133286,0
1.1321613,-2.2245264,-0.29771376,0.47328156,-0.88075757,-0.016462088,0
0.62539208,-2.4052565,0.43269777,0.223948,-0.97372377,0.041344166,0
1.9888555,-1.2262559,-1.3109161,-0.19440053,-0.086199164,-0.97712755,0
1.6377075,1.1865933,0.59290689,0.19440053,0.086199164,0.97712755,0
-0.089565873,2.5257785,0.25655866,-0.070896119,0.99476111,-0.073650002,0
-1.9523925,1.4184183,0.90565646,-0.82976413,0.5457257,0.11694014,0
-0.52872103,-1.6810601,1.2768955,0.19440053,0.086199164,0.97712755,0
2.3390541,1.1120063,0.14457181,0.88182449,0.42094839,-0.21257463,0
-0.69274908,-1.0233483,1.2515078,0.19440053,0.086199164,0.97712755,0
2.3360691,-0.61941564,0.61328775,0.19440053,0.086199164,0.97712755,0
-1.1175557,2.1675134,1.0545354,0.19440053,0.086199164,0.97712755,0
1.5409056,0.28851795,0.69139117,0.19440053,0.086199164,0.97712755,0
-1.330744,-0.36168754,-0.72674817,-0.19440053,-0.086199164,-0.97712755,0
1.3790929,1.6563309,0.60291958,0.19440053,0.086199164,0.97712755,0
0.25488991,-1.8644841,-0.90963948,-0.19440053,-0.086199164,-0.97712755,0
2.251687,0.22186458,-1.4008147,0.97158599,0.12018858,-0.20390062,0
1.552067,1.8545313,-0.6598013,0.63506699,0.74812669,-0.19234467,0
-1.9211946,-1.4218982,0.77964693,-0.78914392,-0.57792282,0.20798355,0
-1.8411794,0.77658367,-0.72561139,-0.19440053,-0.086199164,-0.97712755,0
-0.2820102,-2.1304426,-0.77936077,-0.19440053,-0.086199164,-0.97712755,0
-1.3635319,-0.068066359,-0.74612737,-0.19440053,-0.086199164,-0.97712755,0
-1.1425177,0.55350947,-0.84493196,-0.19440053,-0.086199164,-0.97712755,0
0.95440269,2.3755708,0.20152497,0.33609834,0.92998105,-0.14890724,0
2.0243468,-1.2996471,-0.91650081,0.85748601,-0.49868721,-0.12660509,0
-0.10965383,-1.4474037,-0.87390661,-0.19440053,-0.086199164,-0.97712755,0
-2.3935015,0.1251944,0.77136821,-0.98066795,0.039760739,0.19159725,0
2.1361897,-0.91379857,-1.3431971,0.93036717,-0.33186841,-0.15582103,0
1.8038288,1.8924756,0.49758613,0.19440053,0.086199164,0.97712755,0
-1.3305604,1.3733387,1.1669726,0.19440053,0.086199164,0.97712755,0
1.1865878,0.49837863,-1.3034463,-0.19440053,-0.086199164,-0.97712755,0
1.8038278,-1.8177472,0.7871474,0.64663875,-0.76030707,-0.061577439,0
