-1.1384492,-2.1987898,0.090554476,-0.6010586,-0.11099529,0.79145992,0
-2.5480089,-0.97997737,-0.94895047,-0.73219502,-0.32046485,-0.60099334,0
-0.13139141,1.8298148,-1.1066555,0.6010586,0.11099529,-0.79145992,0
1.8381143,-1.4663644,1.4396412,0.71154225,-0.52525741,0.46670395,0
-0.54928911,2.1106632,1.1423428,-0.6010586,-0.11099529,0.79145992,0
-1.526154,1.5987812,-1.762501,-0.69814759,0.55493391,-0.45236987,0
1.4988379,-0.27209389,-0.16338398,0.6010586,0.11099529,-0.79145992,0
-0.5174855,-1.3725424,-1.8489689,0.6010586,0.11099529,-0.79145992,0
-2.2556477,-0.0032922626,-1.5767837,-0.79659081,0.0031691939,-0.60451066,0
1.5991628,0.41646326,2.3607373,0.76970267,0.18619335,0.61064744,0
1.5725908,-1.2789028,2.0222502,0.74610627,-0.43287653,0.50590861,0
-0.52601039,0.17008549,-1.6391033,0.6010586,0.11099529,-0.79145992,0
-0.053331017,0.44257599,-1.2419219,0.6010586,0.11099529,-0.79145992,0
2.0825105,-0.56197739,1.7140007,0.7938273,-0.19760571,0.57514405,0
-1.0863484,-2.3277962,-0.98997426,-0.36710116,-0.84131277,-0.39677429,0
-0.87338352,-2.5116088,-0.735322,-0.26912618,-0.90436184,-0.33121115,0
-1.3537819,1.0867198,-2.1391883,0.6010586,0.11099529,-0.79145992,0
-1.8531637,-0.14141288,-2.0945919,-0.78933096,-0.072743192,-0.60964346,0
-0.82385421,1.0616617,-1.7402595,0.6010586,0.11099529,-0.79145992,0
-0.095697284,-0.14276296,-1.3561846,0.6010586,0.11099529,-0.79145992,0
-0.72954857,2.6462467,0.78017902,-0.098685503,0.99303794,0.064319849,0
1.2163348,-0.19712389,2.1595645,-0.6010586,-0.11099529,0.79145992,0
0.62704134,0.50586271,1.8106248,-0.6010586,-0.11099529,0.79145992,0
-2.0071974,2.0091307,-0.27945602,-0.56328505,0.76135933,-0.32100189,0
-2.7352238,0.54589295,-0.73716694,-0.6010586,-0.11099529,0.79145992,0
0.21685439,2.5637558,1.0591997,0.17139898,0.94936448,0.26330537,0
-0.71994841,-0.20064884,-1.8383778,0.6010586,0.11099529,-0.79145992,0
1.0799201,-2.1563072,1.5564194,0.57237935,-0.75093079,0.32937092,0
-0.028971553,2.7416296,0.23513699,-0.032564983,0.99288791,0.1145128,0
-0.27522123,-2.4208889,-1.4683474,-0.25919858,-0.90970707,-0.32442147,0
1.2881351,1.4433589,2.0800533,0.62399489,0.55358857,0.55151641,0
-1.8710618,2.1110063,0.13859701,-0.6010586,-0.11099529,0.79145992,0
1.8236868,1.020856,1.8002524,0.71023244,0.3799133,0.59265149,0
1.5042462,-2.2885077,0.41030812,0.47588044,-0.84531772,0.24284965,0
0.7063992,2.2029877,1.6031148,0.38794535,0.82529116,0.41035715,0
1.3747199,0.11041641,-0.20399939,0.6010586,0.11099529,-0.79145992,0
1.0807245,-1.5857117,1.8618411,-0.6010586,-0.11099529,0.79145992,0
-1.8002242,-0.47032487,-0.16961536,-0.6010586,-0.11099529,0.79145992,0
-0.28714752,-0.36902803,0.99366671,-0.6010586,-0.11099529,0.79145992,0
2.2154896,-1.6121447,0.66724825,0.66911614,-0.61144441,0.42239738,0
0.32077575,0.66983044,1.6010326,-0.6010586,-0.11099529,0.79145992,0
1.1210403,0.72132516,-0.3109768,0.6010586,0.11099529,-0.79145992,0
-0.35390329,2.7276769,-0.4146924,-0.22010872,0.97500092,-0.030422032,0
-2.4732296,0.97969419,-0.47736388,-0.6010586,-0.11099529,0.79145992,0
0.95871055,-2.4940929,0.69769573,0.40387332,-0.89673984,0.18095398,0
1.0286741,0.22296953,-0.45101237,0.6010586,0.11099529,-0.79145992,0
-0.28911746,-1.5918376,-1.7062936,0.6010586,0.11099529,-0.79145992,0
-1.8624257,1.1927539,0.01637876,-0.6010586,-0.11099529,0.79145992,0
-0.96304131,-1.8267732,-1.9779885,-0.52152938,-0.69592047,-0.49366176,0
1.610725,2.1340272,0.84007442,0.46766549,0.75420964,0.46093059,0
1.4678293,2.3082831,0.17494202,0.6010586,0.11099529,-0.79145992,0
-0.2423434,0.14221036,1.099389,-0.6010586,-0.11099529,0.79145992,0
1.6080663,0.31337175,2.3777881,0.77722108,0.14949602,0.6112107,0
1.135971,2.3826177,0.82556033,0.34885535,0.85454625,0.38477379,0
0.8830651,-1.6807164,-0.82856703,0.6010586,0.11099529,-0.79145992,0
1.4452872,-2.1532898,-0.46787286,0.6010586,0.11099529,-0.79145992,0
1.785853,-0.1336869,0.073994376,0.6010586,0.11099529,-0.79145992,0
-1.9782778,1.3257229,-0.052955151,-0.6010586,-0.11099529,0.79145992,0
0.064581037,0.35556507,1.3623977,-0.6010586,-0.11099529,0.79145992,0
-0.64348656,2.1036639,1.0698249,-0.6010586,-0.11099529,0.79145992,0
1.7584389,1.030023,0.21637517,0.6010586,0.11099529,-0.79145992,0
0.16468132,-0.68923163,1.2918935,-0.6010586,-0.11099529,0.79145992,0
0.97112322,-0.3542226,1.9513121,-0.6010586,-0.11099529,0.79145992,0
-0.82201099,0.56601524,0.71860665,-0.6010586,-0.11099529,0.79145992,0
0.024508446,-2.6895704,-0.60513759,-0.033739813,-0.98590195,-0.16388702,0
-1.2514908,2.5124228,0.1312921,-0.32891667,0.93690789,-0.11839634,0
-2.1886258,-0.85969287,-1.4500519,-0.73832488,-0.30199003,-0.60305768,0
1.4016833,1.3267047,2.0614419,0.64997852,0.50834227,0.5649038,0
-0.59895849,2.6708274,0.6009903,-0.099947482,0.99297374,0.063352525,0
-0.81018114,-2.0065925,-1.8605523,-0.46134806,-0.76046062,-0.45700952,0
1.7083938,-0.83637488,-0.08337611,0.6010586,0.11099529,-0.79145992,0
-0.65984184,-1.943912,0.48976815,-0.6010586,-0.11099529,0.79145992,0
1.8328818,0.22941196,0.16063076,0.6010586,0.11099529,-0.79145992,0
-0.32251835,-2.5188186,-1.1389598,-0.21082854,-0.93320936,-0.29098386,0
2.0323973,-0.79155374,1.686974,0.78308213,-0.27970716,0.55546981,0
-2.3453534,-0.45387161,-0.58129555,-0.6010586,-0.11099529,0.79145992,0
-2.0170908,-1.0768558,-1.5324486,-0.70746857,-0.38677904,-0.59151536,0
1.0403583,-1.5374196,1.8379583,-0.6010586,-0.11099529,0.79145992,0
-0.22791342,2.6928041,0.59618545,-0.015131036,0.99171197,0.12758774,0
-1.0109355,-0.88286698,-2.1550374,0.6010586,0.11099529,-0.79145992,0
-1.813118,0.24816537,-2.1499529,-0.7990576,0.064436316,-0.59779191,0
1.1652391,0.96834219,2.2842071,-0.6010586,-0.11099529,0.79145992,0
-1.6332884,1.8962547,-1.1480263,-0.62395185,0.6840018,-0.37792277,0
0.4361583,1.5601611,1.8135185,-0.6010586,-0.11099529,0.79145992,0
-0.012887359,-1.5692499,1.0336277,-0.6010586,-0.11099529,0.79145992,0
-2.148283,-1.7456123,-0.79519248,-0.59418035,-0.60023302,-0.53541583,0
-2.5021777,0.65302283,-1.0934348,-0.78615999,0.26031023,-0.5605275,0
2.5088086,-1.0034912,0.87200385,0.75789809,-0.3934176,0.52039737,0
-0.76556504,2.4747295,-1.1968527,-0.44489026,0.86915421,-0.21597201,0
0.76308787,-2.5488663,-1.0414317,0.6010586,0.11099529,-0.79145992,0
1.0252147,-0.6700505,1.9480984,-0.6010586,-0.11099529,0.79145992,0
-1.329325,0.39180261,0.30890536,-0.6010586,-0.11099529,0.79145992,0
-2.4110377,-1.2498541,-0.94493574,-0.69313973,-0.42058736,-0.58537489,0
0.61932898,-2.5140085,1.3390021,0.43646747,-0.87517285,0.20873147,0
-2.3137488,-0.86932099,-1.2919877,-0.73981017,-0.29736331,-0.60353673,0
0.16820717,-1.3211275,-1.3210227,0.6010586,0.11099529,-0.79145992,0
1.574843,1.6307327,0.16119111,0.6010586,0.11099529,-0.79145992,0
-1.6166184,2.0460896,-0.87480819,-0.57645184,0.74613941,-0.3331356,0
-1.7494488,1.0207529,0.078055322,-0.6010586,-0.11099529,0.79145992,0
-0.59283048,-0.18884236,0.78679121,-0.6010586,-0.11099529,0.79145992,0
-0.58024538,-2.08319,0.53068352,-0.6010586,-0.11099529,0.79145992,0
-2.0041184,-0.39193261,-0.31346482,-0.6010586,-0.11099529,0.79145992,0
0.70936155,-1.2800686,-0.90429556,0.6010586,0.11099529,-0.79145992,0
-0.14777547,-2.8187118,0.5800705,0.13440305,-0.99024308,-0.036803067,0
0.67003989,-2.3003354,1.4497349,-0.6010586,-0.11099529,0.79145992,0
-1.0553265,1.0637118,0.61121738,-0.6010586,-0.11099529,0.79145992,0
1.4682962,1.8000774,1.4742687,0.55239308,0.65798396,0.51178038,0
0.13808465,0.089199066,-1.1461129,0.6010586,0.11099529,-0.79145992,0
-2.3710811,0.75839698,-1.2258734,-0.78117752,0.29074493,-0.55247551,0
-0.68809259,-2.1149938,-1.7909009,-0.41831267,-0.80013055,-0.42989042,0
2.1261981,1.0589981,1.4131737,0.71261054,0.37390822,0.59361523,0
1.9018358,0.36918867,0.23259908,0.6010586,0.11099529,-0.79145992,0
-2.1351995,-0.42240393,-1.6807734,-0.77643609,-0.15360144,-0.61119032,0
-0.56741732,-0.39927316,0.77657956,-0.6010586,-0.11099529,0.79145992,0
1.9663608,-1.6297857,0.0012630224,0.6010586,0.11099529,-0.79145992,0
2.4245367,-1.094911,0.92288554,0.74934441,-0.42258179,0.50981152,0
-0.32936752,2.7142849,-0.77425194,-0.27628401,0.95810974,-0.075452089,0
0.11337554,0.61178851,-1.0915895,0.6010586,0.11099529,-0.79145992,0
-0.09130317,-0.4242546,1.1346518,-0.6010586,-0.11099529,0.79145992,0
-0.82831097,-2.5578353,-0.64002085,-0.24105009,-0.91901356,-0.31194419,0
0.9716894,1.408987,-0.3279599,0.6010586,0.11099529,-0.79145992,0
-0.35019088,-0.79801875,0.88562751,-0.6010586,-0.11099529,0.79145992,0
0.10597539,1.11651,1.5005494,-0.6010586,-0.11099529,0.79145992,0
0.62368894,-2.6333947,0.65446115,0.32195997,-0.9400245,0.11267626,0
-0.14382756,2.7614753,-0.11647272,-0.12054731,0.99157,0.047511518,0
0.053904235,-0.87295228,-1.3449752,0.6010586,0.11099529,-0.79145992,0
-0.84558296,1.284122,-1.7255627,0.6010586,0.11099529,-0.79145992,0
-1.1049626,2.0499244,0.71182954,-0.6010586,-0.11099529,0.79145992,0
2.0395207,-1.9388115,0.013484597,0.6010586,0.11099529,-0.79145992,0
2.0143089,1.749496,0.51159,0.6010586,0.11099529,-0.79145992,0
1.8317277,-0.74117845,1.9923532,0.78807807,-0.24699102,0.56385195,0
1.8619759,1.6969271,0.38853157,0.6010586,0.11099529,-0.79145992,0
-2.1572282,-1.3200318,-1.1904998,-0.6749655,-0.45979401,-0.57707119,0
-2.0436926,0.52632004,-0.21474218,-0.6010586,-0.11099529,0.79145992,0
-1.8651857,0.98226833,-1.8165746,-0.77129042,0.34000689,-0.53805828,0
-0.084544599,0.30708635,1.2423484,-0.6010586,-0.11099529,0.79145992,0
-0.38774109,-0.033463061,-1.5626433,0.6010586,0.11099529,-0.79145992,0
-0.92489362,2.1437826,-1.6652341,0.6010586,0.11099529,-0.79145992,0
0.46725357,2.1311736,1.9172125,-0.6010586,-0.11099529,0.79145992,0
-2.0210807,-0.85886824,-1.6553185,-0.73493844,-0.31231573,-0.60193396,0
0.36053646,2.1202171,1.8346317,-0.6010586,-0.11099529,0.79145992,0
-2.4380643,1.2969488,-0.71345055,-0.72115809,0.50216353,-0.4772453,0
-1.0724721,0.21211931,-2.048208,0.6010586,0.11099529,-0.79145992,0
-1.8726115,0.28304785,-2.0660191,-0.79920268,0.081089079,-0.59556669,0
-0.024650455,0.1122362,-1.2664682,0.6010586,0.11099529,-0.79145992,0
0.37929237,-0.80582756,1.4385239,-0.6010586,-0.11099529,0.79145992,0
-2.1063676,-1.2314415,-0.50884992,-0.6010586,-0.11099529,0.79145992,0
0.13447177,1.5037353,1.5764954,-0.6010586,-0.11099529,0.79145992,0
-0.74712706,1.5723945,0.91661143,-0.6010586,-0.11099529,0.79145992,0
-1.520576,0.16903281,0.13242206,-0.6010586,-0.11099529,0.79145992,0
0.031021833,-1.4855373,1.0787137,-0.6010586,-0.11099529,0.79145992,0
1.0112877,-1.1367129,-0.65489936,0.6010586,0.11099529,-0.79145992,0
0.37153089,0.23645306,1.5788002,-0.6010586,-0.11099529,0.79145992,0
-2.0052714,-1.0023389,-0.39994478,-0.6010586,-0.11099529,0.79145992,0
-0.64625049,-2.7170029,-0.20440626,-0.11954679,-0.96668071,-0.22635573,0
1.3836987,-1.0855203,2.162076,-0.6010586,-0.11099529,0.79145992,0
2.6071332,0.60257936,1.0334725,0.76970434,0.18618566,0.61064756,0
-1.346965,0.7857548,0.35075727,-0.6010586,-0.11099529,0.79145992,0
1.0552044,-2.594928,-0.42201543,0.23503643,-0.97106528,0.042310536,0
-1.3802691,1.3845644,-2.1175332,0.6010586,0.11099529,-0.79145992,0
0.18835431,1.5522482,-0.90275729,0.6010586,0.11099529,-0.79145992,0
2.4816184,0.66659045,0.71461117,0.6010586,0.11099529,-0.79145992,0
1.0825669,2.2822402,1.0880121,0.38428724,0.82817447,0.40798339,0
0.091133595,0.24430543,-1.1600168,0.6010586,0.11099529,-0.79145992,0
0.2408199,0.60645068,-0.99555284,0.6010586,0.11099529,-0.79145992,0
0.17825168,1.9569663,-0.85367119,0.6010586,0.11099529,-0.79145992,0
2.3268826,-0.78612792,1.2736251,0.77984494,-0.29810703,0.55043101,0
0.76024711,-1.824374,1.584991,-0.6010586,-0.11099529,0.79145992,0
-0.43467677,-2.3875284,0.59855175,-0.6010586,-0.11099529,0.79145992,0
1.6576169,-0.74582422,2.2333922,0.78944707,-0.23673576,0.56632996,0
1.5900444,1.091156,0.097064734,0.6010586,0.11099529,-0.79145992,0
0.12306206,2.7696283,0.0356071,-0.03244818,0.9928816,0.11460066,0
1.7129889,-0.67720515,-0.057564437,0.6010586,0.11099529,-0.79145992,0
-1.189544,1.1256626,0.5179764,-0.6010586,-0.11099529,0.79145992,0
-1.3560569,-1.7809784,-1.6199683,-0.55199146,-0.65850174,-0.51154798,0
-0.20269597,-0.51059628,1.0379481,-0.6010586,-0.11099529,0.79145992,0
-2.0225809,1.4263383,-1.2034254,-0.71255422,0.52290285,-0.46780279,0
-1.1469166,1.3885777,-1.9397557,0.6010586,0.11099529,-0.79145992,0
-1.0552456,-2.0355411,0.17663622,-0.6010586,-0.11099529,0.79145992,0
1.0735422,2.096262,1.4443023,0.44833648,0.77297986,0.44888377,0
-1.3175082,1.7895138,-1.832864,-0.66648561,0.61612737,-0.41974294,0
1.8140749,-0.95795906,-0.020169914,0.6010586,0.11099529,-0.79145992,0
0.74380875,-0.031090021,-0.70297736,0.6010586,0.11099529,-0.79145992,0
-0.79032379,-1.8070809,0.40986526,-0.6010586,-0.11099529,0.79145992,0
0.82714856,-2.2000155,-0.94385874,0.6010586,0.11099529,-0.79145992,0
-0.4839803,-2.149035,0.59455585,-0.6010586,-0.11099529,0.79145992,0
-0.053241849,-0.83574504,-1.4211273,0.6010586,0.11099529,-0.79145992,0
-2.1949735,0.93361902,-1.3745129,-0.77023751,0.34465647,-0.53660661,0
0.24859273,0.11526167,1.4684414,-0.6010586,-0.11099529,0.79145992,0
1.1875172,1.194545,-0.19412744,0.6010586,0.11099529,-0.79145992,0
-0.16753274,-0.48494244,1.0682498,-0.6010586,-0.11099529,0.79145992,0
-1.5819929,0.67989939,-2.3640864,-0.79289162,0.20704882,-0.57310909,0
1.3225998,-2.2893517,0.7587204,0.4939816,-0.8300842,0.2587328,0
0.9398973,-0.44561499,1.9147809,-0.6010586,-0.11099529,0.79145992,0
1.732234,2.2830706,0.37220263,0.6010586,0.11099529,-0.79145992,0
-2.2623258,-0.85737038,-1.3609084,-0.74007839,-0.29652029,-0.60362226,0
-2.1820996,1.2655566,-1.1296295,-0.73293853,0.47138435,-0.4905082,0
-1.7650181,2.2789075,0.07470417,-0.45231503,0.86368966,-0.22237688,0
0.45329499,1.4307971,1.8083906,-0.6010586,-0.11099529,0.79145992,0
2.2870162,-0.91721219,1.2529328,0.77018607,-0.34488061,0.53653622,0
-0.005158782,0.76100308,1.3662941,-0.6010586,-0.11099529,0.79145992,0
-2.0357137,-1.1843166,-0.44858408,-0.6010586,-0.11099529,0.79145992,0
-0.59749746,-1.7247484,-1.9591262,0.6010586,0.11099529,-0.79145992,0
-2.6561792,-0.69430113,-0.85106409,-0.6010586,-0.11099529,0.79145992,0
-1.3178066,2.3794918,-0.44223523,-0.44030738,0.87245244,-0.21202904,0
2.2584302,-1.7442651,0.38941753,0.63423383,-0.66881329,0.38786131,0
1.1148928,2.5513113,0.43063354,0.27154997,0.90302914,0.33286506,0
0.56072271,-1.4786309,1.4819531,-0.6010586,-0.11099529,0.79145992,0
2.5326459,-0.99873298,0.5198167,0.6010586,0.11099529,-0.79145992,0
0.52129936,-1.7358419,1.4159423,-0.6010586,-0.11099529,0.79145992,0
0.65913153,0.9372071,1.8954873,-0.6010586,-0.11099529,0.79145992,0
2.6592937,-0.097118974,1.0351573,0.7990855,-0.066327095,0.59754789,0
-0.60802996,-1.6153467,-1.9517823,0.6010586,0.11099529,-0.79145992,0
0.77005666,0.74401164,-0.57434279,0.6010586,0.11099529,-0.79145992,0
-0.44354892,2.2519655,-1.2845147,0.6010586,0.11099529,-0.79145992,0
-1.4736069,2.4412706,0.21370363,-0.36452416,0.91937411,-0.14789665,0
1.6233046,-1.014279,2.1430082,0.7723552,-0.33520794,0.53953999,0
-1.5678155,0.7665906,-2.3466272,0.6010586,0.11099529,-0.79145992,0
-0.69546843,0.10788172,-1.7765183,0.6010586,0.11099529,-0.79145992,0
-2.1857061,-0.057175696,-1.6679096,-0.79480219,-0.020791113,-0.60651255,0
-2.5826001,0.39173746,-0.64287865,-0.6010586,-0.11099529,0.79145992,0
-1.5762041,0.35119611,0.11572315,-0.6010586,-0.11099529,0.79145992,0
0.41862842,0.5379582,-0.87012506,0.6010586,0.11099529,-0.79145992,0
1.0579375,-2.2811501,1.2791078,0.52233088,-0.80409414,0.28390688,0
-0.29684368,-2.7303476,-0.28894281,-0.052691832,-0.9826507,-0.17782378,0
-0.8957057,1.3531775,-1.753943,0.6010586,0.11099529,-0.79145992,0
-2.6099105,0.12004232,-1.0985937,-0.79914522,0.071335629,-0.59689075,0
-0.8970558,-0.46301699,0.51730275,-0.6010586,-0.11099529,0.79145992,0
1.0232079,-2.5992374,-0.34516954,0.24100268,-0.96938199,0.047077537,0
1.7037668,0.30891547,2.2570431,0.77866989,0.14171666,0.61122,0
1.8055027,-0.42894739,2.1306005,0.79832685,-0.12979878,0.58807039,0
-0.33922273,-2.1163945,0.70906663,-0.6010586,-0.11099529,0.79145992,0
-2.178232,-0.92761672,-0.52081704,-0.6010586,-0.11099529,0.79145992,0
-0.72050297,-2.1047919,0.42113805,-0.6010586,-0.11099529,0.79145992,0
0.55903888,0.2176019,1.7185558,-0.6010586,-0.11099529,0.79145992,0
-0.94459319,-0.30288184,0.50365913,-0.6010586,-0.11099529,0.79145992,0
-0.67357361,2.4105244,1.0900104,-0.6010586,-0.11099529,0.79145992,0
-0.14115059,2.2595358,-1.0538025,0.6010586,0.11099529,-0.79145992,0
0.66339457,2.4915071,-0.41027474,0.6010586,0.11099529,-0.79145992,0
-1.6579612,2.1676304,-0.49667978,-0.52359188,0.80287397,-0.28503555,0
0.3810358,2.0254595,-0.69006538,0.6010586,0.11099529,-0.79145992,0
1.4954512,-1.5047804,1.9184377,0.715711,-0.51544678,0.47124577,0
-1.1349652,2.2812614,-1.1364744,-0.51555079,0.81055927,-0.27785116,0
-2.0952487,-0.4512018,-0.39098397,-0.6010586,-0.11099529,0.79145992,0
2.4604058,0.78777373,1.1488903,0.75109768,0.25994599,0.60686129,0
-1.2585537,-0.037327409,0.30246946,-0.6010586,-0.11099529,0.79145992,0
0.79719865,1.5960691,-0.434237,0.6010586,0.11099529,-0.79145992,0
1.9894166,-2.0063868,0.31709385,0.56559944,-0.75874013,0.32312679,0
0.43753532,0.031219542,-0.9268322,0.6010586,0.11099529,-0.79145992,0
-2.0915785,-0.34045696,-0.37266585,-0.6010586,-0.11099529,0.79145992,0
-0.63159382,-0.81127632,-1.8569137,0.6010586,0.11099529,-0.79145992,0
-1.9274969,-1.2531875,-0.37605989,-0.6010586,-0.11099529,0.79145992,0
-1.1663625,-0.7942183,-2.2606411,0.6010586,0.11099529,-0.79145992,0
2.2519338,-1.720415,0.44047177,0.64097804,-0.65845883,0.39443511,0
-2.3422303,-0.3192414,-0.5600431,-0.6010586,-0.11099529,0.79145992,0
-0.66049027,-0.40898347,0.7045356,-0.6010586,-0.11099529,0.79145992,0
2.7506938,0.31423712,0.9118852,0.78901052,0.075258791,0.60975289,0
-2.4669652,0.25637227,-1.269915,-0.79888749,0.11135875,-0.59108222,0
2.4661779,0.93691325,1.0713729,0.73541063,0.31089407,0.60209322,0
0.41502038,2.8180597,-0.30257511,-0.0243125,0.9923901,0.12071019,0
0.037029073,2.7451289,0.2205193,-0.019848991,0.99207669,0.12405592,0
-1.9947829,1.1762935,-1.4870987,-0.74910331,0.42336142,-0.50951904,0
-0.65157473,2.5219877,-1.236655,-0.42644608,0.88209051,-0.20015067,0
1.219552,-1.1232611,2.0321255,-0.6010586,-0.11099529,0.79145992,0
2.0722377,1.6173346,0.53704846,0.6010586,0.11099529,-0.79145992,0
0.88823318,-0.27577192,1.8993647,-0.6010586,-0.11099529,0.79145992,0
-2.0255394,-0.98152542,-1.581725,-0.72026783,-0.35390979,-0.59662586,0
0.21179307,-1.2275145,1.2521822,-0.6010586,-0.11099529,0.79145992,0
-1.5765923,2.3474143,0.39538014,-0.6010586,-0.11099529,0.79145992,0
-0.84088159,-1.1875436,-2.0686212,0.6010586,0.11099529,-0.79145992,0
-0.95992625,0.028318524,0.5384624,-0.6010586,-0.11099529,0.79145992,0
-0.75260389,-2.3979628,-1.1299387,-0.31209376,-0.87908125,-0.36029673,0
-0.42227271,-1.3203675,0.75763154,-0.6010586,-0.11099529,0.79145992,0
1.8601633,-2.1258006,0.24301529,0.52566075,-0.80085921,0.28688943,0
2.7661214,-0.033146501,0.8325398,0.6010586,0.11099529,-0.79145992,0
-1.1035576,0.32915014,0.47157341,-0.6010586,-0.11099529,0.79145992,0
-2.5897157,1.2362801,-0.54749119,-0.72620082,0.48935449,-0.48287123,0
1.9413111,1.3504373,1.4171149,0.66327918,0.48319173,0.57147759,0
-1.6081392,-0.62170196,-0.04496944,-0.6010586,-0.11099529,0.79145992,0
-2.4456208,0.18776858,-1.310025,-0.79920423,0.084920198,-0.59503055,0
-0.5329932,0.51011527,0.93025601,-0.6010586,-0.11099529,0.79145992,0
-2.2807088,1.4214561,-0.81450891,-0.70511234,0.53983545,-0.45977661,0
0.94061244,-0.32860929,-0.59524298,0.6010586,0.11099529,-0.79145992,0
-1.6049198,0.82456374,0.16030109,-0.6010586,-0.11099529,0.79145992,0
-2.5872438,0.21813869,-1.1144711,-0.79900682,0.10551052,-0.59199309,0
1.8131697,0.51687622,0.18597502,0.6010586,0.11099529,-0.79145992,0
-1.8727307,1.5276052,0.055512547,-0.6010586,-0.11099529,0.79145992,0
-0.25229901,1.2634256,1.2490686,-0.6010586,-0.11099529,0.79145992,0
1.8286633,-0.24481422,2.1295345,0.79905486,-0.064262077,0.59781426,0
-1.0729485,2.5916579,0.81211519,-0.6010586,-0.11099529,0.79145992,0
0.17349011,-2.760603,0.66443229,0.2222054,-0.97447175,0.032088578,0
-0.81073177,0.015337586,0.64994478,-0.6010586,-0.11099529,0.79145992,0
-1.5594749,0.79853404,0.19116282,-0.6010586,-0.11099529,0.79145992,0
-1.6030314,-2.3217607,-0.51455534,-0.40501368,-0.81142318,-0.42137447,0
-0.72517282,0.4834972,0.78057611,-0.6010586,-0.11099529,0.79145992,0
-0.65721452,-0.73059791,-1.8650565,0.6010586,0.11099529,-0.79145992,0
-1.079493,-2.5737429,-0.39711761,-0.2569859,-0.91087365,-0.32290471,0
1.092613,1.9194523,-0.16453862,0.6010586,0.11099529,-0.79145992,0
1.1424415,0.52288675,-0.32255322,0.6010586,0.11099529,-0.79145992,0
-2.2680151,-0.55013627,-1.4768811,-0.76891512,-0.18974191,-0.61054707,0
-0.75112653,-2.4868665,0.34429884,-0.6010586,-0.11099529,0.79145992,0
1.0814533,-1.1956704,-0.60988182,0.6010586,0.11099529,-0.79145992,0
-0.78009146,-2.7993486,0.27847934,-0.6010586,-0.11099529,0.79145992,0
-1.0553436,-2.0407417,0.17583251,-0.6010586,-0.11099529,0.79145992,0
1.7960567,-2.0595534,0.53010321,0.55882639,-0.76633984,0.31691742,0
0.74440014,1.9068975,2.0877607,0.48779202,0.73350859,0.47331199,0
0.70300519,2.0910487,1.8203764,0.42745602,0.79211032,0.43570942,0
1.3773357,-1.6496444,-0.44884551,0.6010586,0.11099529,-0.79145992,0
-0.45633519,0.57979548,-1.5287316,0.6010586,0.11099529,-0.79145992,0
0.56756818,-2.6916471,-0.066009045,0.1857065,-0.98259997,0.0032301545,0
0.54264516,2.3294845,-0.52469754,0.6010586,0.11099529,-0.79145992,0
-1.8238572,-1.8455105,-0.38042057,-0.6010586,-0.11099529,0.79145992,0
-0.21371114,0.3387633,-1.3782783,0.6010586,0.11099529,-0.79145992,0
-1.649415,2.133945,-0.6039052,-0.53933817,0.78714293,-0.29919994,0
0.54372919,-2.5556796,1.3163228,0.41599613,-0.8890298,0.19124156,0
-1.3821316,-0.2813108,0.17440429,-0.6010586,-0.11099529,0.79145992,0
1.8772044,-0.11972427,0.14532751,0.6010586,0.11099529,-0.79145992,0
2.1657939,-1.8681018,0.31348395,0.60258645,-0.71346837,0.35756481,0
0.18260443,-1.5372261,-1.3403949,0.6010586,0.11099529,-0.79145992,0
-1.9187298,-0.35439622,-1.9726348,-0.77829599,-0.14375103,-0.61122125,0
1.7799084,-1.599864,1.3678836,0.68884856,-0.57408494,0.44262218,0
-0.22189486,2.5542903,1.3577579,0.12136914,0.96614617,0.22766471,0
-0.3725605,1.7173741,-1.3055755,0.6010586,0.11099529,-0.79145992,0
-1.6208513,1.4928173,0.24191892,-0.6010586,-0.11099529,0.79145992,0
1.9124656,-2.201627,-0.08780098,0.48242146,-0.83992934,0.24857289,0
-1.3804383,-1.4709114,-1.947921,-0.62190807,-0.557024,-0.55041331,0
-1.0637786,2.1199069,-1.6647182,-0.58648145,0.73400623,-0.34245402,0
0.8562088,-2.6357322,-0.66636634,0.14753713,-0.98869842,-0.026611984,0
-2.5495121,-0.54577219,-0.7492283,-0.6010586,-0.11099529,0.79145992,0
2.2564399,-0.19768512,1.5625101,0.79918134,-0.07582669,0.59628844,0
-1.8973482,-1.2807281,-0.35702622,-0.6010586,-0.11099529,0.79145992,0
-2.1742876,-1.1040469,-1.3266569,-0.70772094,-0.38615739,-0.59161973,0
2.2092187,1.789234,0.66518366,0.6010586,0.11099529,-0.79145992,0
-1.1437819,0.51298571,-2.060169,0.6010586,0.11099529,-0.79145992,0
-2.3814323,1.42787,-0.6520822,-0.70056474,0.54977113,-0.45492956,0
-0.59516609,-2.3964264,0.47542357,-0.6010586,-0.11099529,0.79145992,0
0.42299262,-1.3047223,-1.1252303,0.6010586,0.11099529,-0.79145992,0
-1.8967835,-2.1631458,-0.50181663,-0.47488636,-0.74692237,-0.46539229,0
-1.5348215,-0.85419476,-2.2492528,-0.72485352,-0.34140697,-0.598355,0
-1.4668124,-1.3980309,-1.9210258,-0.63908523,-0.5278939,-0.55937302,0
-1.2574153,0.31043187,-2.1748719,0.6010586,0.11099529,-0.79145992,0
-2.1683574,1.4142877,-0.18488693,-0.6010586,-0.11099529,0.79145992,0
1.5948831,0.44416094,0.010003984,0.6010586,0.11099529,-0.79145992,0
2.3472843,1.0623745,0.66809893,0.6010586,0.11099529,-0.79145992,0
0.097070694,-1.1402802,-1.3496838,0.6010586,0.11099529,-0.79145992,0
-0.11682665,0.85108364,-1.2328531,0.6010586,0.11099529,-0.79145992,0
0.15192151,-1.9822794,1.100865,-0.6010586,-0.11099529,0.79145992,0
1.3363529,0.77231824,-0.14031041,0.6010586,0.11099529,-0.79145992,0
1.0356505,-1.6733675,1.8153179,-0.6010586,-0.11099529,0.79145992,0
-0.12644315,-1.7567663,0.92109263,-0.6010586,-0.11099529,0.79145992,0
0.84646463,2.3923194,1.0616759,0.32222274,0.8725968,0.3670795,0
-0.78612465,2.6485004,0.1760242,-0.21639159,0.9759202,-0.027470171,0
0.70920849,-2.6652694,-0.3377459,0.17095773,-0.98524314,-0.0083410144,0
-0.73301125,2.4248707,-1.4467731,-0.47935241,0.84247357,-0.24588543,0
0.41329622,-2.4655013,1.2315934,-0.6010586,-0.11099529,0.79145992,0
-1.7054518,1.9553325,0.24253416,-0.6010586,-0.11099529,0.79145992,0
0.15976512,1.4824054,1.5927125,-0.6010586,-0.11099529,0.79145992,0
1.033406,1.6960353,-0.24083447,0.6010586,0.11099529,-0.79145992,0
-0.52802688,0.37150043,0.91458809,-0.6010586,-0.11099529,0.79145992,0
0.094103381,-2.7306812,-0.31148863,0.034219392,-0.992975,-0.11326861,0
0.084131241,-1.8127415,-1.453817,0.6010586,0.11099529,-0.79145992,0
1.0019655,-2.6096935,-0.82244587,0.15375991,-0.98786843,-0.021769702,0
1.9031219,0.86891735,1.7938218,0.73125631,0.32321107,0.60066563,0
-2.055717,0.6476813,-1.7192588,-0.79059267,0.22756885,-0.5684855,0
0.59094083,2.2883019,-0.49379587,0.6010586,0.11099529,-0.79145992,0
1.3751116,0.53177893,-0.14460945,0.6010586,0.11099529,-0.79145992,0
2.0088718,0.53175807,1.8087034,0.76657206,0.20002809,0.61021012,0
1.4129639,-2.4821453,-0.53853917,0.6010586,0.11099529,-0.79145992,0
-1.1383801,1.0555865,-1.9799716,0.6010586,0.11099529,-0.79145992,0
-0.32993987,0.22688007,1.0447396,-0.6010586,-0.11099529,0.79145992,0
1.3516424,0.2810123,-0.19760057,0.6010586,0.11099529,-0.79145992,0
-0.60950494,-1.2446191,-1.9009112,0.6010586,0.11099529,-0.79145992,0
1.7275255,-1.7746594,1.2002198,0.65191871,-0.64094895,0.40519941,0
-0.57104754,1.1946692,0.99735892,-0.6010586,-0.11099529,0.79145992,0
1.8197834,0.88636339,0.24281514,0.6010586,0.11099529,-0.79145992,0
-1.7772713,1.7384298,-1.1767823,-0.65853977,0.62989241,-0.41177815,0
-1.377398,0.77429533,-2.2009377,0.6010586,0.11099529,-0.79145992,0
2.2502146,1.2561085,0.62155062,0.6010586,0.11099529,-0.79145992,0
1.5177109,0.19534504,-0.083497137,0.6010586,0.11099529,-0.79145992,0
-0.82101202,-0.44157344,-1.948916,0.6010586,0.11099529,-0.79145992,0
-1.4188952,2.011678,-1.2856646,-0.60076565,0.71585894,-0.35584676,0
-0.18476748,1.413439,-1.205584,0.6010586,0.11099529,-0.79145992,0
-1.0405797,-2.2650819,-1.1623043,-0.38780302,-0.82540405,-0.41026482,0
-0.37465465,0.10418546,-1.533401,0.6010586,0.11099529,-0.79145992,0
-1.5457156,-2.1508298,-0.87797678,-0.45871514,-0.7630322,-0.45537055,0
-0.65518773,2.5558667,-1.0686326,-0.39904141,0.89971328,-0.17686743,0
-1.8438191,-1.394696,-1.4914691,-0.65242404,-0.50382793,-0.56612784,0
-1.2392025,2.1373277,0.62214124,-0.6010586,-0.11099529,0.79145992,0
-2.7501762,0.18315709,-0.79939258,-0.6010586,-0.11099529,0.79145992,0
-0.30522585,2.060179,-1.2063642,0.6010586,0.11099529,-0.79145992,0
0.019325256,-0.6528067,1.186614,-0.6010586,-0.11099529,0.79145992,0
-1.8004136,-1.6017094,-1.3398972,-0.61110026,-0.5743891,-0.5446409,0
-0.093806982,2.6215656,-0.96707702,0.6010586,0.11099529,-0.79145992,0
0.42718339,-2.6282918,1.2020969,0.37092856,-0.91593045,0.15324336,0
-0.7718153,-1.3968325,-2.0455213,0.6010586,0.11099529,-0.79145992,0
0.0465734,2.7614627,-0.84084845,0.6010586,0.11099529,-0.79145992,0
-0.44973314,-2.3222032,0.59627867,-0.6010586,-0.11099529,0.79145992,0
0.46893013,-1.5504012,1.4021778,-0.6010586,-0.11099529,0.79145992,0
-0.015853167,-1.7731768,-1.5241995,0.6010586,0.11099529,-0.79145992,0
0.87618756,-1.4317087,1.7281069,-0.6010586,-0.11099529,0.79145992,0
2.5782626,0.74737978,0.79933596,0.6010586,0.11099529,-0.79145992,0
1.1903462,0.26567167,2.204731,-0.6010586,-0.11099529,0.79145992,0
-0.48229939,2.6981287,-0.38701677,-0.24442625,0.96838737,-0.049816966,0
0.86333334,2.574172,-0.24684215,0.6010586,0.11099529,-0.79145992,0
0.98740494,2.4069991,-0.17606282,0.6010586,0.11099529,-0.79145992,0
-0.68892241,-1.3470826,0.55138326,-0.6010586,-0.11099529,0.79145992,0
-1.2769895,0.72487795,-2.1316147,0.6010586,0.11099529,-0.79145992,0
-1.0733066,-0.60740125,0.36320412,-0.6010586,-0.11099529,0.79145992,0
0.28138596,-2.0175443,-1.3327374,0.6010586,0.11099529,-0.79145992,0
-2.7241778,0.48643756,-0.73711646,-0.6010586,-0.11099529,0.79145992,0
0.096702516,0.063797653,-1.1811022,0.6010586,0.11099529,-0.79145992,0
0.43737715,0.69749027,-0.8335138,0.6010586,0.11099529,-0.79145992,0
0.34368864,-2.7186732,-0.2536571,0.1019021,-0.99286973,-0.061853588,0
-2.4143875,1.4365822,-0.36860311,-0.6010586,-0.11099529,0.79145992,0
0.50060582,2.2299449,-0.57058334,0.6010586,0.11099529,-0.79145992,0
1.3977139,-1.5352334,2.0334716,0.71364808,-0.52033836,0.46899316,0
-0.68769211,-2.5550156,-0.75579619,-0.22848526,-0.92511064,-0.30325711,0
1.1503217,1.7186549,1.9219081,0.5579499,0.65075421,0.51498652,0
1.9675184,1.6982889,1.0487664,0.59720808,0.5957222,0.53708255,0
-0.33692923,2.6911058,0.58374143,-0.042563092,0.99334925,0.10698467,0
-1.3091507,1.8532352,0.52917898,-0.6010586,-0.11099529,0.79145992,0
-1.4237032,-0.37872297,-2.3978038,0.6010586,0.11099529,-0.79145992,0
-1.4928375,0.82623196,0.24565357,-0.6010586,-0.11099529,0.79145992,0
-1.6609623,2.0120916,-0.87306881,-0.58562577,0.73506033,-0.34165627,0
-1.478374,2.4613383,0.36042905,-0.34073666,0.93138444,-0.12814736,0
-0.51107794,-2.7399702,-0.16291976,-0.080417179,-0.97688353,-0.19807029,0
-0.060801938,2.6700435,0.72776484,0.046996705,0.98368651,0.17364401,0
0.12105423,-2.208142,-1.4812279,0.6010586,0.11099529,-0.79145992,0
-1.2508867,-0.58272791,-2.2951715,0.6010586,0.11099529,-0.79145992,0
0.81141585,-2.634378,-0.83489585,0.10794713,-0.99250913,-0.057212234,0
2.4101207,-0.73103786,1.1849135,0.78249598,-0.28317422,0.55453837,0
0.96794134,-0.43933094,-0.59001637,0.6010586,0.11099529,-0.79145992,0
2.4068277,-0.44918156,0.50133598,0.6010586,0.11099529,-0.79145992,0
1.1748459,-0.34978506,2.1066475,-0.6010586,-0.11099529,0.79145992,0
-2.2725806,0.17075384,-0.43843177,-0.6010586,-0.11099529,0.79145992,0
-0.99934506,2.5735877,-0.075340509,-0.30758053,0.94615763,-0.10089582,0
-2.2857089,1.321967,-0.91734135,-0.72164869,0.50093955,-0.47778955,0
-1.4165113,-2.3262234,-0.68388104,-0.39087453,-0.82296008,-0.41225469,0
-0.8515327,0.22575003,-1.8785083,0.6010586,0.11099529,-0.79145992,0
-1.2315953,-0.13791704,0.30883574,-0.6010586,-0.11099529,0.79145992,0
0.39647347,-1.7796437,-1.2119732,0.6010586,0.11099529,-0.79145992,0
-0.51317447,0.88635015,0.99807048,-0.6010586,-0.11099529,0.79145992,0
-0.47484016,0.63026726,-1.5357066,0.6010586,0.11099529,-0.79145992,0
-0.29933038,-1.108943,0.88064814,-0.6010586,-0.11099529,0.79145992,0
0.49873346,2.6293621,0.63848639,0.1625001,0.9526493,0.25700802,0
0.42244744,-2.6983361,0.63569522,0.27354786,-0.95906603,0.073240101,0
-1.3869199,-2.1559229,-0.092129946,-0.6010586,-0.11099529,0.79145992,0
-0.58534944,-1.544589,-1.9246348,0.6010586,0.11099529,-0.79145992,0
1.3780434,-2.4486823,-0.026246548,0.37493551,-0.91372943,0.15659493,0
-0.60640967,0.11644721,-1.7076831,0.6010586,0.11099529,-0.79145992,0
-1.1847396,1.6961482,-1.9253459,0.6010586,0.11099529,-0.79145992,0
2.2338214,1.3545943,0.62291318,0.6010586,0.11099529,-0.79145992,0
-2.6014798,0.64974391,-0.62103337,-0.6010586,-0.11099529,0.79145992,0
0.40855068,0.57304561,-0.87285775,0.6010586,0.11099529,-0.79145992,0
1.6351242,-0.081893504,2.3937726,0.79585981,0.0073881596,0.60543609,0
0.90213448,2.2549925,-0.26213741,0.6010586,0.11099529,-0.79145992,0
-1.5295827,-1.3039569,-1.9339737,-0.6581865,-0.49299744,-0.56898522,0
0.68813527,1.5036218,1.9969482,-0.6010586,-0.11099529,0.79145992,0
0.47950554,-1.9600077,1.3527654,-0.6010586,-0.11099529,0.79145992,0
-1.5521646,1.6957327,-1.5957253,-0.67769092,0.59571338,-0.43111557,0
1.8412092,1.4752318,1.4203959,0.63756931,0.53054571,0.55859363,0
-0.39247346,-0.24276716,-1.5955901,0.6010586,0.11099529,-0.79145992,0
1.0282085,-2.5939114,-0.27085495,0.25489035,-0.96521646,0.058208466,0
0.94328892,1.9733109,1.7793119,0.47901809,0.74268305,0.46793547,0
0.67304903,1.2541413,-0.57647216,0.6010586,0.11099529,-0.79145992,0
1.8308232,0.38317376,2.07722,0.77527183,0.1595602,0.6111418,0
-0.027429819,-0.81240213,1.1287251,-0.6010586,-0.11099529,0.79145992,0
0.84590507,1.796124,2.1448991,0.52393961,0.69308627,0.49509478,0
-2.0460918,-0.78059399,-1.6633351,-0.74403328,-0.2838524,-0.6048491,0
1.7403427,2.1158147,0.73719263,0.48041576,0.74123734,0.4687942,0
-2.3950555,0.96811873,-1.0629535,-0.76365066,0.37185386,-0.52779019,0
-2.2761996,-0.52535069,-0.53880244,-0.6010586,-0.11099529,0.79145992,0
-0.7903375,2.5719085,1.0239692,-0.6010586,-0.11099529,0.79145992,0
-1.1152301,2.5514848,0.070695877,-0.30869797,0.94569582,-0.1018092,0
-2.198247,-1.0460165,-0.55262184,-0.6010586,-0.11099529,0.79145992,0
-2.6872938,-0.47304058,-0.96592754,-0.77978104,-0.13555852,-0.61120015,0
-2.1889551,0.47291303,-1.5960367,-0.79598343,0.17196831,-0.58037692,0
0.72893226,2.4930668,0.90320325,0.2650663,0.90656978,0.32843763,0
-2.4183447,0.51236773,-1.2674661,-0.79338169,0.20219983,-0.57416123,0
-0.86767232,-2.7597833,0.095252752,-0.11810043,-0.96710128,-0.22531641,0
0.50629568,-2.7021267,-0.12180305,0.16207758,-0.98665971,-0.015283525,0
1.7231382,0.92727661,0.17515743,0.6010586,0.11099529,-0.79145992,0
2.0674424,0.96022022,0.44125265,0.6010586,0.11099529,-0.79145992,0
-0.52660036,1.8011024,-1.4108157,0.6010586,0.11099529,-0.79145992,0
-2.0220771,-0.4339875,-0.33300146,-0.6010586,-0.11099529,0.79145992,0
0.88938642,0.86429709,2.0601249,-0.6010586,-0.11099529,0.79145992,0
-0.56104076,1.1140437,-1.5333247,0.6010586,0.11099529,-0.79145992,0
2.1466689,-0.17088258,0.3427926,0.6010586,0.11099529,-0.79145992,0
-0.54826498,0.77543205,0.9558664,-0.6010586,-0.11099529,0.79145992,0
-0.69051093,0.22443008,0.77056748,-0.6010586,-0.11099529,0.79145992,0
-2.0229201,2.0462205,-0.16057193,-0.54727113,0.77885944,-0.30638629,0
-1.8572569,1.2964702,0.034849286,-0.6010586,-0.11099529,0.79145992,0
2.4075334,0.71266913,0.66481078,0.6010586,0.11099529,-0.79145992,0
-1.3643839,2.1378579,-1.1019278,-0.55938166,0.76572424,-0.31742543,0
-0.82042384,-1.6631694,0.40718889,-0.6010586,-0.11099529,0.79145992,0
2.7282081,-0.44648778,0.74577975,0.6010586,0.11099529,-0.79145992,0
-0.48872504,1.3158698,1.0768745,-0.6010586,-0.11099529,0.79145992,0
2.7474601,-0.44236171,0.83731544,0.79371476,-0.19878219,0.57489365,0
-1.735332,-1.0575922,-0.20269334,-0.6010586,-0.11099529,0.79145992,0
1.4244537,1.1999841,-0.013427734,0.6010586,0.11099529,-0.79145992,0
-1.7965,1.0108304,-1.896878,-0.76992142,0.3460336,-0.53617352,0
0.14657831,2.7571936,0.13942075,-0.0087261433,0.99116135,0.13237458,0
-2.1672001,0.62615985,-0.29453567,-0.6010586,-0.11099529,0.79145992,0
0.51069272,-2.6596398,0.75697088,0.31408453,-0.94343472,0.10621709,0
1.3050146,1.6981893,1.7790297,0.56966001,0.63508683,0.52168226,0
0.035834908,-2.0678773,1.000701,-0.6010586,-0.11099529,0.79145992,0
0.97962666,-0.0087293983,2.006222,-0.6010586,-0.11099529,0.79145992,0
2.4398227,-0.35068512,1.2862717,0.79770076,-0.14405087,0.58559632,0
-0.21794719,0.17786121,1.1229159,-0.6010586,-0.11099529,0.79145992,0
-0.27656162,2.0053005,-1.1922919,0.6010586,0.11099529,-0.79145992,0
0.62144756,-2.278995,1.4158254,-0.6010586,-0.11099529,0.79145992,0
-1.2305868,0.15829897,0.35114336,-0.6010586,-0.11099529,0.79145992,0
-1.3786159,-2.2336817,-0.89800417,-0.42135817,-0.79748267,-0.43183193,0
-0.34748042,-2.34692,-1.6045902,-0.30134457,-0.88573986,-0.35306728,0
-0.062451005,0.38853431,-1.2564267,0.6010586,0.11099529,-0.79145992,0
2.3495977,-1.3859247,0.32650387,0.6010586,0.11099529,-0.79145992,0
-1.1305863,-2.3077426,0.081246376,-0.6010586,-0.11099529,0.79145992,0
-1.3443415,0.60579067,0.32751122,-0.6010586,-0.11099529,0.79145992,0
-1.2825722,2.3159223,-0.74845219,-0.48355275,0.83898401,-0.24956459,0
2.2138944,0.68439722,0.51379079,0.6010586,0.11099529,-0.79145992,0
-1.2309484,1.5466725,0.5455755,-0.6010586,-0.11099529,0.79145992,0
-0.53328276,-2.3183923,0.53336334,-0.6010586,-0.11099529,0.79145992,0
1.9554222,-2.0836041,-0.070688248,0.6010586,0.11099529,-0.79145992,0
1.0507928,1.1508932,-0.3040818,0.6010586,0.11099529,-0.79145992,0
0.21042746,-2.7100224,-0.45742154,0.035491802,-0.99303907,-0.11231136,0
-2.1048663,1.3581514,-1.1525424,-0.72120988,0.50203478,-0.47730264,0
-1.3607076,2.2364714,-0.84824538,-0.51703638,0.80915648,-0.27917618,0
0.67093182,1.6445867,-0.52332354,0.6010586,0.11099529,-0.79145992,0
-2.2483187,-1.1995696,-0.61218208,-0.6010586,-0.11099529,0.79145992,0
0.78854585,0.25635323,1.8982848,-0.6010586,-0.11099529,0.79145992,0
-1.7963063,-2.2277842,-0.41310763,-0.6010586,-0.11099529,0.79145992,0
1.7081348,1.4765601,0.24079537,0.6010586,0.11099529,-0.79145992,0
2.5040002,0.48955059,0.70678073,0.6010586,0.11099529,-0.79145992,0
1.6303222,1.2048361,1.8984653,0.67784715,0.45381936,0.57842165,0
-0.17407238,-1.4276844,0.93107247,-0.6010586,-0.11099529,0.79145992,0
1.3188765,-0.9213686,2.135869,-0.6010586,-0.11099529,0.79145992,0
-1.5152345,0.6251725,0.2004481,-0.6010586,-0.11099529,0.79145992,0
-1.2126386,1.5778737,0.56385636,-0.6010586,-0.11099529,0.79145992,0
-2.3671107,0.22688717,-1.4097018,-0.79916084,0.093881071,-0.593741,0
-1.43221,2.4873757,0.52465653,-0.6010586,-0.11099529,0.79145992,0
0.43421721,-2.6236119,1.2128391,0.37430701,-0.91407704,0.15606892,0
-1.6371561,1.1203336,0.17729878,-0.6010586,-0.11099529,0.79145992,0
-1.1392281,-1.2497208,-2.3039145,0.6010586,0.11099529,-0.79145992,0
2.0282018,-1.8776865,0.52588153,0.60760313,-0.70678782,0.36231148,0
0.87573618,-1.0686954,-0.7483024,0.6010586,0.11099529,-0.79145992,0
-1.8527368,0.52632993,-0.069723159,-0.6010586,-0.11099529,0.79145992,0
1.4912918,-2.4251847,-0.1604023,0.37746194,-0.91232312,0.15871084,0
0.86199683,2.7260964,-0.22655129,0.6010586,0.11099529,-0.79145992,0
-0.53565973,-1.3908005,0.6616447,-0.6010586,-0.11099529,0.79145992,0
-1.8225315,0.67758769,-0.025571883,-0.6010586,-0.11099529,0.79145992,0
-1.6404362,-1.1958723,-0.15001917,-0.6010586,-0.11099529,0.79145992,0
1.8464582,-2.1016364,0.33367205,0.53757375,-0.78895187,0.29760635,0
0.3333348,0.74923712,1.6217065,-0.6010586,-0.11099529,0.79145992,0
1.0013402,0.88384008,2.1478868,-0.6010586,-0.11099529,0.79145992,0
-1.2339859,-1.763562,0.079038143,-0.6010586,-0.11099529,0.79145992,0
1.3788674,0.22125067,2.3416703,-0.6010586,-0.11099529,0.79145992,0
-0.22509706,0.059696496,-1.4260616,0.6010586,0.11099529,-0.79145992,0
-2.4677575,0.42765099,-1.2270579,-0.7958132,0.17426288,-0.57992584,0
0.39020759,-2.5865929,-1.283794,-0.06869752,-0.97946835,-0.18953258,0
0.61706626,0.22866082,-0.76280165,0.6010586,0.11099529,-0.79145992,0
-0.011727393,1.7160907,1.4952483,-0.6010586,-0.11099529,0.79145992,0
-2.1817198,0.55685401,-1.5787702,-0.79335272,0.20249234,-0.57409823,0
0.25468424,1.5344847,-0.85487533,0.6010586,0.11099529,-0.79145992,0
-1.2016773,2.5624056,0.50812507,-0.25337216,0.96568882,-0.056989253,0
0.63781106,-1.2029476,1.5791584,-0.6010586,-0.11099529,0.79145992,0
0.61069345,-1.6993465,1.4889489,-0.6010586,-0.11099529,0.79145992,0
0.17534661,-1.3593919,1.2060093,-0.6010586,-0.11099529,0.79145992,0
1.8262916,-0.75770396,1.9926238,0.78726292,-0.25278574,0.56242037,0
0.75356561,-0.46182275,-0.75597405,0.6010586,0.11099529,-0.79145992,0
2.7208633,-0.20036089,0.77471888,0.6010586,0.11099529,-0.79145992,0
-1.4535757,2.4298222,0.097448349,-0.37970454,0.91106272,-0.16059077,0
1.4496019,2.1169765,0.13427043,0.6010586,0.11099529,-0.79145992,0
-1.7282758,1.2073169,0.1202985,-0.6010586,-0.11099529,0.79145992,0
-2.5172172,0.88393843,-0.94383705,-0.76937675,0.34838876,-0.5354296,0
1.4431343,2.3983536,0.16881943,0.6010586,0.11099529,-0.79145992,0
-0.74720168,-1.0490521,-1.9780557,0.6010586,0.11099529,-0.79145992,0
1.2606854,2.4250543,0.034006596,0.6010586,0.11099529,-0.79145992,0
-1.9678067,1.6864676,0.0055879354,-0.6010586,-0.11099529,0.79145992,0
2.2374568,0.10449111,0.45035827,0.6010586,0.11099529,-0.79145992,0
1.490687,-0.20778084,-0.16055474,0.6010586,0.11099529,-0.79145992,0
0.40863591,2.4887996,-0.6041255,0.6010586,0.11099529,-0.79145992,0
-0.06133306,-2.0679121,-1.6000724,0.6010586,0.11099529,-0.79145992,0
-1.0691149,-0.033521891,0.44686875,-0.6010586,-0.11099529,0.79145992,0
-2.6925039,0.43263829,-0.72060698,-0.6010586,-0.11099529,0.79145992,0
-0.42409369,2.2386184,1.2553647,-0.6010586,-0.11099529,0.79145992,0
1.2028666,2.6100142,0.19625282,0.25001442,0.91449118,0.31811762,0
2.024766,-1.952446,0.00036728382,0.6010586,0.11099529,-0.79145992,0
-1.6999855,0.55947721,-2.2410007,-0.79608345,0.17059281,-0.58064574,0
0.39830333,-2.7227857,0.18091941,0.18986295,-0.98178917,0.0065005422,0
1.4230626,-0.71009195,-0.28235531,0.6010586,0.11099529,-0.79145992,0
0.76708257,-2.2043529,1.5368931,-0.6010586,-0.11099529,0.79145992,0
-0.97981298,1.0601717,0.66806817,-0.6010586,-0.11099529,0.79145992,0
-1.3091342,0.15514827,0.29105014,-0.6010586,-0.11099529,0.79145992,0
-0.45944118,1.3071086,-1.4290911,0.6010586,0.11099529,-0.79145992,0
1.5761814,1.1022601,2.0395162,0.69216037,0.42279786,0.58494115,0
-2.4464514,-1.3132517,-0.77859318,-0.6010586,-0.11099529,0.79145992,0
-1.7849262,-0.48114485,-2.1065996,-0.76731735,-0.19679916,-0.61032325,0
0.40771902,-2.7067204,0.57463145,0.25976723,-0.96367073,0.062128961,0
-2.2348714,-1.1733037,-0.59828591,-0.6010586,-0.11099529,0.79145992,0
-1.5819157,1.6698865,0.29632008,-0.6010586,-0.11099529,0.79145992,0
-0.69215977,1.1787562,0.90315092,-0.6010586,-0.11099529,0.79145992,0
1.3922892,1.1708691,2.2040303,0.67624301,0.45715576,0.57767147,0
0.63766271,1.3861582,-0.58483148,0.6010586,0.11099529,-0.79145992,0
-2.5328908,0.31191468,-0.61632264,-0.6010586,-0.11099529,0.79145992,0
1.7385381,2.1125393,0.74421501,0.481291,0.74032903,0.46933144,0
1.0731112,-0.83189607,-0.56520104,0.6010586,0.11099529,-0.79145992,0
-0.30053782,2.3441749,-1.1629758,0.6010586,0.11099529,-0.79145992,0
-1.8862536,0.10243884,-2.062577,-0.79739439,0.016663179,-0.60322857,0
-1.5322033,1.3588277,0.29044998,-0.6010586,-0.11099529,0.79145992,0
1.8620015,-0.10666955,0.1356128,0.6010586,0.11099529,-0.79145992,0
-1.8732171,2.2223125,0.082319498,-0.47475553,0.84623146,-0.24186724,0
-0.28479585,-0.40378207,0.99057865,-0.6010586,-0.11099529,0.79145992,0
-0.57464004,2.6716864,0.62283754,-0.090540774,0.99339044,0.070554674,0
2.2587097,1.5419748,0.66809261,0.6010586,0.11099529,-0.79145992,0
2.1691854,0.21156079,1.6770146,0.78879476,0.076931208,0.60982347,0
-0.89696354,-0.72930968,0.48002768,-0.6010586,-0.11099529,0.79145992,0
0.028110981,0.435736,1.3459444,-0.6010586,-0.11099529,0.79145992,0
1.8481498,-1.4164443,1.4790581,0.71948069,-0.50631261,0.47538963,0
-0.38707137,0.78461319,-1.4474068,0.6010586,0.11099529,-0.79145992,0
1.6905305,-1.7745825,1.2598151,0.65363342,-0.63812006,0.40689844,0
0.91106606,-1.2145329,1.7850518,-0.6010586,-0.11099529,0.79145992,0
0.14999533,-0.29520595,1.335999,-0.6010586,-0.11099529,0.79145992,0
1.3959537,-0.73178518,2.2209914,-0.6010586,-0.11099529,0.79145992,0
-0.045151353,-1.9370391,0.95754611,-0.6010586,-0.11099529,0.79145992,0
1.3747709,-2.4954636,-0.56941187,0.6010586,0.11099529,-0.79145992,0
0.1914131,2.7816539,-0.72802138,0.6010586,0.11099529,-0.79145992,0
-1.2108905,-0.58064282,-2.2645049,0.6010586,0.11099529,-0.79145992,0
0.47551343,2.793787,-0.51056528,0.6010586,0.11099529,-0.79145992,0
0.65175474,-0.69549173,1.6609139,-0.6010586,-0.11099529,0.79145992,0
0.82477236,-0.67431307,1.7952788,-0.6010586,-0.11099529,0.79145992,0
0.13250506,-0.22025049,-1.1937479,0.6010586,0.11099529,-0.79145992,0
1.0249691,-2.0718687,1.7513196,-0.6010586,-0.11099529,0.79145992,0
0.53455651,-0.11000508,-0.87295687,0.6010586,0.11099529,-0.79145992,0
2.2822938,0.39380944,1.5002017,0.78005815,0.13399468,0.61119133,0
-0.26661688,1.0247064,1.204717,-0.6010586,-0.11099529,0.79145992,0
-0.85885525,0.7929436,-1.8045255,0.6010586,0.11099529,-0.79145992,0
-0.50763965,-2.8378234,0.44667196,0.028206568,-0.99263829,-0.11778766,0
2.4772966,-0.49666274,1.1915277,0.79355681,-0.2004154,0.57454455,0
-1.574764,1.8227179,-1.3695812,-0.64690089,0.64909339,-0.40024662,0
-0.48559511,2.7067294,-0.055136204,-0.18798937,0.98215824,-0.0050259233,0
0.98194301,-2.5606446,-0.87687838,0.6010586,0.11099529,-0.79145992,0
0.86050868,-1.700516,1.6785026,-0.6010586,-0.11099529,0.79145992,0
1.3179722,2.5457652,0.27684355,0.29224911,0.89119774,0.34692538,0
-0.42415893,-0.29432222,-1.6268831,0.6010586,0.11099529,-0.79145992,0
-0.90812671,-2.2092197,-1.3989727,-0.39933449,-0.81611437,-0.41771945,0
-0.77915233,-0.37168372,0.61965096,-0.6010586,-0.11099529,0.79145992,0
-2.6802244,-0.44651294,-0.98064744,-0.78132892,-0.1266727,-0.61112952,0
-0.57027149,1.3268597,-1.5104892,0.6010586,0.11099529,-0.79145992,0
-0.88089037,2.4503148,-1.0574815,-0.44697458,0.86763537,-0.21776789,0
1.7335547,-1.6765205,-0.18209112,0.6010586,0.11099529,-0.79145992,0
-0.99448657,0.56058061,-1.940115,0.6010586,0.11099529,-0.79145992,0
-1.9287469,-0.9648993,-1.7084389,-0.72010934,-0.35433441,-0.59656501,0
0.51338708,-2.6320093,0.96329641,0.34973156,-0.92698538,0.13559532,0
0.81302857,-1.8335687,1.623785,-0.6010586,-0.11099529,0.79145992,0
1.767261,-2.0569906,0.58694947,0.56190956,-0.76290482,0.31974053,0
-0.81311011,1.6637204,-1.6476665,0.6010586,0.11099529,-0.79145992,0
1.7169482,0.64335275,0.13063866,0.6010586,0.11099529,-0.79145992,0
0.36801392,2.646461,0.65062332,0.13382325,0.96234947,0.23659033,0
-0.86469865,0.90013111,-1.793931,0.6010586,0.11099529,-0.79145992,0
-0.79309964,-1.3576238,-2.0561867,0.6010586,0.11099529,-0.79145992,0
1.9305861,1.9526491,0.77687943,0.53542644,0.67928803,0.50188309,0
0.81153709,1.5695534,-0.42706633,0.6010586,0.11099529,-0.79145992,0
0.90697038,-2.6277325,-0.67297769,0.15798953,-0.98726803,-0.018473446,0
1.2208906,-1.0995508,-0.49050885,0.6010586,0.11099529,-0.79145992,0
0.2389493,-1.7583497,1.1983606,-0.6010586,-0.11099529,0.79145992,0
0.44845313,2.1103268,-0.62696457,0.6010586,0.11099529,-0.79145992,0
2.255981,-0.79797876,1.3676596,0.77993119,-0.29763928,0.55056202,0
-2.5818868,0.051534653,-1.142633,-0.79859245,0.044643953,-0.60021436,0
0.04794848,-0.53430778,-1.3020064,0.6010586,0.11099529,-0.79145992,0
-0.91442013,-1.7719706,-2.1054797,-0.53362012,-0.68149006,-0.50082016,0
1.9356985,-2.1637247,-0.096903086,0.6010586,0.11099529,-0.79145992,0
-2.4773593,-1.1588652,-0.7804141,-0.6010586,-0.11099529,0.79145992,0
1.3529025,0.12544835,-0.21845992,0.6010586,0.11099529,-0.79145992,0
1.5365467,-1.6452441,-0.32731891,0.6010586,0.11099529,-0.79145992,0
-2.6952834,0.22144234,-0.9678911,-0.79882431,0.1140005,-0.59066379,0
-1.3822389,1.0012031,-2.1727922,0.6010586,0.11099529,-0.79145992,0
-0.29934072,2.1948028,1.343961,-0.6010586,-0.11099529,0.79145992,0
-1.5133157,1.2135456,0.28441912,-0.6010586,-0.11099529,0.79145992,0
-1.1987419,2.3362069,0.68075919,-0.6010586,-0.11099529,0.79145992,0
1.7602079,1.9728897,0.92983866,0.52182239,0.69557691,0.49383616,0
-1.4673208,0.25475287,0.18488716,-0.6010586,-0.11099529,0.79145992,0
-0.10869193,-2.3017883,0.8581388,-0.6010586,-0.11099529,0.79145992,0
0.95327181,-0.36554462,-0.59080899,0.6010586,0.11099529,-0.79145992,0
1.1149538,0.54561293,2.1867352,-0.6010586,-0.11099529,0.79145992,0
0.71153212,-1.9048767,-0.99027085,0.6010586,0.11099529,-0.79145992,0
0.21635132,2.807971,-0.29530883,-0.068954639,0.99381846,0.087007821,0
0.69332993,-1.9266737,-1.0071511,0.6010586,0.11099529,-0.79145992,0
1.8351725,0.42549837,0.18986973,0.6010586,0.11099529,-0.79145992,0
-1.014466,2.2202296,0.80443919,-0.6010586,-0.11099529,0.79145992,0
-1.3237263,-1.8789325,-1.5232997,-0.52538323,-0.69137877,-0.49595159,0
-0.99906999,0.36936599,0.55656439,-0.6010586,-0.11099529,0.79145992,0
-0.96690965,-0.23698163,-2.0310228,0.6010586,0.11099529,-0.79145992,0
1.8611013,1.1351421,0.30908179,0.6010586,0.11099529,-0.79145992,0
0.48387361,0.11878538,1.6476151,-0.6010586,-0.11099529,0.79145992,0
-1.1557699,1.976562,0.6629566,-0.6010586,-0.11099529,0.79145992,0
0.19000751,2.5032961,1.2845353,0.20561016,0.93549937,0.28734201,0
1.2066872,-0.94311929,-0.47935739,0.6010586,0.11099529,-0.79145992,0
-0.15774047,-0.88042098,-1.5067521,0.6010586,0.11099529,-0.79145992,0
2.5679348,-0.52049923,0.61368406,0.6010586,0.11099529,-0.79145992,0
