2.1741972,-1.4270887,2.1268456,0.97875273,-0.13728631,-0.15230121,0
1.2280262,1.6787858,1.9226739,0.20502228,0.64434654,0.73673844,0
2.270165,0.67225015,0.8512038,0.97875273,-0.13728631,-0.15230121,0
0.12281221,-0.36581153,-2.7870226,-0.16706854,-0.10332404,-0.98051637,0
1.515087,-1.278621,2.3106554,0.085938156,-0.39972878,0.91259611,0
0.68847656,2.6071262,-0.68401814,0.1008364,0.9690184,-0.22546765,0
2.0342021,-1.3962967,1.1994216,0.97875273,-0.13728631,-0.15230121,0
-1.8441713,-0.49173677,1.7236983,-0.97875273,0.13728631,0.15230121,0
-1.32978,-2.0075169,1.8655522,-0.017297387,-0.79540682,0.6058293,0
-2.0963473,-1.708645,1.2000446,-0.97875273,0.13728631,0.15230121,0
-1.6155115,-1.8128941,-1.6806366,-0.20437932,-0.71296751,-0.6707508,0
-1.4837551,2.8780761,1.0022939,-0.97875273,0.13728631,0.15230121,0
0.42010784,-2.4489872,1.3001138,-0.042765141,-0.86311424,0.50319487,0
2.0770357,2.4320202,-0.80876577,0.10674739,0.97533929,-0.19317923,0
-1.483575,2.6492133,1.2097511,-0.97875273,0.13728631,0.15230121,0
1.5433542,-0.74924731,-2.5382371,0.97875273,-0.13728631,-0.15230121,0
2.1431012,0.14240265,0.51224828,0.97875273,-0.13728631,-0.15230121,0
1.0634962,-1.6264663,-2.5531609,-0.20160791,-0.50891852,-0.83687299,0
1.750531,-1.6288918,-0.41390938,0.97875273,-0.13728631,-0.15230121,0
-0.26739931,-1.8346758,-2.0534642,-0.20504235,-0.65203321,-0.72993863,0
1.2942212,-2.1961055,1.6705292,0.0030333996,-0.73299617,0.68022609,0
2.1094618,0.07025218,2.4377575,0.16782293,0.10960166,0.97970569,0
0.1918813,-0.15530652,2.7468781,0.14424103,-0.066920176,0.98727727,0
-1.8808904,1.9292355,-0.69457108,-0.97875273,0.13728631,0.15230121,0
1.6246421,1.7011371,-2.2130408,-0.012000561,0.70314515,-0.71094525,0
1.85379,-1.9801915,1.8590453,0.032356799,-0.63005352,0.77587736,0
2.0512815,0.86796021,-0.73185128,0.97875273,-0.13728631,-0.15230121,0
-2.050216,-1.643131,-1.7221901,-0.20498277,-0.67332339,-0.71036458,0
-2.3981678,-2.3581133,-0.15414476,-0.97875273,0.13728631,0.15230121,0
1.8199977,-0.63464117,-0.86371619,0.97875273,-0.13728631,-0.15230121,0
-2.4689126,-2.2115088,-0.74093199,-0.97875273,0.13728631,0.15230121,0
-0.1019038,-2.3873427,-1.4324024,-0.19585139,-0.84585088,-0.49616385,0
2.0583267,1.4815798,-1.2397015,0.97875273,-0.13728631,-0.15230121,0
-0.85122085,1.6896379,-2.1288362,-0.045850158,0.57742763,-0.81515348,0
2.0696697,0.025766611,0.14548379,0.97875273,-0.13728631,-0.15230121,0
0.0054063797,-1.1949272,2.4856384,0.076432049,-0.44496411,0.892281,0
-1.5986047,2.9402804,0.20814919,-0.97875273,0.13728631,0.15230121,0
-2.2864101,-0.79905081,-0.84129989,-0.97875273,0.13728631,0.15230121,0
-1.6197946,1.6601958,1.2258561,-0.97875273,0.13728631,0.15230121,0
0.49145335,0.011775374,-2.8560312,-0.14672375,0.049929522,-0.98791671,0
1.8340261,-0.040320516,-1.3092911,0.97875273,-0.13728631,-0.15230121,0
-1.7381814,2.804189,-0.5661546,-0.97875273,0.13728631,0.15230121,0
1.1325284,-2.6887937,-1.377528,-0.18873373,-0.89350432,-0.40746742,0
1.6830318,-1.8820989,-0.61944151,0.97875273,-0.13728631,-0.15230121,0
-2.0224128,0.75594878,-0.54643726,-0.97875273,0.13728631,0.15230121,0
-1.3641243,-2.4791076,-0.60798609,-0.17494464,-0.94653338,-0.27105153,0
-0.33364278,0.0090341568,2.833312,0.1489217,-0.034621425,0.98824292,0
-0.68235052,1.3834032,2.5989628,0.19804132,0.44047308,0.87565017,0
1.9288853,2.1986704,1.0257516,0.19252157,0.87089705,0.4521879,0
2.1407766,1.4518681,-0.68306041,0.97875273,-0.13728631,-0.15230121,0
0.94413948,-0.87888515,-2.8429427,-0.18261252,-0.24582328,-0.95195782,0
0.20323223,-1.6559429,-2.3210022,-0.20361604,-0.56323445,-0.80081695,0
-2.4902501,-1.1920196,-1.7970374,-0.97875273,0.13728631,0.15230121,0
2.0108917,-0.58432174,0.31769103,0.97875273,-0.13728631,-0.15230121,0
0.95281363,-2.2431726,-2.0029006,-0.20360619,-0.73854071,-0.64273041,0
2.005137,-0.43091083,0.14242354,0.97875273,-0.13728631,-0.15230121,0
0.28796959,-2.5688965,1.0513799,-0.064127147,-0.91046107,0.40859318,0
1.4873276,-2.872622,0.49693614,-0.090685189,-0.95600694,0.27897507,0
1.7416995,-0.83678889,-1.184675,0.97875273,-0.13728631,-0.15230121,0
-1.6579533,-2.064512,1.7723081,-0.03015393,-0.83106768,0.55535334,0
-2.251168,-0.64084172,-0.7574321,-0.97875273,0.13728631,0.15230121,0
0.662422,2.3202589,1.3253191,0.19533849,0.85011858,0.48902088,0
1.8638191,0.30430424,-1.4284787,0.97875273,-0.13728631,-0.15230121,0
-1.3220738,1.0852872,-2.4073386,-0.097674608,0.34091663,-0.93500572,0
-1.8782339,-0.86729729,1.8433321,-0.97875273,0.13728631,0.15230121,0
-2.1800437,0.41264391,-1.2499831,-0.97875273,0.13728631,0.15230121,0
-1.4192722,0.12755167,3.0008554,0.14719689,-0.046655878,0.98800653,0
1.6626389,-1.9503514,-0.68897283,0.97875273,-0.13728631,-0.15230121,0
-2.1629505,1.2519245,-1.8966731,-0.97875273,0.13728631,0.15230121,0
-1.8682415,0.76728714,0.43411213,-0.97875273,0.13728631,0.15230121,0
1.4022291,1.9719459,-1.9096897,0.014274478,0.78659111,-0.61730921,0
-0.31136584,2.7882776,0.53046882,0.16023368,0.9755621,0.1503458,0
1.8398652,1.1807296,-2.372438,0.97875273,-0.13728631,-0.15230121,0
0.33157945,0.3552545,-2.796181,-0.12914085,0.16421019,-0.97793555,0
1.7486157,-0.19226801,-1.721207,0.97875273,-0.13728631,-0.15230121,0
1.8600025,2.1688454,1.1097481,0.19456422,0.85625172,0.47851652,0
0.63507545,1.5674642,2.1697927,0.20391284,0.57377756,0.79322076,0
1.6940958,0.20158339,-2.426599,0.97875273,-0.13728631,-0.15230121,0
0.61343694,2.3813519,-1.3192476,0.054224551,0.88962919,-0.45345309,0
0.68788552,-2.3126729,1.5221231,-0.019976676,-0.80308348,0.59553152,0
-1.8129836,0.43057501,1.0927389,-0.97875273,0.13728631,0.15230121,0
1.1001003,-2.8494763,0.44130498,-0.09848994,-0.96624672,0.23804897,0
-2.3146741,-1.4688172,-0.41920233,-0.97875273,0.13728631,0.15230121,0
-1.2595711,-2.5846121,0.43172336,-0.12214333,-0.98697209,0.10472447,0
-1.8355067,1.66638,-2.0819516,-0.059493363,0.52067935,-0.851677,0
-2.154176,-1.3210574,0.47903505,-0.97875273,0.13728631,0.15230121,0
0.39537191,-1.7590383,2.0993524,0.033891737,-0.6242379,0.78049892,0
1.4918313,-0.21174765,2.5502656,0.15069994,-0.022044934,0.98833382,0
-1.7704523,2.3883352,-1.4518859,0.010930121,0.77664858,-0.62983948,0
-2.5054021,-1.43301,-1.6771784,-0.97875273,0.13728631,0.15230121,0
1.9759429,0.63416696,-1.0052657,0.97875273,-0.13728631,-0.15230121,0
2.2771964,-0.024385452,1.5243468,0.97875273,-0.13728631,-0.15230121,0
-1.6162418,-0.11496723,2.848846,-0.97875273,0.13728631,0.15230121,0
1.4442888,0.78705776,2.3962073,0.19042546,0.33315992,0.92344069,0
0.65587312,-1.276021,-2.6442611,-0.19565471,-0.40311033,-0.89399195,0
2.1065583,0.42816746,0.01981467,0.97875273,-0.13728631,-0.15230121,0
1.7081929,-1.0188587,-1.2358822,0.97875273,-0.13728631,-0.15230121,0
1.5042812,2.3735399,-1.1963793,0.074122608,0.92943591,-0.36146197,0
1.5758809,2.3049994,-1.3468771,0.063710451,0.90962464,-0.41051689,0
-0.30071211,-2.7083347,-0.39489293,-0.15833628,-0.97797775,-0.13597476,0
-2.1758118,-0.13326907,-0.7306934,-0.97875273,0.13728631,0.15230121,0
1.363474,-1.0104692,2.4289222,0.10313332,-0.31236395,0.94434774,0
2.2779391,-0.63505793,2.0795879,0.97875273,-0.13728631,-0.15230121,0
-2.1406536,-2.1987078,1.357062,-0.97875273,0.13728631,0.15230121,0
-0.85857797,-1.3034248,-2.2857316,-0.20071298,-0.48961204,-0.84852499,0
-0.21163511,1.7270373,2.2714398,0.20427479,0.58856595,0.78221619,0
-1.4978131,2.2130482,1.5114155,-0.97875273,0.13728631,0.15230121,0
1.9825437,0.20067692,-0.57209098,0.97875273,-0.13728631,-0.15230121,0
-2.4690559,-0.86807859,-1.9528387,-0.97875273,0.13728631,0.15230121,0
-1.3536408,2.2843804,2.0823796,0.20379981,0.73305345,0.64892089,0
-1.4967716,1.3608825,2.286262,-0.97875273,0.13728631,0.15230121,0
-2.0414577,1.0042377,-0.89263916,-0.97875273,0.13728631,0.15230121,0
2.4483533,1.2899215,1.4395409,0.97875273,-0.13728631,-0.15230121,0
1.6390672,-1.1880039,2.3360434,0.093637526,-0.36153322,0.92764539,0
-2.4636669,-1.7733144,-1.4604578,-0.20347738,-0.74196237,-0.63881826,0
-1.7716613,1.0538094,0.79650342,-0.97875273,0.13728631,0.15230121,0
2.1511576,0.84892821,-0.072848618,0.97875273,-0.13728631,-0.15230121,0
-2.0555091,-0.010781765,-0.067988157,-0.97875273,0.13728631,0.15230121,0
2.0554092,0.18154752,-0.086584061,0.97875273,-0.13728631,-0.15230121,0
1.5845854,-2.2627106,-0.90901256,0.97875273,-0.13728631,-0.15230121,0
-2.3875442,-2.0232401,-0.38773119,-0.97875273,0.13728631,0.15230121,0
-1.9166439,-1.6730921,-1.7322733,-0.20495118,-0.67740977,-0.70647794,0
2.0446281,1.906404,-1.7106758,0.97875273,-0.13728631,-0.15230121,0
-0.079038024,0.11617652,2.7950153,0.15597349,0.016336717,0.98762625,0
1.5476444,-2.1216478,-1.2735679,0.97875273,-0.13728631,-0.15230121,0
1.2353573,1.5625134,-2.3269587,-0.030900478,0.63553172,-0.77145624,0
1.7925041,-1.3482711,-0.39712447,0.97875273,-0.13728631,-0.15230121,0
1.8588002,2.5158551,-0.18636727,0.14124465,0.98985451,0.015430719,0
-2.0079126,-0.42596316,0.61213607,-0.97875273,0.13728631,0.15230121,0
1.7762173,-0.65510452,2.4674842,0.12889737,-0.16570199,0.97771603,0
2.3114295,-0.71640706,2.3681393,0.97875273,-0.13728631,-0.15230121,0
2.0189779,-0.72204685,0.49380356,0.97875273,-0.13728631,-0.15230121,0
-1.6537871,2.5040359,0.24675786,-0.97875273,0.13728631,0.15230121,0
-0.24602878,0.22144203,-2.7338636,-0.14113191,0.087771542,-0.98609239,0
-2.2429295,-0.63394487,-0.7107048,-0.97875273,0.13728631,0.15230121,0
-0.8128292,-1.9010003,-1.8312232,-0.20457518,-0.70403695,-0.68005949,0
1.9223235,1.6364191,-2.2532897,0.97875273,-0.13728631,-0.15230121,0
1.5053263,-2.1649611,1.7011714,0.0094435811,-0.7118023,0.7023164,0
0.94317055,-1.9493005,1.918479,0.023165941,-0.66397852,0.74739277,0
1.1996691,-0.075495839,-2.9655983,-0.1460996,0.054230332,-0.98778248,0
-0.082326412,-2.261951,-1.6335547,-0.2003288,-0.79862744,-0.56750578,0
0.80524266,2.6021099,-0.65122682,0.10415399,0.97268462,-0.20745263,0
0.25623894,2.1326668,-1.7313945,0.014271736,0.78658319,-0.61731964,0
-2.0483475,0.73372865,-0.69307482,-0.97875273,0.13728631,0.15230121,0
-2.2666917,0.56263471,-1.9420222,-0.97875273,0.13728631,0.15230121,0
-1.870762,-0.819332,1.8481126,-0.97875273,0.13728631,0.15230121,0
-2.0896199,-0.1858896,-0.12935472,-0.97875273,0.13728631,0.15230121,0
-1.8586299,-1.0156289,2.1030228,-0.97875273,0.13728631,0.15230121,0
1.7932844,2.4864666,0.24375665,0.16212207,0.97289777,0.16488349,0
0.35080549,1.5345567,2.2648687,0.20311251,0.54742396,0.81183296,0
-1.2785635,-0.38690543,-2.5371654,-0.17598046,-0.18122321,-0.96756881,0
1.9266899,-0.52202213,-0.27958256,0.97875273,-0.13728631,-0.15230121,0
-2.0692434,-1.8224201,1.4767836,-0.97875273,0.13728631,0.15230121,0
-2.1191626,1.1673911,-1.5390733,-0.97875273,0.13728631,0.15230121,0
-2.2960961,-0.065714836,-1.5645854,-0.97875273,0.13728631,0.15230121,0
-1.6883457,2.6310506,-0.089822412,-0.97875273,0.13728631,0.15230121,0
-2.2437158,0.35042334,-1.603079,-0.97875273,0.13728631,0.15230121,0
0.12129211,-0.64496112,-2.7427008,-0.17832902,-0.20333108,-0.96273327,0
0.72537535,-0.95443213,-2.7791643,-0.18619126,-0.28395125,-0.94058728,0
2.3899765,1.3913788,0.97293222,0.97875273,-0.13728631,-0.15230121,0
-2.449831,-0.80104709,-1.8897159,-0.97875273,0.13728631,0.15230121,0
-1.6912861,2.1112146,-1.7500602,-0.017562747,0.68391204,-0.72935331,0
-1.4927478,1.6349461,2.0650756,-0.97875273,0.13728631,0.15230121,0
0.87927783,2.2763009,-1.4857589,0.044130087,0.86640424,-0.49738938,0
-0.24421865,-0.5165171,-2.7009695,-0.17537901,-0.1756812,-0.96869951,0
-2.076967,-0.043730021,-0.17618623,-0.97875273,0.13728631,0.15230121,0
1.5220622,2.5051689,-0.74560404,0.10526055,0.97384042,-0.20138292,0
1.8100951,-0.70014668,-0.86830664,0.97875273,-0.13728631,-0.15230121,0
-2.0787096,0.83521891,-2.3935182,-0.12071198,0.21462101,-0.96920925,0
1.6800938,2.5411413,-0.22772521,0.13750613,0.99045879,-0.0091388226,0
1.5148249,-2.9437118,-0.74346137,0.97875273,-0.13728631,-0.15230121,0
-1.6746757,1.4691819,1.0453519,-0.97875273,0.13728631,0.15230121,0
1.8805456,1.3781493,1.9864874,0.20376773,0.56848258,0.79706097,0
-2.2105725,-1.6628387,0.42469278,-0.97875273,0.13728631,0.15230121,0
1.5400071,-1.1545788,2.3589861,0.094999909,-0.35462242,0.93017119,0
2.1315353,2.3736429,0.4809258,0.1746366,0.94736838,0.26831925,0
-0.11056769,0.72670907,2.7220867,0.1813699,0.23317806,0.95537066,0
-0.39457464,-1.1865273,-2.4538941,-0.19702265,-0.42395446,-0.88399386,0
2.2127128,-0.83102298,1.8370606,0.97875273,-0.13728631,-0.15230121,0
0.62397206,0.64279157,-2.7659724,-0.10898364,0.28085557,-0.95354223,0
-2.0885935,-2.3163841,1.2211012,-0.078923047,-0.93778223,0.33813575,0
1.5904317,-2.1905313,-0.93650508,0.97875273,-0.13728631,-0.15230121,0
0.43593276,1.5076236,2.2616591,0.20292397,0.54199851,0.81551206,0
-1.1381899,-2.1154864,1.7237687,-0.027329326,-0.82348901,0.5666737,0
0.59326768,1.9932973,-1.8952882,0.0037306547,0.75457233,-0.65620637,0
-1.2279822,0.22897756,2.9741764,0.15363112,-0.00091931224,0.98812801,0
-2.123909,0.9311204,-2.3651075,-0.11517709,0.24641261,-0.96229684,0
1.5032256,-1.4153402,-2.1956961,0.97875273,-0.13728631,-0.15230121,0
1.7805555,2.1170907,-1.6816595,0.039510965,0.85512823,-0.51690894,0
1.6131961,-1.5129416,-1.4009999,0.97875273,-0.13728631,-0.15230121,0
1.696897,2.4525733,0.48194265,0.17190349,0.95428461,0.24452049,0
-1.679636,1.3174365,1.1502596,-0.97875273,0.13728631,0.15230121,0
-1.9162552,-0.011065245,0.8271727,-0.97875273,0.13728631,0.15230121,0
-0.49646783,-1.7528139,2.1376462,0.022636831,-0.66588497,0.74571115,0
2.0814185,0.56469166,-0.26480836,0.97875273,-0.13728631,-0.15230121,0
-1.9683156,-2.2369843,1.4362679,-0.061541438,-0.90521264,0.42047936,0
1.4966367,-1.253463,-2.3839581,0.97875273,-0.13728631,-0.15230121,0
-0.16420031,0.67576122,-2.6649783,-0.11394811,0.25333926,-0.96064299,0
-1.7701328,1.2551752,0.62481201,-0.97875273,0.13728631,0.15230121,0
-2.1935933,0.67124271,-1.5701607,-0.97875273,0.13728631,0.15230121,0
2.3140404,-0.42644477,2.1235433,0.97875273,-0.13728631,-0.15230121,0
2.0525353,2.0616639,1.2140009,0.19792175,0.82662588,0.52679855,0
-1.4559809,-2.4263935,1.0614836,-0.083278716,-0.94490755,0.31656685,0
-1.7100952,1.4772359,-2.1983731,-0.073128581,0.46020898,-0.88479388,0
-2.3046703,-0.20508599,-1.4940571,-0.97875273,0.13728631,0.15230121,0
0.79690725,-0.2825141,-2.9048553,-0.15907985,-0.039771684,-0.98646432,0
-0.64101458,0.59212333,-2.6260822,-0.12321621,0.19990507,-0.97203702,0
0.56359076,1.8657291,1.9400828,0.20494208,0.67844695,0.70548475,0
0.96678007,-0.095791817,-2.9317598,-0.14881754,0.035352416,-0.98823261,0
-1.9222407,2.2087328,-1.2122487,-0.97875273,0.13728631,0.15230121,0
-0.67289364,-2.505301,-0.92906642,-0.18306094,-0.91966289,-0.3474322,0
1.4872913,-1.0491496,-2.6281865,0.97875273,-0.13728631,-0.15230121,0
2.0083442,-1.8204644,1.4155936,0.97875273,-0.13728631,-0.15230121,0
1.9080703,1.0982668,-1.8597894,0.97875273,-0.13728631,-0.15230121,0
1.5990038,-2.8920093,-0.24909639,0.97875273,-0.13728631,-0.15230121,0
0.40545368,-2.0247571,1.8579575,0.0079775453,-0.71671385,0.69732201,0
1.7055881,-1.4371035,-0.87561047,0.97875273,-0.13728631,-0.15230121,0
1.0488341,0.054523587,-2.934005,-0.14034018,0.093008742,-0.98572522,0
2.035938,-0.7665571,2.4133017,0.12448537,-0.19236404,0.97339588,0
0.87926352,2.6399775,-0.35283864,0.12331021,0.98754311,-0.097740248,0
1.5247315,-1.2787573,-2.1806083,0.97875273,-0.13728631,-0.15230121,0
0.0073339939,-2.7664707,-0.31307316,-0.15203232,-0.98429024,-0.089772493,0
2.2213483,1.4305496,-0.14605528,0.97875273,-0.13728631,-0.15230121,0
-1.2150664,-1.672905,2.2306299,0.020595253,-0.67319363,0.73917943,0
-2.4205167,-0.14896917,-2.3728769,-0.17290784,-0.15337841,-0.97292256,0
0.92368937,-2.78932,0.59903866,-0.089697599,-0.95460272,0.28405637,0
-1.5138954,1.0789163,2.4303846,-0.97875273,0.13728631,0.15230121,0
-2.326818,-0.71105778,-1.1802979,-0.97875273,0.13728631,0.15230121,0
1.8134661,0.026353121,-1.5015192,0.97875273,-0.13728631,-0.15230121,0
2.1420505,2.1002905,-1.2593704,0.97875273,-0.13728631,-0.15230121,0
1.7467715,-1.9626291,-0.13723505,0.97875273,-0.13728631,-0.15230121,0
-1.9141532,0.35736704,0.50857091,-0.97875273,0.13728631,0.15230121,0
2.0583844,-0.13580704,0.21860224,0.97875273,-0.13728631,-0.15230121,0
0.89381289,-2.730166,0.76954406,-0.078021646,-0.93625396,0.34255093,0
1.4325223,2.4125321,0.77356219,0.18171245,0.92486358,0.33407813,0
-1.4183691,1.848441,2.3506188,-0.97875273,0.13728631,0.15230121,0
-1.9856863,-2.1104355,1.6763566,-0.042609394,-0.86273646,0.50385553,0
1.6600935,2.3837862,-1.1339393,0.080389977,0.94023007,-0.33091527,0
-0.35312366,-2.5544779,-0.96730137,-0.18264753,-0.92129308,-0.34330595,0
2.1429644,2.0124643,-1.1743296,0.97875273,-0.13728631,-0.15230121,0
1.8239499,-0.17779195,2.4992111,0.15466926,0.0066859573,0.98794383,0
1.7604432,-0.11163592,-1.7178814,0.97875273,-0.13728631,-0.15230121,0
-1.7015485,1.7471981,0.62204838,-0.97875273,0.13728631,0.15230121,0
-0.8261441,-2.2275839,1.5711505,-0.036308706,-0.84707588,0.53023028,0
1.4958789,-2.8934565,-0.91051698,0.97875273,-0.13728631,-0.15230121,0
0.64212757,0.053526372,2.6818914,0.15780583,0.030081663,0.98701197,0
0.14115858,-2.5316975,1.1105449,-0.061346948,-0.90481246,0.42136794,0
0.47296727,0.60688949,-2.7586374,-0.1126489,0.26061222,-0.95884907,0
1.0224704,1.9668971,-1.9224861,0.0075283051,0.76633155,-0.64240134,0
-2.3430035,-0.17575788,-2.3823822,-0.17354693,-0.15907654,-0.97189325,0
-1.8304231,0.24664199,-2.4978311,-0.15132919,0.017551787,-0.98832762,0
-0.29127634,-1.4150033,2.3835692,0.05561024,-0.53720385,0.84161747,0
2.0805159,-1.5635037,1.6477739,0.97875273,-0.13728631,-0.15230121,0
0.25221819,1.5180668,2.3003569,0.20272321,0.53645366,0.81921965,0
2.0950701,0.97995615,-0.55140221,0.97875273,-0.13728631,-0.15230121,0
-1.0986195,0.53433788,2.9353445,0.16842434,0.11464415,0.97902513,0
-1.826005,-0.59879649,1.9369464,-0.97875273,0.13728631,0.15230121,0
-0.096425474,-1.8705864,-2.0693486,-0.20504415,-0.65637076,-0.72604054,0
-0.46576858,0.51441485,2.8279238,0.17130333,0.13927475,0.97532457,0
-1.9186468,-0.70120478,1.4339033,-0.97875273,0.13728631,0.15230121,0
-2.0064869,0.40860677,-0.13099301,-0.97875273,0.13728631,0.15230121,0
1.7342398,-0.54304338,-1.4973992,0.97875273,-0.13728631,-0.15230121,0
0.27228165,2.6589069,-0.64697492,0.09901154,0.96687531,-0.23526362,0
-0.63456988,2.2352695,1.9102602,0.20306388,0.7519753,0.6271351,0
0.89166415,-0.041240513,2.6442368,0.15494934,0.0087494925,0.98788381,0
-1.5955148,1.3096364,1.6978897,-0.97875273,0.13728631,0.15230121,0
-1.5645105,-2.3713245,1.1895792,-0.075303793,-0.93153679,0.35576504,0
-1.5987341,2.9610124,-0.16413379,0.11134058,0.97956926,-0.16747406,0
-2.0529461,1.4697695,-1.3861048,-0.97875273,0.13728631,0.15230121,0
-1.1770476,-2.3356051,1.3394157,-0.059512734,-0.90099984,0.4297182,0
-1.5162058,2.9216573,0.75446832,-0.97875273,0.13728631,0.15230121,0
-2.4249899,-1.854526,-0.78045547,-0.97875273,0.13728631,0.15230121,0
-2.0615635,1.6630983,-1.6157529,-0.97875273,0.13728631,0.15230121,0
1.7450049,2.3559675,-1.1911914,0.077225387,0.93488914,-0.34643707,0
-2.3300231,0.15640521,-2.4182944,-0.15906516,-0.039659206,-0.98647135,0
-2.415549,-0.36655521,-2.06106,-0.97875273,0.13728631,0.15230121,0
2.1319282,0.40768588,2.3742256,0.18121018,0.2315729,0.95579123,0
2.281827,1.1569858,0.48920083,0.97875273,-0.13728631,-0.15230121,0
0.42947638,0.049016833,2.7158146,0.15617326,0.017824322,0.98756909,0
2.0869868,-0.67230725,0.88602459,0.97875273,-0.13728631,-0.15230121,0
2.0827277,1.8941765,-1.4548109,0.97875273,-0.13728631,-0.15230121,0
-1.2698624,2.881197,0.89286244,0.16976368,0.95912498,0.22640622,0
-2.2651768,0.29871106,-1.6943837,-0.97875273,0.13728631,0.15230121,0
1.568011,-0.63629615,-2.4815981,0.97875273,-0.13728631,-0.15230121,0
-1.7883604,0.64537704,1.0573542,-0.97875273,0.13728631,0.15230121,0
-1.6356306,-1.1638969,-2.1821711,-0.20016178,-0.47858626,-0.85492152,0
-1.6670444,2.2003193,-1.6630797,-0.0081235766,0.71622616,-0.69782102,0
-2.0325961,-0.012208939,0.080545843,-0.97875273,0.13728631,0.15230121,0
0.57923508,-2.8024228,0.40634394,-0.10604906,-0.97464317,0.19703919,0
-0.71923614,-1.722753,2.1712508,0.022521436,-0.66630012,0.74534369,0
-0.22678213,-0.90617365,-2.6037118,-0.18887979,-0.31459144,-0.93024576,0
-1.9352953,1.6137538,-0.75982296,-0.97875273,0.13728631,0.15230121,0
2.4039185,2.1055243,1.0016263,0.19392502,0.86105847,0.4700762,0
1.8302965,-0.43033183,-0.98169804,0.97875273,-0.13728631,-0.15230121,0
-0.17167783,-1.3891176,2.3916636,0.059142232,-0.52218592,0.85077858,0
-1.9388864,2.063899,-1.1886668,-0.97875273,0.13728631,0.15230121,0
2.0496089,1.566288,-1.3720829,0.97875273,-0.13728631,-0.15230121,0
-2.1964006,-1.32252,0.20900035,-0.97875273,0.13728631,0.15230121,0
-0.73965931,2.8262234,0.72166348,0.16590363,0.96671969,0.19475394,0
1.5283275,-1.742493,-1.7394805,0.97875273,-0.13728631,-0.15230121,0
1.724615,-0.74928713,-1.3733428,0.97875273,-0.13728631,-0.15230121,0
0.92739576,1.7769746,1.9190576,0.20502776,0.6647169,0.71841174,0
-2.027302,0.54813218,-0.39052984,-0.97875273,0.13728631,0.15230121,0
0.44332242,-2.7142622,-0.95066202,-0.17737651,-0.93951237,-0.29300904,0
0.4688561,-1.7370782,2.113348,0.036846817,-0.61291873,0.78928643,0
-2.0309029,-0.36823142,0.41235155,-0.97875273,0.13728631,0.15230121,0
-2.4128394,-1.4787966,-1.0410583,-0.97875273,0.13728631,0.15230121,0
-2.1376657,-0.024460316,-0.58363158,-0.97875273,0.13728631,0.15230121,0
1.6275216,1.9598131,1.50682,0.20231983,0.76729417,0.60854465,0
-2.1702249,-1.6186204,-1.7107644,-0.20500056,-0.67052913,-0.71299773,0
-0.46860373,0.60518658,-2.6449866,-0.12096673,0.21313381,-0.96950579,0
1.893465,1.0539531,-1.9137037,0.97875273,-0.13728631,-0.15230121,0
1.6191409,-0.77007163,-2.0324302,0.97875273,-0.13728631,-0.15230121,0
1.3092569,-0.080250263,-2.9820478,-0.14554816,0.058013692,-0.9876489,0
0.52158302,0.17518145,2.6954641,0.1626429,0.06749288,0.98437405,0
1.4723538,-2.7044535,-1.2320688,0.97875273,-0.13728631,-0.15230121,0
-2.2035456,0.36984062,-1.362433,-0.97875273,0.13728631,0.15230121,0
0.64990759,-2.8121848,-0.71484387,-0.16622013,-0.96614826,-0.19730335,0
1.8318579,-2.4943357,0.88885611,0.97875273,-0.13728631,-0.15230121,0
-2.0969791,1.2987127,-1.514889,-0.97875273,0.13728631,0.15230121,0
2.0091262,0.35917068,-0.54413033,0.97875273,-0.13728631,-0.15230121,0
-0.048100144,-1.5097079,-2.3559124,-0.20220555,-0.52307534,-0.82795244,0
2.1834345,-1.1384618,1.926033,0.97875273,-0.13728631,-0.15230121,0
0.65077209,-2.7566931,-0.9388938,-0.17564034,-0.9446041,-0.27726138,0
1.94664,1.4190866,-1.9011147,0.97875273,-0.13728631,-0.15230121,0
2.0587597,-0.56587076,0.60867876,0.97875273,-0.13728631,-0.15230121,0
1.8371381,0.28856027,-1.5857506,0.97875273,-0.13728631,-0.15230121,0
0.96572745,-2.3715622,-1.847976,-0.20128435,-0.78489482,-0.58602458,0
-1.9076561,-0.7602824,1.5577885,-0.97875273,0.13728631,0.15230121,0
-1.6448156,1.8615006,0.88360441,-0.97875273,0.13728631,0.15230121,0
-1.2496902,0.75314355,-2.5147202,-0.11861771,0.22676679,-0.96669894,0
1.2695376,0.95236683,2.3681209,0.19430864,0.38381428,0.90273523,0
-0.84848905,-2.0125942,-1.6969035,-0.20329213,-0.74661541,-0.63343334,0
2.0484207,1.2035253,-1.0527197,0.97875273,-0.13728631,-0.15230121,0
-2.0879946,-0.2462759,-0.064477384,-0.97875273,0.13728631,0.15230121,0
0.25125718,2.7370605,0.18064034,0.1473701,0.98743927,0.056972772,0
-2.0519872,-0.82003754,-2.2558451,-0.1937193,-0.37568694,-0.90627408,0
-1.0465306,1.1724777,-2.4008989,-0.088852644,0.38543916,-0.91844529,0
-0.29310489,2.6649106,1.0129691,0.18063915,0.92877054,0.32365835,0
2.4953225,1.8516297,1.2350523,0.97875273,-0.13728631,-0.15230121,0
-0.028419495,-2.7588179,0.22549123,-0.12301177,-0.98740155,0.099530235,0
1.9385228,-2.375073,1.4668243,0.97875273,-0.13728631,-0.15230121,0
-0.95998073,2.7362986,1.1779509,0.18287474,0.92040151,0.34556907,0
1.8356169,-0.4708966,-0.91094106,0.97875273,-0.13728631,-0.15230121,0
1.0293103,1.9578543,-1.9331503,0.0066129565,0.76352054,-0.64574981,0
-0.71430421,-2.6177716,-0.51733649,-0.16687155,-0.96494436,-0.20257449,0
2.4427423,0.4730233,2.1398442,0.97875273,-0.13728631,-0.15230121,0
1.0950146,-2.8887422,-0.70974445,-0.16287953,-0.97175294,-0.1707828,0
1.8508422,0.17598808,-1.3962077,0.97875273,-0.13728631,-0.15230121,0
0.36379671,2.3918371,1.3188064,0.19391739,0.86111462,0.46997631,0
0.23844671,-2.809052,-0.18213725,-0.14348203,-0.98918563,-0.030412495,0
-0.79706872,-1.0637718,2.6196978,0.0778386,-0.43839967,0.89540333,0
2.3575642,2.4259171,0.028113127,0.15610147,0.98050594,0.11933404,0
-1.4779856,0.54787636,2.9987309,0.16672182,0.10045604,0.98087341,0
-2.188843,-0.71001005,-0.2945556,-0.97875273,0.13728631,0.15230121,0
-2.2972746,0.1445713,-1.7617146,-0.97875273,0.13728631,0.15230121,0
0.54369295,2.2791893,1.439512,0.19770649,0.82879621,0.52345896,0
-0.48046172,0.21645528,-2.7004943,-0.14315087,0.074283838,-0.98690933,0
2.0472043,1.6338573,-1.4484431,0.97875273,-0.13728631,-0.15230121,0
1.7821389,-1.1320953,-0.65860116,0.97875273,-0.13728631,-0.15230121,0
-2.2159884,-0.65561736,-2.284375,-0.18973926,-0.32482105,-0.92654765,0
-1.7738893,2.4467158,-1.377522,0.017761052,0.79674435,-0.60405552,0
1.6203141,-2.9810944,-0.031845331,0.97875273,-0.13728631,-0.15230121,0
-1.4875957,0.65522039,2.9813223,-0.97875273,0.13728631,0.15230121,0
0.71377188,1.7024698,2.0440671,0.20489755,0.62674636,0.75180203,0
1.5252205,-0.87003493,-2.545893,0.97875273,-0.13728631,-0.15230121,0
1.7010579,-1.8059521,-0.57223892,0.97875273,-0.13728631,-0.15230121,0
-2.461333,-2.001996,-0.88108015,-0.97875273,0.13728631,0.15230121,0
-0.82207853,1.2131902,2.7071867,0.19345455,0.37209383,0.90781152,0
1.9650857,0.91351366,-1.3268452,0.97875273,-0.13728631,-0.15230121,0
2.3569202,0.92423511,1.1815869,0.97875273,-0.13728631,-0.15230121,0
0.28381085,-1.8614973,2.016911,0.022711039,-0.66561759,0.74594748,0
-0.75706398,-1.8486109,2.0522141,0.0093410611,-0.71214736,0.70196807,0
-0.16229504,-1.66548,-2.2200758,-0.20419961,-0.58526474,-0.78470886,0
-2.0258117,1.2733636,-1.0346866,-0.97875273,0.13728631,0.15230121,0
-1.7568084,1.9086032,0.12143064,-0.97875273,0.13728631,0.15230121,0
1.9824048,2.4854336,-0.52256525,0.12342411,0.98759639,-0.097055987,0
-0.48162651,2.7916791,0.67326021,0.16553694,0.96737093,0.19181049,0
1.292814,-2.9172735,-0.7360276,-0.16267425,-0.97206759,-0.16917974,0
-1.5901852,0.6338371,2.3413143,-0.97875273,0.13728631,0.15230121,0
0.23412538,-2.7886937,-0.43751419,-0.15639621,-0.98019147,-0.12151176,0
0.43923759,-2.8324354,-0.31192958,-0.14859027,-0.9867304,-0.065453142,0
-0.32996142,0.20404804,2.8326879,0.15847284,0.035140727,0.98673785,0
-1.9941908,-1.3569462,1.5395184,-0.97875273,0.13728631,0.15230121,0
-0.30324495,-0.19522858,2.8143401,0.13837746,-0.10586928,0.98470485,0
-0.27048218,0.30725291,-2.7214901,-0.13664225,0.11709842,-0.98367536,0
1.3891593,-2.6216917,-1.6205232,-0.19470322,-0.85517657,-0.48037899,0
0.54057968,-1.3451464,-2.5860562,-0.19763988,-0.43384895,-0.87904143,0
-1.4404504,-1.5786293,2.3211198,0.026660979,-0.65125841,0.75838768,0
-1.0653512,2.1127148,2.1755967,0.20487237,0.68518376,0.69896406,0
0.3195014,-0.66195792,2.6499498,0.11618227,-0.24071194,0.96361804,0
2.0397797,2.4143865,0.38867807,0.17022425,0.95812309,0.23026931,0
-2.1828291,-2.4702213,0.22629684,-0.14180434,-0.98970944,-0.019158721,0
2.0250943,-0.50611639,0.33846912,0.97875273,-0.13728631,-0.15230121,0
0.92384899,-2.0487266,-2.1958756,-0.2050084,-0.66911376,-0.71432376,0
-2.4202332,-0.19099951,-2.2494102,-0.97875273,0.13728631,0.15230121,0
-2.033668,0.42213893,-0.31786832,-0.97875273,0.13728631,0.15230121,0
1.6061348,-2.2611599,-0.77192473,0.97875273,-0.13728631,-0.15230121,0
2.3517315,1.4064527,1.8426776,0.20455912,0.60269713,0.77130532,0
-1.6628302,1.7242227,0.89157772,-0.97875273,0.13728631,0.15230121,0
1.5802407,-1.5951976,-1.5386391,0.97875273,-0.13728631,-0.15230121,0
1.6972573,-0.33730185,-1.9205238,0.97875273,-0.13728631,-0.15230121,0
1.8001549,-1.9511741,1.8846744,0.034343839,-0.62251639,0.78185296,0
1.4241269,2.4231057,-1.0793539,0.081662476,0.94231397,-0.32461613,0
-1.9317638,1.1997426,-0.36393079,-0.97875273,0.13728631,0.15230121,0
-1.8423165,-0.67710972,1.9027154,-0.97875273,0.13728631,0.15230121,0
-0.81628537,2.6956978,-0.843831,0.073495984,0.92830896,-0.36447322,0
-1.2129617,2.0361776,2.2892902,0.20503876,0.6497997,0.73192871,0
-2.0728531,0.19157887,-2.4602563,-0.15568936,-0.014225014,-0.9877038,0
-2.0341303,-2.4773862,-0.023779869,-0.1534366,-0.98309869,-0.099871695,0
1.8280823,-1.436974,-0.088526905,0.97875273,-0.13728631,-0.15230121,0
1.5811303,-1.0646579,-2.0111578,0.97875273,-0.13728631,-0.15230121,0
1.1812489,-2.8753836,-0.85035527,-0.16853029,-0.9617039,-0.21615505,0
1.5626236,-1.3972595,-1.8302784,0.97875273,-0.13728631,-0.15230121,0
-0.86406648,-2.5264606,-0.76125765,-0.17792141,-0.9378292,-0.29802787,0
-1.8284276,1.7690828,-0.21305872,-0.97875273,0.13728631,0.15230121,0
-2.1873636,-1.7423804,0.64554322,-0.97875273,0.13728631,0.15230121,0
1.712074,-2.1623497,1.7005432,0.012697935,-0.70076388,0.7132802,0
-2.1127102,0.14709115,-0.5778966,-0.97875273,0.13728631,0.15230121,0
0.97567749,-1.3552977,-2.6782146,-0.19647944,-0.41551057,-0.88811433,0
-2.0786064,-0.41671574,0.14949346,-0.97875273,0.13728631,0.15230121,0
2.1848545,-0.6653862,1.5087245,0.97875273,-0.13728631,-0.15230121,0
-2.0034692,0.24834037,0.032866791,-0.97875273,0.13728631,0.15230121,0
-0.20403314,-1.6705095,2.1961777,0.034301937,-0.62267643,0.78172743,0
-1.7350407,1.2674388,0.83927405,-0.97875273,0.13728631,0.15230121,0
1.5035002,-2.3903642,-1.3150322,0.97875273,-0.13728631,-0.15230121,0
-2.2724226,-0.63827312,-0.89633834,-0.97875273,0.13728631,0.15230121,0
1.8820182,-1.2641692,0.10231918,0.97875273,-0.13728631,-0.15230121,0
2.1077859,-0.13449585,2.453233,0.15863186,0.036351487,0.98666847,0
-2.378377,-0.056228399,-2.3931575,-0.16883141,-0.11807692,-0.97854686,0
-1.967247,1.0039535,-0.41547221,-0.97875273,0.13728631,0.15230121,0
1.5392789,-2.128828,-1.3208557,0.97875273,-0.13728631,-0.15230121,0
1.7757113,-2.7465036,0.88678771,-0.058981895,-0.89988333,0.43212399,0
-0.71095663,-2.0653691,-1.6780515,-0.20274627,-0.75886792,-0.61888081,0
-1.5158851,0.51387846,-2.5237074,-0.13486549,0.1284627,-0.98250133,0
-1.6525335,1.247015,1.3879112,-0.97875273,0.13728631,0.15230121,0
1.8104268,-1.9631906,0.27235019,0.97875273,-0.13728631,-0.15230121,0
-2.2216465,-0.86750126,-0.36340117,-0.97875273,0.13728631,0.15230121,0
-1.3072923,1.2166197,2.8082173,0.1916804,0.34884098,0.91737056,0
-0.46207428,2.8045726,-0.32313752,0.11245561,0.98050213,-0.16114971,0
1.6026266,-2.3596935,-0.70564961,0.97875273,-0.13728631,-0.15230121,0
1.2386429,-2.1689215,1.6998646,0.005102098,-0.72623599,0.68742663,0
1.4553027,2.4652333,0.59757757,0.17509645,0.94611758,0.27240211,0
-2.3842943,0.0089375973,-2.1986783,-0.97875273,0.13728631,0.15230121,0
-1.5895314,2.8300829,0.36579037,-0.97875273,0.13728631,0.15230121,0
1.2156461,2.2563124,-1.4896505,0.048084974,0.87573779,-0.48038676,0
1.9541963,1.2695391,-1.7177504,0.97875273,-0.13728631,-0.15230121,0
1.4656439,1.0050457,-2.7062707,-0.075179338,0.45077306,-0.88946724,0
0.27097392,2.6573315,-0.65396011,0.098535895,0.96630234,-0.23780367,0
0.22260022,-2.00664,1.8786411,0.0071883798,-0.71934152,0.69461942,0
0.51888442,-2.4818273,1.2516752,-0.045485318,-0.86963624,0.4915933,0
-2.4927704,-1.6863382,-1.3676491,-0.97875273,0.13728631,0.15230121,0
-1.8868792,-0.48013818,1.4387827,-0.97875273,0.13728631,0.15230121,0
1.0020373,0.99331117,2.408288,0.19439684,0.38504663,0.90219128,0
2.3668988,0.25350499,1.8503175,0.97875273,-0.13728631,-0.15230121,0
-0.85579312,-1.8617215,-1.8583617,-0.20478386,-0.69191593,-0.69232661,0
1.5454059,-2.9749792,-0.51874948,0.97875273,-0.13728631,-0.15230121,0
0.26332188,-2.6620376,-1.0045828,-0.18049943,-0.92926461,-0.32231569,0
0.85579324,1.190155,2.3481655,0.19852009,0.44858849,0.87141162,0
-1.5208223,1.4482607,2.0529387,-0.97875273,0.13728631,0.15230121,0
1.0219465,-2.6770597,-1.3520017,-0.18846738,-0.89491516,-0.40448362,0
0.76367736,2.393245,-1.2758094,0.059457183,0.9008832,-0.42997029,0
-2.232481,-1.3938298,0.041412294,-0.97875273,0.13728631,0.15230121,0
-0.2794286,-2.5390437,-1.0452577,-0.18499243,-0.91159284,-0.36711895,0
0.44290423,-2.7201443,0.67966855,-0.089297414,-0.95402706,0.28610906,0
2.0299881,-0.71061468,2.4245462,0.1277374,-0.17278093,0.97664225,0
-1.5533462,0.35134089,2.8327031,-0.97875273,0.13728631,0.15230121,0
-1.585225,2.3382246,0.83683395,-0.97875273,0.13728631,0.15230121,0
-2.0998819,-1.075978,0.60703504,-0.97875273,0.13728631,0.15230121,0
-1.9114246,1.8709378,-0.83824539,-0.97875273,0.13728631,0.15230121,0
1.6358006,-1.6304451,-1.1498133,0.97875273,-0.13728631,-0.15230121,0
0.92512357,2.3540115,-1.3351002,0.056794524,0.89522481,-0.44198096,0
-2.4758601,-1.6769904,-1.5628119,-0.20450541,-0.70741326,-0.67656797,0
-2.2696948,0.46051121,-2.4225881,-0.14351642,0.071821049,-0.98703843,0
-2.2749512,-1.4318216,-0.19727385,-0.97875273,0.13728631,0.15230121,0
-1.0006711,-1.2734487,-2.2693887,-0.20053479,-0.48598424,-0.85064995,0
-0.98115849,2.244138,-1.615232,0.0070972443,0.76500964,-0.64397985,0
-1.7138302,2.5886509,-0.21537781,-0.97875273,0.13728631,0.15230121,0
-1.1148599,2.5559487,1.6252549,0.19594103,0.84508735,0.49742806,0
1.6687585,0.8232317,2.3358443,0.19235279,0.35749313,0.91389227,0
-2.3899381,-1.7097406,-0.68570828,-0.97875273,0.13728631,0.15230121,0
2.2723408,0.16620231,2.3964918,0.17276454,0.15210728,0.97314751,0
2.020093,-0.34839892,0.16416007,0.97875273,-0.13728631,-0.15230121,0
-0.92371964,2.4359336,1.7427888,0.19937012,0.81071377,0.55044979,0
1.8441024,-1.6376734,0.19533607,0.97875273,-0.13728631,-0.15230121,0
2.1567986,0.78508246,2.2478359,0.19317959,0.36839768,0.90937626,0
2.1268783,0.85979211,-0.23867127,0.97875273,-0.13728631,-0.15230121,0
1.2162273,0.042323828,2.5895727,0.1610314,0.05483814,0.98542482,0
-2.2083662,-0.19939685,-0.88029206,-0.97875273,0.13728631,0.15230121,0
-2.0513906,1.0386062,-0.98745394,-0.97875273,0.13728631,0.15230121,0
1.1376463,1.931232,1.6988919,0.20384514,0.73170036,0.65043211,0
-2.1334491,-0.77170503,0.11704201,-0.97875273,0.13728631,0.15230121,0
-1.6863897,0.59784746,1.7555052,-0.97875273,0.13728631,0.15230121,0
1.1139857,2.5071316,-0.90381581,0.090541661,0.95580429,-0.27971494,0
-1.2038877,2.9047408,0.72253072,0.16268981,0.97204375,0.16930133,0
-0.054470301,-1.4991522,2.313442,0.051317692,-0.55512267,0.83018404,0
1.6006064,0.77272111,2.3691318,0.19064721,0.33588871,0.92240596,0
1.8089441,-0.74346614,-0.83665484,0.97875273,-0.13728631,-0.15230121,0
-2.1435332,0.94078565,-1.4914244,-0.97875273,0.13728631,0.15230121,0
-0.52816701,-2.4033184,-1.2278447,-0.19206071,-0.87393397,-0.44648892,0
-1.7659829,0.20320523,1.5997399,-0.97875273,0.13728631,0.15230121,0
-1.1183228,2.6986423,-0.89212918,0.066404104,0.91496891,-0.39802337,0
-1.6045381,2.4362226,0.62438405,-0.97875273,0.13728631,0.15230121,0
-0.45247108,0.20266515,2.85235,0.15759805,0.028511908,0.98709172,0
1.7633195,-1.3103646,-0.61884946,0.97875273,-0.13728631,-0.15230121,0
2.3570018,1.0897363,2.0545874,0.20065108,0.48834446,0.84926963,0
1.9536347,1.8054202,-2.1035886,0.0040575266,0.75559455,-0.65502715,0
0.93476617,2.6412144,-0.2460314,0.13000876,0.9898845,-0.056803048,0
2.137392,1.9363357,-1.1415161,0.97875273,-0.13728631,-0.15230121,0
0.79382932,0.71739614,2.5498731,0.18540668,0.27535504,0.94329435,0
-1.9634187,1.1789222,-2.3061974,-0.097422242,0.34221786,-0.93455654,0
-0.39469171,2.6869466,-0.77061856,0.083482385,0.94522995,-0.31554884,0
1.750443,0.19483304,-2.0584021,0.97875273,-0.13728631,-0.15230121,0
0.70734775,-0.26207656,2.6641159,0.14241865,-0.079198107,0.98663312,0
1.4564542,2.404067,-1.1254635,0.078727007,0.93745154,-0.33909723,0
2.1472931,2.1085863,1.1001463,0.19549155,0.84886271,0.49113667,0
-1.9250423,0.3966068,-2.4773068,-0.14433578,0.066277236,-0.98730677,0
0.77906156,-0.95207584,-2.7904823,-0.18586889,-0.28040135,-0.94171542,0
-1.6581763,-0.11617339,-2.5098693,-0.16707614,-0.10338675,-0.98050851,0
1.3425694,-2.9298582,0.17515099,-0.11313754,-0.98105437,0.15726496,0
-1.8342655,-0.62594712,-2.3714468,-0.18717337,-0.29492164,-0.93700999,0
-1.9801598,-1.4392852,1.7039105,-0.97875273,0.13728631,0.15230121,0
1.7666054,0.95220274,2.26004,0.19604141,0.40886506,0.89128971,0
-0.94055104,2.8498869,0.77487266,0.1668728,0.96494204,0.20258462,0
2.3811591,0.977651,1.2892063,0.97875273,-0.13728631,-0.15230121,0
1.6674618,2.4993892,0.29040325,0.16335845,0.97100568,0.1745339,0
-1.6475289,1.5792201,1.1206185,-0.97875273,0.13728631,0.15230121,0
-1.9483494,0.23067188,0.40301663,-0.97875273,0.13728631,0.15230121,0
2.2149427,2.3752661,0.41919959,0.17264515,0.95249224,0.25090271,0
1.9340432,-1.0039601,0.20209755,0.97875273,-0.13728631,-0.15230121,0
2.4450507,1.321157,1.8826499,0.20398481,0.57652086,0.79121035,0
-1.1814311,0.32913935,-2.5902998,-0.14238855,0.079399258,-0.98662126,0
1.8042479,-0.056937337,-1.4856809,0.97875273,-0.13728631,-0.15230121,0
-2.0129972,0.22508383,-0.0073998868,-0.97875273,0.13728631,0.15230121,0
-0.58135843,1.8204811,-2.0416708,-0.030606389,0.63663334,-0.77055919,0
0.798931,-0.53558016,2.6165245,0.12787515,-0.17194268,0.97677213,0
1.3332109,-2.9362135,0.1258111,-0.11626565,-0.98340392,0.13928044,0
-2.1302288,0.39328504,-0.91240168,-0.97875273,0.13728631,0.15230121,0
1.0114981,-0.87843895,-2.8559597,-0.18226647,-0.24227393,-0.95293361,0
0.44222021,1.9739633,-1.9173911,-0.00072139502,0.74046195,-0.6720981,0
-1.4265547,1.4933017,-2.2126579,-0.068783045,0.47990385,-0.87462074,0
-0.69105363,-2.6553915,0.41814569,-0.11764592,-0.98434311,0.13125663,0
1.7430451,-2.8204439,0.71288705,-0.072520375,-0.92653787,0.36914575,0
-0.069312096,-2.7130632,0.49923834,-0.10656273,-0.97515661,0.19420119,0
-1.4736209,-2.5642042,0.35306618,-0.12868226,-0.9895516,0.065027505,0
0.98657274,-2.2129769,-2.0475087,-0.20403269,-0.72577876,-0.65697485,0
1.6374627,-2.054152,-0.75719941,0.97875273,-0.13728631,-0.15230121,0
-2.240382,-2.2331331,0.74719453,-0.97875273,0.13728631,0.15230121,0
2.1240244,1.6622651,-0.98037243,0.97875273,-0.13728631,-0.15230121,0
-0.39450026,-2.7202868,-0.083125234,-0.14345461,-0.98919523,-0.030227363,0
-2.4940922,-1.1695056,-1.9734702,-0.2022476,-0.52412003,-0.82728118,0
-1.7658031,0.34972358,1.468822,-0.97875273,0.13728631,0.15230121,0
-2.0610075,-1.8217888,1.5291426,-0.97875273,0.13728631,0.15230121,0
2.0008507,0.23088217,2.4344461,0.17383158,0.16162989,0.97142094,0
-2.0966277,0.062460423,-0.39825732,-0.97875273,0.13728631,0.15230121,0
2.2470236,2.153275,-0.63252926,0.97875273,-0.13728631,-0.15230121,0
-0.25034901,-1.2256432,-2.4671893,-0.19744959,-0.43076211,-0.88060093,0
-2.4354165,-1.5269938,-1.7192981,-0.20504047,-0.65073109,-0.73110032,0
1.3183445,0.57069039,2.488502,0.18293083,0.24910823,0.95104235,0
0.0067267418,-1.0983528,2.53143,0.083653092,-0.41079181,0.90788364,0
2.3559566,1.6486697,0.52238011,0.97875273,-0.13728631,-0.15230121,0
1.851177,1.8853192,-2.0092826,0.011507034,0.77837777,-0.62769079,0
-0.2991904,-0.58909291,2.7427082,0.11531186,-0.24565053,0.9624756,0
-2.315676,-2.1569331,0.19463599,-0.97875273,0.13728631,0.15230121,0
1.603206,-0.82979894,-2.0809946,0.97875273,-0.13728631,-0.15230121,0
0.60722828,-2.3074613,1.5264151,-0.020722449,-0.80519778,0.59264433,0
-0.75261796,-1.238484,-2.346487,-0.19921318,-0.46080291,-0.86485541,0
1.9114803,-1.2235355,0.255027,0.97875273,-0.13728631,-0.15230121,0
-1.4675045,0.97201896,2.8248715,-0.97875273,0.13728631,0.15230121,0
0.5573411,-1.807157,-2.3010676,-0.20451027,-0.60003424,-0.77339172,0
1.4872406,-1.8016791,-1.9501724,0.97875273,-0.13728631,-0.15230121,0
1.7920212,0.027560115,-1.6404222,0.97875273,-0.13728631,-0.15230121,0
-1.482306,2.4195979,1.4248836,-0.97875273,0.13728631,0.15230121,0
2.087487,1.8102753,-1.3485944,0.97875273,-0.13728631,-0.15230121,0
-1.1445245,1.2578607,-2.3544197,-0.08365953,0.41076073,-0.907897,0
0.90469098,-2.8665125,-0.6539793,-0.16168028,-0.97354519,-0.16146052,0
0.20319724,2.5842333,0.96687877,0.18178642,0.92458683,0.33480275,0
1.3278245,2.5747275,-0.44525924,0.12197012,0.98688328,-0.10575759,0
0.59136605,-1.6364177,2.1810617,0.047308743,-0.5715335,0.81921393,0
0.50686502,-2.5702353,1.0806651,-0.05925858,-0.90046591,0.43087092,0
-2.0592737,-1.1012852,-2.1180313,-0.20010261,-0.47743508,-0.85557872,0
-1.780897,2.0616164,-0.17130142,-0.97875273,0.13728631,0.15230121,0
-2.0458398,0.23272538,-0.22534996,-0.97875273,0.13728631,0.15230121,0
-1.1279776,2.1932509,-1.6741126,-0.00082552433,0.74012786,-0.6724658,0
0.53432488,-2.648243,0.90761906,-0.072030365,-0.92564011,0.37148622,0
-0.98065144,-0.35957456,2.8794656,0.12352097,-0.19809939,0.97236794,0
-2.186578,0.21400523,-1.1129194,-0.97875273,0.13728631,0.15230121,0
-1.2061927,2.6186161,1.5510123,0.19358236,0.86354786,0.46562982,0
1.9931438,0.11413276,2.4526327,0.16899502,0.11946087,0.9783507,0
1.7823849,-0.52609229,-1.2032797,0.97875273,-0.13728631,-0.15230121,0
0.085283995,-1.0817826,2.5315127,0.085668266,-0.40104195,0.91204518,0
-1.1591115,1.4745142,-2.2439079,-0.067306101,0.48650604,-0.87108082,0
-1.380095,1.921424,2.4299762,0.20450246,0.59962159,0.77371365,0
2.0394199,-1.0159554,0.89010721,0.97875273,-0.13728631,-0.15230121,0
-1.106992,-0.93921065,2.7060542,0.08386761,-0.40975821,0.90833068,0
-1.6651053,1.4192116,1.1518995,-0.97875273,0.13728631,0.15230121,0
-1.6802332,0.68691862,1.7147788,-0.97875273,0.13728631,0.15230121,0
2.2669911,-0.39853311,1.7960246,0.97875273,-0.13728631,-0.15230121,0
-2.3854995,-1.246706,-1.0745707,-0.97875273,0.13728631,0.15230121,0
-1.465486,-2.1678402,-1.2672582,-0.19702145,-0.8354187,-0.51308686,0
-0.48140526,0.62632883,-2.63867,-0.11978704,0.22000344,-0.96811658,0
-1.8629544,-0.19107664,1.3319701,-0.97875273,0.13728631,0.15230121,0
-2.0089087,-0.22368276,0.42339846,-0.97875273,0.13728631,0.15230121,0
-0.48834267,-1.7534143,-2.0628815,-0.20496014,-0.63376462,-0.74587792,0
-2.0356886,-0.029621482,0.076369427,-0.97875273,0.13728631,0.15230121,0
-1.5724232,0.57405686,2.5093467,-0.97875273,0.13728631,0.15230121,0
2.3093102,1.7585446,0.1235671,0.97875273,-0.13728631,-0.15230121,0
1.7126594,2.5349243,-0.10782832,0.14419937,0.98892027,0.035261184,0
-0.53698897,-2.6358447,-0.57639575,-0.16824508,-0.96227944,-0.21380353,0
-0.5798496,-0.45105565,2.8096783,0.12139583,-0.21062392,0.97000039,0
-1.1427813,-0.12513858,-2.5960069,-0.16430372,-0.080747403,-0.98309946,0
1.1664908,-2.9283185,-0.50146437,-0.15243053,-0.98396415,-0.092626035,0
0.60313976,-2.2630074,-1.8660772,-0.20250472,-0.76374334,-0.61293393,0
1.9780484,-1.2439063,0.70118415,0.97875273,-0.13728631,-0.15230121,0
2.3379984,0.08575964,1.8157997,0.97875273,-0.13728631,-0.15230121,0
2.2892766,2.4553928,-0.24844837,0.14150649,0.98978835,0.01717326,0
2.0738823,-0.46287537,0.61302447,0.97875273,-0.13728631,-0.15230121,0
-1.9630313,-0.42249811,0.89744002,-0.97875273,0.13728631,0.15230121,0
1.734272,0.22108555,-2.1859894,0.97875273,-0.13728631,-0.15230121,0
-1.019529,-1.3716849,2.4583116,0.050644457,-0.55790049,0.82836133,0
-2.4475722,-1.9728764,-0.81889629,-0.97875273,0.13728631,0.15230121,0
0.52486455,-2.1452234,-1.9789627,-0.20406535,-0.72468638,-0.65816951,0
1.4588268,-2.864718,0.51463586,-0.089775324,-0.95471418,0.28365707,0
-1.9331715,0.94922638,-0.14715816,-0.97875273,0.13728631,0.15230121,0
-1.1273112,-1.9177895,-1.7171135,-0.20401812,-0.72626072,-0.65644664,0
-2.0915136,1.6494138,-1.7958884,-0.97875273,0.13728631,0.15230121,0
0.94295239,1.9898411,1.6933441,0.20343168,0.74314016,0.63746256,0
-2.4352157,-2.1697843,-0.56199384,-0.97875273,0.13728631,0.15230121,0
2.0751586,-0.55979514,0.70859015,0.97875273,-0.13728631,-0.15230121,0
1.8508933,-1.599432,2.1204817,0.065088332,-0.49633461,0.86568797,0
-1.887419,-2.5030773,0.45954835,-0.12624985,-0.98877114,0.079955205,0
1.6196193,-2.0324488,-0.89143264,0.97875273,-0.13728631,-0.15230121,0
1.9768666,2.3145814,-1.2508681,0.075513363,0.93190622,-0.35475153,0
2.1729937,1.2996078,-0.33876976,0.97875273,-0.13728631,-0.15230121,0
-2.2033241,1.2572479,-2.1609292,-0.97875273,0.13728631,0.15230121,0
-2.473228,-0.92177927,-1.9312441,-0.97875273,0.13728631,0.15230121,0
-1.4724321,2.9508576,0.71294284,0.16031784,0.97544903,0.15098852,0
1.9029164,-1.0185962,0.015258938,0.97875273,-0.13728631,-0.15230121,0
-2.4917288,-1.2612176,-1.7441642,-0.97875273,0.13728631,0.15230121,0
2.201659,1.1491625,-0.018940985,0.97875273,-0.13728631,-0.15230121,0
-1.8032598,0.90234363,0.72996902,-0.97875273,0.13728631,0.15230121,0
-1.8389269,1.8435504,-0.34765702,-0.97875273,0.13728631,0.15230121,0
1.5264564,1.5249939,-2.3695233,-0.030590534,0.63669258,-0.77051079,0
1.9997075,1.8716745,-1.96805,0.97875273,-0.13728631,-0.15230121,0
-0.4307819,1.0056838,2.703562,0.18910128,0.31720605,0.92931223,0
1.5902209,-0.72317004,-2.2605584,0.97875273,-0.13728631,-0.15230121,0
1.9104593,-0.67319322,-0.24761918,0.97875273,-0.13728631,-0.15230121,0
0.52033818,-0.65222532,-2.8146217,-0.17648171,-0.18587798,-0.96659392,0
-0.69309914,1.0846442,-2.4716244,-0.091574728,0.37190872,-0.9237414,0
1.8354003,0.27599025,-1.5855865,0.97875273,-0.13728631,-0.15230121,0
-1.8490051,-0.32006741,1.5378891,-0.97875273,0.13728631,0.15230121,0
-0.2346344,2.8090243,0.028811097,0.13522786,0.99052763,-0.023842335,0
-2.0175877,0.61552453,-2.44137,-0.13310605,0.13958821,-0.98122287,0
2.4931934,0.81674242,2.154232,0.97875273,-0.13728631,-0.15230121,0
-1.9079381,0.34236908,0.56203139,-0.97875273,0.13728631,0.15230121,0
-1.8627955,-0.71434534,1.8046732,-0.97875273,0.13728631,0.15230121,0
-1.6629088,2.8158627,-0.70848596,0.07376039,0.92878544,-0.36320376,0
1.7026417,1.438262,1.9886649,0.20410308,0.58122057,0.78773397,0
1.4838376,-1.6347979,-2.1224716,0.97875273,-0.13728631,-0.15230121,0
1.6478404,-2.0203362,-0.72098899,0.97875273,-0.13728631,-0.15230121,0
-2.0238485,-1.620204,1.5862312,-0.97875273,0.13728631,0.15230121,0
-0.76546443,2.3350244,1.8280668,0.20148149,0.78179526,0.5900861,0
-0.21052551,-0.83066303,-2.631253,-0.18643461,-0.28664681,-0.93972129,0
-2.142657,-1.1224723,0.37405473,-0.97875273,0.13728631,0.15230121,0
0.15014577,0.24871302,-2.7868884,-0.1366168,0.11726227,-0.98365945,0
-1.9546354,-0.28357184,0.82616472,-0.97875273,0.13728631,0.15230121,0
1.4875381,2.5520673,0.12775171,0.15436494,0.98224568,0.10660654,0
1.7340058,1.0433378,-2.7080979,-0.069304526,0.47756147,-0.87586081,0
1.0139072,0.17083973,2.613652,0.16552293,0.090621635,0.98203367,0
1.0344179,-2.9024258,-0.54990578,-0.15581042,-0.98081088,-0.11718845,0
-1.510916,0.98432779,-2.4210157,-0.10623622,0.29577288,-0.94933265,0
1.6446947,0.029335856,-2.5888054,0.97875273,-0.13728631,-0.15230121,0
-2.2487092,-2.3029287,0.75659645,-0.97875273,0.13728631,0.15230121,0
0.11151192,-1.1197766,-2.5940437,-0.19362073,-0.37434518,-0.90685022,0
1.3925022,0.62989676,2.4577417,0.18529007,0.2740894,0.94368565,0
-1.064069,2.6607609,-0.96777129,0.061282456,0.90467954,-0.42166269,0
-0.2559638,-2.7329366,-0.23155689,-0.15000051,-0.98581088,-0.07534492,0
0.22122097,2.5858784,-0.90928298,0.080444038,0.94031942,-0.33064836,0
1.1217971,-2.4567614,1.3362464,-0.030458808,-0.83187693,0.55412376,0
1.7881299,-1.7188482,-0.091193378,0.97875273,-0.13728631,-0.15230121,0
1.5091546,-1.6117748,-1.9805267,0.97875273,-0.13728631,-0.15230121,0
1.7994906,-1.3291467,-0.36946583,0.97875273,-0.13728631,-0.15230121,0
-1.965937,-1.7628405,2.0869694,-0.97875273,0.13728631,0.15230121,0
2.4890223,1.1048236,1.8677461,0.97875273,-0.13728631,-0.15230121,0
1.2980947,-1.8330045,-2.4746623,-0.20385803,-0.57174188,-0.79470342,0
-0.93305671,0.14170003,2.9278615,0.15136495,-0.017295733,0.98832679,0
-1.4759138,0.30234182,-2.5491171,-0.14596772,0.05513636,-0.98775172,0
-0.91468477,-0.18518251,-2.6290522,-0.16554156,-0.090773568,-0.98201638,0
-2.3548381,0.30537248,-2.2765894,-0.97875273,0.13728631,0.15230121,0
2.1268237,0.39284694,0.18188775,0.97875273,-0.13728631,-0.15230121,0
1.0439777,-0.10747677,2.6205697,0.15275866,-0.0072601885,0.9882369,0
-0.95032215,-1.6098951,2.2764874,0.030207217,-0.63812566,0.76933962,0
-0.65708733,-2.4618421,1.1398568,-0.068548739,-0.91911554,0.38797906,0
-1.9000307,1.1370709,-2.327899,-0.099674463,0.33054826,-0.93851119,0
-0.20614088,-0.62365472,-2.6864319,-0.17924379,-0.21215604,-0.960657,0
1.898277,0.0034025908,-0.93580073,0.97875273,-0.13728631,-0.15230121,0
