-0.95381236,2.7486534,-0.36730471,0.41605413,0.39899588,-0.81712973,0
-0.58503199,2.3575954,1.9908493,-0.066100955,0.90948951,0.410438,0
1.0198157,-0.63862514,1.4312166,-0.41605413,-0.39899588,0.81712973,0
1.8858341,-2.2780714,-0.64527708,0.57272935,-0.81294799,-0.1053402,0
2.8405912,0.30520776,1.0265913,0.8824088,0.039923728,0.46878624,0
-0.37435865,-1.5589457,0.27196819,-0.41605413,-0.39899588,0.81712973,0
1.8120133,0.5156827,-0.049378872,0.41605413,0.39899588,-0.81712973,0
-1.7905589,-2.0427449,-0.68534613,-0.41605413,-0.39899588,0.81712973,0
-2.3183527,1.9127522,0.97734815,-0.41605413,-0.39899588,0.81712973,0
-0.031552315,2.7498648,1.203097,-0.024520516,0.90319252,0.4285346,0
1.6225337,-1.2253072,-0.99596262,0.41605413,0.39899588,-0.81712973,0
-2.0142779,1.9601259,1.1553046,-0.41605413,-0.39899588,0.81712973,0
0.60844111,-2.4710722,-1.7275419,0.10867149,-0.91397315,-0.39095193,0
0.52606916,2.3869667,1.7597629,0.21234232,0.83112514,0.51394713,0
1.6006713,0.64874923,2.3555796,-0.41605413,-0.39899588,0.81712973,0
-1.1196954,0.16617376,0.73482662,-0.41605413,-0.39899588,0.81712973,0
1.4085789,2.2044246,0.56980181,0.41605413,0.39899588,-0.81712973,0
2.2065682,-0.88900113,-0.53437769,0.41605413,0.39899588,-0.81712973,0
-2.4524312,0.19975978,0.07264328,-0.41605413,-0.39899588,0.81712973,0
2.1766167,0.80306756,1.9347916,0.77476716,0.314899,0.5482465,0
0.73313165,1.9106586,0.082444429,0.41605413,0.39899588,-0.81712973,0
-2.9592421,-0.40652245,-0.48144817,-0.41605413,-0.39899588,0.81712973,0
-1.1594574,-0.87602854,0.20568442,-0.41605413,-0.39899588,0.81712973,0
1.0627605,-0.33648485,-0.846977,0.41605413,0.39899588,-0.81712973,0
2.3613324,-1.5887578,1.0944543,0.86280167,-0.45699835,0.21616107,0
-2.4358358,1.7645813,-0.090839148,-0.77933341,0.61946857,-0.094329476,0
0.88064337,2.1965716,0.29716086,0.41605413,0.39899588,-0.81712973,0
1.9531473,-0.43268979,-0.44059873,0.41605413,0.39899588,-0.81712973,0
0.56426138,0.17853844,-0.84931487,0.41605413,0.39899588,-0.81712973,0
-0.38697127,0.63167071,1.3352015,-0.41605413,-0.39899588,0.81712973,0
0.12847459,-0.62719601,-1.4646342,0.41605413,0.39899588,-0.81712973,0
-1.4491429,1.6167307,1.2753754,-0.41605413,-0.39899588,0.81712973,0
1.6041689,-0.65099001,1.7227113,-0.41605413,-0.39899588,0.81712973,0
-0.032349616,-0.25033545,-1.3625031,0.41605413,0.39899588,-0.81712973,0
2.3160326,-0.88060474,1.9590075,0.90910429,-0.16206223,0.38375103,0
1.8378949,1.7793572,0.58083844,0.41605413,0.39899588,-0.81712973,0
-0.46395493,-0.14206922,-1.5293963,0.41605413,0.39899588,-0.81712973,0
-2.52315,-0.46916169,-0.28999162,-0.41605413,-0.39899588,0.81712973,0
-0.76990652,-2.364233,-1.6822478,-0.2720257,-0.80283695,-0.530523,0
0.6434238,-2.5194602,-1.601347,0.13529217,-0.91575599,-0.37826815,0
1.9093699,-0.60095876,-0.54505265,0.41605413,0.39899588,-0.81712973,0
2.7876966,0.0052679777,1.1332955,0.89651859,-0.029616356,0.44201469,0
2.0089931,1.1320839,0.35189867,0.41605413,0.39899588,-0.81712973,0
-1.3354191,2.0770092,1.5580287,-0.41605413,-0.39899588,0.81712973,0
-0.5293901,-2.9037204,-0.86200261,-0.082926035,-0.87820458,-0.47104126,0
2.3135061,-1.9210978,-0.01425302,0.74236661,-0.66798699,0.051816165,0
0.53144896,0.97578573,1.9708571,-0.41605413,-0.39899588,0.81712973,0
0.42457736,-0.87288618,-1.4338369,0.41605413,0.39899588,-0.81712973,0
2.0379064,-1.4842188,-0.9108932,0.41605413,0.39899588,-0.81712973,0
-1.3122071,0.72818226,0.91122925,-0.41605413,-0.39899588,0.81712973,0
-2.0529945,-2.0365808,-0.81595945,-0.41605413,-0.39899588,0.81712973,0
0.15564251,-2.5882244,-1.536016,0.012052119,-0.90093732,-0.4337818,0
-1.5616859,2.5673685,0.16504592,-0.5538131,0.82390171,0.12032032,0
1.0578183,-2.4968791,0.54319984,-0.41605413,-0.39899588,0.81712973,0
-2.338866,-0.23022151,-1.9346476,-0.8511703,-0.14535525,-0.50436187,0
0.44125128,-2.3833222,0.28471416,-0.41605413,-0.39899588,0.81712973,0
0.73117113,0.83337343,2.00301,-0.41605413,-0.39899588,0.81712973,0
-2.3550079,-0.98051769,-0.45406938,-0.41605413,-0.39899588,0.81712973,0
1.5860857,-2.5716522,-0.0083591938,0.57853174,-0.80942416,-0.10066521,0
-2.8942213,-0.56338155,-0.89217138,-0.8676722,-0.094705433,-0.48803222,0
-1.2612923,1.255272,-1.2530652,0.41605413,0.39899588,-0.81712973,0
-0.39159101,-0.41104484,-1.6238891,0.41605413,0.39899588,-0.81712973,0
1.0614796,1.7228506,2.3525119,0.46384007,0.67978656,0.56810403,0
-1.4797455,0.95191371,-1.512421,0.41605413,0.39899588,-0.81712973,0
0.41316879,-1.8588544,0.5265072,-0.41605413,-0.39899588,0.81712973,0
-0.70017475,1.4500655,-0.87224835,0.41605413,0.39899588,-0.81712973,0
0.47057378,-1.184111,-1.562385,0.41605413,0.39899588,-0.81712973,0
0.22117925,2.6665821,1.3574264,0.067238152,0.88263845,0.46521857,0
0.34553981,-1.5499499,0.6429081,-0.41605413,-0.39899588,0.81712973,0
1.6159813,-1.3260608,1.3990957,-0.41605413,-0.39899588,0.81712973,0
-0.21896434,2.9545097,0.69951797,-0.14456886,0.91619074,0.37375703,0
-2.1927042,-0.078364134,-2.2250473,-0.85219526,-0.14244223,-0.50346136,0
-1.5085057,-1.2952136,-0.17672241,-0.41605413,-0.39899588,0.81712973,0
0.24395514,1.3260211,1.9954914,-0.41605413,-0.39899588,0.81712973,0
-1.7186263,0.43347761,0.56039345,-0.41605413,-0.39899588,0.81712973,0
-0.018129587,-0.27196133,1.0817689,-0.41605413,-0.39899588,0.81712973,0
2.723588,-1.4836694,-0.44255722,0.78265691,-0.61462873,0.098384857,0
-0.097088575,-2.0200777,-2.259613,0.41605413,0.39899588,-0.81712973,0
-2.4106491,1.7314302,-0.4394598,-0.8100636,0.57089663,-0.1336934,0
1.2645311,-1.8622272,0.95834458,-0.41605413,-0.39899588,0.81712973,0
0.11884356,0.87012714,-0.73841041,0.41605413,0.39899588,-0.81712973,0
-2.6610384,-0.58120203,-1.2893972,-0.84742832,-0.15577236,-0.50754309,0
-2.1552668,-1.6763504,-1.3314538,-0.65218723,-0.49526408,-0.57390338,0
-2.2408659,2.0038671,0.10643029,-0.71647877,0.69718277,-0.024378955,0
1.068918,1.5957367,0.0996418,0.41605413,0.39899588,-0.81712973,0
-1.0559416,-2.0501084,-0.31489992,-0.41605413,-0.39899588,0.81712973,0
-2.2543159,1.1302491,-1.819726,0.41605413,0.39899588,-0.81712973,0
-0.1619581,-1.6894102,-2.1311808,0.41605413,0.39899588,-0.81712973,0
0.28477788,-2.3090954,-2.1039848,-0.03216368,-0.89157736,-0.45172468,0
-3.1060214,0.20442118,-0.36958647,-0.9093163,0.18899757,-0.37070674,0
-1.7452132,-2.0433912,-1.3932493,-0.52585578,-0.62753952,-0.57416862,0
-1.6010755,2.5814874,-0.17758042,-0.60427898,0.79280275,0.079439491,0
-2.893106,-0.067362368,-0.92314649,-0.89832205,0.040884525,-0.43743086,0
-2.3245149,-0.79283524,-0.34689975,-0.41605413,-0.39899588,0.81712973,0
-0.62576127,2.9383223,0.4879925,-0.27977055,0.91117573,0.30246827,0
-0.012038946,-1.3799284,0.54386097,-0.41605413,-0.39899588,0.81712973,0
-2.5569277,1.555269,-0.29187465,-0.82391012,0.54565775,-0.15306735,0
2.9636416,0.71617436,0.73728108,0.86079937,0.11685392,0.49534774,0
0.92915833,-2.0015125,0.71957296,-0.41605413,-0.39899588,0.81712973,0
1.9920636,1.2977509,0.42417216,0.41605413,0.39899588,-0.81712973,0
-2.2343059,1.9904795,0.88436407,-0.62577164,0.77761114,0.06107825,0
-2.6849394,1.4370323,-0.024157524,-0.82231307,0.54869807,-0.15076965,0
-0.0240165,0.37347078,-1.0536621,0.41605413,0.39899588,-0.81712973,0
-1.2070471,-1.919126,-0.32788038,-0.41605413,-0.39899588,0.81712973,0
-1.8631402,-1.456828,-0.43620491,-0.41605413,-0.39899588,0.81712973,0
1.718049,-0.12765977,-0.41135955,0.41605413,0.39899588,-0.81712973,0
-1.8933197,1.5832373,-1.4147298,0.41605413,0.39899588,-0.81712973,0
-0.867145,0.099799395,-1.6165848,0.41605413,0.39899588,-0.81712973,0
1.6725624,-1.8016924,1.1956587,-0.41605413,-0.39899588,0.81712973,0
-0.25529802,-1.4789798,0.37163606,-0.41605413,-0.39899588,0.81712973,0
-2.2003958,0.26815152,0.23436606,-0.41605413,-0.39899588,0.81712973,0
-0.75681543,2.7828012,0.8343665,-0.26803535,0.9124831,0.30908176,0
-2.4175928,-0.10230057,-0.057110786,-0.41605413,-0.39899588,0.81712973,0
0.95297027,2.750819,0.99454546,0.22315973,0.82631695,0.51710713,0
1.0053396,2.5868754,1.2246046,0.27273726,0.80247331,0.53070778,0
-0.33263314,-0.014104009,-1.4000478,0.41605413,0.39899588,-0.81712973,0
-0.83535284,0.58853054,1.0858364,-0.41605413,-0.39899588,0.81712973,0
0.494102,1.1354657,-0.41777998,0.41605413,0.39899588,-0.81712973,0
0.27230048,1.83802,2.259928,-0.41605413,-0.39899588,0.81712973,0
2.3677781,-0.36841261,1.9596808,0.89510143,-0.021301597,0.44535327,0
2.0871069,2.1207283,0.87441659,0.41605413,0.39899588,-0.81712973,0
3.0704873,0.089398295,0.38324237,0.41605413,0.39899588,-0.81712973,0
-1.5751383,-0.88696814,-0.011307478,-0.41605413,-0.39899588,0.81712973,0
1.0433027,0.15426016,1.8303326,-0.41605413,-0.39899588,0.81712973,0
2.4367549,0.56204969,0.29135847,0.41605413,0.39899588,-0.81712973,0
2.9635863,-0.57380444,0.49621105,0.9048456,-0.27088082,0.32844764,0
-2.8447976,0.076932251,-0.18711114,-0.41605413,-0.39899588,0.81712973,0
-0.83064008,2.5666375,1.3897312,-0.21348667,0.91633999,0.33873934,0
2.7305026,0.7486946,0.53206158,0.41605413,0.39899588,-0.81712973,0
1.6891775,-1.8528541,1.1791365,-0.41605413,-0.39899588,0.81712973,0
2.0685499,1.9447134,0.7790215,0.41605413,0.39899588,-0.81712973,0
-0.32882708,-0.50162435,0.81143022,-0.41605413,-0.39899588,0.81712973,0
2.2298331,1.0404112,0.41957998,0.41605413,0.39899588,-0.81712973,0
0.90732419,-1.6470695,-1.5660646,0.41605413,0.39899588,-0.81712973,0
0.42294693,-1.6784889,-1.8280344,0.41605413,0.39899588,-0.81712973,0
-0.50052452,2.9318655,0.60798079,-0.2312963,0.9154762,0.3292495,0
1.8399166,1.5106653,0.4506681,0.41605413,0.39899588,-0.81712973,0
-2.1630585,-1.8184963,-1.1971695,-0.63125181,-0.52007824,-0.57536042,0
-2.5824594,0.90497094,0.3507849,-0.41605413,-0.39899588,0.81712973,0
-0.80357635,-1.6427927,0.012483597,-0.41605413,-0.39899588,0.81712973,0
1.129254,1.4937217,0.080550194,0.41605413,0.39899588,-0.81712973,0
2.2190063,1.3450125,0.56280112,0.41605413,0.39899588,-0.81712973,0
0.31975985,-2.1560106,0.33384871,-0.41605413,-0.39899588,0.81712973,0
2.709707,0.23053148,0.26845932,0.41605413,0.39899588,-0.81712973,0
-2.0520945,0.5183506,0.43204558,-0.41605413,-0.39899588,0.81712973,0
-1.2254293,-1.6588998,-2.2875419,-0.50520629,-0.64573044,-0.57253689,0
-0.8208825,0.2794137,0.94226563,-0.41605413,-0.39899588,0.81712973,0
0.66601443,2.1208155,2.0999477,0.30419421,0.7857582,0.53856277,0
-2.3008959,1.5198498,-1.442776,-0.88180351,0.39648688,-0.25538325,0
0.27355695,-2.8186884,-0.013254881,-0.41605413,-0.39899588,0.81712973,0
1.100297,-2.0300059,-1.6547935,0.41605413,0.39899588,-0.81712973,0
-0.048342824,-0.38055778,-1.4342325,0.41605413,0.39899588,-0.81712973,0
2.7410891,-0.19204891,1.2064924,0.90288532,-0.074384004,0.42339694,0
-1.2933335,-0.56723797,-2.1592927,0.41605413,0.39899588,-0.81712973,0
-1.8859763,-2.1060712,-1.195029,-0.53872323,-0.61577564,-0.57497597,0
0.47253346,-1.7575471,-1.8413901,0.41605413,0.39899588,-0.81712973,0
1.6690072,1.7011018,0.45663548,0.41605413,0.39899588,-0.81712973,0
1.9278269,-0.91085958,-0.68697643,0.41605413,0.39899588,-0.81712973,0
-0.65074539,-0.22570634,0.78224856,-0.41605413,-0.39899588,0.81712973,0
1.9144589,1.4478935,1.8022604,0.65180761,0.49572605,0.57393569,0
0.0011689663,2.1566885,2.2774794,-0.41605413,-0.39899588,0.81712973,0
-1.8303001,-1.0090395,-0.20083332,-0.41605413,-0.39899588,0.81712973,0
2.226074,-1.9977257,0.24156237,0.75149751,-0.65682405,0.061916053,0
-0.12194848,3.0577624,0.20718628,0.41605413,0.39899588,-0.81712973,0
-0.15531361,1.4628434,-0.5885846,0.41605413,0.39899588,-0.81712973,0
2.9239526,-0.77733552,0.41261315,0.89571017,-0.33481592,0.29257733,0
-1.5262322,1.6206297,-1.2095635,0.41605413,0.39899588,-0.81712973,0
2.888298,-0.98574686,-0.2345047,0.41605413,0.39899588,-0.81712973,0
-2.0853415,-1.124808,-1.8505294,-0.72225642,-0.40096566,-0.56353527,0
-1.6539946,2.4814351,0.32848793,-0.55597949,0.82268769,0.11862448,0
-1.7289746,-0.71744788,-2.4544516,0.41605413,0.39899588,-0.81712973,0
1.0396602,-2.2292187,0.6646499,-0.41605413,-0.39899588,0.81712973,0
0.72767913,1.400001,-0.16968042,0.41605413,0.39899588,-0.81712973,0
0.90180159,1.2926311,2.3141398,-0.41605413,-0.39899588,0.81712973,0
1.2272615,-2.2671561,0.74164569,-0.41605413,-0.39899588,0.81712973,0
-1.3660772,2.5183382,0.95356023,-0.4078266,0.88502949,0.22449964,0
0.90582252,0.46893501,1.9139851,-0.41605413,-0.39899588,0.81712973,0
0.13808072,1.1680429,1.8644447,-0.41605413,-0.39899588,0.81712973,0
0.57654643,3.0052767,0.66347432,0.067806482,0.88248247,0.46543175,0
1.2447759,-2.1812549,-1.6550832,0.41605413,0.39899588,-0.81712973,0
0.74052685,-0.17517495,1.5153099,-0.41605413,-0.39899588,0.81712973,0
1.648329,-0.69636637,-0.72455221,0.41605413,0.39899588,-0.81712973,0
-0.45721751,0.14580321,-1.3854009,0.41605413,0.39899588,-0.81712973,0
1.6706927,-0.19990358,-0.47074771,0.41605413,0.39899588,-0.81712973,0
1.6537178,1.9199234,1.6117957,0.53223509,0.62174946,0.57458943,0
-2.5465951,0.37703443,-1.5887458,-0.90283096,0.073924959,-0.4235934,0
-0.70016932,-2.1044393,-0.16028202,-0.41605413,-0.39899588,0.81712973,0
-1.2243831,2.5366936,1.1083475,-0.35224575,0.89915532,0.25969699,0
-2.4754758,-0.11743236,-1.7227051,-0.87104756,-0.083151549,-0.48410916,0
-2.1575432,0.077166557,-2.284662,0.41605413,0.39899588,-0.81712973,0
-1.6636255,2.1680326,1.4353633,-0.41605413,-0.39899588,0.81712973,0
1.0748756,2.0605979,0.32966232,0.41605413,0.39899588,-0.81712973,0
-1.9362097,1.1322993,-1.6567562,0.41605413,0.39899588,-0.81712973,0
0.21515989,-2.7613254,-1.1547718,0.081239462,-0.91131258,-0.40362024,0
-2.0087473,-0.10989285,-2.3002396,0.41605413,0.39899588,-0.81712973,0
-1.9298884,2.305656,-0.33301449,-0.69726193,0.71679884,-0.0050160885,0
0.65016979,-0.66091692,1.2321205,-0.41605413,-0.39899588,0.81712973,0
-0.52875257,-2.6401083,-1.335449,-0.15098977,-0.85581076,-0.4947623,0
1.7412959,-1.4093808,-1.0253744,0.41605413,0.39899588,-0.81712973,0
-0.18034768,2.8319764,0.067202449,0.41605413,0.39899588,-0.81712973,0
-0.12022687,0.21512473,1.2676234,-0.41605413,-0.39899588,0.81712973,0
-0.6961205,2.8544466,0.6753087,-0.27329522,0.91191846,0.30612794,0
-0.071195126,-1.5225714,-2.0035017,0.41605413,0.39899588,-0.81712973,0
1.6059915,-0.83993012,-0.81620979,0.41605413,0.39899588,-0.81712973,0
-0.38384306,-0.99800503,0.54104042,-0.41605413,-0.39899588,0.81712973,0
-2.8573213,1.2080224,0.11091495,-0.84184813,0.50873202,-0.18023127,0
1.0139577,-2.6041131,-1.134165,0.2950505,-0.90921283,-0.29372978,0
0.050617576,-1.1981791,0.66450977,-0.41605413,-0.39899588,0.81712973,0
-1.2176661,-2.5931492,-1.0986395,-0.31663954,-0.77879298,-0.54149848,0
-2.4033642,-1.1471145,-1.4139686,-0.75920701,-0.34217554,-0.55364263,0
-0.32129788,-1.3998947,0.37664777,-0.41605413,-0.39899588,0.81712973,0
2.5565825,0.045785293,0.1002841,0.41605413,0.39899588,-0.81712973,0
-0.52193546,-1.1515167,-2.0518208,0.41605413,0.39899588,-0.81712973,0
0.068197489,-2.7086382,-1.2878764,0.022732556,-0.90287954,-0.42929211,0
-0.94412374,0.96393186,1.2137585,-0.41605413,-0.39899588,0.81712973,0
-0.70376515,2.6308167,1.2937003,-0.19294965,0.91687042,0.34945512,0
0.2050271,2.3076026,0.0073753595,0.41605413,0.39899588,-0.81712973,0
-2.5903096,-0.66747886,-1.375885,-0.83295995,-0.19326599,-0.51848412,0
1.9457369,-2.2833662,0.55685687,0.7257635,-0.68710208,0.034028769,0
-1.1668202,-0.29387361,0.48619592,-0.41605413,-0.39899588,0.81712973,0
0.36635113,2.2316856,2.0768623,0.21284586,0.8309043,0.51409578,0
1.0751066,-0.11807048,-0.73404127,0.41605413,0.39899588,-0.81712973,0
-1.2053955,-2.139354,-0.43457437,-0.41605413,-0.39899588,0.81712973,0
0.18840981,-2.0318601,-2.1200001,0.41605413,0.39899588,-0.81712973,0
0.53985703,0.116943,1.5557742,-0.41605413,-0.39899588,0.81712973,0
-0.19606575,0.52443767,-1.067548,0.41605413,0.39899588,-0.81712973,0
-0.41854191,-2.9407768,-0.42526209,-0.41605413,-0.39899588,0.81712973,0
1.6512593,0.14723814,2.1364541,-0.41605413,-0.39899588,0.81712973,0
-2.4383492,0.21609724,-1.8228369,-0.89061725,-0.0026105046,-0.45474613,0
0.0061256886,-2.8331902,-0.15650296,-0.41605413,-0.39899588,0.81712973,0
1.3156421,1.1937673,2.4765792,-0.41605413,-0.39899588,0.81712973,0
1.5242035,-0.82047415,1.599238,-0.41605413,-0.39899588,0.81712973,0
1.0091147,2.3682828,1.5438843,0.32205546,0.7756983,0.54274493,0
-2.7466841,1.469368,0.53893995,-0.77730918,0.62237316,-0.091880441,0
1.6254244,0.87565291,2.4789774,-0.41605413,-0.39899588,0.81712973,0
-0.87835616,-0.64413071,-1.9855462,0.41605413,0.39899588,-0.81712973,0
-2.2705503,1.5647557,0.83176446,-0.41605413,-0.39899588,0.81712973,0
-2.4740198,-0.91969681,-1.4424729,-0.7944963,-0.27762586,-0.54009175,0
0.89195406,-2.4350905,0.48891804,-0.41605413,-0.39899588,0.81712973,0
-0.16715479,2.9356487,0.76327014,-0.12202013,0.91496611,0.38464007,0
1.4497399,-1.5812833,1.1898288,-0.41605413,-0.39899588,0.81712973,0
1.1071043,-0.15272892,-0.73467255,0.41605413,0.39899588,-0.81712973,0
-0.24864221,2.0861628,2.1158476,-0.41605413,-0.39899588,0.81712973,0
-0.53214836,0.69792485,1.2936337,-0.41605413,-0.39899588,0.81712973,0
2.4279134,-1.7678835,0.13399673,0.78222322,-0.61526543,0.097853124,0
0.5224905,-2.4069905,-1.8914204,0.06286335,-0.90906703,-0.41188017,0
-2.093327,0.3340283,0.32104874,-0.41605413,-0.39899588,0.81712973,0
1.6251569,1.7763228,0.4710381,0.41605413,0.39899588,-0.81712973,0
-1.0996177,-0.92059654,0.21439075,-0.41605413,-0.39899588,0.81712973,0
-2.316546,-0.34823489,-1.9340217,-0.83841699,-0.17959763,-0.51458836,0
0.47955096,0.77448308,1.8461384,-0.41605413,-0.39899588,0.81712973,0
-2.7400231,1.41318,0.19733191,-0.81107616,0.56913191,-0.13507056,0
-1.755658,-0.22682607,-2.2284725,0.41605413,0.39899588,-0.81712973,0
-0.52034062,-0.034320474,-1.5054934,0.41605413,0.39899588,-0.81712973,0
-0.097268462,-1.0491085,0.66200113,-0.41605413,-0.39899588,0.81712973,0
0.1279704,-0.37552917,1.1055868,-0.41605413,-0.39899588,0.81712973,0
-1.4305397,-1.9574802,-1.7682016,-0.48636609,-0.66162258,-0.57070422,0
0.54521894,-2.7721109,0.14780897,-0.41605413,-0.39899588,0.81712973,0
1.8171611,2.0720639,1.2957702,0.5330537,0.62100065,0.57464057,0
0.12372696,1.1465918,-0.60092914,0.41605413,0.39899588,-0.81712973,0
-2.2566986,1.7161498,0.91274136,-0.41605413,-0.39899588,0.81712973,0
0.40695548,2.8223474,1.0349066,0.073275924,0.88096392,0.46747518,0
-1.3386219,0.085543931,0.5839861,-0.41605413,-0.39899588,0.81712973,0
0.57005578,-0.07670629,-0.97099793,0.41605413,0.39899588,-0.81712973,0
-0.51362658,2.0927396,1.9841378,-0.41605413,-0.39899588,0.81712973,0
1.6540778,-1.8121295,-1.2664409,0.41605413,0.39899588,-0.81712973,0
-2.6676037,0.85757768,-1.07758,-0.90484834,0.27085364,-0.32846236,0
-1.5226114,1.1231432,-1.4506373,0.41605413,0.39899588,-0.81712973,0
-1.6708949,1.2987405,-1.4403956,0.41605413,0.39899588,-0.81712973,0
2.7573442,-1.3010527,0.093437433,0.84259689,-0.50706482,0.18142664,0
1.0548775,-2.6021399,-1.0975386,0.3103708,-0.90694368,-0.28482118,0
1.1924593,-0.5487805,-0.88460064,0.41605413,0.39899588,-0.81712973,0
-0.50841856,-2.2469621,-0.13224196,-0.41605413,-0.39899588,0.81712973,0
-1.8645393,-2.1733198,-0.78677249,-0.41605413,-0.39899588,0.81712973,0
1.1067165,1.1683366,-0.089807272,0.41605413,0.39899588,-0.81712973,0
1.7992302,0.57664132,2.4214692,-0.41605413,-0.39899588,0.81712973,0
-0.044424295,-1.2211823,-1.8427056,0.41605413,0.39899588,-0.81712973,0
-2.6990991,-0.86714619,-0.57391047,-0.41605413,-0.39899588,0.81712973,0
-2.0045683,1.6290553,-1.4490013,0.41605413,0.39899588,-0.81712973,0
-2.5967345,-1.2577358,-1.0794756,-0.76847911,-0.32612729,-0.55052745,0
-1.356642,-0.7045058,-2.2585533,0.41605413,0.39899588,-0.81712973,0
0.27296686,2.2224953,0.00041097403,0.41605413,0.39899588,-0.81712973,0
-0.14588451,2.0620811,2.1564093,-0.41605413,-0.39899588,0.81712973,0
-1.6185285,0.26681066,-1.9176133,0.41605413,0.39899588,-0.81712973,0
-0.32092953,2.3951883,-0.21765596,0.41605413,0.39899588,-0.81712973,0
1.5911962,0.46139374,-0.18831992,0.41605413,0.39899588,-0.81712973,0
-0.033084035,0.90397501,1.6483521,-0.41605413,-0.39899588,0.81712973,0
-2.214731,2.0186143,-0.14199567,-0.73824364,0.67287141,-0.04733181,0
1.8811685,0.44620502,2.3994987,-0.41605413,-0.39899588,0.81712973,0
-0.66449845,1.6774465,-0.74305522,0.41605413,0.39899588,-0.81712973,0
0.742383,1.3858243,2.2784748,-0.41605413,-0.39899588,0.81712973,0
-0.022313118,-2.4939795,-1.7135459,-0.062331617,-0.88396966,-0.46337038,0
-2.7528102,0.66115338,-0.99479771,-0.90808386,0.22951367,-0.35029566,0
1.4840232,-0.666987,-0.79386538,0.41605413,0.39899588,-0.81712973,0
2.0215967,-1.3655393,-0.8612476,0.41605413,0.39899588,-0.81712973,0
-1.8095522,-0.10698676,-2.1973972,0.41605413,0.39899588,-0.81712973,0
-0.85349071,1.9513004,-0.70556378,0.41605413,0.39899588,-0.81712973,0
2.5371428,-0.82738537,-0.33597422,0.41605413,0.39899588,-0.81712973,0
-2.2342703,1.8493832,-0.97836852,-0.82904565,0.53562808,-0.16057962,0
1.5770493,2.4930282,0.79650307,0.41605413,0.39899588,-0.81712973,0
-0.17778325,-2.4920673,-0.083576024,-0.41605413,-0.39899588,0.81712973,0
0.84585017,0.48324931,1.8904387,-0.41605413,-0.39899588,0.81712973,0
0.69403613,1.6748078,-0.052625299,0.41605413,0.39899588,-0.81712973,0
-2.7853687,-0.44671819,-0.4125452,-0.41605413,-0.39899588,0.81712973,0
0.70081562,0.78431118,-0.48399356,0.41605413,0.39899588,-0.81712973,0
2.6483586,0.10896201,0.17786169,0.41605413,0.39899588,-0.81712973,0
-2.0416787,2.1978214,0.03362143,-0.68055952,0.73260701,0.011207193,0
1.2542328,0.10970414,-0.53161651,0.41605413,0.39899588,-0.81712973,0
-0.61123538,-2.1893251,-2.0281942,-0.27717304,-0.80019236,-0.53185248,0
-2.1981883,-1.8406929,-0.79423666,-0.41605413,-0.39899588,0.81712973,0
1.664726,1.9906683,1.5244968,0.52146173,0.6314804,0.57385546,0
-1.742018,2.4666197,-0.13614118,-0.63207519,0.77291155,0.055574,0
1.9027071,-0.76617157,1.8184743,-0.41605413,-0.39899588,0.81712973,0
-0.081860781,2.2026215,2.2576323,-0.41605413,-0.39899588,0.81712973,0
-0.39105392,2.9200225,0.70749301,-0.18919027,0.91691422,0.3513906,0
-0.52143502,-2.8301098,-0.99945652,-0.10038334,-0.8729521,-0.4773652,0
-2.4837005,-0.27829781,-0.17670846,-0.41605413,-0.39899588,0.81712973,0
0.68612552,-0.34694481,1.4037373,-0.41605413,-0.39899588,0.81712973,0
-1.6166614,-0.841874,-2.4580221,0.41605413,0.39899588,-0.81712973,0
-1.5542409,-2.1777666,-0.63095069,-0.41605413,-0.39899588,0.81712973,0
-1.8615848,-0.29472101,0.13203204,-0.41605413,-0.39899588,0.81712973,0
2.2606897,-0.53210783,2.1150379,-0.41605413,-0.39899588,0.81712973,0
0.64547515,2.7763443,0.460518,0.41605413,0.39899588,-0.81712973,0
-0.18742299,2.8435886,0.97323084,-0.09871906,0.91310406,0.39559498,0
2.7969668,0.52560091,1.0716553,0.86329591,0.10900408,0.49278593,0
1.0890644,-2.9331584,0.25282165,0.49113798,-0.85485584,-0.16734684,0
-2.2170916,1.9852197,-0.44461536,-0.77134037,0.63075477,-0.084748685,0
0.60646105,-2.5436573,0.29054296,-0.41605413,-0.39899588,0.81712973,0
0.57032025,-0.94791389,1.0513263,-0.41605413,-0.39899588,0.81712973,0
-3.0087352,-0.60167366,-0.60193872,-0.41605413,-0.39899588,0.81712973,0
-0.91313803,-1.1994483,0.17317927,-0.41605413,-0.39899588,0.81712973,0
-2.5874021,1.5538256,-0.12613511,-0.81344777,0.5649516,-0.13831931,0
-1.6485513,0.93379241,0.84037173,-0.41605413,-0.39899588,0.81712973,0
-1.996608,-0.51879036,-0.046127796,-0.41605413,-0.39899588,0.81712973,0
-0.64456326,0.37248325,-1.3701051,0.41605413,0.39899588,-0.81712973,0
1.3895956,0.27585202,-0.38156605,0.41605413,0.39899588,-0.81712973,0
-1.0410855,-0.60816169,-2.0508394,0.41605413,0.39899588,-0.81712973,0
-2.4113498,0.22697854,-1.8757083,-0.88976902,-0.0068008006,-0.45636022,0
-0.10041606,-0.35564828,0.99900776,-0.41605413,-0.39899588,0.81712973,0
-1.3059909,0.99245059,-1.4041575,0.41605413,0.39899588,-0.81712973,0
0.87462831,-2.5583305,-1.3836111,0.22584516,-0.91578078,-0.33217371,0
0.70631933,-2.4743283,-1.6879885,0.14031237,-0.91600323,-0.37583277,0
-2.3591809,0.066767335,-1.962229,-0.87632918,-0.063992321,-0.47744322,0
0.36056173,-0.84307748,-1.4518763,0.41605413,0.39899588,-0.81712973,0
-2.9597459,-0.86244696,-0.70432782,-0.41605413,-0.39899588,0.81712973,0
1.0724714,2.1097112,1.8579326,0.38941568,0.73385322,0.55660981,0
-1.0605093,1.2278843,-1.1642067,0.41605413,0.39899588,-0.81712973,0
1.2805067,-2.7819424,0.049318254,0.51247662,-0.84518445,-0.15175951,0
2.4785933,-1.7401452,-0.11308742,0.76665699,-0.63714802,0.079242289,0
0.15995419,0.90637648,1.7478131,-0.41605413,-0.39899588,0.81712973,0
0.067702532,2.0964317,2.2819333,-0.41605413,-0.39899588,0.81712973,0
-0.58743215,-1.300932,0.289464,-0.41605413,-0.39899588,0.81712973,0
1.5429244,-1.7636952,-1.2993863,0.41605413,0.39899588,-0.81712973,0
3.1206591,-0.076307654,0.39197779,0.90879929,-0.15146807,0.38876873,0
-1.5496346,2.5524635,0.31238776,-0.5329693,0.83507031,0.13638672,0
-2.9088032,-0.92627722,-0.70955753,-0.41605413,-0.39899588,0.81712973,0
-0.70905697,0.91816914,-1.1364903,0.41605413,0.39899588,-0.81712973,0
1.5158691,-0.92735314,-0.90478462,0.41605413,0.39899588,-0.81712973,0
1.3764088,-0.86851752,1.5005271,-0.41605413,-0.39899588,0.81712973,0
-0.2648735,-0.81934136,0.68885529,-0.41605413,-0.39899588,0.81712973,0
-0.44896936,1.6621972,1.8068295,-0.41605413,-0.39899588,0.81712973,0
-2.2111721,-0.17428502,0.01284194,-0.41605413,-0.39899588,0.81712973,0
2.135807,-1.2698854,-0.75638878,0.41605413,0.39899588,-0.81712973,0
1.7669826,1.2258246,2.1605604,0.6640501,0.48058689,0.57277685,0
-0.35756785,0.21845561,1.1484041,-0.41605413,-0.39899588,0.81712973,0
0.87880671,-1.6083348,0.88592035,-0.41605413,-0.39899588,0.81712973,0
-1.9226726,-0.26587093,-2.332576,0.41605413,0.39899588,-0.81712973,0
1.8856649,-1.2092865,-0.85416269,0.41605413,0.39899588,-0.81712973,0
-1.4892561,0.14588499,0.53675222,-0.41605413,-0.39899588,0.81712973,0
1.9927924,-0.32854652,2.0780303,-0.41605413,-0.39899588,0.81712973,0
1.7124068,1.5931772,1.888803,0.59788364,0.55702996,0.57641357,0
0.83639359,2.3980517,1.5968065,0.27879781,0.79935056,0.53226876,0
-1.0494803,-1.8960664,-2.1496272,-0.42795634,-0.7069484,-0.56309611,0
-0.13557792,3.0187197,0.57423794,-0.13933492,0.91595745,0.37630802,0
-2.065232,-0.98719978,-1.9719419,-0.73808694,-0.37670609,-0.5597499,0
-0.080156632,-0.20361304,1.0835605,-0.41605413,-0.39899588,0.81712973,0
2.6718588,1.429939,0.87087631,0.75601804,0.3475633,0.55464965,0
-2.2239618,-0.25714946,-0.034132004,-0.41605413,-0.39899588,0.81712973,0
-0.59086156,-0.93664944,-1.9819981,0.41605413,0.39899588,-0.81712973,0
0.023047924,-2.6505356,-1.4088237,-0.0066335797,-0.897241,-0.44149107,0
-2.696759,0.94832468,-0.91003895,-0.8989197,0.31610817,-0.30334634,0
-0.71566832,-1.8784494,-0.057825327,-0.41605413,-0.39899588,0.81712973,0
-0.59714395,-0.89245695,-1.9636183,0.41605413,0.39899588,-0.81712973,0
0.48830914,2.7373509,1.1750739,0.11628711,0.86787355,0.48298302,0
0.042058527,0.1990149,1.3423872,-0.41605413,-0.39899588,0.81712973,0
-2.1406689,1.3339187,-1.6624112,0.41605413,0.39899588,-0.81712973,0
2.1856682,-2.0595081,-0.33033061,0.67897022,-0.73405558,-0.012723684,0
-0.44756806,-0.72718436,0.64083284,-0.41605413,-0.39899588,0.81712973,0
2.6934466,-1.399285,0.10841823,0.83211803,-0.5294323,0.16516924,0
-2.7642274,1.1626179,0.38404131,-0.41605413,-0.39899588,0.81712973,0
-1.2144701,1.5280209,1.3515464,-0.41605413,-0.39899588,0.81712973,0
-0.01402545,-1.1665318,0.64704907,-0.41605413,-0.39899588,0.81712973,0
-1.1116554,1.4031702,-1.1046584,0.41605413,0.39899588,-0.81712973,0
-1.2102815,1.0745951,1.1322759,-0.41605413,-0.39899588,0.81712973,0
-1.5617244,2.0382969,1.4238989,-0.41605413,-0.39899588,0.81712973,0
-2.7623603,0.76327997,0.18999934,-0.41605413,-0.39899588,0.81712973,0
-0.74926412,0.54652578,1.1091592,-0.41605413,-0.39899588,0.81712973,0
-0.69660258,2.8661432,0.63988459,-0.27808976,0.91137362,0.30342066,0
1.4217253,0.098928988,-0.4515965,0.41605413,0.39899588,-0.81712973,0
-2.7373252,-0.87722033,-0.59829307,-0.41605413,-0.39899588,0.81712973,0
-2.8112512,0.88896012,-0.62988901,-0.89544499,0.33625153,-0.29174125,0
-0.83951521,-2.0175583,-2.1395025,-0.36221278,-0.75151658,-0.55138403,0
1.7685276,-0.55677092,1.8524032,-0.41605413,-0.39899588,0.81712973,0
2.4957733,1.5515157,1.0207119,0.71773541,0.40766463,0.56450438,0
-1.2367153,-2.2358797,-1.5765157,-0.39581412,-0.7295422,-0.55776268,0
1.1799159,-1.1922367,1.242411,-0.41605413,-0.39899588,0.81712973,0
0.097908258,3.0106533,0.65372407,-0.065524518,0.90941513,0.41069523,0
2.5726972,-1.1880953,1.0112047,0.88945621,-0.36544883,0.27443528,0
0.64281631,-1.0011132,1.0622623,-0.41605413,-0.39899588,0.81712973,0
1.8789101,-1.7453597,-1.1193608,0.41605413,0.39899588,-0.81712973,0
-0.75631917,0.61837476,1.1406502,-0.41605413,-0.39899588,0.81712973,0
0.53967381,2.0644052,2.252831,0.28981727,0.79355407,0.53504914,0
1.5226246,-1.4754034,1.278639,-0.41605413,-0.39899588,0.81712973,0
1.8186954,-2.4079196,0.25897706,0.66388202,-0.74735337,-0.026899248,0
2.2154133,-2.0314651,-0.19030726,0.70148516,-0.71262461,0.0092046857,0
2.5088959,-1.6861907,-0.76970243,0.41605413,0.39899588,-0.81712973,0
2.2129645,-1.9779718,0.53080702,0.77956933,-0.61912793,0.094615817,0
-1.9859302,2.2450461,-0.47332442,-0.72525555,0.68766451,-0.033495486,0
2.3936434,-0.48502874,1.8953331,0.90139163,-0.062409729,0.42848337,0
2.0336003,-0.51886088,-0.44171131,0.41605413,0.39899588,-0.81712973,0
-1.4540153,-1.1564484,-2.5288117,0.41605413,0.39899588,-0.81712973,0
0.67865646,1.2258871,2.167932,-0.41605413,-0.39899588,0.81712973,0
-2.1618581,1.2907045,0.75329024,-0.41605413,-0.39899588,0.81712973,0
-1.3543262,0.56440735,0.80981404,-0.41605413,-0.39899588,0.81712973,0
0.1338582,1.4448231,-0.45014745,0.41605413,0.39899588,-0.81712973,0
-1.9891891,-1.985281,-0.75842261,-0.41605413,-0.39899588,0.81712973,0
1.3519931,-1.1419928,-1.0930309,0.41605413,0.39899588,-0.81712973,0
0.74427319,-1.6918552,-1.6709529,0.41605413,0.39899588,-0.81712973,0
-1.9542623,-1.1127374,-2.0250461,-0.7065714,-0.4238019,-0.56669968,0
2.3688462,-1.8561891,0.0077735186,0.75652462,-0.65046376,0.067581415,0
-2.1546593,0.74390769,-1.9576309,0.41605413,0.39899588,-0.81712973,0
0.79918206,1.4943683,2.3603964,-0.41605413,-0.39899588,0.81712973,0
-0.40008909,0.41250283,1.221505,-0.41605413,-0.39899588,0.81712973,0
1.4157791,0.34419036,-0.33486557,0.41605413,0.39899588,-0.81712973,0
-0.32258558,-2.6121154,-1.4397186,-0.10752863,-0.87070513,-0.47990623,0
-1.0417249,-0.93841541,-2.2124243,0.41605413,0.39899588,-0.81712973,0
-1.4357338,-1.1851829,-2.5335338,0.41605413,0.39899588,-0.81712973,0
2.970237,0.43894148,0.77114105,0.88179493,0.042469352,0.46971655,0
0.27834731,-0.17774427,1.2787297,-0.41605413,-0.39899588,0.81712973,0
-1.4321197,-1.9859896,-0.47512841,-0.41605413,-0.39899588,0.81712973,0
-0.059696317,-1.8768505,0.27695367,-0.41605413,-0.39899588,0.81712973,0
2.5609748,-1.1784378,1.0614591,0.89138579,-0.35663193,0.27972305,0
-2.9568422,-0.30789381,-0.43206716,-0.41605413,-0.39899588,0.81712973,0
-1.6009434,1.5810997,1.1806855,-0.41605413,-0.39899588,0.81712973,0
1.7859299,0.81726921,2.4530241,0.72502279,0.39681777,0.56291842,0
-2.4684119,-1.5996919,-1.019824,-0.70742726,-0.42258441,-0.56654096,0
1.6996011,-1.0651375,1.5690777,-0.41605413,-0.39899588,0.81712973,0
1.0651298,2.3415956,1.5476291,0.33939618,0.76552629,0.54660732,0
-1.5178459,0.03527689,-1.9794047,0.41605413,0.39899588,-0.81712973,0
1.8116372,-1.0393095,1.6387342,-0.41605413,-0.39899588,0.81712973,0
0.57633448,2.6109965,1.36997,0.16962785,0.84877038,0.50081444,0
-0.36814654,1.0218209,-0.91229844,0.41605413,0.39899588,-0.81712973,0
2.2195165,-0.6675387,-0.4196471,0.41605413,0.39899588,-0.81712973,0
-0.92864239,-1.2814372,0.12525082,-0.41605413,-0.39899588,0.81712973,0
1.867732,1.7120409,0.56316042,0.41605413,0.39899588,-0.81712973,0
-0.61616826,2.6000633,1.4143431,-0.15343171,0.91651523,0.36940283,0
1.8206884,0.78919244,2.4274359,0.73325741,0.38424462,0.56097186,0
2.1382308,-1.2117306,-0.7267583,0.41605413,0.39899588,-0.81712973,0
0.46175766,2.0941176,0.033851266,0.41605413,0.39899588,-0.81712973,0
-0.40293846,-0.58905488,0.731004,-0.41605413,-0.39899588,0.81712973,0
-2.8290336,1.1302626,-0.19668746,-0.86460698,0.45194384,-0.21954834,0
0.045070082,-0.42209017,1.0406414,-0.41605413,-0.39899588,0.81712973,0
2.1752782,1.1901374,1.6887078,0.72509277,0.39671245,0.56290269,0
0.80504656,-1.6086437,-1.5993779,0.41605413,0.39899588,-0.81712973,0
-1.8612859,0.31480265,-2.0177829,0.41605413,0.39899588,-0.81712973,0
2.8738444,-1.1927121,-0.14488077,0.84170622,-0.50904673,0.18000531,0
2.8359456,0.28603935,1.0369067,0.88335812,0.035929531,0.46731937,0
-2.5912824,1.3629818,-0.65386105,-0.86376083,0.45432732,-0.21795374,0
0.43304041,-0.61157501,-1.3019322,0.41605413,0.39899588,-0.81712973,0
2.10531,0.48962951,2.20485,0.80306047,0.26034749,0.53601551,0
0.063223481,-1.6439968,-1.9943511,0.41605413,0.39899588,-0.81712973,0
0.92083192,2.884285,0.78938103,0.18366605,0.84320486,0.50524461,0
1.8306704,0.15029442,-0.21829462,0.41605413,0.39899588,-0.81712973,0
-3.0015731,0.69484514,0.034784555,-0.41605413,-0.39899588,0.81712973,0
-2.3345034,0.51302809,0.28565395,-0.41605413,-0.39899588,0.81712973,0
0.24438238,0.98353946,-0.61911249,0.41605413,0.39899588,-0.81712973,0
2.9858103,-0.40457407,0.55816936,0.90862846,-0.21794742,0.3562206,0
-0.78962207,2.9468162,0.27799103,-0.34920412,0.89980125,0.26156107,0
-0.23096299,3.1196978,0.18192238,0.41605413,0.39899588,-0.81712973,0
0.49886799,1.5793102,-0.19862866,0.41605413,0.39899588,-0.81712973,0
1.6577326,1.9024489,1.6269166,0.53602219,0.61827314,0.57482034,0
0.10743237,2.017535,-0.18395343,0.41605413,0.39899588,-0.81712973,0
1.4900768,1.0384213,2.4895413,-0.41605413,-0.39899588,0.81712973,0
0.55100834,-1.8074009,-1.8257765,0.41605413,0.39899588,-0.81712973,0
-0.50196171,2.2249134,2.0546162,-0.41605413,-0.39899588,0.81712973,0
2.3837287,1.1753733,1.423054,0.75326073,0.35216951,0.55549496,0
1.068794,-1.7529416,-1.5355461,0.41605413,0.39899588,-0.81712973,0
1.7951581,0.63553381,2.4481523,-0.41605413,-0.39899588,0.81712973,0
0.071158409,0.36837351,1.4399002,-0.41605413,-0.39899588,0.81712973,0
-0.6006093,3.0389171,0.20174432,-0.31084275,0.90686893,0.28454438,0
-0.95464575,2.3675342,1.8456135,-0.18498725,0.91694361,0.35354501,0
-0.31506515,3.080194,0.32514518,-0.22043729,0.91604781,0.33505768,0
-2.4490149,1.2673916,-1.3043871,-0.89297765,0.34896675,-0.28427631,0
-1.7918658,-1.4328015,-1.9529235,-0.63592577,-0.51465344,-0.57509124,0
-1.6996491,0.61273789,-1.7900043,0.41605413,0.39899588,-0.81712973,0
-1.6543478,-1.5756623,-1.9657319,-0.59156758,-0.56369412,-0.57645166,0
-2.3831398,1.4742578,-1.2275896,-0.87756419,0.41164562,-0.24582291,0
0.019433618,1.3608897,-0.54939234,0.41605413,0.39899588,-0.81712973,0
-0.2503705,2.1971951,2.1691833,-0.41605413,-0.39899588,0.81712973,0
1.0807335,0.46270996,-0.44758725,0.41605413,0.39899588,-0.81712973,0
0.19012821,-0.19350946,-1.2214776,0.41605413,0.39899588,-0.81712973,0
-1.5115552,0.33075649,0.61566925,-0.41605413,-0.39899588,0.81712973,0
-1.1533432,-1.7656043,-2.226027,-0.47246128,-0.67293978,-0.56915045,0
1.2305822,-0.44545424,1.6328547,-0.41605413,-0.39899588,0.81712973,0
1.6749371,-2.3348942,0.93651056,-0.41605413,-0.39899588,0.81712973,0
-2.6226363,-1.2460878,-1.049989,-0.7729215,-0.31822497,-0.54893076,0
-2.2227206,0.75492406,-1.9869063,0.41605413,0.39899588,-0.81712973,0
-0.63558686,-1.3443012,0.24376851,-0.41605413,-0.39899588,0.81712973,0
2.9193964,-0.40369928,0.72553015,0.90924013,-0.19583887,0.36732739,0
1.9521849,-2.2778893,0.5295459,0.72414273,-0.68889195,0.032329559,0
-2.1726742,0.91321158,-1.8841343,0.41605413,0.39899588,-0.81712973,0
-1.5674322,2.2198279,-0.9379586,0.41605413,0.39899588,-0.81712973,0
1.2796388,0.63801813,2.1868811,-0.41605413,-0.39899588,0.81712973,0
1.0268615,1.3937457,-0.020401835,0.41605413,0.39899588,-0.81712973,0
-1.0522699,-2.7451265,-0.65240061,-0.41605413,-0.39899588,0.81712973,0
2.0665762,0.99317539,1.9661446,0.73746979,0.3776764,0.5599094,0
0.91078448,-2.6743319,0.3816866,-0.41605413,-0.39899588,0.81712973,0
0.43541598,-0.72411036,-1.3556725,0.41605413,0.39899588,-0.81712973,0
-2.3055065,1.4178199,0.74221861,-0.41605413,-0.39899588,0.81712973,0
-0.48958397,1.5345304,1.7238117,-0.41605413,-0.39899588,0.81712973,0
2.4079249,1.3392792,0.65619206,0.41605413,0.39899588,-0.81712973,0
-0.58778811,2.5518515,1.5425969,-0.1284073,0.91537094,0.3815856,0
-2.7914941,0.0023425221,-1.1250415,-0.89705098,0.032856494,-0.44070363,0
-0.68217802,3.0343924,0.11978462,-0.34236348,0.90120727,0.26573059,0
2.2196107,1.4826262,0.6303041,0.41605413,0.39899588,-0.81712973,0
-0.56690168,2.5927777,-0.24641548,0.41605413,0.39899588,-0.81712973,0
0.56293511,2.1586666,2.0994456,0.27363086,0.80201584,0.53093934,0
-0.0014169216,-2.5304565,-1.6458313,-0.046879768,-0.88799042,-0.45746613,0
-0.19323611,1.9490994,-0.37045965,0.41605413,0.39899588,-0.81712973,0
1.6519986,-1.8850819,1.14447,-0.41605413,-0.39899588,0.81712973,0
-0.90869403,2.7519398,-0.34272718,0.41605413,0.39899588,-0.81712973,0
1.0630156,-0.99425542,1.2795616,-0.41605413,-0.39899588,0.81712973,0
-1.1863506,2.5215645,1.2081519,-0.32961535,0.9036572,0.27341777,0
1.0332019,0.99096191,-0.21384859,0.41605413,0.39899588,-0.81712973,0
0.15399241,0.53551757,1.5636909,-0.41605413,-0.39899588,0.81712973,0
-0.54455209,-0.5264464,0.68947029,-0.41605413,-0.39899588,0.81712973,0
2.943697,-1.1035702,-0.26382923,0.41605413,0.39899588,-0.81712973,0
2.4742503,1.4102097,1.1477735,0.73402107,0.38306078,0.56078261,0
1.361505,-0.17928326,1.8294846,-0.41605413,-0.39899588,0.81712973,0
0.39267093,-0.88785332,-1.457391,0.41605413,0.39899588,-0.81712973,0
2.2192521,-1.5814199,-0.8660205,0.41605413,0.39899588,-0.81712973,0
1.1820238,2.1922958,1.6723211,0.39400792,0.73076528,0.55744034,0
2.7264552,-1.4850385,-0.47445035,0.77990866,-0.6186372,0.095028222,0
-0.068387628,1.7952271,-0.3820256,0.41605413,0.39899588,-0.81712973,0
-2.3499343,1.3337418,-1.5331657,-0.89526516,0.337217,-0.29117829,0
0.95311236,1.9355532,2.1704602,0.40157008,0.72561181,0.55877429,0
-0.3397274,2.9368448,0.69054347,-0.17789471,0.91694683,0.35715789,0
-0.91550291,0.55838776,-1.4172831,0.41605413,0.39899588,-0.81712973,0
-2.2121141,1.4730241,-1.6308646,0.41605413,0.39899588,-0.81712973,0
1.9643674,1.6446964,0.57948041,0.41605413,0.39899588,-0.81712973,0
1.2126211,1.2291178,2.4413857,-0.41605413,-0.39899588,0.81712973,0
2.9923191,-0.045264296,0.27768707,0.41605413,0.39899588,-0.81712973,0
2.5721161,-1.1684542,-0.48470747,0.41605413,0.39899588,-0.81712973,0
-1.1068839,1.5264961,1.4055811,-0.41605413,-0.39899588,0.81712973,0
0.26370668,-2.746603,-1.1777917,0.091197073,-0.91237444,-0.39906859,0
-2.1323533,-1.1390567,-1.7799852,-0.72643161,-0.39469117,-0.56259733,0
-0.84161377,-2.8583112,-0.86096263,-0.17138016,-0.84808815,-0.50137347,0
-0.35219574,-1.4505419,-2.1114061,0.41605413,0.39899588,-0.81712973,0
0.18215795,0.35210037,-0.95912021,0.41605413,0.39899588,-0.81712973,0
-2.3586221,-1.1155,-1.4948406,-0.75778878,-0.34457988,-0.55409443,0
-2.823102,-0.31315818,-1.0586634,-0.88078296,-0.0466052,-0.47122097,0
1.2639954,-2.3513803,0.71922356,-0.41605413,-0.39899588,0.81712973,0
1.3171364,1.7999295,0.32573152,0.41605413,0.39899588,-0.81712973,0
-1.3228449,2.7683163,-0.12302393,-0.53174496,0.83569813,0.13731664,0
1.5742712,-2.1510806,0.9750092,-0.41605413,-0.39899588,0.81712973,0
-1.3123864,-1.8228662,-2.0248833,-0.49033588,-0.65832806,-0.57111686,0
2.0259655,0.3407245,-0.025872231,0.41605413,0.39899588,-0.81712973,0
0.24912547,-0.4279108,1.1416973,-0.41605413,-0.39899588,0.81712973,0
0.58873296,2.1789522,2.0555034,0.27463937,0.80149823,0.53120017,0
-0.81859756,2.4248846,-0.45655105,0.41605413,0.39899588,-0.81712973,0
0.01624167,-1.5744519,0.46327674,-0.41605413,-0.39899588,0.81712973,0
-1.6448632,-1.5889746,-0.38959146,-0.41605413,-0.39899588,0.81712973,0
1.5233121,2.2237799,0.63767052,0.41605413,0.39899588,-0.81712973,0
0.35444331,0.95032442,-0.57929164,0.41605413,0.39899588,-0.81712973,0
-0.35251218,0.39548457,1.2374197,-0.41605413,-0.39899588,0.81712973,0
1.7922561,-2.1376905,1.0925381,-0.41605413,-0.39899588,0.81712973,0
-2.5142486,1.6552956,0.75189137,-0.41605413,-0.39899588,0.81712973,0
-0.31995818,-0.35858953,-1.5618026,0.41605413,0.39899588,-0.81712973,0
1.2936991,-2.4054639,-1.462217,0.32398826,-0.90466899,-0.276777,0
-1.5635478,-0.22127342,0.31964588,-0.41605413,-0.39899588,0.81712973,0
1.0224205,0.61293662,2.0436673,-0.41605413,-0.39899588,0.81712973,0
-0.32055354,1.6609333,-0.57599366,0.41605413,0.39899588,-0.81712973,0
-0.79889572,-1.0302466,-2.1336243,0.41605413,0.39899588,-0.81712973,0
-1.1755463,-1.2421489,0.018719912,-0.41605413,-0.39899588,0.81712973,0
2.3043778,-1.5921131,1.3077402,0.87145901,-0.43160778,0.23296714,0
-2.258136,-0.93304896,-1.7444649,-0.76847559,-0.32613355,-0.55052876,0
1.6722313,-2.447295,-0.47538996,0.5424695,-0.83009332,-0.12911943,0
-1.8679214,-0.35168028,0.10099316,-0.41605413,-0.39899588,0.81712973,0
-1.7689507,2.0723729,1.3350257,-0.41605413,-0.39899588,0.81712973,0
2.4739971,1.3533151,1.1864412,0.74148154,0.37133139,0.55885398,0
2.080771,-1.4966236,1.5524664,-0.41605413,-0.39899588,0.81712973,0
-2.7274561,0.49276805,-1.1481121,-0.90915203,0.16425604,-0.38270414,0
0.42931342,-2.5612898,0.1917358,-0.41605413,-0.39899588,0.81712973,0
-2.2616768,-1.2960408,-1.5026932,-0.7219671,-0.40139729,-0.56359863,0
-1.4466668,2.4646599,1.0172997,-0.41984636,0.8813718,0.21659353,0
-0.46089792,-0.18891919,-1.5507162,0.41605413,0.39899588,-0.81712973,0
-0.030123234,-1.7076247,-2.0729489,0.41605413,0.39899588,-0.81712973,0
1.3500571,0.25507796,-0.41184151,0.41605413,0.39899588,-0.81712973,0
0.22063947,-2.8884254,-0.85862744,0.12334287,-0.91505373,-0.38400939,0
-2.1251206,2.1177776,0.19897783,-0.68039095,0.73276103,0.011368245,0
0.42418611,-1.5760186,-1.7773684,0.41605413,0.39899588,-0.81712973,0
0.78470373,2.0497322,2.1304135,0.34429461,0.76257908,0.54766238,0
-1.1881695,-1.7923331,-0.25635684,-0.41605413,-0.39899588,0.81712973,0
-2.4562964,0.092376247,0.018241167,-0.41605413,-0.39899588,0.81712973,0
2.8775299,0.46051246,0.46620607,0.41605413,0.39899588,-0.81712973,0
2.0045485,-2.0887961,-1.2230866,0.41605413,0.39899588,-0.81712973,0
2.433888,-1.8215557,-0.59327745,0.70442277,-0.70967668,0.012139797,0
-2.4722698,-1.3498685,-1.1910229,-0.74171543,-0.37095898,-0.5587911,0
2.3950989,-1.5642991,1.0112033,0.86132121,-0.4610593,0.21342444,0
2.7356975,1.2250075,0.90005612,0.78826046,0.28976643,0.54284477,0
2.1390035,-1.8515204,-1.0387676,0.41605413,0.39899588,-0.81712973,0
1.9022517,1.6260555,0.53875089,0.41605413,0.39899588,-0.81712973,0
-0.79577291,0.74935174,1.1845164,-0.41605413,-0.39899588,0.81712973,0
-1.5401381,2.6495693,-0.39961803,-0.61641204,0.78438163,0.069149822,0
2.2120166,0.44269931,2.0635366,0.81905508,0.22593229,0.52735484,0
-1.9801258,2.0009985,1.1926512,-0.41605413,-0.39899588,0.81712973,0
1.1120203,-1.0764159,1.2643951,-0.41605413,-0.39899588,0.81712973,0
-0.028872728,2.9228547,0.82743126,-0.075926125,0.91070139,0.4060272,0
2.8247378,0.44867617,0.43354654,0.41605413,0.39899588,-0.81712973,0
-2.1117074,2.131444,0.060953617,-0.69309139,0.7208491,-0.0009149313,0
1.891167,-1.8479334,1.2843853,-0.41605413,-0.39899588,0.81712973,0
-2.5820034,0.49311745,-1.4840591,-0.90715027,0.11979571,-0.40339434,0
-0.75275671,1.9695936,-0.64534092,0.41605413,0.39899588,-0.81712973,0
-1.1311117,0.016726613,0.65604025,-0.41605413,-0.39899588,0.81712973,0
0.90165043,1.0527561,2.1969345,-0.41605413,-0.39899588,0.81712973,0
1.5197291,-1.5450517,-1.204435,0.41605413,0.39899588,-0.81712973,0
2.6922364,-1.1415594,0.67881894,0.88216305,-0.39514366,0.25622231,0
1.2375371,2.5933237,1.0867043,0.32075435,0.77644539,0.54244727,0
-0.31166601,0.23256707,-1.2689251,0.41605413,0.39899588,-0.81712973,0
1.1428103,-0.69773138,-0.98261142,0.41605413,0.39899588,-0.81712973,0
-0.16333222,-2.8599563,-0.98009956,0.0021666884,-0.89902902,-0.43788338,0
0.37697339,-2.7919641,-1.0367823,0.14090693,-0.91603065,-0.37554339,0
-1.4397024,0.7751987,-1.5783206,0.41605413,0.39899588,-0.81712973,0
-0.33519399,1.7499573,1.9076128,-0.41605413,-0.39899588,0.81712973,0
-2.572613,-0.71011353,-1.3876925,-0.82706118,-0.20747757,-0.52241993,0
0.47111595,-1.4499213,-1.6919013,0.41605413,0.39899588,-0.81712973,0
-1.2922457,1.1805764,-1.3052989,0.41605413,0.39899588,-0.81712973,0
-0.84092045,-1.434711,-2.3525176,0.41605413,0.39899588,-0.81712973,0
2.1450119,-2.0646887,0.50344038,0.76253653,-0.64264596,0.074459732,0
2.51401,1.5290966,0.80289316,0.41605413,0.39899588,-0.81712973,0
0.68584836,1.5135612,2.3120623,-0.41605413,-0.39899588,0.81712973,0
-0.88334703,2.8961849,0.32444745,-0.36697155,0.89584595,0.25058317,0
0.12567043,-0.70025969,-1.5017383,0.41605413,0.39899588,-0.81712973,0
-1.5369318,2.230545,1.5303955,-0.41605413,-0.39899588,0.81712973,0
-2.6772642,0.76713979,-1.1204264,-0.90736234,0.24138495,-0.34413165,0
-0.68245959,1.2198693,1.4719604,-0.41605413,-0.39899588,0.81712973,0
1.1023617,2.7575624,0.68397784,0.41605413,0.39899588,-0.81712973,0
-0.044798136,1.9301414,2.1434541,-0.41605413,-0.39899588,0.81712973,0
2.2253547,-2.005944,0.15487421,0.74193019,-0.66850859,0.051339269,0
0.62864125,1.3835754,-0.22812766,0.41605413,0.39899588,-0.81712973,0
-0.43351531,2.3960052,1.9255319,-0.033865392,0.90477192,0.42454773,0
0.94864523,1.0460546,2.2175906,-0.41605413,-0.39899588,0.81712973,0
-2.6836753,0.054676056,-1.3397365,-0.89455849,0.018225372,-0.44657886,0
1.6713876,2.0588369,1.4428456,0.51027268,0.64134359,0.5729745,0
-1.2660953,-1.8289789,-2.0571847,-0.48089892,-0.66611326,-0.57011324,0
1.5193644,1.2463109,2.420294,0.62409878,0.52825743,0.57571208,0
1.241583,0.76058543,2.2273526,-0.41605413,-0.39899588,0.81712973,0
-2.4396596,0.26335198,0.11019778,-0.41605413,-0.39899588,0.81712973,0
-2.3841388,0.60974157,-1.8920889,-0.90530515,0.097189248,-0.41349351,0
1.6702766,1.0456434,0.13722801,0.41605413,0.39899588,-0.81712973,0
-2.013711,-1.8363008,-1.3410122,-0.60540211,-0.54896468,-0.57630348,0
3.0027275,-0.207663,0.61631608,0.90898478,-0.15737653,0.3859781,0
0.42478371,-2.8037171,0.071054399,-0.41605413,-0.39899588,0.81712973,0
-0.074435711,1.6102425,-0.47543085,0.41605413,0.39899588,-0.81712973,0
-0.39287329,2.7461166,1.1421454,-0.13081235,0.91551143,0.38042966,0
-2.4692445,-1.6260855,-0.82745862,-0.41605413,-0.39899588,0.81712973,0
-2.7714262,-0.53117645,-1.1149492,-0.86085367,-0.11668503,-0.49529278,0
-1.5624144,-2.4370127,-0.76169968,-0.41605413,-0.39899588,0.81712973,0
0.0028924942,-3.0122521,-0.24558342,-0.41605413,-0.39899588,0.81712973,0
1.2915689,1.5830609,0.2068187,0.41605413,0.39899588,-0.81712973,0
-2.9613984,-0.046780437,-0.77835989,-0.90187669,0.066166937,-0.42689574,0
-0.25112391,-1.7677219,0.2327719,-0.41605413,-0.39899588,0.81712973,0
-2.5603967,-0.97126269,-0.55412698,-0.41605413,-0.39899588,0.81712973,0
1.9155526,0.66586792,2.3803034,0.76088798,0.33930919,0.55309892,0
0.11351252,-2.2495704,-2.1943874,-0.092908561,-0.87524235,-0.47467762,0
-0.61642164,0.10772204,-1.4850566,0.41605413,0.39899588,-0.81712973,0
-1.2679904,-0.94454551,0.1169672,-0.41605413,-0.39899588,0.81712973,0
-1.4240892,1.9047967,1.4287914,-0.41605413,-0.39899588,0.81712973,0
1.0937243,-2.5463352,-1.2324806,0.30269814,-0.90811807,-0.28930131,0
-0.36420584,-2.9832118,-0.72641218,-0.01763165,-0.89488816,-0.44594204,0
-2.5379453,-0.33658835,-0.23279071,-0.41605413,-0.39899588,0.81712973,0
-0.051101446,-2.9491541,-0.24226487,-0.41605413,-0.39899588,0.81712973,0
0.45747566,-1.5016432,0.7234894,-0.41605413,-0.39899588,0.81712973,0
0.49158621,-3.0022948,0.008104682,-0.41605413,-0.39899588,0.81712973,0
1.7348487,-2.0046768,-1.3193338,0.41605413,0.39899588,-0.81712973,0
1.2738807,2.5096614,0.65026188,0.41605413,0.39899588,-0.81712973,0
-1.999613,1.9759258,1.1704863,-0.41605413,-0.39899588,0.81712973,0
2.1235991,-0.48495623,-0.37933195,0.41605413,0.39899588,-0.81712973,0
0.082561851,1.6081078,-0.39653558,0.41605413,0.39899588,-0.81712973,0
1.0195534,-2.4838333,-1.4870549,0.24994648,-0.91416305,-0.3191123,0
0.078388929,-2.3233964,0.12921804,-0.41605413,-0.39899588,0.81712973,0
0.44518995,-2.9785652,-0.51697135,0.22894198,-0.9156121,-0.33051467,0
0.58532572,2.5172019,0.30335522,0.41605413,0.39899588,-0.81712973,0
-1.0922854,1.2185174,1.2626313,-0.41605413,-0.39899588,0.81712973,0
