1.2095621,-1.7487328,-3.3184357,0.066476464,0.18943907,-0.97963971,0
1.2268598,-5.2830038,1.8452123,0.39520097,-0.90651512,-0.14848092,0
1.3736571,-4.5569472,-2.1968336,0.39520097,-0.90651512,-0.14848092,0
1.7066202,2.8322258,1.6175132,0.84988332,0.29949245,0.43359292,0
-2.6933198,-1.0408318,-0.8140626,-0.89777327,-0.34694397,-0.27135414,0
0.70753539,5.490108,-0.25655496,0.84961247,0.42217168,-0.31611681,0
3.1443887,-4.0870667,-0.35254979,0.39520097,-0.90651512,-0.14848092,0
0.50003505,-0.016773939,2.9667363,0.19667196,-0.074390858,0.97764319,0
0.43313986,-5.2755909,-0.31263438,0.39520097,-0.90651512,-0.14848092,0
3.6352487,-3.0581608,-2.7953072,0.60261667,0.37784666,-0.70291191,0
3.1511853,-3.8610184,-1.7145458,0.39520097,-0.90651512,-0.14848092,0
1.0005594,-5.2601881,1.1035916,0.39520097,-0.90651512,-0.14848092,0
3.1403253,0.25983459,0.17453146,0.91772872,0.38261923,0.10666114,0
4.0384293,-1.7627844,-0.60952568,0.91346586,0.4048835,-0.040614188,0
-4.7173634,3.3286195,0.55063629,-0.91859329,-0.39029223,-0.062116742,0
1.2375728,-4.729105,-1.5079732,0.39520097,-0.90651512,-0.14848092,0
2.169848,-1.7954397,2.3703504,0.44227272,0.046102881,0.89569497,0
1.4633515,-4.9784026,0.61499399,0.39520097,-0.90651512,-0.14848092,0
3.6496019,-4.0889044,1.0033567,0.39520097,-0.90651512,-0.14848092,0
-1.2745975,4.7425613,1.327271,-0.39520097,0.90651512,0.14848092,0
2.3283422,-1.6474174,-3.0075226,0.39933836,0.31511167,-0.86094922,0
-1.4281739,5.1613665,-1.6384066,-0.39520097,0.90651512,0.14848092,0
3.7170725,-2.9821296,-2.6788001,0.63698989,0.3869077,-0.66674316,0
0.70180392,-4.6493931,-3.4206519,0.39520097,-0.90651512,-0.14848092,0
-0.030261993,5.65769,-0.94787276,-0.39520097,0.90651512,0.14848092,0
2.4503589,-4.2163177,-1.4106882,0.39520097,-0.90651512,-0.14848092,0
0.021913856,5.3290262,1.1975775,-0.39520097,0.90651512,0.14848092,0
-4.1174212,3.6680903,0.32065964,-0.39520097,0.90651512,0.14848092,0
3.2592044,-4.1520157,0.34957719,0.39520097,-0.90651512,-0.14848092,0
1.1138027,-5.3137708,1.7321367,0.39520097,-0.90651512,-0.14848092,0
-0.57997429,-5.58289,-1.133023,0.39520097,-0.90651512,-0.14848092,0
-3.5411777,1.1868256,-0.78464508,-0.86965299,-0.31716838,-0.37829614,0
-0.95743155,5.0998363,-0.0098097026,-0.39520097,0.90651512,0.14848092,0
0.33068073,5.7103453,-0.30865264,-0.39520097,0.90651512,0.14848092,0
-1.4007292,4.7798367,0.76398087,-0.39520097,0.90651512,0.14848092,0
3.5002527,-3.1285744,-2.9387553,0.55343163,0.36397845,-0.74915498,0
-2.7248168,3.8735271,2.7730091,-0.39520097,0.90651512,0.14848092,0
-1.3462636,4.8143754,0.69807863,-0.39520097,0.90651512,0.14848092,0
-0.51790452,-1.5062449,2.655282,-0.27360839,-0.2704674,0.92303073,0
1.604619,-2.0297983,2.5837088,0.25947613,-0.044891939,0.96470571,0
-2.2772126,-2.1999578,-0.61731863,-0.91530669,-0.37494406,-0.14707351,0
0.57228309,-4.937067,-2.0090601,0.39520097,-0.90651512,-0.14848092,0
1.2028463,-4.5160799,-2.9009748,0.39520097,-0.90651512,-0.14848092,0
0.82300055,4.605588,2.1067648,0.82268798,0.27737647,0.49623275,0
0.98504317,5.2437158,0.7580297,0.91808903,0.39515191,0.031104922,0
4.3727112,-3.7034082,0.57445097,0.39520097,-0.90651512,-0.14848092,0
3.3234024,-3.8080051,-1.579826,0.39520097,-0.90651512,-0.14848092,0
4.0075088,-1.7899407,0.017392874,0.91378832,0.37144989,0.16436511,0
3.9528017,-3.9055624,0.69101167,0.39520097,-0.90651512,-0.14848092,0
0.3079983,-4.2922378,-3.274421,-0.48998892,-0.07130909,-0.8688072,0
-1.1396827,4.9285779,0.5506866,-0.39520097,0.90651512,0.14848092,0
-0.042504907,-5.5651264,0.18906873,0.39520097,-0.90651512,-0.14848092,0
0.0096890926,-3.6235576,2.1624377,-0.38769764,-0.31114054,0.86768782,0
2.1821241,-4.7048936,0.85825527,0.39520097,-0.90651512,-0.14848092,0
2.6175437,-4.46877,0.57558382,0.39520097,-0.90651512,-0.14848092,0
-2.1916928,4.4163265,0.87805414,-0.39520097,0.90651512,0.14848092,0
-0.25114715,-4.2163877,-2.9002326,-0.63088405,-0.15036382,-0.76116765,0
0.82191086,-3.6420634,2.3987997,-0.15682906,-0.22585036,0.9614554,0
1.260216,1.92758,2.5159791,0.6338647,0.15212715,0.75833565,0
-1.5059612,4.54599,1.911588,-0.39520097,0.90651512,0.14848092,0
0.92198908,2.2261243,2.7260528,0.57849169,0.12004782,0.80680597,0
4.0092864,-3.3232965,1.1913972,0.75414062,0.22789156,0.61590374,0
3.9994347,-2.2252898,-1.6942638,0.82604867,0.42141801,-0.37423351,0
-1.9284785,0.90648204,2.9205587,-0.37705046,-0.30747783,0.87366492,0
-0.013738155,-1.0661614,2.8551047,-0.075337946,-0.1930806,0.97828633,0
1.3707125,2.1215732,-1.9523723,0.60071009,0.37732798,-0.70481998,0
1.0608276,-5.0185494,-0.21126692,0.39520097,-0.90651512,-0.14848092,0
-0.53623623,5.0434337,1.4556094,-0.39520097,0.90651512,0.14848092,0
-0.57677108,-4.1314988,-2.6183295,-0.70682156,-0.19685414,-0.67944962,0
1.261759,0.99668586,2.6558051,0.5258677,0.090733334,0.84571308,0
1.9271693,-4.6054149,-0.42768478,0.39520097,-0.90651512,-0.14848092,0
1.433176,-2.3873551,-3.4263198,0.050999224,0.1830425,-0.98178136,0
0.8630324,-4.7495966,-2.3797536,0.39520097,-0.90651512,-0.14848092,0
-3.4015813,1.8462579,-1.3881905,-0.76344532,-0.2342419,-0.60189873,0
-2.4195156,4.3777761,0.5070343,-0.39520097,0.90651512,0.14848092,0
1.3717062,-1.4166371,2.6747069,0.26896697,-0.040360823,0.96230334,0
-4.0003633,1.7203314,0.12311888,-0.91734284,-0.3810364,-0.11529762,0
1.3051505,1.318181,-2.3801455,0.47796214,0.34096187,-0.80950433,0
-1.2470956,-0.48219174,-2.7077999,-0.46132004,-0.056083202,-0.88545948,0
-3.5269232,3.6766963,1.8398038,-0.39520097,0.90651512,0.14848092,0
0.58752656,2.3410645,2.9290857,0.502114,0.077825978,0.86129248,0
-2.8490329,2.6718159,3.1397467,-0.42087573,-0.32236463,0.84790611,0
2.6782515,-4.6128621,1.6168863,0.39520097,-0.90651512,-0.14848092,0
3.1443307,-4.3092375,1.0037048,0.39520097,-0.90651512,-0.14848092,0
0.47460055,-0.12809119,-3.0547976,0.058443785,0.186125,-0.98078638,0
-3.4873388,3.8798974,0.70456958,-0.39520097,0.90651512,0.14848092,0
-3.7494144,1.6811982,1.6330231,-0.82189757,-0.42113787,0.38357198,0
2.1152337,-0.18564671,-2.5288215,0.52332294,0.35502881,-0.77465332,0
3.1301551,-4.4801345,2.0093465,0.39520097,-0.90651512,-0.14848092,0
3.6478486,-2.0932741,1.1586404,0.79872501,0.25927466,0.54296881,0
1.9344728,0.084236979,2.3171363,0.59949565,0.13205412,0.7894091,0
-2.5571058,4.5942698,-1.1809272,-0.39520097,0.90651512,0.14848092,0
-1.9942368,-1.8819301,-1.6871514,-0.81866097,-0.27425757,-0.50455624,0
-2.6048577,1.257566,2.6891725,-0.52989686,-0.35701054,0.7692548,0
3.9561391,-2.6050808,0.94282579,0.82009804,0.27536669,0.50160986,0
4.3204203,-3.4321923,-1.2205708,0.39520097,-0.90651512,-0.14848092,0
-0.32155299,3.0135834,-2.4567707,0.22137982,0.25086528,-0.94236821,0
2.4508026,-4.3895273,-0.35201728,0.39520097,-0.90651512,-0.14848092,0
3.2067595,-3.6532321,-2.8352153,0.39520097,-0.90651512,-0.14848092,0
-2.204808,2.4512253,3.31461,-0.26259553,-0.26638308,0.92740703,0
-1.4330714,4.6219611,-2.2631586,0.10459763,0.20499656,-0.97315764,0
3.1888814,-3.9537616,-1.04799,0.39520097,-0.90651512,-0.14848092,0
-4.0893927,3.0649369,-0.97281599,-0.80324984,-0.26261395,-0.53462481,0
-4.5297713,3.2526016,1.659013,-0.8532269,-0.42213568,0.30627686,0
1.713558,3.5149872,-0.0061442852,0.90161043,0.41373214,-0.12619185,0
-0.62558538,-5.5386491,-1.5245265,0.39520097,-0.90651512,-0.14848092,0
-1.1830758,4.745481,1.5530406,-0.39520097,0.90651512,0.14848092,0
-2.2787111,4.21246,1.8911022,-0.39520097,0.90651512,0.14848092,0
-3.1083946,0.72284323,1.8667673,-0.75146991,-0.4120115,0.51530552,0
-2.390101,4.735384,-1.5979637,-0.39520097,0.90651512,0.14848092,0
1.7810895,-1.5584027,-3.1779332,0.25270844,0.26269373,-0.93119842,0
1.2051334,3.2770283,-1.4219881,0.70249426,0.40240395,-0.58700329,0
0.29009819,-0.95022565,-3.1796336,-0.094071507,0.12084985,-0.98820335,0
2.656992,-4.5401006,1.1160713,0.39520097,-0.90651512,-0.14848092,0
0.32621232,5.352078,1.8667712,-0.39520097,0.90651512,0.14848092,0
3.7565656,-3.7559247,-0.74487233,0.39520097,-0.90651512,-0.14848092,0
-3.447042,2.0474329,2.3849878,-0.67840487,-0.39700907,0.61818337,0
3.2012949,-0.57916677,-1.5876391,0.80021757,0.41911781,-0.42894331,0
-3.3353775,4.2403131,-1.0914021,-0.39520097,0.90651512,0.14848092,0
0.591699,-4.8164277,-2.6939189,0.39520097,-0.90651512,-0.14848092,0
-3.7230332,3.720403,1.0509908,-0.39520097,0.90651512,0.14848092,0
2.2454205,2.0707054,-0.67862749,0.86558086,0.42161351,-0.27020752,0
0.37964201,0.77638459,3.0437732,0.25903338,-0.045102805,0.96481478,0
-2.3250284,4.3477917,-2.2694652,-0.17914903,0.082474887,-0.98035884,0
3.9958203,-3.5579681,-1.3166406,0.39520097,-0.90651512,-0.14848092,0
-3.3047752,0.80090106,-0.99411082,-0.85334331,-0.30246732,-0.4246397,0
-2.0882921,-1.2540642,-1.8464556,-0.77325332,-0.2410405,-0.58649701,0
-3.0391059,2.251219,2.8511961,-0.53020906,-0.35710424,0.76899612,0
0.29167849,-5.2412901,-0.89856529,0.39520097,-0.90651512,-0.14848092,0
-0.26238835,-5.5977049,-0.19727737,0.39520097,-0.90651512,-0.14848092,0
4.1018782,-3.6565437,-0.43252635,0.39520097,-0.90651512,-0.14848092,0
-0.40165138,-5.7861009,0.58226031,0.39520097,-0.90651512,-0.14848092,0
-0.57177913,5.3295884,-0.38604271,-0.39520097,0.90651512,0.14848092,0
-0.68582273,5.4655743,-1.5198129,-0.39520097,0.90651512,0.14848092,0
-2.9376338,-0.7420342,0.32894564,-0.90845293,-0.40965104,0.083063841,0
-1.3104972,5.2258649,-1.7189758,-0.39520097,0.90651512,0.14848092,0
-3.49734,0.74068338,1.0495732,-0.87472308,-0.42073405,0.24050468,0
2.9728179,-4.3646584,0.8855617,0.39520097,-0.90651512,-0.14848092,0
2.6822665,-0.91572165,-2.460515,0.59696496,0.37630448,-0.70853925,0
0.26675272,5.7628064,-0.79909325,-0.39520097,0.90651512,0.14848092,0
-3.3205085,4.17942,-0.68005657,-0.39520097,0.90651512,0.14848092,0
-3.9625649,3.594636,1.1812875,-0.39520097,0.90651512,0.14848092,0
1.344296,0.9940514,-2.4909298,0.44809854,0.33135045,-0.83030999,0
0.34177351,-0.76802331,2.9074068,0.061283708,-0.13526015,0.98891312,0
3.1957095,0.17308921,-0.075334549,0.9180603,0.3952902,0.030184031,0
2.8863666,-3.9784908,-1.7021945,0.39520097,-0.90651512,-0.14848092,0
-3.393441,0.52033824,1.0414064,-0.8719722,-0.42105094,0.24976099,0
3.9613807,-3.5408735,1.3195505,0.71718997,0.20349459,0.66650474,0
4.2275305,-3.5580091,-0.69966412,0.39520097,-0.90651512,-0.14848092,0
2.2649598,-4.6209741,0.566383,0.39520097,-0.90651512,-0.14848092,0
2.3271554,-4.1642833,-2.056293,0.39520097,-0.90651512,-0.14848092,0
1.6350129,-4.3544865,-2.7372789,0.39520097,-0.90651512,-0.14848092,0
1.1110145,-4.829679,-1.2307919,0.39520097,-0.90651512,-0.14848092,0
0.5513041,-0.99208868,2.8620021,0.092573225,-0.12151287,0.98826361,0
-1.8521738,0.18372993,2.6868482,-0.44646925,-0.33081856,0.83139896,0
1.1064763,-4.9957409,-0.22902158,0.39520097,-0.90651512,-0.14848092,0
0.8953836,4.3612423,2.1220822,0.8141675,0.27081648,0.51360488,0
2.211952,-1.0583475,-2.8415494,0.44019341,0.32876256,-0.83555073,0
1.1167257,-3.2525561,-3.5354185,-0.14346439,0.098745674,-0.98471683,0
-0.91182709,5.3338594,-1.3171997,-0.39520097,0.90651512,0.14848092,0
-2.8907967,4.4003229,-0.88499475,-0.39520097,0.90651512,0.14848092,0
0.43351436,-5.2723842,-0.33121425,0.39520097,-0.90651512,-0.14848092,0
-1.052991,4.9834099,0.4466626,-0.39520097,0.90651512,0.14848092,0
-1.5908999,4.8175626,0.027489662,-0.39520097,0.90651512,0.14848092,0
2.4782188,1.2642585,-1.1225343,0.82607293,0.4214195,-0.37417799,0
1.594208,3.4193175,-0.63793612,0.84425819,0.42214221,-0.33018827,0
-2.3713202,4.1922731,1.7678573,-0.39520097,0.90651512,0.14848092,0
-4.1924758,3.194994,2.2624149,-0.75343215,-0.41235155,0.51215863,0
1.0275428,-0.78395343,-3.1358328,0.13406396,0.21682748,-0.96696055,0
4.0468855,-3.3017712,1.1360605,0.76620448,0.23614319,0.59763473,0
-3.0199318,4.4454403,-1.5041578,-0.39520097,0.90651512,0.14848092,0
-2.3161297,3.950002,3.3938837,-0.39520097,0.90651512,0.14848092,0
0.10112834,-5.1633115,-1.8818195,0.39520097,-0.90651512,-0.14848092,0
-2.4048851,0.83620828,2.6312914,-0.52510023,-0.35556608,0.77320284,0
1.4503396,2.7622416,-1.48114,0.70883179,0.40375647,-0.57839286,0
2.5023365,-4.6692252,1.4927783,0.39520097,-0.90651512,-0.14848092,0
2.8611016,-4.0626535,-1.2556046,0.39520097,-0.90651512,-0.14848092,0
-0.8554194,5.267416,-0.76140887,-0.39520097,0.90651512,0.14848092,0
3.5536332,-3.4977179,-2.8614225,0.39520097,-0.90651512,-0.14848092,0
-2.545939,3.8988538,3.0944889,-0.39520097,0.90651512,0.14848092,0
-2.4421248,4.3991766,0.31620002,-0.39520097,0.90651512,0.14848092,0
0.74079037,0.78158355,-2.8000638,0.24693018,0.26052782,-0.93335462,0
-3.2594361,2.5857952,2.8529396,-0.55219328,-0.36361688,0.75024378,0
3.9328151,-3.0422626,1.1797667,0.76596451,0.23597755,0.59800756,0
1.6225212,-4.5356345,-1.664569,0.39520097,-0.90651512,-0.14848092,0
0.47984123,-4.7651701,-3.3045828,0.39520097,-0.90651512,-0.14848092,0
-0.67081928,2.0289176,3.3466535,0.11906797,-0.1097234,0.98680484,0
1.3890322,-4.4515228,-2.799552,0.39520097,-0.90651512,-0.14848092,0
-3.8000004,3.9531283,-0.57471561,-0.39520097,0.90651512,0.14848092,0
3.0204957,-4.5267873,2.0023019,0.39520097,-0.90651512,-0.14848092,0
3.2246854,-3.8287039,-1.7162044,0.39520097,-0.90651512,-0.14848092,0
3.0469,-1.6135581,1.7126722,0.69781882,0.19115266,0.69029677,0
-3.2513595,0.19725227,0.99276996,-0.87154233,-0.42109612,0.25118107,0
-1.5129814,-4.0167546,-0.2425077,-0.90997791,-0.40843347,0.071571171,0
-1.4364734,4.2443433,3.6796317,0.17478675,-0.084477663,0.98097563,0
-4.0605459,2.633884,1.9901122,-0.78865701,-0.41771489,0.45114794,0
-2.5490091,2.6879413,-2.2290494,-0.43957517,-0.044697851,-0.89709312,0
0.89458025,-5.31074,1.1301435,0.39520097,-0.90651512,-0.14848092,0
-1.1884762,-4.4358158,-1.4482729,-0.89233196,-0.3404792,-0.29634053,0
-1.7310572,4.2690291,3.0033846,-0.39520097,0.90651512,0.14848092,0
2.2029188,0.93698823,-1.8317084,0.69568515,0.40091866,-0.59605908,0
3.7517734,-1.2384411,0.18659163,0.91102594,0.36608362,0.18977517,0
0.58819771,-1.6815343,-3.2973838,-0.099859357,0.11828442,-0.9879458,0
-0.69025087,4.7070389,3.0994589,-0.39520097,0.90651512,0.14848092,0
-2.6033354,4.7208052,-2.076508,-0.39520097,0.90651512,0.14848092,0
-0.92186832,5.4090471,-1.8029681,-0.39520097,0.90651512,0.14848092,0
-0.15732622,4.8645558,3.1060176,0.59742022,0.13085936,0.79117948,0
-2.3896575,4.0313816,2.7013359,-0.39520097,0.90651512,0.14848092,0
-0.43487248,-5.4407458,-1.6146432,0.39520097,-0.90651512,-0.14848092,0
0.2385416,2.5133848,-2.4384418,0.31954408,0.28721175,-0.90299571,0
-4.279222,2.9629688,1.9031484,-0.81256664,-0.42037612,0.40375671,0
-3.8504391,2.5797923,2.2650747,-0.73064119,-0.40817457,0.54731822,0
-2.3515,4.4899607,0.0031502247,-0.39520097,0.90651512,0.14848092,0
-2.9328804,4.3466043,-0.66904116,-0.39520097,0.90651512,0.14848092,0
1.0905548,-1.1772213,2.7585869,0.22011834,-0.063475192,0.97340584,0
-2.6140156,3.9073079,2.8616793,-0.39520097,0.90651512,0.14848092,0
-0.55560255,3.7112489,3.413487,0.35368395,0.00098447502,0.93536448,0
-2.6602833,3.8063102,3.3551512,-0.39520097,0.90651512,0.14848092,0
1.1345769,3.1513848,2.3140764,0.7407217,0.21888863,0.63515288,0
-2.3918865,4.6566987,-1.1223216,-0.39520097,0.90651512,0.14848092,0
-4.0956936,2.749352,-0.78692579,-0.83907294,-0.29045564,-0.45999163,0
2.5727978,-4.7313318,2.0594974,0.39520097,-0.90651512,-0.14848092,0
-3.2097318,-0.082883716,-0.20645428,-0.91674393,-0.3789627,-0.12636429,0
0.42587984,5.6232734,0.47633135,-0.39520097,0.90651512,0.14848092,0
0.61086607,-5.2122774,-0.22613645,0.39520097,-0.90651512,-0.14848092,0
-3.7490637,1.5830071,1.5212048,-0.83571172,-0.42191255,0.35153347,0
0.68668962,4.2030745,2.4739096,0.74346113,0.22071239,0.63130951,0
3.1739719,-0.43503273,-1.4954686,0.81154746,0.42028254,-0.40589845,0
3.0628071,-2.4745023,-2.9369459,0.50853407,0.35051662,-0.78646755,0
1.4824846,-4.8950143,0.1568113,0.39520097,-0.90651512,-0.14848092,0
-1.6897392,4.6654239,0.69326198,-0.39520097,0.90651512,0.14848092,0
-1.496416,4.3664246,3.0332859,-0.39520097,0.90651512,0.14848092,0
4.5539861,-3.2921135,-1.4541235,0.39520097,-0.90651512,-0.14848092,0
3.0850539,-3.7951953,-2.2924292,0.39520097,-0.90651512,-0.14848092,0
-0.72265005,5.4941926,-1.7925557,-0.39520097,0.90651512,0.14848092,0
1.7541511,-0.92477566,2.5305495,0.43245581,0.040999666,0.90072256,0
3.6122069,-3.5937271,-2.1193585,0.39520097,-0.90651512,-0.14848092,0
1.2622876,-0.57766438,-3.040659,0.22658741,0.25284591,-0.94059944,0
-0.22321844,5.5512266,-0.81146371,-0.39520097,0.90651512,0.14848092,0
0.23548895,-5.2993402,-0.69370925,0.39520097,-0.90651512,-0.14848092,0
0.15502298,-5.1889176,-1.582038,0.39520097,-0.90651512,-0.14848092,0
1.101317,-5.2901554,1.5547283,0.39520097,-0.90651512,-0.14848092,0
-3.0813746,4.2076116,-0.21568775,-0.39520097,0.90651512,0.14848092,0
-1.1343229,4.8991332,0.74471539,-0.39520097,0.90651512,0.14848092,0
-2.9171481,-0.37835881,1.1431166,-0.84333599,-0.42212778,0.3325547,0
-3.9634535,3.5838537,1.2447522,-0.39520097,0.90651512,0.14848092,0
-3.539053,0.61275119,0.23074508,-0.91774946,-0.39657772,-0.021496475,0
2.9579213,0.67813939,0.24340367,0.91772401,0.38259828,0.10677671,0
-2.5136802,4.1427212,1.6914779,-0.39520097,0.90651512,0.14848092,0
4.0104542,-3.9854875,1.3324234,0.39520097,-0.90651512,-0.14848092,0
2.4887516,-4.336442,-0.5751121,0.39520097,-0.90651512,-0.14848092,0
-1.9036653,-2.3054533,-1.5934319,-0.84192914,-0.29280812,-0.45323151,0
4.1247525,-2.1231794,0.099829912,0.90858346,0.3619546,0.20848292,0
0.74140632,5.7667398,0.44024324,-0.39520097,0.90651512,0.14848092,0
-0.84334433,-3.1369896,-2.617835,-0.66302872,-0.16962621,-0.72912282,0
-1.3802397,-4.1267147,0.23436439,-0.87644506,-0.42051005,0.23455393,0
-3.381485,3.9635448,0.47562385,-0.39520097,0.90651512,0.14848092,0
-1.8025738,4.3083253,-2.3316827,-0.038127244,0.14531243,-0.98865104,0
-2.4759607,4.5379219,-0.62093461,-0.39520097,0.90651512,0.14848092,0
-3.6514137,0.86970496,0.28944731,-0.91752017,-0.39736378,-0.016086876,0
1.4045734,1.9525485,2.3823106,0.67483562,0.17684677,0.71646512,0
-0.33855915,-2.139236,2.5213184,-0.30137491,-0.28064588,0.91126907,0
-0.65606022,3.0203183,-2.5161047,0.12693584,0.21398115,-0.96855527,0
1.2379887,-1.5145406,2.7032514,0.22022283,-0.063426331,0.97338539,0
2.5256329,-4.6890936,1.6760845,0.39520097,-0.90651512,-0.14848092,0
-1.5380996,5.1340547,-1.7642434,-0.39520097,0.90651512,0.14848092,0
-2.8071671,4.4923983,-1.2245479,-0.39520097,0.90651512,0.14848092,0
1.4371929,-0.15611416,-2.863122,0.32959676,0.29081163,-0.89821756,0
0.20618439,0.85193568,3.0908918,0.22018856,-0.063442349,0.97339213,0
-2.1054997,-1.3694129,-1.7731135,-0.79043365,-0.25323892,-0.55774993,0
0.16708255,1.5686353,3.13516,0.29564333,-0.027518824,0.95490205,0
2.5685887,0.7823832,-1.4351104,0.78783274,0.41760734,-0.45268533,0
0.4299674,-0.8662681,-3.1782675,-0.044677317,0.14247949,-0.98878896,0
3.4089131,-3.8786976,-0.92063165,0.39520097,-0.90651512,-0.14848092,0
-1.397221,-3.9953623,-1.3242052,-0.89602101,-0.34480634,-0.27974099,0
-4.2015209,3.3410788,2.0933099,-0.39520097,0.90651512,0.14848092,0
2.2042711,-4.2835498,-1.6552125,0.39520097,-0.90651512,-0.14848092,0
1.6309009,2.3473396,-1.5494871,0.70873493,0.403736,-0.5785259,0
0.027802229,-0.034757644,3.0271525,0.062880099,-0.13456334,0.98890793,0
4.3976774,-3.3078585,-1.7740333,0.39520097,-0.90651512,-0.14848092,0
-3.0350537,3.6717975,3.1788862,-0.39520097,0.90651512,0.14848092,0
4.4355035,-3.4388695,-0.87349796,0.39520097,-0.90651512,-0.14848092,0
-2.8508339,1.7053864,2.7267785,-0.5448696,-0.36146685,0.75661016,0
-2.507534,3.9231081,3.0486317,-0.39520097,0.90651512,0.14848092,0
-0.55292338,5.0493846,1.3748605,-0.39520097,0.90651512,0.14848092,0
-3.8198824,1.349846,-0.065350056,-0.91450775,-0.3730382,-0.15658283,0
-2.1290312,4.4636621,0.75583971,-0.39520097,0.90651512,0.14848092,0
-1.7727928,-3.4244695,-0.56300044,-0.9185946,-0.38989252,-0.064560413,0
0.49173594,5.4531822,1.6900663,-0.39520097,0.90651512,0.14848092,0
0.233881,0.69230497,3.0739622,0.20858473,-0.068859011,0.97557712,0
0.53191829,-5.0552964,-1.3946762,0.39520097,-0.90651512,-0.14848092,0
0.15432179,-4.9487576,-3.0501444,0.39520097,-0.90651512,-0.14848092,0
-2.9687266,4.5343766,-1.9108493,-0.39520097,0.90651512,0.14848092,0
2.7280984,1.0854824,-0.64439154,0.88436037,0.41918594,-0.20540231,0
-1.3179227,1.0068152,-2.7045083,-0.30336243,0.023773104,-0.95257872,0
1.1974585,-4.5376577,-2.783577,0.39520097,-0.90651512,-0.14848092,0
-1.3788184,4.8745389,0.24411765,-0.39520097,0.90651512,0.14848092,0
-2.658376,4.1982327,0.96743715,-0.39520097,0.90651512,0.14848092,0
-3.073483,4.3681583,-1.1748631,-0.39520097,0.90651512,0.14848092,0
-2.3145664,-1.9141924,0.70133281,-0.86589491,-0.42159107,0.26923442,0
-2.7427096,3.8525717,2.8533225,-0.39520097,0.90651512,0.14848092,0
2.4902284,-3.843277,2.2597313,0.28567338,-0.032336906,0.95778143,0
0.98775005,1.2756706,-2.5585413,0.3801204,0.30853686,-0.87195969,0
1.288883,1.7842792,-2.1839252,0.53288531,0.35790637,-0.76677018,0
-0.41500938,4.7968693,3.2836092,-0.39520097,0.90651512,0.14848092,0
3.1350031,-0.50588286,-1.6377548,0.78934264,0.4178037,-0.44986495,0
-2.1032639,-2.4393942,-0.97523141,-0.90197378,-0.35233796,-0.24960244,0
1.7759005,-4.2037382,-3.2826455,0.39520097,-0.90651512,-0.14848092,0
0.87059486,4.7445927,1.9352776,0.84932041,0.29901245,0.43502486,0
-3.1182144,4.4523172,-1.807734,-0.39520097,0.90651512,0.14848092,0
0.35623682,5.637207,0.20589817,-0.39520097,0.90651512,0.14848092,0
-2.2334976,4.0097127,3.2492704,-0.39520097,0.90651512,0.14848092,0
-3.3834646,3.8799067,0.98098505,-0.39520097,0.90651512,0.14848092,0
0.10136881,5.3587627,1.2275094,-0.39520097,0.90651512,0.14848092,0
0.8311947,4.7455344,2.009155,0.83979559,0.29104865,0.45829475,0
-2.0102561,4.8599596,-1.3475268,-0.39520097,0.90651512,0.14848092,0
-2.2178981,-2.3252392,-0.66617632,-0.91453993,-0.37311181,-0.15621924,0
-3.5735636,0.73918039,0.66235518,-0.90391618,-0.41255265,0.11285418,0
0.02510941,5.3315568,1.1906352,-0.39520097,0.90651512,0.14848092,0
1.4765879,-2.7990787,2.5504599,0.13094783,-0.10439248,0.98587787,0
-1.9499354,4.1137161,3.3690395,-0.39520097,0.90651512,0.14848092,0
2.1357737,-4.4724202,-0.68442059,0.39520097,-0.90651512,-0.14848092,0
1.442261,2.6247284,-1.5839092,0.68812788,0.39923298,-0.60588223,0
-4.0015469,3.6788132,0.56360936,-0.39520097,0.90651512,0.14848092,0
-4.155201,3.6901278,0.085560322,-0.39520097,0.90651512,0.14848092,0
-0.79861832,-4.9891434,0.6280911,-0.80813992,-0.41995588,0.41297349,0
-0.97232866,-0.94970727,-2.820359,-0.44206765,-0.045995995,-0.89580178,0
2.3356435,-4.051887,-2.7199113,0.39520097,-0.90651512,-0.14848092,0
2.5150516,-4.6714911,1.5404541,0.39520097,-0.90651512,-0.14848092,0
-0.95813465,-1.7800989,-2.7602229,-0.53606302,-0.096332729,-0.83866346,0
3.0016661,-4.3545475,0.90061331,0.39520097,-0.90651512,-0.14848092,0
-2.8771992,-0.83628583,-0.35841751,-0.9161545,-0.37719381,-0.13559479,0
-1.8093873,-3.3564172,-0.37100005,-0.91700518,-0.39883396,-0.0057402253,0
0.15156591,-5.5303826,0.49349251,0.39520097,-0.90651512,-0.14848092,0
1.3387114,-2.5528231,2.5947156,0.1224401,-0.10821302,0.98655891,0
-3.0758574,4.0403528,0.82015407,-0.39520097,0.90651512,0.14848092,0
1.7929385,-2.02547,-3.3003702,0.19786978,0.24185354,-0.94992346,0
1.6376023,-0.68860829,2.5757222,0.42876026,0.039085522,0.90257257,0
3.7637877,-3.9082837,0.20454264,0.39520097,-0.90651512,-0.14848092,0
0.94740129,3.7645402,-1.3948869,0.68874949,0.39937311,-0.60508293,0
-2.4239967,4.1980071,1.5926456,-0.39520097,0.90651512,0.14848092,0
2.3935177,-3.5104537,-3.5530019,0.18451977,0.23668547,-0.95390391,0
1.5865695,-4.9551144,0.80077553,0.39520097,-0.90651512,-0.14848092,0
3.3459496,-1.2641022,-1.953101,0.7519623,0.41209719,-0.5145179,0
-1.7493851,4.632442,0.73587042,-0.39520097,0.90651512,0.14848092,0
-0.95772243,-3.7861698,1.3686182,-0.69474918,-0.40071201,0.59728831,0
-1.0786008,5.0249486,0.12489143,-0.39520097,0.90651512,0.14848092,0
0.91954631,-5.0813923,-0.20363405,0.39520097,-0.90651512,-0.14848092,0
3.9967003,-3.0278432,1.0889373,0.78387904,0.24853849,0.56900114,0
4.5628362,-3.2842691,-1.478461,0.39520097,-0.90651512,-0.14848092,0
2.4184043,-2.3141148,-3.2014458,0.34126121,0.29495889,-0.89249086,0
-0.84946918,3.8905172,-2.34392,0.17982107,0.2348578,-0.95525199,0
2.7903459,-3.8513467,-2.7340131,0.39520097,-0.90651512,-0.14848092,0
3.7162492,-3.850559,-0.27441144,0.39520097,-0.90651512,-0.14848092,0
3.1999149,-4.428463,1.8795533,0.39520097,-0.90651512,-0.14848092,0
-3.93381,3.8687663,-0.41581535,-0.39520097,0.90651512,0.14848092,0
1.4025548,-5.132185,1.3920566,0.39520097,-0.90651512,-0.14848092,0
-1.149251,4.6223216,2.3949938,-0.39520097,0.90651512,0.14848092,0
0.15987921,1.4364371,-2.7567022,0.16258597,0.22811571,-0.95996308,0
2.8191178,-4.6260448,2.0723014,0.39520097,-0.90651512,-0.14848092,0
-2.7431638,4.2996526,0.12256837,-0.39520097,0.90651512,0.14848092,0
-0.50425053,5.5397825,-1.4895957,-0.39520097,0.90651512,0.14848092,0
2.5367384,1.6731893,0.26943517,0.91859365,0.39024934,0.06237942,0
0.2599054,-5.1792192,-1.3620908,0.39520097,-0.90651512,-0.14848092,0
3.3662179,-4.2555618,1.2665854,0.39520097,-0.90651512,-0.14848092,0
-2.3744268,4.4703341,0.061954021,-0.39520097,0.90651512,0.14848092,0
2.1075127,-3.8736727,-3.6682978,0.058444321,0.18612526,-0.98078632,0
4.0190935,-3.4374766,1.220722,0.74383754,0.2209636,0.63077796,0
-1.3639057,4.8642683,0.3465125,-0.39520097,0.90651512,0.14848092,0
3.8367743,-2.4867945,1.0683734,0.80310535,0.26250678,0.53489465,0
2.8255324,0.052748501,1.3313518,0.82708359,0.28082135,0.48690051,0
-4.3781724,3.6217794,-0.090621471,-0.39520097,0.90651512,0.14848092,0
-2.7478864,-1.1299734,-0.41506624,-0.91596228,-0.37665784,-0.13835537,0
-2.1344275,-2.5016038,0.29968882,-0.89323092,-0.4169569,0.16818345,0
-2.4970841,4.7130103,-1.7461154,-0.39520097,0.90651512,0.14848092,0
-1.3494028,5.0063062,-0.48206246,-0.39520097,0.90651512,0.14848092,0
-4.2626553,3.6653528,-0.049185753,-0.39520097,0.90651512,0.14848092,0
-3.3649871,3.7184732,2.0157602,-0.39520097,0.90651512,0.14848092,0
-2.2146416,3.9616644,3.5928063,-0.39520097,0.90651512,0.14848092,0
3.8360991,-3.4264014,-2.5450103,0.39520097,-0.90651512,-0.14848092,0
-0.74088252,-0.67003477,-2.9263117,-0.34564263,0.0030121058,-0.93836153,0
-3.5919409,0.75170177,0.53699493,-0.91004193,-0.40837884,0.071067452,0
-2.5435817,4.6130705,-1.2597145,-0.39520097,0.90651512,0.14848092,0
-2.5122874,4.1533141,1.630511,-0.39520097,0.90651512,0.14848092,0
0.65892947,-5.0140815,-1.3082479,0.39520097,-0.90651512,-0.14848092,0
0.62369537,-4.9325209,-1.8999765,0.39520097,-0.90651512,-0.14848092,0
3.8115802,-1.2485512,-0.5751853,0.91174018,0.40680343,-0.056928813,0
-4.2075086,2.1627507,0.76277041,-0.91026229,-0.40818828,0.069317222,0
4.3781857,-3.4148805,-1.1725173,0.39520097,-0.90651512,-0.14848092,0
-3.8337941,3.762229,0.50082946,-0.39520097,0.90651512,0.14848092,0
-2.5211458,4.3151221,0.61905384,-0.39520097,0.90651512,0.14848092,0
1.5911026,-4.5497684,-1.6619031,0.39520097,-0.90651512,-0.14848092,0
1.3827531,-4.4190087,-3.014776,0.39520097,-0.90651512,-0.14848092,0
1.0392129,-1.9122957,-3.3531919,-0.0016502142,0.16093834,-0.98696309,0
-2.6418104,4.4086561,-0.27315998,-0.39520097,0.90651512,0.14848092,0
0.61985731,5.7373919,0.29590237,-0.39520097,0.90651512,0.14848092,0
-2.1381636,2.8995199,-2.3960519,-0.30201578,0.024427518,-0.95299006,0
-3.9360538,2.2035275,1.8027807,-0.80869758,-0.42001081,0.41182438,0
-3.6614914,2.6482537,2.534235,-0.66405517,-0.39361972,0.63568419,0
3.3584666,-3.6746199,-2.3008506,0.39520097,-0.90651512,-0.14848092,0
2.4759905,-4.3272262,-0.66534138,0.39520097,-0.90651512,-0.14848092,0
0.68998373,-5.2886395,0.45065585,0.39520097,-0.90651512,-0.14848092,0
-2.9715383,4.0857258,0.8208015,-0.39520097,0.90651512,0.14848092,0
4.1275778,-3.5185935,-1.2063429,0.39520097,-0.90651512,-0.14848092,0
-0.79897165,-3.8701975,1.4880167,-0.65779626,-0.3921034,0.64308554,0
4.0502019,-2.4473646,-1.8271894,0.81120819,0.42025101,-0.40660846,0
-0.27986467,-3.9614334,-2.9247398,-0.60899442,-0.13754675,-0.78115737,0
0.476197,-3.2627797,2.4264166,-0.20823491,-0.2458408,0.94667876,0
1.5233727,-1.8278804,2.6149507,0.26134759,-0.043999985,0.96424139,0
-2.147059,-2.5591083,-0.4600687,-0.91851157,-0.38779381,-0.077152789,0
2.4112487,-2.4675827,2.2852447,0.42824107,0.038816944,0.9028306,0
-0.204,3.2878182,-2.3467071,0.28934556,0.27625743,-0.91649377,0
1.7884809,-4.148684,2.3552537,0.053688526,-0.13856864,0.98889667,0
4.3960485,-3.3542147,-1.4953513,0.39520097,-0.90651512,-0.14848092,0
0.74699908,5.7119093,0.78988457,-0.39520097,0.90651512,0.14848092,0
0.2874372,0.60430884,-2.924413,0.095812321,0.20143625,-0.97480434,0
-1.5773904,0.31290972,-2.5860257,-0.45689112,-0.053753138,-0.88789701,0
1.8519862,-4.1575537,-3.3621027,0.39520097,-0.90651512,-0.14848092,0
1.1487677,2.2414742,2.5459614,0.6405887,0.15612146,0.75184596,0
-1.6067128,5.0774655,-1.6013751,-0.39520097,0.90651512,0.14848092,0
1.3035824,2.2106953,-1.9615653,0.5922913,0.37501866,-0.71312845,0
1.9118335,-4.7912741,0.666219,0.39520097,-0.90651512,-0.14848092,0
-1.9920133,-1.8564367,-1.7044289,-0.81532925,-0.27170235,-0.51128882,0
0.59205699,-1.7095656,2.7594795,0.016350508,-0.15467179,0.98783064,0
-1.1020894,-0.7139653,2.7040129,-0.3423574,-0.29534692,0.89194274,0
3.4172082,-4.1393914,0.69305086,0.39520097,-0.90651512,-0.14848092,0
-1.7931581,4.9525061,-1.3347125,-0.39520097,0.90651512,0.14848092,0
-2.1543679,4.0771146,3.0483775,-0.39520097,0.90651512,0.14848092,0
-0.75857282,4.5989442,-2.1265283,0.2942391,0.27804661,-0.91439241,0
2.4174676,-4.2942781,-1.0222609,0.39520097,-0.90651512,-0.14848092,0
0.97281599,-5.3598795,1.6383889,0.39520097,-0.90651512,-0.14848092,0
4.3351049,-3.6178799,-0.047814369,0.39520097,-0.90651512,-0.14848092,0
-2.3190608,4.7181029,-1.303375,-0.39520097,0.90651512,0.14848092,0
-4.2016969,3.4733682,1.2851796,-0.39520097,0.90651512,0.14848092,0
0.30425048,0.99348736,-2.8371422,0.14872372,0.22264965,-0.96348763,0
2.7118344,1.2376108,-0.3380456,0.90394473,0.41253692,-0.11268193,0
-3.8089149,4.0324311,-1.0826075,-0.39520097,0.90651512,0.14848092,0
-0.99644327,2.2440248,-2.6649361,-0.064419508,0.13389094,-0.98890013,0
0.14083457,-5.6008062,0.89488268,0.39520097,-0.90651512,-0.14848092,0
-3.5502467,3.5281782,-1.6939013,-0.61038786,-0.13835591,-0.77992582,0
-1.165774,-4.5986052,-1.3149176,-0.90277809,-0.35342267,-0.24512082,0
0.28896201,-5.3393931,-0.30684876,0.39520097,-0.90651512,-0.14848092,0
1.1150002,-4.9909143,2.1160104,-0.24100035,-0.25829768,0.93552196,0
0.93216527,-4.9307547,-1.0897303,0.39520097,-0.90651512,-0.14848092,0
-1.3652679,-3.0545592,-2.0570147,-0.78901786,-0.25221851,-0.56021142,0
0.15433335,5.6931009,-0.67273992,-0.39520097,0.90651512,0.14848092,0
-2.9021316,0.50336158,1.9809749,-0.71743011,-0.40554345,0.5664174,0
3.7119656,-3.4540181,-2.7067986,0.39520097,-0.90651512,-0.14848092,0
-3.5319602,3.6504614,1.9865675,-0.39520097,0.90651512,0.14848092,0
2.72861,-3.9714434,-2.1651092,0.39520097,-0.90651512,-0.14848092,0
-3.7444835,3.5996757,1.7309711,-0.39520097,0.90651512,0.14848092,0
-0.89577425,5.1932273,-0.41587517,-0.39520097,0.90651512,0.14848092,0
-2.4813335,0.3745684,-1.9410419,-0.69116604,-0.18697584,-0.69809008,0
0.1149779,5.4535141,0.6852507,-0.39520097,0.90651512,0.14848092,0
-1.8758135,4.75595,-0.35468423,-0.39520097,0.90651512,0.14848092,0
-4.3445358,3.2896183,-0.67390299,-0.84233665,-0.29314569,-0.45225507,0
-2.7907665,-0.68095857,-0.93193078,-0.88451225,-0.33191237,-0.3278299,0
-4.2896605,3.6585367,-0.079448462,-0.39520097,0.90651512,0.14848092,0
-1.2116739,4.5746055,2.5201631,-0.39520097,0.90651512,0.14848092,0
1.7384505,-0.83388239,-2.972008,0.33126438,0.29140651,-0.89741087,0
-1.6648655,4.4207592,2.2532089,-0.39520097,0.90651512,0.14848092,0
-0.33373785,3.02387,-2.4568846,0.2191785,0.25002643,-0.9431054,0
-1.2778225,5.2190609,-1.5904649,-0.39520097,0.90651512,0.14848092,0
3.8222711,-1.3198804,-0.79141641,0.90199983,0.413544,-0.12400734,0
-0.95608532,-4.7542911,0.55228424,-0.82586801,-0.4214066,0.37464464,0
2.9588718,-3.8287463,2.0836253,0.41578028,0.032392398,0.90888816,0
0.20974088,-5.4288816,0.02864176,0.39520097,-0.90651512,-0.14848092,0
0.54633272,5.5908542,0.99485815,-0.39520097,0.90651512,0.14848092,0
0.8804481,-2.4847119,2.632987,0.0024258494,-0.16060874,0.98701525,0
3.7640634,-1.7545063,0.74674916,0.86381161,0.31175932,0.39577228,0
-1.9467607,4.4432068,1.36586,-0.39520097,0.90651512,0.14848092,0
-0.74003208,-5.6139045,-1.3696839,0.39520097,-0.90651512,-0.14848092,0
-4.0956273,3.7197545,0.06324482,-0.39520097,0.90651512,0.14848092,0
-2.2284279,4.2777596,1.626268,-0.39520097,0.90651512,0.14848092,0
2.2475488,-0.9496063,-2.7783599,0.46442759,0.33663875,-0.81913465,0
0.33956206,-4.9145689,-2.7658367,0.39520097,-0.90651512,-0.14848092,0
-2.726387,4.3701181,-0.26298976,-0.39520097,0.90651512,0.14848092,0
-1.4652103,4.9611001,-0.51430368,-0.39520097,0.90651512,0.14848092,0
-1.7328243,4.5913219,1.0309973,-0.39520097,0.90651512,0.14848092,0
1.2910559,-1.3173292,-3.2187543,0.14286578,0.2203283,-0.96490669,0
-4.603919,3.5012627,0.044312716,-0.39520097,0.90651512,0.14848092,0
0.27062154,0.19005728,-3.00596,0.040018201,0.17847618,-0.98313016,0
-0.15464419,5.3275847,0.73644876,-0.39520097,0.90651512,0.14848092,0
2.8218403,-4.2617822,-0.14437103,0.39520097,-0.90651512,-0.14848092,0
-2.4161727,-1.9281423,0.17859674,-0.9063645,-0.41110009,0.097469091,0
-2.4168332,1.7187989,-2.2287238,-0.51812482,-0.086505041,-0.85091931,0
1.9545373,-4.2631063,2.3282933,0.086203992,-0.12432665,0.98848975,0
1.5881696,3.8498111,0.24832022,0.91130388,0.40723342,-0.060715437,0
4.6251373,-3.1320891,-0.97883582,0.90774637,0.4101665,-0.088091254,0
0.96467316,-4.5931768,-3.0642047,0.39520097,-0.90651512,-0.14848092,0
-1.4766352,-3.2035544,-1.8047011,-0.83319992,-0.28569019,-0.4734543,0
-0.27993369,-2.3573112,2.4733043,-0.3118664,-0.28444654,0.9065482,0
3.8103471,-1.5344404,-1.2904689,0.86326206,0.42176396,-0.27729726,0
2.8390646,0.30593562,-1.3975676,0.80774754,0.41991693,-0.41377982,0
-0.1361084,-5.4327145,-0.86847746,0.39520097,-0.90651512,-0.14848092,0
1.1558886,4.6890078,-0.059431314,0.88391119,0.41927561,-0.20714509,0
0.42552781,5.7777376,-0.4676528,-0.39520097,0.90651512,0.14848092,0
0.056959987,5.5850348,-0.27214092,-0.39520097,0.90651512,0.14848092,0
-3.7101827,4.1078596,-1.2803283,-0.39520097,0.90651512,0.14848092,0
-1.2851827,-3.3739061,1.2486706,-0.73996907,-0.4099426,0.53328526,0
-0.28671139,4.9943662,2.4193206,-0.39520097,0.90651512,0.14848092,0
1.0839996,-5.0731254,0.18360901,0.39520097,-0.90651512,-0.14848092,0
1.3307595,-5.1081772,1.0543926,0.39520097,-0.90651512,-0.14848092,0
-0.18675566,-2.3745584,2.4986145,-0.2872228,-0.27547961,0.91739523,0
1.9466413,0.037100136,2.3157611,0.59726238,0.13076854,0.79131365,0
2.6984034,-4.0495653,-1.7685523,0.39520097,-0.90651512,-0.14848092,0
0.73582667,-4.8937221,-1.8384038,0.39520097,-0.90651512,-0.14848092,0
2.907794,-4.2362556,-0.071437359,0.39520097,-0.90651512,-0.14848092,0
0.01150322,-2.5624521,2.5018995,-0.25383186,-0.26311401,0.93077421,0
-2.8946595,3.9061613,2.1217101,-0.39520097,0.90651512,0.14848092,0
2.4234085,1.4396186,1.1502197,0.87605262,0.32332125,0.35776454,0
-2.393573,4.4227762,0.30134559,-0.39520097,0.90651512,0.14848092,0
-2.7482848,-0.13772774,-1.411721,-0.81707597,-0.27303922,-0.5077759,0
-1.5307901,-2.7904737,1.3562963,-0.73727369,-0.40943971,0.53738874,0
2.4771085,-0.44597018,1.9638536,0.68189722,0.18120584,0.70864719,0
-3.6484256,3.5938888,2.0219736,-0.39520097,0.90651512,0.14848092,0
-3.7120519,3.6498501,1.5109644,-0.39520097,0.90651512,0.14848092,0
1.4852465,-5.1718192,1.85413,0.39520097,-0.90651512,-0.14848092,0
0.0091438293,2.1913009,3.1999557,0.32684475,-0.012294173,0.9449982,0
-2.0762391,2.92946,-2.4140251,-0.28137439,0.034407556,-0.95898092,0
1.7386156,-5.0511398,1.7917252,0.39520097,-0.90651512,-0.14848092,0
-0.88364077,-5.3974586,-0.24115407,-0.89781713,-0.41536701,0.14626992,0
2.3725095,-4.1046991,-2.2993531,0.39520097,-0.90651512,-0.14848092,0
-0.70366049,5.4681978,-1.5833066,-0.39520097,0.90651512,0.14848092,0
2.3743787,-4.4321899,-0.29496133,0.39520097,-0.90651512,-0.14848092,0
0.091417789,-2.1016707,2.6409519,-0.17360842,-0.23243444,0.95699233,0
3.6122341,-3.824471,-0.7105372,0.39520097,-0.90651512,-0.14848092,0
-2.0336597,-2.488414,0.69973218,-0.85548782,-0.42208835,0.29997057,0
-0.72221971,5.0022354,1.2121166,-0.39520097,0.90651512,0.14848092,0
1.5026431,-5.1600013,2.1532118,-0.15143168,-0.22372049,0.96281767,0
-0.92737854,-5.348176,-0.95817685,-0.91825897,-0.38549173,-0.090534985,0
0.85623848,3.4536877,2.5238724,0.7026372,0.19419691,0.68453538,0
0.58975959,-4.8520136,-2.4818189,0.39520097,-0.90651512,-0.14848092,0
-1.3126376,1.487031,-2.6870344,-0.24418741,0.052149922,-0.9683249,0
-0.21574152,5.2068734,1.3108021,-0.39520097,0.90651512,0.14848092,0
2.4391541,-4.2873893,-1.0066006,0.39520097,-0.90651512,-0.14848092,0
-1.8888251,-0.44883162,-2.2871141,-0.62960833,-0.14961052,-0.76237136,0
-2.7309213,3.6715112,-2.1777639,-0.37228209,-0.010288462,-0.92806256,0
-2.4970927,-1.2653027,1.0786742,-0.8323642,-0.42176753,0.35955799,0
0.3033154,-0.23225579,2.9776733,0.11582154,-0.11117539,0.98702872,0
-0.61764359,4.976346,1.6485208,-0.39520097,0.90651512,0.14848092,0
2.7122178,0.18218207,1.4455662,0.81290221,0.26985472,0.51610905,0
1.8480823,-4.4840388,-1.3792167,0.39520097,-0.90651512,-0.14848092,0
-1.7784479,0.47482139,2.8330882,-0.38811022,-0.31128186,0.86745274,0
-2.0548444,-2.4831021,0.64486647,-0.86188525,-0.42184097,0.28143245,0
2.2451746,-4.1497774,-2.3630567,0.39520097,-0.90651512,-0.14848092,0
3.0316677,-4.1923761,-0.0096280575,0.39520097,-0.90651512,-0.14848092,0
3.295635,-4.3625336,1.9465878,0.44407776,0.047044173,0.89475244,0
-0.38780117,4.8204093,3.212312,-0.39520097,0.90651512,0.14848092,0
0.54559863,1.4835722,2.9965682,0.38924032,0.018847585,0.92094338,0
-1.9447304,-2.3129325,1.1059465,-0.80157304,-0.41926867,0.42625627,0
3.5340755,-3.531188,-2.7091353,0.39520097,-0.90651512,-0.14848092,0
-3.8238127,3.4917815,2.1785493,-0.39520097,0.90651512,0.14848092,0
0.42200744,-5.2589712,-0.44373164,0.39520097,-0.90651512,-0.14848092,0
2.8341835,0.57156152,-1.1082609,0.84375423,0.42213467,-0.33148342,0
-2.6115928,4.3717418,0.032638431,-0.39520097,0.90651512,0.14848092,0
4.3775129,-3.6809936,0.45038533,0.39520097,-0.90651512,-0.14848092,0
-0.39427531,5.4288344,-0.5195145,-0.39520097,0.90651512,0.14848092,0
0.5344193,-5.489748,1.26442,0.39520097,-0.90651512,-0.14848092,0
0.98099637,4.7642765,-0.48376918,0.83540738,0.42190057,-0.35227057,0
-0.21299493,5.5138345,-0.55596286,-0.39520097,0.90651512,0.14848092,0
2.5370131,-3.8784618,-3.2427468,0.39520097,-0.90651512,-0.14848092,0
-1.2572682,1.6445764,3.2937891,-0.09281522,-0.20021817,0.97534513,0
-0.50063467,0.40126753,3.1038344,-0.032184958,-0.1752046,0.98400593,0
-2.2189851,1.5911566,3.0361357,-0.3747381,-0.30667859,0.8749398,0
1.4900627,3.9222376,1.0863231,0.90874928,0.36222199,0.20729208,0
0.18237746,-4.9956923,-2.6889222,0.39520097,-0.90651512,-0.14848092,0
2.9778697,-3.2990012,2.0442114,0.48361424,0.067901671,0.87264347,0
0.43898702,-4.3210917,2.1009176,-0.35144985,-0.29855478,0.88732648,0
3.0155983,-3.9290211,-1.6602523,0.39520097,-0.90651512,-0.14848092,0
1.8900578,-4.4620709,-1.4016131,0.39520097,-0.90651512,-0.14848092,0
-1.177866,-4.3623247,0.4967531,-0.84252691,-0.422113,0.33461797,0
-2.303298,4.29495,1.3220357,-0.39520097,0.90651512,0.14848092,0
-0.18057537,-2.6866271,-3.12167,-0.43268356,-0.041117743,-0.90060782,0
-0.71422327,-5.4321241,0.3145926,-0.8434341,-0.42212945,0.33230388,0
-3.8252082,4.0970783,-1.5206616,-0.39520097,0.90651512,0.14848092,0
3.532671,-1.2179015,-1.5882635,0.81713527,0.42077094,-0.39400721,0
0.077361062,-5.1897516,-1.7836564,0.39520097,-0.90651512,-0.14848092,0
-0.018000603,4.7925825,3.0093896,0.62612361,0.14755683,0.7656346,0
1.8337874,2.6052451,1.5236397,0.85671008,0.30540541,0.41566277,0
0.56461811,-5.5394216,1.6480669,0.39520097,-0.90651512,-0.14848092,0
0.41568336,-5.1138625,-1.3464886,0.39520097,-0.90651512,-0.14848092,0
0.22779286,5.1807675,2.6507108,-0.39520097,0.90651512,0.14848092,0
-0.17510056,3.7228348,-2.1976893,0.35233802,0.29886702,-0.88686901,0
0.095620751,-5.0079379,-2.8450742,0.39520097,-0.90651512,-0.14848092,0
-0.61169738,5.0047979,1.4906386,-0.39520097,0.90651512,0.14848092,0
1.3536587,-1.4909465,2.6762457,0.2550469,-0.046999797,0.96578586,0
4.4779902,-3.5185823,0.57200003,0.85053778,0.30005181,0.43191963,0
0.90873885,3.0879884,2.5690713,0.67461687,0.17671224,0.71670425,0
-0.69935477,4.8072023,2.4637032,-0.39520097,0.90651512,0.14848092,0
-2.2916241,4.3488827,1.0238376,-0.39520097,0.90651512,0.14848092,0
4.6256666,-3.1598806,-1.0836959,0.90252531,0.41328329,-0.1210168,0
-0.60752702,5.3551607,-0.63731825,-0.39520097,0.90651512,0.14848092,0
3.9812641,-3.9774504,1.2056644,0.39520097,-0.90651512,-0.14848092,0
0.64388913,4.415215,2.4487629,0.75626421,0.2293328,0.61275691,0
-1.3190799,-1.2964427,2.381072,-0.47926587,-0.34137535,0.8085587,0
1.1359499,-4.7593565,-1.5937608,0.39520097,-0.90651512,-0.14848092,0
3.4910598,-0.51191777,-0.11556268,0.91854483,0.39166909,0.053581357,0
-2.4626889,4.2319899,1.2821881,-0.39520097,0.90651512,0.14848092,0
-0.54007953,5.2862954,-0.037354678,-0.39520097,0.90651512,0.14848092,0
-0.9671284,4.9490919,0.88471591,-0.39520097,0.90651512,0.14848092,0
-1.722362,4.5316124,1.423388,-0.39520097,0.90651512,0.14848092,0
0.47458029,-4.8207808,1.9401622,-0.40425503,-0.3167783,0.85803819,0
-3.2296703,0.10819715,0.91596794,-0.87757909,-0.42035103,0.23056471,0
2.4825058,-4.2210026,-1.2965243,0.39520097,-0.90651512,-0.14848092,0
2.3332362,-4.0182548,-2.9316492,0.39520097,-0.90651512,-0.14848092,0
-0.72260046,-1.0966125,2.7145169,-0.28110743,-0.27323332,0.91995776,0
-0.57899857,-3.1445441,2.0383413,-0.49850309,-0.34741461,0.79422784,0
-0.89932424,4.9746146,0.90936255,-0.39520097,0.90651512,0.14848092,0
0.20897424,5.6160188,-0.056702137,-0.39520097,0.90651512,0.14848092,0
-3.2416465,1.3751872,2.173948,-0.70503944,-0.40295064,0.58356684,0
2.7776847,-4.201654,-0.62899363,0.39520097,-0.90651512,-0.14848092,0
2.2990394,-4.2480636,-1.6196265,0.39520097,-0.90651512,-0.14848092,0
-0.38930947,-5.2306213,-2.4513078,-0.7820825,-0.24726047,-0.57202208,0
-2.6494148,-1.4098225,-0.25558352,-0.9185645,-0.38867977,-0.071884573,0
2.3247216,-4.2349811,-1.6311445,0.39520097,-0.90651512,-0.14848092,0
-0.71346283,0.59101886,-2.8799062,-0.18642926,0.079123825,-0.97927713,0
0.59179914,-5.0024304,-1.5580564,0.39520097,-0.90651512,-0.14848092,0
-0.4491539,4.9094,2.505702,-0.39520097,0.90651512,0.14848092,0
2.9147103,-3.7399495,-3.0831101,0.39520097,-0.90651512,-0.14848092,0
-1.8473653,1.785025,-2.5106435,-0.35555512,-0.0019166768,-0.9346534,0
-1.276587,-2.3940649,1.8864743,-0.60806465,-0.37931979,0.69740516,0
3.9163704,-4.0106282,1.2355022,0.39520097,-0.90651512,-0.14848092,0
-0.51889545,4.9419756,2.1211927,-0.39520097,0.90651512,0.14848092,0
-0.88260674,0.88572466,3.1733825,-0.080409586,-0.19515795,0.9774701,0
-1.6244975,4.9157681,-0.66150659,-0.39520097,0.90651512,0.14848092,0
2.0471449,-0.87482154,-2.8545065,0.41550082,0.32056618,-0.85123235,0
1.034564,-5.133718,0.4219636,0.39520097,-0.90651512,-0.14848092,0
-0.8917315,5.3484139,-1.3525708,-0.39520097,0.90651512,0.14848092,0
-2.1905756,-2.4177983,0.19509196,-0.90106177,-0.4139902,0.12922812,0
3.9097064,-3.844734,0.20493555,0.39520097,-0.90651512,-0.14848092,0
-1.627205,4.9687843,-0.99239087,-0.39520097,0.90651512,0.14848092,0
3.4487312,-4.0624471,0.30718732,0.39520097,-0.90651512,-0.14848092,0
3.0504525,-4.4176307,1.4156063,0.39520097,-0.90651512,-0.14848092,0
-0.35159492,-0.062132657,-3.0007055,-0.16500729,0.088953599,-0.98227292,0
3.9549561,-3.9245944,0.81294441,0.39520097,-0.90651512,-0.14848092,0
-0.62897062,-4.1716733,1.4773393,-0.64619046,-0.38923383,0.65645647,0
-3.8157828,2.9023297,2.5293469,-0.67720717,-0.39673099,0.61967325,0
1.7306839,-5.0574403,1.8090795,0.39520097,-0.90651512,-0.14848092,0
3.279665,-0.40004075,0.70603657,0.88851583,0.33620876,0.31225556,0
-1.2393792,-4.5333405,-1.1131791,-0.91174144,-0.36738646,-0.18372518,0
0.54492998,-5.4527426,1.0664666,0.39520097,-0.90651512,-0.14848092,0
2.2338827,-4.6749959,0.81348348,0.39520097,-0.90651512,-0.14848092,0
-3.1340075,3.847837,1.8407423,-0.39520097,0.90651512,0.14848092,0
0.8462159,-4.8614612,-1.7415473,0.39520097,-0.90651512,-0.14848092,0
0.9934783,4.0991335,-1.0953864,0.74752456,0.41131616,-0.52156126,0
3.2626588,-3.7563684,-2.0567594,0.39520097,-0.90651512,-0.14848092,0
3.8825493,-3.8743205,0.31328678,0.39520097,-0.90651512,-0.14848092,0
-3.071156,-0.42031011,-0.19394159,-0.91781658,-0.38302207,-0.10443568,0
-2.1960125,-1.0935302,-1.769418,-0.78287452,-0.24782337,-0.57069367,0
3.4254322,-0.74906027,0.66687107,0.88707066,0.33463803,0.31799877,0
-1.2549809,-0.97500253,-2.6622868,-0.52149868,-0.088344917,-0.84866643,0
-2.8172231,4.5725179,-1.740463,-0.39520097,0.90651512,0.14848092,0
0.74061513,4.5024247,-1.1344007,0.72379863,0.40682968,-0.55731976,0
-3.2426555,3.5657315,3.2738879,-0.39520097,0.90651512,0.14848092,0
2.7727191,-0.96169853,-2.4067569,0.61796778,0.38196275,-0.68718284,0
3.4182653,-2.5397692,1.5933094,0.68933213,0.18582967,0.70020634,0
-2.6317346,-1.4408265,-0.30866361,-0.91833228,-0.38602886,-0.087450981,0
-0.94118214,5.3448386,-1.4623629,-0.39520097,0.90651512,0.14848092,0
-1.9264467,-2.961724,-0.84619093,-0.91209191,-0.36804405,-0.18064344,0
4.1452513,-2.0156908,-0.71272683,0.91129166,0.40724516,-0.060819566,0
3.1932852,-1.6468891,-2.4027617,0.65451485,0.39129958,-0.64691192,0
1.7243968,3.502718,0.72388649,0.91747332,0.38154346,0.11254925,0
0.64403319,-5.3207655,1.8348935,-0.41835916,-0.32152355,0.84946942,0
2.968801,-4.0467458,-1.0660682,0.39520097,-0.90651512,-0.14848092,0
-2.6703563,3.8259056,3.208704,-0.39520097,0.90651512,0.14848092,0
2.4507217,-4.4532437,0.036774993,0.39520097,-0.90651512,-0.14848092,0
4.4278536,-2.9201651,-1.4745395,0.86786783,0.42143828,-0.26305026,0
0.87079978,-2.730387,2.5910873,-0.030445755,-0.17447665,0.98419052,0
-2.755156,1.5487123,-1.9636495,-0.62841237,-0.14890498,-0.76349556,0
-0.24985039,-5.1931138,-2.6340406,0.39520097,-0.90651512,-0.14848092,0
3.2386568,-2.3269787,1.7107532,0.66652149,0.17175366,0.72543091,0
-0.57240856,-1.6765957,-2.9790952,-0.4194901,-0.034300715,-0.9071117,0
3.1297188,-0.88814634,-1.9653789,0.7357986,0.40916169,-0.53961766,0
-0.8759805,4.6998787,2.6488302,-0.39520097,0.90651512,0.14848092,0
3.2536449,-0.69850814,-1.6065851,0.80031979,0.41912931,-0.42874095,0
2.1412299,2.2512069,-0.72663677,0.8568911,0.42204887,-0.29599428,0
-4.185925,2.2488959,-0.050859451,-0.90981865,-0.36398792,-0.19935644,0
0.066535354,-5.4657073,-0.1276865,0.39520097,-0.90651512,-0.14848092,0
3.1630986,-4.2986054,0.98874831,0.39520097,-0.90651512,-0.14848092,0
0.58885443,-5.0650549,-1.1835572,0.39520097,-0.90651512,-0.14848092,0
1.8111117,-4.3475752,-2.3107638,0.39520097,-0.90651512,-0.14848092,0
-0.64372087,-5.7616301,-0.21143734,0.39520097,-0.90651512,-0.14848092,0
2.4289932,-4.2557588,-1.2267565,0.39520097,-0.90651512,-0.14848092,0
3.1327429,-4.0210381,2.0094409,0.44027099,0.045060128,0.89673364,0
-0.85037112,-2.1627975,2.2910213,-0.4526515,-0.33283281,0.82724178,0
0.55147815,-5.4827619,1.2671711,0.39520097,-0.90651512,-0.14848092,0
4.278759,-3.4241314,-1.380671,0.39520097,-0.90651512,-0.14848092,0
1.4533446,-5.1910257,1.8864813,0.39520097,-0.90651512,-0.14848092,0
-4.2431169,3.6246102,0.25156355,-0.39520097,0.90651512,0.14848092,0
-1.5526568,-3.8939786,-0.79736209,-0.91732866,-0.38098276,-0.11558747,0
-2.4879117,4.2052336,1.3784074,-0.39520097,0.90651512,0.14848092,0
0.6421625,5.5639877,1.4139481,-0.39520097,0.90651512,0.14848092,0
-4.2929573,2.4786677,0.018950462,-0.9111194,-0.36625099,-0.18900222,0
0.062923193,2.5669618,3.1783814,0.38641027,0.017414123,0.92216253,0
1.2051666,-0.4291907,2.751729,0.34154993,-0.0050401539,0.93985021,0
-2.4737959,4.4923797,-0.33712316,-0.39520097,0.90651512,0.14848092,0
2.2578261,1.0367525,-1.6938025,0.72574008,0.40721524,-0.55450606,0
-1.5389175,-3.3846049,-1.5546142,-0.86744738,-0.31510466,-0.38502502,0
-2.9511006,-0.21305299,-0.96640229,-0.87440741,-0.32171431,-0.36319649,0
-2.5638978,-1.2663257,0.90710962,-0.85463274,-0.42210859,0.30236989,0
