-1.4930813,-0.54287195,-4.9223127,-0.70910031,-0.59418237,-0.37963659,0
2.8395429,-0.57821369,-4.5019321,0.20167553,0.34500551,-0.91667771,0
-1.7094448,2.5264139,1.3068727,-0.48433816,0.84859985,0.21282572,0
-0.14525247,2.1523523,3.4521358,0.10741472,0.92247248,0.37081859,0
-0.20178413,-3.4557688,-0.043934822,0.011923194,-0.93670392,-0.34991953,0
-2.1137755,-0.90200996,-3.1419389,-0.78335249,-0.50499576,-0.36240578,0
0.52513337,-2.251035,-3.2439117,0.018674791,-0.93709272,-0.34858057,0
-0.81098866,-1.3635678,-4.4934363,-0.46579558,-0.7895155,-0.39962447,0
0.031724215,2.3316975,-4.0244823,0.20167553,0.34500551,-0.91667771,0
-0.1298964,-2.9977002,3.7522235,-0.20167553,-0.34500551,0.91667771,0
-1.6077943,-0.10727787,4.5149298,-0.20167553,-0.34500551,0.91667771,0
-3.4742792,-0.17997131,0.74974608,-0.97902811,0.098554462,-0.1783005,0
1.4059947,-0.073019981,-4.6271853,0.20167553,0.34500551,-0.91667771,0
3.578042,1.6474371,-3.5017991,0.20167553,0.34500551,-0.91667771,0
-0.26281595,-0.92875433,4.5016594,-0.20167553,-0.34500551,0.91667771,0
-2.7658978,-0.79772961,-1.6573627,-0.89362895,-0.31830269,-0.31640267,0
1.7296906,-2.9127934,0.42581517,0.5971477,-0.78515983,-0.16413017,0
1.7760075,-0.876719,4.9697986,-0.20167553,-0.34500551,0.91667771,0
-1.056953,2.9457934,0.8761571,-0.32521629,0.906398,0.2695868,0
3.890348,1.6580455,-3.4290972,0.20167553,0.34500551,-0.91667771,0
2.1744294,-0.30910683,4.4395442,0.90099728,0.30167276,0.31176484,0
3.4523935,1.8771359,-1.3692327,0.90099478,0.30167869,0.31176662,0
0.32550192,1.6917982,-4.2006845,0.20167553,0.34500551,-0.91667771,0
-2.9679453,-1.1520236,3.8224812,-0.20167553,-0.34500551,0.91667771,0
2.8297338,0.52344513,1.7220771,0.92202538,0.24888361,0.29652309,0
0.79546177,-0.7372694,4.8065557,-0.20167553,-0.34500551,0.91667771,0
-2.3102658,2.3740296,-3.5490212,-0.93464494,0.34762716,-0.074793696,0
-3.768858,-1.013008,2.0050948,-0.9767378,0.0012099147,-0.21443379,0
3.1555252,-0.94586962,-0.38094163,0.93002105,-0.36102122,0.068735242,0
0.9017415,-3.2665818,0.016139925,0.33702612,-0.90320069,-0.26578522,0
2.1572909,1.6115835,-3.8278685,0.20167553,0.34500551,-0.91667771,0
1.563096,3.5213976,-0.72103381,0.34498626,0.85090995,0.39615232,0
2.7219446,-1.4796569,2.2480628,0.96301258,-0.24060175,0.12131536,0
-0.81876945,-1.1787658,4.2852497,-0.20167553,-0.34500551,0.91667771,0
0.12256765,-3.2756386,-0.49375379,0.078220785,-0.93859231,-0.33604443,0
0.7332288,1.5135846,-4.1780558,0.20167553,0.34500551,-0.91667771,0
-0.40318194,0.10202742,4.8587284,-0.20167553,-0.34500551,0.91667771,0
2.5979424,-1.7030168,2.78897,0.96196043,-0.24585688,0.11910605,0
-2.8296239,-1.0747733,3.8819871,-0.20167553,-0.34500551,0.91667771,0
-0.79202724,3.6084108,-3.7252026,0.20167553,0.34500551,-0.91667771,0
-3.0885711,0.87490559,4.2208233,-0.69031233,0.71401232,0.11685589,0
-0.81451023,-0.54310131,4.5254288,-0.20167553,-0.34500551,0.91667771,0
1.369166,-0.49331665,5.0245905,-0.20167553,-0.34500551,0.91667771,0
-1.5549858,0.051530838,4.586318,-0.20167553,-0.34500551,0.91667771,0
1.4196599,3.8230174,-3.1578455,0.20167553,0.34500551,-0.91667771,0
2.611285,0.35334396,2.5345209,0.90740049,0.28651077,0.3074671,0
0.55921817,3.5897598,-0.33444452,0.069191098,0.92855179,0.36469713,0
-2.8134515,1.5689001,-0.94025898,-0.9175415,0.39401478,-0.053572118,0
-0.083256245,1.8832371,4.0867796,0.16757685,0.90995419,0.37934321,0
0.29360819,4.5454669,-3.1336799,0.20167553,0.34500551,-0.91667771,0
1.1670923,4.1686492,-3.0833285,0.20167553,0.34500551,-0.91667771,0
-2.6768579,-1.1797159,3.8761001,-0.20167553,-0.34500551,0.91667771,0
1.6318921,0.91297865,4.0817719,0.69433755,0.60974127,0.38224459,0
-0.33605051,1.5190439,-4.4112496,0.20167553,0.34500551,-0.91667771,0
-1.3503132,-0.21560192,-5.2872548,0.20167553,0.34500551,-0.91667771,0
-0.87807357,0.25735855,-5.005353,0.20167553,0.34500551,-0.91667771,0
-3.4498472,0.46482241,1.8476623,-0.92316723,0.3796531,-0.060215056,0
-1.8587939,2.5654786,0.74542797,-0.56119585,0.80775207,0.18054278,0
1.3113863,3.1120272,-3.4492583,0.20167553,0.34500551,-0.91667771,0
3.5005507,2.4522851,-3.2159309,0.20167553,0.34500551,-0.91667771,0
1.6498294,-3.0594721,0.83708203,0.60010898,-0.78318954,-0.16273713,0
0.71142244,-3.4822564,0.51163578,0.31365114,-0.90937185,-0.27325052,0
2.6848896,2.6147978,-0.5467608,0.70543712,0.59810185,0.38030577,0
3.9882188,0.95007324,-3.1603107,0.97712278,-0.13538051,0.16402131,0
0.29105663,-4.4333878,3.3044934,-0.20167553,-0.34500551,0.91667771,0
2.9985645,-0.99732518,-4.0008159,0.67888004,-0.72386032,-0.12307751,0
3.3609834,-0.66561604,-3.284893,0.81948072,-0.57203692,-0.035003304,0
-3.1545539,-1.9027278,3.4988868,-0.20167553,-0.34500551,0.91667771,0
-1.1050953,-1.0853796,4.2574039,-0.20167553,-0.34500551,0.91667771,0
1.2336929,-1.6461215,-4.7739081,0.12784344,-0.93717408,-0.32459331,0
-2.9230154,-3.1635196,1.8536894,-0.68963635,-0.61456686,-0.38302642,0
0.045641422,-4.2996969,2.4973269,0.24758124,-0.92347175,-0.29309306,0
-3.7910287,-1.7088327,3.4318333,-0.20167553,-0.34500551,0.91667771,0
-0.80409002,2.8554502,1.4072974,-0.21842957,0.92818081,0.30127895,0
-1.419982,-0.78303862,4.3019171,-0.20167553,-0.34500551,0.91667771,0
-1.3462764,-2.1979938,-2.2203374,-0.47663438,-0.78304553,-0.39957404,0
-3.1398427,0.24805689,4.311604,-0.20167553,-0.34500551,0.91667771,0
0.42523217,-2.2379596,-3.2795033,-0.013118267,-0.93487298,-0.35473981,0
1.2506173,-0.23665524,-4.7229557,0.20167553,0.34500551,-0.91667771,0
-3.3886917,-0.66334367,3.913836,-0.20167553,-0.34500551,0.91667771,0
-0.21863937,-3.3327861,3.6065845,-0.20167553,-0.34500551,0.91667771,0
-0.2186805,-1.4939547,4.2986474,-0.20167553,-0.34500551,0.91667771,0
-3.6031008,-0.009024024,1.7954364,-0.9612304,0.24940729,-0.11760914,0
-2.7699249,-0.65454602,4.0532804,-0.20167553,-0.34500551,0.91667771,0
-2.7943079,-2.3227446,3.4200642,-0.20167553,-0.34500551,0.91667771,0
2.7784853,2.9646404,-3.1819577,0.20167553,0.34500551,-0.91667771,0
-0.23637623,0.084019661,4.888649,-0.20167553,-0.34500551,0.91667771,0
1.2899933,2.8064373,-3.5689783,0.20167553,0.34500551,-0.91667771,0
2.3013637,-1.6226696,-3.5552049,0.51181793,-0.83508229,-0.2016924,0
2.8092532,-1.6256999,0.38533306,0.88595223,-0.46332163,0.020537496,0
1.0720599,-1.9169598,4.4234152,-0.20167553,-0.34500551,0.91667771,0
2.2498825,-0.87185001,4.6537952,0.94750458,0.16836438,0.27182412,0
1.400172,-3.6865244,3.005147,0.66316748,-0.73684305,-0.13142064,0
-1.9665873,-0.39845133,4.3264055,-0.20167553,-0.34500551,0.91667771,0
3.4811833,0.34132457,-4.0146842,0.20167553,0.34500551,-0.91667771,0
1.9820302,3.0977032,-3.3071032,0.20167553,0.34500551,-0.91667771,0
0.41369778,0.5140605,5.1935225,-0.20167553,-0.34500551,0.91667771,0
-3.2856581,-2.8078623,2.0481369,-0.79323363,-0.49147394,-0.35949069,0
-1.2268146,1.849256,-4.482944,0.20167553,0.34500551,-0.91667771,0
-3.7577498,-0.12365651,2.9367263,-0.93950462,0.3327044,-0.081479251,0
-0.13381587,-0.28535223,-5.0458689,0.20167553,0.34500551,-0.91667771,0
-1.9062785,2.6004839,0.42558068,-0.59415579,0.78713298,0.1655311,0
-2.0885344,-3.010833,3.3163664,-0.20167553,-0.34500551,0.91667771,0
-1.3076665,0.49430561,4.807375,-0.20167553,-0.34500551,0.91667771,0
-1.1147993,1.8662858,4.1850185,-0.13096035,0.93700314,0.32384324,0
-2.8435445,-3.1723738,1.7271295,-0.67318803,-0.63098395,-0.38558644,0
1.8988627,-2.5226002,-0.81200576,0.56831813,-0.80346572,-0.17736258,0
-1.7177773,-0.54127121,4.3273926,-0.20167553,-0.34500551,0.91667771,0
-1.0549968,1.2498608,5.1473289,-0.20167553,-0.34500551,0.91667771,0
3.4696236,1.7287052,-3.4950657,0.20167553,0.34500551,-0.91667771,0
-1.8457382,3.2556643,-3.5690193,-0.81753916,0.57471889,0.036439836,0
-0.87964177,3.4750433,-0.7066896,-0.37424666,0.89203727,0.25339493,0
0.53872025,-1.4612727,4.477582,-0.20167553,-0.34500551,0.91667771,0
1.1247498,-1.0313253,-5.0497336,0.20167553,0.34500551,-0.91667771,0
-2.9840932,0.89039707,-1.2785549,-0.97262859,0.18082786,-0.14592779,0
-1.9725335,2.2843213,-4.4832635,0.20167553,0.34500551,-0.91667771,0
-0.31168199,-2.3392925,3.9600308,-0.20167553,-0.34500551,0.91667771,0
-1.9398993,2.6575675,0.013384938,-0.62874919,0.76321542,0.14891852,0
-2.1450224,-1.0539944,-2.8613474,-0.77336097,-0.51822048,-0.36518502,0
2.1045978,-2.3986912,4.4692736,-0.20167553,-0.34500551,0.91667771,0
1.4155855,-3.4978409,3.9040041,-0.20167553,-0.34500551,0.91667771,0
1.2551546,-0.84594297,-4.951272,0.20167553,0.34500551,-0.91667771,0
-2.0210683,2.3413148,-4.4724908,0.20167553,0.34500551,-0.91667771,0
1.6164126,4.4532809,-2.8773494,0.20167553,0.34500551,-0.91667771,0
1.2244937,-1.5230832,4.6051931,-0.20167553,-0.34500551,0.91667771,0
2.1116879,3.0178013,-3.3086495,0.20167553,0.34500551,-0.91667771,0
2.1368182,2.4543796,0.65587401,0.61550343,0.68338007,0.39261556,0
-2.1408169,-1.7771039,-1.7788994,-0.69506526,-0.60898888,-0.38212144,0
2.8446107,0.93456364,1.2973931,0.89345741,0.31868008,0.31650698,0
-1.6127894,-3.6122308,3.1946888,-0.20167553,-0.34500551,0.91667771,0
-3.8473618,-0.24320197,3.9710522,-0.20167553,-0.34500551,0.91667771,0
-1.1693037,-2.2926531,3.7889013,-0.20167553,-0.34500551,0.91667771,0
-1.2083211,-0.063934803,4.6191292,-0.20167553,-0.34500551,0.91667771,0
0.10515618,-3.6320262,0.51593095,0.13814574,-0.93657207,-0.3221001,0
-2.7974315,-1.4661765,-0.82725573,-0.84140676,-0.41804403,-0.34245265,0
-1.6759349,-1.0083811,-3.8495421,-0.69208539,-0.61206055,-0.382622,0
4.0286531,1.7850504,-3.243727,0.96643716,0.081972212,0.24347448,0
1.2267625,-1.0281854,4.7919545,-0.20167553,-0.34500551,0.91667771,0
2.4610035,0.31826591,-4.2478094,0.20167553,0.34500551,-0.91667771,0
2.3597891,3.4767022,-3.0813513,0.20167553,0.34500551,-0.91667771,0
-3.2124228,0.87885308,3.1366322,-0.78862774,0.61223084,0.0569188,0
0.57495475,3.6017208,-0.36791289,0.071676373,0.92820036,0.36511168,0
-0.13703489,-3.6727047,3.4966044,-0.20167553,-0.34500551,0.91667771,0
-3.6698878,0.10221934,2.9410005,-0.91816235,0.39246705,-0.054291248,0
-1.1756322,2.2717214,2.9356577,-0.22866493,0.92663038,0.29844356,0
-0.90755928,0.31385517,-4.9905767,0.20167553,0.34500551,-0.91667771,0
1.7594973,-2.8008158,0.003596127,0.57953125,-0.79653072,-0.17228551,0
-2.251369,2.5380325,-1.4029366,-0.79869419,0.59965849,0.049972296,0
-2.150692,-2.3365021,3.5564859,-0.20167553,-0.34500551,0.91667771,0
1.739089,2.5041168,1.1387069,0.52450299,0.75236201,0.39855725,0
1.7226851,-1.4484985,-5.0694656,0.25113976,-0.92283463,-0.29207036,0
3.2030828,2.891192,-1.9865248,0.77057993,0.52182537,0.36592984,0
-2.3733587,1.8979834,2.0755794,-0.62312973,0.76726937,0.15168065,0
1.4524112,4.0087767,-1.7183946,0.24514717,0.88833904,0.38827401,0
2.839536,0.75456905,-4.00032,0.20167553,0.34500551,-0.91667771,0
1.0049436,-2.8183489,-1.3531855,0.28000093,-0.91715837,-0.28358439,0
2.5844126,-1.3859286,-3.7630243,0.57847762,-0.79719222,-0.17276628,0
-1.9640241,-3.5469284,3.1419919,-0.20167553,-0.34500551,0.91667771,0
1.6654468,2.0164206,-3.7837107,0.20167553,0.34500551,-0.91667771,0
-0.66380662,0.54099417,4.9666009,-0.20167553,-0.34500551,0.91667771,0
3.3802443,1.968626,-1.258481,0.8840391,0.3388007,0.32200754,0
-3.4938836,0.45918369,2.8546965,-0.87876129,0.47706228,-0.013784051,0
-2.8947139,0.43351579,-1.9669511,-0.97562271,-0.011919886,-0.21913004,0
-1.7166594,0.57163095,-5.0715666,0.20167553,0.34500551,-0.91667771,0
0.74804169,-1.4727569,-5.2987518,0.20167553,0.34500551,-0.91667771,0
-3.6624112,-0.52289271,3.9064767,-0.20167553,-0.34500551,0.91667771,0
0.43428373,2.4358675,2.5200491,0.21939069,0.89621544,0.38557178,0
-3.5289025,-0.17682263,1.0624797,-0.97742975,0.13100955,-0.16573393,0
2.1809793,0.60748219,3.384264,0.82327938,0.44730067,0.34947574,0
-0.12344408,-2.6316092,-2.1820254,-0.1042192,-0.9230361,-0.37032765,0
2.3133528,-0.17677259,3.9076769,0.90891659,0.28281397,0.30640936,0
0.90459776,-3.1952305,-0.22125971,0.32283753,-0.9070223,-0.27034515,0
2.0087385,-1.8447604,-3.3263588,0.44321388,-0.86675,-0.22870442,0
3.9142485,1.7773457,-2.8014646,0.95798987,0.12536979,0.25794923,0
-2.5851643,-1.6755993,3.70964,-0.20167553,-0.34500551,0.91667771,0
3.0301397,3.6008024,-2.75529,0.66060901,0.64307177,0.3873685,0
-1.0210834,2.6977921,1.7248285,-0.26104343,0.92098933,0.289197,0
-2.5748315,1.8006432,-2.7602253,-0.95559365,0.27462256,-0.10687888,0
0.080094814,2.2256732,-4.0537438,0.20167553,0.34500551,-0.91667771,0
1.6002891,-3.2504117,1.5913748,0.6324805,-0.76048589,-0.14707032,0
1.7777882,-0.07643652,5.2094378,0.82273084,0.44815272,0.34967566,0
1.1009803,-2.6537724,4.1524668,-0.20167553,-0.34500551,0.91667771,0
-0.53255498,1.4341202,5.3316183,-0.20167553,-0.34500551,0.91667771,0
1.0229056,1.0212369,4.8738737,0.55731827,0.72920424,0.39706099,0
-0.6539346,-1.630919,-4.1200929,-0.3924759,-0.82901812,-0.39836109,0
-2.5845845,-3.7017994,2.947176,-0.20167553,-0.34500551,0.91667771,0
-3.2931116,0.18627465,-0.038940668,-0.97825551,0.11720595,-0.17111087,0
3.6328959,1.5766337,-1.6856511,0.94270933,0.18556702,0.27724361,0
2.214216,1.1767392,2.5406296,0.77291393,0.51880217,0.36530554,0
-2.5308135,1.5670767,-3.4434295,-0.9764632,0.14388487,-0.16067547,0
0.10308695,-3.3417253,3.6740024,-0.20167553,-0.34500551,0.91667771,0
-0.67444623,-1.4307432,4.222167,-0.20167553,-0.34500551,0.91667771,0
-2.7747419,-3.8738275,2.8258994,-0.57535958,-0.7156769,-0.39593905,0
-2.664968,1.5158423,2.7828569,-0.66079259,0.73875171,0.13266149,0
2.2512138,-1.0816801,-4.8208551,0.20167553,0.34500551,-0.91667771,0
-0.15934134,-4.1298909,1.850523,0.14664698,-0.93599498,-0.32001263,0
0.16520974,-0.2138896,-4.9531851,0.20167553,0.34500551,-0.91667771,0
1.0456313,-1.7732658,-4.4741325,0.092106342,-0.93844128,-0.33293265,0
-1.9848396,2.2706008,-4.4911346,0.20167553,0.34500551,-0.91667771,0
-2.7168369,0.92627954,-2.7626503,-0.97892916,0.040414691,-0.2001605,0
-3.7592456,-0.58576393,2.0979869,-0.9777633,0.12585574,-0.16774708,0
-0.31906509,2.5517459,-4.0188394,0.20167553,0.34500551,-0.91667771,0
-1.294198,0.60538006,-4.9659204,0.20167553,0.34500551,-0.91667771,0
1.8240142,-0.22587872,-4.5927486,0.20167553,0.34500551,-0.91667771,0
-2.261179,-2.2977738,3.5467541,-0.20167553,-0.34500551,0.91667771,0
0.76004612,1.4966974,4.2850389,0.43605375,0.80641413,0.39944112,0
3.507921,-0.24606395,-1.5977509,0.94984174,-0.29727894,0.09708631,0
-3.1839597,-3.0928195,3.0445085,-0.20167553,-0.34500551,0.91667771,0
-1.7985544,-2.9946313,-0.11961246,-0.47358471,-0.78488302,-0.3995946,0
1.3325142,2.1728418,2.2860436,0.47684807,0.78291619,0.39957231,0
0.72125518,1.5822577,-4.1548433,0.20167553,0.34500551,-0.91667771,0
-2.6164069,-2.2887428,-0.088030815,-0.72831225,-0.57295662,-0.37587476,0
-0.23318687,0.8076663,5.161706,-0.20167553,-0.34500551,0.91667771,0
-0.60113478,-4.1419015,1.7791758,0.012438238,-0.93673497,-0.34981799,0
-1.8860877,-1.1224952,-3.280066,-0.71928078,-0.58307791,-0.37769705,0
3.3385847,-0.64952302,-3.8497188,0.78039521,-0.62215847,-0.062466383,0
-1.5036411,3.3464372,-1.6810874,-0.61111099,0.7757163,0.15750398,0
2.448539,3.9433243,-2.8862054,0.20167553,0.34500551,-0.91667771,0
-0.26527834,-4.1166101,3.3013196,-0.20167553,-0.34500551,0.91667771,0
0.48198175,-0.32055712,4.8944244,-0.20167553,-0.34500551,0.91667771,0
-1.1847687,-4.266386,2.1952937,-0.13350201,-0.91749096,-0.37468311,0
2.2279654,1.5020604,2.0380826,0.7414211,0.55778885,0.37305015,0
2.0991578,3.8360803,-3.0034351,0.20167553,0.34500551,-0.91667771,0
2.3912947,-1.2294683,-4.8456593,0.20167553,0.34500551,-0.91667771,0
-0.36072683,2.3680713,2.9341691,0.0097293854,0.93515658,0.354101,0
-2.0333409,0.57476997,-5.104229,-0.9028483,-0.29736137,-0.31054938,0
-1.1693426,-1.5913725,4.0528302,-0.20167553,-0.34500551,0.91667771,0
-0.65188217,-3.0416002,3.6208603,-0.20167553,-0.34500551,0.91667771,0
1.9655906,-0.43917799,5.1586533,0.88304293,0.34086239,0.32256448,0
-0.64688849,2.6716933,-4.0458188,0.20167553,0.34500551,-0.91667771,0
2.199604,-0.12634659,4.1860027,0.89009333,0.32600194,0.31852257,0
1.3887608,-3.206326,0.68628097,0.51761329,-0.83208209,-0.19928825,0
-0.53326321,-4.4916778,2.751538,0.095272243,-0.93838036,-0.33221319,0
3.6299646,2.9183517,-3.0120478,0.20167553,0.34500551,-0.91667771,0
-3.1646061,1.0263076,1.6243644,-0.86369324,0.50401783,-0.00032377243,0
-2.5531425,-3.4349518,1.7109568,-0.58276618,-0.70995164,-0.39541376,0
-0.4510392,1.7031555,-4.3672547,0.20167553,0.34500551,-0.91667771,0
0.13408718,-0.44380283,-5.0465631,0.20167553,0.34500551,-0.91667771,0
-1.1044955,2.1738191,3.2832189,-0.18580031,0.93239051,0.31004196,0
0.018849373,-1.945596,-3.9084818,-0.17511117,-0.90812862,-0.38031369,0
-1.302237,-4.5351462,2.9156587,-0.20167553,-0.34500551,0.91667771,0
2.3731468,2.4366188,0.29762101,0.66526377,0.63864446,0.38672626,0
3.8478062,0.51080298,-3.8702388,0.20167553,0.34500551,-0.91667771,0
-2.2273569,2.3340609,0.3918556,-0.6851455,0.7185064,0.11968404,0
2.2568667,-2.5789199,2.5669422,0.86740518,-0.49758977,0.0035597086,0
-0.65530109,-4.4199076,2.5268049,0.044929206,-0.93818188,-0.3432143,0
3.4281363,-0.54730844,-3.6445644,0.81631047,-0.57640493,-0.037344694,0
0.40653563,-4.4093127,3.3031318,0.40229291,-0.88249791,-0.24363431,0
-2.0597067,2.8233621,-1.8289964,-0.77246416,0.63143903,0.067704201,0
-2.5828753,0.24373913,-3.1029809,-0.94413358,-0.18058574,-0.27568221,0
-0.024357796,-0.7384038,-5.1922998,0.20167553,0.34500551,-0.91667771,0
-3.2627084,-2.5137832,3.2451119,-0.20167553,-0.34500551,0.91667771,0
-0.92434305,0.7973423,-4.8123012,0.20167553,0.34500551,-0.91667771,0
-1.6512693,0.15882826,-5.2125444,0.20167553,0.34500551,-0.91667771,0
-1.4293797,-2.6135812,-1.2994499,-0.43988389,-0.80430675,-0.39949059,0
0.70838308,-4.2399797,3.4690995,-0.20167553,-0.34500551,0.91667771,0
-3.0087433,1.1229159,3.1156271,-0.73492604,0.67198384,0.091222495,0
-0.10686469,3.0831442,-3.7721541,0.20167553,0.34500551,-0.91667771,0
-1.0748434,-0.92240047,-4.9789538,-0.58074248,-0.71152616,-0.39556116,0
-3.1109154,-1.5515733,0.08061862,-0.8804689,-0.34613538,-0.32398272,0
-0.9191817,0.58506727,4.9270039,-0.20167553,-0.34500551,0.91667771,0
0.64686036,-1.0840101,-5.1747017,0.20167553,0.34500551,-0.91667771,0
-2.8965721,0.92705679,-1.7934606,-0.97686875,0.13878566,-0.1626839,0
-3.4944503,-1.0008221,0.86624289,-0.96078157,-0.11218375,-0.2536006,0
-0.22430801,3.4813261,-3.6481307,0.20167553,0.34500551,-0.91667771,0
3.2262909,1.4535049,-0.30616045,0.90379494,0.29513454,0.3099196,0
-2.053304,-1.4707227,3.9037614,-0.20167553,-0.34500551,0.91667771,0
0.80242229,-3.9483511,2.3089724,0.45272976,-0.86276352,-0.22511052,0
-3.4785824,-1.3738966,1.0263278,-0.93900436,-0.1980741,-0.2811358,0
2.8875852,0.11738372,1.8149173,0.953076,0.1466091,0.26486206,0
2.9345636,3.1685035,-3.0708923,0.20167553,0.34500551,-0.91667771,0
-3.4410255,0.5532378,2.8232815,-0.86695933,0.49836871,-0.0031685233,0
1.1591876,-2.5332274,4.2106423,-0.20167553,-0.34500551,0.91667771,0
-0.00089883804,3.1063781,-3.7400963,0.20167553,0.34500551,-0.91667771,0
1.7670841,3.2133648,-3.3108618,0.20167553,0.34500551,-0.91667771,0
-0.60099888,0.012822151,4.7816334,-0.20167553,-0.34500551,0.91667771,0
3.644659,0.83026415,-1.4409597,0.97607952,0.0068092644,0.21730709,0
2.1218865,0.079753399,-4.4121852,0.20167553,0.34500551,-0.91667771,0
-1.2283076,2.0422282,-4.4106441,0.20167553,0.34500551,-0.91667771,0
3.4921327,0.74569225,-3.8600852,0.20167553,0.34500551,-0.91667771,0
3.1689701,0.98763847,-3.8401234,0.20167553,0.34500551,-0.91667771,0
0.68657732,4.4675388,-2.6529155,-0.043890536,0.9381516,0.34343147,0
-0.19049454,3.8095069,-3.5171754,0.20167553,0.34500551,-0.91667771,0
-3.1589177,-2.5649853,3.2486761,-0.20167553,-0.34500551,0.91667771,0
3.4491866,-0.20730925,-4.2282104,0.20167553,0.34500551,-0.91667771,0
2.2719831,-1.0522473,-4.8052087,0.20167553,0.34500551,-0.91667771,0
2.4905353,-0.61376762,-4.5920973,0.20167553,0.34500551,-0.91667771,0
-0.58877802,3.3277264,-3.7861264,0.20167553,0.34500551,-0.91667771,0
3.8188,0.20427966,-3.9919848,0.20167553,0.34500551,-0.91667771,0
-2.3020313,1.4942203,-4.6620922,-0.97669411,0.00064915419,-0.21463525,0
-2.6809902,-2.8661611,0.94232082,-0.676404,-0.62782973,-0.38510686,0
-2.3468294,0.94569516,4.7486396,-0.20167553,-0.34500551,0.91667771,0
-2.021265,-1.2477612,3.9947248,-0.20167553,-0.34500551,0.91667771,0
-2.3974388,1.1087418,-4.2006264,-0.97035372,-0.056893677,-0.23489738,0
2.5713961,-0.35053205,-4.4752345,0.20167553,0.34500551,-0.91667771,0
0.67937589,2.7856154,1.5671185,0.23004264,0.89304352,0.38672155,0
2.7929115,3.2660818,-3.0653319,0.20167553,0.34500551,-0.91667771,0
1.2972081,2.5478637,1.574769,0.41793787,0.81611395,0.3991062,0
-1.1300848,2.7177615,1.5513185,-0.30351567,0.91185176,0.27641377,0
-0.29727897,-0.45208168,-5.1445827,0.20167553,0.34500551,-0.91667771,0
-1.3899989,-2.6355746,-1.2977481,-0.42769188,-0.81094587,-0.39930713,0
1.7452172,-0.23512602,-4.6135645,0.20167553,0.34500551,-0.91667771,0
2.9177563,1.3695345,-3.7516594,0.20167553,0.34500551,-0.91667771,0
3.2258985,2.0296009,-3.4354401,0.20167553,0.34500551,-0.91667771,0
3.533093,0.12249839,-1.1356125,0.9756695,-0.15294144,0.15709227,0
-1.5412906,2.4241672,-4.3357544,0.20167553,0.34500551,-0.91667771,0
-2.2586591,-2.6981449,3.3966229,-0.20167553,-0.34500551,0.91667771,0
1.7607534,2.6548824,-3.5224481,0.20167553,0.34500551,-0.91667771,0
2.9020345,-1.4299084,0.43813252,0.91215086,-0.40709719,0.047462344,0
-2.3319099,0.86236429,4.7205591,-0.20167553,-0.34500551,0.91667771,0
2.848814,-0.78431344,2.1401076,0.97943413,-0.065337688,0.1908915,0
1.032608,-1.5608306,4.54877,-0.20167553,-0.34500551,0.91667771,0
-0.30009758,-1.6560264,-4.3767056,-0.30209082,-0.86837029,-0.39328641,0
-0.67776418,-3.083786,3.5992889,-0.20167553,-0.34500551,0.91667771,0
1.0623646,2.3814425,-3.7790117,0.20167553,0.34500551,-0.91667771,0
-0.78729558,-3.5546045,3.3979912,-0.20167553,-0.34500551,0.91667771,0
2.9786634,-1.3428092,-0.60812664,0.87339026,-0.48693991,0.008884728,0
1.0547051,-2.249125,4.2945814,-0.20167553,-0.34500551,0.91667771,0
-1.7171116,2.0375395,-4.5199494,0.20167553,0.34500551,-0.91667771,0
-0.41589415,1.0135555,-4.6190643,0.20167553,0.34500551,-0.91667771,0
1.6701912,2.1374533,1.9153941,0.55619663,0.73002601,0.39712352,0
-2.7006373,-1.5567473,-0.9445622,-0.81756908,-0.45608234,-0.35152447,0
-2.5918629,-0.50994825,4.1468763,-0.20167553,-0.34500551,0.91667771,0
2.7536383,-1.6878145,-0.76739919,0.80529422,-0.59114105,-0.04531461,0
-1.1145372,0.64870739,-4.9100866,0.20167553,0.34500551,-0.91667771,0
1.1497431,2.5995619,1.614356,0.3755545,0.83713692,0.39769381,0
2.0276933,-0.78806019,-4.7595234,0.20167553,0.34500551,-0.91667771,0
1.1598099,-1.5832973,4.5682998,-0.20167553,-0.34500551,0.91667771,0
-3.9769492,-0.70098758,3.3932405,-0.9658792,0.22532484,-0.1276958,0
0.15597034,-2.7837319,3.8956461,-0.20167553,-0.34500551,0.91667771,0
3.3070292,-0.70619512,-3.6793082,0.78198755,-0.62026221,-0.06140238,0
1.0739022,1.8599042,3.2061915,0.45955259,0.79316533,0.39962471,0
0.91798425,-3.7211673,1.6711475,0.44569558,-0.86572254,-0.22777176,0
0.733006,-1.8215299,4.384737,-0.20167553,-0.34500551,0.91667771,0
3.0333381,-0.78379774,-4.5366702,0.20167553,0.34500551,-0.91667771,0
-2.8237276,1.5528685,1.269267,-0.79454595,0.60489917,0.05285728,0
-2.1321459,0.92411804,-5.0303125,0.20167553,0.34500551,-0.91667771,0
-2.1698258,1.5960991,3.9561839,-0.44961292,0.86408311,0.22629288,0
-1.6503534,-1.2868392,-3.4389515,-0.65521699,-0.64813459,-0.38808769,0
-1.6896765,0.24339199,-5.1891675,0.20167553,0.34500551,-0.91667771,0
-3.7181072,-0.34429324,2.084676,-0.97154707,0.18913481,-0.14256346,0
-0.20276523,3.7550268,-0.93188453,-0.19325185,0.93152666,0.30807745,0
-1.2094682,2.156266,3.2674356,-0.21730804,0.92834389,0.3015871,0
-0.67955065,2.915422,1.3076075,-0.18862295,0.93207014,0.30930039,0
-3.866154,-1.5326276,2.5140071,-0.96538436,-0.088036865,-0.24552536,0
1.500456,-0.18524933,5.1694212,-0.20167553,-0.34500551,0.91667771,0
3.2016151,0.22559285,-4.1197481,0.20167553,0.34500551,-0.91667771,0
1.427119,1.1120305,-4.1765256,0.20167553,0.34500551,-0.91667771,0
-1.9992622,2.2076433,1.8961349,-0.52954185,0.82573742,0.19427598,0
2.6710706,-1.1094449,2.9403932,0.97945195,-0.071788967,0.18846738,0
-2.9328861,1.1787585,3.277998,-0.70449406,0.70129734,0.10895032,0
0.30732059,-4.3265495,2.865036,0.34631449,-0.90057075,-0.26275188,0
0.043783188,4.4346094,-3.2303658,0.20167553,0.34500551,-0.91667771,0
-1.5196873,1.0286498,4.9618378,-0.20167553,-0.34500551,0.91667771,0
-1.0476345,-1.3556228,4.168335,-0.20167553,-0.34500551,0.91667771,0
-0.29854941,-2.9485397,3.7336206,-0.20167553,-0.34500551,0.91667771,0
-0.35641766,3.3090086,-3.7420499,0.20167553,0.34500551,-0.91667771,0
2.2178006,-2.5831211,1.4143033,0.79039741,-0.6100558,-0.055710852,0
2.3704247,-1.5021656,-3.8788838,0.51121134,-0.83539325,-0.20194292,0
-1.0183641,1.9283099,-4.4073296,0.20167553,0.34500551,-0.91667771,0
-3.6512458,-2.4131277,3.1975141,-0.20167553,-0.34500551,0.91667771,0
3.2034135,-0.79605556,-3.9547548,0.73765796,-0.66920602,-0.089576006,0
-3.1510434,0.84732157,-0.052125931,-0.95122254,0.29207009,-0.099350572,0
-2.4734983,-3.8981986,2.461278,-0.50665843,-0.7642138,-0.3990919,0
0.019923627,-0.27039909,4.811646,-0.20167553,-0.34500551,0.91667771,0
2.9126244,-0.020841599,1.7897189,0.96199292,0.10615253,0.25159729,0
-0.70046294,0.094360352,-5.0276241,0.20167553,0.34500551,-0.91667771,0
-3.9045513,-0.67512107,2.9166636,-0.97217202,0.18441057,-0.14447892,0
-0.70655346,-4.3135977,3.1300967,-0.20167553,-0.34500551,0.91667771,0
-3.5632644,-0.54206562,1.0808351,-0.97870886,0.034525663,-0.20232856,0
1.1173062,2.2947068,-3.7995682,0.20167553,0.34500551,-0.91667771,0
1.6779547,3.685132,-3.1529143,0.20167553,0.34500551,-0.91667771,0
2.5554769,-1.862308,-1.3109472,0.71961826,-0.68709111,-0.1002762,0
-3.8906369,-1.4365692,2.5842552,-0.97067136,-0.054638386,-0.23411846,0
2.8016055,-0.37296867,-4.4330311,0.20167553,0.34500551,-0.91667771,0
-1.8383776,-0.282444,-4.5976238,-0.7981301,-0.48460066,-0.35798115,0
1.4478316,3.3948126,-3.312809,0.20167553,0.34500551,-0.91667771,0
-1.8656592,-3.5754001,3.1529169,-0.20167553,-0.34500551,0.91667771,0
-3.4169316,0.31448159,0.96000075,-0.96072602,0.25181714,-0.11659127,0
0.21936351,1.0262895,5.3435526,-0.20167553,-0.34500551,0.91667771,0
-3.3076582,-1.0824819,0.25012016,-0.93894386,-0.19827339,-0.28119743,0
-1.6391062,0.080415249,-5.2393808,0.20167553,0.34500551,-0.91667771,0
2.6682689,-0.18915462,-4.3931847,0.20167553,0.34500551,-0.91667771,0
-1.8413979,-0.767138,-3.9045763,-0.74922168,-0.54848021,-0.37126285,0
3.5184255,-0.42077255,-3.1666744,0.86743683,-0.49753439,0.0035874844,0
0.00072002411,4.3735833,-3.2628088,0.20167553,0.34500551,-0.91667771,0
-0.98911798,1.740541,4.5792131,-0.068746746,0.93858635,0.33812648,0
-1.2646663,3.5880024,-1.9826293,-0.56289548,0.80673748,0.17978701,0
-2.8948202,-2.6521122,1.0068438,-0.74043399,-0.5589512,-0.37327045,0
2.3966539,-1.863798,-2.1527457,0.62488461,-0.76601064,-0.15082076,0
-1.9086441,-1.3091497,3.996398,-0.20167553,-0.34500551,0.91667771,0
-1.3477218,3.6290221,-3.8397017,0.20167553,0.34500551,-0.91667771,0
-2.8502924,1.5611298,0.45098066,-0.84911108,0.52807939,0.01194036,0
3.3927755,2.1785793,-3.3426554,0.20167553,0.34500551,-0.91667771,0
-2.3234575,-1.749023,3.7395833,-0.20167553,-0.34500551,0.91667771,0
-1.0777926,-1.3983173,-4.096344,-0.52121818,-0.75458181,-0.39866996,0
2.2700851,3.0867758,-0.67051101,0.56585234,0.72287834,0.39655781,0
3.7491961,0.28432977,-2.4080348,0.96361375,-0.23752064,0.12260723,0
2.6090934,0.74492359,-4.0546494,0.20167553,0.34500551,-0.91667771,0
-2.8875337,1.2887836,-1.2767279,-0.95255136,0.28692818,-0.10157818,0
2.1302454,3.5472589,-1.3589876,0.47555339,0.78369844,0.39958185,0
-1.4179828,0.20630121,-5.143353,0.20167553,0.34500551,-0.91667771,0
1.3222198,-2.2369995,-2.9196935,0.27209896,-0.91880322,-0.28594187,0
1.842226,4.0151458,-2.0246782,0.34265262,0.85191518,0.39601725,0
-2.6759558,-1.7821629,-0.69943452,-0.79151404,-0.49386013,-0.36001045,0
0.94032854,-0.83071709,-5.0148053,0.20167553,0.34500551,-0.91667771,0
-2.894434,1.4654826,-0.23835063,-0.89930463,0.43601844,-0.03375113,0
-1.5037636,-1.3972497,4.0523167,-0.20167553,-0.34500551,0.91667771,0
-0.32967854,3.3753679,0.13096315,-0.16212732,0.93475664,0.31614071,0
2.6632187,-1.7854013,-0.96517372,0.76944345,-0.63490349,-0.069672704,0
-0.84763765,1.2592578,-4.6215768,0.20167553,0.34500551,-0.91667771,0
-3.4184179,-1.7439902,3.5005784,-0.20167553,-0.34500551,0.91667771,0
-1.4695528,0.65516138,-4.9857631,0.20167553,0.34500551,-0.91667771,0
3.1187685,-1.0375421,-0.38401365,0.920959,-0.38538265,0.057572842,0
0.40175891,3.0625262,-3.6680133,0.20167553,0.34500551,-0.91667771,0
-1.7108152,-0.17064238,4.4684162,-0.20167553,-0.34500551,0.91667771,0
-3.322499,-1.3236506,0.48223829,-0.92495763,-0.24074122,-0.29410374,0
-1.5682518,2.2545118,2.5722861,-0.36485881,0.89501113,0.25657961,0
-0.16381645,-4.208087,2.0781434,0.15994799,-0.93494558,-0.31669131,0
0.59764767,2.674964,-3.7707813,0.20167553,0.34500551,-0.91667771,0
-2.542722,-3.9308386,2.6123862,-0.51779747,-0.75687498,-0.39878058,0
3.2363415,-0.51190138,-4.3896756,0.20167553,0.34500551,-0.91667771,0
-0.61312711,-1.4174502,-4.6025019,-0.41244167,-0.81897062,-0.39897209,0
-1.3583136,-4.1761484,3.0384355,-0.20167553,-0.34500551,0.91667771,0
1.7998822,-1.6207061,4.6950412,-0.20167553,-0.34500551,0.91667771,0
1.1517967,-1.1931577,4.7133722,-0.20167553,-0.34500551,0.91667771,0
2.1262136,-2.6713974,1.195125,0.75278533,-0.65335238,-0.080281109,0
-0.27597463,0.48273659,5.0300002,-0.20167553,-0.34500551,0.91667771,0
1.5922115,2.6777844,0.98638272,0.46876532,0.78775966,0.39961708,0
1.1902502,-2.9073954,-0.83237922,0.36623085,-0.89458334,-0.25611672,0
-2.4711931,0.59934235,4.5909233,-0.20167553,-0.34500551,0.91667771,0
-2.8884206,-0.48989654,-1.5633342,-0.93103659,-0.22308594,-0.28879642,0
-0.11873341,-4.2377062,3.2879839,-0.20167553,-0.34500551,0.91667771,0
1.9383761,0.64286089,-4.2406244,0.20167553,0.34500551,-0.91667771,0
-2.0354719,2.7226553,-0.85735428,-0.70788419,0.69817257,0.10702837,0
-0.15711021,3.7711008,-0.95266271,-0.18130159,0.93288445,0.31121764,0
2.7797656,2.3904593,-0.38731503,0.74731529,0.55077541,0.3717072,0
-2.0171657,-2.7681081,3.4234214,-0.20167553,-0.34500551,0.91667771,0
0.91144991,-1.0100279,-5.0886459,0.20167553,0.34500551,-0.91667771,0
2.1817594,1.7983041,1.6703732,0.70052308,0.60329819,0.38118035,0
-0.61663938,-2.9393611,-1.2419386,-0.18973517,-0.90441889,-0.38213485,0
-0.52364063,1.724292,4.620625,0.071355164,0.92824626,0.36505827,0
2.5180905,0.31370449,-4.2369666,0.20167553,0.34500551,-0.91667771,0
-0.33798385,-2.5675755,3.8683264,-0.20167553,-0.34500551,0.91667771,0
-2.8075137,1.6371815,-0.0014941692,-0.86385036,0.50374824,-0.00045979023,0
-1.6702458,-0.66892767,4.2898045,-0.20167553,-0.34500551,0.91667771,0
2.1400471,-2.5531898,0.4440124,0.71161199,-0.69469738,-0.1049003,0
1.3769546,-3.6218593,2.5518541,0.62914491,-0.76292735,-0.14872302,0
1.1740513,3.3081818,-3.4056475,0.20167553,0.34500551,-0.91667771,0
0.96996164,3.5703955,-3.3518605,0.20167553,0.34500551,-0.91667771,0
0.027506754,0.37246799,5.0552673,-0.20167553,-0.34500551,0.91667771,0
-2.3601363,-1.0104485,-2.4450953,-0.81411242,-0.46130556,-0.3527298,0
-2.5030518,1.7219839,2.4291065,-0.63753438,0.75674003,0.14454862,0
-1.1788595,3.0097079,0.48868456,-0.38460952,0.88862783,0.24983183,0
-0.42624685,-0.010173798,-5.0066376,0.20167553,0.34500551,-0.91667771,0
2.5994227,-1.6405475,-2.4144619,0.66507065,-0.7353034,-0.13042244,0
1.6443212,3.8529084,-3.0971689,0.20167553,0.34500551,-0.91667771,0
-1.4412293,-0.79647255,4.2921858,-0.20167553,-0.34500551,0.91667771,0
3.9389999,0.90995574,-3.6999483,0.20167553,0.34500551,-0.91667771,0
3.8755755,0.77152896,-2.6369109,0.97746837,-0.13043427,0.165959,0
1.023101,1.9055816,3.1722288,0.44164735,0.80332971,0.39951092,0
-3.2015409,0.96286881,1.7268218,-0.86740935,0.4975825,-0.0035633445,0
-1.8867533,-1.8549466,-2.088201,-0.63599896,-0.66562712,-0.39044315,0
-1.4468449,-1.6792281,-3.0699735,-0.56575644,-0.72295004,-0.39656365,0
2.0712492,2.209033,-3.6219387,0.20167553,0.34500551,-0.91667771,0
-2.3156602,-1.7124877,3.7550492,-0.20167553,-0.34500551,0.91667771,0
0.589926,0.78337812,-4.4844074,0.20167553,0.34500551,-0.91667771,0
-0.35627222,-2.2388883,3.9880095,-0.20167553,-0.34500551,0.91667771,0
-0.095435143,-3.7745595,0.85167491,0.10108548,-0.9382422,-0.33088225,0
0.69991344,1.2002501,4.9454908,0.4622196,0.79161298,0.39962721,0
3.0170083,-1.2781842,-0.84845018,0.86965489,-0.49362898,0.0055453777,0
1.7473054,0.63574648,-4.2853394,0.20167553,0.34500551,-0.91667771,0
-0.65855217,-4.3162513,3.139658,-0.20167553,-0.34500551,0.91667771,0
-1.7634059,1.2109222,-4.8412437,0.20167553,0.34500551,-0.91667771,0
2.8408337,-0.020566463,2.058356,0.95607704,0.13390538,0.26074088,0
-2.5538726,-2.4655457,0.069643974,-0.69709957,-0.60687774,-0.38177449,0
1.703191,2.9079628,0.40229416,0.46337098,0.79093957,0.39962703,0
0.13883007,0.8950696,5.2764482,-0.20167553,-0.34500551,0.91667771,0
1.1196213,0.36265373,-4.526217,0.20167553,0.34500551,-0.91667771,0
2.5566015,1.8097701,-3.6654267,0.20167553,0.34500551,-0.91667771,0
-1.1822509,2.008647,-4.4131498,0.20167553,0.34500551,-0.91667771,0
1.2002478,0.23899174,-4.5550203,0.20167553,0.34500551,-0.91667771,0
-1.8050568,0.1128149,4.5543656,-0.20167553,-0.34500551,0.91667771,0
-1.112191,0.21633768,-5.072299,0.20167553,0.34500551,-0.91667771,0
-2.6406145,-0.87156796,4.0000501,-0.20167553,-0.34500551,0.91667771,0
0.88540888,-3.5694962,3.7603934,-0.20167553,-0.34500551,0.91667771,0
-2.8174837,-0.55141687,4.0816317,-0.20167553,-0.34500551,0.91667771,0
2.2424452,-1.7834402,-3.0362329,0.52738941,-0.82689935,-0.19518679,0
-0.97024369,3.7559538,-3.7088814,0.20167553,0.34500551,-0.91667771,0
-2.6295316,-2.9876277,3.2060771,-0.20167553,-0.34500551,0.91667771,0
-3.1252644,-1.0039992,3.843581,-0.20167553,-0.34500551,0.91667771,0
3.0640788,-1.0455908,0.28402543,0.94298863,-0.3213864,0.086505413,0
0.92793846,4.59093,-2.9770124,0.20167553,0.34500551,-0.91667771,0
1.4438465,3.0293736,-3.4512239,0.20167553,0.34500551,-0.91667771,0
1.3029251,-3.3331418,3.9412055,-0.20167553,-0.34500551,0.91667771,0
-2.5084198,2.1341312,-0.77305329,-0.83009285,0.55697137,0.026998401,0
-1.7313271,-1.9858329,3.7807291,-0.20167553,-0.34500551,0.91667771,0
-1.5363255,3.33041,-3.9935832,0.20167553,0.34500551,-0.91667771,0
-0.94468999,-3.4073565,0.029542208,-0.20422274,-0.90052581,-0.38385707,0
-1.1628664,-2.4331708,-1.9486748,-0.40200776,-0.82428533,-0.39867681,0
-2.4940572,2.1028998,-0.077073097,-0.78559476,0.61592412,0.058976054,0
-2.7756188,1.3819423,-2.0156658,-0.96354449,0.2378782,-0.1224575,0
-2.6323111,-0.52957821,-2.3041062,-0.89672703,-0.31141028,-0.31449032,0
-3.4610019,-2.6991315,3.1317272,-0.20167553,-0.34500551,0.91667771,0
-0.62793827,2.0646076,3.739563,-0.016834795,0.93699116,0.34894714,0
-3.715992,-0.52733839,1.8900242,-0.97807646,0.12053019,-0.16982031,0
-2.2125573,1.9561924,2.3717365,-0.56006467,0.80842471,0.18104482,0
-2.9857464,0.3571403,-1.5536187,-0.9773466,0.0095477402,-0.2114296,0
-1.1217095,-2.1480954,-2.5750425,-0.43159235,-0.80884385,-0.39937401,0
1.1696358,-0.2759738,5.0624924,-0.20167553,-0.34500551,0.91667771,0
0.15540409,-3.9774899,1.5792171,0.2208572,-0.92782307,-0.30061018,0
-1.3186071,-0.45478106,4.4477644,-0.20167553,-0.34500551,0.91667771,0
-1.2827551,1.1648798,-4.7528262,0.20167553,0.34500551,-0.91667771,0
-0.63086843,3.8243737,-3.6084652,0.20167553,0.34500551,-0.91667771,0
1.117111,-3.8668056,2.772454,0.5702374,-0.80229491,-0.17649969,0
1.0527308,0.85451508,-4.3558135,0.20167553,0.34500551,-0.91667771,0
1.0431165,0.63444281,-4.4407558,0.20167553,0.34500551,-0.91667771,0
1.7216825,-3.2846889,2.451679,0.71798408,-0.68865967,-0.10122603,0
-3.1935172,0.60911047,-0.21822953,-0.96810853,0.21224433,-0.13310927,0
3.3725638,0.63048637,-0.25121355,0.96771705,0.074255854,0.24085188,0
2.062094,1.2452431,2.7516532,0.73854822,0.56116283,0.37368792,0
-0.06421566,1.4132447,-4.391263,0.20167553,0.34500551,-0.91667771,0
1.2593589,-3.2968135,0.74065936,0.48444724,-0.84854835,-0.21278234,0
3.9459758,1.8646169,-2.9621053,0.9563489,0.13271496,0.26035273,0
-1.5457133,1.9703145,-4.5075412,0.20167553,0.34500551,-0.91667771,0
0.036972165,0.28016663,-4.7954526,0.20167553,0.34500551,-0.91667771,0
0.96471763,1.249558,-4.2264967,0.20167553,0.34500551,-0.91667771,0
-2.2751803,0.46475697,-4.275497,-0.92473745,-0.24136046,-0.2942884,0
-1.0856342,-4.454114,2.9938104,-0.20167553,-0.34500551,0.91667771,0
3.1998682,1.4904029,-3.6441021,0.20167553,0.34500551,-0.91667771,0
2.3004746,-2.3328943,3.8221121,0.94640851,-0.30969256,0.091659009,0
1.0002244,0.06550312,-4.6643219,0.20167553,0.34500551,-0.91667771,0
0.67015111,-1.9461405,-4.0553203,0.0087974668,-0.93650877,-0.35053381,0
1.4072409,4.2482157,-2.2485547,0.19653022,0.90262008,0.38295281,0
2.4359052,-0.19388437,3.5482941,0.92501491,0.24057999,0.2940557,0
-2.4972575,0.37260246,4.4998522,-0.20167553,-0.34500551,0.91667771,0
-1.1317534,2.4773993,-4.2256184,0.20167553,0.34500551,-0.91667771,0
-2.2782545,-2.8111744,0.18824482,-0.60159707,-0.69492614,-0.39390153,0
-3.2845025,-2.5560997,3.2243905,-0.20167553,-0.34500551,0.91667771,0
3.1550121,3.2760811,-2.4611349,0.72115314,0.5810011,0.37732732,0
1.9559076,3.2727566,-3.2469664,0.20167553,0.34500551,-0.91667771,0
-2.6177237,-0.021109581,-2.798135,-0.93140912,-0.2219671,-0.28845727,0
-2.9240444,-0.3149004,4.1472034,-0.20167553,-0.34500551,0.91667771,0
-0.30506337,2.0444975,3.7633338,0.080253303,0.9269408,0.36652455,0
1.794827,3.5532401,-3.176841,0.20167553,0.34500551,-0.91667771,0
-2.7075844,0.99466395,4.6877007,-0.20167553,-0.34500551,0.91667771,0
-1.778121,-4.1785288,2.9451795,-0.20167553,-0.34500551,0.91667771,0
-0.66544127,-2.4491117,-2.3420372,-0.27721363,-0.87753421,-0.39126235,0
-0.58312029,-0.56661129,4.5674882,-0.20167553,-0.34500551,0.91667771,0
2.8802493,3.0279763,-1.5596442,0.69664085,0.60735464,0.3818531,0
-2.68186,1.6885798,-2.060611,-0.94499052,0.31461704,-0.089493573,0
-1.2993696,1.6265066,4.8030787,-0.14515054,0.93610185,0.32038206,0
-3.9236388,-0.70119214,3.0119104,-0.97182989,0.18702075,-0.14342123,0
0.17369258,1.8241668,4.0871682,0.24470919,0.88847893,0.38823032,0
0.57275558,3.3303933,-3.529577,0.20167553,0.34500551,-0.91667771,0
-1.8370057,-1.7289467,3.8541617,-0.20167553,-0.34500551,0.91667771,0
-1.9790306,-0.30424118,-4.2478681,-0.81928569,-0.45346302,-0.35091627,0
2.2808747,-2.5284142,2.8126822,0.88738918,-0.4605,0.021915615,0
-1.0359116,-0.49021769,-5.3214402,0.20167553,0.34500551,-0.91667771,0
3.055151,-1.1554348,-0.15840673,0.91753787,-0.39402375,0.053567886,0
-1.8399472,-1.6627523,-2.4907706,-0.64919692,-0.65370554,-0.38885999,0
-2.6254137,-0.46028328,4.1581879,-0.20167553,-0.34500551,0.91667771,0
-1.8842785,-3.1399486,0.26741838,-0.47376204,-0.78477669,-0.39959365,0
2.1441293,-2.390507,-0.50573516,0.65530914,-0.74310684,-0.13550699,0
1.9461741,-1.9981275,-2.8652265,0.45426053,-0.8621105,-0.22452794,0
1.4952481,-1.655982,4.6147428,-0.20167553,-0.34500551,0.91667771,0
0.27680713,0.19727659,-4.7738838,0.20167553,0.34500551,-0.91667771,0
-0.8645376,0.67080736,-4.8467674,0.20167553,0.34500551,-0.91667771,0
1.4113364,0.98551512,4.3444896,0.64262593,0.65969056,0.38966674,0
-0.57940936,3.7344589,-3.6309853,0.20167553,0.34500551,-0.91667771,0
2.9296067,0.89585567,-3.9273286,0.20167553,0.34500551,-0.91667771,0
-1.354511,-1.771975,3.9441199,-0.20167553,-0.34500551,0.91667771,0
1.1058156,2.700629,-3.6493211,0.20167553,0.34500551,-0.91667771,0
-0.17806852,1.7567244,4.4319916,0.16193587,0.91128314,0.37860239,0
-1.7055526,-3.3131495,3.2868438,-0.20167553,-0.34500551,0.91667771,0
-0.98249054,-1.4089756,4.1625872,-0.20167553,-0.34500551,0.91667771,0
2.7689266,-1.5220791,-2.1062989,0.73009735,-0.67683178,-0.094109416,0
-0.46370977,0.58686638,-4.790175,0.20167553,0.34500551,-0.91667771,0
0.832201,-3.4217987,3.804275,-0.20167553,-0.34500551,0.91667771,0
1.4848349,-3.5011468,2.3973014,0.6496129,-0.74755526,-0.13843447,0
0.46114063,4.141221,-3.2489655,0.20167553,0.34500551,-0.91667771,0
-2.2729456,-1.2145158,-2.3622119,-0.77929199,-0.51042295,-0.36355507,0
3.1833897,-0.9546932,-2.6936817,0.80687803,-0.58906329,-0.044184148,0
-3.3807321,-0.9216125,0.40531111,-0.9551298,-0.13800058,-0.26207387,0
-2.2585399,1.5223627,4.0580826,-0.46842438,0.85591072,0.21907839,0
-1.5968896,-1.6640213,-2.8761752,-0.59934777,-0.69675708,-0.39409584,0
1.4943091,-0.81074047,4.9326553,-0.20167553,-0.34500551,0.91667771,0
0.93181813,0.82053804,5.3701081,0.5629555,0.72504002,0.39673394,0
1.7028538,2.2729633,1.6199088,0.54612863,0.73730546,0.39764827,0
-0.11411285,2.4322243,2.7404861,0.070133567,0.92841923,0.36485463,0
0.14242274,0.72441435,-4.6050529,0.20167553,0.34500551,-0.91667771,0
3.6226754,0.44576025,-3.9442487,0.20167553,0.34500551,-0.91667771,0
-0.32283449,-3.371973,3.568912,-0.20167553,-0.34500551,0.91667771,0
-3.5588701,-1.063513,1.1389101,-0.96294439,-0.10126472,-0.24996698,0
2.8120725,0.018553257,-4.2833729,0.20167553,0.34500551,-0.91667771,0
-3.2489362,-0.47234082,4.01647,-0.20167553,-0.34500551,0.91667771,0
-1.878525,-0.11071348,-4.7325325,-0.82133138,-0.4503184,-0.35018289,0
1.2162399,-3.50317,3.8581414,-0.20167553,-0.34500551,0.91667771,0
-2.0827789,2.6614256,-4.3655887,0.20167553,0.34500551,-0.91667771,0
2.6466825,0.65971279,-4.0784502,0.20167553,0.34500551,-0.91667771,0
-0.56747496,0.9821291,5.1538224,-0.20167553,-0.34500551,0.91667771,0
2.7645459,-1.4079423,-2.8762918,0.6825608,-0.72072756,-0.12108862,0
-0.83141112,-1.006824,4.3471823,-0.20167553,-0.34500551,0.91667771,0
1.4311392,-3.6645854,3.0411801,0.67388833,-0.72805262,-0.12575355,0
2.6913979,1.2947105,1.2970791,0.84050417,0.41955391,0.34282231,0
-0.91915131,-1.6195798,-3.8610814,-0.45627123,-0.79506171,-0.39961642,0
2.9873409,2.904474,-3.1586523,0.20167553,0.34500551,-0.91667771,0
0.48921728,-3.9523387,3.5291398,-0.20167553,-0.34500551,0.91667771,0
1.6682768,-1.3370638,4.7728395,-0.20167553,-0.34500551,0.91667771,0
0.43536043,-1.6022353,4.4017878,-0.20167553,-0.34500551,0.91667771,0
2.5808644,0.1372366,-4.2895722,0.20167553,0.34500551,-0.91667771,0
-1.3140879,3.8750205,-3.6325755,-0.6774832,0.72503996,0.1238288,0
2.4062588,2.457226,0.20648742,0.66941273,0.63465333,0.38613695,0
2.3314936,1.1941047,2.2634594,0.79139352,0.49402696,0.36004668,0
2.8067172,-1.6385475,0.00080513954,0.8636052,-0.50416851,0.0002476573,0
-0.25348908,0.8926878,5.189239,-0.20167553,-0.34500551,0.91667771,0
-2.3007114,-1.6597519,3.7781861,-0.20167553,-0.34500551,0.91667771,0
-0.0040631294,4.0334291,-1.6498412,-0.1813997,0.93287379,0.31119204,0
-2.1166067,2.4253905,0.44716442,-0.65126365,0.74627393,0.13758904,0
0.68085909,4.0976372,-1.6625007,0.018678963,0.93438345,0.35577896,0
0.65968752,-2.4304075,-2.7286096,0.091544509,-0.93845117,-0.33305991,0
-1.9736912,2.7011919,-0.37473893,-0.66173553,0.73799551,0.1321694,0
-2.5642405,1.6075978,2.7578743,-0.63444555,0.75903612,0.14609233,0
-0.84787726,-2.8034124,3.6673856,-0.20167553,-0.34500551,0.91667771,0
3.4453769,1.2717397,-3.6723862,0.20167553,0.34500551,-0.91667771,0
-2.5784838,1.9996309,-0.19940007,-0.81526315,0.57783502,0.038113356,0
-1.3369749,-3.6014514,3.2594266,-0.20167553,-0.34500551,0.91667771,0
1.7474097,-2.278743,-2.187988,0.44012123,-0.86801881,-0.22986239,0
-2.4528921,-3.047545,3.222388,-0.20167553,-0.34500551,0.91667771,0
3.6120515,-0.015969157,-1.9283149,0.95684898,-0.26930428,0.10915673,0
2.2065995,3.4720595,-1.3065279,0.50268549,0.76678443,0.3991853,0
-2.4500346,0.15735626,-3.4739239,-0.92417306,-0.24294218,-0.29475951,0
0.75220591,-1.2795777,-5.2251291,0.20167553,0.34500551,-0.91667771,0
-2.2434936,2.5811419,-1.8595406,-0.82326579,0.56674331,0.032178283,0
2.8069191,-1.2327299,-3.6482286,0.64740682,-0.7492578,-0.13956052,0
-2.5078492,-1.7381568,3.7031052,-0.20167553,-0.34500551,0.91667771,0
1.1904371,-2.9223671,4.0710588,-0.20167553,-0.34500551,0.91667771,0
-0.71824217,-2.8774114,3.6680555,-0.20167553,-0.34500551,0.91667771,0
1.578656,1.2958555,3.5430958,0.63978463,0.6622479,0.39000416,0
-0.84358883,2.8117499,1.5131606,-0.2231313,0.92748231,0.29998165,0
-1.0755458,3.9315801,-3.6659491,0.20167553,0.34500551,-0.91667771,0
2.4064364,-0.69255066,3.99454,0.95237637,0.14946285,0.26578212,0
-1.9323968,1.040029,4.8753214,-0.20167553,-0.34500551,0.91667771,0
-0.72838855,2.5821328,-4.0974569,0.20167553,0.34500551,-0.91667771,0
1.4927979,4.498847,-2.8873956,0.20167553,0.34500551,-0.91667771,0
-1.9877901,2.7104356,-0.50010276,-0.67322624,0.72860384,0.12610668,0
-2.3637891,-1.2507051,-2.1148098,-0.79125905,-0.49421304,-0.3600871,0
-0.41685295,-0.076715946,-5.0296154,0.20167553,0.34500551,-0.91667771,0
3.2170646,3.1106708,-3.0305064,0.20167553,0.34500551,-0.91667771,0
-2.893595,1.4889463,0.25913429,-0.87126064,0.49077117,-0.0069742799,0
-1.8007598,-3.1146097,0.11998796,-0.45803791,-0.79404271,-0.39962161,0
2.8590825,0.28135061,-4.1741228,0.20167553,0.34500551,-0.91667771,0
0.45092869,-4.1163239,2.3342142,0.35400856,-0.89831436,-0.26020992,0
-1.0573611,-3.884727,1.2184827,-0.15962946,-0.91181725,-0.37829584,0
1.6183726,0.31677961,-4.4337535,0.20167553,0.34500551,-0.91667771,0
-3.7712009,-0.01938796,3.998765,-0.88529491,0.46460366,-0.019910395,0
0.82567465,1.7917805,-4.0530133,0.20167553,0.34500551,-0.91667771,0
-1.7905746,-0.40742111,-4.5292912,-0.777457,-0.51285172,-0.36406559,0
0.82378465,-0.014070511,-4.733089,0.20167553,0.34500551,-0.91667771,0
0.41465312,-1.194941,-5.267539,0.20167553,0.34500551,-0.91667771,0
0.82366133,-4.1209798,3.5392494,-0.20167553,-0.34500551,0.91667771,0
0.39181492,-0.45299911,4.8247399,-0.20167553,-0.34500551,0.91667771,0
-1.3699019,-1.3115959,-3.8443346,-0.59496361,-0.70029742,-0.39446372,0
-1.32644,-0.5144248,4.4235935,-0.20167553,-0.34500551,0.91667771,0
-2.3012311,1.9807103,1.9505709,-0.61072135,0.77598518,0.15769088,0
-2.72191,1.3546025,3.3870389,-0.63978058,0.75505704,0.14342099,0
2.3905628,3.4148355,-3.0978656,0.20167553,0.34500551,-0.91667771,0
-0.90028644,0.85305691,-4.7860394,0.20167553,0.34500551,-0.91667771,0
1.3309951,-2.8595815,-0.78341889,0.4095369,-0.87987125,-0.24105194,0
1.900347,3.7980084,-3.0615034,0.20167553,0.34500551,-0.91667771,0
-0.55662823,-2.5417638,-2.203131,-0.23520929,-0.89146161,-0.38726288,0
0.03031826,2.9374175,1.4184346,0.026747644,0.93361938,0.35726655,0
-2.7608037,-2.9124343,3.2054963,-0.20167553,-0.34500551,0.91667771,0
-2.0097857,-1.5404962,-2.3943062,-0.69645977,-0.60754287,-0.38188398,0
-3.2559409,-1.1823027,0.15739846,-0.92681539,-0.23546156,-0.29252541,0
-0.82228625,-1.3390913,-4.5284367,-0.47164518,-0.78604472,-0.3996051,0
1.340925,-0.51039791,-4.8061147,0.20167553,0.34500551,-0.91667771,0
-0.92149186,-1.0574303,4.3083167,-0.20167553,-0.34500551,0.91667771,0
3.4122505,1.5409045,-3.5783696,0.20167553,0.34500551,-0.91667771,0
-1.5791243,-0.85615969,-4.2681336,-0.69057912,-0.61360407,-0.38287151,0
-2.549284,-0.79172754,4.0501928,-0.20167553,-0.34500551,0.91667771,0
-2.5921202,-1.1470083,-1.7211652,-0.83848536,-0.42290998,-0.34364116,0
0.71337831,1.168355,-4.312355,0.20167553,0.34500551,-0.91667771,0
1.5745292,-2.0067973,-3.4079442,0.31387329,-0.90931612,-0.27318066,0
-0.41542268,2.2220833,3.3208313,0.018704653,0.93438107,0.35578373,0
0.56727314,-4.1014776,3.4901819,-0.20167553,-0.34500551,0.91667771,0
-2.687459,-2.0380754,3.5507112,-0.20167553,-0.34500551,0.91667771,0
1.4386067,-0.66678572,-4.843483,0.20167553,0.34500551,-0.91667771,0
2.4127598,-1.8719386,-2.0422587,0.63609785,-0.75781047,-0.14526752,0
1.6541853,0.34762955,-4.4142637,0.20167553,0.34500551,-0.91667771,0
-1.1392025,2.4459674,2.4195461,-0.2510004,0.92285979,0.29211053,0
-0.17383444,1.171978,-4.5061846,0.20167553,0.34500551,-0.91667771,0
0.95608902,-2.6446857,-1.9458603,0.22814864,-0.92671108,-0.29858756,0
2.1953895,0.9828372,-4.0561247,0.20167553,0.34500551,-0.91667771,0
-1.0095264,0.30566311,4.8019695,-0.20167553,-0.34500551,0.91667771,0
-1.509388,-4.4142981,2.9155669,-0.20167553,-0.34500551,0.91667771,0
0.1497283,3.1994481,-3.6719291,0.20167553,0.34500551,-0.91667771,0
-2.3300476,0.35219336,4.5289583,-0.20167553,-0.34500551,0.91667771,0
2.3638937,-0.58797646,4.0781488,0.9423359,0.18685624,0.27764666,0
-2.7673283,-0.88976574,-1.5591688,-0.88649511,-0.33366483,-0.32061493,0
-2.0913486,2.7566643,-4.3316302,0.20167553,0.34500551,-0.91667771,0
