0.29757038,-4.0709462,-1.5764467,-0.15306073,-0.98810899,-0.01459451,0
1.5671772,3.7936606,0.79317671,0.15306073,0.98810899,0.01459451,0
3.3625145,1.5534446,-0.99230933,0.93877292,-0.14077374,-0.31446505,0
2.5229387,3.6355586,1.473745,0.15306073,0.98810899,0.01459451,0
-1.2360036,-3.8330383,-1.6003485,-0.15306073,-0.98810899,-0.01459451,0
2.9266794,3.5621796,2.2075803,0.15306073,0.98810899,0.01459451,0
-2.8943441,2.5045481,0.23320889,-0.98641443,0.15187338,0.062617421,0
1.6683345,3.4585137,3.1051302,0.33822924,-0.066257767,0.93872827,0
-3.2116709,0.49760661,-0.0074567795,-0.98820651,0.15310973,-0.0022943616,0
1.3625667,3.8353224,0.11836821,0.15306073,0.98810899,0.01459451,0
-3.0803826,-2.6225736,-1.9367497,-0.80223072,0.13286455,-0.58204174,0
-3.544085,-3.4873657,-0.79771948,-0.15306073,-0.98810899,-0.01459451,0
-2.7787814,1.8858687,1.1843054,-0.92355287,0.13777508,0.35786599,0
-3.3008568,-3.098043,-1.7229116,-0.84650064,0.13871706,-0.51399821,0
-1.3674114,4.054553,2.6390917,-0.60137993,0.081415996,0.79480422,0
1.9083102,-2.8312292,2.2404511,0.70362937,-0.11934017,0.7004739,0
-0.25457931,-4.0204487,0.79535508,-0.15306073,-0.98810899,-0.01459451,0
3.3701928,0.74529982,0.48456192,0.97767234,-0.15356271,0.14344078,0
2.6695981,3.6289301,0.38443542,0.15306073,0.98810899,0.01459451,0
-1.2056425,-2.2037261,3.1016188,-0.2618562,0.026312757,0.96474814,0
-0.32825661,-0.5377472,-3.2498076,-0.071377695,0.025784142,-0.99711609,0
-0.99441671,-3.8936648,-0.029365093,-0.15306073,-0.98810899,-0.01459451,0
-2.1609335,4.3926649,-0.66311836,0.15306073,0.98810899,0.01459451,0
-1.0857959,-3.8916626,0.79342979,-0.15306073,-0.98810899,-0.01459451,0
1.8224328,-3.434221,2.2239583,0.7058965,-0.11965682,0.6981349,0
0.91411352,2.5969284,3.2502408,0.15159273,-0.038070735,0.98770964,0
0.61188006,3.3141384,-3.1997173,0.031833887,0.0098307878,-0.99944484,0
0.93722385,3.899231,0.25230816,0.15306073,0.98810899,0.01459451,0
2.4453619,-2.4625356,1.6311038,0.84826601,-0.13894647,0.51101714,0
0.088099241,-1.8672907,-3.2556171,0.11560559,-0.0032365844,-0.99328995,0
0.45767307,4.0043721,-1.8368379,0.15306073,0.98810899,0.01459451,0
-1.7113004,-3.7741642,-0.60169166,-0.15306073,-0.98810899,-0.01459451,0
3.3204868,0.65176368,0.68024158,0.96695477,-0.15279827,0.20408624,0
-0.4177202,4.0842924,1.9328874,0.15306073,0.98810899,0.01459451,0
-1.1481998,-3.9000697,2.0171096,-0.15306073,-0.98810899,-0.01459451,0
2.9483895,2.9470134,-2.0720954,0.75022662,-0.10657406,-0.65253508,0
-1.6394625,-3.7545009,-2.6863992,-0.15306073,-0.98810899,-0.01459451,0
0.11913997,-4.0633574,-0.21896571,-0.15306073,-0.98810899,-0.01459451,0
3.4995024,3.494349,0.79247165,0.15306073,0.98810899,0.01459451,0
2.5867701,-2.6402395,1.3088381,0.89924812,-0.14538966,0.41257089,0
-0.75390822,4.1504364,0.98048609,0.15306073,0.98810899,0.01459451,0
0.35148221,-4.0872526,-1.0378177,-0.15306073,-0.98810899,-0.01459451,0
1.9517905,-4.3488092,-0.11268544,-0.15306073,-0.98810899,-0.01459451,0
0.034090042,-2.579776,-3.2590933,0.13253504,-0.0058904439,-0.99116087,0
0.56244373,-2.9920263,-3.1300535,0.31039238,-0.034048993,-0.94999862,0
2.2972479,-4.397047,-0.46980858,-0.15306073,-0.98810899,-0.01459451,0
0.66297293,-3.6148822,2.9666119,0.36539441,-0.070310131,0.92819369,0
0.67934299,1.0195946,3.2254612,0.15446711,-0.038509168,0.98724711,0
-1.7398267,-3.7615652,-1.1555396,-0.15306073,-0.98810899,-0.01459451,0
-0.36541831,4.059514,3.0620117,0.15306073,0.98810899,0.01459451,0
-1.7933105,4.3078909,1.2209854,0.15306073,0.98810899,0.01459451,0
-1.9758347,-3.719039,-1.5595659,-0.15306073,-0.98810899,-0.01459451,0
-1.7623165,-3.7586379,-1.1178358,-0.15306073,-0.98810899,-0.01459451,0
-0.90144444,-3.8690958,-2.6678281,-0.15306073,-0.98810899,-0.01459451,0
3.6061058,2.0826087,0.22178841,0.98650855,-0.15364745,0.056508422,0
-2.6825969,-2.5496824,2.2923901,-0.68900156,0.096117936,0.71835792,0
-3.3921473,-3.5352311,0.84952164,-0.15306073,-0.98810899,-0.01459451,0
-2.3428767,-3.6977792,0.85039186,-0.15306073,-0.98810899,-0.01459451,0
-2.6869731,2.9250243,1.0024803,-0.94419867,0.14186837,0.29725766,0
0.83285356,3.9202228,-0.074311614,0.15306073,0.98810899,0.01459451,0
0.13027561,-4.0293794,-2.6361802,-0.15306073,-0.98810899,-0.01459451,0
-0.95258653,4.203733,-0.54425192,0.15306073,0.98810899,0.01459451,0
-1.4983943,-3.8281279,0.81904095,-0.15306073,-0.98810899,-0.01459451,0
-2.5184581,2.8209257,1.4609149,-0.88903362,0.13123505,0.4386304,0
-2.8775699,2.286232,-0.57622385,-0.97065836,0.15309639,-0.18542856,0
-1.5395453,4.2565269,2.0371509,0.15306073,0.98810899,0.01459451,0
2.493804,2.0685313,-2.4040298,0.65473986,-0.090336889,-0.75043654,0
1.1585562,3.8397813,1.9560411,0.15306073,0.98810899,0.01459451,0
0.40152884,2.0414481,3.2795954,0.023398697,-0.018388133,0.99955714,0
-1.1304121,3.3766792,-2.7634978,-0.49490678,0.089428693,-0.86433202,0
-3.2266927,0.24665031,-0.39448047,-0.98077577,0.15370059,-0.1202293,0
2.7548914,-2.9302351,-0.74851894,0.96467519,-0.1461938,-0.21915591,0
-0.33009255,-4.02351,1.7945782,-0.15306073,-0.98810899,-0.01459451,0
3.2144608,1.0451487,-1.1872917,0.91807294,-0.13671613,-0.37208968,0
-1.5965984,-0.60493994,-2.9034042,-0.44960523,0.08278136,-0.8893832,0
-0.84328961,-3.8730021,-3.0132713,-0.15306073,-0.98810899,-0.01459451,0
-2.2215366,-3.695107,-0.60304844,-0.15306073,-0.98810899,-0.01459451,0
0.72705209,3.9186549,1.1414011,0.15306073,0.98810899,0.01459451,0
2.9854417,-0.30545899,1.2595389,0.91042578,-0.14674008,0.38677132,0
-0.053983212,-0.22396916,-3.2536411,-0.0035621524,0.015320115,-0.99987626,0
-0.048755884,-3.9934049,-3.1942592,-0.15306073,-0.98810899,-0.01459451,0
0.92538261,3.8583984,3.1410036,0.15306073,0.98810899,0.01459451,0
0.40426776,-4.0978155,-0.8763116,-0.15306073,-0.98810899,-0.01459451,0
1.6581359,-0.76936364,-2.7422187,0.53593057,-0.070590869,-0.84130573,0
-2.9617741,-3.58183,-0.50909162,-0.15306073,-0.98810899,-0.01459451,0
0.63988709,3.9955852,-3.1529298,0.15306073,0.98810899,0.01459451,0
2.5383062,0.44862229,-2.1352429,0.74331081,-0.10538378,-0.66059327,0
-1.1186569,2.3920336,2.9300323,-0.44946688,0.05645588,0.8915112,0
-0.53740656,4.1187525,0.85506266,0.15306073,0.98810899,0.01459451,0
-3.1149304,-2.0407567,-1.7432435,-0.83982009,0.13784577,-0.52507204,0
-3.0329535,-3.5731511,-0.35019171,-0.15306073,-0.98810899,-0.01459451,0
0.66179723,3.9639254,-1.2392206,0.15306073,0.98810899,0.01459451,0
-0.87790227,-0.9294126,-3.1837428,-0.21835625,0.048220102,-0.97467703,0
0.063450336,-4.0829825,1.6937877,-0.15306073,-0.98810899,-0.01459451,0
1.460499,-4.2999268,1.7302085,-0.15306073,-0.98810899,-0.01459451,0
3.0688179,3.5557246,1.1539145,0.15306073,0.98810899,0.01459451,0
2.2192988,-2.3615727,1.9801612,0.77539951,-0.12924093,0.61810398,0
0.99084592,-2.2531559,-2.9986529,0.40464622,-0.049193434,-0.91314918,0
0.93095779,-2.3423998,-3.019968,0.39081845,-0.046961084,-0.91926908,0
-0.22426912,4.0697365,0.88961673,0.15306073,0.98810899,0.01459451,0
-0.18609762,1.4046544,3.2456126,-0.12351662,0.0044761524,0.9923324,0
0.57104731,3.9398041,1.3456259,0.15306073,0.98810899,0.01459451,0
3.3255713,3.5237141,0.62844276,0.15306073,0.98810899,0.01459451,0
-2.8807769,2.3609509,0.54704285,-0.97587121,0.14880496,0.15978891,0
-2.0745745,-3.7320619,0.35768133,-0.15306073,-0.98810899,-0.01459451,0
-1.9873242,1.1600807,2.4572506,-0.65283281,0.09001641,0.75213456,0
-2.072787,0.61611396,-2.439662,-0.64983338,0.11176534,-0.75181448,0
-3.4749806,-1.3483753,0.3535707,-0.98167109,0.15033332,0.11713928,0
-1.8047493,-1.3183935,-2.8625133,-0.47897822,0.087096669,-0.87349522,0
-1.403126,4.2355614,2.025888,0.15306073,0.98810899,0.01459451,0
1.4671977,0.43660784,-2.9317601,0.42256653,-0.052092157,-0.90483361,0
-3.2906084,-3.5460267,0.51552975,-0.15306073,-0.98810899,-0.01459451,0
-2.3060222,4.4166441,-0.76495934,0.15306073,0.98810899,0.01459451,0
-0.24393618,4.0463648,2.6782391,0.15306073,0.98810899,0.01459451,0
-0.86832643,4.1454062,2.5210478,0.15306073,0.98810899,0.01459451,0
0.82125914,-1.8940804,-3.0834494,0.33703661,-0.03831343,-0.94071162,0
1.6166635,3.8003159,-0.17636937,0.15306073,0.98810899,0.01459451,0
-2.8792078,-3.6261764,1.6274126,-0.15306073,-0.98810899,-0.01459451,0
3.1566999,-0.79183728,-0.24997616,0.98555773,-0.15154958,-0.075555503,0
-2.4888699,-1.123459,2.287065,-0.69715631,0.097500756,0.71025819,0
1.1471207,-4.1738119,2.6667435,0.53708911,-0.095575303,0.8380934,0
-2.5263343,-2.2521536,2.3977463,-0.65596533,0.090542912,0.74934071,0
-1.6339477,4.269783,2.1296768,0.15306073,0.98810899,0.01459451,0
1.0621681,3.8503242,2.2531478,0.15306073,0.98810899,0.01459451,0
2.9004183,-1.8512124,-0.82182956,0.95824093,-0.14479183,-0.2465961,0
2.0227113,3.6987777,2.4397173,0.15306073,0.98810899,0.01459451,0
-3.1237874,-2.343241,1.7254829,-0.83078945,0.12066618,0.54334927,0
-1.435148,4.2585096,0.80806732,0.15306073,0.98810899,0.01459451,0
-0.7883656,4.1886206,-1.2433369,0.15306073,0.98810899,0.01459451,0
-0.61756945,0.79515123,-3.156738,-0.22040272,0.048530072,-0.9742009,0
1.6398534,3.8385856,-3.0106037,0.15306073,0.98810899,0.01459451,0
2.6360855,-3.8180935,0.57515836,0.969383,-0.15299682,0.19206399,0
-0.69267988,-3.9814911,2.7523646,-0.15306073,-0.98810899,-0.01459451,0
2.9116428,-2.3880181,0.1871233,0.98590088,-0.15369585,0.06615895,0
-2.1866057,-1.7050667,2.6076846,-0.57948571,0.077781416,0.81126225,0
2.5024555,3.6320057,1.9291006,0.15306073,0.98810899,0.01459451,0
0.66026783,3.9066849,2.6522667,0.15306073,0.98810899,0.01459451,0
-3.5132589,-3.4911132,-0.86729527,-0.15306073,-0.98810899,-0.01459451,0
2.8260243,-0.46046853,1.5375488,0.86954594,-0.14168262,0.47309196,0
0.99699628,-0.10877721,-3.0913858,0.30676812,-0.033469912,-0.9511956,0
-0.18784904,-2.1651125,3.2154245,0.042099059,-0.021274965,0.99888694,0
2.8823905,0.025371432,-1.5653402,0.86600691,-0.12700343,-0.48363435,0
1.9624975,-1.7501874,2.364852,0.66951925,-0.11455026,0.73390877,0
2.7486229,3.6069384,1.0445836,0.15306073,0.98810899,0.01459451,0
2.5155768,-1.2685096,1.8258655,0.81366599,-0.13439281,0.56558472,0
-1.7189429,4.3085222,0.39825034,0.15306073,0.98810899,0.01459451,0
-0.39231324,4.1342111,-1.7132173,0.15306073,0.98810899,0.01459451,0
0.6541301,-4.1536551,0.28382921,-0.15306073,-0.98810899,-0.01459451,0
-1.6513209,4.275454,1.9279363,0.15306073,0.98810899,0.01459451,0
-0.47134894,4.0984678,1.5356162,0.15306073,0.98810899,0.01459451,0
-0.89423734,-3.9233558,0.93021512,-0.15306073,-0.98810899,-0.01459451,0
-3.1356311,0.49599653,-0.69591832,-0.9648096,0.15261433,-0.21412879,0
-2.7027338,2.4974577,1.1439123,-0.92913473,0.1388641,0.34267402,0
-2.7298203,-3.6240249,-0.084949136,-0.15306073,-0.98810899,-0.01459451,0
-2.2616663,4.3991022,-0.042461872,0.15306073,0.98810899,0.01459451,0
-0.41384101,-0.69820714,-3.2472708,-0.089628994,0.028588407,-0.99556482,0
-0.85793412,-3.9324737,1.1667898,-0.15306073,-0.98810899,-0.01459451,0
3.0613608,-1.3601826,0.3143959,0.98297018,-0.15375128,0.10064787,0
0.16015434,3.4330773,3.2794034,-0.11389059,0.002967976,0.99348891,0
2.5583739,2.4585273,2.4769917,0.65263838,-0.11216301,0.7493214,0
1.2898743,3.8338537,0.9801982,0.15306073,0.98810899,0.01459451,0
-0.6036818,-1.2726254,-3.245121,-0.11994374,0.033234902,-0.99222434,0
2.2318864,3.6630526,2.6647382,0.15306073,0.98810899,0.01459451,0
1.1182976,1.2949845,3.1424167,0.27360755,-0.056564491,0.96017671,0
-0.91534019,-3.9450777,2.6221967,-0.15306073,-0.98810899,-0.01459451,0
1.2319437,3.8934159,-2.4448845,0.15306073,0.98810899,0.01459451,0
2.1662512,3.7258544,-0.89887649,0.15306073,0.98810899,0.01459451,0
1.1261325,-4.2155924,-0.472893,-0.15306073,-0.98810899,-0.01459451,0
-1.5009431,-3.8336666,1.2207317,-0.15306073,-0.98810899,-0.01459451,0
-2.6855149,-3.6020608,-2.0366631,-0.15306073,-0.98810899,-0.01459451,0
2.9532359,3.572093,1.2578803,0.15306073,0.98810899,0.01459451,0
2.5719934,1.0666338,-2.193985,0.72471392,-0.10219532,-0.68142927,0
0.66192532,3.4105201,3.2983346,0.037920177,-0.020630322,0.99906778,0
0.92885089,2.4763629,3.2431574,0.16163647,-0.039602112,0.98605543,0
2.3139877,-4.1440973,1.3702505,0.88722217,-0.14390719,0.43832344,0
3.2116137,-0.49701777,-0.031803131,0.9881888,-0.15292856,-0.009785533,0
-1.8128014,-3.7797132,0.83848512,-0.15306073,-0.98810899,-0.01459451,0
3.3065989,3.5218358,0.95458496,0.15306073,0.98810899,0.01459451,0
3.1594567,3.1501114,-1.8431854,0.80404007,-0.11593458,-0.58316261,0
2.0774777,-1.2448403,-2.364944,0.68380332,-0.095237888,-0.72342432,0
2.29878,-4.3966298,-0.51412702,-0.15306073,-0.98810899,-0.01459451,0
-2.5142443,1.0622765,-1.8758903,-0.80363405,0.13305263,-0.58005947,0
-1.4867334,4.2585993,1.3429731,0.15306073,0.98810899,0.01459451,0
-0.44560385,-0.95116484,-3.2516665,-0.087398827,0.028246015,-0.9957729,0
0.092363596,-4.1010056,2.6107967,-0.15306073,-0.98810899,-0.01459451,0
0.10552044,-4.0510197,-0.91141695,-0.15306073,-0.98810899,-0.01459451,0
0.75439882,-4.1998405,2.3591881,-0.15306073,-0.98810899,-0.01459451,0
-0.62538356,-3.9423819,-0.60127318,-0.15306073,-0.98810899,-0.01459451,0
-1.4466258,4.2676134,0.3120842,0.15306073,0.98810899,0.01459451,0
1.6374747,-0.44993684,-2.7809608,0.51488417,-0.067133971,-0.85462701,0
-1.794263,-3.743691,-1.7947379,-0.15306073,-0.98810899,-0.01459451,0
0.51676273,3.9484553,1.3292525,0.15306073,0.98810899,0.01459451,0
-0.02946496,0.44805419,3.2552741,-0.031941652,-0.0098140463,0.9994415,0
-0.1561501,4.1091557,-2.4936688,0.15306073,0.98810899,0.01459451,0
0.094916075,-4.0463386,-1.1171002,-0.15306073,-0.98810899,-0.01459451,0
0.18946004,-3.7029014,-3.2146368,0.23145592,-0.021487571,-0.97260809,0
3.1458442,3.5434403,1.1778021,0.15306073,0.98810899,0.01459451,0
2.7758033,-2.1339841,1.0428312,0.93267334,-0.14932358,0.32836384,0
0.99407911,3.9254978,-2.1223183,0.15306073,0.98810899,0.01459451,0
-1.2279253,4.2240572,0.96737003,0.15306073,0.98810899,0.01459451,0
0.24848306,-4.0573354,-1.9831227,-0.15306073,-0.98810899,-0.01459451,0
-0.32729292,-4.0421333,3.0260615,-0.15306073,-0.98810899,-0.01459451,0
2.5437961,3.6733265,-1.3020232,0.15306073,0.98810899,0.01459451,0
2.7923727,-2.4301023,-0.89866829,0.95276666,-0.14363375,-0.26759082,0
-0.32073116,-2.7983928,3.207355,0.031645834,-0.019661922,0.99930573,0
-1.1463487,4.2500391,-1.6472746,0.15306073,0.98810899,0.01459451,0
1.3642392,3.8708079,-2.3016744,0.15306073,0.98810899,0.01459451,0
2.2922845,-1.6470705,-2.0743871,0.76686752,-0.10944913,-0.63240415,0
3.373702,3.0305564,1.5763443,0.87163085,-0.14194749,0.46915966,0
-0.39891851,-3.9840908,-0.15246055,-0.15306073,-0.98810899,-0.01459451,0
1.9933295,3.4674463,2.9688196,0.43556297,-0.080711797,0.89653242,0
3.182235,3.5502234,0.33691525,0.15306073,0.98810899,0.01459451,0
-1.2156477,-3.8365893,-1.5734468,-0.15306073,-0.98810899,-0.01459451,0
0.52577996,-4.1561832,1.8010855,-0.15306073,-0.98810899,-0.01459451,0
-0.18656397,-2.2829995,-3.2794957,0.052435338,0.0066271275,-0.99860227,0
3.4473226,3.4948764,1.3040497,0.15306073,0.98810899,0.01459451,0
2.2087789,1.9104452,2.6764941,0.57295889,-0.10076641,0.81336594,0
1.702893,-1.2487506,2.6413922,0.56798744,-0.100049,0.81693351,0
-3.0025105,1.7050257,-0.35860729,-0.98130381,0.15371723,-0.1158191,0
-2.8278039,-3.6170025,0.46720099,-0.15306073,-0.98810899,-0.01459451,0
0.25349706,-4.0784683,-0.60498351,-0.15306073,-0.98810899,-0.01459451,0
-2.9136314,-3.2484136,-2.264576,-0.72277576,0.12200695,-0.68022758,0
-1.3031665,4.2522097,-0.14955854,0.15306073,0.98810899,0.01459451,0
0.50302571,3.9851799,-1.0131068,0.15306073,0.98810899,0.01459451,0
-0.076063395,3.4594793,-3.1438529,-0.18168384,0.042653982,-0.98243153,0
2.2783983,-1.6684451,2.04951,0.7608552,-0.12725706,0.63632143,0
-0.21276069,4.1032524,-1.5002451,0.15306073,0.98810899,0.01459451,0
1.6373308,1.3482318,2.9508295,0.42722231,-0.079480566,0.90064645,0
-0.23574376,-3.6600969,3.1805,0.097301662,-0.029765759,0.99480969,0
1.2823136,3.830781,1.26754,0.15306073,0.98810899,0.01459451,0
-0.74668694,-1.8225621,3.1898251,-0.14174581,0.0073361881,0.98987591,0
0.80952477,2.7887239,-3.1868243,0.11566454,-0.0032458082,-0.99328309,0
2.1919615,-4.405973,1.2387261,-0.15306073,-0.98810899,-0.01459451,0
0.71578264,3.9101377,1.8362317,0.15306073,0.98810899,0.01459451,0
-1.1423955,-2.5157409,-3.2029114,-0.22399831,0.049074516,-0.97335315,0
-1.9678886,4.3658457,-0.87192035,0.15306073,0.98810899,0.01459451,0
-0.85284996,-3.9286456,0.85427833,-0.15306073,-0.98810899,-0.01459451,0
-2.2661552,4.3793969,1.338686,0.15306073,0.98810899,0.01459451,0
1.9547471,-4.3388405,-0.81858921,-0.15306073,-0.98810899,-0.01459451,0
0.070379734,4.0621457,-1.6866038,0.15306073,0.98810899,0.01459451,0
-2.1522648,3.3517568,-1.8521917,-0.80142385,0.13275631,-0.58317697,0
0.69640118,-4.1495562,-0.43700612,-0.15306073,-0.98810899,-0.01459451,0
-2.8477995,-3.5964761,-0.71283638,-0.15306073,-0.98810899,-0.01459451,0
3.0623493,-0.79076022,0.80606079,0.95643091,-0.15183695,0.2493698,0
-1.2599944,-3.8352075,-1.2019062,-0.15306073,-0.98810899,-0.01459451,0
1.011515,0.85896873,-3.117599,0.26611412,-0.02698981,-0.96356362,0
0.24864483,-3.39113,3.1107042,0.23038393,-0.050040908,0.97181219,0
1.6993873,-4.2986031,-0.8647418,-0.15306073,-0.98810899,-0.01459451,0
-2.263411,4.3968568,0.12777853,0.15306073,0.98810899,0.01459451,0
-1.0486039,2.4851727,2.958802,-0.43277124,0.053745762,0.8999002,0
-2.1206543,4.3527985,1.6135741,0.15306073,0.98810899,0.01459451,0
0.58379531,3.9665897,-0.60154748,0.15306073,0.98810899,0.01459451,0
1.8291786,0.052887321,2.7114661,0.54531372,-0.09676858,0.83262759,0
-1.169378,4.2593222,-2.0342317,0.15306073,0.98810899,0.01459451,0
3.0002627,3.5596361,1.608075,0.15306073,0.98810899,0.01459451,0
-1.9302509,-2.1900301,-2.8805859,-0.47611487,0.086676821,-0.87510097,0
0.8500331,3.9367065,-1.3705261,0.15306073,0.98810899,0.01459451,0
2.3718977,3.6561756,1.6619588,0.15306073,0.98810899,0.01459451,0
-1.8653758,4.3118629,1.7078141,0.15306073,0.98810899,0.01459451,0
-0.70583963,-3.9698143,2.0998254,-0.15306073,-0.98810899,-0.01459451,0
2.5265458,-4.4433365,0.25941873,-0.15306073,-0.98810899,-0.01459451,0
-2.3010638,4.170517,-1.3875995,-0.88455623,0.14357492,-0.44378656,0
-2.0002422,4.3576927,0.019379854,0.15306073,0.98810899,0.01459451,0
-0.23971343,-0.77825248,-3.259973,-0.033572853,0.019959401,-0.99923694,0
3.6215785,3.0473821,-0.88367867,0.94702131,-0.14244448,-0.28785443,0
-2.4429581,4.1635585,-1.0639045,-0.92709178,0.14869113,-0.34408092,0
-2.3342898,2.5749197,1.8397197,-0.82250631,0.11919436,0.556126,0
1.070194,3.9253695,-2.9119058,0.15306073,0.98810899,0.01459451,0
1.424762,3.5773454,-3.079602,0.26376081,-0.026615564,-0.96422088,0
-3.3225541,-2.712049,-1.5749987,-0.87108439,0.14187814,-0.47019404,0
-1.5408037,-2.8823466,3.0201128,-0.33093071,0.037335049,0.94291615,0
-2.8347645,-3.6013722,-0.5180279,-0.15306073,-0.98810899,-0.01459451,0
2.0115132,3.714766,1.4746788,0.15306073,0.98810899,0.01459451,0
0.74051428,3.8901639,2.9291759,0.15306073,0.98810899,0.01459451,0
1.546584,2.2105477,-2.9892941,0.36390901,-0.042627465,-0.93045861,0
2.975862,1.718786,-1.8106333,0.81545818,-0.11794685,-0.56667137,0
2.6554403,-4.0633364,-0.2108922,0.9871515,-0.15219353,-0.048671365,0
-1.3879027,4.296442,-2.2556362,0.15306073,0.98810899,0.01459451,0
-0.54221797,-3.919714,-3.0081642,-0.15306073,-0.98810899,-0.01459451,0
-2.8499429,2.7951958,0.2274704,-0.98659408,0.15194678,0.059531987,0
3.1264842,3.5621705,0.11274576,0.15306073,0.98810899,0.01459451,0
1.809778,2.2110713,2.9448619,0.43889129,-0.081202701,0.89486331,0
3.2041793,3.5645585,-0.8637923,0.15306073,0.98810899,0.01459451,0
-0.84424376,-3.8706803,-3.1604147,-0.15306073,-0.98810899,-0.01459451,0
-0.22155738,-3.9994888,-0.97003818,-0.15306073,-0.98810899,-0.01459451,0
-0.63432115,4.1471519,-0.051260948,0.15306073,0.98810899,0.01459451,0
2.5881758,3.6312861,1.0788573,0.15306073,0.98810899,0.01459451,0
-1.4871011,1.8360792,-2.7153373,-0.53042626,0.094607361,-0.84243518,0
2.2828002,3.7235775,-1.9670271,0.15306073,0.98810899,0.01459451,0
2.461668,2.1342812,2.5119255,0.63864493,-0.11017635,0.7615732,0
-2.3294194,-3.6969342,0.65208399,-0.15306073,-0.98810899,-0.01459451,0
-3.3856149,-1.3538022,-0.87125707,-0.95372355,0.15156996,-0.2596879,0
3.7451108,3.2227468,0.57790208,0.97497559,-0.15340291,0.16090387,0
-3.6245956,-3.1144743,-1.0126622,-0.94350237,0.15051135,-0.2952112,0
-1.4422047,-3.8274198,0.1817891,-0.15306073,-0.98810899,-0.01459451,0
-2.1517344,-3.675612,-2.6549983,-0.15306073,-0.98810899,-0.01459451,0
3.4619486,2.3078446,-1.0317876,0.93357182,-0.13973826,-0.33002543,0
2.2950554,2.5558078,2.6956189,0.56883818,-0.10017181,0.81632626,0
-1.0945191,4.2408924,-1.5715752,0.15306073,0.98810899,0.01459451,0
-1.1529257,3.4178414,-2.7461524,-0.50359923,0.090698838,-0.85916322,0
-2.3702903,4.4209533,-0.38269901,0.15306073,0.98810899,0.01459451,0
-1.095932,-3.9073162,1.959543,-0.15306073,-0.98810899,-0.01459451,0
-2.2173896,-0.17361778,-2.4318993,-0.6565389,0.11271555,-0.74582291,0
0.73778915,-3.6481609,-3.0353703,0.39354941,-0.047401667,-0.91808057,0
2.0941339,3.7103229,0.90904367,0.15306073,0.98810899,0.01459451,0
-2.3686841,1.6549706,-1.9394646,-0.78743321,0.13087225,-0.6023466,0
0.048833489,-4.0613775,0.38435274,-0.15306073,-0.98810899,-0.01459451,0
-3.0644529,1.3981202,0.23611546,-0.98604316,0.15172841,0.06853801,0
2.3856335,-3.0563445,-1.6450909,0.8602038,-0.12594917,-0.49415207,0
-0.9307934,1.2206674,3.0716279,-0.33860409,0.038564701,0.94013834,0
3.0284476,3.6011553,-1.4985135,0.15306073,0.98810899,0.01459451,0
-0.10455847,-4.0716791,2.6905317,-0.15306073,-0.98810899,-0.01459451,0
1.7164218,-2.8736198,-2.4872978,0.65119225,-0.089740805,-0.75358826,0
-1.8683515,2.6812942,2.3734381,-0.68781638,0.09591718,0.71951967,0
-0.31550908,4.1189508,-1.4855515,0.15306073,0.98810899,0.01459451,0
-3.635525,-3.3909979,0.99925923,-0.93530124,0.1400812,0.32494432,0
-0.85763121,-3.8760128,-2.6590021,-0.15306073,-0.98810899,-0.01459451,0
3.3503821,3.49014,1.7470307,0.84311897,-0.13827659,0.51964396,0
1.592198,3.7934084,0.54788589,0.15306073,0.98810899,0.01459451,0
2.799212,-1.9246385,1.0712056,0.92994571,-0.14901602,0.33614755,0
1.0368278,3.9108262,-1.5773354,0.15306073,0.98810899,0.01459451,0
0.12584639,1.3373057,-3.2297819,-0.022197485,0.01820251,-0.99958777,0
0.17277133,3.9888105,2.2046635,0.15306073,0.98810899,0.01459451,0
1.3892608,-4.2472758,-1.0873487,-0.15306073,-0.98810899,-0.01459451,0
2.7728384,3.6340322,-1.0437272,0.15306073,0.98810899,0.01459451,0
-0.41950846,0.48011726,3.2194748,-0.15061092,0.00872894,0.98855454,0
2.920274,3.6189122,-1.5663122,0.15306073,0.98810899,0.01459451,0
-2.4657125,1.1379372,-1.9247574,-0.79253846,0.13156137,-0.59546143,0
-3.3898497,-1.0367407,-0.63803196,-0.96991104,0.15303847,-0.18934536,0
-2.4074161,-2.1267123,-2.5553837,-0.62266552,0.10789961,-0.77501309,0
-0.7196331,-3.9327674,-0.2637777,-0.15306073,-0.98810899,-0.01459451,0
2.3810134,3.7136588,-2.3254905,0.15306073,0.98810899,0.01459451,0
2.8274379,-2.0670066,0.9184804,0.94515729,-0.15068746,0.28977752,0
-2.4228504,4.4160995,0.49712706,0.15306073,0.98810899,0.01459451,0
3.3959446,2.3206635,-1.2074373,0.91326284,-0.13579407,-0.38407153,0
-2.2811561,4.380106,1.4479947,0.15306073,0.98810899,0.01459451,0
2.9683414,-1.7108719,-0.61212993,0.97197562,-0.14786232,-0.18275636,0
-1.7307906,-3.7731867,-0.46345019,-0.15306073,-0.98810899,-0.01459451,0
3.0650263,-0.60238242,-0.90811014,0.94964731,-0.14298509,-0.27879268,0
-1.0066957,4.2225046,-1.2476817,0.15306073,0.98810899,0.01459451,0
-1.2113204,-3.880168,1.3316176,-0.15306073,-0.98810899,-0.01459451,0
0.34785771,-3.6721027,3.069344,0.27329934,-0.056518096,0.96026719,0
2.0332785,3.7037454,1.9925746,0.15306073,0.98810899,0.01459451,0
0.84684491,-3.5440743,2.8938406,0.41739976,-0.078028753,0.90536672,0
-1.3531616,4.2671709,-0.63819849,0.15306073,0.98810899,0.01459451,0
-1.8138478,-3.7746286,0.50520414,-0.15306073,-0.98810899,-0.01459451,0
0.61416018,3.9620883,-0.61525196,0.15306073,0.98810899,0.01459451,0
-3.1880918,-3.5314713,-1.545063,-0.15306073,-0.98810899,-0.01459451,0
3.5554883,2.7073083,-0.93174219,0.94302106,-0.1416294,-0.30108559,0
-3.7206445,-2.9348722,0.33088374,-0.98164493,0.15032586,0.11736864,0
-1.8768883,2.7584896,2.3548152,-0.69396114,0.096958615,0.71345425,0
2.9921937,3.5854955,-0.058104277,0.15306073,0.98810899,0.01459451,0
2.8924546,-0.75180739,-1.3164276,0.90502644,-0.13422948,-0.40362054,0
-1.3156766,-2.0565956,3.0647535,-0.30174118,0.032667071,0.95283008,0
-2.7933869,-0.50376093,-1.8473146,-0.81465483,0.13452448,-0.5641281,0
1.6806295,3.8267751,-2.6385984,0.15306073,0.98810899,0.01459451,0
-2.6556606,2.3948092,1.3002417,-0.91032064,0.13523321,0.3911882,0
-1.4759076,-3.827508,0.5412097,-0.15306073,-0.98810899,-0.01459451,0
-0.96596026,1.4542091,-3.0108192,-0.35585839,0.068889156,-0.9319973,0
-2.0177557,4.3520794,0.5831449,0.15306073,0.98810899,0.01459451,0
1.9520597,-4.3435154,-0.47396803,-0.15306073,-0.98810899,-0.01459451,0
0.479002,4.008111,-2.3136959,0.15306073,0.98810899,0.01459451,0
0.57123649,-4.1146107,-1.4903247,-0.15306073,-0.98810899,-0.01459451,0
1.0706593,3.8714814,0.73165435,0.15306073,0.98810899,0.01459451,0
-1.1467988,4.2645502,-2.6250207,0.15306073,0.98810899,0.01459451,0
1.5347962,-0.27985477,2.8510664,0.4722451,-0.086109161,0.87725121,0
1.9821312,-2.5548534,2.2129574,0.71296895,-0.12064312,0.69073904,0
-3.3095167,-0.46223021,0.55526924,-0.97332776,0.1481842,0.17514145,0
3.3292155,3.5513458,-1.2805771,0.15306073,0.98810899,0.01459451,0
-1.3821015,4.2276573,2.3405504,0.15306073,0.98810899,0.01459451,0
1.4806068,3.8494496,-2.0760388,0.15306073,0.98810899,0.01459451,0
-2.7359838,0.7232666,1.6297158,-0.85689664,0.12535028,0.50001544,0
-2.5795262,0.37089333,1.9419023,-0.79370028,0.11412102,0.59750831,0
2.8397961,-2.8983572,-0.03266573,0.98821199,-0.15308939,0.00085997581,0
2.3904655,1.8627806,2.5320711,0.62987018,-0.10892718,0.76902425,0
1.4191371,-4.2538543,-0.95528173,-0.15306073,-0.98810899,-0.01459451,0
-0.50731659,4.0194674,3.109323,-0.34162593,0.039049234,0.93902445,0
0.91901696,-4.2001314,0.65249884,-0.15306073,-0.98810899,-0.01459451,0
1.3159293,3.8395762,0.31949207,0.15306073,0.98810899,0.01459451,0
-1.2352359,3.3677442,-2.7018571,-0.52603132,0.093968235,-0.84525788,0
2.0987825,3.7235446,-0.034883261,0.15306073,0.98810899,0.01459451,0
-1.8005072,0.45884433,2.6752863,-0.56421477,0.075254485,0.8221913,0
-2.0787652,2.2942827,2.2141392,-0.73292291,0.10360061,0.67237705,0
-0.83798802,-3.9322813,0.94460195,-0.15306073,-0.98810899,-0.01459451,0
3.631341,2.2400868,-0.12793756,0.98700345,-0.15212448,-0.051792741,0
-0.22644436,-4.0230303,0.67504799,-0.15306073,-0.98810899,-0.01459451,0
-0.90553832,4.1534052,2.3697453,0.15306073,0.98810899,0.01459451,0
-0.94264895,-3.8868384,-1.0344498,-0.15306073,-0.98810899,-0.01459451,0
-2.9041932,2.1683416,0.58199215,-0.97396809,0.1483385,0.17141122,0
3.1597128,3.2591224,-1.8642969,0.79905879,-0.11505988,-0.59014082,0
-3.3184361,-3.3416986,-1.7592773,-0.84041911,0.13792409,-0.52409196,0
-2.4920599,-3.6289964,-2.2418873,-0.15306073,-0.98810899,-0.01459451,0
1.0608416,3.8377714,3.1169436,0.15306073,0.98810899,0.01459451,0
2.8068461,-2.9428205,0.37221789,0.98010206,-0.15367605,0.12563294,0
-0.89872605,4.1702805,1.1557646,0.15306073,0.98810899,0.01459451,0
2.437212,1.011349,2.3619609,0.68365562,-0.11654107,0.72043955,0
-0.8742491,-3.9362226,1.5917115,-0.15306073,-0.98810899,-0.01459451,0
1.3027532,2.457608,-3.0816238,0.27920806,-0.029073838,-0.95979035,0
-1.1919962,-3.8301001,-2.2608113,-0.15306073,-0.98810899,-0.01459451,0
-2.7938504,1.8345898,-1.1245496,-0.92410755,0.14834821,-0.35216171,0
-0.73626876,-3.9369028,0.19069722,-0.15306073,-0.98810899,-0.01459451,0
0.059828997,3.0051532,-3.1820428,-0.11968189,0.033194821,-0.99225724,0
0.28936243,-4.1314301,2.6046417,-0.15306073,-0.98810899,-0.01459451,0
-3.1184721,-2.3088984,-1.8065253,-0.82836288,0.13634095,-0.54334718,0
-2.178055,2.7650938,-1.947235,-0.78180724,0.13011077,-0.60979378,0
0.67681599,0.23892033,-3.1832862,0.19444191,-0.015633162,-0.98078942,0
2.2898233,-4.3819523,-1.4139357,-0.15306073,-0.98810899,-0.01459451,0
0.14912963,-2.3544922,3.1767991,0.15219522,-0.038162641,0.98761344,0
0.21888769,-4.0913081,0.62732196,-0.15306073,-0.98810899,-0.01459451,0
0.35022926,3.8771152,3.2976213,-0.077452183,-0.0027281716,0.99699235,0
2.6519983,-3.5594232,-0.78130889,0.96305937,-0.1458368,-0.22638041,0
2.0135407,3.7700431,-2.2890413,0.15306073,0.98810899,0.01459451,0
2.3771658,3.3070397,2.7302647,0.55852813,-0.09868212,0.82359451,0
2.0809419,3.7467356,-1.4178933,0.15306073,0.98810899,0.01459451,0
1.5117283,0.18066156,2.9067392,0.44384474,-0.081932887,0.89235008,0
0.50429869,-4.1017728,-1.6574755,-0.15306073,-0.98810899,-0.01459451,0
-0.56796885,4.0959611,2.7186129,0.15306073,0.98810899,0.01459451,0
1.2893444,-0.15571916,-2.9792352,0.39672136,-0.047913589,-0.91668779,0
1.725543,1.308558,2.9036245,0.45560759,-0.08366473,0.88624036,0
0.15707248,-4.0707359,-0.1171909,-0.15306073,-0.98810899,-0.01459451,0
-3.2692332,-3.5156837,-1.7629772,-0.15306073,-0.98810899,-0.01459451,0
-2.5556581,-0.53718877,-2.1567581,-0.74145299,0.12459154,-0.65933621,0
-3.0278287,1.0853884,-0.75780296,-0.95980197,0.1521595,-0.23585552,0
1.4521338,-4.2737536,0.045880795,-0.15306073,-0.98810899,-0.01459451,0
-3.3217068,-3.5306702,-0.19802499,-0.15306073,-0.98810899,-0.01459451,0
-1.1923337,3.6928318,-2.6924024,-0.52827448,0.094294496,-0.84382135,0
-3.6722808,-2.8270488,0.53974295,-0.97227353,0.14793278,0.18110776,0
1.1719139,3.8570499,0.64680189,0.15306073,0.98810899,0.01459451,0
-1.4078978,4.2488461,1.1765132,0.15306073,0.98810899,0.01459451,0
-2.8899362,2.3692603,0.4787662,-0.97896308,0.14959458,0.13875467,0
-1.761008,-3.8179493,2.8840909,-0.15306073,-0.98810899,-0.01459451,0
2.4161227,3.2359331,-2.5904987,0.57720023,-0.077402823,-0.81292593,0
1.6191405,-4.1923265,-2.4101443,0.68327445,-0.095148414,-0.7239356,0
-1.3805906,3.0403442,2.7270565,-0.55820382,0.074261598,0.82637388,0
-2.0397568,4.3516154,0.84525537,0.15306073,0.98810899,0.01459451,0
0.48838544,1.6156157,3.2662101,0.069323361,-0.025468174,0.99726915,0
2.9005792,-0.46981838,1.3886724,0.8924858,-0.1445595,0.42728376,0
2.0490384,3.7220187,0.59011602,0.15306073,0.98810899,0.01459451,0
1.1355684,0.67348874,-3.0741677,0.31199172,-0.034304615,-0.94946533,0
0.44256979,-4.085773,-2.0933266,-0.15306073,-0.98810899,-0.01459451,0
1.1806028,-4.2557602,1.6753784,-0.15306073,-0.98810899,-0.01459451,0
-2.8344676,1.7696105,1.0802639,-0.93480402,0.13998246,0.32641417,0
-0.62316942,-3.9066515,-3.0436149,-0.15306073,-0.98810899,-0.01459451,0
2.244184,-3.6929646,-1.7268759,0.84738219,-0.12363462,-0.51638925,0
-0.053282738,0.26656511,-3.245276,-0.026184797,0.01881855,-0.99948001,0
1.9941235,-2.0926571,2.2797294,0.69501793,-0.11813542,0.70922077,0
-1.7978954,4.3542085,-1.8668356,0.15306073,0.98810899,0.01459451,0
-0.47502708,2.7418237,-3.0878551,-0.26820791,0.05575126,-0.96174645,0
-2.4509876,1.021848,-1.9692607,-0.78268087,0.13022916,-0.60864675,0
-2.6343246,-3.6069369,-2.2433996,-0.15306073,-0.98810899,-0.01459451,0
2.6673388,3.6093006,1.7371391,0.15306073,0.98810899,0.01459451,0
-3.0016332,-2.2717655,1.8858145,-0.79752052,0.11479014,0.59227049,0
-0.096386909,-3.9850917,-3.2575419,-0.15306073,-0.98810899,-0.01459451,0
-0.67839706,-3.9741189,2.1034415,-0.15306073,-0.98810899,-0.01459451,0
2.0057328,-4.3484001,-0.7061317,-0.15306073,-0.98810899,-0.01459451,0
-3.4193251,-2.1379044,1.0793405,-0.92870498,0.13877988,0.34387064,0
1.6874074,-2.1006327,-2.5970299,0.60657787,-0.082280971,-0.79075474,0
-0.46532398,4.0919495,1.9138045,0.15306073,0.98810899,0.01459451,0
1.1078954,-4.1394796,2.6952956,0.52368522,-0.093626879,0.84675121,0
-3.769871,-3.1684718,-0.30350614,-0.98512995,0.15373237,-0.076716244,0
1.7751843,0.3695389,-2.7623401,0.51811612,-0.067664102,-0.85262966,0
2.6370969,3.6244645,1.0276279,0.15306073,0.98810899,0.01459451,0
-2.2110245,-3.6993394,-0.42674053,-0.15306073,-0.98810899,-0.01459451,0
2.9403172,2.3024693,-1.9713106,0.77772593,-0.11133406,-0.61866546,0
1.6460638,-4.2777939,-1.7144126,-0.15306073,-0.98810899,-0.01459451,0
-1.7235589,0.2264249,2.746011,-0.53032583,0.069669202,0.84492642,0
-0.61478895,4.1112642,2.1736138,0.15306073,0.98810899,0.01459451,0
-3.1374218,-3.5698543,0.52223384,-0.15306073,-0.98810899,-0.01459451,0
0.16213286,-4.0639729,-0.62816918,-0.15306073,-0.98810899,-0.01459451,0
1.8915899,-4.3150721,-1.7654625,-0.15306073,-0.98810899,-0.01459451,0
-1.6292877,-3.756423,-2.6629486,-0.15306073,-0.98810899,-0.01459451,0
1.5505829,1.9477179,-2.9753139,0.377332,-0.044787426,-0.92499447,0
-3.5448627,-1.6563072,0.022806406,-0.98811239,0.15281308,0.016801775,0
2.5885887,-3.6708984,0.86289454,0.94806343,-0.15099259,0.27995878,0
2.0670309,-4.1359415,-1.8998663,0.81488365,-0.11784533,-0.56751841,0
-0.74845958,4.1897726,-1.7398773,0.15306073,0.98810899,0.01459451,0
0.024805069,0.68650347,-3.2393897,-0.022266746,0.018213212,-0.99958611,0
-0.4692356,4.098629,1.50257,0.15306073,0.98810899,0.01459451,0
-3.3626895,-3.5079308,-1.3077826,-0.15306073,-0.98810899,-0.01459451,0
1.3943162,3.8711407,-2.6396179,0.15306073,0.98810899,0.01459451,0
0.31904125,-4.0584087,-2.6504655,-0.15306073,-0.98810899,-0.01459451,0
1.2452688,-1.8182731,-2.9022293,0.46079242,-0.058297664,-0.88559115,0
-1.6159708,-2.3125699,2.9662912,-0.37999514,0.045216374,0.9238826,0
2.211206,-1.1541176,-2.2445064,0.71968186,-0.10133549,-0.68686903,0
2.5813024,3.6461053,0.14763486,0.15306073,0.98810899,0.01459451,0
-2.8825536,2.376184,-0.46567559,-0.9764179,0.15349209,-0.15181667,0
3.5032883,3.5013967,0.2756176,0.15306073,0.98810899,0.01459451,0
3.2713611,3.5220723,1.3081228,0.15306073,0.98810899,0.01459451,0
2.7070489,2.4122982,2.3313782,0.69956422,-0.11877186,0.70462978,0
2.8498011,-2.7061734,-0.38848853,0.98251945,-0.15057816,-0.10946035,0
0.80108225,3.9347994,-0.72801918,0.15306073,0.98810899,0.01459451,0
-0.765172,-3.9585171,1.9571815,-0.15306073,-0.98810899,-0.01459451,0
1.4564301,3.8607683,-2.5887909,0.15306073,0.98810899,0.01459451,0
-1.7559438,-3.7310791,-3.0505087,-0.15306073,-0.98810899,-0.01459451,0
-2.4220715,3.2254882,-1.4510751,-0.8768959,0.14261357,-0.45903689,0
3.1060615,3.5909309,-1.6203003,0.15306073,0.98810899,0.01459451,0
0.87962532,-1.5728009,3.0341682,0.33541888,-0.065837756,0.93976569,0
-2.5263395,-3.6719255,1.0241017,-0.15306073,-0.98810899,-0.01459451,0
-3.0685208,-0.75649941,-1.4518721,-0.88583881,0.14373493,-0.44116879,0
2.9333415,3.6243949,-2.0744801,0.15306073,0.98810899,0.01459451,0
-3.1669071,-1.2028338,1.349324,-0.89655715,0.1326372,0.42260212,0
-1.6767991,0.52566057,2.7506866,-0.53020358,0.0696491,0.8450048,0
0.81968045,-2.5157776,2.9881444,0.36132008,-0.069703221,0.92983288,0
-0.36952066,-3.3601432,3.1976271,0.043133378,-0.021434482,0.99883932,0
-2.5131788,-3.6666508,0.52896357,-0.15306073,-0.98810899,-0.01459451,0
2.0768294,3.6941714,2.1840353,0.15306073,0.98810899,0.01459451,0
-1.7801349,-0.548051,-2.7971392,-0.50747532,0.091264628,-0.85681939,0
2.5432346,-0.67195821,-1.9325324,0.79679894,-0.11466369,-0.59326512,0
0.59372634,-4.1069598,-2.2441454,-0.15306073,-0.98810899,-0.01459451,0
-3.2388382,-3.5593538,0.8748945,-0.15306073,-0.98810899,-0.01459451,0
3.6480551,3.46772,1.0373895,0.15306073,0.98810899,0.01459451,0
1.7060943,-4.2870703,-1.715919,-0.15306073,-0.98810899,-0.01459451,0
1.2050226,3.8617406,-0.017956495,0.15306073,0.98810899,0.01459451,0
-3.7222269,-3.4766173,0.34284544,-0.15306073,-0.98810899,-0.01459451,0
-1.0620834,-3.8641844,-1.3155822,-0.15306073,-0.98810899,-0.01459451,0
-3.7762296,-3.1565075,-0.15154982,-0.98770165,0.15344101,-0.030019104,0
1.1732285,-4.2387695,0.60238743,-0.15306073,-0.98810899,-0.01459451,0
-3.3050079,-1.4515262,1.1108402,-0.92631739,0.13831303,0.35043651,0
-2.8591299,-3.6074805,0.15108776,-0.15306073,-0.98810899,-0.01459451,0
-2.2080612,-3.715374,0.62778026,-0.15306073,-0.98810899,-0.01459451,0
-1.4440982,-3.8330131,0.58033788,-0.15306073,-0.98810899,-0.01459451,0
1.2865238,-1.4164567,-2.9071193,0.45449349,-0.057272971,-0.88890696,0
-2.5512891,-3.1619577,-2.5838354,-0.61770153,0.10719065,-0.779073,0
-2.0814331,3.2480946,-1.9677455,-0.77523637,0.12921877,-0.61831295,0
-3.718015,-3.4782639,0.41016531,-0.15306073,-0.98810899,-0.01459451,0
0.1661818,1.9788306,-3.2184715,-0.039938867,0.020941757,-0.99898267,0
-3.6291833,-2.9210982,0.79101348,-0.95511955,0.14412817,0.25879294,0
-2.237206,-3.7236304,1.4924572,-0.15306073,-0.98810899,-0.01459451,0
1.9366163,-1.7658145,-2.4281023,0.66576409,-0.092192151,-0.74044502,0
1.8100916,-4.3125401,-1.0822421,-0.15306073,-0.98810899,-0.01459451,0
1.9621146,3.7812383,-2.5076692,0.15306073,0.98810899,0.01459451,0
-3.6801558,-2.875349,0.53691554,-0.97239006,0.14796045,0.18045771,0
-2.1692584,0.050622523,-2.4403157,-0.65250552,0.11214417,-0.74943995,0
1.8440351,-4.3203607,-0.90869951,-0.15306073,-0.98810899,-0.01459451,0
2.48437,1.1900067,-2.3005259,0.69271648,-0.09674754,-0.71469128,0
-2.6583915,-2.2356775,2.2733476,-0.69632757,0.097360097,0.71108997,0
3.6955316,3.1707516,-0.67758584,0.96336049,-0.14590307,-0.22505283,0
-0.44664168,-2.4196579,-3.28547,-0.019350111,0.017762437,-0.99965501,0
-2.3225751,-0.60223281,2.375778,-0.67150396,0.093159914,0.73512149,0
0.75495672,-0.70511341,-3.1446097,0.26182646,-0.026308034,-0.96475637,0
-1.3020084,-3.840251,-0.41978759,-0.15306073,-0.98810899,-0.01459451,0
0.64009678,3.9616244,-0.85584486,0.15306073,0.98810899,0.01459451,0
-0.58087993,4.1661806,-1.9000657,0.15306073,0.98810899,0.01459451,0
-3.206079,-3.5437355,-0.52608013,-0.15306073,-0.98810899,-0.01459451,0
2.1504552,3.6738267,2.7892916,0.15306073,0.98810899,0.01459451,0
3.1601591,2.243654,-1.6451225,0.84629762,-0.1234397,-0.51821142,0
-0.46632123,-3.1115906,3.2043858,0.0024752617,-0.015151829,0.99988204,0
-2.9523277,-0.34021163,1.5221766,-0.87234104,0.12815939,0.4718011,0
2.7609062,1.612556,2.1283545,0.75310332,-0.1261946,0.64568579,0
2.0685754,-4.3617983,-0.45806408,-0.15306073,-0.98810899,-0.01459451,0
1.3492116,-4.2275019,-2.0061452,-0.15306073,-0.98810899,-0.01459451,0
3.4535687,1.4106779,-0.55696201,0.97247756,-0.14798118,-0.17996961,0
-2.6370037,-3.6412544,0.10814965,-0.15306073,-0.98810899,-0.01459451,0
0.58828199,-2.7342124,-3.1308169,0.30615941,-0.033372659,-0.95139515,0
0.035549045,-4.0623183,0.58737427,-0.15306073,-0.98810899,-0.01459451,0
-2.9741683,0.47872168,-1.2196918,-0.91512883,0.14729898,-0.3752898,0
1.8095131,3.7254024,2.8730416,0.15306073,0.98810899,0.01459451,0
1.2494583,-3.8748779,2.6344388,0.5539512,-0.098019876,0.82675886,0
-1.8918402,-3.7103753,-3.0270636,-0.15306073,-0.98810899,-0.01459451,0
-2.4036503,-3.6868758,0.74959987,-0.15306073,-0.98810899,-0.01459451,0
2.9626229,-2.0645351,0.17849135,0.98617202,-0.15367693,0.062033236,0
2.6460819,3.6183152,1.349768,0.15306073,0.98810899,0.01459451,0
-1.6661701,-0.72996706,2.8508244,-0.46864712,0.059576675,0.88137418,0
0.16023088,-4.1001835,1.8433838,-0.15306073,-0.98810899,-0.01459451,0
-3.7388849,-3.4778242,0.59928107,-0.15306073,-0.98810899,-0.01459451,0
2.2110438,3.6883283,1.1720889,0.15306073,0.98810899,0.01459451,0
-2.9206531,-0.13131738,-1.5408373,-0.87043887,0.14179616,-0.4714126,0
3.0835111,3.5451193,1.7178428,0.15306073,0.98810899,0.01459451,0
2.5978112,3.3416417,-2.4635522,0.62678814,-0.085652165,-0.77446771,0
-3.7373796,-3.061069,0.35185575,-0.98081535,0.15009363,0.12439167,0
-2.8978989,-3.6139531,0.99587524,-0.15306073,-0.98810899,-0.01459451,0
2.1701999,-4.3870168,0.18349385,-0.15306073,-0.98810899,-0.01459451,0
2.1001906,3.7278972,-0.34435862,0.15306073,0.98810899,0.01459451,0
-2.9818418,-0.33479196,1.4647658,-0.88142222,0.12982701,0.45413625,0
0.32152021,4.0139284,-1.0559416,0.15306073,0.98810899,0.01459451,0
-1.5167735,-1.0022073,-2.976568,-0.40708154,0.076501563,-0.91018236,0
2.9239945,-1.8372971,-0.73323989,0.96461672,-0.14618081,-0.21942163,0
-1.088396,-3.8981681,1.2611411,-0.15306073,-0.98810899,-0.01459451,0
-0.081482828,4.0638885,-0.21196753,0.15306073,0.98810899,0.01459451,0
2.464664,0.54412925,-2.2294443,0.71680272,-0.10084407,-0.68994522,0
-1.1031373,-3.8557277,-1.4576267,-0.15306073,-0.98810899,-0.01459451,0
-0.85195398,-3.8868318,-1.9860979,-0.15306073,-0.98810899,-0.01459451,0
1.8536146,-4.3234215,-0.8018744,-0.15306073,-0.98810899,-0.01459451,0
3.1024928,1.7636216,-1.6246467,0.85129428,-0.12433879,-0.50974298,0
2.7760859,3.5857611,2.1903663,0.15306073,0.98810899,0.01459451,0
1.8005118,0.90459239,-2.7886181,0.50084561,-0.064834133,-0.86310494,0
2.2563603,-1.2742683,2.1508482,0.73582017,-0.12381391,0.66576177,0
-0.0015182123,-4.0383787,-0.64468157,-0.15306073,-0.98810899,-0.01459451,0
1.0506601,-4.1906986,2.7244349,0.50885057,-0.091465294,0.85598207,0
-3.1572728,0.17262915,0.80922651,-0.95729905,0.14459057,0.2503438,0
-3.1378195,-2.0623124,1.6383734,-0.84801906,0.12374914,0.51531512,0
0.36779618,4.0074873,-1.1051702,0.15306073,0.98810899,0.01459451,0
-2.5227914,1.4897201,-1.761445,-0.82617247,0.13605182,-0.54674393,0
1.5851123,2.322634,-2.9792767,0.37026322,-0.043649532,-0.92790079,0
1.5300963,2.8841128,3.1139574,0.32341486,-0.064042136,0.94408751,0
2.858619,-1.3562131,-1.182164,0.9228934,-0.13764714,-0.35961229,0
-0.75104058,4.1303434,2.3108251,0.15306073,0.98810899,0.01459451,0
1.812602,3.7828112,-1.0461465,0.15306073,0.98810899,0.01459451,0
-1.5638191,-3.7793307,-1.7986351,-0.15306073,-0.98810899,-0.01459451,0
1.7400465,-4.3423486,1.6705699,-0.15306073,-0.98810899,-0.01459451,0
0.91062689,-1.7819531,-3.0550542,0.35865274,-0.041782584,-0.93253541,0
0.70730752,3.9204669,1.225805,0.15306073,0.98810899,0.01459451,0
-1.7541957,4.330843,-0.74319935,0.15306073,0.98810899,0.01459451,0
2.8891952,-2.3417058,-0.51238918,0.97748125,-0.14921047,-0.14921987,0
-1.6418355,-3.8089447,1.0245605,-0.15306073,-0.98810899,-0.01459451,0
-1.6150826,4.2990389,-0.048923016,0.15306073,0.98810899,0.01459451,0
1.8464925,-0.24777827,-2.6630006,0.56820208,-0.075913653,-0.81937999,0
2.5755196,1.9430742,-2.3138571,0.68507022,-0.095452257,-0.72219652,0
1.568464,3.0793135,3.1140435,0.32586002,-0.064408123,0.94322151,0
1.8370168,-4.3199406,-0.86355257,-0.15306073,-0.98810899,-0.01459451,0
-2.1242838,2.0332518,2.2047291,-0.73444676,0.10386185,0.67067182,0
3.084125,-0.64342034,0.81224465,0.95611346,-0.15180598,0.25060338,0
2.7835679,1.0086496,-1.9342837,0.79080844,-0.11361519,-0.60142636,0
0.85005343,-4.1513433,-1.9274082,-0.15306073,-0.98810899,-0.01459451,0
1.2245493,-4.2384729,0.044079304,-0.15306073,-0.98810899,-0.01459451,0
2.698873,-3.0903449,-0.87655544,0.95538116,-0.14418343,-0.2577945,0
1.0306827,-4.0102739,-2.8661289,0.498294,-0.064416625,-0.86461186,0
1.8260732,1.4757679,2.8665109,0.47805929,-0.086961947,0.87401193,0
-0.87259674,0.18133038,-3.125411,-0.26849133,0.055793963,-0.96166486,0
2.3514109,3.7230828,-2.6530638,0.15306073,0.98810899,0.01459451,0
-1.424952,4.1535339,-2.4703369,-0.61976415,0.10748534,-0.77739251,0
-0.5869652,2.1526406,3.1501966,-0.27871317,0.028995011,0.95993662,0
2.489675,-3.7691152,-1.205354,0.92433357,-0.13792673,-0.35578591,0
-1.8531981,1.7517985,2.5022242,-0.6400969,0.087879382,0.76325172,0
-2.6415582,0.37895691,1.8550122,-0.81265545,0.11745191,0.57078552,0
-1.9183584,-3.7633324,0.83649015,-0.15306073,-0.98810899,-0.01459451,0
0.51301563,3.9964867,-1.883405,0.15306073,0.98810899,0.01459451,0
-3.138391,-1.6887424,1.5437409,-0.86551023,0.12691303,0.48454642,0
-2.3335018,-0.4625023,2.3476832,-0.6812703,0.094809443,0.72586632,0
3.3170199,3.5210047,0.90155983,0.15306073,0.98810899,0.01459451,0
-3.3452816,-3.5474801,1.1873296,-0.15306073,-0.98810899,-0.01459451,0
3.2542844,1.9755948,-1.404507,0.8868897,-0.13083741,-0.44306684,0
-3.5429351,-2.2426903,0.72814441,-0.9607302,0.14532827,0.23638326,0
-1.0046756,4.2310343,-1.8463957,0.15306073,0.98810899,0.01459451,0
-0.00063186884,4.050683,-0.16578901,0.15306073,0.98810899,0.01459451,0
-0.98717022,2.6888964,-2.9028375,-0.41976279,0.078378208,-0.90424329,0
-0.1827724,1.0259844,-3.2183642,-0.10045278,0.030249059,-0.99448186,0
0.58212876,-1.7816002,3.1133583,0.25568813,-0.053863786,0.96525753,0
-1.4349475,1.3318603,-2.8006575,-0.49123251,0.088891283,-0.86648071,0
-2.9346604,-1.1642764,-1.7994999,-0.82640088,0.13608198,-0.54639107,0
0.3371141,4.0003653,-0.3011564,0.15306073,0.98810899,0.01459451,0
-1.2722714,-3.8921969,2.7852578,-0.15306073,-0.98810899,-0.01459451,0
-0.8572557,-2.1639919,-3.2422633,-0.15466034,0.038538631,-0.98721576,0
-1.5045669,-3.0437443,-3.1330833,-0.30830199,0.061777819,-0.94928044,0
2.0031657,-4.3789382,1.3883417,-0.15306073,-0.98810899,-0.01459451,0
1.7976172,3.3113878,3.043885,0.38396525,-0.073072448,0.92045152,0
-3.1908998,-3.5290017,-1.6828423,-0.15306073,-0.98810899,-0.01459451,0
-2.4642551,-3.1833718,2.5504196,-0.5940817,0.080202878,0.80039644,0
-2.9341326,1.6385138,-0.78154635,-0.95737141,0.1519281,-0.24567837,0
-1.9409207,-3.7678456,1.3786995,-0.15306073,-0.98810899,-0.01459451,0
0.30930698,-4.0565739,-2.6726055,-0.15306073,-0.98810899,-0.01459451,0
1.7180948,-4.3091164,-0.34916043,-0.15306073,-0.98810899,-0.01459451,0
-2.7787588,1.9535187,-1.1140146,-0.92511451,0.14846426,-0.34945899,0
0.041293859,4.0503988,-0.58626705,0.15306073,0.98810899,0.01459451,0
-1.9195366,-1.2768852,-2.792038,-0.51544988,0.092427567,-0.85192049,0
2.0502527,-4.3887682,1.5600693,-0.15306073,-0.98810899,-0.01459451,0
1.4611497,-4.2875977,0.88865745,-0.15306073,-0.98810899,-0.01459451,0
1.215942,3.5566576,-3.1291857,0.20201045,-0.016828459,-0.97923875,0
-2.5228448,4.1707287,0.92402267,-0.9527964,0.14363998,0.2674818,0
-3.5797291,-3.477756,-1.0744851,-0.15306073,-0.98810899,-0.01459451,0
-1.5194893,-3.4017692,3.046325,-0.30037242,0.032448553,0.95326996,0
-3.4923239,-3.4865103,-1.3984506,-0.15306073,-0.98810899,-0.01459451,0
3.4456365,1.0933149,0.30637765,0.98426938,-0.1537514,0.087030351,0
-2.4889488,3.5937741,-1.1802201,-0.91431594,0.14720282,-0.37730289,0
-3.5428655,-3.516736,1.1780289,-0.15306073,-0.98810899,-0.01459451,0
1.6040769,-0.73442549,-2.7787068,0.51808602,-0.067659169,-0.85264826,0
1.7265538,-4.3056297,-0.67391968,-0.15306073,-0.98810899,-0.01459451,0
0.99937022,0.20949872,-3.1014366,0.29267716,-0.031220615,-0.95570147,0
-0.66989958,-3.9643242,1.3511698,-0.15306073,-0.98810899,-0.01459451,0
1.2567,-0.23879458,2.9876711,0.38667709,-0.073475264,0.91928351,0
3.3145423,0.1798979,0.12572384,0.98750824,-0.15349348,0.035599649,0
3.445961,2.2622354,-1.0573772,0.93090779,-0.13921246,-0.33768404,0
-1.5108054,-2.2695277,-3.0778375,-0.34624338,0.067454696,-0.93571651,0
-1.1301842,1.5055594,-2.9386904,-0.40764439,0.076584905,-0.90992355,0
0.91056913,-4.1505623,-2.6149297,-0.15306073,-0.98810899,-0.01459451,0
-2.4802458,3.072454,-1.3855579,-0.88729984,0.14391685,-0.4381631,0
2.2249484,-4.0832171,1.5552239,0.85750687,-0.14014159,0.49501747,0
-3.4720714,-3.5154729,0.34998631,-0.15306073,-0.98810899,-0.01459451,0
-2.7038069,3.5315008,0.53702354,-0.97715998,0.14912862,0.15139121,0
2.5761852,-3.8883719,-0.8848927,0.9556579,-0.14424197,-0.25673383,0
-1.1932853,4.2155914,1.1772764,0.15306073,0.98810899,0.01459451,0
0.62393862,3.9321065,1.3120769,0.15306073,0.98810899,0.01459451,0
-3.2113566,-0.3854264,-0.94145393,-0.94637752,0.15081623,-0.28569895,0
-0.87552309,4.2032576,-1.3202777,0.15306073,0.98810899,0.01459451,0
2.5965619,3.6777749,-2.1565688,0.15306073,0.98810899,0.01459451,0
1.2407,-4.2401638,-0.010838032,-0.15306073,-0.98810899,-0.01459451,0
-2.6279833,2.8973215,1.183959,-0.92530876,0.13811648,0.35316777,0
2.9496326,-1.1696168,-1.0054822,0.94143689,-0.1413092,-0.30615079,0
-0.16414714,4.0933533,-1.3398869,0.15306073,0.98810899,0.01459451,0
-3.4940734,-2.9932685,1.211815,-0.91145194,0.13544859,0.38847023,0
2.1996636,-0.55081469,2.334671,0.68499106,-0.11672874,0.71913958,0
-0.76522946,3.6469555,3.0235252,-0.40173057,0.048722409,0.9144609,0
1.7782446,3.798291,-1.7338669,0.15306073,0.98810899,0.01459451,0
3.0053568,3.1578927,2.145246,0.75463206,-0.12640442,0.64385718,0
-0.51958561,4.149261,-1.3974049,0.15306073,0.98810899,0.01459451,0
2.1600988,-4.3613648,-1.4472953,-0.15306073,-0.98810899,-0.01459451,0
-2.1922431,-0.66298854,-2.5244331,-0.62614584,0.1083962,-0.77213442,0
0.24933648,-4.0506577,-2.4441721,-0.15306073,-0.98810899,-0.01459451,0
1.1342049,3.866354,0.41236815,0.15306073,0.98810899,0.01459451,0
