-2.9295757,0.13711691,1.433388,-0.85247922,0.03966926,0.52125394,0
3.1831613,0.75009632,3.9407866,0.52056831,-0.026816726,0.85339892,0
0.7027998,1.6986179,-4.2690978,0.74849731,0.49523306,-0.44101715,0
2.5182149,-2.9612243,1.2934644,0.37533468,-0.89056593,-0.25693649,0
1.4551406,2.4465754,5.0481777,0.52056831,-0.026816726,0.85339892,0
-0.78055799,-3.0086656,1.1573393,-0.34621078,-0.92028075,0.18226826,0
3.0020611,2.940773,2.7363467,0.31198549,0.93636578,-0.16088557,0
1.0945245,3.1696825,2.3422508,-0.061041299,0.99578029,0.068525434,0
-0.5905242,-1.1950514,4.9110856,-0.80890512,-0.33539808,0.4828881,0
-1.6365691,-3.0966587,-3.731252,0.12963556,-0.98543674,-0.11004257,0
-0.34340191,0.064805508,-5.6474166,-0.52056831,0.026816726,-0.85339892,0
-3.4373407,3.0095458,-3.6675985,-0.52056831,0.026816726,-0.85339892,0
4.2552962,1.5916321,1.6429455,0.73676443,0.51922792,-0.43310612,0
-3.3377018,1.2037735,-3.7851205,-0.52056831,0.026816726,-0.85339892,0
-2.0027268,3.3366263,-2.8508453,-0.045209743,0.99723876,0.058914304,0
3.532083,1.0851598,3.7384753,0.52056831,-0.026816726,0.85339892,0
-1.9820932,3.3440657,-4.0650892,0.12542924,0.99106473,-0.045368552,0
-3.1856003,-0.96303844,-3.9459901,-0.52056831,0.026816726,-0.85339892,0
-1.9723129,3.3008804,-2.3610249,-0.10549612,0.98982775,0.095455706,0
-0.0033063889,0.71738505,5.8834853,0.52056831,-0.026816726,0.85339892,0
2.6091766,-2.0721717,-0.5685122,0.65407628,-0.62992877,-0.41877714,0
-1.2604709,-2.6620123,1.5660138,-0.50823402,-0.81287849,0.28447658,0
-0.047958732,2.6710939,3.2649975,-0.4455868,0.844069,0.29832882,0
-0.49329805,-2.7176108,-3.9325805,0.41523144,-0.86539733,-0.28048241,0
0.72033405,-0.21199703,5.4128647,0.52056831,-0.026816726,0.85339892,0
2.5506535,-2.4216027,4.2269478,0.52056831,-0.026816726,0.85339892,0
0.77939391,0.36948538,5.3951106,0.52056831,-0.026816726,0.85339892,0
-3.6040418,1.4121714,-3.616107,-0.52056831,0.026816726,-0.85339892,0
-3.1409791,3.0011911,-3.84864,-0.52056831,0.026816726,-0.85339892,0
-1.351495,1.6091924,-4.9839554,-0.52056831,0.026816726,-0.85339892,0
-2.191479,1.6230474,-4.4711347,-0.52056831,0.026816726,-0.85339892,0
-0.31928754,1.6582696,4.7215567,-0.70990056,0.54174602,0.45005858,0
4.994154,-0.22156,1.9496731,0.85278201,-0.032942608,-0.52122724,0
-2.0089004,-1.1893702,-4.6708822,-0.52056831,0.026816726,-0.85339892,0
4.9335189,-1.8162031,2.7496769,0.72297645,-0.51787633,-0.45728481,0
4.7455988,1.2183533,3.0024233,0.52056831,-0.026816726,0.85339892,0
4.6454744,-2.0213933,2.5487342,0.68495113,-0.58361864,-0.43615538,0
4.5689487,-1.1456671,3.0358934,0.52056831,-0.026816726,0.85339892,0
-0.21019459,1.7195883,-5.6766739,-0.52056831,0.026816726,-0.85339892,0
2.1401794,0.34848785,4.5643792,0.52056831,-0.026816726,0.85339892,0
-4.2382565,1.6407914,-3.2220557,-0.52056831,0.026816726,-0.85339892,0
3.5817409,2.736675,3.7600803,0.52056831,-0.026816726,0.85339892,0
2.5229211,-0.63773078,-1.9798061,0.83380377,-0.19918796,-0.51487452,0
1.3482815,1.0971339,5.0709577,0.52056831,-0.026816726,0.85339892,0
-2.8372514,-2.643239,-4.2112784,-0.52056831,0.026816726,-0.85339892,0
1.8348682,1.0790262,-2.9062321,0.81347632,0.31918609,-0.48618591,0
-0.72077632,2.3557544,-5.3452311,-0.52056831,0.026816726,-0.85339892,0
4.8884482,1.7459857,2.9318657,0.52056831,-0.026816726,0.85339892,0
-1.3227761,-3.1561799,-2.7414029,0.064461455,-0.99541968,-0.07060051,0
0.084713101,-3.1754398,1.8070724,-0.24165183,-0.96326715,0.11713725,0
-4.3768425,-1.227982,-1.4742892,-0.78552055,-0.40675053,0.46638155,0
3.5465946,0.94608212,3.7252529,0.52056831,-0.026816726,0.85339892,0
-4.5992174,1.4777846,-3.006994,-0.52056831,0.026816726,-0.85339892,0
-3.4978421,-1.7898792,-0.60565752,-0.70950103,-0.56962532,0.41489196,0
1.3117287,-1.1634037,-3.6281004,0.78517324,-0.37762642,-0.49081728,0
2.4951577,1.6939952,4.3901253,0.52056831,-0.026816726,0.85339892,0
4.4639111,-2.455286,2.9560251,0.58668715,-0.71493977,-0.3803415,0
0.069067955,0.54490852,-5.8839345,-0.52056831,0.026816726,-0.85339892,0
4.2888465,-1.7423925,1.6475599,0.72933859,-0.50571162,-0.46078333,0
3.0635009,1.1483674,4.0262938,0.52056831,-0.026816726,0.85339892,0
2.0133026,-0.95142317,-2.6477351,0.80944496,-0.3025316,-0.50326318,0
2.685003,-0.76879001,-1.661994,0.82615465,-0.23655075,-0.51138276,0
-5.195034,0.2353301,-2.2792068,-0.85273731,0.033993199,0.52123296,0
1.0009532,-1.4808197,5.2018185,0.52056831,-0.026816726,0.85339892,0
0.63387537,0.75677299,5.4960461,0.52056831,-0.026816726,0.85339892,0
3.1764865,2.9743094,4.0147505,0.52056831,-0.026816726,0.85339892,0
-1.3176626,1.7035456,-5.0016284,-0.52056831,0.026816726,-0.85339892,0
3.5386524,-2.3083618,1.2598016,0.61163509,-0.68568337,-0.3946403,0
0.67402697,1.0750885,5.4815559,0.52056831,-0.026816726,0.85339892,0
-0.075688601,-1.583535,-5.4331942,0.7189002,-0.52547503,-0.45503706,0
2.784842,2.605396,4.2420588,0.52056831,-0.026816726,0.85339892,0
0.070218086,-1.3005786,5.7752247,0.52056831,-0.026816726,0.85339892,0
4.9363132,-1.0563507,2.81461,0.52056831,-0.026816726,0.85339892,0
-0.59477901,-2.9974151,1.5641744,-0.36010188,-0.91315877,0.19096559,0
3.5349433,1.7695169,3.758235,0.52056831,-0.026816726,0.85339892,0
-0.71486521,2.7031622,2.1781604,-0.44648004,0.84341133,0.29885292,0
-0.90648341,-1.0059407,-5.3375864,-0.52056831,0.026816726,-0.85339892,0
-1.7894728,3.3299541,-2.5784998,-0.034631051,0.99802107,0.052485764,0
3.2378559,1.808001,3.9406662,0.52056831,-0.026816726,0.85339892,0
1.9011724,-3.2627778,1.9313326,0.14843825,-0.98144352,-0.12138665,0
-0.86353707,-3.1510272,0.033348322,-0.21179348,-0.97232407,0.09863925,0
-0.1815145,0.26032591,-5.7400231,-0.52056831,0.026816726,-0.85339892,0
3.5493629,-2.3577456,3.6197469,0.52056831,-0.026816726,0.85339892,0
-2.8117323,1.5325971,-4.0956268,-0.52056831,0.026816726,-0.85339892,0
-3.5729172,0.02350378,-3.6787293,-0.52056831,0.026816726,-0.85339892,0
-2.899231,0.98182487,-4.0595598,-0.52056831,0.026816726,-0.85339892,0
-0.18705082,2.617487,-4.2559681,0.55104673,0.7740289,-0.3118127,0
1.8752148,-2.0927808,-1.681895,0.64154422,-0.6472581,-0.41167718,0
0.96989441,3.1697719,0.4123857,0.17480236,0.98168314,-0.07578069,0
3.4897237,-2.0081501,3.6671124,0.52056831,-0.026816726,0.85339892,0
1.6943886,-1.8663037,-2.2932553,0.68552446,-0.5827046,-0.43647641,0
1.2744383,1.8147078,5.1385498,0.52056831,-0.026816726,0.85339892,0
1.3923479,-2.1080852,4.9433584,0.52056831,-0.026816726,0.85339892,0
5.167161,0.98630285,2.7379808,0.52056831,-0.026816726,0.85339892,0
0.58988202,3.1630027,1.8988076,-0.11365099,0.98843628,0.10038626,0
1.0441124,2.2267208,-2.928339,0.64405334,0.66851664,-0.3718617,0
3.4943385,-2.044956,0.77600908,0.66895741,-0.60829103,-0.4271746,0
-3.0850267,2.8370342,-3.8879287,-0.52056831,0.026816726,-0.85339892,0
4.923336,0.1396718,1.8487836,0.85223949,0.077110961,-0.51743799,0
-2.9087334,-1.8419838,0.32995391,-0.70547342,-0.57652736,0.41221824,0
2.0732574,-2.9490061,4.5015841,0.52056831,-0.026816726,0.85339892,0
0.9628613,-0.59090614,5.2530179,0.52056831,-0.026816726,0.85339892,0
-1.2287723,0.11003494,-5.1059246,-0.52056831,0.026816726,-0.85339892,0
3.3889685,-3.0174394,2.7606337,0.36986041,-0.8937788,-0.25369811,0
-0.71960163,-2.4062796,-5.0922022,0.52431875,-0.77880979,-0.34430414,0
-0.30635452,-0.78568411,5.6081495,-0.83868825,-0.20340043,0.50520343,0
-0.071387649,2.7763495,2.913671,-0.4023661,0.87385756,0.2729004,0
1.4109273,0.61277378,-3.8397512,0.84398496,0.16743241,-0.50956458,0
1.0519426,1.9084973,-3.4141531,0.71085042,0.56728482,-0.41578856,0
2.73717,0.7807765,4.2138028,0.52056831,-0.026816726,0.85339892,0
0.87966537,-2.3502016,5.2484846,0.52056831,-0.026816726,0.85339892,0
-3.0561328,0.8596611,-3.9676893,-0.52056831,0.026816726,-0.85339892,0
-0.62889099,0.77991152,4.9742589,-0.81766331,0.27212593,0.50732088,0
-2.1096251,-1.87051,1.657562,-0.7078225,-0.57251734,0.41377723,0
1.7748415,0.77531719,4.8006458,0.52056831,-0.026816726,0.85339892,0
4.4197168,-2.2453609,2.5235434,0.63679296,-0.65362918,-0.40897912,0
1.2290082,-1.9234607,-2.9445031,0.66991043,-0.60686362,-0.42771107,0
0.31364751,-2.3015726,-3.7320035,0.57060736,-0.73259914,-0.37108776,0
4.4748149,-1.3443699,3.0870707,0.52056831,-0.026816726,0.85339892,0
2.9099832,-3.223793,3.9825511,0.52056831,-0.026816726,0.85339892,0
1.0358599,-3.2826171,2.7423222,-0.15660223,-0.98554963,0.064557195,0
3.4490609,2.3465283,3.8287544,0.52056831,-0.026816726,0.85339892,0
2.5514131,-0.7688179,4.2784204,0.52056831,-0.026816726,0.85339892,0
2.4510951,-1.6081476,4.3132391,0.52056831,-0.026816726,0.85339892,0
-2.5566015,-0.18251991,-4.3051496,-0.52056831,0.026816726,-0.85339892,0
-0.87603402,-1.7043118,-5.3781056,-0.52056831,0.026816726,-0.85339892,0
-0.58535409,1.2567091,-5.4623733,-0.52056831,0.026816726,-0.85339892,0
0.23313093,-0.84979272,-5.5720119,0.8102988,-0.29952142,-0.50368941,0
-1.5626721,-1.7936864,2.6932008,-0.72636986,-0.53925431,0.42613623,0
-0.28021455,1.4989029,4.9640455,-0.73496717,0.49462074,0.46386823,0
1.823318,-1.2587781,4.7071576,0.52056831,-0.026816726,0.85339892,0
1.5107057,2.7537363,-0.83498979,0.46483243,0.84730345,-0.25691998,0
1.7004807,-3.3415639,3.1525049,-0.063843206,-0.99793118,0.0075857043,0
-0.73296249,-3.0884216,0.79402304,-0.28621429,-0.94715726,0.14482617,0
4.4404821,-1.1846628,1.4001983,0.79956025,-0.3353163,-0.49826378,0
3.015126,1.4233119,4.0644417,0.52056831,-0.026816726,0.85339892,0
1.6434579,-1.8978281,4.7967901,0.52056831,-0.026816726,0.85339892,0
5.0426579,-0.84009409,2.7565351,0.52056831,-0.026816726,0.85339892,0
4.4272718,-2.4053917,3.082731,0.52056831,-0.026816726,0.85339892,0
1.4361857,3.0918081,3.5320764,-0.14737855,0.98168206,0.12074769,0
1.7468996,-2.9977059,0.3087976,0.33676103,-0.91202962,-0.23408121,0
1.6756554,-3.2771397,1.7901766,0.11708574,-0.98782212,-0.10246211,0
0.63244843,-0.48436689,5.4579153,0.52056831,-0.026816726,0.85339892,0
3.4497671,-2.9670124,3.6613548,0.52056831,-0.026816726,0.85339892,0
-3.9278672,1.2953129,-3.4222469,-0.52056831,0.026816726,-0.85339892,0
-3.4391329,3.0652142,-3.6647556,-0.52056831,0.026816726,-0.85339892,0
1.0590358,3.0872278,3.0968993,-0.17251116,0.97558939,0.13588703,0
1.6963215,-2.9916282,4.7301731,0.52056831,-0.026816726,0.85339892,0
0.26446962,-0.053429127,5.6959224,0.52056831,-0.026816726,0.85339892,0
-2.585041,2.2593164,0.30337214,-0.6116159,0.68570697,0.39462927,0
-1.6858435,3.3408034,-2.9461269,0.038912758,0.99921334,0.0076619983,0
3.405632,-1.6161094,3.7307272,0.52056831,-0.026816726,0.85339892,0
-1.2998153,-2.1896176,-5.1348515,-0.52056831,0.026816726,-0.85339892,0
-0.80128503,2.619658,2.2733755,-0.47923878,0.81803554,0.31803823,0
2.5293345,2.8308041,1.3106922,0.40035272,0.89048421,-0.21623087,0
3.029355,-0.98306704,3.9801459,0.52056831,-0.026816726,0.85339892,0
-0.45262957,-1.6274045,4.7702827,-0.76058412,-0.46873322,0.44922274,0
1.8540635,-2.198456,-1.5416654,0.61717749,-0.67885357,-0.3978065,0
-1.8034656,-0.84687471,-4.7854338,-0.52056831,0.026816726,-0.85339892,0
-0.32370377,-1.0742977,5.4353375,-0.82019734,-0.29343203,0.49109495,0
1.3870085,1.0438533,5.04566,0.52056831,-0.026816726,0.85339892,0
-0.81094074,-0.77333546,-5.388557,-0.52056831,0.026816726,-0.85339892,0
-0.38350844,1.087013,5.1714849,-0.78826183,0.36899352,0.49243006,0
-5.140429,1.1706257,-2.5147927,-0.80426854,0.32014513,0.50065905,0
-3.1572769,-2.7868152,-4.0205765,-0.52056831,0.026816726,-0.85339892,0
-1.3353176,-3.1386485,-2.9733205,0.093425065,-0.99171621,-0.088151753,0
-0.27903378,3.2402358,-1.5517457,0.16344061,0.98415327,-0.068772554,0
5.0436382,-0.53878593,2.7654057,0.52056831,-0.026816726,0.85339892,0
-0.030107498,2.9552433,2.3191662,-0.31107351,0.92485321,0.21881491,0
-2.4551332,-0.028461307,2.2160425,-0.85375166,-0.0036921203,0.52066755,0
4.9903078,-1.011035,2.7830973,0.52056831,-0.026816726,0.85339892,0
-2.0419552,-2.9912691,-1.1684314,-0.31116378,-0.93672705,0.16037297,0
-0.36382484,-1.7770407,4.7545128,-0.73915154,-0.51447177,0.43471166,0
0.88165402,-2.4191351,5.2451048,0.52056831,-0.026816726,0.85339892,0
0.86932015,-3.0221891,4.1926508,-0.39108998,-0.89597839,0.21040809,0
-5.1507463,0.22571993,-2.2061424,-0.85283196,0.031743124,0.52121997,0
-0.84396744,-1.1718585,4.5026045,-0.80981886,-0.33223182,0.48354489,0
1.4727368,3.1574717,2.8486934,-0.045483965,0.99721652,0.05908072,0
-2.0832305,2.995739,-4.494031,-0.52056831,0.026816726,-0.85339892,0
-4.6982803,0.61787701,-2.9735863,-0.52056831,0.026816726,-0.85339892,0
1.3003545,-2.1938524,-2.4081924,0.6114428,-0.68591821,-0.3945303,0
-0.48622751,2.0280261,-5.4986029,-0.52056831,0.026816726,-0.85339892,0
1.8089211,-3.3447537,3.4952161,-0.086378813,-0.99603271,0.021391928,0
3.5441389,1.8735778,3.7558956,0.52056831,-0.026816726,0.85339892,0
-4.354476,-0.73009539,-3.2256632,-0.52056831,0.026816726,-0.85339892,0
1.924096,2.4832695,4.7632709,0.52056831,-0.026816726,0.85339892,0
2.8244326,1.0895599,-1.2422136,0.80803156,0.33839285,-0.48226106,0
0.20728755,-2.9722607,3.1736348,-0.40008384,-0.8906461,0.21606183,0
-3.1604097,-2.6615727,-4.01473,-0.52056831,0.026816726,-0.85339892,0
-1.9694619,2.8035421,-4.5694695,-0.52056831,0.026816726,-0.85339892,0
4.5558448,0.67864561,3.1012123,0.52056831,-0.026816726,0.85339892,0
1.6594461,1.0053265,4.878264,0.52056831,-0.026816726,0.85339892,0
0.87216592,0.11735201,5.3305974,0.52056831,-0.026816726,0.85339892,0
2.0994036,2.9685168,1.1507387,0.32637084,0.9298538,-0.16986519,0
0.50173521,0.54203892,5.5699029,0.52056831,-0.026816726,0.85339892,0
-3.881608,1.4879055,-3.4444129,-0.52056831,0.026816726,-0.85339892,0
1.4325521,-2.9940996,-0.15696359,0.32993144,-0.91555095,-0.23002589,0
-1.8126972,3.3469601,-3.3777053,0.069478393,0.99752247,-0.011036038,0
-5.3024979,-0.46554661,-2.6390624,-0.52056831,0.026816726,-0.85339892,0
-2.7223327,1.6367888,0.94759095,-0.73314589,0.49824435,0.46287116,0
1.237546,-2.3962414,-2.1226211,0.55744916,-0.74640596,-0.36349517,0
3.9308023,2.0543849,3.5257149,0.52056831,-0.026816726,0.85339892,0
3.5657682,0.70843506,3.7060895,0.52056831,-0.026816726,0.85339892,0
2.4345152,0.77394056,4.3982058,0.52056831,-0.026816726,0.85339892,0
3.9783854,-0.033085108,0.28131974,0.85379648,0.0088967979,-0.5205313,0
0.75701475,0.71269083,-4.8885984,0.84110498,0.18795961,-0.50716275,0
-0.60135722,1.9893193,-5.4295907,-0.52056831,0.026816726,-0.85339892,0
-2.5172362,-1.9262054,-4.383954,-0.52056831,0.026816726,-0.85339892,0
0.44423866,-1.3114452,5.5467339,0.52056831,-0.026816726,0.85339892,0
-5.3495765,-0.33908558,-2.6063709,-0.52056831,0.026816726,-0.85339892,0
1.3519433,-0.22096217,-3.9991012,0.84895498,-0.090292692,-0.52069485,0
0.60428667,2.9135618,3.3968945,-0.31626931,0.92235124,0.22190577,0
-3.9518571,-0.078343153,-0.24329948,-0.85352147,-0.042776108,0.51929891,0
1.4671428,3.1620524,1.5020494,0.13735777,0.98911834,-0.052706122,0
3.2993383,0.22800636,3.8535135,0.52056831,-0.026816726,0.85339892,0
-0.28686976,-1.9370854,-5.2948494,0.6511007,-0.63411444,-0.41709355,0
3.0397236,0.10387421,4.0079765,0.52056831,-0.026816726,0.85339892,0
-1.674992,-3.1519933,-1.8550733,-0.13568133,-0.98940408,0.051674485,0
0.82875323,0.43677759,5.367116,0.52056831,-0.026816726,0.85339892,0
-0.25950837,1.2849846,-5.6602492,-0.52056831,0.026816726,-0.85339892,0
2.1150534,-2.062304,-1.3549742,0.65078551,-0.63455504,-0.41691512,0
1.3427345,-3.0652657,0.019605875,0.28534296,-0.93657482,-0.20348781,0
-1.4111186,0.11051273,-4.994679,-0.52056831,0.026816726,-0.85339892,0
-0.02567482,2.2204294,-4.7895079,0.65847081,0.64888144,-0.38127339,0
2.3383605,-0.83684063,4.4062433,0.52056831,-0.026816726,0.85339892,0
-2.172688,-3.1289294,-2.7224491,-0.12865651,-0.99055803,0.047353089,0
-5.2620502,-0.27143717,-2.4330349,-0.84891927,-0.12319423,0.51396459,0
-2.1771226,2.9565823,-0.77952361,-0.36909625,0.89422292,0.25324595,0
-1.8798593,-0.0097365379,-4.7125282,-0.52056831,0.026816726,-0.85339892,0
-1.0135996,2.7222295,-5.1550951,-0.52056831,0.026816726,-0.85339892,0
4.8972383,-0.83336401,2.8454523,0.52056831,-0.026816726,0.85339892,0
-2.2354677,2.420634,0.54151464,-0.5650624,0.73848593,0.36789039,0
-1.6681761,2.3496053,1.5539902,-0.57651639,0.72621286,0.37449166,0
1.960855,-0.14289713,4.6583257,0.52056831,-0.026816726,0.85339892,0
-4.6276674,-1.6584663,-3.0881908,-0.52056831,0.026816726,-0.85339892,0
3.9057384,1.4467542,0.88772321,0.76096636,0.46786261,-0.44948322,0
-3.1143956,1.5021796,-3.9119596,-0.52056831,0.026816726,-0.85339892,0
-3.279923,2.4689572,-1.1597476,-0.56658643,0.73687792,0.36876953,0
-1.2921033,-2.8952198,-4.4522934,0.30632937,-0.92709768,-0.21599156,0
1.2621139,-3.0816555,4.6621213,-0.36741102,-0.90926957,0.19554639,0
4.8037271,-0.59633207,2.9099417,0.52056831,-0.026816726,0.85339892,0
-2.9109352,1.4343085,0.84855187,-0.76278311,0.43447995,0.47894597,0
4.3345284,-1.3455243,3.1726079,0.52056831,-0.026816726,0.85339892,0
-2.6554525,0.70957565,-4.2168179,-0.52056831,0.026816726,-0.85339892,0
-4.0620432,-2.1490879,-3.4486346,-0.52056831,0.026816726,-0.85339892,0
-2.0617163,2.9262395,-0.50566769,-0.38077384,0.88731742,0.26015228,0
3.4373903,1.5588951,0.21516991,0.748326,0.49559507,-0.44090125,0
4.09653,0.04140234,3.3613677,0.52056831,-0.026816726,0.85339892,0
-3.9164057,-1.7599475,-3.525245,-0.52056831,0.026816726,-0.85339892,0
-2.1203098,-0.27164021,2.7481906,-0.85243297,-0.073277205,0.51767641,0
-2.384181,3.2706757,-2.5920007,-0.16643938,0.9771452,0.13223213,0
-0.59758663,-1.6065772,4.5465045,-0.76242113,-0.46452785,0.45047545,0
-1.7230062,2.05968,-4.7431808,-0.52056831,0.026816726,-0.85339892,0
-0.58987522,2.1166675,3.642381,-0.62111145,0.67392862,0.40005139,0
-2.7527363,1.8206077,0.68711245,-0.70357072,0.55279851,0.44654474,0
-2.1601083,-1.3822402,2.1241295,-0.78082556,-0.4193199,0.46312258,0
-0.98251557,3.3046741,-1.9619596,0.061992601,0.99805588,-0.0064528584,0
1.8396719,1.6527692,-2.3909967,0.74658918,0.49924412,-0.43972719,0
-0.35192418,1.654604,-5.5922613,-0.52056831,0.026816726,-0.85339892,0
-4.5302658,-2.02985,-2.7558904,-0.64819348,-0.66298532,0.37456101,0
-5.2566271,-0.25166702,-2.4194617,-0.84947324,-0.11699657,0.51449728,0
-2.5618062,3.0762157,-4.1995745,-0.52056831,0.026816726,-0.85339892,0
-2.3253937,1.170969,-4.4036536,-0.52056831,0.026816726,-0.85339892,0
-1.0171833,0.18976617,4.5502543,-0.8493377,0.086019799,0.52079403,0
-1.9347908,0.30060756,3.0342708,-0.84746617,0.1054838,0.52026403,0
2.1673806,1.3023539,4.5777607,0.52056831,-0.026816726,0.85339892,0
0.84896481,3.2097569,0.97784519,0.070553988,0.99743944,-0.01169461,0
3.2032552,-1.0970207,-0.64395738,0.80183578,-0.32807741,-0.49942443,0
0.14851534,-3.2591765,0.2594893,-0.016156167,-0.99963719,-0.021556735,0
-0.84784842,1.3639154,-5.2988844,-0.52056831,0.026816726,-0.85339892,0
2.7234945,1.2203248,4.2359567,0.52056831,-0.026816726,0.85339892,0
-3.9741673,-2.5768244,-3.5156794,-0.52056831,0.026816726,-0.85339892,0
0.82624102,0.54477048,-4.8274899,0.84755862,0.13705659,-0.51269901,0
1.8113904,0.061245322,-3.2713718,0.85375047,0.0035759062,-0.52067041,0
-0.8299076,-3.1824198,-1.9213433,0.062807813,-0.99559611,-0.069597244,0
2.2846422,2.7352567,4.5512586,0.52056831,-0.026816726,0.85339892,0
-3.3865407,1.4721985,0.05664897,-0.76105595,0.43851086,0.47801915,0
-0.60064971,-2.7492411,-3.9912143,0.39903039,-0.87599677,-0.27093285,0
-1.7814424,-1.71346,2.4193022,-0.73765767,-0.51745534,0.43370664,0
2.7591555,-0.29288346,-1.6922718,0.84897095,-0.090117991,-0.52069902,0
0.2219696,0.57277918,-5.8189378,0.84765875,0.13609141,-0.51279044,0
-3.2133188,1.0441151,-3.8660107,-0.52056831,0.026816726,-0.85339892,0
-2.472831,0.8828454,-4.3227711,-0.52056831,0.026816726,-0.85339892,0
-5.255517,0.032410622,-2.3774421,-0.85374796,-0.029350132,0.51985896,0
4.3338232,-2.6101856,3.1332984,0.52056831,-0.026816726,0.85339892,0
1.1085761,-0.62290108,-4.2749453,0.83034468,-0.21686506,-0.51332003,0
3.2898159,-2.4878263,3.773982,0.52056831,-0.026816726,0.85339892,0
1.4199071,-0.99682039,-3.5729575,0.8026166,-0.32555395,-0.49982139,0
-0.1323843,1.1133702,5.5531821,-0.7839942,0.38086408,0.4901998,0
-3.1510892,1.1814084,-3.8996561,-0.52056831,0.026816726,-0.85339892,0
-1.2608097,3.1016035,-4.5645833,0.35445654,0.9160955,-0.18742961,0
-4.0509725,2.6861124,-3.3034499,-0.52056831,0.026816726,-0.85339892,0
3.6628146,2.7817256,3.7120414,0.52056831,-0.026816726,0.85339892,0
0.18725978,-3.2374058,-0.2159574,0.057618417,-0.99612498,-0.066448331,0
-2.2424195,-0.11785889,-4.4947662,-0.52056831,0.026816726,-0.85339892,0
3.8961914,0.97399616,3.5128782,0.52056831,-0.026816726,0.85339892,0
3.1149304,0.88874388,3.9867637,0.52056831,-0.026816726,0.85339892,0
4.893002,-1.0981379,2.839716,0.52056831,-0.026816726,0.85339892,0
-0.65042627,3.1447158,-3.1568854,0.29913455,0.94188559,-0.15287316,0
1.0790542,-0.62763739,5.1809864,0.52056831,-0.026816726,0.85339892,0
-4.2839413,0.89950562,-3.2174809,-0.52056831,0.026816726,-0.85339892,0
0.98445189,-3.1310976,-0.13769388,0.22619542,-0.95946288,-0.1681273,0
1.418233,-1.4917488,4.9469366,0.52056831,-0.026816726,0.85339892,0
-1.3793552,2.1836004,2.3034425,-0.61488885,0.68168908,0.39649951,0
-4.1009254,-1.4781604,-3.4038339,-0.52056831,0.026816726,-0.85339892,0
4.5697107,-0.64830208,1.3416555,0.83885396,-0.17025799,-0.51704603,0
-3.1211858,1.6087394,0.34505332,-0.74037051,0.48366386,0.46682,0
2.9042344,-2.8219373,1.4279673,0.44413546,-0.84513402,-0.29747689,0
4.1148567,-0.35067606,3.3378677,0.52056831,-0.026816726,0.85339892,0
2.1188314,3.0017359,4.6607757,0.52056831,-0.026816726,0.85339892,0
-1.6770329,2.0239863,-4.7723451,-0.52056831,0.026816726,-0.85339892,0
-2.4908156,3.0073664,-1.4192424,-0.35179749,0.90398526,0.24300063,0
-4.2438555,2.3962693,-2.5073414,-0.59891188,0.70089865,0.38735732,0
-0.73022604,-1.2954631,-5.4541998,-0.52056831,0.026816726,-0.85339892,0
-0.15236831,0.47444248,-5.7510738,-0.52056831,0.026816726,-0.85339892,0
3.811686,2.2771833,1.9887663,0.59293151,0.73054463,-0.33872867,0
-1.6649885,-1.7828627,-4.8993158,-0.52056831,0.026816726,-0.85339892,0
0.92064428,-3.263746,2.7300701,-0.18069047,-0.98032868,0.079414964,0
2.8447738,2.8590527,2.0198798,0.37428927,0.90551847,-0.1998598,0
0.59495735,-1.98104,5.4337544,0.52056831,-0.026816726,0.85339892,0
1.9885312,-1.6598225,4.5937762,0.52056831,-0.026816726,0.85339892,0
-4.3788362,-2.1068356,-2.6340127,-0.6312167,-0.6851474,0.36350888,0
-0.58501822,3.272603,-1.7636125,0.12390488,0.99129891,-0.044431269,0
-4.8028889,-1.021045,-2.0250449,-0.80491412,-0.34883165,0.48003143,0
-1.2457272,0.21204185,-5.0923762,-0.52056831,0.026816726,-0.85339892,0
-1.3207382,1.788835,-4.9970722,-0.52056831,0.026816726,-0.85339892,0
1.3909657,1.4879749,5.0572019,0.52056831,-0.026816726,0.85339892,0
1.8398449,2.7510815,-0.24773836,0.45837724,0.85203612,-0.2528336,0
-1.9354155,3.1392217,-4.5796885,-0.52056831,0.026816726,-0.85339892,0
-2.5992413,-3.0672462,-4.3697867,-0.52056831,0.026816726,-0.85339892,0
0.19990945,1.0505116,5.7699928,0.52056831,-0.026816726,0.85339892,0
-2.3433247,-0.92766076,2.1492679,-0.8234067,-0.28015986,0.49346969,0
2.9217613,-0.85414171,4.0498285,0.52056831,-0.026816726,0.85339892,0
-3.3101006,-1.4619704,0.10473168,-0.76308566,-0.46299422,0.45092902,0
-1.6508868,3.3277097,-3.5064886,0.12329522,0.99139166,-0.044056475,0
-1.8918049,1.454015,2.4517703,-0.75324589,0.45620605,0.47381103,0
1.754758,-3.3424542,3.3824458,-0.083103418,-0.99635243,0.019383848,0
-0.39124131,2.9458153,-3.6182327,0.41948092,0.87859404,-0.22827262,0
2.9306254,1.924475,4.1317348,0.52056831,-0.026816726,0.85339892,0
0.44113708,-0.94739246,5.5600648,0.52056831,-0.026816726,0.85339892,0
-3.9114137,2.0222201,-3.4094415,-0.52056831,0.026816726,-0.85339892,0
-1.9867206,-1.0496519,2.671272,-0.81529498,-0.31246105,0.48750657,0
-0.26669168,0.13932705,-5.6918674,-0.52056831,0.026816726,-0.85339892,0
-3.5587513,0.55687022,0.32816428,-0.84073061,0.15824613,0.51781332,0
-2.2001045,1.2491803,-4.477622,-0.52056831,0.026816726,-0.85339892,0
-1.4971716,-2.4308908,1.7298985,-0.58273762,-0.74167806,0.33216059,0
4.1967807,-0.3360672,3.2883539,0.52056831,-0.026816726,0.85339892,0
-2.5088816,-1.4603519,-4.3744116,-0.52056831,0.026816726,-0.85339892,0
-3.7444484,1.5071757,-0.54536819,-0.75889653,0.44348872,0.47685832,0
-0.42812061,2.9431849,-3.6960547,0.42183506,0.87707889,-0.22975618,0
4.2952962,2.4084787,3.3145027,0.52056831,-0.026816726,0.85339892,0
-3.2167101,1.8563008,-3.8384206,-0.52056831,0.026816726,-0.85339892,0
-2.8803682,2.5462918,-4.0219049,-0.52056831,0.026816726,-0.85339892,0
-3.9238346,-1.1384945,-3.5011849,-0.52056831,0.026816726,-0.85339892,0
2.7949808,2.9096358,4.2454343,0.52056831,-0.026816726,0.85339892,0
-4.6449137,0.95791769,-2.9954548,-0.52056831,0.026816726,-0.85339892,0
1.119827,0.19484901,5.1819611,0.52056831,-0.026816726,0.85339892,0
1.9937618,-1.1523116,-2.5448196,0.79013103,-0.36365819,-0.4934026,0
-0.46084404,2.9225028,-3.8334229,0.43318319,0.86961174,-0.2369132,0
-4.3035984,-1.736445,-3.2883205,-0.52056831,0.026816726,-0.85339892,0
3.8962693,1.4969308,3.5292628,0.52056831,-0.026816726,0.85339892,0
2.8758061,0.39569902,4.117135,0.52056831,-0.026816726,0.85339892,0
-0.37336826,1.0909905,5.1847296,-0.78778058,0.37035328,0.49217924,0
-5.2425923,0.26140499,-2.6527612,-0.52056831,0.026816726,-0.85339892,0
1.6843052,0.44280672,-3.4352252,0.84928048,0.11919527,-0.5143106,0
0.32384634,1.1296825,-5.400919,0.81576252,0.31070426,-0.48784703,0
2.5957384,-1.0986438,-1.6179082,0.79868871,-0.33804423,-0.49781787,0
-1.0033898,2.0273066,-5.1831589,-0.52056831,0.026816726,-0.85339892,0
-0.49736452,-1.3691454,-5.5985594,-0.52056831,0.026816726,-0.85339892,0
-4.2744069,-1.770133,-3.3071856,-0.52056831,0.026816726,-0.85339892,0
-1.2814114,-2.2858672,2.4067516,-0.6262387,-0.69139469,0.36027604,0
-2.1414907,0.20718968,2.7133145,-0.8503598,0.073612556,0.52102757,0
4.295486,-0.17397261,3.2332382,0.52056831,-0.026816726,0.85339892,0
-2.4869833,-1.2964857,-4.3826203,-0.52056831,0.026816726,-0.85339892,0
1.1071923,0.54302216,5.2006083,0.52056831,-0.026816726,0.85339892,0
-2.0610385,3.1749649,-4.5019369,-0.52056831,0.026816726,-0.85339892,0
1.7200943,-2.6386449,-0.8390007,0.48918661,-0.80982643,-0.32384843,0
4.904758,-1.7694197,2.8114512,0.52056831,-0.026816726,0.85339892,0
0.42766333,-2.48913,-3.1571171,0.51679373,-0.78572977,-0.33993131,0
0.85169709,-3.0690277,3.9492965,-0.36197942,-0.91216928,0.19214201,0
-2.3688827,-1.737134,1.3904181,-0.72888702,-0.5345028,0.42782089,0
-4.1077585,-1.8833468,-1.7864558,-0.68530631,-0.60929853,0.39888668,0
1.9397328,1.5339321,-2.349853,0.7628994,0.46342462,-0.45080179,0
-4.8274531,1.4416552,-2.2135425,-0.7740795,0.40694439,0.48497152,0
-1.7978131,-0.70541716,-4.7844367,-0.52056831,0.026816726,-0.85339892,0
1.9464853,-2.9617264,0.46229768,0.36070225,-0.89902878,-0.24827665,0
2.1316252,-2.3040862,4.4862452,0.52056831,-0.026816726,0.85339892,0
-0.69418263,3.2510788,-0.44656515,-0.080705501,0.99348623,0.080448508,0
-1.0224788,1.183248,-5.1980391,-0.52056831,0.026816726,-0.85339892,0
2.1939135,-1.7633033,4.4652424,0.52056831,-0.026816726,0.85339892,0
-2.0657942,0.75364268,2.6692634,-0.82501161,0.24164596,0.51084554,0
-1.856874,-3.0873497,-1.477968,-0.22774938,-0.96765387,0.10851878,0
-5.1888652,0.81843901,-2.4079914,-0.83124501,0.212402,0.51372892,0
0.65403998,3.0125883,3.0090587,-0.25166935,0.95028168,0.18337774,0
0.46387267,2.1010652,-4.1407547,0.67908859,0.6188513,-0.39479369,0
0.40200281,0.46624184,-5.5467038,0.85037184,0.10602461,-0.51539016,0
1.6362841,-2.9688764,4.7675104,0.52056831,-0.026816726,0.85339892,0
2.024883,1.1000159,4.6583252,0.52056831,-0.026816726,0.85339892,0
-2.8899398,-3.094183,-3.9464388,-0.12208331,-0.99157447,0.043311536,0
3.6121104,-0.42222261,3.642292,0.52056831,-0.026816726,0.85339892,0
-0.59700203,-1.2288661,-5.5333729,-0.52056831,0.026816726,-0.85339892,0
-4.8433914,-1.2866569,-2.3141179,-0.77562565,-0.43270922,0.45952994,0
1.2816294,-1.5382233,5.0288033,0.52056831,-0.026816726,0.85339892,0
-2.188597,-0.40522337,-4.5366278,-0.52056831,0.026816726,-0.85339892,0
-1.6060687,2.7593398,-4.7925253,-0.52056831,0.026816726,-0.85339892,0
4.2044787,1.6063063,3.3446939,0.52056831,-0.026816726,0.85339892,0
-1.9922042,-1.374949,-4.6868982,-0.52056831,0.026816726,-0.85339892,0
-3.535517,-1.7057198,-0.55839258,-0.72405136,-0.54357779,0.42458606,0
4.8720884,-0.13691044,2.882678,0.52056831,-0.026816726,0.85339892,0
3.6306021,-0.96123838,3.6140747,0.52056831,-0.026816726,0.85339892,0
-4.5745163,1.0126762,-3.0366759,-0.52056831,0.026816726,-0.85339892,0
-3.8547497,-1.3047409,-3.5485504,-0.52056831,0.026816726,-0.85339892,0
-1.0500426,2.1012263,-5.1523786,-0.52056831,0.026816726,-0.85339892,0
2.5866146,0.2472682,4.2888761,0.52056831,-0.026816726,0.85339892,0
-0.28146076,-0.30983257,-5.6969724,-0.52056831,0.026816726,-0.85339892,0
-4.3014841,2.5197458,-2.830785,-0.56709576,0.73633885,0.36906323,0
4.3274913,-1.5325723,1.4968796,0.75950515,-0.44209293,-0.47718564,0
-0.3723228,1.1063561,-5.5970454,-0.52056831,0.026816726,-0.85339892,0
2.4607534,2.9905217,4.4518528,0.52056831,-0.026816726,0.85339892,0
-0.8515327,-1.2232554,-5.3779345,-0.52056831,0.026816726,-0.85339892,0
2.9343729,0.10562474,-1.4266053,0.85367095,0.035035104,-0.51963335,0
1.3005214,2.8944502,-0.70235753,0.40016049,0.89059997,-0.21610993,0
-1.0838614,0.089406967,4.4549122,-0.85169274,0.05420433,0.52123088,0
-0.17861009,-0.057002544,-5.7517657,-0.52056831,0.026816726,-0.85339892,0
2.6259358,2.568449,4.3378296,0.52056831,-0.026816726,0.85339892,0
3.6132188,-2.2671165,3.5836432,0.52056831,-0.026816726,0.85339892,0
-2.9411769,2.4720581,-0.64583778,-0.56083667,0.74290484,0.36545157,0
0.81252718,-2.3974681,-2.7714343,0.55079597,-0.75317734,-0.3596496,0
3.2465112,-0.76579332,3.8545094,0.52056831,-0.026816726,0.85339892,0
-4.0397105,1.7445505,-1.2556853,-0.72701192,0.51020461,0.45950532,0
-0.48638868,0.38491344,-5.5501366,-0.52056831,0.026816726,-0.85339892,0
-3.9250374,-1.3947091,-3.5085022,-0.52056831,0.026816726,-0.85339892,0
-1.2589753,2.8707175,0.85817504,-0.38737699,0.88329762,0.26405382,0
2.1856902,-1.6218586,4.4747028,0.52056831,-0.026816726,0.85339892,0
1.1192555,-2.9985452,4.7522731,-0.41142184,-0.88369435,0.22319633,0
1.796526,-2.4431243,4.6862841,0.52056831,-0.026816726,0.85339892,0
3.7497416,-1.6920757,3.518435,0.52056831,-0.026816726,0.85339892,0
-2.1761134,2.8059444,-0.29618692,-0.43558556,0.85131371,0.29245567,0
0.89052677,0.78902626,-4.6366572,0.83694243,0.21377821,-0.50381231,0
-2.6742396,-2.8252096,-1.5559592,-0.39930618,-0.89111346,0.21557266,0
-4.7986717,0.56831264,-2.9139061,-0.52056831,0.026816726,-0.85339892,0
-0.01021719,0.68774366,5.8867693,0.52056831,-0.026816726,0.85339892,0
-5.1598611,0.15783453,-2.706481,-0.52056831,0.026816726,-0.85339892,0
-1.0370903,2.9920087,-4.6266761,0.41265601,0.88292181,-0.22397339,0
-3.4112539,0.015597343,0.64857221,-0.85376787,-0.0052898675,0.5206272,0
-3.8918478,-0.87666607,-0.40594515,-0.82125759,-0.28912485,0.49187708,0
-0.60803854,-2.5413451,-4.5984154,0.48126602,-0.81638223,-0.31922281,0
-2.9180002,3.2204733,-3.9777656,-0.52056831,0.026816726,-0.85339892,0
-3.7637193,2.9445252,-3.4705524,-0.52056831,0.026816726,-0.85339892,0
2.8518403,1.7594261,4.1746073,0.52056831,-0.026816726,0.85339892,0
0.76905727,0.524266,-4.9273334,0.84829152,0.12980336,-0.51337403,0
-4.3232317,-1.1906667,-1.3521042,-0.79003668,-0.39418644,0.46953112,0
-3.3002453,-1.620311,-0.052887797,-0.74000955,-0.51274681,0.43528929,0
-1.122139,-2.9176183,0.93635583,-0.39223284,-0.89530969,0.21112609,0
-0.21760297,-0.18964481,-5.7321486,-0.52056831,0.026816726,-0.85339892,0
-4.1267767,1.3529878,-3.2991009,-0.52056831,0.026816726,-0.85339892,0
1.5165248,-1.7295198,4.8795071,0.52056831,-0.026816726,0.85339892,0
4.8985367,-1.2387691,2.1719618,0.79657948,-0.34455037,-0.49673569,0
4.9273324,0.27784777,1.8817518,0.84922266,0.11984552,-0.51425493,0
-4.6332903,-0.052340031,-3.0342903,-0.52056831,0.026816726,-0.85339892,0
-2.4132812,2.749722,-4.3004332,-0.52056831,0.026816726,-0.85339892,0
-1.2797714,0.60682058,-5.0592046,-0.52056831,0.026816726,-0.85339892,0
-1.6561905,-0.9901588,-4.8797731,-0.52056831,0.026816726,-0.85339892,0
-4.4383736,-0.0019464493,-3.1516054,-0.52056831,0.026816726,-0.85339892,0
-2.1561141,2.3231411,-4.4707079,-0.52056831,0.026816726,-0.85339892,0
-0.79109025,-2.0461576,3.6630049,-0.68694592,-0.60673863,0.39996728,0
1.6902136,2.0642364,4.8927708,0.52056831,-0.026816726,0.85339892,0
4.3687315,1.6510205,1.9093297,0.72605115,0.53985125,-0.42592311,0
-4.1887422,2.3743954,-3.2292066,-0.52056831,0.026816726,-0.85339892,0
3.5899041,2.126013,3.7359118,0.52056831,-0.026816726,0.85339892,0
-3.3190937,-2.9981122,-3.7567902,-0.24385801,-0.96254343,0.11850566,0
3.9240627,-0.077880859,3.4628229,0.52056831,-0.026816726,0.85339892,0
0.097482204,0.95744729,5.8295484,0.52056831,-0.026816726,0.85339892,0
-3.752346,2.3867531,-1.730356,-0.5949105,0.70555532,0.38506281,0
-1.7068994,-0.42833138,-4.8311868,-0.52056831,0.026816726,-0.85339892,0
4.013577,0.67415094,3.4318514,0.52056831,-0.026816726,0.85339892,0
-0.37750518,2.9784274,1.7271936,-0.3079803,0.92632097,0.2169742,0
-2.1120286,2.8244853,-4.4818459,-0.52056831,0.026816726,-0.85339892,0
-4.0746212,-1.0654776,-0.83619469,-0.80425429,-0.35099363,0.47956097,0
0.053376172,3.1989636,0.93425918,-0.10199327,0.9903968,0.093336761,0
4.4983354,-0.062482357,3.1130042,0.52056831,-0.026816726,0.85339892,0
-0.69796467,-2.2585714,-5.3723431,0.56809998,-0.73527348,-0.36964238,0
1.0049028,-1.6797385,5.1931581,0.52056831,-0.026816726,0.85339892,0
-1.4827428,3.1438308,-0.60677719,-0.23614848,0.95599526,0.17408961,0
-0.69422507,-1.1258605,-5.4708309,-0.52056831,0.026816726,-0.85339892,0
0.52197444,3.2189245,1.0325546,-0.010232374,0.99923897,0.037641048,0
-0.51695776,-1.5029836,4.7846103,-0.77643782,-0.43065292,0.46008995,0
-1.9151471,-3.0803461,-1.5383234,-0.23254031,-0.96617579,0.11148787,0
0.6690737,3.2064214,1.3895535,-0.026089452,0.99854046,0.047291875,0
3.8590825,1.2038889,0.5822705,0.79121113,0.39083725,-0.47035271,0
1.291979,-1.5221295,5.0229959,0.52056831,-0.026816726,0.85339892,0
-1.661582,-1.5958178,-4.8955164,-0.52056831,0.026816726,-0.85339892,0
2.9421439,0.071341991,4.0664773,0.52056831,-0.026816726,0.85339892,0
2.0881996,-0.84719992,4.5585151,0.52056831,-0.026816726,0.85339892,0
3.3724957,2.3822913,1.4543245,0.56792253,0.75721246,-0.32263523,0
-4.7994528,-1.2533686,-2.2091498,-0.7799753,-0.4215461,0.46253401,0
1.0128955,2.3654628,5.3153963,0.52056831,-0.026816726,0.85339892,0
1.6349509,-3.2626398,1.609318,0.13273969,-0.9848122,-0.11191642,0
-0.35033131,-3.2312632,-0.64611125,-0.0041434169,-0.99957436,-0.028882384,0
3.9519389,-2.5244284,2.3034544,0.56075132,-0.74299347,-0.36540234,0
-3.9319515,-2.4313526,-3.5368595,-0.52056831,0.026816726,-0.85339892,0
3.9377007,-2.5633459,3.3764029,0.52056831,-0.026816726,0.85339892,0
0.5977931,-2.1374874,5.4271088,0.52056831,-0.026816726,0.85339892,0
4.4617081,-1.5144,3.0897229,0.52056831,-0.026816726,0.85339892,0
-1.330457,-2.9760537,0.27736282,-0.349132,-0.91881204,0.18409634,0
4.3458734,-2.5981107,3.1263273,0.52056831,-0.026816726,0.85339892,0
-2.5721195,0.65345716,1.893995,-0.83304209,0.20320782,0.51453626,0
1.7643502,0.049119473,-3.348525,0.85369301,-0.00089782476,-0.52077597,0
4.071609,-0.91113186,3.3466377,0.52056831,-0.026816726,0.85339892,0
-0.28700852,2.6672044,-4.3063793,0.53572965,0.7885313,-0.3020137,0
-1.180566,-2.4190757,-5.2148027,-0.52056831,0.026816726,-0.85339892,0
4.1478281,2.2328863,2.4824033,0.60066444,0.72184461,-0.34371912,0
3.1757233,-0.1647557,-1.0286587,0.85225046,-0.044260159,-0.52125853,0
4.2771764,-1.7284613,3.19556,0.52056831,-0.026816726,0.85339892,0
1.7423513,0.10584939,-3.3837719,0.85382009,0.016202331,-0.52031612,0
-0.89769483,-2.5654514,2.4681139,-0.54975575,-0.77527833,0.31098598,0
-1.8852272,-2.4579864,-4.7861862,-0.52056831,0.026816726,-0.85339892,0
1.0546131,2.301244,-2.7714562,0.62528396,0.69258022,-0.35965645,0
1.6559472,-1.5205798,-2.7601776,0.74221164,-0.4798575,-0.46782345,0
0.49248981,-0.65889597,5.5378051,0.52056831,-0.026816726,0.85339892,0
-5.0384922,-1.047431,-2.8183889,-0.52056831,0.026816726,-0.85339892,0
2.2718735,0.022004128,4.4737878,0.52056831,-0.026816726,0.85339892,0
-2.8307941,-2.4915955,-0.76600003,-0.54097182,-0.78364664,0.30536485,0
-0.76212835,-2.1598744,3.5317082,-0.66299057,-0.64250332,0.38423079,0
-0.32127383,-3.2241635,-0.8230617,0.026592858,-0.99851263,-0.047598004,0
-3.9710104,0.56134748,-3.418993,-0.52056831,0.026816726,-0.85339892,0
3.4929564,-1.6895418,0.32986283,0.73115921,-0.502159,-0.46178228,0
-4.2411098,-1.606652,-3.3223598,-0.52056831,0.026816726,-0.85339892,0
3.2712646,0.86053288,-0.63888305,0.82480574,0.2741414,-0.49451223,0
-2.8551664,-2.679456,-1.352568,-0.46706593,-0.84564346,0.25833458,0
-2.7758873,-1.2466626,1.2042332,-0.79262531,-0.38675633,0.47134364,0
-2.0038753,3.3275127,-2.7116523,-0.064533152,0.99541199,0.070643961,0
-1.6899292,3.264801,-1.6935568,-0.13354778,0.98464739,0.11240423,0
-1.2733182,-0.99782562,-5.113564,-0.52056831,0.026816726,-0.85339892,0
3.3329482,-2.3030653,3.7534766,0.52056831,-0.026816726,0.85339892,0
-1.6388656,-0.5908041,-4.8777924,-0.52056831,0.026816726,-0.85339892,0
-3.694741,3.0154905,-3.5103986,-0.52056831,0.026816726,-0.85339892,0
2.0221791,-3.3467612,4.1168585,-0.12352568,-0.99135667,0.044198334,0
4.2530441,1.3384142,3.3066514,0.52056831,-0.026816726,0.85339892,0
3.2373533,0.90171099,3.9124942,0.52056831,-0.026816726,0.85339892,0
-2.5905383,3.1057014,-4.1811218,-0.52056831,0.026816726,-0.85339892,0
-3.2212222,-1.9241269,-0.32564962,-0.68630409,-0.60774279,0.39954424,0
1.2521155,2.0067327,-2.9308386,0.69010741,0.60175252,-0.40205237,0
1.2828894,2.0498242,5.1407833,0.52056831,-0.026816726,0.85339892,0
-2.3825564,3.3206253,-3.0192547,-0.10745774,0.9895016,0.096641898,0
-2.9557445,-2.4205041,-0.81076944,-0.56257457,-0.76264012,0.31920248,0
-4.9698806,-0.24352884,-2.8349805,-0.52056831,0.026816726,-0.85339892,0
3.2552655,-0.67179585,3.852123,0.52056831,-0.026816726,0.85339892,0
1.2139635,-3.1671855,0.38258195,0.20640412,-0.96590948,-0.15625733,0
4.481873,-2.4193439,2.9171863,0.5961796,-0.70408499,-0.38579074,0
-4.4163656,-2.0304866,-3.2287734,-0.52056831,0.026816726,-0.85339892,0
2.1666486,-1.7725725,4.4815826,0.52056831,-0.026816726,0.85339892,0
2.8633211,-2.8681836,4.0221891,0.52056831,-0.026816726,0.85339892,0
4.5827556,0.4868021,1.3727552,0.84240437,0.17902857,-0.50823611,0
2.4458077,3.0872185,2.7511744,0.18581426,0.97910881,-0.082578778,0
-1.3921069,-0.36692953,-5.0212793,-0.52056831,0.026816726,-0.85339892,0
-1.8955702,-2.866729,-4.7927213,-0.52056831,0.026816726,-0.85339892,0
-4.0053749,-0.3409934,-3.4263861,-0.52056831,0.026816726,-0.85339892,0
1.6571116,-1.9186907,-2.2803657,0.67517596,-0.59888142,-0.4306722,0
-4.3702035,1.9521093,-3.1317859,-0.52056831,0.026816726,-0.85339892,0
1.4437959,-2.021668,-2.4646034,0.65206885,-0.6327576,-0.41764143,0
2.6787794,2.8083091,4.3131323,0.52056831,-0.026816726,0.85339892,0
3.6444926,-0.46450758,3.6212101,0.52056831,-0.026816726,0.85339892,0
1.9744539,-1.8392673,4.5967245,0.52056831,-0.026816726,0.85339892,0
-0.88916862,3.1434052,-3.6300528,0.31025523,0.93712521,-0.15980631,0
2.142436,2.5380397,-0.33410072,0.53714168,0.78722364,-0.30291605,0
-2.0159347,0.41405821,-4.6162062,-0.52056831,0.026816726,-0.85339892,0
-1.131001,1.5301981,-5.1209383,-0.52056831,0.026816726,-0.85339892,0
3.6629229,-1.5193465,0.42704701,0.75673109,-0.44841427,-0.47569215,0
2.7985325,2.1964536,0.058858633,0.62912881,0.68778104,-0.36215252,0
-1.460885,-2.7828782,-5.0552416,-0.52056831,0.026816726,-0.85339892,0
-0.25615358,-1.053108,5.5606031,-0.82207716,-0.28574467,0.49248314,0
2.1497045,-0.75492287,-2.5331414,0.82522112,-0.24072066,-0.51094425,0
-1.2154028,-1.8417647,-5.1754112,-0.52056831,0.026816726,-0.85339892,0
1.5465385,2.3889637,4.9906158,0.52056831,-0.026816726,0.85339892,0
-1.9814291,1.6888711,2.0615704,-0.71900314,0.52528483,0.45509392,0
5.0003881,-0.0049462318,2.8085632,0.52056831,-0.026816726,0.85339892,0
-0.23562646,-3.0680194,1.8854492,-0.32375944,-0.93106246,0.16823429,0
3.7017999,0.76530027,3.6248982,0.52056831,-0.026816726,0.85339892,0
3.9607396,-0.79015207,3.4180689,0.52056831,-0.026816726,0.85339892,0
-3.4585695,-1.1970377,-3.7868335,-0.52056831,0.026816726,-0.85339892,0
2.7514358,-2.5232472,0.46197891,0.5431881,-0.76075393,-0.3552469,0
0.55344439,-2.6166656,4.9049835,-0.55757326,-0.76763242,0.31599492,0
1.3194222,3.1407089,2.9331975,-0.091497175,0.99199903,0.086984575,0
0.28701782,-0.27078533,5.6753373,0.52056831,-0.026816726,0.85339892,0
3.1083641,2.3436081,0.90188205,0.58402389,0.74029386,-0.33298862,0
-2.0362973,-0.58152962,-4.6350708,-0.52056831,0.026816726,-0.85339892,0
-5.0504861,-0.86554813,-2.8053572,-0.52056831,0.026816726,-0.85339892,0
2.0926638,-3.3615942,3.8159337,-0.066644609,-0.99773353,0.0093007684,0
0.19827414,0.68793416,5.7595968,0.52056831,-0.026816726,0.85339892,0
1.2759619,2.9887297,-0.31677938,0.34235066,0.92219788,-0.17985338,0
-2.0405869,1.0154538,-4.5822711,-0.52056831,0.026816726,-0.85339892,0
-2.917491,3.3273635,-3.7000859,-0.13435528,0.98448169,0.11289161,0
3.5316279,-1.8556161,3.6463444,0.52056831,-0.026816726,0.85339892,0
-2.6618061,-2.2980037,-0.022399306,-0.60387963,-0.71816063,0.34579599,0
4.0691633,-1.0680056,0.72901571,0.80851668,-0.30576861,-0.50279868,0
3.9981291,1.4093289,3.4643764,0.52056831,-0.026816726,0.85339892,0
-2.2609086,-0.1976614,-4.4859958,-0.52056831,0.026816726,-0.85339892,0
-3.6133096,2.2377262,-3.5845113,-0.52056831,0.026816726,-0.85339892,0
0.82696342,2.0156825,-3.6470933,0.6926868,0.59763455,-0.40375522,0
2.0464218,1.7291968,4.6649575,0.52056831,-0.026816726,0.85339892,0
0.9823401,-1.2242659,-4.1060495,0.77635878,-0.40112019,-0.48617882,0
-1.2114784,-0.38570213,-5.1320515,-0.52056831,0.026816726,-0.85339892,0
4.4152918,-2.516418,2.9990909,0.56963205,-0.7336418,-0.37052557,0
1.8320031,-2.4047525,-1.1930764,0.56369334,-0.73992383,-0.36710036,0
-2.9848943,2.0703905,-0.015883446,-0.65847862,0.62365204,0.42126524,0
2.0080047,-0.84404802,4.607532,0.52056831,-0.026816726,0.85339892,0
3.3081975,-3.0155349,3.7461867,0.52056831,-0.026816726,0.85339892,0
1.7623417,1.5606451,4.8329482,0.52056831,-0.026816726,0.85339892,0
-2.8486321,0.51594496,-4.1050644,-0.52056831,0.026816726,-0.85339892,0
2.2360101,2.1545467,4.562676,0.52056831,-0.026816726,0.85339892,0
-2.4197211,-1.9181812,-4.4431858,-0.52056831,0.026816726,-0.85339892,0
-2.2862015,-2.8482611,-0.93252099,-0.39758372,-0.89214438,0.2144897,0
-3.7927556,-2.3040118,-2.0142181,-0.58532131,-0.73889166,0.3338241,0
-1.899847,-0.10284805,-4.7032619,-0.52056831,0.026816726,-0.85339892,0
0.99645662,-3.29037,1.3030436,0.031265274,-0.99823767,-0.050439537,0
2.9252858,-2.6489344,1.0104122,0.50667751,-0.79479051,-0.33404517,0
-0.96137238,-2.3497231,-5.3463306,-0.52056831,0.026816726,-0.85339892,0
-4.3943343,-0.12531614,-0.97587913,-0.85283732,-0.0642782,0.51820588,0
1.1812482,-1.1009841,5.103775,0.52056831,-0.026816726,0.85339892,0
1.6391962,-2.1999435,-1.8723786,0.61418027,-0.68256265,-0.39609474,0
1.2789018,2.9062092,4.3859515,-0.30017495,0.92995292,0.21232706,0
2.1042209,-2.3212442,-0.93570399,0.5899322,-0.71126592,-0.38220552,0
4.2604413,2.3340383,2.9041011,0.56871623,0.75639892,-0.32314497,0
3.1827903,2.4023972,3.9929335,0.52056831,-0.026816726,0.85339892,0
-2.5147119,0.59320164,2.0097337,-0.83624458,0.18574256,0.5159409,0
1.5478212,-0.82154226,4.8889484,0.52056831,-0.026816726,0.85339892,0
-3.2734826,0.29790735,-3.8527594,-0.52056831,0.026816726,-0.85339892,0
2.1515391,-1.6826868,4.4936237,0.52056831,-0.026816726,0.85339892,0
1.469368,1.9437197,-2.6505497,0.70025516,0.58528477,-0.40876001,0
4.3117719,1.0870309,3.2629285,0.52056831,-0.026816726,0.85339892,0
0.82459116,0.26557064,5.3642755,0.52056831,-0.026816726,0.85339892,0
3.7818561,-1.5253515,3.5040846,0.52056831,-0.026816726,0.85339892,0
3.8820524,-2.9226565,3.1781826,0.42379525,-0.85957783,-0.28552336,0
1.4179335,-2.2598877,-2.1086664,0.59659016,-0.70360792,-0.38602617,0
-1.3638482,-2.244745,2.3411846,-0.63559085,-0.67956638,0.3663525,0
2.3322852,3.1265652,3.9758086,-0.0068799853,0.99934256,0.035599351,0
-1.4941254,0.56451893,-4.9297791,-0.52056831,0.026816726,-0.85339892,0
-2.483789,-2.6331844,-4.4265723,-0.52056831,0.026816726,-0.85339892,0
2.626199,2.4277513,0.247401,0.56569362,0.75948584,-0.3212043,0
-0.78263307,3.2931199,-1.7466977,0.077353805,0.99687767,-0.0158602,0
4.5713081,-0.14210796,3.0659895,0.52056831,-0.026816726,0.85339892,0
2.3174977,-1.1793127,4.4082084,0.52056831,-0.026816726,0.85339892,0
2.6846836,2.0785084,4.2865982,0.52056831,-0.026816726,0.85339892,0
2.5194192,1.1434281,4.3580251,0.52056831,-0.026816726,0.85339892,0
3.0421367,-2.530189,3.9237332,0.52056831,-0.026816726,0.85339892,0
0.87177956,3.1006198,-0.43434858,0.26823974,0.95403689,-0.13364571,0
2.1851878,2.2019598,4.5951672,0.52056831,-0.026816726,0.85339892,0
-4.9879355,1.4473658,-2.770833,-0.52056831,0.026816726,-0.85339892,0
-0.81933188,2.8446121,-4.7488832,0.47757328,0.83767653,-0.26499444,0
0.044323564,2.658742,3.4376886,-0.44854563,0.84188354,0.30006498,0
2.6471009,-2.4399405,0.12949276,0.5655911,-0.73792893,-0.36819535,0
-0.18490529,-2.5186591,-4.0160441,0.49667057,-0.80348849,-0.32821447,0
-2.108779,-0.27361661,2.7668986,-0.85241199,-0.073703647,0.51765031,0
-0.25601792,-1.937151,-5.2465868,0.65142369,-0.63366216,-0.41727638,0
1.0213032,-1.4527576,-3.8361197,0.74721962,-0.46930668,-0.47054675,0
-2.5018225,2.7256258,-0.5620985,-0.47264221,0.82334661,0.31418121,0
-3.6385384,-1.4212017,-0.40946552,-0.76629531,-0.45549053,0.45312262,0
0.39076734,1.3375974,5.6625915,0.52056831,-0.026816726,0.85339892,0
-2.5908613,0.67328572,1.8557118,-0.8319279,0.20895445,0.51403719,0
-4.4754019,-2.2763865,-3.2004886,-0.52056831,0.026816726,-0.85339892,0
2.2288089,-2.1657867,4.4313097,0.52056831,-0.026816726,0.85339892,0
-0.83431554,-2.674247,2.2922366,-0.51196522,-0.8096959,0.28685236,0
1.9449852,-2.8136292,-0.025036097,0.4276171,-0.85693133,-0.28777152,0
0.098953247,0.86875248,-5.8919873,-0.52056831,0.026816726,-0.85339892,0
-1.59465,-0.28544044,-4.8951683,-0.52056831,0.026816726,-0.85339892,0
1.4938991,0.48001528,4.9627395,0.52056831,-0.026816726,0.85339892,0
-1.643819,3.2040086,-4.734602,0.29222387,0.94473964,-0.14856809,0
-1.4786291,-2.9633012,0.059833527,-0.35257912,-0.91705912,0.18625414,0
1.8610233,-0.52706861,4.7071505,0.52056831,-0.026816726,0.85339892,0
4.0556431,-0.72573686,0.53640294,0.83328301,-0.20194547,-0.51464349,0
-5.2663031,-0.14755917,-2.4150341,-0.85180175,-0.08499676,0.51692325,0
-3.2986431,2.9499426,-3.7540762,-0.52056831,0.026816726,-0.85339892,0
0.017279387,3.0937791,-2.1611602,0.31258041,0.93610358,-0.16125673,0
-2.5959578,-2.031003,-4.3392277,-0.52056831,0.026816726,-0.85339892,0
-2.5347409,-3.1052799,-4.410327,-0.52056831,0.026816726,-0.85339892,0
-2.2290204,1.8920879,1.4191451,-0.68585247,0.58218098,0.43665999,0
0.76806647,-3.2643969,2.3680675,-0.16543475,-0.98373336,0.070002139,0
0.36333036,1.3084881,-5.208992,0.79915214,0.36720282,-0.47593939,0
2.0222735,-3.3421168,4.2125168,-0.13656035,-0.98925471,0.052215278,0
-1.357209,-1.4121792,-5.0754113,-0.52056831,0.026816726,-0.85339892,0
-1.1940923,-2.0557041,2.95576,-0.68070912,-0.61638498,0.39585972,0
3.0867596,-2.3609486,3.9018321,0.52056831,-0.026816726,0.85339892,0
-0.2463789,-0.53154492,-5.7253389,-0.52056831,0.026816726,-0.85339892,0
-4.8377924,-0.56156731,-2.9255474,-0.52056831,0.026816726,-0.85339892,0
-3.7446721,-1.8557315,-3.6330109,-0.52056831,0.026816726,-0.85339892,0
0.39442277,2.3066311,4.8093567,-0.55902451,0.74478221,0.36440527,0
2.2652106,2.5856721,4.5584106,0.52056831,-0.026816726,0.85339892,0
-0.73378611,-0.090321064,-5.4141588,-0.52056831,0.026816726,-0.85339892,0
-0.93090391,-1.1060555,-5.3258357,-0.52056831,0.026816726,-0.85339892,0
-3.7373407,-1.5100894,-0.66994119,-0.75323415,-0.48507953,0.44422561,0
-1.288195,1.1107159,-5.0382318,-0.52056831,0.026816726,-0.85339892,0
0.3531661,-2.47036,-3.3135252,0.52154368,-0.78137982,-0.34269214,0
2.7321513,0.62041289,-1.6471008,0.840662,0.19089624,-0.50680023,0
-2.2291512,-1.1461776,2.1996326,-0.80561936,-0.34650236,0.48053488,0
0.21627456,3.2407234,-0.16099644,0.084439784,0.99622381,-0.020203173,0
2.0975468,1.7027797,-1.8943913,0.73676562,0.51922554,-0.4331069,0
