3.0405321,-2.4802473,-3.4496288,0.29626936,0.23839813,-0.92487335,0
3.0699482,-3.76682,-3.5671089,0.51652616,-0.85451555,-0.054801181,0
-3.8348489,3.4830256,0.7827878,-0.51652616,0.85451555,0.054801181,0
-0.20222569,-4.1123581,2.4543855,-0.54111719,-0.375348,0.75253308,0
-0.19261482,-6.0262227,0.91266012,0.51652616,-0.85451555,-0.054801181,0
1.3952308,4.4419479,0.40769005,0.85574597,0.51290977,0.067985535,0
0.76858449,-2.0859206,3.3599837,-0.074871004,-0.10882622,0.99123704,0
-0.2305162,2.2857888,-3.2496345,0.21368623,0.19061191,-0.95812583,0
3.3482873,0.36807644,1.6311362,0.76102829,0.42879739,0.48679376,0
-2.0355866,4.7052693,-1.3168149,-0.51652616,0.85451555,0.054801181,0
-0.073556662,-5.251296,-2.3748679,-0.69684923,-0.38230515,-0.60683084,0
0.21038413,-5.6403098,-1.3064532,0.51652616,-0.85451555,-0.054801181,0
2.6895385,1.3885298,-1.782865,0.72410691,0.47006452,-0.50468647,0
-0.34012699,2.0205944,-3.3183591,0.15672535,0.15726574,-0.97504067,0
-3.8571186,3.5089993,0.16787528,-0.51652616,0.85451555,0.054801181,0
-2.4623954,0.245893,2.9718251,-0.46079329,-0.33133578,0.82333845,0
0.75008237,5.5201364,0.37020588,0.85626215,0.51516628,0.037664711,0
-3.2866063,2.3321502,3.3171856,-0.36756581,-0.27907443,0.88713741,0
-4.7983341,2.8679199,1.2928603,-0.51652616,0.85451555,0.054801181,0
0.75836062,-1.2516582,3.4249458,0.028720319,-0.046674356,0.99849701,0
-4.5870137,3.0823274,-0.058617711,-0.51652616,0.85451555,0.054801181,0
1.795051,-4.9139585,2.3037717,0.51652616,-0.85451555,-0.054801181,0
1.9381192,-4.8409224,2.5133786,0.51652616,-0.85451555,-0.054801181,0
-0.54458123,5.5795627,-0.89626837,-0.51652616,0.85451555,0.054801181,0
-3.9163241,3.6161175,-2.0604634,-0.51652616,0.85451555,0.054801181,0
-5.1063371,2.8496647,-1.3255631,-0.51652616,0.85451555,0.054801181,0
-2.9601629,-0.20144463,2.3788013,-0.62627774,-0.42065775,0.65637124,0
-1.8281741,4.9259043,-2.8022299,-0.51652616,0.85451555,0.054801181,0
-1.5164611,4.3733296,3.6179984,0.26309764,0.097478554,0.95983177,0
-1.7027718,4.9740143,-2.3704216,-0.51652616,0.85451555,0.054801181,0
-2.5132551,4.302556,0.4604615,-0.51652616,0.85451555,0.054801181,0
-3.3383269,3.8430328,-0.15087485,-0.51652616,0.85451555,0.054801181,0
-1.6549661,2.837564,-3.3246202,-0.015738964,0.054514259,-0.99838877,0
0.84647703,5.0626221,-0.82324624,0.80910701,0.50802219,-0.29539675,0
0.32638931,-5.7182722,1.0026197,0.51652616,-0.85451555,-0.054801181,0
0.035845965,-5.8285303,-0.016628265,0.51652616,-0.85451555,-0.054801181,0
-0.48659396,-3.372479,2.6127303,-0.50610262,-0.3562932,0.78543949,0
0.39045978,3.1981339,-2.7454166,0.46290439,0.33250558,-0.8216809,0
3.8101065,-3.5894909,0.64411181,0.51652616,-0.85451555,-0.054801181,0
-2.0242231,4.560822,1.0426693,-0.51652616,0.85451555,0.054801181,0
-2.540832,3.2227039,-3.2447398,-0.15209967,-0.028580591,-0.98795164,0
2.5202901,-0.93778706,2.9639649,0.43367332,0.20588289,0.87723374,0
-2.0127656,-3.3784585,-0.55784202,-0.85220999,-0.50679654,-0.12998056,0
-4.3676653,1.7319474,2.2513487,-0.67834324,-0.44741231,0.58281451,0
-3.5609188,3.5480433,2.3508828,-0.51652616,0.85451555,0.054801181,0
1.5517874,1.7556024,2.7349241,0.56859267,0.29443473,0.76812106,0
2.8873069,-1.2248504,2.8439305,0.47338641,0.23164424,0.84985036,0
2.2005315,-4.3188796,-3.1534853,0.51652616,-0.85451555,-0.054801181,0
4.6331348,-3.0458188,-0.075955033,0.51652616,-0.85451555,-0.054801181,0
3.1041765,0.41526663,1.9356782,0.71830451,0.39757609,0.57093894,0
0.73480344,-5.3459721,-0.95316672,0.51652616,-0.85451555,-0.054801181,0
-0.7178483,5.3747835,0.66373038,-0.51652616,0.85451555,0.054801181,0
-0.095148325,-0.50204009,3.4676981,-0.055198848,-0.097095773,0.993743,0
2.0218058,-4.7122631,1.2959772,0.51652616,-0.85451555,-0.054801181,0
-0.28143063,5.7281485,-0.73285437,-0.51652616,0.85451555,0.054801181,0
2.7595146,-4.0315757,-2.3647566,0.51652616,-0.85451555,-0.054801181,0
-1.3948271,-2.2815351,-2.6432781,-0.60129529,-0.31640917,-0.73370886,0
-0.91957104,-4.6112576,1.2902348,-0.76372147,-0.48869395,0.42179099,0
-2.1459131,-3.1130207,-0.69382024,-0.84772843,-0.50130665,-0.17334342,0
-1.4739811,-3.0933809,1.9147644,-0.68339437,-0.449958,0.57489991,0
-4.4825029,2.7678504,2.8045733,-0.56728953,-0.38944206,0.72561526,0
-2.8895359,-1.1881099,-1.624712,-0.76828778,-0.43424439,-0.4702822,0
-1.7589167,4.6149187,2.6997721,-0.51652616,0.85451555,0.054801181,0
-3.1828156,-1.1979749,-1.002106,-0.82593441,-0.4803201,-0.29516876,0
-3.4185295,3.7084289,1.1920761,-0.51652616,0.85451555,0.054801181,0
-2.0640903,4.6504149,-0.73012048,-0.51652616,0.85451555,0.054801181,0
3.3357546,0.10589933,1.8586116,0.72717988,0.40396315,0.55499804,0
-0.15495902,5.8184886,-0.94949841,-0.51652616,0.85451555,0.054801181,0
0.77920866,-5.1908412,-2.9535935,0.51652616,-0.85451555,-0.054801181,0
1.8645844,-2.2762322,3.3203013,0.13040471,0.015249208,0.99134338,0
-1.1301638,5.249763,-1.2730857,-0.51652616,0.85451555,0.054801181,0
0.044851542,0.7098406,3.5137196,0.12732977,0.013363212,0.99177021,0
3.4270968,-3.9686337,2.9460526,0.51652616,-0.85451555,-0.054801181,0
3.2623057,1.1077259,-1.0050192,0.81497264,0.51024193,-0.27472293,0
-0.77169061,5.1868677,3.086416,-0.51652616,0.85451555,0.054801181,0
-3.6318085,3.8373966,-2.8291867,-0.51652616,0.85451555,0.054801181,0
-3.3603501,1.4732211,-2.6292739,-0.53942454,-0.27502498,-0.79585296,0
1.7745225,-4.7312846,-0.73817325,0.51652616,-0.85451555,-0.054801181,0
-4.349422,3.2915611,-1.081784,-0.51652616,0.85451555,0.054801181,0
-2.5782847,-2.4628465,-0.41158962,-0.854029,-0.50948888,-0.1051439,0
3.9957266,-3.6165385,2.8154237,0.51652616,-0.85451555,-0.054801181,0
4.6819634,-1.7952967,-1.8856461,0.73915291,0.47727165,-0.47525236,0
-4.0650787,3.5405474,-2.2841787,-0.51652616,0.85451555,0.054801181,0
-0.8715868,-4.287673,-2.0409198,-0.73980331,-0.41312939,-0.53105056,0
-4.4290466,3.0043225,2.646636,-0.51652616,0.85451555,0.054801181,0
-1.3239846,-4.412879,0.59425855,-0.82905185,-0.51508981,0.21761292,0
-3.7697034,-0.50791514,0.3625412,-0.85082012,-0.51939577,0.079580247,0
3.0633159,-3.8235025,-2.7457829,0.51652616,-0.85451555,-0.054801181,0
2.4628377,-4.3340979,-0.44383883,0.51652616,-0.85451555,-0.054801181,0
-5.0963326,1.9322877,1.2104765,-0.81414199,-0.50993341,0.27774197,0
2.0638247,-4.707593,1.6192009,0.51652616,-0.85451555,-0.054801181,0
0.04313606,-5.8899179,1.0093045,0.51652616,-0.85451555,-0.054801181,0
-2.8570178,3.924849,3.1099305,-0.51652616,0.85451555,0.054801181,0
-0.77684975,5.1866236,3.0415988,-0.51652616,0.85451555,0.054801181,0
-5.0295186,2.8303967,-0.30106854,-0.51652616,0.85451555,0.054801181,0
-3.1593356,4.1414113,-3.1164196,-0.51652616,0.85451555,0.054801181,0
3.2274466,-3.8738217,-0.41413817,0.51652616,-0.85451555,-0.054801181,0
-2.7669749,3.9736214,3.1981158,-0.51652616,0.85451555,0.054801181,0
2.3642502,-4.247386,-2.7251735,0.51652616,-0.85451555,-0.054801181,0
-0.13854456,5.6905704,-1.7978842,0.67406619,0.44524905,-0.58939642,0
-1.4461994,-3.7434657,1.3421209,-0.76418698,-0.48890546,0.42070132,0
4.5727563,-0.85826373,0.29242635,0.85205853,0.50659055,0.13176477,0
2.0960586,-4.4711838,-1.7633067,0.51652616,-0.85451555,-0.054801181,0
-2.3536663,2.8114672,3.659004,-0.10891783,-0.1290473,0.98563862,0
3.7785163,-3.7324777,2.5759706,0.51652616,-0.85451555,-0.054801181,0
-0.18411756,-5.8722444,-1.4082489,0.51652616,-0.85451555,-0.054801181,0
0.38864803,-5.4687495,-2.301379,0.51652616,-0.85451555,-0.054801181,0
1.8424078,-4.638865,-1.5394249,0.51652616,-0.85451555,-0.054801181,0
-0.7220403,5.3179636,1.5102139,-0.51652616,0.85451555,0.054801181,0
-3.1847384,3.7036057,3.4708643,-0.51652616,0.85451555,0.054801181,0
2.7740712,2.1562088,-0.24917603,0.85102999,0.51938236,-0.077393174,0
-1.6083903,1.577034,-3.3402641,-0.16507196,-0.036572561,-0.98560303,0
4.9586229,-2.7985501,-0.86373597,0.51652616,-0.85451555,-0.054801181,0
-2.3340449,0.0080221891,2.9478879,-0.46409681,-0.333166,0.82074022,0
1.709324,3.3179426,-1.3586247,0.76551235,0.48950651,-0.41758129,0
1.5984048,-4.9565701,1.114706,0.51652616,-0.85451555,-0.054801181,0
-0.65760875,-2.2856531,-3.1271286,-0.45129091,-0.21728343,-0.8655194,0
3.4507093,-3.6476932,-1.8358159,0.51652616,-0.85451555,-0.054801181,0
-4.1103191,0.046288729,0.32952523,-0.85255146,-0.51918697,0.060005724,0
2.3194833,0.5142082,2.6424258,0.57211566,0.29679066,0.76459038,0
-0.55956674,5.3913112,1.8978932,-0.51652616,0.85451555,0.054801181,0
-1.1136615,5.2230744,-0.70139241,-0.51652616,0.85451555,0.054801181,0
-4.5032854,2.5552344,2.6678145,-0.59956193,-0.40662295,0.68933535,0
1.6120172,-4.8643942,-0.19427514,0.51652616,-0.85451555,-0.054801181,0
1.9955614,2.8397043,-1.3944926,0.76487505,0.4892177,-0.41908488,0
1.915251,-4.6614833,-0.50015545,0.51652616,-0.85451555,-0.054801181,0
2.9287939,-4.0574417,-0.3658874,0.51652616,-0.85451555,-0.054801181,0
2.9602523,1.7470975,0.6592052,0.84578639,0.49917078,0.1883443,0
-0.61837745,5.3066659,2.6634519,-0.51652616,0.85451555,0.054801181,0
2.6943266,-0.88981962,2.8600905,0.47534049,0.23291783,0.84841043,0
3.4313726,-1.0239687,-2.6903973,0.56793433,0.38978755,-0.72492498,0
-0.60480046,5.3125353,2.6998925,-0.51652616,0.85451555,0.054801181,0
-4.7494483,1.2624631,0.97736466,-0.82783055,-0.51470387,0.22310609,0
0.4231739,3.6776772,2.8333447,0.57535017,0.29895604,0.76131248,0
-4.2149353,1.9004073,-2.1106498,-0.66038173,-0.35680413,-0.66074663,0
-1.1622692,5.1768188,-0.43827701,-0.51652616,0.85451555,0.054801181,0
-3.0799439,4.0607519,-1.1103876,-0.51652616,0.85451555,0.054801181,0
-0.82369995,-5.2724729,0.46136904,-0.83372605,-0.51648462,0.19530559,0
2.6082635,-4.163188,-1.738142,0.51652616,-0.85451555,-0.054801181,0
1.2553163,-3.7343473,3.1873987,-0.18218392,-0.17220736,0.96806681,0
2.4848447,1.8260994,1.6963887,0.76454616,0.43143064,0.4788906,0
-2.706187,2.3929272,-3.1456058,-0.29057938,-0.1147242,-0.94994807,0
4.1302996,-3.2025766,-2.371084,0.51652616,-0.85451555,-0.054801181,0
2.2620881,-0.44503188,2.9757187,0.44181937,0.21114892,0.87190104,0
3.7374485,-3.0975046,2.8679309,0.41551518,0.19417688,0.88861799,0
4.5444431,-2.2734866,1.9786952,0.68129325,0.371364,0.63081515,0
-3.366415,3.9402599,-1.9316849,-0.51652616,0.85451555,0.054801181,0
-4.343523,0.42746353,0.30951095,-0.85349691,-0.51894486,0.047318578,0
-1.0389736,5.0466571,2.7534642,-0.51652616,0.85451555,0.054801181,0
4.8239646,-2.9951425,0.93251514,0.51652616,-0.85451555,-0.054801181,0
-3.9943459,3.4311991,0.087579161,-0.51652616,0.85451555,0.054801181,0
2.392277,2.6361547,0.84131002,0.8403942,0.49364209,0.22372949,0
-3.4941614,3.7788672,-0.61914682,-0.51652616,0.85451555,0.054801181,0
-0.74440861,4.0638533,-2.9713316,0.33251297,0.25914681,-0.9067955,0
-1.5257182,-1.9641305,-2.6719246,-0.58891928,-0.30806476,-0.7471745,0
-4.571497,1.283993,1.4958898,-0.7836436,-0.49754062,0.37196225,0
0.44001019,-5.5767574,-0.13308334,0.51652616,-0.85451555,-0.054801181,0
2.9989998,-1.0239697,-2.9837956,0.47498539,0.33918712,-0.81199807,0
1.5807059,-4.7860355,-1.7112641,0.51652616,-0.85451555,-0.054801181,0
0.36300468,-3.5880213,2.9662144,-0.35244662,-0.27049643,0.89588672,0
-1.298391,-2.6137514,2.404263,-0.58216655,-0.39739096,0.70933944,0
-3.3643603,3.9589205,-2.2032714,-0.51652616,0.85451555,0.054801181,0
3.9704568,-0.39782286,-1.5689508,0.768897,0.49103361,-0.40949157,0
0.19241786,-2.3806181,3.221184,-0.23385626,-0.20234589,0.95098221,0
-1.5630713,4.8626285,0.68315935,-0.51652616,0.85451555,0.054801181,0
-1.5917137,1.9830253,-3.3507092,-0.11046392,-0.0030332953,-0.99387538,0
3.8447828,0.27254057,0.59444189,0.84460503,0.49791574,0.19677877,0
-2.6483474,4.0917382,2.4744396,-0.51652616,0.85451555,0.054801181,0
2.3736145,-1.7357197,-3.4652877,0.25032425,0.21189661,-0.9446891,0
1.35821,2.5264161,-2.4040818,0.58368564,0.39819986,-0.70763552,0
-2.4191866,1.9545913,3.5013824,-0.23197734,-0.20125449,0.95167375,0
-0.13905334,0.0057117939,3.5075555,-4.2080879e-05,-0.06402503,0.99794811,0
1.7753292,-4.7307596,-0.73876762,0.51652616,-0.85451555,-0.054801181,0
0.35122395,-1.9213519,3.3355834,-0.14174592,-0.14844643,0.97870904,0
-1.4637644,5.1383514,-2.6801851,-0.51652616,0.85451555,0.054801181,0
4.9475708,-2.9041157,0.6781745,0.51652616,-0.85451555,-0.054801181,0
-4.0735965,0.0667665,-0.46181035,-0.84867609,-0.50238967,-0.16538811,0
-1.323653,0.32470942,3.4222877,-0.20866024,-0.18768194,0.9598105,0
-4.4230018,3.2692456,-1.4273403,-0.51652616,0.85451555,0.054801181,0
-4.1643777,1.7282634,2.4659817,-0.63448596,-0.42493162,0.64564747,0
-3.4300833,3.9357114,-2.4608624,-0.51652616,0.85451555,0.054801181,0
3.2864766,1.1937771,-0.73419142,0.83307827,0.5162999,-0.19853187,0
3.8566871,-3.7072458,2.919323,0.51652616,-0.85451555,-0.054801181,0
-3.662251,-0.1156342,-1.3348627,-0.79256803,-0.45289505,-0.40831524,0
-0.29971147,3.9969699,-2.8032112,0.41859585,0.30782175,-0.85441399,0
-3.1949935,-1.4265139,0.46444869,-0.84544545,-0.51909494,0.12554771,0
-2.3664737,4.5939841,-2.7003021,-0.51652616,0.85451555,0.054801181,0
3.6752882,-3.4230318,-3.2222164,0.51652616,-0.85451555,-0.054801181,0
-4.0614004,3.2880216,1.6881399,-0.51652616,0.85451555,0.054801181,0
-0.27348971,5.6038508,1.280149,-0.51652616,0.85451555,0.054801181,0
-0.13916397,-1.3599536,3.3471522,-0.1735847,-0.16716716,0.97052729,0
1.4241269,4.2621984,-0.56853032,0.83123624,0.51575893,-0.20745814,0
1.9603648,3.4660535,0.55985546,0.85229558,0.50691384,0.12895846,0
-3.1573853,4.0458808,-1.608425,-0.51652616,0.85451555,0.054801181,0
1.0362085,-5.2527609,0.43427014,0.51652616,-0.85451555,-0.054801181,0
1.8938574,-4.6138687,-1.4442589,0.51652616,-0.85451555,-0.054801181,0
-3.7263889,3.5659094,0.5126735,-0.51652616,0.85451555,0.054801181,0
-3.3565562,2.1714573,3.233377,-0.40316194,-0.29916158,0.86484838,0
4.4014115,-0.81437111,-1.1933041,0.80968368,0.50824445,-0.29342771,0
-0.35622263,1.392345,3.5560012,0.12972224,0.014830545,0.99143922,0
4.8873825,-1.3711672,-0.6351341,0.84578496,0.51914001,-0.12304956,0
-2.3909297,4.1930804,-3.2382748,0.0017277002,0.06503962,-0.99788105,0
4.9637418,-2.8302441,-0.3212961,0.51652616,-0.85451555,-0.054801181,0
-0.47839689,4.5308671,3.147634,0.49662018,0.24682453,0.83213311,0
-4.7652674,2.9817142,-0.16987371,-0.51652616,0.85451555,0.054801181,0
-1.5410398,4.8480787,1.1176815,-0.51652616,0.85451555,0.054801181,0
-3.6090899,3.6971688,-0.42847288,-0.51652616,0.85451555,0.054801181,0
-4.9987664,1.5748806,-0.29064345,-0.85091573,-0.5050965,-0.14429045,0
5.4912968,-2.565311,0.52004218,0.51652616,-0.85451555,-0.054801181,0
5.0525055,-2.8861303,1.3867785,0.51652616,-0.85451555,-0.054801181,0
5.4480925,-2.5808821,0.35562134,0.51652616,-0.85451555,-0.054801181,0
2.2237616,0.30008301,-2.8840718,0.4803648,0.34215525,-0.80757624,0
-1.375638,-2.3001244,2.5130134,-0.55791819,-0.3844111,0.73549676,0
2.8056128,-0.69521391,-2.9595859,0.47612825,0.33981809,-0.81106442,0
-1.0777509,4.0898757,3.5179193,0.31844592,0.13229218,0.93866432,0
-2.3889587,1.335804,-3.1020036,-0.35708416,-0.15679231,-0.92081833,0
-0.90856558,5.2309899,1.108299,-0.51652616,0.85451555,0.054801181,0
-0.066178083,5.6970348,1.7811489,-0.51652616,0.85451555,0.054801181,0
-1.5222068,5.1184707,-2.9210377,-0.51652616,0.85451555,0.054801181,0
2.9864826,-4.0207324,-0.39455122,0.51652616,-0.85451555,-0.054801181,0
0.047334909,5.9593754,-1.2396166,-0.51652616,0.85451555,0.054801181,0
0.46129346,-3.1698291,-3.4379904,-0.33091277,-0.14017896,-0.93319142,0
1.5040512,-4.9322538,-0.15378666,0.51652616,-0.85451555,-0.054801181,0
0.74190491,4.8470421,-1.3370986,0.75585836,0.48509154,-0.43973204,0
-2.3455536,4.2381868,3.0448236,-0.51652616,0.85451555,0.054801181,0
2.9972856,-4.1966805,2.45083,0.51652616,-0.85451555,-0.054801181,0
-4.0958586,3.4522033,-1.1967273,-0.51652616,0.85451555,0.054801181,0
5.1103287,-1.9796915,0.77932858,0.82718849,0.48142159,0.28981388,0
1.1891936,4.5254297,1.164597,0.82923341,0.48323494,0.28081203,0
-2.9275525,4.141233,-0.928976,-0.51652616,0.85451555,0.054801181,0
3.8699958,0.34191537,0.18607736,0.85533279,0.51190686,0.07972908,0
-3.5007,3.6511173,1.3112289,-0.51652616,0.85451555,0.054801181,0
1.7015433,-2.5969167,3.3331606,0.055912852,-0.030204073,0.99797857,0
4.2258983,-1.0941565,-1.8898566,0.73199952,0.47386268,-0.48952115,0
0.31665313,3.9949405,-2.430202,0.55047643,0.38040352,-0.74314797,0
-1.525198,-0.30403268,-3.1555359,-0.38336903,-0.17355762,-0.90714133,0
1.8218174,-4.889411,3.0865273,-0.20998919,-0.18845688,0.95936871,0
1.9871964,-4.4658732,-2.8721914,0.51652616,-0.85451555,-0.054801181,0
1.5813465,-4.6867275,-3.2537308,0.51652616,-0.85451555,-0.054801181,0
1.3833855,-5.0777798,0.97806847,0.51652616,-0.85451555,-0.054801181,0
4.5569363,-2.951859,-2.2592764,0.51652616,-0.85451555,-0.054801181,0
-1.1203823,5.0865712,1.3637638,-0.51652616,0.85451555,0.054801181,0
-3.5396574,3.6725693,0.60955292,-0.51652616,0.85451555,0.054801181,0
-0.82822108,-1.4063194,-3.2390623,-0.37704551,-0.16951676,-0.91054946,0
-1.2012621,-1.7954638,2.8559966,-0.45497295,-0.32810727,0.82785577,0
2.1483696,-3.4167075,3.2830665,0.045728862,-0.036380067,0.99829102,0
-1.2830477,5.1691012,-1.4563369,-0.51652616,0.85451555,0.054801181,0
0.16831136,-0.12232345,3.4938092,0.048088908,-0.034949586,0.99823117,0
-2.9137077,2.09693,-3.0275497,-0.37042493,-0.16529121,-0.91403711,0
-0.086622357,5.7314138,1.0523782,-0.51652616,0.85451555,0.054801181,0
-0.27516913,-1.6803988,3.2549503,-0.24323243,-0.20778695,0.94745052,0
3.5468063,-3.6198697,-1.3639128,0.51652616,-0.85451555,-0.054801181,0
1.5513978,4.199265,0.14283562,0.85571438,0.51743978,-0.0029498339,0
-5.4865317,2.53372,0.017459154,-0.51652616,0.85451555,0.054801181,0
-1.3747709,4.8169823,3.169744,-0.51652616,0.85451555,0.054801181,0
-1.9725053,4.591454,1.0524728,-0.51652616,0.85451555,0.054801181,0
2.3417416,-4.6196051,2.8667116,0.51652616,-0.85451555,-0.054801181,0
0.62994665,5.7236805,0.24296141,0.85573494,0.51740909,-0.002276659,0
2.5596704,2.4988089,-0.29819298,0.84892434,0.51941025,-0.097673893,0
0.053700447,2.98667,3.2609491,0.41426694,0.19337374,0.88937563,0
-4.5410938,3.0272369,1.2332292,-0.51652616,0.85451555,0.054801181,0
-0.76115251,-3.5360136,-2.6173344,-0.62654001,-0.33354783,-0.70440966,0
2.6940663,0.52563131,-2.4231689,0.61105812,0.41268474,-0.67549926,0
-4.3890061,3.0839643,1.7821753,-0.51652616,0.85451555,0.054801181,0
1.7446311,-4.8267174,0.46816015,0.51652616,-0.85451555,-0.054801181,0
2.0657566,1.8553462,-2.1679525,0.64918864,0.43253782,-0.6256718,0
-2.7479041,3.7104468,3.7307296,-0.077555895,-0.11042455,0.99085385,0
1.5335859,3.3635471,1.8295403,0.76023304,0.4282037,0.48855591,0
4.3893943,-3.115859,-1.2811731,0.51652616,-0.85451555,-0.054801181,0
0.31537104,-5.5278044,-2.0711994,0.51652616,-0.85451555,-0.054801181,0
2.844722,-3.9511509,-2.8157053,0.51652616,-0.85451555,-0.054801181,0
2.269104,-4.3191743,-2.5025718,0.51652616,-0.85451555,-0.054801181,0
1.6764793,0.28090364,-3.1621556,0.36104923,0.2753804,-0.8909595,0
2.0235665,3.370502,0.51617885,0.85313249,0.50810277,0.11830664,0
-4.9304562,2.3090091,-1.5146551,-0.75392503,-0.42351392,-0.50222754,0
2.3591139,-4.5554538,2.030128,0.51652616,-0.85451555,-0.054801181,0
-1.4728584,4.9443307,0.25947475,-0.51652616,0.85451555,0.054801181,0
-2.9614837,3.8566356,3.1889534,-0.51652616,0.85451555,0.054801181,0
0.1346159,-5.6446948,-1.9522367,0.51652616,-0.85451555,-0.054801181,0
3.0688543,1.4566606,0.8917737,0.83379138,0.48736596,0.25935733,0
4.6572552,-2.3769565,-2.4044371,0.65642881,0.43625876,-0.61545062,0
2.8325424,-4.2146549,1.1783303,0.51652616,-0.85451555,-0.054801181,0
-3.4124956,3.6269655,2.5192037,-0.51652616,0.85451555,0.054801181,0
-4.2716322,3.3977604,-2.0045595,-0.51652616,0.85451555,0.054801181,0
-2.7673545,0.53229904,-2.7059259,-0.53447831,-0.27174985,-0.80030274,0
5.1981459,-2.7365994,0.42786849,0.51652616,-0.85451555,-0.054801181,0
-1.5426056,4.8331532,1.3356655,-0.51652616,0.85451555,0.054801181,0
-1.1817887,4.9350905,3.1470215,-0.51652616,0.85451555,0.054801181,0
-1.5472392,5.0689373,-2.3845935,-0.51652616,0.85451555,0.054801181,0
2.5668166,-4.4202042,1.8788767,0.51652616,-0.85451555,-0.054801181,0
-1.6601365,2.3980265,-3.3408475,-0.072382569,0.020197019,-0.99717224,0
-0.55118608,2.8636005,-3.2061033,0.21972948,0.19413173,-0.95604998,0
-3.657968,-0.66970837,0.47412062,-0.84691423,-0.51926994,0.11443281,0
-1.5508348,-4.1876683,0.060800552,-0.85248721,-0.51919943,0.060806155,0
2.8370063,-3.9664392,-2.6500208,0.51652616,-0.85451555,-0.054801181,0
-3.0851796,-1.6179049,-0.38739824,-0.85346639,-0.5086028,-0.11365736,0
0.021871567,5.2350283,2.4427562,0.68451947,0.37362495,0.62596875,0
0.84733653,2.0837722,-2.9305058,0.41658613,0.30669582,-0.85579997,0
-1.4935817,5.0614238,-1.7616962,-0.51652616,0.85451555,0.054801181,0
-1.2614491,0.5728488,-3.3536546,-0.21913731,-0.07005021,-0.97317588,0
-3.7538443,-0.442348,-0.55307055,-0.84663433,-0.50009102,-0.18198645,0
0.23309243,-5.8031368,1.4465623,0.51652616,-0.85451555,-0.054801181,0
2.0075595,3.3282609,-0.54802608,0.83584535,0.51706648,-0.18440318,0
-2.7827773,1.8778279,-3.0409884,-0.37073648,-0.16548988,-0.91387475,0
4.5020313,-3.2583175,2.0018456,0.51652616,-0.85451555,-0.054801181,0
1.9927901,-4.730135,1.3011581,0.51652616,-0.85451555,-0.054801181,0
5.5518003,-2.4900613,-0.083052874,0.51652616,-0.85451555,-0.054801181,0
-1.8328705,-1.5625359,-2.5943522,-0.60199147,-0.31687963,-0.73293459,0
-1.6190197,5.0373135,-2.5680547,-0.51652616,0.85451555,0.054801181,0
2.4685941,-4.2486844,-1.7214347,0.51652616,-0.85451555,-0.054801181,0
-3.7044044,0.66010404,-1.9280159,-0.70836842,-0.39047587,-0.58799851,0
-3.452764,3.9167695,-2.3792729,-0.51652616,0.85451555,0.054801181,0
-4.6970973,1.0586066,-0.25812078,-0.85256392,-0.50728631,-0.1256789,0
1.2651997,-4.5954723,-3.5084734,-0.34286165,-0.14775431,-0.92769283,0
-1.7822895,4.7228703,0.79617834,-0.51652616,0.85451555,0.054801181,0
4.5416398,-1.3609102,-1.6511357,0.76643336,0.48992321,-0.41539741,0
2.3541219,1.1701282,-2.3360889,0.6218254,0.41833168,-0.66206634,0
-0.90386057,-3.9695394,-2.2274218,-0.70795333,-0.39018035,-0.58869433,0
-1.927927,4.7624984,-1.1944492,-0.51652616,0.85451555,0.054801181,0
-1.0725958,-1.1424708,3.1395683,-0.34337783,-0.26533851,0.90093678,0
3.0991848,-4.1372604,3.1852322,0.15325212,0.029289991,0.98775262,0
4.6993771,-3.1178741,1.6719775,0.51652616,-0.85451555,-0.054801181,0
0.83586907,3.6039419,2.5145407,0.64992708,0.3495819,0.67482358,0
-3.0883565,-1.5695028,0.57467151,-0.84024733,-0.51814437,0.15972096,0
-1.4759128,5.143343,-2.8725209,-0.51652616,0.85451555,0.054801181,0
1.2465734,-3.8991847,-3.5921402,-0.25963253,-0.09530957,-0.96099246,0
-3.7733188,3.4897251,1.2582734,-0.51652616,0.85451555,0.054801181,0
-1.4162521,5.0218978,-0.41648829,-0.51652616,0.85451555,0.054801181,0
0.7524929,-5.1215305,-3.1347489,-0.51358443,-0.25796321,-0.81834316,0
-0.31888652,-5.8721642,0.87071228,-0.80029047,-0.50452828,0.32401586,0
4.790081,-3.0637274,1.6825939,0.51652616,-0.85451555,-0.054801181,0
0.31418467,-5.6590943,-0.035171747,0.51652616,-0.85451555,-0.054801181,0
0.29582119,4.7300558,2.4441779,0.67823815,0.36922675,0.6353457,0
-3.4077601,3.8243189,-0.51349449,-0.51652616,0.85451555,0.054801181,0
0.89243627,-5.1350636,-2.756119,0.51652616,-0.85451555,-0.054801181,0
2.460994,-4.4560318,3.2204278,-0.020354986,-0.076235145,0.9968819,0
-1.3486893,5.0963044,-0.93990445,-0.51652616,0.85451555,0.054801181,0
-1.8937488,-3.3709512,0.8613956,-0.81485283,-0.51019758,0.27516007,0
5.3793898,-2.1335621,-0.25997305,0.85574335,0.51739657,-0.0020028949,0
-0.75976777,5.2880545,1.62098,-0.51652616,0.85451555,0.054801181,0
0.75904548,5.4209404,0.80032253,0.84910905,0.50289524,0.16158605,0
0.80957514,-5.3422494,-0.30645204,0.51652616,-0.85451555,-0.054801181,0
2.126399,-0.28017342,-3.1514127,0.38463134,0.28872398,-0.87675375,0
-0.11618742,-5.9618731,0.62959909,0.51652616,-0.85451555,-0.054801181,0
0.71645701,5.3441887,1.149138,0.83332914,0.48694086,0.26163042,0
-2.8041244,-0.26700449,-2.3467565,-0.64007545,-0.34280783,-0.68759429,0
-4.6043577,0.87172413,-0.099998713,-0.85542494,-0.51211274,-0.077386379,0
3.5606334,0.72476327,0.66828561,0.84270614,0.49595433,0.20946491,0
-0.61308473,5.4916892,-0.17174983,-0.51652616,0.85451555,0.054801181,0
0.16732705,5.0834317,-1.9048839,0.66071129,0.43845156,-0.60927898,0
3.2198522,-0.28221822,2.2312558,0.65696871,0.35444245,0.66540366,0
0.92012024,2.4083056,-2.7661235,0.47408918,0.33869222,-0.81272817,0
-0.47828531,-3.4125805,-2.8932536,-0.55394882,-0.28466907,-0.78237057,0
-2.5042222,4.1849256,2.3798223,-0.51652616,0.85451555,0.054801181,0
1.421929,3.956212,1.4122143,0.80820763,0.46539289,0.36084557,0
-3.0424058,1.8114686,-2.9108925,-0.43244123,-0.20508724,-0.87802804,0
-3.8857007,3.4975281,0.077354997,-0.51652616,0.85451555,0.054801181,0
1.5775018,-3.2850766,3.2886753,-0.057214737,-0.098299414,0.99351072,0
1.4044547,-0.33134294,-3.4053192,0.22488773,0.1971333,-0.9542346,0
1.2593544,-5.0469213,2.8783245,-0.34936458,-0.26874459,0.89761937,0
2.0380144,-4.4257526,-3.0188174,0.51652616,-0.85451555,-0.054801181,0
-1.6840374,-3.8940172,0.42152023,-0.840442,-0.51818717,0.1585533,0
4.4902563,-3.0693007,-1.0565003,0.51652616,-0.85451555,-0.054801181,0
-5.0994205,2.8456984,-1.1985246,-0.51652616,0.85451555,0.054801181,0
-2.7719996,3.4818864,-3.2160456,-0.16760898,-0.038137332,-0.98511535,0
-1.2556565,5.081131,0.17356968,-0.51652616,0.85451555,0.054801181,0
0.73335695,-4.5676837,-3.2794819,-0.4489187,-0.21574584,-0.86713612,0
-4.3063622,3.2541604,-0.092731476,-0.51652616,0.85451555,0.054801181,0
-1.4757582,-4.3055406,0.1014092,-0.85129589,-0.51936126,0.074558139,0
2.6164014,-4.3266077,0.8867799,0.51652616,-0.85451555,-0.054801181,0
-1.3368897,5.0223703,0.32415605,-0.51652616,0.85451555,0.054801181,0
-4.8938637,1.3452029,-0.030253887,-0.85579854,-0.51305634,-0.066195369,0
0.093924999,-2.4817038,3.1723232,-0.26763207,-0.22190528,0.93761981,0
2.1444707,-3.9726102,-3.7458243,-0.082038105,0.014319152,-0.99652606,0
-0.085546017,4.7427278,2.7950916,0.60278326,0.31741485,0.73205173,0
-3.6103599,3.6929402,-0.3745029,-0.51652616,0.85451555,0.054801181,0
-5.3834143,2.5979471,-0.99252605,-0.80815291,-0.46534842,-0.36102498,0
-4.659719,1.1011753,-0.56958532,-0.84188437,-0.49512389,-0.21466875,0
-2.9741187,-0.93996078,-1.7116258,-0.75541568,-0.4246192,-0.49904424,0
0.74165642,-5.4948225,1.4324548,0.51652616,-0.85451555,-0.054801181,0
-0.86026978,3.8610759,3.4755881,0.33480901,0.14264742,0.93142593,0
-3.2605877,3.8350105,0.70695984,-0.51652616,0.85451555,0.054801181,0
-1.9214411,-2.8506653,1.5110139,-0.74978775,-0.48227444,0.45302284,0
4.2314081,-3.2999091,0.099626839,0.51652616,-0.85451555,-0.054801181,0
-2.8672605,-0.25744772,-2.2916684,-0.65165091,-0.35077024,-0.67254061,0
1.5307693,2.0852959,2.6164167,0.60480857,0.31878468,0.72978246,0
2.776659,-1.821584,3.0331786,0.37648451,0.16915846,0.91084808,0
-0.37274218,-4.5067186,2.0883279,-0.62953067,-0.42235377,0.65215665,0
2.6660786,-2.1840861,-3.4883037,0.25486225,0.21452373,-0.94288105,0
-4.2100096,0.31214023,0.77258968,-0.83632576,-0.5171932,0.18185228,0
0.11165881,-4.0508041,2.6832128,-0.46574962,-0.33408111,0.81943095,0
3.3570695,-0.013300538,-2.1077998,0.68453455,0.45053121,-0.57309169,0
0.52389503,5.1342659,1.8452406,0.77214676,0.43716139,0.46117097,0
-2.0905023,4.386096,3.142453,-0.51652616,0.85451555,0.054801181,0
-1.355428,4.8242035,3.2394586,-0.51652616,0.85451555,0.054801181,0
-3.688827,3.7684593,-2.2916739,-0.51652616,0.85451555,0.054801181,0
3.0273583,-1.5922704,2.8649392,0.45656008,0.22070163,0.86188358,0
-0.1807909,-4.5088267,-2.6728821,-0.62809151,-0.33460668,-0.70252305,0
-1.6750405,5.0227103,-2.8683667,-0.51652616,0.85451555,0.054801181,0
-0.89027691,5.2920575,0.32845664,-0.51652616,0.85451555,0.054801181,0
2.7946699,-4.0351462,-1.9777294,0.51652616,-0.85451555,-0.054801181,0
2.28793,2.1087539,1.7554898,0.75941849,0.42759615,0.49035156,0
0.24285567,-5.5873585,-1.826066,0.51652616,-0.85451555,-0.054801181,0
-3.6749244,3.6057854,0.37595847,-0.51652616,0.85451555,0.054801181,0
2.1736336,-4.504158,-0.51796222,0.51652616,-0.85451555,-0.054801181,0
3.83307,-1.7046993,-2.7416906,0.56582344,0.3886562,-0.72717965,0
-1.7777302,-2.2806032,-2.285706,-0.67849863,-0.36940882,-0.63496155,0
-1.6555507,-2.6392627,-2.2037818,-0.69747108,-0.38274479,-0.60583818,0
-0.69064808,5.4421854,-0.13090181,-0.51652616,0.85451555,0.054801181,0
4.227128,-3.1363516,-2.4910839,0.51652616,-0.85451555,-0.054801181,0
0.91251564,3.1415305,2.6672993,0.60890484,0.32155824,0.72514462,0
5.379704,-2.2784867,-0.98013139,0.83170843,0.51589978,-0.20520306,0
4.0217094,-1.8863513,-2.6902671,0.58284885,0.39775437,-0.70857513,0
2.526293,-4.2660561,-0.90672612,0.51652616,-0.85451555,-0.054801181,0
4.6309381,-3.110785,0.91636467,0.51652616,-0.85451555,-0.054801181,0
-0.29862833,5.5159307,2.4141567,-0.51652616,0.85451555,0.054801181,0
-2.5720482,4.4173012,-1.8829286,-0.51652616,0.85451555,0.054801181,0
-1.3340143,5.1524367,-1.676856,-0.51652616,0.85451555,0.054801181,0
-2.4102433,0.11428356,-2.8003111,-0.51314729,-0.25767559,-0.818708,0
5.2389822,-2.6741815,-0.16051555,0.51652616,-0.85451555,-0.054801181,0
3.6151369,-3.589664,-1.190854,0.51652616,-0.85451555,-0.054801181,0
3.8658283,-3.6040664,1.3966011,0.51652616,-0.85451555,-0.054801181,0
2.6564283,-4.0847278,-2.5075812,0.51652616,-0.85451555,-0.054801181,0
-2.4217072,-0.20492864,-2.68435,-0.55486631,-0.28527972,-0.78149754,0
-1.256876,-0.95997566,3.122292,-0.35910743,-0.27427876,0.89208341,0
-2.7044897,-0.26522899,-2.4372518,-0.61971146,-0.32889551,-0.71259034,0
1.550234,-4.8187537,-1.4882886,0.51652616,-0.85451555,-0.054801181,0
1.0353127,-4.5195599,-3.4310877,-0.38082069,-0.17192864,-0.90852386,0
-3.4522657,0.52532673,-2.1286044,-0.67416781,-0.36638483,-0.64129514,0
-1.9658241,4.5187626,2.2489362,-0.51652616,0.85451555,0.054801181,0
3.5264602,-3.6342211,-1.3319014,0.51652616,-0.85451555,-0.054801181,0
-3.8759978,0.49991894,-1.5707142,-0.76162595,-0.42924398,-0.48546362,0
-2.94661,0.41278696,-2.5319397,-0.58569443,-0.30589616,-0.75059241,0
1.1149577,4.8072176,0.83517313,0.84655362,0.50000274,0.18260306,0
0.64209628,2.6594262,3.0339992,0.49442405,0.24538596,0.83386463,0
3.6910238,-0.015695572,1.4209991,0.78273052,0.44524741,0.43484151,0
-1.506377,-1.4332449,2.830482,-0.47341767,-0.3383213,0.81327379,0
0.15766764,-4.8317661,-2.8157823,-0.59907037,-0.31490645,-0.73617101,0
-2.8116698,3.958734,3.0089965,-0.51652616,0.85451555,0.054801181,0
1.1788211,-5.1088614,-0.46537352,0.51652616,-0.85451555,-0.054801181,0
-4.6116285,1.9514766,2.128937,-0.70275545,-0.45961756,0.54303449,0
-3.6851749,0.027307749,1.6550331,-0.75516343,-0.4847706,0.44127724,0
-2.7207723,-0.60807502,-2.2492244,-0.6648376,-0.35989338,-0.65457416,0
-0.98935521,-4.7047958,-1.4146938,-0.81201231,-0.46851414,-0.3480376,0
4.6013184,-2.9897828,-1.2496068,0.51652616,-0.85451555,-0.054801181,0
1.0764947,-5.1157279,-1.3227761,0.51652616,-0.85451555,-0.054801181,0
1.0130024,0.044368826,-3.416754,0.19017208,0.17688312,-0.96568459,0
4.5157413,-1.4050622,1.3588085,0.77978301,0.44298199,0.44238526,0
-1.7207093,4.7975283,0.21245217,-0.51652616,0.85451555,0.054801181,0
-1.9252568,4.520587,2.6028471,-0.51652616,0.85451555,0.054801181,0
2.6758008,1.9585012,-1.143116,0.79828137,0.50370955,-0.33018702,0
3.3902831,-3.5798378,-3.463423,0.51652616,-0.85451555,-0.054801181,0
-1.3395443,-3.1658864,-2.2348812,-0.69793564,-0.38307318,-0.60509521,0
-1.4984386,5.0665321,-1.8871288,-0.51652616,0.85451555,0.054801181,0
-3.5414515,3.7581,-0.74105358,-0.51652616,0.85451555,0.054801181,0
-2.0265458,0.18261743,-3.0306058,-0.42601323,-0.20093927,-0.88212001,0
3.0810738,-4.147841,2.4790354,0.51652616,-0.85451555,-0.054801181,0
4.2185097,-1.3372917,1.7523711,0.72924674,0.40545714,0.55118346,0
-0.2642076,-1.1235605,3.3654685,-0.16982013,-0.16495855,0.97157061,0
3.9618139,0.17648435,-0.46096063,0.8484723,0.51939052,-0.10162765,0
-2.5847292,0.55526304,3.0270877,-0.44695932,-0.3236542,0.83395165,0
3.303885,-3.9051394,0.79467148,0.51652616,-0.85451555,-0.054801181,0
0.18750167,3.5429499,3.0423889,0.51068044,0.25605318,0.82075661,0
-2.5967135,4.3484416,-1.0416822,-0.51652616,0.85451555,0.054801181,0
4.9646959,-2.7649622,-1.3302505,0.51652616,-0.85451555,-0.054801181,0
0.37651706,5.954648,-0.55224395,0.82534087,0.51389343,-0.23393565,0
-2.5370197,4.4182539,-1.5676136,-0.51652616,0.85451555,0.054801181,0
-0.27976656,-3.9936111,2.457849,-0.54235792,-0.37601915,0.75130379,0
-3.9653964,-0.1787684,0.41659212,-0.84986955,-0.51942474,0.088990629,0
0.96112406,5.1494985,-0.094279766,0.84997535,0.5194239,-0.087981164,0
1.6995547,3.6182594,-0.96909571,0.80448878,0.50621319,-0.31071848,0
3.4778194,-3.7535172,0.069828704,0.51652616,-0.85451555,-0.054801181,0
1.4243945,-4.9031506,-1.3583825,0.51652616,-0.85451555,-0.054801181,0
4.7207174,-3.0410838,2.2097549,0.62328833,0.33133087,0.70832968,0
-2.496835,3.4187822,3.7172792,-0.061850607,-0.10106599,0.99295515,0
-4.4852238,1.6624279,-1.6354463,-0.74317133,-0.41559279,-0.52438384,0
5.0419936,-2.2038221,1.2286429,0.78824228,0.4495149,0.42024988,0
-5.1111741,2.6654301,1.5016192,-0.51652616,0.85451555,0.054801181,0
-0.60903573,5.2164521,3.0067699,0.55457211,0.28508395,0.78177762,0
-0.64179945,4.2374921,-2.8778901,0.37666112,0.28422165,-0.88167131,0
0.54743099,-5.4649,-0.86480236,0.51652616,-0.85451555,-0.054801181,0
-4.3657928,3.3487592,-2.1279922,-0.51652616,0.85451555,0.054801181,0
3.6121831,0.78996527,-0.081046581,0.85566723,0.51750702,-0.0044425726,0
1.1987422,-5.2532086,1.9731975,0.51652616,-0.85451555,-0.054801181,0
0.60499334,-5.3422146,-2.235285,0.51652616,-0.85451555,-0.054801181,0
5.064249,-2.7963648,0.097755075,0.51652616,-0.85451555,-0.054801181,0
1.402413,-4.8800406,-1.9259238,0.51652616,-0.85451555,-0.054801181,0
4.6160231,-3.1091099,0.74965942,0.51652616,-0.85451555,-0.054801181,0
3.8171966,0.45016682,-0.1376586,0.85530543,0.51792467,-0.014364481,0
-0.32746005,-4.8785419,1.8780588,-0.66863525,-0.44249249,0.59760118,0
-1.5980685,4.7259274,2.4848819,-0.51652616,0.85451555,0.054801181,0
-4.5474443,3.1428785,-0.62982798,-0.51652616,0.85451555,0.054801181,0
0.25897264,-5.5702081,-1.9415751,0.51652616,-0.85451555,-0.054801181,0
2.4166884,1.9886578,-1.608281,0.74404192,0.47958165,-0.4651913,0
3.6471374,-3.5066452,-2.1837542,0.51652616,-0.85451555,-0.054801181,0
0.95606232,-0.9603219,3.4182043,0.10682154,0.00080575049,0.99427772,0
1.4397629,1.4894012,-2.8456924,0.46642175,0.33445308,-0.81889665,0
1.601998,-4.9936633,1.726979,0.51652616,-0.85451555,-0.054801181,0
-3.0149505,2.2900157,-3.0214033,-0.36723465,-0.16325676,-0.91568846,0
0.60175562,4.5291576,-1.8278422,0.68244219,0.44947886,-0.57640374,0
-1.3576612,-2.7084911,2.2984066,-0.60738641,-0.41075224,0.67997378,0
3.2136819,-3.8549519,-0.83811742,0.51652616,-0.85451555,-0.054801181,0
2.7827377,0.42194629,2.287694,0.65465713,0.35284495,0.66852403,0
-1.8336861,-2.8586705,-1.8050444,-0.75923252,-0.42745751,-0.49076033,0
0.50201309,-5.6758313,1.9961827,0.51652616,-0.85451555,-0.054801181,0
4.7692556,-1.1266727,-0.2836256,0.85471469,0.51838732,-0.027146876,0
-0.72640669,-5.1329246,-1.4518104,-0.81121933,-0.4678604,-0.35075575,0
2.6261225,-4.0601745,-3.1760833,0.51652616,-0.85451555,-0.054801181,0
3.567143,-3.4718118,-3.4809024,0.51652616,-0.85451555,-0.054801181,0
-2.282393,4.2937012,2.7745199,-0.51652616,0.85451555,0.054801181,0
-2.0967727,4.5798774,0.061718941,-0.51652616,0.85451555,0.054801181,0
-2.0267274,-3.0684614,-1.1907926,-0.82116055,-0.47619212,-0.31454098,0
4.4710302,-1.6630745,-2.0660305,0.71018076,0.4632771,-0.53011101,0
-2.3989005,-2.5307105,-1.024888,-0.82996887,-0.48389274,-0.27748704,0
2.9406013,-3.0479655,3.1498744,0.25711459,0.093734205,0.96182406,0
-1.7715852,4.7909422,-0.16438031,-0.51652616,0.85451555,0.054801181,0
-0.97430658,-1.3729709,3.1089025,-0.35210365,-0.27030155,0.89608037,0
1.0452898,-0.4865407,-3.4981604,0.12932527,0.14111812,-0.98150921,0
3.7322414,-3.4028668,-2.9998405,0.51652616,-0.85451555,-0.054801181,0
-4.5009427,1.1313167,1.4393169,-0.78857487,-0.49965557,0.35846049,0
3.5093389,-3.6256857,-1.6263605,0.51652616,-0.85451555,-0.054801181,0
-0.88895845,2.3299696,3.6115565,0.13681334,0.019182786,0.99041092,0
-1.8251435,4.7798414,-0.496086,-0.51652616,0.85451555,0.054801181,0
1.593996,2.0834029,2.5637896,0.61738926,0.32731628,0.71532786,0
-0.087510169,-5.8766627,-0.42878771,0.51652616,-0.85451555,-0.054801181,0
0.23470306,-2.8515868,-3.4052944,-0.33798289,-0.14465933,-0.92996824,0
5.4179111,-2.5572577,0.85419583,0.8193922,0.47468615,0.3213554,0
-1.7305276,4.8883934,-1.2969413,-0.51652616,0.85451555,0.054801181,0
-2.7043366,4.3398976,-1.9228394,-0.51652616,0.85451555,0.054801181,0
-1.3574505,4.7063003,3.5248332,0.33764505,0.14444515,0.93012416,0
-0.65206909,5.5286889,-1.1161203,-0.51652616,0.85451555,0.054801181,0
-5.1772842,2.6437988,1.2158011,-0.51652616,0.85451555,0.054801181,0
-3.6028013,3.8615704,-2.9327145,-0.51652616,0.85451555,0.054801181,0
-1.7521964,4.6905756,1.5833871,-0.51652616,0.85451555,0.054801181,0
5.3291569,-2.1300893,-0.78760242,0.84139103,0.51838899,-0.15275413,0
1.4416888,-4.8702703,-1.7080772,0.51652616,-0.85451555,-0.054801181,0
-3.3359742,-1.1843436,0.51494098,-0.84403086,-0.51888132,0.13555056,0
1.5285809,-2.1145456,3.3559718,0.080695271,-0.015137076,0.99662369,0
0.33242583,-5.4889016,-2.5170681,0.51652616,-0.85451555,-0.054801181,0
-0.98246479,-3.6891966,-2.3146863,-0.68977171,-0.37731475,-0.61793852,0
1.2658843,-5.0615444,-0.38257551,0.51652616,-0.85451555,-0.054801181,0
1.5462756,0.46835297,-3.1569395,0.35745448,0.27334064,-0.89303482,0
0.98258376,-5.1608896,-1.5037282,0.51652616,-0.85451555,-0.054801181,0
3.0978162,0.88613158,1.5626061,0.77333516,0.43806285,0.45831561,0
2.2155972,-1.4406374,3.1797788,0.30817604,0.12580808,0.94297373,0
4.0446973,-0.3558495,1.0986276,0.81131661,0.46794057,0.35042357,0
-4.2270665,3.1907291,1.6437438,-0.51652616,0.85451555,0.054801181,0
0.46694827,-1.5204339,-3.5684543,-0.12278056,-0.010574371,-0.99237728,0
-2.8853436,3.2237332,3.6454248,-0.16841602,-0.16413447,0.97195452,0
2.6228375,-4.3203516,0.84989119,0.51652616,-0.85451555,-0.054801181,0
-2.7017765,4.3642797,-2.2789044,-0.51652616,0.85451555,0.054801181,0
-1.3246281,4.8719459,-2.9519882,0.31302893,0.24801034,-0.91678977,0
-4.0560799,3.4615173,-0.96703237,-0.51652616,0.85451555,0.054801181,0
-0.659042,5.5640607,-1.7333989,-0.51652616,0.85451555,0.054801181,0
2.5028601,-4.1125374,-3.5213995,0.51652616,-0.85451555,-0.054801181,0
0.65585208,-1.1925037,-3.5794561,-0.04194206,0.038674176,-0.99837101,0
-0.30295041,5.6486759,0.30351877,-0.51652616,0.85451555,0.054801181,0
-0.89874458,-0.33043212,-3.3664632,-0.2571708,-0.093769401,-0.96180558,0
-0.01941371,-4.5658994,2.3575244,-0.56079936,-0.38595974,0.73248827,0
2.8554029,1.7869527,-0.95051122,0.81582946,0.51055789,-0.2715745,0
2.7491834,-4.1006169,-1.3855749,0.51652616,-0.85451555,-0.054801181,0
0.89234507,-5.3925543,1.2580782,0.51652616,-0.85451555,-0.054801181,0
-2.1446471,4.377707,2.7629285,-0.51652616,0.85451555,0.054801181,0
0.68168211,0.19223881,3.4275866,0.19476634,0.054925367,0.97931039,0
-0.91407323,3.8054681,3.5024662,0.31674278,0.13121612,0.9393912,0
-1.8738493,4.8608642,-2.2185779,-0.51652616,0.85451555,0.054801181,0
3.9307873,-0.10850334,1.0287676,0.81808138,0.4735772,0.32629293,0
0.28009069,5.9564943,0.99912071,-0.51652616,0.85451555,0.054801181,0
-1.5782857,1.9225919,-3.3519597,-0.1152823,-0.0059818327,-0.99331462,0
-4.0101385,2.3172383,-2.4763489,-0.56787127,-0.29395255,-0.76883906,0
-2.8337693,3.152107,3.6422582,-0.1666702,-0.16310954,0.97242796,0
-1.6281488,3.4527812,-3.274725,0.067866743,0.10465354,-0.99219018,0
1.8522675,-4.7178726,-0.21452558,0.51652616,-0.85451555,-0.054801181,0
-0.49092937,-4.9641356,1.6059427,-0.71587479,-0.46606475,0.51991045,0
-4.2116632,3.2304611,1.1693794,-0.51652616,0.85451555,0.054801181,0
2.2202268,-1.1762669,3.1395783,0.34215999,0.14730912,0.9280225,0
4.3838701,-3.1608505,-0.63169229,0.51652616,-0.85451555,-0.054801181,0
4.4175224,-0.5534668,-0.35288239,0.85275793,0.51914394,-0.057388783,0
3.1409645,-3.6758504,3.1537855,0.21993774,0.070547909,0.97295934,0
1.6322761,-4.7631721,-1.5816982,0.51652616,-0.85451555,-0.054801181,0
-1.8222656,0.38166696,3.2986112,-0.30692995,-0.24451584,0.91978574,0
-0.38261533,3.6927898,3.3106401,0.41231465,0.19211805,0.89055425,0
3.2962241,0.49843025,1.5970438,0.76628482,0.43273646,0.47491723,0
-0.34606588,5.7565737,-1.7853247,-0.51652616,0.85451555,0.054801181,0
-3.9492803,0.91759634,-1.7996962,-0.72615671,-0.40322453,-0.55687147,0
3.0074675,-3.7969694,-3.6859047,0.51652616,-0.85451555,-0.054801181,0
4.0828028,-3.278089,-1.6412892,0.51652616,-0.85451555,-0.054801181,0
0.059106946,5.8560381,0.48265982,-0.51652616,0.85451555,0.054801181,0
-2.9584041,-0.91386354,-1.756808,-0.74919808,-0.42002115,-0.51213664,0
3.5056469,-3.5308595,-3.1397932,0.51652616,-0.85451555,-0.054801181,0
-5.0959716,2.8774877,-1.6617097,-0.51652616,0.85451555,0.054801181,0
0.2930578,-5.6118064,-0.97166491,0.51652616,-0.85451555,-0.054801181,0
-1.6342449,4.8216066,0.65196466,-0.51652616,0.85451555,0.054801181,0
2.7113872,-4.1448393,-1.0522634,0.51652616,-0.85451555,-0.054801181,0
3.7499607,-2.8406734,-3.2814562,0.40079182,0.29782903,-0.86640847,0
-2.9712195,-0.080784082,-2.2830765,-0.65108055,-0.35037699,-0.67329746,0
-2.6461294,4.4305391,-2.7875781,-0.51652616,0.85451555,0.054801181,0
-3.9306874,-0.1995306,-0.37719893,-0.85163677,-0.50602764,-0.13656735,0
0.62175471,5.0148344,-1.3581042,0.75167871,0.48315507,-0.44893232,0
1.6301236,3.868685,-0.71131468,0.82360935,0.5133127,-0.24120021,0
4.0400534,-2.1544766,2.3881116,0.59394991,0.3114523,0.74176836,0
-3.0667021,0.73388648,2.810847,-0.52714884,-0.36777252,0.76606619,0
0.25461912,2.0971296,-3.162128,0.29223138,0.23607776,-0.92675138,0
4.6303825,-2.8770189,-2.7339921,0.51652616,-0.85451555,-0.054801181,0
-1.9075729,4.5103345,2.9293962,-0.51652616,0.85451555,0.054801181,0
-3.6803386,3.4540811,2.6904593,-0.51652616,0.85451555,0.054801181,0
2.3528857,2.6795378,-0.77392626,0.82454991,0.51362979,-0.23727977,0
4.9989347,-1.967742,1.0408428,0.80747497,0.46479604,0.36324698,0
-1.2399485,2.9261529,-3.3031969,0.082546532,0.11339389,-0.99011499,0
-1.6577584,4.6771631,2.6826625,-0.51652616,0.85451555,0.054801181,0
0.038049698,-5.3324084,1.9470776,-0.64874452,-0.43230903,0.62629032,0
-1.5254481,4.8602309,1.0751505,-0.51652616,0.85451555,0.054801181,0
3.4349189,-3.6729178,-1.5913075,0.51652616,-0.85451555,-0.054801181,0
-1.5629377,3.7867255,3.6718278,0.1798209,0.045678005,0.982638,0
-3.0227208,3.9899631,0.53278124,-0.51652616,0.85451555,0.054801181,0
4.0819077,-3.2070704,-2.7571189,0.51652616,-0.85451555,-0.054801181,0
-3.8110926,3.6512284,-1.6160877,-0.51652616,0.85451555,0.054801181,0
-1.3085684,-4.3695965,-1.0770164,-0.83388054,-0.48744833,-0.25891465,0
1.7376708,3.7583344,0.8182745,0.84459352,0.49790362,0.19685906,0
5.4241886,-2.4167938,0.59725785,0.83634287,0.48974332,0.24633652,0
2.9738474,1.3247838,1.3270013,0.80077779,0.45939574,0.38433063,0
-0.025604248,1.2629566,-3.3877063,0.12650788,0.13945392,-0.98211414,0
2.9000273,-1.0058112,2.7734656,0.50310379,0.25107604,0.82695025,0
0.5276351,1.8393186,-3.1398892,0.31709212,0.25033611,-0.91475916,0
-4.727447,3.0506372,-0.88812149,-0.51652616,0.85451555,0.054801181,0
5.4324617,-2.5138855,-0.8363744,0.51652616,-0.85451555,-0.054801181,0
2.1105142,-4.6658568,1.4084742,0.51652616,-0.85451555,-0.054801181,0
0.91833127,5.1775417,0.71668959,0.85110581,0.50533861,0.14230728,0
0.47689104,0.50822872,-3.4299088,0.13625455,0.14520824,-0.97997397,0
2.4932065,2.3420012,1.070096,0.82629251,0.48063377,0.29365242,0
-1.8745594,4.5889816,2.0142171,-0.51652616,0.85451555,0.054801181,0
-1.0570369,-4.5645514,1.0761092,-0.78836024,-0.49956423,0.35905927,0
-0.06207633,1.067826,-3.4175029,0.094018877,0.1202112,-0.9882862,0
1.9401987,-4.7479277,3.1353889,-0.16695261,-0.1632753,0.97235167,0
3.3447962,-3.6808505,-2.3170795,0.51652616,-0.85451555,-0.054801181,0
-2.4898753,0.63093853,3.1038306,-0.41692486,-0.30688566,0.85556692,0
-0.67795634,2.1260998,-3.3473079,0.099025726,0.12318286,-0.98743075,0
1.4725637,-4.8775206,-1.3040285,0.51652616,-0.85451555,-0.054801181,0
-1.9003055,4.0851007,-3.225348,0.090994179,0.11841489,-0.98878598,0
-2.6002283,1.0073457,3.1828265,-0.39193517,-0.2928431,0.87214088,0
-3.1492758,-0.95677722,-1.397573,-0.79168946,-0.45220619,-0.41077578,0
1.4298689,-4.7593398,3.0143948,-0.27627724,-0.22689322,0.93391132,0
-0.64065289,5.5795536,-1.8016534,-0.51652616,0.85451555,0.054801181,0
-4.1470108,3.2481842,1.5024076,-0.51652616,0.85451555,0.054801181,0
2.4335313,-4.2732229,-1.6692834,0.51652616,-0.85451555,-0.054801181,0
-0.20403314,-2.0282516,3.1945207,-0.27268624,-0.22482227,0.93546617,0
0.79665899,1.1498629,3.2951684,0.3385461,0.14501651,0.92970753,0
1.615792,-4.6573296,-3.3874667,0.51652616,-0.85451555,-0.054801181,0
-0.28993416,-5.8252964,-1.5369887,-0.80778736,-0.46505034,-0.36222571,0
2.6954942,-4.3818612,2.4938293,0.51652616,-0.85451555,-0.054801181,0
-4.4029083,0.80779934,1.177668,-0.81095225,-0.50873053,0.28904951,0
-0.44311512,-5.6167374,-1.4614549,-0.81296456,-0.46930125,-0.34473878,0
2.1345532,-4.5903907,0.45831847,0.51652616,-0.85451555,-0.054801181,0
-1.0494134,1.8997457,-3.3852165,-0.0076408982,0.059397355,-0.99820501,0
-3.2128277,-0.14460063,-1.9858248,-0.70733762,-0.38974223,-0.58972359,0
3.3020437,-3.5138621,3.0979068,0.27365774,0.10409614,0.95617723,0
-2.6231623,-1.4707885,-1.7904727,-0.749475,-0.42022529,-0.51156372,0
2.1419871,-4.5971584,0.63391584,0.51652616,-0.85451555,-0.054801181,0
-0.49731314,-4.3260374,2.0850039,-0.63286805,-0.42409068,0.64778477,0
3.9991789,-1.4081373,2.0579538,0.67683703,0.36824775,0.63740456,0
-0.1584419,-4.7912664,2.1102519,-0.6203444,-0.41755679,0.6639421,0
0.72487152,-5.375175,-0.59141135,0.51652616,-0.85451555,-0.054801181,0
-1.928026,-3.5734568,-0.012960911,-0.85464269,-0.51843226,0.028526306,0
-3.0772684,4.1043601,-1.7651526,-0.51652616,0.85451555,0.054801181,0
-1.271536,5.2337904,-2.3565292,-0.51652616,0.85451555,0.054801181,0
-2.107033,4.5227156,0.85634422,-0.51652616,0.85451555,0.054801181,0
-2.9580884,-1.0587662,1.7005709,-0.73944402,-0.47740966,0.47466049,0
-0.66287422,5.3159237,2.0996938,-0.51652616,0.85451555,0.054801181,0
-2.3868747,4.3425064,1.0286964,-0.51652616,0.85451555,0.054801181,0
-1.8691523,4.5627732,2.4738529,-0.51652616,0.85451555,0.054801181,0
2.2832699,-2.0041471,3.2237864,0.25164503,0.090314448,0.96359622,0
1.5190376,-4.8260369,-1.6687665,0.51652616,-0.85451555,-0.054801181,0
-1.9983085,4.5547414,1.3817379,-0.51652616,0.85451555,0.054801181,0
3.6356053,-3.773829,1.8737502,0.51652616,-0.85451555,-0.054801181,0
2.9968979,1.8054185,0.095206499,0.85625648,0.51583385,0.027201831,0
2.1743088,-4.5476675,0.16684413,0.51652616,-0.85451555,-0.054801181,0
-4.6853027,2.177197,-1.7516074,-0.72110778,-0.39958861,-0.56597883,0
0.81501794,-1.3965418,3.4164433,0.022249341,-0.050584182,0.9984718,0
-0.98382068,-0.74115229,-3.2903037,-0.32617241,-0.13717814,-0.93530381,0
-3.4508166,0.26072025,-1.9682178,-0.70593625,-0.38874561,-0.59205586,0
-1.1401876,5.0164142,2.2710395,-0.51652616,0.85451555,0.054801181,0
-2.0592766,4.7195258,-1.7624072,-0.51652616,0.85451555,0.054801181,0
-1.28427,-2.1241207,2.664623,-0.51535618,-0.36134976,0.77706778,0
0.73367882,1.1069638,3.3237767,0.3201741,0.13338442,0.93792152,0
2.9906669,-4.2422204,3.098551,0.51652616,-0.85451555,-0.054801181,0
1.5167179,-5.0289907,1.4740429,0.51652616,-0.85451555,-0.054801181,0
-1.3184927,-1.0506334,-3.0914168,-0.4337014,-0.205901,-0.87721574,0
1.8257773,-4.8566365,1.6995311,0.51652616,-0.85451555,-0.054801181,0
-1.7622874,0.9111228,-3.2550979,-0.28059959,-0.10845253,-0.95367789,0
2.8699174,-4.1234789,0.10889149,0.51652616,-0.85451555,-0.054801181,0
-2.5384121,4.5075336,-2.9728894,-0.51652616,0.85451555,0.054801181,0
2.247864,-1.0610795,3.1098571,0.36223567,0.16007155,0.91823846,0
-4.4419656,3.2789955,-1.7581128,-0.51652616,0.85451555,0.054801181,0
-5.2084703,2.6482077,0.85311627,-0.51652616,0.85451555,0.054801181,0
2.1411705,-2.1431661,3.2680502,0.20470375,0.06108579,0.97691584,0
4.6376495,-2.377213,-2.4253564,0.65212023,0.43404651,-0.62156487,0
-1.3584163,5.1282811,-2.8921652,0.33876079,0.26270896,-0.90345168,0
