-3.3617337,-1.0897604,0.88380885,-0.78039294,-0.4681986,0.41446,0
1.3697133,0.78576517,1.9103857,0.62416452,-0.54354131,0.56123221,0
2.4536099,1.1395496,1.0475812,0.62416452,-0.54354131,0.56123221,0
-3.5196071,-0.15521945,1.0912519,-0.62416452,0.54354131,-0.56123221,0
-0.87966406,2.9841568,1.1957047,-0.62416452,0.54354131,-0.56123221,0
-0.045470238,2.8379488,2.0865927,0.058316827,0.7487452,0.6602878,0
-1.0903198,-3.4500062,0.5440135,0.62416452,-0.54354131,0.56123221,0
-1.854826,-0.8155551,3.017055,-0.70450938,-0.081004411,0.70505685,0
1.7747399,0.26765412,0.95816267,0.62416452,-0.54354131,0.56123221,0
-0.54286647,-0.43773186,-2.4928856,-0.62416452,0.54354131,-0.56123221,0
-0.28152752,0.64360547,-1.736277,-0.62416452,0.54354131,-0.56123221,0
-2.2482195,1.2583399,1.0463026,-0.62416452,0.54354131,-0.56123221,0
-1.423378,-2.6389771,1.699883,0.62416452,-0.54354131,0.56123221,0
1.5156802,1.8099836,-2.6053982,-0.62416452,0.54354131,-0.56123221,0
0.93259358,3.5777574,-0.24487686,-0.62416452,0.54354131,-0.56123221,0
1.279946,0.75867355,1.9839813,0.62416452,-0.54354131,0.56123221,0
0.13096392,1.1651859,-1.6898825,-0.62416452,0.54354131,-0.56123221,0
-0.39882278,-3.7443738,-0.53232265,-0.37922534,-0.83881062,-0.39062142,0
1.9481094,-2.5228324,-1.9371741,0.62416452,-0.54354131,0.56123221,0
0.63558769,-0.0054569244,-3.3848341,-0.62416452,0.54354131,-0.56123221,0
-2.1969333,1.8270397,1.5400392,-0.62416452,0.54354131,-0.56123221,0
-1.6079738,-2.6943855,-1.613158,-0.3801547,-0.83885211,-0.38962811,0
0.3549602,0.40476811,-2.6754446,-0.62416452,0.54354131,-0.56123221,0
-0.12395811,0.1245116,-2.4142466,-0.62416452,0.54354131,-0.56123221,0
-0.58776057,-2.4771588,0.92728317,0.62416452,-0.54354131,0.56123221,0
-1.9763421,-2.7935998,1.2137344,-0.7369495,-0.64814448,0.1918714,0
2.254427,2.4101019,1.4951999,0.47714961,0.83400524,0.27706283,0
-0.24071431,-1.4682436,-3.4120309,0.15719604,-0.61628115,-0.77167815,0
1.9055915,2.7787759,-1.4995821,0.75178277,0.6133886,-0.24202824,0
-0.024131507,2.3319333,-0.3874259,-0.62416452,0.54354131,-0.56123221,0
3.0678699,-0.91530097,-1.9378814,0.64028651,-0.055782914,-0.76610816,0
0.81968164,0.91825366,2.6504056,0.62416452,-0.54354131,0.56123221,0
-2.0255661,-1.3303115,2.7084098,-0.7532922,-0.22807768,0.61687249,0
-1.0614233,-0.85685015,-2.3220887,-0.62416452,0.54354131,-0.56123221,0
1.3912249,0.31796551,1.4334078,0.62416452,-0.54354131,0.56123221,0
-0.17337522,1.5445051,-0.98405445,-0.62416452,0.54354131,-0.56123221,0
3.0928848,-0.61506557,-1.362685,0.62416452,-0.54354131,0.56123221,0
0.59001368,-0.87408179,1.1699882,0.62416452,-0.54354131,0.56123221,0
-2.4097044,0.094188511,0.098439217,-0.62416452,0.54354131,-0.56123221,0
0.20613313,-0.36943722,2.0856519,0.62416452,-0.54354131,0.56123221,0
0.17216372,-2.9294586,-1.9939454,-0.054363549,-0.74681079,-0.66281098,0
1.4868654,2.7354538,1.6392021,0.36040691,0.83765006,0.41042614,0
2.6229587,1.4280314,-1.8327348,0.77930999,0.38197708,-0.49675936,0
0.47304702,-0.50024879,1.6621199,0.62416452,-0.54354131,0.56123221,0
2.4852991,-0.60844284,-2.442234,0.61890584,-0.094438851,-0.77976739,0
2.5069928,1.139966,-2.1776607,0.76568466,0.28268471,-0.57776874,0
1.0876808,-1.5412428,-0.029615078,0.62416452,-0.54354131,0.56123221,0
-3.1377339,-1.3387715,1.0219111,-0.77928543,-0.48457623,0.39736688,0
1.9610758,-1.8211685,-2.4136868,0.40707046,-0.38689041,-0.82741141,0
-2.3064375,-0.23003799,-0.33041406,-0.62416452,0.54354131,-0.56123221,0
0.6054318,-1.5774662,-3.1070209,0.26365423,-0.52966607,-0.80618882,0
-0.33746004,0.31944823,3.3573704,0.62416452,-0.54354131,0.56123221,0
-2.2015543,-0.4255681,-0.63642454,-0.62416452,0.54354131,-0.56123221,0
0.70047134,3.0455379,-0.50216913,-0.62416452,0.54354131,-0.56123221,0
-0.58036494,-0.27911568,3.0478163,0.62416452,-0.54354131,0.56123221,0
0.37366247,2.7361465,-0.43835354,-0.62416452,0.54354131,-0.56123221,0
-1.8507991,0.59201103,-0.041007161,-0.62416452,0.54354131,-0.56123221,0
0.44095719,-3.0837667,-0.80427408,0.62416452,-0.54354131,0.56123221,0
3.3811471,1.2259018,-0.67268372,0.77584457,0.51588738,-0.36321592,0
0.84413266,-2.3501678,-2.486239,0.16825444,-0.60796994,-0.77592731,0
0.74695063,-1.4101918,-3.1617966,0.31003231,-0.48704958,-0.81649423,0
2.2055058,2.2636528,-1.7097213,0.77518988,0.52044827,-0.35807085,0
-0.62233758,0.90956092,3.4922178,-0.36989641,0.42714858,0.82505816,0
1.8832198,2.8348536,-1.4211712,0.74546874,0.62934279,-0.2195549,0
-3.2806623,0.21164033,1.1808095,-0.62416452,0.54354131,-0.56123221,0
3.3140984,1.4979042,-0.36043596,0.75926483,0.59135824,-0.27168512,0
0.9627192,2.8641574,-0.96948695,-0.62416452,0.54354131,-0.56123221,0
-2.4856343,-2.4294698,0.41146517,-0.71018124,-0.69413424,0.11756146,0
0.17002916,-0.17082465,2.3181562,0.62416452,-0.54354131,0.56123221,0
-1.3076868,-1.9522057,2.2363422,0.62416452,-0.54354131,0.56123221,0
-1.7471323,1.1361498,2.8148091,-0.47630399,0.30469242,0.82480133,0
-0.86630511,-1.2833548,-2.952147,-0.62416452,0.54354131,-0.56123221,0
-0.12642971,2.3832047,-0.22400153,-0.62416452,0.54354131,-0.56123221,0
-2.3164425,-2.5072985,0.87379003,-0.73448968,-0.65310615,0.18433046,0
-0.1372422,-3.70386,-0.76178718,0.62416452,-0.54354131,0.56123221,0
1.6129177,3.2340391,-0.47726607,0.64254844,0.76576841,0.027031422,0
-2.7335825,-1.4532421,1.6326723,-0.78102362,-0.41521198,0.46647781,0
-1.207021,1.1161524,3.1140969,-0.41399866,0.37910584,0.82757735,0
1.9670641,-2.304889,-2.161943,0.33603108,-0.46174332,-0.82089984,0
-1.7500287,1.0636295,0.30367541,-0.62416452,0.54354131,-0.56123221,0
-0.58613014,2.1299875,2.7147021,-0.16746563,0.60856789,0.77562922,0
-1.6817833,-1.604359,-2.3561125,-0.62416452,0.54354131,-0.56123221,0
-0.81197834,-0.80571532,-2.5499818,-0.62416452,0.54354131,-0.56123221,0
2.1903725,-1.4862689,-1.2027135,0.62416452,-0.54354131,0.56123221,0
-1.587378,-3.1620533,-0.26236463,-0.55708987,-0.81326652,-0.16807353,0
-3.5096586,-0.96438533,0.29652739,-0.62416452,0.54354131,-0.56123221,0
-2.0970781,-2.3435125,1.82813,-0.7758714,-0.51569384,0.36343336,0
1.7461988,0.62951803,1.3403616,0.62416452,-0.54354131,0.56123221,0
-1.7447338,-1.7905126,2.8694966,-0.76504397,-0.27945644,0.58018285,0
1.772653,2.9047313,-1.5928774,0.75014406,0.6177265,-0.23600471,0
2.3220332,2.2053537,1.9504998,0.42352471,0.83902466,0.34156197,0
1.4392669,-0.95038414,0.15160877,0.62416452,-0.54354131,0.56123221,0
2.3933671,-0.60337824,-0.57340932,0.62416452,-0.54354131,0.56123221,0
-1.0355401,-2.5174866,1.3862164,0.62416452,-0.54354131,0.56123221,0
1.5326182,2.9339831,1.1370263,0.43789083,0.83828092,0.32486457,0
2.702055,-1.1914639,-1.4862601,0.62416452,-0.54354131,0.56123221,0
0.84010589,1.4939697,-2.1601226,-0.62416452,0.54354131,-0.56123221,0
-1.0908114,2.4185855,0.88278461,-0.62416452,0.54354131,-0.56123221,0
-0.93188906,-3.1668191,0.6420784,0.62416452,-0.54354131,0.56123221,0
-0.97648078,1.7698088,0.12730722,-0.62416452,0.54354131,-0.56123221,0
0.09889698,-3.2846527,-0.61841214,0.62416452,-0.54354131,0.56123221,0
-0.9088667,1.7253141,0.0090192556,-0.62416452,0.54354131,-0.56123221,0
-2.8158584,0.15676036,0.61073589,-0.62416452,0.54354131,-0.56123221,0
-1.039415,-1.9247148,1.9646131,0.62416452,-0.54354131,0.56123221,0
-1.7842147,2.0787044,1.3247732,-0.62416452,0.54354131,-0.56123221,0
-2.0723217,0.28103709,2.8095474,-0.61537915,0.1005756,0.78178859,0
2.4189491,2.1009409,2.0172162,0.62416452,-0.54354131,0.56123221,0
1.8136123,2.853622,-1.5954914,0.75259513,0.61118042,-0.24507034,0
1.4573743,-1.7253213,-2.6947336,0.35664153,-0.440916,-0.8236506,0
0.29467964,3.4941654,1.0852275,0.28147131,0.82653821,0.48745131,0
0.20741534,-2.8909993,-0.35785389,0.62416452,-0.54354131,0.56123221,0
0.011441678,1.8535109,-0.89032984,-0.62416452,0.54354131,-0.56123221,0
-0.31050301,-2.3178113,-2.6367767,-0.014917195,-0.72649741,-0.68700755,0
2.0886598,-2.3194559,-1.8965194,0.62416452,-0.54354131,0.56123221,0
-0.94004047,-1.1632843,2.5915251,0.62416452,-0.54354131,0.56123221,0
-1.2289305,-2.5592084,1.5608857,0.62416452,-0.54354131,0.56123221,0
0.68336034,-2.0948532,-0.116117,0.62416452,-0.54354131,0.56123221,0
-1.6871067,0.79226887,-0.02910924,-0.62416452,0.54354131,-0.56123221,0
-2.815727,1.3269675,2.0718503,-0.56981647,0.17476994,0.8029725,0
-0.27564532,-2.8912511,0.17913008,0.62416452,-0.54354131,0.56123221,0
-2.2859688,-0.6312865,2.6014309,-0.72024339,-0.12192661,0.68292278,0
-1.073231,-2.8213737,-1.7764604,-0.28285754,-0.82681501,-0.4861778,0
2.5434577,1.9704852,-1.4041979,0.7751348,0.52081931,-0.35765028,0
2.1252234,1.2765393,1.5454624,0.62416452,-0.54354131,0.56123221,0
0.43366146,2.813509,2.0393887,0.14423537,0.78615391,0.60096455,0
0.58784294,2.9580402,1.7916059,0.20993471,0.80859739,0.54963434,0
-0.35063219,-2.1549902,-2.8053389,0.0107373,-0.71230221,-0.70179087,0
-2.4983695,-0.48858786,2.4025848,-0.72355354,-0.13112009,0.67770058,0
0.60955977,-2.4637365,-2.4357276,0.11127985,-0.64916682,-0.75246233,0
1.9015782,2.8636198,0.65854788,0.54330814,0.8181771,0.1881566,0
2.7259123,2.2400293,0.8540616,0.60706276,0.78959036,0.089567304,0
-3.0983791,-1.7702947,0.34655857,-0.7466563,-0.62649101,0.22363746,0
-2.1501887,-2.7684317,0.092951298,-0.65265501,-0.75761437,-0.007894516,0
-0.37876534,-0.47838652,-2.7147608,-0.62416452,0.54354131,-0.56123221,0
3.1561408,1.8901693,0.90991259,0.64259464,0.76573265,0.026945353,0
-2.4084151,-2.1667702,1.402817,-0.7704705,-0.54736263,0.32675624,0
2.5021923,0.91708577,0.77809978,0.62416452,-0.54354131,0.56123221,0
1.1410928,0.69042981,2.0723114,0.62416452,-0.54354131,0.56123221,0
1.9525912,0.74029338,1.2181096,0.62416452,-0.54354131,0.56123221,0
3.0620861,0.83812028,0.078947306,0.62416452,-0.54354131,0.56123221,0
-0.96729887,0.38920689,-1.2199879,-0.62416452,0.54354131,-0.56123221,0
-2.0825982,2.0080113,1.5881504,-0.62416452,0.54354131,-0.56123221,0
-1.8646951,0.52664936,2.9208443,-0.56649971,0.17984417,0.80419803,0
-1.8086703,2.2261267,1.4947463,-0.62416452,0.54354131,-0.56123221,0
-2.2287292,1.035639,2.5466766,-0.54320335,0.21440765,0.81176341,0
0.99081826,2.4525571,2.373745,0.17295462,0.79664063,0.57918119,0
-0.50254774,2.324049,2.5717835,-0.11977375,0.64327848,0.75620586,0
-1.521075,-1.6055012,2.8094344,0.62416452,-0.54354131,0.56123221,0
-0.50523007,1.0212452,-1.1217541,-0.62416452,0.54354131,-0.56123221,0
-2.7966256,1.493956,1.8843925,-0.62416452,0.54354131,-0.56123221,0
-2.0246651,-2.699038,1.3294117,-0.74778891,-0.62371063,0.22758985,0
-0.86116743,2.3733976,2.4643345,-0.16678137,0.60908604,0.77536988,0
-3.2755117,-1.7571549,-0.40048504,-0.70150697,-0.70612645,0.096300244,0
-1.6757431,0.3711527,-0.44958901,-0.62416452,0.54354131,-0.56123221,0
1.5576916,1.7141768,-2.7449069,-0.62416452,0.54354131,-0.56123221,0
2.9195054,0.6224218,0.028616428,0.62416452,-0.54354131,0.56123221,0
2.9230313,0.015796259,-0.56280875,0.62416452,-0.54354131,0.56123221,0
0.26634026,0.20965385,-2.7658517,-0.62416452,0.54354131,-0.56123221,0
1.6537821,0.1613313,-3.1951964,0.62386113,-0.085706979,-0.77682167,0
0.54851866,3.2809801,1.3001065,0.28357142,0.82695651,0.48552084,0
1.4132149,2.2174578,-2.0968132,-0.62416452,0.54354131,-0.56123221,0
-0.67858136,-2.324604,1.1760337,0.62416452,-0.54354131,0.56123221,0
0.9179191,3.5202994,0.44813085,0.45646521,0.83668232,0.30265927,0
-1.3089874,1.2214799,-0.033946455,-0.62416452,0.54354131,-0.56123221,0
-2.9596539,0.70155984,1.2982824,-0.62416452,0.54354131,-0.56123221,0
-0.92808914,-2.6962967,-2.046308,-0.21841216,-0.81108725,-0.54261756,0
0.99750531,2.5511317,-1.3113325,-0.62416452,0.54354131,-0.56123221,0
-1.4329436,-2.105499,-2.7186642,-0.18190134,-0.79969484,-0.57218915,0
-0.17164874,1.5134363,-1.0160639,-0.62416452,0.54354131,-0.56123221,0
-2.7981598,-1.1036916,1.7948725,-0.77463782,-0.33696875,0.53515297,0
1.0200123,-2.3661439,-0.75325799,0.62416452,-0.54354131,0.56123221,0
-0.69189715,0.68544245,3.5690629,-0.41144317,0.38198778,0.82752645,0
0.73769832,-1.6216289,0.2817598,0.62416452,-0.54354131,0.56123221,0
-3.552618,-0.35934791,1.1687987,-0.77140796,-0.3148275,0.55300421,0
-3.4276211,-1.3567995,0.34571886,-0.76391327,-0.57523996,0.29246521,0
-3.0428915,-0.99567461,1.5044494,-0.7777828,-0.36425936,0.51222014,0
0.47093523,1.4085304,-1.8323019,-0.62416452,0.54354131,-0.56123221,0
1.8069855,3.0637231,-0.26939154,0.63908064,0.76841235,0.033448696,0
-3.3850169,-1.116163,0.010916233,-0.62416452,0.54354131,-0.56123221,0
3.1940434,-0.90982813,-1.8311632,0.65214139,-0.033149719,-0.7573725,0
1.513238,3.0010738,0.98564649,0.45616505,0.83671403,0.3030237,0
-1.0090585,0.4773519,-1.0881792,-0.62416452,0.54354131,-0.56123221,0
-0.017676353,1.0795679,-1.6074942,-0.62416452,0.54354131,-0.56123221,0
2.3452263,-2.0648675,-1.9352915,0.62416452,-0.54354131,0.56123221,0
-1.9414639,-1.6014429,-2.0644891,-0.62416452,0.54354131,-0.56123221,0
0.2063807,-2.1614366,0.34986305,0.62416452,-0.54354131,0.56123221,0
2.847434,-0.35381964,-0.83669996,0.62416452,-0.54354131,0.56123221,0
-1.7638675,1.4235492,0.66764057,-0.62416452,0.54354131,-0.56123221,0
2.2446122,2.6029444,0.78711104,0.56500012,0.81015813,0.15626609,0
0.46973348,-3.2170296,-1.6941801,-0.060342789,-0.74972934,-0.65898782,0
-2.8210063,-2.1844194,-0.490448,-0.65464997,-0.7559216,-0.0040365458,0
-1.7643143,-3.0310669,1.1977303,-0.72138685,-0.67679024,0.1468209,0
0.63950396,0.24978423,-3.141994,-0.62416452,0.54354131,-0.56123221,0
-2.6482105,-1.2399163,1.926137,-0.77482808,-0.3384158,0.53396302,0
0.11190902,-1.9814959,0.62919664,0.62416452,-0.54354131,0.56123221,0
0.49525213,-0.71841311,-3.6475139,0.38180321,-0.41452357,-0.82607317,0
2.496413,-1.1477711,-2.3364041,0.55797434,-0.19270641,-0.80717349,0
-1.5039879,-3.0044601,-0.99017835,-0.45442641,-0.83689404,-0.30513167,0
1.0540396,2.2533784,-1.6625738,-0.62416452,0.54354131,-0.56123221,0
-1.3062117,2.0062423,0.72299266,-0.62416452,0.54354131,-0.56123221,0
-0.37067676,-1.6113427,1.5243819,0.62416452,-0.54354131,0.56123221,0
3.0740457,1.1321313,0.3503902,0.62416452,-0.54354131,0.56123221,0
-2.6553071,-0.5441885,-0.24667287,-0.62416452,0.54354131,-0.56123221,0
-0.86759472,-1.8817351,-3.0854063,-0.02490598,-0.73181486,-0.68104851,0
-0.13856184,-0.74052751,2.1096053,0.62416452,-0.54354131,0.56123221,0
-1.0269578,-0.98370755,2.8621044,0.62416452,-0.54354131,0.56123221,0
1.3393679,2.2517176,-1.9815052,-0.62416452,0.54354131,-0.56123221,0
0.86660731,-1.0532833,0.68882632,0.62416452,-0.54354131,0.56123221,0
1.0086327,0.40824413,-3.3990488,-0.62416452,0.54354131,-0.56123221,0
-2.6464281,0.13342994,0.39971185,-0.62416452,0.54354131,-0.56123221,0
2.0847454,2.4540181,-1.684782,0.77008486,0.54923755,-0.32451153,0
-1.9545164,-2.9383092,0.23394966,-0.64910698,-0.76055539,-0.01468873,0
-2.1597824,0.7370649,0.4431051,-0.62416452,0.54354131,-0.56123221,0
1.2665591,0.01377821,1.2774537,0.62416452,-0.54354131,0.56123221,0
2.9664934,-1.0347704,-1.6285961,0.62416452,-0.54354131,0.56123221,0
2.3084261,0.64367312,0.7287991,0.62416452,-0.54354131,0.56123221,0
2.9591975,2.0238912,0.056302547,0.70664287,0.69916248,-0.10875654,0
1.5674345,-1.9273574,-2.5377979,0.34054589,-0.45724013,-0.82155967,0
1.9431416,-0.38734305,0.13652658,0.62416452,-0.54354131,0.56123221,0
-2.371233,-2.4009938,1.0074213,-0.74711573,-0.6253705,0.22523355,0
-0.6883322,0.99876821,-0.93988883,-0.62416452,0.54354131,-0.56123221,0
-2.2428341,-1.0810343,2.5344169,-0.74960792,-0.21412224,0.62629074,0
-3.5034559,-0.19589914,1.0338922,-0.62416452,0.54354131,-0.56123221,0
2.3832064,1.7925591,1.7583053,0.62416452,-0.54354131,0.56123221,0
0.90181899,0.75613153,2.4020462,0.62416452,-0.54354131,0.56123221,0
-3.1440368,0.74949402,1.5497637,-0.62416452,0.54354131,-0.56123221,0
1.8329442,-0.35132492,-2.9800653,0.58388388,-0.15278986,-0.79733002,0
2.1481166,2.4862106,-1.4658334,0.76234376,0.5809437,-0.28519559,0
-1.7331967,-1.0979346,3.1010594,-0.7190758,-0.1187371,0.68471313,0
-0.25345278,1.859838,2.9984472,-0.16402984,0.61116326,0.77432162,0
-1.1343672,-2.7889338,-1.7958481,-0.28843504,-0.82790053,-0.48102617,0
-0.22013402,2.2648847,2.6622624,-0.085309923,0.66662896,0.74049193,0
-1.3837357,2.8606253,1.6366613,-0.62416452,0.54354131,-0.56123221,0
0.65093017,3.3453331,-0.15672779,-0.62416452,0.54354131,-0.56123221,0
2.8345065,2.0065577,-0.56547356,0.74544716,0.62939399,-0.21948147,0
-2.7783368,-1.2641028,-0.80706906,-0.62416452,0.54354131,-0.56123221,0
-2.6251214,-1.9070961,1.3194444,-0.77475029,-0.5233615,0.35476053,0
1.9062585,0.24345034,0.78845561,0.62416452,-0.54354131,0.56123221,0
-1.5657406,1.1282032,0.16126072,-0.62416452,0.54354131,-0.56123221,0
0.55050397,-1.3624791,0.74092579,0.62416452,-0.54354131,0.56123221,0
2.2941637,-1.1800869,-1.021612,0.62416452,-0.54354131,0.56123221,0
2.5132263,-0.13761246,-2.4469843,0.66989017,0.0026340187,-0.74245572,0
0.73216379,-2.5346425,-0.59631938,0.62416452,-0.54354131,0.56123221,0
2.402801,0.2285161,0.22177076,0.62416452,-0.54354131,0.56123221,0
-2.1257389,-2.5093935,1.4783936,-0.76194525,-0.58234674,0.28339374,0
1.3600988,1.3161708,2.4347644,0.62416452,-0.54354131,0.56123221,0
0.19458008,0.060381413,-2.8306119,-0.62416452,0.54354131,-0.56123221,0
-1.1195309,-3.2502856,0.76992536,0.62416452,-0.54354131,0.56123221,0
1.344233,-1.2261465,-0.0097709894,0.62416452,-0.54354131,0.56123221,0
-1.7404902,2.5493643,1.73197,-0.62416452,0.54354131,-0.56123221,0
-3.0065029,-0.94306147,1.5942791,-0.77532732,-0.3423115,0.53074533,0
-1.8780978,-1.5186201,-2.0547488,-0.62416452,0.54354131,-0.56123221,0
-1.4481506,2.8837724,1.7307172,-0.62416452,0.54354131,-0.56123221,0
-1.30442,-2.1904454,-2.6405873,-0.17553431,-0.79753166,-0.57717514,0
-1.4060647,0.69729394,-0.43364638,-0.62416452,0.54354131,-0.56123221,0
2.6238172,1.6918056,1.3931367,0.62416452,-0.54354131,0.56123221,0
1.6202202,1.3562405,2.1842823,0.62416452,-0.54354131,0.56123221,0
-2.8673034,-0.49051422,0.041077375,-0.62416452,0.54354131,-0.56123221,0
0.44231924,2.5923405,-0.65398216,-0.62416452,0.54354131,-0.56123221,0
0.66507149,-0.10495138,-3.5139823,-0.62416452,0.54354131,-0.56123221,0
-0.34201854,1.836169,-0.51403058,-0.62416452,0.54354131,-0.56123221,0
0.54269719,-1.9003645,0.22867715,0.62416452,-0.54354131,0.56123221,0
3.4210529,0.72238046,-0.43236327,0.62416452,-0.54354131,0.56123221,0
2.690315,-1.267814,-1.547147,0.62416452,-0.54354131,0.56123221,0
2.8612733,-0.60547107,-2.1309917,0.65361482,-0.030269831,-0.75622201,0
-0.56930685,3.4889112,1.3870391,0.10007101,0.76803851,0.63253677,0
-1.4983647,-2.1870575,2.2209527,0.62416452,-0.54354131,0.56123221,0
1.8839052,-0.50894046,-2.911145,0.57059598,-0.17357183,-0.80267894,0
2.1583292,-2.3054268,-1.9604141,0.62416452,-0.54354131,0.56123221,0
-2.3666739,-0.42747915,2.5496578,-0.70938182,-0.093234748,0.69863087,0
3.2656152,-0.71591991,-1.6524594,0.62416452,-0.54354131,0.56123221,0
1.0065688,0.040840149,1.5928061,0.62416452,-0.54354131,0.56123221,0
-2.3555508,0.057859898,0.0030295849,-0.62416452,0.54354131,-0.56123221,0
2.7758293,-1.4925312,-1.8598838,0.62416452,-0.54354131,0.56123221,0
-1.3114519,-1.3089797,-2.4819021,-0.62416452,0.54354131,-0.56123221,0
-2.3539338,-1.1061375,-1.1260753,-0.62416452,0.54354131,-0.56123221,0
-3.3809133,-0.3723135,0.7267549,-0.62416452,0.54354131,-0.56123221,0
-0.12867141,0.044099331,2.8585,0.62416452,-0.54354131,0.56123221,0
-2.3065305,-2.302655,-1.7198126,-0.45334116,-0.83700299,-0.30644435,0
2.9608793,1.0124097,0.36029816,0.62416452,-0.54354131,0.56123221,0
1.6925459,-0.0087251067,0.78190577,0.62416452,-0.54354131,0.56123221,0
-0.0002682209,-2.000736,-2.9247456,0.098745704,-0.65769631,-0.74678314,0
0.84933341,1.4478985,-2.2150037,-0.62416452,0.54354131,-0.56123221,0
-2.1087527,-1.7584578,2.37941,-0.77637285,-0.35100341,0.52349031,0
2.0071008,0.82571089,-2.8604207,0.7163744,0.11146089,-0.68875575,0
2.8250995,2.1782892,0.61674786,0.64212883,0.76609236,0.027811885,0
-3.4054487,-1.3602566,-0.20276022,-0.62416452,0.54354131,-0.56123221,0
-1.5963118,-3.2389135,0.93072915,-0.68551004,-0.72561711,0.059633374,0
1.0647994,-0.72085494,0.79036045,0.62416452,-0.54354131,0.56123221,0
-0.76344872,0.61682975,3.5634766,-0.43001366,0.36075342,0.82761431,0
1.3685985,-2.7154174,-2.0853348,0.1841951,-0.59571707,-0.78178871,0
-3.5987947,-0.26095614,1.1593084,-0.76897442,-0.30032396,0.56434423,0
-0.80910969,-2.9467289,-1.7118986,-0.25540584,-0.82082081,-0.51090229,0
3.47124,0.89036202,-0.8950026,0.78128397,0.43769795,-0.44499022,0
0.22841954,3.5137701,0.4762876,-0.62416452,0.54354131,-0.56123221,0
2.738337,1.8642429,-1.1312954,0.77151084,0.54210782,-0.33300233,0
-0.84931588,3.3760366,1.5425042,0.024734855,0.73172468,0.68115139,0
-1.4802158,-2.3264337,-2.3724489,-0.2462126,-0.81857646,-0.51895297,0
2.6478081,2.1988389,1.39275,0.53553313,0.82067877,0.19922614,0
-1.3541911,-1.7760453,-2.8867137,-0.62416452,0.54354131,-0.56123221,0
0.47566462,-0.14063501,-3.3378954,-0.62416452,0.54354131,-0.56123221,0
-0.18128717,-1.3960282,1.5222833,0.62416452,-0.54354131,0.56123221,0
-0.18477988,0.032781363,-2.4354434,-0.62416452,0.54354131,-0.56123221,0
-1.6677082,-1.2872329,3.1339006,-0.72929001,-0.14763328,0.66808748,0
-0.070447206,-3.3480861,-1.4142084,-0.19527787,-0.80406994,-0.5615499,0
-1.0654862,2.2848949,0.72514313,-0.62416452,0.54354131,-0.56123221,0
2.5587668,1.1762633,-2.0893261,0.76939154,0.3027091,-0.56249815,0
-2.2185576,0.4688687,0.24872839,-0.62416452,0.54354131,-0.56123221,0
-2.2764812,-2.6469555,-0.28557491,-0.6250211,-0.77839398,-0.058751822,0
0.90556669,0.90044534,2.537643,0.62416452,-0.54354131,0.56123221,0
1.7974033,3.0725322,-0.28902626,0.64022851,0.76754546,0.031332493,0
0.052679062,-0.1102767,-2.838078,-0.62416452,0.54354131,-0.56123221,0
-0.83883667,1.4570067,-0.32871354,-0.62416452,0.54354131,-0.56123221,0
-1.3618193,0.80878568,3.1582451,-0.47520822,0.30607483,0.82492161,0
0.18841553,-3.1458101,-0.58350217,0.62416452,-0.54354131,0.56123221,0
-2.3644965,-1.0094723,-1.02071,-0.62416452,0.54354131,-0.56123221,0
0.60441762,1.831986,-1.5706444,-0.62416452,0.54354131,-0.56123221,0
-2.3647695,-2.3572304,-1.4590106,-0.49489102,-0.83090341,-0.25432789,0
-1.3689637,-1.5345557,2.7089758,0.62416452,-0.54354131,0.56123221,0
-0.89873171,-2.6855915,-2.0736744,-0.20951545,-0.80847186,-0.54997897,0
-1.0883036,1.7214129,0.20479864,-0.62416452,0.54354131,-0.56123221,0
-2.8905764,-1.8577645,0.76052999,-0.76032567,-0.58787555,0.27623796,0
-1.164724,-0.76265669,-2.1159804,-0.62416452,0.54354131,-0.56123221,0
1.7325511,-0.43123472,-3.0352263,0.56414986,-0.18341491,-0.80504298,0
-2.0340621,-0.95661998,2.8070197,-0.72842109,-0.14508104,0.66959286,0
-1.3467333,2.3364785,2.3645406,-0.24505734,0.54588974,0.80121875,0
0.987288,-1.7362167,-0.10679299,0.62416452,-0.54354131,0.56123221,0
-1.7679633,-1.4070737,-2.0692024,-0.62416452,0.54354131,-0.56123221,0
-0.76455808,2.4175808,2.4484193,-0.14405656,0.62595749,0.76643664,0
-1.8453104,-2.4153588,2.2416096,-0.7803095,-0.46971467,0.41289884,0
-2.2212808,-2.6969192,0.33996058,-0.68284416,-0.72858077,0.053798318,0
0.86341834,-2.9211054,-1.9961079,0.067221045,-0.67831379,-0.73169112,0
1.746291,0.93935198,1.6403265,0.62416452,-0.54354131,0.56123221,0
-0.24456346,1.0915896,-1.343523,-0.62416452,0.54354131,-0.56123221,0
-1.0762033,-1.3253566,2.5859928,0.62416452,-0.54354131,0.56123221,0
-1.2219962,-2.6049962,1.5088289,0.62416452,-0.54354131,0.56123221,0
-2.8138249,-1.6228621,1.3106952,-0.77923435,-0.48519799,0.39670789,0
0.17853773,2.9968369,0.031124353,-0.62416452,0.54354131,-0.56123221,0
0.98183167,3.4272785,-0.44537163,-0.62416452,0.54354131,-0.56123221,0
-0.92737699,3.0401828,1.8792663,-0.055139244,0.68590117,0.72560292,0
-1.3558651,-1.5859076,2.644675,0.62416452,-0.54354131,0.56123221,0
2.2163186,0.47242773,-2.6951385,0.70207655,0.075029075,-0.70813805,0
1.0957119,3.3960354,0.52153897,0.46808112,0.83529937,0.28840131,0
2.8626578,0.54138345,0.01335454,0.62416452,-0.54354131,0.56123221,0
0.010829449,0.31458652,2.9653177,0.62416452,-0.54354131,0.56123221,0
-1.3469304,-0.97431636,-2.1183307,-0.62416452,0.54354131,-0.56123221,0
1.1082759,-1.7068125,-0.21287024,0.62416452,-0.54354131,0.56123221,0
2.6894474,1.0876704,0.73505473,0.62416452,-0.54354131,0.56123221,0
2.9773145,-0.67824614,-2.027679,0.6564588,-0.024667084,-0.75395864,0
2.4837716,2.215174,1.6869359,0.47906381,0.83370745,0.27464557,0
-3.2314501,-1.7364347,-0.047664165,-0.7271263,-0.6669333,0.16275012,0
0.61819899,-0.3099643,1.684978,0.62416452,-0.54354131,0.56123221,0
0.37650335,1.8731048,-1.2773505,-0.62416452,0.54354131,-0.56123221,0
0.14239931,1.0543743,-1.809919,-0.62416452,0.54354131,-0.56123221,0
-0.333938,0.86015344,-1.4682674,-0.62416452,0.54354131,-0.56123221,0
2.2531047,-1.6905744,-1.470346,0.62416452,-0.54354131,0.56123221,0
-0.28421283,2.3426051,2.5848458,-0.08120364,0.66931576,0.73852742,0
-0.2325995,-0.36546218,2.5774305,0.62416452,-0.54354131,0.56123221,0
1.738732,3.1266081,-0.55465245,0.66182303,0.74959266,-0.010070443,0
-2.3721383,0.53568,0.48423588,-0.62416452,0.54354131,-0.56123221,0
-2.5850971,-2.3698907,-0.65896416,-0.61461794,-0.78507811,-0.076794863,0
-2.2170885,-2.6441183,-0.66833591,-0.57607853,-0.80542648,-0.13936281,0
0.386168,-0.046105623,2.1985688,0.62416452,-0.54354131,0.56123221,0
1.1238526,0.26252103,1.6770643,0.62416452,-0.54354131,0.56123221,0
-1.4751127,-3.1704228,-0.52795982,-0.51173902,-0.82721794,-0.23202133,0
0.65304089,2.9024153,1.8485363,0.21021581,0.80868149,0.54940301,0
-0.94968307,0.40195763,-1.2272304,-0.62416452,0.54354131,-0.56123221,0
-3.0955837,0.46720085,1.2224822,-0.62416452,0.54354131,-0.56123221,0
2.6597018,-0.57451254,-0.84165311,0.62416452,-0.54354131,0.56123221,0
2.8804421,0.65151328,0.10023427,0.62416452,-0.54354131,0.56123221,0
-0.75922334,-1.7618704,1.8107144,0.62416452,-0.54354131,0.56123221,0
2.9036305,2.1117041,0.62390137,0.64865482,0.7609241,0.015548706,0
-2.6812587,-2.0899444,-1.7148426,-0.62416452,0.54354131,-0.56123221,0
-2.618618,-0.40116048,2.2910624,-0.72488928,-0.13489655,0.67552859,0
-0.4303484,-1.1114836,2.0748472,0.62416452,-0.54354131,0.56123221,0
-3.3413484,-0.64758354,1.2956948,-0.77520108,-0.34131169,0.53157324,0
2.2835333,-1.8113139,-2.2513564,0.44801682,-0.33950201,-0.82705474,0
0.57878923,2.2054677,-1.180433,-0.62416452,0.54354131,-0.56123221,0
0.53692794,-2.998199,-1.9351163,-0.0032978058,-0.72016412,-0.6937961,0
-0.7754392,1.7574607,-0.10823661,-0.62416452,0.54354131,-0.56123221,0
0.060684264,2.6460032,-0.17758214,-0.62416452,0.54354131,-0.56123221,0
0.10932434,0.7362107,-2.0812702,-0.62416452,0.54354131,-0.56123221,0
0.81045163,-2.6450725,-0.79033494,0.62416452,-0.54354131,0.56123221,0
-3.4582479,-1.3350461,0.30845451,-0.76341647,-0.57707751,0.290133,0
2.1484196,0.38094211,0.65229797,0.62416452,-0.54354131,0.56123221,0
-1.8559175,1.3443757,0.6933344,-0.62416452,0.54354131,-0.56123221,0
1.5768077,1.4089702,-3.0617528,-0.62416452,0.54354131,-0.56123221,0
0.88509083,0.35014987,2.0274656,0.62416452,-0.54354131,0.56123221,0
-2.1269598,1.5968382,1.2392743,-0.62416452,0.54354131,-0.56123221,0
0.67360508,3.7220902,0.18293619,-0.62416452,0.54354131,-0.56123221,0
0.081353426,1.3549403,-1.4509361,-0.62416452,0.54354131,-0.56123221,0
-0.11610007,2.056257,2.8601823,-0.10719734,0.65196586,0.75063276,0
1.6548898,-2.0539117,-1.1569355,0.62416452,-0.54354131,0.56123221,0
-0.65706921,1.8122617,-0.18680608,-0.62416452,0.54354131,-0.56123221,0
3.1004856,1.8729901,1.0384912,0.62416452,-0.54354131,0.56123221,0
0.56797934,0.11519456,-3.192796,-0.62416452,0.54354131,-0.56123221,0
0.44284225,-0.64593673,-3.7080348,0.38574511,-0.41028893,-0.82635593,0
1.3665638,-2.0663974,-2.53369,0.29162472,-0.50434184,-0.81276965,0
1.5824332,-0.44975209,0.47724032,0.62416452,-0.54354131,0.56123221,0
2.2458804,-1.2745274,-1.0593781,0.62416452,-0.54354131,0.56123221,0
-3.0853209,-0.22011584,1.8168232,-0.74127114,-0.18502337,0.64520055,0
1.706207,0.39149201,1.1543146,0.62416452,-0.54354131,0.56123221,0
-2.8989258,-1.6702236,1.0709352,-0.77467066,-0.52387798,0.35417187,0
3.0333354,1.3333491,-1.2256207,0.78094053,0.45561028,-0.42726052,0
1.4180723,3.2115507,-1.139457,-0.62416452,0.54354131,-0.56123221,0
2.634202,2.242888,1.2395759,0.55276054,0.81487679,0.17444789,0
2.3726442,2.5345163,0.64143133,0.59527731,0.79609656,0.10897541,0
0.21270013,0.50048161,-2.424536,-0.62416452,0.54354131,-0.56123221,0
-2.8131323,-1.7028081,-1.1932485,-0.62416452,0.54354131,-0.56123221,0
-1.0803478,0.91351092,3.2694571,-0.42709774,0.36413288,0.82764441,0
-1.6369182,-3.1477184,-0.15602636,-0.5749833,-0.80591464,-0.14105356,0
1.8980916,0.10565341,0.66408479,0.62416452,-0.54354131,0.56123221,0
0.0396173,-0.64366913,-3.3401308,-0.62416452,0.54354131,-0.56123221,0
-0.17917466,0.44682395,-2.0406857,-0.62416452,0.54354131,-0.56123221,0
-0.27884829,3.0939348,0.63383543,-0.62416452,0.54354131,-0.56123221,0
0.65420741,-2.2349894,-0.219414,0.62416452,-0.54354131,0.56123221,0
-0.88325679,2.1190357,0.36184871,-0.62416452,0.54354131,-0.56123221,0
0.38779217,-1.71015,0.58517098,0.62416452,-0.54354131,0.56123221,0
-3.4613149,0.025158018,1.4537554,-0.74673378,-0.20373866,0.63315052,0
-0.14184165,0.89787459,-1.645372,-0.62416452,0.54354131,-0.56123221,0
-3.2365589,-1.360541,-0.3908639,-0.62416452,0.54354131,-0.56123221,0
0.74917221,3.2726645,1.1823199,0.32954937,0.83446622,0.44166028,0
-1.1178882,-0.92075086,3.0242038,0.62416452,-0.54354131,0.56123221,0
0.71007693,1.246482,-2.2551994,-0.62416452,0.54354131,-0.56123221,0
-3.6509244,-0.88412535,0.56985569,-0.77947474,-0.48219872,0.39987999,0
-1.8888199,-1.1362307,-1.6724879,-0.62416452,0.54354131,-0.56123221,0
0.99599272,-0.95628852,0.63887006,0.62416452,-0.54354131,0.56123221,0
-0.5358882,-1.5130529,1.8033104,0.62416452,-0.54354131,0.56123221,0
-2.2541151,-0.30214608,2.6728086,-0.68992794,-0.046360701,0.72239214,0
1.7277369,3.1066027,-0.97934604,0.70047218,0.7074843,-0.0938344,0
-1.9620566,-1.8097243,2.5603957,-0.77387184,-0.33132976,0.53976226,0
2.6170239,2.3614435,0.35824013,0.6494658,0.76026201,0.014005661,0
-0.71446204,-0.39429891,-2.2599847,-0.62416452,0.54354131,-0.56123221,0
-2.3093691,-1.7851621,2.0467355,-0.78065377,-0.40482026,0.47613072,0
0.60040855,-1.744096,-2.9960532,0.23552024,-0.55402452,-0.79849064,0
-1.4492757,-2.0953717,-2.7276218,-0.18287146,-0.80001986,-0.57142496,0
1.7618185,0.85093862,1.5374312,0.62416452,-0.54354131,0.56123221,0
2.3924778,1.9159496,-1.7752764,0.78065658,0.46286392,-0.41991979,0
-2.6192594,1.8307827,2.0133471,-0.62416452,0.54354131,-0.56123221,0
-0.22554071,1.9459348,-0.53726345,-0.62416452,0.54354131,-0.56123221,0
-1.2125452,3.0233865,1.6039056,-0.62416452,0.54354131,-0.56123221,0
0.60044837,1.691725,-1.7020695,-0.62416452,0.54354131,-0.56123221,0
-1.6389439,1.69537,2.6286373,-0.38459617,0.41152593,0.82627618,0
-0.37583756,2.2814384,2.6275063,-0.10738212,0.65183955,0.75071603,0
2.5471685,2.358995,0.951612,0.57765692,0.80471486,0.13691831,0
-0.70019966,1.7437562,-0.20518541,-0.62416452,0.54354131,-0.56123221,0
1.985136,-1.3736115,-2.589556,0.47225082,-0.30979177,-0.82523239,0
0.48547041,0.019231915,2.1514096,0.62416452,-0.54354131,0.56123221,0
2.2768521,-0.97945327,-0.8080498,0.62416452,-0.54354131,0.56123221,0
0.75135374,1.9293858,-1.639727,-0.62416452,0.54354131,-0.56123221,0
-1.3063395,-2.9347773,-1.389447,-0.3732399,-0.83850777,-0.39698476,0
-0.039950848,-1.9478307,-2.9765418,0.10213697,-0.65540725,-0.74833798,0
0.087574482,2.5720353,-0.27912402,-0.62416452,0.54354131,-0.56123221,0
1.6500189,3.1463022,0.10857582,0.58187997,0.8027637,0.13033187,0
0.8724339,3.2874022,-0.45917439,-0.62416452,0.54354131,-0.56123221,0
1.6533532,-2.3284421,-1.4211035,0.62416452,-0.54354131,0.56123221,0
2.3094172,2.6021829,0.48432255,0.60653353,0.78989613,0.090451956,0
2.0914564,-2.200726,-2.165096,0.3681379,-0.42899221,-0.82488811,0
-0.24952269,-1.2874969,1.7032804,0.62416452,-0.54354131,0.56123221,0
0.8372817,0.83944058,-2.790879,-0.62416452,0.54354131,-0.56123221,0
-1.0353775,-0.60157704,3.2415538,0.62416452,-0.54354131,0.56123221,0
-2.0209444,-2.753305,-0.79323578,-0.53995281,-0.81927973,-0.19295585,0
-3.0438967,-0.81730431,-0.079016209,-0.62416452,0.54354131,-0.56123221,0
-0.53858745,2.2046423,0.061438799,-0.62416452,0.54354131,-0.56123221,0
-0.57434493,2.2945373,0.18826717,-0.62416452,0.54354131,-0.56123221,0
1.1900487,3.0598841,1.2340174,0.38064116,0.83887303,0.38910729,0
1.2877152,-1.0464585,0.22710833,0.62416452,-0.54354131,0.56123221,0
-2.5800405,-0.96979642,-0.74257135,-0.62416452,0.54354131,-0.56123221,0
1.4024235,-1.2389472,-0.086883724,0.62416452,-0.54354131,0.56123221,0
2.5506873,-1.1461393,-2.2990217,0.56385678,-0.18385887,-0.80514705,0
2.7189779,-0.94810081,-2.2134721,0.6038413,-0.12022409,-0.7879861,0
2.5919044,-0.0049956143,-0.2146883,0.62416452,-0.54354131,0.56123221,0
-1.1720635,-2.8041914,1.2603817,0.62416452,-0.54354131,0.56123221,0
0.13460755,-0.47798777,-3.2853141,-0.62416452,0.54354131,-0.56123221,0
0.58146173,-2.0986364,-0.0064563155,0.62416452,-0.54354131,0.56123221,0
-2.2408867,-0.92679429,2.5841711,-0.73929739,-0.17854783,0.64927679,0
3.3114336,-0.54702544,-1.5398443,0.62416452,-0.54354131,0.56123221,0
2.4857247,2.4489882,0.63988543,0.6068635,0.78970563,0.089900494,0
0.25393289,2.8318188,-0.21254206,-0.62416452,0.54354131,-0.56123221,0
-2.1192293,-0.81294525,2.7446151,-0.72310245,-0.12985328,0.67842561,0
-2.2823403,1.4189476,2.3979256,-0.50051081,0.2734077,0.82142401,0
-3.0788062,-1.5773877,0.80932713,-0.77086061,-0.54542691,0.32906485,0
1.039798,3.5849271,-0.3571589,-0.62416452,0.54354131,-0.56123221,0
-1.6767679,0.33003503,-0.48827112,-0.62416452,0.54354131,-0.56123221,0
1.5288703,-2.7732933,-1.7134912,0.62416452,-0.54354131,0.56123221,0
2.2943292,1.3476833,-2.3577154,0.76675022,0.288192,-0.57361996,0
1.8913352,-0.87671167,-0.27980113,0.62416452,-0.54354131,0.56123221,0
-1.3399155,1.0288366,3.0835671,-0.44258416,0.34598625,0.82729268,0
0.61025167,-2.9392304,-1.9942104,0.021120548,-0.70633668,-0.70756102,0
-0.83366525,1.601826,-0.19421048,-0.62416452,0.54354131,-0.56123221,0
0.18454254,1.1033562,-1.8093501,-0.62416452,0.54354131,-0.56123221,0
-0.73216009,-1.0728498,2.4479187,0.62416452,-0.54354131,0.56123221,0
0.32254446,-0.5259949,1.804564,0.62416452,-0.54354131,0.56123221,0
0.8573637,2.585237,2.2310221,0.17682481,0.79797423,0.57616854,0
-1.4480315,2.3779006,1.2406585,-0.62416452,0.54354131,-0.56123221,0
-0.064062834,2.0893869,2.8380208,-0.092692375,0.66174757,0.74397475,0
0.61198187,0.39178908,2.3715255,0.62416452,-0.54354131,0.56123221,0
-1.6009837,-1.4157505,-2.2633095,-0.62416452,0.54354131,-0.56123221,0
0.045662642,-2.4884529,-2.4607966,0.013046503,-0.7109865,-0.70308471,0
0.32041675,-2.3718705,0.019239187,0.62416452,-0.54354131,0.56123221,0
1.6673163,1.9613851,-2.6274083,-0.62416452,0.54354131,-0.56123221,0
-1.075341,3.2454219,1.6663527,-0.62416452,0.54354131,-0.56123221,0
-1.6473773,2.7742667,1.8462293,-0.62416452,0.54354131,-0.56123221,0
3.2675133,1.6038634,-0.24637556,0.74999499,0.61811399,-0.23546362,0
0.29343963,1.7060698,-1.3467426,-0.62416452,0.54354131,-0.56123221,0
-0.12438679,-0.65858769,2.173198,0.62416452,-0.54354131,0.56123221,0
-1.9377341,2.1840382,1.5975209,-0.62416452,0.54354131,-0.56123221,0
-0.33532095,-1.2341465,-3.4950149,-0.62416452,0.54354131,-0.56123221,0
0.33336258,-0.8292104,1.4988751,0.62416452,-0.54354131,0.56123221,0
-1.7814441,-3.0548754,0.9669013,-0.70357955,-0.70336199,0.1012826,0
0.04667902,3.5746925,0.73740911,-0.62416452,0.54354131,-0.56123221,0
3.1017947,-0.43207267,-1.195369,0.62416452,-0.54354131,0.56123221,0
-3.0667074,1.2047343,1.904654,-0.62416452,0.54354131,-0.56123221,0
-1.3647687,2.4733412,2.2641766,-0.22489154,0.56294489,0.79530942,0
0.28549433,-2.5937541,-2.3481717,0.033395231,-0.69912064,-0.71422344,0
-1.4674916,-3.3617096,0.6410265,-0.64595079,-0.76309955,-0.020662785,0
-0.31045985,2.4574687,2.4766779,-0.063821435,0.68046623,0.72999495,0
-0.7472235,-1.6150372,1.9395736,0.62416452,-0.54354131,0.56123221,0
1.0454628,-0.71662635,0.81596053,0.62416452,-0.54354131,0.56123221,0
2.1856985,1.9566005,-2.1015716,0.78119111,0.42256451,-0.45954335,0
-1.2178938,1.2394931,3.0508828,-0.39761221,0.39737135,0.82704335,0
2.6398242,1.7680945,-1.4748123,0.77939117,0.48326361,-0.39875567,0
-0.29868504,-2.8350906,0.25914335,0.62416452,-0.54354131,0.56123221,0
3.1030722,1.2189623,0.40220261,0.62416452,-0.54354131,0.56123221,0
2.0469615,2.6823916,-1.3017342,0.74729395,0.62493324,-0.22585535,0
-1.2920046,2.3560476,1.0459713,-0.62416452,0.54354131,-0.56123221,0
2.0817935,2.5768099,-1.4558241,0.75855684,0.59362537,-0.26870215,0
-3.1103485,-0.50436926,1.6856585,-0.76006138,-0.25610262,0.5972591,0
-1.554431,2.8506384,1.9384315,-0.18879521,0.59212089,0.78342175,0
-3.1289496,-1.5362527,0.76003313,-0.77068502,-0.54630321,0.32802093,0
-1.7668835,-0.087075591,-0.79201341,-0.62416452,0.54354131,-0.56123221,0
-1.0235119,-0.89054048,-2.3968799,-0.62416452,0.54354131,-0.56123221,0
1.8486273,0.071227133,0.68575466,0.62416452,-0.54354131,0.56123221,0
0.083607912,0.43884993,-2.3406575,-0.62416452,0.54354131,-0.56123221,0
-1.1170001,-1.1549879,-2.5490208,-0.62416452,0.54354131,-0.56123221,0
-0.82249427,1.2480831,-0.54922652,-0.62416452,0.54354131,-0.56123221,0
-2.4173059,-2.4934704,-0.69712734,-0.59351343,-0.79701722,-0.11182868,0
0.51871181,-0.92141652,1.2034426,0.62416452,-0.54354131,0.56123221,0
0.72370476,3.1049907,-0.47042918,-0.62416452,0.54354131,-0.56123221,0
-0.592592,0.034876943,-1.9798728,-0.62416452,0.54354131,-0.56123221,0
-2.048224,-2.2348151,2.0635128,-0.78037333,-0.46856162,0.41408658,0
2.6350732,2.3085814,-0.21923494,0.70528674,0.70103872,-0.10543132,0
-2.4436865,-1.0662646,2.2930124,-0.75904477,-0.25165814,0.60043293,0
-0.79773331,-1.932842,-3.0330284,-0.022917867,-0.73076588,-0.68224359,0
-1.5233433,-2.2806983,-2.4241023,-0.24413121,-0.81805217,-0.52075994,0
2.0053694,-1.5535082,-2.5078421,0.45016366,-0.33692235,-0.82694399,0
1.6412528,-0.46859932,0.39357221,0.62416452,-0.54354131,0.56123221,0
-1.5197322,-0.44606352,-1.4145505,-0.62416452,0.54354131,-0.56123221,0
1.4683079,-0.14408225,0.90019768,0.62416452,-0.54354131,0.56123221,0
2.3605108,-0.39807904,-0.33804059,0.62416452,-0.54354131,0.56123221,0
0.062492847,1.6262263,3.2495556,-0.15670395,0.61664748,0.77148563,0
-1.0338854,-1.3842043,2.4819367,0.62416452,-0.54354131,0.56123221,0
-1.7391367,-2.1055348,2.5676758,0.62416452,-0.54354131,0.56123221,0
3.1719451,-0.57104886,-1.8514662,0.68315762,0.031136215,-0.72960711,0
-0.73577595,1.586622,3.0572271,-0.28051573,0.51453495,0.810287,0
-0.40320659,2.3440678,2.5690119,-0.10023028,0.6566959,0.74746549,0
-0.10836649,0.10046923,-2.4548714,-0.62416452,0.54354131,-0.56123221,0
3.5531454,-0.022889838,-1.3010461,0.62416452,-0.54354131,0.56123221,0
-0.37521064,-3.4135723,-0.21599746,0.62416452,-0.54354131,0.56123221,0
-2.5228052,-2.372144,0.50832272,-0.72080147,-0.67775542,0.14523494,0
-1.3883297,-1.4191725,-2.503123,-0.62416452,0.54354131,-0.56123221,0
2.8566787,-0.075626597,-0.57755685,0.62416452,-0.54354131,0.56123221,0
-2.6048017,-0.61856079,-0.37486911,-0.62416452,0.54354131,-0.56123221,0
-3.1932406,0.61802477,1.4771595,-0.62416452,0.54354131,-0.56123221,0
-0.78933978,-1.101595,-2.8617125,-0.62416452,0.54354131,-0.56123221,0
-0.84507066,0.46220934,-1.2852206,-0.62416452,0.54354131,-0.56123221,0
-0.97147536,-0.41224623,-1.9915336,-0.62416452,0.54354131,-0.56123221,0
-1.4637538,0.1900931,-0.86070174,-0.62416452,0.54354131,-0.56123221,0
0.89172339,-0.74811935,-3.4395609,0.42725724,-0.36394843,-0.82764304,0
0.28056836,2.9881761,1.8471971,0.1537016,0.78972459,0.59389508,0
-1.1728044,-0.64217281,3.3550749,0.62416452,-0.54354131,0.56123221,0
-2.7931743,0.33801928,0.76105356,-0.62416452,0.54354131,-0.56123221,0
-3.209326,0.64414376,1.8193502,-0.6793775,-0.022844493,0.73343349,0
-0.14924586,-3.687196,-0.73229885,0.62416452,-0.54354131,0.56123221,0
-3.0442269,-0.73271096,1.6638727,-0.76848227,-0.29755819,0.56647545,0
-1.5705068,-2.8749514,-1.2372158,-0.4287492,-0.83880246,-0.33553648,0
-2.2826343,-0.62745821,-0.74177933,-0.62416452,0.54354131,-0.56123221,0
0.14452851,3.4385076,0.49669552,-0.62416452,0.54354131,-0.56123221,0
-2.6230321,-0.31423298,-0.059859991,-0.62416452,0.54354131,-0.56123221,0
0.34091449,2.0273123,2.9318581,-0.037470877,0.69668537,0.71639764,0
-2.964853,-0.75030625,1.7615092,-0.76611674,-0.28489661,0.5761072,0
-0.26783395,-0.20735538,-2.575644,-0.62416452,0.54354131,-0.56123221,0
-3.3462422,-1.2142165,0.76186466,-0.77755004,-0.50237894,0.37819552,0
1.8903362,1.419578,1.9452181,0.62416452,-0.54354131,0.56123221,0
-0.023476362,-3.2885704,-1.512696,-0.17145979,-0.79612035,-0.58033979,0
-0.67052007,2.607892,0.59870404,-0.62416452,0.54354131,-0.56123221,0
-0.93688226,-1.0612936,-2.6585944,-0.62416452,0.54354131,-0.56123221,0
-2.4406285,-2.360919,0.88635802,-0.74321747,-0.63458151,0.21197748,0
2.1596391,2.5927372,1.0762019,0.520257,0.82506341,0.22046173,0
-0.20312667,-0.16128647,-2.6029899,-0.62416452,0.54354131,-0.56123221,0
-2.186141,-1.8470042,-2.0301971,-0.62416452,0.54354131,-0.56123221,0
0.70894676,-2.428019,-0.46723646,0.62416452,-0.54354131,0.56123221,0
-3.3883042,-0.56756526,1.278038,-0.77386689,-0.33129409,0.53979123,0
0.030654311,0.72922075,-2.0005479,-0.62416452,0.54354131,-0.56123221,0
1.8836323,1.4382143,1.9707226,0.62416452,-0.54354131,0.56123221,0
1.2534814,1.1254934,-2.9767122,-0.62416452,0.54354131,-0.56123221,0
1.5822512,-1.4663881,-0.50714767,0.62416452,-0.54354131,0.56123221,0
-0.88098717,-3.4410629,-0.70140195,-0.41699469,-0.83922648,-0.34901965,0
-1.516992,-1.6734505,2.7390862,0.62416452,-0.54354131,0.56123221,0
0.25463891,-0.71615243,1.6959206,0.62416452,-0.54354131,0.56123221,0
1.6668274,1.5146576,-3.0595109,-0.62416452,0.54354131,-0.56123221,0
0.064877182,-1.6855528,0.968117,0.62416452,-0.54354131,0.56123221,0
-2.2754157,-1.2393824,-1.342443,-0.62416452,0.54354131,-0.56123221,0
-2.2424343,1.1349751,2.5104768,-0.53234154,0.22992086,0.81470793,0
3.2735384,-0.32034835,-1.2781682,0.62416452,-0.54354131,0.56123221,0
1.9497695,0.39423978,-2.9532528,0.67384362,0.01095587,-0.73879296,0
-0.6475966,-1.5172526,1.9234776,0.62416452,-0.54354131,0.56123221,0
2.9074087,1.2006619,0.60208273,0.62416452,-0.54354131,0.56123221,0
1.3279465,-0.37382513,0.83379698,0.62416452,-0.54354131,0.56123221,0
0.72078085,-0.011599302,-3.4855292,-0.62416452,0.54354131,-0.56123221,0
2.579097,-1.7071879,-2.1210763,0.49661857,-0.27853692,-0.82206297,0
1.3834676,3.135144,0.80988693,0.46411917,0.83580518,0.29329759,0
2.1497898,-0.43677062,-0.14116311,0.62416452,-0.54354131,0.56123221,0
-0.68733567,-3.6238878,-0.07255888,0.62416452,-0.54354131,0.56123221,0
2.7955918,-0.78753293,-2.1732805,0.6287446,-0.076971889,-0.7737931,0
1.4731747,-0.016885877,1.017972,0.62416452,-0.54354131,0.56123221,0
3.0423822,1.8458171,-0.31808424,0.74136078,0.63874793,-0.20587766,0
2.5477462,1.7612269,-1.6568866,0.78088957,0.45708668,-0.42577404,0
-1.4442537,-1.7798114,2.5551834,0.62416452,-0.54354131,0.56123221,0
1.1804221,-3.099947,-1.6423279,0.62416452,-0.54354131,0.56123221,0
-1.0363336,-2.6584852,-2.0581236,-0.23244286,-0.81499767,-0.53080076,0
0.47893047,1.0130363,3.1211615,0.62416452,-0.54354131,0.56123221,0
2.3179696,-1.9456345,-2.1764939,0.43351024,-0.35667849,-0.82755643,0
3.1670246,1.6265476,-0.49144697,0.75919616,0.59157991,-0.27139425,0
0.71752864,3.0702658,-0.49719095,-0.62416452,0.54354131,-0.56123221,0
1.7243507,1.3440679,-3.0573621,0.73701727,0.17123574,-0.65382272,0
-0.33237517,-1.4190381,1.6680284,0.62416452,-0.54354131,0.56123221,0
1.7052474,1.5404271,2.2681007,0.62416452,-0.54354131,0.56123221,0
-0.088664532,1.1859549,3.532882,-0.25409967,0.53806138,0.80369365,0
3.1613288,1.0997355,-1.230953,0.78115249,0.42052478,-0.46147585,0
2.4159799,2.4314077,-0.74497771,0.73160088,0.6587044,-0.17569602,0
1.3167447,1.4104515,-2.7710936,-0.62416452,0.54354131,-0.56123221,0
-1.3439362,1.1036735,-0.10917169,-0.62416452,0.54354131,-0.56123221,0
-2.1918898,-0.77859926,2.6735945,-0.72533727,-0.13617235,0.67479122,0
1.8216221,2.0709393,2.6127701,0.25693756,0.82118338,0.50955015,0
1.2709658,-0.88377261,-3.1804106,0.45431286,-0.33190846,-0.82670248,0
-2.7747803,-0.62179852,-0.18896627,-0.62416452,0.54354131,-0.56123221,0
1.2784885,-0.4415713,0.82319003,0.62416452,-0.54354131,0.56123221,0
-1.1422139,-3.4795809,-0.15821552,-0.52065301,-0.82495832,-0.21991944,0
0.99471051,3.3536866,-0.53096652,-0.62416452,0.54354131,-0.56123221,0
1.8482096,-0.73276198,-0.092427135,0.62416452,-0.54354131,0.56123221,0
-1.2578048,-3.134948,-0.98660493,-0.42449686,-0.83898759,-0.34044492,0
-1.0510333,0.48533535,3.4570127,-0.48226035,0.29712799,0.82409966,0
-0.44114971,3.2009633,1.7098269,0.06220454,0.75062943,0.65778899,0
1.7521001,1.2995551,1.9827151,0.62416452,-0.54354131,0.56123221,0
-1.6110187,-1.8449435,-2.6678143,-0.62416452,0.54354131,-0.56123221,0
-0.2403512,-0.47984254,2.4752765,0.62416452,-0.54354131,0.56123221,0
-0.34737051,-1.4603882,1.6446586,0.62416452,-0.54354131,0.56123221,0
-2.6719363,0.87708426,1.1482935,-0.62416452,0.54354131,-0.56123221,0
1.4938366,2.4735324,2.1231403,0.28779882,0.82777905,0.48161608,0
-1.3934939,0.13320446,-0.9939357,-0.62416452,0.54354131,-0.56123221,0
1.0956655,0.077942371,1.5296518,0.62416452,-0.54354131,0.56123221,0
-1.9712243,1.3692671,2.5991421,-0.47120512,0.31110123,0.82533753,0
1.6324434,2.7863331,1.3779061,0.41688034,0.83922923,0.34914953,0
-0.19385171,0.19862866,3.0806475,0.62416452,-0.54354131,0.56123221,0
2.7263145,-0.91057873,-1.2412087,0.62416452,-0.54354131,0.56123221,0
3.2238677,1.4151472,-0.73649406,0.77314448,0.53317636,-0.34346926,0
0.17564654,0.30195642,2.7697873,0.62416452,-0.54354131,0.56123221,0
-1.6359483,-3.1971083,0.20139432,-0.61537439,-0.78461087,-0.075501084,0
0.4318521,1.3745798,-1.8217168,-0.62416452,0.54354131,-0.56123221,0
0.37196374,1.1551958,3.3778012,0.62416452,-0.54354131,0.56123221,0
-0.67026091,1.2380333,3.2924802,-0.3264243,0.47121727,0.81939101,0
2.1072462,1.7100822,-2.4131427,0.77479714,0.33817917,-0.53415793,0
-1.044935,2.9832163,1.9205598,-0.08529669,0.66663766,0.74048573,0
0.16679573,-0.31293559,2.1841209,0.62416452,-0.54354131,0.56123221,0
-1.3907529,1.6758492,0.49703491,-0.62416452,0.54354131,-0.56123221,0
3.3599889,0.72935903,-1.2122979,0.77803177,0.36684904,-0.50998896,0
1.3026145,-0.2759223,-3.3668339,0.53741044,-0.22272655,-0.81337768,0
-1.7654502,-3.1036718,0.48928642,-0.65771735,-0.75326252,0.0019500256,0
-0.28091395,0.45669079,-1.9179823,-0.62416452,0.54354131,-0.56123221,0
0.87084603,3.3476346,-0.39907479,-0.62416452,0.54354131,-0.56123221,0
1.7350149,2.088706,-2.5793908,-0.62416452,0.54354131,-0.56123221,0
0.43659329,-0.87896931,-3.5896211,0.35021567,-0.44748428,-0.82286525,0
-0.86583328,1.7378923,2.9159946,-0.27440029,0.52006972,0.80884612,0
0.077565789,3.0419383,0.18709826,-0.62416452,0.54354131,-0.56123221,0
-0.10362959,-0.31940615,2.4786029,0.62416452,-0.54354131,0.56123221,0
-0.11343175,2.4481275,-0.17558074,-0.62416452,0.54354131,-0.56123221,0
1.6766534,-0.53706896,-3.0477583,0.54539669,-0.21123037,-0.81112546,0
1.0091643,3.4500668,0.50449491,0.45992988,0.83630139,0.29843712,0
0.8611083,2.7109737,2.0506785,0.20771557,0.80793005,0.55145597,0
-1.0240881,-2.8995774,-1.6714363,-0.29237849,-0.82864058,-0.47735715,0
2.5245965,2.2818546,-0.82844305,0.74440169,0.63185245,-0.21593773,0
2.3110204,2.6169674,-0.28262758,0.68500721,0.72618192,-0.058527112,0
-0.60469747,-0.072317839,3.2751565,0.62416452,-0.54354131,0.56123221,0
0.49681091,1.8303853,3.1309595,-0.049297392,0.68950772,0.72259885,0
-2.5377142,-1.7909422,-1.5849059,-0.62416452,0.54354131,-0.56123221,0
2.6745811,-0.6422925,-0.92384446,0.62416452,-0.54354131,0.56123221,0
-3.3589468,-1.6330919,-0.51871204,-0.62416452,0.54354131,-0.56123221,0
1.2584121,2.7768674,1.7373846,0.31475097,0.83239985,0.45611686,0
-0.067915037,2.0568216,-0.60517287,-0.62416452,0.54354131,-0.56123221,0
-0.80570608,-3.0293472,0.6348846,0.62416452,-0.54354131,0.56123221,0
0.13389224,2.5971856,-0.30627799,-0.62416452,0.54354131,-0.56123221,0
-2.4937849,1.7912245,2.1416388,-0.47565192,0.30551532,0.82487327,0
-0.10597372,3.3160212,1.5112665,0.15168685,0.78897393,0.59540862,0
0.25755334,2.5341794,2.4039896,0.049953997,0.74463135,0.66560429,0
-0.48379934,2.9120364,0.68560314,-0.62416452,0.54354131,-0.56123221,0
2.2763491,-1.3567398,-1.1728845,0.62416452,-0.54354131,0.56123221,0
