2.7655101,-0.22757544,-2.3548954,0.63175261,-0.29813403,-0.715545,0
0.81937748,0.10933846,3.038075,0.55566412,0.81778932,0.14985985,0
-3.2890215,1.3403107,-0.54515576,-0.81061631,0.57295263,-0.12094009,0
-0.67855322,-0.87982833,3.3712258,-0.099988841,-0.11320804,0.9885273,0
0.8412475,0.74246609,-0.4980115,0.55566412,0.81778932,0.14985985,0
0.77494252,0.52653491,0.92618293,0.55566412,0.81778932,0.14985985,0
3.0551279,-1.3655694,-1.1062195,0.80699205,-0.48715228,-0.33383608,0
1.8673472,-2.0918014,-2.1818049,-0.55566412,-0.81778932,-0.14985985,0
-2.7739921,0.83823824,-0.96152753,-0.55566412,-0.81778932,-0.14985985,0
2.1475348,0.23330081,-2.5630546,0.55566412,0.81778932,0.14985985,0
-1.139709,2.1203108,-2.6368716,-0.43763888,0.44095761,-0.78359985,0
-3.3351264,0.8631286,0.98327106,-0.55566412,-0.81778932,-0.14985985,0
2.6596684,-0.46077394,-0.67440587,0.55566412,0.81778932,0.14985985,0
2.4137175,-1.5237716,-2.0362246,0.72298235,-0.38628286,-0.57278442,0
2.8337605,-0.70223856,-2.0510635,0.69963014,-0.36255345,-0.6156888,0
2.2445476,-0.10454954,-1.0791093,0.55566412,0.81778932,0.14985985,0
-1.9416056,0.61356068,-2.8218558,-0.55566412,-0.81778932,-0.14985985,0
-1.5512438,2.3610821,-0.45974389,0.55566412,0.81778932,0.14985985,0
-2.9116762,1.0540743,1.7062457,-0.75249428,0.4180392,0.50891608,0
1.1200111,-1.673191,-1.695133,-0.55566412,-0.81778932,-0.14985985,0
1.983942,-2.6583312,1.4097322,0.70342076,-0.55851352,0.43961555,0
-1.7389636,0.37093401,3.0220087,-0.463498,0.15506162,0.87242502,0
-0.49739844,-0.12597311,3.465009,-0.16431814,-0.06867113,0.98401415,0
1.1022295,0.18400662,1.5818245,0.55566412,0.81778932,0.14985985,0
-0.2490955,1.7042544,-1.703642,0.55566412,0.81778932,0.14985985,0
-2.5467694,2.2101221,1.0899661,-0.81585735,0.50164336,0.28762937,0
-2.8547873,0.64964813,2.0580504,-0.69712108,0.36006191,0.61998194,0
0.4730188,-1.0966985,-2.4420905,-0.55566412,-0.81778932,-0.14985985,0
-0.65793055,1.1918527,2.6084638,0.55566412,0.81778932,0.14985985,0
-0.1457371,-1.1619856,0.20846358,-0.55566412,-0.81778932,-0.14985985,0
1.5525076,-1.8462265,2.5497873,0.48565179,-0.46556544,0.73985898,0
-1.4068066,1.9938791,1.0085368,0.55566412,0.81778932,0.14985985,0
0.35590392,1.361549,-2.0767622,0.55566412,0.81778932,0.14985985,0
0.86364204,-0.60952467,-3.3775647,0.3300615,-0.051544785,-0.94255108,0
-2.0175221,0.66682279,-2.8310168,-0.55566412,-0.81778932,-0.14985985,0
-0.57136005,1.093106,2.826333,0.55566412,0.81778932,0.14985985,0
-0.85567772,1.9202982,-0.63345832,0.55566412,0.81778932,0.14985985,0
-2.1649799,2.5302622,0.89270324,0.55566412,0.81778932,0.14985985,0
-2.1438015,0.54175746,-1.6803027,-0.55566412,-0.81778932,-0.14985985,0
1.0121965,-0.5703913,3.3553984,0.19412947,-0.30288589,0.93304557,0
-3.1058424,0.75445127,1.6652027,-0.75096399,0.41633096,0.512564,0
-3.1256952,1.4903526,0.65927523,-0.82649618,0.52377301,0.20631513,0
0.057282224,-1.2249163,-0.20089567,-0.55566412,-0.81778932,-0.14985985,0
-1.4168801,2.531682,-1.8889184,0.55566412,0.81778932,0.14985985,0
-1.1119689,-0.52527845,0.31661814,-0.55566412,-0.81778932,-0.14985985,0
0.94923013,-2.2662632,2.1745164,-0.55566412,-0.81778932,-0.14985985,0
0.20938119,0.20639516,3.5832152,-0.07069651,-0.13312015,0.98857522,0
0.89823234,-0.47912294,3.4051485,0.15858868,-0.28119445,0.94645625,0
-2.7060709,1.411044,-1.8232429,-0.67426121,0.54871279,-0.49425319,0
-2.5720747,1.6477433,-1.7426785,-0.68044555,0.5508945,-0.48322785,0
0.7779026,1.2126538,-2.8289621,0.55566412,0.81778932,0.14985985,0
-1.6473842,2.6439285,-1.8657969,-0.62423122,0.52942348,-0.57449645,0
0.60244244,-1.0702524,-3.0662959,-0.55566412,-0.81778932,-0.14985985,0
-0.037425756,-0.036240235,-3.5476913,0.081720151,0.12565324,-0.98870277,0
-0.4564243,-1.0068984,0.51414251,-0.55566412,-0.81778932,-0.14985985,0
-0.86009598,2.0325894,-1.2298527,0.55566412,0.81778932,0.14985985,0
-1.8831571,2.6569736,-0.84373224,0.55566412,0.81778932,0.14985985,0
-0.40123987,-1.258163,1.6806831,-0.55566412,-0.81778932,-0.14985985,0
1.0961882,-1.8082886,-0.86956853,-0.55566412,-0.81778932,-0.14985985,0
-0.5149883,-0.55077416,-1.7577909,-0.55566412,-0.81778932,-0.14985985,0
0.2138696,1.1551863,-0.423987,0.55566412,0.81778932,0.14985985,0
-1.4135973,2.5570049,-2.1626019,-0.55971205,0.50123698,-0.65991211,0
0.12480274,-1.7759962,2.5560029,-0.55566412,-0.81778932,-0.14985985,0
2.5854888,-0.72333086,1.0334244,0.55566412,0.81778932,0.14985985,0
0.6535548,-0.11928613,-3.4455054,0.22653723,0.024503939,-0.97369426,0
-1.7882073,2.6588628,-1.6864123,-0.65825021,0.54283911,-0.52156729,0
0.22932406,-1.090205,-1.5739313,-0.55566412,-0.81778932,-0.14985985,0
2.7190096,-0.45822734,-2.2965658,0.65112746,-0.31596673,-0.69007105,0
2.7358623,-0.98304498,1.8931229,0.55566412,0.81778932,0.14985985,0
-2.8915591,0.91956234,-0.9693895,-0.55566412,-0.81778932,-0.14985985,0
1.1617725,1.0338697,-3.2766819,0.55566412,0.81778932,0.14985985,0
2.0363169,-2.4878643,-0.64700174,-0.55566412,-0.81778932,-0.14985985,0
2.5362551,-2.3427014,0.70030606,0.78839999,-0.57551193,0.21728203,0
-2.499856,1.0252326,-2.4040391,-0.56962502,0.5057649,-0.64786512,0
-0.12675238,1.7301006,-3.1620505,-0.17442638,0.29090416,-0.940718,0
-2.8584678,1.53303,1.3219779,-0.79502761,0.46991193,0.38355425,0
-1.1739532,-0.67148262,1.3442889,-0.55566412,-0.81778932,-0.14985985,0
-0.8713764,-0.64894247,0.09936507,-0.55566412,-0.81778932,-0.14985985,0
-3.1512933,1.0417182,-0.67293197,-0.55566412,-0.81778932,-0.14985985,0
-3.0338025,0.57669353,1.4290782,-0.55566412,-0.81778932,-0.14985985,0
-1.7901202,0.037683517,3.0497458,-0.43099421,0.12919524,0.893058,0
0.46521205,0.45919406,2.4421108,0.55566412,0.81778932,0.14985985,0
2.7319469,-1.8889941,1.1125466,0.75833416,-0.57241756,0.31187722,0
1.051458,1.0187935,-2.7853751,0.55566412,0.81778932,0.14985985,0
-0.11821003,-0.48371786,-3.5949299,-0.55566412,-0.81778932,-0.14985985,0
1.4781299,0.56903243,-1.9130704,0.55566412,0.81778932,0.14985985,0
-3.1716263,0.78608429,0.79746312,-0.55566412,-0.81778932,-0.14985985,0
-1.0888895,-0.55376589,0.38649875,-0.55566412,-0.81778932,-0.14985985,0
-2.1421661,-0.050593823,1.546111,-0.55566412,-0.81778932,-0.14985985,0
2.9730306,-0.51001942,-1.5675856,0.55566412,0.81778932,0.14985985,0
0.23156738,-1.4478242,0.36928791,-0.55566412,-0.81778932,-0.14985985,0
-1.1899035,-0.061728887,-1.9240117,-0.55566412,-0.81778932,-0.14985985,0
-0.0051493645,-1.7130978,2.6946127,-0.55566412,-0.81778932,-0.14985985,0
0.33005282,-1.9833238,2.9263506,-0.55566412,-0.81778932,-0.14985985,0
-1.8185433,2.4529285,0.030165523,0.55566412,0.81778932,0.14985985,0
0.22059245,-1.4249736,0.28528613,-0.55566412,-0.81778932,-0.14985985,0
0.09219557,-1.5834857,1.6263725,-0.55566412,-0.81778932,-0.14985985,0
-1.3587291,2.3788633,-1.2706001,0.55566412,0.81778932,0.14985985,0
-0.0076726563,0.86621416,1.9743963,0.55566412,0.81778932,0.14985985,0
2.6740274,-2.1697986,-0.74258995,0.82749033,-0.52651322,-0.19504768,0
2.1068907,-0.62271261,2.2589388,0.55566412,0.81778932,0.14985985,0
-1.8702593,1.0858996,2.7644463,-0.57612681,0.24878719,0.77857739,0
-0.60595667,1.3152405,1.7424196,0.55566412,0.81778932,0.14985985,0
-0.4504723,0.55337995,-3.440794,-0.078950599,0.23133576,-0.96966517,0
-2.8548701,1.6605014,1.1599275,-0.8070116,0.48718229,0.33374491,0
-2.1664412,0.55965167,-1.694005,-0.55566412,-0.81778932,-0.14985985,0
-0.53101927,-0.68339014,-0.97466046,-0.55566412,-0.81778932,-0.14985985,0
1.451889,-2.4668012,1.4050528,-0.55566412,-0.81778932,-0.14985985,0
1.2932352,-0.28350297,-3.2399335,0.36930168,-0.081286572,-0.92574775,0
-2.778223,1.4368272,1.5762508,-0.77273893,0.44148597,0.4560315,0
-0.28720221,-0.43898416,3.4604635,-0.082057767,-0.12542406,0.98870391,0
1.6366369,0.6042403,-2.6929271,0.55566412,0.81778932,0.14985985,0
1.1383489,-2.2079072,1.1548345,-0.55566412,-0.81778932,-0.14985985,0
-1.8050036,0.39737552,-2.1486318,-0.55566412,-0.81778932,-0.14985985,0
0.74451339,-2.104661,2.0517163,-0.55566412,-0.81778932,-0.14985985,0
1.3363577,-0.20498024,-3.2296135,0.36737779,-0.079815701,-0.92664069,0
-2.9989827,1.3395438,1.2676293,-0.79636484,0.47174805,0.37849289,0
0.85091889,-2.216341,2.2666171,-0.55566412,-0.81778932,-0.14985985,0
2.5788765,-2.1959312,-1.0214865,0.81872672,-0.50686681,-0.26976398,0
0.91907567,0.091770113,-3.3768668,0.24994147,0.0076003075,-0.96823108,0
2.518641,-0.14406431,-1.8797846,0.55566412,0.81778932,0.14985985,0
1.5139109,-0.34234929,-3.1383343,0.41810724,-0.119064,-0.90056103,0
-1.1449852,-0.29971296,-0.7918784,-0.55566412,-0.81778932,-0.14985985,0
-0.059610397,0.9445731,1.7393692,0.55566412,0.81778932,0.14985985,0
3.2269864,-0.88678741,-0.45319274,0.55566412,0.81778932,0.14985985,0
0.88318527,1.1691527,-2.9819536,0.55566412,0.81778932,0.14985985,0
2.8190126,-1.6967454,-1.1934083,0.8054322,-0.48478439,-0.34097382,0
-1.8887526,-0.06595245,0.69029379,-0.55566412,-0.81778932,-0.14985985,0
-2.5892339,1.8111193,1.5295336,-0.78289831,0.45400566,0.42538112,0
-0.34342209,-0.99616653,0.036578342,-0.55566412,-0.81778932,-0.14985985,0
-0.29050636,-0.76220477,-1.4363632,-0.55566412,-0.81778932,-0.14985985,0
0.71342266,-1.4239247,-1.5477992,-0.55566412,-0.81778932,-0.14985985,0
0.17715788,0.39962453,3.6042874,-0.10264942,-0.11138816,0.98846138,0
1.8630458,-0.56535029,-2.9117148,0.51062137,-0.19343206,-0.8377648,0
3.3315165,-0.83404863,-1.1285759,0.55566412,0.81778932,0.14985985,0
1.287291,0.36913347,-0.11460646,0.55566412,0.81778932,0.14985985,0
-2.4555278,2.262887,-1.0969216,-0.75265789,0.5713653,-0.32718179,0
-2.4765553,2.1408124,1.3672651,-0.79958916,0.47625849,0.36583474,0
0.26560253,0.57365954,2.5576,0.55566412,0.81778932,0.14985985,0
0.50577754,-2.0665016,2.728687,-0.55566412,-0.81778932,-0.14985985,0
0.51845062,0.28015128,3.2217495,0.55566412,0.81778932,0.14985985,0
-1.9366521,2.3347969,1.112748,0.55566412,0.81778932,0.14985985,0
1.2406272,-2.4345551,2.0124197,-0.55566412,-0.81778932,-0.14985985,0
0.1723161,1.2959052,-1.0378183,0.55566412,0.81778932,0.14985985,0
-2.7320118,0.33469778,1.6306478,-0.55566412,-0.81778932,-0.14985985,0
-0.84811068,0.93773615,3.3600581,-0.36919034,0.081201412,0.92579955,0
0.41705573,-1.6736202,0.91369277,-0.55566412,-0.81778932,-0.14985985,0
1.3068173,-2.3221366,2.4101336,0.5022403,-0.47381404,0.72336352,0
0.57626003,-1.9549711,1.8587198,-0.55566412,-0.81778932,-0.14985985,0
-0.17870553,0.92371887,2.2947628,0.55566412,0.81778932,0.14985985,0
2.3232141,-0.76016676,2.2069256,0.55566412,0.81778932,0.14985985,0
1.6279094,0.67287469,-3.0351071,0.55566412,0.81778932,0.14985985,0
1.2755699,-2.3100843,1.203616,-0.55566412,-0.81778932,-0.14985985,0
-0.77052063,-0.17394897,-2.8666496,-0.55566412,-0.81778932,-0.14985985,0
0.74008036,0.84103912,-0.66081011,0.55566412,0.81778932,0.14985985,0
3.1530583,-0.62067127,-1.631279,0.55566412,0.81778932,0.14985985,0
-2.3347855,0.71056265,-1.8933287,-0.55566412,-0.81778932,-0.14985985,0
0.94588083,-0.025206774,-3.3696697,0.27025166,-0.0072019398,-0.96276277,0
-2.9243073,1.7246145,-0.92111802,-0.77953714,0.57513344,-0.24807927,0
0.63854825,1.1198263,-1.8056896,0.55566412,0.81778932,0.14985985,0
1.9870908,-0.59165287,2.5336492,0.55566412,0.81778932,0.14985985,0
0.21504475,-1.3354259,-0.18280873,-0.55566412,-0.81778932,-0.14985985,0
1.8444504,-2.1454089,-1.8043691,-0.55566412,-0.81778932,-0.14985985,0
-2.7306504,1.577106,1.5186461,-0.78018582,0.4506017,0.43389893,0
-3.2103784,1.490171,0.1388389,-0.83081502,0.55297375,0.062979572,0
0.71227157,-1.6866887,-0.10962107,-0.55566412,-0.81778932,-0.14985985,0
0.0020958781,-0.7888158,3.4125252,0.021637887,-0.19441211,0.98068124,0
-2.4653401,2.2419467,1.2529889,-0.80778587,0.48837456,0.3301096,0
2.0250142,-0.42007428,1.4567245,0.55566412,0.81778932,0.14985985,0
-0.9191156,-0.28582945,-1.7051406,-0.55566412,-0.81778932,-0.14985985,0
1.7891508,-2.5251234,0.47278851,-0.55566412,-0.81778932,-0.14985985,0
-0.042738512,-0.6979984,-2.7054353,-0.55566412,-0.81778932,-0.14985985,0
-0.45571288,1.2736057,1.412534,0.55566412,0.81778932,0.14985985,0
1.7758049,0.45369044,-2.3873923,0.55566412,0.81778932,0.14985985,0
-2.337466,0.64048713,-1.5009855,-0.55566412,-0.81778932,-0.14985985,0
-2.2176085,-0.21289873,2.7115452,-0.55566412,-0.81778932,-0.14985985,0
0.52720898,-1.3365792,-1.3339862,-0.55566412,-0.81778932,-0.14985985,0
-0.92562616,-0.16437286,-2.3437924,-0.55566412,-0.81778932,-0.14985985,0
0.52496737,-1.2801642,-1.6335326,-0.55566412,-0.81778932,-0.14985985,0
-1.962904,2.4655311,-1.6658454,-0.66814059,0.54650456,-0.504897,0
-1.0360289,1.6985196,1.2455162,0.55566412,0.81778932,0.14985985,0
0.50446069,-1.9953278,2.3451715,-0.55566412,-0.81778932,-0.14985985,0
2.5002847,-2.5452788,-0.20854551,0.82922065,-0.55818886,-0.028608985,0
-0.53634036,1.5908021,-3.1174822,-0.23829328,0.32933927,-0.91364759,0
2.4874017,-0.11058065,-1.9466735,0.55566412,0.81778932,0.14985985,0
-2.5895495,0.97434115,2.1669378,-0.68948418,0.35253966,0.63271427,0
0.8412323,-0.75103039,3.3320575,0.18437292,-0.29696646,0.93691915,0
1.9203372,-1.2313001,2.6947083,0.47501099,-0.46020317,0.75005174,0
-0.19731578,0.75913227,-3.41098,-0.056375951,0.21689494,-0.9745658,0
-0.27363899,1.720015,-1.6986444,0.55566412,0.81778932,0.14985985,0
-1.1709909,2.2242584,-1.1230299,0.55566412,0.81778932,0.14985985,0
-0.23951364,1.7554691,-3.1313372,-0.2007207,0.30686963,-0.93034524,0
1.3880174,0.10721374,0.94121444,0.55566412,0.81778932,0.14985985,0
0.89966297,-1.9750242,0.76900595,-0.55566412,-0.81778932,-0.14985985,0
0.0047561303,-0.89061469,-1.8304281,-0.55566412,-0.81778932,-0.14985985,0
-1.8851444,0.24945423,-1.0442688,-0.55566412,-0.81778932,-0.14985985,0
-2.1920204,0.41027611,-0.78401381,-0.55566412,-0.81778932,-0.14985985,0
2.0456798,-0.2090985,0.22879721,0.55566412,0.81778932,0.14985985,0
0.98826122,1.1533237,-3.2851832,0.55566412,0.81778932,0.14985985,0
2.1435366,0.22028935,-2.4772265,0.55566412,0.81778932,0.14985985,0
0.15705885,1.4079753,-1.5928158,0.55566412,0.81778932,0.14985985,0
1.1336964,0.74333102,-1.5871006,0.55566412,0.81778932,0.14985985,0
0.45064366,0.90128338,0.083635136,0.55566412,0.81778932,0.14985985,0
-0.53634912,0.55193663,-3.433388,-0.095899791,0.24208948,-0.96550298,0
-1.1169946,-0.92130601,2.4963863,-0.55566412,-0.81778932,-0.14985985,0
0.38590682,0.085958079,-3.4857078,0.14798671,0.080084413,-0.98574162,0
-0.49253234,1.8055482,-1.3537678,0.55566412,0.81778932,0.14985985,0
2.4551189,-0.080547869,-1.9908624,0.55566412,0.81778932,0.14985985,0
-1.3209981,-0.0078825355,-1.731768,-0.55566412,-0.81778932,-0.14985985,0
1.4950497,0.40792406,-1.0966341,0.55566412,0.81778932,0.14985985,0
1.4965204,0.5914706,-2.1037059,0.55566412,0.81778932,0.14985985,0
1.483528,-0.705163,3.1741321,0.3090263,-0.37048733,0.87592351,0
-0.84371245,-0.078359842,-3.116895,-0.55566412,-0.81778932,-0.14985985,0
3.004034,-1.6700419,-0.69046807,0.82654035,-0.5238899,-0.20584078,0
-1.6545026,2.1064572,1.3126239,0.55566412,0.81778932,0.14985985,0
-0.99471307,-0.61541295,0.37371272,-0.55566412,-0.81778932,-0.14985985,0
0.87429178,0.38682896,1.320186,0.55566412,0.81778932,0.14985985,0
2.9147167,-1.8915924,0.44228244,0.81071484,-0.57292354,0.12041654,0
2.4427967,-2.3330574,1.000075,0.76155818,-0.57296181,0.30289266,0
0.33119798,0.41345602,3.1886141,0.55566412,0.81778932,0.14985985,0
-2.0504715,-0.1641573,1.8258367,-0.55566412,-0.81778932,-0.14985985,0
-1.5052434,-0.1015645,-0.53738081,-0.55566412,-0.81778932,-0.14985985,0
-1.1870762,1.4673706,3.0669701,0.55566412,0.81778932,0.14985985,0
-0.0076451898,1.4391865,-1.1524308,0.55566412,0.81778932,0.14985985,0
-0.4716543,-0.99679297,0.5154686,-0.55566412,-0.81778932,-0.14985985,0
-1.7408217,2.5553408,-0.81688398,0.55566412,0.81778932,0.14985985,0
-1.4541967,-0.59019858,1.9398332,-0.55566412,-0.81778932,-0.14985985,0
-3.1558824,1.5102656,-0.61902457,-0.80463022,0.57433689,-0.15069012,0
-1.795809,2.352859,0.49195156,0.55566412,0.81778932,0.14985985,0
0.72054511,-2.1773813,2.537425,-0.55566412,-0.81778932,-0.14985985,0
-1.5989316,-0.1659016,3.1574452,-0.36936533,0.081335276,0.92571801,0
1.6783414,-0.4969871,3.1618657,0.55566412,0.81778932,0.14985985,0
2.1522222,-1.4330655,2.3896112,0.55426222,-0.49872047,0.66638684,0
-2.0462148,0.56401098,-2.1635809,-0.55566412,-0.81778932,-0.14985985,0
-1.5726991,2.3536017,-0.33936816,0.55566412,0.81778932,0.14985985,0
-1.5287917,-0.19875677,0.08031407,-0.55566412,-0.81778932,-0.14985985,0
-0.19454971,1.6089894,-1.3860283,0.55566412,0.81778932,0.14985985,0
-0.11633004,0.84612823,2.486896,0.55566412,0.81778932,0.14985985,0
1.4450829,-2.5798917,2.0474274,-0.55566412,-0.81778932,-0.14985985,0
-0.95842016,1.0660379,-3.1960156,-0.25165227,0.33722833,-0.90716493,0
-0.20679156,1.3448466,0.10079703,0.55566412,0.81778932,0.14985985,0
0.6179173,-1.166283,3.2439799,0.19627817,-0.3041859,0.9321726,0
-2.2103758,0.25360635,0.13899696,-0.55566412,-0.81778932,-0.14985985,0
-0.16251731,1.4490471,-0.63199174,0.55566412,0.81778932,0.14985985,0
3.2178702,-0.69305694,-1.476584,0.55566412,0.81778932,0.14985985,0
-0.1943278,1.4036469,-0.26629233,0.55566412,0.81778932,0.14985985,0
3.339807,-1.1368668,0.49317095,0.55566412,0.81778932,0.14985985,0
-1.5325708,2.4908726,-1.2372518,0.55566412,0.81778932,0.14985985,0
-0.9904018,-0.65001374,0.54654425,-0.55566412,-0.81778932,-0.14985985,0
3.4135907,-1.0822079,-0.54083854,0.82754594,-0.52667397,-0.19437698,0
0.10351628,1.2189493,-3.3260336,-0.058683261,0.21837705,-0.97409844,0
-1.0610887,-0.40356907,-0.53621155,-0.55566412,-0.81778932,-0.14985985,0
0.53794551,-1.0760673,-2.7954161,-0.55566412,-0.81778932,-0.14985985,0
-1.4921262,0.0058329999,3.1849604,-0.37122318,0.082756966,0.92484844,0
-0.98629808,1.4630456,2.3461087,0.55566412,0.81778932,0.14985985,0
0.43366343,0.70226121,1.2326654,0.55566412,0.81778932,0.14985985,0
-1.9763705,0.16437519,-0.24173281,-0.55566412,-0.81778932,-0.14985985,0
0.76228774,0.37076357,1.8231536,0.55566412,0.81778932,0.14985985,0
2.2832336,-2.7515304,0.52901727,0.79558408,-0.57535285,0.18977664,0
0.71825302,-1.4529579,3.1187398,0.25629371,-0.33995682,0.90484416,0
1.8402903,0.24900097,-1.5095012,0.55566412,0.81778932,0.14985985,0
-1.9898546,1.469848,-2.491338,-0.52455038,0.48468253,-0.6999498,0
-1.3763361,-0.34675205,0.32263991,-0.55566412,-0.81778932,-0.14985985,0
-2.319694,0.36123636,-0.043002404,-0.55566412,-0.81778932,-0.14985985,0
-1.5747129,2.489253,-1.0721552,0.55566412,0.81778932,0.14985985,0
-0.88409781,-0.30984837,-1.7039111,-0.55566412,-0.81778932,-0.14985985,0
1.1621313,-2.1673973,2.5972559,0.44912317,-0.44693762,0.77365053,0
-0.44955412,-0.61422813,3.4245729,-0.090515316,-0.11967278,0.98867863,0
0.98894763,1.0349205,-2.6415989,0.55566412,0.81778932,0.14985985,0
-2.3100588,0.92011648,-2.631258,-0.51308733,0.47913155,-0.71216184,0
-1.4177799,-0.24393444,-0.084769294,-0.55566412,-0.81778932,-0.14985985,0
3.4461627,-1.1392577,-0.10716826,0.83106792,-0.55148679,-0.07203117,0
-0.89792478,0.88624531,-3.2754459,-0.21447179,0.31514075,-0.92449343,0
-0.74156559,1.5595829,0.91185951,0.55566412,0.81778932,0.14985985,0
-0.99442148,-0.45274127,-0.51507252,-0.55566412,-0.81778932,-0.14985985,0
-1.7570406,1.5103977,2.7060914,-0.60749209,0.27630311,0.74472141,0
-1.8308492,2.2762454,1.0399595,0.55566412,0.81778932,0.14985985,0
0.44487262,1.3655138,-2.4282854,0.55566412,0.81778932,0.14985985,0
1.5648657,-0.23479019,2.1518047,0.55566412,0.81778932,0.14985985,0
-0.26308867,-0.72719312,-1.7290843,-0.55566412,-0.81778932,-0.14985985,0
2.6752825,-2.2328682,-0.53184229,0.83091265,-0.54002416,-0.13400777,0
-0.99186051,-0.37939397,3.3542461,-0.22643492,-0.024577469,0.9737162,0
-0.58781785,-0.85781223,0.18776882,-0.55566412,-0.81778932,-0.14985985,0
1.5843244,0.54492956,-2.1752977,0.55566412,0.81778932,0.14985985,0
0.31192899,0.82075739,1.0374069,0.55566412,0.81778932,0.14985985,0
-2.7963552,0.45205835,1.2287861,-0.55566412,-0.81778932,-0.14985985,0
-1.0436425,-0.18881413,-1.7728237,-0.55566412,-0.81778932,-0.14985985,0
-0.71338642,-1.3382473,3.275111,-0.55566412,-0.81778932,-0.14985985,0
1.0025859,0.56053501,-0.10343386,0.55566412,0.81778932,0.14985985,0
-1.0246844,1.1050714,-3.1620095,-0.27061611,0.34833482,-0.89745742,0
0.3255294,0.31379685,3.6057997,-0.062239304,-0.13882691,0.98835891,0
-0.55989128,1.1765896,2.3282366,0.55566412,0.81778932,0.14985985,0
1.1970954,-1.7164851,-1.7446954,-0.55566412,-0.81778932,-0.14985985,0
0.10587807,1.5678464,-2.2754645,0.55566412,0.81778932,0.14985985,0
2.8500264,-0.79636681,0.45110688,0.55566412,0.81778932,0.14985985,0
-2.8275468,0.60948825,0.4853431,-0.55566412,-0.81778932,-0.14985985,0
-0.70100629,1.759717,-0.33066657,0.55566412,0.81778932,0.14985985,0
0.69499159,-2.1830156,2.6629198,-0.55566412,-0.81778932,-0.14985985,0
2.5468664,-0.5513531,0.2381445,0.55566412,0.81778932,0.14985985,0
0.53515953,-1.8750547,1.5750096,-0.55566412,-0.81778932,-0.14985985,0
-2.040482,0.35774022,-1.0592128,-0.55566412,-0.81778932,-0.14985985,0
0.71649086,-1.1165853,-3.2363365,-0.55566412,-0.81778932,-0.14985985,0
2.6559868,-2.1212885,-0.92401242,0.82194549,-0.51322764,-0.24698792,0
-3.1041439,0.79296196,1.6359787,-0.754933,0.42077804,0.5030129,0
2.9233289,-1.9243573,0.068664037,0.82555872,-0.56405997,0.017008159,0
1.2147751,-2.2862735,1.2991004,-0.55566412,-0.81778932,-0.14985985,0
-1.2645804,1.6627951,2.2879114,0.55566412,0.81778932,0.14985985,0
2.7798417,-0.50980091,-0.85245419,0.55566412,0.81778932,0.14985985,0
3.2562249,-0.84559846,-0.78637511,0.55566412,0.81778932,0.14985985,0
-1.4120657,0.012532659,-1.5055054,-0.55566412,-0.81778932,-0.14985985,0
0.3517735,1.0653813,-0.44525164,0.55566412,0.81778932,0.14985985,0
1.0914717,-2.2499292,1.5579649,-0.55566412,-0.81778932,-0.14985985,0
-1.9532144,1.8954551,-2.2045999,-0.57939398,0.51016229,-0.63563901,0
-2.3367202,0.71662402,-1.919232,-0.55566412,-0.81778932,-0.14985985,0
-0.76342475,-0.92086887,1.1830025,-0.55566412,-0.81778932,-0.14985985,0
-0.078913063,-0.5682199,-3.2795086,-0.55566412,-0.81778932,-0.14985985,0
0.44808072,-1.6804436,3.1080952,0.23272415,-0.32603475,0.91626465,0
1.5896441,0.7122103,-3.1078784,0.55566412,0.81778932,0.14985985,0
-1.1697973,1.9861389,0.17196882,0.55566412,0.81778932,0.14985985,0
-1.7503403,2.5252655,-1.8630263,-0.62922418,0.53146398,-0.56711805,0
1.8084823,0.55867898,-3.0814829,0.55566412,0.81778932,0.14985985,0
-2.9566865,1.040969,1.6494855,-0.75833166,0.42463028,0.49459291,0
1.4476132,0.65361774,-2.2615016,0.55566412,0.81778932,0.14985985,0
-1.1349369,-0.54149055,0.49025097,-0.55566412,-0.81778932,-0.14985985,0
-2.0408902,-0.34524027,2.7784855,-0.55566412,-0.81778932,-0.14985985,0
0.47223932,-0.12908559,3.5328891,0.025970913,-0.19723372,0.98001242,0
0.27612105,-1.2038809,-1.1271176,-0.55566412,-0.81778932,-0.14985985,0
-1.5792928,0.41478151,-3.0805285,-0.55566412,-0.81778932,-0.14985985,0
0.34924266,-0.99312884,-2.5483243,-0.55566412,-0.81778932,-0.14985985,0
2.4725699,-1.1115944,-2.2177279,0.68540949,-0.34856227,-0.63931066,0
0.38610923,0.713723,1.3464441,0.55566412,0.81778932,0.14985985,0
0.472119,-1.5856155,0.22927989,-0.55566412,-0.81778932,-0.14985985,0
-3.0631628,1.3489811,1.1109757,-0.8065384,0.48645911,0.33593649,0
0.61916888,-1.3550042,-1.5744177,-0.55566412,-0.81778932,-0.14985985,0
1.5216968,-2.1807346,-0.41486016,-0.55566412,-0.81778932,-0.14985985,0
0.58219397,1.3853153,-3.0455148,0.55566412,0.81778932,0.14985985,0
1.8791887,0.2659972,-3.0488749,0.40913627,-0.1120511,-0.90556723,0
-1.928157,2.1719854,1.9697158,0.55566412,0.81778932,0.14985985,0
0.46599618,-1.9422116,2.1979375,-0.55566412,-0.81778932,-0.14985985,0
2.8917201,-0.51911354,-1.2164676,0.55566412,0.81778932,0.14985985,0
0.73989981,-1.155535,-3.1105843,-0.55566412,-0.81778932,-0.14985985,0
-1.3225194,-0.5858773,1.4280064,-0.55566412,-0.81778932,-0.14985985,0
-2.2484145,1.8785775,-1.9145703,-0.64240414,0.53673643,-0.54702008,0
2.3869455,-0.7229023,1.7672623,0.55566412,0.81778932,0.14985985,0
2.6556351,-0.79430115,1.1606159,0.55566412,0.81778932,0.14985985,0
-1.9948773,2.4926865,-1.5921756,-0.67973363,0.55064595,-0.48451138,0
-1.0635475,-0.82533717,1.7745056,-0.55566412,-0.81778932,-0.14985985,0
-0.57218421,0.31771284,-3.4869537,-0.071292639,0.22645205,-0.9714098,0
-2.5819728,0.59096539,-0.32413876,-0.55566412,-0.81778932,-0.14985985,0
1.2983013,-0.023283355,1.985998,0.55566412,0.81778932,0.14985985,0
-3.1336803,1.4918673,0.62251174,-0.8273952,0.52624035,0.19618411,0
-2.5641799,2.415411,0.4770948,-0.83136785,0.54479122,0.10968177,0
0.72164905,-1.3273262,-2.1054428,-0.55566412,-0.81778932,-0.14985985,0
-0.50656605,-0.28096378,-3.2613819,-0.55566412,-0.81778932,-0.14985985,0
-1.0290543,1.8306589,0.49856764,0.55566412,0.81778932,0.14985985,0
1.5206258,-1.8906679,-1.993791,-0.55566412,-0.81778932,-0.14985985,0
-1.2204447,2.3250303,-1.4895765,0.55566412,0.81778932,0.14985985,0
-0.12562892,1.6154631,-1.6769065,0.55566412,0.81778932,0.14985985,0
-2.4592574,0.13859752,1.689429,-0.55566412,-0.81778932,-0.14985985,0
-1.0348079,1.3452287,3.1689074,0.55566412,0.81778932,0.14985985,0
0.33655009,-1.3707081,-0.44080144,-0.55566412,-0.81778932,-0.14985985,0
-0.76529557,-0.18774723,-2.8107266,-0.55566412,-0.81778932,-0.14985985,0
0.29266846,-0.99574947,3.3459539,0.10747563,-0.24939014,0.9624207,0
-1.5483968,0.13343611,-1.6597774,-0.55566412,-0.81778932,-0.14985985,0
-2.3850856,2.3291864,1.319186,-0.80483752,0.48389286,0.34363413,0
1.1685576,0.58668888,-0.86156148,0.55566412,0.81778932,0.14985985,0
3.3454075,-0.87248886,-0.97031271,0.55566412,0.81778932,0.14985985,0
1.143971,-2.0298309,2.6847656,0.42559385,-0.43462545,0.79370689,0
1.4590523,-0.075101197,1.6727227,0.55566412,0.81778932,0.14985985,0
1.9661622,-2.465095,-0.51112682,-0.55566412,-0.81778932,-0.14985985,0
0.87309867,-1.4061897,-2.2366416,-0.55566412,-0.81778932,-0.14985985,0
-0.48762381,1.6614282,-0.58550179,0.55566412,0.81778932,0.14985985,0
-1.6564128,2.5512855,-1.1077342,0.55566412,0.81778932,0.14985985,0
1.7929304,-1.9435898,-2.4881988,0.6656388,-0.32958728,-0.66955,0
-2.0601978,2.0928693,-1.9243118,-0.63282239,0.53292012,-0.56172234,0
-2.5381176,0.9815861,2.2181482,-0.68148559,0.34475455,0.64553988,0
2.6714025,-1.7910964,-1.3933253,0.79328609,-0.46754843,-0.38999447,0
1.903576,-2.1466146,-2.0170214,-0.55566412,-0.81778932,-0.14985985,0
-2.5271735,2.0722301,-1.2568486,-0.73824906,0.56822443,-0.3634685,0
1.4054401,0.0067671463,1.4247528,0.55566412,0.81778932,0.14985985,0
0.89488828,0.72901613,-0.62350881,0.55566412,0.81778932,0.14985985,0
-0.89685649,0.50045872,3.3717082,-0.3223215,0.045740798,0.94552451,0
2.1444955,0.18357518,-2.2804313,0.55566412,0.81778932,0.14985985,0
-2.94994,0.73136234,0.27409387,-0.55566412,-0.81778932,-0.14985985,0
-1.5631731,-0.14203174,-0.10175313,-0.55566412,-0.81778932,-0.14985985,0
1.1422575,0.92972636,-2.636008,0.55566412,0.81778932,0.14985985,0
-0.057662368,-1.3017925,0.64482224,-0.55566412,-0.81778932,-0.14985985,0
0.93260056,0.36711109,1.2115839,0.55566412,0.81778932,0.14985985,0
2.8363247,-0.82775545,0.67320043,0.55566412,0.81778932,0.14985985,0
-1.5430317,-0.26478845,0.49345121,-0.55566412,-0.81778932,-0.14985985,0
1.1512437,-0.18435764,3.4102588,0.55566412,0.81778932,0.14985985,0
-0.39164677,-1.1112243,3.3542221,-0.012878418,-0.17176068,0.98505455,0
-1.744123,0.36222631,-2.1825612,-0.55566412,-0.81778932,-0.14985985,0
1.3247736,0.67378759,-1.9160935,0.55566412,0.81778932,0.14985985,0
1.3272927,-0.45076472,3.3221014,0.24162059,-0.33130914,0.91206014,0
-2.0881503,2.0938492,-1.8914419,-0.63925225,0.53549105,-0.55191112,0
-2.8248425,1.7326045,-1.1731598,-0.75493401,0.57180107,-0.3211202,0
1.5790311,0.62607622,-3.1928785,0.3065322,-0.033962458,-0.95125425,0
2.5602927,-0.87321919,1.9447939,0.55566412,0.81778932,0.14985985,0
-0.38613459,1.9906712,-2.7584991,0.55566412,0.81778932,0.14985985,0
-2.6930609,0.3650009,1.3208581,-0.55566412,-0.81778932,-0.14985985,0
1.8596066,-0.28411725,1.3281161,0.55566412,0.81778932,0.14985985,0
-1.1396413,1.5883716,2.2307806,0.55566412,0.81778932,0.14985985,0
-0.52700996,-1.0864114,1.2097712,-0.55566412,-0.81778932,-0.14985985,0
0.83783877,0.11595798,2.9335003,0.55566412,0.81778932,0.14985985,0
-1.0536804,1.1454784,3.2448595,-0.43402067,0.1315845,0.89124167,0
-1.2153685,1.5672932,2.6265948,0.55566412,0.81778932,0.14985985,0
1.7359523,0.45834196,-2.2650068,0.55566412,0.81778932,0.14985985,0
-1.8464596,2.7371531,-1.4173454,0.55566412,0.81778932,0.14985985,0
-2.9449036,0.94702506,-0.9214586,-0.55566412,-0.81778932,-0.14985985,0
0.090398997,1.2430698,-0.44575417,0.55566412,0.81778932,0.14985985,0
2.9937761,-0.95958066,0.80876005,0.55566412,0.81778932,0.14985985,0
3.4424326,-1.0059688,-0.60166883,0.55566412,0.81778932,0.14985985,0
0.69775856,-1.9439609,1.3481338,-0.55566412,-0.81778932,-0.14985985,0
-1.3819699,-0.53831929,1.3889174,-0.55566412,-0.81778932,-0.14985985,0
0.42498338,-1.861933,1.9119259,-0.55566412,-0.81778932,-0.14985985,0
0.81536937,0.58184373,0.47446233,0.55566412,0.81778932,0.14985985,0
-1.370041,-0.63028872,1.846566,-0.55566412,-0.81778932,-0.14985985,0
1.7153258,-1.5811597,-2.7138565,0.60862553,-0.27731177,-0.74341995,0
1.7930334,-1.4890475,-2.6845446,0.61131591,-0.27971017,-0.74030745,0
-1.5183035,-0.42359948,1.2683983,-0.55566412,-0.81778932,-0.14985985,0
1.3745283,0.64450634,-1.9407903,0.55566412,0.81778932,0.14985985,0
1.0001656,0.6655854,-0.6677227,0.55566412,0.81778932,0.14985985,0
3.1275051,-0.93812943,0.19584832,0.55566412,0.81778932,0.14985985,0
1.1857767,-2.4529874,2.3163862,-0.55566412,-0.81778932,-0.14985985,0
2.5351808,-0.55093533,0.27919346,0.55566412,0.81778932,0.14985985,0
-2.7270467,0.84174204,2.0901206,-0.69759595,0.3605327,0.61917371,0
1.6683844,-1.2852201,-2.8492572,0.56415349,-0.23847002,-0.7904827,0
-2.6710546,1.3146119,1.8452229,-0.74210536,0.40658802,0.53288448,0
-0.77425432,1.3396858,-3.1453781,-0.25201353,0.33744097,-0.90698552,0
-3.0157099,0.92279458,-0.52669001,-0.55566412,-0.81778932,-0.14985985,0
1.0263932,0.69934702,-0.94920999,0.55566412,0.81778932,0.14985985,0
-0.13566564,0.9282847,2.1102598,0.55566412,0.81778932,0.14985985,0
0.62350798,-0.083342075,-3.4512851,0.21607384,0.032008946,-0.97585219,0
-1.4433979,-0.79597294,3.0227084,-0.55566412,-0.81778932,-0.14985985,0
-1.1453409,1.7280703,1.4895743,0.55566412,0.81778932,0.14985985,0
-0.20301098,1.3551657,-3.2602475,-0.13847189,0.26876169,-0.95320129,0
3.1997161,-0.76976728,-0.99066013,0.55566412,0.81778932,0.14985985,0
1.6973346,-0.50434679,3.1316023,0.55566412,0.81778932,0.14985985,0
-1.5058851,0.12468199,-1.7696352,-0.55566412,-0.81778932,-0.14985985,0
-1.1284143,2.3272908,-1.8431504,0.55566412,0.81778932,0.14985985,0
2.1326609,-0.09378548,-0.72298437,0.55566412,0.81778932,0.14985985,0
1.3268356,-1.7683451,-1.9427567,-0.55566412,-0.81778932,-0.14985985,0
1.4792862,-0.21463141,2.3591182,0.55566412,0.81778932,0.14985985,0
0.47571495,-1.5403644,-0.030989923,-0.55566412,-0.81778932,-0.14985985,0
2.3909159,-0.42721593,0.13897339,0.55566412,0.81778932,0.14985985,0
-2.7483096,0.62540209,0.10469721,-0.55566412,-0.81778932,-0.14985985,0
-3.3882291,1.1239123,-0.24293368,-0.55566412,-0.81778932,-0.14985985,0
-0.035752088,-0.34173316,3.4902709,-0.045732878,-0.14991105,0.98764127,0
-0.36516377,1.3885072,-3.2234733,-0.1757002,0.29168212,-0.94023985,0
-0.58467984,-0.21569245,-3.3279319,-0.55566412,-0.81778932,-0.14985985,0
0.61980051,-1.3662934,-1.5151545,-0.55566412,-0.81778932,-0.14985985,0
0.65301812,-1.6462799,-0.11042779,-0.55566412,-0.81778932,-0.14985985,0
-0.99743319,0.15505534,-3.4831722,-0.13424936,0.26613805,-0.95454049,0
1.765159,-0.2189678,-3.0342565,0.44923264,-0.14365256,-0.88179022,0
-2.514514,0.62320787,-0.75021684,-0.55566412,-0.81778932,-0.14985985,0
-1.0513242,-0.64622498,0.75176287,-0.55566412,-0.81778932,-0.14985985,0
0.88559544,0.63384712,-3.3645554,0.17265677,0.062815234,-0.98297715,0
0.95200729,-1.3025198,-3.0949554,-0.55566412,-0.81778932,-0.14985985,0
-0.65577012,-0.76019216,-0.09298753,-0.55566412,-0.81778932,-0.14985985,0
0.13164625,-0.81615359,-2.7072592,-0.55566412,-0.81778932,-0.14985985,0
0.70759416,-2.1024342,2.1764574,-0.55566412,-0.81778932,-0.14985985,0
3.2080107,-1.2563478,-0.87708104,0.81755364,-0.5046888,-0.2773,0
-2.539577,0.76685947,-1.441197,-0.55566412,-0.81778932,-0.14985985,0
2.2448831,-1.7624265,-2.0883615,0.72186393,-0.38512191,-0.57497275,0
-0.28176951,-0.52387917,-2.7693074,-0.55566412,-0.81778932,-0.14985985,0
2.8209627,-1.9055622,0.8237651,0.78493619,-0.57543087,0.22968355,0
0.026360929,-1.7660961,2.8669903,-0.55566412,-0.81778932,-0.14985985,0
2.2674572,-0.526182,1.1368039,0.55566412,0.81778932,0.14985985,0
-1.6397426,1.9789246,1.9538443,0.55566412,0.81778932,0.14985985,0
1.2005758,-2.2087123,0.92849797,-0.55566412,-0.81778932,-0.14985985,0
-2.2392707,2.0017111,-1.8010819,-0.65928531,0.54322815,-0.51985216,0
-2.5591018,0.88996279,2.2443328,-0.67435706,0.33789137,0.65656066,0
1.8396007,-0.51894081,2.6837349,0.55566412,0.81778932,0.14985985,0
0.87237531,-2.0141912,1.0839217,-0.55566412,-0.81778932,-0.14985985,0
-0.96182257,-0.87285709,1.656638,-0.55566412,-0.81778932,-0.14985985,0
0.89870989,0.94431901,-1.8125923,0.55566412,0.81778932,0.14985985,0
-3.2280774,0.71264148,1.5133418,-0.76606345,0.43356189,0.47452167,0
-1.1116569,-0.79580212,1.7917163,-0.55566412,-0.81778932,-0.14985985,0
0.5667609,-0.52021027,3.4383137,0.097669676,-0.24320802,0.96504426,0
-0.31143352,1.3203669,-3.253511,-0.15552717,0.27930951,-0.94752175,0
0.50983995,-1.5576113,3.1360581,0.22830839,-0.3234081,0.91830415,0
0.62896198,-1.7924418,0.77637935,-0.55566412,-0.81778932,-0.14985985,0
2.0072284,-2.227705,-1.9588401,-0.55566412,-0.81778932,-0.14985985,0
1.3532739,0.073137492,1.2559949,0.55566412,0.81778932,0.14985985,0
1.7092422,-2.4917538,0.58698267,-0.55566412,-0.81778932,-0.14985985,0
2.0610633,-0.69053066,2.7989464,0.55566412,0.81778932,0.14985985,0
-1.8369011,-0.50570875,2.8977964,-0.55566412,-0.81778932,-0.14985985,0
-1.7903709,2.5697448,-0.7117644,0.55566412,0.81778932,0.14985985,0
1.0889089,-1.6681867,-1.6071181,-0.55566412,-0.81778932,-0.14985985,0
-0.20844562,1.2832249,0.44320208,0.55566412,0.81778932,0.14985985,0
-1.707329,-0.064013347,0.007012926,-0.55566412,-0.81778932,-0.14985985,0
0.70562804,-1.8940741,1.0467205,-0.55566412,-0.81778932,-0.14985985,0
-1.7590772,0.29126146,-1.7398551,-0.55566412,-0.81778932,-0.14985985,0
1.2200177,0.0053974576,2.1197536,0.55566412,0.81778932,0.14985985,0
2.1478348,-0.74206609,2.7584374,0.55566412,0.81778932,0.14985985,0
-1.5876738,-0.49663377,1.9241656,-0.55566412,-0.81778932,-0.14985985,0
2.6532705,-0.7815848,1.0999906,0.55566412,0.81778932,0.14985985,0
-1.6235994,-0.11586039,-0.020516597,-0.55566412,-0.81778932,-0.14985985,0
1.6309738,-0.16182128,1.5084896,0.55566412,0.81778932,0.14985985,0
-2.5357795,1.840873,-1.5652794,-0.7025727,0.55824727,-0.44130674,0
1.1553928,0.26332125,0.95187843,0.55566412,0.81778932,0.14985985,0
0.57297003,-1.3904997,-1.209417,-0.55566412,-0.81778932,-0.14985985,0
-2.1865532,2.5889134,0.65263331,0.55566412,0.81778932,0.14985985,0
1.2072747,-2.3943801,1.9168513,-0.55566412,-0.81778932,-0.14985985,0
2.6799791,-1.3429819,-1.8106363,0.74672836,-0.41164258,-0.52244347,0
0.058532476,0.28756613,-3.497086,0.057426713,0.14206594,-0.98818994,0
2.3202579,-0.33177388,-2.6716559,0.56488162,-0.23909473,-0.78977364,0
0.79419845,-1.3571923,-2.2114682,-0.55566412,-0.81778932,-0.14985985,0
-0.41102016,-1.1993111,1.3957908,-0.55566412,-0.81778932,-0.14985985,0
0.56902695,-1.2279704,-2.0817237,-0.55566412,-0.81778932,-0.14985985,0
-0.743011,-0.74570525,0.15143687,-0.55566412,-0.81778932,-0.14985985,0
-1.5784974,0.054063298,-1.1150285,-0.55566412,-0.81778932,-0.14985985,0
2.383693,-0.21991506,-0.96549237,0.55566412,0.81778932,0.14985985,0
0.49067792,-1.6038117,0.25976241,-0.55566412,-0.81778932,-0.14985985,0
-1.9514368,2.3065145,1.3219059,0.55566412,0.81778932,0.14985985,0
1.2271205,0.59179151,-3.2933166,0.24387202,0.011999577,-0.96973312,0
-1.6759448,1.737118,-2.5368381,-0.49617231,0.47081283,-0.72948498,0
0.084454037,0.73710477,2.3373539,0.55566412,0.81778932,0.14985985,0
-0.68353403,1.8224463,-0.7377674,0.55566412,0.81778932,0.14985985,0
2.4057884,-0.6152066,1.1096965,0.55566412,0.81778932,0.14985985,0
-3.0908237,0.98991257,-0.61444062,-0.55566412,-0.81778932,-0.14985985,0
-1.6314628,0.31071472,-2.3191919,-0.55566412,-0.81778932,-0.14985985,0
3.4259415,-1.1851311,0.18514198,0.82607549,-0.56343794,0.011697806,0
1.9134214,-2.5861511,0.34503648,-0.55566412,-0.81778932,-0.14985985,0
-1.6356819,0.4300046,-2.9545159,-0.55566412,-0.81778932,-0.14985985,0
0.29603028,1.1717497,-0.81901699,0.55566412,0.81778932,0.14985985,0
-2.4509189,0.82251954,-2.0736704,-0.55566412,-0.81778932,-0.14985985,0
3.2985716,-0.96519446,-1.0999942,0.8029412,-0.48108804,-0.35190862,0
2.2059126,-1.5991411,-2.2362237,0.69648552,-0.35943237,-0.62106061,0
0.017736331,0.58409536,3.4197125,0.55566412,0.81778932,0.14985985,0
0.27477476,-1.8815268,2.5758071,-0.55566412,-0.81778932,-0.14985985,0
-1.9294628,-0.058956265,2.995744,-0.44468194,0.14003196,0.88467449,0
0.6584537,-1.3770163,-1.5999613,-0.55566412,-0.81778932,-0.14985985,0
0.19675401,-1.3485773,-0.043220215,-0.55566412,-0.81778932,-0.14985985,0
-1.1035769,-0.17312798,-1.6361935,-0.55566412,-0.81778932,-0.14985985,0
-1.7793349,0.24999222,-1.4395341,-0.55566412,-0.81778932,-0.14985985,0
0.51608282,0.40034389,2.5746346,0.55566412,0.81778932,0.14985985,0
0.88671958,-2.2179327,2.1425569,-0.55566412,-0.81778932,-0.14985985,0
-0.66177285,1.3615186,1.696839,0.55566412,0.81778932,0.14985985,0
1.4019121,0.63577795,-1.9946942,0.55566412,0.81778932,0.14985985,0
0.23987812,1.1252283,-0.35694271,0.55566412,0.81778932,0.14985985,0
-0.46330953,-0.31824464,3.4545715,-0.13237417,-0.090927035,0.98702055,0
-3.1988575,1.1579757,1.0616914,-0.80736619,0.48772684,0.33208802,0
-0.2852869,-1.4505818,2.3007767,-0.55566412,-0.81778932,-0.14985985,0
-0.44603086,1.0745491,2.4628921,0.55566412,0.81778932,0.14985985,0
0.93822336,1.1842675,-3.2685096,0.55566412,0.81778932,0.14985985,0
0.6212095,-0.34742126,3.4759295,0.085094392,-0.23524261,0.96820444,0
1.3409816,0.74741304,-2.3779674,0.55566412,0.81778932,0.14985985,0
2.0832634,-2.6351027,-0.017588399,-0.55566412,-0.81778932,-0.14985985,0
1.1941298,-0.11387205,2.8665993,0.55566412,0.81778932,0.14985985,0
0.11392598,-1.3085676,0.045562953,-0.55566412,-0.81778932,-0.14985985,0
-0.20454791,-0.36180374,-3.602591,0.092289239,0.11846406,-0.98866022,0
-0.64995623,-0.83371526,0.28667331,-0.55566412,-0.81778932,-0.14985985,0
-2.3184829,0.67962062,-1.7849259,-0.55566412,-0.81778932,-0.14985985,0
-2.039279,1.0846798,-2.7092578,-0.47911915,0.46227986,-0.74615163,0
-2.2247701,0.092922941,1.0692229,-0.55566412,-0.81778932,-0.14985985,0
0.60347199,-1.6991729,0.36192244,-0.55566412,-0.81778932,-0.14985985,0
2.959527,-0.86310428,0.40927863,0.55566412,0.81778932,0.14985985,0
-2.7801003,1.5221753,-1.5785781,-0.70913124,0.56027406,-0.42804885,0
-3.1953599,0.79751915,0.82306409,-0.55566412,-0.81778932,-0.14985985,0
1.1748457,-2.0060725,-0.081910037,-0.55566412,-0.81778932,-0.14985985,0
-1.5512363,2.2512834,0.13940249,0.55566412,0.81778932,0.14985985,0
-1.8719625,1.490813,-2.5622752,-0.50230145,0.47384429,-0.72330141,0
2.4391236,-2.2028811,1.2314357,0.73842698,-0.56826687,0.36304042,0
-2.6586576,2.2311189,-0.52514482,-0.80225432,0.57471085,-0.1615406,0
0.53278697,-1.2509297,-1.8220607,-0.55566412,-0.81778932,-0.14985985,0
-0.97709388,1.5528704,-2.9935551,-0.32336423,0.37863472,-0.86722052,0
2.6353288,-2.3450153,0.059285805,0.82351822,-0.5661484,0.03597042,0
1.7581195,-0.39274642,-3.0077879,0.46977484,-0.16011083,-0.86814523,0
0.38140616,1.3570435,-2.1467354,0.55566412,0.81778932,0.14985985,0
0.076679945,-1.1809621,-0.51268053,-0.55566412,-0.81778932,-0.14985985,0
1.8762205,-0.81375772,2.9563785,0.40586156,-0.42412391,0.80956483,0
2.0285106,-2.3813329,-1.199401,-0.55566412,-0.81778932,-0.14985985,0
2.6380844,-0.7145952,-2.2529242,0.66739172,-0.33124936,-0.66697991,0
-2.8014505,2.0123041,-0.59372312,-0.80041444,0.57494408,-0.16963518,0
1.6995199,-0.95314622,2.9707489,0.38871917,-0.41487643,0.82266337,0
1.7973381,-1.2222177,-2.7747681,0.5796693,-0.25185856,-0.77495211,0
1.5725365,-0.36787331,2.8496006,0.55566412,0.81778932,0.14985985,0
-2.4306743,0.16433993,2.6433675,-0.56427699,0.23857598,0.79036254,0
0.85958934,0.71157014,-0.39742094,0.55566412,0.81778932,0.14985985,0
-0.96727806,-0.25023013,-1.720826,-0.55566412,-0.81778932,-0.14985985,0
-1.1522131,1.9558612,0.27199531,0.55566412,0.81778932,0.14985985,0
0.96106631,-1.2997476,-3.1436734,-0.55566412,-0.81778932,-0.14985985,0
-1.3869692,-0.6198228,1.8522211,-0.55566412,-0.81778932,-0.14985985,0
-1.3933313,2.1730292,-0.019055635,0.55566412,0.81778932,0.14985985,0
0.5870558,1.3194807,-2.7042809,0.55566412,0.81778932,0.14985985,0
-0.45613775,-1.4979655,3.192847,-0.55566412,-0.81778932,-0.14985985,0
-0.030992031,0.63282675,3.3344636,0.55566412,0.81778932,0.14985985,0
-2.3834264,1.6454252,-1.9844705,-0.63713455,0.53464878,-0.55516696,0
1.4907825,-0.27412197,2.6411326,0.55566412,0.81778932,0.14985985,0
-0.67107534,1.7838935,-0.57357895,0.55566412,0.81778932,0.14985985,0
1.3852534,-0.44436324,3.3087075,0.25255513,-0.33775961,0.90671623,0
2.2237725,-2.677361,-0.30797708,-0.55566412,-0.81778932,-0.14985985,0
-1.7845312,-0.4231495,2.2530861,-0.55566412,-0.81778932,-0.14985985,0
2.3022947,-2.5320029,0.97691,0.76019025,-0.57273585,0.3067317,0
-0.27809158,1.507467,-0.52225441,0.55566412,0.81778932,0.14985985,0
0.74518883,-2.1702926,2.4073663,-0.55566412,-0.81778932,-0.14985985,0
2.3769464,-0.030982316,-1.9714879,0.55566412,0.81778932,0.14985985,0
-2.6105545,1.6307975,1.6713266,-0.76707077,0.43474415,0.47180489,0
1.1053687,0.51342583,-0.22746599,0.55566412,0.81778932,0.14985985,0
-2.072345,2.4565842,0.9512853,0.55566412,0.81778932,0.14985985,0
-0.5929749,0.85281944,-3.3449755,-0.14825131,0.27481952,-0.94999778,0
0.88030863,0.34928977,1.5027285,0.55566412,0.81778932,0.14985985,0
-1.3014612,2.2749298,-0.91577488,0.55566412,0.81778932,0.14985985,0
-0.85604471,-0.13768715,-2.7474174,-0.55566412,-0.81778932,-0.14985985,0
1.9682066,-1.6644353,2.3692794,0.54844296,-0.49601272,0.67318773,0
-1.237941,-0.068785511,-1.7073848,-0.55566412,-0.81778932,-0.14985985,0
-2.577101,0.39279324,0.73922849,-0.55566412,-0.81778932,-0.14985985,0
0.58585304,1.2161031,-2.1356869,0.55566412,0.81778932,0.14985985,0
-0.37741017,-0.37743363,3.4590614,-0.10783146,-0.10783817,0.98830324,0
-2.6581182,0.73893428,-0.84927076,-0.55566412,-0.81778932,-0.14985985,0
-0.59214556,1.544659,0.43926728,0.55566412,0.81778932,0.14985985,0
-1.5903082,2.0779865,1.2299639,0.55566412,0.81778932,0.14985985,0
1.2328799,0.62943709,-1.3333397,0.55566412,0.81778932,0.14985985,0
-1.7313809,0.49232185,-2.9397421,-0.55566412,-0.81778932,-0.14985985,0
-0.17090584,-1.5116175,2.2097371,-0.55566412,-0.81778932,-0.14985985,0
0.24937265,0.89511222,0.86360252,0.55566412,0.81778932,0.14985985,0
1.7227854,-2.2145426,-0.97598267,-0.55566412,-0.81778932,-0.14985985,0
-2.5300756,0.82294655,-1.7824965,-0.55566412,-0.81778932,-0.14985985,0
0.70522094,-1.7946666,0.50576043,-0.55566412,-0.81778932,-0.14985985,0
-1.5310299,1.8414323,2.3010476,0.55566412,0.81778932,0.14985985,0
-1.6390986,-0.13499223,0.1413555,-0.55566412,-0.81778932,-0.14985985,0
-2.6182308,1.1175305,-2.2154098,-0.60947484,0.52326363,-0.59559691,0
-3.0905008,1.672628,0.10959051,-0.83013284,0.5557006,0.045569681,0
-0.7607851,-0.50351405,-1.1043024,-0.55566412,-0.81778932,-0.14985985,0
-1.1562287,-0.65057659,1.1644841,-0.55566412,-0.81778932,-0.14985985,0
-0.36281729,1.7045722,-1.2837085,0.55566412,0.81778932,0.14985985,0
-0.29068652,-1.3339362,1.6842594,-0.55566412,-0.81778932,-0.14985985,0
-1.0620914,0.078255162,-3.1618216,-0.55566412,-0.81778932,-0.14985985,0
0.84685183,-1.9649917,0.91007733,-0.55566412,-0.81778932,-0.14985985,0
0.097374633,-1.1962537,-0.50596714,-0.55566412,-0.81778932,-0.14985985,0
3.3058987,-0.8166486,-1.2697427,0.78914076,-0.46203804,-0.40469468,0
0.034378648,-1.2868457,3.2989755,0.095375977,-0.24175829,0.96563774,0
1.2252916,-0.83799076,-3.2064986,0.42707849,-0.12610961,-0.89537728,0
1.6973591,0.00038650632,0.3771674,0.55566412,0.81778932,0.14985985,0
0.65747243,-1.0467752,3.2744451,0.18784924,-0.2990787,0.93555588,0
-2.9497361,1.4321479,1.2554893,-0.79837304,0.4745428,0.37068805,0
-3.1500037,1.0848044,-0.91283506,-0.55566412,-0.81778932,-0.14985985,0
-0.19915709,0.61421967,3.562243,-0.20383154,-0.040749699,0.97815752,0
2.9807866,-1.5309786,-1.0405296,0.8122226,-0.49545386,-0.30792847,0
0.29877436,-1.9035376,2.6069324,-0.55566412,-0.81778932,-0.14985985,0
-1.6361202,1.3369799,-2.80018,-0.43009061,0.43699646,-0.78997231,0
1.1877486,-0.15735196,3.1275318,0.55566412,0.81778932,0.14985985,0
-2.1455112,2.3869445,-1.4954216,-0.69805634,0.55680853,-0.45020175,0
0.63565493,-1.6234039,-0.17088197,-0.55566412,-0.81778932,-0.14985985,0
-2.3437064,2.7425792,0.39678058,0.55566412,0.81778932,0.14985985,0
3.0288825,-1.7477996,-0.25928381,0.83128476,-0.54957271,-0.083280474,0
-2.7648146,0.69986033,2.1288371,-0.68755513,0.35065362,0.63585377,0
-1.6967092,2.693455,-1.7341423,0.55566412,0.81778932,0.14985985,0
-1.2220497,0.13980176,-2.9045751,-0.55566412,-0.81778932,-0.14985985,0
-0.12462598,1.6430117,-1.830959,0.55566412,0.81778932,0.14985985,0
0.2735745,-0.93497396,-2.5851076,-0.55566412,-0.81778932,-0.14985985,0
-2.0996227,0.3271333,-0.67290258,-0.55566412,-0.81778932,-0.14985985,0
2.6501362,-1.1694635,2.1350191,0.62443119,-0.52950567,0.57420331,0
1.0573131,0.047125231,2.4953349,0.55566412,0.81778932,0.14985985,0
-0.26030827,0.79946607,-3.3975129,-0.074373811,0.22841884,-0.97071803,0
0.1428315,-1.1147714,-1.1191673,-0.55566412,-0.81778932,-0.14985985,0
1.3130205,-1.9703603,-0.78912896,-0.55566412,-0.81778932,-0.14985985,0
-0.14058621,-0.59437591,3.4466255,-0.032597404,-0.15868056,0.98679173,0
0.57907116,0.50348312,1.778247,0.55566412,0.81778932,0.14985985,0
-2.2971678,2.7485707,0.19152577,0.55566412,0.81778932,0.14985985,0
-3.1426749,1.5727491,0.27484098,-0.83140105,0.5472362,0.096462362,0
1.3987992,-0.062155843,1.825491,0.55566412,0.81778932,0.14985985,0
0.60312992,0.43300286,2.0736523,0.55566412,0.81778932,0.14985985,0
0.5061748,0.2941851,3.1906838,0.55566412,0.81778932,0.14985985,0
1.6838413,0.022353306,0.30741674,0.55566412,0.81778932,0.14985985,0
2.7628174,-0.61843616,-0.19650351,0.55566412,0.81778932,0.14985985,0
2.2582531,-0.24407497,-0.36853361,0.55566412,0.81778932,0.14985985,0
-0.21222764,0.79362714,3.1289732,0.55566412,0.81778932,0.14985985,0
-2.9568565,0.9650566,-0.97553724,-0.55566412,-0.81778932,-0.14985985,0
2.4188452,-0.84046543,2.2905281,0.55566412,0.81778932,0.14985985,0
-0.095315307,1.5026816,-1.1738542,0.55566412,0.81778932,0.14985985,0
0.95323986,0.19974367,2.0483842,0.55566412,0.81778932,0.14985985,0
-0.54076892,0.54056925,3.4792092,-0.25976083,-0.00045955181,0.96567285,0
2.6809893,-0.35520834,-1.3295354,0.55566412,0.81778932,0.14985985,0
1.0106962,0.49604845,0.21839866,0.55566412,0.81778932,0.14985985,0
2.4573979,-2.5174608,0.50497603,0.80016297,-0.57497233,0.17072223,0
-0.051686272,-0.93189728,-1.3958648,-0.55566412,-0.81778932,-0.14985985,0
1.2966037,-1.6483141,-2.4856722,-0.55566412,-0.81778932,-0.14985985,0
1.3702928,-0.29694077,3.2124183,0.55566412,0.81778932,0.14985985,0
-1.6594598,0.57596964,-3.1655898,-0.32720184,0.38080385,-0.86482799,0
0.5026927,1.4698664,-3.2121298,0.55566412,0.81778932,0.14985985,0
-2.5118518,2.0066569,1.4591702,-0.79132879,0.46492726,0.39704087,0
-2.5795252,0.35802075,0.93797141,-0.55566412,-0.81778932,-0.14985985,0
2.7287917,-2.1461742,0.47511208,0.80626738,-0.57402599,0.14292359,0
-1.4592872,2.0728843,0.77199352,0.55566412,0.81778932,0.14985985,0
-0.35603911,-1.0386367,0.31512165,-0.55566412,-0.81778932,-0.14985985,0
-1.7640433,0.52558315,-3.0001411,-0.55566412,-0.81778932,-0.14985985,0
2.1337903,0.019434959,-1.3450192,0.55566412,0.81778932,0.14985985,0
0.17473894,0.6557858,2.4463472,0.55566412,0.81778932,0.14985985,0
-0.71137631,1.6232687,0.45238578,0.55566412,0.81778932,0.14985985,0
0.3901996,-0.39155495,3.4812953,0.045073114,-0.20961432,0.97674471,0
-1.2771462,-0.2437897,-0.60701382,-0.55566412,-0.81778932,-0.14985985,0
1.2313703,0.63760781,-1.3723303,0.55566412,0.81778932,0.14985985,0
