-0.88514638,3.7349691,0.49291039,-0.020103157,0.96622872,-0.25690049,0
-1.793155,0.27185678,-3.7019303,-0.81939578,0.21077091,-0.53307235,0
-3.2077143,1.1343133,1.9862434,-0.49345261,0.21388686,0.84306407,0
-0.88566399,-2.0417094,-4.1519246,0.49345261,-0.21388686,-0.84306407,0
2.2142448,1.0541496,-3.1229465,0.49345261,-0.21388686,-0.84306407,0
3.7168527,-0.14309189,0.57158327,0.8669998,0.043621123,0.49639559,0
-0.058523059,-0.12711287,-4.1535287,0.49345261,-0.21388686,-0.84306407,0
0.40632296,3.5712588,2.8587308,0.53530651,0.83865136,0.10055224,0
-2.4788935,-2.7066779,2.7384088,-0.29192966,-0.95379275,0.071109891,0
-1.2676015,-3.0407288,-2.2719865,-0.63572788,-0.75020695,-0.18176818,0
-3.39413,1.3073103,1.8332431,-0.49345261,0.21388686,0.84306407,0
-4.1155553,1.0662141,0.19239092,-0.83453369,0.15667921,-0.52820957,0
-1.2351497,-0.53847218,-4.737855,0.49345261,-0.21388686,-0.84306407,0
-1.9629736,2.3191514,-1.7373176,-0.56084955,0.6626147,-0.49637651,0
-1.122794,-2.7224078,3.4360869,0.08363539,-0.95313257,0.29076385,0
-1.9891448,-2.8945165,-0.073449403,-0.52595681,-0.84537005,-0.093375206,0
0.83665967,-3.6038849,-2.7475076,0.49345261,-0.21388686,-0.84306407,0
-1.1583645,3.7797351,0.69303656,-0.054020464,0.95988441,-0.27514303,0
2.1900163,2.1047962,2.0616884,0.78188318,0.53368104,0.32224721,0
-2.0577571,3.1627765,-0.29771638,-0.384785,0.81559718,-0.4321363,0
-2.7761602,2.137001,1.9844524,-0.49345261,0.21388686,0.84306407,0
-2.0076888,0.021956205,-3.4435863,-0.84259474,0.12285781,-0.52434731,0
-0.084125996,-1.9043188,-3.7176337,0.49345261,-0.21388686,-0.84306407,0
1.041136,2.7449677,3.7660718,0.75544792,0.585765,0.29356056,0
1.4063915,0.24218965,-3.3897943,0.49345261,-0.21388686,-0.84306407,0
4.1431828,1.3767262,-1.4873216,0.76025617,0.57692069,0.29861873,0
1.5503377,2.8327279,-3.0333223,0.059975147,0.97535264,-0.21234465,0
-4.3722935,-0.31469011,0.78780389,-0.86089629,-0.25823304,-0.43837583,0
-3.4059663,3.0367928,0.85352612,-0.54315412,0.68128073,-0.49075484,0
-3.8459058,2.2863679,1.320426,-0.49345261,0.21388686,0.84306407,0
3.172565,2.3473468,-1.6778562,0.55708486,0.82210129,0.11749808,0
-3.3230195,-2.3518572,2.608604,-0.47911149,-0.87582034,-0.058230996,0
-1.0620747,-2.9174786,2.732646,0.0072657466,-0.96824491,0.24989814,0
3.2955096,2.3470101,-2.3461492,0.50421476,0.86014754,0.076900393,0
-3.209245,-1.3447522,-0.75777149,-0.82427979,-0.42437279,-0.37479389,0
-1.4038697,-0.3665998,3.4228337,-0.49345261,0.21388686,0.84306407,0
-3.697242,0.1435883,1.9510673,-0.49345261,0.21388686,0.84306407,0
0.93652701,-0.64000559,-3.4409959,0.49345261,-0.21388686,-0.84306407,0
3.9991994,0.59789997,-0.22821259,0.85530782,0.29536751,0.42568374,0
2.7166777,0.72325373,-2.7449193,0.49345261,-0.21388686,-0.84306407,0
2.0439944,0.87134671,-3.1762183,0.49345261,-0.21388686,-0.84306407,0
-0.93071532,3.724792,2.6617815,-0.49345261,0.21388686,0.84306407,0
1.5299265,1.7184734,3.9545078,0.85254061,0.31092927,0.42011607,0
-0.69500089,-3.3155065,1.0015011,-0.1311608,-0.97650683,0.17097181,0
-3.2668095,1.6741526,1.8146963,-0.49345261,0.21388686,0.84306407,0
1.2400558,2.4253061,3.8275938,0.79611635,0.50144017,0.33875746,0
-0.76577544,1.7347817,-3.8688843,-0.57306337,0.6492101,-0.50012457,0
1.9545687,2.2521682,-3.5788763,0.49345261,-0.21388686,-0.84306407,0
3.0636437,-0.36654127,1.6628807,0.84878659,-0.093222231,0.5204528,0
2.7018192,-2.3847528,-1.9651101,0.49345261,-0.21388686,-0.84306407,0
0.46369216,-0.72783327,4.6075783,-0.49345261,0.21388686,0.84306407,0
3.9087005,-1.0053332,-1.6086726,0.49345261,-0.21388686,-0.84306407,0
-2.4247463,2.5938725,2.0742283,-0.49345261,0.21388686,0.84306407,0
0.27470887,1.0550647,-4.2584057,0.49345261,-0.21388686,-0.84306407,0
1.0067742,-0.56716824,4.7024031,0.75943589,-0.36654353,0.53749704,0
-4.1386828,1.9029201,1.2463427,-0.49345261,0.21388686,0.84306407,0
1.2893153,-2.3134155,2.4819577,0.50392354,-0.71972901,0.47754711,0
0.53019881,0.16819286,-3.8838644,0.49345261,-0.21388686,-0.84306407,0
-2.6772881,1.0565703,2.3164301,-0.49345261,0.21388686,0.84306407,0
-0.6259774,-2.3499827,4.1632175,0.28867716,-0.87407339,0.39071906,0
1.6464288,-3.6870115,-2.2524536,0.49345261,-0.21388686,-0.84306407,0
-2.1141663,2.6667881,-1.0789607,-0.50479335,0.71891773,-0.47785044,0
-2.4871769,3.4398382,0.61120868,-0.3612113,0.83135903,-0.42233723,0
-2.8339531,0.84353173,-1.8727422,-0.80970091,0.24100909,-0.53506935,0
-1.4745793,3.5825813,2.3795326,-0.49345261,0.21388686,0.84306407,0
-0.0077962875,3.3914247,-0.86497331,-0.0022274852,0.96897852,-0.24713516,0
0.49805999,-3.7467618,-0.58910275,-0.07535243,-0.97616071,0.20354927,0
2.8283379,-2.8036427,-1.7847843,0.49345261,-0.21388686,-0.84306407,0
2.067678,2.4820714,-3.5709996,0.49345261,-0.21388686,-0.84306407,0
4.6371651,0.41452384,-1.3868206,0.84995776,0.32430065,0.41521198,0
-3.5530221,0.53083682,1.937235,-0.49345261,0.21388686,0.84306407,0
-0.84819984,-3.4031591,-1.885386,-0.51005429,-0.85629171,-0.081296466,0
-1.0201508,1.3888619,3.2020638,-0.49345261,0.21388686,0.84306407,0
4.5231667,0.64001179,-1.6664472,0.49345261,-0.21388686,-0.84306407,0
0.92492831,2.9028838,-2.7738695,-0.042249143,0.96225393,-0.26885426,0
-3.9426756,-0.48363876,1.9665415,-0.49345261,0.21388686,0.84306407,0
-2.0186934,-2.5866303,-1.4433286,-0.68588388,-0.69174159,-0.22595766,0
-2.7253273,2.7840438,1.8500493,-0.49345261,0.21388686,0.84306407,0
-0.91466999,1.617717,3.2057414,-0.49345261,0.21388686,0.84306407,0
0.11868834,2.915062,3.4814363,-0.49345261,0.21388686,0.84306407,0
1.0251042,3.0024111,-2.3910413,0.027907789,0.97268677,-0.2304377,0
4.2232637,-1.8894718,-1.2002487,0.49345261,-0.21388686,-0.84306407,0
0.92492795,1.0303984,4.431478,-0.49345261,0.21388686,0.84306407,0
0.0039498806,3.5170233,-0.32621574,0.068135917,0.97581959,-0.20768654,0
-1.6418307,0.32740498,3.1074824,-0.49345261,0.21388686,0.84306407,0
-2.9776571,-1.3738687,2.7572281,-0.49345261,0.21388686,0.84306407,0
0.50723356,0.0015163422,-3.8550198,0.49345261,-0.21388686,-0.84306407,0
1.0830216,3.2032433,-1.3196037,0.17383415,0.97398841,-0.14535588,0
2.8081186,2.5964403,-2.2692227,0.41553324,0.90949243,0.012475424,0
-1.0914264,-0.32956839,-4.7067327,0.49345261,-0.21388686,-0.84306407,0
1.9222969,0.21317577,3.6263041,0.85294628,-0.070739329,0.51718342,0
3.7332184,0.99006844,-0.0032529831,0.83638239,0.38267913,0.39245546,0
-0.81191516,1.6770496,3.2508321,-0.49345261,0.21388686,0.84306407,0
-1.1236446,3.1014471,-1.1894138,-0.29071903,0.87298465,-0.39163798,0
4.4309855,-1.0551444,-1.2903376,0.49345261,-0.21388686,-0.84306407,0
4.5053434,0.10560393,-1.5412991,0.49345261,-0.21388686,-0.84306407,0
-0.12435746,3.3723421,-0.92835617,-0.035530686,0.96352625,-0.26524466,0
1.9779042,-1.6487398,-2.575551,0.49345261,-0.21388686,-0.84306407,0
-0.68667048,-0.00060796738,3.7497637,-0.49345261,0.21388686,0.84306407,0
2.7075851,1.5531554,1.6250398,0.82521755,0.42138326,0.37610126,0
4.5294647,-1.0142369,-0.84372377,0.84814757,-0.09646979,0.52090263,0
2.6723483,0.4123714,-2.6919942,0.49345261,-0.21388686,-0.84306407,0
2.0779784,1.1808765,-3.2348552,0.49345261,-0.21388686,-0.84306407,0
-4.3805914,-0.98037219,1.4201727,-0.80759978,-0.47255698,-0.35280657,0
-3.1581683,-0.31524098,-1.4934456,-0.86963755,-0.10424104,-0.48256016,0
-2.3433003,1.8386468,-1.8380213,-0.66951436,0.52532756,-0.52514899,0
-2.3657484,-1.7100751,3.2006798,-0.49345261,0.21388686,0.84306407,0
0.72297525,3.4248841,2.3911376,0.54375678,0.83238244,0.10708872,0
0.69540417,0.51666021,4.4274721,-0.49345261,0.21388686,0.84306407,0
-0.71844023,-0.53928995,3.8678327,-0.49345261,0.21388686,0.84306407,0
0.27020943,1.3930316,-4.3467822,0.49345261,-0.21388686,-0.84306407,0
3.9958262,0.10375172,0.022282839,0.86945164,0.14763391,0.47144246,0
-1.2930385,-0.49279261,-4.7023201,-0.8532635,0.068915367,-0.5169065,0
2.7093749,0.92119622,2.1153564,0.86482692,0.22387648,0.44939286,0
0.28742898,0.3598547,4.2284622,-0.49345261,0.21388686,0.84306407,0
-2.8361208,-1.7282667,-1.1084254,-0.79687518,-0.49961829,-0.33966386,0
1.6963187,-2.459162,1.8325145,0.51030684,-0.71373326,0.4797622,0
1.4960783,2.9779658,1.7236519,0.61804378,0.76823497,0.16684385,0
-4.1646719,-1.3298545,2.0512919,-0.49345261,0.21388686,0.84306407,0
2.0852385,2.8643849,-2.2255366,0.27255934,0.95849657,-0.083640873,0
3.7227073,-2.3596194,-0.44315481,0.68081307,-0.50824487,0.52742827,0
2.0981302,-0.8608892,-2.7050605,0.49345261,-0.21388686,-0.84306407,0
1.902842,-0.53455329,-2.9021564,0.49345261,-0.21388686,-0.84306407,0
-3.8102324,-1.2199384,2.2308621,-0.49345261,0.21388686,0.84306407,0
-3.4558353,-0.88778377,2.3540258,-0.49345261,0.21388686,0.84306407,0
1.9657922,-2.2695477,-2.4251404,0.49345261,-0.21388686,-0.84306407,0
0.8629179,-3.9130692,-2.6536977,0.49345261,-0.21388686,-0.84306407,0
2.4392946,2.5824959,0.049232364,0.61096656,0.77512169,0.16095425,0
1.4915695,3.0441685,1.3980182,0.58036071,0.80292535,0.13598655,0
-0.679811,0.89701223,3.526051,-0.49345261,0.21388686,0.84306407,0
3.2913759,0.89807308,0.98568654,0.85565245,0.29332307,0.42640424,0
1.3268232,-1.8416564,-2.907691,0.49345261,-0.21388686,-0.84306407,0
0.61417413,-3.0166233,1.7454364,0.24924713,-0.89386731,0.37266201,0
-0.3790648,-3.1505716,-3.5740879,0.49345261,-0.21388686,-0.84306407,0
1.0250781,0.3369863,-3.6370306,0.49345261,-0.21388686,-0.84306407,0
-2.632447,0.41057396,2.5065663,-0.49345261,0.21388686,0.84306407,0
-0.77898675,2.1176569,-3.3153007,-0.49857378,0.72467953,-0.47567189,0
-1.5525659,-3.0687904,1.5860331,-0.23960096,-0.9652164,0.10463646,0
2.3706443,0.29005361,2.878474,0.86328471,0.0022690892,0.50471228,0
3.3230658,-3.0662928,-0.80399847,0.53023303,-0.69437528,0.48651409,0
2.2496729,2.8147187,-2.2218659,0.3070395,0.94972473,-0.061233923,0
4.0083842,-0.22258878,-1.7489107,0.49345261,-0.21388686,-0.84306407,0
0.66121411,0.91472292,4.3064709,-0.49345261,0.21388686,0.84306407,0
-0.44053817,-3.5952933,-2.4004018,-0.4889496,-0.86984915,-0.065504223,0
0.88035202,0.37317777,-3.7309215,0.49345261,-0.21388686,-0.84306407,0
4.1982059,-0.76804876,-1.4994221,0.49345261,-0.21388686,-0.84306407,0
0.29144728,0.97549963,-4.2284226,0.49345261,-0.21388686,-0.84306407,0
1.8592545,2.9945521,-0.24627745,0.46289551,0.88519979,0.046360031,0
-0.051813364,-1.5607061,-3.7858963,0.49345261,-0.21388686,-0.84306407,0
3.2109017,2.1396074,-0.82329774,0.66068012,0.7225917,0.20337898,0
2.4822123,1.6527429,2.0079594,0.82502162,0.42201096,0.37582737,0
-2.407676,3.6521327,0.9912734,-0.29245114,0.87205613,-0.3924163,0
0.16629326,-0.49522543,-3.9285507,0.49345261,-0.21388686,-0.84306407,0
-0.11450362,2.8731778,-2.4199948,-0.22575027,0.90457886,-0.36162674,0
2.2749352,-3.0728405,-2.0403996,0.49345261,-0.21388686,-0.84306407,0
-3.6533973,0.65495396,1.8469956,-0.49345261,0.21388686,0.84306407,0
0.25649977,-0.23507071,-3.9417541,0.49345261,-0.21388686,-0.84306407,0
0.10348749,0.95897675,3.968802,-0.49345261,0.21388686,0.84306407,0
0.5552268,2.9415326,3.7302306,-0.49345261,0.21388686,0.84306407,0
-0.6211915,3.9503798,1.6494727,0.18091464,0.97333252,-0.14104515,0
0.25460386,-1.687114,-3.5744779,0.49345261,-0.21388686,-0.84306407,0
-3.7885404,0.067756958,-0.43649197,-0.86870939,-0.073282391,-0.48987114,0
0.28435618,2.007143,-4.4943032,0.49345261,-0.21388686,-0.84306407,0
-2.9276211,-1.7561424,2.8834977,-0.49345261,0.21388686,0.84306407,0
1.09796,3.1095316,-1.8624541,0.10971355,0.97685665,-0.1836139,0
-0.84769654,2.3060613,-2.9479055,-0.46407494,0.75504673,-0.46318364,0
-0.009380579,0.11664391,-4.1866064,0.49345261,-0.21388686,-0.84306407,0
3.5014491,-1.49128,0.54192448,0.77626139,-0.32892108,0.53780019,0
1.965112,-0.09270978,3.493516,0.83719325,-0.14600465,0.52705801,0
-3.273649,-2.2205462,2.7987847,-0.49345261,0.21388686,0.84306407,0
-2.8385067,2.025461,1.9762585,-0.49345261,0.21388686,0.84306407,0
-4.376586,-0.6729821,1.0660093,-0.83956081,-0.37038171,-0.39743572,0
-3.2329006,0.8817277,2.0355833,-0.49345261,0.21388686,0.84306407,0
-0.2552129,2.2804904,-3.5636482,-0.40997159,0.79766452,-0.44232875,0
0.11082762,-2.0242543,4.1450739,0.4555991,-0.7621125,0.46001524,0
-3.729568,-1.2857635,2.294776,-0.49345261,0.21388686,0.84306407,0
1.0486267,0.38786674,-3.6361556,0.49345261,-0.21388686,-0.84306407,0
3.7290268,-1.5848608,-1.5668101,0.49345261,-0.21388686,-0.84306407,0
-0.72141027,-1.8534539,4.1995001,-0.49345261,0.21388686,0.84306407,0
2.6043787,2.6856868,-2.0265317,0.40303367,0.91517758,0.0037169978,0
-3.1303351,-0.78296924,2.5179522,-0.49345261,0.21388686,0.84306407,0
-0.80179608,0.76652479,-4.81529,0.49345261,-0.21388686,-0.84306407,0
-3.4503484,-0.48276895,-0.902668,-0.8676222,-0.18916413,-0.45983553,0
2.0889776,2.5993009,1.1852312,0.67077988,0.71061283,0.21232957,0
1.706211,1.5197477,3.7370515,0.85880387,0.27326727,0.43333691,0
1.5087857,-2.4511116,2.0422552,0.49494532,-0.72799933,0.47439045,0
0.9206177,-0.35067701,4.779336,-0.49345261,0.21388686,0.84306407,0
3.6491015,-2.2437537,-1.4464288,0.49345261,-0.21388686,-0.84306407,0
-2.7891514,2.8205965,1.8034191,-0.49345261,0.21388686,0.84306407,0
-0.065166712,0.046357632,-4.201427,0.49345261,-0.21388686,-0.84306407,0
-2.4197133,3.9311521,1.668103,-0.20619071,0.91289568,-0.35228837,0
2.123219,-0.97394121,2.8462362,0.76785743,-0.34815109,0.53776002,0
-1.9998139,1.3410316,2.6407933,-0.49345261,0.21388686,0.84306407,0
-3.0552397,0.62248451,-1.6143942,-0.833489,0.16075888,-0.52863312,0
2.8679912,2.5573308,-3.0913639,0.32957476,0.94299185,-0.046335667,0
0.97554284,0.22348213,-3.6372278,0.49345261,-0.21388686,-0.84306407,0
4.113337,1.003648,-0.84609938,0.818771,0.44126755,0.3672834,0
-0.61048937,3.8359478,0.98245037,0.10049444,0.9768213,-0.18900093,0
-1.8590086,-3.0013335,1.2112284,-0.34835207,-0.93675548,0.033762977,0
1.6903497,3.0798957,-0.29691067,0.422943,0.90598339,0.017702602,0
-2.4390907,-2.6356559,0.23382187,-0.57888156,-0.8041923,-0.13479936,0
-4.3622169,0.83596754,1.3861942,-0.49345261,0.21388686,0.84306407,0
1.1006684,3.3324647,0.15820789,0.35719872,0.93361497,-0.027788237,0
-2.0052159,0.44926333,-3.3041499,-0.81260145,0.23225129,-0.53454518,0
-1.022486,1.9212682,3.0656247,-0.49345261,0.21388686,0.84306407,0
-2.2650831,-2.8287327,1.796435,-0.36135989,-0.93209213,0.024966285,0
0.23805866,-0.9430275,4.5301094,-0.49345261,0.21388686,0.84306407,0
-3.880434,0.94200605,-0.21580887,-0.83597803,0.15093532,-0.52759767,0
2.5623019,2.686043,-1.3797801,0.47082305,0.88068527,0.052145429,0
-3.1772907,-2.4247961,2.5285358,-0.45932955,-0.887187,-0.043768689,0
1.0307994,2.7315042,3.8190997,0.75911069,0.57905072,0.29740784,0
0.062861741,-0.27255917,4.2574654,-0.49345261,0.21388686,0.84306407,0
-2.0700369,-2.8461442,-0.048929453,-0.5390681,-0.83588427,-0.1034559,0
1.2584739,2.1188731,4.168272,0.83135003,0.40089694,0.38488817,0
-4.7534599,0.082534075,1.3483431,-0.49345261,0.21388686,0.84306407,0
-3.9209249,0.62535691,1.6979184,-0.49345261,0.21388686,0.84306407,0
4.063127,-1.253722,-0.17550707,0.81955409,-0.21025285,0.53303349,0
-0.67615819,2.71416,3.0671751,-0.49345261,0.21388686,0.84306407,0
4.5832043,0.51531088,-1.5996699,0.49345261,-0.21388686,-0.84306407,0
-3.790972,-1.8997852,2.4146137,-0.49345261,0.21388686,0.84306407,0
-1.9114244,-2.8264382,-0.87620395,-0.60252094,-0.78310734,-0.15398502,0
1.2402248,-1.3029389,-3.0950513,0.49345261,-0.21388686,-0.84306407,0
3.7271833,1.3581073,-2.3145254,0.49345261,-0.21388686,-0.84306407,0
1.1294662,-2.1661179,2.870712,0.52002239,-0.70441818,0.48308557,0
3.5947838,0.84595263,0.40981293,0.85121191,0.31793118,0.41756195,0
-2.9744525,-2.4845438,3.0408838,-0.49345261,0.21388686,0.84306407,0
0.19783497,3.6656485,3.180829,0.53137428,0.84150463,0.097526729,0
-1.7096758,0.15122724,-3.8763011,-0.82571572,0.18938294,-0.53134525,0
-2.4073985,3.2057757,0.099718094,-0.4118219,0.79630113,-0.44306582,0
2.2574611,-1.4195819,-2.4700618,0.49345261,-0.21388686,-0.84306407,0
-2.0735564,-0.18954778,2.9859416,-0.49345261,0.21388686,0.84306407,0
1.2604058,-1.2073226,3.8439043,0.69291115,-0.48919928,0.52967751,0
-1.8398013,-1.36005,-3.5686779,-0.86285007,-0.24242988,-0.44352865,0
-1.6707728,3.6462846,0.49285269,-0.19259274,0.91836184,-0.34571618,0
-1.0151038,-3.3145952,-1.7565938,-0.52815062,-0.84381384,-0.095054053,0
0.95628691,1.3201342,4.3763256,-0.49345261,0.21388686,0.84306407,0
0.91623127,1.2971711,4.358707,-0.49345261,0.21388686,0.84306407,0
-2.6172349,-1.751025,3.0638714,-0.49345261,0.21388686,0.84306407,0
-0.5727582,-2.7284036,3.1926675,0.17340869,-0.92563969,0.33633393,0
1.5142961,1.9921458,3.7475481,0.83281553,0.39573562,0.38705528,0
0.0038092136,2.0789583,3.626318,-0.49345261,0.21388686,0.84306407,0
-3.5093732,1.9242208,1.6092789,-0.49345261,0.21388686,0.84306407,0
1.7600816,-0.12681198,-3.0891604,0.49345261,-0.21388686,-0.84306407,0
3.3768663,0.66195732,0.95961046,0.86391115,0.23286906,0.44657534,0
0.43713737,2.028244,3.8928146,-0.49345261,0.21388686,0.84306407,0
-1.1625154,-2.9045134,-3.0610754,-0.70269817,-0.66924584,-0.24150649,0
-1.5158799,1.975564,2.763062,-0.49345261,0.21388686,0.84306407,0
-0.2843821,0.41157246,3.8806551,-0.49345261,0.21388686,0.84306407,0
2.7072225,-0.9533329,-2.3251007,0.49345261,-0.21388686,-0.84306407,0
-1.5812565,-1.7063911,-3.8592372,-0.85194707,-0.31409147,-0.41896641,0
-1.2603368,1.5296154,-3.5215914,-0.64486706,0.56046683,-0.51963758,0
-3.9657874,-1.5018318,1.2805337,-0.7502647,-0.59502679,-0.28817707,0
2.6943045,-0.8305223,-2.3638189,0.49345261,-0.21388686,-0.84306407,0
1.3321893,3.2292454,-0.32313246,0.3469156,0.93725312,-0.034730062,0
-2.8679662,-1.7143052,2.9078004,-0.49345261,0.21388686,0.84306407,0
-3.2559226,-0.91582012,-1.0446186,-0.85552931,-0.29405648,-0.42614603,0
-3.5677643,0.55088556,-0.80742121,-0.85050988,0.084207356,-0.51917428,0
-1.325593,2.0186331,2.8635118,-0.49345261,0.21388686,0.84306407,0
3.0266945,2.4091067,-1.4184155,0.55825555,0.82117468,0.11841834,0
-0.56927919,-2.0060062,-3.9758,0.49345261,-0.21388686,-0.84306407,0
3.2100668,1.9176521,-0.18378031,0.72981995,0.62910396,0.26756513,0
3.4356716,-1.2568352,-1.8217342,0.49345261,-0.21388686,-0.84306407,0
-3.47223,1.9304054,-0.26975822,-0.72435427,0.43550497,-0.53445911,0
-0.31486046,0.82480192,3.7579792,-0.49345261,0.21388686,0.84306407,0
-3.4363573,-0.41084146,-0.95650983,-0.86882883,-0.16635767,-0.46632779,0
0.60990477,-3.9355319,-1.562669,-0.17258888,-0.97409666,0.14611223,0
1.8720374,2.6445465,1.711096,0.68775856,0.68931425,0.22767082,0
1.7794175,2.2823036,2.7639692,0.78196096,0.53351402,0.322335,0
-2.6977429,0.12903643,-2.3006108,-0.85266221,0.072357744,-0.51742774,0
0.55465889,-2.8778236,2.1099415,0.28389406,-0.8765986,0.38856018,0
1.3352753,-0.10374832,4.472003,0.81702846,-0.2184189,0.53362679,0
3.7164197,0.83636594,0.16825438,0.84850198,0.33143044,0.41255111,0
-2.7831388,-0.98653376,-1.9371483,-0.86155879,-0.25309595,-0.44006693,0
2.6957247,-3.6591721,-1.2292795,0.32620931,-0.85302722,0.40734762,0
2.0140457,-2.2048683,-2.4133062,0.49345261,-0.21388686,-0.84306407,0
-1.069739,2.7640655,-1.9296062,-0.37722123,0.82076001,-0.42901903,0
-3.5420332,1.3676782,-0.55447912,-0.79025292,0.29464501,-0.53729379,0
3.2400839,0.27245522,-2.3241968,0.49345261,-0.21388686,-0.84306407,0
1.6989818,1.6493819,-3.5755458,0.49345261,-0.21388686,-0.84306407,0
2.8106949,-1.8104683,1.2576957,0.70241082,-0.47365215,0.53129339,0
-2.0125518,-1.9435923,3.4666522,-0.49345261,0.21388686,0.84306407,0
2.1865344,2.6654797,0.60356057,0.62472415,0.76156563,0.17244588,0
-0.57999605,0.33548021,-4.5761118,0.49345261,-0.21388686,-0.84306407,0
4.3284812,0.88511086,-1.1837413,0.82156628,0.43283224,0.3710596,0
-0.66998243,-3.4399903,0.17924976,-0.22724044,-0.9673295,0.11240739,0
-0.89075923,-2.9197056,2.7082856,0.041331947,-0.96243101,0.26836234,0
1.8624485,-4.0829678,-1.8891585,0.054888368,-0.95970273,0.27560478,0
3.5054345,1.0036254,-2.3543839,0.49345261,-0.21388686,-0.84306407,0
0.29877853,1.42487,3.9649093,-0.49345261,0.21388686,0.84306407,0
-0.2539959,-1.3266172,-3.9636242,0.49345261,-0.21388686,-0.84306407,0
-1.3977065,1.9555473,2.8373082,-0.49345261,0.21388686,0.84306407,0
0.90840852,-2.4646101,2.6223493,0.43372059,-0.77967054,0.45166409,0
1.2383349,3.2766032,0.092690468,0.37748253,0.92591155,-0.013961568,0
0.92202783,3.3881025,0.014739871,0.30321163,0.95078886,-0.063744381,0
0.90981889,-2.2897515,2.911602,0.47367904,-0.74685615,0.46672708,0
-2.3433995,-1.8060884,3.2381194,-0.49345261,0.21388686,0.84306407,0
0.46553969,-0.88900948,-3.6534958,0.49345261,-0.21388686,-0.84306407,0
-1.763068,-1.0623105,3.3890946,-0.49345261,0.21388686,0.84306407,0
-1.6146593,2.2415507,2.6377642,-0.49345261,0.21388686,0.84306407,0
-1.7794588,0.042654514,3.0991693,-0.49345261,0.21388686,0.84306407,0
-3.0236726,-0.81519747,-1.5629647,-0.8639065,-0.23291358,-0.44656134,0
-1.7554455,2.7849805,2.4174919,-0.49345261,0.21388686,0.84306407,0
3.0879447,-3.5269186,-1.449338,0.49345261,-0.21388686,-0.84306407,0
4.4743347,-0.95112705,-1.2913544,0.49345261,-0.21388686,-0.84306407,0
4.2579689,1.4672273,-2.0315361,0.49345261,-0.21388686,-0.84306407,0
2.0719941,-0.82849193,-2.7285774,0.49345261,-0.21388686,-0.84306407,0
-2.6900148,3.0487158,0.10965919,-0.4764623,0.7444452,-0.46774453,0
2.1455646,-3.6981981,-1.9574668,0.49345261,-0.21388686,-0.84306407,0
-3.2315178,2.3775895,1.6568897,-0.49345261,0.21388686,0.84306407,0
2.8865139,-2.7469406,-1.7651188,0.49345261,-0.21388686,-0.84306407,0
-4.4720974,-0.33368278,1.6186221,-0.49345261,0.21388686,0.84306407,0
0.41915369,3.6282148,1.9836347,0.43578291,0.899652,0.026824268,0
0.57236385,-1.1931469,-3.5138104,0.49345261,-0.21388686,-0.84306407,0
3.8592618,-1.3064339,-1.5612199,0.49345261,-0.21388686,-0.84306407,0
-0.2768631,0.38286114,-4.410706,0.49345261,-0.21388686,-0.84306407,0
0.55622911,2.7347469,3.7832787,-0.49345261,0.21388686,0.84306407,0
0.76355386,1.3862786,4.246737,-0.49345261,0.21388686,0.84306407,0
-0.80468726,3.38345,-0.67652273,-0.15231204,0.93306494,-0.32586968,0
-4.1876173,2.2318974,0.94549608,-0.72544348,0.43352216,-0.53459358,0
-1.7318299,3.0034828,-0.88843703,-0.38935459,0.81242895,-0.43400717,0
-4.1660414,1.4125745,0.39938641,-0.81039786,0.23892534,-0.53494859,0
-3.5985155,2.4123957,0.33641195,-0.66506571,0.53187835,-0.524207,0
2.8241398,-1.8984485,-2.0168903,0.49345261,-0.21388686,-0.84306407,0
-0.36087024,1.1738558,3.6424937,-0.49345261,0.21388686,0.84306407,0
-3.9670703,-1.4213214,1.1263992,-0.76643467,-0.56517386,-0.30521524,0
0.17649078,3.2952523,3.4188137,-0.49345261,0.21388686,0.84306407,0
-0.13506269,3.8655183,2.1916614,0.34787446,0.93692136,-0.034084618,0
-0.44970226,1.2290926,3.5764856,-0.49345261,0.21388686,0.84306407,0
1.6933565,-2.4928229,-2.5279541,0.49345261,-0.21388686,-0.84306407,0
-2.9593382,-1.7353641,-0.80555439,-0.78772253,-0.52087295,-0.3289144,0
3.3921256,0.84420252,-2.3802588,0.49345261,-0.21388686,-0.84306407,0
0.63404536,3.4513772,2.6329455,0.55407548,0.82446587,0.11513676,0
-1.1900597,3.2801268,-0.72809887,-0.24485397,0.89593065,-0.37061417,0
-3.1314576,1.2400366,-1.2277846,-0.78538799,0.30691397,-0.53755891,0
-2.520328,-1.7311685,3.1155541,-0.49345261,0.21388686,0.84306407,0
-4.1890564,2.1845245,1.1454153,-0.49345261,0.21388686,0.84306407,0
-3.2922635,-0.26191092,2.2909806,-0.49345261,0.21388686,0.84306407,0
0.27514446,2.6337581,-3.2585738,-0.24842381,0.89425611,-0.37227899,0
-1.6064019,-0.88888788,-4.1630268,-0.86883891,-0.07631132,-0.48917854,0
2.5576198,0.93166232,2.4010251,0.86629641,0.20743611,0.45442379,0
-2.2537816,-2.0448153,3.3511388,-0.49345261,0.21388686,0.84306407,0
-0.76579428,-3.2601326,-3.1214771,-0.63485253,-0.75112808,-0.18102211,0
-4.4680586,0.51527035,0.70837331,-0.866009,-0.030745238,-0.49908233,0
0.27554226,1.1994677,4.0084934,-0.49345261,0.21388686,0.84306407,0
-0.022764921,-2.4245677,-3.549731,0.49345261,-0.21388686,-0.84306407,0
-4.2982512,-0.42162085,1.7426863,-0.49345261,0.21388686,0.84306407,0
1.9919193,0.53609729,-3.1216447,0.49345261,-0.21388686,-0.84306407,0
-1.2587216,3.836782,0.91206884,-0.047957599,0.96112704,-0.27190959,0
-1.9315494,1.5697844,2.6227138,-0.49345261,0.21388686,0.84306407,0
-1.3626325,0.19283915,-4.3922892,-0.81078017,0.23777714,-0.53488111,0
-2.5823615,-2.5584884,0.39175141,-0.58875006,-0.79560983,-0.14275287,0
3.2000349,1.2258811,0.90309215,0.83597749,0.38419873,0.39183289,0
-4.0242767,-1.3712139,1.1780365,-0.77115083,-0.55589777,-0.31032896,0
1.5991671,2.540822,2.7353697,0.74739718,0.60003549,0.28522795,0
-0.61292505,-2.3775778,-3.9070783,0.49345261,-0.21388686,-0.84306407,0
0.56194878,2.6151619,3.8169656,-0.49345261,0.21388686,0.84306407,0
1.2757695,-3.5439599,-0.0051229,0.16827255,-0.92750287,0.33380044,0
0.55135131,1.8276744,4.01055,-0.49345261,0.21388686,0.84306407,0
1.3369281,2.8720698,2.6386542,0.6892091,0.68742287,0.22899964,0
0.83704501,-0.047522068,4.6535096,-0.49345261,0.21388686,0.84306407,0
1.1130753,2.9722207,-2.5076418,0.032152593,0.97311568,-0.22806191,0
-0.84497786,-0.81718373,3.8642716,-0.49345261,0.21388686,0.84306407,0
-2.1274581,-2.6699207,3.5836673,-0.49345261,0.21388686,0.84306407,0
-1.8384483,-1.1531107,3.36801,-0.49345261,0.21388686,0.84306407,0
-1.7748898,0.95491505,-3.3520286,-0.75326067,0.37952614,-0.53717625,0
0.48503208,-1.4492927,-3.4999418,0.49345261,-0.21388686,-0.84306407,0
-3.2335801,-0.81802917,2.4664168,-0.49345261,0.21388686,0.84306407,0
-3.700278,0.69097066,1.8104186,-0.49345261,0.21388686,0.84306407,0
2.4224448,2.392535,0.81088758,0.69212711,0.68358135,0.23168221,0
3.2320619,1.2935653,-2.5879498,0.49345261,-0.21388686,-0.84306407,0
-2.2857332,1.0475364,2.5479026,-0.49345261,0.21388686,0.84306407,0
1.344887,-3.1110866,-2.5750616,0.49345261,-0.21388686,-0.84306407,0
-1.9021297,1.0517914,2.7713494,-0.49345261,0.21388686,0.84306407,0
1.4104292,-4.0326147,-1.6643149,-0.014569581,-0.97118896,0.23786461,0
0.98557091,3.2202141,2.495816,0.60678554,0.77910602,0.1574963,0
0.52627134,-3.4192054,0.67717433,0.091133296,-0.95124269,0.29467297,0
1.6885042,-1.4744376,3.0356116,0.68131304,-0.50747377,0.52752531,0
0.027065277,3.4109514,3.3020008,-0.49345261,0.21388686,0.84306407,0
-0.795174,-0.2530756,-4.5527401,0.49345261,-0.21388686,-0.84306407,0
-3.3441708,-0.89082289,-0.88462162,-0.85483247,-0.29814532,-0.4247008,0
-3.4964695,-1.2960033,-0.17737126,-0.81590509,-0.44964531,-0.36348051,0
-1.8790631,0.48933959,2.9275455,-0.49345261,0.21388686,0.84306407,0
0.94238782,3.3992932,1.154287,0.44339693,0.8957442,0.032272242,0
-0.37421656,-3.3710346,0.88983786,-0.076771975,-0.97621989,0.20273328,0
3.3597572,2.0134113,-0.87276697,0.68316901,0.6952225,0.22348547,0
4.073349,0.12812573,-0.12944746,0.86890805,0.16443416,0.46686202,0
-1.6166095,1.4549189,2.8361926,-0.49345261,0.21388686,0.84306407,0
0.81554198,-1.7862535,-3.221004,0.49345261,-0.21388686,-0.84306407,0
-0.71963167,-3.3584046,0.7144357,-0.17189908,-0.97415578,0.14653102,0
-3.7739892,1.2534881,-0.26556349,-0.80949163,0.24163219,-0.53510487,0
-1.5528227,2.1851664,-2.3790505,-0.55251491,0.67151469,-0.49375618,0
-2.5295935,-0.34143853,2.7575541,-0.49345261,0.21388686,0.84306407,0
-3.6968358,-1.3960347,0.42369819,-0.79078615,-0.5139274,-0.33246964,0
-1.8737173,-2.9321206,2.1111584,-0.24247795,-0.96469301,0.10281986,0
0.80078673,-1.8067405,-3.224443,0.49345261,-0.21388686,-0.84306407,0
2.6572039,0.7858305,2.2739208,0.86831552,0.17722738,0.46326965,0
-0.55980575,1.3890483,-4.535882,-0.61824954,0.59552318,-0.51295197,0
3.9822371,-2.4086857,-0.82639265,0.68987751,-0.49405199,0.52913296,0
-0.51404202,-1.4274027,4.2127848,-0.49345261,0.21388686,0.84306407,0
-1.5426831,0.82872486,3.0383286,-0.49345261,0.21388686,0.84306407,0
3.6343281,1.3528872,-0.21282721,0.80103856,0.48941448,0.34468943,0
4.3710995,-1.7129407,-0.85429478,0.79159153,-0.29119772,0.5372026,0
1.6474297,2.9716806,-2.1942191,0.18488753,0.97293437,-0.13861886,0
-4.3396792,1.4106085,0.66291046,-0.81666517,0.21957645,-0.5337081,0
1.1827168,-4.111062,-2.104068,-0.1184231,-0.97678769,0.1784986,0
3.7061794,-0.31443048,-1.9024934,0.49345261,-0.21388686,-0.84306407,0
-1.9144361,3.4613543,0.20002961,-0.28564084,0.87568045,-0.3893497,0
1.0278319,1.4529734,4.3845005,-0.49345261,0.21388686,0.84306407,0
0.74667746,2.3619685,-4.2231145,-0.26934648,0.88406688,-0.38194001,0
-1.9742068,1.5395212,2.6054239,-0.49345261,0.21388686,0.84306407,0
3.374054,1.206002,0.54949427,0.83096242,0.40224376,0.38431942,0
0.78563672,1.4932082,-4.0705132,0.49345261,-0.21388686,-0.84306407,0
2.1200867,-1.7453408,-2.4678228,0.49345261,-0.21388686,-0.84306407,0
0.42233014,0.11662292,4.3691297,-0.49345261,0.21388686,0.84306407,0
2.1975293,-1.2312021,-2.5529323,0.49345261,-0.21388686,-0.84306407,0
-1.7759105,-2.0354569,-3.1247389,-0.81664056,-0.44752032,-0.36445004,0
1.8892399,1.7330382,-3.48541,0.49345261,-0.21388686,-0.84306407,0
-1.5338433,2.1172614,2.7165987,-0.49345261,0.21388686,0.84306407,0
3.4029787,-2.3295429,-1.568722,0.49345261,-0.21388686,-0.84306407,0
0.48443961,3.5715902,0.67472869,0.29260921,0.95361733,-0.070667595,0
-0.49431586,-3.5997744,-1.4169207,-0.3838113,-0.9233616,0.0096103698,0
-4.5870457,1.4429179,1.056004,-0.82243443,0.20067394,-0.53228915,0
3.0613711,1.8307458,-2.8241398,0.49345261,-0.21388686,-0.84306407,0
-0.90296161,1.3936126,-4.1116924,-0.64186364,0.56456536,-0.51891947,0
-0.01828289,-2.1900864,3.9798455,0.40305269,-0.80270624,0.43955815,0
-4.4012914,-0.64868903,1.0956604,-0.84064382,-0.36603099,-0.39917344,0
-1.1156292,-3.2520056,0.89537609,-0.23277646,-0.9664101,0.10893387,0
-1.1643639,2.9029467,2.7335289,-0.49345261,0.21388686,0.84306407,0
-1.3722069,2.096277,2.8165295,-0.49345261,0.21388686,0.84306407,0
-2.0985157,-2.7381265,3.215266,-0.15398204,-0.97546422,0.15734994,0
1.8422604,-3.5480649,-2.1730826,0.49345261,-0.21388686,-0.84306407,0
1.7406176,-0.46869636,-3.0138159,0.49345261,-0.21388686,-0.84306407,0
-1.4039853,-0.65248823,3.495296,-0.49345261,0.21388686,0.84306407,0
-1.8030027,-2.9850249,-0.29800704,-0.51514363,-0.85286427,-0.085144907,0
3.0606406,2.4428051,-1.8802345,0.51171696,0.85517895,0.082551941,0
-0.051690817,3.3031073,-1.1870265,-0.052657723,0.960168,-0.27441722,0
1.7540629,2.9856884,-1.8906503,0.24444044,0.96432906,-0.10157886,0
-0.26603794,-3.4166598,0.71109796,-0.076010883,-0.97618842,0.2031709,0
0.63607824,0.53423905,-3.9147587,0.49345261,-0.21388686,-0.84306407,0
3.0794671,2.473994,-2.5263128,0.43993336,0.89753622,0.029790334,0
1.0485295,-0.60817862,4.6153231,0.75687385,-0.37197918,0.53737652,0
-2.9128873,-0.37752473,-1.9214244,-0.86936945,-0.091776282,-0.48556566,0
0.7356503,3.4917612,1.4173069,0.43276304,0.90117013,0.02467154,0
-2.0329843,-2.2167294,3.5239882,-0.49345261,0.21388686,0.84306407,0
-2.5236006,-1.0730822,2.9466815,-0.49345261,0.21388686,0.84306407,0
-4.2343645,1.8279662,0.72196579,-0.77429718,0.33349955,-0.53781223,0
-2.1221585,2.5541384,2.2614164,-0.49345261,0.21388686,0.84306407,0
1.1885893,-1.0136406,-3.1986694,0.49345261,-0.21388686,-0.84306407,0
-2.0323167,-2.5401878,-1.5394523,-0.69885325,-0.6745379,-0.2379134,0
4.1712985,-0.78100443,-1.5118845,0.49345261,-0.21388686,-0.84306407,0
0.30323201,-0.37224436,4.4234471,-0.49345261,0.21388686,0.84306407,0
0.16201782,3.7444088,2.1154556,0.39937675,0.91678613,0.0011684075,0
3.1450515,0.43716741,1.4864905,0.86965245,0.13744622,0.4741447,0
-3.4097195,2.3970017,0.082337856,-0.65492231,0.5464645,-0.52197051,0
-1.8195333,3.1783738,2.2801762,-0.49345261,0.21388686,0.84306407,0
-1.8488677,-1.0011799,-3.700387,-0.86964285,-0.13807398,-0.47397983,0
-2.2520237,1.1243572,2.5481434,-0.49345261,0.21388686,0.84306407,0
-0.054643154,-3.7870946,-1.9895036,-0.36248469,-0.93167537,0.024202228,0
-2.1198237,0.29016995,2.8371558,-0.49345261,0.21388686,0.84306407,0
-1.1453123,-2.1561747,-4.2748594,0.49345261,-0.21388686,-0.84306407,0
-3.4673343,-0.32834125,2.2053638,-0.49345261,0.21388686,0.84306407,0
2.016206,2.2724671,2.1963484,0.76537704,0.56721652,0.30407798,0
-3.2016809,-2.3967888,2.2949343,-0.49152273,-0.86825138,-0.067415662,0
2.2448897,2.7408454,-0.034257114,0.56379855,0.81673378,0.12278943,0
0.93875885,-2.4872587,-2.9710381,0.49345261,-0.21388686,-0.84306407,0
3.0539811,1.7170012,-2.7996082,0.49345261,-0.21388686,-0.84306407,0
-0.70227122,2.3327723,3.1486497,-0.49345261,0.21388686,0.84306407,0
-0.039963126,-0.59320354,-4.0244169,0.49345261,-0.21388686,-0.84306407,0
4.3704658,-0.77085948,-1.3978841,0.49345261,-0.21388686,-0.84306407,0
1.3814316,2.4787049,-3.9718113,0.49345261,-0.21388686,-0.84306407,0
-0.29436159,3.2628658,-1.2495098,-0.11374992,0.9450978,-0.30635172,0
-0.56471395,-3.0600064,2.1549051,0.04179877,-0.96234095,0.26861268,0
-0.451895,-3.3630757,0.89585614,-0.092606366,-0.97670257,0.19358775,0
2.6119461,-2.3594096,-2.0241432,0.49345261,-0.21388686,-0.84306407,0
3.2694724,2.1140022,-2.774199,0.49345261,-0.21388686,-0.84306407,0
0.88293481,-3.4449303,0.46313763,0.14200765,-0.93647385,0.32070321,0
0.35350537,1.4949353,-4.3238811,0.49345261,-0.21388686,-0.84306407,0
2.540884,-3.1166229,-1.8736296,0.49345261,-0.21388686,-0.84306407,0
1.6514671,-3.884995,-1.1750853,0.10013098,-0.94887805,0.29933947,0
1.1572307,0.47567081,4.7081819,-0.49345261,0.21388686,0.84306407,0
-4.0389814,-1.7375054,2.0918789,-0.67675495,-0.70328945,-0.21768478,0
1.2412047,0.07787466,-3.4447925,0.49345261,-0.21388686,-0.84306407,0
2.1038556,0.20467973,-2.9720461,0.49345261,-0.21388686,-0.84306407,0
-2.1726108,1.0720963,2.607883,-0.49345261,0.21388686,0.84306407,0
-0.30052698,2.3602314,-3.3763778,-0.39510238,0.80839074,-0.43634689,0
-1.5591757,-1.8120685,-3.8204253,-0.84574795,-0.34423742,-0.40768987,0
3.5329368,2.0093999,-1.4071867,0.65695834,0.7268846,0.20011148,0
-2.4010739,-1.1562653,-2.5875266,-0.86140037,-0.25434351,-0.43965757,0
-2.3440156,2.2851145,-1.3411832,-0.59715122,0.62143546,-0.507177,0
-0.054728985,-3.3555582,-3.3322458,0.49345261,-0.21388686,-0.84306407,0
2.7992027,2.0568981,0.60686266,0.73918939,0.61394477,0.27689499,0
-3.8328273,-0.062231742,-0.33179045,-0.8697567,-0.11545265,-0.4797855,0
2.6973333,1.5854409,1.6108489,0.82228851,0.43060762,0.37204671,0
-2.1052701,3.1863494,2.1109085,-0.49345261,0.21388686,0.84306407,0
2.2374828,2.0030334,2.1085038,0.79463863,0.50495547,0.33700073,0
-2.9503739,3.3746469,0.90965128,-0.42782131,0.7842415,-0.44937092,0
-4.2661624,1.7884392,0.74387121,-0.77975845,0.32063538,-0.537745,0
-1.5119951,3.1472383,-0.7907083,-0.32588756,0.85321712,-0.40720737,0
2.9528084,0.90086722,-2.6517706,0.49345261,-0.21388686,-0.84306407,0
1.101095,-3.2541986,0.84944415,0.24082989,-0.89779598,0.36873215,0
1.2162271,2.7903354,3.2026868,0.7276966,0.63243985,0.26547602,0
0.28156137,-3.9236848,-2.3141994,-0.33252853,-0.94204903,0.044367626,0
3.3586087,-0.74214888,1.0996525,0.8342694,-0.15771696,0.52831805,0
0.63034606,3.5414054,1.2824841,0.3954739,0.91847593,-0.0015445575,0
-3.7817683,-1.0452167,0.16392493,-0.82944161,-0.40745679,-0.38210678,0
-3.2681658,-0.47581553,2.3593533,-0.49345261,0.21388686,0.84306407,0
-3.0809066,2.0375538,-0.69518805,-0.6871078,0.4984369,-0.52862442,0
3.8896792,-1.3360581,-1.5359008,0.49345261,-0.21388686,-0.84306407,0
-1.2339141,-2.3533516,-3.9437356,-0.80642372,-0.47565335,-0.35133266,0
1.1671665,2.8145702,-3.1275125,-0.034588099,0.96370018,-0.26473707,0
0.5274632,2.4809675,-3.7927165,-0.26198262,0.88772672,-0.3785584,0
-1.5008886,-0.66768718,3.4424338,-0.49345261,0.21388686,0.84306407,0
1.1977119,3.077544,2.3642271,0.63269567,0.75338447,0.17918724,0
-0.80142999,-3.1990533,1.5554529,-0.084810197,-0.97650558,0.19810098,0
-1.2308607,-3.2538321,-1.0353233,-0.48722219,-0.87091327,-0.064223193,0
-0.63888657,0.7465992,3.5881641,-0.49345261,0.21388686,0.84306407,0
-0.051418543,3.677701,0.50609136,0.15994209,0.97507709,-0.1537632,0
2.4904907,0.29744482,-2.7692802,0.49345261,-0.21388686,-0.84306407,0
-0.37659645,2.3229146,3.3417711,-0.49345261,0.21388686,0.84306407,0
-3.7264268,1.9279616,1.4812868,-0.49345261,0.21388686,0.84306407,0
2.6011293,1.9231905,1.3649362,0.78245008,0.53246123,0.32288849,0
2.2052231,0.77740979,-3.0580177,0.49345261,-0.21388686,-0.84306407,0
0.42041183,-3.7916865,-0.86287868,-0.12603152,-0.97664571,0.17400929,0
1.1166954,2.6021559,-3.8089142,-0.1328944,0.93937063,-0.31610405,0
-3.6429694,0.41331816,1.9144028,-0.49345261,0.21388686,0.84306407,0
0.15945244,-3.8490591,-3.0816815,0.49345261,-0.21388686,-0.84306407,0
-0.11804283,1.9076357,-4.3261175,-0.48219422,0.73942685,-0.46982628,0
-0.75516486,-2.6497087,-3.9212923,0.49345261,-0.21388686,-0.84306407,0
4.08599,-1.1422014,-0.17007208,0.82850456,-0.17943808,0.53045464,0
-0.11814818,-0.75590038,4.2741432,-0.49345261,0.21388686,0.84306407,0
-4.3235755,0.50745344,1.4921556,-0.49345261,0.21388686,0.84306407,0
-2.8517141,-0.39289784,2.5820694,-0.49345261,0.21388686,0.84306407,0
2.4318662,-2.3294539,1.1834099,0.59604937,-0.62274665,0.50686467,0
2.9015279,1.9765551,-2.9546895,0.49345261,-0.21388686,-0.84306407,0
-2.2886319,2.9382641,-0.47360802,-0.46236405,0.7564851,-0.46254718,0
0.56459713,-3.5645149,-2.9167361,0.49345261,-0.21388686,-0.84306407,0
-1.3479702,2.0845342,-2.7451019,-0.55478102,0.66911441,-0.49447346,0
2.3951311,-3.8137679,-1.3581812,0.24125463,-0.89760017,0.36893111,0
2.0721662,1.1622515,-3.233532,0.49345261,-0.21388686,-0.84306407,0
-2.4821825,-2.7288942,1.4014707,-0.45221972,-0.89106995,-0.038622174,0
-0.49562716,1.9581234,3.3646493,-0.49345261,0.21388686,0.84306407,0
2.7010922,-2.4975297,-1.9369236,0.49345261,-0.21388686,-0.84306407,0
1.6590679,-1.2643898,3.2665598,0.70873523,-0.46299168,0.53229058,0
-3.3431168,2.6931486,1.5115125,-0.49345261,0.21388686,0.84306407,0
0.72733635,1.8507335,-4.1953411,0.49345261,-0.21388686,-0.84306407,0
-0.92452753,1.0149305,3.3528998,-0.49345261,0.21388686,0.84306407,0
0.95444888,0.84487987,-3.8072238,0.49345261,-0.21388686,-0.84306407,0
2.9030929,2.5536582,-2.3412774,0.42620677,0.90440428,0.020013548,0
-3.8423157,-1.9197704,2.1066256,-0.63799024,-0.74781215,-0.18369997,0
-1.8888342,1.7103367,2.612057,-0.49345261,0.21388686,0.84306407,0
-4.1583023,-0.31090331,1.7965101,-0.49345261,0.21388686,0.84306407,0
0.55488789,1.2626176,4.1559758,-0.49345261,0.21388686,0.84306407,0
-1.9189744,3.8251891,1.1108019,-0.16739541,0.92781758,-0.33336681,0
-4.0630541,-0.46728867,0.27054405,-0.86013949,-0.26386368,-0.43650442,0
-0.90476513,-1.1573133,-4.3874784,0.49345261,-0.21388686,-0.84306407,0
-0.51226616,3.2880116,3.0175157,-0.49345261,0.21388686,0.84306407,0
0.92788982,-2.806565,-2.8963912,0.49345261,-0.21388686,-0.84306407,0
-0.12388372,-3.7602601,-2.2895515,-0.41230541,-0.91098851,-0.010206558,0
-0.32489836,-1.0357974,4.2241411,-0.49345261,0.21388686,0.84306407,0
0.031694293,0.45095015,4.0556679,-0.49345261,0.21388686,0.84306407,0
2.9571438,-0.39297211,1.8305395,0.84489822,-0.11227778,0.52301133,0
2.8572414,-2.1978445,-1.9215586,0.49345261,-0.21388686,-0.84306407,0
2.54638,-2.6202357,0.67555094,0.55166805,-0.67240834,0.49348724,0
1.7812923,0.24236584,-3.1704063,0.49345261,-0.21388686,-0.84306407,0
0.38916659,-3.3103938,1.0676348,0.11119044,-0.94582677,0.30503857,0
2.5866251,1.3354094,2.0909677,0.84788686,0.33436403,0.41144669,0
1.3437195,2.3898244,3.6364138,0.79472893,0.50474179,0.33710778,0
4.005012,-2.0412455,-0.54591656,0.739218,-0.40763497,0.53608835,0
2.9908197,2.4725509,-1.7555958,0.51233709,0.85476208,0.083020717,0
-1.6818341,-2.9088874,2.5635846,-0.14652729,-0.97588134,0.16181904,0
2.4387093,2.4274945,0.65392876,0.6780405,0.70168996,0.21884301,0
0.42361546,-3.4273326,-3.0340576,0.49345261,-0.21388686,-0.84306407,0
0.45487404,-3.9813488,-2.3155165,-0.29696351,-0.95247668,0.067829683,0
1.5999606,-3.4975574,-2.3277166,0.49345261,-0.21388686,-0.84306407,0
-1.1109638,-2.7554433,-3.5631196,-0.74673373,-0.601183,-0.28454843,0
-4.0510731,1.0252836,1.5202792,-0.49345261,0.21388686,0.84306407,0
-0.49845719,-3.5748529,-2.2365692,-0.48137867,-0.87446344,-0.059902228,0
-2.5509291,2.8814762,1.9274075,-0.49345261,0.21388686,0.84306407,0
-0.91737771,2.5017624,-2.5491829,-0.42584226,0.78575987,-0.44859767,0
-1.7761652,-1.2419257,3.4269977,-0.49345261,0.21388686,0.84306407,0
-3.2583919,-0.46358865,-1.269062,-0.86910343,-0.1592696,-0.46828669,0
0.24404836,-3.0640831,-3.2313166,0.49345261,-0.21388686,-0.84306407,0
3.4724324,-3.1472096,-1.3206265,0.49345261,-0.21388686,-0.84306407,0
1.9063365,-4.0088348,-1.6531365,0.094663739,-0.95032752,0.29650712,0
-3.8872674,0.81434029,-0.23743439,-0.84387511,0.1170361,-0.52361953,0
2.687109,-2.132617,-2.0376868,0.49345261,-0.21388686,-0.84306407,0
-0.059053779,-2.5187254,3.3634915,0.31107002,-0.86178243,0.40070766,0
-1.4250284,0.53121901,3.1826711,-0.49345261,0.21388686,0.84306407,0
-0.68740487,-3.2623973,-3.381475,-0.64888072,-0.73598647,-0.19307443,0
0.32518709,-2.3998537,3.2802904,0.38781673,-0.81349933,0.43337864,0
-3.0135756,1.2178875,-1.4124713,-0.7825284,0.313945,-0.53766894,0
1.0261762,0.65680122,4.5855212,-0.49345261,0.21388686,0.84306407,0
-0.24717975,-0.35348749,-4.2065191,0.49345261,-0.21388686,-0.84306407,0
-0.41175103,3.4029651,3.0471842,-0.49345261,0.21388686,0.84306407,0
-3.0559154,-1.897222,2.8441982,-0.49345261,0.21388686,0.84306407,0
-2.9981391,-2.3487015,0.94679046,-0.60631955,-0.77954638,-0.15711179,0
-0.62137437,-3.1959691,1.6219182,-0.037899137,-0.97365928,0.22483623,0
-1.4388475,-3.1551068,-0.78785735,-0.49978638,-0.86301768,-0.073580213,0
1.4485109,-1.0576916,-3.0353594,0.49345261,-0.21388686,-0.84306407,0
3.9894903,1.1359494,-0.73345089,0.80938125,0.46780038,0.35505599,0
-0.39186549,2.3303037,3.3309593,-0.49345261,0.21388686,0.84306407,0
-1.9187491,3.952879,2.0256104,-0.49345261,0.21388686,0.84306407,0
-0.02189827,-1.9434857,-3.6712754,0.49345261,-0.21388686,-0.84306407,0
-0.53886819,-3.4307525,-3.1726499,-0.59703112,-0.788167,-0.14948814,0
3.1906259,2.4279146,-2.7867336,0.43161631,0.90174186,0.02385534,0
-0.024971962,0.59626961,3.9856329,-0.49345261,0.21388686,0.84306407,0
-4.0504293,-0.065032721,0.066368103,-0.86954916,-0.14329129,-0.47260135,0
-2.2022252,0.87992859,-2.7906101,-0.78115743,0.31727093,-0.53771031,0
-0.19569755,1.5392752,3.6464634,-0.49345261,0.21388686,0.84306407,0
-4.5466537,0.75605965,0.84161329,-0.85989881,0.025669843,-0.50981855,0
-0.86146033,0.97408724,3.4001758,-0.49345261,0.21388686,0.84306407,0
0.78393769,-1.5001407,-3.3120899,0.49345261,-0.21388686,-0.84306407,0
3.74614,0.14356743,0.46875858,0.86975241,0.12795764,0.47661042,0
1.8310351,-3.6520331,-0.60071921,0.21423811,-0.9095391,0.35614705,0
3.2577477,-1.2801092,-1.9199702,0.49345261,-0.21388686,-0.84306407,0
-4.2691126,0.96772075,1.407263,-0.49345261,0.21388686,0.84306407,0
-4.4305415,1.6204139,1.1471877,-0.49345261,0.21388686,0.84306407,0
4.1679459,-1.0426626,-1.4474638,0.49345261,-0.21388686,-0.84306407,0
2.3036029,2.1317511,1.735127,0.76843178,0.56127989,0.30737209,0
-2.4912348,-2.0729284,-1.3728451,-0.76415235,-0.56956506,-0.30276531,0
1.1195149,3.3081634,1.1378033,0.47697467,0.8770889,0.05665848,0
0.55186367,-3.0423055,1.7236035,0.2324096,-0.90162361,0.36477476,0
-0.37273622,-2.3181295,-3.7815759,0.49345261,-0.21388686,-0.84306407,0
1.304811,0.12990904,-3.4207644,0.49345261,-0.21388686,-0.84306407,0
-3.5418952,1.8074008,-0.27024555,-0.74317902,0.39989296,-0.53644264,0
3.3764932,-1.4371581,0.75538683,0.77625728,-0.3289308,0.53780031,0
0.58069843,1.3019981,-4.1419544,0.49345261,-0.21388686,-0.84306407,0
3.9977152,1.7528514,-2.2563279,0.49345261,-0.21388686,-0.84306407,0
0.21488428,3.2947593,3.441411,-0.49345261,0.21388686,0.84306407,0
-2.8370466,-0.49640894,2.6169155,-0.49345261,0.21388686,0.84306407,0
1.2086636,-2.3978424,2.4351811,0.47838548,-0.7427696,0.46844506,0
-1.0266557,1.6868448,-3.625098,-0.60191995,0.61571372,-0.50851643,0
-0.72493374,1.3984847,-4.324913,-0.62858039,0.5822472,-0.5156306,0
0.35313916,-0.27693081,-3.8745701,0.49345261,-0.21388686,-0.84306407,0
0.53179216,-3.1782815,-3.0339255,0.49345261,-0.21388686,-0.84306407,0
2.8487139,0.54732752,1.9979753,0.86971819,0.13219288,0.4755159,0
2.4885206,2.5921159,-3.3525953,0.49345261,-0.21388686,-0.84306407,0
-1.7955511,-2.9687972,-0.48774087,-0.53559554,-0.83844012,-0.10077503,0
-0.4544954,1.3917212,-4.6591034,-0.61005282,0.60577595,-0.51075554,0
2.0328598,-0.5180881,-2.8302336,0.49345261,-0.21388686,-0.84306407,0
-4.3022933,1.8928981,1.1531229,-0.49345261,0.21388686,0.84306407,0
1.4739771,-2.2968917,-2.7060668,0.49345261,-0.21388686,-0.84306407,0
-2.7266247,0.27183843,2.4866407,-0.49345261,0.21388686,0.84306407,0
1.1263282,-1.1936636,-3.1894393,0.49345261,-0.21388686,-0.84306407,0
3.627573,0.96711922,-2.273634,0.49345261,-0.21388686,-0.84306407,0
-0.3808248,-3.5583615,-0.25599098,-0.22004312,-0.96845949,0.11690667,0
-2.6604095,0.53874457,-2.2605925,-0.82748127,0.18312609,-0.5307914,0
-3.3228168,0.63144934,-1.1870704,-0.84026182,0.13311857,-0.52558494,0
0.6657567,2.5260687,-3.7752879,-0.22865969,0.90329552,-0.36300409,0
0.030960083,-0.68423319,-3.959811,0.49345261,-0.21388686,-0.84306407,0
-1.8173602,-1.2957768,-3.645318,-0.8651709,-0.22028086,-0.45050639,0
1.9606481,0.63265395,3.5707242,0.86727881,0.047648728,0.4955371,0
3.4807005,-0.069266558,-2.0966666,0.49345261,-0.21388686,-0.84306407,0
2.3795986,-0.86682415,2.5388513,0.78996658,-0.29537868,0.53731227,0
3.1144474,2.4518101,-2.416625,0.45986277,0.88689148,0.044155732,0
-1.3581932,-0.42190933,3.4636004,-0.49345261,0.21388686,0.84306407,0
3.0777028,2.4188809,-1.7525424,0.52986097,0.84259194,0.096365124,0
-2.6774454,3.3397355,0.59159636,-0.40768653,0.79933941,-0.44141626,0
2.7512596,-3.5151396,-0.98600078,0.37147248,-0.82461679,0.4266327,0
0.55466533,-1.6383224,-3.4112279,0.49345261,-0.21388686,-0.84306407,0
3.8563113,0.88528848,-2.1189907,0.49345261,-0.21388686,-0.84306407,0
-3.2725875,-2.2838769,1.7158587,-0.57227325,-0.80977088,-0.12951621,0
2.5222087,0.7014513,-2.8532124,0.49345261,-0.21388686,-0.84306407,0
2.4311924,-0.94962621,-2.4876039,0.49345261,-0.21388686,-0.84306407,0
2.619945,2.0213652,-3.1308708,0.49345261,-0.21388686,-0.84306407,0
-2.4550588,-2.7490077,1.6352415,-0.41917753,-0.90777969,-0.015042953,0
-3.1223044,1.9709347,-0.70251751,-0.69893569,0.47940284,-0.53071833,0
-0.82892895,-3.2367482,-2.9969988,-0.63299787,-0.7530694,-0.1794441,0
0.080488577,-1.2125239,4.5062532,-0.49345261,0.21388686,0.84306407,0
-0.72584105,1.9866774,3.2226589,-0.49345261,0.21388686,0.84306407,0
2.6790109,-2.2324183,-2.017107,0.49345261,-0.21388686,-0.84306407,0
0.41730928,3.6262908,1.2534032,0.34853041,0.93669343,-0.033642873,0
-2.282613,-2.563082,-0.6857748,-0.65217519,-0.73230922,-0.19593561,0
-0.30846965,0.43988895,3.8593731,-0.49345261,0.21388686,0.84306407,0
-0.74099195,-0.029839993,3.725385,-0.49345261,0.21388686,0.84306407,0
-2.6591058,-2.6425042,1.5190866,-0.4738757,-0.8789109,-0.054382291,0
-0.66029286,3.8144705,0.85378587,0.073788941,0.97609258,-0.20444697,0
1.1354706,3.1788545,-1.4202697,0.17247003,0.97410691,-0.14618438,0
-3.6689794,-0.52738142,2.137836,-0.49345261,0.21388686,0.84306407,0
1.9962447,-4.0039401,-1.6686432,0.11240131,-0.94548291,0.30566007,0
-3.4653373,0.030250072,2.1155577,-0.49345261,0.21388686,0.84306407,0
-2.7416294,-2.5777256,3.2007976,-0.49345261,0.21388686,0.84306407,0
-3.1677074,-0.0025831461,-1.5155144,-0.86489427,-0.018147588,-0.5016259,0
-1.9227118,-2.6696987,3.6769717,-0.059040964,-0.97529364,0.2128765,0
-1.4764274,-1.1331925,-4.3449907,-0.86974096,-0.12962523,-0.47618073,0
4.2665501,-0.031589627,-0.43472052,0.86956608,0.14244246,0.4728266,0
-0.32396352,0.60184717,3.8092151,-0.49345261,0.21388686,0.84306407,0
0.56757927,-2.7364085,2.4073291,0.32629865,-0.85297441,0.40738648,0
-0.82515287,3.7009265,2.7296231,-0.49345261,0.21388686,0.84306407,0
3.109334,-3.5658031,-1.4004745,0.39807576,-0.80627817,0.43755132,0
-1.6519458,-2.6751678,-2.2718353,-0.70776027,-0.66213679,-0.24627289,0
3.4160213,-0.32165304,1.0864608,0.85779095,-0.04066053,0.51238793,0
-2.4492817,1.0968006,-2.3010409,-0.76982683,0.34372699,-0.5377903,0
2.6178586,2.6586399,-1.4210765,0.47709644,0.8770169,0.05674798,0
-0.48587489,-3.0347784,-3.6659818,0.49345261,-0.21388686,-0.84306407,0
-3.4641109,1.6229453,1.7122056,-0.49345261,0.21388686,0.84306407,0
-0.69885254,-3.1128063,-3.7708433,0.49345261,-0.21388686,-0.84306407,0
0.25506333,-1.0837793,4.5757709,-0.49345261,0.21388686,0.84306407,0
-4.3523932,-0.38481879,0.79161835,-0.85825634,-0.27694964,-0.43208206,0
2.1137955,-1.1571711,2.7332082,0.74686074,-0.39256853,0.53673923,0
-1.4767791,2.918046,-1.2769091,-0.38297719,0.81684029,-0.43139362,0
