-1.1498859,4.1631265,-1.7710695,-0.14829442,0.5786922,-0.80195016,0
1.3375857,5.0117722,-1.4532588,0.5096249,0.73966992,0.43951195,0
1.0712644,1.8189123,-3.8733976,-0.14829442,0.5786922,-0.80195016,0
-3.5375304,-0.44739604,1.4843225,-0.97990733,0.02338621,0.19807732,0
1.4225712,4.4415579,-2.0458436,-0.14829442,0.5786922,-0.80195016,0
2.2296815,0.78728819,-4.8320355,-0.14829442,0.5786922,-0.80195016,0
-1.8028073,-1.2678711,4.4063072,0.14829442,-0.5786922,0.80195016,0
1.0325773,3.8414922,-2.4067376,-0.14829442,0.5786922,-0.80195016,0
-0.28545499,-4.9237261,1.4876351,0.14829442,-0.5786922,0.80195016,0
-0.54017115,1.8190209,3.7306833,-0.21756279,0.7719593,0.59728169,0
2.8266823,-2.2481637,2.84285,0.14829442,-0.5786922,0.80195016,0
-2.1556315,-4.4677968,2.1624646,0.14829442,-0.5786922,0.80195016,0
-0.22673655,-1.1146398,4.2254372,0.14829442,-0.5786922,0.80195016,0
-0.80447412,-4.2781467,-0.17326045,-0.3022173,-0.7986415,-0.52041942,0
-3.4072661,0.064674258,1.8094065,-0.94452518,0.15742093,0.2882548,0
2.9401865,0.56452435,4.0380406,0.65166694,0.66713983,0.36090779,0
-0.0026162863,-1.7326171,3.7380574,0.14829442,-0.5786922,0.80195016,0
1.9899909,-3.6754956,1.9675969,0.14829442,-0.5786922,0.80195016,0
0.19525731,3.0538516,2.1675713,0.052068561,0.81436032,0.57801902,0
3.1828241,-1.8006936,3.09989,0.14829442,-0.5786922,0.80195016,0
-0.064937711,-1.7230935,3.756454,0.14829442,-0.5786922,0.80195016,0
2.5692201,-2.8085175,-1.0061562,0.63769555,-0.56385213,-0.52479994,0
3.3957496,1.388381,-2.2223833,0.98787075,0.048927218,-0.1473681,0
-1.7574506,3.2447224,-2.3214464,-0.14829442,0.5786922,-0.80195016,0
-2.7327125,-2.0126603,-1.7076476,-0.70460147,-0.63084072,-0.32492566,0
2.5068896,0.69073129,4.4608707,0.5281409,0.73193616,0.4305073,0
1.2251692,-1.237826,-4.0842462,0.42072481,-0.69695556,-0.58072662,0
0.27603555,0.37006259,5.2038364,0.14829442,-0.5786922,0.80195016,0
-1.3977045,-4.7893639,1.1486744,-0.51055491,-0.73929232,-0.43906754,0
-0.67774069,-2.4911275,3.3155537,0.14829442,-0.5786922,0.80195016,0
0.89433384,-2.3205252,-2.9428153,0.27346656,-0.75530052,-0.5955981,0
-3.8626482,0.17488575,-2.5530457,-0.92242002,-0.37332916,-0.098825276,0
-0.96043766,5.2539763,-0.90631509,-0.10150763,0.79772633,0.59441471,0
3.1855752,2.3685713,-0.7597816,0.90910423,0.39897275,0.11979216,0
0.17384064,-2.9035363,2.8604848,0.14829442,-0.5786922,0.80195016,0
-1.4860353,-1.8891903,-3.4420421,-0.32163623,-0.79505253,-0.51423872,0
-2.836724,2.444778,-2.6991148,-0.14829442,0.5786922,-0.80195016,0
-0.83634901,4.4416323,-1.6280762,-0.14829442,0.5786922,-0.80195016,0
4.0387859,-2.5778954,1.6326971,0.9425528,-0.16274568,-0.29173249,0
-1.2658213,1.1028175,-3.9579687,-0.14829442,0.5786922,-0.80195016,0
2.7964478,-0.50643885,-2.9599586,0.81160057,-0.39213926,-0.43304896,0
0.86403513,4.4728575,-1.919974,-0.14829442,0.5786922,-0.80195016,0
2.2155929,-2.8876605,2.494386,0.14829442,-0.5786922,0.80195016,0
4.068337,-0.80373621,2.8238466,0.9530853,0.30001375,0.040249944,0
2.994601,1.7783079,-4.1610293,0.95365441,-0.13101155,-0.2708858,0
-0.66994536,0.31822658,-4.6343222,-0.14829442,0.5786922,-0.80195016,0
-1.0183139,2.3963411,-3.0703228,-0.14829442,0.5786922,-0.80195016,0
-3.3261409,-0.711981,-2.8350179,-0.79385102,-0.55324537,-0.25242853,0
2.4320662,0.15256262,-4.219861,0.77160543,-0.4395144,-0.45983934,0
1.4734838,0.66557992,5.1956549,0.14829442,-0.5786922,0.80195016,0
0.12355375,-0.8909626,-5.0752144,0.17278549,-0.78328198,-0.59717208,0
2.7381942,0.23212218,4.6490021,0.14829442,-0.5786922,0.80195016,0
2.9746847,-2.8561726,-0.41103214,0.72347784,-0.4893758,-0.48692,0
1.7624437,4.0007377,-0.2596848,0.55943966,0.71778244,0.4145062,0
-2.1043053,0.15130496,4.4110765,-0.68523484,0.5245741,0.50524759,0
1.3268985,-2.7836628,2.7337658,0.14829442,-0.5786922,0.80195016,0
1.0765233,-1.4952812,3.709769,0.14829442,-0.5786922,0.80195016,0
1.6764824,-2.3382635,2.9905248,0.14829442,-0.5786922,0.80195016,0
2.7282109,3.944001,-2.5927203,0.884004,0.44109499,0.15482932,0
-1.6187006,-2.8780084,-1.777463,-0.4316535,-0.76746887,-0.4739902,0
2.1878304,-0.93837893,3.9061332,0.14829442,-0.5786922,0.80195016,0
0.35475111,-0.10717344,-5.1307774,-0.14829442,0.5786922,-0.80195016,0
-0.77431303,4.074954,-1.9041451,-0.14829442,0.5786922,-0.80195016,0
1.5930877,-1.9305062,3.3001862,0.14829442,-0.5786922,0.80195016,0
-3.3727832,0.45044804,1.682247,-0.9226712,0.21089594,0.32280153,0
3.4967928,0.7675339,2.0471573,0.86461431,0.46950185,0.17891335,0
-0.84103614,4.8197846,-0.30323887,-0.09942922,0.79808277,0.59428751,0
0.94474351,-5.2745566,1.0069889,0.14829442,-0.5786922,0.80195016,0
0.77754617,4.6254387,-1.7938774,-0.14829442,0.5786922,-0.80195016,0
1.8450149,4.081707,-0.51831484,0.59102941,0.70202631,0.39729488,0
0.46675682,4.8046794,-1.6070658,-0.14829442,0.5786922,-0.80195016,0
3.9204566,-2.0490539,0.95590979,0.94525766,-0.15541211,-0.28694069,0
3.4387555,-0.56181699,-1.4190035,0.92897981,-0.19656123,-0.31362411,0
-3.1594217,-1.7787864,-0.98420238,-0.83347899,-0.50959474,-0.21360213,0
0.84821773,2.6995919,-3.1966484,-0.14829442,0.5786922,-0.80195016,0
-2.4926527,3.4840407,-2.0128014,-0.14829442,0.5786922,-0.80195016,0
3.3221874,0.4387846,-2.3593698,0.95129889,-0.13813336,-0.27558935,0
1.3920436,4.081636,-2.2999201,-0.14829442,0.5786922,-0.80195016,0
1.2369227,1.3820384,4.3375673,0.21666119,0.81022727,0.54460055,0
-1.2755238,-2.6197143,-2.4440846,-0.31510052,-0.79630136,-0.51634836,0
-4.0825496,1.1478984,-1.5620013,-0.98893321,-0.083137006,0.12287858,0
-0.87599504,-2.7550476,-2.4384453,-0.21417838,-0.81046379,-0.54523033,0
3.09484,2.9699662,-2.2741435,0.94722819,0.31615192,0.052978396,0
-3.0138688,0.61773634,2.4306815,-0.84897238,0.34140307,0.40334809,0
-0.10524845,2.7987189,-2.9488056,-0.14829442,0.5786922,-0.80195016,0
-2.0966766,-2.3128507,3.7065847,0.14829442,-0.5786922,0.80195016,0
-2.2733552,-0.79092228,-4.5544128,-0.4665609,-0.75593835,-0.45921469,0
-0.1896131,0.90623653,5.0352569,-0.18839729,0.77953434,0.59735465,0
1.6596564,3.3140113,1.0240304,0.47620639,0.75249618,0.45494705,0
3.6995075,0.26761568,2.3237796,0.89726973,0.41970667,0.13694227,0
-3.6616969,0.014026701,-3.2922924,-0.85024875,-0.48874682,-0.1954571,0
-0.225161,5.2250648,-1.1757661,-0.14829442,0.5786922,-0.80195016,0
-3.3843646,-1.8695694,1.6994562,-0.97932982,-0.19872728,0.03769207,0
-0.72498477,-3.9549651,-0.70724821,-0.2571559,-0.80558544,-0.53376287,0
1.7458971,-2.9147019,-1.692597,0.44231042,-0.68647736,-0.57715702,0
3.2124054,1.7067671,-3.2414029,0.97965676,-0.024907321,-0.19912863,0
3.8904343,-1.1185343,0.45858657,0.97449404,-0.052604765,-0.21816058,0
3.5543046,-2.7048435,2.378757,0.14829442,-0.5786922,0.80195016,0
-3.9853935,0.45075119,-1.7525369,-0.97350615,-0.22814232,0.015389085,0
-0.47021604,-1.1060295,4.2766743,0.14829442,-0.5786922,0.80195016,0
-2.8371644,4.47016,-1.1122329,-0.60236919,0.59027416,0.53733379,0
-0.88067114,-4.2279077,-0.20482469,-0.31993899,-0.79538095,-0.51478952,0
-2.6357865,4.2934246,-1.402277,-0.14829442,0.5786922,-0.80195016,0
-3.0560212,0.92230844,-3.7571862,-0.14829442,0.5786922,-0.80195016,0
2.931144,-2.7253764,2.4791734,0.14829442,-0.5786922,0.80195016,0
-0.42894983,-1.1685147,4.2239532,0.14829442,-0.5786922,0.80195016,0
-2.1724825,2.7767019,-2.5824263,-0.14829442,0.5786922,-0.80195016,0
-2.7672532,-1.1631416,-3.2433896,-0.64546549,-0.6710133,-0.36484963,0
1.8821565,2.4855142,-3.5423217,-0.14829442,0.5786922,-0.80195016,0
-1.9607394,-1.252033,4.4469404,0.14829442,-0.5786922,0.80195016,0
-2.4963531,4.0821743,-0.3202067,-0.54748142,0.62727618,0.55388504,0
3.2978725,2.056958,-0.60912859,0.92648268,0.3649177,0.09200424,0
-4.0037918,0.77598047,-3.4994826,-0.91546047,-0.3870731,-0.11002994,0
-2.7184169,1.8920649,-3.119833,-0.14829442,0.5786922,-0.80195016,0
3.640131,-3.1627088,1.0420562,0.84393072,-0.34868851,-0.40767303,0
0.80213356,-0.8344003,-4.852026,0.34397709,-0.73010015,-0.59045196,0
0.092955589,0.462533,-4.6712627,-0.14829442,0.5786922,-0.80195016,0
-1.3205101,-3.001966,3.0657883,0.14829442,-0.5786922,0.80195016,0
1.2398351,-5.2387247,0.97827792,0.14829442,-0.5786922,0.80195016,0
3.2783246,1.9434414,-2.8156493,0.98876274,0.071267962,-0.13141182,0
1.4795892,3.7133839,-2.5818415,-0.14829442,0.5786922,-0.80195016,0
2.7701817,2.9155302,-3.3962302,-0.14829442,0.5786922,-0.80195016,0
-0.89757013,-4.5617685,0.32501245,-0.34878927,-0.78941232,-0.50514764,0
-1.5636396,2.7185817,2.0615296,-0.41096538,0.70152092,0.58221638,0
-3.7563477,3.3146527,-1.901354,-0.14829442,0.5786922,-0.80195016,0
2.9252946,3.3040674,-1.909965,0.8991068,0.41659847,0.13435978,0
-0.76810193,-1.2340231,4.2393975,0.14829442,-0.5786922,0.80195016,0
-2.1202927,-0.43999362,-4.9132643,-0.14829442,0.5786922,-0.80195016,0
-0.99124432,2.8827243,-2.7243509,-0.14829442,0.5786922,-0.80195016,0
3.3249419,1.0785556,-2.597146,0.97419888,-0.054023892,-0.21913007,0
1.159508,-2.9778314,-1.9855257,0.29722375,-0.74734491,-0.59425044,0
0.16217291,2.9619799,2.2992487,0.037161708,0.81360435,0.58023,0
-1.1193222,-4.0058174,2.3042002,0.14829442,-0.5786922,0.80195016,0
-0.85981756,-4.7690105,0.62289238,-0.35313272,-0.78844148,-0.50364381,0
-0.96122682,3.1927989,1.8007678,-0.23473287,0.76714522,0.5969829,0
-0.13575959,-0.79156017,4.44175,0.14829442,-0.5786922,0.80195016,0
-3.205565,-2.5973191,2.3303528,-0.96936017,-0.24563542,0.0019993782,0
-1.2091272,0.14390314,-4.6604109,-0.14829442,0.5786922,-0.80195016,0
-3.6615944,-0.5444324,0.6766541,-0.98887038,-0.096616894,0.11313972,0
4.1471448,-1.283092,2.0170279,0.98825568,0.1169486,-0.098354608,0
1.7483432,-0.42612171,4.3570499,0.14829442,-0.5786922,0.80195016,0
-3.5456181,-0.43984938,1.4432003,-0.9805398,0.019450516,0.19535428,0
-0.98865151,-3.6070571,2.5677848,0.14829442,-0.5786922,0.80195016,0
3.3560338,-1.1824676,-1.2034661,0.88636702,-0.28186142,-0.36729741,0
3.2764206,1.9263968,-2.8384686,0.98859984,0.065377384,-0.13563234,0
-2.9661274,3.5898399,-1.8489022,-0.14829442,0.5786922,-0.80195016,0
0.94385254,-4.018168,1.9137714,0.14829442,-0.5786922,0.80195016,0
2.7724013,3.1363871,-3.2372689,-0.14829442,0.5786922,-0.80195016,0
-0.48721093,3.1301882,-2.638984,-0.14829442,0.5786922,-0.80195016,0
0.11166173,3.4047003,1.680788,0.05373311,0.81443328,0.5777638,0
2.9072633,-3.1967897,2.1434147,0.14829442,-0.5786922,0.80195016,0
1.8466072,0.33231354,-5.0895104,-0.14829442,0.5786922,-0.80195016,0
-3.2984695,0.44589615,-4.0561352,-0.14829442,0.5786922,-0.80195016,0
-2.0852413,-2.3885145,3.6498706,0.14829442,-0.5786922,0.80195016,0
0.19154246,-5.2063999,0.83662784,-0.095723227,-0.81550801,-0.57077467,0
-3.2927723,-0.13322508,2.285495,-0.93429208,0.18385938,0.30544069,0
-1.2944787,-1.7431903,3.9693151,0.14829442,-0.5786922,0.80195016,0
-3.5036345,-1.2892537,1.3766174,-0.9869169,-0.13848251,0.082568109,0
1.3411405,2.0829573,3.2301595,0.29500115,0.79988247,0.52264935,0
3.3017068,-1.6866592,3.1601946,0.14829442,-0.5786922,0.80195016,0
-1.0192096,-2.4004331,3.4441426,0.14829442,-0.5786922,0.80195016,0
3.6894405,-2.1529877,2.7519908,0.14829442,-0.5786922,0.80195016,0
-2.9386995,4.1915216,-0.92879438,-0.64104378,0.56123167,0.52352822,0
-0.43464518,1.4506969,4.2451377,-0.21478525,0.77271312,0.59731197,0
-2.2164638,3.5413423,-2.0225239,-0.14829442,0.5786922,-0.80195016,0
-0.20263779,2.6864836,2.6666369,-0.075937361,0.80185884,0.59266841,0
-1.1590884,1.3268777,4.0234542,-0.39952487,0.70673895,0.58386612,0
-2.9790292,-1.2632105,3.9244771,-0.93030375,0.19345313,0.31162611,0
3.7713468,-1.8041018,2.9886031,0.14829442,-0.5786922,0.80195016,0
-2.1871269,4.3096838,-1.4735091,-0.14829442,0.5786922,-0.80195016,0
3.83957,-1.3564854,3.2989902,0.14829442,-0.5786922,0.80195016,0
2.4114776,-1.9928738,-2.0733523,0.64906579,-0.55486715,-0.52041894,0
3.3046618,2.1960714,-1.4783785,0.95900363,0.2821725,0.026281118,0
1.8808781,4.027689,-2.4292424,-0.14829442,0.5786922,-0.80195016,0
-3.8497379,1.1817617,-3.4231915,-0.14829442,0.5786922,-0.80195016,0
0.3891151,-0.23752427,-5.2311935,-0.14829442,0.5786922,-0.80195016,0
-3.3903952,-1.8399312,0.82850599,-0.95260358,-0.30139315,-0.041334331,0
0.2959857,-3.2685714,2.5744867,0.14829442,-0.5786922,0.80195016,0
-0.55490053,-0.11077309,-4.9651642,-0.14829442,0.5786922,-0.80195016,0
3.9984832,-0.49990055,1.8557006,0.97252351,0.23249158,-0.012068927,0
-2.8014531,1.6197631,-3.3009729,-0.14829442,0.5786922,-0.80195016,0
-0.20372736,-5.2393031,1.2448002,0.14829442,-0.5786922,0.80195016,0
-2.2497239,-4.3214755,1.7442831,-0.74094486,-0.60209405,-0.29746133,0
-0.72484219,5.117919,-1.1606834,-0.14829442,0.5786922,-0.80195016,0
0.28148663,2.8092721,-3.0127044,-0.14829442,0.5786922,-0.80195016,0
-1.7354666,-4.1735654,0.52274251,-0.56470156,-0.71526384,-0.41171575,0
2.2225597,1.5489111,3.3483591,0.50890732,0.73996037,0.4398542,0
-0.59841669,1.3269929,-3.9196169,-0.14829442,0.5786922,-0.80195016,0
-3.9750867,2.8217049,-2.2166195,-0.14829442,0.5786922,-0.80195016,0
-3.4648168,0.20888352,1.5412678,-0.94773078,0.14849792,0.28240871,0
0.88069361,-4.0876622,-0.66237962,0.15714914,-0.78682321,-0.59683609,0
-1.2379451,-3.9105601,2.3948739,0.14829442,-0.5786922,0.80195016,0
-2.850096,-1.7911395,-1.8781736,-0.72473788,-0.61534071,-0.31001711,0
-3.2991505,-1.7883344,-0.28434038,-0.89233387,-0.42787421,-0.14374882,0
3.9446788,-0.46073848,2.8633494,0.92743158,0.36290812,0.090378702,0
1.1987433,0.67094088,5.2503271,0.14829442,-0.5786922,0.80195016,0
-4.1882434,1.3093159,-2.4862034,-0.98349506,-0.17130092,0.058253288,0
0.21457851,3.45333,-2.5355761,-0.14829442,0.5786922,-0.80195016,0
-0.13536143,2.7202504,-2.9998608,-0.14829442,0.5786922,-0.80195016,0
-0.17372513,-0.5545342,-5.3558712,-0.14829442,0.5786922,-0.80195016,0
2.4515004,1.7144074,2.7625115,0.59098214,0.70205098,0.39732158,0
-3.7829142,0.83283406,-3.6873364,-0.14829442,0.5786922,-0.80195016,0
-3.3565702,-1.0131122,-2.0416062,-0.83383989,-0.5091626,-0.21322352,0
-2.3488674,4.3594041,-0.50064886,-0.49695015,0.65749115,0.56634426,0
0.10501695,-0.52382112,-5.385252,-0.14829442,0.5786922,-0.80195016,0
2.8515191,0.58294463,-3.77335,0.87668848,-0.29832309,-0.37738651,0
-0.074219465,-3.7565899,-1.1875901,-0.067661867,-0.81495321,-0.57556325,0
-3.0994935,-1.1895494,3.5024877,-0.94665265,0.15153775,0.28440288,0
2.3710852,-2.7308769,2.578769,0.14829442,-0.5786922,0.80195016,0
2.6513324,2.6461473,0.64512801,0.7315703,0.60984385,0.3047871,0
3.4101951,-3.9744709,1.4892346,0.14829442,-0.5786922,0.80195016,0
1.7753047,-4.1916232,1.6348552,0.14829442,-0.5786922,0.80195016,0
1.361392,0.53182507,-4.8558168,-0.14829442,0.5786922,-0.80195016,0
-1.385255,-4.7788305,1.7955644,0.14829442,-0.5786922,0.80195016,0
-1.3158584,-2.4609795,3.4553077,0.14829442,-0.5786922,0.80195016,0
1.2989093,2.787606,-3.2164774,-0.14829442,0.5786922,-0.80195016,0
-1.7768075,0.40599525,-4.3663096,-0.14829442,0.5786922,-0.80195016,0
1.7854985,0.39302373,4.9412799,0.14829442,-0.5786922,0.80195016,0
0.71908689,2.5600834,2.7783899,0.15801397,0.81436324,0.5584299,0
-1.8974388,-3.1416361,-1.0413837,-0.53372556,-0.72951216,-0.42772532,0
-3.9851103,0.69991595,-3.3873076,-0.91588628,-0.38625437,-0.10936046,0
0.98299515,-2.8459108,-2.2353992,0.26213208,-0.75890958,-0.59610653,0
-2.828578,-1.3433692,-2.7921224,-0.6798948,-0.64853591,-0.34226316,0
-2.9942074,1.3241929,-3.4786148,-0.14829442,0.5786922,-0.80195016,0
-2.8967738,2.1190016,1.2627931,-0.74704039,0.46582097,0.47427985,0
1.7813129,-4.2215605,1.6121414,0.14829442,-0.5786922,0.80195016,0
1.1014758,-0.20578337,4.635664,0.14829442,-0.5786922,0.80195016,0
-2.3119998,0.16340971,4.1017175,-0.72931433,0.48368329,0.48389155,0
-2.24862,-2.7758622,-1.1852224,-0.61238229,-0.69047427,-0.38501048,0
-1.213176,3.571064,1.2105649,-0.27306813,0.75542939,0.59561741,0
2.3112235,2.5254056,-3.5928774,-0.14829442,0.5786922,-0.80195016,0
-2.6236837,-3.2360303,0.49581671,-0.77404171,-0.57263726,-0.27008492,0
0.061860204,1.8150795,-3.689507,-0.14829442,0.5786922,-0.80195016,0
-0.74084854,-0.094305038,5.0567851,0.14829442,-0.5786922,0.80195016,0
-0.28142405,-1.9608886,-3.6910803,-0.0012137592,-0.81102216,-0.5850141,0
1.0311819,-1.9872952,-3.2920699,0.32785872,-0.73628783,-0.59193647,0
-2.5618773,3.8427906,-1.7411246,-0.14829442,0.5786922,-0.80195016,0
-3.8088498,0.85112536,-3.6693416,-0.14829442,0.5786922,-0.80195016,0
3.9739065,-1.6437023,3.0668912,0.14829442,-0.5786922,0.80195016,0
2.9390566,-0.81102753,3.8591163,0.14829442,-0.5786922,0.80195016,0
-3.1162105,1.8007252,-3.1121852,-0.14829442,0.5786922,-0.80195016,0
-1.5414968,-3.2359555,-1.2681062,-0.43586338,-0.76615351,-0.47226238,0
1.2832096,5.0405893,-1.43985,0.49567765,0.7451961,0.44607884,0
-0.28453672,-1.6689193,3.836154,0.14829442,-0.5786922,0.80195016,0
-3.2321432,-1.6985831,3.1414418,-0.98144716,0.013536483,0.19125442,0
1.3449363,3.7895737,0.5501287,0.42003858,0.77099377,0.47868145,0
3.7732613,0.32232523,0.28050911,0.98255581,0.17823258,-0.053077757,0
0.25673664,2.842706,2.4594998,0.054012626,0.81444538,0.57772082,0
-2.3735723,-1.4478037,-3.3351638,-0.54639655,-0.72385055,-0.42129689,0
1.0115683,-2.5025001,2.9949648,0.14829442,-0.5786922,0.80195016,0
0.49724323,-2.3882961,3.172483,0.14829442,-0.5786922,0.80195016,0
3.3130937,-2.0998795,-0.54207319,0.8331989,-0.36370924,-0.41652757,0
-2.9532018,-0.5656727,-4.0122476,-0.65590554,-0.66444945,-0.35818255,0
-0.41599318,5.0534134,-0.59675658,0.026077896,0.81292248,0.58178753,0
-1.6118004,-4.1727695,2.2747943,0.14829442,-0.5786922,0.80195016,0
2.8871422,-1.1277089,3.6401968,0.14829442,-0.5786922,0.80195016,0
1.4348265,4.8809309,-1.3479955,0.52865303,0.73171568,0.43025351,0
3.1759787,-3.3848557,1.9580151,0.14829442,-0.5786922,0.80195016,0
-3.4491251,-1.010908,-1.6371017,-0.87075615,-0.46083021,-0.17152011,0
-1.1841683,4.571949,-1.4697214,-0.14829442,0.5786922,-0.80195016,0
-1.3969762,0.89468908,4.355927,-0.48200083,0.66578567,0.56956518,0
2.7481961,2.2585239,-3.8662646,-0.14829442,0.5786922,-0.80195016,0
0.71315122,-2.7848415,-2.418232,0.19895184,-0.77687985,-0.59739089,0
-0.53594422,-1.8496344,-3.8332417,-0.060538888,-0.81470752,-0.57670319,0
-3.3050625,2.4646268,-2.5981879,-0.14829442,0.5786922,-0.80195016,0
0.78387213,-4.4899073,1.6029447,0.14829442,-0.5786922,0.80195016,0
-0.63494074,-5.1027136,0.99423492,-0.31389743,-0.79652673,-0.51673353,0
-1.275108,4.2627764,-1.6760057,-0.14829442,0.5786922,-0.80195016,0
0.016469628,4.5560398,0.057292461,0.10674097,0.81554502,0.56876403,0
2.3964458,-3.3532312,2.1249845,0.14829442,-0.5786922,0.80195016,0
-2.6012323,-0.18435502,3.9511771,-0.80793095,0.39675322,0.43569985,0
3.3553488,-0.54919422,3.971077,0.14829442,-0.5786922,0.80195016,0
3.7755432,-0.049168259,2.7960234,0.89487427,0.42370325,0.14026928,0
-1.2219447,5.0104647,-0.64632881,-0.18352702,0.78072631,0.59731412,0
-0.088254094,2.2154288,3.318604,-0.077561677,0.80161262,0.59279108,0
1.2378788,2.2003765,-3.6289406,-0.14829442,0.5786922,-0.80195016,0
3.3213365,-3.0139945,0.30176261,0.7876687,-0.42122263,-0.44961029,0
1.1280779,4.3751092,-0.20446801,0.40081179,0.77649879,0.48620921,0
0.012647628,4.9124398,-0.45490146,0.13014357,0.81528342,0.56424779,0
3.4635024,-3.558007,1.7799002,0.14829442,-0.5786922,0.80195016,0
-3.0851769,4.0657558,-0.98357141,-0.68038642,0.52879429,0.50739628,0
-3.840184,0.024256051,-0.44307399,-0.9869225,-0.13841119,0.082620531,0
2.6832459,-1.4506626,3.4448552,0.14829442,-0.5786922,0.80195016,0
2.2873311,0.50287032,-4.7961817,0.76015186,-0.45201722,-0.46674353,0
1.8125678,3.8615413,-0.08642602,0.5638321,0.71568269,0.41217881,0
-3.0795279,-0.87663054,3.3844705,-0.93054187,0.19288999,0.31126377,0
1.9225904,0.52367461,5.0102072,0.14829442,-0.5786922,0.80195016,0
3.3715038,0.21259212,3.7697215,0.76461101,0.5813843,0.27814072,0
-0.44151127,1.9114883,-3.5268559,-0.14829442,0.5786922,-0.80195016,0
-0.27825743,4.6771016,-1.5613612,-0.14829442,0.5786922,-0.80195016,0
0.70390797,-0.3734231,-5.3874698,-0.14829442,0.5786922,-0.80195016,0
1.9600413,4.2813826,-1.0635234,0.64288831,0.67260134,0.36647213,0
2.9979308,1.5114455,-4.0113678,0.94366956,-0.15974575,-0.28977418,0
3.9618568,-0.5521732,1.0245669,0.98813301,0.11952496,-0.096472859,0
-1.3283831,-3.2585108,2.8821201,0.14829442,-0.5786922,0.80195016,0
2.5244997,-4.3508739,0.65276438,0.53812671,-0.63313389,-0.55638218,0
3.0513811,-2.6120181,2.5387394,0.14829442,-0.5786922,0.80195016,0
-3.5615394,-0.14796132,-3.3047147,-0.8274405,-0.51672298,-0.21986246,0
-0.43759656,4.1628165,0.63467574,-0.038989872,0.80686456,0.58944827,0
-0.5400095,0.6555202,-4.4149566,-0.14829442,0.5786922,-0.80195016,0
-0.21670246,3.3591156,1.7493823,-0.035123438,0.8073228,0.58906388,0
0.42180169,0.0098867416,4.9169765,0.14829442,-0.5786922,0.80195016,0
1.266637,-1.8353937,-3.3342133,0.39407861,-0.7091732,-0.58461559,0
-2.6078088,0.87317264,-3.875525,-0.14829442,0.5786922,-0.80195016,0
-1.5277129,-0.39445102,-4.9899788,-0.14829442,0.5786922,-0.80195016,0
2.8196969,3.3764877,-1.52765,0.86109942,0.47434008,0.18305469,0
2.3621249,0.05591929,4.5913949,0.14829442,-0.5786922,0.80195016,0
2.5525305,1.8229623,-4.1443863,-0.14829442,0.5786922,-0.80195016,0
-2.3187108,3.1748195,0.88216734,-0.56004751,0.61920929,0.55038762,0
-2.9760857,3.8313353,-0.59379464,-0.66966087,0.53794992,0.51201975,0
-1.9737906,4.2440639,-1.5603106,-0.14829442,0.5786922,-0.80195016,0
-1.7278262,5.0085611,-0.85311651,-0.30894765,0.74322093,0.59344244,0
-1.4404004,-0.2556324,5.0697293,0.14829442,-0.5786922,0.80195016,0
-1.808705,5.0291033,-1.0243485,-0.14829442,0.5786922,-0.80195016,0
3.1754932,-2.9691539,0.012782544,0.75982302,-0.45236981,-0.46693712,0
0.74789953,-1.5224186,3.7509549,0.14829442,-0.5786922,0.80195016,0
2.4492905,-4.0311885,0.21624935,0.53967106,-0.63217533,-0.55597603,0
-3.1011038,-1.4879262,3.6432452,-0.95836473,0.11599909,0.26092374,0
1.4998095,-2.4033194,2.9762502,0.14829442,-0.5786922,0.80195016,0
1.4718003,4.8128004,-1.2777728,0.53450984,0.72916818,0.42733222,0
-1.2996839,-4.2689619,2.1476653,0.14829442,-0.5786922,0.80195016,0
0.52047873,2.6659625,-3.1603112,-0.14829442,0.5786922,-0.80195016,0
0.22022292,4.4850888,0.11228943,0.15651256,0.81442982,0.55875558,0
1.5966647,2.2942171,2.7309277,0.38230926,0.78141731,0.49318004,0
-2.8396344,3.2304504,-2.1316307,-0.14829442,0.5786922,-0.80195016,0
0.27234423,5.0209289,-1.4150689,-0.14829442,0.5786922,-0.80195016,0
0.26328266,2.1878793,3.3760762,0.011666834,0.81188351,0.58370274,0
-0.93990946,0.33614135,5.3723946,-0.40781432,0.70297241,0.58268106,0
3.1553085,-0.9045409,-1.8869865,0.86205429,-0.32174999,-0.39158538,0
0.49476779,-1.8030452,-3.7675121,0.20725489,-0.77472252,-0.59736949,0
3.8064518,-1.6883304,3.0656528,0.14829442,-0.5786922,0.80195016,0
3.3587103,1.074209,1.8858325,0.84073627,0.50077021,0.20589221,0
0.65617442,0.48663068,-4.7580233,-0.14829442,0.5786922,-0.80195016,0
0.29696512,0.55230784,5.3314753,0.14829442,-0.5786922,0.80195016,0
-1.4925299,1.206308,-3.841367,-0.14829442,0.5786922,-0.80195016,0
0.66405851,4.456481,-1.8948126,-0.14829442,0.5786922,-0.80195016,0
-1.1614819,-1.0027804,4.4790063,0.14829442,-0.5786922,0.80195016,0
3.273051,-0.37007034,-2.0119693,0.90895659,-0.23972696,-0.34107015,0
-1.3135298,0.90382302,-4.092742,-0.14829442,0.5786922,-0.80195016,0
-0.58610713,4.6202712,-1.5454435,-0.14829442,0.5786922,-0.80195016,0
1.223158,3.3504016,-2.7963533,-0.14829442,0.5786922,-0.80195016,0
-2.8115568,4.5035081,-1.2181765,-0.14829442,0.5786922,-0.80195016,0
-1.1917093,2.7172065,-2.8067203,-0.14829442,0.5786922,-0.80195016,0
-2.0033102,3.015192,1.3631144,-0.49669573,0.65763474,0.56640089,0
-2.713613,-3.1039062,0.48103285,-0.79400307,-0.55309075,-0.25228882,0
4.1255145,-1.7611051,1.6881756,0.9821043,-0.0090259612,-0.18812111,0
2.9897881,-0.46874988,4.0967245,0.14829442,-0.5786922,0.80195016,0
1.7051946,-2.3175564,3.0001581,0.14829442,-0.5786922,0.80195016,0
-1.4276766,2.8204565,2.028863,-0.37213853,0.71865863,0.5874033,0
1.8929442,3.6834934,-2.6798472,-0.14829442,0.5786922,-0.80195016,0
2.8435221,-2.0195374,-1.4440398,0.74117637,-0.47182846,-0.47753054,0
2.5334673,2.9454653,-3.3308563,-0.14829442,0.5786922,-0.80195016,0
-1.263201,-0.24285328,-4.9294972,-0.14829442,0.5786922,-0.80195016,0
-0.58662516,4.4644485,0.21081138,-0.057512045,0.80449742,0.59116513,0
-3.4786873,-1.5154661,1.1014588,-0.97686124,-0.21208581,0.027595997,0
-2.7192774,-2.4696147,3.7085924,0.14829442,-0.5786922,0.80195016,0
-3.4375863,-1.3610792,-0.68224669,-0.90604186,-0.40450564,-0.12435102,0
0.064875841,2.8099408,-2.972167,-0.14829442,0.5786922,-0.80195016,0
-2.6554747,4.1379113,-1.5108557,-0.14829442,0.5786922,-0.80195016,0
1.4524386,3.6812699,0.62759709,0.44314021,0.76383185,0.46924156,0
0.32964015,1.4098287,4.4530115,-0.022985458,0.8086803,0.58779907,0
1.7907269,2.3956413,2.4008396,0.44571033,0.76299721,0.46816397,0
0.97366792,1.7804009,3.8425965,0.17281708,0.81360269,0.55514389,0
-1.4917834,3.0183854,1.7460538,-0.37535948,0.71729791,0.58701706,0
0.81445074,2.1588109,-3.5806355,-0.14829442,0.5786922,-0.80195016,0
-3.0524907,-2.1447635,-0.5275557,-0.82844806,-0.51554656,-0.21882725,0
0.67875504,-4.3677506,1.7105314,0.14829442,-0.5786922,0.80195016,0
1.2804275,3.1381302,1.635293,0.35389253,0.7882697,0.50337946,0
1.7433153,-4.7635412,0.555632,0.32802865,-0.73622394,-0.59192181,0
-2.3171999,2.3614287,1.7870359,-0.60696375,0.58695984,0.53579187,0
0.49240655,-5.0468421,1.2549546,0.14829442,-0.5786922,0.80195016,0
-3.1615376,4.236793,-1.3459224,-0.14829442,0.5786922,-0.80195016,0
1.6240728,-2.7636161,-1.9640669,0.42260501,-0.69606388,-0.58043087,0
3.6346583,0.88104582,0.5326879,0.95119649,0.30536613,0.044461489,0
-2.7263052,3.1796312,0.41535044,-0.65143466,0.55296421,0.5194838,0
0.76009464,-2.8038483,2.8240123,0.14829442,-0.5786922,0.80195016,0
-3.5424821,0.58892703,1.0800393,-0.94466192,0.1570472,0.28801042,0
-4.139195,1.7216055,-1.7617415,-0.98424304,-0.0073971748,0.17666562,0
-0.61577791,3.8740218,1.0044739,-0.10379651,0.79732955,0.59455168,0
1.1114048,-2.1426744,3.236156,0.14829442,-0.5786922,0.80195016,0
-1.3711734,1.3960876,-3.726862,-0.14829442,0.5786922,-0.80195016,0
-3.0849495,-1.2712326,3.5943403,-0.94764191,0.1487501,0.28257424,0
0.080807447,0.34002376,5.2182608,0.14829442,-0.5786922,0.80195016,0
1.7354318,2.7736092,1.8367243,0.4578287,0.75895745,0.46300787,0
1.3938162,3.5114646,-2.7116868,-0.14829442,0.5786922,-0.80195016,0
1.7544724,-3.0615766,2.4541562,0.14829442,-0.5786922,0.80195016,0
-2.2412882,-4.3433347,2.2681162,0.14829442,-0.5786922,0.80195016,0
-0.86421913,0.99779785,-4.1080146,-0.14829442,0.5786922,-0.80195016,0
-3.7187793,-0.53677666,0.0078623295,-0.98239934,-0.17933428,0.052253842,0
3.1044188,0.37613559,-2.9852767,0.9129203,-0.23168781,-0.33600196,0
1.0772159,-1.2137578,-4.2157774,0.38686025,-0.71235025,-0.58557332,0
-2.6878424,2.0751727,1.6193153,-0.70486009,0.50695008,0.49615902,0
0.27366322,-3.8568914,2.1540792,0.14829442,-0.5786922,0.80195016,0
-0.63802075,3.7139542,1.2144026,-0.11991802,0.79441011,0.59542608,0
-2.3612444,3.5402973,-1.9965059,-0.14829442,0.5786922,-0.80195016,0
2.9920747,-3.3469412,0.11248618,0.7001797,-0.51123434,-0.4983851,0
-0.53096902,-4.8279428,1.6021527,0.14829442,-0.5786922,0.80195016,0
-2.3531783,-2.3180146,3.7502904,0.14829442,-0.5786922,0.80195016,0
-1.0743392,1.0329022,4.4372673,-0.39727294,0.70774943,0.58417892,0
1.7385937,-2.2447672,3.0465074,0.14829442,-0.5786922,0.80195016,0
2.3232641,4.3291845,-1.953469,0.76693475,0.57925636,0.27617556,0
2.9488595,-2.7377071,-0.56845927,0.72444612,-0.48843762,-0.48642206,0
1.2749925,-2.6819229,2.8167806,0.14829442,-0.5786922,0.80195016,0
0.0164361,0.54316616,5.3767533,0.14829442,-0.5786922,0.80195016,0
0.75541353,0.1650362,-5.0084381,-0.14829442,0.5786922,-0.80195016,0
0.13092625,1.6630976,-3.8119497,-0.14829442,0.5786922,-0.80195016,0
-3.5320802,-1.0041013,1.4121851,-0.98893803,-0.084155947,0.12214419,0
2.7629647,2.932626,-0.26093864,0.79597437,0.55107892,0.25047266,0
-1.9341722,-2.1654935,3.7828693,0.14829442,-0.5786922,0.80195016,0
1.7064939,2.3549008,2.5436234,0.41828167,0.77151382,0.47938162,0
0.88227022,2.2785423,-3.5067778,-0.14829442,0.5786922,-0.80195016,0
2.0885003,-3.1631212,2.3191135,0.14829442,-0.5786922,0.80195016,0
1.3993483,-2.897548,-1.9519839,0.36054817,-0.72346598,-0.58872902,0
1.5777664,-0.19420338,-4.9892931,0.56526774,-0.61578989,-0.54888546,0
4.23879,-1.6452899,3.0167646,0.14829442,-0.5786922,0.80195016,0
-0.23527457,-4.5023155,-0.08286643,-0.16176541,-0.81418848,-0.55761021,0
-2.9795098,-1.7732241,4.2111058,-0.95119047,0.13845579,0.27580199,0
3.915278,-0.1747151,1.4156666,0.97221994,0.23380718,-0.011063516,0
2.0226965,-2.3713226,-2.0851922,0.53938574,-0.63235271,-0.55605125,0
0.18154997,4.2719307,-1.9387612,-0.14829442,0.5786922,-0.80195016,0
0.93473786,-4.1323657,1.8330514,0.14829442,-0.5786922,0.80195016,0
0.10722136,-2.0211453,3.5095429,0.14829442,-0.5786922,0.80195016,0
2.8343382,-3.8266013,0.40984243,0.6386348,-0.56311917,-0.52444482,0
2.796309,-4.0379281,1.5569615,0.14829442,-0.5786922,0.80195016,0
-4.1507277,2.6197746,-2.0381761,-0.95793021,0.11743163,0.26187709,0
2.1232748,3.9268942,-0.70422459,0.66595328,0.65792871,0.35161912,0
-2.9542308,3.9250319,-1.6092255,-0.14829442,0.5786922,-0.80195016,0
2.3541188,0.12710619,-4.3231211,0.75396872,-0.45859221,-0.47034472,0
-3.7111011,3.2817407,-1.2918801,-0.85179317,0.33725935,0.40087959,0
2.851347,-3.7749658,1.7365391,0.14829442,-0.5786922,0.80195016,0
1.2976863,-3.9081001,1.9277674,0.14829442,-0.5786922,0.80195016,0
2.910243,-0.30405831,-2.9139359,0.84445024,-0.34794462,-0.40723231,0
3.6739559,-2.7306104,0.75715303,0.87167591,-0.30653399,-0.38238466,0
-1.5703439,-0.8236798,-5.025342,-0.26902884,-0.80394042,-0.53038025,0
-1.0631924,-1.155581,4.3505688,0.14829442,-0.5786922,0.80195016,0
-0.36585891,1.3100737,-3.9748299,-0.14829442,0.5786922,-0.80195016,0
1.2154634,-4.9399042,1.1984155,0.14829442,-0.5786922,0.80195016,0
-1.1470326,-4.805346,1.7323796,0.14829442,-0.5786922,0.80195016,0
-2.6316781,-2.8416142,3.4239569,0.14829442,-0.5786922,0.80195016,0
-0.93004167,-3.5372951,-1.2359648,-0.28430972,-0.8016299,-0.52588725,0
-1.408126,-3.7062838,2.5737503,0.14829442,-0.5786922,0.80195016,0
-0.84118044,1.0007142,-4.1101704,-0.14829442,0.5786922,-0.80195016,0
-2.4844441,2.6928082,-2.5852776,-0.14829442,0.5786922,-0.80195016,0
3.5635693,-1.0141994,3.597023,0.14829442,-0.5786922,0.80195016,0
-3.647387,2.7963591,-0.75076813,-0.86344451,0.31959361,0.39028642,0
-0.62985945,4.0088081,-1.9785883,-0.14829442,0.5786922,-0.80195016,0
0.47899327,-4.6321845,0.011916876,0.018539488,-0.809147,-0.58731365,0
4.2193646,-1.3807775,2.8628807,0.97803038,0.20595425,-0.032236814,0
1.3409953,1.9304211,3.4632106,0.2840817,0.80166596,0.5259555,0
2.6346617,1.7739837,-4.1949177,-0.14829442,0.5786922,-0.80195016,0
1.2478673,2.8025544,2.1788702,0.3204827,0.79527605,0.51461327,0
3.438916,1.4400537,0.40323687,0.91704428,0.38401431,0.10752982,0
-2.5185361,-4.1958156,2.2834423,-0.82527459,-0.51923436,-0.22207522,0
3.2606091,2.30621,-1.2819506,0.94380581,0.32500803,0.06000191,0
0.052401364,-3.4108028,-1.6813958,-0.011065453,-0.81183648,-0.58377987,0
-2.0981331,-4.1394191,1.0551689,-0.67538929,-0.65161628,-0.34531915,0
1.7166781,0.31976056,4.9011383,0.14829442,-0.5786922,0.80195016,0
2.0560396,-2.4309115,2.853483,0.14829442,-0.5786922,0.80195016,0
-0.7134124,-1.1175145,-4.8488526,-0.057860434,-0.81460422,-0.57712394,0
1.9546647,2.7557657,1.6271267,0.52124393,0.73487085,0.43390036,0
-2.6425943,-3.3533294,0.80447125,-0.79144651,-0.55567706,-0.25462794,0
-0.80412012,-2.3910654,-3.0003612,-0.16928351,-0.81380147,-0.55594075,0
-3.1473284,-0.74106061,-3.2663677,-0.73420221,-0.60769278,-0.30274826,0
4.1559896,-1.2085949,2.2458739,0.98500979,0.15868512,-0.067637086,0
2.8101234,-2.9369698,-0.56157768,0.68348515,-0.52610302,-0.50602734,0
0.030910015,-2.2818384,3.335536,0.14829442,-0.5786922,0.80195016,0
-1.3247161,-4.6551228,1.8736384,0.14829442,-0.5786922,0.80195016,0
1.1934922,-2.427892,-2.6536016,0.33985895,-0.73170578,-0.59084904,0
-0.9115802,2.8676493,2.2378802,-0.24308807,0.76470649,0.59676802,0
0.11932895,4.2129273,0.52992058,0.11072637,0.81553328,0.56801862,0
2.2749026,-0.026592493,-4.2943864,0.72888041,-0.48410967,-0.48411897,0
2.1801453,2.5744274,-3.5332642,-0.14829442,0.5786922,-0.80195016,0
-0.17441434,-3.6899321,2.3574152,0.14829442,-0.5786922,0.80195016,0
-3.4408889,-0.063652992,-3.8882098,-0.77554065,-0.57121921,-0.26878452,0
-3.0637665,-1.089547,-2.7694609,-0.73614264,-0.60609472,-0.30123621,0
-0.42754757,-2.2474215,3.4451485,0.14829442,-0.5786922,0.80195016,0
1.6408427,-1.8618158,3.3409228,0.14829442,-0.5786922,0.80195016,0
2.99575,-1.9104702,3.0552683,0.14829442,-0.5786922,0.80195016,0
3.9590936,-2.7558751,1.4998463,0.92190909,-0.21257761,-0.32387409,0
-0.56983757,3.9692042,-2.018266,-0.14829442,0.5786922,-0.80195016,0
0.55647957,-0.028712988,4.8642187,0.14829442,-0.5786922,0.80195016,0
-0.52714515,0.479532,5.4313517,0.14829442,-0.5786922,0.80195016,0
-0.43176121,-4.1448808,2.0767097,0.14829442,-0.5786922,0.80195016,0
2.1657224,1.7651734,3.0503025,0.5084855,0.74013084,0.44005519,0
-0.70827955,-4.0603251,-0.55625033,-0.25999886,-0.80520344,-0.53296137,0
-3.2618775,3.7103126,-1.7072791,-0.14829442,0.5786922,-0.80195016,0
0.65116906,-0.21242881,-5.2615428,-0.14829442,0.5786922,-0.80195016,0
1.4245254,2.5921233,2.3890035,0.3550759,0.78800106,0.5029667,0
0.47338378,4.2392526,0.39025044,0.20809656,0.81101996,0.54675633,0
-3.3370357,-2.0843008,1.5805554,-0.9681294,-0.25044435,-0.0016983747,0
-2.3013756,3.7405565,0.25640213,-0.52273482,0.64250571,0.56029868,0
-1.5387139,-0.032976866,5.2485785,0.14829442,-0.5786922,0.80195016,0
-3.4805756,-0.97973096,1.7843199,-0.98674941,-0.032601178,0.15894173,0
2.1317172,3.7423134,-0.37635279,0.65353322,0.66595966,0.35971099,0
3.1476035,-3.0771117,2.1853321,0.14829442,-0.5786922,0.80195016,0
3.3537569,0.62189043,-2.3277793,0.96272063,-0.101025,-0.25092384,0
-2.6604857,-1.6391962,-2.5565243,-0.65029728,-0.66800177,-0.36178297,0
0.32125354,-2.7049479,-2.6236851,0.105088,-0.79710382,-0.59462762,0
1.4859432,2.1909502,2.9735694,0.3433747,0.79059583,0.50700289,0
2.6497748,3.3997943,-3.0245173,-0.14829442,0.5786922,-0.80195016,0
-1.3485692,-4.5890236,0.75937104,-0.48080963,-0.75081325,-0.4528814,0
-1.3158455,4.3238053,-1.624434,-0.14829442,0.5786922,-0.80195016,0
3.8376787,-0.17710263,0.24846137,0.98894316,0.087159991,-0.11997738,0
0.11177492,-0.83104014,4.3674879,0.14829442,-0.5786922,0.80195016,0
0.89734554,-0.039366961,-5.1821828,-0.14829442,0.5786922,-0.80195016,0
-3.6350513,-0.40789938,0.94186848,-0.98723412,-0.038971782,0.15443426,0
0.16216928,4.2809386,-1.9286771,-0.14829442,0.5786922,-0.80195016,0
2.6141148,-0.97898459,3.7980046,0.14829442,-0.5786922,0.80195016,0
-2.8042395,-3.0378523,3.3142595,0.14829442,-0.5786922,0.80195016,0
3.1489139,0.47302413,-2.9252517,0.92483848,-0.20605657,-0.3197102,0
-1.223259,5.1756425,-0.86298382,-0.17321891,0.78318071,0.59717917,0
1.9827129,2.74382,1.6133194,0.52872342,0.73168528,0.43021858,0
3.3663788,-0.56153262,-1.6264064,0.91668761,-0.22383432,-0.33103153,0
-4.0069995,1.0124919,-1.078197,-0.98767138,-0.045550913,0.14976758,0
0.71030092,4.1181507,0.46781731,0.26465383,0.80456179,0.53163767,0
0.41843367,-2.9003825,-2.3440576,0.11709243,-0.79493761,-0.59528422,0
-3.0121222,-1.7762969,-1.4854188,-0.77911061,-0.56781048,-0.26566458,0
-1.4790205,-3.0729475,-1.5857251,-0.40576625,-0.77511901,-0.48429745,0
-3.8398569,2.1043441,-0.73590547,-0.92994887,0.19428977,0.31216422,0
-1.7471058,-0.59911537,-5.097096,-0.14829442,0.5786922,-0.80195016,0
-0.68928671,-1.1834903,4.2612877,0.14829442,-0.5786922,0.80195016,0
0.42069149,2.4232566,-3.3169971,-0.14829442,0.5786922,-0.80195016,0
1.9380884,-0.55689549,4.2275958,0.14829442,-0.5786922,0.80195016,0
-1.6362214,-4.2306118,2.237571,0.14829442,-0.5786922,0.80195016,0
-2.0554452,3.0981998,-2.3720734,-0.14829442,0.5786922,-0.80195016,0
2.5081034,-1.3893747,3.5214679,0.14829442,-0.5786922,0.80195016,0
2.937691,-1.3800812,3.4487367,0.14829442,-0.5786922,0.80195016,0
2.6116779,1.5980816,-4.3175993,-0.14829442,0.5786922,-0.80195016,0
2.039577,-0.084666371,4.5495915,0.14829442,-0.5786922,0.80195016,0
0.49618506,0.62528706,5.3472981,0.14829442,-0.5786922,0.80195016,0
0.35801256,1.6174393,-3.8868895,-0.14829442,0.5786922,-0.80195016,0
3.6380885,-3.0917728,2.0840535,0.14829442,-0.5786922,0.80195016,0
2.7774348,-2.1769285,2.9033606,0.14829442,-0.5786922,0.80195016,0
1.3925987,-4.487483,1.4921299,0.14829442,-0.5786922,0.80195016,0
3.1410646,-4.0254135,1.017988,0.69479382,-0.51610076,-0.50090075,0
-3.4907196,-1.150027,-0.9816277,-0.90557504,-0.40533841,-0.12503833,0
-2.7726209,-3.0712619,0.60282755,-0.81250787,-0.53357852,-0.23478675,0
-0.7936247,-3.9891505,2.256,0.14829442,-0.5786922,0.80195016,0
-2.0739181,2.0394118,2.4080637,-0.57057941,0.61226851,0.54732662,0
0.31255877,4.6870823,-1.6634108,-0.14829442,0.5786922,-0.80195016,0
-3.6512716,3.4617424,-1.3236407,-0.83106309,0.36662382,0.41823584,0
-3.3933024,-1.3105004,2.2582207,-0.98658681,-0.030622929,0.16033916,0
2.7965722,-2.576371,-0.95260978,0.70060402,-0.5108481,-0.49818483,0
-2.4088063,3.3630106,0.57829523,-0.56960118,0.61292017,0.54761595,0
3.1634438,2.7331583,-2.8862014,0.97911131,0.19997528,-0.036751121,0
4.2513924,-2.4411249,2.3920259,0.97705024,-0.039651185,-0.20928591,0
-2.8795085,0.52388394,-4.077332,-0.14829442,0.5786922,-0.80195016,0
-1.7509773,1.5220996,-3.5656981,-0.14829442,0.5786922,-0.80195016,0
3.3668411,-3.1570439,2.0871117,0.14829442,-0.5786922,0.80195016,0
3.0590706,-0.96946168,3.7225966,0.14829442,-0.5786922,0.80195016,0
2.757617,-4.123024,0.64174628,0.60448784,-0.58875036,-0.53662598,0
3.1901002,1.2856607,2.0051789,0.79781646,0.54918528,0.24876547,0
-4.2930341,2.0886912,-2.638644,-0.98815477,-0.054331124,0.1435211,0
1.1708524,0.86163092,-4.5825934,-0.14829442,0.5786922,-0.80195016,0
-3.564599,-1.0532662,1.0437007,-0.98685837,-0.13922203,0.082023561,0
-2.2948565,0.97257209,-3.8616681,-0.14829442,0.5786922,-0.80195016,0
-2.9207635,-3.2301264,1.6594932,-0.88828975,-0.43437761,-0.14918947,0
2.564364,-4.5611277,0.93062955,0.53489971,-0.63512594,-0.55722284,0
-0.64159691,-3.1379311,-1.9563491,-0.17709768,-0.8133474,-0.55416799,0
-4.0299439,2.5733104,-2.3857183,-0.14829442,0.5786922,-0.80195016,0
3.7353597,0.49739033,0.18587887,0.97967815,0.19670439,-0.03921625,0
-3.4057512,-0.98542595,2.1995513,-0.98053384,0.019488037,0.19538026,0
-3.7489381,0.26898676,-3.5473006,-0.85907978,-0.47708115,-0.18540603,0
3.4350369,1.3497468,0.73701644,0.90338075,0.4092153,0.12824172,0
-1.102757,3.2287884,-2.4540086,-0.14829442,0.5786922,-0.80195016,0
-3.1949899,-2.568239,2.8805079,-0.98338395,-0.17215103,0.057619363,0
-3.0342128,3.6001213,-0.43157929,-0.69525611,0.51568574,0.50068671,0
-0.75526643,3.5611091,-2.278461,-0.14829442,0.5786922,-0.80195016,0
0.92173475,-4.2038312,1.7838857,0.14829442,-0.5786922,0.80195016,0
-0.82733822,-0.5808624,-5.2540054,-0.14829442,0.5786922,-0.80195016,0
3.0182781,-2.2616897,2.7976599,0.14829442,-0.5786922,0.80195016,0
-0.5807817,1.9405882,-3.480104,-0.14829442,0.5786922,-0.80195016,0
-0.10213363,-1.6820168,3.7929733,0.14829442,-0.5786922,0.80195016,0
-1.9977753,4.3732977,-1.4626194,-0.14829442,0.5786922,-0.80195016,0
1.2431529,-0.33915246,4.5132256,0.14829442,-0.5786922,0.80195016,0
0.087725043,3.6382813,-2.3786566,-0.14829442,0.5786922,-0.80195016,0
2.8408046,-1.6463114,3.2745388,0.14829442,-0.5786922,0.80195016,0
0.77047122,3.827728,0.87731862,0.26071361,0.80510622,0.53275919,0
1.1756352,2.3309696,-3.5231938,-0.14829442,0.5786922,-0.80195016,0
0.31257892,1.9461281,3.7113111,0.008359611,0.81162083,0.58412468,0
2.3323731,-3.0871515,-0.96654391,0.56829274,-0.61378968,-0.54800141,0
-2.5171783,0.39175248,-4.2396803,-0.14829442,0.5786922,-0.80195016,0
3.1641932,0.49603319,3.714036,0.71879625,0.62002093,0.31449318,0
1.9939967,-1.4114217,3.6006258,0.14829442,-0.5786922,0.80195016,0
1.616763,-3.1664028,-1.4835893,0.39624345,-0.70820946,-0.58432049,0
3.178112,-1.704114,-1.156975,0.82655281,-0.37270099,-0.42178714,0
-3.2465734,-0.5657146,2.680212,-0.94465834,0.15705675,0.28801668,0
-0.37585032,1.0001016,-4.19666,-0.14829442,0.5786922,-0.80195016,0
1.0745107,-2.06809,3.2967987,0.14829442,-0.5786922,0.80195016,0
-2.9988182,3.8809733,-1.6327736,-0.14829442,0.5786922,-0.80195016,0
2.8001914,0.5443185,4.3096266,0.60608065,0.69396257,0.38869286,0
-2.4742351,1.6429547,-3.3447456,-0.14829442,0.5786922,-0.80195016,0
3.076057,0.43770123,-3.1046031,0.91071653,-0.23618455,-0.33883929,0
1.5808733,0.42958021,5.0054975,0.14829442,-0.5786922,0.80195016,0
0.6839987,-1.7445395,3.6024871,0.14829442,-0.5786922,0.80195016,0
2.8158867,-3.0405841,-0.44592005,0.67894912,-0.53003538,-0.50802612,0
-3.2928312,3.3838592,-0.60554212,-0.76213646,0.44988132,0.4655692,0
-1.6104109,2.8600168,-2.6262424,-0.14829442,0.5786922,-0.80195016,0
2.0678809,-3.3882236,2.1604912,0.14829442,-0.5786922,0.80195016,0
3.391943,1.4384503,-2.2300937,0.98826844,0.056766361,-0.14178482,0
-2.6134119,-0.27765286,-4.7049317,-0.14829442,0.5786922,-0.80195016,0
0.11949289,2.9566684,-2.8763869,-0.14829442,0.5786922,-0.80195016,0
3.8187091,-0.33004242,0.046311021,0.98690671,0.034582734,-0.15754093,0
0.49847472,1.0222658,4.9917469,-0.0049071908,0.81047565,0.58575165,0
-1.0910543,1.7514367,-3.5222385,-0.14829442,0.5786922,-0.80195016,0
-1.0806193,3.4249773,-2.3165312,-0.14829442,0.5786922,-0.80195016,0
-4.1808901,1.2483835,-3.3138807,-0.14829442,0.5786922,-0.80195016,0
2.1601715,4.5334005,-2.1159644,-0.14829442,0.5786922,-0.80195016,0
2.3111439,-0.41545498,4.2606754,0.14829442,-0.5786922,0.80195016,0
3.4533167,1.1054989,1.3538425,0.8829971,0.44264829,0.15613639,0
0.86003065,-3.7635193,-1.094328,0.17287648,-0.7832607,-0.59717357,0
-2.5241318,-2.4493637,-1.3007205,-0.67310178,-0.65316367,-0.34685886,0
3.0707102,1.6288989,1.6275778,0.7865091,0.56060112,0.25909412,0
-2.2169693,-4.1487212,1.322444,-0.71507114,-0.62290895,-0.31726593,0
-2.0819895,0.34117043,-4.3566546,-0.14829442,0.5786922,-0.80195016,0
2.4590085,0.9658159,4.0516315,0.53492689,0.72898495,0.42712289,0
-1.582334,-3.3249784,-1.0842483,-0.45438176,-0.76012409,-0.46448725,0
-1.1804518,3.4437051,1.3870983,-0.27304658,0.75543636,0.59561849,0
-1.7190322,-2.4465117,3.5403013,0.14829442,-0.5786922,0.80195016,0
1.4139971,1.8930488,3.4794962,0.30174905,0.79872364,0.52056521,0
-0.75747222,4.7094822,-1.4493797,-0.14829442,0.5786922,-0.80195016,0
1.375998,-3.6301627,-1.0563372,0.30928907,-0.74309886,-0.59341741,0
-2.3389699,3.8820117,-1.7540414,-0.14829442,0.5786922,-0.80195016,0
-1.830056,-3.1104991,-1.1754138,-0.51118886,-0.73903447,-0.43876415,0
-0.90540224,-4.4537315,0.16172361,-0.3431811,-0.79063755,-0.50706875,0
3.26478,-1.593737,-1.0764513,0.84912825,-0.3411755,-0.40321273,0
-2.5142689,0.6830138,3.2755663,-0.74397576,0.46897307,0.4759877,0
2.0735445,-4.083725,1.6575657,0.14829442,-0.5786922,0.80195016,0
0.71944571,-0.25401163,-5.3041754,-0.14829442,0.5786922,-0.80195016,0
-0.067821741,3.943296,-2.1297925,-0.14829442,0.5786922,-0.80195016,0
-1.6721417,-4.0285668,0.19020224,-0.53432208,-0.72925067,-0.4274264,0
-3.3436244,0.12137926,1.9763681,-0.93192446,0.18959728,0.30914336,0
1.9361521,-1.0441282,-3.661257,0.59716904,-0.59398293,-0.53904849,0
0.19804966,-1.134773,4.1323586,0.14829442,-0.5786922,0.80195016,0
-1.9668171,2.8094366,-2.5968359,-0.14829442,0.5786922,-0.80195016,0
2.1479867,3.3550439,0.30475807,0.62731349,0.68193531,0.37608761,0
-0.38603443,3.5355654,-2.3651705,-0.14829442,0.5786922,-0.80195016,0
3.1090333,-2.9962158,2.2508392,0.14829442,-0.5786922,0.80195016,0
-0.062673092,-0.55573893,4.5984054,0.14829442,-0.5786922,0.80195016,0
2.7693648,2.4098306,0.82917762,0.75110865,0.59340805,0.28931397,0
-1.4940526,3.0522056,-2.5090744,-0.14829442,0.5786922,-0.80195016,0
-3.1302857,-1.3722109,-2.0020261,-0.78429747,-0.56277716,-0.26107335,0
-0.77882314,0.10143423,-4.770627,-0.14829442,0.5786922,-0.80195016,0
0.95427191,2.0761695,-3.6661251,-0.14829442,0.5786922,-0.80195016,0
-3.6892095,3.5771105,-1.7243776,-0.14829442,0.5786922,-0.80195016,0
1.819978,0.069481611,4.7014337,0.14829442,-0.5786922,0.80195016,0
2.6358585,-3.9689231,1.636426,0.14829442,-0.5786922,0.80195016,0
0.66989809,4.7398472,-1.6914135,-0.14829442,0.5786922,-0.80195016,0
2.7648067,3.6066046,-2.8965528,-0.14829442,0.5786922,-0.80195016,0
3.3267949,-1.5298513,-0.99558139,0.86419922,-0.31841716,-0.38957703,0
-3.929858,0.95426238,-0.62887132,-0.98313475,0.0014929771,0.18287586,0
2.9218185,2.8052835,-0.54071712,0.84336239,0.49750417,0.2030499,0
-3.4641199,-1.5180267,1.4250439,-0.98338258,-0.17216122,0.057611734,0
2.4370565,2.113215,-3.9135854,-0.14829442,0.5786922,-0.80195016,0
-3.7687554,1.312232,-0.059794962,-0.95097423,0.13909684,0.27622461,0
-0.98254108,4.1335549,-1.8233533,-0.14829442,0.5786922,-0.80195016,0
3.8608086,-0.21008268,2.6982136,0.91653115,0.38500959,0.10834295,0
3.76827,-0.057137549,2.8651476,0.89060295,0.43067795,0.146092,0
-2.3627713,3.3964586,-2.1000183,-0.14829442,0.5786922,-0.80195016,0
1.4235752,4.1993647,-0.1932981,0.47350219,0.75347269,0.45615172,0
3.5027015,-3.7852504,1.3421845,0.78432417,-0.42510766,-0.45179528,0
-1.1499527,-2.2526937,-3.0716357,-0.25405055,-0.80599433,-0.53463209,0
0.45679376,4.6845875,-0.26664519,0.23479345,0.80833238,0.53988022,0
2.276813,-3.43784,2.0860524,0.14829442,-0.5786922,0.80195016,0
-0.60644895,5.014904,-1.2569126,-0.14829442,0.5786922,-0.80195016,0
1.3707556,2.6574595,-3.3236778,-0.14829442,0.5786922,-0.80195016,0
-3.4386892,-1.1712358,-1.2501397,-0.88397533,-0.44113919,-0.15486646,0
-1.0945743,-3.1468103,-1.7409551,-0.30226937,-0.79863238,-0.52040321,0
-2.089833,3.9037478,0.2507211,-0.46364918,0.67558813,0.57324517,0
-2.6356566,4.044045,-1.5822548,-0.14829442,0.5786922,-0.80195016,0
-2.7775197,0.49755812,3.0033233,-0.80824232,0.39636397,0.43547654,0
1.6872947,4.2385101,-2.2413158,-0.14829442,0.5786922,-0.80195016,0
0.36134768,-1.0439134,4.167727,0.14829442,-0.5786922,0.80195016,0
2.8822703,0.67106724,-3.7691445,0.88659173,-0.28146917,-0.36705589,0
0.66461372,0.33554363,-4.8686085,-0.14829442,0.5786922,-0.80195016,0
0.033100009,-2.532011,-2.8937163,0.042457938,-0.8064431,-0.5897854,0
-2.8272922,-3.3986137,3.0581951,0.14829442,-0.5786922,0.80195016,0
3.7589455,-0.85156012,-0.17772484,0.96649045,-0.087009087,-0.2415069,0
3.3338423,-0.19103253,4.2335057,0.14829442,-0.5786922,0.80195016,0
3.4133205,0.23100019,3.6115608,0.78095382,0.56603289,0.26404101,0
-1.9648712,-4.6094151,1.6815884,-0.67125577,-0.65440434,-0.34809554,0
-2.1112981,-2.6641603,3.4557815,0.14829442,-0.5786922,0.80195016,0
-1.1118755,-0.0089452267,-4.7886906,-0.14829442,0.5786922,-0.80195016,0
-2.2732587,0.65612912,3.6572552,-0.69383937,0.51695597,0.50134146,0
-0.71313864,2.2739401,-3.2150798,-0.14829442,0.5786922,-0.80195016,0
-2.3660908,-4.3695474,2.1634183,-0.78568584,-0.56141305,-0.25983238,0
1.3908205,-3.9290912,-0.67346871,0.2941719,-0.74839687,-0.59444523,0
2.4027944,-4.0147028,1.6464884,0.14829442,-0.5786922,0.80195016,0
1.5914184,-2.6070724,-2.1755598,0.42437816,-0.69521928,-0.58014929,0
2.1960874,0.81329155,4.5937791,0.44567275,0.76300949,0.4681797,0
3.9735928,-0.80653709,0.92594433,0.98850048,0.062473416,-0.13770953,0
2.549799,-1.1848338,3.661356,0.14829442,-0.5786922,0.80195016,0
-0.88195252,-1.1518823,-4.776042,-0.10491167,-0.81554604,-0.569103,0
-1.655303,-3.3662829,2.8648043,0.14829442,-0.5786922,0.80195016,0
1.9812806,-4.1954517,0.013118267,0.42029586,-0.69715852,-0.5807938,0
1.5050852,-1.060913,3.9439635,0.14829442,-0.5786922,0.80195016,0
-1.1507934,3.7294748,-2.0838275,-0.14829442,0.5786922,-0.80195016,0
-2.5932305,2.6679299,-2.583113,-0.14829442,0.5786922,-0.80195016,0
-0.8327117,-5.1592917,1.4188466,0.14829442,-0.5786922,0.80195016,0
-1.9260669,4.0739202,0.17258704,-0.41456649,0.69984865,0.58167553,0
-3.702507,-0.64898521,-0.17093682,-0.97505319,-0.22099096,0.020835638,0
3.3086607,2.1942658,-1.8164651,0.97072709,0.24010375,-0.0062437057,0
-1.650407,-3.6200404,2.6807861,0.14829442,-0.5786922,0.80195016,0
-3.0584307,-2.4853981,0.34244132,-0.86538285,-0.46843207,-0.17799932,0
0.70479822,2.1948211,3.3121462,0.12900144,0.81530702,0.56447595,0
-4.009912,1.5517192,-1.0970428,-0.97549337,0.047689706,0.21479866,0
-0.83416331,3.4646606,1.493264,-0.18562102,0.7802164,0.59733343,0
