1.0214663,3.392309,-1.8113389,-0.081167638,0.88029468,-0.46743232,0
-2.6564841,1.181145,3.6108453,0.015959024,0.36479956,0.93094921,0
-5.0389094,0.50317669,0.28044391,-0.99667829,-0.06856066,0.04395172,0
4.9798021,0.45334721,-0.12872005,0.99667829,0.06856066,-0.04395172,0
-5.1011205,-0.39928317,-2.5380526,-0.99667829,-0.06856066,0.04395172,0
0.98351598,-1.4128854,-3.4890924,-0.013272762,-0.39572385,-0.91827363,0
4.9086671,1.2429118,-0.51017094,0.99667829,0.06856066,-0.04395172,0
-2.6224802,-0.30011845,3.8677311,0.046011686,-0.028760284,0.99852669,0
5.2310338,-1.9607265,1.8026419,0.99667829,0.06856066,-0.04395172,0
4.7782187,-3.0101304,-1.9248757,0.040816262,-0.88754439,-0.45891052,0
-4.7217274,-4.0370331,0.39076149,-0.99667829,-0.06856066,0.04395172,0
2.0435877,-2.5577636,-2.6951964,0.018738121,-0.71826833,-0.69551367,0
5.1979852,-2.9519069,1.5605445,0.081212819,-0.87693918,0.47368968,0
5.1766047,-1.1455979,1.8399069,0.99667829,0.06856066,-0.04395172,0
2.6634371,2.8469183,-2.7739196,-0.079569936,0.70484716,-0.70488214,0
4.8865266,2.8174572,1.4439012,0.99667829,0.06856066,-0.04395172,0
3.4229376,2.067903,-3.4338577,-0.071740389,0.48371625,-0.87227958,0
-3.6464596,1.4488502,-3.1922872,-0.070141077,0.44842494,-0.89106411,0
-2.7590382,-1.3700948,3.6890056,0.063179612,-0.31040132,0.94850373,0
0.112674,3.0232599,2.2268491,-0.028877854,0.8021493,0.59642488,0
-3.0743754,1.2729063,-3.3174484,-0.067385316,0.39120197,-0.91783446,0
-4.7334661,-2.9920819,1.7545964,-0.99667829,-0.06856066,0.04395172,0
4.4079204,1.2547302,-3.8286257,-0.059792161,0.24962386,-0.96649504,0
3.4347525,-3.4792142,-0.7088356,0.061193064,-0.98658729,-0.15133029,0
-4.3253965,-3.0077715,2.7998493,0.079864562,-0.71723449,0.69223988,0
5.0213966,1.3804812,2.2607594,0.99667829,0.06856066,-0.04395172,0
3.7843337,-2.1384456,2.7302823,0.077553868,-0.63433623,0.76915717,0
-4.6224442,-3.9980221,0.97958207,0.076120049,-0.97610986,0.2035073,0
-5.0903893,2.042963,1.5149708,-0.99667829,-0.06856066,0.04395172,0
2.7568846,-1.914413,-3.2256846,0.0020795465,-0.56093872,-0.82785463,0
0.029857635,1.7065146,3.3390741,0.0079620481,0.45507056,0.89041972,0
-5.06286,-1.1696646,-2.872154,-0.99667829,-0.06856066,0.04395172,0
-4.7235174,-2.6162281,2.5664952,-0.99667829,-0.06856066,0.04395172,0
-5.1634684,0.20500326,-3.0092597,-0.99667829,-0.06856066,0.04395172,0
-2.0841415,-3.895277,0.33140755,0.071165472,-0.99561405,0.060728431,0
0.33283588,3.6381941,1.0018861,-0.054003339,0.9603647,0.27346504,0
5.2302084,-1.9812939,1.7518592,0.99667829,0.06856066,-0.04395172,0
4.8823171,1.2051859,-1.1665567,0.99667829,0.06856066,-0.04395172,0
1.8759015,3.8865633,0.0061538219,-0.067431718,0.99736726,0.02667439,0
3.5065112,-0.015312672,-3.8987322,-0.039062619,-0.071093082,-0.99670446,0
1.860496,-3.5430367,0.73578882,0.076447189,-0.97367966,0.21471781,0
3.68609,-3.4569666,0.44866037,0.074753523,-0.9843322,0.159693,0
-4.7896223,-1.2026482,3.2725079,-0.99667829,-0.06856066,0.04395172,0
1.7401421,-1.7488654,3.1858797,0.072161674,-0.49332097,0.86684895,0
-5.0467787,-0.7353797,-1.8300371,-0.99667829,-0.06856066,0.04395172,0
-4.9420199,-2.551666,-2.2876971,-0.99667829,-0.06856066,0.04395172,0
-4.742713,-2.275383,2.6628942,-0.99667829,-0.06856066,0.04395172,0
4.2746916,3.4364414,-2.2577491,-0.081432819,0.83236873,-0.54820698,0
4.9408312,2.3276162,1.9112322,0.99667829,0.06856066,-0.04395172,0
-3.7821684,3.4950328,0.3209815,-0.066626519,0.99680495,0.044056654,0
5.1783814,-2.3039072,0.073343754,0.99667829,0.06856066,-0.04395172,0
4.2501283,2.4532733,2.8774004,-0.0035744905,0.57599699,0.81744397,0
-1.5344703,1.4127067,-3.3707213,-0.067831635,0.40020365,-0.91391236,0
1.4056957,1.4202065,-3.5792327,-0.065204024,0.34845066,-0.93505639,0
4.8444729,3.1427948,0.99775827,0.99667829,0.06856066,-0.04395172,0
-0.072669864,2.7144217,2.5863361,-0.019378632,0.72384578,0.68968952,0
4.7006593,2.5432558,-3.1986685,0.99667829,0.06856066,-0.04395172,0
4.7376056,3.4647419,-0.92341691,0.99667829,0.06856066,-0.04395172,0
-4.7700286,3.3783662,0.82355213,-0.060376957,0.9842447,0.16618323,0
-4.0487628,2.4039645,-2.4590173,-0.079691172,0.70984501,-0.6998353,0
0.60025907,2.432219,2.862704,-0.0098177195,0.63690531,0.77087945,0
-4.3856177,0.21991396,-3.5254893,-0.052947044,0.1354503,-0.98936832,0
-0.075978875,2.7430129,2.5558968,-0.020261019,0.73147011,0.68157232,0
1.2562642,0.73446298,3.6400657,0.031359971,0.17496938,0.98407423,0
4.7982154,1.6520944,-2.3765593,0.99667829,0.06856066,-0.04395172,0
4.9772868,-0.47983694,-1.6414313,0.99667829,0.06856066,-0.04395172,0
-4.9831414,-2.2568645,-2.7603359,-0.99667829,-0.06856066,0.04395172,0
4.7179604,2.4357982,-2.973968,0.99667829,0.06856066,-0.04395172,0
-4.8158727,-0.63060522,3.5695839,-0.99667829,-0.06856066,0.04395172,0
4.9957819,-1.3373609,-2.5596795,0.99667829,0.06856066,-0.04395172,0
-4.8881817,0.45596933,3.6247969,-0.99667829,-0.06856066,0.04395172,0
1.1464945,2.5447736,2.7750061,-0.011927068,0.65675485,0.75400978,0
-5.1015091,1.3164306,0.12949657,-0.99667829,-0.06856066,0.04395172,0
-5.1482592,2.8053684,1.3919644,-0.99667829,-0.06856066,0.04395172,0
4.4785519,-1.4875975,-3.4896879,-0.0057369471,-0.4792408,-0.87766469,0
-4.9751387,-2.1498075,-2.4118543,-0.99667829,-0.06856066,0.04395172,0
4.6810594,-2.7636642,-2.340672,0.031296134,-0.8206926,-0.57051218,0
-5.2503734,1.8931472,-2.3466215,-0.99667829,-0.06856066,0.04395172,0
-5.141078,2.0349851,0.35308456,-0.99667829,-0.06856066,0.04395172,0
5.0378618,-1.9153595,-2.5070662,0.99667829,0.06856066,-0.04395172,0
1.5790367,0.96893239,-3.7262197,-0.058391213,0.22539976,-0.97251493,0
-4.9164658,-2.5208132,-1.6600823,-0.99667829,-0.06856066,0.04395172,0
-5.1628842,1.835156,-0.45312548,-0.99667829,-0.06856066,0.04395172,0
3.3670185,-3.1006253,-1.8753138,0.040548325,-0.88580787,-0.46227711,0
-4.218977,2.490252,2.703563,-0.021257639,0.73999673,0.67227441,0
2.3523486,-3.3085165,1.3489728,0.080206633,-0.91990471,0.38385171,0
5.0782542,1.1036308,3.118228,0.99667829,0.06856066,-0.04395172,0
1.5745623,-3.6502059,-0.0073447227,0.06921348,-0.99751031,0.01350522,0
-4.8861303,-3.2546871,-2.1169577,-0.99667829,-0.06856066,0.04395172,0
-4.2954555,3.3339734,1.1549082,-0.054857951,0.96408081,0.25988215,0
5.0116625,1.0683486,1.5531127,0.99667829,0.06856066,-0.04395172,0
5.1110864,-1.7020187,-0.51379442,0.99667829,0.06856066,-0.04395172,0
5.200129,-1.7060759,1.4990706,0.99667829,0.06856066,-0.04395172,0
4.858057,3.0576212,1.1729434,0.99667829,0.06856066,-0.04395172,0
-5.0952263,0.12651706,-1.5841889,-0.99667829,-0.06856066,0.04395172,0
1.9359238,-1.9294236,3.0588918,0.074314594,-0.54491299,0.83519274,0
0.84443879,0.74855995,3.6504323,0.030495822,0.1862236,0.98203403,0
-4.988328,-1.115298,-1.0971992,-0.99667829,-0.06856066,0.04395172,0
-4.9333906,-1.1013145,0.17039835,-0.99667829,-0.06856066,0.04395172,0
4.7094703,4.010747,0.51273394,-0.058765464,0.97910053,0.19470161,0
-2.184226,3.4575431,1.1388817,-0.053562902,0.95839393,0.28037846,0
-5.1480279,-0.27632451,-3.4099467,-0.99667829,-0.06856066,0.04395172,0
4.9943023,1.6746802,2.1052678,0.99667829,0.06856066,-0.04395172,0
3.311805,1.9920111,-3.4658842,-0.070928216,0.46557289,-0.88216269,0
-2.6259539,2.5816174,-2.4383016,-0.080169976,0.73108649,-0.67755824,0
4.7108073,3.6429875,-1.2530739,0.99667829,0.06856066,-0.04395172,0
-1.4658639,-2.2585866,3.1447191,0.075298786,-0.57022059,0.81803328,0
4.7029982,3.3052177,-1.9570415,0.99667829,0.06856066,-0.04395172,0
-1.3661374,2.6314807,2.6370263,-0.019562751,0.72544253,0.68800473,0
4.6384816,-3.4058211,-0.69675875,0.062125728,-0.98903263,-0.13399559,0
-4.7203455,-2.9632506,2.0970964,-0.99667829,-0.06856066,0.04395172,0
-4.8226509,-0.90309811,2.9907968,-0.99667829,-0.06856066,0.04395172,0
-0.82570696,-1.2221358,-3.5287514,-0.02041173,-0.3121604,-0.94981003,0
-4.974987,0.9788785,2.4720407,-0.99667829,-0.06856066,0.04395172,0
-5.1319695,2.5225339,1.3201623,-0.99667829,-0.06856066,0.04395172,0
3.4664891,3.4464316,1.7937868,-0.035716146,0.85300303,0.52068239,0
1.6417872,-1.9807973,-3.1834805,0.0018100142,-0.55820465,-0.82970124,0
-5.2231922,2.5417085,-0.71854401,-0.99667829,-0.06856066,0.04395172,0
-3.2115641,-3.847724,1.1387919,0.077736437,-0.9618001,0.26248336,0
4.8657684,0.68990707,-2.3456044,0.99667829,0.06856066,-0.04395172,0
-5.0221801,-0.56108665,-1.000343,-0.99667829,-0.06856066,0.04395172,0
-5.1114292,1.0706854,-0.4788065,-0.99667829,-0.06856066,0.04395172,0
4.8716831,2.5787292,0.73491526,0.99667829,0.06856066,-0.04395172,0
-0.96538258,-0.75794554,-3.644896,-0.030474007,-0.18650639,-0.9819811,0
-2.7235487,-2.3097959,-2.9714684,0.0025610924,-0.56580925,-0.82453215,0
-5.0177045,-1.6487124,-2.5954416,-0.99667829,-0.06856066,0.04395172,0
4.7493267,1.6435738,-3.4984825,0.99667829,0.06856066,-0.04395172,0
-0.41430539,3.2652256,1.8169947,-0.039006725,0.87564355,0.48137993,0
5.0638008,-2.3258476,-2.5591941,0.99667829,0.06856066,-0.04395172,0
-5.0452967,1.0129414,0.93078303,-0.99667829,-0.06856066,0.04395172,0
-4.7713532,-2.041316,2.3785567,-0.99667829,-0.06856066,0.04395172,0
3.5469408,-2.1757851,2.7232945,0.077732921,-0.63992649,0.7644943,0
4.923346,-3.3750386,0.37414408,0.074578464,-0.98519289,0.15437925,0
-2.6327276,-3.6462564,1.5811568,0.080256522,-0.91852009,0.38714296,0
5.0565119,0.16686249,1.1639161,0.99667829,0.06856066,-0.04395172,0
-0.93950891,-3.1506047,2.1938696,0.081376791,-0.81732923,0.57039505,0
4.6432471,0.83015537,-3.9251151,-0.052766442,0.1325703,-0.98976803,0
5.197597,-1.3404803,2.011945,0.99667829,0.06856066,-0.04395172,0
-0.28849125,3.636338,-0.86966562,-0.076931059,0.96969008,-0.23191077,0
-3.3936486,3.2971504,-1.1491437,-0.079506874,0.93602306,-0.34283996,0
1.024652,-1.913389,3.1490512,0.073463917,-0.52397954,0.84855676,0
2.3434308,-1.2766449,-3.5671504,-0.014262021,-0.3844071,-0.9230535,0
-0.54931235,0.17717981,3.7710586,0.039851665,0.060065806,0.99739861,0
-2.2305303,1.6878934,3.365212,0.0046089292,0.49133831,0.8709566,0
4.9427657,0.38480997,-1.0754851,0.99667829,0.06856066,-0.04395172,0
-5.0030465,1.1556039,2.1114199,-0.99667829,-0.06856066,0.04395172,0
5.2168207,-1.2243612,2.629003,0.99667829,0.06856066,-0.04395172,0
5.1208591,-1.4804521,0.05343771,0.99667829,0.06856066,-0.04395172,0
-0.28910685,-2.5473244,-2.7580295,0.013688266,-0.67304164,-0.73947787,0
4.8546948,0.39835644,-3.0514996,0.99667829,0.06856066,-0.04395172,0
-0.57986033,-2.9637487,-2.3245316,0.025826097,-0.77791959,-0.62783277,0
4.8202081,0.70955133,-3.3481128,0.99667829,0.06856066,-0.04395172,0
5.1084185,-0.29555655,1.6196599,0.99667829,0.06856066,-0.04395172,0
-0.16143304,-3.7413945,-0.44355416,0.062709153,-0.99043024,-0.12294477,0
4.9173465,0.1237669,-2.0591159,0.99667829,0.06856066,-0.04395172,0
4.7777343,3.9236164,0.70236051,0.99667829,0.06856066,-0.04395172,0
2.9045389,3.795126,0.95620084,-0.052848272,0.95511794,0.29147345,0
4.9474983,1.0471706,0.065052986,0.99667829,0.06856066,-0.04395172,0
4.7081881,3.8391588,-1.0064538,0.99667829,0.06856066,-0.04395172,0
-4.7810378,-1.2575388,3.3815582,-0.99667829,-0.06856066,0.04395172,0
0.013040543,-1.2362022,3.5476713,0.063991547,-0.32549122,0.94337714,0
-0.59149003,-2.2135899,-3.030256,0.0038920641,-0.57917279,-0.81519556,0
-4.8448234,-3.3145549,-1.2736344,-0.99667829,-0.06856066,0.04395172,0
5.0495152,-1.5620852,-1.6917341,0.99667829,0.06856066,-0.04395172,0
-5.0060778,-0.1040535,0.077733278,-0.99667829,-0.06856066,0.04395172,0
4.8082442,3.0277286,-0.0032752156,0.99667829,0.06856066,-0.04395172,0
-4.7290006,-2.7780881,2.1896694,-0.99667829,-0.06856066,0.04395172,0
4.9895563,-1.052599,-2.2566485,0.99667829,0.06856066,-0.04395172,0
-3.1914763,0.90288663,-3.4450214,-0.06234014,0.29502523,-0.9534536,0
4.6918464,3.8041856,-1.4315894,0.99667829,0.06856066,-0.04395172,0
-4.8391151,0.19313884,-3.5048833,-0.053020358,0.13662404,-0.98920298,0
-5.017333,-1.6435814,-2.5790057,-0.99667829,-0.06856066,0.04395172,0
-5.0981035,1.5877457,0.62996054,-0.99667829,-0.06856066,0.04395172,0
5.1954999,-1.726512,1.3622108,0.99667829,0.06856066,-0.04395172,0
-5.0787792,1.3953381,0.76802182,-0.99667829,-0.06856066,0.04395172,0
-4.9554601,-1.1878476,-0.46504676,-0.99667829,-0.06856066,0.04395172,0
5.235877,-2.5216651,1.0374594,0.99667829,0.06856066,-0.04395172,0
5.1319914,-2.127903,-0.70407724,0.99667829,0.06856066,-0.04395172,0
4.805141,1.5405111,-2.3935714,0.99667829,0.06856066,-0.04395172,0
-5.2121849,2.4181688,-0.66165352,-0.99667829,-0.06856066,0.04395172,0
-4.340343,-1.0573144,3.8700523,0.056798339,-0.19842517,0.97846889,0
3.580101,-1.9547181,-3.1940663,0.0046393275,-0.58661151,-0.80985516,0
0.9104079,3.8126521,-0.3086884,-0.07147035,0.9950906,-0.068459272,0
-4.8884344,-1.5315948,0.51866281,-0.99667829,-0.06856066,0.04395172,0
4.9194407,0.41093826,-1.5636642,0.99667829,0.06856066,-0.04395172,0
-1.3041306,1.2353281,-3.4591646,-0.065225124,0.34885672,-0.93490356,0
4.0427237,-1.5828003,3.0886941,0.072072625,-0.49128109,0.86801404,0
5.0522013,1.1561329,2.6093376,0.99667829,0.06856066,-0.04395172,0
-4.7702718,-2.7622402,1.2784899,-0.99667829,-0.06856066,0.04395172,0
4.8230581,1.0113292,-2.8127329,0.99667829,0.06856066,-0.04395172,0
-4.9665527,-0.27896357,0.70118928,-0.99667829,-0.06856066,0.04395172,0
-4.9541783,-2.5106795,-2.8400097,0.0038121343,-0.57837397,-0.81576288,0
-4.9099727,-1.628129,-0.12033844,-0.99667829,-0.06856066,0.04395172,0
-4.8689599,-1.9263902,0.34443724,-0.99667829,-0.06856066,0.04395172,0
4.8286705,-0.3839252,3.4741096,0.056118965,-0.18709579,0.98073745,0
3.2343616,3.7694318,1.0892112,-0.050242994,0.94239527,0.33070648,0
-5.074944,-0.32840157,-1.8338838,-0.99667829,-0.06856066,0.04395172,0
4.0336018,-3.3093886,-1.2895365,0.052374173,-0.9528923,-0.29875267,0
-4.7251081,-2.4518185,2.7868977,-0.99667829,-0.06856066,0.04395172,0
4.8170471,1.506773,-2.1762033,0.99667829,0.06856066,-0.04395172,0
2.0603237,3.7771928,-1.0557175,-0.077516913,0.96412504,-0.253878,0
-1.4510247,3.5323825,1.0192406,-0.055027492,0.96480072,0.2571606,0
5.0240498,-1.1353588,-1.6035645,0.99667829,0.06856066,-0.04395172,0
-4.7469783,-1.749414,3.386626,-0.99667829,-0.06856066,0.04395172,0
-5.1229234,0.58398414,-1.4986572,-0.99667829,-0.06856066,0.04395172,0
4.0795069,-3.4559293,-0.5769453,0.063449785,-0.99205005,-0.10867715,0
5.1922207,-2.5753188,-0.036200047,0.99667829,0.06856066,-0.04395172,0
-3.6831322,0.63358068,3.8073769,0.026416779,0.23833457,0.97082371,0
-0.20642447,0.63528943,-3.6900265,-0.055046678,0.16941047,-0.984007,0
4.8344951,1.4086642,-1.9335753,0.99667829,0.06856066,-0.04395172,0
-4.9469151,-2.1815467,-1.8213462,-0.99667829,-0.06856066,0.04395172,0
1.3285656,-0.7327106,3.6062038,0.057827234,-0.21578258,0.97472763,0
-4.7629881,-1.4574165,3.4790747,-0.99667829,-0.06856066,0.04395172,0
3.3717408,3.0319233,-2.6614633,-0.080374718,0.74113351,-0.66652906,0
1.4421465,-3.4228408,1.2583132,0.079621017,-0.93373483,0.34899807,0
-4.8243694,-3.1705647,-0.58520466,-0.99667829,-0.06856066,0.04395172,0
5.1145163,-2.4720979,-1.6372809,0.99667829,0.06856066,-0.04395172,0
1.5634856,-1.6417904,-3.3860202,-0.0068718791,-0.46696365,-0.88424981,0
4.8010077,-3.1293731,-1.6689172,0.04601939,-0.91940254,-0.39061642,0
3.1954432,2.826508,2.5556138,-0.015999854,0.6940183,0.71977955,0
-5.1223474,1.4135065,-0.19161701,-0.99667829,-0.06856066,0.04395172,0
5.227448,-1.6570575,2.1950278,0.99667829,0.06856066,-0.04395172,0
-4.74016,-2.5559936,2.2830591,-0.99667829,-0.06856066,0.04395172,0
4.3491068,-1.3421516,-3.5637064,-0.0094808936,-0.43833816,-0.89876002,0
1.6056631,-0.80962992,-3.707469,-0.025715947,-0.24712417,-0.96864247,0
4.7759624,3.0505219,-0.69976372,0.99667829,0.06856066,-0.04395172,0
-2.3977866,2.9328871,2.2223873,-0.031723261,0.82390541,0.56583869,0
0.97237563,2.2674875,2.993593,-0.0046288371,0.58650786,0.80993026,0
-5.0062184,-2.0053394,-2.8912818,-0.99667829,-0.06856066,0.04395172,0
-5.0982847,1.2865515,0.15600443,-0.99667829,-0.06856066,0.04395172,0
-2.5213783,-1.9384184,3.4306159,0.070937634,-0.4657802,0.88205254,0
3.7308443,-3.4353576,0.55145931,0.075639784,-0.97933006,0.18759322,0
-3.018589,2.637969,-2.3279707,-0.080602407,0.75328618,-0.65273505,0
4.8299179,3.4809864,1.1952521,0.99667829,0.06856066,-0.04395172,0
-4.9534912,0.39949894,2.0557151,-0.99667829,-0.06856066,0.04395172,0
-1.2391357,-3.8316884,-0.23883939,0.0648399,-0.99459291,-0.081121445,0
4.8877635,1.9141748,0.06291616,0.99667829,0.06856066,-0.04395172,0
2.4413443,-3.4652171,0.86593199,0.077576756,-0.96350491,0.25620329,0
0.90927362,1.8977425,-3.3214819,-0.071772695,0.48444802,-0.87187088,0
5.0168352,1.533663,2.3962679,0.99667829,0.06856066,-0.04395172,0
2.322511,-1.3146853,-3.5507579,-0.013414383,-0.39410919,-0.9189657,0
-3.2602496,3.1135893,1.8597946,-0.040777043,0.88729072,0.45940441,0
3.5838101,-1.0071073,-3.6929679,-0.018449545,-0.33557174,-0.94183397,0
4.0928359,2.610229,2.759011,-0.0080956817,0.62042618,0.78422308,0
-4.3886395,-1.5357513,3.7428937,0.063945532,-0.32463083,0.94367665,0
-3.7820444,3.4230204,0.9050827,-0.058490887,0.97815883,0.19945967,0
-4.7981582,-1.7058687,2.2939646,-0.99667829,-0.06856066,0.04395172,0
-4.8038597,-1.0316916,3.2163367,-0.99667829,-0.06856066,0.04395172,0
-0.016113877,-3.7297606,0.4869051,0.073623419,-0.98924279,0.12640536,0
5.0791912,0.70146561,2.5121369,0.99667829,0.06856066,-0.04395172,0
0.29817867,-1.8504609,-3.2630992,-0.0038713813,-0.4991923,-0.86648262,0
-1.9920727,-3.8390956,-0.55105042,0.059996076,-0.98308945,-0.1730184,0
3.6778209,-3.3387733,0.95538044,0.078504503,-0.95240426,0.29455554,0
0.80206704,3.7624416,-0.6663487,-0.074925035,0.98345071,-0.16495693,0
-2.4139442,-2.0100994,-3.1588645,-0.0045415163,-0.4920581,-0.87055051,0
-3.4821007,1.2621522,-3.2920468,-0.067613721,0.39579764,-0.91584522,0
4.832592,2.3714583,-0.47486702,0.99667829,0.06856066,-0.04395172,0
3.08619,-2.5503035,2.4176333,0.080171883,-0.73117828,0.67745894,0
-3.3136692,-3.4370108,-1.7987366,0.035756916,-0.85329133,-0.52020711,0
1.3385072,-0.20219445,-3.8002443,-0.038341045,-0.081109256,-0.99596745,0
-1.9549228,3.3450642,1.4956338,-0.046940319,0.92464888,0.37791675,0
-2.1603272,3.6051095,0.28027201,-0.066239506,0.99643451,0.05225575,0
4.6213589,-3.0986834,-1.7584591,0.044096448,-0.90805548,-0.41652203,0
3.397037,3.8528962,0.85289764,-0.054236691,0.96139365,0.26977867,0
-3.0156751,3.5098755,0.67827177,-0.061367601,0.98706412,0.14811581,0
-5.1680655,2.0850618,-0.18079376,-0.99667829,-0.06856066,0.04395172,0
-5.1185331,2.5290046,1.6349564,-0.99667829,-0.06856066,0.04395172,0
3.6451993,3.977653,-0.66043925,-0.073749214,0.9887675,-0.12999916,0
2.2172976,3.9095643,-0.22603536,-0.069959402,0.99706435,-0.031116605,0
2.9588392,3.3777838,1.8703876,-0.034468263,0.84409505,0.53508455,0
-4.7157001,-3.0373211,2.0868907,-0.99667829,-0.06856066,0.04395172,0
3.0202296,-3.5357578,0.21694088,0.072304785,-0.9932974,0.090178847,0
1.2205522,2.7868025,-2.6705658,-0.079819083,0.71526712,-0.69427782,0
4.7897749,2.5022364,-1.2418101,0.99667829,0.06856066,-0.04395172,0
5.0060225,-1.2242093,-2.1509545,0.99667829,0.06856066,-0.04395172,0
5.1780252,-1.153722,1.8594477,0.99667829,0.06856066,-0.04395172,0
1.5357187,-1.3611126,-3.5193524,-0.013593078,-0.39206934,-0.91983527,0
-5.0895739,2.3165164,1.9601874,-0.99667829,-0.06856066,0.04395172,0
4.037652,3.5729918,-1.9939094,-0.081258297,0.8731423,-0.48064488,0
2.9264183,1.37577,3.4331005,0.020210207,0.31458068,0.94901556,0
5.1361389,0.47551107,3.4510534,0.99667829,0.06856066,-0.04395172,0
2.2928474,3.0156994,-2.5478582,-0.080660105,0.75657845,-0.64890897,0
-0.45838118,-3.5959196,-1.1607528,0.051155131,-0.94698453,-0.31718034,0
5.1551399,-2.3096936,-0.46272278,0.99667829,0.06856066,-0.04395172,0
-4.8751354,0.040418148,3.2724302,-0.99667829,-0.06856066,0.04395172,0
1.8634739,-0.62094808,-3.7582393,-0.029291272,-0.20178425,-0.97899187,0
-4.78234,-3.9014924,-0.77228671,-0.99667829,-0.06856066,0.04395172,0
4.7547808,3.5618217,-0.3825044,0.99667829,0.06856066,-0.04395172,0
-4.9426403,0.039147854,1.7396637,-0.99667829,-0.06856066,0.04395172,0
-0.16009426,-1.1671619,3.5822108,0.062830806,-0.30398434,0.95060283,0
-5.1316452,2.119812,0.69930506,-0.99667829,-0.06856066,0.04395172,0
-4.6229725,3.2717516,1.3062181,-0.052535843,0.95365584,0.29627758,0
-0.62391567,3.7140892,0.13405085,-0.067216069,0.99724507,0.031373978,0
-0.46549606,-3.7576535,-0.46623254,0.062202767,-0.98922312,-0.13254571,0
-5.0904551,-0.40056348,-2.298187,-0.99667829,-0.06856066,0.04395172,0
4.9134064,1.7626152,0.40798771,0.99667829,0.06856066,-0.04395172,0
5.0093126,0.15815353,0.080013514,0.99667829,0.06856066,-0.04395172,0
0.42417336,1.7665796,3.304646,0.0071626902,0.46379972,0.88591117,0
-3.4008031,-0.05714643,-3.6000376,-0.047027349,0.043909609,-0.99792802,0
0.97110772,-0.91807431,3.5826397,0.060297489,-0.25848585,0.96413136,0
-1.8476055,1.9345576,-3.0633998,-0.074304581,0.54466271,-0.83535707,0
-5.0953503,-0.06504941,-1.8858335,-0.99667829,-0.06856066,0.04395172,0
5.0795918,-1.2857327,-0.57861948,0.99667829,0.06856066,-0.04395172,0
-1.6161108,-1.7635937,-3.2952142,-0.0092150569,-0.44127995,-0.89732218,0
3.5786324,3.4915583,-2.0614138,-0.081374824,0.8598389,-0.50403875,0
-1.9291575,1.8538103,-3.1075311,-0.073493004,0.52468193,-0.84812003,0
-4.8750825,-2.2301581,-0.26825839,-0.99667829,-0.06856066,0.04395172,0
4.9790058,0.93880153,0.61049747,0.99667829,0.06856066,-0.04395172,0
2.338845,-0.18279123,-3.8400059,-0.037389874,-0.094219565,-0.99484909,0
-4.8892908,-3.2069974,-2.1142306,-0.99667829,-0.06856066,0.04395172,0
4.74927,3.1404488,-1.1647776,0.99667829,0.06856066,-0.04395172,0
2.732286,0.58695984,-3.8541126,-0.050885201,0.10290179,-0.99338901,0
-4.8778558,-2.2932036,-0.42948711,-0.99667829,-0.06856066,0.04395172,0
-2.3859901,3.1308773,1.9016092,-0.039057314,0.87598193,0.4807601,0
-4.9182916,-0.36639214,1.6592063,-0.99667829,-0.06856066,0.04395172,0
2.1879823,2.7940626,-2.7729492,-0.079436362,0.69948304,-0.71022052,0
-3.2104163,-2.9877589,2.6906352,0.080195963,-0.73232788,0.67621332,0
-5.1591625,1.8369792,-0.36588526,-0.99667829,-0.06856066,0.04395172,0
-4.2599173,0.0542171,-3.5507686,-0.050000548,0.089161456,-0.99476141,0
-4.7545414,-2.4152894,2.1764317,-0.99667829,-0.06856066,0.04395172,0
-4.9092026,-2.9253039,-2.1263492,-0.99667829,-0.06856066,0.04395172,0
1.3660264,-0.11032188,3.6884568,0.047513127,-0.051208854,0.99755704,0
-1.3723449,-3.4664898,-1.5877321,0.042192429,-0.89632088,-0.44139403,0
4.8214827,3.1860018,0.54382193,0.99667829,0.06856066,-0.04395172,0
-4.963479,-0.00062274933,1.2050683,-0.99667829,-0.06856066,0.04395172,0
5.122436,-0.1825645,2.1137736,0.99667829,0.06856066,-0.04395172,0
-4.7523499,-2.1077981,2.7057858,-0.99667829,-0.06856066,0.04395172,0
0.54800344,-0.5892905,3.6787672,0.054680943,-0.16343519,0.98503757,0
3.9209051,3.8840106,0.84717584,-0.053943932,0.96010125,0.27440041,0
-1.4972379,2.9738116,2.2129672,-0.030986309,0.81835002,0.57388413,0
-5.230834,1.8681812,-1.9424815,-0.99667829,-0.06856066,0.04395172,0
-5.2879243,2.9289052,-1.5824566,-0.99667829,-0.06856066,0.04395172,0
-4.4492264,3.4087048,0.75827503,-0.061124906,0.98639882,0.15258145,0
4.000433,-0.14838147,3.5545862,0.051302075,-0.10942239,0.99267048,0
4.8052225,3.4369307,0.56650972,0.99667829,0.06856066,-0.04395172,0
3.2004023,-0.50755215,-3.8215475,-0.029732645,-0.19609985,-0.980133,0
4.8271856,2.4991863,-0.39822921,0.99667829,0.06856066,-0.04395172,0
-5.2870345,2.9937015,-1.4612184,-0.99667829,-0.06856066,0.04395172,0
4.8756452,1.4823298,-0.88553214,0.99667829,0.06856066,-0.04395172,0
5.001616,-1.0305457,-1.9487872,0.99667829,0.06856066,-0.04395172,0
-0.89681053,2.9091663,2.3302064,-0.02737686,0.79034537,0.61204958,0
-5.0306258,-1.7470167,-3.0417931,-0.99667829,-0.06856066,0.04395172,0
-2.0748444,3.3797703,1.3909252,-0.049008001,0.93596137,0.34867537,0
-2.5034368,1.2230817,-3.3792562,-0.066189647,0.36752453,-0.9276554,0
-0.61095262,1.9727235,3.1897385,0.00023335218,0.53728271,0.84340215,0
4.8894663,-0.047642708,-2.9587193,0.99667829,0.06856066,-0.04395172,0
4.957099,1.8996508,1.6125469,0.99667829,0.06856066,-0.04395172,0
-2.2693629,-2.2760196,3.2061846,0.074913383,-0.56015658,0.82499242,0
4.7976232,-3.3177259,0.70535326,0.077180743,-0.96742433,0.24110836,0
0.94239306,-3.0558627,2.0602608,0.081417978,-0.82658309,0.55689448,0
5.2432361,-2.631551,1.0329242,0.99667829,0.06856066,-0.04395172,0
4.8579988,0.86341715,-2.2511358,0.99667829,0.06856066,-0.04395172,0
1.5372418,3.677393,-1.2484272,-0.078874588,0.9470135,-0.31135839,0
-4.8040671,-0.97085142,3.3065412,-0.99667829,-0.06856066,0.04395172,0
-2.4196904,0.29044724,3.8311193,0.035181284,0.12425897,0.99162591,0
4.5463243,-2.9436204,-2.0655828,0.037550479,-0.86577916,-0.49901545,0
5.0010347,0.55918884,0.51787138,0.99667829,0.06856066,-0.04395172,0
2.7917914,-3.1681488,-1.7953,0.041696101,-0.89318353,-0.4477551,0
-4.0137491,-0.16182268,-3.5752378,-0.045914292,0.027316183,-0.99857175,0
-5.1110477,0.15172529,-1.9036348,-0.99667829,-0.06856066,0.04395172,0
4.7333522,3.0218923,-1.710678,0.99667829,0.06856066,-0.04395172,0
-4.9698153,-1.1773715,-0.77422941,-0.99667829,-0.06856066,0.04395172,0
4.846559,2.0658691,-0.63483822,0.99667829,0.06856066,-0.04395172,0
-5.2191105,1.9298356,-1.5804553,-0.99667829,-0.06856066,0.04395172,0
5.00348,0.49522495,3.5294952,0.041055083,0.0431014,0.99822676,0
-2.2729518,-2.9437907,2.6268907,0.080308199,-0.73779207,0.67023385,0
4.9685631,-0.37147474,-1.670222,0.99667829,0.06856066,-0.04395172,0
4.7608418,2.3532658,-2.1303082,0.99667829,0.06856066,-0.04395172,0
5.0429997,0.61620569,1.5584365,0.99667829,0.06856066,-0.04395172,0
-5.0280747,1.0972309,1.4528086,-0.99667829,-0.06856066,0.04395172,0
3.1189222,-2.2989621,-2.9209294,0.013287127,-0.66935545,-0.74282342,0
-5.2060924,3.2905746,-0.68353271,-0.077153563,0.96767867,-0.2400943,0
-4.8131618,-1.0138254,3.0332603,-0.99667829,-0.06856066,0.04395172,0
4.8387508,0.36650181,-3.4627454,0.99667829,0.06856066,-0.04395172,0
5.1751299,-1.7907383,0.80009127,0.99667829,0.06856066,-0.04395172,0
5.1693339,-0.17163157,3.1943204,0.99667829,0.06856066,-0.04395172,0
4.9436464,0.085152149,-1.5229522,0.99667829,0.06856066,-0.04395172,0
5.203105,-2.4660249,0.38110161,0.99667829,0.06856066,-0.04395172,0
4.7517934,1.9337373,-2.9899175,0.99667829,0.06856066,-0.04395172,0
-5.034749,-0.91275144,-1.8339179,-0.99667829,-0.06856066,0.04395172,0
5.1137857,-0.05344677,2.1190317,0.99667829,0.06856066,-0.04395172,0
-3.8339682,-3.377526,2.2810926,0.081411481,-0.82474387,0.55961567,0
5.2526674,-1.7752078,2.5826182,0.99667829,0.06856066,-0.04395172,0
1.2280014,1.1826026,3.5324044,0.021886289,0.29434004,0.95545006,0
-1.7008159,-0.88658571,3.7514384,0.056969881,-0.20130458,0.97787058,0
-3.8324952,-4.022429,0.20282412,0.068888158,-0.9976064,0.0059802532,0
4.8718443,1.4444933,-1.0307395,0.99667829,0.06856066,-0.04395172,0
-0.95228809,-3.5164371,-1.4355199,0.045623556,-0.91710955,-0.3960157,0
0.6459415,-1.4635686,3.4143777,0.06769681,-0.39747721,0.91511142,0
4.7902589,2.6230175,-1.0424285,0.99667829,0.06856066,-0.04395172,0
-5.119812,0.061593294,-2.2429845,-0.99667829,-0.06856066,0.04395172,0
4.3808126,-3.330111,0.78674459,0.077620029,-0.96305084,0.25789177,0
5.1335735,-2.6464481,-1.4770799,0.99667829,0.06856066,-0.04395172,0
1.7310529,2.1645603,-3.2316961,-0.074132562,0.5403626,-0.83816016,0
4.7557926,2.39292,-2.1829424,0.99667829,0.06856066,-0.04395172,0
-4.9144864,0.37943792,2.9089198,-0.99667829,-0.06856066,0.04395172,0
3.905704,2.5487947,-3.16328,-0.076488733,0.60277164,-0.79423904,0
-2.2817779,-1.495456,-3.4029193,-0.016536534,-0.35806939,-0.93354857,0
-4.9413543,-1.5428464,-0.69893706,-0.99667829,-0.06856066,0.04395172,0
-0.29768419,2.6150982,-2.6711693,-0.079382479,0.69735956,-0.71231174,0
4.9993944,1.6121972,2.1232674,0.99667829,0.06856066,-0.04395172,0
-0.39021778,2.0406749,-3.1238363,-0.074366689,0.54622245,-0.83433235,0
-0.70846856,-2.6995914,-2.6220016,0.017310202,-0.70570433,-0.70829499,0
-5.263032,2.9401901,-1.0003853,-0.99667829,-0.06856066,0.04395172,0
-5.229229,2.148191,-1.469296,-0.99667829,-0.06856066,0.04395172,0
5.1899853,-2.8687518,-0.54463196,0.99667829,0.06856066,-0.04395172,0
4.9480176,-1.4812598,-3.4960842,-0.0050968528,-0.48611853,-0.87387794,0
-4.9889016,-1.1778901,-1.2078495,-0.99667829,-0.06856066,0.04395172,0
-0.29210758,-2.8675776,-2.4288516,0.023363978,-0.75772196,-0.65215921,0
1.7509713,-0.39963436,-3.7931685,-0.033931136,-0.14102277,-0.98942459,0
5.021975,1.7808275,2.8983741,0.99667829,0.06856066,-0.04395172,0
1.5021133,-0.1486817,3.6797018,0.048350573,-0.063876927,0.99678576,0
-1.6778164,1.6853881,-3.2262697,-0.071366549,0.47530514,-0.87692165,0
4.9988251,-0.77980661,-1.620939,0.99667829,0.06856066,-0.04395172,0
-4.8735137,-3.3476663,-1.9758883,-0.99667829,-0.06856066,0.04395172,0
-4.7759385,-1.688416,2.8250575,-0.99667829,-0.06856066,0.04395172,0
-5.2134805,3.2143798,0.5509901,-0.99667829,-0.06856066,0.04395172,0
-5.1144333,0.86324263,-0.87051201,-0.99667829,-0.06856066,0.04395172,0
4.9475622,0.099890232,-1.4111602,0.99667829,0.06856066,-0.04395172,0
-5.115665,-0.33796072,-2.7722039,-0.99667829,-0.06856066,0.04395172,0
-2.195272,2.7580452,-2.2890882,-0.080879986,0.77018452,-0.63267207,0
-0.69498467,0.40935683,3.7550287,0.03517592,0.12433028,0.9916172,0
3.8689504,-1.5649908,3.1130242,0.07172513,-0.4833681,0.8724739,0
2.4961612,1.4841206,-3.6314363,-0.065049887,0.34550175,-0.93616068,0
-4.9917431,-0.54304123,-0.28198552,-0.99667829,-0.06856066,0.04395172,0
4.734396,3.2564652,-1.3210858,0.99667829,0.06856066,-0.04395172,0
5.1814799,-1.8277054,0.88643503,0.99667829,0.06856066,-0.04395172,0
3.3943,2.3002679,-3.2912118,-0.07435894,0.54602545,-0.83446205,0
5.0513763,0.23065662,1.146971,0.99667829,0.06856066,-0.04395172,0
-5.1039057,0.2326827,-1.615392,-0.99667829,-0.06856066,0.04395172,0
-4.9997468,-0.23807383,0.012240171,-0.99667829,-0.06856066,0.04395172,0
-4.7612457,-2.0571318,2.5830777,-0.99667829,-0.06856066,0.04395172,0
-3.9306076,3.4884779,0.15946531,-0.068656355,0.99764013,-0.00067043304,0
5.2453923,-2.0644078,1.9665279,0.99667829,0.06856066,-0.04395172,0
4.082159,-3.4684696,-0.43657494,0.065322712,-0.99531388,-0.071296334,0
4.3830528,-3.317323,0.83264732,0.077927172,-0.95966077,0.27014548,0
4.8857231,2.3648574,0.71966308,0.99667829,0.06856066,-0.04395172,0
4.7266588,2.6111336,-2.5032072,0.99667829,0.06856066,-0.04395172,0
1.3665093,3.8433824,0.19484997,-0.065341547,0.99534017,0.07091105,0
-5.2212038,1.1799786,-2.7976241,-0.99667829,-0.06856066,0.04395172,0
-4.8129702,-3.57182,-0.95261818,-0.99667829,-0.06856066,0.04395172,0
5.1153851,-1.4550457,-0.031064034,0.99667829,0.06856066,-0.04395172,0
3.9459739,3.8880219,0.83803558,-0.054079473,0.9607017,0.27226377,0
-2.5941226,3.5115576,0.8184309,-0.059015453,0.97994173,0.19034511,0
-5.0278931,-1.6457849,-2.8219101,-0.99667829,-0.06856066,0.04395172,0
4.7659078,1.5640903,-3.2464662,0.99667829,0.06856066,-0.04395172,0
-5.2659016,3.0789421,-0.84901285,-0.99667829,-0.06856066,0.04395172,0
-4.8615112,-2.6145499,-0.56011873,-0.99667829,-0.06856066,0.04395172,0
3.5144615,-3.4010186,-1.0696383,0.055694442,-0.96757567,-0.24636453,0
4.983923,-0.25090504,-1.1338348,0.99667829,0.06856066,-0.04395172,0
-5.2310982,2.0817344,-1.6153469,-0.99667829,-0.06856066,0.04395172,0
3.6138844,3.2801268,2.0507421,-0.029423386,0.80638415,0.59065968,0
3.3869553,3.4983687,-2.0184293,-0.081335783,0.86517382,-0.49483204,0
4.759387,3.7193344,-0.032351375,0.99667829,0.06856066,-0.04395172,0
5.1226449,-0.45333672,1.6961398,0.99667829,0.06856066,-0.04395172,0
-2.20257,-3.7847972,-0.85403609,0.055094995,-0.96508586,-0.25607371,0
0.79306555,3.6385477,-1.1773679,-0.078652918,0.95032108,-0.30117023,0
5.1269255,-2.5652494,-1.5011826,0.99667829,0.06856066,-0.04395172,0
-3.0308204,-3.9094048,-0.51171732,0.059899576,-0.98279083,-0.17474037,0
4.9516206,0.0070662498,-1.4639205,0.99667829,0.06856066,-0.04395172,0
3.0251179,1.8225226,-3.5280552,-0.069072962,0.42576241,-0.90219468,0
-4.9852929,-0.28806043,-3.5335503,-0.044845343,0.011548251,-0.99892724,0
-4.9524684,1.3251972,3.5229044,-0.99667829,-0.06856066,0.04395172,0
1.1847222,-3.0629053,-2.0994413,0.03338322,-0.83621061,-0.54739141,0
4.2639871,-1.7969222,-3.3014643,0.0017188787,-0.55727863,-0.8303237,0
-4.7451077,-2.2854972,2.5928025,-0.99667829,-0.06856066,0.04395172,0
-2.1945994,-0.82165229,-3.5945895,-0.030899525,-0.18097562,-0.98300201,0
5.0670094,1.1253374,2.8970902,0.99667829,0.06856066,-0.04395172,0
-5.0162749,-1.2631209,-1.9615346,-0.99667829,-0.06856066,0.04395172,0
0.78033078,3.6829102,-1.0226357,-0.077676237,0.96245193,-0.26010114,0
-4.9100714,-1.6910496,-0.22072673,-0.99667829,-0.06856066,0.04395172,0
-3.5296633,0.17797112,-3.5756528,-0.051254869,0.10868058,-0.99275452,0
4.861362,1.0459604,-1.8901162,0.99667829,0.06856066,-0.04395172,0
-0.41492712,3.7299924,-0.042536736,-0.069199055,0.99751592,-0.013171077,0
-4.7464519,-3.0082595,1.4348814,-0.99667829,-0.06856066,0.04395172,0
1.4418809,-2.8043256,2.3290453,0.080857635,-0.76870751,0.63446897,0
1.0453008,-2.5076962,-2.7684889,0.015204072,-0.68684793,-0.72664201,0
1.10078,-2.9034748,2.2492969,0.081129491,-0.78887153,0.60917938,0
-5.2181692,3.0651858,0.21193504,-0.99667829,-0.06856066,0.04395172,0
-3.8341613,2.8076921,-2.0040383,-0.081353486,0.81345469,-0.57591057,0
-4.8389883,-1.486228,1.710699,-0.99667829,-0.06856066,0.04395172,0
4.9156499,2.4763379,1.5722005,0.99667829,0.06856066,-0.04395172,0
-4.7880998,-2.7950754,0.82300019,-0.99667829,-0.06856066,0.04395172,0
-5.2241702,0.98024988,-3.1764574,-0.99667829,-0.06856066,0.04395172,0
4.5033169,-2.3723235,2.4393501,0.079688728,-0.70974582,0.69993615,0
-4.4194212,2.2761698,-2.5425406,-0.078993559,0.68261349,-0.72649759,0
3.3420787,3.8635423,-1.1191311,-0.07756418,0.96363592,-0.25571316,0
3.2247617,2.0394633,3.1378982,0.0051955581,0.48505995,0.87446541,0
-4.7656941,-2.7708056,1.3689464,-0.99667829,-0.06856066,0.04395172,0
-1.8328152,3.5634508,-0.64793825,-0.075744033,0.97866392,-0.19099635,0
1.4843175,2.6235468,-2.856904,-0.078554332,0.66698074,-0.74092221,0
5.1470585,-0.20503998,2.6370769,0.99667829,0.06856066,-0.04395172,0
-4.0619669,3.1052179,1.8016434,-0.042721748,0.89963126,0.43455541,0
-3.8831093,-3.2234378,2.4983969,0.081055224,-0.78277671,0.61700124,0
-1.2740114,-2.8117123,2.6508691,0.079948246,-0.72092015,0.68839115,0
-2.4230881,-3.111865,2.4480743,0.081016421,-0.77980906,0.62075281,0
1.0923193,2.3139112,2.9602942,-0.0056517124,0.59661704,0.80250621,0
-4.1510239,-3.0617158,-2.3391874,0.021124005,-0.73885894,-0.67352891,0
-2.026931,3.6168139,-0.061998367,-0.070215046,0.99683523,-0.037272215,0
-4.9373035,-0.82600784,0.51111794,-0.99667829,-0.06856066,0.04395172,0
3.294198,-1.3474536,3.2681425,0.068556547,-0.4150331,0.90721965,0
-2.5419309,-3.1028721,-2.2328515,0.025962025,-0.77901804,-0.62646377,0
5.0214992,-0.38518572,-0.4911983,0.99667829,0.06856066,-0.04395172,0
4.9663758,2.5256014,2.7993479,0.99667829,0.06856066,-0.04395172,0
-5.0270309,-1.3472342,-2.3366475,-0.99667829,-0.06856066,0.04395172,0
4.9979086,0.78084683,0.7927537,0.99667829,0.06856066,-0.04395172,0
1.1150093,-2.7611442,-2.502059,0.023057967,-0.75517243,-0.65512061,0
-2.1325035,-0.83194089,3.7868347,0.055624247,-0.17890644,0.98229229,0
-1.159355,2.5767107,2.6987722,-0.017477751,0.70718759,0.70680994,0
-5.1993599,3.2991483,1.0034137,-0.99667829,-0.06856066,0.04395172,0
-5.2328348,1.9936881,-1.792068,-0.99667829,-0.06856066,0.04395172,0
-1.27262,-3.2452271,2.1019487,0.081438065,-0.83644712,0.54196304,0
3.820612,3.3121183,2.0171595,-0.030033052,0.81108111,0.58416218,0
4.8927665,-0.16465521,-3.066412,0.99667829,0.06856066,-0.04395172,0
-5.1634526,0.15968442,-3.0795889,-0.99667829,-0.06856066,0.04395172,0
0.4925065,-1.4886622,-3.4490366,-0.012292504,-0.40685657,-0.91340923,0
-0.030712962,3.7566094,-0.042342186,-0.069002271,0.99757934,-0.0086094141,0
-3.4874802,2.9894023,2.0650699,-0.036518022,0.85863531,0.51128441,0
-0.66435027,-3.8034811,0.13065648,0.069658726,-0.9972831,0.023957491,0
2.3104963,-2.6706488,2.3775747,0.080525041,-0.74901694,0.65763915,0
5.111587,-1.5896339,-0.32713461,0.99667829,0.06856066,-0.04395172,0
3.4468453,-2.6100869,-2.5940716,0.023354679,-0.75764483,-0.6522491,0
4.8445635,2.1581364,-0.53615737,0.99667829,0.06856066,-0.04395172,0
-0.6514768,-3.7929094,-0.24385786,0.065113991,-0.99501288,-0.075561166,0
0.37909842,3.0023637,-2.3183208,-0.081120431,0.78809607,-0.61018354,0
-4.9887795,0.64694166,1.6414847,-0.99667829,-0.06856066,0.04395172,0
-5.0372224,1.0394301,1.1552031,-0.99667829,-0.06856066,0.04395172,0
-5.1818938,1.4153376,-1.5390747,-0.99667829,-0.06856066,0.04395172,0
0.67510998,-3.663492,0.58510876,0.074785531,-0.98417085,0.16067004,0
-2.4547296,-3.2504568,2.266948,0.081370115,-0.81616223,0.5720647,0
3.1165133,-2.2937775,-2.9256356,0.013133466,-0.66793919,-0.74410003,0
-5.1573071,-0.070876837,-3.2998941,-0.99667829,-0.06856066,0.04395172,0
4.7549877,3.9614878,0.24562836,0.99667829,0.06856066,-0.04395172,0
0.28933573,-0.73680925,-3.6872525,-0.02913487,-0.20379412,-0.97858012,0
0.89361525,3.6874802,-1.0394797,-0.077755868,0.96158707,-0.26325727,0
4.5541635,-1.4346189,-3.5186663,-0.0069071054,-0.46658084,-0.88445163,0
4.9538279,-0.17477608,-1.6975291,0.99667829,0.06856066,-0.04395172,0
4.947021,1.6670966,1.0212551,0.99667829,0.06856066,-0.04395172,0
4.7937102,3.2246387,-0.025695384,0.99667829,0.06856066,-0.04395172,0
2.1064425,-3.2192464,-1.7571688,0.041860491,-0.89422625,-0.4456535,0
-0.012916028,-3.273186,-1.8365996,0.038167194,-0.86998719,-0.49159479,0
4.3819036,-1.7352737,2.9677699,0.074038386,-0.53802735,0.83966953,0
5.0625086,0.4042809,1.670244,0.99667829,0.06856066,-0.04395172,0
-5.0098853,-1.8123763,-2.6734302,-0.99667829,-0.06856066,0.04395172,0
2.079648,3.2889273,-2.1556563,-0.081434488,0.83329684,-0.54679489,0
-1.9214485,-3.1148822,-2.1905425,0.027772486,-0.79347819,-0.60796475,0
4.8025274,1.1942596,-2.992955,0.99667829,0.06856066,-0.04395172,0
2.6094208,0.66551554,3.6055799,0.034606695,0.13198471,0.99064738,0
-4.9905849,-1.0116816,-0.98675489,-0.99667829,-0.06856066,0.04395172,0
-2.7363243,-1.090137,3.767364,0.059033632,-0.23644778,0.96984917,0
-4.9123144,-2.8951483,-2.1498661,-0.99667829,-0.06856066,0.04395172,0
4.9040718,0.7693572,-1.3530786,0.99667829,0.06856066,-0.04395172,0
-5.0801978,2.4982271,2.4562552,-0.99667829,-0.06856066,0.04395172,0
2.5796428,3.924747,-0.41930842,-0.071852922,0.99433625,-0.078311682,0
-4.9189281,0.66542721,3.2543163,-0.99667829,-0.06856066,0.04395172,0
-5.2377248,1.7548335,-2.2755628,-0.99667829,-0.06856066,0.04395172,0
-4.8256721,-2.4421678,0.52149498,-0.99667829,-0.06856066,0.04395172,0
-5.053925,-0.30482006,-1.3204556,-0.99667829,-0.06856066,0.04395172,0
-4.9969993,1.6882634,3.0794547,-0.99667829,-0.06856066,0.04395172,0
-0.91124892,-3.7805192,0.6044836,0.074338704,-0.98630905,0.14720154,0
-5.0639162,1.4811578,1.2389367,-0.99667829,-0.06856066,0.04395172,0
-4.3353548,3.1143799,1.7544894,-0.04392302,0.90700674,0.41881907,0
-3.2296424,-1.0678577,3.8023663,0.058164001,-0.22151703,0.97342032,0
4.9122829,2.0542819,0.83748651,0.99667829,0.06856066,-0.04395172,0
1.3975121,-3.4331226,1.2408221,0.079525054,-0.93566465,0.34381318,0
5.1110988,-2.3142815,-1.4685826,0.99667829,0.06856066,-0.04395172,0
-2.0918283,-1.1158214,3.7211566,0.060101867,-0.25504598,0.96505922,0
-2.7035694,2.953995,2.173171,-0.033223599,0.83504021,0.54918486,0
-5.1417208,2.7076941,1.387866,-0.99667829,-0.06856066,0.04395172,0
3.1003766,1.8817208,3.2218328,0.0088304281,0.44552696,0.89522487,0
4.8173685,2.6255338,-0.42376181,0.99667829,0.06856066,-0.04395172,0
2.6240213,-0.48751593,-3.8075721,-0.030953884,-0.1802679,-0.98313034,0
-5.2082343,1.4831851,-2.0305505,-0.99667829,-0.06856066,0.04395172,0
-4.2392311,-3.4323437,2.2587013,0.081432045,-0.83192647,0.54887807,0
1.6740074,0.85494864,3.6041551,0.029483795,0.19930688,0.9794935,0
2.6328332,3.9202542,-0.51136303,-0.072752357,0.99210048,-0.10219431,0
-2.8124974,-0.35208941,3.8747883,0.046705127,-0.039085835,0.99814367,0
-1.9233823,-1.5966771,3.5463054,0.067119479,-0.3858813,0.92010343,0
-1.5602776,-3.3706427,-1.7841754,0.037818745,-0.86761516,-0.49579597,0
-4.8383489,-0.35669374,3.48717,-0.99667829,-0.06856066,0.04395172,0
4.7135525,-2.1196275,2.651509,0.077934265,-0.64633727,0.75906146,0
4.9957013,1.0865161,1.2195076,0.99667829,0.06856066,-0.04395172,0
5.1291223,-2.5440078,-1.4182267,0.99667829,0.06856066,-0.04395172,0
0.13125515,1.7873435,-3.3181372,-0.07109797,0.46932644,-0.88015771,0
4.1652665,-3.4139905,0.48629141,0.07525748,-0.98162723,0.17534047,0
5.035779,0.38143682,1.0284801,0.99667829,0.06856066,-0.04395172,0
4.958365,-0.6125679,-2.2775662,0.99667829,0.06856066,-0.04395172,0
4.8785276,2.2504647,0.37805292,0.99667829,0.06856066,-0.04395172,0
5.2839642,-2.951474,1.4574561,0.99667829,0.06856066,-0.04395172,0
-5.0393515,1.7262969,2.1783845,-0.99667829,-0.06856066,0.04395172,0
-0.75989079,1.6241875,-3.3311677,-0.069853306,0.44225079,-0.89416701,0
5.2285638,-1.787842,2.0163126,0.99667829,0.06856066,-0.04395172,0
-4.8750281,-2.0924559,-0.052219808,-0.99667829,-0.06856066,0.04395172,0
-1.362657,-2.5486996,-2.7749693,0.011616707,-0.65385783,-0.7565282,0
2.8325562,-3.4170504,-1.153336,0.053802833,-0.95947224,-0.27661949,0
4.7727141,2.5987983,-1.4780698,0.99667829,0.06856066,-0.04395172,0
5.2149372,-2.3751121,0.79123783,0.99667829,0.06856066,-0.04395172,0
-2.1198661,-3.2489192,-2.0154777,0.031909019,-0.82529712,-0.56379646,0
-3.2272799,3.1498425,1.7910602,-0.042182267,0.8962568,0.4415251,0
-4.3883843,3.0326447,1.9159803,-0.040640965,0.88640916,0.461115,0
2.0853968,-3.6137645,-0.19164085,0.067299962,-0.99729514,-0.029548883,0
-3.4425852,-0.74545485,-3.5657547,-0.034158349,-0.13798761,-0.98984468,0
1.9567777,-2.209744,-3.0133286,0.0085266829,-0.62457323,-0.78091961,0
4.8490896,3.3003464,1.3482213,0.99667829,0.06856066,-0.04395172,0
-1.6112838,-1.2199345,3.660912,0.062145114,-0.29148391,0.95455486,0
4.8944969,-0.20367908,-3.0880437,0.99667829,0.06856066,-0.04395172,0
1.0438769,2.5321698,2.7843516,-0.011769712,0.65528697,0.7552883,0
-5.0607996,1.923739,1.9999912,-0.99667829,-0.06856066,0.04395172,0
-3.6218202,-1.2108684,-3.466068,-0.024830043,-0.25816837,-0.96578074,0
-5.105094,0.67132568,-0.9580977,-0.99667829,-0.06856066,0.04395172,0
0.40645027,0.56696534,-3.734386,-0.053235888,0.14007285,-0.98870897,0
-1.6907334,-0.46314692,3.8132186,0.049993515,-0.089052439,0.99477148,0
-5.1713939,2.1455288,-0.16194248,-0.99667829,-0.06856066,0.04395172,0
5.0217676,-1.5856061,-2.3576522,0.99667829,0.06856066,-0.04395172,0
-0.25437856,-1.8032607,3.3195846,0.071187139,-0.47130638,0.87909186,0
0.61575961,-3.6829157,-0.51658869,0.062164977,-0.9891299,-0.13325727,0
4.8473501,1.5577469,-1.4095184,0.99667829,0.06856066,-0.04395172,0
-5.0663948,-0.77371287,-2.334662,-0.99667829,-0.06856066,0.04395172,0
2.8104632,0.6663394,-3.8491533,-0.052135468,0.12254959,-0.99109197,0
-4.716774,-2.3372669,3.1545711,-0.99667829,-0.06856066,0.04395172,0
0.26178211,3.1621695,2.0360193,-0.033374578,0.83614731,0.54748869,0
-5.0968275,2.8170528,2.2359848,-0.034227222,0.84235454,0.53783572,0
4.8418617,2.2206242,-0.49995118,0.99667829,0.06856066,-0.04395172,0
-4.8719406,-1.7635493,0.53085887,-0.99667829,-0.06856066,0.04395172,0
0.67025995,-3.0085917,2.167017,0.081322432,-0.80899215,0.58216691,0
4.8904614,3.1307302,2.0218065,0.99667829,0.06856066,-0.04395172,0
-3.4992199,0.90013695,3.7274294,0.020950913,0.3056666,0.95190811,0
3.6555433,-2.5475392,-2.6581693,0.021835297,-0.74489832,-0.66682059,0
-2.4060543,-2.2216191,-3.0299659,0.00083249807,-0.5482384,-0.83632165,0
1.6151097,1.2289088,-3.6584096,-0.062272668,0.29379806,-0.95383692,0
-2.4455643,-3.1661019,-2.1474993,0.028281689,-0.79748744,-0.60267234,0
-2.8542497,2.8647485,2.2950482,-0.030440122,0.81419665,0.57979065,0
0.50533295,0.81974518,3.6462083,0.028549612,0.21129289,0.97700566,0
-4.8083968,-1.3156626,-3.4074695,-0.02433455,-0.26431319,-0.96412981,0
-5.2564154,2.7656846,-1.1225562,-0.99667829,-0.06856066,0.04395172,0
-5.0824113,1.8221221,1.3513987,-0.99667829,-0.06856066,0.04395172,0
-4.1599598,-2.9970815,-2.4085758,0.019119889,-0.72159708,-0.69204926,0
5.1948605,-1.0877111,2.3441737,0.99667829,0.06856066,-0.04395172,0
-0.17193437,0.098817706,-3.7447526,-0.045849204,0.026351422,-0.99860072,0
-4.743619,-2.7143607,1.9575868,-0.99667829,-0.06856066,0.04395172,0
-2.5154707,3.5776041,-0.14850903,-0.071375221,0.99526125,-0.066035628,0
4.7682405,3.2104769,-0.62535226,0.99667829,0.06856066,-0.04395172,0
1.364464,-0.17483997,3.684665,0.048641682,-0.06830737,0.99647784,0
4.6760449,1.6440535,-3.723866,-0.065188408,0.34815374,-0.93516815,0
-4.4828529,-1.6004481,-3.3233106,-0.017586291,-0.34576356,-0.93815684,0
2.4017155,-0.4381611,3.6008627,0.05429554,-0.15716457,0.98607874,0
-4.9550123,-2.3498716,-2.2675419,-0.99667829,-0.06856066,0.04395172,0
-3.1250548,2.2259033,2.984987,-0.011218488,0.65012771,0.75974208,0
4.8713317,3.2633545,1.7948885,0.99667829,0.06856066,-0.04395172,0
-4.7859941,-1.9191089,2.2371736,-0.99667829,-0.06856066,0.04395172,0
4.3334556,-1.3974078,3.1640944,0.070089459,-0.44731265,0.89162713,0
-5.2404261,1.6773877,-2.4576182,-0.99667829,-0.06856066,0.04395172,0
-0.5363512,-1.4147401,3.5201671,0.065951943,-0.36288849,0.92949563,0
0.68177509,-3.2733288,1.7396433,0.081174493,-0.87981009,0.4683426,0
4.3055353,0.64015484,-3.9287817,-0.049944401,0.088292688,-0.99484164,0
-1.3003857,-3.8482981,0.057579756,0.068496823,-0.99764693,-0.0029580593,0
-5.1409626,2.1824584,0.58574915,-0.99667829,-0.06856066,0.04395172,0
0.61370957,-3.1830363,-1.9451263,0.036364973,-0.85756588,-0.51308709,0
4.9576111,0.91709995,0.09148252,0.99667829,0.06856066,-0.04395172,0
4.8263674,1.8611708,-1.4120301,0.99667829,0.06856066,-0.04395172,0
5.0063963,1.7352483,2.4739957,0.99667829,0.06856066,-0.04395172,0
5.0550318,-1.5662923,-1.5732124,0.99667829,0.06856066,-0.04395172,0
-5.1651635,0.44587708,-2.6719475,-0.99667829,-0.06856066,0.04395172,0
4.8479676,2.0431471,-0.6383335,0.99667829,0.06856066,-0.04395172,0
-5.0655985,1.7560835,1.6296473,-0.99667829,-0.06856066,0.04395172,0
4.9669948,-0.11507225,-1.3058219,0.99667829,0.06856066,-0.04395172,0
4.8238058,1.549509,-1.9562734,0.99667829,0.06856066,-0.04395172,0
5.1414595,-0.74943614,1.6609092,0.99667829,0.06856066,-0.04395172,0
-4.9104238,0.86465502,3.7579408,-0.99667829,-0.06856066,0.04395172,0
-4.7935305,-1.0820789,3.3719628,-0.99667829,-0.06856066,0.04395172,0
-5.06319,2.2965975,2.5274057,-0.99667829,-0.06856066,0.04395172,0
-5.2151427,1.2160041,-2.6039865,-0.99667829,-0.06856066,0.04395172,0
5.1862574,-2.3503094,0.17955256,0.99667829,0.06856066,-0.04395172,0
-3.9486301,2.3634596,-2.5106521,-0.079379022,0.69722825,-0.71244073,0
-0.9306221,-1.3712482,3.564306,0.064977646,-0.3441253,0.93667263,0
-4.9769716,-2.1596467,-2.4687612,-0.99667829,-0.06856066,0.04395172,0
-4.7718115,3.2191274,-1.0415974,-0.07926631,0.94051439,-0.330378,0
0.67176151,-2.3748074,2.8490453,0.077743292,-0.64025664,0.76421678,0
4.950789,1.070199,0.17559862,0.99667829,0.06856066,-0.04395172,0
-4.8172321,-2.8136129,0.13346101,-0.99667829,-0.06856066,0.04395172,0
4.9735851,-1.5552936,-3.4029853,0.99667829,0.06856066,-0.04395172,0
-4.7037082,-4.0797033,0.36161947,0.070245981,-0.99680483,0.03802073,0
2.8129604,3.0353105,-2.5895171,-0.080584228,0.75227261,-0.65390533,0
-4.5987463,1.2578068,3.6066599,0.011078,0.42053559,0.90720844,0
5.0854554,-1.6542425,-1.0204897,0.99667829,0.06856066,-0.04395172,0
2.2073178,3.2479658,2.0217872,-0.031663269,0.82345557,0.56649655,0
-4.8816371,-2.919554,-1.49228,-0.99667829,-0.06856066,0.04395172,0
-3.5311415,-2.1258466,-3.0873075,-0.0035723448,-0.50236362,-0.864649,0
-5.1584311,1.9110072,-0.23382235,-0.99667829,-0.06856066,0.04395172,0
5.0995073,0.93894339,3.3432841,0.99667829,0.06856066,-0.04395172,0
0.69702816,-3.470434,1.3009298,0.079668224,-0.93275487,0.35159808,0
0.51495218,1.493386,3.4326551,0.013796866,0.38973916,0.92082191,0
-5.0597963,-0.43339753,-1.6541693,-0.99667829,-0.06856066,0.04395172,0
-4.9057064,-1.1918483,0.65696251,-0.99667829,-0.06856066,0.04395172,0
-4.9552732,-0.71990252,0.26914525,-0.99667829,-0.06856066,0.04395172,0
4.9518671,0.14656734,-1.2407324,0.99667829,0.06856066,-0.04395172,0
-5.0944166,1.6755142,0.85045576,-0.99667829,-0.06856066,0.04395172,0
4.7474985,1.5975399,-3.6117449,0.99667829,0.06856066,-0.04395172,0
