3.5119767,4.6787453,-1.0301499,-0.01463437,0.86075234,-0.5088135,0
-3.3642616,-4.0469427,2.0947137,0.01463437,-0.86075234,0.5088135,0
1.9539466,3.2543683,-3.3949363,-0.01463437,0.86075234,-0.5088135,0
-2.1720116,2.2237215,-5.0197964,-0.01463437,0.86075234,-0.5088135,0
1.1116734,5.4805841,0.39534521,-0.01463437,0.86075234,-0.5088135,0
-3.4057219,-2.3283634,-1.0198593,-0.856682,-0.273213,-0.43755072,0
-0.28826857,-5.8960972,-1.1219444,0.01463437,-0.86075234,0.5088135,0
-2.3158057,2.7460153,2.1806707,-0.57423925,0.40934697,0.70900249,0
-2.8832097,3.4877281,-2.8610411,-0.01463437,0.86075234,-0.5088135,0
0.0025725588,-3.9683385,2.130851,0.01463437,-0.86075234,0.5088135,0
2.9027045,-3.2508626,3.2611816,0.01463437,-0.86075234,0.5088135,0
3.7393608,4.1330342,-0.98651361,0.94949192,0.17148463,0.26278898,0
2.2344751,2.5690022,-4.562429,-0.01463437,0.86075234,-0.5088135,0
3.9598851,1.155103,-0.16676009,0.99370724,0.069034912,0.088204578,0
-0.67175299,-2.7409191,4.2266521,0.01463437,-0.86075234,0.5088135,0
1.8852911,3.8473454,-2.3898296,-0.01463437,0.86075234,-0.5088135,0
-2.3417881,4.8405824,-0.58800888,-0.01463437,0.86075234,-0.5088135,0
2.2160475,0.099009991,3.8308911,0.54707366,0.43283874,0.71649224,0
3.377553,4.670516,-1.0402055,-0.01463437,0.86075234,-0.5088135,0
3.1403208,-3.0474534,3.5984519,0.01463437,-0.86075234,0.5088135,0
1.1509095,-0.6597929,4.8553619,0.27654952,0.49250194,0.82520437,0
2.8510566,4.0161815,-2.1319904,-0.01463437,0.86075234,-0.5088135,0
2.82815,3.2562346,-3.4169226,-0.01463437,0.86075234,-0.5088135,0
2.5842669,-3.7304723,-1.3774323,0.63674474,-0.38432404,-0.66846925,0
3.5843766,3.9894137,-2.1983657,-0.01463437,0.86075234,-0.5088135,0
3.9109001,-1.9535635,2.3365719,0.96701396,0.14160396,0.21173635,0
0.53657556,-1.8323088,5.6974001,0.11773901,0.50681126,0.85397893,0
0.35573322,5.6117334,1.3040757,0.10415881,0.50741184,0.8553853,0
-2.7679503,-2.953454,3.9274001,0.01463437,-0.86075234,0.5088135,0
-3.7774787,-0.70007014,1.8654867,-0.94984472,0.14700948,0.27601299,0
1.0079309,-4.3714252,1.4200389,0.01463437,-0.86075234,0.5088135,0
0.45341617,-2.720295,4.2291799,0.01463437,-0.86075234,0.5088135,0
-1.338385,3.3572683,-3.1261697,-0.01463437,0.86075234,-0.5088135,0
0.11182855,3.9983187,-2.0834241,-0.01463437,0.86075234,-0.5088135,0
0.45859504,5.5946741,0.60713339,-0.01463437,0.86075234,-0.5088135,0
-0.63647079,-4.2219362,1.7202213,0.01463437,-0.86075234,0.5088135,0
-3.9324076,-0.94423318,-0.22906351,-0.98543853,-0.098627985,-0.13850456,0
-0.29554859,-4.8353615,0.67269325,0.01463437,-0.86075234,0.5088135,0
1.4519513,2.4288292,-4.77705,-0.01463437,0.86075234,-0.5088135,0
-2.3826349,-3.1149459,3.6431246,0.01463437,-0.86075234,0.5088135,0
2.9758019,-3.5497618,2.753437,0.01463437,-0.86075234,0.5088135,0
2.7436018,5.3280268,0.15822935,0.70223773,0.3710947,0.60757792,0
-3.0579712,-0.4157455,3.2010477,-0.77159721,0.31392419,0.55325347,0
3.3155537,1.9773703,-3.6765392,0.84178197,-0.26401854,-0.47084746,0
0.87081599,-2.2427998,-3.2105191,0.216571,-0.49405971,-0.84202254,0
-2.8544133,-0.64584565,3.5954905,-0.72217751,0.34284794,0.60076195,0
-3.8672063,-1.8898635,2.1166577,-0.97648621,0.097157337,0.19244513,0
-2.339056,5.0129147,0.8529706,-0.57044023,0.41074449,0.71125734,0
-1.5524709,-4.6874347,0.95909238,0.01463437,-0.86075234,0.5088135,0
-1.2700748,-1.0694978,-3.7796619,-0.31378272,-0.48711529,-0.81502086,0
3.4595532,1.6804366,1.3169353,0.86754346,0.2639392,0.42154998,0
1.8995929,-4.9401989,0.43220663,0.01463437,-0.86075234,0.5088135,0
-2.2517524,-4.4374948,-1.1796284,-0.57459593,-0.42369401,-0.70023054,0
3.2769768,2.9678559,-3.9176784,-0.01463437,0.86075234,-0.5088135,0
3.0512996,-0.11696315,3.1075056,0.75650841,0.3422752,0.55726349,0
-0.82192326,-0.45075178,4.803544,-0.21579827,0.49415654,0.8421641,0
-2.0332112,-1.0299315,4.5777464,-0.51995897,0.4281022,0.73916906,0
-0.037982255,-5.2871332,-1.5199718,-0.023313969,-0.50902337,-0.86043686,0
0.98079765,-4.5176449,1.1734619,0.01463437,-0.86075234,0.5088135,0
3.9700255,-0.016684234,-0.52604336,0.99322051,-0.046175376,-0.10668097,0
3.7498639,-3.8965573,0.5277791,0.92401195,-0.18280903,-0.33583158,0
3.4733067,3.1781859,-3.5675116,-0.01463437,0.86075234,-0.5088135,0
-1.738588,5.5268703,0.55562544,-0.01463437,0.86075234,-0.5088135,0
1.9798143,-1.4308801,4.9189982,0.48118463,0.45213166,0.75102484,0
3.955816,2.2896953,-1.062541,0.99793077,0.044437237,0.046471581,0
1.0779636,-5.6810012,-1.136404,0.25365832,-0.48902538,-0.83457279,0
-0.1712327,4.4929886,-1.238456,-0.01463437,0.86075234,-0.5088135,0
3.105669,3.2399273,-3.4524913,-0.01463437,0.86075234,-0.5088135,0
-3.0579922,-1.230381,-2.2703962,-0.76398259,-0.33791667,-0.54967523,0
-0.41469449,-2.7467246,4.2094359,0.01463437,-0.86075234,0.5088135,0
3.3095574,0.59823072,2.2726285,0.82486558,0.29800498,0.48040611,0
-2.4001079,-0.88424444,-3.2057562,-0.59671545,-0.41583663,-0.68630213,0
-2.3443966,-2.2479067,-2.42764,-0.58853346,-0.41879773,-0.69154674,0
3.2230213,-4.9683905,0.087239742,0.78977418,-0.30213246,-0.53382838,0
0.94629133,5.4391794,1.2822552,0.25126395,0.49570498,0.83135015,0
3.7382259,-2.5685196,-0.22685814,0.92668998,-0.17944594,-0.3302193,0
-2.5863998,4.578021,0.88807201,-0.63369775,0.38563806,0.67060459,0
-0.62811923,-4.771306,0.79062366,0.01463437,-0.86075234,0.5088135,0
-0.50733674,-3.2701612,3.3266129,0.01463437,-0.86075234,0.5088135,0
0.079871297,4.6486468,1.8964176,0.031072535,0.50901371,0.86019737,0
3.6130567,2.3973155,-3.272609,0.91671222,-0.19165261,-0.35058218,0
-3.8485658,0.28392217,1.0818005,-0.96305513,0.12471874,0.23868404,0
-3.3490262,-4.2290735,1.7861652,0.01463437,-0.86075234,0.5088135,0
-0.37841818,-4.8101397,-1.776804,-0.1064245,-0.50731826,-0.85516196,0
-1.4492725,0.12665653,-4.4211974,-0.35361141,-0.48043922,-0.80258149,0
-1.3589654,-2.7337885,4.2584825,0.01463437,-0.86075234,0.5088135,0
-2.0502665,1.1556215,-4.7068992,-0.50005549,-0.4469609,-0.7417348,0
3.7022555,4.0945506,-2.0238967,-0.01463437,0.86075234,-0.5088135,0
2.5971284,3.7433858,-2.5861714,-0.01463437,0.86075234,-0.5088135,0
-3.2166984,-2.055831,-1.5241873,-0.80763912,-0.3101832,-0.50150329,0
-2.4799666,-3.8149953,2.4616606,0.01463437,-0.86075234,0.5088135,0
-2.6676793,-4.784164,0.82753229,0.01463437,-0.86075234,0.5088135,0
3.9397402,-0.30112004,-0.62271422,0.98493505,-0.075280011,-0.15567856,0
2.177146,-1.2351351,4.6656189,0.53159511,0.43769005,0.72514421,0
2.3847299,1.1691976,-4.3804069,0.60789102,-0.39636725,-0.68801266,0
2.6894591,2.3181982,-4.7405853,0.68834585,-0.36041576,-0.62950814,0
-1.1929193,-0.21528816,4.5489588,-0.30731198,0.48036596,0.82146692,0
-2.9517164,3.7868524,0.94862485,-0.7276116,0.33986852,0.59587801,0
-3.4820552,-0.76060385,-1.8464901,-0.86928529,-0.26240793,-0.41890949,0
3.9570928,1.391835,-0.32079601,0.99404162,0.067495279,0.085590392,0
-3.1735239,-4.1370382,1.936813,0.01463437,-0.86075234,0.5088135,0
-0.9699778,4.7168741,-0.83674002,-0.01463437,0.86075234,-0.5088135,0
3.4880567,-4.2844877,1.4957763,0.01463437,-0.86075234,0.5088135,0
0.35030565,5.7346191,0.84699297,-0.01463437,0.86075234,-0.5088135,0
4.0340986,-2.1927249,1.1349454,0.99929076,-0.0050668661,-0.037312903,0
2.6627042,-5.0088758,0.29407883,0.01463437,-0.86075234,0.5088135,0
1.1811084,2.6699224,2.8567367,0.2983039,0.48945305,0.81942075,0
-2.499752,5.4202843,0.48254681,-0.60863322,0.39606839,0.68752843,0
-0.007501781,-5.3309374,-0.17394829,0.01463437,-0.86075234,0.5088135,0
-1.0057441,2.2209854,-5.0579696,-0.01463437,0.86075234,-0.5088135,0
3.7900741,-4.0346975,0.7173326,0.93327445,-0.17087625,-0.31591147,0
0.63106591,-3.9565644,2.1326919,0.01463437,-0.86075234,0.5088135,0
-2.7139945,-1.529319,-2.5090673,-0.67849863,-0.38232976,-0.62726682,0
1.4032252,2.1708319,3.0661602,0.35185966,0.48075324,0.80316317,0
1.3724306,4.6337585,1.6053829,0.35463804,0.48025426,0.80223912,0
-0.028366685,2.0970759,-5.2956967,-0.01463437,0.86075234,-0.5088135,0
2.8034821,4.7273817,0.454844,0.7147609,0.36485213,0.59665728,0
-0.87965053,-4.9814634,0.44233751,0.01463437,-0.86075234,0.5088135,0
-3.1733356,-1.8850741,3.8623278,-0.80629021,0.29078713,0.51511067,0
2.8350947,-4.8588738,0.54287457,0.01463437,-0.86075234,0.5088135,0
2.5078828,-3.5485511,2.7689424,0.01463437,-0.86075234,0.5088135,0
-0.23861,-3.5962729,2.7672057,0.01463437,-0.86075234,0.5088135,0
1.6448054,-2.7305365,4.1775889,0.01463437,-0.86075234,0.5088135,0
2.8143561,-5.0942345,0.14531898,0.01463437,-0.86075234,0.5088135,0
-0.042962655,2.1813745,-5.1526699,-0.01463437,0.86075234,-0.5088135,0
3.1013725,-3.6789255,2.5313187,0.01463437,-0.86075234,0.5088135,0
2.2605882,-2.2746277,4.9311333,0.01463437,-0.86075234,0.5088135,0
-1.2226551,3.5990121,2.3071556,-0.29855937,0.48189235,0.82379735,0
-0.68603802,-1.501753,-3.6917593,-0.16932964,-0.5036515,-0.84714961,0
3.7788684,-4.3481731,1.3796779,0.01463437,-0.86075234,0.5088135,0
2.1843715,4.3468633,-1.5534062,-0.01463437,0.86075234,-0.5088135,0
-0.68179631,-1.2399558,-3.8482411,-0.16715372,-0.50381315,-0.84748566,0
3.5843635,-0.6400969,2.5032129,0.8892234,0.24390282,0.38703126,0
3.1979601,-3.1891971,3.3570094,0.01463437,-0.86075234,0.5088135,0
2.301065,-4.8750958,0.53079391,0.01463437,-0.86075234,0.5088135,0
0.9754073,-2.4165287,-3.0800705,0.2419233,-0.49070093,-0.83706981,0
-3.3720133,-2.6466537,3.9465988,-0.85850424,0.25005597,0.4477081,0
-3.6437292,-1.6081885,-0.93284154,-0.91406506,-0.21778458,-0.34213284,0
1.1070083,4.2575274,1.9350381,0.28649822,0.49114162,0.82261693,0
-2.2782838,-2.4096336,-2.3848546,-0.57259774,-0.42438108,-0.70145035,0
-1.7646966,1.2459292,3.427932,-0.44353732,0.45047575,0.77482027,0
1.6449625,-4.3022094,1.5188086,0.01463437,-0.86075234,0.5088135,0
-2.0199447,0.27440715,3.8313632,-0.51114607,0.43091229,0.74366951,0
-2.9641087,-3.2001443,3.5157206,0.01463437,-0.86075234,0.5088135,0
-4.0275059,2.2299752,-1.7023845,-0.99646932,-0.05462867,-0.06375432,0
2.9218266,0.16089797,-3.2361696,0.73683119,-0.33470654,-0.58741069,0
-3.8962598,0.7887876,-1.6241966,-0.96834886,-0.13900939,-0.20730874,0
-0.57230473,-3.4427929,3.0364432,0.01463437,-0.86075234,0.5088135,0
-2.6295879,-3.6053796,2.8205695,0.01463437,-0.86075234,0.5088135,0
-1.6333791,-5.5171824,-0.44225502,0.01463437,-0.86075234,0.5088135,0
1.1264749,0.59854698,-4.7973347,0.29237378,-0.48294398,-0.82539845,0
0.18640661,-2.1065869,5.2750635,0.01463437,-0.86075234,0.5088135,0
-3.218374,3.4295189,0.79031038,-0.79509228,0.29854813,0.52791774,0
-3.9660511,-1.6161256,0.6394884,-0.99758029,-0.047158387,-0.051084995,0
2.0860035,1.5986652,-4.8690982,0.53548765,-0.42299569,-0.73097724,0
-2.1431413,-2.9598074,3.8986802,0.01463437,-0.86075234,0.5088135,0
-2.0329304,4.3590961,-1.411415,-0.01463437,0.86075234,-0.5088135,0
-3.0801842,-4.0266862,2.1208103,0.01463437,-0.86075234,0.5088135,0
-0.11435008,0.81400394,-5.1271486,-0.016473584,-0.5090065,-0.86060518,0
0.90364283,3.935605,2.190927,0.2341776,0.49766573,0.83515853,0
0.39412302,4.4982243,-1.2458596,-0.01463437,0.86075234,-0.5088135,0
-1.2106249,-4.6358337,1.0365517,0.01463437,-0.86075234,0.5088135,0
2.8008339,5.0645323,0.25184584,0.71553862,0.36445683,0.59596616,0
-3.4235842,-1.9397799,-1.2273829,-0.85953659,-0.27082008,-0.43342066,0
-1.8339244,-5.2942348,-0.059327126,0.01463437,-0.86075234,0.5088135,0
-2.5034039,0.42650557,-3.9082217,-0.61709851,-0.40816969,-0.67274588,0
0.74539155,-5.7231412,-0.85908937,0.01463437,-0.86075234,0.5088135,0
1.9129682,-2.6867185,-2.502286,0.47433689,-0.44198838,-0.76134813,0
0.73291379,3.6659541,-2.6635451,-0.01463437,0.86075234,-0.5088135,0
-3.9467554,-3.0050609,1.9078598,-0.99949247,0.0018070284,0.031804077,0
-2.0333953,3.0084367,-3.6962917,-0.01463437,0.86075234,-0.5088135,0
-2.6765597,5.0145102,-0.28414917,-0.01463437,0.86075234,-0.5088135,0
0.45218509,-3.4720979,2.9574018,0.01463437,-0.86075234,0.5088135,0
3.1501257,-2.5946832,4.3641138,0.01463437,-0.86075234,0.5088135,0
-0.33307448,3.2568364,-3.3249836,-0.01463437,0.86075234,-0.5088135,0
-1.6724089,2.3170214,-4.8763318,-0.01463437,0.86075234,-0.5088135,0
0.51994586,-4.4956627,1.2239032,0.01463437,-0.86075234,0.5088135,0
-2.2545891,-2.4250464,4.8065348,0.01463437,-0.86075234,0.5088135,0
-3.2889111,-4.6183701,0.18765306,-0.83694488,-0.28897208,-0.46477783,0
-0.10598135,2.3614817,-4.8461723,-0.01463437,0.86075234,-0.5088135,0
1.1816839,-4.6804323,0.89229846,0.01463437,-0.86075234,0.5088135,0
0.45626763,-0.68314171,-4.2093458,0.11972704,-0.50369835,-0.85554278,0
1.3663182,-1.8958026,-3.2463996,0.34157956,-0.47395065,-0.81159991,0
-1.2344249,-5.3171597,-0.1153512,0.01463437,-0.86075234,0.5088135,0
-1.3427899,5.6453362,0.74464989,-0.01463437,0.86075234,-0.5088135,0
-3.7918241,-0.82672143,-0.9814136,-0.94852954,-0.17294855,-0.26529318,0
1.6272473,-3.6168721,-2.1220126,0.3992849,-0.46150371,-0.79220331,0
1.1919895,5.3667402,0.20044708,-0.01463437,0.86075234,-0.5088135,0
0.88771689,4.8897018,-0.59780097,-0.01463437,0.86075234,-0.5088135,0
3.9582481,1.182539,-0.16997111,0.99339044,0.070455372,0.090616688,0
3.8971941,-1.3543856,-0.31925809,0.97041899,-0.1104151,-0.21469858,0
-1.390715,2.5261908,-4.5305858,-0.01463437,0.86075234,-0.5088135,0
0.32054225,-2.0248857,-3.434689,0.080135562,-0.50622141,-0.85867226,0
2.7784426,4.1245961,-1.9464997,-0.01463437,0.86075234,-0.5088135,0
-3.3214781,1.0920734,1.9429762,-0.83036953,0.27301836,0.48574406,0
-1.0927948,-4.8384619,0.6903789,0.01463437,-0.86075234,0.5088135,0
-0.92206955,5.8370948,1.0883565,-0.21411219,0.49436665,0.84247112,0
1.7996535,-3.7810535,2.3959918,0.01463437,-0.86075234,0.5088135,0
1.1101813,4.5581245,-1.165122,-0.01463437,0.86075234,-0.5088135,0
-2.4254003,1.348304,2.8941274,-0.60736179,0.39658004,0.68835741,0
-3.9750569,2.3594067,-0.59603381,-0.98501176,0.075055629,0.15530115,0
2.4931648,-4.4352736,-1.055789,0.61115575,-0.39504844,-0.68587554,0
2.2177134,-2.6287506,-2.3254683,0.55036032,-0.41791385,-0.72280818,0
-3.3752158,4.514286,-0.072398663,-0.82927233,0.2738629,0.48714122,0
-2.8378451,-0.10286689,-3.2406995,-0.70360059,-0.3704263,-0.60640794,0
3.7727859,2.1835313,0.16487718,0.94956386,0.17137471,0.26260096,0
-2.3152187,-0.53050327,4.0720654,-0.58793163,0.4041979,0.70068556,0
-2.0189381,5.251442,0.097749233,-0.01463437,0.86075234,-0.5088135,0
3.0802922,3.1096323,1.0824351,0.77768576,0.32964736,0.53529191,0
-0.51776779,-4.591001,1.0924692,0.01463437,-0.86075234,0.5088135,0
2.6324706,2.0765138,-4.6631675,0.67319661,-0.3677741,-0.64152044,0
-0.54306585,2.009779,3.4155335,-0.13576646,0.50244474,0.85388339,0
-0.77633166,-1.2519155,5.2851667,-0.20782238,0.49513686,0.84359306,0
-0.92078787,-2.0770817,5.3568201,0.01463437,-0.86075234,0.5088135,0
-2.1271052,2.694736,-4.2242794,-0.01463437,0.86075234,-0.5088135,0
3.9753077,1.4043326,-0.66730332,0.99927878,0.030422885,0.022724941,0
-3.7020228,-0.21838605,1.8425725,-0.92942524,0.17593993,0.32436693,0
3.8713558,2.9171553,-0.7625978,0.97823787,0.11765679,0.17090243,0
-0.14794004,-0.98981524,5.225934,-0.049822442,0.50760818,0.86014634,0
0.55237663,2.5412769,-4.5609508,-0.01463437,0.86075234,-0.5088135,0
-2.0769539,3.6436281,-2.6204977,-0.01463437,0.86075234,-0.5088135,0
-1.6601839,5.4177752,0.3688159,-0.01463437,0.86075234,-0.5088135,0
3.3592923,-4.091815,-0.19215345,0.82711524,-0.2755129,-0.48987049,0
-2.2324283,2.2133617,-5.0355835,-0.01463437,0.86075234,-0.5088135,0
-3.0392964,-2.829236,4.1453424,0.01463437,-0.86075234,0.5088135,0
-3.3865054,-1.8914695,3.4970171,-0.8589114,0.24970347,0.4471235,0
-0.45245561,-2.2187257,5.1037321,0.01463437,-0.86075234,0.5088135,0
3.0096045,4.943203,0.055045128,0.76770431,0.33570719,0.54583043,0
-1.3516846,-3.8910718,2.3005116,0.01463437,-0.86075234,0.5088135,0
-2.8909976,4.1154847,-1.7988493,-0.01463437,0.86075234,-0.5088135,0
0.65454584,4.4597812,-1.3183839,-0.01463437,0.86075234,-0.5088135,0
0.70663118,-5.7228384,-0.85746241,0.01463437,-0.86075234,0.5088135,0
0.478194,-5.8122377,-1.0021257,0.01463437,-0.86075234,0.5088135,0
-2.3455539,-5.3521667,-0.14261484,0.01463437,-0.86075234,0.5088135,0
-0.85404229,2.2714334,-4.9769888,-0.01463437,0.86075234,-0.5088135,0
3.9651537,-1.5106224,0.12353855,0.98608911,-0.071839452,-0.14989139,0
3.9285233,3.7748542,-2.4827027,0.99842966,-0.014939927,-0.053990245,0
0.8209554,1.6261463,-5.493422,0.22054207,-0.49355698,-0.84128636,0
-3.7381792,0.14358056,1.5400667,-0.93675941,0.1661514,0.30801874,0
2.7529705,-0.60709429,-2.9962335,0.69176102,-0.3587153,-0.62672967,0
-0.69756663,-2.3082047,-3.2099028,-0.1756478,-0.50316799,-0.84614992,0
0.91459382,-2.4045525,4.7500529,0.01463437,-0.86075234,0.5088135,0
1.8429011,-3.1354141,3.4869657,0.01463437,-0.86075234,0.5088135,0
-0.76716435,4.5536604,-1.118679,-0.01463437,0.86075234,-0.5088135,0
2.0675559,-4.3399372,1.4428313,0.01463437,-0.86075234,0.5088135,0
2.7765808,2.7653837,-4.2458043,-0.01463437,0.86075234,-0.5088135,0
-0.48997048,2.266902,-4.9951262,-0.01463437,0.86075234,-0.5088135,0
-0.95399994,-4.7250676,0.87821484,0.01463437,-0.86075234,0.5088135,0
-3.6113048,2.0023599,0.86059475,-0.89792919,0.21256007,0.38541076,0
-2.2862258,3.9137166,1.5298204,-0.561957,0.4138175,0.71621192,0
2.1448662,-3.1901631,3.3856637,0.01463437,-0.86075234,0.5088135,0
3.6394463,4.3593702,-1.5741001,-0.01463437,0.86075234,-0.5088135,0
0.89589149,4.0086145,2.1495876,0.23254706,0.49784437,0.83550757,0
1.5402465,-1.5878482,5.2550211,0.37019637,0.47737092,0.79691386,0
3.8345416,2.7728789,-0.47577858,0.96804798,0.13959917,0.20831513,0
2.8180401,-4.2961836,1.4952624,0.01463437,-0.86075234,0.5088135,0
2.0366704,3.9215431,-2.2686646,-0.01463437,0.86075234,-0.5088135,0
-1.0810175,1.7024035,3.4659708,-0.27128744,0.48636243,0.83057487,0
3.4826765,4.3367443,-1.6078652,-0.01463437,0.86075234,-0.5088135,0
3.5750601,-1.2423527,2.9035258,0.88425624,0.24869211,0.39527607,0
-2.6081035,-3.1244965,3.6334538,0.01463437,-0.86075234,0.5088135,0
-1.3364959,-5.4275942,-1.1459546,-0.34901142,-0.48125979,-0.804102,0
-1.3692274,4.7370462,-0.79113126,-0.01463437,0.86075234,-0.5088135,0
2.5459926,3.7236428,1.347157,0.64558029,0.3967227,0.65256196,0
0.57346767,4.492465,-1.260762,-0.01463437,0.86075234,-0.5088135,0
-3.4356751,-3.3469172,3.2809906,0.01463437,-0.86075234,0.5088135,0
1.0437806,-4.2046523,1.7011359,0.01463437,-0.86075234,0.5088135,0
-0.76287031,-1.7130029,-3.5498199,-0.18946309,-0.50203639,-0.84383839,0
3.4713459,-2.320127,3.793762,0.85328192,0.27602372,0.44240344,0
-2.3763719,3.0322099,-3.6462116,-0.01463437,0.86075234,-0.5088135,0
-0.82133174,4.3925166,1.9607496,-0.19510633,0.49662834,0.84575051,0
3.6903486,4.1770949,-0.84879541,0.93712384,0.18926322,0.29322052,0
-3.3747194,-0.36713243,2.6669359,-0.84961993,0.25759548,0.46020702,0
-2.6551297,-4.6032181,1.1332731,0.01463437,-0.86075234,0.5088135,0
3.8563235,2.598578,-0.46413589,0.97292167,0.12965195,0.19134736,0
-1.0056367,-1.7021737,-3.4925613,-0.25021416,-0.49583012,-0.83159196,0
2.7616291,-2.464139,4.5961285,0.01463437,-0.86075234,0.5088135,0
3.6327477,1.158675,-2.5439889,0.91637695,-0.19204815,-0.35124168,0
-0.39803046,-5.7398157,-0.85440874,0.01463437,-0.86075234,0.5088135,0
-3.9486778,0.077928841,0.6696828,-0.98795933,0.065936968,0.13996005,0
-3.3645964,-3.0437942,-0.65274835,-0.84933925,-0.27923125,-0.44794297,0
-0.79144228,-2.6956773,4.3066297,0.01463437,-0.86075234,0.5088135,0
-0.67716932,-2.3294911,-3.201417,-0.17063241,-0.50355351,-0.84694642,0
3.9516978,2.6530828,-1.7299007,0.99928808,-0.0051064277,-0.037379749,0
3.9685743,-2.1444316,0.45121294,0.98433793,-0.077007227,-0.1585833,0
-1.4893705,-4.0332208,2.0640008,0.01463437,-0.86075234,0.5088135,0
-2.0912075,-4.4273615,-1.3107648,-0.53419226,-0.43689021,-0.7237165,0
-3.7649589,-1.7420831,2.4634466,-0.95111001,0.14502215,0.27268746,0
2.9106793,3.5137997,-2.9835768,-0.01463437,0.86075234,-0.5088135,0
1.3679862,1.8145561,-5.4117079,0.3577117,-0.47068286,-0.80653566,0
-0.58022308,4.1559148,-1.7969172,-0.01463437,0.86075234,-0.5088135,0
-0.71436638,-2.0955167,5.3196959,0.01463437,-0.86075234,0.5088135,0
-3.1947327,1.9666257,-4.0417857,-0.78479505,-0.32520741,-0.52757663,0
0.29700482,-4.2183876,-2.1431885,0.064940639,-0.50697535,-0.85951066,0
-2.1752024,3.4868445,-2.8828993,-0.01463437,0.86075234,-0.5088135,0
3.8254235,3.2146792,-0.72949839,0.96763253,0.14040869,0.20969656,0
0.26462096,-2.2802253,-3.2888441,0.065082639,-0.50696886,-0.85950375,0
0.42582667,-5.2349281,-0.023993969,0.01463437,-0.86075234,0.5088135,0
-2.034596,-4.6583195,-1.2124562,-0.5209527,-0.44090864,-0.73089528,0
-2.4659967,-4.1435785,1.9054015,0.01463437,-0.86075234,0.5088135,0
1.2799181,0.47864604,4.1290083,0.31373197,0.48712319,0.8150357,0
-2.1676769,-5.2492738,0.026331902,0.01463437,-0.86075234,0.5088135,0
-1.1140156,-4.0694366,1.9919404,0.01463437,-0.86075234,0.5088135,0
-3.4785628,1.275305,1.5500782,-0.86832392,0.24137414,0.43330356,0
-0.22499189,-4.2716336,1.6243162,0.01463437,-0.86075234,0.5088135,0
3.5104985,-1.2105964,-1.5208486,0.87645549,-0.23388158,-0.42086241,0
1.8180819,2.616127,-4.4707341,-0.01463437,0.86075234,-0.5088135,0
-2.1406994,1.7794369,2.8742161,-0.53480703,0.42322373,0.73134339,0
3.9031138,-0.11268228,-0.92341381,0.9769336,-0.096112818,-0.19069098,0
-0.37992471,-5.2995081,-0.11006784,0.01463437,-0.86075234,0.5088135,0
3.7564487,-2.7076273,3.375123,0.92410147,0.20598367,0.32188079,0
-3.3103726,4.0129924,-1.9601717,-0.01463437,0.86075234,-0.5088135,0
2.710098,1.2913514,2.6583033,0.67649746,0.38324276,0.62886888,0
-0.23367015,5.6342773,1.3117099,-0.04310368,0.50785184,0.86036533,0
0.47639728,-5.7237043,-0.85230398,0.01463437,-0.86075234,0.5088135,0
0.31656796,-0.13161135,4.7130184,0.069937095,0.5085029,0.85821533,0
-2.6411591,-3.5249095,2.9570317,0.01463437,-0.86075234,0.5088135,0
0.63466364,2.6596255,3.0134921,0.16139773,0.50422853,0.84835398,0
-3.5103393,-4.780344,0.85823131,0.01463437,-0.86075234,0.5088135,0
-0.36413825,4.7255564,-0.83947754,-0.01463437,0.86075234,-0.5088135,0
0.018191934,-4.8751168,-1.7646575,-0.0075204447,-0.50894833,-0.86076421,0
-3.6321714,-0.75170732,-1.507392,-0.90740955,-0.22517635,-0.35482889,0
-0.15743594,1.8978453,-5.6290188,-0.01463437,0.86075234,-0.5088135,0
0.98528922,5.4253597,0.30555725,-0.01463437,0.86075234,-0.5088135,0
3.8499532,2.8690362,-0.61504221,0.97246206,0.13062835,0.19301239,0
2.2993248,-4.9936638,0.33026218,0.01463437,-0.86075234,0.5088135,0
-1.5547585,5.0541539,-0.24934721,-0.01463437,0.86075234,-0.5088135,0
2.6465964,-2.0985727,-2.2537143,0.65909404,-0.37436393,-0.65226263,0
-1.2971902,3.3405869,2.4302735,-0.31823218,0.47839805,0.81845194,0
-3.6801538,-0.6088562,2.1164155,-0.92569858,0.18069881,0.33231023,0
0.70414627,4.2543292,-1.66737,-0.01463437,0.86075234,-0.5088135,0
1.4723445,5.4462166,0.32683182,-0.01463437,0.86075234,-0.5088135,0
3.2537429,-2.1884646,4.0887675,0.79875833,0.31616741,0.51188207,0
-2.7970576,-2.5113521,4.676136,0.01463437,-0.86075234,0.5088135,0
1.5261934,-2.6985354,4.2351375,0.01463437,-0.86075234,0.5088135,0
3.5618172,4.6336308,-0.77621913,0.90630054,0.22637758,0.35689288,0
-2.5920088,-4.2333741,-0.99073172,-0.65935069,-0.39086089,-0.64224958,0
-1.2600902,-1.5467317,-3.4982762,-0.31331378,-0.48718819,-0.81515771,0
3.7650468,0.43327427,1.3285133,0.93995154,0.18538231,0.28657386,0
2.5863192,-0.067488432,-3.4801373,0.65270716,-0.37726933,-0.65699399,0
1.4724954,-4.7041593,0.84379625,0.01463437,-0.86075234,0.5088135,0
0.45217025,-3.0260973,3.7118948,0.01463437,-0.86075234,0.5088135,0
-1.8304445,2.5755405,-4.4344521,-0.01463437,0.86075234,-0.5088135,0
-0.21751121,-2.0041637,5.4599457,0.01463437,-0.86075234,0.5088135,0
-3.4530587,4.6771288,-0.30120945,-0.84779012,0.25911349,0.46272239,0
-1.449013,4.0855417,-1.8909774,-0.01463437,0.86075234,-0.5088135,0
-2.0561306,2.1228065,-5.1938457,-0.01463437,0.86075234,-0.5088135,0
-3.2908432,-2.9836402,-0.82464194,-0.83039546,-0.29392314,-0.47334188,0
-3.6983397,-0.2981199,1.8963597,-0.9288559,0.17667584,0.3255955,0
-1.92318,2.0966067,-5.241991,-0.01463437,0.86075234,-0.5088135,0
2.1838088,3.6685891,-2.7008147,-0.01463437,0.86075234,-0.5088135,0
-1.0091546,-5.4543924,-0.35398626,0.01463437,-0.86075234,0.5088135,0
-3.6603005,1.3888037,-2.7936969,-0.90530515,-0.22744881,-0.35873365,0
2.5661969,3.0215044,-3.806478,-0.01463437,0.86075234,-0.5088135,0
0.42894089,2.1583223,-5.2052412,-0.01463437,0.86075234,-0.5088135,0
3.5537741,0.97865295,1.5533602,0.88844353,0.24466324,0.38834006,0
3.6967516,1.2569796,1.0092418,0.92606962,0.20356664,0.31773531,0
-3.0868056,-0.72636032,-2.539969,-0.76909524,-0.33487451,-0.54438186,0
1.4312972,-5.3453097,-0.23964453,0.01463437,-0.86075234,0.5088135,0
2.4906003,0.86204147,-4.1069603,0.63287669,-0.38599038,-0.67117685,0
-3.9617524,-2.1155827,1.0348371,-0.99881464,-0.036210895,-0.032529801,0
-0.85149348,-4.4579301,1.3271787,0.01463437,-0.86075234,0.5088135,0
-3.5273688,1.9085622,-3.4244432,-0.8692683,-0.26242289,-0.4189353,0
-3.1797473,-4.8213568,0.77934122,0.01463437,-0.86075234,0.5088135,0
1.2179774,1.5172499,3.5317733,0.30263263,0.48881352,0.81821442,0
-0.71964997,3.0253577,-3.705452,-0.01463437,0.86075234,-0.5088135,0
-3.8440428,-3.3783326,0.93004751,-0.97317505,-0.12910998,-0.19042322,0
1.6725813,-5.5692487,-0.62541914,0.01463437,-0.86075234,0.5088135,0
3.9250681,-0.74391448,1.449115,0.97601658,0.12283701,0.17972964,0
0.62711269,-1.5782495,5.5327983,0.14147493,0.50553113,0.85113055,0
3.1208701,-2.1492858,4.2606611,0.76535064,0.3371076,0.54826713,0
0.60428423,-3.008575,3.7371621,0.01463437,-0.86075234,0.5088135,0
-0.47326496,-2.9162779,-2.8879371,-0.12209866,-0.50659817,-0.85349298,0
0.64500743,-4.9081264,0.52254748,0.01463437,-0.86075234,0.5088135,0
2.8028772,-4.4356499,-0.74974823,0.68799639,-0.36058885,-0.62979084,0
0.90767521,3.2248158,2.6133409,0.23216076,0.49788642,0.83558989,0
-2.409811,3.5912318,-2.6995609,-0.01463437,0.86075234,-0.5088135,0
1.1144003,0.74586844,4.0286388,0.27338976,0.4929221,0.82600605,0
-4.047049,2.8291466,-1.5799408,-0.999695,-0.0024716482,0.024571735,0
0.99867368,3.9126425,-2.2538691,-0.01463437,0.86075234,-0.5088135,0
0.82157129,-4.095315,1.8924909,0.01463437,-0.86075234,0.5088135,0
-2.4924624,-3.4983687,2.9976544,0.01463437,-0.86075234,0.5088135,0
2.3612072,-4.7719193,0.70360708,0.01463437,-0.86075234,0.5088135,0
-3.8612692,-2.3493295,2.3787019,-0.976937,0.09610486,0.19067761,0
1.7517024,-5.309051,-0.18752146,0.01463437,-0.86075234,0.5088135,0
-0.65352267,-0.41722989,-4.3426404,-0.15657559,-0.50456297,-0.84905857,0
0.53127754,4.2998028,-1.5854722,-0.01463437,0.86075234,-0.5088135,0
1.7915747,-4.2615499,1.5833722,0.01463437,-0.86075234,0.5088135,0
-1.6414406,-2.2201462,5.1355252,0.01463437,-0.86075234,0.5088135,0
3.8078856,-0.42355686,-1.1618054,0.95259643,-0.14265168,-0.26872009,0
0.75986737,-4.2514372,-2.0572381,0.18036741,-0.49824789,-0.84806633,0
2.6379251,2.447294,2.0304823,0.66326714,0.38915271,0.63924724,0
3.4118307,-3.4130032,-0.48184896,0.84292394,-0.26309541,-0.46931872,0
3.4549153,-3.4321389,-0.39204907,0.85346538,-0.25436711,-0.45485628,0
-2.4015436,-3.908854,2.3006256,0.01463437,-0.86075234,0.5088135,0
-3.6223667,-1.9575887,-0.76696634,-0.91013473,-0.22218838,-0.34969574,0
1.6457253,-2.1641774,5.1356645,0.01463437,-0.86075234,0.5088135,0
0.75903112,3.2492819,-3.3691745,-0.01463437,0.86075234,-0.5088135,0
4.0275412,-3.3829703,2.6128116,0.99115229,0.079625182,0.10619347,0
-0.75040102,1.2332296,3.8322141,-0.19081026,0.49711242,0.84644592,0
-3.7545736,0.47355995,1.3118342,-0.9393931,0.16248532,0.30189264,0
1.7871888,3.1966753,2.2537465,0.45257288,0.45946112,0.76424688,0
-1.5429552,-3.0989218,-2.4450188,-0.39086363,-0.47330239,-0.78943676,0
0.87308049,2.9801812,-3.8276858,-0.01463437,0.86075234,-0.5088135,0
3.1614137,4.3505278,-1.5753092,-0.01463437,0.86075234,-0.5088135,0
2.1670721,4.4861841,-1.3172219,-0.01463437,0.86075234,-0.5088135,0
-2.4792857,1.6592593,-4.6776724,-0.60575581,-0.41248807,-0.68037748,0
-0.58554399,-2.3531492,-3.2045479,-0.14779964,-0.50514019,-0.85028732,0
-2.8860834,-5.1759396,0.17105341,0.01463437,-0.86075234,0.5088135,0
3.2270749,-4.4529486,1.2182994,0.01463437,-0.86075234,0.5088135,0
2.175741,-4.2043691,-1.4452896,0.53326905,-0.42373753,-0.73216844,0
3.9924753,-0.6135956,-0.044030055,0.99605471,-0.031994484,-0.082772881,0
0.66408604,3.8693323,-2.3175123,-0.01463437,0.86075234,-0.5088135,0
-3.8641713,-1.2944901,1.8293638,-0.97331792,0.10427701,0.20439823,0
-3.7959116,0.86729693,-2.0683002,-0.94219321,-0.18223299,-0.28118178,0
-2.5775719,-3.2257128,3.4613488,0.01463437,-0.86075234,0.5088135,0
-1.8580145,3.1258807,-3.50266,-0.01463437,0.86075234,-0.5088135,0
-3.9535894,-0.35598415,0.8336485,-0.99085855,0.055766914,0.12283891,0
2.6399286,-5.3256807,-0.24119997,0.01463437,-0.86075234,0.5088135,0
1.5189638,5.3545942,0.17049551,-0.01463437,0.86075234,-0.5088135,0
-1.6811134,4.166749,1.774157,-0.41036928,0.45886618,0.78806019,0
-0.41442603,3.3129873,-3.227654,-0.01463437,0.86075234,-0.5088135,0
2.5688708,-4.4080944,1.3131126,0.01463437,-0.86075234,0.5088135,0
-3.3137591,-4.5154114,1.3007584,0.01463437,-0.86075234,0.5088135,0
-1.8610473,-2.8387671,4.0953307,0.01463437,-0.86075234,0.5088135,0
2.5584111,5.0155849,0.5490427,0.65423846,0.39306301,0.64612204,0
-0.80645192,5.5048184,1.3108597,-0.18667457,0.49756914,0.84709954,0
-0.040618211,-1.8031356,-3.5805233,-0.0091654137,-0.50896204,-0.86074013,0
0.26592773,-2.6168914,4.4095001,0.01463437,-0.86075234,0.5088135,0
-3.9672174,1.05674,-1.4062517,-0.98564637,-0.098012954,-0.13745815,0
-3.1143539,0.55559051,2.5703764,-0.78145695,0.3076137,0.54286164,0
1.2298876,-2.571147,4.4591599,0.01463437,-0.86075234,0.5088135,0
-1.8574412,0.30552053,-4.3176222,-0.45526129,-0.45879793,-0.76304764,0
3.9774358,0.77344853,-0.088917315,0.99674726,0.052891064,0.060806841,0
-2.2088866,-0.80261469,-3.4112995,-0.54828066,-0.43245178,-0.71580291,0
1.754411,3.9621935,1.8128505,0.44761163,0.4606714,0.76643693,0
-3.9351997,-3.8453345,2.2300668,-0.99985009,-0.017307837,-0.00052197278,0
-3.972034,1.480464,-0.15594393,-0.98784328,0.066316135,0.14059815,0
3.1922343,3.7573204,-2.5797143,-0.01463437,0.86075234,-0.5088135,0
-0.93845701,-1.7593026,5.5384908,-0.25041443,0.48949623,0.83527595,0
-2.5222509,-2.8899646,4.0277376,0.01463437,-0.86075234,0.5088135,0
-1.9381514,-5.1944008,0.11255789,0.01463437,-0.86075234,0.5088135,0
2.5619164,-1.1899505,4.3171101,0.6285581,0.40367022,0.66480458,0
1.9083099,-0.68545341,4.5152998,0.46641129,0.45599136,0.75797904,0
0.97178048,3.7797189,-2.4779608,-0.01463437,0.86075234,-0.5088135,0
-1.8093414,-5.1947365,0.10828686,0.01463437,-0.86075234,0.5088135,0
-0.9473213,-3.1594353,-2.6410465,-0.24181271,-0.49680969,-0.83349073,0
-3.6273777,-0.77943015,2.3503458,-0.91347998,0.19542906,0.35687777,0
2.6320152,-3.5405064,2.7789803,0.01463437,-0.86075234,0.5088135,0
-1.6722505,2.2496724,-4.9902706,-0.01463437,0.86075234,-0.5088135,0
-3.7524807,-3.1147752,0.36953497,-0.94841605,-0.1731202,-0.26558685,0
3.9289892,-2.0439529,2.3115423,0.9712972,0.13306534,0.1971685,0
3.7658408,-4.1577482,1.7021914,0.01463437,-0.86075234,0.5088135,0
0.0086787529,3.7013216,-2.5828815,-0.01463437,0.86075234,-0.5088135,0
-3.7158577,4.3837957,-0.7035563,-0.91365063,0.19523169,0.35654882,0
-2.2599723,1.2078533,-4.5867205,-0.55252999,-0.43107945,-0.71335912,0
-1.693561,-3.7035878,-2.0029569,-0.43123409,-0.4645431,-0.77345777,0
3.5701742,-1.4962513,-1.2338953,0.8899374,-0.22077863,-0.39908418,0
-2.0716503,-4.2193236,1.7659221,0.01463437,-0.86075234,0.5088135,0
-3.8621576,3.7940779,-2.3146365,-0.01463437,0.86075234,-0.5088135,0
-0.43494415,0.98932552,-5.2099962,-0.095898598,-0.50773042,-0.85616195,0
0.59837139,-2.9017658,-2.8816342,0.14578702,-0.50159329,-0.85273111,0
3.9943535,-2.0623741,1.9247365,0.98829681,0.089726314,0.12336352,0
2.4124556,5.4985657,0.38835239,-0.01463437,0.86075234,-0.5088135,0
-0.80819845,5.8343449,1.1169157,-0.18571235,0.49767408,0.84724939,0
3.4883444,0.84767365,-2.7105997,0.87961465,-0.23089072,-0.4158937,0
-4.0393682,3.078733,-2.2421322,-0.99575657,-0.058783885,-0.070804149,0
1.0371165,5.4964089,0.42426062,-0.01463437,0.86075234,-0.5088135,0
0.95197892,-5.5816832,-0.62572622,0.01463437,-0.86075234,0.5088135,0
3.6468899,-0.47495532,-1.6134841,0.91303509,-0.19594264,-0.35773379,0
0.064383805,-1.5329133,-3.7396815,0.01822672,-0.5085538,-0.86083722,0
2.0300832,-3.4501481,2.9491518,0.01463437,-0.86075234,0.5088135,0
3.757472,-4.3969874,1.2977165,0.01463437,-0.86075234,0.5088135,0
1.4468656,-0.79000378,4.8193159,0.3501797,0.48105267,0.80371797,0
2.135963,1.7006803,-4.8908925,0.54833663,-0.41861653,-0.72393858,0
1.5703359,-4.0411386,1.9626048,0.01463437,-0.86075234,0.5088135,0
-0.22739375,-5.3242035,-0.1562314,0.01463437,-0.86075234,0.5088135,0
-2.1101022,-2.2322254,5.1285715,0.01463437,-0.86075234,0.5088135,0
3.5154886,2.4034824,0.74296665,0.88486975,0.24810742,0.39426935,0
2.7797318,-0.85435534,3.8906102,0.68485111,0.379397,0.62212288,0
-1.3609974,-4.2808957,1.641322,0.01463437,-0.86075234,0.5088135,0
1.0214839,5.6463308,0.67833138,-0.01463437,0.86075234,-0.5088135,0
-3.9612439,2.953615,-0.80764937,-0.97929406,0.090419814,0.18112808,0
3.9793947,-0.95746142,-0.028579831,0.99167365,-0.052618384,-0.11753603,0
-4.0427351,3.5098009,-2.5490794,-0.99466926,-0.064479329,-0.080470309,0
-2.8855369,1.6421332,2.2523272,-0.72025126,0.34389311,0.60247457,0
-1.146385,4.2297912,-1.6556562,-0.01463437,0.86075234,-0.5088135,0
4.033514,-3.6112914,1.6213684,0.99377179,-0.043699522,-0.10250846,0
-2.2394891,4.4915109,-1.1814716,-0.01463437,0.86075234,-0.5088135,0
3.9530833,2.7796907,-1.6533089,0.99989051,0.011485198,-0.0093292668,0
2.9273274,-4.641345,-0.49037886,0.71797174,-0.34512264,-0.60448903,0
3.6139815,2.7554424,0.28179407,0.91145456,0.22072221,0.34717751,0
-1.5515853,3.8793349,2.0060625,-0.37933105,0.46604794,0.7993167,0
2.8780386,4.0996933,0.74753284,0.73087454,0.35647428,0.58202112,0
-0.7141608,2.0512905,-5.3534265,-0.01463437,0.86075234,-0.5088135,0
-3.7747791,-1.7336075,2.4242482,-0.95346493,0.14124838,0.26637113,0
3.6623087,0.72781897,-2.2301967,0.92182463,-0.18550703,-0.34033284,0
0.54744083,-4.1495171,1.8086808,0.01463437,-0.86075234,0.5088135,0
-3.5533679,-1.3929999,2.8681693,-0.89787769,0.2126141,0.38550073,0
-1.291335,-2.2352402,-3.0744562,-0.32408047,-0.48548129,-0.81196052,0
0.21719047,-5.0663939,0.26711321,0.01463437,-0.86075234,0.5088135,0
1.1007979,-2.4755149,-3.0067897,0.27294207,-0.48610345,-0.83018428,0
2.2422497,2.290792,2.4857836,0.56302905,0.42762026,0.70720524,0
1.7072803,0.9154892,-4.71735,0.43839321,-0.45182699,-0.77695811,0
2.9942517,2.5489697,-4.4999299,0.76480651,-0.31815782,-0.56022,0
-3.2488019,-1.917572,3.7584546,-0.82506174,0.27707121,0.49244753,0
1.2959838,3.1125994,-3.6158404,-0.01463437,0.86075234,-0.5088135,0
-2.7636132,1.4598904,-4.2773685,-0.67819548,-0.38246837,-0.62751007,0
0.22730884,-5.1534758,0.11950731,0.01463437,-0.86075234,0.5088135,0
3.2537591,-0.4668386,3.0247662,0.80616474,0.31118992,0.50324881,0
1.5440755,4.9065847,-0.58811593,-0.01463437,0.86075234,-0.5088135,0
-1.766308,3.4981008,-2.875617,-0.01463437,0.86075234,-0.5088135,0
1.0584456,-1.0312382,-3.8663394,0.26850456,-0.4867945,-0.83122575,0
1.5786235,-4.0569763,1.9355724,0.01463437,-0.86075234,0.5088135,0
2.0000334,-5.1745367,0.032892704,0.01463437,-0.86075234,0.5088135,0
-2.3125117,5.5038366,0.53316593,-0.01463437,0.86075234,-0.5088135,0
-0.068177551,-4.4615674,-2.0075092,-0.027353786,-0.50902218,-0.86031854,0
-4.0072432,0.98120987,-0.29150739,-0.99796361,0.019022483,0.060883243,0
-3.4876571,3.4721723,0.30719042,-0.86136502,0.24756591,0.44357798,0
3.7774296,-0.058250666,1.6057978,0.9409824,0.18394218,0.28410798,0
1.3034559,4.4683957,-1.3224757,-0.01463437,0.86075234,-0.5088135,0
-0.46036255,3.8877692,-2.2539823,-0.01463437,0.86075234,-0.5088135,0
-3.9619207,-2.2659202,1.3370556,-0.99989277,-0.012859624,0.0070042312,0
-0.42648146,-4.1311197,-2.173449,-0.11556105,-0.50691408,-0.8542155,0
-3.8593857,-2.6534672,2.5414958,-0.977727,0.094234288,0.18753593,0
-1.129072,4.1880021,1.9947696,-0.27273226,0.48613635,0.83023411,0
2.7702584,-4.0994868,1.8293872,0.01463437,-0.86075234,0.5088135,0
-1.5343053,3.4368463,-2.9859123,-0.01463437,0.86075234,-0.5088135,0
-3.9325228,-1.9489253,0.49964046,-0.98998767,-0.083922364,-0.11349645,0
-0.41525748,1.2680411,-5.3773999,-0.089788638,-0.50794345,-0.8566981,0
-3.6518197,2.355298,0.56954622,-0.90640247,0.20342746,0.37020499,0
-2.2827611,1.956862,-5.0216656,-0.55505759,-0.43025562,-0.71189272,0
1.3846936,-5.3576317,-0.25914955,0.01463437,-0.86075234,0.5088135,0
-2.0962074,-4.9794841,0.4806757,0.01463437,-0.86075234,0.5088135,0
1.4992888,-4.2771854,-1.7982826,0.36462006,-0.46923399,-0.80428338,0
-3.4511421,1.3932941,1.538341,-0.86107677,0.24781825,0.44399658,0
3.7856808,-3.2061481,3.311429,0.01463437,-0.86075234,0.5088135,0
3.4783502,-0.15649009,-2.1733377,0.87295425,-0.2371431,-0.42627919,0
0.44950873,-4.0067101,2.0530825,0.01463437,-0.86075234,0.5088135,0
-0.51817578,4.4963942,-1.2227168,-0.01463437,0.86075234,-0.5088135,0
3.9476907,2.2810869,-1.6981815,0.99705607,-0.025742633,-0.072225519,0
0.37968469,-4.5451088,1.1442897,0.01463437,-0.86075234,0.5088135,0
-0.88598889,4.2488456,-1.6309128,-0.01463437,0.86075234,-0.5088135,0
1.4139291,2.7987409,2.6855388,0.35722095,0.47978613,0.80137289,0
2.9208448,-1.5656736,-2.2531853,0.72931874,-0.33892304,-0.59432775,0
-3.7688253,3.1857629,-3.3463995,-0.01463437,0.86075234,-0.5088135,0
3.7372203,-1.1843934,-0.98048162,0.93220031,-0.17230517,-0.31829783,0
1.9727137,-3.1927352,3.3862638,0.01463437,-0.86075234,0.5088135,0
-3.50349,-4.7866507,0.84736395,0.01463437,-0.86075234,0.5088135,0
3.0390565,4.2651391,-1.7162392,-0.01463437,0.86075234,-0.5088135,0
-0.32282203,-2.7308598,4.2336354,0.01463437,-0.86075234,0.5088135,0
3.4001045,0.91735864,-2.9268763,0.85818148,-0.25033492,-0.44817069,0
-1.2709179,-4.323575,1.5665303,0.01463437,-0.86075234,0.5088135,0
0.42164817,-3.5464735,2.8324609,0.01463437,-0.86075234,0.5088135,0
-1.9979842,-1.8324809,5.0672302,-0.51459271,0.42982081,0.7419222,0
-3.7600524,-0.0035703182,-1.6222869,-0.9368031,-0.18969738,-0.29396421,0
-2.9857862,-2.9388795,3.9583225,0.01463437,-0.86075234,0.5088135,0
1.1061063,5.7101307,0.78382683,-0.01463437,0.86075234,-0.5088135,0
-0.35403407,2.7731624,-4.1426044,-0.01463437,0.86075234,-0.5088135,0
2.3876851,2.5556617,-4.5894036,-0.01463437,0.86075234,-0.5088135,0
1.094286,3.1700511,-3.5128486,-0.01463437,0.86075234,-0.5088135,0
-1.336673,-2.3052304,-3.0141349,-0.33574525,-0.48355326,-0.80836332,0
1.7804629,-2.8353808,-2.4947834,0.44073552,-0.45121399,-0.7759884,0
0.094244987,5.1447945,-0.14344263,-0.01463437,0.86075234,-0.5088135,0
2.5105221,-2.0318568,-2.4236488,0.62560922,-0.38907701,-0.67618954,0
1.872568,3.8456757,1.8110547,0.47678095,0.45329925,0.75312662,0
-3.8416708,4.347405,-1.0457568,-0.94457471,0.15501046,0.28939658,0
1.8381441,-3.334106,3.150979,0.01463437,-0.86075234,0.5088135,0
1.0621828,4.3433528,-1.5270673,-0.01463437,0.86075234,-0.5088135,0
-0.94693154,-5.7975769,-1.0683546,-0.25295079,-0.49550259,-0.8309592,0
-1.4676621,3.5896132,2.2136927,-0.35965359,0.47027865,0.80590785,0
3.2288065,5.0117989,-0.32656717,0.82341951,0.29905787,0.48222876,0
-3.436065,-2.9525919,3.9480758,0.01463437,-0.86075234,0.5088135,0
-1.3462801,-5.5256138,-0.46477222,0.01463437,-0.86075234,0.5088135,0
-0.76346546,3.7828028,2.3317809,-0.18325362,0.49793994,0.84762847,0
3.6588745,1.6838453,-2.760211,0.92496365,-0.18162151,-0.33385006,0
-0.14224212,-2.366859,4.8442144,0.01463437,-0.86075234,0.5088135,0
-3.2776172,0.92895925,2.1083069,-0.8202281,0.2806927,0.49843496,0
-3.759593,-2.8601441,3.0758958,-0.95442986,0.13967256,0.26373312,0
-3.621747,0.66816479,1.5702513,-0.90606183,0.20380366,0.37083164,0
-0.72588205,3.2614689,-3.3058476,-0.01463437,0.86075234,-0.5088135,0
0.181912,-0.89121628,5.1708841,0.033035882,0.50900638,0.86012846,0
-3.7233493,2.1728215,-3.1263673,-0.91797554,-0.2132858,-0.33440986,0
-1.42098,-3.5082121,2.9501839,0.01463437,-0.86075234,0.5088135,0
0.77502066,2.6407332,-4.3991075,-0.01463437,0.86075234,-0.5088135,0
3.3392208,0.56112456,2.2439957,0.83221614,0.29255977,0.47098303,0
1.2068127,5.2705488,0.037295818,-0.01463437,0.86075234,-0.5088135,0
3.3920429,-4.8783073,0.4939816,0.01463437,-0.86075234,0.5088135,0
3.0754118,-3.3288221,-1.0508571,0.76016158,-0.32100293,-0.5648995,0
-0.42867115,4.886138,-0.56596756,-0.01463437,0.86075234,-0.5088135,0
-0.92352992,3.9181068,2.2138772,-0.2226156,0.49329102,0.84089595,0
-0.89174378,-2.1322789,5.2626081,0.01463437,-0.86075234,0.5088135,0
-0.94011474,5.0679359,-0.24371386,-0.01463437,0.86075234,-0.5088135,0
-2.1331389,1.7882648,-5.0310583,-0.51817352,-0.44173387,-0.73237121,0
3.0832312,1.0896933,-3.5474763,0.78067809,-0.30811948,-0.54369491,0
0.075850368,-4.9040895,0.54574609,0.01463437,-0.86075234,0.5088135,0
-3.1192677,-2.8742471,4.0714998,0.01463437,-0.86075234,0.5088135,0
-3.9062979,-1.9688549,1.9312879,-0.9861607,0.071621172,0.14952421,0
-2.8129692,5.129868,-0.085076809,-0.01463437,0.86075234,-0.5088135,0
0.14570081,-3.8789902,-2.351727,0.028579749,-0.50829995,-0.86070561,0
-3.942147,-2.9159119,1.374584,-0.99706715,-0.050792456,-0.05724746,0
3.0664387,-0.72772026,3.4620728,0.75770903,0.34158209,0.55605638,0
-2.1159062,3.2429595,2.0448365,-0.5224573,0.42729414,0.73787409,0
2.8090892,-2.8968384,-1.6236212,0.69602174,-0.35657164,-0.62322581,0
-3.9292774,-2.5720429,2.0250514,-0.99397838,0.042742722,0.10089581,0
-1.6612911,-2.3563032,-2.8295307,-0.41738686,-0.46767133,-0.77914798,0
0.73646897,-3.520134,2.8679624,0.01463437,-0.86075234,0.5088135,0
2.2628129,1.9965677,2.6472554,0.56694156,0.42630586,0.70486915,0
0.64725018,-4.1704626,-2.1268935,0.15260381,-0.50098383,-0.85189629,0
0.12554696,-5.6919956,-0.78856993,0.01463437,-0.86075234,0.5088135,0
2.6218054,3.0193176,-3.8117774,-0.01463437,0.86075234,-0.5088135,0
-1.3966453,-4.7089839,0.91815615,0.01463437,-0.86075234,0.5088135,0
-1.2458888,4.0829821,2.0155931,-0.30229971,0.48124561,0.82281095,0
-1.0242472,-2.3222408,4.9450631,0.01463437,-0.86075234,0.5088135,0
3.3723783,3.8868937,0.11192226,0.85494608,0.27465329,0.44003719,0
-0.68857968,1.7870145,-5.6460729,-0.15597008,-0.50460416,-0.84914553,0
2.2890851,2.2311215,2.4840219,0.57455075,0.4237096,0.70025831,0
-0.26867861,-2.4731474,4.668046,0.01463437,-0.86075234,0.5088135,0
-2.2618966,-4.0781751,2.0101714,0.01463437,-0.86075234,0.5088135,0
3.618206,3.2625132,-3.4290261,-0.01463437,0.86075234,-0.5088135,0
-1.0704634,2.797843,-4.0802469,-0.01463437,0.86075234,-0.5088135,0
3.1316583,-4.3923812,1.3235064,0.01463437,-0.86075234,0.5088135,0
1.4719175,3.7505767,2.0888228,0.37582326,0.47629035,0.79492408,0
0.94809532,0.60932279,4.1605501,0.23114687,0.49799654,0.83580524,0
-0.75616705,3.3156157,-3.2133772,-0.01463437,0.86075234,-0.5088135,0
-3.6323028,-0.21444762,-1.847838,-0.90511674,-0.22765069,-0.35908061,0
1.1205153,-4.1602874,-2.0137973,0.27071628,-0.48645148,-0.83070904,0
-1.4097952,-5.2783003,-0.0445714,0.01463437,-0.86075234,0.5088135,0
3.613533,-0.82693702,-1.502849,0.90338326,-0.20673425,-0.37571225,0
-3.457654,3.1437726,-3.4263818,-0.01463437,0.86075234,-0.5088135,0
3.9174938,2.2057915,-0.56476212,0.9871614,0.093383685,0.1295833,0
3.8048601,-0.85561961,-0.9426676,0.95007169,-0.1466551,-0.27542001,0
3.2505074,0.0061893463,2.7374563,0.80737638,0.31036296,0.5018149,0
1.8924766,-5.0646586,0.22186422,0.01463437,-0.86075234,0.5088135,0
-0.10889426,-5.011055,0.3701086,0.01463437,-0.86075234,0.5088135,0
3.6187391,-0.92688394,2.6035259,0.89672559,0.2364174,0.37415242,0
3.7721555,-3.612036,0.43611097,0.93065029,-0.17434531,-0.32170457,0
3.9889412,-0.36500621,0.69412851,0.99458009,0.06491854,0.081215873,0
2.0490291,4.6988258,1.1776791,0.5247525,0.43977022,0.72886008,0
3.9777329,-1.1322685,0.036810279,0.99058598,-0.056787394,-0.12455741,0
0.42894483,-5.2163577,0.0073304176,0.01463437,-0.86075234,0.5088135,0
0.36884761,2.031445,3.4259572,0.092211902,0.50786126,0.8564893,0
2.4681399,-1.8591454,-2.5617771,0.61581689,-0.3931466,-0.68279231,0
1.5165485,4.1102905,-1.9344059,-0.01463437,0.86075234,-0.5088135,0
1.2610104,3.6063142,-2.7796261,-0.01463437,0.86075234,-0.5088135,0
3.9528308,1.56742,-1.363125,0.99546957,-0.035269633,-0.088296577,0
-1.5767,-5.6815462,-0.7219348,0.01463437,-0.86075234,0.5088135,0
-1.3186146,3.909461,-2.1926019,-0.01463437,0.86075234,-0.5088135,0
-3.5843673,4.5753927,-0.50321841,-0.88055456,0.22999179,0.41440007,0
-1.9934616,-3.3765631,3.1893573,0.01463437,-0.86075234,0.5088135,0
-1.7312639,-2.2684751,5.0563536,0.01463437,-0.86075234,0.5088135,0
0.14270498,0.1198926,4.573966,0.027531534,0.50902194,0.86031312,0
-2.0729384,4.0879722,1.5851727,-0.50820088,0.43183744,0.74514979,0
0.39469922,3.478992,-2.9700961,-0.01463437,0.86075234,-0.5088135,0
-2.9379115,-1.41818,-2.3146148,-0.73447788,-0.354545,-0.57865369,0
-2.1189923,-3.0728908,3.7066865,0.01463437,-0.86075234,0.5088135,0
-0.90335912,-2.0703025,5.3677845,0.01463437,-0.86075234,0.5088135,0
-3.798595,-4.4333696,1.4220772,-0.96605396,-0.14343573,-0.21486276,0
-3.0752733,-2.6798878,4.3990273,0.01463437,-0.86075234,0.5088135,0
1.5505012,5.6702404,0.70356178,-0.01463437,0.86075234,-0.5088135,0
2.7299538,4.8877063,-0.65416074,-0.01463437,0.86075234,-0.5088135,0
-3.9732721,-0.59099925,0.74045312,-0.9963448,0.030277498,0.079876617,0
-3.2256627,2.63483,-4.2940259,-0.01463437,0.86075234,-0.5088135,0
4.0060883,-0.39972436,0.15866157,0.99975336,0.0040950151,-0.021827184,0
-0.25884509,-2.6755204,4.3254118,0.01463437,-0.86075234,0.5088135,0
2.9798896,-2.8468308,3.9424558,0.01463437,-0.86075234,0.5088135,0
2.7095423,2.6242785,-4.4825835,-0.01463437,0.86075234,-0.5088135,0
0.054705352,1.6065569,3.6965947,0.011851326,0.50898153,0.86069578,0
-0.29764161,-3.0900269,3.6253116,0.01463437,-0.86075234,0.5088135,0
1.9922131,-0.35777617,4.2648182,0.48888081,0.45005593,0.74729198,0
-2.5103631,-1.0100021,4.1732635,-0.63840574,0.38360342,0.66729802,0
-0.82507622,-3.1664743,3.5111561,0.01463437,-0.86075234,0.5088135,0
-3.2395704,-4.4996386,1.3253069,0.01463437,-0.86075234,0.5088135,0
2.9287555,2.2733173,1.802274,0.73583609,0.35381231,0.57737517,0
-0.48045161,-3.9046035,2.252564,0.01463437,-0.86075234,0.5088135,0
0.5808174,2.0093369,-5.4616427,-0.01463437,0.86075234,-0.5088135,0
4.0003242,-0.71516472,0.097082257,0.99743396,-0.023098566,-0.067763463,0
3.6402831,-4.2664638,1.5218894,0.01463437,-0.86075234,0.5088135,0
0.22234799,-0.97652435,5.2195935,0.042783391,0.50894099,0.85973752,0
-0.69236398,-5.8633118,-1.0548611,0.01463437,-0.86075234,0.5088135,0
-3.6454017,3.4070215,-2.9756477,-0.01463437,0.86075234,-0.5088135,0
-3.9367301,4.3202004,-1.4224576,-0.01463437,0.86075234,-0.5088135,0
3.771265,-3.1430063,3.4186578,0.01463437,-0.86075234,0.5088135,0
0.54974383,2.88202,-3.9844449,-0.01463437,0.86075234,-0.5088135,0
1.8819394,-4.2919536,1.5293429,0.01463437,-0.86075234,0.5088135,0
1.1773617,-3.5369959,2.8267581,0.01463437,-0.86075234,0.5088135,0
-0.70202971,1.2722178,-5.3376098,-0.16152728,-0.50421935,-0.84833467,0
0.34717715,5.2056112,-0.047834873,-0.01463437,0.86075234,-0.5088135,0
-1.9408728,-1.5487224,-3.1501391,-0.48412728,-0.4513433,-0.74960649,0
1.4291019,0.86908245,-4.8324766,0.36893168,-0.46831444,-0.8028518,0
-1.7028131,-4.9882655,0.45450449,0.01463437,-0.86075234,0.5088135,0
-2.3353908,4.0577049,-1.9125731,-0.01463437,0.86075234,-0.5088135,0
0.2641823,-1.9002271,5.6219201,0.01463437,-0.86075234,0.5088135,0
-3.5084786,-4.3838143,0.48859811,-0.89164668,-0.2415192,-0.38292921,0
-1.1774842,-4.6347523,1.0374289,0.01463437,-0.86075234,0.5088135,0
-3.3511779,-4.6890893,1.0080261,0.01463437,-0.86075234,0.5088135,0
-1.7343241,-2.9157586,-2.4532537,-0.43810347,-0.46294206,-0.77055174,0
-3.7952156,1.5184827,-2.4921005,-0.93917966,-0.18645155,-0.28840491,0
-2.8807278,-1.8871322,-2.098732,-0.72206372,-0.36110482,-0.59010786,0
-2.3419175,0.81218588,3.2751145,-0.58889306,0.40382969,0.70009041,0
0.051987588,-5.6220264,-0.6680913,0.01463437,-0.86075234,0.5088135,0
2.9520869,2.3781981,-4.4594603,0.75365442,-0.32492152,-0.5713414,0
-2.1477721,3.9938765,-2.0259478,-0.01463437,0.86075234,-0.5088135,0
-3.1528811,-3.5172935,2.9846334,0.01463437,-0.86075234,0.5088135,0
3.9511333,0.36560836,0.50485277,0.98778331,0.091402091,0.12621319,0
-3.97506,3.8066447,-1.3081914,-0.97912931,0.090827763,0.18181349,0
0.8463102,2.8404336,2.8586965,0.21515559,0.49965841,0.83907664,0
