-0.078840569,3.7609062,1.5947509,-0.04514996,0.8217544,0.56805015,0
-2.8076649,0.72165394,1.9274555,-0.12216219,-0.56890416,0.81328005,0
1.8478497,3.128006,0.62127829,0.12216219,0.56890416,-0.81328005,0
-0.80116498,3.629077,0.57387972,0.12216219,0.56890416,-0.81328005,0
2.6841376,1.6935235,-0.25655007,0.12216219,0.56890416,-0.81328005,0
-4.1429706,-0.54204154,0.73960614,-0.99249744,0.065880381,-0.10299776,0
-0.41849375,-2.9592721,-2.6979063,-0.11865642,-0.80516899,-0.58105361,0
1.9440174,-1.9371574,0.78131557,-0.12216219,-0.56890416,0.81328005,0
3.7171283,0.40272558,1.5275395,0.94635767,0.18020178,0.26820603,0
0.40029728,-1.0976326,-2.5520682,0.12216219,0.56890416,-0.81328005,0
3.9687357,-0.3640328,0.34149325,0.99218392,-0.091008201,0.085373312,0
1.158609,0.80583382,2.5821118,-0.12216219,-0.56890416,0.81328005,0
3.7508979,1.5668333,-0.18493533,0.12216219,0.56890416,-0.81328005,0
1.4330571,0.11942458,-1.5455848,0.12216219,0.56890416,-0.81328005,0
-4.018199,-0.02531274,-0.12578869,-0.99224275,0.050984785,-0.11337924,0
2.4904099,3.0153642,1.2859859,0.59286141,0.6153385,0.51949364,0
1.5996065,-0.86441398,-2.2087803,0.12216219,0.56890416,-0.81328005,0
1.2648795,2.3840084,3.1279109,0.34777051,0.7429322,0.57193297,0
-2.9710662,0.91456115,2.0378532,-0.12216219,-0.56890416,0.81328005,0
-1.5644091,-3.5837035,-0.89747143,-0.12216219,-0.56890416,0.81328005,0
2.7425048,1.48864,-0.39110267,0.12216219,0.56890416,-0.81328005,0
4.1304817,0.71237516,-0.57635856,0.99051708,-0.017979413,0.13620789,0
2.2669005,-2.1117918,0.70765579,-0.12216219,-0.56890416,0.81328005,0
3.7707,-1.4883105,0.78379565,0.9739337,-0.22650722,-0.012152061,0
-0.66854835,-4.0496345,-1.0888319,-0.12216219,-0.56890416,0.81328005,0
-2.3071861,-0.06469202,1.452569,-0.12216219,-0.56890416,0.81328005,0
0.94915116,1.9167274,-0.36102629,0.12216219,0.56890416,-0.81328005,0
3.0324116,0.59637451,2.7170541,-0.12216219,-0.56890416,0.81328005,0
2.0149508,0.73605347,-1.0268359,0.12216219,0.56890416,-0.81328005,0
2.3947308,3.240489,0.78210878,0.12216219,0.56890416,-0.81328005,0
0.78641027,-2.8046887,0.00057816505,-0.12216219,-0.56890416,0.81328005,0
-2.4517796,1.9649603,-0.83813763,0.12216219,0.56890416,-0.81328005,0
-2.4414616,3.4723203,0.21783829,0.12216219,0.56890416,-0.81328005,0
0.26629966,-2.6413236,0.036730051,-0.12216219,-0.56890416,0.81328005,0
3.0806394,-0.49557781,-1.728308,0.12216219,0.56890416,-0.81328005,0
-2.0758624,1.8887587,-0.83497572,0.12216219,0.56890416,-0.81328005,0
-1.273192,-2.2457678,-3.3021154,-0.35654643,-0.73956341,-0.5708946,0
3.8391502,1.5344379,0.30918741,0.92648333,0.22851323,0.29901552,0
-1.4038959,-0.073364735,1.5821848,-0.12216219,-0.56890416,0.81328005,0
-1.2556047,-3.4087322,-1.7911887,-0.29448071,-0.76174271,-0.57708651,0
-2.9308877,1.4528184,2.4204092,-0.12216219,-0.56890416,0.81328005,0
1.7471352,-0.31050467,1.8896151,-0.12216219,-0.56890416,0.81328005,0
-2.6478069,-1.1211953,0.6623615,-0.12216219,-0.56890416,0.81328005,0
1.4147308,-0.65282321,-2.0885391,0.12216219,0.56890416,-0.81328005,0
2.7602923,1.5934905,2.557507,0.71561176,0.51730531,0.46935594,0
-2.8551641,2.2233503,1.7870069,-0.69738287,0.63224953,0.33751667,0
-1.093992,2.8798499,0.0057966709,0.12216219,0.56890416,-0.81328005,0
1.3458766,1.7590076,-0.411762,0.12216219,0.56890416,-0.81328005,0
1.695513,-3.4468303,-1.310636,0.44488633,-0.76387388,-0.46751767,0
3.8403153,-0.22880745,-1.4275869,0.12216219,0.56890416,-0.81328005,0
1.6477299,3.7212379,1.0061946,0.12216219,0.56890416,-0.81328005,0
-0.75051546,-3.1664524,-2.3260069,-0.18758619,-0.79141432,-0.58178586,0
0.98873508,-3.0485976,-0.13964939,-0.12216219,-0.56890416,0.81328005,0
3.3662565,-2.4771149,0.31074882,0.87976229,-0.44139123,-0.17661273,0
2.3147717,1.5284462,-0.42750704,0.12216219,0.56890416,-0.81328005,0
3.4063721,1.6252944,-0.19579124,0.12216219,0.56890416,-0.81328005,0
-1.5150912,-0.69374108,-2.5572481,0.12216219,0.56890416,-0.81328005,0
-0.15128797,3.0963044,0.29881334,0.12216219,0.56890416,-0.81328005,0
-0.65206617,-3.935956,-1.2966952,-0.12440524,-0.80417782,-0.58122373,0
2.3315296,-3.5466681,-0.28635836,-0.12216219,-0.56890416,0.81328005,0
-0.47294283,1.6202483,2.9067357,-0.12216219,-0.56890416,0.81328005,0
1.7385674,-3.7614315,-0.52565765,-0.12216219,-0.56890416,0.81328005,0
-0.33834207,-3.0457768,-0.33701539,-0.12216219,-0.56890416,0.81328005,0
-1.6453843,-2.7373247,-2.4171996,-0.41768572,-0.71385461,-0.56209457,0
-2.3940845,-1.8902862,-2.7223499,-0.62436372,-0.59291965,-0.50854325,0
3.9723349,-0.42106712,-1.3992437,0.95082474,-0.30206484,-0.068477154,0
3.6815124,-0.80950713,-1.8576505,0.12216219,0.56890416,-0.81328005,0
3.6928844,0.38873136,-1.0177529,0.12216219,0.56890416,-0.81328005,0
3.203613,2.6983244,0.64644408,0.75812483,0.47536397,0.44640309,0
0.75760168,0.27280617,-1.5397512,0.12216219,0.56890416,-0.81328005,0
1.3797719,0.73309898,-1.1243125,0.12216219,0.56890416,-0.81328005,0
1.981596,-0.86941409,-2.1548998,0.12216219,0.56890416,-0.81328005,0
2.0062904,2.9228559,0.50157094,0.12216219,0.56890416,-0.81328005,0
2.9292626,1.2838879,2.6181769,0.76411009,0.46903732,0.44287652,0
-2.0618312,-2.3510811,-2.5391967,-0.52998471,-0.65542161,-0.5380879,0
1.8675982,3.6547046,0.9926796,0.12216219,0.56890416,-0.81328005,0
1.746429,0.83086658,2.6879191,-0.12216219,-0.56890416,0.81328005,0
-3.7251201,1.6034247,-0.39008403,-0.95492977,0.29072008,0.059924677,0
0.6866796,-3.7593701,-1.4638009,0.19806778,-0.81690878,-0.54169083,0
-3.7976198,1.3220717,-1.1646367,-0.98713428,0.15481438,-0.039981224,0
-1.3994489,3.9206738,0.80381823,-0.39279607,0.78022736,0.48678154,0
1.2137538,1.64977,3.1807442,-0.12216219,-0.56890416,0.81328005,0
-2.9454954,2.3294263,1.3872018,-0.73140216,0.60550976,0.31370163,0
-2.2899017,-3.4387097,-0.98975992,-0.52876931,-0.65614003,-0.53840792,0
0.091164559,-2.1389546,0.36183929,-0.12216219,-0.56890416,0.81328005,0
1.8400196,-3.7386341,-0.49447155,-0.12216219,-0.56890416,0.81328005,0
-2.4590876,2.8033023,-0.25279999,0.12216219,0.56890416,-0.81328005,0
-2.1586835,2.0339873,2.9429395,-0.12216219,-0.56890416,0.81328005,0
4.0275984,1.2909274,-0.33637321,0.12216219,0.56890416,-0.81328005,0
1.5854813,2.653089,2.5682933,0.4081499,0.71812928,0.56365228,0
0.03768529,1.8975754,-0.51133406,0.12216219,0.56890416,-0.81328005,0
-3.5783591,-0.24843657,1.1330943,-0.12216219,-0.56890416,0.81328005,0
-2.8044922,0.54672515,1.8055663,-0.12216219,-0.56890416,0.81328005,0
3.799089,-1.3440998,1.0050323,0.98391449,-0.17702594,0.023960188,0
2.2492249,-2.6330914,0.34034252,-0.12216219,-0.56890416,0.81328005,0
3.3921936,-0.19865823,-1.4738092,0.12216219,0.56890416,-0.81328005,0
-3.7574637,1.2602897,0.58297658,-0.93276429,0.34581587,0.10179463,0
-2.9304605,2.7689614,0.56510806,-0.75575542,0.58447701,0.29533076,0
0.83700788,-3.4966598,-1.802752,0.22210561,-0.81430614,-0.53625959,0
1.0845248,-2.2390015,-3.2476995,0.12216219,0.56890416,-0.81328005,0
-3.8264618,-0.60354185,-0.99695826,-0.95661545,-0.15088546,-0.24923956,0
-3.6823711,1.838742,-0.86451018,-0.96027446,0.27488974,0.048048273,0
1.2809573,3.4319198,0.74871922,0.12216219,0.56890416,-0.81328005,0
2.500648,-1.0016657,1.5193202,-0.12216219,-0.56890416,0.81328005,0
3.6119027,0.38314581,-1.0338242,0.12216219,0.56890416,-0.81328005,0
-2.0234802,0.2993145,1.7498136,-0.12216219,-0.56890416,0.81328005,0
3.1699617,0.46036005,2.6425707,-0.12216219,-0.56890416,0.81328005,0
2.0659323,0.90780497,2.789731,-0.12216219,-0.56890416,0.81328005,0
0.43234923,-0.47615993,1.5762433,-0.12216219,-0.56890416,0.81328005,0
-0.033307523,-3.7747841,-0.80114985,-0.12216219,-0.56890416,0.81328005,0
-3.6537199,-1.4725275,-0.89140368,-0.89635438,-0.28861147,-0.3365297,0
-0.20226134,-0.72257257,-2.3802171,0.12216219,0.56890416,-0.81328005,0
-2.7986822,2.3762662,1.6166823,-0.69036055,0.63742292,0.34219038,0
-3.9668446,0.51658046,-0.098027743,-0.98832136,0.14493072,-0.047073346,0
1.2653034,-1.6622066,0.87169921,-0.12216219,-0.56890416,0.81328005,0
1.5073597,2.4335752,2.9043212,0.40107119,0.72123778,0.56476349,0
1.1660933,1.4513261,-0.65399611,0.12216219,0.56890416,-0.81328005,0
1.9718633,-1.6921549,0.95688224,-0.12216219,-0.56890416,0.81328005,0
-1.2920082,2.4150152,-0.3491075,0.12216219,0.56890416,-0.81328005,0
3.592176,0.78709781,1.6349463,0.91157526,0.25978881,0.31865403,0
0.53307867,-3.2566481,-0.35362816,-0.12216219,-0.56890416,0.81328005,0
-3.0666037,0.47592676,1.71667,-0.12216219,-0.56890416,0.81328005,0
-1.6269963,-2.0847058,-3.2562766,-0.44533736,-0.70088041,-0.5571723,0
3.4406409,-1.034297,1.6376895,-0.12216219,-0.56890416,0.81328005,0
-0.48394519,3.7829161,0.72914219,0.12216219,0.56890416,-0.81328005,0
2.81094,-2.004324,-2.2803507,0.67043269,-0.65151155,-0.35503894,0
1.107366,-1.5046902,-2.7306046,0.12216219,0.56890416,-0.81328005,0
-1.9539173,-2.7178268,-0.35028243,-0.12216219,-0.56890416,0.81328005,0
-3.123502,-0.035075784,1.3506678,-0.12216219,-0.56890416,0.81328005,0
3.7789202,-0.79641724,1.7701645,0.9884361,0.0044329911,0.15157318,0
3.0835547,-2.6013651,-0.48111176,0.79263216,-0.5490827,-0.26503259,0
-4.1047196,-0.15037239,0.75257027,-0.9895606,0.13294151,-0.055646155,0
3.0161951,0.42501974,-1.0940137,0.12216219,0.56890416,-0.81328005,0
-0.40925103,-0.5518589,-2.2918916,0.12216219,0.56890416,-0.81328005,0
-3.0434241,-0.09127605,1.3233832,-0.12216219,-0.56890416,0.81328005,0
2.7541296,-1.1247436,-2.2174656,0.12216219,0.56890416,-0.81328005,0
-0.84320283,3.3574476,0.37755585,0.12216219,0.56890416,-0.81328005,0
-2.6477988,0.1065824,-2.1675506,0.12216219,0.56890416,-0.81328005,0
-3.4766052,-1.0113149,-1.7525057,-0.88213795,-0.31330708,-0.35166928,0
0.3924768,1.3872173,2.8737206,-0.12216219,-0.56890416,0.81328005,0
3.7235694,-1.3537071,-0.56956184,0.92637348,-0.35947096,-0.11230659,0
3.0473289,1.1986319,-0.54818106,0.12216219,0.56890416,-0.81328005,0
-2.1876802,2.7505195,1.9293668,-0.53862572,0.72625637,0.42712289,0
2.1743762,2.4456823,0.19302773,0.12216219,0.56890416,-0.81328005,0
2.1046858,-3.3603077,-0.99596477,0.55196542,-0.71995544,-0.42071152,0
1.1796466,3.4986715,1.7093263,0.27217859,0.76880109,0.57867402,0
-2.2422669,-2.6404181,-0.33944654,-0.12216219,-0.56890416,0.81328005,0
1.0743246,0.65980279,-1.2214653,0.12216219,0.56890416,-0.81328005,0
-0.53746009,3.201246,2.3420992,-0.12980723,0.82153702,0.55518174,0
0.65178865,-1.7251029,-2.9532194,0.12216219,0.56890416,-0.81328005,0
1.988981,-1.234087,-2.408886,0.12216219,0.56890416,-0.81328005,0
-2.3468153,3.5211172,0.35720825,-0.63025397,0.67746842,0.37923145,0
3.9732161,0.83732718,-0.66184336,0.12216219,0.56890416,-0.81328005,0
2.6110454,-0.1552372,-1.560771,0.12216219,0.56890416,-0.81328005,0
-1.1428739,0.8937099,2.2978787,-0.12216219,-0.56890416,0.81328005,0
1.6934904,-3.5255449,-0.36742163,-0.12216219,-0.56890416,0.81328005,0
-0.78044677,-1.3249816,0.80030417,-0.12216219,-0.56890416,0.81328005,0
0.44590804,1.0379145,2.6374028,-0.12216219,-0.56890416,0.81328005,0
2.8269892,-1.3239369,-2.345861,0.12216219,0.56890416,-0.81328005,0
-2.5795999,2.9568484,0.9686358,-0.66259092,0.65682602,0.35993451,0
3.9774237,0.59277415,-0.8322807,0.12216219,0.56890416,-0.81328005,0
1.3096385,2.8553309,0.34969258,0.12216219,0.56890416,-0.81328005,0
-2.1285818,2.7673409,-0.22831035,0.12216219,0.56890416,-0.81328005,0
-1.0665997,-0.044259548,1.6532093,-0.12216219,-0.56890416,0.81328005,0
3.9411709,-0.59833884,-1.043123,0.95507544,-0.29030538,-0.059612736,0
-1.1042402,-0.50543547,-2.3638113,0.12216219,0.56890416,-0.81328005,0
1.5667566,-3.0412183,-2.0782688,0.38706374,-0.78184491,-0.48877418,0
0.095173866,0.066067934,-1.7838712,0.12216219,0.56890416,-0.81328005,0
1.5761679,0.16964459,-1.4889584,0.12216219,0.56890416,-0.81328005,0
2.6444559,-1.6435709,1.091897,-0.12216219,-0.56890416,0.81328005,0
0.87989908,0.18182039,2.1037385,-0.12216219,-0.56890416,0.81328005,0
1.6977779,-3.6915629,-0.48291016,-0.12216219,-0.56890416,0.81328005,0
2.184454,-2.8380351,0.18725109,-0.12216219,-0.56890416,0.81328005,0
-0.5356288,-1.6034672,-3.0464938,0.12216219,0.56890416,-0.81328005,0
-1.674306,2.9137328,2.1947637,-0.40844131,0.77563232,0.48121709,0
-3.2192504,2.7161295,-0.23053002,-0.84571958,0.48853025,0.21470085,0
-3.4072227,2.30726,-0.0904634,-0.88142848,0.43886313,0.17459404,0
0.91250426,-0.72528696,-2.2146673,0.12216219,0.56890416,-0.81328005,0
-2.140903,2.9899704,-0.074427605,0.12216219,0.56890416,-0.81328005,0
-0.32857442,1.2118802,2.6427603,-0.12216219,-0.56890416,0.81328005,0
1.066463,-3.2474914,-0.26710343,-0.12216219,-0.56890416,0.81328005,0
0.045909122,-3.3659346,-2.1657028,0.015996154,-0.8204394,-0.57150948,0
-3.2509737,-1.2994335,0.44707942,-0.12216219,-0.56890416,0.81328005,0
-0.66297954,3.2784171,2.1937265,-0.16574489,0.81960428,0.54843163,0
-1.6072462,1.5253835,-1.0187726,0.12216219,0.56890416,-0.81328005,0
1.4158118,-1.308105,1.1420079,-0.12216219,-0.56890416,0.81328005,0
-2.7700791,-2.8931606,-1.0833056,-0.65882432,-0.56637228,-0.4951492,0
-2.970453,0.77981472,-1.7450781,0.12216219,0.56890416,-0.81328005,0
-2.6058438,-1.548794,0.36955178,-0.12216219,-0.56890416,0.81328005,0
-0.39738834,2.3628352,3.4375377,-0.12216219,-0.56890416,0.81328005,0
2.9104872,-2.0584073,-1.9812541,0.70331675,-0.6277895,-0.33350551,0
-1.1471229,-0.12611532,1.5838548,-0.12216219,-0.56890416,0.81328005,0
1.033644,2.6126614,0.13848424,0.12216219,0.56890416,-0.81328005,0
-3.0519114,-2.6293528,-0.45332241,-0.12216219,-0.56890416,0.81328005,0
-1.4744505,-0.4221518,-2.3611619,0.12216219,0.56890416,-0.81328005,0
0.31495708,2.3124292,-0.17948723,0.12216219,0.56890416,-0.81328005,0
-0.97427225,-3.0506437,-0.43594241,-0.12216219,-0.56890416,0.81328005,0
0.69590795,-0.76997852,-2.2784653,0.12216219,0.56890416,-0.81328005,0
-2.2906315,0.99932384,-1.4894117,0.12216219,0.56890416,-0.81328005,0
-1.6751243,1.9619431,2.9651787,-0.12216219,-0.56890416,0.81328005,0
2.7027071,-2.5311286,-1.5180011,0.67186654,-0.65052611,-0.35413426,0
1.2843887,1.6434786,3.1869531,-0.12216219,-0.56890416,0.81328005,0
-3.3528643,0.946401,2.0027761,-0.12216219,-0.56890416,0.81328005,0
1.4733492,-3.8843966,-0.8007803,0.41044059,-0.77502584,-0.48049265,0
2.8583744,2.8016562,1.06653,0.68174201,0.54742557,0.48533803,0
-0.83725524,-2.3305025,0.088390589,-0.12216219,-0.56890416,0.81328005,0
3.9822304,0.81415749,0.23449337,0.97237903,0.095597416,0.21293245,0
-1.2112967,1.5837719,-0.91845381,0.12216219,0.56890416,-0.81328005,0
-0.62623823,-0.78481519,1.2013237,-0.12216219,-0.56890416,0.81328005,0
-3.7402618,1.2149777,0.87139237,-0.92057711,0.3712163,0.12139332,0
1.8883284,-1.733809,0.91519666,-0.12216219,-0.56890416,0.81328005,0
1.6804069,1.9505287,-0.22754002,0.12216219,0.56890416,-0.81328005,0
-2.228173,-1.965603,-2.8283079,-0.58482808,-0.62079346,-0.52210283,0
2.2749386,0.40901172,-1.216555,0.12216219,0.56890416,-0.81328005,0
-0.4604755,-1.4399736,-2.9208384,0.12216219,0.56890416,-0.81328005,0
3.8566732,-1.084524,0.15661269,0.97251266,-0.23227191,-0.016398028,0
0.025491193,3.1954677,2.4099019,0.010614762,0.81862164,0.57423508,0
0.10880151,1.8019705,3.121237,-0.12216219,-0.56890416,0.81328005,0
1.6123736,3.6421018,0.9455266,0.12216219,0.56890416,-0.81328005,0
-2.3898044,2.8922205,1.4031928,-0.60393381,0.69286567,0.39395571,0
-0.40240109,3.5209117,1.8996115,-0.11309096,0.82205927,0.55805814,0
-0.60243899,0.57467031,2.1558833,-0.12216219,-0.56890416,0.81328005,0
0.0051995814,2.4877446,-0.10337925,0.12216219,0.56890416,-0.81328005,0
-3.5610023,1.3699534,1.4739062,-0.86415839,0.46399856,0.19477084,0
-1.7891626,-3.2987814,-0.7319231,-0.12216219,-0.56890416,0.81328005,0
-3.9189606,-1.5755423,0.15359831,-0.12216219,-0.56890416,0.81328005,0
1.0144997,0.97272313,-1.0115581,0.12216219,0.56890416,-0.81328005,0
0.97065473,3.1474659,2.2705078,0.24075106,0.77795959,0.58035994,0
3.0594707,-2.8693991,0.0046849251,0.80342418,-0.53779346,-0.2555145,0
2.2034168,-3.5669482,-0.31978846,-0.12216219,-0.56890416,0.81328005,0
3.1577485,-2.5056043,0.56599045,-0.12216219,-0.56890416,0.81328005,0
1.4508759,-1.6941302,0.87724316,-0.12216219,-0.56890416,0.81328005,0
-0.38813621,2.6549253,3.1689613,-0.063003615,0.82220972,0.56568688,0
2.18699,-0.15308094,2.0658062,-0.12216219,-0.56890416,0.81328005,0
-2.7364516,-0.99451077,0.73766416,-0.12216219,-0.56890416,0.81328005,0
3.4147186,-1.6723161,-1.3713933,0.83593297,-0.50072491,-0.22470129,0
-3.5249879,-0.74355614,-1.8586228,-0.90134114,-0.27946645,-0.33088157,0
-2.5279443,0.89725137,2.0923061,-0.12216219,-0.56890416,0.81328005,0
-2.5794158,1.084892,-1.4729335,0.12216219,0.56890416,-0.81328005,0
3.7153218,-1.4591894,-0.29341662,0.933034,-0.34522176,-0.10133857,0
3.5723963,-2.0637631,0.45626402,0.92696059,-0.35824877,-0.11136347,0
3.4449415,0.68977952,2.1170652,0.8889817,0.30165821,0.34454864,0
-0.79618394,-2.7824607,-2.8302569,-0.2180292,-0.78401923,-0.58118564,0
2.4357784,-1.9497654,-2.8424029,0.12216219,0.56890416,-0.81328005,0
-1.9557678,-2.6661708,-2.2521696,-0.49126083,-0.6773417,-0.54760474,0
3.7577307,-1.2343941,-0.66746938,0.93028152,-0.35121512,-0.10594448,0
3.0783942,0.754529,-0.85417283,0.12216219,0.56890416,-0.81328005,0
-3.455214,-2.0334907,-0.84741259,-0.83662927,-0.38182366,-0.39276201,0
-2.4505126,-1.9040926,-2.6360867,-0.63587779,-0.58429557,-0.5042401,0
1.1901479,-0.37444186,1.7612252,-0.12216219,-0.56890416,0.81328005,0
2.1863453,-0.41208243,1.8845332,-0.12216219,-0.56890416,0.81328005,0
-1.2658588,-3.7233214,-1.3700142,-0.28107896,-0.7660405,-0.57807982,0
-1.2266858,1.2781584,-1.1345475,0.12216219,0.56890416,-0.81328005,0
-1.5870442,2.3251781,-0.45626736,0.12216219,0.56890416,-0.81328005,0
-1.6123807,2.7996817,2.428488,-0.38540423,0.78230655,0.48934633,0
-0.63352132,-0.11168575,1.671096,-0.12216219,-0.56890416,0.81328005,0
-1.1707302,0.80940557,2.2347224,-0.12216219,-0.56890416,0.81328005,0
-0.56484973,1.1757989,2.5820298,-0.12216219,-0.56890416,0.81328005,0
-2.4152067,-3.3087978,-1.0188274,-0.56260729,-0.63535875,-0.52895373,0
3.8528733,-0.77563882,1.211179,0.99240339,-0.057996184,0.10849878,0
3.8404615,0.60244668,0.94335043,0.95875067,0.14425623,0.24492303,0
-2.9312611,-1.2821393,-2.6165783,-0.76459289,-0.46852204,-0.44258863,0
0.29307604,2.3210518,3.5120232,-0.12216219,-0.56890416,0.81328005,0
1.7664055,2.5222278,2.5939963,0.45561796,0.69583178,0.55518502,0
-3.0120666,0.2666657,1.5784804,-0.12216219,-0.56890416,0.81328005,0
-1.5021647,3.6906319,0.51164198,0.12216219,0.56890416,-0.81328005,0
-3.4536076,2.2345281,-0.80005372,0.12216219,0.56890416,-0.81328005,0
-3.126775,1.7804567,-1.0685916,0.12216219,0.56890416,-0.81328005,0
1.0054977,2.6405196,2.9313188,0.27455306,0.76807189,0.5785206,0
-2.4079645,3.3520186,0.55720162,-0.63740766,0.67307162,0.3750813,0
1.3675122,-0.40585208,1.7658951,-0.12216219,-0.56890416,0.81328005,0
-1.7433851,3.0677249,1.8840566,-0.43584627,0.76693124,0.47101414,0
-0.50861281,-3.766881,-0.86701727,-0.12216219,-0.56890416,0.81328005,0
-2.7049811,-2.6554329,-1.4417794,-0.65582699,-0.56877124,-0.49637705,0
2.2157526,-2.4275715,0.47907925,-0.12216219,-0.56890416,0.81328005,0
1.5161253,-2.7092292,-2.6443782,0.35476559,-0.79031175,-0.49954832,0
-2.7498724,2.7042959,1.1036327,-0.69678277,0.63269609,0.33791924,0
-3.8124549,0.76252162,-1.5416476,-0.99042988,0.016850792,-0.13698429,0
3.7272267,-1.5902268,0.3597244,0.95446527,-0.29203677,-0.06091553,0
3.8303423,1.7510362,0.1665113,0.91700709,0.24878696,0.31177393,0
1.3306303,3.3552268,1.82195,0.31465089,0.75495028,0.57536495,0
-1.9438334,2.681844,2.3213897,-0.46764344,0.75575268,0.45841831,0
-2.8330221,0.21055734,1.5661255,-0.12216219,-0.56890416,0.81328005,0
1.2535436,1.5342371,-0.58286238,0.12216219,0.56890416,-0.81328005,0
3.0798023,1.4207208,2.2064538,0.78857952,0.44193465,0.42759317,0
-4.0935283,-0.64390582,0.3239125,-0.98887658,-0.00028568506,-0.14873824,0
-3.0440753,-2.2276587,-0.17115307,-0.12216219,-0.56890416,0.81328005,0
-0.29638368,-0.12116861,1.7151039,-0.12216219,-0.56890416,0.81328005,0
0.84879243,-3.0707948,-2.4428947,0.20170866,-0.81654763,-0.54089129,0
1.9579906,1.1942079,2.9738612,-0.12216219,-0.56890416,0.81328005,0
-3.297914,-2.3745513,-0.31203604,-0.12216219,-0.56890416,0.81328005,0
0.46456018,-1.2862322,-2.6743445,0.12216219,0.56890416,-0.81328005,0
-2.6681488,3.2433872,0.26154876,-0.70693898,0.62502605,0.33102822,0
0.5962972,1.9779134,-0.3712275,0.12216219,0.56890416,-0.81328005,0
0.18879148,-2.41784,0.18141818,-0.12216219,-0.56890416,0.81328005,0
0.5334996,3.5763738,1.8192358,0.11443245,0.80587935,0.58091605,0
3.1508372,-2.5941815,-0.28466797,0.8139562,-0.5263145,-0.24590284,0
0.049000017,3.0127108,2.6691642,0.026019152,0.81730008,0.57562459,0
-2.2705503,3.4818554,0.5489583,-0.60602731,0.69168442,0.39281487,0
2.9108794,2.6668997,1.1423876,0.69889784,0.53250217,0.47747588,0
-2.1060505,1.5585256,-1.0705144,0.12216219,0.56890416,-0.81328005,0
2.2192979,2.5212951,0.25266743,0.12216219,0.56890416,-0.81328005,0
-1.0900309,3.9172385,0.73206377,0.12216219,0.56890416,-0.81328005,0
3.1086211,-2.4205725,-0.78029776,0.78823292,-0.55355531,-0.26882207,0
-2.566766,0.99738717,-1.5322444,0.12216219,0.56890416,-0.81328005,0
-3.4559879,2.1669245,0.013325453,-0.8884216,0.42798671,0.16593531,0
1.4578772,1.5623326,3.1562493,-0.12216219,-0.56890416,0.81328005,0
-3.4175553,-0.33959913,-2.4919906,-0.89763397,-0.28629056,-0.33509833,0
-3.2355876,-1.9958982,-1.3241367,-0.79503614,-0.43442571,-0.4233104,0
-0.14876111,1.6187279,-0.73439872,0.12216219,0.56890416,-0.81328005,0
2.3458562,-3.2219844,-0.057084084,-0.12216219,-0.56890416,0.81328005,0
-1.3694726,0.76232719,2.171937,-0.12216219,-0.56890416,0.81328005,0
2.974982,-2.6581998,-0.66969371,0.76219761,-0.57861954,-0.29026574,0
-0.43040916,-3.8173852,-0.8905983,-0.12216219,-0.56890416,0.81328005,0
-2.6995194,-1.7433386,0.21939301,-0.12216219,-0.56890416,0.81328005,0
3.4824781,0.45906258,2.2143183,0.90465009,0.27324402,0.32702592,0
0.82837272,1.5991282,3.0874314,-0.12216219,-0.56890416,0.81328005,0
-3.576067,-1.275156,-1.2662078,-0.88996953,-0.29994118,-0.34349594,0
3.8496895,-1.1155984,0.18339652,0.97199786,-0.23430678,-0.017898783,0
-2.9955077,-1.9404173,-1.8060212,-0.74884492,-0.48495531,-0.45171833,0
-3.9996564,-0.36196834,-0.28850251,-0.98586851,-0.025082529,-0.16563225,0
-3.4305346,-2.0640562,-0.11475992,-0.12216219,-0.56890416,0.81328005,0
-1.0635722,3.9432545,0.7542367,0.12216219,0.56890416,-0.81328005,0
-0.91169256,-1.8637612,-3.2850623,0.12216219,0.56890416,-0.81328005,0
3.9252367,-0.59937745,0.59264624,0.99179858,-0.10099536,0.078329235,0
3.0101249,-2.717041,-0.45618153,0.77717769,-0.56448251,-0.27812648,0
2.2481365,-3.3968809,-0.19410563,-0.12216219,-0.56890416,0.81328005,0
-3.5690467,0.55221748,-1.9942002,0.12216219,0.56890416,-0.81328005,0
-2.0090632,3.5059292,0.87001562,-0.53407502,0.72834826,0.42926979,0
0.0029864088,-2.3873496,-3.5139287,0.12216219,0.56890416,-0.81328005,0
-0.093513563,2.3748322,3.491574,-0.12216219,-0.56890416,0.81328005,0
4.1333747,0.63761503,-0.61354244,0.99160498,-0.034971677,0.1244849,0
1.6156271,1.321643,-0.67718768,0.12216219,0.56890416,-0.81328005,0
-2.9744918,-1.5289344,-2.2805943,-0.7626062,-0.47063768,-0.44377011,0
-1.1964717,-0.40980875,1.3779931,-0.12216219,-0.56890416,0.81328005,0
3.9079082,-0.81486624,-0.4707042,0.96486366,-0.26012799,-0.037032783,0
1.95794,-3.2530692,-0.13709712,-0.12216219,-0.56890416,0.81328005,0
1.8770156,2.6566753,0.29595494,0.12216219,0.56890416,-0.81328005,0
3.8235312,-0.17031908,1.3883806,0.97906137,0.0653622,0.19278611,0
-3.8981655,0.39912844,-0.9656812,-0.99091804,0.023516729,-0.13239467,0
2.4783061,2.0089204,-0.066842318,0.12216219,0.56890416,-0.81328005,0
-0.97567075,-0.27677107,-2.1845441,0.12216219,0.56890416,-0.81328005,0
-1.4537868,1.6704377,-0.89425397,0.12216219,0.56890416,-0.81328005,0
2.1546102,-0.42506385,-1.8180803,0.12216219,0.56890416,-0.81328005,0
-0.32825992,3.5073495,0.55976391,0.12216219,0.56890416,-0.81328005,0
-3.9297576,-1.5725051,0.011668444,-0.94016635,-0.1962624,-0.27851078,0
-2.5696299,-0.12291384,-2.3163457,0.12216219,0.56890416,-0.81328005,0
1.9179806,1.4075272,3.1170721,-0.12216219,-0.56890416,0.81328005,0
1.6193483,0.60551178,-1.1775755,0.12216219,0.56890416,-0.81328005,0
-3.1121163,-2.6738377,-0.49348378,-0.12216219,-0.56890416,0.81328005,0
-2.3168478,1.2260261,2.3539984,-0.12216219,-0.56890416,0.81328005,0
3.8623531,-0.2339257,1.1952357,0.98492986,0.031591624,0.1700445,0
2.1560822,-2.4134364,0.48000407,-0.12216219,-0.56890416,0.81328005,0
-2.188185,-0.24361646,1.345283,-0.12216219,-0.56890416,0.81328005,0
-1.4539851,-2.7107298,-2.5854385,-0.37519079,-0.7321434,-0.56850463,0
-1.3111211,-1.2679024,-2.928246,0.12216219,0.56890416,-0.81328005,0
-0.99348152,0.90126657,2.3256049,-0.12216219,-0.56890416,0.81328005,0
2.3417609,1.0622678,-0.74955308,0.12216219,0.56890416,-0.81328005,0
-2.9851151,-1.4309653,-2.3657706,-0.76904017,-0.46374017,-0.43991154,0
-1.8803872,-2.2571092,-2.8257313,-0.49405035,-0.67582798,-0.54696482,0
-1.6059566,-2.025795,0.18607306,-0.12216219,-0.56890416,0.81328005,0
0.09689755,0.14136958,-1.7309375,0.12216219,0.56890416,-0.81328005,0
3.7791338,-1.4100431,0.35555309,0.96401411,-0.26295441,-0.039137527,0
-1.3505547,1.4992235,2.6902509,-0.12216219,-0.56890416,0.81328005,0
3.8520265,1.0085254,-0.56029129,0.12216219,0.56890416,-0.81328005,0
-2.0639699,-1.76546,-3.2461021,-0.55824453,-0.63813096,-0.53023762,0
-2.2719994,-0.08967936,1.4403752,-0.12216219,-0.56890416,0.81328005,0
2.3496487,-1.470135,-2.5198298,0.12216219,0.56890416,-0.81328005,0
0.52618569,-4.0993242,-1.0078788,0.17577387,-0.81886572,-0.54640853,0
3.5436203,-1.2321889,1.5147291,-0.12216219,-0.56890416,0.81328005,0
2.3184745,1.0215251,2.9072144,-0.12216219,-0.56890416,0.81328005,0
-2.2684844,1.8836813,2.8213048,-0.12216219,-0.56890416,0.81328005,0
3.8158927,-1.2717187,0.84399021,0.98279518,-0.18370688,0.019118622,0
-3.7485106,0.55362391,-1.8990209,-0.97992933,-0.060919404,-0.18980868,0
-3.6326311,-0.59012806,-1.6707134,-0.92584872,-0.22991806,-0.29990289,0
2.4815664,-2.291677,0.61406779,-0.12216219,-0.56890416,0.81328005,0
-1.1982617,-3.7964325,-1.3045497,-0.26153558,-0.77200484,-0.57931644,0
-1.7924874,1.6702776,-0.94524181,0.12216219,0.56890416,-0.81328005,0
-0.19530645,-2.4026821,-3.5125329,-0.093596563,-0.80916226,-0.58008265,0
0.53987098,1.2694266,2.8134627,-0.12216219,-0.56890416,0.81328005,0
-1.1792465,-1.615467,0.53720045,-0.12216219,-0.56890416,0.81328005,0
3.9058859,0.63190973,-0.81565034,0.12216219,0.56890416,-0.81328005,0
0.065733016,-1.4989898,0.805686,-0.12216219,-0.56890416,0.81328005,0
3.1145482,-0.15117645,-1.4822998,0.12216219,0.56890416,-0.81328005,0
3.5416749,1.9195404,0.76541615,0.85786515,0.35156941,0.37478846,0
-0.9939872,2.8699458,2.6892645,-0.22785661,0.81360686,0.53490669,0
1.1070018,-1.7664156,0.77502513,-0.12216219,-0.56890416,0.81328005,0
-0.069984443,1.065942,2.5795164,-0.12216219,-0.56890416,0.81328005,0
3.9595778,0.88408947,0.30094874,0.96723592,0.11550242,0.22608382,0
2.2451286,1.7296422,3.0885665,0.59956777,0.61070496,0.51725978,0
1.7017983,0.77589607,-1.0460037,0.12216219,0.56890416,-0.81328005,0
-3.4035654,-0.34893215,1.0890516,-0.12216219,-0.56890416,0.81328005,0
-3.5490439,1.4018034,-1.3968953,0.12216219,0.56890416,-0.81328005,0
2.6974912,-1.1469809,1.4472369,-0.12216219,-0.56890416,0.81328005,0
2.5771918,-2.5221164,-1.7587924,0.63481867,-0.67467368,-0.37659091,0
-0.67339164,2.6496511,3.1264741,-0.13421687,0.82135957,0.55439526,0
-0.013546593,-2.0111358,-3.2532439,0.12216219,0.56890416,-0.81328005,0
-3.780339,-1.5788693,-0.4507432,-0.91474396,-0.25342155,-0.31467599,0
-2.7299151,1.4798115,-1.2192866,0.12216219,0.56890416,-0.81328005,0
-2.0182943,2.0150261,2.9507639,-0.12216219,-0.56890416,0.81328005,0
2.1861863,-2.5340915,-2.2980752,0.52533954,-0.73228365,-0.43333495,0
-0.57193887,0.063294888,1.8027484,-0.12216219,-0.56890416,0.81328005,0
3.7372916,0.16087079,1.6071002,0.95750159,0.14815971,0.24746603,0
-3.2168961,-2.0219975,-1.3321455,-0.79017842,-0.44008982,-0.42654288,0
-0.27373642,-3.5047622,-1.9573712,-0.055136047,-0.81426203,-0.57787299,0
3.3994589,-2.2314792,-0.13507819,0.87259775,-0.452003,-0.18511203,0
3.1815975,0.99810874,-0.66828251,0.12216219,0.56890416,-0.81328005,0
-2.5266974,-2.8089757,-1.4871435,-0.61038029,-0.60307813,-0.51354885,0
-0.52539456,3.2692699,0.3636117,0.12216219,0.56890416,-0.81328005,0
3.8240888,1.4941119,-0.22481108,0.12216219,0.56890416,-0.81328005,0
2.9892876,1.8350556,1.9293287,0.75220644,0.48151097,0.44981402,0
1.2509812,-3.5210991,-0.43078041,-0.12216219,-0.56890416,0.81328005,0
2.2689767,-0.93995857,-2.1610796,0.12216219,0.56890416,-0.81328005,0
-0.2262907,-2.4542222,0.093619108,-0.12216219,-0.56890416,0.81328005,0
-1.0105311,-0.7064383,-2.4903407,0.12216219,0.56890416,-0.81328005,0
-2.5474083,0.46137857,-1.9042844,0.12216219,0.56890416,-0.81328005,0
2.0101557,-2.8853247,-1.9130483,0.49765438,-0.74407816,-0.44574392,0
1.8468653,1.8026519,-0.30597901,0.12216219,0.56890416,-0.81328005,0
1.974068,1.5129955,3.1992741,-0.12216219,-0.56890416,0.81328005,0
3.0242286,2.6403272,1.000705,0.72375488,0.5096513,0.46522504,0
-2.7549374,-0.10211372,-2.3296306,0.12216219,0.56890416,-0.81328005,0
2.6888158,-0.84111249,1.6598943,-0.12216219,-0.56890416,0.81328005,0
2.6075222,-0.92824435,-2.1020327,0.12216219,0.56890416,-0.81328005,0
3.9839854,-0.42189002,-1.2112094,0.95837861,-0.28065658,-0.052367032,0
-1.6277816,1.8351216,2.8835757,-0.12216219,-0.56890416,0.81328005,0
1.4286025,0.41669178,2.3504555,-0.12216219,-0.56890416,0.81328005,0
3.8242223,-0.27846122,1.418133,0.98184961,0.050506219,0.1828129,0
-0.1571545,-3.3465049,-0.52016354,-0.12216219,-0.56890416,0.81328005,0
0.23208694,0.67391872,2.3506632,-0.12216219,-0.56890416,0.81328005,0
-3.5941465,0.61566138,-1.9535906,0.12216219,0.56890416,-0.81328005,0
-3.2025347,-2.3468544,-0.27833462,-0.12216219,-0.56890416,0.81328005,0
1.252538,0.2059319,2.1765788,-0.12216219,-0.56890416,0.81328005,0
-2.505827,3.1877549,0.68257046,-0.65554017,0.66149849,0.36426198,0
-0.87391973,-1.8389034,0.42676592,-0.12216219,-0.56890416,0.81328005,0
-3.2065711,2.1110313,1.1283631,-0.7983315,0.54317838,0.26004636,0
-1.0773762,-2.3967185,-3.2176533,-0.30360246,-0.7587195,-0.57634199,0
-0.90837944,2.7055495,-0.088248968,0.12216219,0.56890416,-0.81328005,0
3.6217084,1.0799708,-0.5449096,0.12216219,0.56890416,-0.81328005,0
-2.4688897,-1.9838248,-2.52052,-0.63614774,-0.58409053,-0.50413728,0
1.9338086,-0.39721632,1.8569988,-0.12216219,-0.56890416,0.81328005,0
2.9275796,2.2222438,1.6090517,0.72232741,0.51100534,0.46595776,0
-2.4389284,2.0333667,2.8268707,-0.56574786,0.7131744,0.41389787,0
-2.5784502,2.8042905,-0.27003813,0.12216219,0.56890416,-0.81328005,0
0.018722653,0.70426416,-1.3489251,0.12216219,0.56890416,-0.81328005,0
-3.1956861,1.366927,2.3205514,-0.12216219,-0.56890416,0.81328005,0
0.30633244,3.415786,0.59103489,0.12216219,0.56890416,-0.81328005,0
-2.0662813,-3.0883188,-1.6307678,-0.49570781,-0.67492396,-0.54658151,0
-1.8423212,0.12902784,-2.0308592,0.12216219,0.56890416,-0.81328005,0
-0.18164247,2.8790321,2.8606732,-0.023701631,0.82085586,0.57064331,0
-3.6519351,1.8615162,-0.51905179,-0.94459414,0.31817079,0.080679446,0
-3.1705148,2.7760746,-0.17992234,-0.83350205,0.5036732,0.22712886,0
-2.515363,-2.2286117,-0.092401981,-0.12216219,-0.56890416,0.81328005,0
1.9495091,0.46758199,2.4642994,-0.12216219,-0.56890416,0.81328005,0
3.9287429,-0.64360529,-1.020478,0.95336372,-0.29512411,-0.063240588,0
1.1346929,-2.2983766,-3.2816978,0.12216219,0.56890416,-0.81328005,0
-0.067726821,-0.21795487,-2.0070198,0.12216219,0.56890416,-0.81328005,0
1.528661,-0.12704396,1.9851325,-0.12216219,-0.56890416,0.81328005,0
3.9079008,-0.85335332,-0.0099332333,0.9769752,-0.21333833,-0.0024833083,0
3.888413,0.53327835,0.78456974,0.9678176,0.11336152,0.22467357,0
2.1832449,-3.1340828,-1.2795379,0.56033814,-0.71586949,-0.4165957,0
2.3033059,-0.34696841,-1.7411158,0.12216219,0.56890416,-0.81328005,0
-2.8423834,2.6871634,0.93621349,-0.72342598,0.61204129,0.31946868,0
2.9984434,1.9366935,1.8051465,0.74961084,0.48417339,0.45128661,0
-3.5573192,-1.9959786,-0.65790391,-0.85771942,-0.35178638,-0.37491834,0
-0.74645412,-1.9119632,0.39480591,-0.12216219,-0.56890416,0.81328005,0
3.0356472,2.2518623,1.4048073,0.74335349,0.49051088,0.45477974,0
-3.2668834,-1.6319187,-1.632273,-0.81672084,-0.40797967,-0.40806824,0
-1.3412101,-1.448724,-3.0592539,0.12216219,0.56890416,-0.81328005,0
1.4528996,3.1903014,0.60552979,0.12216219,0.56890416,-0.81328005,0
-0.13513665,-0.97975993,-2.5500412,0.12216219,0.56890416,-0.81328005,0
0.10203047,3.3778548,0.53381348,0.12216219,0.56890416,-0.81328005,0
-2.5301442,0.73727679,1.9800702,-0.12216219,-0.56890416,0.81328005,0
-3.6524494,0.71494007,-1.8929009,0.12216219,0.56890416,-0.81328005,0
0.5299148,0.3996098,2.2035151,-0.12216219,-0.56890416,0.81328005,0
1.4769638,3.2924671,0.68061113,0.12216219,0.56890416,-0.81328005,0
-2.3763881,-1.8459674,-2.7957282,-0.62259823,-0.59422094,-0.50918835,0
3.3672705,-2.4429712,0.23075938,0.87743205,-0.44488809,-0.17940885,0
0.67916703,-2.1341362,0.45353293,-0.12216219,-0.56890416,0.81328005,0
-0.48252529,-3.1241913,-2.4561322,-0.12555481,-0.8039763,-0.58125544,0
3.4417984,-2.0894008,-0.28149867,0.87691939,-0.44565147,-0.18001983,0
-1.6796894,0.69530845,2.078459,-0.12216219,-0.56890416,0.81328005,0
1.1075125,3.814759,0.99046898,0.12216219,0.56890416,-0.81328005,0
-1.4010186,-3.348223,-0.7082057,-0.12216219,-0.56890416,0.81328005,0
-3.5985193,-0.97489971,0.62189209,-0.12216219,-0.56890416,0.81328005,0
1.1114527,-0.62811887,1.5719529,-0.12216219,-0.56890416,0.81328005,0
-3.2473223,-1.5625319,0.26358604,-0.12216219,-0.56890416,0.81328005,0
4.0072742,-0.38764578,-0.77024418,0.97447169,-0.22426468,-0.010502547,0
0.098877147,-0.87167871,1.2494801,-0.12216219,-0.56890416,0.81328005,0
4.107698,0.63612086,-0.4213782,0.99008048,-0.012550622,0.13993984,0
0.81355089,1.6038756,3.0885258,-0.12216219,-0.56890416,0.81328005,0
-2.8422124,2.8427615,-0.28274608,0.12216219,0.56890416,-0.81328005,0
-2.7606518,-0.47250831,1.0991794,-0.12216219,-0.56890416,0.81328005,0
-2.8295512,0.3239795,1.6459876,-0.12216219,-0.56890416,0.81328005,0
-2.2602839,2.7152369,1.8955605,-0.55673242,0.71764171,0.41837692,0
-3.3108017,1.5548457,1.9696031,-0.79344207,0.54825139,0.26432943,0
-3.8286226,1.1089898,0.35800195,-0.95324767,0.29544666,0.0634837,0
-3.3415496,-0.17272949,1.2216239,-0.12216219,-0.56890416,0.81328005,0
-0.59923744,-1.5669867,0.65823627,-0.12216219,-0.56890416,0.81328005,0
-3.9854279,-1.1412224,-0.056098223,-0.96305275,-0.13020936,-0.23574322,0
0.90799522,3.8308074,0.97172546,0.12216219,0.56890416,-0.81328005,0
-0.84154278,-3.862133,-1.3496094,-0.17366441,-0.79452378,-0.58186984,0
-3.4074554,-1.2380397,-1.7118009,-0.86015821,-0.34813645,-0.37273151,0
0.94479549,-0.46579003,1.6604713,-0.12216219,-0.56890416,0.81328005,0
4.075685,0.00073522329,-0.59619534,0.98889416,-0.13965093,0.050852694,0
-0.97200602,-1.0006096,-2.6903317,0.12216219,0.56890416,-0.81328005,0
-1.5049154,1.1827338,2.4456744,-0.12216219,-0.56890416,0.81328005,0
3.5657291,1.5114931,1.0830202,0.87876737,0.31889307,0.35507044,0
-2.9296966,0.16826117,1.5220172,-0.12216219,-0.56890416,0.81328005,0
-2.5558467,2.2948399,2.1983292,-0.61469591,0.68671441,0.38803607,0
-3.1102839,0.60702682,-1.88695,0.12216219,0.56890416,-0.81328005,0
2.7512496,-0.38426149,-1.6999178,0.12216219,0.56890416,-0.81328005,0
1.2092276,-2.9698963,-2.43031,0.28903219,-0.80429387,-0.51920283,0
-1.3646239,1.8768299,2.95228,-0.12216219,-0.56890416,0.81328005,0
-3.8778422,0.91962343,-0.72360879,-0.98894387,0.13917296,-0.051194496,0
3.3566856,-1.1171347,-2.1216338,0.12216219,0.56890416,-0.81328005,0
2.4297705,0.10802376,-1.4038444,0.12216219,0.56890416,-0.81328005,0
-3.1809962,0.54340172,1.7466872,-0.12216219,-0.56890416,0.81328005,0
-3.9092231,0.63947332,1.2860198,-0.94188935,0.32480139,0.085723937,0
1.1068352,-3.6409187,-0.53624868,-0.12216219,-0.56890416,0.81328005,0
3.828378,0.39295036,1.110931,0.96357715,0.12842704,0.23457524,0
-2.152112,-1.0690441,-2.9154656,0.12216219,0.56890416,-0.81328005,0
1.7919226,3.4040909,1.4615197,0.41845155,0.71350688,0.56196636,0
4.0403938,0.055521727,-1.1986398,0.12216219,0.56890416,-0.81328005,0
-0.36215189,3.7558155,0.72847939,0.12216219,0.56890416,-0.81328005,0
-3.3621256,-0.22636175,-2.5077496,0.12216219,0.56890416,-0.81328005,0
3.4599621,-2.3432591,0.48047805,0.90472919,-0.40075362,-0.14443567,0
-3.9915609,-0.2736097,-0.34898216,-0.98691225,-0.017278537,-0.16032998,0
3.4735999,-1.4901044,-1.5569491,0.84265882,-0.49240157,-0.21786863,0
-0.25331017,-1.0414717,1.0778049,-0.12216219,-0.56890416,0.81328005,0
0.12223582,0.77094698,2.4020352,-0.12216219,-0.56890416,0.81328005,0
2.7049146,1.360949,2.898226,0.71447706,0.51835853,0.46992224,0
3.514497,-1.5874759,-1.1620395,0.86423111,-0.46389735,-0.1946891,0
-2.542356,1.6632522,2.6259727,-0.12216219,-0.56890416,0.81328005,0
1.2241936,2.9180777,2.4537175,0.31172597,0.75595963,0.57563162,0
-2.70649,-1.8986536,-2.2977686,-0.6906085,-0.53979534,-0.48133242,0
1.87079,1.8896437,3.2872436,0.50953448,0.66724414,0.5432862,0
-1.6278245,0.99226594,2.2939763,-0.12216219,-0.56890416,0.81328005,0
-3.0897388,1.7318676,-1.0970176,0.12216219,0.56890416,-0.81328005,0
-2.1807277,1.1123322,-1.3938519,0.12216219,0.56890416,-0.81328005,0
-0.27694744,-0.4431386,-2.1959662,0.12216219,0.56890416,-0.81328005,0
3.2373724,-1.7991403,-1.6823771,0.78673732,-0.55505937,-0.27009881,0
2.2877271,-3.0336523,-1.3076253,0.58362633,-0.70395213,-0.4047612,0
0.53887129,1.3534653,2.8720996,-0.12216219,-0.56890416,0.81328005,0
0.06993039,3.4143786,2.097003,0.0099834669,0.81867152,0.57417512,0
3.8699448,-1.0043986,-0.12129354,0.9674862,-0.25109965,-0.030323386,0
-1.6027012,-1.7302785,-3.2954843,0.12216219,0.56890416,-0.81328005,0
0.81823123,-2.2597992,-3.3022475,0.12216219,0.56890416,-0.81328005,0
3.778265,-0.34828615,-1.5204853,0.12216219,0.56890416,-0.81328005,0
-1.1660537,3.3395841,0.31656408,0.12216219,0.56890416,-0.81328005,0
1.7481263,-2.3042097,-3.1133764,0.3932142,-0.78010803,-0.48663527,0
0.87060845,1.7233605,3.1806784,-0.12216219,-0.56890416,0.81328005,0
-1.711319,3.2500372,0.17202115,0.12216219,0.56890416,-0.81328005,0
0.88863522,2.3865426,3.3231606,0.25991878,0.77248234,0.57940751,0
-3.9017298,0.8817057,-0.11269337,-0.97899383,0.20384094,-0.0044634938,0
-1.0662427,-2.7196262,-0.21820474,-0.12216219,-0.56890416,0.81328005,0
-0.53247839,4.0195913,1.1253147,-0.17302135,0.81907713,0.54696983,0
3.3658204,2.5456953,0.44195437,0.12216219,0.56890416,-0.81328005,0
1.904974,-0.8362608,1.545548,-0.12216219,-0.56890416,0.81328005,0
2.7387903,0.38129163,-1.1662709,0.12216219,0.56890416,-0.81328005,0
0.75117987,-1.3491279,1.0134776,-0.12216219,-0.56890416,0.81328005,0
1.634671,-3.3477521,-1.5277939,0.42278758,-0.77118254,-0.47594965,0
1.3823104,2.740092,0.27999711,0.12216219,0.56890416,-0.81328005,0
3.9000847,-0.88180965,-0.14005417,0.97231281,-0.23306516,-0.016982913,0
0.034863129,1.0797694,2.604938,-0.12216219,-0.56890416,0.81328005,0
0.86581999,-3.4327927,-1.8877416,0.22598054,-0.8138383,-0.5353502,0
3.5788629,2.1797409,0.2179637,0.12216219,0.56890416,-0.81328005,0
0.44118643,-2.0114174,-3.1851358,0.12216219,0.56890416,-0.81328005,0
0.91208553,-0.62111616,-2.1418612,0.12216219,0.56890416,-0.81328005,0
-2.664758,0.34460592,-2.0035963,0.12216219,0.56890416,-0.81328005,0
2.9926128,0.97908831,2.8236661,0.79011101,0.44016784,0.4265874,0
-1.2614195,3.4904699,0.40778685,0.12216219,0.56890416,-0.81328005,0
-3.2134643,2.0409968,1.2533364,-0.79570812,0.54591179,0.26235247,0
-0.57677543,2.3440986,-0.29128051,0.12216219,0.56890416,-0.81328005,0
0.11528622,1.1840519,-0.9988001,0.12216219,0.56890416,-0.81328005,0
2.4091189,1.4740586,3.1857686,0.64680851,0.57588315,0.49999726,0
-2.037612,-2.9482033,-0.52400684,-0.12216219,-0.56890416,0.81328005,0
2.4346368,-0.33020663,-1.7096634,0.12216219,0.56890416,-0.81328005,0
2.3513296,-1.2450116,-2.3620996,0.12216219,0.56890416,-0.81328005,0
-3.5948336,1.182927,-1.5568814,0.12216219,0.56890416,-0.81328005,0
-0.25720102,1.4839718,-0.84495187,0.12216219,0.56890416,-0.81328005,0
-2.5449712,0.054337263,1.5001147,-0.12216219,-0.56890416,0.81328005,0
2.7968371,-2.3077345,0.65019166,-0.12216219,-0.56890416,0.81328005,0
1.962122,3.0662322,0.59523106,0.12216219,0.56890416,-0.81328005,0
1.2584928,-1.0936956,1.2683601,-0.12216219,-0.56890416,0.81328005,0
3.0617754,-1.1153589,-2.1646898,0.12216219,0.56890416,-0.81328005,0
3.7551422,-1.0661736,-1.2075491,0.91330671,-0.38519707,-0.13226518,0
1.054304,3.2682607,0.60019112,0.12216219,0.56890416,-0.81328005,0
-0.52903074,-3.0332522,-2.5709734,-0.14144012,-0.80107528,-0.58161229,0
3.1135838,-1.3473781,1.3695565,-0.12216219,-0.56890416,0.81328005,0
3.8138049,-0.47224605,-1.601859,0.12216219,0.56890416,-0.81328005,0
-1.8122499,-2.26806,-0.014382839,-0.12216219,-0.56890416,0.81328005,0
-1.9878516,-2.0206742,-3.0145137,-0.52931255,-0.65581924,-0.53826499,0
0.37990007,2.6820893,3.0897906,0.12370159,0.80430067,0.581204,0
3.9359519,0.49665248,0.58628726,0.97523636,0.083407342,0.20483446,0
2.1527429,-3.1558309,-1.2828221,0.5531227,-0.71939677,-0.42014682,0
1.8804688,0.98557484,-0.87249154,0.12216219,0.56890416,-0.81328005,0
1.503695,-0.45810771,-1.9389687,0.12216219,0.56890416,-0.81328005,0
0.6774286,-0.1864233,1.8157322,-0.12216219,-0.56890416,0.81328005,0
1.6809297,-2.8535671,-2.2861037,0.40675846,-0.77613938,-0.4818247,0
1.1474619,0.2196312,2.1703782,-0.12216219,-0.56890416,0.81328005,0
3.6281018,-1.889544,0.37068892,0.93552679,-0.33965689,-0.09707135,0
3.8977304,-0.65347493,-1.3550129,0.93758857,-0.33494961,-0.093468845,0
1.3284349,-3.9402585,-0.82818508,0.37504256,-0.78512347,-0.49287325,0
-1.8084788,-3.3552241,-0.77430725,-0.12216219,-0.56890416,0.81328005,0
1.208298,2.5837474,0.14449263,0.12216219,0.56890416,-0.81328005,0
-1.3009036,1.2840685,-1.1415614,0.12216219,0.56890416,-0.81328005,0
-0.038675964,-3.9681234,-1.303153,0.027052302,-0.82102138,-0.57025588,0
-0.078556001,-3.502681,-0.61760569,-0.12216219,-0.56890416,0.81328005,0
1.345874,-2.9632752,-2.3591101,0.32433742,-0.79731274,-0.50901634,0
-3.399586,-2.0951397,-0.90289068,-0.8232367,-0.39963135,-0.40320712,0
-3.9017427,-1.1186727,-0.39303815,-0.95120442,-0.16682421,-0.25957623,0
1.2028521,3.0117829,0.44309306,0.12216219,0.56890416,-0.81328005,0
3.4395998,2.0554295,0.85907173,0.83269238,0.38715312,0.3958987,0
-1.4026693,0.24386597,1.8042775,-0.12216219,-0.56890416,0.81328005,0
-4.1156397,-0.86507112,0.4786098,-0.98663682,-0.019403905,-0.16177537,0
-0.42882901,0.43028903,-1.607802,0.12216219,0.56890416,-0.81328005,0
-0.96546185,-1.3690741,-2.9470963,0.12216219,0.56890416,-0.81328005,0
2.5207386,0.010462284,2.2303398,-0.12216219,-0.56890416,0.81328005,0
-0.57038677,-2.0644536,-3.3741829,0.12216219,0.56890416,-0.81328005,0
-0.92047805,1.4374572,-0.97711998,0.12216219,0.56890416,-0.81328005,0
-3.2861769,-2.0488269,-1.1739736,-0.80284542,-0.42512697,-0.41797888,0
1.5575171,-1.2967405,1.1712428,-0.12216219,-0.56890416,0.81328005,0
-0.9119972,-1.8892241,-3.3029196,0.12216219,0.56890416,-0.81328005,0
2.2802122,-1.4099243,-2.4881415,0.12216219,0.56890416,-0.81328005,0
2.2908487,-0.97599244,-2.1830006,0.12216219,0.56890416,-0.81328005,0
0.82485431,2.9758701,2.5585582,0.21498096,0.78479689,0.58127183,0
2.9528236,-0.6084801,-1.8264842,0.12216219,0.56890416,-0.81328005,0
-1.4200115,-2.9601557,-0.43959856,-0.12216219,-0.56890416,0.81328005,0
-3.1472673,1.2657295,-1.431731,0.12216219,0.56890416,-0.81328005,0
-0.074789628,-0.15761638,-1.9658723,0.12216219,0.56890416,-0.81328005,0
2.0602629,2.2755277,2.6327138,0.533234,0.65349084,0.53722525,0
0.24562524,-1.4644254,0.85688603,-0.12216219,-0.56890416,0.81328005,0
-2.4324398,-2.2740247,-0.11171389,-0.12216219,-0.56890416,0.81328005,0
0.18625265,2.8199499,0.15620017,0.12216219,0.56890416,-0.81328005,0
3.3009217,0.97815764,-0.66431487,0.12216219,0.56890416,-0.81328005,0
2.6885717,-3.2790663,-0.14967132,0.7153672,-0.61847293,-0.32517821,0
-0.89577627,2.4107533,-0.29257154,0.12216219,0.56890416,-0.81328005,0
1.2585583,0.80060554,2.5934682,-0.12216219,-0.56890416,0.81328005,0
-1.1571032,3.8947351,1.0203328,-0.32728535,0.79667491,0.50812721,0
-1.818162,-3.4154406,-1.4274411,-0.42386985,-0.71102828,-0.56104636,0
1.4564177,0.62181044,-1.1906477,0.12216219,0.56890416,-0.81328005,0
-0.86876869,-3.7988956,-0.94351101,-0.12216219,-0.56890416,0.81328005,0
4.0998421,1.0294588,-0.42368507,0.98125446,0.05382733,0.18504669,0
-1.0662419,-0.80274248,1.1226907,-0.12216219,-0.56890416,0.81328005,0
1.044713,-0.43844724,-1.9941592,0.12216219,0.56890416,-0.81328005,0
3.5083599,1.163704,1.5370842,0.8819598,0.31360465,0.35185069,0
0.27076307,1.6287096,-0.66439986,0.12216219,0.56890416,-0.81328005,0
-2.2806144,-0.64246833,1.0523953,-0.12216219,-0.56890416,0.81328005,0
-3.5212896,-2.1899419,-0.5538559,-0.84289205,-0.37317389,-0.38765204,0
2.9907894,-2.8052926,0.33127403,-0.12216219,-0.56890416,0.81328005,0
-0.74034935,-2.6262183,-0.10391164,-0.12216219,-0.56890416,0.81328005,0
-0.7466023,-3.9166396,-1.3011827,-0.14813365,-0.79978824,-0.58171743,0
1.5170945,-3.9243402,-0.67288256,-0.12216219,-0.56890416,0.81328005,0
-2.2355478,0.69145489,1.9922678,-0.12216219,-0.56890416,0.81328005,0
-0.87269443,3.4483788,1.8611178,-0.22860554,0.81351364,0.53472883,0
-1.3058052,3.2700188,0.24691057,0.12216219,0.56890416,-0.81328005,0
3.8244195,-0.23197055,1.4036106,0.98072964,0.056683958,0.18696612,0
-1.5697328,-2.0581999,0.16884661,-0.12216219,-0.56890416,0.81328005,0
-2.6409147,2.7568948,-0.31257486,0.12216219,0.56890416,-0.81328005,0
0.72404617,-4.0778122,-0.96702719,0.2251417,-0.81394076,-0.53554797,0
-0.66089833,-0.37860227,1.4802709,-0.12216219,-0.56890416,0.81328005,0
-0.1292319,-2.9100795,-2.8090475,-0.0510354,-0.81473273,-0.57758629,0
3.471848,-1.5614469,-1.4017487,0.84732181,-0.4864822,-0.21302754,0
3.7734151,-0.91271758,1.7727224,-0.12216219,-0.56890416,0.81328005,0
-0.10882181,-3.8255377,-1.5095634,0.0021733474,-0.81956869,-0.57297671,0
0.41475323,1.417485,2.8982394,-0.12216219,-0.56890416,0.81328005,0
-3.9307895,0.73708487,-0.074836731,-0.98269737,0.18427122,-0.018709183,0
0.91590089,0.70240307,2.4733033,-0.12216219,-0.56890416,0.81328005,0
3.4757688,-1.3548464,-1.851545,0.83352572,-0.5036447,-0.22710532,0
0.46751672,-2.9632599,-0.15824604,-0.12216219,-0.56890416,0.81328005,0
-2.015733,0.92147231,2.1861875,-0.12216219,-0.56890416,0.81328005,0
0.32697615,-2.926146,-2.7815602,0.062276438,-0.8221963,-0.56578672,0
-4.1285319,-0.83010238,0.55728853,-0.98846513,-0.0041664094,-0.15139112,0
2.0638423,3.1787472,1.5211997,0.49081457,0.67758292,0.54770648,0
0.37048712,-1.8981986,0.57220912,-0.12216219,-0.56890416,0.81328005,0
0.25019884,2.3030806,-0.19575405,0.12216219,0.56890416,-0.81328005,0
-2.5677297,1.781787,2.7050784,-0.12216219,-0.56890416,0.81328005,0
-1.0282433,-0.47815871,1.3554506,-0.12216219,-0.56890416,0.81328005,0
1.0857288,3.2572088,2.0739279,0.26230085,0.77177799,0.57927269,0
-1.5255927,-0.63865304,-2.5202904,0.12216219,0.56890416,-0.81328005,0
0.93542027,2.7182627,2.8597913,0.2541678,0.77416122,0.57971817,0
2.9511609,1.7365289,2.0984287,0.74872899,0.48507354,0.45178372,0
-3.8723452,0.064843178,-1.1006246,-0.98210293,-0.04906404,-0.18184212,0
-2.6645296,-2.4010258,-0.23541498,-0.12216219,-0.56890416,0.81328005,0
3.1673889,2.2162325,1.2192352,0.77180713,0.46073234,0.43822318,0
1.9998835,-2.8574026,-1.9710066,0.49319994,-0.74588251,-0.44767517,0
3.1194832,-0.1635139,2.1985774,-0.12216219,-0.56890416,0.81328005,0
-1.6672081,2.8376493,2.3232222,-0.40218073,0.77750301,0.48346609,0
-0.43693852,-0.90392756,-2.5423288,0.12216219,0.56890416,-0.81328005,0
-0.53427619,-2.0462885,-3.3560522,0.12216219,0.56890416,-0.81328005,0
-3.8883364,0.9296959,-0.40167105,-0.98370695,0.17829683,-0.023040004,0
-2.2893116,-1.1298776,0.71013713,-0.12216219,-0.56890416,0.81328005,0
-2.8988967,2.5478582,1.0742288,-0.73149508,0.60543263,0.31363374,0
-0.59691781,1.5786749,-0.82973361,0.12216219,0.56890416,-0.81328005,0
2.4578867,-1.1130517,-2.2537856,0.12216219,0.56890416,-0.81328005,0
1.4755501,-2.2151158,0.51651025,-0.12216219,-0.56890416,0.81328005,0
0.64561349,-0.93962646,1.2840743,-0.12216219,-0.56890416,0.81328005,0
-3.9098499,-0.18817282,-0.82796705,-0.98017079,-0.059655949,-0.18896115,0
