2.7580409,2.9447396,-1.1903281,0.78789341,0.45085567,-0.41946721,0
-1.2276578,-0.23386836,4.1747785,-0.1762386,-0.43745106,0.8818028,0
-3.3535624,-1.4867961,-1.8786831,-0.91343892,-0.15404509,-0.37669474,0
3.2069573,0.58612174,2.3567309,0.83400291,0.052960247,0.5492121,0
-0.084705353,0.026311159,-4.2919755,-0.13894296,0.34812227,-0.92709517,0
2.9002628,-2.2482023,0.92770672,0.30225578,-0.87659681,-0.37445891,0
-1.0016803,-2.2197051,-2.2885742,0.30225578,-0.87659681,-0.37445891,0
4.1582117,-0.072715014,0.34776592,0.94960451,0.24268799,0.19837689,0
-1.9493115,1.2414896,2.1965647,-0.30225578,0.87659681,0.37445891,0
1.3158674,3.7951908,-1.145982,-0.30225578,0.87659681,0.37445891,0
2.5697854,3.4629328,-0.98684454,0.78521156,0.45168802,-0.42358023,0
1.3885717,-2.6203303,0.57863957,0.30225578,-0.87659681,-0.37445891,0
-3.9444997,1.87818,-0.90438342,-0.30225578,0.87659681,0.37445891,0
-2.5834062,1.8348802,0.29562783,-0.30225578,0.87659681,0.37445891,0
3.6857355,-2.0862083,1.1825018,0.30225578,-0.87659681,-0.37445891,0
4.0835385,0.27893758,-1.1013546,0.91493106,0.37701869,-0.14407492,0
-3.3212042,1.4451234,-2.224442,-0.72166419,0.046214148,-0.69069874,0
3.1402364,1.3672256,-2.1386285,0.74338734,0.46266234,-0.48303068,0
0.77370596,3.0914733,-2.8063378,0.30112481,0.46052378,-0.83500981,0
-2.0065947,0.08421123,-3.5173833,-0.54976714,0.16060521,-0.81973267,0
1.8024889,3.2244358,-2.1336756,0.56266415,0.48116696,-0.67222542,0
3.1363285,3.1542401,1.0425038,0.95088184,0.30481046,0.053980947,0
-2.4663558,-2.0870583,-3.3107808,-0.7921837,-0.012507871,-0.61015415,0
1.5319963,-0.43026459,-4.4324651,0.30225578,-0.87659681,-0.37445891,0
2.3085523,0.48729372,3.3798113,0.65232325,-0.096227303,0.75180733,0
-2.5548587,0.63109064,-3.0186856,-0.62397528,0.11502571,-0.77293181,0
4.4907489,-1.041576,-0.058800697,0.94946325,0.24198698,0.19990373,0
3.8174355,1.1675341,-0.36901569,0.93406498,0.35073969,-0.067112088,0
-3.343735,-2.4146159,-1.173707,-0.95271683,-0.2649619,-0.14874637,0
1.5754764,-3.0694957,2.9022455,0.23668599,-0.31151405,0.92029262,0
0.59223616,-2.5633879,-0.19744687,0.30225578,-0.87659681,-0.37445891,0
0.74554276,3.7284093,-2.4590092,0.34674513,0.46703076,-0.81341857,0
4.0830021,-1.1124706,1.1313798,0.88582027,0.11320478,0.45000756,0
0.48548269,1.8424942,-3.5202382,0.13272035,0.42770743,-0.89412045,0
1.6867273,1.0108285,-3.6181169,0.34773725,0.46716014,-0.81292063,0
-0.74106932,-3.1383557,2.7922063,-0.2972163,-0.45991656,0.836743,0
1.2406783,3.6305103,-0.82116175,-0.30225578,0.87659681,0.37445891,0
-2.4390035,-2.6156566,-2.5218425,0.30225578,-0.87659681,-0.37445891,0
-2.5023613,-2.635035,-2.5276196,0.30225578,-0.87659681,-0.37445891,0
1.5491968,2.9182754,1.0951879,-0.30225578,0.87659681,0.37445891,0
2.8376563,2.2753725,-1.7343535,0.74624699,0.46202064,-0.47922009,0
-0.0054199696,-1.5974475,-2.9410982,0.30225578,-0.87659681,-0.37445891,0
-3.0746968,-2.1292448,-2.2866719,-0.9041912,-0.13928705,-0.40377825,0
-3.0331631,-3.2694373,-0.064052582,-0.90739143,-0.38494027,0.16870487,0
-3.1716561,-0.35061347,2.9929593,-0.65901136,-0.47599572,0.58235025,0
-0.82237697,-2.2766056,-2.0106425,0.30225578,-0.87659681,-0.37445891,0
-4.3128595,1.1831493,-0.6415143,-0.91949201,-0.16453791,-0.3570174,0
2.497818,-1.4847717,-1.1843052,0.30225578,-0.87659681,-0.37445891,0
-3.4558067,-1.8742296,0.79668474,-0.88662684,-0.40279505,0.22726321,0
-4.2711782,0.66337031,-0.45826912,-0.93926823,-0.20690688,-0.27379584,0
-3.2309995,-2.612397,0.357234,-0.89688981,-0.3945775,0.19974208,0
-1.7253377,3.3966315,-2.6677675,-0.30225578,0.87659681,0.37445891,0
0.39669228,-0.039209127,4.2289438,0.20717609,-0.32303077,0.92343318,0
3.32077,-0.73664969,2.2536163,0.76931977,-0.0076202452,0.63881826,0
4.0975685,0.2276756,0.24101639,0.95270586,0.26482213,0.14906478,0
-1.2616122,-1.9413797,-3.1499372,0.30225578,-0.87659681,-0.37445891,0
-0.1279732,-2.5881801,-0.72074735,0.30225578,-0.87659681,-0.37445891,0
0.089136183,-2.2859964,-1.2529036,0.30225578,-0.87659681,-0.37445891,0
-3.469382,-1.7278471,-1.3992596,-0.94215,-0.21501508,-0.25714099,0
-3.8415608,-0.80638546,-0.78595829,-0.94830376,-0.23664923,-0.21146321,0
3.3539484,1.9734271,-0.9881382,0.86464226,0.41750216,-0.27943754,0
-1.5204132,0.95533991,3.2126305,-0.30225578,0.87659681,0.37445891,0
1.1054358,-1.2358878,-2.8908377,0.30225578,-0.87659681,-0.37445891,0
1.275492,2.9029992,-2.6958547,0.40575248,0.47378349,-0.78159702,0
-3.1628118,-2.2543333,1.1278319,-0.83587778,-0.43256801,0.33792424,0
-0.52054518,2.3099616,0.84857678,-0.30225578,0.87659681,0.37445891,0
3.32199,-1.5522344,-0.36112237,0.30225578,-0.87659681,-0.37445891,0
2.555243,-0.50824559,-3.4239702,0.30225578,-0.87659681,-0.37445891,0
1.1815922,2.038065,2.8590097,-0.30225578,0.87659681,0.37445891,0
-0.16237783,1.2219918,3.6845853,-0.30225578,0.87659681,0.37445891,0
-0.87403989,-3.9875696,1.9529693,0.30225578,-0.87659681,-0.37445891,0
-1.655391,1.6089358,-3.3331733,-0.36377889,0.25702512,-0.89532262,0
-0.079544544,-0.90512949,3.9602494,0.034033298,-0.38265857,0.92326254,0
-0.3875826,-2.9092731,-0.17863023,0.30225578,-0.87659681,-0.37445891,0
1.4480397,-1.4343215,-2.1497681,0.30225578,-0.87659681,-0.37445891,0
2.4269812,-2.0805335,0.15317559,0.30225578,-0.87659681,-0.37445891,0
4.0514517,0.065701485,0.65597105,0.94324225,0.21833777,0.25024426,0
-4.1975842,0.10648364,1.3759871,-0.90753698,-0.38479623,0.1682502,0
1.3138378,1.6890752,3.7827299,-0.30225578,0.87659681,0.37445891,0
-2.7986341,-2.8353453,-2.2978449,0.30225578,-0.87659681,-0.37445891,0
1.7395695,2.5226731,2.1749449,-0.30225578,0.87659681,0.37445891,0
-0.43186116,-2.4938424,-1.1868811,0.30225578,-0.87659681,-0.37445891,0
4.2296534,-1.7047551,0.98837209,0.87585467,0.10036427,0.47202259,0
1.4814898,3.646693,-0.66466665,-0.30225578,0.87659681,0.37445891,0
0.42143822,3.8553221,-2.510808,0.28006232,0.45716065,-0.84413797,0
-1.7655306,-2.4074833,-2.4655557,0.30225578,-0.87659681,-0.37445891,0
-4.0036645,0.50189954,2.2696893,-0.30225578,0.87659681,0.37445891,0
-3.1630666,1.9597275,-0.46452618,-0.30225578,0.87659681,0.37445891,0
-3.4805501,-1.7713327,-1.3177812,-0.94526184,-0.22495873,-0.23637509,0
1.7722206,-0.66184509,-3.6964381,0.30225578,-0.87659681,-0.37445891,0
0.69382,2.4046206,1.6071941,-0.30225578,0.87659681,0.37445891,0
3.2059784,2.9630375,0.88346243,0.94953835,0.31140575,0.037457228,0
-3.2661436,0.50172269,2.8654149,-0.30225578,0.87659681,0.37445891,0
3.3452523,2.0467708,-0.9041996,0.86990017,0.41428414,-0.26766014,0
2.6578095,0.129408,-3.6197765,0.50989705,0.48059052,-0.71346849,0
0.16538382,2.017148,2.0877123,-0.30225578,0.87659681,0.37445891,0
-0.26968145,0.71174675,-4.006556,-0.12748337,0.35213032,-0.92722809,0
-2.5251181,-3.920212,0.5637145,-0.81732738,-0.44048011,0.37141985,0
-2.2257769,-1.1391101,-3.5303621,-0.68095565,0.076328248,-0.72833574,0
-0.27940273,1.3062811,3.3928065,-0.30225578,0.87659681,0.37445891,0
2.2352154,3.8684058,-0.57529736,-0.30225578,0.87659681,0.37445891,0
1.2144502,-1.333662,-2.5739572,0.30225578,-0.87659681,-0.37445891,0
-3.4871073,-1.1082909,-1.7096219,-0.91391957,-0.15485121,-0.37519568,0
-1.3952785,3.1766255,-1.886323,-0.30225578,0.87659681,0.37445891,0
-3.2412639,0.48239493,-2.3523731,-0.770895,0.0062709749,-0.63693106,0
-1.459322,3.4685779,-2.7891474,-0.18066525,0.33303156,-0.92544574,0
-2.8552027,1.286097,1.3609228,-0.30225578,0.87659681,0.37445891,0
-0.35362613,2.1463184,1.3663936,-0.30225578,0.87659681,0.37445891,0
-1.4711132,3.4066482,-2.486011,-0.30225578,0.87659681,0.37445891,0
2.7058225,3.3737745,0.96248364,-0.30225578,0.87659681,0.37445891,0
2.7220771,2.1101408,2.9451056,0.84145534,0.06079118,0.53689563,0
3.6530988,1.4713562,0.86601067,0.95180488,0.25609457,0.16876841,0
0.65456259,-2.74879,0.28688222,0.30225578,-0.87659681,-0.37445891,0
-2.8397522,-1.1606408,2.7051494,-0.64541513,-0.47728848,0.59635109,0
2.4845827,1.1541078,-3.0443389,0.55470437,0.48121881,-0.67877185,0
1.7781246,-1.3181283,-2.1553342,0.30225578,-0.87659681,-0.37445891,0
-3.8293538,1.2366503,0.69036126,-0.30225578,0.87659681,0.37445891,0
4.0152721,-1.4727333,0.012371063,0.30225578,-0.87659681,-0.37445891,0
0.5488348,0.81335807,4.4684677,0.30498755,-0.28324986,0.90925884,0
1.8463702,2.7566586,1.7133999,-0.30225578,0.87659681,0.37445891,0
-0.94428635,-1.9394006,-2.8984308,0.30225578,-0.87659681,-0.37445891,0
2.5622706,-0.37213206,-3.7369351,0.30225578,-0.87659681,-0.37445891,0
-0.91773486,-1.7927455,3.4559834,-0.22943372,-0.44818637,0.86399585,0
3.2804308,-2.3037252,1.3645482,0.30225578,-0.87659681,-0.37445891,0
-3.5603762,-1.9187126,0.019641399,-0.93531436,-0.34853095,0.060932994,0
-1.1628587,-2.6588373,-1.39068,0.30225578,-0.87659681,-0.37445891,0
-0.42627144,2.5770173,-3.2480574,-0.018038392,0.38750276,-0.92169178,0
-3.4889412,-2.1018083,0.048214912,-0.93040681,-0.35674423,0.084121227,0
-1.3944998,3.4245887,-2.4661684,-0.30225578,0.87659681,0.37445891,0
4.5414181,-1.0569218,-0.31358576,0.95274746,0.26536313,0.14783192,0
2.7430933,-2.9514074,2.4470232,0.30225578,-0.87659681,-0.37445891,0
1.8885621,-2.7018719,1.1731079,0.30225578,-0.87659681,-0.37445891,0
-3.1325073,1.6538118,0.27627945,-0.30225578,0.87659681,0.37445891,0
0.43387628,2.8953021,-3.0109499,0.20514518,0.4434475,-0.87250757,0
3.0605881,-1.2606564,-1.2546959,0.30225578,-0.87659681,-0.37445891,0
-4.4998937,0.78782845,1.0517206,-0.94025338,-0.33876473,0.034083962,0
0.41496891,2.4106097,1.3680911,-0.30225578,0.87659681,0.37445891,0
-3.3950362,-0.38993979,-2.0810287,-0.85593086,-0.076685414,-0.51137203,0
-2.8664749,0.41450256,-2.7657151,-0.70195073,0.061085925,-0.70960069,0
3.238025,2.7323835,1.2842882,0.95288128,0.26728219,0.14344752,0
-2.822315,0.86677402,2.3690913,-0.30225578,0.87659681,0.37445891,0
2.5981402,0.20904875,3.0840816,0.69130766,-0.068885833,0.71926916,0
-3.7243495,0.8044154,1.7869663,-0.30225578,0.87659681,0.37445891,0
2.1295452,2.9504077,-2.0375786,0.621526,0.4790802,-0.61982822,0
4.2086539,-1.4389505,0.96598864,0.88805759,0.11619881,0.44480461,0
3.7297401,-0.70411128,-2.0174239,0.30225578,-0.87659681,-0.37445891,0
3.2471571,2.8350458,0.89223433,0.95066261,0.30600354,0.051010966,0
-0.92489004,-3.8831344,2.283699,-0.40269512,-0.47348195,0.78335887,0
-1.5042599,2.7107816,-0.88376421,-0.30225578,0.87659681,0.37445891,0
0.22101998,3.2438793,-2.8826029,0.18351364,0.43899632,-0.87954795,0
3.916204,0.79112846,0.39365101,0.95314854,0.27290395,0.13050282,0
0.31391096,-1.2895737,3.7781401,0.092792749,-0.3639093,0.92680049,0
1.0493722,-0.95395029,-3.5960979,0.30225578,-0.87659681,-0.37445891,0
1.2526269,2.4136906,2.0370195,-0.30225578,0.87659681,0.37445891,0
-3.2912097,0.29576492,3.3273234,-0.30225578,0.87659681,0.37445891,0
-1.2646937,0.48967898,4.50914,-0.30225578,0.87659681,0.37445891,0
-4.1202073,0.060664777,-0.50283718,-0.94615752,-0.22814272,-0.22964442,0
3.0064471,-1.979018,0.3832643,0.30225578,-0.87659681,-0.37445891,0
4.2661266,-0.36185604,-1.5835457,0.9003185,0.39158455,-0.18996811,0
1.6021948,-1.3451478,-2.2340899,0.30225578,-0.87659681,-0.37445891,0
2.2708244,-2.0761538,0.01687634,0.30225578,-0.87659681,-0.37445891,0
-1.464941,-2.7041962,2.7150078,-0.43507731,-0.47639456,0.76403892,0
2.0512724,-0.40263021,-4.0780067,0.30225578,-0.87659681,-0.37445891,0
3.0970967,-0.74207973,-2.4391987,0.30225578,-0.87659681,-0.37445891,0
0.088674545,-1.2761506,-3.6172929,0.30225578,-0.87659681,-0.37445891,0
-2.5366573,-1.0189095,3.0976229,-0.55607051,-0.48121357,0.67765677,0
-1.6263602,-0.74373126,-3.9330621,-0.52999705,0.17196985,-0.83037895,0
-2.4504204,0.88968021,-3.0569839,-0.58420599,0.14005736,-0.79942924,0
3.4646888,0.6634562,-2.3073094,0.76569998,0.45725167,-0.45235407,0
-2.8657417,-1.800355,2.1339705,-0.70985472,-0.46917355,0.52534002,0
1.0575018,-2.5666711,3.1911526,0.16050398,-0.34042186,0.92647243,0
2.1231213,2.6172507,2.2631373,-0.30225578,0.87659681,0.37445891,0
1.8373481,-2.8403678,1.4559839,0.30225578,-0.87659681,-0.37445891,0
1.8598514,-0.69561422,-3.5466518,0.30225578,-0.87659681,-0.37445891,0
2.1992061,-0.6641891,-3.3462968,0.30225578,-0.87659681,-0.37445891,0
3.5017371,1.9652679,0.96184874,0.95284957,0.26679868,0.14455378,0
3.2524586,-0.318923,-3.3043892,0.30225578,-0.87659681,-0.37445891,0
0.41719151,-3.5481279,2.8252883,-0.060312271,-0.40963274,0.91025436,0
0.19440699,3.4800215,-1.3134009,-0.30225578,0.87659681,0.37445891,0
-3.0192914,-1.9624597,-2.4516995,-0.88522732,-0.11241849,-0.4513694,0
0.079656124,-0.88241553,-4.5462942,0.30225578,-0.87659681,-0.37445891,0
3.8352199,-1.0041931,-1.2298014,0.30225578,-0.87659681,-0.37445891,0
-0.38221669,3.7906046,-2.5059052,-0.30225578,0.87659681,0.37445891,0
0.87393594,-1.3646744,-2.7762141,0.30225578,-0.87659681,-0.37445891,0
-0.56078863,-1.8555856,3.5019362,-0.15121186,-0.4319517,0.88913,0
0.88617611,4.0857973,-2.1809106,0.41023356,0.47421563,-0.77899146,0
1.0037065,3.207705,-2.6468089,0.36558479,0.46939665,-0.80374998,0
-0.94755578,2.2517219,-3.3259242,-0.16020405,0.3405304,-0.92648447,0
1.9078178,3.6713345,-0.37822819,-0.30225578,0.87659681,0.37445891,0
0.93156052,-1.1073337,-3.3321276,0.30225578,-0.87659681,-0.37445891,0
-4.0701032,-0.31865633,1.0827327,-0.91503704,-0.37690014,0.14371192,0
2.1890669,-2.0798748,-0.040405989,0.30225578,-0.87659681,-0.37445891,0
-3.3998787,-0.47798789,2.5889595,-0.73072296,-0.46533409,0.49950749,0
4.2594833,-1.7557292,0.9437201,0.87799108,0.10305339,0.46745193,0
-1.1012238,2.0024657,1.099703,-0.30225578,0.87659681,0.37445891,0
-3.8843751,-0.883111,0.78213692,-0.91874152,-0.37260893,0.13067591,0
2.7744155,2.0358758,-2.0469642,0.7071718,0.46961969,-0.52855003,0
2.5806684,-2.579653,1.4456521,0.30225578,-0.87659681,-0.37445891,0
-2.0792246,0.29361475,-3.4276454,-0.54985589,0.1605535,-0.81968331,0
3.5241902,-1.2552503,-0.89314127,0.30225578,-0.87659681,-0.37445891,0
2.8672876,3.0900302,-0.78894234,0.83369142,0.43356496,-0.3420229,0
-3.9503775,0.51111311,-1.2348576,-0.89845455,-0.13074346,-0.41914809,0
0.69338751,-1.9230508,3.4882839,0.1288321,-0.35166162,0.92721951,0
1.422158,0.59360778,-3.942827,0.25081331,0.45212698,-0.85596353,0
-4.3939972,0.54627091,0.31440544,-0.95306122,-0.28522927,-0.10157907,0
2.1444263,0.2895453,3.4852595,0.60492539,-0.12720075,0.78605652,0
0.22887862,2.0919738,1.9637995,-0.30225578,0.87659681,0.37445891,0
-1.782954,-2.9686594,2.3295531,-0.53574175,-0.48113912,0.69389164,0
1.3648477,0.25978875,3.9704988,0.43959516,-0.220382,0.87073964,0
-0.021000385,2.342454,-3.3415661,0.055840015,0.40844113,-0.91107488,0
4.0456367,-0.78642583,1.1165447,0.89850938,0.13082333,0.41900545,0
2.0539579,-1.5738926,-1.3339514,0.30225578,-0.87659681,-0.37445891,0
3.1414764,2.3116238,2.0452483,0.9246102,0.17408101,0.3388086,0
-0.34900355,-3.5736651,1.407831,0.30225578,-0.87659681,-0.37445891,0
1.6326036,-2.5097837,3.0692387,0.2914629,-0.2890296,0.91187215,0
1.9322102,-1.9345968,3.1235452,0.39915818,-0.24034026,0.88482141,0
-3.6224492,0.67293918,-1.8469996,-0.83056402,-0.049419105,-0.55472594,0
2.7382395,2.5939925,-1.5818861,0.74908268,0.46136987,-0.47540772,0
4.5024152,-0.80198431,-0.68468904,0.95027381,0.30799273,0.046040654,0
-0.054946423,-3.0048637,3.0280008,-0.12584209,-0.42608976,0.89588559,0
1.5189943,1.7391949,3.8309989,-0.30225578,0.87659681,0.37445891,0
-3.7476439,-1.3822808,0.21085262,-0.93691099,-0.34557021,0.052713156,0
1.5129483,-3.0546944,1.6958671,0.30225578,-0.87659681,-0.37445891,0
3.2264681,-1.9636929,2.26843,0.66703904,-0.086121485,0.74002814,0
-3.4892778,2.1121809,-1.0847263,-0.30225578,0.87659681,0.37445891,0
1.7516474,-1.655337,-1.3873115,0.30225578,-0.87659681,-0.37445891,0
0.40205717,0.64592153,-4.072897,0.018871546,0.39825892,-0.91707867,0
2.7022924,-2.0417488,0.28460765,0.30225578,-0.87659681,-0.37445891,0
4.1106248,-0.74156588,-1.6223016,0.30225578,-0.87659681,-0.37445891,0
-1.3974514,-2.155875,3.0818119,-0.37304711,-0.47028023,0.79979491,0
-2.3177867,-3.8494687,1.0258341,-0.75246811,-0.4605737,0.47081137,0
-2.2368212,1.7730898,-3.0114388,-0.47587973,0.20161301,-0.85609013,0
-1.6697245,-1.3717231,3.4158974,-0.37350219,-0.4703331,0.79955149,0
-3.372309,0.8695702,1.9186015,-0.30225578,0.87659681,0.37445891,0
1.2351108,2.866215,0.9635359,-0.30225578,0.87659681,0.37445891,0
-0.064158916,-2.319006,3.3461013,-0.073503256,-0.4130967,0.9077158,0
-2.95467,-2.4387498,1.3641949,-0.79412371,-0.44885406,0.40975249,0
2.2004621,0.44446003,-3.7047558,0.42447007,0.47550958,-0.77052927,0
-3.0695968,-2.5351882,-2.1264706,-0.92538905,-0.17559761,-0.33588701,0
-0.99451327,-1.3433025,3.6678333,-0.2111097,-0.44463676,0.87047714,0
3.234462,0.78756225,-2.5399995,0.71503806,0.46828187,-0.51906872,0
-2.6126502,-3.3697476,1.0066054,-0.78821719,-0.45075399,0.41896778,0
-1.9750202,-3.5930095,1.6939816,-0.63871181,-0.47785133,0.6030795,0
-0.77806091,1.0481551,-3.7903013,-0.21456468,0.3201856,-0.92273659,0
1.1535814,0.98787355,-3.8106132,0.21966028,0.44631276,-0.8674987,0
-4.272254,0.14269608,0.88292599,-0.93605167,-0.34718397,0.057184577,0
-3.5160208,-0.72092134,2.1567261,-0.78542781,-0.45162159,0.42325038,0
-1.4706578,0.31638384,-3.7700088,-0.41979295,0.23027773,-0.87792134,0
-2.4330721,0.98076922,2.4164205,-0.30225578,0.87659681,0.37445891,0
-1.8996787,0.39313698,-3.5208433,-0.50511497,0.18585628,-0.84280235,0
-0.99714381,2.0992699,0.95709926,-0.30225578,0.87659681,0.37445891,0
-0.89589238,3.3744826,-1.9464056,-0.30225578,0.87659681,0.37445891,0
4.4872351,-0.76396942,-0.62923813,0.95091271,0.30463767,0.054410458,0
-2.7043738,-3.8507512,0.15527296,0.30225578,-0.87659681,-0.37445891,0
3.3645244,2.4896176,0.2400279,0.93598837,0.34730104,-0.05750978,0
-3.9790163,1.700211,-0.51562452,-0.30225578,0.87659681,0.37445891,0
1.9921005,2.1110413,-2.7606373,0.51424575,0.48071715,-0.71025491,0
1.8322281,-2.7940907,1.3435179,0.30225578,-0.87659681,-0.37445891,0
-3.2612057,0.68351078,2.4438412,-0.30225578,0.87659681,0.37445891,0
-2.3944116,-2.0299144,-3.4019351,-0.77463484,0.0030463487,-0.63240117,0
4.0901842,-1.5340916,0.21647644,0.30225578,-0.87659681,-0.37445891,0
-2.7606728,-2.8928399,1.24087,-0.7836234,-0.45217285,0.42599738,0
-2.3773305,-0.23637903,3.7333653,-0.45005494,-0.47752625,0.7545985,0
-2.2479775,-2.8571987,1.9877551,-0.64366496,-0.47744012,0.59811884,0
-0.49577904,-2.3516986,3.2704248,-0.17585707,-0.43736935,0.88191938,0
-4.0443144,1.3411624,0.27218914,-0.30225578,0.87659681,0.37445891,0
-0.6757617,-1.8172396,3.4995868,-0.17485577,-0.43715459,0.88222504,0
-2.160321,-2.1269333,-3.4409814,0.30225578,-0.87659681,-0.37445891,0
-2.4521551,1.6722808,0.78221059,-0.30225578,0.87659681,0.37445891,0
-3.1200917,2.1475072,-0.86942363,-0.30225578,0.87659681,0.37445891,0
-1.4146194,-3.9644394,1.4624765,0.30225578,-0.87659681,-0.37445891,0
0.68244505,-0.57585704,-4.5952473,-0.013145208,0.38896257,-0.92115963,0
1.0054052,3.4820287,-0.66347909,-0.30225578,0.87659681,0.37445891,0
2.390486,2.9522247,1.6947846,-0.30225578,0.87659681,0.37445891,0
0.040483236,-3.3790309,1.2665842,0.30225578,-0.87659681,-0.37445891,0
3.6877592,-0.62785369,1.7413521,0.84539676,0.065025091,0.53016561,0
-0.12388623,2.7938907,0.035889328,-0.30225578,0.87659681,0.37445891,0
2.61255,-2.1646883,0.4999671,0.30225578,-0.87659681,-0.37445891,0
-2.2919209,-0.55345559,-3.4027023,-0.65357548,0.095377043,-0.75082755,0
2.3420203,-2.2694647,0.52687919,0.30225578,-0.87659681,-0.37445891,0
0.53112102,2.5074096,-3.1850379,0.19661564,0.4417181,-0.87534398,0
1.7995033,0.7367667,-3.7273107,0.35211205,0.46772429,-0.81071007,0
-3.3802691,1.4671216,0.51332688,-0.30225578,0.87659681,0.37445891,0
4.4479299,-1.0690973,0.15147257,0.94386339,0.22030184,0.24614787,0
-1.9388633,-1.0382886,-3.7640653,-0.61571461,0.12034836,-0.77872413,0
-2.8504043,1.5068405,0.84804249,-0.30225578,0.87659681,0.37445891,0
-0.99753618,0.40073752,-3.9396348,-0.31153047,0.28042051,-0.90791667,0
2.0752139,-2.1288791,3.0054555,0.41543239,-0.232425,0.87942821,0
1.2254481,-1.3210635,3.5761576,0.29205668,-0.28877783,0.911762,0
-1.7529851,2.5725679,-0.76097697,-0.30225578,0.87659681,0.37445891,0
1.67013,3.8712952,-1.0381863,-0.30225578,0.87659681,0.37445891,0
-1.9328443,-4.0043936,1.1377072,0.30225578,-0.87659681,-0.37445891,0
3.4318576,-1.9256313,2.0758078,0.71076614,-0.054506093,0.70131314,0
1.6852753,0.89067984,3.9238474,0.55285317,-0.15880364,0.81800634,0
2.8748133,-0.66418636,-2.8009672,0.30225578,-0.87659681,-0.37445891,0
1.8821733,-0.40674591,3.5282547,0.50044674,-0.18841191,0.8450169,0
2.245717,-2.5709796,1.154982,0.30225578,-0.87659681,-0.37445891,0
1.9947033,-2.6496224,1.1364686,0.30225578,-0.87659681,-0.37445891,0
0.33682895,3.629205,-1.547675,-0.30225578,0.87659681,0.37445891,0
1.4231267,-1.3322841,3.5044789,0.33419001,-0.27045122,0.90286922,0
-0.53708577,-3.1758823,2.838187,-0.25206405,-0.45235074,0.85547769,0
0.77172565,1.6468267,3.4440498,-0.30225578,0.87659681,0.37445891,0
-1.0851469,0.32959795,4.4672923,-0.098265409,-0.41939393,0.90247011,0
2.3645864,2.3919024,2.9855759,-0.30225578,0.87659681,0.37445891,0
2.6445639,1.7908916,3.0829501,0.80660111,0.025862142,0.59052974,0
0.59420967,1.3326529,4.0362339,-0.30225578,0.87659681,0.37445891,0
-3.3362827,1.1365516,-2.224875,-0.74554121,0.027386323,-0.6658963,0
2.4286532,2.8353553,-1.796164,0.6886816,0.47242087,-0.5500325,0
-3.1937733,-0.84317315,2.5455649,-0.70932144,-0.46926302,0.52597994,0
-2.1299288,-2.9948082,-1.3847821,0.30225578,-0.87659681,-0.37445891,0
-2.506218,1.0138755,2.2798784,-0.30225578,0.87659681,0.37445891,0
-4.1898227,0.22899753,-0.38213634,-0.94740576,-0.23291343,-0.21948385,0
-2.391983,-2.0278122,-3.4048955,-0.77402782,0.0035718083,-0.63314128,0
3.3866961,-0.90485972,-1.8243768,0.30225578,-0.87659681,-0.37445891,0
2.8795803,-0.34619355,-3.5415304,0.30225578,-0.87659681,-0.37445891,0
-0.19272566,0.88906598,4.4394579,-0.30225578,0.87659681,0.37445891,0
0.35935354,-0.96333015,-4.1311092,0.30225578,-0.87659681,-0.37445891,0
-0.45111156,3.7260509,-2.7473707,0.066597104,0.41129255,-0.90906703,0
-1.3841071,-3.3314989,0.005412817,0.30225578,-0.87659681,-0.37445891,0
4.2374897,-0.10457617,-1.1077628,0.92431784,0.36553884,-0.10962415,0
1.7730078,3.5961645,-0.31107354,-0.30225578,0.87659681,0.37445891,0
-3.3500307,-1.8414656,1.1878133,-0.84936142,-0.42598867,0.31163859,0
3.8157837,-0.92988479,1.5738773,0.84973383,0.069762737,0.52257556,0
2.3796635,-0.13351619,-3.9626341,0.41959614,0.47508019,-0.77345812,0
0.24476147,1.1949948,4.0764189,-0.30225578,0.87659681,0.37445891,0
3.9374237,0.66682231,-1.0098104,0.91002315,0.38228422,-0.16036296,0
-3.2572145,0.85297191,-2.3249485,-0.74919581,0.024418205,-0.66189802,0
-0.7097435,-1.9021221,-2.7963808,0.30225578,-0.87659681,-0.37445891,0
-2.3540723,-1.0975945,-3.4027414,-0.70373821,0.059760749,-0.70794129,0
3.0351043,3.074049,-0.31106234,0.88427591,0.40453976,-0.23324513,0
-1.6116347,3.4014459,-2.5872586,-0.30225578,0.87659681,0.37445891,0
-2.351079,2.0264773,0.03463459,-0.30225578,0.87659681,0.37445891,0
-0.90126753,-3.0876493,-0.17569327,0.30225578,-0.87659681,-0.37445891,0
0.48283517,-3.0836675,0.93220508,0.30225578,-0.87659681,-0.37445891,0
4.0418625,-0.61567998,1.0671186,0.90756357,0.14451459,0.39426309,0
-1.7431483,2.483171,-3.0405142,-0.31752431,0.27780935,-0.90664208,0
2.8226764,2.3992403,-1.6375721,0.75378764,0.46025756,-0.46900612,0
1.2306105,-1.6324737,-1.8614039,0.30225578,-0.87659681,-0.37445891,0
-4.1062722,1.6392391,-0.47560954,-0.30225578,0.87659681,0.37445891,0
2.4984932,3.7685766,-0.12908792,-0.30225578,0.87659681,0.37445891,0
-3.2412324,-1.9614346,-1.9518883,-0.92143309,-0.16807608,-0.3503015,0
3.1788297,-1.6475165,-0.25362611,0.30225578,-0.87659681,-0.37445891,0
-1.6449354,1.2518262,2.4180536,-0.30225578,0.87659681,0.37445891,0
4.07513,-1.079711,1.1386211,0.88640702,0.11398567,0.44865298,0
-3.8304281,0.6577493,2.044683,-0.30225578,0.87659681,0.37445891,0
0.63690829,2.2912898,1.8265603,-0.30225578,0.87659681,0.37445891,0
-1.3301826,0.81123447,3.7035267,-0.30225578,0.87659681,0.37445891,0
3.4936233,2.0680707,0.79225922,0.95301723,0.28612983,0.099435449,0
1.3916582,-1.8942602,-1.118576,0.30225578,-0.87659681,-0.37445891,0
1.5949898,1.8935272,-3.1417451,0.39884639,0.47309464,-0.78555882,0
-0.91891289,1.3691704,2.7293849,-0.30225578,0.87659681,0.37445891,0
3.7638326,0.93035352,-1.2655439,0.8808099,0.40702891,-0.24186969,0
-3.125752,-1.8525329,-2.2650604,-0.8968482,-0.12842228,-0.42328542,0
-2.0957751,-2.6101642,-2.2576532,0.30225578,-0.87659681,-0.37445891,0
1.9547048,2.7839932,1.7368555,-0.30225578,0.87659681,0.37445891,0
-2.1610832,-3.4100268,-0.43791604,0.30225578,-0.87659681,-0.37445891,0
2.4930933,2.3946922,-2.089741,0.6658237,0.47526899,-0.57515025,0
-0.79912615,3.0813494,-3.0238929,-0.062986851,0.37360772,-0.92544556,0
0.87882304,1.7852862,-3.4699302,0.21970576,0.44632155,-0.86748254,0
0.71725589,-2.0411711,-1.3190258,0.30225578,-0.87659681,-0.37445891,0
2.1409841,-2.7017391,1.3765473,0.30225578,-0.87659681,-0.37445891,0
1.9709121,2.9595084,1.3390627,-0.30225578,0.87659681,0.37445891,0
4.4538612,-0.793253,-0.22293758,0.95288801,0.26738963,0.14320135,0
-1.9356736,1.3568978,1.9374062,-0.30225578,0.87659681,0.37445891,0
-1.3812618,3.5024092,-2.6376584,-0.30225578,0.87659681,0.37445891,0
3.7480388,-2.231427,1.7184565,0.75222284,-0.021941304,0.65854299,0
-0.36211795,-3.0748596,0.2295568,0.30225578,-0.87659681,-0.37445891,0
2.0783861,-2.1811643,0.10737026,0.30225578,-0.87659681,-0.37445891,0
-3.8029959,-0.46085513,-1.1894863,-0.92807376,-0.180976,-0.32546341,0
-1.2838292,1.3482893,2.4837139,-0.30225578,0.87659681,0.37445891,0
-0.4377296,-3.6881466,1.6042106,0.30225578,-0.87659681,-0.37445891,0
-3.9328184,-0.70752668,-0.44147396,-0.95273811,-0.26523989,-0.14811289,0
-3.8072934,-0.68255657,1.5137463,-0.86724567,-0.41592968,0.27365494,0
0.54416466,-1.7240489,-2.2011144,0.30225578,-0.87659681,-0.37445891,0
0.55189371,1.9805349,2.4854057,-0.30225578,0.87659681,0.37445891,0
1.3994169,-0.22980416,3.8265409,0.41094428,-0.23462345,0.88095188,0
1.3207779,-2.1016994,3.2945728,0.25403559,-0.30455026,0.91799498,0
-1.3422359,-2.8916912,-0.99036539,0.30225578,-0.87659681,-0.37445891,0
2.8055367,1.1457176,2.8896172,0.79496151,0.015038133,0.60647315,0
-2.090976,0.53174746,3.7436996,-0.30225578,0.87659681,0.37445891,0
-0.20887041,-1.831937,-2.5563872,0.30225578,-0.87659681,-0.37445891,0
0.29968375,2.5596986,0.92602271,-0.30225578,0.87659681,0.37445891,0
0.3446269,0.62912297,-4.0808768,0.0044873953,0.39413717,-0.91904056,0
-1.140485,3.630276,-2.74264,-0.30225578,0.87659681,0.37445891,0
-2.085366,0.98043394,-3.279999,-0.50157887,0.18779358,-0.84448314,0
-1.6960063,-0.63282061,-3.8654742,-0.53655869,0.16823126,-0.82692349,0
-1.009439,-4.0220222,1.9243306,0.30225578,-0.87659681,-0.37445891,0
0.36037993,2.2203231,1.769483,-0.30225578,0.87659681,0.37445891,0
0.099586964,1.5998352,-3.6647789,0.024896741,0.39995879,-0.91619474,0
-1.0067956,-2.0812011,3.2773035,-0.27382767,-0.45612282,0.84674084,0
3.6885552,-2.1516395,1.3379495,0.30225578,-0.87659681,-0.37445891,0
0.16763878,1.295173,3.7796531,-0.30225578,0.87659681,0.37445891,0
0.55979013,1.7175379,-3.5688503,0.13994753,0.42938447,-0.89221257,0
1.5782166,-1.4969556,-1.8980675,0.30225578,-0.87659681,-0.37445891,0
3.1655803,1.7244253,2.2195151,0.89612126,0.12738128,0.42513549,0
-3.0880046,-3.3127279,-0.77166128,-0.94273913,-0.33301115,0.01860857,0
0.69262075,2.6574812,1.0142878,-0.30225578,0.87659681,0.37445891,0
3.7285242,-1.6321793,1.748136,0.7883234,0.0090236664,0.61519462,0
-3.992542,0.94227171,-1.2655957,-0.88034278,-0.10605219,-0.4623301,0
-1.0848414,-3.8850236,1.5427577,0.30225578,-0.87659681,-0.37445891,0
2.4865465,-0.87911463,-2.6112275,0.30225578,-0.87659681,-0.37445891,0
0.83410686,2.7924345,0.81257129,-0.30225578,0.87659681,0.37445891,0
3.8635869,-1.1643517,1.5267265,0.84372795,0.063224167,0.53303438,0
4.0053191,-1.4778113,0.016224384,0.30225578,-0.87659681,-0.37445891,0
2.6184139,-2.3987389,1.0526056,0.30225578,-0.87659681,-0.37445891,0
-3.6478751,-0.88727272,-1.3945282,-0.92688376,-0.17856193,-0.33015406,0
3.7344582,-0.77768314,-1.841387,0.30225578,-0.87659681,-0.37445891,0
-4.0837455,-0.38034123,0.76969957,-0.93107939,-0.35568678,0.081102848,0
1.1759329,-0.75075841,-3.9696069,0.30225578,-0.87659681,-0.37445891,0
0.970999,-3.5317595,2.8303289,0.066717744,-0.37241498,0.9256649,0
-0.96424103,0.13715792,4.3906384,-0.085716367,-0.41623613,0.90520704,0
-2.5351732,-3.35447,-0.86993027,0.30225578,-0.87659681,-0.37445891,0
-3.289639,-0.72578639,2.5189164,-0.72407687,-0.46663016,0.5079062,0
-2.0319061,-0.2974546,-3.5707915,-0.58230942,0.14121504,-0.8006084,0
-1.5816314,2.4272544,-0.28248948,-0.30225578,0.87659681,0.37445891,0
-0.054258227,2.1324942,1.6404002,-0.30225578,0.87659681,0.37445891,0
1.2523406,2.9519584,-2.6781869,0.40423626,0.4736346,-0.78247225,0
-1.0803413,3.6371784,-2.7102518,-0.30225578,0.87659681,0.37445891,0
3.9190996,0.034360468,-2.0986269,0.8331582,0.43380529,-0.34301591,0
1.0145662,-1.4028525,-2.5733266,0.30225578,-0.87659681,-0.37445891,0
-1.7469635,-1.8848908,-3.6739414,0.30225578,-0.87659681,-0.37445891,0
1.6960461,-2.9662685,1.636657,0.30225578,-0.87659681,-0.37445891,0
1.4599628,-0.97599554,-3.2130702,0.30225578,-0.87659681,-0.37445891,0
2.720922,0.89148808,-3.0305486,0.59138584,0.48053783,-0.64756912,0
4.2711258,-0.78113312,-1.4001231,0.30225578,-0.87659681,-0.37445891,0
-2.9642529,-3.2128344,0.33526325,-0.87668949,-0.4098675,0.25184083,0
3.5712278,-1.7803574,1.9352973,0.7480725,-0.025333077,0.66313291,0
0.63348609,3.139015,-0.16069996,-0.30225578,0.87659681,0.37445891,0
-0.25286436,-2.6785235,3.1544304,-0.14560723,-0.43068147,0.89068049,0
3.2729559,0.43145901,2.2713301,0.83633393,0.055386007,0.54541504,0
-2.9571793,2.4698551,-1.4925306,-0.30225578,0.87659681,0.37445891,0
4.1499453,-0.8760919,-1.2756419,0.30225578,-0.87659681,-0.37445891,0
2.3140492,-1.8817682,2.942672,0.48427832,-0.19714625,0.85241276,0
0.090101242,-3.1759357,0.83119571,0.30225578,-0.87659681,-0.37445891,0
-2.9278424,-3.3485298,-1.2007906,0.30225578,-0.87659681,-0.37445891,0
-0.68463302,1.4893352,2.6371891,-0.30225578,0.87659681,0.37445891,0
-0.099333763,-0.68035138,4.0537348,0.047072291,-0.3786276,0.92435116,0
1.0300682,-2.0957456,-0.93877304,0.30225578,-0.87659681,-0.37445891,0
-1.1427493,-2.1127868,3.2128506,-0.30862689,-0.46166772,0.83163202,0
-3.8761525,-0.17924815,-1.1359336,-0.92452335,-0.17391294,-0.33913189,0
3.6004548,-1.8699615,0.60743761,0.30225578,-0.87659681,-0.37445891,0
-0.33672047,-1.6046255,-3.1917143,0.30225578,-0.87659681,-0.37445891,0
-3.1638789,-3.0178263,-1.2191801,-0.95310342,-0.28423932,-0.10393059,0
3.1113203,3.0536933,-0.0075516701,0.90882897,0.38350296,-0.1641798,0
1.0547352,1.7758491,3.3704524,-0.30225578,0.87659681,0.37445891,0
-3.1076958,2.5825894,-2.2790399,-0.59936357,0.13069023,-0.78973591,0
-3.835217,1.6956315,-1.6092751,-0.80442762,-0.023812637,-0.59357309,0
1.1578984,0.57325947,4.1529069,0.41850984,-0.23091081,0.87836742,0
-4.2075291,-0.020387709,0.92723322,-0.93089771,-0.35597435,0.08192277,0
-2.7188172,-1.3247347,-2.9985833,-0.79020345,-0.010715947,-0.61275059,0
-0.39396048,-1.3173995,-3.9103041,0.30225578,-0.87659681,-0.37445891,0
-0.6237675,-2.7001748,-0.85876667,0.30225578,-0.87659681,-0.37445891,0
1.7839172,0.51723588,-3.8592517,0.33029675,0.46480972,-0.82149589,0
2.5800271,-0.01643157,3.0775785,0.6720733,-0.082606077,0.73586231,0
-0.80414391,3.1361609,-3.0014005,-0.059859633,0.37460285,-0.92525089,0
-3.9988632,0.56089389,2.1354604,-0.30225578,0.87659681,0.37445891,0
-4.0513978,1.9811741,-1.3210309,-0.82646513,-0.045254931,-0.56116575,0
0.65268373,1.0447888,4.501379,0.34483898,-0.26567319,0.90027964,0
0.49915648,-0.049274683,4.2012367,0.22900116,-0.31455263,0.9212029,0
-3.1878695,1.8426337,-0.21043348,-0.30225578,0.87659681,0.37445891,0
-2.3184917,2.4886255,-1.0209358,-0.30225578,0.87659681,0.37445891,0
2.2986784,-1.851527,-0.48648417,0.30225578,-0.87659681,-0.37445891,0
-0.98465872,3.122416,-1.4279761,-0.30225578,0.87659681,0.37445891,0
3.3562496,-1.7989212,0.24401689,0.30225578,-0.87659681,-0.37445891,0
1.3514559,-2.8769536,1.1494278,0.30225578,-0.87659681,-0.37445891,0
-1.3625364,-1.1419634,3.6680479,-0.28136724,-0.45737547,0.84358752,0
3.6611958,-1.4799823,-0.25646257,0.30225578,-0.87659681,-0.37445891,0
-0.43038225,3.7716956,-2.5005186,-0.30225578,0.87659681,0.37445891,0
1.11154,3.6739514,-1.0270934,-0.30225578,0.87659681,0.37445891,0
0.51435089,-2.7581828,3.1700869,0.02384007,-0.38575843,0.92229158,0
1.3885791,-3.3085065,2.1896443,0.30225578,-0.87659681,-0.37445891,0
-0.34351641,2.5425158,0.44706941,-0.30225578,0.87659681,0.37445891,0
-2.4390769,1.9839872,0.063072443,-0.30225578,0.87659681,0.37445891,0
-3.6260147,-1.6456386,0.42337132,-0.92071295,-0.37020034,0.12344635,0
-2.8836164,2.2662628,-0.95654917,-0.30225578,0.87659681,0.37445891,0
-2.3182011,-2.440383,2.2425497,-0.62479794,-0.47886941,0.61669385,0
-3.194901,1.4431649,0.71903467,-0.30225578,0.87659681,0.37445891,0
1.5394828,-2.8422093,2.9882159,0.24599743,-0.30779454,0.91910148,0
2.6695271,1.481663,3.0593939,0.79112208,0.01154609,0.61154872,0
-1.4530563,0.39036894,4.4393916,-0.17860383,-0.43795604,0.88107592,0
0.67553818,-2.3495884,-0.63070494,0.30225578,-0.87659681,-0.37445891,0
-0.76336384,-1.3517765,-4.1280041,0.30225578,-0.87659681,-0.37445891,0
-2.6518281,1.6494077,0.67458391,-0.30225578,0.87659681,0.37445891,0
-1.962247,-3.8388922,1.5103402,-0.65729356,-0.47617048,0.5841459,0
4.2610817,-0.088368028,-0.52882195,0.94713211,0.32053068,0.014153838,0
0.71980572,1.4409915,-3.6762733,0.15493894,0.43278861,-0.88808089,0
-1.3108401,0.93156117,-3.6659882,-0.3397966,0.26794317,-0.90152347,0
-2.8255801,-1.129039,2.7454984,-0.63896072,-0.4778313,0.6028316,0
-0.28531766,1.3558213,3.2720602,-0.30225578,0.87659681,0.37445891,0
-2.7672412,1.0939707,-2.7777629,-0.63474244,0.10798515,-0.76514113,0
-2.865756,-1.0733441,-2.8119333,-0.80164886,-0.021211907,-0.59741843,0
2.4135375,-0.38460863,3.1687996,0.61244708,-0.12243542,0.78097236,0
1.3279579,-3.4851117,2.5541399,0.30225578,-0.87659681,-0.37445891,0
-3.3044949,0.42711318,3.0091174,-0.30225578,0.87659681,0.37445891,0
4.5201969,-1.0903926,-0.47511101,0.30225578,-0.87659681,-0.37445891,0
-3.8918915,0.66428745,1.9797657,-0.30225578,0.87659681,0.37445891,0
-1.0115759,2.7132144,-0.49177474,-0.30225578,0.87659681,0.37445891,0
3.4350858,-2.5214899,1.9991626,0.30225578,-0.87659681,-0.37445891,0
1.9419981,-2.7807515,1.4008955,0.30225578,-0.87659681,-0.37445891,0
0.26320744,0.81856245,-4,0.00082874298,0.39307451,-0.91950607,0
3.1810384,-2.0535626,0.69869804,0.30225578,-0.87659681,-0.37445891,0
-3.4577956,-2.2416785,-0.45734024,-0.94690168,-0.32129177,-0.01218605,0
3.000412,-0.60455525,-2.8391809,0.30225578,-0.87659681,-0.37445891,0
-3.2148602,0.7923969,2.2263513,-0.30225578,0.87659681,0.37445891,0
1.069448,1.7258637,3.4993422,-0.30225578,0.87659681,0.37445891,0
1.2373583,0.65826315,-3.9588478,0.21266347,0.4449439,-0.86994183,0
0.78180599,-0.50682151,-4.5656438,0.014836192,0.39711159,-0.91765016,0
2.1332979,-1.318395,3.1756306,0.48712784,-0.19561993,0.85113978,0
3.5441804,-0.73269069,1.9642792,0.81214499,0.031151205,0.58262312,0
-3.072798,-3.1446362,-1.5994313,-0.95157272,-0.25434348,-0.17268026,0
4.4780412,-0.76216394,-1.2536693,0.93127501,0.35537547,-0.080216289,0
-1.6506889,-0.595079,3.866842,-0.30497396,-0.46111432,0.83328509,0
0.41890645,1.8395407,2.7081242,-0.30225578,0.87659681,0.37445891,0
1.5746818,1.8943789,3.5126684,-0.30225578,0.87659681,0.37445891,0
-4.309896,0.3748728,1.3747745,-0.91530621,-0.37659794,0.1427871,0
3.067205,3.3718729,0.77835226,0.94212115,0.33450848,-0.022612572,0
0.30955851,-1.9746805,-1.8037636,0.30225578,-0.87659681,-0.37445891,0
-0.86609185,-2.8607187,-0.67853785,0.30225578,-0.87659681,-0.37445891,0
4.3499441,-0.4149965,-1.1923037,0.92690909,0.36195371,-0.099140048,0
-0.54668856,-0.636338,-4.4135342,-0.29122007,0.28913254,-0.91191709,0
2.95893,0.04300797,2.69559,0.75127375,-0.022719726,0.65959924,0
-0.26819468,2.823344,-3.1402924,0.037236094,0.40339109,-0.91426957,0
3.6789346,-1.4781888,1.8094175,0.78899276,0.0096252114,0.61432678,0
0.36481619,-1.3263237,3.7584369,0.10136449,-0.36104816,0.92702168,0
-2.3897188,2.031143,-0.0074765682,-0.30225578,0.87659681,0.37445891,0
-1.7170298,-3.1462851,-0.69689584,0.30225578,-0.87659681,-0.37445891,0
3.8117239,0.49098042,-1.7754545,0.84815705,0.42660832,-0.31406128,0
0.22705698,0.95093298,4.6097555,0.24500299,-0.30819368,0.91923326,0
0.79938793,0.6502856,4.328753,0.34714824,-0.26462919,0.89969951,0
4.3000727,-0.35443872,-0.019165039,0.95278603,0.26588568,0.1466397,0
1.9743639,2.5771732,2.2368836,-0.30225578,0.87659681,0.37445891,0
0.55234694,2.8141594,-3.0231411,0.22633719,0.44759759,-0.86511701,0
-2.0126843,-2.6260746,-2.1533382,0.30225578,-0.87659681,-0.37445891,0
-3.2792587,-0.58054221,-2.2444885,-0.84688139,-0.066637278,-0.5275898,0
-3.8370469,0.081394911,2.4144778,-0.79791439,-0.44758809,0.40372926,0
3.17502,2.2990649,1.9579434,0.9289279,0.18274024,0.32202274,0
-1.5719912,1.297462,2.3701003,-0.30225578,0.87659681,0.37445891,0
-2.7994118,2.5756388,-1.6128204,-0.30225578,0.87659681,0.37445891,0
0.53809738,1.5329342,-3.6601155,0.12020934,0.42474943,-0.8972944,0
-2.5318494,1.7208246,0.60424376,-0.30225578,0.87659681,0.37445891,0
-4.4982672,0.78094608,1.0266166,-0.94105017,-0.33699536,0.029298902,0
1.3780581,-1.4907641,-2.0741255,0.30225578,-0.87659681,-0.37445891,0
-3.3462329,-2.5299103,-0.85730934,-0.95196855,-0.2977666,-0.071347713,0
1.0958576,2.9209075,-2.772378,0.36396772,0.46920118,-0.80459774,0
1.63147,-3.1110005,1.9233462,0.30225578,-0.87659681,-0.37445891,0
-0.3173871,1.7233334,2.3858404,-0.30225578,0.87659681,0.37445891,0
-0.49594593,-2.2949047,3.2985048,-0.17133862,-0.43639666,0.88328969,0
-1.3473194,2.5869005,-0.4670839,-0.30225578,0.87659681,0.37445891,0
2.0112307,1.0976077,-3.4056556,0.43321133,0.47624385,-0.76519233,0
-4.0671272,1.6019729,-0.35677338,-0.30225578,0.87659681,0.37445891,0
-4.271452,0.9938941,0.90179253,-0.30225578,0.87659681,0.37445891,0
-0.19117665,3.3507481,-1.3220117,-0.30225578,0.87659681,0.37445891,0
-3.6749861,0.48696318,-1.7435951,-0.85189116,-0.072151691,-0.51872456,0
-0.68760109,3.4055572,-2.894531,-0.012517095,0.38914919,-0.92108947,0
-1.4640846,1.5662662,1.8279387,-0.30225578,0.87659681,0.37445891,0
-3.3966756,-1.9700434,0.85247803,-0.87796253,-0.40900391,0.24879158,0
0.8738966,-0.75982392,-4.1921825,0.30225578,-0.87659681,-0.37445891,0
2.5885353,2.2587235,-2.0903895,0.67847967,0.47377235,-0.56143093,0
1.0742643,-3.2952509,2.9139104,0.10820651,-0.35874113,0.92714381,0
-4.4115291,1.2186357,-0.38556719,-0.93231297,-0.19002289,-0.30770671,0
0.18230963,1.1723593,4.0789986,-0.30225578,0.87659681,0.37445891,0
1.8826752,1.4066079,3.8643796,0.63018662,-0.11097863,0.76847136,0
2.8007355,-0.293082,2.8410459,0.69719183,-0.064592645,0.71396852,0
-4.0141239,0.56789041,-1.1132588,-0.90573353,-0.14165758,-0.39947397,0
-1.1554558,2.3748703,-3.241399,-0.19688165,0.32695264,-0.92430472,0
2.6296456,3.2551644,-1.097261,0.7819227,0.45268548,-0.42856991,0
2.6640975,2.214113,-2.0346894,0.69426548,0.47162399,-0.54365981,0
3.3047063,2.1770298,1.6264982,0.9409256,0.21146461,0.26446438,0
0.38329959,-1.6900041,-2.4106593,0.30225578,-0.87659681,-0.37445891,0
-1.2681584,-2.2814691,-2.3590827,0.30225578,-0.87659681,-0.37445891,0
2.1136229,1.0651454,-3.3660746,0.45544046,0.47789872,-0.75112337,0
3.5979581,1.7769337,0.62837934,0.9527964,0.28963393,0.091054082,0
0.18859673,-1.0937182,-3.9637065,0.30225578,-0.87659681,-0.37445891,0
-1.3478539,1.0768503,-3.6088331,-0.33696347,0.26921257,-0.90220827,0
-3.5995467,1.0911303,1.2165146,-0.30225578,0.87659681,0.37445891,0
2.2745175,3.1652069,1.1025929,-0.30225578,0.87659681,0.37445891,0
2.8787231,1.6709439,2.7493124,0.84240711,0.061807379,0.53528482,0
2.0002117,-3.2865725,2.6319954,0.30225578,-0.87659681,-0.37445891,0
1.637341,-0.96769023,-3.0893369,0.30225578,-0.87659681,-0.37445891,0
-3.1438885,-3.0948281,-1.1876884,-0.9527719,-0.28995743,-0.090277195,0
0.068856478,-1.2907655,-3.5990763,0.30225578,-0.87659681,-0.37445891,0
1.2046018,-0.54629159,-4.4251161,0.30225578,-0.87659681,-0.37445891,0
3.442235,-0.66860783,-2.3326051,0.30225578,-0.87659681,-0.37445891,0
1.7144659,2.4394188,-2.7324419,0.47372758,0.47902441,-0.7389977,0
-3.455842,-2.2100422,-0.0479846,-0.93277937,-0.35292351,0.073262095,0
-2.4512796,-3.1863575,1.4534094,-0.72676998,-0.46611351,0.50452286,0
2.816272,0.51230836,2.8741167,0.755005,-0.019649714,0.65542412,0
1.6390685,-2.9496565,1.5517775,0.30225578,-0.87659681,-0.37445891,0
0.23223734,3.3797309,-2.8119786,0.19705886,0.44180882,-0.87519854,0
-2.7286735,-1.9029737,-2.9557071,-0.82953131,-0.048364267,-0.55636173,0
-3.0511417,-2.2861137,-2.2838962,-0.90915287,-0.14703643,-0.38964224,0
-1.3224807,-3.5346267,0.53067183,0.30225578,-0.87659681,-0.37445891,0
-1.8370534,1.2700541,2.2203088,-0.30225578,0.87659681,0.37445891,0
0.70299339,-3.7496781,2.6690226,0.30225578,-0.87659681,-0.37445891,0
1.2759113,-3.2557576,1.9752176,0.30225578,-0.87659681,-0.37445891,0
-2.4804146,-0.54124838,3.4688134,-0.5011515,-0.48029494,0.71983576,0
-2.1337931,-0.9994483,-3.5969977,-0.65269494,0.095975116,-0.75151694,0
-0.96937132,-3.2758095,0.20981169,0.30225578,-0.87659681,-0.37445891,0
-4.2017298,0.16225888,-0.24689245,-0.95070457,-0.24866439,-0.18527424,0
4.178297,-1.2156546,-0.45785093,0.30225578,-0.87659681,-0.37445891,0
-0.76481771,-2.3344741,-1.8287129,0.30225578,-0.87659681,-0.37445891,0
3.6532435,-1.3605602,-0.54244447,0.30225578,-0.87659681,-0.37445891,0
1.0673958,3.4596415,-0.56103325,-0.30225578,0.87659681,0.37445891,0
2.7117543,2.0525615,-2.1139376,0.69214785,0.47193107,-0.54608804,0
-3.7914433,-1.2720616,-0.082520485,-0.9478609,-0.31801543,-0.020630121,0
1.0999937,2.1897583,2.438036,-0.30225578,0.87659681,0.37445891,0
-0.95119953,0.60149848,4.5004196,-0.30225578,0.87659681,0.37445891,0
2.8872409,3.2747669,-0.48656416,0.85901672,0.42076796,-0.29162359,0
2.7322683,3.5182524,-0.57483053,0.83744383,0.43184254,-0.33496189,0
-2.4202623,0.84921837,2.7347178,-0.30225578,0.87659681,0.37445891,0
0.84553194,-3.1535978,2.9915111,0.06782639,-0.37205938,0.92572725,0
2.56774,-1.8839605,2.7878172,0.5373798,-0.16776115,0.82648569,0
-3.3032293,0.27255344,3.3501744,-0.63751382,-0.47794691,0.6042704,0
-3.5406957,-1.9385664,0.16513348,-0.92804205,-0.36031616,0.094391823,0
-2.6654031,-3.8683429,0.22791052,0.30225578,-0.87659681,-0.37445891,0
2.7455578,2.2001338,2.8962104,0.85136682,0.071569055,0.51966542,0
1.5146046,3.5658705,-0.44873405,-0.30225578,0.87659681,0.37445891,0
3.5408282,1.7386518,-0.69113493,0.89994645,0.39191598,-0.19104421,0
-0.91469157,2.8838811,-0.81309766,-0.30225578,0.87659681,0.37445891,0
-0.73841429,1.4154006,2.7668562,-0.30225578,0.87659681,0.37445891,0
0.040269852,-0.23149741,-4.4073553,-0.13089526,0.35094315,-0.92720276,0
-0.53514147,1.2220429,3.3835783,-0.30225578,0.87659681,0.37445891,0
-0.15626538,-3.288384,0.89557064,0.30225578,-0.87659681,-0.37445891,0
-2.82184,0.54181874,3.1301844,-0.30225578,0.87659681,0.37445891,0
-3.1244442,-3.1076233,-1.329905,-0.95322651,-0.27773958,-0.11924565,0
0.4713521,-2.9427261,3.0926151,-0.00034368038,-0.39293319,0.91956675,0
3.9525161,-1.4474549,1.4194951,0.84214234,0.061524287,0.53573382,0
-3.3156352,-1.3034307,1.9070261,-0.78555846,-0.45158136,0.4230507,0
-2.5071561,-3.4920063,1.0686162,-0.77059674,-0.45593306,0.44531471,0
0.23010039,-2.3564956,-0.97408336,0.30225578,-0.87659681,-0.37445891,0
-2.5229051,2.6588945,-1.5845281,-0.30225578,0.87659681,0.37445891,0
0.80377817,3.2097874,-2.7294044,0.31796986,0.46305215,-0.82733154,0
1.7853565,-2.5151904,0.65278721,0.30225578,-0.87659681,-0.37445891,0
1.4640543,-1.9572566,-0.9126668,0.30225578,-0.87659681,-0.37445891,0
-2.6750176,-2.5702553,-2.8186316,0.30225578,-0.87659681,-0.37445891,0
4.1144705,-0.77789438,-1.5341544,0.30225578,-0.87659681,-0.37445891,0
3.1178789,-0.94636285,-1.9442031,0.30225578,-0.87659681,-0.37445891,0
-4.0138216,1.7026322,-0.5493865,-0.30225578,0.87659681,0.37445891,0
-2.0323207,1.437304,1.6711657,-0.30225578,0.87659681,0.37445891,0
-3.5515037,-0.8933363,1.8942344,-0.81233609,-0.44241318,0.37997389,0
-0.032948971,0.94609952,4.4349132,-0.30225578,0.87659681,0.37445891,0
2.5118713,-0.54410064,-3.3750436,0.30225578,-0.87659681,-0.37445891,0
-0.49870396,-1.9691203,-2.4691932,0.30225578,-0.87659681,-0.37445891,0
-0.26404858,0.32068193,-4.1538315,-0.15627491,0.34194872,-0.92663312,0
-1.0681043,-1.4683908,-4.1009927,0.30225578,-0.87659681,-0.37445891,0
-3.1241169,1.3249565,1.0528922,-0.30225578,0.87659681,0.37445891,0
1.0998834,-2.0542603,-0.97953564,0.30225578,-0.87659681,-0.37445891,0
0.14164829,-0.65176368,-4.5805078,-0.14060366,0.34753656,-0.92706454,0
3.7498693,-0.2240535,1.5629051,0.88120401,0.10716088,0.46042997,0
-2.0093956,-1.9300884,-3.7799652,0.30225578,-0.87659681,-0.37445891,0
3.6930504,1.3454857,0.83146095,0.95156521,0.25428897,0.17280185,0
-3.5390716,0.90174168,-1.9785426,-0.80019021,-0.019855127,-0.59941721,0
-0.31679344,-1.9924245,-2.2678039,0.30225578,-0.87659681,-0.37445891,0
3.4547372,1.9197488,-0.71832466,0.89161634,0.39892912,-0.2141856,0
3.4099545,0.290456,2.0707092,0.85243809,0.072760791,0.51774013,0
0.54089272,3.4094005,-0.86840355,-0.30225578,0.87659681,0.37445891,0
-2.6935682,0.69143653,-2.8947687,-0.64798105,0.099162474,-0.75517344,0
0.72692537,0.62692726,-4.0616775,0.09172821,0.41775754,-0.90391606,0
2.1886806,3.7383213,-0.30833554,-0.30225578,0.87659681,0.37445891,0
-3.2816651,-1.5519085,1.7012863,-0.80012238,-0.44683325,0.4001798,0
-1.4228177,-2.8534141,2.6459351,-0.43734705,-0.47657502,0.76262927,0
1.1956601,-1.4581361,3.5415349,0.27523077,-0.29584551,0.91472566,0
1.6073064,4.0065584,-1.4055433,-0.30225578,0.87659681,0.37445891,0
-0.45175648,-2.7655897,3.0725675,-0.1988712,-0.4421787,0.87460148,0
2.8936577,-2.1184385,2.5177293,0.58824158,-0.13758357,0.7968955,0
-3.4020462,-2.2408433,-1.1096921,-0.95264095,-0.26401711,-0.15089679,0
-3.3563535,-2.5144017,-0.77945471,-0.95103729,-0.30392805,-0.056172252,0
2.2769914,-1.5945714,3.0295489,0.49734211,-0.19010308,0.84646982,0
-3.1586077,-2.659039,0.55991268,-0.87779975,-0.40911499,0.24918294,0
-1.2622629,-3.4321547,0.33939457,0.30225578,-0.87659681,-0.37445891,0
0.91276455,-1.4543047,3.6180429,0.21338677,-0.32064089,0.92285162,0
1.4518342,3.8066385,-1.063031,-0.30225578,0.87659681,0.37445891,0
-3.1278405,-0.11640632,3.226835,-0.62692684,-0.47872645,0.61464089,0
0.78563827,-2.4630082,-0.27632213,0.30225578,-0.87659681,-0.37445891,0
-2.8579955,1.1994591,1.5614855,-0.30225578,0.87659681,0.37445891,0
-1.9959319,2.2436855,-3.0105891,-0.38996321,0.24474448,-0.88770968,0
2.1570621,-2.5931845,1.135402,0.30225578,-0.87659681,-0.37445891,0
0.55010349,-2.6825993,0.04761523,0.30225578,-0.87659681,-0.37445891,0
2.2521524,0.015618563,-3.9390197,0.40117735,0.47333023,-0.7842288,0
-3.7400014,-0.38945323,2.0775464,-0.81659162,-0.44077003,0.37269241,0
-3.2426395,1.0119427,-2.3340216,-0.7356115,0.035331801,-0.67648137,0
3.5216823,1.5059614,-1.1673717,0.86670876,0.41625729,-0.27485549,0
3.4853871,1.6534752,-1.0573993,0.87134677,0.41336879,-0.26434982,0
-1.0948801,2.2242031,0.58574325,-0.30225578,0.87659681,0.37445891,0
0.57113695,1.4835509,-3.6790316,0.12390828,0.42563123,-0.89637291,0
1.7405105,-0.5233351,-4.0462813,0.30225578,-0.87659681,-0.37445891,0
0.17923784,2.3762438,1.2582631,-0.30225578,0.87659681,0.37445891,0
-1.8117547,-1.3963827,-3.9199047,-0.61497003,0.12082486,-0.77923858,0
-1.5318015,1.0982845,2.8688092,-0.30225578,0.87659681,0.37445891,0
-0.51580524,-3.4048834,0.87807906,0.30225578,-0.87659681,-0.37445891,0
4.0156436,-1.7091272,1.3498609,0.83717906,0.056270793,0.54402608,0
-0.75250673,1.8916141,-3.4914026,-0.14443219,0.3461816,-0.92698288,0
-3.3737705,2.0829842,-0.92314219,-0.30225578,0.87659681,0.37445891,0
-0.71242261,-3.7950428,2.4348512,-0.34431893,-0.46671218,0.8146311,0
-2.2638111,-3.6821218,0.11613011,0.30225578,-0.87659681,-0.37445891,0
0.17892045,-2.7711864,-0.044617116,0.30225578,-0.87659681,-0.37445891,0
-1.1892929,2.7048123,-3.1167059,-0.17918491,0.33358046,-0.9255358,0
-1.0437956,0.16779089,4.3965726,-0.10159087,-0.42021918,0.90171766,0
2.956583,-0.49507701,-3.1308429,0.30225578,-0.87659681,-0.37445891,0
3.2550013,-2.1565483,2.2199292,0.6593737,-0.091416612,0.74623656,0
