-3.5042686,2.6399593,1.3587277,-0.41427487,0.62450135,0.66209847,0
1.996609,2.2823994,-2.6084878,0.49915224,0.57059985,-0.65212196,0
3.7103891,0.28394032,1.7181252,0.81830746,-0.062886477,0.57133019,0
-1.8768378,-3.6244478,-2.7801919,0.12330854,-0.95164657,-0.28136075,0
-0.79241467,-3.9507866,-0.30302048,-0.080857992,-0.99670696,0.0061040539,0
2.688971,-3.6720293,-0.39333999,0.22082365,-0.88331604,-0.41350913,0
-2.7869225,3.9542687,-2.5742922,-0.81830746,0.062886477,-0.57133019,0
1.6486998,-3.1547251,4.2925577,0.81830746,-0.062886477,0.57133019,0
2.2042599,-4.1677933,2.1502283,-0.12288296,-0.99015582,0.067016631,0
-3.0483098,1.2110724,-2.5018554,-0.81830746,0.062886477,-0.57133019,0
-2.9588048,-1.6813293,2.3228223,-0.53750139,-0.43587118,0.72187853,0
-4.7241344,0.41024399,-0.18974423,-0.81830746,0.062886477,-0.57133019,0
4.2297788,2.0414467,1.1676608,0.81830746,-0.062886477,0.57133019,0
-0.67143583,-1.5851631,4.0682073,-0.55134511,-0.36682007,0.74930733,0
3.1322885,1.8966546,-2.0515611,0.5228948,0.49415806,-0.69454217,0
-1.636699,-3.7175684,-2.3351586,0.089928329,-0.96774793,-0.23532325,0
3.1072221,1.8346727,2.7527218,0.81830746,-0.062886477,0.57133019,0
-0.27495718,-3.9046001,-0.98667675,0.042380929,-0.98468959,-0.16908666,0
0.77770066,0.43187207,-4.3202772,0.57474685,0.078740537,-0.81453419,0
-5.0179033,-1.6107855,0.83050418,-0.53223789,-0.45819998,0.71188188,0
4.1094885,-3.4105949,-0.067038774,0.30337375,-0.79700994,-0.52224469,0
3.9846148,-3.7387478,0.44232869,0.229303,-0.87575495,-0.42482167,0
3.3860438,-0.46241713,-2.492702,0.56506455,-0.093975365,-0.81967711,0
-3.640609,0.68889213,-1.7109903,-0.81830746,0.062886477,-0.57133019,0
3.1875062,0.37455487,2.4770169,0.81830746,-0.062886477,0.57133019,0
5.0403237,1.6356964,-0.79754186,0.53055751,0.4649877,-0.70872802,0
-4.7520165,2.9660017,0.25433326,-0.38405314,0.6797173,0.62489003,0
4.8806305,-2.7792385,-0.29515839,0.81830746,-0.062886477,0.57133019,0
4.3194203,1.5711179,0.98749924,0.81830746,-0.062886477,0.57133019,0
-5.222106,-1.3482151,0.83322477,-0.54604357,-0.39541957,0.73856598,0
4.1943731,-2.2622924,-1.2341273,0.46156812,-0.52046055,-0.71838409,0
-3.7764101,3.1336398,0.64986444,-0.34754807,0.73756504,0.57897162,0
3.3281751,2.3916543,2.4975615,0.81830746,-0.062886477,0.57133019,0
1.4143429,-1.0094273,-3.7138169,0.53790319,-0.26652154,-0.79976654,0
-4.0660591,3.4117351,-0.80192101,-0.81830746,0.062886477,-0.57133019,0
-1.1275837,-0.24068229,4.0877147,-0.5740031,-0.03772229,0.81798387,0
3.7174418,3.0559916,2.0131445,0.81830746,-0.062886477,0.57133019,0
-1.1911793,-1.4860482,-5.2286358,0.49362639,-0.43233234,-0.75460041,0
-2.1754973,-2.8997715,-4.2044525,-0.81830746,0.062886477,-0.57133019,0
4.6957607,1.6313071,0.45509839,0.81830746,-0.062886477,0.57133019,0
-2.6791797,-0.018445253,-3.1658883,-0.81830746,0.062886477,-0.57133019,0
-2.9538846,-1.2587082,2.5441213,-0.55752361,-0.32858273,0.76236522,0
3.0187488,-3.6504383,2.2756937,0.81830746,-0.062886477,0.57133019,0
3.4935274,1.1593621,2.1250913,0.81830746,-0.062886477,0.57133019,0
3.7459831,3.3906891,0.47439528,0.29756665,0.8967737,-0.32749206,0
-0.78957057,-0.76777053,-5.275795,0.54154927,-0.24872988,-0.80303037,0
3.5793135,-3.5062156,1.4886796,0.81830746,-0.062886477,0.57133019,0
-3.6381042,3.3014402,0.50442934,-0.31696752,0.77982229,0.53982294,0
3.6690016,-1.123342,-2.1588531,0.5409115,-0.25191408,-0.80246747,0
-1.7935765,3.8858709,0.28585577,-0.13155621,0.94711882,0.2926755,0
-2.4628632,1.841352,-3.2710061,-0.81830746,0.062886477,-0.57133019,0
1.5291989,-1.4886659,4.6471,0.81830746,-0.062886477,0.57133019,0
2.6743076,1.1273131,3.2949193,0.81830746,-0.062886477,0.57133019,0
2.5341682,2.902627,-1.4933718,0.42119437,0.74197561,-0.5216009,0
-2.0064497,1.3312402,-3.9808686,-0.81830746,0.062886477,-0.57133019,0
-3.7221112,-3.1871004,0.025885582,-0.35144913,-0.841277,0.41077557,0
5.5509167,-0.26970482,-0.97897363,0.81830746,-0.062886477,0.57133019,0
1.2541823,-0.43697453,5.1567612,0.81830746,-0.062886477,0.57133019,0
0.0038644075,1.5629098,4.4078703,-0.49476984,0.42882445,0.75585216,0
0.14786935,-0.65325558,4.9484572,-0.57457149,-0.11631751,0.81014681,0
3.3060386,-3.8104191,0.24245059,0.19569707,-0.90412718,-0.37981138,0
-3.6111259,2.3651292,-1.5687151,-0.81830746,0.062886477,-0.57133019,0
2.9686472,2.069418,2.9770389,0.81830746,-0.062886477,0.57133019,0
-0.66858208,-3.3923516,-2.7832398,0.22644436,-0.87833506,-0.42101127,0
-2.4906697,2.4589829,-3.1631961,-0.81830746,0.062886477,-0.57133019,0
-3.8322496,2.8893967,-1.1942962,-0.81830746,0.062886477,-0.57133019,0
-1.4608014,-2.9830217,2.2457547,-0.42151517,-0.74142772,0.52212059,0
-2.9061961,4.1690159,-1.3583266,-0.02763474,0.9885428,0.14838998,0
-1.1983247,4.0782948,-0.4996646,0.011895418,0.99563682,0.092552267,0
0.34384251,-2.9295354,3.758662,-0.44860578,-0.69130278,0.56643921,0
-3.0075228,-2.4962547,1.6198963,-0.4698506,-0.64573753,0.60188329,0
-1.8515401,3.853935,0.35899699,-0.14530331,0.93907785,0.31148016,0
1.42401,3.6484554,-0.91255343,0.27121139,0.91863,-0.28733826,0
4.1604509,-3.0591779,0.70553052,0.81830746,-0.062886477,0.57133019,0
2.42377,-4.1096172,2.9192472,-0.19388795,-0.96593785,0.17138188,0
4.0659723,-3.3783445,0.80572069,0.81830746,-0.062886477,0.57133019,0
-3.5729115,-0.77862835,-1.969483,-0.81830746,0.062886477,-0.57133019,0
-3.056185,2.471966,-2.3517895,-0.81830746,0.062886477,-0.57133019,0
-4.209662,3.6387262,-0.37138581,-0.25746894,0.84859031,0.4621734,0
-0.12046957,3.7769752,-1.9591205,0.26762509,0.9213624,-0.28190079,0
-4.7064228,1.303401,1.4014037,-0.53574759,0.27660072,0.79778856,0
1.7058815,-2.8803937,-2.211688,0.36234185,-0.7151702,-0.59769559,0
-2.6536465,-2.9391026,1.3437495,-0.41404378,-0.75393945,0.51004225,0
3.8607638,-0.30855656,1.4375302,0.81830746,-0.062886477,0.57133019,0
5.0261698,0.22085905,-1.3408215,0.57468545,0.10761523,-0.81126797,0
-2.860007,-0.67226863,2.80252,-0.57242715,-0.17902389,0.80017346,0
2.6172929,1.7141907,3.4411788,0.81830746,-0.062886477,0.57133019,0
-2.0741827,-3.1227369,1.5295408,-0.39026195,-0.79054278,0.47195104,0
4.1062422,-2.682822,0.82459903,0.81830746,-0.062886477,0.57133019,0
-2.3340683,4.1372542,-2.6370478,0.16866851,0.97650856,-0.13409697,0
-2.7817299,-3.6753547,-0.53872979,-0.21406865,-0.95583123,0.20139869,0
-2.8995628,-1.7681482,-3.0428269,-0.81830746,0.062886477,-0.57133019,0
-3.9649787,-2.8015172,-1.6305912,-0.81830746,0.062886477,-0.57133019,0
-4.4947863,3.3501685,-0.19463825,-0.81830746,0.062886477,-0.57133019,0
-2.2286179,2.4022129,2.3756874,-0.43083662,0.59084582,0.68211514,0
-0.25140905,-3.9018607,-0.99637938,0.045495152,-0.98379165,-0.17344829,0
2.2801032,3.0646811,-1.4551246,0.39782476,0.77940381,-0.48400933,0
3.379931,-1.0907342,-2.3639226,0.54142451,-0.24935521,-0.80292058,0
-3.4483061,2.490464,-1.788124,-0.81830746,0.062886477,-0.57133019,0
-2.5217483,1.9609871,-3.1734972,-0.81830746,0.062886477,-0.57133019,0
3.4194217,2.4686737,2.3753481,0.81830746,-0.062886477,0.57133019,0
-2.9379673,-0.82472229,-2.8839774,-0.81830746,0.062886477,-0.57133019,0
3.175065,-4.0845613,1.0129291,0.091298401,-0.96715617,-0.23722038,0
-0.11476934,2.9219117,3.1154704,-0.33602756,0.75409651,0.56429064,0
-1.6263938,2.136693,-4.4365606,-0.81830746,0.062886477,-0.57133019,0
0.87690067,-4.0404077,1.5001516,-0.1548934,-0.98135114,0.11383384,0
4.7972527,2.2995205,-0.43251944,0.47635746,0.63043892,-0.61288691,0
2.7267144,3.7950695,1.9815776,0.042423368,0.99789369,0.049075965,0
-3.1317375,1.8579078,-2.311166,-0.81830746,0.062886477,-0.57133019,0
1.6154482,-0.39623475,4.6438103,0.81830746,-0.062886477,0.57133019,0
3.4405069,3.5650232,2.4658232,0.81830746,-0.062886477,0.57133019,0
-2.1261292,-2.9850068,-4.284544,-0.81830746,0.062886477,-0.57133019,0
-2.9171591,2.7112417,1.6548324,-0.39947551,0.65246439,0.64397955,0
0.4897418,3.9439731,0.72629374,0.0062991381,0.99491835,0.10048876,0
2.6948743,3.4915206,3.5256906,0.81830746,-0.062886477,0.57133019,0
0.50130582,-1.388308,5.0116291,-0.56222016,-0.29423943,0.77287233,0
1.7617013,-2.0752234,4.2495275,0.81830746,-0.062886477,0.57133019,0
0.89950895,3.9410229,0.55367523,0.060280919,0.9979049,0.0235001,0
4.941288,1.7801194,0.11981249,0.81830746,-0.062886477,0.57133019,0
5.2444859,-0.46740627,-1.2080841,0.56834775,-0.059769988,-0.8206147,0
5.3061752,0.38482904,-0.55639029,0.81830746,-0.062886477,0.57133019,0
-4.6917882,-2.3406854,-0.53886867,-0.81830746,0.062886477,-0.57133019,0
3.3605132,3.7170517,1.4783684,0.15258276,0.98210037,-0.11044197,0
-5.3617754,1.2181158,0.81246161,-0.81830746,0.062886477,-0.57133019,0
1.9349823,3.8493371,0.73447269,0.12349272,0.99001944,-0.067905046,0
1.662919,1.1352758,4.7443924,0.81830746,-0.062886477,0.57133019,0
5.1230469,1.7016344,-0.14915657,0.81830746,-0.062886477,0.57133019,0
-0.90577674,-3.5909257,-2.4315095,0.16318846,-0.92767447,-0.33584163,0
1.9940999,1.3170948,4.29006,0.81830746,-0.062886477,0.57133019,0
1.0952891,0.059397757,-4.1135888,0.5720278,-0.0080674887,-0.8201946,0
2.849788,3.7800679,2.1641965,0.031050801,0.99738199,0.065308422,0
-3.8309698,-1.332304,-1.660813,-0.81830746,0.062886477,-0.57133019,0
-1.2196147,2.4501224,2.9672337,-0.41602385,0.62107015,0.66422594,0
4.0075569,-1.2066526,1.1284264,0.81830746,-0.062886477,0.57133019,0
-3.129328,3.2695098,-2.1592422,-0.81830746,0.062886477,-0.57133019,0
-1.540868,-1.661391,-4.9771137,-0.81830746,0.062886477,-0.57133019,0
2.0137956,1.2842526,4.258235,0.81830746,-0.062886477,0.57133019,0
5.251195,1.2545519,-0.38191152,0.81830746,-0.062886477,0.57133019,0
0.9418571,0.15594554,5.5112796,-0.56436628,0.1004529,0.81938994,0
-3.8682165,0.88715267,2.0885983,-0.55219245,0.18990633,0.81179982,0
-1.5589104,4.131237,-1.3675529,0.084234357,0.99638557,-0.010975037,0
-2.9165971,-3.7814858,-1.5524676,-0.10808647,-0.99309981,0.045499913,0
-4.6493211,0.5489521,-0.28163052,-0.81830746,0.062886477,-0.57133019,0
3.2073083,-1.7220631,2.2178788,0.81830746,-0.062886477,0.57133019,0
-1.2958709,-3.2326176,-3.4410548,0.25357562,-0.85253829,-0.45703155,0
-2.0930438,3.4501073,1.1535045,-0.26330787,0.84254956,0.46987149,0
2.0362947,0.2835927,4.1158671,0.81830746,-0.062886477,0.57133019,0
3.0811367,1.6382604,2.7684643,0.81830746,-0.062886477,0.57133019,0
-2.3856311,-3.2253342,1.0862806,-0.36549675,-0.82407898,0.43278885,0
-1.8623303,-3.6865814,-2.5476632,0.096529126,-0.96484327,-0.24445769,0
4.1894269,-1.408427,0.84572792,0.81830746,-0.062886477,0.57133019,0
0.34616256,-3.303004,-2.3960726,0.26615238,-0.83955407,-0.47361588,0
-3.0818467,-2.5489106,1.5040511,-0.46312654,-0.66084617,0.59058964,0
4.7424078,3.022646,0.51858544,0.36996466,0.81834275,-0.4398196,0
1.3782209,-0.97801131,-3.7484474,0.53937149,-0.25947431,-0.80109394,0
3.8487332,2.4631898,1.7598475,0.81830746,-0.062886477,0.57133019,0
3.1782632,0.95864558,2.5545464,0.81830746,-0.062886477,0.57133019,0
-3.6221061,-2.9877629,-2.1421824,-0.81830746,0.062886477,-0.57133019,0
-3.5168433,-2.4148219,-2.2298851,-0.81830746,0.062886477,-0.57133019,0
2.0769341,0.49687719,4.0811362,0.81830746,-0.062886477,0.57133019,0
2.498702,-0.41151357,3.3770571,0.81830746,-0.062886477,0.57133019,0
-2.0755162,-0.70838308,-4.1064472,-0.81830746,0.062886477,-0.57133019,0
1.7992263,-3.0649087,4.0868459,0.81830746,-0.062886477,0.57133019,0
-0.52152586,-0.31581306,-5.1996903,0.56060725,-0.13205531,-0.81748456,0
-3.8154593,-1.9922817,-1.7556728,-0.81830746,0.062886477,-0.57133019,0
1.8815757,2.3257043,4.5622444,0.81830746,-0.062886477,0.57133019,0
4.7164035,-2.5090551,-0.030198812,0.81830746,-0.062886477,0.57133019,0
-4.1755886,-0.37430382,-1.061774,-0.81830746,0.062886477,-0.57133019,0
-4.8362975,1.9186721,0.1369381,-0.81830746,0.062886477,-0.57133019,0
2.4643168,-0.16211534,3.4537587,0.81830746,-0.062886477,0.57133019,0
-2.4480052,-1.8675342,-3.700525,-0.81830746,0.062886477,-0.57133019,0
5.346632,-0.065258026,-1.1411428,0.57413387,0.042284995,-0.8176688,0
-1.6623347,0.17155528,-4.6013861,-0.81830746,0.062886477,-0.57133019,0
1.3766308,1.2803369,-3.6864033,0.56104231,0.30341676,-0.7701751,0
4.5112429,1.7708082,0.73473501,0.81830746,-0.062886477,0.57133019,0
-3.0374541,3.9060674,-2.2207646,-0.81830746,0.062886477,-0.57133019,0
3.4177558,-3.540637,1.7162876,0.81830746,-0.062886477,0.57133019,0
-1.0552905,3.9358273,0.40798634,-0.084210813,0.97015375,0.22739887,0
-3.4460893,-0.77714634,-2.1509655,-0.81830746,0.062886477,-0.57133019,0
1.4204767,1.7966138,-3.3986309,0.53767055,0.43512446,-0.72220296,0
-3.5513909,3.8620076,-0.49336588,-0.1859706,0.91156298,0.36669877,0
2.4701283,-0.072393179,3.4553103,0.81830746,-0.062886477,0.57133019,0
-4.6509361,1.3835273,1.4097044,-0.53110415,0.29734141,0.79342079,0
-3.9575946,-1.8179512,-1.5329061,-0.81830746,0.062886477,-0.57133019,0
3.155725,-2.8246307,-1.3890588,0.38665682,-0.67524314,-0.62812674,0
0.8079381,-4.0016346,1.6950227,-0.18286705,-0.970833,0.15505788,0
2.8471587,-2.7551217,2.6200075,0.81830746,-0.062886477,0.57133019,0
-1.5400026,3.9424677,0.1940552,-0.09915489,0.96364993,0.24808711,0
-2.3061788,3.5248654,0.89715862,-0.24998772,0.85612071,0.45228705,0
-0.82980037,-3.8604236,-1.382973,0.043442607,-0.9843868,-0.17057374,0
3.0492456,0.77843332,2.7195001,0.81830746,-0.062886477,0.57133019,0
-2.2135847,-3.4436944,0.76366979,-0.31638902,-0.8791374,0.35639229,0
3.2554517,0.054330826,2.3444524,0.81830746,-0.062886477,0.57133019,0
-3.2867782,2.7211101,-1.9940901,-0.81830746,0.062886477,-0.57133019,0
2.7801433,1.3662896,3.1696367,0.81830746,-0.062886477,0.57133019,0
-3.9695396,0.98481297,1.9955633,-0.54843068,0.21208555,0.80885315,0
-4.4558892,0.65015268,-0.54754138,-0.81830746,0.062886477,-0.57133019,0
4.8585591,-1.8189127,-1.0771089,0.50377703,-0.4000988,-0.76559108,0
3.7061093,2.6741092,-0.8614676,0.44119143,0.70582503,-0.55422127,0
-2.0084519,-0.25430202,-4.1525221,-0.81830746,0.062886477,-0.57133019,0
-2.7880645,-2.5687296,1.7122488,-0.4634515,-0.66013169,0.59113359,0
1.03743,0.058409691,5.52174,0.81830746,-0.062886477,0.57133019,0
-3.8233328,2.9988546,0.78552151,-0.36901328,0.70461684,0.60608935,0
0.090336323,3.6808286,-2.0525131,0.29471505,0.89929408,-0.3231304,0
-4.9532332,-2.1248493,0.48176932,-0.49274963,-0.58850813,0.64098048,0
1.8200634,2.0315471,-2.9432199,0.52046728,0.50285685,-0.69010776,0
-1.2000213,4.066072,-0.38107294,-0.0022630692,0.99363661,0.11261109,0
-2.6991651,2.2096305,-2.8920178,-0.81830746,0.062886477,-0.57133019,0
4.2926493,1.2251339,-1.5786288,0.55481684,0.34611806,-0.75655836,0
1.8586435,-2.1125445,4.1065702,0.81830746,-0.062886477,0.57133019,0
3.2346606,-4.1799979,1.9081571,0.81830746,-0.062886477,0.57133019,0
1.566978,2.270293,4.8803635,-0.4117921,0.62932456,0.65907347,0
0.1965034,-3.6241078,-1.7987545,0.17984539,-0.91607285,-0.3584221,0
-0.47966146,-3.7935393,1.3183788,-0.24251437,-0.93896317,0.24399787,0
0.0036201477,3.9798484,-0.82093841,0.14745224,0.98370004,-0.10291751,0
4.7538061,-2.9738832,-0.13493347,0.81830746,-0.062886477,0.57133019,0
-2.0096502,4.1596484,-1.8959073,0.10912633,0.99291575,-0.047009412,0
-4.1507502,-1.6776118,1.4358172,-0.53222626,-0.45824733,0.71186006,0
5.1853209,0.83874273,-0.33332944,0.81830746,-0.062886477,0.57133019,0
3.1207154,3.0809197,2.8705711,0.81830746,-0.062886477,0.57133019,0
0.14566088,-1.5684336,4.6763763,-0.55472672,-0.34667954,0.75636744,0
1.0806928,3.3007429,-2.044107,0.37063944,0.81746495,-0.44088268,0
-4.5681109,1.0796094,-0.33953714,-0.81830746,0.062886477,-0.57133019,0
1.2622675,0.066113293,-3.9971416,0.57229489,-0.0032010674,-0.82004166,0
4.4468069,1.3053288,0.7757901,0.81830746,-0.062886477,0.57133019,0
-2.271378,2.7293277,-3.4475279,-0.81830746,0.062886477,-0.57133019,0
1.3779135,0.17421007,5.0468168,0.81830746,-0.062886477,0.57133019,0
-4.1276708,1.1807275,-0.9592427,-0.81830746,0.062886477,-0.57133019,0
-4.0737176,-0.60109043,-1.2326438,-0.81830746,0.062886477,-0.57133019,0
-3.6637936,2.5767241,-1.4699898,-0.81830746,0.062886477,-0.57133019,0
-1.6260841,-2.0390594,-4.8966298,-0.81830746,0.062886477,-0.57133019,0
4.6004572,-2.7574019,-0.56174874,0.41015005,-0.63248467,-0.65706933,0
1.9880085,-0.45552933,-3.4557228,0.5622437,-0.11889613,-0.81837994,0
-3.4725831,3.7693877,-1.6125809,-0.81830746,0.062886477,-0.57133019,0
3.3875694,0.24180079,-2.4970732,0.57476133,0.081363291,-0.81426615,0
0.23901033,-4.0254831,0.61594409,-0.10403979,-0.99378335,0.039628591,0
2.6310239,3.8001995,1.2899743,0.11542118,0.99172801,-0.056156434,0
2.2184744,0.96926785,3.9304066,0.81830746,-0.062886477,0.57133019,0
5.0885534,1.1595306,-0.15942121,0.81830746,-0.062886477,0.57133019,0
1.8994145,-1.7480553,4.088294,0.81830746,-0.062886477,0.57133019,0
-1.7530689,3.394527,-4.1166759,-0.81830746,0.062886477,-0.57133019,0
0.53259385,1.9560928,4.492341,-0.45591506,0.53429234,0.71180981,0
-1.5370264,-3.0142934,2.1389852,-0.41573375,-0.75115436,0.51276946,0
3.659791,0.24723721,1.7865567,0.81830746,-0.062886477,0.57133019,0
3.2246339,2.0538783,2.6086831,0.81830746,-0.062886477,0.57133019,0
-4.4293213,-1.0966887,-0.77786911,-0.81830746,0.062886477,-0.57133019,0
1.776566,-3.9458623,2.9722919,-0.251436,-0.93301094,0.25743106,0
-0.67165154,-1.3956287,-4.9373264,0.50365055,-0.40051642,-0.7654559,0
-1.0350361,3.5899596,-3.2691813,0.34280324,0.85126024,-0.39729345,0
3.1063814,-2.2755132,2.3015165,0.81830746,-0.062886477,0.57133019,0
1.1150322,3.8028715,-0.62762672,0.21437609,0.95566553,-0.20185722,0
-3.895472,3.8075919,-1.0026782,-0.81830746,0.062886477,-0.57133019,0
3.7942886,2.7073417,-0.7481488,0.43565714,0.71625262,-0.54514694,0
-1.8048058,2.1899636,-4.1751599,-0.81830746,0.062886477,-0.57133019,0
-2.1906672,-1.0478208,-3.9788804,-0.81830746,0.062886477,-0.57133019,0
-2.4365444,0.20961261,-3.4883082,-0.81830746,0.062886477,-0.57133019,0
-3.4364331,1.0777555,2.3298042,-0.54227036,0.24509008,0.80366272,0
1.520134,-3.9075711,2.8589888,-0.2588799,-0.92779267,0.26866734,0
-2.3018181,-0.42330241,3.2438345,-0.57470286,-0.10588336,0.8114835,0
2.4348776,2.7670319,3.8183355,0.81830746,-0.062886477,0.57133019,0
1.1917857,-2.9260612,-2.4657803,0.34899202,-0.73543817,-0.58080578,0
4.76197,0.74401093,-1.4179804,0.56861311,0.23379377,-0.7886821,0
-1.5563521,-2.6871781,-4.4192276,0.35340858,-0.72885495,-0.58640683,0
5.3904829,-0.90432501,-0.81903887,0.81830746,-0.062886477,0.57133019,0
-4.4429479,2.7496877,0.66748857,-0.40959898,0.6335398,0.65639621,0
4.156755,-1.6634476,0.8644526,0.81830746,-0.062886477,0.57133019,0
-2.6926007,3.804708,-2.7258503,-0.81830746,0.062886477,-0.57133019,0
1.9840894,-2.8857498,3.8417892,0.81830746,-0.062886477,0.57133019,0
-2.3021812,-3.7178431,-2.5682082,0.062199652,-0.9784711,-0.196788,0
2.9246995,-3.6542745,-0.30390358,0.23006827,-0.87505883,-0.42584115,0
4.1056499,-3.4263816,-0.045023441,0.30028045,-0.80079257,-0.5182305,0
-1.2996831,2.7808468,-4.6761045,0.47497839,0.63373989,-0.61054838,0
-2.0650773,3.4783525,-3.6605639,-0.81830746,0.062886477,-0.57133019,0
1.1067014,-0.31702232,5.3811994,0.81830746,-0.062886477,0.57133019,0
-4.8696542,-0.21785975,-0.050454378,-0.81830746,0.062886477,-0.57133019,0
3.3535407,3.5943282,2.5936091,0.81830746,-0.062886477,0.57133019,0
0.41112393,2.3535197,4.0787015,-0.41248813,0.62797803,0.65992212,0
-1.6046399,-1.6217077,-4.8814058,-0.81830746,0.062886477,-0.57133019,0
4.459702,-2.4568002,0.34322262,0.81830746,-0.062886477,0.57133019,0
-1.4269888,0.93016243,-4.8549676,-0.81830746,0.062886477,-0.57133019,0
-4.064785,3.4441471,0.040984392,-0.29620469,0.8057059,0.51293361,0
-1.6732237,1.8942599,-4.3961706,-0.81830746,0.062886477,-0.57133019,0
-0.72282434,-1.847229,-4.6938677,0.46515849,-0.51144159,-0.72253382,0
-1.2243984,-2.0454814,3.38205,-0.52273959,-0.49472171,0.69425774,0
-3.6151628,-2.5016813,-2.0986238,-0.81830746,0.062886477,-0.57133019,0
3.6831551,3.7081704,1.8656484,0.13385093,0.98751831,-0.083016306,0
-2.2811518,-3.8221052,-0.96710241,-0.12454367,-0.9897815,0.069436513,0
1.2273936,-4.013422,0.024348736,0.046895385,-0.98337829,-0.17540818,0
-0.058301687,3.7170107,1.608339,-0.14497972,0.93927419,0.3110384,0
1.9816688,1.9177387,4.3739777,0.81830746,-0.062886477,0.57133019,0
-0.7235651,2.0275521,-4.8547187,0.5337472,0.45196846,-0.71472967,0
2.6221237,-1.7122935,-2.6036558,0.49885854,-0.41603318,-0.76030022,0
1.9779482,-2.8416696,3.8554378,0.81830746,-0.062886477,0.57133019,0
0.54528713,-3.5274777,2.9796736,-0.34861153,-0.84460264,0.40634525,0
-2.7021708,1.7543643,-2.9378247,-0.81830746,0.062886477,-0.57133019,0
0.23603201,3.2697935,-2.8031759,0.38919872,0.79207343,-0.47025964,0
-0.15545893,-2.9115086,3.3850369,-0.44594306,-0.69659346,0.56204313,0
3.4926169,2.1762919,2.2383294,0.81830746,-0.062886477,0.57133019,0
-2.2819028,0.55580139,-3.6716938,-0.81830746,0.062886477,-0.57133019,0
-3.0870833,-3.3329935,-2.9464865,-0.81830746,0.062886477,-0.57133019,0
-3.5000141,1.411782,-1.8327944,-0.81830746,0.062886477,-0.57133019,0
-4.0435467,-0.83952236,-1.3021022,-0.81830746,0.062886477,-0.57133019,0
4.6251683,-1.3523521,0.22779489,0.81830746,-0.062886477,0.57133019,0
1.7885416,2.3853528,4.7020612,0.81830746,-0.062886477,0.57133019,0
-5.0438399,-0.64829922,0.15165043,-0.81830746,0.062886477,-0.57133019,0
-0.56814885,3.8912616,0.77816296,-0.087816179,0.96864855,0.23239709,0
1.4974802,-2.3509643,-2.8818727,0.43027228,-0.59203714,-0.68143803,0
1.1600757,0.63387245,-4.0225801,0.57413226,0.1366342,-0.80728137,0
-3.0535407,1.558188,-2.4561553,-0.81830746,0.062886477,-0.57133019,0
-2.7254434,-1.1303291,-3.2220106,-0.81830746,0.062886477,-0.57133019,0
-3.3076501,-3.7399871,-2.5525408,-0.022961497,-0.99677992,-0.076828465,0
4.3484392,-3.2316065,0.41729951,0.81830746,-0.062886477,0.57133019,0
-4.6545773,-1.7744379,-0.52983856,-0.81830746,0.062886477,-0.57133019,0
-2.421874,1.0130999,3.0340667,-0.54162127,0.24836832,0.80309379,0
1.1124913,0.5308845,5.4662361,0.81830746,-0.062886477,0.57133019,0
-1.6730685,1.814447,-4.4051785,-0.81830746,0.062886477,-0.57133019,0
-3.0249586,4.2235365,-2.2037187,-0.81830746,0.062886477,-0.57133019,0
-1.6911553,2.8682606,2.235086,-0.36401638,0.71254855,0.59980547,0
-1.9607749,0.59837365,-4.1269546,-0.81830746,0.062886477,-0.57133019,0
-0.087628603,0.62705457,-4.9094214,0.57464743,0.11091891,-0.81084979,0
4.5901318,-3.2106678,-0.063180923,0.34519276,-0.74100757,-0.57597721,0
1.6024836,-1.8007505,-3.2188711,0.48541209,-0.45670375,-0.74551773,0
-2.2489586,2.337136,2.4180532,-0.43830562,0.57475972,0.6910423,0
3.7822216,-2.7487044,1.281437,0.81830746,-0.062886477,0.57133019,0
1.2299099,-3.703069,3.1807804,-0.3178308,-0.87771267,0.35861412,0
1.6379628,1.0669057,4.7726111,0.81830746,-0.062886477,0.57133019,0
1.4710381,0.7232039,4.9738636,0.81830746,-0.062886477,0.57133019,0
0.094225883,-3.3345923,2.96608,-0.38179564,-0.80249703,0.45850909,0
-0.048398495,3.1068354,-3.2882974,0.42031169,0.74347836,-0.52017117,0
1.5165391,-1.9789217,4.61127,0.81830746,-0.062886477,0.57133019,0
0.19727683,1.2089602,-4.5688996,0.56586444,0.26254383,-0.78158057,0
-4.533772,0.42849684,-0.4603889,-0.81830746,0.062886477,-0.57133019,0
2.0018106,-3.5195181,-1.0752126,0.24572885,-0.86030418,-0.44664755,0
4.0024424,2.9158514,1.5895177,0.81830746,-0.062886477,0.57133019,0
-4.345366,0.19012451,1.8444359,-0.5720312,0.0080066323,0.82019275,0
0.85368454,0.85360813,5.2911067,-0.53693926,0.27106678,0.79888618,0
0.99756289,3.7376168,-1.0173937,0.24939072,0.93440419,-0.25434843,0
4.853477,-0.22092104,0.025327921,0.81830746,-0.062886477,0.57133019,0
-3.6955843,-0.26126266,2.2774234,-0.57477874,-0.092145056,0.81310439,0
3.6260347,2.0088174,-1.5942405,0.51166588,0.53254783,-0.67423356,0
5.2714162,-0.79273462,-0.63621879,0.81830746,-0.062886477,0.57133019,0
0.1683774,-3.5426536,2.6222413,-0.33815986,-0.85644108,0.39007255,0
-1.0325763,-3.4492245,-2.8516772,0.20364827,-0.8977946,-0.39050275,0
-0.27753639,0.65676808,-5.0399079,0.57459605,0.11470252,-0.81035966,0
2.6667256,2.6390986,3.4721818,0.81830746,-0.062886477,0.57133019,0
-3.0170088,-1.7732608,-2.8751731,-0.81830746,0.062886477,-0.57133019,0
2.6855819,-2.823245,-1.6795433,0.38179612,-0.68355572,-0.62207985,0
-2.5983627,-0.55839443,-3.341073,-0.81830746,0.062886477,-0.57133019,0
1.940914,-3.1507044,-1.718501,0.32063222,-0.77502704,-0.54454398,0
-0.82880878,3.1397917,-3.871357,0.42442769,0.73640752,-0.52684468,0
-3.7097876,0.77709651,-1.6021988,-0.81830746,0.062886477,-0.57133019,0
1.9852953,-4.1433439,1.1007239,-0.017986178,-0.99631155,-0.083902754,0
4.878365,2.4524999,0.2839458,0.81830746,-0.062886477,0.57133019,0
3.0745597,-2.5461419,2.3173065,0.81830746,-0.062886477,0.57133019,0
-2.2008014,3.6139419,0.77762449,-0.22616702,0.87858367,0.42064142,0
1.7259208,0.46637654,4.5805297,0.81830746,-0.062886477,0.57133019,0
4.3915539,0.24517107,0.73823607,0.81830746,-0.062886477,0.57133019,0
-1.7831146,-0.18401587,3.6303167,-0.57395548,-0.036153644,0.81808805,0
2.3410985,-2.3893991,3.3850846,0.81830746,-0.062886477,0.57133019,0
1.1779385,1.0456026,-3.9124265,0.56802964,0.24037886,-0.78712165,0
-1.8314426,-0.18529296,-4.3984537,-0.81830746,0.062886477,-0.57133019,0
-3.6555367,2.0445583,-1.5403912,-0.81830746,0.062886477,-0.57133019,0
-1.7690101,-1.6989503,3.1968892,-0.54162085,-0.4171012,0.72984481,0
2.7796321,-4.0853915,2.5703011,0.81830746,-0.062886477,0.57133019,0
3.54217,-1.278702,-2.1911163,0.53220826,-0.29252201,-0.79447168,0
3.3500824,3.6872308,1.2408283,0.17910159,0.9724068,-0.14949138,0
2.2260187,-3.7005663,-0.57445645,0.20338881,-0.89800477,-0.3901543,0
4.4550529,-1.6536195,0.4382875,0.81830746,-0.062886477,0.57133019,0
-0.13344431,-1.5393536,-4.5060201,0.49584231,-0.4255074,-0.75702304,0
-1.4929183,0.027088881,-4.8599401,-0.81830746,0.062886477,-0.57133019,0
4.8039193,-2.4073496,-0.1443522,0.81830746,-0.062886477,0.57133019,0
-4.4717827,-0.97691393,-0.70386922,-0.81830746,0.062886477,-0.57133019,0
-1.160791,0.87218904,3.9278302,-0.54374117,0.23753193,0.80493724,0
4.856843,0.42415237,-1.428081,0.57351458,0.1552752,-0.80434483,0
-3.2695093,-0.24413204,-2.3452091,-0.81830746,0.062886477,-0.57133019,0
-5.221055,1.4667106,0.63827157,-0.81830746,0.062886477,-0.57133019,0
-1.2464476,4.0430989,-0.21046907,-0.026333451,0.98885125,0.14655995,0
-3.2214196,2.3688111,-2.1264803,-0.81830746,0.062886477,-0.57133019,0
2.8402176,0.51571536,2.9899704,0.81830746,-0.062886477,0.57133019,0
0.60146332,2.6976094,-3.2820184,0.4679873,0.64999336,-0.59874594,0
-1.2014322,2.4523149,-4.9059758,0.50573438,0.55113107,-0.6636923,0
-4.3911395,-3.3890605,-1.0620327,-0.28214765,-0.90994638,0.30395776,0
4.0972776,-2.2178164,-1.3284271,0.4651427,-0.51148164,-0.72251558,0
1.5141532,3.6433799,2.5569124,-0.12692308,0.94968939,0.28632244,0
-3.6276608,-0.41844153,2.3040102,-0.57429838,-0.13017178,0.8082307,0
-3.6355205,-0.93750525,-1.8972964,-0.81830746,0.062886477,-0.57133019,0
1.9103446,-3.7150822,3.7516179,-0.32850605,-0.86682284,0.37510276,0
-4.9307771,-2.3906903,-0.20207357,-0.81830746,0.062886477,-0.57133019,0
3.6512532,-2.5497952,1.4909155,0.81830746,-0.062886477,0.57133019,0
-2.521739,3.9700556,-0.31668723,-0.12018865,0.95330185,0.27707452,0
-1.3963358,-3.8993158,-1.0085638,-0.047611117,-0.99799705,-0.041657079,0
1.5393208,3.3289461,3.3838391,-0.22554165,0.87914324,0.41980729,0
2.95192,1.1951313,-2.5721979,0.55982494,0.31247395,-0.76743472,0
4.3226624,-0.29030132,-1.8577178,0.57041961,-0.033363134,-0.82067561,0
2.5044608,0.3161515,-3.1129925,0.5747683,0.082983851,-0.81409776,0
2.2750444,-1.4605346,-2.9597206,0.51504827,-0.36100587,-0.77743173,0
-1.0049074,-0.74922943,4.1117001,-0.57321692,-0.16256267,0.80311638,0
-5.3616662,-1.1640153,0.82254815,-0.55395269,-0.35144311,0.75473452,0
3.4714079,1.5428903,2.1989875,0.81830746,-0.062886477,0.57133019,0
2.2874408,-3.1582766,3.3773069,0.81830746,-0.062886477,0.57133019,0
-3.4090991,-3.7433896,-2.4420869,-0.044294238,-0.99794036,-0.046401612,0
-2.9124751,0.92234993,2.7286124,-0.54760736,0.21671528,0.80818355,0
-3.8930559,-3.6414399,-1.5938933,-0.18209183,-0.97116113,0.15391134,0
-1.7557232,-3.6581113,0.56390977,-0.25798321,-0.92843354,0.26731241,0
0.61866432,2.8297975,3.6747308,-0.34200284,0.7456181,0.57191575,0
3.3297353,3.6765125,2.6367517,0.81830746,-0.062886477,0.57133019,0
3.5280619,2.0009885,-1.6747106,0.51287872,0.52861506,-0.67640346,0
-3.7858276,3.3534245,-1.2097107,-0.81830746,0.062886477,-0.57133019,0
1.4078641,-2.3512464,4.7259407,0.81830746,-0.062886477,0.57133019,0
4.0481524,3.4741127,1.5854956,0.81830746,-0.062886477,0.57133019,0
-3.9593668,0.81801844,-1.2402263,-0.81830746,0.062886477,-0.57133019,0
-0.95560694,-1.6972829,3.8005936,-0.54497939,-0.40079886,0.73644948,0
-2.8642006,2.4258814,-2.6318374,-0.81830746,0.062886477,-0.57133019,0
3.4688582,-1.5759988,-2.1151028,0.51344401,-0.36681265,-0.77577305,0
-2.3689539,-3.7788849,-0.66911399,-0.16606867,-0.97747213,0.13026705,0
5.4277902,1.436481,-0.61482143,0.81830746,-0.062886477,0.57133019,0
-2.8316066,-1.2259464,-3.0804789,-0.81830746,0.062886477,-0.57133019,0
0.57690263,3.9356902,0.80263597,0.0044685602,0.99466276,0.10308259,0
-1.9136133,3.6419044,-3.8595014,-0.81830746,0.062886477,-0.57133019,0
-4.4767008,-3.2608728,-0.94822073,-0.81830746,0.062886477,-0.57133019,0
4.0304427,-1.9191155,-1.5645666,0.49106562,-0.44008261,-0.75178576,0
-4.8151202,0.51694918,-0.047681808,-0.81830746,0.062886477,-0.57133019,0
-2.7782111,-2.8474588,-3.3354373,-0.81830746,0.062886477,-0.57133019,0
-2.2873468,-1.2141304,-3.8587132,-0.81830746,0.062886477,-0.57133019,0
2.3827925,-3.3059025,3.2244873,0.81830746,-0.062886477,0.57133019,0
-2.912015,0.67997408,2.7846966,-0.55724269,0.1568706,0.81539696,0
-1.7724236,0.2405355,-4.4361148,-0.81830746,0.062886477,-0.57133019,0
-1.9504156,2.8779664,-3.8908768,-0.81830746,0.062886477,-0.57133019,0
-4.3368921,-1.5979316,1.3469589,-0.5361892,-0.44159898,0.71936876,0
-0.4692111,-2.4167514,3.659956,-0.49762452,-0.57496029,0.649454,0
-3.0747035,-2.5263686,1.5346611,-0.46582425,-0.65486622,0.59511173,0
-2.7209616,-3.747185,-0.8807826,-0.16999412,-0.97600836,0.13605063,0
2.0890639,3.7324166,2.428349,-0.063267231,0.97810215,0.19827668,0
5.3045673,-0.54017735,-0.6559031,0.81830746,-0.062886477,0.57133019,0
0.75125742,-3.9144716,2.0721297,-0.2305038,-0.94647038,0.22596885,0
-4.6806912,1.1833997,-0.16686654,-0.81830746,0.062886477,-0.57133019,0
-0.33768758,2.001076,3.9010489,-0.45810485,0.52898628,0.71436226,0
-1.7479892,-0.10024309,-4.5086212,-0.81830746,0.062886477,-0.57133019,0
0.43631411,1.3985271,-4.3244367,0.55947304,0.31501925,-0.76665044,0
0.82195091,3.6128705,2.3296182,-0.15792042,0.93114537,0.32867837,0
-1.3786378,1.2259865,3.6576841,-0.52560723,0.32040232,0.78808582,0
1.7037292,-2.4092546,-2.70052,0.42536047,-0.60226971,-0.67552924,0
2.7215943,1.2619841,-2.7125454,0.55806565,0.32489726,-0.76354736,0
-0.23848248,-3.9432347,0.81365168,-0.16552758,-0.97766978,0.12947024,0
-3.2471881,0.85250759,-2.2564719,-0.81830746,0.062886477,-0.57133019,0
3.3098483,1.9043083,-1.9123237,0.52138436,0.49959892,-0.69177985,0
-0.37936926,2.2670283,-4.4292684,0.51552933,0.51985031,-0.68116468,0
-1.7386407,1.8201694,3.1183059,-0.4846538,0.45888436,0.7446717,0
4.8951263,-1.4460716,-1.222486,0.52858567,-0.30809247,-0.79099697,0
-0.60902476,-1.5557907,-4.8077364,0.49161601,-0.43842888,-0.75239205,0
-1.9674535,2.8392775,2.1008711,-0.37152249,0.7005713,0.60923803,0
-4.9621286,-0.53396845,1.3295603,-0.57210803,-0.1848602,0.79907399,0
3.4824533,-1.0195408,-2.3158929,0.54519427,-0.22987694,-0.80617595,0
2.2290215,-4.1636853,1.2904036,-0.020287871,-0.99653757,-0.080631204,0
4.777216,0.20511723,0.18144965,0.81830746,-0.062886477,0.57133019,0
-0.083444357,-3.8127103,-1.3467963,0.1014719,-0.96257877,-0.25128794,0
-1.0088038,3.9055827,-2.3665938,0.24353516,0.93829864,-0.24553286,0
2.5554109,0.81542611,3.4308836,0.81830746,-0.062886477,0.57133019,0
-4.75949,2.8871453,0.33339787,-0.39492607,0.66069508,0.63836938,0
-3.9510348,1.4943464,1.832083,-0.52123934,0.33773482,0.78373766,0
1.1782699,-2.8689487,4.4866037,-0.46399075,-0.6589424,0.59203684,0
1.3239298,-1.6141973,-3.5091219,0.49873024,-0.41644064,-0.7601614,0
5.3590145,1.4583998,-0.51390266,0.81830746,-0.062886477,0.57133019,0
1.300205,-2.6587725,-2.7093816,0.3898578,-0.66967344,-0.63209844,0
1.0449605,-4.079071,1.3353341,-0.12224615,-0.99029708,0.066089064,0
-5.1611261,-1.6045942,0.72740269,-0.53193676,-0.45942694,0.71131575,0
1.5695689,3.6625738,-0.72765326,0.26180398,0.92567903,-0.2730881,0
1.4536619,-3.0143321,-2.1946199,0.33779222,-0.75161386,-0.56654483,0
-3.7862093,-0.91650248,2.0687046,-0.56629825,-0.25834787,0.78266394,0
-4.7264729,-2.5945921,0.15046859,-0.44134116,-0.7055378,0.55446756,0
-4.009634,-0.013860226,-1.2597946,-0.81830746,0.062886477,-0.57133019,0
-2.2489746,-2.7975078,-4.087956,-0.81830746,0.062886477,-0.57133019,0
-3.5661488,-1.1974959,-2.025274,-0.81830746,0.062886477,-0.57133019,0
-3.3010814,1.76636,2.1285832,-0.49871334,0.41649431,0.76014316,0
-0.52555275,1.5950785,4.043057,-0.49544251,0.42674696,0.75658691,0
4.15977,-1.8990638,0.83420026,0.81830746,-0.062886477,0.57133019,0
3.5113862,-3.3286393,1.6055175,0.81830746,-0.062886477,0.57133019,0
0.6035428,3.457324,-2.1394715,0.34439087,0.84946024,-0.39976537,0
4.6190462,2.9269547,0.7075876,0.81830746,-0.062886477,0.57133019,0
-2.0315158,-2.3892264,-4.3544793,-0.81830746,0.062886477,-0.57133019,0
-3.259166,2.471344,-2.061131,-0.81830746,0.062886477,-0.57133019,0
-1.4766469,1.6095247,3.4114347,-0.49998605,0.41243494,0.76151907,0
-4.7338905,1.5492473,-0.050401211,-0.81830746,0.062886477,-0.57133019,0
1.7911263,-1.5582712,4.2642837,0.81830746,-0.062886477,0.57133019,0
-1.3182008,-3.4628994,1.5068763,-0.32955021,-0.86572486,0.37671909,0
-3.9782689,-1.6058745,-1.4799508,-0.81830746,0.062886477,-0.57133019,0
4.9178605,-0.01695776,-0.044437408,0.81830746,-0.062886477,0.57133019,0
-4.4898725,-0.42527151,-0.61723983,-0.81830746,0.062886477,-0.57133019,0
-3.0098212,-0.72465158,-2.7700477,-0.81830746,0.062886477,-0.57133019,0
-1.1918616,3.3380687,-3.8685889,0.39666927,0.7811349,-0.48216361,0
-5.3193717,0.78470612,0.70402145,-0.81830746,0.062886477,-0.57133019,0
-2.3979712,1.1515734,3.0041552,-0.53436953,0.28288865,0.79650682,0
1.9897547,-1.6820815,-3.0350418,0.49743867,-0.42052037,-0.75876045,0
-4.0500107,0.20452595,-1.1779249,-0.81830746,0.062886477,-0.57133019,0
-3.0814281,3.9536228,-0.51535892,-0.14340568,0.94022489,0.30888849,0
1.6902034,-1.9019887,4.3710008,0.81830746,-0.062886477,0.57133019,0
2.3344457,1.7946638,-2.7183204,0.53361779,0.45250794,-0.71448493,0
4.6842356,-3.1524754,-0.079815626,0.35565805,-0.72545582,-0.58925474,0
1.2997742,-1.9548784,4.9243851,0.81830746,-0.062886477,0.57133019,0
-5.0472951,-2.3602157,0.17336559,-0.46750003,-0.6510973,0.59792656,0
-3.7972596,-1.7349241,1.6630011,-0.530321,-0.46593052,0.70828557,0
-2.9826627,4.2396383,-2.1689234,0.061701536,0.99786389,0.021460969,0
1.6379545,3.8849106,0.8204149,0.089372873,0.99582839,-0.018396389,0
4.1528354,2.7530837,1.3561964,0.81830746,-0.062886477,0.57133019,0
2.0110016,-1.2183034,3.9867802,0.81830746,-0.062886477,0.57133019,0
0.77665585,-1.7860564,-3.7650914,0.48123616,-0.46857539,-0.74084336,0
-2.9295659,-2.5851507,1.5826685,-0.4602043,-0.66720515,0.58570421,0
1.4337173,-1.4005063,4.793561,0.81830746,-0.062886477,0.57133019,0
3.6944139,-1.0856104,1.5902596,0.81830746,-0.062886477,0.57133019,0
-1.7901965,-0.91066664,3.5104792,-0.56988204,-0.21826544,0.79220873,0
-1.5205204,-3.6703868,0.74812216,-0.2602458,-0.92680973,0.27073199,0
-5.3776751,0.85567474,0.7953403,-0.81830746,0.062886477,-0.57133019,0
3.4463849,-0.73737693,-2.4084234,0.55666035,-0.1609101,-0.81500745,0
-2.3249164,3.7326801,0.44811785,-0.19637746,0.90359437,0.38072717,0
-1.2293739,0.68806124,-5.1646576,-0.81830746,0.062886477,-0.57133019,0
2.7975094,3.7966917,1.7021327,0.08095324,0.99669838,-0.0062413644,0
1.9106615,-1.4896848,4.1006246,0.81830746,-0.062886477,0.57133019,0
-3.7422175,-0.12044191,-1.6545416,-0.81830746,0.062886477,-0.57133019,0
-4.2811251,0.68444824,-0.79407871,-0.81830746,0.062886477,-0.57133019,0
-0.50808287,3.0794163,-3.696651,0.42972082,0.72706878,-0.53545398,0
-2.2189643,-3.7195978,-2.5329485,0.064928949,-0.97752082,-0.2005927,0
3.3882456,3.0943167,-0.48613942,0.37647527,0.80974346,-0.45009112,0
-2.1781378,3.5305448,0.95695984,-0.24632895,0.85971922,0.44744262,0
-1.4786382,2.7343969,-4.5823994,-0.81830746,0.062886477,-0.57133019,0
-1.3570074,-1.5826492,-5.2317877,-0.81830746,0.062886477,-0.57133019,0
-3.7761545,-3.057297,0.22822857,-0.37789285,-0.8078323,0.45233178,0
-1.73862,-1.993856,-4.7304711,-0.81830746,0.062886477,-0.57133019,0
-2.028151,0.57636976,-4.0328741,-0.81830746,0.062886477,-0.57133019,0
-3.8268452,1.7430747,1.7956319,-0.5035218,0.40094125,0.76531827,0
5.5027943,0.73555422,-0.79939914,0.81830746,-0.062886477,0.57133019,0
-4.9385891,-1.3229966,-0.073361397,-0.81830746,0.062886477,-0.57133019,0
4.5250115,2.0144029,0.74182737,0.81830746,-0.062886477,0.57133019,0
2.1693828,3.8450437,1.3209236,0.074252486,0.99723363,0.0034151301,0
2.1401796,1.7860152,-2.8687596,0.53504491,0.44650379,-0.71718991,0
2.2689316,-2.3854017,3.4888883,0.81830746,-0.062886477,0.57133019,0
3.1400576,1.595293,2.6793435,0.81830746,-0.062886477,0.57133019,0
-0.45356894,3.6315308,1.6505225,-0.18365633,0.91328245,0.36357331,0
-1.9456967,-0.22780848,3.5138319,-0.57433212,-0.050196469,0.81708205,0
3.8375196,-0.41680431,1.4589071,0.81830746,-0.062886477,0.57133019,0
0.58495522,-1.232253,5.1271739,-0.56680858,-0.25326601,0.78395438,0
2.66382,-3.0384076,-1.4390131,0.34911728,-0.7352531,-0.58096474,0
-2.6944308,-1.3458629,2.6954384,-0.55490172,-0.34558821,0.75673831,0
-4.2635274,-2.3272872,-1.1507862,-0.81830746,0.062886477,-0.57133019,0
1.6638432,-3.8255186,-0.53169799,0.15035182,-0.9359678,-0.31836873,0
-3.0351222,0.7816112,-2.5680141,-0.81830746,0.062886477,-0.57133019,0
3.7039485,1.7214432,1.8855767,0.81830746,-0.062886477,0.57133019,0
1.9712343,-3.9675868,0.076213002,0.10285932,-0.96192932,-0.25320357,0
-3.3895071,-3.4251585,-2.5234747,-0.81830746,0.062886477,-0.57133019,0
5.1743302,-1.7897696,-0.60690832,0.81830746,-0.062886477,0.57133019,0
5.2507868,1.1708446,-0.39054084,0.81830746,-0.062886477,0.57133019,0
0.99865627,0.21305914,-4.179245,0.57369739,0.028362989,-0.81857604,0
-2.959322,3.8323512,-2.3407865,-0.81830746,0.062886477,-0.57133019,0
0.17512655,3.8016944,1.425932,-0.10329086,0.96172601,0.2537992,0
-3.4326615,-1.9026136,-2.2940779,-0.81830746,0.062886477,-0.57133019,0
-0.77196193,-2.6449823,-3.9947324,0.36912128,-0.70444357,-0.60622501,0
5.315115,0.05452919,-0.60555005,0.81830746,-0.062886477,0.57133019,0
0.56714606,1.972141,-3.9254365,0.53102303,0.46312273,-0.70959997,0
4.239377,-2.2749348,0.67880881,0.81830746,-0.062886477,0.57133019,0
2.8032029,-2.9026475,2.6667261,0.81830746,-0.062886477,0.57133019,0
5.3105445,1.4360628,-0.44693851,0.81830746,-0.062886477,0.57133019,0
-1.7562435,1.1551621,-4.3586164,-0.81830746,0.062886477,-0.57133019,0
-4.4596314,-0.4981513,-0.66857529,-0.81830746,0.062886477,-0.57133019,0
-1.5184259,0.9870007,-4.7177477,-0.81830746,0.062886477,-0.57133019,0
4.3569422,2.333652,1.0176893,0.81830746,-0.062886477,0.57133019,0
-3.3151689,-1.1946809,-2.3844392,-0.81830746,0.062886477,-0.57133019,0
-4.9646564,-1.6896119,-0.076380253,-0.81830746,0.062886477,-0.57133019,0
3.0035377,-3.7437887,2.2872052,0.81830746,-0.062886477,0.57133019,0
-0.38572967,2.7694039,3.1447742,-0.36379415,0.7128976,0.59952551,0
-0.98658514,1.1575643,-5.4397664,0.56921196,0.22669289,-0.79032147,0
-2.6029623,-2.9096985,1.427671,-0.41928822,-0.74521172,0.51851434,0
-0.7148869,3.1368859,2.4565933,-0.30581737,0.7939887,0.52541196,0
-3.5693002,2.1919489,-1.6476834,-0.81830746,0.062886477,-0.57133019,0
-3.7489061,2.4806345,-1.3586611,-0.81830746,0.062886477,-0.57133019,0
5.2841573,-1.5287614,-0.73548269,0.81830746,-0.062886477,0.57133019,0
-4.4222693,-1.6105123,-0.84452629,-0.81830746,0.062886477,-0.57133019,0
2.6707685,2.1508827,3.412653,0.81830746,-0.062886477,0.57133019,0
1.8496207,3.4764147,3.2027516,-0.17685008,0.91823012,0.35436934,0
-3.0563362,-0.39806914,-2.6674774,-0.81830746,0.062886477,-0.57133019,0
-0.3971467,3.8835135,-1.8404791,0.23227727,0.94539791,-0.22862686,0
3.6163015,-2.8591151,1.5069292,0.81830746,-0.062886477,0.57133019,0
1.8193214,2.6360121,4.6409116,-0.35825792,0.72148848,0.59254169,0
1.2211348,3.4702563,2.8998199,-0.19343102,0.90588999,0.37675971,0
1.7322191,0.40233731,4.5644603,0.81830746,-0.062886477,0.57133019,0
2.5397425,-1.7986338,3.1655951,0.81830746,-0.062886477,0.57133019,0
2.3880367,3.5477774,-0.32212698,0.28052866,0.91126567,-0.30149379,0
5.2590966,1.2103486,-0.87596703,0.55232084,0.36118135,-0.75132537,0
4.0839472,1.3631706,1.3018756,0.81830746,-0.062886477,0.57133019,0
-4.556241,-0.58460665,-0.53971863,-0.81830746,0.062886477,-0.57133019,0
-3.822448,3.9599226,-0.88530505,-0.16128814,0.92893744,0.33325887,0
-5.3743691,0.36688852,0.73680449,-0.81830746,0.062886477,-0.57133019,0
1.5008273,0.34630275,4.8897114,0.81830746,-0.062886477,0.57133019,0
4.6108966,0.94611931,0.50122881,0.81830746,-0.062886477,0.57133019,0
1.2316809,-0.78448939,5.1507397,0.81830746,-0.062886477,0.57133019,0
-4.0836458,-1.8705392,-1.3581533,-0.81830746,0.062886477,-0.57133019,0
3.5297549,-2.6244237,1.6567211,0.81830746,-0.062886477,0.57133019,0
1.5045044,-1.7102101,-3.3367529,0.49226266,-0.43647751,-0.75310349,0
-2.7414873,-3.54896,-3.4141526,0.12696332,-0.94966745,-0.28637776,0
4.0573349,-1.2294562,1.054621,0.81830746,-0.062886477,0.57133019,0
2.6843405,2.9324067,3.4792366,0.81830746,-0.062886477,0.57133019,0
-2.8879492,0.384269,-2.8225431,-0.81830746,0.062886477,-0.57133019,0
3.7544751,3.412817,1.9993775,0.81830746,-0.062886477,0.57133019,0
1.4424977,-2.2778788,4.6844115,0.81830746,-0.062886477,0.57133019,0
4.5843763,-2.5467827,0.1547482,0.81830746,-0.062886477,0.57133019,0
-1.4030364,-1.3302097,-5.1380744,-0.81830746,0.062886477,-0.57133019,0
-3.5967231,1.3080089,-1.7057014,-0.81830746,0.062886477,-0.57133019,0
-1.999146,-1.4396253,-4.2963195,-0.81830746,0.062886477,-0.57133019,0
0.70895243,0.34935927,5.3224506,-0.55904382,0.14392263,0.81655151,0
-1.5034811,-1.7858183,-5.0443578,-0.81830746,0.062886477,-0.57133019,0
1.9861903,-4.1644316,1.6028155,-0.076868534,-0.99704117,0.00035321712,0
-3.2887859,0.11149693,-2.278455,-0.81830746,0.062886477,-0.57133019,0
-1.9463996,-0.80431306,3.425926,-0.57153243,-0.19455129,0.79718292,0
1.2123635,-3.5140474,-1.5170949,0.2322439,-0.87306726,-0.42873806,0
0.16892827,-2.6487157,-3.4157698,0.37911469,-0.68806821,-0.61873597,0
1.4392109,-3.1839209,-1.9638777,0.30744743,-0.79195678,-0.5275231,0
3.6552975,-3.0610294,1.4288509,0.81830746,-0.062886477,0.57133019,0
-0.19591856,3.4387729,2.2209725,-0.23153067,0.8737222,0.42778862,0
-0.8071053,-1.8138001,-4.7716284,0.46771628,-0.50490016,-0.72547728,0
4.2064619,0.094056606,0.98670733,0.81830746,-0.062886477,0.57133019,0
-4.2471666,-0.23773146,-0.94422066,-0.81830746,0.062886477,-0.57133019,0
2.2880139,0.92508411,3.8259425,0.81830746,-0.062886477,0.57133019,0
-3.6337092,-0.37342215,-1.8378025,-0.81830746,0.062886477,-0.57133019,0
-2.1658597,-1.6713395,2.9181633,-0.54146492,-0.41783488,0.72954082,0
-2.6950514,3.3687251,0.94987798,-0.29027659,0.81271052,0.50521398,0
-1.956239,-2.7046232,-4.4970131,-0.81830746,0.062886477,-0.57133019,0
2.7697337,2.3721983,3.2952669,0.81830746,-0.062886477,0.57133019,0
-1.0033321,2.6027985,2.9514232,-0.39434826,0.66172862,0.63765556,0
2.2370224,-2.9810193,3.4690311,0.81830746,-0.062886477,0.57133019,0
-1.7919445,1.5927825,3.2131727,-0.50306976,0.40242875,0.76483452,0
1.8028316,-1.4591215,4.258431,0.81830746,-0.062886477,0.57133019,0
-1.416322,3.7816558,0.77600002,-0.1590268,0.93042421,0.33018363,0
4.705369,-0.13708782,0.24668837,0.81830746,-0.062886477,0.57133019,0
-2.6410394,1.7839184,2.5511065,-0.49335736,0.43315321,0.75430548,0
1.7432158,-0.30078602,-3.6435661,0.56597161,-0.085199803,-0.82001042,0
0.62754869,2.5521636,-3.4118452,0.48344475,0.61294514,-0.62496352,0
1.7978208,0.76922417,4.5108829,0.81830746,-0.062886477,0.57133019,0
-3.2670524,3.2908154,-1.9596361,-0.81830746,0.062886477,-0.57133019,0
3.2686226,2.5497313,2.6002567,0.81830746,-0.062886477,0.57133019,0
1.4655766,3.8776371,1.3146384,0.017276764,0.99623883,0.084911019,0
3.3626947,-2.2809582,1.9338038,0.81830746,-0.062886477,0.57133019,0
2.3419504,-0.38167572,3.6048548,0.81830746,-0.062886477,0.57133019,0
3.575284,-1.1310823,-2.2195582,0.54016674,-0.25559241,-0.80180562,0
-3.1808333,4.2233963,-1.9804776,-0.81830746,0.062886477,-0.57133019,0
5.3328996,-1.4993443,-0.80205798,0.81830746,-0.062886477,0.57133019,0
3.4976602,-3.9052382,1.5617104,0.81830746,-0.062886477,0.57133019,0
-5.3418565,1.1818051,1.0121017,-0.54429251,0.23465037,0.80540979,0
-2.4596815,0.018428922,3.1611457,-0.57239354,0.0013390481,0.81997788,0
1.6693206,1.7590837,4.8038859,0.81830746,-0.062886477,0.57133019,0
3.702755,1.9135857,-1.6090981,0.51851392,0.50968754,-0.68655807,0
-3.0465117,3.0028746,1.2522526,-0.3593533,0.71980411,0.59392524,0
4.8022208,-2.6354342,-0.1670239,0.81830746,-0.062886477,0.57133019,0
-0.4438529,-2.6689377,3.435694,-0.47256255,-0.63944566,0.60646021,0
-1.8969774,-0.61727953,-4.3521376,-0.81830746,0.062886477,-0.57133019,0
-2.7063,-2.7756627,-3.4305315,-0.81830746,0.062886477,-0.57133019,0
1.0539932,3.3393936,-1.993544,0.36302173,0.82720011,-0.42890024,0
-0.35175467,-2.1460066,3.9671898,-0.52034998,-0.5032711,0.6898942,0
3.9195313,2.1402154,1.622895,0.81830746,-0.062886477,0.57133019,0
-3.1272323,-3.2018957,0.50342345,-0.35832149,-0.83301854,0.42152789,0
-2.9292223,-1.9081719,-3.0157585,-0.81830746,0.062886477,-0.57133019,0
2.7994678,3.563062,3.3837578,0.81830746,-0.062886477,0.57133019,0
3.3246906,-2.5825071,1.9550447,0.81830746,-0.062886477,0.57133019,0
1.8057821,-0.49808812,4.3599868,0.81830746,-0.062886477,0.57133019,0
3.7898824,1.8623886,-1.5807965,0.52174348,0.49831402,-0.6924355,0
2.2698734,-3.5388765,-0.89044714,0.24602443,-0.86001635,-0.44703916,0
0.67276478,3.1328666,-2.6642647,0.40727222,0.76484346,-0.49914324,0
-3.0204325,-1.8300135,-2.8765166,-0.81830746,0.062886477,-0.57133019,0
-2.6031413,0.93059599,2.9358363,-0.54617286,0.22460961,0.8069979,0
-3.771219,-2.2073183,-1.8427063,-0.81830746,0.062886477,-0.57133019,0
-4.7740097,-0.52258301,-0.22098589,-0.81830746,0.062886477,-0.57133019,0
-3.5178623,-3.4171646,-0.33980834,-0.29479659,-0.89922249,0.32325512,0
-1.3799019,4.1176686,-1.1324978,0.071371198,0.99742115,0.0075625554,0
4.7874231,1.6347942,0.32419491,0.81830746,-0.062886477,0.57133019,0
-3.9111662,-2.8321836,0.48089612,-0.41567975,-0.75124389,0.51268214,0
4.7026353,0.5945735,0.33113813,0.81830746,-0.062886477,0.57133019,0
1.523474,1.6440296,-3.4093289,0.54546481,0.39835829,-0.73741353,0
1.3042111,3.0576186,-2.26387,0.41165882,0.75782591,-0.50619853,0
-2.810708,-3.7004771,-2.8095722,0.04863292,-0.98285711,-0.17783956,0
4.9567957,-2.0074687,-0.31930017,0.81830746,-0.062886477,0.57133019,0
3.7275681,1.0065377,-2.0801282,0.56394845,0.27991074,-0.77692485,0
-3.6266251,4.1193199,-1.3284291,-0.091271102,0.96716809,0.23718262,0
-2.2074137,0.76792252,3.24617,-0.55185342,0.19198063,0.81154251,0
3.5352917,-1.3173707,1.7926575,0.81830746,-0.062886477,0.57133019,0
1.0360842,3.4230793,-1.8396093,0.34462708,0.84919107,-0.4001334,0
3.4282365,2.2485609,2.3384948,0.81830746,-0.062886477,0.57133019,0
2.543088,-0.33923841,3.3214393,0.81830746,-0.062886477,0.57133019,0
0.017524719,2.9005165,-3.507884,0.44876778,0.69097817,-0.5667069,0
-3.0080318,-3.6604226,-0.7084626,-0.21272898,-0.95654881,0.19940096,0
0.43544388,3.9499102,0.67064768,0.0083948374,0.99519837,0.09751793,0
-3.8034382,3.0515778,-1.2177111,-0.81830746,0.062886477,-0.57133019,0
1.8727245,2.7503765,4.5280666,-0.33918646,0.74963975,0.56832457,0
2.0342729,-3.3112173,-1.422016,0.29162455,-0.81113231,-0.50697088,0
4.4629679,-1.3958488,0.4553237,0.81830746,-0.062886477,0.57133019,0
-3.8710089,3.1298659,0.59783316,-0.34932831,0.73494101,0.58123273,0
-1.978938,-0.21296573,-4.1902442,-0.81830746,0.062886477,-0.57133019,0
-4.6958833,-0.88539028,-0.37281895,-0.81830746,0.062886477,-0.57133019,0
-3.313082,2.3543775,-1.9967819,-0.81830746,0.062886477,-0.57133019,0
-3.2330668,-3.4593465,-2.7513046,-0.81830746,0.062886477,-0.57133019,0
-3.9964848,-2.5350575,0.80099547,-0.45631754,-0.67547852,0.57922649,0
-1.2604127,-0.24031582,3.9945073,-0.57407504,-0.040177166,0.8178165,0
