-1.8456149,3.099256,-2.2080181,-0.97477388,0.057206631,0.21573895,0
1.1793113,3.920337,-1.7286005,-0.020272553,0.93990672,-0.34082925,0
-0.37013739,1.7327818,4.0895572,0.22075479,0.38964668,0.89411563,0
2.0506473,0.98442698,2.0515602,0.97477388,-0.057206631,-0.21573895,0
0.532372,3.7658367,1.8996999,0.14965129,0.88464808,0.44159079,0
-0.64763808,3.9699788,1.8630011,0.13668245,0.91714793,0.37437618,0
1.8151722,2.9934521,0.45488667,0.97477388,-0.057206631,-0.21573895,0
0.57456273,-2.1517074,-3.7862387,0.97477388,-0.057206631,-0.21573895,0
0.89932317,0.18840957,-2.939393,0.97477388,-0.057206631,-0.21573895,0
0.71987855,-2.7920775,-2.9598527,0.97477388,-0.057206631,-0.21573895,0
-1.5215231,-3.2289624,0.93435705,-0.97477388,0.057206631,0.21573895,0
-0.885813,-3.8610849,1.8599718,0.030990601,-0.92254126,0.38465205,0
-1.8079054,0.13296157,-1.2510732,-0.97477388,0.057206631,0.21573895,0
0.048676908,-2.791297,-3.3358281,-0.20111564,-0.64430064,-0.73785448,0
1.2785629,-0.06485939,-1.1587145,0.97477388,-0.057206631,-0.21573895,0
1.1464934,2.0445004,-2.3147745,0.97477388,-0.057206631,-0.21573895,0
1.8570495,-2.1155484,1.9988365,0.97477388,-0.057206631,-0.21573895,0
-1.3150879,0.46469963,0.88765961,-0.97477388,0.057206631,0.21573895,0
-1.9297112,-3.7997999,-1.3381885,-0.13869116,-0.91257805,-0.38466364,0
-1.8872101,1.6045699,-1.9996165,-0.97477388,0.057206631,0.21573895,0
0.45930535,-0.90954375,-4.3710179,-0.22283512,-0.19459035,-0.95523775,0
2.1486228,-0.94448507,3.0057244,0.97477388,-0.057206631,-0.21573895,0
-1.6907634,-0.31443596,-0.60315579,-0.97477388,0.057206631,0.21573895,0
-1.0873649,-2.572561,2.7219601,-0.97477388,0.057206631,0.21573895,0
-0.45516658,4.0323725,1.6268404,0.12807161,0.93499202,0.33073777,0
-1.084585,2.1961319,1.4700249,-0.97477388,0.057206631,0.21573895,0
-2.0212774,-3.365871,-2.0984576,-0.17169029,-0.80980492,-0.56101555,0
-2.1542587,0.29411858,-3.8701634,-0.21289361,0.051950842,-0.97569329,0
0.57732391,-3.9329932,-1.9257407,-0.1401259,-0.9092145,-0.39203793,0
2.0302937,-0.60329163,3.8686459,0.20730889,-0.12608153,0.97011673,0
1.6365547,-1.828107,0.92635489,0.97477388,-0.057206631,-0.21573895,0
1.8979881,0.78556055,1.4145324,0.97477388,-0.057206631,-0.21573895,0
-2.1083794,1.6823058,-3.0195391,-0.97477388,0.057206631,0.21573895,0
0.54486179,4.0015221,-1.4610397,-0.013404727,0.94984514,-0.31243318,0
1.3070188,3.6639113,-2.0188861,0.97477388,-0.057206631,-0.21573895,0
-1.657479,3.5139709,-1.4679315,-0.97477388,0.057206631,0.21573895,0
-0.94856691,-1.0814791,-3.9991403,-0.22319223,-0.25446564,-0.94097418,0
1.9597006,1.8590047,3.4481599,0.21798253,0.45168114,0.86514038,0
2.2640796,-0.44039959,3.3937278,0.97477388,-0.057206631,-0.21573895,0
-0.98288351,-2.9350715,-2.9167948,-0.19435896,-0.69277096,-0.69447309,0
-0.42724264,-0.50118148,-4.231369,-0.22095868,-0.11085734,-0.96896225,0
1.6299162,2.5657494,-0.26874316,0.97477388,-0.057206631,-0.21573895,0
-0.23418772,-0.071424007,-4.3008971,-0.21649733,-0.0073339045,-0.97625566,0
1.0643456,2.3537083,-2.7679372,0.97477388,-0.057206631,-0.21573895,0
-0.67112947,0.99308085,-4.0810022,-0.19677091,0.23594657,-0.9516356,0
-0.88714182,-3.464504,-2.302505,-0.16978738,-0.81746352,-0.55038691,0
-1.3033879,-2.5710592,1.7455047,-0.97477388,0.057206631,0.21573895,0
-1.6875651,2.6031981,-1.3623629,-0.97477388,0.057206631,0.21573895,0
-1.6564363,0.29608995,-0.60994625,-0.97477388,0.057206631,0.21573895,0
1.8031267,1.8209293,0.71137506,0.97477388,-0.057206631,-0.21573895,0
-0.80698007,2.3946009,2.6717,-0.97477388,0.057206631,0.21573895,0
1.8305998,0.017781913,1.3136408,0.97477388,-0.057206631,-0.21573895,0
1.2208686,3.4872646,-2.3612986,0.97477388,-0.057206631,-0.21573895,0
-0.76953697,0.75359416,3.2760181,-0.97477388,0.057206631,0.21573895,0
2.1197467,-0.89675367,2.862597,0.97477388,-0.057206631,-0.21573895,0
-1.0399518,-1.922467,2.7638037,-0.97477388,0.057206631,0.21573895,0
-1.9443512,1.1811374,-2.1455173,-0.97477388,0.057206631,0.21573895,0
1.6488535,-3.2123966,1.3489915,0.97477388,-0.057206631,-0.21573895,0
1.1809697,-3.999136,-0.55643225,0.97477388,-0.057206631,-0.21573895,0
0.068872213,4.1742816,-0.79569364,0.016205192,0.98218387,-0.18722203,0
0.60250235,-3.9121094,1.6152158,0.035655379,-0.91426915,0.40353528,0
1.2919338,3.0147743,-1.9149154,0.97477388,-0.057206631,-0.21573895,0
-1.6717324,-0.75483239,-0.40038991,-0.97477388,0.057206631,0.21573895,0
0.58987433,-2.3317065,-3.669327,0.97477388,-0.057206631,-0.21573895,0
0.98324025,-0.069959879,-2.4917195,0.97477388,-0.057206631,-0.21573895,0
-1.8451195,-1.2831383,-1.0437157,-0.97477388,0.057206631,0.21573895,0
-1.7456312,0.94545805,-1.1851465,-0.97477388,0.057206631,0.21573895,0
1.6766449,2.452023,-0.02745223,0.97477388,-0.057206631,-0.21573895,0
-2.2656002,-2.8857999,-2.5186038,-0.97477388,0.057206631,0.21573895,0
1.2353362,-2.4832182,-0.71275997,0.97477388,-0.057206631,-0.21573895,0
1.3212092,3.4710464,-1.9036282,0.97477388,-0.057206631,-0.21573895,0
-2.1215844,-1.53467,-2.2261698,-0.97477388,0.057206631,0.21573895,0
-0.34626961,3.6958919,-2.0720458,-0.058093667,0.86824942,-0.492715,0
0.67515159,3.8491609,-1.8704767,-0.034136117,0.9170112,-0.39739802,0
-1.2335185,-0.62037802,1.5439403,-0.97477388,0.057206631,0.21573895,0
0.042623162,-1.3469939,-4.1565862,-0.22284855,-0.30327284,-0.9264794,0
0.93736923,-1.661025,-2.2770815,0.97477388,-0.057206631,-0.21573895,0
-1.2394071,-1.9165757,1.8610411,-0.97477388,0.057206631,0.21573895,0
-0.13616598,-3.2055604,-2.8663464,-0.18548703,-0.74524403,-0.64047301,0
0.69593346,3.1599143,2.7572763,0.18605246,0.74220031,0.64383465,0
0.81934035,-2.9993014,-2.4555054,0.97477388,-0.057206631,-0.21573895,0
-1.5625162,2.4898973,-0.7673105,-0.97477388,0.057206631,0.21573895,0
1.9942318,-1.0033774,2.3237586,0.97477388,-0.057206631,-0.21573895,0
-0.10780716,3.9639089,-1.5291519,-0.024918735,0.93265826,-0.35989952,0
-0.94140625,4.2782087,-0.28878498,0.030809581,0.99182963,-0.12379271,0
1.251906,1.6477625,-1.7332885,0.97477388,-0.057206631,-0.21573895,0
-1.0046275,0.3831625,2.3120346,-0.97477388,0.057206631,0.21573895,0
0.86980832,0.70155191,-3.2088184,0.97477388,-0.057206631,-0.21573895,0
-2.0510347,-0.77846968,-2.1079233,-0.97477388,0.057206631,0.21573895,0
-2.1591172,-2.0259614,-2.26548,-0.97477388,0.057206631,0.21573895,0
-1.891608,0.05886358,-1.6096191,-0.97477388,0.057206631,0.21573895,0
-1.3099828,3.5908165,0.081785202,-0.97477388,0.057206631,0.21573895,0
0.063098669,-0.26678753,4.3268075,0.21133643,-0.074304909,0.97458488,0
-1.3081164,-3.9095659,1.7659345,0.020751536,-0.93917912,0.34280005,0
-0.66049552,-0.77177024,4.1731753,-0.97477388,0.057206631,0.21573895,0
0.03938961,-3.5097651,2.4128122,0.073800325,-0.82961416,0.55343807,0
-1.9122891,1.8160869,-2.169018,-0.97477388,0.057206631,0.21573895,0
1.8344637,0.36855513,1.238086,0.97477388,-0.057206631,-0.21573895,0
-0.31474328,-3.8127215,1.9180975,0.041195095,-0.90387464,0.42580914,0
-1.3429514,-2.2602906,1.4843388,-0.97477388,0.057206631,0.21573895,0
1.8144324,-0.92675453,1.4910507,0.97477388,-0.057206631,-0.21573895,0
-1.7556703,0.085200071,-1.0023946,-0.97477388,0.057206631,0.21573895,0
-0.76279211,-1.5933188,-3.8697903,-0.22133002,-0.37244248,-0.90127671,0
0.71539259,-1.8436725,-3.2316067,0.97477388,-0.057206631,-0.21573895,0
-2.1460562,-2.064394,-2.1962767,-0.97477388,0.057206631,0.21573895,0
1.7221144,3.5314145,-0.10822546,0.97477388,-0.057206631,-0.21573895,0
0.53755617,-0.57600784,-4.3712668,0.97477388,-0.057206631,-0.21573895,0
0.25764132,4.0995684,-1.1209168,0.0013449788,0.96808314,-0.25062594,0
1.3644824,-3.8258832,1.7180371,0.050806046,-0.88434762,0.46405602,0
-0.88610053,0.80620575,2.7353981,-0.97477388,0.057206631,0.21573895,0
-2.3224792,0.36183479,-3.6367636,-0.97477388,0.057206631,0.21573895,0
1.6145608,-3.7538519,1.8201216,0.059733748,-0.86446983,0.49912304,0
-2.2757654,-2.8446062,-2.6451344,-0.1948842,-0.68930733,-0.69776475,0
1.9293214,0.19035518,1.7139344,0.97477388,-0.057206631,-0.21573895,0
1.4905331,0.46917343,-0.34257668,0.97477388,-0.057206631,-0.21573895,0
-0.66851079,2.2899473,3.3250961,-0.97477388,0.057206631,0.21573895,0
1.0972263,1.647503,3.7644327,0.22074771,0.389844,0.89403141,0
1.4577059,0.29258001,-0.4440735,0.97477388,-0.057206631,-0.21573895,0
-0.0044136047,3.0175219,3.1106539,0.19346076,0.69859052,0.68887156,0
1.1627591,4.0223155,1.0018446,0.11597818,0.95567703,0.27061123,0
-1.6864588,-1.1333956,-3.8088534,-0.22310685,-0.27687567,-0.93464601,0
-0.068191528,4.209187,0.74854922,0.091468215,0.98408735,0.15233415,0
-0.53963482,0.20036864,4.461482,-0.97477388,0.057206631,0.21573895,0
2.1552134,3.0395861,1.9790622,0.97477388,-0.057206631,-0.21573895,0
1.6758654,-3.0143952,1.4185346,0.97477388,-0.057206631,-0.21573895,0
1.1327803,2.3474154,-2.4570577,0.97477388,-0.057206631,-0.21573895,0
-1.0226943,2.0022874,1.8010651,-0.97477388,0.057206631,0.21573895,0
-2.2751083,0.42964157,-3.4407067,-0.97477388,0.057206631,0.21573895,0
-2.0588455,-3.0908356,-1.5300542,-0.97477388,0.057206631,0.21573895,0
-0.53731179,-3.1375408,2.9842868,0.10020196,-0.75154513,0.65202731,0
-0.62046945,-1.168769,-4.0527329,-0.22314361,-0.27047673,-0.93650913,0
0.10858893,4.2502394,0.11000657,0.062482774,0.99788886,0.01770997,0
1.097198,-2.0254817,3.5949998,0.16417092,-0.47106785,0.86668509,0
1.1457309,-1.9561124,-1.2573929,0.97477388,-0.057206631,-0.21573895,0
0.54439646,-1.8956093,-3.9904475,0.97477388,-0.057206631,-0.21573895,0
-1.7419392,-0.061938763,-0.90133709,-0.97477388,0.057206631,0.21573895,0
-2.0903447,-3.4789541,-1.5694616,-0.97477388,0.057206631,0.21573895,0
0.24731851,2.8627162,-3.2255239,-0.1191439,0.68398768,-0.71969831,0
-0.46297884,3.7230053,2.3107305,0.1577608,0.86034942,0.48467541,0
-2.1398885,1.0797038,-3.0021176,-0.97477388,0.057206631,0.21573895,0
2.1337373,-0.39747551,2.7934203,0.97477388,-0.057206631,-0.21573895,0
-1.2028313,4.2690787,-0.40048313,0.022098541,0.98658258,-0.16176051,0
2.0475421,-1.2968585,2.6424508,0.97477388,-0.057206631,-0.21573895,0
2.3241506,-0.50154126,3.68136,0.97477388,-0.057206631,-0.21573895,0
1.263219,2.007514,-1.777567,0.97477388,-0.057206631,-0.21573895,0
-1.9600546,1.3854549,-2.2706485,-0.97477388,0.057206631,0.21573895,0
1.9501938,2.1983876,1.2757794,0.97477388,-0.057206631,-0.21573895,0
-1.2981291,3.9520066,0.039568663,-0.97477388,0.057206631,0.21573895,0
-1.065855,-1.1306093,2.4367917,-0.97477388,0.057206631,0.21573895,0
-1.9352517,1.5925245,-2.2134893,-0.97477388,0.057206631,0.21573895,0
1.729151,-3.5194278,1.7932142,0.97477388,-0.057206631,-0.21573895,0
1.6787541,-0.64102226,0.8022489,0.97477388,-0.057206631,-0.21573895,0
-1.2582229,-0.51444805,1.4042295,-0.97477388,0.057206631,0.21573895,0
0.71254802,-0.79210305,-3.5233002,0.97477388,-0.057206631,-0.21573895,0
1.6286659,3.1179104,-0.42080629,0.97477388,-0.057206631,-0.21573895,0
1.3690416,1.8749936,-1.2642882,0.97477388,-0.057206631,-0.21573895,0
-1.9153531,2.2011161,-3.341712,-0.15892333,0.50078779,-0.85085547,0
-1.2972975,-2.7040818,1.8082951,-0.97477388,0.057206631,0.21573895,0
2.125412,1.7796654,3.4470005,0.2188265,0.43525174,0.87331033,0
-1.0939486,4.2669411,0.8786056,-0.97477388,0.057206631,0.21573895,0
1.6689391,0.75463867,0.38781965,0.97477388,-0.057206631,-0.21573895,0
0.42512465,-0.3707515,4.2395492,0.20989805,-0.093683571,0.97322464,0
2.1120157,0.1953274,2.538084,0.97477388,-0.057206631,-0.21573895,0
-1.9094765,-3.1153276,-2.4576907,-0.18486786,-0.74853635,-0.63680232,0
-1.0038984,2.4373531,1.7706259,-0.97477388,0.057206631,0.21573895,0
1.8045416,2.2824843,0.59537971,0.97477388,-0.057206631,-0.21573895,0
-1.962544,2.4749308,-2.5707901,-0.97477388,0.057206631,0.21573895,0
-0.097398758,-0.5689826,4.3267751,0.2054885,-0.14728278,0.96751344,0
-1.7366716,1.2147626,-1.2160749,-0.97477388,0.057206631,0.21573895,0
1.3058797,0.45351982,-1.1727461,0.97477388,-0.057206631,-0.21573895,0
-2.0264823,1.4526789,-2.5886159,-0.97477388,0.057206631,0.21573895,0
1.2235143,-4.2823873,0.31782126,-0.026120901,-0.98919237,0.14427811,0
-0.91307867,3.3611877,1.936008,-0.97477388,0.057206631,0.21573895,0
-0.98870617,1.9543839,1.9673362,-0.97477388,0.057206631,0.21573895,0
-2.1215432,0.21334267,-3.8808548,-0.21409899,0.033467293,-0.97623849,0
-1.2772548,3.8023062,0.1735785,-0.97477388,0.057206631,0.21573895,0
0.72454858,1.2064407,-3.9990246,0.97477388,-0.057206631,-0.21573895,0
1.4777617,-2.9365854,0.50280988,0.97477388,-0.057206631,-0.21573895,0
1.0853821,-1.0801419,-1.7623453,0.97477388,-0.057206631,-0.21573895,0
-1.0896578,-4.1265254,0.95514357,-0.019653797,-0.98484063,0.17234465,0
-0.99947572,4.1962523,-0.75015116,0.0062244534,0.97318679,-0.22993228,0
-2.2561386,-1.451914,-2.8560708,-0.97477388,0.057206631,0.21573895,0
2.2484069,-1.2988715,3.5505521,0.97477388,-0.057206631,-0.21573895,0
2.2440622,1.2878399,3.6251309,0.22257829,0.32094637,0.92057174,0
-1.0466506,3.7767191,1.2223036,-0.97477388,0.057206631,0.21573895,0
-1.7281277,3.4119301,-1.7600852,-0.97477388,0.057206631,0.21573895,0
-0.99619031,4.2940187,0.7147789,0.080032825,0.99190432,0.098592937,0
1.9223176,2.9534006,0.9496237,0.97477388,-0.057206631,-0.21573895,0
1.9173671,-0.60482115,1.8707757,0.97477388,-0.057206631,-0.21573895,0
-2.1772738,1.7522897,-3.3493831,-0.97477388,0.057206631,0.21573895,0
1.1933947,-2.3023036,-0.95023561,0.97477388,-0.057206631,-0.21573895,0
1.6062529,3.5747294,1.8997133,0.15973178,0.85391891,0.49528605,0
1.3000976,-2.3228447,-0.46267223,0.97477388,-0.057206631,-0.21573895,0
-0.82760334,4.3054914,0.17930555,0.055663288,0.99836195,-0.013227999,0
1.126821,4.1617022,-0.70599687,0.032879114,0.99285436,-0.11471373,0
1.594695,0.34569216,0.16080138,0.97477388,-0.057206631,-0.21573895,0
0.89420104,-2.0767689,-2.3618875,0.97477388,-0.057206631,-0.21573895,0
-1.7377042,0.99045998,-1.1612628,-0.97477388,0.057206631,0.21573895,0
-0.033662319,-4.2288504,-0.53207016,-0.082208335,-0.99066389,-0.10875136,0
0.7044723,-4.2462955,-0.89087749,-0.091539621,-0.98402822,-0.15267253,0
-0.052963495,-2.9135222,3.1445925,0.11675072,-0.69311768,0.71130651,0
-1.084326,-2.6910386,2.7671061,-0.97477388,0.057206631,0.21573895,0
2.3114169,0.74477494,3.2933443,0.97477388,-0.057206631,-0.21573895,0
-1.8189228,3.1292539,-2.0953684,-0.97477388,0.057206631,0.21573895,0
0.79470301,-2.5864007,-2.6763129,0.97477388,-0.057206631,-0.21573895,0
0.84316015,1.7752116,-3.6139209,0.97477388,-0.057206631,-0.21573895,0
0.93740755,1.6779124,3.7905641,0.22056645,0.3948029,0.89189756,0
-1.7837453,0.69702375,-1.2914799,-0.97477388,0.057206631,0.21573895,0
2.051136,2.2364912,1.7217636,0.97477388,-0.057206631,-0.21573895,0
0.023682594,-4.0802383,1.1889473,0.0055724382,-0.96005601,0.27975231,0
-1.9430165,1.9455268,-2.3421752,-0.97477388,0.057206631,0.21573895,0
0.92171669,1.3385696,-3.1431961,0.97477388,-0.057206631,-0.21573895,0
1.970798,3.8806515,0.92279541,0.97477388,-0.057206631,-0.21573895,0
2.0003982,-2.0576856,2.6311853,0.97477388,-0.057206631,-0.21573895,0
-0.26456285,-2.6994977,3.3759565,0.12852693,-0.64637208,0.75211954,0
0.59967732,4.2055821,-0.46108341,0.039394677,0.99551767,-0.085980415,0
-1.3670068,2.7482347,0.047557831,-0.97477388,0.057206631,0.21573895,0
1.6530111,-3.0662098,1.3290104,0.97477388,-0.057206631,-0.21573895,0
-1.5042468,-1.699734,-3.640244,-0.22005881,-0.40779456,-0.88615894,0
0.94807458,-3.2359514,-1.8110938,0.97477388,-0.057206631,-0.21573895,0
-1.8897212,-3.1904316,-0.73948967,-0.97477388,0.057206631,0.21573895,0
-2.1743393,1.4488127,-3.2556515,-0.97477388,0.057206631,0.21573895,0
-1.7018297,0.031384587,-0.74485624,-0.97477388,0.057206631,0.21573895,0
0.68527651,-3.9583907,1.4999644,0.030315638,-0.9237023,0.38190958,0
1.5147185,-1.0147305,0.16018152,0.97477388,-0.057206631,-0.21573895,0
1.1618211,-0.1348629,-1.6676265,0.97477388,-0.057206631,-0.21573895,0
1.6415362,-3.1104894,1.2889074,0.97477388,-0.057206631,-0.21573895,0
1.8319149,0.083583057,1.3021357,0.97477388,-0.057206631,-0.21573895,0
0.48605284,-2.4807026,-3.697288,-0.20979932,-0.56467044,-0.79820526,0
2.3930278,0.44704419,3.7888312,0.2213926,0.12523866,0.96710944,0
-1.8840363,-2.5801549,-0.87562871,-0.97477388,0.057206631,0.21573895,0
-1.2848066,-1.7081352,1.6006415,-0.97477388,0.057206631,0.21573895,0
1.7668548,-2.9261961,1.806264,0.97477388,-0.057206631,-0.21573895,0
0.83516121,3.8717408,-1.8302157,-0.029972255,0.92428935,-0.38051373,0
1.0532317,2.7615111,-2.9262872,0.97477388,-0.057206631,-0.21573895,0
-0.23713636,3.3616724,-2.5930505,-0.086979866,0.79281175,-0.60322803,0
-2.128792,-3.0125113,-2.5115018,-0.18875216,-0.72714472,-0.66002512,0
0.9482637,1.1671824,3.9750447,0.22312087,0.27463117,0.93530464,0
1.0193834,-3.4542727,-1.4310086,0.97477388,-0.057206631,-0.21573895,0
-2.020401,-3.6969635,-1.1956248,-0.97477388,0.057206631,0.21573895,0
1.289168,1.8613081,-1.6215525,0.97477388,-0.057206631,-0.21573895,0
1.6070136,3.4611077,-0.6096431,0.97477388,-0.057206631,-0.21573895,0
-0.82424301,0.75210857,3.0292342,-0.97477388,0.057206631,0.21573895,0
1.7343051,0.58984041,0.72686237,0.97477388,-0.057206631,-0.21573895,0
1.3747385,0.27587211,-0.81451428,0.97477388,-0.057206631,-0.21573895,0
2.2398558,2.614471,2.4742293,0.97477388,-0.057206631,-0.21573895,0
-1.9478862,-3.4609034,-1.9782342,-0.16612807,-0.83147848,-0.5301367,0
1.5356866,0.1573118,-0.055864275,0.97477388,-0.057206631,-0.21573895,0
-1.5641596,-1.9463429,0.40160537,-0.97477388,0.057206631,0.21573895,0
1.8959523,3.572526,0.66632569,0.97477388,-0.057206631,-0.21573895,0
1.4220893,2.7346935,-1.252565,0.97477388,-0.057206631,-0.21573895,0
2.0156579,-0.70915878,2.3425498,0.97477388,-0.057206631,-0.21573895,0
-1.222014,3.3522553,0.54251337,-0.97477388,0.057206631,0.21573895,0
-1.7772019,2.2690158,-1.6787556,-0.97477388,0.057206631,0.21573895,0
0.68205595,3.7198658,1.9393382,0.1527639,0.87571561,0.45802337,0
-0.85619354,-4.2042427,-0.024040222,-0.066388547,-0.99716032,-0.035550177,0
1.5386319,1.8082428,-0.48032716,0.97477388,-0.057206631,-0.21573895,0
-1.7839648,-1.836472,-0.62067461,-0.97477388,0.057206631,0.21573895,0
-0.87099195,4.1848783,-0.7946806,0.0053778887,0.97233438,-0.2335315,0
1.332634,2.9237313,-1.7068785,0.97477388,-0.057206631,-0.21573895,0
1.0136416,-1.1750005,-2.0613375,0.97477388,-0.057206631,-0.21573895,0
2.1167459,-0.96604985,2.8674152,0.97477388,-0.057206631,-0.21573895,0
2.2278855,2.0488935,2.570116,0.97477388,-0.057206631,-0.21573895,0
1.7014003,3.8449676,-0.28496206,0.97477388,-0.057206631,-0.21573895,0
-0.63752896,0.59652948,3.9141188,-0.97477388,0.057206631,0.21573895,0
1.5632472,3.7460012,-0.88293529,0.97477388,-0.057206631,-0.21573895,0
0.6638279,-2.2052469,-3.3687155,0.97477388,-0.057206631,-0.21573895,0
2.2997212,1.5034063,3.039336,0.97477388,-0.057206631,-0.21573895,0
1.1081908,-4.2534995,-0.81782007,0.97477388,-0.057206631,-0.21573895,0
0.79724419,-1.8890967,-2.8497322,0.97477388,-0.057206631,-0.21573895,0
-0.49021864,0.054321408,-4.2435913,-0.21501288,0.018630743,-0.97643346,0
-1.6903651,1.8923094,-1.1865096,-0.97477388,0.057206631,0.21573895,0
1.4849159,2.0638406,3.4552979,0.21545821,0.49346974,0.84265381,0
-1.6816895,-0.32471657,-0.55943054,-0.97477388,0.057206631,0.21573895,0
0.57293701,-3.857414,1.7372694,0.042066038,-0.90218395,0.42929527,0
1.7971164,0.34902835,1.0745177,0.97477388,-0.057206631,-0.21573895,0
-1.3218153,1.3938247,0.61089027,-0.97477388,0.057206631,0.21573895,0
1.2195702,-3.1768267,2.6674082,0.10459995,-0.7367866,0.66798526,0
-2.045037,-2.0024688,-1.7562617,-0.97477388,0.057206631,0.21573895,0
1.4061867,2.1997175,-1.1825612,0.97477388,-0.057206631,-0.21573895,0
1.9696612,-0.27293184,3.911557,0.21305606,-0.049524397,0.97578394,0
-0.73955679,-4.1328526,-0.73566723,-0.099297106,-0.97682083,-0.1896345,0
-1.1349995,-1.9646974,2.3455482,-0.97477388,0.057206631,0.21573895,0
1.6843183,3.6914716,-0.32144201,0.97477388,-0.057206631,-0.21573895,0
1.8977075,-2.7110782,2.3404548,0.97477388,-0.057206631,-0.21573895,0
-1.1031795,2.7339826,1.2433894,-0.97477388,0.057206631,0.21573895,0
-0.59414721,1.6685477,3.8258667,-0.97477388,0.057206631,0.21573895,0
-1.7208444,-2.289253,-0.21541584,-0.97477388,0.057206631,0.21573895,0
-2.0014231,-2.515166,-1.4232509,-0.97477388,0.057206631,0.21573895,0
-1.1406107,-1.9408376,2.3138685,-0.97477388,0.057206631,0.21573895,0
1.1137986,-4.1332073,-0.82438159,0.97477388,-0.057206631,-0.21573895,0
0.86341041,1.220507,3.9793091,0.22303694,0.28601134,0.93190771,0
0.21678805,2.1713898,-3.755774,-0.15481007,0.52299422,-0.8381592,0
-0.74323189,0.97140002,3.3371181,-0.97477388,0.057206631,0.21573895,0
0.64796209,2.2348514,-3.7942958,-0.15082955,0.54364669,-0.82565045,0
-1.5558789,-0.8327564,0.14373441,-0.97477388,0.057206631,0.21573895,0
1.1960421,-1.6064725,3.7746341,0.17971587,-0.37202474,0.91065907,0
1.653699,-0.18897939,0.56917614,0.97477388,-0.057206631,-0.21573895,0
2.1669478,0.12589586,3.8684826,0.21847013,0.046724021,0.97472441,0
0.61116099,-2.0395613,-3.6506138,0.97477388,-0.057206631,-0.21573895,0
-1.5351188,-2.532372,0.68821609,-0.97477388,0.057206631,0.21573895,0
1.8220105,-2.4788413,1.9368534,0.97477388,-0.057206631,-0.21573895,0
1.9278047,1.7878304,1.2834852,0.97477388,-0.057206631,-0.21573895,0
0.89412677,0.93609047,-3.1611316,0.97477388,-0.057206631,-0.21573895,0
0.45412469,-2.5041766,3.4069927,0.14104939,-0.59122491,0.79407692,0
1.8396158,2.5941768,0.67120576,0.97477388,-0.057206631,-0.21573895,0
0.96624112,0.78746343,-2.795887,0.97477388,-0.057206631,-0.21573895,0
0.5706079,1.838644,-4.0111313,-0.16766423,0.45034128,-0.87697291,0
1.9839948,1.8260036,1.5272475,0.97477388,-0.057206631,-0.21573895,0
-1.5960205,-3.396982,0.64230824,-0.97477388,0.057206631,0.21573895,0
-1.6709049,-3.2350655,0.26102412,-0.97477388,0.057206631,0.21573895,0
-1.1543427,2.2509968,-3.4528494,-0.15484798,0.52279389,-0.83827722,0
-0.24793625,-3.9214802,-1.6548083,-0.13624185,-0.91812921,-0.37212479,0
1.549782,0.12594604,0.016140193,0.97477388,-0.057206631,-0.21573895,0
0.32574749,-4.1073732,-1.3393722,-0.11634827,-0.95511442,-0.27243251,0
1.2079363,-0.034772992,-1.4858049,0.97477388,-0.057206631,-0.21573895,0
1.1705779,-0.26477587,-1.5936129,0.97477388,-0.057206631,-0.21573895,0
-2.0402343,-1.6408597,-1.8304485,-0.97477388,0.057206631,0.21573895,0
1.4411242,2.605679,-1.1323509,0.97477388,-0.057206631,-0.21573895,0
-1.665067,-0.58590925,-0.41506597,-0.97477388,0.057206631,0.21573895,0
1.6559405,-3.6466308,1.4961561,0.97477388,-0.057206631,-0.21573895,0
1.4138787,-2.9745083,0.22422338,0.97477388,-0.057206631,-0.21573895,0
-1.4546638,-2.6563187,1.0846025,-0.97477388,0.057206631,0.21573895,0
-1.2342103,-2.8973932,2.144604,-0.97477388,0.057206631,0.21573895,0
2.3485916,1.6152389,3.2304926,0.97477388,-0.057206631,-0.21573895,0
1.5856533,4.160481,-0.11265349,0.067600846,0.99686527,0.041105866,0
-1.8835239,2.6644108,-2.2639968,-0.97477388,0.057206631,0.21573895,0
-1.4586322,-0.5185163,0.49979857,-0.97477388,0.057206631,0.21573895,0
-2.0408974,-1.3271067,-3.6604552,-0.22246003,-0.32738712,-0.9183296,0
-0.2526269,-1.1559899,4.2254229,0.19095194,-0.2866925,0.93879962,0
0.86194038,-3.6233439,-2.0975511,0.97477388,-0.057206631,-0.21573895,0
2.0797675,-2.0719059,2.9935694,0.97477388,-0.057206631,-0.21573895,0
-2.356818,-0.4584015,-3.7956388,-0.22145396,-0.12740737,-0.96681201,0
1.4200872,-2.1018567,0.020878077,0.97477388,-0.057206631,-0.21573895,0
1.9310474,1.871667,1.2759063,0.97477388,-0.057206631,-0.21573895,0
0.39661288,2.271961,-3.723845,-0.14980286,0.54884732,-0.8223902,0
0.33270288,1.0381842,-4.2759714,-0.19406027,0.26026171,-0.94583535,0
1.5459983,-0.89110827,0.26873273,0.97477388,-0.057206631,-0.21573895,0
0.84696651,-3.1074071,2.8014905,0.10777801,-0.72578424,0.67942697,0
-1.3019395,3.4522104,0.15488005,-0.97477388,0.057206631,0.21573895,0
-1.886174,-0.50780815,-1.4348041,-0.97477388,0.057206631,0.21573895,0
-1.4049402,-3.3799727,-2.2664189,-0.17296189,-0.80453742,-0.56815803,0
1.8027431,-1.5315838,1.5986166,0.97477388,-0.057206631,-0.21573895,0
1.561734,-3.6397269,2.0138779,0.070199311,-0.83896059,0.53964555,0
1.4797475,-0.52811122,-0.1268627,0.97477388,-0.057206631,-0.21573895,0
-0.62221169,-1.7206521,4.0794287,0.17198694,-0.4235447,0.88939887,0
-2.2199287,-1.5738125,-3.5193465,-0.22081323,-0.38800433,-0.89481515,0
-0.27594757,-0.34989059,-4.2800407,-0.21960849,-0.073249519,-0.97283429,0
2.0375278,-2.3531461,2.8772953,0.97477388,-0.057206631,-0.21573895,0
-1.5929458,-3.9643431,-1.0166864,-0.12099427,-0.94768232,-0.29539555,0
-1.7476199,2.5528462,-1.6203575,-0.97477388,0.057206631,0.21573895,0
0.086102962,-2.904259,3.1306996,0.11781478,-0.68908036,0.71504402,0
-1.7978039,-0.54651868,-1.025256,-0.97477388,0.057206631,0.21573895,0
0.32406855,-3.9264827,1.6055835,0.031726599,-0.92126518,0.38763872,0
1.7093935,2.342731,0.14949751,0.97477388,-0.057206631,-0.21573895,0
0.99847841,-0.75224066,-2.2419508,0.97477388,-0.057206631,-0.21573895,0
0.54231358,2.9608831,-3.1769214,-0.11199313,0.71073967,-0.69448298,0
-1.88501,2.3092322,-2.1765285,-0.97477388,0.057206631,0.21573895,0
-1.1504085,3.2920961,0.88200068,-0.97477388,0.057206631,0.21573895,0
1.1995447,3.3503032,-2.4213285,0.97477388,-0.057206631,-0.21573895,0
-1.0046101,1.7248473,1.9563438,-0.97477388,0.057206631,0.21573895,0
-1.5865753,-3.0155089,0.58383095,-0.97477388,0.057206631,0.21573895,0
-1.137314,-1.4957774,2.2107477,-0.97477388,0.057206631,0.21573895,0
-1.6329541,-1.5849737,-0.0050526261,-0.97477388,0.057206631,0.21573895,0
0.58650494,3.4473429,2.4199421,0.17184925,0.80915308,0.56190687,0
0.95647955,2.0617118,-3.1778798,0.97477388,-0.057206631,-0.21573895,0
1.8625512,-2.3999181,2.0991006,0.97477388,-0.057206631,-0.21573895,0
2.2959785,-0.43450576,3.5362945,0.97477388,-0.057206631,-0.21573895,0
1.2294087,-0.92805874,-1.1519167,0.97477388,-0.057206631,-0.21573895,0
-0.82909369,1.7560966,2.7410932,-0.97477388,0.057206631,0.21573895,0
-1.7957947,0.43445486,-1.276299,-0.97477388,0.057206631,0.21573895,0
-0.51902437,-3.0375533,3.0927601,0.10709578,-0.72817075,0.67697692,0
0.880687,-3.9090929,-1.9370785,0.97477388,-0.057206631,-0.21573895,0
1.2402883,1.8776366,-1.846735,0.97477388,-0.057206631,-0.21573895,0
2.2029521,-0.46826863,3.1249261,0.97477388,-0.057206631,-0.21573895,0
0.80170035,-2.9501524,2.9685621,0.11757773,-0.68998337,0.71421182,0
1.3629224,1.8087586,-1.2743726,0.97477388,-0.057206631,-0.21573895,0
-1.1008174,-2.4520824,2.6292319,-0.97477388,0.057206631,0.21573895,0
1.2571533,-0.41619778,-1.1622868,0.97477388,-0.057206631,-0.21573895,0
0.70344353,1.0498407,-4.0528603,0.97477388,-0.057206631,-0.21573895,0
-1.5719724,-0.69176078,0.033631969,-0.97477388,0.057206631,0.21573895,0
2.015604,1.8033671,1.6760693,0.97477388,-0.057206631,-0.21573895,0
-1.2542171,-4.1397753,0.8467083,-0.027122021,-0.98979211,0.1399138,0
-1.3141462,-2.458528,1.6670566,-0.97477388,0.057206631,0.21573895,0
0.22050548,-0.067703009,-4.401648,-0.21610421,-0.00020268559,-0.97637022,0
-1.2230985,-3.3351221,2.3108792,-0.97477388,0.057206631,0.21573895,0
2.3225484,0.32156181,3.4558616,0.97477388,-0.057206631,-0.21573895,0
0.099815845,0.46394467,-4.3419242,-0.2075879,0.12272447,-0.97048748,0
-1.4449382,-2.2142944,1.0113348,-0.97477388,0.057206631,0.21573895,0
-1.0212307,-1.9149408,2.8463964,-0.97477388,0.057206631,0.21573895,0
-1.6152909,-1.4013106,0.02605468,-0.97477388,0.057206631,0.21573895,0
-0.91203809,3.3233695,1.9507377,-0.97477388,0.057206631,0.21573895,0
-1.4208801,3.3012571,-0.34249949,-0.97477388,0.057206631,0.21573895,0
0.64072067,-2.1208813,-3.495491,0.97477388,-0.057206631,-0.21573895,0
0.14216828,2.6244307,-3.4178123,-0.13301754,0.62728268,-0.76734793,0
-1.3021986,3.9497461,-1.4681017,-0.03608346,0.91348803,-0.40526265,0
-0.059478998,0.8569746,4.2883477,0.22274125,0.18774766,0.95662808,0
1.6096735,-1.1620231,3.8433585,0.19379634,-0.26256296,0.94525319,0
-1.0426061,-3.6606388,2.2958455,0.053350568,-0.87885493,0.4740968,0
2.1998508,1.8176444,2.5047667,0.97477388,-0.057206631,-0.21573895,0
-1.7304741,-0.61007804,-3.9174786,-0.22213131,-0.1544072,-0.96271288,0
-1.3856256,0.010096312,0.68949431,-0.97477388,0.057206631,0.21573895,0
-0.38574696,2.4057968,3.7228806,0.21125862,0.54834491,0.80912769,0
-1.8317003,1.8464195,-1.8129385,-0.97477388,0.057206631,0.21573895,0
-1.3808497,0.39270353,0.60961884,-0.97477388,0.057206631,0.21573895,0
-0.97349,3.8709779,1.5278733,-0.97477388,0.057206631,0.21573895,0
0.82937574,0.30065918,-3.2852011,0.97477388,-0.057206631,-0.21573895,0
0.39789128,4.1976781,-0.60046124,0.030029118,0.99142098,-0.12721062,0
-0.66129971,-4.2116785,-0.15500569,-0.070682049,-0.99596667,-0.055266142,0
1.884053,-0.35661763,1.6544372,0.97477388,-0.057206631,-0.21573895,0
1.3604614,-1.9119692,-0.29888117,0.97477388,-0.057206631,-0.21573895,0
-1.1805654,0.70059216,1.4329226,-0.97477388,0.057206631,0.21573895,0
-0.40773273,-0.38572001,4.4172382,0.20873177,-0.10863784,0.97192025,0
2.1820583,2.3086965,3.1176333,0.21013424,0.56102204,0.80068588,0
-1.8296773,2.3654723,-1.9414327,-0.97477388,0.057206631,0.21573895,0
-0.71707606,-4.1810246,0.65466499,-0.030869901,-0.99186069,0.12352866,0
-1.7447512,-2.9650602,-2.6717491,-0.19155736,-0.71051216,-0.6771102,0
-0.85392964,3.2826974,2.2240748,-0.97477388,0.057206631,0.21573895,0
-1.9758167,0.53602427,-2.1166263,-0.97477388,0.057206631,0.21573895,0
1.9562485,0.38451254,1.7841158,0.97477388,-0.057206631,-0.21573895,0
1.5332747,-1.476022,0.36634266,0.97477388,-0.057206631,-0.21573895,0
-0.82627231,0.29802728,3.1404719,-0.97477388,0.057206631,0.21573895,0
-1.1538777,0.46358156,1.6163523,-0.97477388,0.057206631,0.21573895,0
-1.0668125,-3.1002257,2.9547403,-0.97477388,0.057206631,0.21573895,0
1.390062,0.81956387,-0.88944703,0.97477388,-0.057206631,-0.21573895,0
0.13706696,-0.60384011,-4.3477116,-0.22144789,-0.1271911,-0.96684188,0
1.3211489,3.0704308,-1.7976712,0.97477388,-0.057206631,-0.21573895,0
-1.469973,1.2904315,-0.031113744,-0.97477388,0.057206631,0.21573895,0
2.2450652,1.6628458,2.7501049,0.97477388,-0.057206631,-0.21573895,0
1.8734117,-2.2769346,2.1155593,0.97477388,-0.057206631,-0.21573895,0
1.1272454,-4.0659904,-0.78144789,0.97477388,-0.057206631,-0.21573895,0
1.2850602,3.5475757,-2.0872538,0.97477388,-0.057206631,-0.21573895,0
-1.1403451,-3.0304594,2.6039984,-0.97477388,0.057206631,0.21573895,0
-0.74543107,1.4219644,3.2077069,-0.97477388,0.057206631,0.21573895,0
-1.066319,-1.6771145,2.5796094,-0.97477388,0.057206631,0.21573895,0
2.0633981,0.61232764,2.2078414,0.97477388,-0.057206631,-0.21573895,0
1.2206931,3.2730799,-2.3052957,0.97477388,-0.057206631,-0.21573895,0
1.1044822,-3.1703219,-1.1218004,0.97477388,-0.057206631,-0.21573895,0
0.71822238,-2.4202142,-3.065942,0.97477388,-0.057206631,-0.21573895,0
-1.5466988,3.0643518,-0.8481698,-0.97477388,0.057206631,0.21573895,0
-0.56160831,-4.1591587,-0.68875861,-0.095235348,-0.98079157,-0.17022932,0
0.25753546,3.6074982,-2.2964859,-0.063281596,0.85609317,-0.5129326,0
2.099525,1.3497813,2.1755245,0.97477388,-0.057206631,-0.21573895,0
1.106668,-3.1551597,-1.1159441,0.97477388,-0.057206631,-0.21573895,0
1.7376056,0.1250582,3.9646716,0.21818623,0.040614903,0.97506166,0
-0.85825396,1.110893,2.7804246,-0.97477388,0.057206631,0.21573895,0
1.1818205,-0.35406733,-1.5191376,0.97477388,-0.057206631,-0.21573895,0
-1.0824797,4.2938156,0.78396893,0.082442284,0.9905237,0.109846,0
-1.353807,4.2839499,-0.32940388,0.024041176,0.98788285,-0.15332812,0
1.4028156,-3.5469873,0.32604074,0.97477388,-0.057206631,-0.21573895,0
1.9755434,2.4641759,1.3198395,0.97477388,-0.057206631,-0.21573895,0
-1.9181995,-3.718262,-1.5238298,-0.14667219,-0.8927654,-0.42597812,0
1.3963428,-3.6035552,0.31179333,0.97477388,-0.057206631,-0.21573895,0
1.268703,-2.4461536,3.3030548,0.1462158,-0.56662738,0.81089723,0
-1.2835727,-3.9972386,1.4996266,0.006711483,-0.95864516,0.28452489,0
-1.3598717,-3.8999286,-1.2964418,-0.13125998,-0.92870504,-0.34681082,0
1.784874,3.6326158,0.14850712,0.97477388,-0.057206631,-0.21573895,0
-1.8826034,0.15304798,-1.5939084,-0.97477388,0.057206631,0.21573895,0
-1.8592248,0.47322011,-1.5731752,-0.97477388,0.057206631,0.21573895,0
-1.056891,4.302063,0.68050098,0.077730715,0.99309403,0.087875903,0
0.75602055,-3.6377652,2.1202326,0.066043496,-0.84938097,0.52363175,0
-0.73078197,-3.0526903,-2.866365,-0.19045191,-0.71719414,-0.67034358,0
-1.2049046,3.416955,0.60266209,-0.97477388,0.057206631,0.21573895,0
1.0256162,-1.983187,3.6313,0.16568297,-0.46219325,0.87116396,0
1.2826138,-0.44036603,-1.0408401,0.97477388,-0.057206631,-0.21573895,0
-1.4000063,-3.4869375,1.5518136,-0.97477388,0.057206631,0.21573895,0
1.3889799,3.0561442,-1.487402,0.97477388,-0.057206631,-0.21573895,0
-1.1568575,-4.166256,0.65464997,-0.03583163,-0.99416739,0.10172135,0
0.73797846,-2.0391955,-3.0777123,0.97477388,-0.057206631,-0.21573895,0
0.56728363,-3.9121292,-1.9697967,-0.14214978,-0.90432519,-0.40247893,0
2.0421014,1.4961586,1.8772537,0.97477388,-0.057206631,-0.21573895,0
-0.2390306,-4.1853952,0.71386766,-0.022394359,-0.98678535,0.16047746,0
-1.5729376,-2.8449211,0.60021627,-0.97477388,0.057206631,0.21573895,0
1.4596891,-3.4707408,0.56279564,0.97477388,-0.057206631,-0.21573895,0
1.2286882,-1.6429075,-0.96561849,0.97477388,-0.057206631,-0.21573895,0
0.90173244,-0.81736231,-2.6618099,0.97477388,-0.057206631,-0.21573895,0
-0.75226814,0.62686443,3.3876488,-0.97477388,0.057206631,0.21573895,0
2.3583219,1.4317368,3.3231163,0.97477388,-0.057206631,-0.21573895,0
-1.6785388,0.42673331,-0.74445379,-0.97477388,0.057206631,0.21573895,0
-1.6441095,-4.0203676,-0.79819298,-0.11151773,-0.96212721,-0.24874711,0
-1.0367925,2.5635328,1.5885431,-0.97477388,0.057206631,0.21573895,0
-0.46024156,2.8821111,3.3674479,0.1990477,0.6601069,0.7243197,0
1.981169,0.47300303,1.8732493,0.97477388,-0.057206631,-0.21573895,0
-1.3200915,1.4834239,0.59492087,-0.97477388,0.057206631,0.21573895,0
1.9103637,-0.30796605,1.7604158,0.97477388,-0.057206631,-0.21573895,0
-1.1596799,4.3253698,0.31470442,0.058731437,0.99827361,0.0006582737,0
-1.852806,-0.74110496,-1.2221748,-0.97477388,0.057206631,0.21573895,0
1.6589026,0.59993517,0.38349357,0.97477388,-0.057206631,-0.21573895,0
-1.7937598,2.1341157,-1.7177968,-0.97477388,0.057206631,0.21573895,0
0.2312007,3.1472194,-2.9260612,-0.10078198,0.74962938,-0.6541397,0
-0.024275899,0.3724103,4.3461146,0.21965438,0.074399829,0.97273666,0
-2.1964326,-1.1162839,-2.6752982,-0.97477388,0.057206631,0.21573895,0
-1.7044169,-3.7744167,-1.4768578,-0.14257893,-0.90326631,-0.40469891,0
1.4940335,1.2288814,-0.52820981,0.97477388,-0.057206631,-0.21573895,0
0.50379682,-3.3303099,-2.903172,-0.18144478,-0.76599705,-0.61670601,0
-1.571342,2.8723078,-0.90859044,-0.97477388,0.057206631,0.21573895,0
-2.1718073,-2.5706694,-2.1783805,-0.97477388,0.057206631,0.21573895,0
0.36997271,-2.5586886,3.3805552,0.13803965,-0.60503662,0.78414011,0
-0.80464232,0.90251648,3.0779128,-0.97477388,0.057206631,0.21573895,0
1.1610167,4.0794792,-1.1849421,0.0085021853,0.97541076,-0.2202307,0
1.7738891,2.6906309,0.34865654,0.97477388,-0.057206631,-0.21573895,0
-0.044377089,0.23205733,-4.3333788,-0.21189776,0.066424668,-0.97503185,0
-0.94838202,-1.1450635,-3.9814444,-0.2231487,-0.26942667,-0.93681049,0
1.5177631,-1.0260191,0.17693096,0.97477388,-0.057206631,-0.21573895,0
2.0536342,3.6156616,1.6804703,0.15466434,0.87002516,0.46811873,0
-0.94852126,-1.1066699,-3.9922538,-0.22318143,-0.2603929,-0.93935382,0
1.6814444,-0.50153863,0.77741849,0.97477388,-0.057206631,-0.21573895,0
2.3231008,1.7759628,3.0726991,0.97477388,-0.057206631,-0.21573895,0
1.0588331,2.743165,-2.8961148,0.97477388,-0.057206631,-0.21573895,0
-1.53866,-4.0118814,-0.87680197,-0.11406004,-0.95852518,-0.26118922,0
-0.92837286,-1.8872445,3.2586102,-0.97477388,0.057206631,0.21573895,0
2.0897007,-0.47988826,2.616302,0.97477388,-0.057206631,-0.21573895,0
1.8662605,1.3690561,1.116455,0.97477388,-0.057206631,-0.21573895,0
-2.0780494,-2.8262529,-2.7181945,-0.19594097,-0.68219674,-0.70442516,0
0.63770223,-2.327353,3.4984665,0.15004754,-0.54761243,0.82316858,0
-0.84310293,4.2425776,0.9939816,0.094967663,0.98103797,0.16895431,0
-1.7947308,0.85580802,-1.3832208,-0.97477388,0.057206631,0.21573895,0
-0.82119882,0.7970314,3.0310764,-0.97477388,0.057206631,0.21573895,0
-0.90517259,-1.9289982,3.3745084,-0.97477388,0.057206631,0.21573895,0
2.3284984,1.3435577,3.2117465,0.97477388,-0.057206631,-0.21573895,0
1.0642687,-1.6779857,-1.6992145,0.97477388,-0.057206631,-0.21573895,0
0.25578696,-1.685419,-4.081707,-0.22108527,-0.38006216,-0.89815032,0
-2.0263994,0.27413762,-2.2757299,-0.97477388,0.057206631,0.21573895,0
-1.9423561,-2.1341269,-1.2574067,-0.97477388,0.057206631,0.21573895,0
-1.2412601,-4.1446004,-0.37412119,-0.0874421,-0.98720872,-0.13331521,0
-1.7971339,-2.688318,-0.45429683,-0.97477388,0.057206631,0.21573895,0
-1.9918368,-0.80324876,-1.8338795,-0.97477388,0.057206631,0.21573895,0
1.8410543,-1.6433499,1.8013538,0.97477388,-0.057206631,-0.21573895,0
0.73141932,2.8046761,-3.3605638,-0.12091291,0.67711997,-0.72587091,0
-0.89672995,2.9679489,2.11415,-0.97477388,0.057206631,0.21573895,0
-2.2180545,-2.1405582,-2.5013907,-0.97477388,0.057206631,0.21573895,0
2.204325,1.1739316,2.6956728,0.97477388,-0.057206631,-0.21573895,0
1.2348968,-0.8380568,-1.1509857,0.97477388,-0.057206631,-0.21573895,0
1.7052733,1.7944388,3.5448959,0.21893977,0.43291968,0.87444037,0
1.4358301,3.8343177,1.4343073,0.13811117,0.91391408,0.38168895,0
1.0575492,1.6593072,-2.614512,0.97477388,-0.057206631,-0.21573895,0
-0.93250155,3.0489142,-2.848999,-0.11189884,0.71108198,-0.69414777,0
-1.502547,-0.90174174,0.40299669,-0.97477388,0.057206631,0.21573895,0
-1.7362566,0.32616442,-0.97857291,-0.97477388,0.057206631,0.21573895,0
-1.1707369,2.3985686,1.0270842,-0.97477388,0.057206631,0.21573895,0
0.2221446,4.0860586,1.1794381,0.11457682,0.95776898,0.2637248,0
-0.56723571,3.1020622,-2.8515301,-0.10704535,0.72834635,-0.67679608,0
0.9296453,-2.0292225,3.6246734,0.16362619,-0.47422957,0.86506224,0
-1.0077094,-1.5790994,2.8184347,-0.97477388,0.057206631,0.21573895,0
2.2436898,1.2507778,2.8531578,0.97477388,-0.057206631,-0.21573895,0
0.81527376,-1.6378437,-2.8348923,0.97477388,-0.057206631,-0.21573895,0
0.94265342,-1.4943887,3.8690424,0.18288791,-0.34933722,0.91897523,0
0.84955287,0.90505481,-3.3543003,0.97477388,-0.057206631,-0.21573895,0
-1.8640046,1.6604054,-1.9095733,-0.97477388,0.057206631,0.21573895,0
-1.1233459,-3.1004283,2.6993597,-0.97477388,0.057206631,0.21573895,0
1.1384709,0.82634687,-2.0280099,0.97477388,-0.057206631,-0.21573895,0
1.3785826,2.4176736,-1.3650793,0.97477388,-0.057206631,-0.21573895,0
0.2235446,-4.1744466,-1.0223625,-0.10274011,-0.97310632,-0.20617598,0
1.7520182,-3.5574536,1.9066163,0.97477388,-0.057206631,-0.21573895,0
0.034942389,-0.6471138,-4.3183274,-0.22175878,-0.13876517,-0.96517736,0
0.95141411,-0.35517955,-2.5598884,0.97477388,-0.057206631,-0.21573895,0
0.80871773,-3.4146848,-2.393357,0.97477388,-0.057206631,-0.21573895,0
-2.0595036,2.2194748,-2.9411433,-0.97477388,0.057206631,0.21573895,0
-1.0943332,-0.4800005,2.1355991,-0.97477388,0.057206631,0.21573895,0
-0.58078408,4.2908492,0.11380792,0.055123329,0.99835664,-0.015666425,0
-1.2660388,1.060807,0.95121086,-0.97477388,0.057206631,0.21573895,0
-1.6024764,0.65225577,-0.46058157,-0.97477388,0.057206631,0.21573895,0
1.299957,3.6574483,-2.049078,0.97477388,-0.057206631,-0.21573895,0
1.703514,0.36119226,3.9558296,0.22044736,0.095572323,0.97070533,0
0.31112659,0.64282465,4.2393994,0.22185344,0.14252925,0.96460688,0
-1.5083213,-1.1678352,0.44746637,-0.97477388,0.057206631,0.21573895,0
0.075915933,-3.0276327,-3.1204689,-0.19324103,-0.69999516,-0.6875062,0
-1.2799358,-4.1324987,-0.43429685,-0.090714157,-0.984703,-0.14876413,0
-0.99268734,2.9433215,1.6871157,-0.97477388,0.057206631,0.21573895,0
-1.3206322,-3.8537774,-1.4290659,-0.13675684,-0.91698152,-0.37475646,0
-2.1930101,1.0748926,-3.2408619,-0.97477388,0.057206631,0.21573895,0
1.9997706,2.43822,1.436188,0.97477388,-0.057206631,-0.21573895,0
-1.368855,-0.14291406,0.8058421,-0.97477388,0.057206631,0.21573895,0
-2.3519373,-0.49570096,-3.5424736,-0.97477388,0.057206631,0.21573895,0
-0.26664764,-1.2339255,-4.1179519,-0.22307838,-0.28092563,-0.93344361,0
-0.035349369,4.0656052,-1.2377818,-0.0083176494,0.95661306,-0.29124278,0
-0.83715546,0.50625372,3.0360835,-0.97477388,0.057206631,0.21573895,0
1.8406746,1.4354078,0.98325622,0.97477388,-0.057206631,-0.21573895,0
-0.87672281,1.7517618,2.52704,-0.97477388,0.057206631,0.21573895,0
0.070599556,3.5456657,-2.3724484,-0.070042908,0.83935982,-0.5390445,0
1.2519041,-2.5380697,-0.62335539,0.97477388,-0.057206631,-0.21573895,0
1.9399718,-0.60362911,1.9725943,0.97477388,-0.057206631,-0.21573895,0
-0.93031085,-1.820995,-3.7257216,-0.21915212,-0.4284544,-0.87658376,0
-1.1097546,-1.9640837,2.4594493,-0.97477388,0.057206631,0.21573895,0
-1.7815385,-0.35493898,-1.0025644,-0.97477388,0.057206631,0.21573895,0
1.3319275,-4.0669756,1.1748435,0.020383,-0.93973929,0.34128368,0
1.1739197,-3.230526,-0.79209661,0.97477388,-0.057206631,-0.21573895,0
-1.2991366,3.5122511,0.15162444,-0.97477388,0.057206631,0.21573895,0
-0.81905222,4.2930202,0.56764436,0.074815631,0.99442166,0.074352205,0
-1.6172078,3.8586164,-1.3773611,-0.97477388,0.057206631,0.21573895,0
1.4204438,0.29048645,-0.61188,0.97477388,-0.057206631,-0.21573895,0
-1.064268,3.175328,1.3021719,-0.97477388,0.057206631,0.21573895,0
-1.6663067,0.32272524,-0.66160631,-0.97477388,0.057206631,0.21573895,0
1.8025724,-0.85249388,1.4177727,0.97477388,-0.057206631,-0.21573895,0
-1.3115342,-0.41414189,1.1367558,-0.97477388,0.057206631,0.21573895,0
0.93473458,-4.0087442,1.3556772,0.025439322,-0.93181938,0.36202964,0
0.50105357,-4.2797418,-0.41498256,-0.070814788,-0.99592316,-0.055877328,0
0.90565538,-2.5098903,-2.1952834,0.97477388,-0.057206631,-0.21573895,0
2.3603249,2.1555774,3.140228,0.97477388,-0.057206631,-0.21573895,0
-0.19731236,0.88659394,-4.2045765,-0.19872904,0.21754858,-0.9556042,0
0.80113268,1.3902898,-3.701745,0.97477388,-0.057206631,-0.21573895,0
-1.3275276,-1.8245325,1.4384792,-0.97477388,0.057206631,0.21573895,0
-1.5331883,1.6651306,-0.41609824,-0.97477388,0.057206631,0.21573895,0
-1.4186305,-1.1701634,0.85333312,-0.97477388,0.057206631,0.21573895,0
1.4894812,0.72649884,-0.41556332,0.97477388,-0.057206631,-0.21573895,0
-0.66960287,1.3346982,-3.9811516,-0.18732995,0.31579405,-0.93015134,0
-1.6192129,3.573276,-2.1063874,-0.076322436,0.82289064,-0.56305045,0
-0.6180855,1.9624877,3.6397643,-0.97477388,0.057206631,0.21573895,0
0.59454513,-3.9942155,-1.7825794,-0.13364345,-0.92376232,-0.35889077,0
1.3285532,2.7088928,-1.6683491,0.97477388,-0.057206631,-0.21573895,0
1.7103387,1.2868307,0.43375611,0.97477388,-0.057206631,-0.21573895,0
0.73840427,-0.33303523,-3.5282037,0.97477388,-0.057206631,-0.21573895,0
0.78527546,3.292917,-2.8307977,-0.087661922,0.79079229,-0.60577464,0
-2.0174727,-3.0888255,-1.343653,-0.97477388,0.057206631,0.21573895,0
1.6516426,0.017587543,0.50511026,0.97477388,-0.057206631,-0.21573895,0
0.95438504,-3.7186913,-1.6545746,0.97477388,-0.057206631,-0.21573895,0
-0.1364584,2.3537953,-3.5716105,-0.14744461,0.56060296,-0.81485236,0
2.2938859,-0.76188129,3.6136489,0.97477388,-0.057206631,-0.21573895,0
1.2456663,0.41236985,-1.4338964,0.97477388,-0.057206631,-0.21573895,0
-0.47598338,4.1522293,-0.92076325,0.0033407211,0.97022629,-0.2421768,0
1.6843547,-0.96752405,0.91413069,0.97477388,-0.057206631,-0.21573895,0
1.9879606,2.7010851,2.8592381,0.20022182,0.65125024,0.73197305,0
-1.8133409,2.3529696,-1.8643029,-0.97477388,0.057206631,0.21573895,0
1.3472486,-3.625879,0.095889091,0.97477388,-0.057206631,-0.21573895,0
-0.1028676,-3.8606999,1.7938486,0.036901057,-0.91198605,0.40855813,0
0.8918643,-1.5620217,-2.5089393,0.97477388,-0.057206631,-0.21573895,0
1.9273014,1.870496,3.4503078,0.2178598,0.45394474,0.86398566,0
2.0585151,-1.1049521,2.6411431,0.97477388,-0.057206631,-0.21573895,0
-1.8544705,2.6347651,-2.124862,-0.97477388,0.057206631,0.21573895,0
-2.2700982,-0.48953307,-3.1743355,-0.97477388,0.057206631,0.21573895,0
0.873083,-1.175097,-2.6963975,0.97477388,-0.057206631,-0.21573895,0
0.12791824,4.213696,-0.53935623,0.030098379,0.99145776,-0.12690729,0
-1.7961271,2.8307219,-1.9132104,-0.97477388,0.057206631,0.21573895,0
1.9514476,3.7328129,1.4814848,0.14515755,0.89673704,0.41808122,0
-1.2808084,-0.18981278,1.2160987,-0.97477388,0.057206631,0.21573895,0
-0.030281454,1.7646741,3.9913263,0.22029623,0.40187073,0.88880223,0
1.82775,-0.63684058,1.4743484,0.97477388,-0.057206631,-0.21573895,0
-0.38753009,4.2157669,-0.61349845,0.020415127,0.98539573,-0.16905183,0
-1.782926,-3.6351435,-0.13903368,-0.97477388,0.057206631,0.21573895,0
-1.4305686,-0.86186433,0.71764278,-0.97477388,0.057206631,0.21573895,0
-0.77840984,-0.72639632,3.628371,-0.97477388,0.057206631,0.21573895,0
1.6601623,2.3006556,-0.061787486,0.97477388,-0.057206631,-0.21573895,0
1.225294,3.8881106,1.3780162,0.13356388,0.92393076,0.35848665,0
1.0874642,1.1925982,3.9342208,0.22306591,0.28253672,0.93296009,0
1.2389122,2.1569226,3.462518,0.21415332,0.51205099,0.83183068,0
-0.42823792,2.2097168,-3.6127205,-0.15478933,0.52310401,-0.83809447,0
0.38395119,1.043468,-4.2850232,-0.19383806,0.26219958,-0.94534558,0
1.8288026,-2.2249794,3.3436799,0.15769303,-0.50752568,0.84708357,0
0.72207284,1.6486754,-4.1274753,0.97477388,-0.057206631,-0.21573895,0
0.91124797,1.6763546,-3.2800646,0.97477388,-0.057206631,-0.21573895,0
-0.17918777,3.9384999,1.7690549,0.13711172,0.91618484,0.376571,0
1.5383812,2.3678091,3.2450433,0.2096695,0.56606978,0.79724753,0
1.7977513,0.0031199455,3.9546037,0.21679309,0.01283586,0.97613311,0
1.662975,1.7218968,0.1043874,0.97477388,-0.057206631,-0.21573895,0
0.66070855,-0.91252244,-3.7255957,0.97477388,-0.057206631,-0.21573895,0
-0.87028551,1.5090154,2.6204944,-0.97477388,0.057206631,0.21573895,0
2.0241258,-1.8437312,2.6816607,0.97477388,-0.057206631,-0.21573895,0
-0.072243929,0.27176809,4.3633466,0.21862429,0.050117463,0.97452128,0
1.9231758,-2.8885341,2.5025842,0.97477388,-0.057206631,-0.21573895,0
0.20099434,1.9025309,3.8679523,0.21871115,0.43759426,0.87216783,0
0.5892787,-1.1134579,-3.9950562,0.97477388,-0.057206631,-0.21573895,0
2.210433,-1.5583667,3.592402,0.18321997,-0.34690392,0.91983044,0
0.59993935,-3.3594484,2.5433822,0.088803828,-0.78738558,0.61003089,0
-1.6452787,2.4109068,-1.1203113,-0.97477388,0.057206631,0.21573895,0
-1.1636183,-2.7593403,-3.0328674,-0.19991516,-0.65359211,-0.72996664,0
1.4879184,3.0642357,-1.0425131,0.97477388,-0.057206631,-0.21573895,0
0.82292485,-4.1664848,-1.3390265,-0.11127913,-0.96245521,-0.24758208,0
1.8135874,0.68651545,1.0594492,0.97477388,-0.057206631,-0.21573895,0
-1.2961329,2.6453128,0.39507818,-0.97477388,0.057206631,0.21573895,0
1.630147,-1.754737,0.8779465,0.97477388,-0.057206631,-0.21573895,0
1.7107904,-3.2395096,1.6360296,0.97477388,-0.057206631,-0.21573895,0
-1.0621185,3.9479342,-1.4933051,-0.034540355,0.91628623,-0.399032,0
1.4783683,-0.76851171,-0.069348931,0.97477388,-0.057206631,-0.21573895,0
1.1593809,-0.54019046,-1.5711726,0.97477388,-0.057206631,-0.21573895,0
1.960005,-0.14265031,1.9408741,0.97477388,-0.057206631,-0.21573895,0
0.94547546,-0.75412142,-2.4809356,0.97477388,-0.057206631,-0.21573895,0
-2.3102741,-0.34201774,-3.3949783,-0.97477388,0.057206631,0.21573895,0
2.1781921,0.60944009,2.7272809,0.97477388,-0.057206631,-0.21573895,0
2.2758057,-0.16134894,3.372716,0.97477388,-0.057206631,-0.21573895,0
1.9468071,3.577203,1.7851458,0.15808704,0.85930008,0.48642766,0
0.020793676,-3.4726989,-2.5690939,-0.17244381,-0.80669826,-0.5652442,0
-0.68218422,2.0907869,-3.6367202,-0.160514,0.49194986,-0.85569888,0
0.91540587,-0.052178502,4.1499166,0.21538964,-0.012277305,0.97645104,0
0.88103247,-2.2704682,3.4909515,0.15327424,-0.53105712,0.83335793,0
0.47484112,2.3017979,3.568068,0.212321,0.53569591,0.81728184,0
1.1291825,-0.23937488,-1.7873853,0.97477388,-0.057206631,-0.21573895,0
-1.8877364,-3.8723826,-0.5496912,-0.97477388,0.057206631,0.21573895,0
0.95451343,1.083854,-2.9274681,0.97477388,-0.057206631,-0.21573895,0
0.37810171,-0.29604435,-4.4307094,-0.21869099,-0.051602066,-0.97442877,0
-0.71076369,3.6211886,2.5599623,0.1658529,0.83249623,0.52862358,0
-1.9662302,0.05227989,-1.945039,-0.97477388,0.057206631,0.21573895,0
1.4822373,-0.21709299,-0.19808459,0.97477388,-0.057206631,-0.21573895,0
