2.2335439,-3.9165363,0.63502955,0.4085086,-0.88705039,-0.21508706,0
-0.4209938,4.5390925,-3.9147716,0.20524788,0.97834677,0.026667535,0
1.0467615,0.56946373,4.9904561,0.30446509,-0.089722157,0.9482885,0
-1.2550907,-4.0452843,-1.3014152,-0.2055307,-0.97828996,-0.026571393,0
2.1709745,-3.776741,-0.044867992,0.44223803,-0.86843538,-0.22415531,0
5.4246311,-1.0727916,3.4294806,0.30446509,-0.089722157,0.9482885,0
-0.56411731,2.949203,5.7328157,0.30446509,-0.089722157,0.9482885,0
-3.0651445,2.0410733,-4.0954223,-0.30446509,0.089722157,-0.9482885,0
1.5157998,3.6105843,-4.0854588,0.62434697,0.77066475,-0.1275416,0
2.2158959,-3.4742422,-1.0401676,0.52138722,-0.81746876,-0.24474534,0
0.78720188,0.1340785,5.0325985,0.30446509,-0.089722157,0.9482885,0
2.6941953,3.5893588,2.7365258,0.41233087,0.90985703,-0.046300232,0
0.85023093,-4.4671221,2.0968509,0.010348618,-0.99518359,-0.097481608,0
-1.7947075,1.0429397,5.9475584,0.30446509,-0.089722157,0.9482885,0
0.30053914,0.72180223,5.2444572,0.30446509,-0.089722157,0.9482885,0
3.9254427,0.25714821,-1.6573941,0.95226038,0.052069485,-0.30081376,0
-4.5548205,-0.85236835,-0.70141387,-0.93020368,-0.24226123,0.27573711,0
-4.9028077,-0.12308455,-1.4229791,-0.95078617,-0.088728458,0.29687193,0
0.90717459,4.1589355,-0.31406045,0.24173337,0.97023916,0.014186144,0
-2.5713103,-1.5906591,-4.5975924,-0.30446509,0.089722157,-0.9482885,0
-0.59457773,3.0564022,5.752738,0.30446509,-0.089722157,0.9482885,0
3.8877206,-2.7358117,0.95400256,0.74756652,-0.59445119,-0.29626352,0
4.1942439,0.36845398,3.9608815,0.30446509,-0.089722157,0.9482885,0
4.034461,1.4564428,4.1151223,0.30446509,-0.089722157,0.9482885,0
-2.4519236,3.5533414,0.27308559,-0.51915556,0.81905687,0.24417907,0
1.6553729,1.6096063,4.8934627,0.30446509,-0.089722157,0.9482885,0
3.454977,-1.8775473,3.9857316,0.30446509,-0.089722157,0.9482885,0
-1.0080183,-3.1266837,-5.2448459,-0.30446509,0.089722157,-0.9482885,0
3.7616236,-1.6621372,-1.1011729,0.86716497,-0.38580945,-0.31492215,0
-1.3677714,2.4681222,-4.5999894,-0.30446509,0.089722157,-0.9482885,0
3.9607599,-1.5925173,-0.63239789,0.87827867,-0.35889563,-0.31594396,0
2.4211414,-3.0931215,-1.7440622,0.61547184,-0.74128759,-0.26774505,0
-0.15005851,2.6803432,-4.9708786,-0.30446509,0.089722157,-0.9482885,0
2.0149713,2.9037962,-4.8975096,0.78153455,0.5926522,-0.19485205,0
3.0340018,-0.10136271,4.2889462,0.30446509,-0.089722157,0.9482885,0
-3.0443971,1.9049097,2.7055304,-0.82148021,0.47920084,0.30909041,0
-1.6336195,-3.848913,1.4027891,-0.46878597,-0.88075352,0.067179978,0
-0.29087508,3.7507958,3.5225875,-0.27729267,0.94408619,0.17835426,0
1.2401414,3.7596762,-4.507411,0.59512204,0.79524392,-0.11583269,0
4.0270386,2.6923733,4.2344427,0.30446509,-0.089722157,0.9482885,0
1.1546044,-4.5830064,3.3208213,-0.0085673928,-0.99577159,-0.091463923,0
1.0337648,-2.5185857,4.7024536,0.30446509,-0.089722157,0.9482885,0
4.5647292,0.94364452,0.81971622,0.92486864,0.26599708,-0.2717784,0
-3.1954474,2.5014753,1.2626324,-0.75186992,0.5885824,0.29708996,0
-2.7609079,-3.3421869,-0.44662094,-0.58054715,-0.80675346,0.11006427,0
-5.241847,1.9746552,-3.402837,-0.30446509,0.089722157,-0.9482885,0
4.2412548,-2.8785708,2.133152,0.74201763,-0.60189289,-0.29518604,0
-3.4112182,0.62480831,-4.1183085,-0.30446509,0.089722157,-0.9482885,0
-2.0395312,3.848089,0.015603065,-0.41173053,0.88534695,0.21596035,0
3.2121308,-4.0080433,3.8621252,0.30446509,-0.089722157,0.9482885,0
-3.6816363,-0.60652453,2.3371139,-0.94863391,-0.11843923,0.29336989,0
-3.6646891,1.359799,1.7124895,-0.8899439,0.32810491,0.31677601,0
-2.9639504,-3.2555737,-0.88833714,-0.59332877,-0.79668593,0.11512065,0
3.4172843,-4.0116043,3.7959201,0.30446509,-0.089722157,0.9482885,0
3.2294414,2.7174027,-0.54597187,0.74398607,0.64406919,-0.17793167,0
-1.9431374,3.653316,0.96953678,-0.45720881,0.85960376,0.22812629,0
1.7168765,-4.1201878,0.65459275,0.29557103,-0.93751192,-0.18360093,0
-2.0602436,1.9190314,-4.4296107,-0.30446509,0.089722157,-0.9482885,0
1.1492109,0.51201963,-5.5931878,-0.30446509,0.089722157,-0.9482885,0
2.487427,3.1405792,4.7711697,0.30446509,-0.089722157,0.9482885,0
0.86419964,-4.6027179,3.7894635,-0.10252732,-0.99285686,-0.061020732,0
0.61120129,-4.5495634,3.3750439,-0.12804312,-0.99037319,-0.05259335,0
1.7622213,-1.9287279,4.5243783,0.30446509,-0.089722157,0.9482885,0
-0.16586351,4.3300524,-0.68296266,0.038819432,0.99589556,0.081762671,0
-2.5241704,-0.17851377,6.0134192,-0.94853121,0.06249553,0.31045598,0
-2.3236241,0.76231384,-4.4544902,-0.30446509,0.089722157,-0.9482885,0
4.1032457,-1.5548464,-0.27690786,0.88478923,-0.34207064,-0.31644243,0
-0.77593613,2.224309,5.7322383,0.30446509,-0.089722157,0.9482885,0
2.8314052,2.1896243,4.570755,0.30446509,-0.089722157,0.9482885,0
2.3441453,-1.4713659,4.3808146,0.30446509,-0.089722157,0.9482885,0
0.45325685,4.0345974,2.4322281,-0.042536497,0.99327999,0.10763603,0
-4.9615917,2.0277743,-2.6510315,-0.8660838,0.38831937,0.31481251,0
1.531942,3.9484639,-0.5200386,0.38775051,0.92100734,-0.037353396,0
3.7666862,-0.10865438,-2.1570897,0.94996393,-0.044332862,-0.30919752,0
0.8085413,-4.430891,1.7289534,0.02667439,-0.99436033,-0.10264546,0
0.10904217,-1.9367092,5.0544066,0.30446509,-0.089722157,0.9482885,0
-0.72878194,0.12147713,-5.0271754,-0.30446509,0.089722157,-0.9482885,0
-0.57360667,-2.2177014,-5.2983179,-0.30446509,0.089722157,-0.9482885,0
-3.8217242,-1.3719592,-4.1754322,-0.30446509,0.089722157,-0.9482885,0
-0.73864126,-4.2130027,1.4861839,-0.28572926,-0.95830989,0.0010682344,0
0.71920443,-3.8509579,-2.325176,0.28674448,-0.94073939,-0.18107235,0
-4.1458883,-1.4637079,0.0049982071,-0.89482272,-0.36817741,0.25246388,0
3.5059969,-3.4882412,3.8169553,0.30446509,-0.089722157,0.9482885,0
4.0795107,-2.8684385,1.7065107,0.73653686,-0.60910881,-0.29410905,0
1.1722165,-2.0134144,-5.8395176,-0.30446509,0.089722157,-0.9482885,0
3.5254557,3.2211533,3.702693,0.52178776,0.84860301,-0.087238967,0
2.833976,-3.976908,2.0386946,0.44094533,-0.86918128,-0.22381079,0
-3.1901679,-1.4693542,3.335356,-0.9170748,-0.29668051,0.26637298,0
-1.8560681,-1.1638484,-4.7868509,-0.30446509,0.089722157,-0.9482885,0
-1.8683647,2.3976438,4.7916102,-0.70896697,0.64352614,0.28851363,0
-2.6192102,0.24502993,-4.4085293,-0.30446509,0.089722157,-0.9482885,0
5.4737101,0.53741169,3.5255902,0.93248749,0.23119494,-0.27751744,0
2.514322,-2.0138683,-3.9190316,0.79005629,-0.53233242,-0.30402827,0
4.539114,2.2478375,4.0279717,0.30446509,-0.089722157,0.9482885,0
4.0737572,-2.0390387,0.24866462,0.83967733,-0.44474915,-0.31167331,0
4.0423446,-0.40477324,3.9364929,0.30446509,-0.089722157,0.9482885,0
1.8332583,-0.50362921,-5.9089088,-0.30446509,0.089722157,-0.9482885,0
2.3399997,-4.328547,4.111814,0.30446509,-0.089722157,0.9482885,0
-3.4186933,-2.6355278,0.049720287,-0.75014931,-0.63611078,0.18066347,0
1.9044552,2.0224564,-5.6927629,-0.30446509,0.089722157,-0.9482885,0
-3.0726459,1.1657963,3.5765717,-0.89143503,0.32394797,0.31686151,0
-3.6975,2.1328106,-3.8837132,-0.30446509,0.089722157,-0.9482885,0
-4.3922462,0.076190472,-3.8552392,-0.30446509,0.089722157,-0.9482885,0
-2.4838562,-1.4077258,-4.6083622,-0.30446509,0.089722157,-0.9482885,0
-4.335083,-1.8634853,-4.0571146,-0.30446509,0.089722157,-0.9482885,0
-0.58302343,-1.3025808,5.3366041,0.30446509,-0.089722157,0.9482885,0
-3.658432,1.7013545,1.3355786,-0.86080754,0.40031871,0.31425378,0
1.9065766,3.6028724,-2.1482038,0.57611543,0.81015939,-0.10831922,0
-0.86296815,-3.7227802,-5.2308755,0.14719874,-0.97916269,-0.13990402,0
4.405313,-2.471647,1.8003016,0.80226868,-0.51252592,-0.30607533,0
0.38567734,1.753248,-5.2306032,-0.30446509,0.089722157,-0.9482885,0
5.3959265,-1.1709905,3.4294057,0.30446509,-0.089722157,0.9482885,0
2.5099218,-3.7100372,0.39095962,0.48541856,-0.84196317,-0.23551446,0
-4.0688791,1.5492096,-3.8196926,-0.30446509,0.089722157,-0.9482885,0
-2.6254661,-2.7859676,2.8013935,-0.76870906,-0.61103803,0.18899465,0
4.3190393,2.1825595,2.1528111,0.7898187,0.58026832,-0.19868362,0
3.4223688,1.4140874,-2.5973849,0.91615689,0.30004752,-0.26575965,0
-0.23088789,4.4706974,-2.9332042,0.17871028,0.98325562,0.03565228,0
-4.1930423,-0.94304371,-4.0156317,-0.30446509,0.089722157,-0.9482885,0
4.1177168,1.269227,-0.36173606,0.91179317,0.31546283,-0.26290017,0
1.0075357,-0.10965157,-5.6065197,-0.30446509,0.089722157,-0.9482885,0
3.1074803,-4.2179513,3.8758647,0.30446509,-0.089722157,0.9482885,0
0.95173395,0.22023201,4.9879231,0.30446509,-0.089722157,0.9482885,0
2.9319887,-3.0863056,4.0392799,0.30446509,-0.089722157,0.9482885,0
-3.3500197,-2.5793304,0.52237844,-0.76723713,-0.6130904,0.18832785,0
2.950902,-0.93718922,-4.1400909,0.90519649,-0.28265485,-0.31737292,0
3.5799122,-0.93703032,4.034606,0.30446509,-0.089722157,0.9482885,0
-2.3615451,1.6105857,-4.3620563,-0.30446509,0.089722157,-0.9482885,0
-4.0047779,3.6423175,-3.642235,-0.30446509,0.089722157,-0.9482885,0
3.0400157,-0.46309471,-4.2226219,0.93287468,-0.1730807,-0.31589213,0
-0.18223667,2.6284075,-4.9654613,-0.30446509,0.089722157,-0.9482885,0
4.1414595,-2.9830482,2.1030285,0.72208798,-0.62752235,-0.2912122,0
4.4034066,-1.3415918,3.7319303,0.30446509,-0.089722157,0.9482885,0
4.018424,-2.0554743,0.12343098,0.8362667,-0.45144787,-0.31121203,0
-1.8944787,2.9920304,3.2329195,-0.60483277,0.75088382,0.26523709,0
-3.1453888,1.6965737,-4.1022534,-0.30446509,0.089722157,-0.9482885,0
0.30966949,0.46534348,-5.3280544,-0.30446509,0.089722157,-0.9482885,0
-2.6182866,2.7606239,2.1298888,-0.68590713,0.67013949,0.28362787,0
-2.3698139,1.1771085,5.5258899,-0.87374556,0.37012994,0.31555146,0
-1.4394021,-3.945225,-3.0127361,-0.12797749,-0.99038053,-0.052615166,0
-0.34433258,-0.68987322,5.3179398,0.30446509,-0.089722157,0.9482885,0
2.5580201,-0.80393219,-5.3792253,0.90635926,-0.27888477,-0.31738955,0
2.2408748,-1.5017467,-5.4559898,0.83938402,-0.4453299,-0.31163409,0
-2.876955,2.4615476,2.1465535,-0.74418265,0.599006,0.29560801,0
-0.61365604,1.9920807,-4.8871522,-0.30446509,0.089722157,-0.9482885,0
1.9405624,0.012160301,4.6507559,0.30446509,-0.089722157,0.9482885,0
-3.4357915,1.3945819,2.3159318,-0.88184905,0.34977508,0.31622738,0
4.0105534,-0.45512629,-1.330722,0.94365966,-0.10708852,-0.31311107,0
0.88604128,-0.48503208,4.942287,0.30446509,-0.089722157,0.9482885,0
5.0218658,-1.805079,3.4895101,0.30446509,-0.089722157,0.9482885,0
3.0220251,3.3279288,1.7556968,0.54726821,0.83131093,-0.097056031,0
-4.2747078,0.54149127,0.50504446,-0.94340509,0.10901867,0.31321189,0
-5.3649249,-0.91226721,-3.636466,-0.30446509,0.089722157,-0.9482885,0
0.26600409,-1.0707393,5.0859447,0.30446509,-0.089722157,0.9482885,0
3.9520421,2.9388218,3.7933621,0.60488236,0.78726381,-0.11972153,0
2.338562,3.4339821,-1.0999882,0.59604138,0.79450154,-0.11619824,0
-3.6128736,-2.8013275,-1.4466422,-0.69101477,-0.70601273,0.15506351,0
-3.8625484,-2.6579611,-1.9200017,-0.71123713,-0.68363214,0.16367376,0
0.89155054,4.093884,1.5359519,0.11230052,0.99199188,0.057801008,0
1.9356389,1.169708,-5.7834578,-0.30446509,0.089722157,-0.9482885,0
1.1573546,0.74848557,4.9718862,0.30446509,-0.089722157,0.9482885,0
-1.3900125,4.4166021,-1.9991817,-0.13254237,0.9818781,0.13545525,0
0.84958887,-1.5072579,-5.6880422,-0.30446509,0.089722157,-0.9482885,0
-0.029682159,0.039723873,-5.2593694,-0.30446509,0.089722157,-0.9482885,0
-0.5604766,1.5111251,5.5955834,0.30446509,-0.089722157,0.9482885,0
-5.2167745,0.099043846,-2.3690457,-0.95211446,-0.05784142,0.30022079,0
1.5984397,-4.6005335,3.6133347,0.066199422,-0.99115354,-0.11503232,0
-2.2518187,-3.5839145,0.38389564,-0.52983963,-0.843274,0.090328336,0
-2.774209,-1.6684417,4.5422654,-0.91154498,-0.31631231,0.26274008,0
1.969373,-3.2346151,4.3343124,0.30446509,-0.089722157,0.9482885,0
-1.036612,3.2382278,-4.6334505,-0.30446509,0.089722157,-0.9482885,0
2.3940067,0.26788664,4.5293651,0.30446509,-0.089722157,0.9482885,0
0.63019377,-1.1930814,-5.5878758,-0.30446509,0.089722157,-0.9482885,0
-0.37683588,-3.0286498,-5.4382224,-0.30446509,0.089722157,-0.9482885,0
-1.640806,1.5024533,5.9416223,0.30446509,-0.089722157,0.9482885,0
-3.4325573,-2.263308,-4.3847156,-0.30446509,0.089722157,-0.9482885,0
2.6615334,-3.3025084,-0.6005758,0.58776355,-0.76572132,-0.26116061,0
2.3485956,0.94975948,4.6084599,0.30446509,-0.089722157,0.9482885,0
1.6112744,0.52016902,-5.7407708,-0.30446509,0.089722157,-0.9482885,0
2.3140388,-1.5687041,-5.1624966,0.83463454,-0.45461187,-0.31098738,0
0.53645152,-1.9555039,-5.6299143,-0.30446509,0.089722157,-0.9482885,0
1.8259627,3.728852,-1.5228484,0.51723242,0.85156405,-0.085496187,0
2.6092021,-1.6657114,4.2773256,0.30446509,-0.089722157,0.9482885,0
1.4183758,-3.4231539,-2.8834112,0.47667849,-0.84757137,-0.23323894,0
-1.6960565,-2.5776999,5.5733185,0.30446509,-0.089722157,0.9482885,0
0.14916301,1.1177015,-5.214798,-0.30446509,0.089722157,-0.9482885,0
3.5138588,-1.9157114,3.9632154,0.30446509,-0.089722157,0.9482885,0
-0.5227704,-3.2110739,-5.408628,-0.30446509,0.089722157,-0.9482885,0
-3.6355884,3.6437523,-3.7606337,-0.30446509,0.089722157,-0.9482885,0
4.6080689,-1.5790768,3.6437504,0.30446509,-0.089722157,0.9482885,0
-1.4509007,-0.98180723,5.6456017,0.30446509,-0.089722157,0.9482885,0
-3.7184589,-1.644618,-4.234385,-0.30446509,0.089722157,-0.9482885,0
-3.933219,1.9035964,-3.8297186,-0.30446509,0.089722157,-0.9482885,0
1.2844777,0.75023365,4.9312363,0.30446509,-0.089722157,0.9482885,0
3.8156319,2.6993387,1.8908811,0.70346552,0.6924051,-0.16034847,0
3.7212236,-3.0407522,1.2002094,0.69333637,-0.66176558,-0.28522092,0
-3.4490292,1.772809,-3.9975512,-0.30446509,0.089722157,-0.9482885,0
0.40239,3.1876984,-5.1002488,-0.30446509,0.089722157,-0.9482885,0
5.1315427,0.99098492,3.7188454,0.30446509,-0.089722157,0.9482885,0
-1.856607,3.8153198,-4.3155751,-0.30446509,0.089722157,-0.9482885,0
-0.012463093,-4.3799777,1.7171333,-0.14746553,-0.98799086,-0.046132028,0
1.4846992,2.2436314,5.0082488,0.30446509,-0.089722157,0.9482885,0
-2.1543853,4.2307572,-1.924103,-0.30201769,0.93509179,0.18544167,0
4.948226,-2.3839784,3.099535,0.83047211,-0.46256441,-0.31040344,0
2.3852437,-2.0190997,-4.2445693,0.7845819,-0.54090023,-0.30308124,0
-2.154108,-3.7618504,-1.3392849,-0.39306077,-0.91867322,0.039279163,0
5.2769766,0.58547258,3.6337836,0.30446509,-0.089722157,0.9482885,0
2.686048,3.5143614,1.5742309,0.48906916,0.86903185,-0.074801207,0
1.0447488,2.0356178,-5.415493,-0.30446509,0.089722157,-0.9482885,0
-4.8218341,-1.7057242,-3.8859079,-0.30446509,0.089722157,-0.9482885,0
0.89087498,3.2815962,5.2971134,0.30446509,-0.089722157,0.9482885,0
4.5404,0.10740542,0.26380205,0.95206559,0.059533358,-0.30004504,0
0.14785814,-2.0524018,5.0309973,0.30446509,-0.089722157,0.9482885,0
-4.0090117,-2.5775752,-2.2240577,-0.72133207,-0.6718986,0.16802508,0
-0.4440437,1.0617485,5.5156832,0.30446509,-0.089722157,0.9482885,0
2.3576744,3.727344,2.776144,0.33868495,0.94069296,-0.019737422,0
-3.0531187,2.4546146,-4.0601563,-0.30446509,0.089722157,-0.9482885,0
-3.5178714,-2.8431423,-1.2142286,-0.68679112,-0.71050894,0.15328205,0
4.3662295,1.2010012,3.9844334,0.30446509,-0.089722157,0.9482885,0
2.7907248,-3.9817121,3.9999166,0.30446509,-0.089722157,0.9482885,0
2.5876751,3.6482904,3.0686197,0.36740887,0.92957538,-0.030011654,0
-0.97227061,-0.98834538,5.4913106,0.30446509,-0.089722157,0.9482885,0
-2.2063322,-3.3088365,2.4831843,-0.66097474,-0.73675197,0.14251018,0
-2.1541452,-1.9575291,5.7790737,0.30446509,-0.089722157,0.9482885,0
2.5672677,2.9671743,-2.4046333,0.73049581,0.66090047,-0.17200786,0
0.31099963,4.3389831,-2.8455148,0.28759024,0.95775211,-0.0017185211,0
4.1455765,1.4770677,0.013500214,0.89358532,0.3716639,-0.25173676,0
3.6087964,-1.3784037,-1.8498211,0.88722169,-0.33555582,-0.316607,0
-1.5274773,4.5095477,-2.820262,-0.10551178,0.98625052,0.12719029,0
1.4148626,3.9967158,-0.49369144,0.3612763,0.93204409,-0.027809143,0
-0.41967487,2.864224,5.6783996,0.30446509,-0.089722157,0.9482885,0
-4.0219984,2.6839437,-3.7273817,-0.30446509,0.089722157,-0.9482885,0
-2.4822574,4.4553995,-3.6210074,-0.25529069,0.95144498,0.1719864,0
-3.8728614,0.57430315,-3.9748681,-0.30446509,0.089722157,-0.9482885,0
1.4771121,-3.7622006,-1.4328576,0.38849598,-0.89728808,-0.20963028,0
-3.2525742,1.6896175,2.4581561,-0.85050088,0.4226613,0.31305858,0
-2.0656598,-0.61455989,5.8777285,0.30446509,-0.089722157,0.9482885,0
-0.79075217,3.3113477,-4.7054701,-0.30446509,0.089722157,-0.9482885,0
2.498426,2.9676721,-2.6942508,0.73547745,0.65477628,-0.17418683,0
-2.1915696,2.444659,-4.3377137,-0.30446509,0.089722157,-0.9482885,0
2.2254741,0.63309288,4.6180291,0.30446509,-0.089722157,0.9482885,0
0.66515136,4.2336597,-1.3813181,0.2630493,0.96475834,0.0068236589,0
1.108058,-4.6379604,4.478076,0.30446509,-0.089722157,0.9482885,0
0.83230364,-1.5836701,-5.6897225,-0.30446509,0.089722157,-0.9482885,0
2.2308214,0.70858955,4.623455,0.30446509,-0.089722157,0.9482885,0
3.0346596,-4.2048645,3.3487213,0.39332682,-0.89487052,-0.21095255,0
-2.989675,0.49776506,-4.2656727,-0.30446509,0.089722157,-0.9482885,0
2.1204481,1.3285375,4.7175493,0.30446509,-0.089722157,0.9482885,0
4.1214609,1.6659086,0.23024178,0.87492663,0.41992342,-0.24117994,0
1.0953035,4.1006999,-1.0884261,0.3341274,0.9423539,-0.018117011,0
0.39844838,2.8083558,5.4104404,0.30446509,-0.089722157,0.9482885,0
0.47066736,-2.4913898,-5.6594963,-0.30446509,0.089722157,-0.9482885,0
-3.1419613,-1.1045954,3.8295965,-0.93801486,-0.2013416,0.28211659,0
-1.9160855,-0.57551551,5.8333993,0.30446509,-0.089722157,0.9482885,0
3.3402209,-3.2481825,3.8928936,0.30446509,-0.089722157,0.9482885,0
0.52217269,-2.4947219,4.8689675,0.30446509,-0.089722157,0.9482885,0
-2.2374666,-2.1028512,5.7920761,0.30446509,-0.089722157,0.9482885,0
3.0304198,2.6037269,4.5460382,0.30446509,-0.089722157,0.9482885,0
-2.0255952,-3.5636168,-4.9594746,-0.30446509,0.089722157,-0.9482885,0
-3.6778753,-2.4676516,-0.45009112,-0.77044684,-0.60860026,0.18978328,0
-3.7557449,-0.58314204,2.1069169,-0.94866621,-0.11806646,0.29341555,0
-2.4413531,2.7217839,2.6494575,-0.68368101,0.67261291,0.28314719,0
3.9105508,-2.9287791,1.4136102,0.71997696,-0.63014203,-0.29078224,0
3.1494205,-2.2266061,-1.8959043,0.78683168,-0.5374015,-0.30347255,0
2.8683529,1.7694194,-4.0838671,0.90115112,0.34966251,-0.25624752,0
4.4207177,-0.81950593,0.050951004,0.93501759,-0.16183805,-0.31551647,0
-1.7342823,-1.8991036,-4.8955183,-0.30446509,0.089722157,-0.9482885,0
-3.7065372,2.2258325,-3.8720107,-0.30446509,0.089722157,-0.9482885,0
4.7672653,-1.8081636,1.8547025,0.88010812,-0.35425329,-0.31609213,0
3.5126576,0.77843642,-2.807591,0.94562644,0.14805868,-0.28960186,0
-1.3551018,-4.0119085,-1.7487221,-0.19627935,-0.98009789,-0.029712737,0
-2.5034761,-1.105052,-4.5734258,-0.30446509,0.089722157,-0.9482885,0
-1.9110005,3.8250639,-4.2971888,-0.30446509,0.089722157,-0.9482885,0
4.8897014,1.2132893,2.2668042,0.89767087,0.35999075,-0.25415289,0
-4.3230391,1.3176966,-3.7599947,-0.30446509,0.089722157,-0.9482885,0
-5.420608,0.64636898,-3.0023708,-0.94908696,0.055915475,0.31001183,0
-4.0531464,-0.50732422,-4.0193224,-0.30446509,0.089722157,-0.9482885,0
1.5342257,-2.1871402,4.5731311,0.30446509,-0.089722157,0.9482885,0
3.2738931,3.2511129,4.529119,0.30446509,-0.089722157,0.9482885,0
-3.8746099,-0.84080911,1.5807528,-0.93995345,-0.18950355,0.28385913,0
4.7698216,-2.5358562,3.5012913,0.30446509,-0.089722157,0.9482885,0
0.61340261,-3.4029875,-4.5585966,0.4187628,-0.88157499,-0.21786132,0
-4.3326321,0.8183732,-3.8041582,-0.30446509,0.089722157,-0.9482885,0
-2.8326759,0.67244983,4.6950402,-0.91935897,0.23273437,0.31719679,0
-2.7644489,3.5540197,-0.39978349,-0.54015899,0.80373597,0.24947302,0
3.6478171,-2.8413465,0.57365584,0.72151154,-0.62823945,-0.29109496,0
-1.2781057,-1.418138,-4.9964757,-0.30446509,0.089722157,-0.9482885,0
-0.11447096,-0.05392313,5.3043084,0.30446509,-0.089722157,0.9482885,0
-0.063192368,-2.9557164,5.0132923,0.30446509,-0.089722157,0.9482885,0
-5.4096889,1.3703694,-3.2875113,-0.92273158,0.21925902,0.31700468,0
2.6027198,-4.2699413,4.0330081,0.30446509,-0.089722157,0.9482885,0
1.5986693,3.6019387,5.100173,0.30446509,-0.089722157,0.9482885,0
0.16286349,3.9036744,3.2257147,-0.1592769,0.97674131,0.14355284,0
1.9389404,3.4008467,-3.24703,0.65637398,0.74121666,-0.14061058,0
-3.6704218,3.6352301,-2.6463201,-0.58042949,0.77189285,0.25938976,0
2.1484437,-1.2484159,4.4647427,0.30446509,-0.089722157,0.9482885,0
-2.1755803,3.8020422,-0.062799454,-0.43574423,0.87215555,0.2224223,0
-0.71700966,-2.2833395,-5.2584867,-0.30446509,0.089722157,-0.9482885,0
-3.6585531,0.91108847,-4.0118108,-0.30446509,0.089722157,-0.9482885,0
-2.839263,-2.9158499,1.44489,-0.72303271,-0.66988313,0.16876179,0
-2.5623105,-2.2506325,4.395195,-0.86005914,-0.45377788,0.23320347,0
3.1159699,-1.1342757,-3.4862421,0.89475006,-0.31450421,-0.31703234,0
5.2076535,0.91718769,3.6874263,0.30446509,-0.089722157,0.9482885,0
-5.278985,-0.45053244,-2.8093274,-0.93901765,-0.19532654,0.28300774,0
3.750056,-0.32452247,-2.1594501,0.94518656,-0.094870627,-0.31244528,0
0.13292468,-0.1828022,-5.3326311,-0.30446509,0.089722157,-0.9482885,0
-3.5223093,-2.5960104,-0.24152064,-0.75223023,-0.63338381,0.18158954,0
-1.9085116,-2.0980709,5.6869106,0.30446509,-0.089722157,0.9482885,0
3.1085186,2.2284811,-2.4066074,0.84142941,0.49192894,-0.22361237,0
3.7557645,2.9214039,2.7196589,0.63580984,0.76044202,-0.13218915,0
3.1634641,-3.5910988,1.38766,0.5579927,-0.79004884,-0.25390387,0
2.9657607,-3.5693731,3.9827313,0.30446509,-0.089722157,0.9482885,0
2.5356536,2.7011755,-3.4218926,0.79114377,0.5782482,-0.19930011,0
-3.4871469,-1.3908114,-4.2846379,-0.30446509,0.089722157,-0.9482885,0
4.6100893,1.5703421,1.8382891,0.86938465,0.43295109,-0.23816788,0
-4.631238,-1.6467309,-3.9415205,-0.30446509,0.089722157,-0.9482885,0
1.1780825,2.6809936,-5.3972402,-0.30446509,0.089722157,-0.9482885,0
-3.2276061,-0.7291342,3.7557015,-0.94886518,-0.11573878,0.29369956,0
-2.3007245,3.2998266,1.413758,-0.56599736,0.78369397,0.25587267,0
-1.8553867,4.1638665,-4.282989,-0.30446509,0.089722157,-0.9482885,0
0.6416536,-1.2195835,-5.5940628,-0.30446509,0.089722157,-0.9482885,0
-3.9895225,-0.17492449,1.4671762,-0.9524895,-0.037098378,0.30230382,0
-3.4200284,1.0258715,2.7222509,-0.90845686,0.2719537,0.31740719,0
-0.3069973,-4.3062444,4.4120283,-0.39294544,-0.91872448,0.039237261,0
2.8433509,-0.64941216,-4.680768,0.92081642,-0.22700314,-0.31712249,0
-2.5354543,0.12380528,5.8859358,-0.94033647,0.13043217,0.3142527,0
-0.2504797,-4.3349061,4.2749543,-0.37175205,-0.92779505,0.031574547,0
2.8239083,-1.8609071,4.1899219,0.30446509,-0.089722157,0.9482885,0
1.6900803,0.89370918,4.8145847,0.30446509,-0.089722157,0.9482885,0
-0.15624803,2.6904745,5.5773821,0.30446509,-0.089722157,0.9482885,0
3.2422612,2.7618244,-0.32693982,0.73212868,0.65890449,-0.17272091,0
-3.3994274,3.0950606,-3.8883722,-0.30446509,0.089722157,-0.9482885,0
-3.7477818,1.4867424,1.3439603,-0.88183093,0.34982178,0.31622601,0
-3.6511908,2.7572553,-3.8395004,-0.30446509,0.089722157,-0.9482885,0
2.2824125,0.23926401,4.5624857,0.30446509,-0.089722157,0.9482885,0
-0.40872121,-4.296556,1.4051981,-0.21033245,-0.97731197,-0.024937212,0
0.0092926025,4.1568742,-4.88234,-0.30446509,0.089722157,-0.9482885,0
-0.89026809,1.3012977,-4.863699,-0.30446509,0.089722157,-0.9482885,0
3.2087526,0.7899881,-3.7913065,0.94765031,0.12910807,-0.29204464,0
-3.6808267,0.17029402,2.4092669,-0.94836968,0.064319879,0.31057674,0
-1.7903051,0.62076187,5.9062004,0.30446509,-0.089722157,0.9482885,0
0.79801226,0.95696259,5.1069841,0.30446509,-0.089722157,0.9482885,0
-3.0956025,-0.8422395,4.1352105,-0.94719338,-0.13369146,0.29146427,0
2.9103591,-1.8990575,-3.0704217,0.81769156,-0.48600143,-0.30851752,0
-1.0102501,4.6228452,-3.8937938,0.078564942,0.99452716,0.068872273,0
3.0444531,0.34886944,-4.4192419,0.95239818,0.012523979,-0.30459958,0
-3.2730222,-1.1789892,3.3344362,-0.93283403,-0.2294603,0.27779281,0
3.5164173,-3.966047,3.3820391,0.49544537,-0.83536685,-0.23810963,0
3.9340658,-3.2745247,3.6997368,0.30446509,-0.089722157,0.9482885,0
1.7689614,3.8705075,3.571058,0.15992326,0.98623711,0.041966379,0
3.0061312,-3.7376835,3.953845,0.30446509,-0.089722157,0.9482885,0
-1.5086739,-0.61614084,5.6987486,0.30446509,-0.089722157,0.9482885,0
-1.876912,3.2344909,2.5490165,-0.55306369,0.7938959,0.25268528,0
1.075528,-1.0917115,-5.7212667,-0.30446509,0.089722157,-0.9482885,0
4.0949316,-0.58894396,3.9021835,0.30446509,-0.089722157,0.9482885,0
0.9452911,0.07388401,-5.5691695,-0.30446509,0.089722157,-0.9482885,0
-0.81457663,-3.9759567,5.1408033,-0.54869044,-0.83030826,0.097607434,0
-0.61094904,-4.2439628,1.0974634,-0.23226076,-0.97249722,-0.017441094,0
2.8280997,-2.9096041,-1.2668183,0.67110872,-0.68628466,-0.28040418,0
4.3910389,-0.23449135,-0.21956384,0.95081919,-0.030902028,-0.30820134,0
-4.089529,0.84786081,-3.8794208,-0.30446509,0.089722157,-0.9482885,0
-0.36673403,-3.236732,5.0841618,0.30446509,-0.089722157,0.9482885,0
0.28982842,3.8808093,3.5213714,-0.15240425,0.9781394,0.14147854,0
-4.5044413,2.6402128,-2.3498495,-0.78501427,0.54023033,0.30315667,0
1.0836267,4.0058451,-3.1823101,0.47327131,0.87822133,-0.068859577,0
0.8091259,-0.85100698,4.9323554,0.30446509,-0.089722157,0.9482885,0
0.045231223,-3.4141197,-5.569726,0.36608696,-0.90806735,-0.20345533,0
1.6341449,0.19564486,-5.7788181,-0.30446509,0.089722157,-0.9482885,0
-4.0106831,-0.048413754,-3.9895365,-0.30446509,0.089722157,-0.9482885,0
1.7177944,3.2553623,-4.9017935,0.72064328,0.67271185,-0.16772693,0
1.3255501,-4.3207154,4.4382625,0.30446509,-0.089722157,0.9482885,0
4.8947878,-1.1139956,3.5956974,0.30446509,-0.089722157,0.9482885,0
4.8734589,0.62735748,1.5874264,0.93659031,0.20952913,-0.28088456,0
1.0715891,0.67933035,4.9928794,0.30446509,-0.089722157,0.9482885,0
1.5543975,3.8331332,4.5508509,0.047315836,0.99574953,0.079021037,0
-1.2547686,1.5108266,5.81847,0.30446509,-0.089722157,0.9482885,0
2.939795,-4.1010432,2.7379313,0.41523582,-0.88347602,-0.21690881,0
2.1497834,-3.616303,-0.68629038,0.48231989,-0.84396636,-0.23470914,0
-2.4441059,-0.086523056,6.0491953,0.30446509,-0.089722157,0.9482885,0
-0.67212558,-3.5522723,5.1523581,0.30446509,-0.089722157,0.9482885,0
-2.783767,-1.9497011,4.1191607,-0.88665003,-0.39048997,0.24772877,0
-4.1707239,2.750335,-3.6733494,-0.30446509,0.089722157,-0.9482885,0
3.4665904,1.8790869,-1.7739406,0.87264597,0.42534745,-0.23993456,0
0.087362289,-1.3325417,5.1185303,0.30446509,-0.089722157,0.9482885,0
0.36746025,4.2642608,-4.7102823,0.42584506,0.90334326,-0.051255643,0
-4.5565815,-1.8702965,-2.2590086,-0.83130813,-0.51103902,0.21855462,0
0.62850666,-1.8696985,-5.6513519,-0.30446509,0.089722157,-0.9482885,0
2.3247542,-0.60750151,4.4687748,0.30446509,-0.089722157,0.9482885,0
-1.1862788,4.6372519,-3.9411244,0.04429388,0.99581057,0.079997003,0
1.5013878,1.4033003,4.9233828,0.30446509,-0.089722157,0.9482885,0
1.6090281,-4.12181,0.49125671,0.28363305,-0.94185352,-0.18017873,0
-4.350904,0.32660103,-3.8448205,-0.30446509,0.089722157,-0.9482885,0
-1.4462664,2.0059183,-4.6185184,-0.30446509,0.089722157,-0.9482885,0
-3.0538547,-2.3714576,2.2813802,-0.82217157,-0.52745527,0.21406788,0
3.4018161,-2.6382635,-0.46694109,0.74099219,-0.60325301,-0.29498547,0
-0.30892318,1.3968363,5.5040045,0.30446509,-0.089722157,0.9482885,0
-2.1276598,0.58051825,6.0107069,0.30446509,-0.089722157,0.9482885,0
1.6738036,-2.9205956,-3.9383404,0.60610396,-0.74975169,-0.26553816,0
1.9399884,-1.0022759,-5.990356,-0.30446509,0.089722157,-0.9482885,0
0.061697245,3.6725476,4.4836512,-0.26781678,0.94732904,0.17561865,0
2.1343458,-0.99497461,4.493248,0.30446509,-0.089722157,0.9482885,0
1.9987242,0.66067863,-5.8518744,-0.30446509,0.089722157,-0.9482885,0
4.1507454,-3.450531,3.2342064,0.64421976,-0.71392787,-0.27438647,0
5.0380945,0.16978931,3.6711512,0.30446509,-0.089722157,0.9482885,0
-2.7413201,-0.56286025,5.3522043,-0.9524402,-0.041843802,0.30183899,0
1.022496,-4.2577324,0.49859238,0.15704662,-0.97720098,-0.14288032,0
-1.1691219,-2.3477521,-5.119422,-0.30446509,0.089722157,-0.9482885,0
4.0181828,-3.382272,3.6625347,0.30446509,-0.089722157,0.9482885,0
-4.8675756,-1.5895758,-2.8206491,-0.85774112,-0.45876145,0.23198754,0
-3.5828493,0.2725054,2.6810641,-0.94526052,0.094246984,0.31241003,0
-0.31328309,-0.045025826,5.3689828,0.30446509,-0.089722157,0.9482885,0
3.0771656,3.2292068,1.2897234,0.59006077,0.79929501,-0.11382455,0
-2.1983511,3.9376094,-0.65619254,-0.39942235,0.89177132,0.21261644,0
-2.9526439,-2.9774451,-4.6063685,-0.30446509,0.089722157,-0.9482885,0
0.32357168,-3.9275458,-2.4763255,0.21205968,-0.96418393,-0.15931159,0
4.3304124,1.8570721,1.3743033,0.84304184,0.48878741,-0.22442716,0
2.6066098,-4.2031498,2.5622401,0.35538578,-0.91296625,-0.20048302,0
4.4403434,-1.9834533,3.6593418,0.30446509,-0.089722157,0.9482885,0
-2.2820654,4.2143617,-4.1412182,-0.30446509,0.089722157,-0.9482885,0
1.9333868,-4.6057549,4.2161365,0.30446509,-0.089722157,0.9482885,0
-1.3942428,-2.6005244,-5.0710592,-0.30446509,0.089722157,-0.9482885,0
1.0111452,0.47655678,4.9931002,0.30446509,-0.089722157,0.9482885,0
5.0852442,-0.88152122,3.5565438,0.30446509,-0.089722157,0.9482885,0
-2.5324717,2.4723797,2.9864407,-0.72762895,0.62056243,0.29233271,0
2.3888018,3.7010989,2.2815323,0.37876245,0.9248656,-0.034102499,0
-3.1326833,-0.71520197,4.0671091,-0.94966662,-0.10564271,0.2949121,0
-2.6845038,-3.1420214,1.1253221,-0.66973841,-0.72807443,0.14614493,0
2.9758337,-3.592339,0.98132992,0.5455327,-0.7996788,-0.2508145,0
-0.67386532,4.6016331,-4.3238621,0.17945737,0.98312873,0.03540051,0
3.9557481,2.6090622,4.2494497,0.30446509,-0.089722157,0.9482885,0
-1.0396523,-3.8068485,5.2126427,-0.60053366,-0.79084677,0.11798638,0
-0.61580539,2.4036634,-4.8475204,-0.30446509,0.089722157,-0.9482885,0
-0.061791062,-0.4094882,5.2537532,0.30446509,-0.089722157,0.9482885,0
-2.3955433,1.1114247,5.5298314,-0.87992823,0.35471278,0.31607783,0
-4.8927546,1.5797741,-1.9723513,-0.90037352,0.29778537,0.31725603,0
-3.5566866,0.38973817,2.7193022,-0.94151938,0.12254277,0.31388611,0
2.2888494,-1.3289518,-5.5612035,0.85788393,-0.40679765,-0.31392813,0
1.2565932,3.1312017,-5.3798513,-0.30446509,0.089722157,-0.9482885,0
-1.5142841,4.3837194,-1.9021182,-0.16587758,0.97534758,0.14554024,0
-0.8425858,2.1097598,-4.802516,-0.30446509,0.089722157,-0.9482885,0
2.7368727,-2.91505,-1.4713095,0.66549039,-0.69223589,-0.27916333,0
3.1379614,-1.2743783,4.1445837,0.30446509,-0.089722157,0.9482885,0
4.1139178,1.9088864,0.67404675,0.84472859,0.48547065,-0.22528255,0
-0.6315667,-0.14037275,5.4621525,0.30446509,-0.089722157,0.9482885,0
0.34830356,-3.3824797,4.8407965,0.30446509,-0.089722157,0.9482885,0
2.7529299,2.9842448,-1.5389712,0.71143305,0.68340808,-0.16375792,0
2.7272482,-4.3279724,3.9875355,0.30446509,-0.089722157,0.9482885,0
-3.3040509,-0.75367737,-4.2831416,-0.30446509,0.089722157,-0.9482885,0
-4.6467528,0.11991072,-0.57143188,-0.95241022,-0.013320029,0.30452812,0
2.3151059,-2.3020716,-3.8841281,0.74330348,-0.60018086,-0.29543692,0
2.9359832,-3.0990095,4.0367956,0.30446509,-0.089722157,0.9482885,0
-1.6549242,-1.1155314,-4.8468604,-0.30446509,0.089722157,-0.9482885,0
0.36961925,3.9022732,3.4507611,-0.13043547,0.98224843,0.13481385,0
-3.0783563,-2.4773545,-4.5186906,-0.30446509,0.089722157,-0.9482885,0
-2.4725466,1.6709909,-4.3207016,-0.30446509,0.089722157,-0.9482885,0
0.32237816,-4.4305873,4.7499533,0.30446509,-0.089722157,0.9482885,0
-3.7614388,3.000885,-1.2067168,-0.70173585,0.65207171,0.28700054,0
-3.890168,-2.8788223,-4.2960291,-0.30446509,0.089722157,-0.9482885,0
2.8639407,2.5291958,4.5924373,0.30446509,-0.089722157,0.9482885,0
-0.1412406,-3.2472386,5.0107684,0.30446509,-0.089722157,0.9482885,0
-3.0606937,0.97509527,3.7931778,-0.9048242,0.28385153,0.3173666,0
1.9282179,-4.5876198,3.7661555,0.12630248,-0.98296034,-0.13355428,0
-2.5172629,-0.98764515,-4.5578909,-0.30446509,0.089722157,-0.9482885,0
-1.8556738,-3.0316377,5.1375632,-0.7646569,-0.61666083,0.18716156,0
-2.4752152,3.2650607,-4.1690221,-0.30446509,0.089722157,-0.9482885,0
5.1612482,0.45019722,3.6581414,0.30446509,-0.089722157,0.9482885,0
0.98990476,1.8873487,5.1334019,0.30446509,-0.089722157,0.9482885,0
4.0321841,-1.7910643,3.8085914,0.30446509,-0.089722157,0.9482885,0
-1.5789218,4.6729536,-4.3235855,-0.30446509,0.089722157,-0.9482885,0
3.1501751,1.7240448,4.4243574,0.30446509,-0.089722157,0.9482885,0
1.3235992,1.9362078,5.0308862,0.30446509,-0.089722157,0.9482885,0
2.6537061,-1.4780208,-4.370368,0.85391778,-0.41540527,-0.31346911,0
-3.1644437,0.29008913,-4.2292094,-0.30446509,0.089722157,-0.9482885,0
3.5716929,-1.7214818,3.9630241,0.30446509,-0.089722157,0.9482885,0
4.7660084,-1.8640037,1.9148766,0.87539303,-0.36608988,-0.31569815,0
-0.92938155,1.5763717,5.7202001,0.30446509,-0.089722157,0.9482885,0
0.74626154,0.74939775,5.103961,0.30446509,-0.089722157,0.9482885,0
-1.3953936,-2.8962998,-5.0986738,-0.30446509,0.089722157,-0.9482885,0
5.1505909,0.57862282,2.4756868,0.93509674,0.21771812,-0.27963024,0
1.9234049,-4.0492697,0.65353036,0.34018934,-0.91965342,-0.19623667,0
-4.8104081,2.0913231,-2.317595,-0.8560521,0.41079867,0.31371856,0
3.5720015,-2.5289671,-0.25231296,0.76344573,-0.57235265,-0.29927099,0
3.0895293,3.3420432,2.2722173,0.52668053,0.84537953,-0.089114845,0
1.931967,3.8359065,0.8636775,0.3784236,0.92500871,-0.03398025,0
-4.2099957,0.12511635,-3.9091253,-0.30446509,0.089722157,-0.9482885,0
4.8886275,-0.034708023,1.3411846,0.95230138,0.050170988,-0.30100656,0
-2.4074383,1.4638462,-4.3612051,-0.30446509,0.089722157,-0.9482885,0
2.5714583,-3.0700438,4.1565733,0.30446509,-0.089722157,0.9482885,0
2.2612724,-2.5013959,4.3099666,0.30446509,-0.089722157,0.9482885,0
-0.42080557,-3.0145679,-5.4227729,-0.30446509,0.089722157,-0.9482885,0
4.2264562,-1.021075,-0.39821351,0.92276418,-0.21912496,-0.31700248,0
-3.8057027,-2.6896653,-4.3052506,-0.30446509,0.089722157,-0.9482885,0
-3.1391592,3.27157,-3.9552357,-0.30446509,0.089722157,-0.9482885,0
0.53720415,-1.0433593,-5.5438538,-0.30446509,0.089722157,-0.9482885,0
-3.136879,-1.4310317,-4.4009027,-0.30446509,0.089722157,-0.9482885,0
3.4890566,1.9805098,4.3398185,0.30446509,-0.089722157,0.9482885,0
2.5005937,0.43253803,4.5107217,0.30446509,-0.089722157,0.9482885,0
-4.3575878,0.55579138,-3.8209896,-0.30446509,0.089722157,-0.9482885,0
0.13970748,2.3823905,5.4532118,0.30446509,-0.089722157,0.9482885,0
-4.1231117,3.1968493,-2.5399928,-0.68711191,0.6687938,0.28388742,0
2.20629,3.780005,2.9244537,0.29663017,0.95498008,-0.0048832297,0
4.3956494,1.0209951,0.32045245,0.92318749,0.27296889,-0.27057904,0
1.6397709,-1.5515671,-5.9459367,-0.30446509,0.089722157,-0.9482885,0
-0.023218155,1.2300189,-5.1488252,-0.30446509,0.089722157,-0.9482885,0
0.13245332,0.0101161,-5.3142271,-0.30446509,0.089722157,-0.9482885,0
-1.4979047,3.3503757,2.977598,-0.50052273,0.83195937,0.23941746,0
-1.9618952,0.30967903,5.9318595,0.30446509,-0.089722157,0.9482885,0
-1.6580945,0.15127707,-4.7259836,-0.30446509,0.089722157,-0.9482885,0
-1.7385333,-3.8529797,0.5635848,-0.43419862,-0.89917731,0.054331839,0
-0.24013627,-3.199553,-5.4982824,-0.30446509,0.089722157,-0.9482885,0
4.7706056,0.032109022,0.97934401,0.95211661,0.057763606,-0.30022883,0
5.2165413,-0.8457346,3.5177741,0.30446509,-0.089722157,0.9482885,0
-1.3425455,1.2465644,-4.7236657,-0.30446509,0.089722157,-0.9482885,0
2.3794422,-3.4149146,4.1855936,0.30446509,-0.089722157,0.9482885,0
-0.58713108,-1.4037395,-5.2169628,-0.30446509,0.089722157,-0.9482885,0
4.543848,-2.1433811,3.6109779,0.30446509,-0.089722157,0.9482885,0
-1.0768962,-0.63552475,5.5582843,0.30446509,-0.089722157,0.9482885,0
-3.4152331,3.0283239,-0.43041682,-0.68038797,0.67624235,0.2824333,0
4.2029123,-0.59533978,3.8669095,0.30446509,-0.089722157,0.9482885,0
1.63199,-1.42699,4.6136637,0.30446509,-0.089722157,0.9482885,0
-1.0107713,4.4720402,-4.5250101,-0.30446509,0.089722157,-0.9482885,0
-3.3095756,-1.8354878,2.4160604,-0.88246799,-0.4013074,0.24536252,0
1.483216,3.9368076,-1.2112622,0.42423135,0.90413564,-0.050662518,0
0.0060580969,-3.6272826,-4.61625,0.2915802,-0.93898338,-0.18245879,0
-3.6971769,-2.9625053,-4.3659096,-0.30446509,0.089722157,-0.9482885,0
3.1128578,1.8428473,4.4475794,0.30446509,-0.089722157,0.9482885,0
2.6143761,2.759367,4.6943421,0.30446509,-0.089722157,0.9482885,0
1.4127944,-3.0868969,-4.0284896,0.55543822,-0.79204881,-0.25327295,0
0.85529852,-2.4538183,4.7658811,0.30446509,-0.089722157,0.9482885,0
-1.0871294,-3.996501,3.2751906,-0.4802689,-0.8742035,0.071486413,0
4.5004745,-1.2114065,0.53509778,0.91663498,-0.24310276,-0.31730324,0
-2.2533851,-3.2213452,2.6982088,-0.68506491,-0.71232933,0.15255553,0
-4.7778797,-0.61917925,-3.7972169,-0.30446509,0.089722157,-0.9482885,0
-1.7815979,-3.9056196,-1.7369366,-0.28744632,-0.95779544,0.0016682148,0
3.5765061,0.87375641,4.2070265,0.30446509,-0.089722157,0.9482885,0
-4.9577804,1.1144481,-1.8002591,-0.9289372,0.19220546,0.31643748,0
0.81137764,1.5003269,-5.3912115,-0.30446509,0.089722157,-0.9482885,0
0.55637598,2.5479524,-5.2102184,-0.30446509,0.089722157,-0.9482885,0
0.15914822,3.7776701,-4.966332,-0.30446509,0.089722157,-0.9482885,0
3.5425112,-3.6471581,2.3971503,0.56997347,-0.78048742,-0.25684583,0
4.3471303,-0.33373165,3.8453574,0.30446509,-0.089722157,0.9482885,0
-3.3596439,-0.83288592,3.2793455,-0.94535899,-0.15033948,0.28930014,0
-0.57433558,1.2741613,-4.9677024,-0.30446509,0.089722157,-0.9482885,0
1.485903,3.6860495,-3.7502151,0.59567505,0.79479754,-0.11605257,0
-0.89931226,-1.3809659,5.4307384,0.30446509,-0.089722157,0.9482885,0
1.5011208,-3.2045958,4.4874935,0.30446509,-0.089722157,0.9482885,0
-2.9378529,3.7468455,-1.411055,-0.50723821,0.82738185,0.24114048,0
-3.7370079,1.5143695,1.3431152,-0.87929595,0.35632226,0.3160271,0
5.0832968,1.5497856,3.5400572,0.8546654,0.46526313,-0.23038501,0
-3.6837761,3.6177151,-2.6243696,-0.58488417,0.7681585,0.26046669,0
4.5688095,-1.2651217,0.77404624,0.91464537,-0.25041705,-0.31735653,0
-0.68945599,2.1307116,-4.8496985,-0.30446509,0.089722157,-0.9482885,0
0.056064963,-0.48050356,5.2091942,0.30446509,-0.089722157,0.9482885,0
3.459579,2.2246847,-1.0839419,0.82649601,0.51977813,-0.21618271,0
-1.8829198,2.7593164,-4.4070401,-0.30446509,0.089722157,-0.9482885,0
-1.1555268,-1.8729339,-5.0788622,-0.30446509,0.089722157,-0.9482885,0
-3.8323867,-0.858356,1.7088411,-0.93975389,-0.19076324,0.28367585,0
-1.1013627,4.5248394,-2.7157562,-0.021545053,0.9946506,0.10102606,0
3.6076665,-2.8581178,0.51069504,0.7171095,-0.63367224,-0.29019561,0
-5.5204496,0.74278641,-3.3270597,-0.94772422,0.071277529,0.3110278,0
-4.5007987,0.93230581,-0.34888256,-0.93114865,0.18168652,0.31615227,0
-0.31197906,-2.718096,5.1156521,0.30446509,-0.089722157,0.9482885,0
3.3209653,2.5195894,-0.82786512,0.78140366,0.59284455,-0.19479179,0
-0.26561612,1.9840117,5.5456553,0.30446509,-0.089722157,0.9482885,0
0.066856146,3.6046159,4.8494196,-0.29200029,0.93882942,0.18257901,0
3.8919239,1.2815322,-1.1283202,0.91574681,0.30153701,-0.26548707,0
2.3465996,-3.1021116,4.2257342,0.30446509,-0.089722157,0.9482885,0
-2.65132,-2.7361503,2.8544855,-0.77751493,-0.5985139,0.19300693,0
-0.59950781,4.214325,0.2362957,-0.11694914,0.98450059,0.13069689,0
-1.4243298,4.6621771,-4.1574812,0.0083324909,0.9957667,0.091538906,0
1.8758413,0.78469229,4.7446284,0.30446509,-0.089722157,0.9482885,0
-2.5898464,3.0345368,-4.1540289,-0.30446509,0.089722157,-0.9482885,0
-4.0981188,-1.1064894,0.60843968,-0.92332292,-0.27241498,0.27067494,0
-3.1806793,1.5943446,2.7801592,-0.85763997,0.40733305,0.31390041,0
4.4137173,1.4307466,0.8976624,0.89046597,0.38027641,-0.24992037,0
2.272706,0.75846148,-5.9305892,-0.30446509,0.089722157,-0.9482885,0
-4.3815107,-1.7066064,-4.0273647,-0.30446509,0.089722157,-0.9482885,0
-2.1616559,1.132926,6.0738878,0.30446509,-0.089722157,0.9482885,0
1.7675579,2.507184,4.9423685,0.30446509,-0.089722157,0.9482885,0
-0.73727465,4.4332395,-1.7389581,-0.010765374,0.99516624,0.097613811,0
2.8352046,2.9953647,-1.131937,0.70141715,0.69468093,-0.15947551,0
-3.7900057,3.3231432,-2.0560241,-0.64806587,0.71010065,0.2752592,0
-3.942276,0.84297091,1.3454962,-0.92759442,0.19834605,0.31658733,0
-0.97542167,3.8595369,1.8669298,-0.31025666,0.93192118,0.187787,0
4.1524014,-0.29821932,-0.94273996,0.94859302,-0.061787546,-0.31040889,0
1.9705667,3.8437881,3.109499,0.23414642,0.97205639,0.016794026,0
0.10988745,1.457305,5.3752594,0.30446509,-0.089722157,0.9482885,0
-0.16632462,-0.18260574,-5.2365332,-0.30446509,0.089722157,-0.9482885,0
-1.138268,3.1606767,-4.6081495,-0.30446509,0.089722157,-0.9482885,0
4.6833549,2.1400681,3.4829874,0.77695596,0.59932196,-0.19275093,0
3.729183,-0.0089001656,4.0744944,0.30446509,-0.089722157,0.9482885,0
3.3719177,-1.8211432,-1.9530442,0.84081882,-0.44248027,-0.31182519,0
-2.5397868,-3.0456262,2.2087879,-0.71182871,-0.68295515,0.16392779,0
-4.5326152,-0.79229021,-0.57600474,-0.93359649,-0.22558552,0.27840418,0
-2.4873385,-1.0546713,-4.5738401,-0.30446509,0.089722157,-0.9482885,0
1.301363,-3.4932938,4.5243144,0.30446509,-0.089722157,0.9482885,0
1.2575815,-4.0628219,-0.36652851,0.26725745,-0.94751698,-0.17545688,0
-1.8877952,4.197659,-1.3266473,-0.28590572,0.94104099,0.18083158,0
5.0285349,-0.67847109,1.8157678,0.94579077,-0.089683264,-0.31214851,0
-2.6245263,-0.74255419,-4.5002627,-0.30446509,0.089722157,-0.9482885,0
2.3355446,0.69146276,-5.9571033,-0.30446509,0.089722157,-0.9482885,0
-0.5720464,-2.5330234,-5.3286533,-0.30446509,0.089722157,-0.9482885,0
-2.2575839,4.2962694,-2.4246669,-0.28962219,0.9396981,0.18189767,0
-2.8552408,-0.84338355,4.913682,-0.94877267,-0.11682916,0.29356676,0
-0.23154022,-2.0200148,-5.3894405,-0.30446509,0.089722157,-0.9482885,0
1.5019484,3.8787255,-1.9279578,0.4765451,0.87635195,-0.070087433,0
0.354177,4.3044529,-3.9488881,0.37154287,0.92788136,-0.031499267,0
-1.8687731,-3.09975,-4.9659367,-0.30446509,0.089722157,-0.9482885,0
-0.29763508,3.9546132,2.3436944,-0.19733852,0.96801299,0.1549474,0
-0.63727188,1.8344414,-4.894485,-0.30446509,0.089722157,-0.9482885,0
1.788383,-3.8406487,-0.52000165,0.39242846,-0.89532256,-0.21070698,0
3.451174,2.8147776,0.79062462,0.70114726,0.69497967,-0.15936053,0
0.41649109,3.1080394,5.433002,0.30446509,-0.089722157,0.9482885,0
3.621733,0.86735344,4.1918993,0.30446509,-0.089722157,0.9482885,0
1.484364,-2.5590842,4.5539489,0.30446509,-0.089722157,0.9482885,0
-2.3577287,1.6556773,-4.359015,-0.30446509,0.089722157,-0.9482885,0
3.8676019,-0.49589384,-1.745176,0.94103557,-0.12581959,-0.31404075,0
2.7204792,-0.05719471,4.3937874,0.30446509,-0.089722157,0.9482885,0
0.00233078,4.4152164,-4.8151808,0.35599267,0.93412942,-0.025915444,0
-1.0733939,0.068802357,-4.9215155,-0.30446509,0.089722157,-0.9482885,0
-1.6908445,4.6703391,-4.2878985,-0.30446509,0.089722157,-0.9482885,0
-1.1753405,-0.064507008,-4.9013968,-0.30446509,0.089722157,-0.9482885,0
-1.2668481,0.46247721,-4.822156,-0.30446509,0.089722157,-0.9482885,0
-2.7695651,2.510761,2.3143983,-0.73234284,0.61454284,0.29327664,0
1.928195,-3.7565382,4.298152,0.30446509,-0.089722157,0.9482885,0
2.6990962,1.3122749,4.5302248,0.30446509,-0.089722157,0.9482885,0
3.0337043,2.9642305,-0.39244938,0.69335669,0.70349413,-0.15605372,0
-4.6561184,2.3459401,-3.5557668,-0.30446509,0.089722157,-0.9482885,0
-4.450779,1.4960361,-3.7021079,-0.30446509,0.089722157,-0.9482885,0
-3.8787079,-0.13170147,-4.0397892,-0.30446509,0.089722157,-0.9482885,0
-2.2814345,-3.5876341,-4.8796053,-0.30446509,0.089722157,-0.9482885,0
-2.5601656,1.7954834,4.1617303,-0.81773424,0.48592544,0.30852401,0
0.20566666,-0.70426798,5.1399908,0.30446509,-0.089722157,0.9482885,0
3.0340137,0.70307016,4.3650541,0.30446509,-0.089722157,0.9482885,0
4.3780069,2.6060057,3.9697466,0.68169665,0.71585357,-0.15114063,0
-3.7206833,1.8875279,-3.8994775,-0.30446509,0.089722157,-0.9482885,0
-1.7768168,-0.92152834,-4.7893686,-0.30446509,0.089722157,-0.9482885,0
-2.3710604,-3.0390754,2.9612091,-0.72688168,-0.66527873,0.17043316,0
-3.2888713,-0.12826324,3.6556494,-0.95128512,0.02210778,0.30751893,0
-2.2367792,4.3175888,-4.1459918,-0.30446509,0.089722157,-0.9482885,0
0.21125031,4.3652525,-2.5730443,0.24795419,0.96869695,0.01204288,0
3.1785703,1.1099467,-3.7039282,0.9373275,0.2053417,-0.28151745,0
-2.6861742,-2.1296332,4.1678295,-0.87027836,-0.4308846,0.2386505,0
0.0047307014,-3.813848,4.9102926,0.30446509,-0.089722157,0.9482885,0
-2.0431974,4.1251831,-1.2193866,-0.32683402,0.92527342,0.19248042,0
3.8918481,-1.3885961,3.8917279,0.30446509,-0.089722157,0.9482885,0
0.62234282,1.7250199,5.2360554,0.30446509,-0.089722157,0.9482885,0
-0.35676146,-4.3243546,2.3168628,-0.26135194,-0.96521527,-0.0074118376,0
-1.7403114,3.9464855,0.14220357,-0.35582024,0.91277063,0.20060405,0
-3.3606737,-3.1732485,-2.3723724,-0.57667625,-0.80973071,0.10853976,0
-4.0794411,-0.12508249,-3.9747148,-0.30446509,0.089722157,-0.9482885,0
0.97322023,-3.5023494,-3.4648585,0.42063665,-0.88055718,-0.21836668,0
3.7426133,-3.0212104,3.7851737,0.30446509,-0.089722157,0.9482885,0
-5.2383795,0.36596346,-2.4129555,-0.95202816,0.0034397244,0.30599114,0
-1.5515938,4.280757,-1.2961979,-0.21566701,0.96320653,0.16037732,0
-2.2448468,-1.6731257,5.8351035,0.30446509,-0.089722157,0.9482885,0
2.9335897,3.3963573,1.8669424,0.52127129,0.84894067,-0.08704114,0
1.6044074,3.6933994,5.1069841,0.30446509,-0.089722157,0.9482885,0
0.4102025,4.0424585,2.3424711,-0.045579731,0.99304122,0.10859054,0
3.0032644,-1.2333599,-3.7000318,0.88457626,-0.34263483,-0.31642738,0
1.3591242,3.7245405,-4.1373301,0.59515572,0.79521674,-0.11584616,0
0.35014144,1.1634459,5.2703171,0.30446509,-0.089722157,0.9482885,0
4.1361885,2.5249228,2.5600038,0.72532135,0.6671524,-0.16975492,0
-1.5684813,-3.9653683,-0.64405227,-0.31657794,-0.94849187,0.011901677,0
-0.64598858,-1.4219556,5.3455257,0.30446509,-0.089722157,0.9482885,0
-4.2935543,1.9439081,-0.71421808,-0.85558462,0.41181269,0.31366438,0
-1.9067186,-0.28214025,-4.6871662,-0.30446509,0.089722157,-0.9482885,0
4.1785207,-1.021062,-0.53768945,0.92200607,-0.22222228,-0.3170521,0
2.2384334,-3.6587205,4.2077994,0.30446509,-0.089722157,0.9482885,0
-0.10576749,2.6328869,-4.9895887,-0.30446509,0.089722157,-0.9482885,0
3.3885281,2.0771444,-1.6813693,0.85096544,0.47292548,-0.22847199,0
4.1735625,-1.103735,3.8282309,0.30446509,-0.089722157,0.9482885,0
0.96051061,1.0260553,5.0613484,0.30446509,-0.089722157,0.9482885,0
0.018851995,-3.9792264,-2.5082145,0.14884162,-0.97884315,-0.1404013,0
-2.8312025,-0.38422585,-4.4000025,-0.30446509,0.089722157,-0.9482885,0
-0.95973229,3.8300185,2.0383344,-0.31874114,0.92856377,0.19019338,0
0.9262929,-2.2371645,-5.7817297,-0.30446509,0.089722157,-0.9482885,0
-1.8468881,-3.6554236,2.0614042,-0.55781406,-0.82377875,0.10115463,0
4.7538991,1.8591399,3.922235,0.30446509,-0.089722157,0.9482885,0
2.0301549,3.6119845,-1.4033389,0.55195391,0.82799214,-0.09887439,0
4.0938139,-1.3155107,3.8337986,0.30446509,-0.089722157,0.9482885,0
-0.45540655,-2.7157221,-5.3833885,-0.30446509,0.089722157,-0.9482885,0
-2.1527267,-3.4971747,1.6206539,-0.5921461,-0.79763287,0.11465132,0
0.6717627,-4.0270486,-1.4106127,0.21335441,-0.96383488,-0.15969431,0
2.0003176,-2.4992974,4.3939495,0.30446509,-0.089722157,0.9482885,0
1.7952498,3.8731043,3.3915563,0.17774636,0.98341858,0.035977244,0
3.6194398,2.1944909,-0.54505825,0.82382077,0.52454662,-0.21487266,0
0.63478136,2.3175972,-5.2571869,-0.30446509,0.089722157,-0.9482885,0
1.5948551,3.8407185,-1.7680767,0.48527348,0.87127876,-0.07336998,0
-3.3267591,-0.69191074,-4.2700067,-0.30446509,0.089722157,-0.9482885,0
-2.1730332,-3.6996405,-0.40780663,-0.45998052,-0.88562745,0.06389159,0
3.8637006,-2.638314,3.7825239,0.30446509,-0.089722157,0.9482885,0
-4.0383673,-2.1572757,-0.97870159,-0.80949974,-0.54905802,0.20795554,0
-4.9020419,-1.8980074,-3.6561813,-0.81032014,-0.54769766,0.2083475,0
1.1262009,-3.0738986,4.6202345,0.30446509,-0.089722157,0.9482885,0
1.9704468,-0.048552036,4.6354165,0.30446509,-0.089722157,0.9482885,0
-3.8060937,-1.1428819,1.5666182,-0.9263078,-0.25984982,0.2728222,0
-0.066019773,3.170959,-4.9514413,-0.30446509,0.089722157,-0.9482885,0
1.8243721,3.1249685,-4.9456215,0.7455349,0.64208555,-0.17861658,0
-1.030365,-2.4199729,5.3745093,0.30446509,-0.089722157,0.9482885,0
3.5352764,-0.33056784,4.106317,0.30446509,-0.089722157,0.9482885,0
-4.5868764,-1.4667044,-1.574733,-0.88166726,-0.40333655,0.24491346,0
-0.90087223,-3.9551003,-3.3160439,0.0075308084,-0.99529606,-0.096587598,0
