2.9094286,4.3291206,-2.7350802,0.80699599,0.57689953,0.12627211,0
0.74414158,-0.12548327,-4.1824636,0.17509216,-0.029525399,-0.9841094,0
-3.8646667,-3.1133559,3.2854738,-0.80699599,-0.57689953,-0.12627211,0
4.3827562,1.7252579,-3.5442381,0.25564188,-0.1485087,-0.95529705,0
3.2610064,2.6517897,2.6812389,0.80699599,0.57689953,0.12627211,0
-5.4835458,0.059204102,2.2125678,-0.50951862,0.57205123,0.64276606,0
3.191602,2.7324948,2.7560806,0.80699599,0.57689953,0.12627211,0
1.1370159,-3.3576336,2.4495492,0.40237558,-0.6936363,0.59746367,0
-2.1978817,-4.8739223,0.67667007,-0.80699599,-0.57689953,-0.12627211,0
-3.6313591,2.5903494,0.33139753,-0.58969063,0.79875427,0.11940122,0
2.9568822,3.4100852,1.1604463,0.80699599,0.57689953,0.12627211,0
-3.1949294,-2.9449596,-1.7641222,-0.80699599,-0.57689953,-0.12627211,0
0.4812665,0.14774466,4.342041,-0.080799103,-0.10394934,0.99129522,0
3.8299143,-1.212584,3.1103365,0.37253892,-0.66320813,0.64913005,0
-0.75429916,-3.6510019,3.092998,0.26388162,-0.54354036,0.79682529,0
1.5936083,5.1584673,1.8852,0.80699599,0.57689953,0.12627211,0
1.735746,5.2600317,0.51278782,0.80699599,0.57689953,0.12627211,0
4.7111249,1.4475422,-1.0845189,0.80699599,0.57689953,0.12627211,0
-1.8432176,0.51167804,3.8600607,-0.29985768,0.21607396,0.92919183,0
5.6142731,-0.5392561,2.2206101,0.80699599,0.57689953,0.12627211,0
-1.2411022,-5.9541702,-0.50270987,-0.80699599,-0.57689953,-0.12627211,0
-5.5700626,0.41059637,-1.9153481,-0.80699599,-0.57689953,-0.12627211,0
5.9312925,-0.71731186,-0.79067433,0.58425939,-0.74878341,-0.31299257,0
0.84427333,0.78979468,4.4274626,-0.12339038,-0.044385791,0.99136508,0
3.156004,3.9086781,-2.3900485,0.80699599,0.57689953,0.12627211,0
-3.2294054,1.7755203,-2.8745809,-0.39057884,0.68175864,-0.61858988,0
-4.2048798,-1.1309633,-3.597213,-0.80699599,-0.57689953,-0.12627211,0
4.9788647,0.73569012,0.45661527,0.80699599,0.57689953,0.12627211,0
3.9080729,1.484107,3.8806729,0.80699599,0.57689953,0.12627211,0
-0.829283,-4.1711903,2.7268553,0.32349002,-0.61071253,0.72276163,0
2.7956488,0.63312054,4.4717417,0.052841485,-0.28349879,0.95751578,0
-4.3715334,1.755266,-1.8515446,-0.50661284,0.78615528,-0.35398197,0
2.247551,2.7968509,-3.7318616,-0.032460749,0.25682712,-0.9659121,0
-1.0108209,-1.2053066,4.0720696,-0.048551202,-0.14828393,0.98775232,0
0.54011822,-2.9850054,3.1079366,0.29678917,-0.58103848,0.75783288,0
-2.160316,-4.2076654,-2.6073363,-0.80699599,-0.57689953,-0.12627211,0
3.1375654,2.5992756,3.7100577,0.80699599,0.57689953,0.12627211,0
-0.12773585,2.1737447,-3.7129884,-0.15957421,0.41887999,-0.89391041,0
-3.9829307,-1.2414441,-4.5109224,-0.80699599,-0.57689953,-0.12627211,0
-3.8711321,-2.8336301,2.0488055,-0.80699599,-0.57689953,-0.12627211,0
1.2988122,0.36305976,4.4204979,-0.039178133,-0.16104874,0.98616862,0
-2.8282592,-2.9008427,-4.3090429,-0.80699599,-0.57689953,-0.12627211,0
-4.4503341,-2.1768975,2.7500331,-0.80699599,-0.57689953,-0.12627211,0
1.9191208,-3.8369458,-0.41421938,0.58772433,-0.80546898,-0.076157033,0
2.4414835,3.6603832,3.3107889,0.80699599,0.57689953,0.12627211,0
-3.8045859,-3.1197402,2.9306657,-0.80699599,-0.57689953,-0.12627211,0
-3.4398694,-3.5054634,2.3620434,-0.80699599,-0.57689953,-0.12627211,0
-4.0936146,-1.9243979,-0.68333387,-0.80699599,-0.57689953,-0.12627211,0
5.5939465,0.26945448,-1.3442371,0.80699599,0.57689953,0.12627211,0
4.7857366,0.84530878,1.1900676,0.80699599,0.57689953,0.12627211,0
-4.7189603,-0.90715837,-1.3342594,-0.80699599,-0.57689953,-0.12627211,0
5.0280194,-1.557601,-0.30492187,0.59053677,-0.79007548,-0.16446006,0
3.5503197,-2.6792519,0.39120841,0.5754534,-0.81621909,0.051379621,0
1.484207,-3.447356,-2.2662082,0.55376303,-0.66492403,-0.50122106,0
-4.45467,-2.3279016,3.4676332,-0.80699599,-0.57689953,-0.12627211,0
-5.2887697,-0.65923452,1.1746668,-0.80699599,-0.57689953,-0.12627211,0
-3.1808779,-3.6324422,1.286974,-0.80699599,-0.57689953,-0.12627211,0
-4.0536022,0.98262453,-3.2155645,-0.3631815,0.65341485,-0.66419017,0
-5.9616346,0.27676678,1.1985868,-0.80699599,-0.57689953,-0.12627211,0
1.4787159,-4.0279632,-1.1275709,0.58961272,-0.77498579,-0.22749472,0
0.96132016,0.44506162,-4.1471949,0.12956947,0.035646856,-0.99092948,0
-0.29886806,-5.3400483,-1.2517557,0.59044975,-0.78411424,-0.19113868,0
-5.0691853,-0.9438138,1.0714731,-0.80699599,-0.57689953,-0.12627211,0
-4.7670217,-0.61091805,-2.380533,-0.80699599,-0.57689953,-0.12627211,0
1.0847294,-4.1565995,1.2174778,0.51514661,-0.79221642,0.32713497,0
1.5652308,-2.3818963,-3.1943173,0.46595177,-0.49063009,-0.7363227,0
4.0912566,-1.5493641,2.5209877,0.44500718,-0.734604,0.51217735,0
-1.4141706,-4.4764667,2.7281728,0.30890286,-0.59458888,0.74232292,0
-2.17665,-4.7896757,0.15607834,-0.80699599,-0.57689953,-0.12627211,0
0.56856751,1.7374054,-3.9554369,-0.048824251,0.27826202,-0.95926356,0
-0.090407372,4.4374504,2.4926255,-0.55327314,0.66379297,0.50325704,0
-2.7997646,-3.0643725,-3.7440333,-0.80699599,-0.57689953,-0.12627211,0
-1.784533,2.3972063,3.0394127,-0.48191085,0.51971155,0.70545149,0
-3.2731857,-3.9701135,3.4196305,-0.80699599,-0.57689953,-0.12627211,0
4.8671732,0.21255112,3.5604918,0.80699599,0.57689953,0.12627211,0
4.4870968,1.6068339,-0.38052738,0.80699599,0.57689953,0.12627211,0
1.9684005,5.3156338,-2.2454953,-0.3669199,0.65734082,-0.65823489,0
5.0886993,0.86581135,-0.83981335,0.80699599,0.57689953,0.12627211,0
-3.8117962,-2.9141107,2.0372899,-0.80699599,-0.57689953,-0.12627211,0
0.90977836,1.8573167,4.4000945,-0.23429793,0.11649296,0.96516013,0
0.24420723,-5.0427647,-0.56892729,0.58607763,-0.80863881,-0.051151574,0
-2.5439939,-1.6196561,3.8978508,-0.1247983,-0.042396963,0.99127591,0
0.55582607,-4.6529303,0.80966568,0.53589171,-0.80520558,0.25389767,0
-1.8696672,-4.9850702,-0.91313004,-0.80699599,-0.57689953,-0.12627211,0
-3.3132257,-2.7285304,3.7290342,-0.062405348,-0.12931666,0.98963785,0
5.6113024,0.4361043,-2.2165315,0.80699599,0.57689953,0.12627211,0
0.47336459,-0.15517354,4.3026614,-0.047321022,-0.14996243,0.98755866,0
3.659318,2.8297942,-0.6775949,0.80699599,0.57689953,0.12627211,0
3.9043028,2.4582543,-0.54581809,0.80699599,0.57689953,0.12627211,0
-3.5368505,0.24675655,-3.977829,-0.22189122,0.49435365,-0.84046352,0
-4.0644627,-0.51361585,3.3499501,-0.35759044,0.30718222,0.8819117,0
-4.2683263,-1.4730363,-1.6288998,-0.80699599,-0.57689953,-0.12627211,0
3.0471966,3.1915383,1.5817273,0.80699599,0.57689953,0.12627211,0
2.6686211,2.6219823,-3.7736256,0.02224946,0.18396604,-0.9826808,0
-0.52345252,-3.6852868,2.9869218,0.28912401,-0.57239199,0.76731682,0
-0.7742486,4.1817799,-1.5804358,-0.48372412,0.76837969,-0.41905105,0
-5.3137503,-0.38645601,0.088069111,-0.80699599,-0.57689953,-0.12627211,0
-5.0440183,-0.05644989,-3.1434708,-0.80699599,-0.57689953,-0.12627211,0
2.5258784,4.2065783,-3.2321134,-0.17602843,0.43907896,-0.88103563,0
-5.653748,-0.25223541,1.6477597,-0.80699599,-0.57689953,-0.12627211,0
-3.9394183,-0.9972198,3.5344677,-0.29877812,0.21440303,0.92992634,0
2.7067838,4.2210913,-0.94643497,0.80699599,0.57689953,0.12627211,0
5.2322893,0.19046259,1.3279767,0.80699599,0.57689953,0.12627211,0
-5.2825947,-0.12053728,-1.3259473,-0.80699599,-0.57689953,-0.12627211,0
4.5810103,1.3690567,0.10560992,0.80699599,0.57689953,0.12627211,0
2.0447445,5.203537,-2.392909,-0.34484118,0.63390696,-0.69227642,0
-3.7598286,-2.1070018,3.7124228,-0.16673928,0.017460734,0.98584646,0
2.5294311,4.180563,0.37217593,0.80699599,0.57689953,0.12627211,0
2.5025432,-3.1956797,1.3051939,0.52412862,-0.79818058,0.29698002,0
5.5983901,-1.174345,1.0710752,0.56236708,-0.81597483,0.13389695,0
-2.6610417,2.8960946,-1.7554777,-0.49352151,0.77623045,-0.39230442,0
0.46135974,-3.696609,-2.9557557,0.51366442,-0.58018875,-0.63208377,0
5.2599444,0.62358522,-2.8353436,0.43130744,-0.42969507,-0.79330707,0
4.8120074,1.6994739,-2.8802524,0.80699599,0.57689953,0.12627211,0
-3.5177059,-2.2953076,-2.6693482,-0.80699599,-0.57689953,-0.12627211,0
0.44672585,5.0370855,2.2595019,-0.56929159,0.70308381,0.42612237,0
-1.7186995,-5.6498561,1.1592584,-0.80699599,-0.57689953,-0.12627211,0
0.15540886,-5.07969,-0.84437037,0.58943987,-0.79998714,-0.1121664,0
-2.6257939,-3.1425786,-4.4985676,-0.80699599,-0.57689953,-0.12627211,0
3.652384,2.593626,0.44570518,0.80699599,0.57689953,0.12627211,0
1.3442514,5.7818022,0.63099241,0.80699599,0.57689953,0.12627211,0
1.6766455,-0.057554066,-3.9892464,0.23954022,-0.12432212,-0.96289384,0
-3.1532688,-3.0424838,-1.5848179,-0.80699599,-0.57689953,-0.12627211,0
5.1146517,0.54975462,0.43829313,0.80699599,0.57689953,0.12627211,0
3.5588448,3.036932,-0.98182631,0.80699599,0.57689953,0.12627211,0
5.450923,-0.60091639,-1.65971,0.55292636,-0.66299456,-0.50468868,0
-3.7377388,-2.1780882,-1.7986734,-0.80699599,-0.57689953,-0.12627211,0
-5.4801474,0.16453505,-1.3658123,-0.80699599,-0.57689953,-0.12627211,0
-3.9560258,-3.0567927,3.6109235,-0.80699599,-0.57689953,-0.12627211,0
3.3243787,3.1776085,-0.12607861,0.80699599,0.57689953,0.12627211,0
-1.1038506,4.1222377,-1.2696757,-0.51170015,0.78981137,-0.33817351,0
-2.1791692,-5.0834599,1.5143938,-0.80699599,-0.57689953,-0.12627211,0
-0.5763582,3.8753645,-2.2208967,-0.41856346,0.70957732,-0.56683749,0
-0.88697076,-3.5777583,3.1827383,0.24281955,-0.5190472,0.81952959,0
5.3143387,0.66748953,-1.3757888,0.80699599,0.57689953,0.12627211,0
-2.5280375,-3.5446391,-3.2864275,-0.80699599,-0.57689953,-0.12627211,0
5.2580152,0.22343493,1.0129241,0.80699599,0.57689953,0.12627211,0
-1.2463226,3.8906155,-1.5670485,-0.49088895,0.77415395,-0.39964187,0
-4.2474666,1.9040335,1.0941144,-0.58335555,0.74542964,0.3225385,0
-3.7556374,-0.70947218,-4.4076633,-0.12479138,0.37557396,-0.9183526,0
-1.2095282,-5.7019835,1.0708179,0.49967995,-0.78098631,0.37467396,0
-4.8480358,-0.86649418,-0.69512463,-0.80699599,-0.57689953,-0.12627211,0
1.5664746,5.8429747,-1.0687008,0.80699599,0.57689953,0.12627211,0
-5.4427528,0.44336843,-2.8787017,-0.80699599,-0.57689953,-0.12627211,0
0.57788777,-4.6210918,-1.4273999,0.58785194,-0.76428014,-0.26515269,0
-1.633746,-5.0332713,-2.2006669,-0.80699599,-0.57689953,-0.12627211,0
-5.2578726,-0.70024681,1.1645727,-0.80699599,-0.57689953,-0.12627211,0
2.7329412,3.0269685,4.3419838,0.80699599,0.57689953,0.12627211,0
4.2632103,2.5009139,-3.034471,0.80699599,0.57689953,0.12627211,0
1.2545314,-4.3250074,-0.058973789,0.57813358,-0.81537575,0.030397594,0
3.586163,-1.7630577,2.6419601,0.4240669,-0.71489507,0.55596095,0
-2.8337371,-3.0604115,-3.545018,-0.80699599,-0.57689953,-0.12627211,0
-5.1216602,-0.97144651,1.5330821,-0.80699599,-0.57689953,-0.12627211,0
1.2925389,-4.2931929,0.039286137,0.5754115,-0.81622887,0.051692247,0
-2.3523159,1.8055426,-3.3001034,-0.31169039,0.59768671,-0.73866087,0
1.2356806,0.96957171,-4.0839782,0.093111813,0.086849481,-0.99186051,0
-3.7592874,0.94838619,-3.395623,-0.33096212,0.61888623,-0.71235114,0
-4.1532478,-2.1470418,0.71497238,-0.80699599,-0.57689953,-0.12627211,0
-3.119113,1.6640298,-3.0561492,-0.3649618,0.65528667,-0.66136402,0
3.8146431,-0.33061278,-3.103343,0.42365611,-0.4165746,-0.80435145,0
-0.2274425,-4.2327757,2.3489952,0.38868347,-0.67983091,0.62189645,0
-1.9021513,3.3900886,1.8378643,-0.57151634,0.70905852,0.41304374,0
-1.8869218,-4.5454345,-2.8114197,-0.80699599,-0.57689953,-0.12627211,0
2.9877918,2.6203218,-3.7624695,0.048355222,0.14855137,-0.9877218,0
3.8449936,-1.5553648,2.711374,0.42089117,-0.71183306,0.56226718,0
2.1787558,4.4808354,1.2414587,0.80699599,0.57689953,0.12627211,0
4.3968296,-1.7935531,1.7243366,0.5159328,-0.79275644,0.32457745,0
-4.2833166,-1.7697864,-0.17733663,-0.80699599,-0.57689953,-0.12627211,0
3.4471862,2.8383088,0.6392231,0.80699599,0.57689953,0.12627211,0
3.4564533,-2.7432606,-0.11150813,0.58681571,-0.8073684,-0.061672926,0
-1.0657684,4.3479838,-0.68023729,-0.54743659,0.81097537,-0.20647597,0
-2.3780835,-4.1203351,-1.6145957,-0.80699599,-0.57689953,-0.12627211,0
-4.5046868,-0.92741728,-2.6111093,-0.80699599,-0.57689953,-0.12627211,0
2.4800904,-1.5424035,3.4537044,0.2896679,-0.57300729,0.76665199,0
2.3809152,-1.3576103,-3.3266115,0.42385656,-0.41691685,-0.80406845,0
-4.2749567,-0.86517286,-4.3636742,-0.80699599,-0.57689953,-0.12627211,0
1.4185829,-1.7995565,3.6235363,0.22665715,-0.50000727,0.83583456,0
0.45224023,-2.8608365,3.2316275,0.27301043,-0.5540396,0.78645134,0
2.6978927,3.4283605,2.7321372,0.80699599,0.57689953,0.12627211,0
-1.1049703,-5.5618739,-2.2699561,0.57301289,-0.71318281,-0.40376547,0
-1.1472688,2.0283515,3.6227813,-0.40319866,0.38200021,0.83156878,0
-4.8951092,-1.2496357,1.3561742,-0.80699599,-0.57689953,-0.12627211,0
0.10280538,-3.7713449,2.6320682,0.35845038,-0.64842129,0.67161262,0
-0.53116226,0.72363901,-4.1890898,-0.022416115,0.24358766,-0.96961987,0
-4.0357981,-1.481741,-3.0751984,-0.80699599,-0.57689953,-0.12627211,0
4.6008787,-0.15382481,3.6874013,0.30598962,-0.59134305,0.74611253,0
1.5926578,5.8081007,-1.0767097,0.80699599,0.57689953,0.12627211,0
-0.064009428,2.6539831,-3.4780583,-0.21258408,0.48326278,-0.8492735,0
5.5209608,-0.24044633,-2.0081182,0.52754068,-0.60810649,-0.59321779,0
2.1399078,4.99053,-0.83890533,0.80699599,0.57689953,0.12627211,0
5.0103955,0.56677866,1.0268089,0.80699599,0.57689953,0.12627211,0
5.949892,-0.47464657,-0.21948469,0.80699599,0.57689953,0.12627211,0
-4.393909,-2.3851786,3.3409956,-0.80699599,-0.57689953,-0.12627211,0
-2.5061693,-0.27382851,-4.3792963,-0.07066083,0.30660748,-0.94920969,0
5.5093451,-1.2836857,0.59763479,0.57838905,-0.81527054,0.02828455,0
-2.5237267,-1.4177468,3.906271,-0.14545465,-0.013064623,0.98927879,0
0.95393395,-2.7338653,3.1380711,0.30251408,-0.58746016,0.75058371,0
3.144129,3.290863,0.50845599,0.80699599,0.57689953,0.12627211,0
1.87182,4.3641577,3.736135,0.80699599,0.57689953,0.12627211,0
-2.5452647,-4.4957442,1.1689858,-0.80699599,-0.57689953,-0.12627211,0
1.991986,4.1678066,3.8652277,0.80699599,0.57689953,0.12627211,0
-3.1497085,-3.1277766,-1.2178929,-0.80699599,-0.57689953,-0.12627211,0
-2.1017663,-4.2290745,-2.8837147,-0.80699599,-0.57689953,-0.12627211,0
-0.21342587,-4.2247,-3.0187433,0.51764965,-0.58809382,-0.62143737,0
3.6570182,2.6656103,0.087207556,0.80699599,0.57689953,0.12627211,0
2.8605771,0.13200575,-3.6807609,0.30853295,-0.22954232,-0.92310226,0
-1.1449814,-1.9220674,3.9267704,0.022439122,-0.24361803,0.96961176,0
-4.7513247,-0.72403765,-1.9640437,-0.80699599,-0.57689953,-0.12627211,0
1.3923767,-2.6147509,3.0474365,0.32761806,-0.61523551,0.71704388,0
0.20473289,2.8695946,3.8898225,-0.39080709,0.36138409,0.84656441,0
4.6839743,-1.7452738,-0.59602308,0.58984202,-0.77686024,-0.22039646,0
-2.4098334,-4.8028283,1.70643,-0.80699599,-0.57689953,-0.12627211,0
4.6853237,-0.82815981,2.9964795,0.40335354,-0.69461143,0.59566844,0
3.85235,1.412272,4.5649867,0.80699599,0.57689953,0.12627211,0
-0.70399737,2.9587626,3.3546467,-0.46231401,0.48409986,0.74290848,0
-4.2786789,-1.1984715,-2.8171411,-0.80699599,-0.57689953,-0.12627211,0
2.1091337,-3.1134028,1.9862909,0.46650195,-0.75384349,0.46270519,0
2.2363923,-3.5598881,-0.70909142,0.59048045,-0.79167569,-0.15678841,0
-2.5043993,3.4030674,0.4578414,-0.58927047,0.80072165,0.10772741,0
-1.8554766,-4.2936382,-4.0361843,0.41484863,-0.40160263,-0.81646556,0
-3.104754,-3.2354569,-1.0132365,-0.80699599,-0.57689953,-0.12627211,0
-0.80456328,2.1519647,-3.5782573,-0.21595961,0.48729286,-0.84611309,0
-4.0385656,-2.1599212,0.040884495,-0.80699599,-0.57689953,-0.12627211,0
2.7924387,-2.7103186,-1.7709811,0.56850654,-0.70101541,-0.43055516,0
-1.7175021,-0.53709841,-4.4642959,0.024935007,0.18034232,-0.98328775,0
-5.1080027,0.034282684,-3.1490805,-0.80699599,-0.57689953,-0.12627211,0
2.7504017,3.6343465,1.455467,0.80699599,0.57689953,0.12627211,0
-2.1067805,-4.8428469,-0.047526836,-0.80699599,-0.57689953,-0.12627211,0
4.5235057,-1.8924465,-0.4980824,0.59044731,-0.78406477,-0.19134897,0
-0.91555238,-0.78653234,4.1298928,-0.087993324,-0.093969643,0.99167889,0
2.4916639,-1.3333983,-3.2803359,0.42918289,-0.42604095,-0.79642397,0
3.9271014,3.082866,-3.5451856,0.80699599,0.57689953,0.12627211,0
1.7813792,5.5629578,-1.1628289,0.80699599,0.57689953,0.12627211,0
5.5803051,-0.083729267,0.35653448,0.80699599,0.57689953,0.12627211,0
-3.4729288,-2.6537933,-1.3177061,-0.80699599,-0.57689953,-0.12627211,0
1.3762445,0.92554617,4.4950542,-0.096227646,-0.082506865,0.991934,0
2.3312135,-3.5576854,0.0024428368,0.5809598,-0.81391263,0.0056504607,0
5.2417393,0.7807498,-1.4292644,0.80699599,0.57689953,0.12627211,0
-4.1131339,-1.9971838,-0.2260493,-0.80699599,-0.57689953,-0.12627211,0
3.7272081,2.6500535,-3.7021415,0.10432881,0.071187377,-0.99199188,0
1.7090938,5.1019068,1.4055469,0.80699599,0.57689953,0.12627211,0
2.0498781,4.3691702,2.5752721,0.80699599,0.57689953,0.12627211,0
1.7151828,5.0732884,1.4973776,0.80699599,0.57689953,0.12627211,0
-4.0208368,-2.1202531,-0.25364554,-0.80699599,-0.57689953,-0.12627211,0
-1.8636551,-4.1581616,-4.104228,0.40096855,-0.37827271,-0.83434647,0
2.3997135,3.9702969,2.1618307,0.80699599,0.57689953,0.12627211,0
-0.76543653,4.1800866,-1.593647,-0.48249876,0.76737499,-0.42229223,0
-3.8128486,2.0631917,-1.9544022,-0.49203163,0.77505839,-0.39647114,0
0.80284071,-0.84793806,-4.1021976,0.25712401,-0.15074593,-0.95454866,0
0.32928145,-4.8546362,-1.290318,0.58974743,-0.77605975,-0.22344851,0
-1.6779239,-4.9830747,-2.1476614,-0.80699599,-0.57689953,-0.12627211,0
-5.0147657,-0.61877966,-0.76129895,-0.80699599,-0.57689953,-0.12627211,0
3.5698957,1.9909987,3.7261071,0.80699599,0.57689953,0.12627211,0
-4.4377894,-1.0385437,-2.5309434,-0.80699599,-0.57689953,-0.12627211,0
-1.4589692,-5.9056559,0.66801167,-0.80699599,-0.57689953,-0.12627211,0
-2.4204502,-4.9949303,2.651938,-0.80699599,-0.57689953,-0.12627211,0
1.4349345,-3.801352,1.5056639,0.49806023,-0.77974975,0.37937653,0
4.5803652,1.0576415,1.5324947,0.80699599,0.57689953,0.12627211,0
3.3212485,0.054641247,4.1867914,0.16617268,-0.42700276,0.88885063,0
3.4870968,-2.0535619,2.3196337,0.45548832,-0.74412316,0.48868322,0
-2.9917402,-0.26344061,-4.328073,-0.11287308,0.36055076,-0.92588496,0
3.7066228,-1.1548336,3.2344098,0.35312045,-0.64276314,0.67982477,0
4.4699187,1.4054992,-3.4580755,0.29575562,-0.20973092,-0.93195575,0
-0.13373876,-1.628647,3.9612696,0.072453141,-0.30892074,0.9483242,0
-0.90432382,2.2743244,3.6268797,-0.41030514,0.39393127,0.82247663,0
-1.8628774,3.8736646,0.45800304,-0.58818108,0.80432189,0.084317029,0
0.21416944,-5.0704618,-0.42458057,0.58318579,-0.81217057,-0.016534269,0
3.4861429,2.3853607,2.4596419,0.80699599,0.57689953,0.12627211,0
-5.375937,-0.81724358,2.4536402,-0.80699599,-0.57689953,-0.12627211,0
-3.5161698,-1.9646039,-4.1900578,-0.80699599,-0.57689953,-0.12627211,0
3.7091639,-1.0972137,-2.6810834,0.48885137,-0.53260273,-0.69091165,0
0.03516531,-0.57365632,-4.2948828,0.16870254,-0.020292014,-0.9854582,0
4.7834911,-1.7583202,-0.2044549,0.59004903,-0.79652119,-0.13189423,0
-5.0554047,-0.98350048,1.164718,-0.80699599,-0.57689953,-0.12627211,0
-5.2177877,-0.4997015,-0.0078372955,-0.80699599,-0.57689953,-0.12627211,0
-3.988683,1.0816381,-3.1529188,-0.37020242,0.66077334,-0.6529386,0
-3.7019341,-3.2265227,2.7624838,-0.80699599,-0.57689953,-0.12627211,0
0.034502596,5.1924372,-0.2405405,-0.56019372,0.81547916,-0.14552259,0
1.4038532,4.4886117,3.6693761,-0.4644722,0.48796988,0.73902029,0
2.7433467,4.5383558,-2.6295934,0.80699599,0.57689953,0.12627211,0
-3.5767326,-2.741888,-0.25181854,-0.80699599,-0.57689953,-0.12627211,0
3.1107032,0.16451979,4.2717333,0.13482213,-0.3881456,0.91168296,0
0.66110444,0.36605883,-4.1878452,0.11456239,0.056827694,-0.99178946,0
-1.2529032,0.94785142,-4.0682626,-0.10910034,0.35577601,-0.92818141,0
5.3364625,0.80435991,-2.142499,0.80699599,0.57689953,0.12627211,0
-2.3489182,3.1780269,-1.5855837,-0.50286549,0.78338683,-0.36528289,0
-5.498497,0.23026276,-1.5488329,-0.80699599,-0.57689953,-0.12627211,0
-3.9065859,-1.7287459,-2.7724957,-0.80699599,-0.57689953,-0.12627211,0
-3.2975278,-3.9390931,3.4334741,-0.80699599,-0.57689953,-0.12627211,0
-3.6057317,-3.3268628,2.6060822,-0.80699599,-0.57689953,-0.12627211,0
2.2521381,4.0020747,2.959794,0.80699599,0.57689953,0.12627211,0
-2.1714628,-4.4836054,-1.2754171,-0.80699599,-0.57689953,-0.12627211,0
2.150831,-2.9851556,-2.142736,0.55487555,-0.66750532,-0.49653774,0
5.0874262,0.64863777,0.16052106,0.80699599,0.57689953,0.12627211,0
-4.9808493,-0.7546854,-0.35714695,-0.80699599,-0.57689953,-0.12627211,0
-1.7557228,-3.2589312,-4.3796749,0.31792599,-0.24420881,-0.916125,0
-4.9113784,-0.28028059,-2.9685454,-0.80699599,-0.57689953,-0.12627211,0
-4.9129257,-1.5004532,2.6159477,-0.80699599,-0.57689953,-0.12627211,0
4.2554941,2.0822635,-1.0724659,0.80699599,0.57689953,0.12627211,0
-5.6989584,-0.21053743,2.2781579,-0.49921998,0.5521785,0.66774124,0
0.9801662,-2.4079938,3.3664973,0.263493,-0.54309189,0.79725951,0
-4.8492937,-1.0465903,0.13571645,-0.80699599,-0.57689953,-0.12627211,0
-4.2743282,-1.3461604,-2.1702008,-0.80699599,-0.57689953,-0.12627211,0
-1.3881028,2.4511049,3.259665,-0.46056476,0.48097181,0.74602032,0
1.979743,-3.8071067,-0.19295645,0.58412528,-0.81121802,-0.026890397,0
4.6798701,0.65261698,2.747004,0.80699599,0.57689953,0.12627211,0
3.4105051,2.6921058,1.5416121,0.80699599,0.57689953,0.12627211,0
-5.1596546,0.24567032,-3.3350017,-0.37035337,0.66093081,-0.65269375,0
4.7671676,0.42348003,3.2359481,0.80699599,0.57689953,0.12627211,0
-0.49411869,3.9384339,2.6834276,-0.53631318,0.62640798,0.56566882,0
-0.78868949,4.3328862,-1.2541633,-0.50928468,0.78809071,-0.34574878,0
-0.83480477,-4.8130097,2.0871043,0.40868247,-0.69989818,0.58576566,0
-4.8261919,1.6436951,-1.3296266,-0.54421473,0.80949903,-0.22032213,0
-3.4417772,-2.8454785,-0.64104009,-0.80699599,-0.57689953,-0.12627211,0
-0.26857471,-3.9832981,-3.2702949,0.49271184,-0.53984457,-0.68249762,0
2.1392376,5.2339282,-1.94664,0.80699599,0.57689953,0.12627211,0
-1.3522642,3.9167912,-1.3721428,-0.50712305,0.7865274,-0.3524214,0
2.0252202,5.2989998,-1.5152535,0.80699599,0.57689953,0.12627211,0
1.271147,6.028852,-0.030500412,0.80699599,0.57689953,0.12627211,0
-1.6946092,-0.29558891,4.020586,-0.20308155,0.070314556,0.97663391,0
-3.0005851,-3.828239,3.4617281,0.090123951,-0.33162034,0.93909842,0
3.8195257,0.60105741,-3.4722342,0.33084404,-0.26452804,-0.9058516,0
-3.6883335,-1.8121996,-3.7860553,-0.80699599,-0.57689953,-0.12627211,0
-0.7888279,0.83024991,-4.149147,-0.056196451,0.2878648,-0.95602101,0
1.9379256,5.258194,-0.77092838,0.80699599,0.57689953,0.12627211,0
3.7425177,3.0512826,-2.2212291,0.80699599,0.57689953,0.12627211,0
-4.8197098,-0.62979198,3.0630794,-0.39996201,0.37659287,0.83558846,0
-3.1922286,2.5664611,-1.7360904,-0.50146693,0.78233808,-0.36942935,0
0.46909761,-1.1643367,-4.1415949,0.26534057,-0.16318145,-0.95024538,0
1.8611133,4.4595437,3.368767,0.80699599,0.57689953,0.12627211,0
0.42965078,2.1161082,4.2204003,-0.2977376,0.21279365,0.93062955,0
-2.2666426,-5.1564326,2.4068208,-0.80699599,-0.57689953,-0.12627211,0
2.3650248,4.0291991,2.1144185,0.80699599,0.57689953,0.12627211,0
2.1507614,5.2329588,-2.0158587,0.80699599,0.57689953,0.12627211,0
0.063922167,2.8001368,3.854346,-0.3939029,0.36651307,0.84291673,0
0.094851494,3.7233865,3.3461931,-0.48031607,0.51677138,0.70869154,0
-2.442759,1.9101559,-3.1716189,-0.3336525,0.62181455,-0.70853567,0
3.1507461,3.813596,-1.9220448,0.80699599,0.57689953,0.12627211,0
-2.1732471,-3.813539,-4.3253469,-0.80699599,-0.57689953,-0.12627211,0
-5.1030493,-0.11572647,-2.4953861,-0.80699599,-0.57689953,-0.12627211,0
2.0215952,0.80875206,4.521594,-0.031112313,-0.17198992,0.98460734,0
-1.8564162,3.8852878,-0.19365025,-0.57329965,0.81660831,-0.066922605,0
1.2092147,0.24031734,4.3966179,-0.032512486,-0.17009348,0.98489153,0
5.9989309,-0.88851547,1.1306543,0.56249678,-0.8160013,0.1331892,0
-1.1154058,-0.34920263,-4.4098525,0.052455306,0.14295095,-0.98833883,0
-3.189265,-3.7887716,3.490993,0.069615722,-0.30525762,0.94972169,0
-2.8025107,2.4860189,2.0848119,-0.55228734,0.66152775,0.50730628,0
-3.2405772,-2.5300736,-3.3678858,-0.80699599,-0.57689953,-0.12627211,0
-2.0894034,-5.2993908,1.927227,-0.80699599,-0.57689953,-0.12627211,0
3.143141,3.8040736,-1.829937,0.80699599,0.57689953,0.12627211,0
-1.9712989,-4.2738008,-3.5131874,-0.80699599,-0.57689953,-0.12627211,0
0.32362938,4.6935205,2.6091223,-0.5501408,0.65664095,0.51591456,0
1.8496888,4.0465732,4.1467652,-0.39091086,0.36155576,0.8464433,0
-2.7265139,1.6374972,-3.276253,-0.32456106,0.61188787,-0.72128594,0
1.9469231,4.8829384,0.88600206,0.80699599,0.57689953,0.12627211,0
4.5077,0.55287838,-3.1750147,0.38546735,-0.35257021,-0.85270703,0
-4.0871782,-2.1781869,0.43501449,-0.80699599,-0.57689953,-0.12627211,0
1.8195164,4.5069914,3.4178367,0.80699599,0.57689953,0.12627211,0
-4.6795082,-1.5957737,1.5596871,-0.80699599,-0.57689953,-0.12627211,0
-3.8252997,-2.5107045,0.2805481,-0.80699599,-0.57689953,-0.12627211,0
4.4119887,2.0683391,-3.5807786,0.22133476,-0.097225934,-0.97033918,0
3.1722567,-2.8434803,1.0044532,0.54771572,-0.81109774,0.20525146,0
-6.0790648,0.84172201,-0.63203692,-0.80699599,-0.57689953,-0.12627211,0
1.1815475,5.8597527,1.3146863,0.80699599,0.57689953,0.12627211,0
-5.2061725,-0.2116251,-1.3981985,-0.80699599,-0.57689953,-0.12627211,0
-2.8748555,-4.404604,3.2028532,0.1697849,-0.43143666,0.88602245,0
1.0410111,1.6631672,4.4484067,-0.20341963,0.070810616,0.97652769,0
-4.3455815,-0.031159401,3.0110106,-0.42538196,0.41952449,0.80190361,0
4.0570922,1.6563725,2.1412725,0.80699599,0.57689953,0.12627211,0
4.9299612,0.79356766,0.50472993,0.80699599,0.57689953,0.12627211,0
5.7162294,-0.20369363,-1.8680797,0.53618085,-0.62612736,-0.56610477,0
-1.4534527,4.0663528,-0.75834417,-0.54652697,0.81057024,-0.21043837,0
-2.5628271,-3.962759,-1.1538262,-0.80699599,-0.57689953,-0.12627211,0
3.6864767,0.46914852,-3.4821672,0.3346138,-0.27049103,-0.90270048,0
-4.557333,-2.0419579,2.8173561,-0.80699599,-0.57689953,-0.12627211,0
6.0918183,-0.6383152,-0.37877429,0.80699599,0.57689953,0.12627211,0
3.6526861,3.1885278,-2.2741559,0.80699599,0.57689953,0.12627211,0
0.41280341,5.0999732,2.1022131,-0.57519287,0.7193681,0.3894389,0
2.1155105,-0.27717814,-3.8265693,0.29571146,-0.20966256,-0.93198526,0
2.8351543,3.2263517,2.777823,0.80699599,0.57689953,0.12627211,0
0.56000757,4.0485706,3.4243197,-0.4796398,0.51552713,0.71005452,0
2.4172831,3.5865908,3.8025839,0.80699599,0.57689953,0.12627211,0
1.3094141,4.4906087,3.6077721,-0.47096348,0.49968418,0.72698647,0
-0.44295454,1.9924985,-3.7414389,-0.16490495,0.42544454,-0.88983351,0
-2.4658656,2.389209,2.521832,-0.52453554,0.60196251,0.60208279,0
1.960463,4.4837441,2.6232677,0.80699599,0.57689953,0.12627211,0
3.6613173,-1.6854625,-2.1754248,0.53723919,-0.62837493,-0.5626002,0
5.0905695,0.88249159,-0.92797631,0.80699599,0.57689953,0.12627211,0
-4.346158,1.9826343,-1.2699108,-0.54338276,0.80909973,-0.22381461,0
0.32846332,-2.8019381,3.312757,0.25445604,-0.53262502,0.80719435,0
4.9271851,0.37010431,2.4571476,0.80699599,0.57689953,0.12627211,0
4.1863995,1.3076282,2.9081893,0.80699599,0.57689953,0.12627211,0
2.1700387,4.1612678,2.757184,0.80699599,0.57689953,0.12627211,0
1.5911134,5.3342276,1.0981479,0.80699599,0.57689953,0.12627211,0
-1.1708412,1.8995247,-3.6301436,-0.21711969,0.48867583,-0.84501779,0
2.0990925,4.3292661,2.4430554,0.80699599,0.57689953,0.12627211,0
5.095644,0.061214924,2.7917609,0.80699599,0.57689953,0.12627211,0
-1.2012938,3.5000792,-2.2269945,-0.42859027,0.71922469,-0.54683316,0
-1.8520706,-4.3997407,-3.6997852,-0.80699599,-0.57689953,-0.12627211,0
-5.4827495,-0.31662512,0.84909558,-0.80699599,-0.57689953,-0.12627211,0
-2.9381404,-0.99787378,-4.5659218,-0.022320271,0.24346116,-0.96965384,0
-4.0011978,-1.8827481,-1.4642498,-0.80699599,-0.57689953,-0.12627211,0
2.8531442,3.5595465,1.1405885,0.80699599,0.57689953,0.12627211,0
4.4675264,-1.7866926,1.6240926,0.5233863,-0.79770559,0.29955423,0
-4.2824316,-2.0958543,1.3067139,-0.80699599,-0.57689953,-0.12627211,0
-2.8680782,-3.3200932,-2.1391382,-0.80699599,-0.57689953,-0.12627211,0
-3.7135878,-1.8401499,-3.4969609,-0.80699599,-0.57689953,-0.12627211,0
-3.0698256,2.8900743,0.88013029,-0.58960027,0.77488935,0.22785509,0
0.5433197,2.3936839,-3.7226608,-0.12836772,0.38006383,-0.91600949,0
-0.31087333,-5.332212,0.46442127,0.54745787,-0.81098473,0.20638263,0
3.3589969,3.2938981,-0.878613,0.80699599,0.57689953,0.12627211,0
3.8834674,-1.0469196,3.2444987,0.35556951,-0.64536715,0.67607093,0
-1.7825899,1.4688144,3.5703158,-0.39278245,0.36465508,0.84424448,0
4.9373717,0.91986799,-0.11965937,0.80699599,0.57689953,0.12627211,0
3.706193,2.9637887,-3.6733479,0.067546546,0.12224767,-0.99019861,0
1.4686692,-3.0949883,2.53088,0.39887038,-0.6901291,0.60384148,0
4.5370169,0.56790829,4.0469785,0.80699599,0.57689953,0.12627211,0
-4.2003708,-2.5600193,2.9029009,-0.80699599,-0.57689953,-0.12627211,0
0.7623322,0.47504961,-4.1698017,0.11049747,0.062539667,-0.99190688,0
2.9895437,-2.3893297,2.2718551,0.45258522,-0.74151158,0.49530518,0
5.0896554,0.52422237,0.71469325,0.80699599,0.57689953,0.12627211,0
4.9284787,0.90157509,0.020748638,0.80699599,0.57689953,0.12627211,0
-2.4269228,-3.5344758,-3.9790776,-0.80699599,-0.57689953,-0.12627211,0
1.9126768,4.8706989,1.1607811,0.80699599,0.57689953,0.12627211,0
-0.20919442,0.96458483,4.2354774,-0.22438246,0.10174379,0.96917522,0
-4.8021097,1.7400286,0.23083806,-0.59020585,0.79523706,0.13876301,0
0.42365158,-4.7400465,-1.4261539,0.58819592,-0.76608014,-0.2591272,0
-2.6622229,-3.3368993,-3.3779597,-0.80699599,-0.57689953,-0.12627211,0
-1.4008348,-2.5341353,-4.4284163,0.26882088,-0.16846639,-0.94834298,0
-5.3201342,1.4182115,-0.30417967,-0.58463466,0.81063259,0.032820225,0
-1.5520718,-5.788825,0.72925949,-0.80699599,-0.57689953,-0.12627211,0
2.1529653,-1.3379445,3.7000017,0.23452151,-0.50929773,0.82801908,0
1.5595914,5.3213949,1.358232,0.80699599,0.57689953,0.12627211,0
-3.9009404,-3.1172023,3.5348682,-0.80699599,-0.57689953,-0.12627211,0
2.9598801,3.9638376,-1.3886414,0.80699599,0.57689953,0.12627211,0
2.6807837,-3.1219347,-1.0863352,0.58801788,-0.76513702,-0.26229823,0
2.784642,4.037591,-0.60566497,0.80699599,0.57689953,0.12627211,0
0.84700608,4.096487,-2.7963939,-0.31218517,0.59823567,-0.73800725,0
-2.4528968,-3.5351391,-3.8100548,-0.80699599,-0.57689953,-0.12627211,0
3.8716929,1.7696002,-3.6734471,0.21194434,-0.083349884,-0.97372091,0
0.55325651,-2.4193194,3.4874406,0.22680146,-0.50017828,0.83569306,0
2.6550851,2.4609365,-3.802238,0.039466083,0.16065747,-0.98622084,0
-0.10536504,3.2650836,-3.0632944,-0.29286391,0.57661748,-0.76272094,0
-1.2978098,-2.1366806,3.8754478,0.034637749,-0.25968826,0.96507132,0
-0.089442968,4.513813,2.3893433,-0.55908263,0.67744553,0.47801071,0
1.7604805,5.2686796,0.3152051,0.80699599,0.57689953,0.12627211,0
-4.4317026,1.9505666,0.54261518,-0.59034824,0.78236914,0.19846284,0
2.3435259,-2.1291089,-2.8511469,0.49390012,-0.54208463,-0.67985797,0
-3.6838918,-2.0396276,-2.7753935,-0.80699599,-0.57689953,-0.12627211,0
-4.5339346,-1.8180606,1.6448972,-0.80699599,-0.57689953,-0.12627211,0
-1.5540054,-5.7481279,0.55568266,-0.80699599,-0.57689953,-0.12627211,0
-2.2526522,-4.2205415,-1.958401,-0.80699599,-0.57689953,-0.12627211,0
-0.86388326,-1.1698068,4.0842361,-0.040673792,-0.15901548,0.98643792,0
-0.11223698,-0.083708763,-4.3021116,0.1031099,0.072893143,-0.99199545,0
-1.1565257,4.325757,0.90814924,-0.59053373,0.79020244,0.16385996,0
4.4905829,1.845484,-1.4931281,0.80699599,0.57689953,0.12627211,0
3.9127769,3.004775,-3.096869,0.80699599,0.57689953,0.12627211,0
6.0650034,-0.54999542,-0.61091053,0.80699599,0.57689953,0.12627211,0
-2.3883758,2.4339004,-2.6789153,-0.39837548,0.6896323,-0.60473496,0
-5.9332972,0.49266672,0.031098127,-0.80699599,-0.57689953,-0.12627211,0
1.5989702,-2.3461633,3.1805472,0.31195784,-0.59798348,0.73830754,0
-1.929013,-5.31003,0.95079231,-0.80699599,-0.57689953,-0.12627211,0
-3.99332,-1.3968205,-3.7346506,-0.80699599,-0.57689953,-0.12627211,0
2.929734,2.1723146,4.7480054,-0.11138648,-0.061291337,0.99188542,0
0.52659976,-4.5713787,-1.6591003,0.58375293,-0.74688619,-0.31842351,0
2.4144449,-3.4712238,0.42843914,0.56810468,-0.81675857,0.10080922,0
-3.3176377,-2.3284135,-3.7967186,-0.80699599,-0.57689953,-0.12627211,0
3.5283244,2.3468699,2.3659143,0.80699599,0.57689953,0.12627211,0
3.3106956,-2.7901073,-0.54997277,0.59049952,-0.79124057,-0.15889841,0
-0.99563271,4.4129205,-0.60909796,-0.55050027,0.8122673,-0.19279885,0
-3.0955937,-2.3672605,-4.7782197,0.11985528,0.049374282,-0.9915629,0
2.7902458,-1.5199344,-2.9934263,0.4672392,-0.49294937,-0.73395407,0
4.4625278,1.0285764,2.418375,0.80699599,0.57689953,0.12627211,0
-3.1065311,-4.1256385,3.0650983,-0.80699599,-0.57689953,-0.12627211,0
1.4101391,5.7669725,0.27765751,0.80699599,0.57689953,0.12627211,0
-4.0232849,-2.1796613,0.033414721,-0.80699599,-0.57689953,-0.12627211,0
5.9741178,-0.23109627,-1.4870156,0.80699599,0.57689953,0.12627211,0
1.6377165,1.0452437,4.5300217,-0.088721514,-0.092957705,0.99170941,0
-3.886482,-2.1119823,-1.1500895,-0.80699599,-0.57689953,-0.12627211,0
-1.8286873,-5.4548683,0.97134113,-0.80699599,-0.57689953,-0.12627211,0
-2.8800821,2.6767826,1.709023,-0.57053947,0.70641339,0.41888538,0
-3.1598403,-3.0478477,-1.5183132,-0.80699599,-0.57689953,-0.12627211,0
2.1743112,4.3315215,1.9520397,0.80699599,0.57689953,0.12627211,0
-4.8305821,-0.98164988,-0.2805579,-0.80699599,-0.57689953,-0.12627211,0
3.0583928,3.353128,0.77192402,0.80699599,0.57689953,0.12627211,0
1.4993861,-1.7456763,3.6338546,0.2271384,-0.50057727,0.83536267,0
0.034047604,3.3723791,3.5420418,-0.45155132,0.46497226,0.76151299,0
3.8390369,2.7136891,-1.2957129,0.80699599,0.57689953,0.12627211,0
2.0803623,4.5408092,1.5962808,0.80699599,0.57689953,0.12627211,0
4.8039141,1.5314672,-2.0609546,0.80699599,0.57689953,0.12627211,0
-1.2671854,0.20101333,-4.3033667,-0.022824943,0.24412772,-0.96947438,0
-4.47753,-1.3553729,-0.82946348,-0.80699599,-0.57689953,-0.12627211,0
-2.3043306,2.7158883,2.3187308,-0.54219544,0.63903254,0.54558372,0
3.4676583,2.0281858,4.2096014,0.80699599,0.57689953,0.12627211,0
-3.9735823,-0.71939731,3.4505198,-0.33000219,0.26319835,0.90654582,0
-1.5192271,-5.6981096,0.10490227,-0.80699599,-0.57689953,-0.12627211,0
4.4556923,1.0535669,2.3478889,0.80699599,0.57689953,0.12627211,0
2.6855707,3.4752207,-3.5546584,-0.075075626,0.31230199,-0.94701183,0
2.2146511,-3.2095273,-1.7133456,0.5743956,-0.71707928,-0.39479995,0
-4.141727,1.1393005,2.3105528,-0.52007389,0.59294474,0.61476803,0
-3.1783454,-0.13066292,-4.2466269,-0.14468372,0.40044016,-0.90482843,0
1.1932611,-1.3109295,-3.8729606,0.33438301,-0.27012557,-0.90289551,0
-4.0635195,-1.4564118,-3.0137563,-0.80699599,-0.57689953,-0.12627211,0
-3.8871436,-2.5375359,0.79836965,-0.80699599,-0.57689953,-0.12627211,0
-2.8613734,-3.1666527,-2.8830094,-0.80699599,-0.57689953,-0.12627211,0
2.0734799,5.0939474,-0.88685751,0.80699599,0.57689953,0.12627211,0
0.45893764,2.8903315,-3.4721467,-0.19570261,0.46297967,-0.86449426,0
-3.369761,2.7639709,0.45498824,-0.59020591,0.79523575,0.13876969,0
-1.7863369,-4.8155761,-2.2200491,-0.80699599,-0.57689953,-0.12627211,0
4.0396624,2.2109737,-0.2811389,0.80699599,0.57689953,0.12627211,0
-2.1285417,1.6732085,-3.4863551,-0.27436543,0.55559176,-0.78488314,0
-0.34220934,4.5637965,1.9774804,-0.57542485,0.7200402,0.38785085,0
4.280921,0.90361452,4.1499243,0.80699599,0.57689953,0.12627211,0
-2.2341092,3.3073442,1.4895234,-0.58134091,0.73840302,0.34176552,0
-2.5114312,-3.7478786,-2.4640145,-0.80699599,-0.57689953,-0.12627211,0
2.9980028,3.9067788,-1.3715963,0.80699599,0.57689953,0.12627211,0
-2.9707654,-4.0876026,2.0236549,-0.80699599,-0.57689953,-0.12627211,0
3.8191817,-2.2191789,-1.1401976,0.58383691,-0.74719751,-0.31753808,0
3.9327197,2.5131106,-0.97805095,0.80699599,0.57689953,0.12627211,0
-5.7478142,0.40945911,-0.77415693,-0.80699599,-0.57689953,-0.12627211,0
4.0871906,1.1135883,4.4287353,0.80699599,0.57689953,0.12627211,0
2.0284057,-3.6389272,0.90943241,0.54326409,-0.80904222,0.22431004,0
-3.4903781,-1.977366,-4.2965779,-0.80699599,-0.57689953,-0.12627211,0
-1.227797,-5.5826802,-2.2849677,-0.80699599,-0.57689953,-0.12627211,0
-3.5867732,-2.9466975,0.74806166,-0.80699599,-0.57689953,-0.12627211,0
-3.3155203,2.521425,-1.6611152,-0.50844866,0.7874887,-0.34834146,0
-3.782032,-2.283123,-1.0357289,-0.80699599,-0.57689953,-0.12627211,0
0.57704008,5.3848629,1.7727759,-0.5850243,0.75174749,0.30433923,0
-3.6713109,-3.3781354,3.2594497,-0.80699599,-0.57689953,-0.12627211,0
4.0206275,0.12982368,4.071486,0.2180931,-0.48983556,0.84409517,0
4.2154293,1.6428981,1.1909178,0.80699599,0.57689953,0.12627211,0
-3.4909954,-2.7665739,-0.68698013,-0.80699599,-0.57689953,-0.12627211,0
5.9645948,-0.39653873,-0.67029965,0.80699599,0.57689953,0.12627211,0
3.1132951,-0.77012229,3.7753251,0.24932009,-0.52664602,0.81270152,0
-4.4377527,1.7207007,-1.8332517,-0.50869918,0.78766942,-0.34756613,0
2.1882691,-1.487482,-3.3608141,0.42309439,-0.41561562,-0.80514276,0
2.1118877,5.3270483,-2.1972847,0.80699599,0.57689953,0.12627211,0
3.492696,1.9710832,4.3104668,0.80699599,0.57689953,0.12627211,0
2.7069321,1.1787109,-3.8715854,0.18584144,-0.045123786,-0.98154312,0
-4.4869156,0.96651685,2.1833248,-0.52642262,0.6058138,0.59654748,0
-5.234839,0.3044982,-3.2291391,-0.38550547,0.67658734,-0.6273877,0
1.0513779,5.5656471,-1.1433191,-0.49598494,0.77815038,-0.38533223,0
2.2383752,3.5506544,-3.4798632,-0.12182933,0.37184894,-0.92026424,0
3.5556254,0.19404602,4.209857,0.16958195,-0.43118787,0.88618231,0
4.5855207,1.9008017,-2.3526018,0.80699599,0.57689953,0.12627211,0
4.760478,0.48247862,-3.0235689,0.41029114,-0.39390773,-0.82249498,0
-2.6034808,-4.7729731,2.9341989,0.23884761,-0.51438737,0.82362479,0
-3.7118311,1.4800751,-2.8947864,-0.39731869,0.6885705,-0.60663724,0
4.2295942,1.1218476,3.4809108,0.80699599,0.57689953,0.12627211,0
5.8464084,-0.0081586838,-1.6893719,0.80699599,0.57689953,0.12627211,0
-2.6352232,-3.3541441,-3.4717269,-0.80699599,-0.57689953,-0.12627211,0
-3.5299814,-2.5576534,-1.3923221,-0.80699599,-0.57689953,-0.12627211,0
-5.792716,0.60442924,-1.3779528,-0.80699599,-0.57689953,-0.12627211,0
3.2432339,-2.8471935,0.7649591,0.5596891,-0.81535065,0.1481601,0
-2.9486039,0.011710167,-4.220305,-0.1420579,0.39717299,-0.90668249,0
1.6020622,-2.0049772,-3.4002812,0.43262386,-0.43196374,-0.79135573,0
5.2787981,1.0002542,-2.6689556,0.80699599,0.57689953,0.12627211,0
1.3580656,5.9689684,-0.31240082,0.80699599,0.57689953,0.12627211,0
5.2540636,1.0760536,-2.8571815,0.80699599,0.57689953,0.12627211,0
-3.4777627,2.2352881,-2.0286093,-0.4816069,0.76664078,-0.4246372,0
-1.8220028,2.789732,2.6811004,-0.51939273,0.59157836,0.61665732,0
-5.0757689,-0.78962898,0.40912396,-0.80699599,-0.57689953,-0.12627211,0
0.40748405,3.7593586,-2.8836513,-0.30923051,0.59495342,-0.74189419,0
2.6265035,2.1862516,4.7106314,-0.13690031,-0.025246322,0.99026316,0
1.2896202,1.7136569,4.4952073,-0.1896714,0.05070132,0.98053771,0
5.151443,0.91754341,-1.4771574,0.80699599,0.57689953,0.12627211,0
3.9411607,3.0274041,-3.3816495,0.80699599,0.57689953,0.12627211,0
-5.9385824,0.21472454,1.3347101,-0.80699599,-0.57689953,-0.12627211,0
-2.1084871,3.5022979,1.2564974,-0.58680081,0.7592411,0.28145653,0
2.5580733,4.08566,0.62270594,0.80699599,0.57689953,0.12627211,0
-3.3300948,-2.3022447,-3.8366687,-0.80699599,-0.57689953,-0.12627211,0
3.8972638,3.0719929,-3.3048222,0.80699599,0.57689953,0.12627211,0
2.0970893,4.4998012,-2.9568567,-0.24993521,0.52736324,-0.812047,0
3.2765148,2.3026123,4.1774135,0.80699599,0.57689953,0.12627211,0
-2.8916945,-3.3912048,-1.6633105,-0.80699599,-0.57689953,-0.12627211,0
0.02047205,0.88137031,-4.1575556,0.004817009,0.20738131,-0.9782483,0
4.920578,0.78637695,0.59754741,0.80699599,0.57689953,0.12627211,0
1.5252697,4.9190054,3.4159725,0.80699599,0.57689953,0.12627211,0
2.23212,4.2441516,1.9817467,0.80699599,0.57689953,0.12627211,0
-2.1167271,-4.0072694,-3.8014646,-0.80699599,-0.57689953,-0.12627211,0
-4.2059307,-1.1796355,-3.3681262,-0.80699599,-0.57689953,-0.12627211,0
-1.7345334,-4.930069,-2.028044,-0.80699599,-0.57689953,-0.12627211,0
-5.7811804,0.92887354,-1.5904796,-0.53802389,0.80636549,-0.24557102,0
3.8792884,-1.7556219,2.4075584,0.4529267,-0.7418198,0.49453127,0
-4.485136,1.1873336,1.9413935,-0.54466468,0.64443058,0.53670257,0
-4.9150271,-1.3338509,1.8682214,-0.80699599,-0.57689953,-0.12627211,0
-4.8827949,1.7277918,-0.17379093,-0.58578479,0.80909002,0.047218502,0
-3.6950102,-2.6273284,-0.019304752,-0.80699599,-0.57689953,-0.12627211,0
4.7474236,1.3528495,-0.88388032,0.80699599,0.57689953,0.12627211,0
-1.6494056,3.6863136,1.6625557,-0.57902175,0.73087978,0.36131504,0
4.3197832,-2.0855455,-0.30219769,0.59018558,-0.79541969,-0.13779896,0
0.67490411,-3.7646346,2.2860727,0.41295791,-0.70410645,0.57766783,0
-3.0349097,-2.6237011,-4.2545333,-0.80699599,-0.57689953,-0.12627211,0
5.2553649,0.83009386,-1.7417814,0.80699599,0.57689953,0.12627211,0
6.091579,-0.73811436,0.078710556,0.80699599,0.57689953,0.12627211,0
3.6097991,3.3487852,-2.7322364,0.80699599,0.57689953,0.12627211,0
0.2332859,3.2158923,-3.216671,-0.25600797,0.5344274,-0.8055107,0
-2.3725502,-3.5261788,-4.3644776,-0.80699599,-0.57689953,-0.12627211,0
2.5219703,4.7183204,-2.0369973,0.80699599,0.57689953,0.12627211,0
-2.5941226,3.2316866,-1.0080872,-0.54271156,0.80877244,-0.2266084,0
-3.9398475,-3.0044048,3.6511352,-0.081738651,-0.1026479,0.99135369,0
-5.1267362,-0.15892124,-2.1466637,-0.80699599,-0.57689953,-0.12627211,0
-0.96728826,2.1261482,-3.5505431,-0.22714949,0.50059032,-0.83535188,0
-4.6791835,-1.7044001,2.0538921,-0.80699599,-0.57689953,-0.12627211,0
-0.13825941,-2.3405643,3.6822436,0.15675735,-0.41540334,0.89602864,0
1.6351534,5.3692126,0.65685606,0.80699599,0.57689953,0.12627211,0
4.3696966,1.4283857,-3.4941905,0.28589022,-0.1945405,-0.9383074,0
2.1777818,3.8084846,4.3194542,0.80699599,0.57689953,0.12627211,0
-0.24563456,2.3301892,3.9063754,-0.36907363,0.32575613,0.87044108,0
-2.2972915,-4.8884473,1.3783503,-0.80699599,-0.57689953,-0.12627211,0
-2.3709748,-5.0069804,2.3907962,-0.80699599,-0.57689953,-0.12627211,0
-2.3384905,-2.4281261,3.8172476,-0.0174402,-0.19044453,0.98154312,0
-0.02348876,-2.6152191,-3.9128067,0.37836629,-0.34091097,-0.86059195,0
1.0037504,5.3940611,-1.4065719,-0.47478545,0.76094353,-0.44220364,0
1.7605029,4.2618847,-3.0077686,-0.25027299,0.52775699,-0.81168729,0
1.1505103,4.788506,3.2623122,-0.5083527,0.56977773,0.64570189,0
4.5640168,1.2914872,0.5686065,0.80699599,0.57689953,0.12627211,0
3.4967942,2.4025602,2.3129892,0.80699599,0.57689953,0.12627211,0
-3.1648724,-2.9566207,-1.9029408,-0.80699599,-0.57689953,-0.12627211,0
3.5255938,2.5900016,1.2725691,0.80699599,0.57689953,0.12627211,0
2.3232498,3.6968122,3.8999794,0.80699599,0.57689953,0.12627211,0
0.3386364,-1.3524647,4.0148063,0.079679191,-0.31822696,0.94466031,0
-2.5375142,-0.30593538,3.8164999,-0.26622421,0.16452232,0.94976687,0
-3.3187578,-2.8205829,-1.5409862,-0.80699599,-0.57689953,-0.12627211,0
4.5938201,1.1221232,1.1519098,0.80699599,0.57689953,0.12627211,0
-3.5585334,-3.3078382,2.2175269,-0.80699599,-0.57689953,-0.12627211,0
0.91136408,-3.6286168,-2.6308637,0.53535414,-0.62437832,-0.56881255,0
5.8098125,-0.25968075,-0.30636066,0.80699599,0.57689953,0.12627211,0
-0.75347567,2.0923486,3.7782078,-0.38162065,0.34624565,0.85701787,0
3.1480918,-1.1505792,-3.0112576,0.4565717,-0.47385979,-0.75299358,0
1.925117,-0.52768874,4.1499481,0.11627847,-0.36485279,0.92377585,0
-0.25271821,4.6864529,-1.236177,-0.50446445,0.78457564,-0.36049533,0
4.2650142,1.129148,3.2211957,0.80699599,0.57689953,0.12627211,0
-4.0990615,-2.6615007,2.719079,-0.80699599,-0.57689953,-0.12627211,0
-5.5655308,0.17734528,-0.87865722,-0.80699599,-0.57689953,-0.12627211,0
-5.8339806,0.43934202,-0.36000049,-0.80699599,-0.57689953,-0.12627211,0
-0.56029034,1.6337268,-3.8832352,-0.13183296,0.38440627,-0.91370237,0
-0.28803554,5.0094481,0.090553284,-0.57455486,0.81640917,-0.057990491,0
-2.2653856,-4.1765394,-2.0780487,-0.80699599,-0.57689953,-0.12627211,0
4.4641204,1.7388444,-0.83680439,0.80699599,0.57689953,0.12627211,0
1.9005659,4.6124291,2.4181399,0.80699599,0.57689953,0.12627211,0
-3.866035,-1.3423979,3.6229801,-0.25706685,0.1506595,0.95457757,0
2.1434932,-2.7353287,2.4906485,0.41581348,-0.70690012,0.57218122,0
1.69502,-0.78017807,4.0784302,0.1267696,-0.37805858,0.91706115,0
4.6647596,1.1788597,-3.3321877,0.33355284,-0.26881111,-0.90359461,0
-4.4901023,-0.76053762,3.2630019,-0.36338544,0.31653494,0.87621719,0
-3.3573806,-3.0570264,-0.2139101,-0.80699599,-0.57689953,-0.12627211,0
-1.9988273,-5.0845051,0.36661291,-0.80699599,-0.57689953,-0.12627211,0
2.7066684,3.6251059,1.7771802,0.80699599,0.57689953,0.12627211,0
3.5727468,2.8953898,-0.42400765,0.80699599,0.57689953,0.12627211,0
1.0332069,-3.3035774,2.5766058,0.3848891,-0.67595655,0.62844503,0
-1.1802649,-0.95637381,4.0902815,-0.090161264,-0.090956002,0.99176514,0
3.3721418,2.4107418,3.0722539,0.80699599,0.57689953,0.12627211,0
5.1858435,0.64263964,-0.44105372,0.80699599,0.57689953,0.12627211,0
3.0581324,-1.1962938,-3.0369735,0.45481381,-0.47074115,-0.75600743,0
-0.63385582,3.9353213,2.5502257,-0.54424548,0.64350963,0.53823066,0
-5.4076757,-0.6974988,2.109406,-0.80699599,-0.57689953,-0.12627211,0
-2.9751244,-3.484231,-0.70511293,-0.80699599,-0.57689953,-0.12627211,0
-2.4047492,-3.483336,-4.3544283,-0.80699599,-0.57689953,-0.12627211,0
0.34861243,4.9852204,2.2136636,-0.57056236,0.70647496,0.41875035,0
-3.0511639,-3.3510809,-0.82747412,-0.80699599,-0.57689953,-0.12627211,0
5.8771677,-0.64367723,1.0175416,0.80699599,0.57689953,0.12627211,0
-4.2438526,-1.8768554,0.059618831,-0.80699599,-0.57689953,-0.12627211,0
4.0113916,2.0188856,0.77712679,0.80699599,0.57689953,0.12627211,0
-1.4524765,0.1519804,4.0324507,-0.23252439,0.11384916,0.96590412,0
-3.352047,-3.7749801,3.0321221,-0.80699599,-0.57689953,-0.12627211,0
-4.3723173,2.0742774,-0.71248555,-0.56893343,0.81679749,-0.095690489,0
-3.9967184,-2.7475109,2.4579675,-0.80699599,-0.57689953,-0.12627211,0
-2.6929247,-3.534111,-2.2807446,-0.80699599,-0.57689953,-0.12627211,0
-3.3038008,-2.997983,-0.82608533,-0.80699599,-0.57689953,-0.12627211,0
2.4628572,4.0047026,1.6010952,0.80699599,0.57689953,0.12627211,0
-2.7864861,-4.0347538,0.60448313,-0.80699599,-0.57689953,-0.12627211,0
-1.7197132,1.6337463,3.5264654,-0.40463835,0.38441089,0.82975662,0
-4.2583799,-1.8121467,-0.14317334,-0.80699599,-0.57689953,-0.12627211,0
3.5816057,2.7582049,0.14613056,0.80699599,0.57689953,0.12627211,0
4.2617493,1.9139881,-0.34364212,0.80699599,0.57689953,0.12627211,0
-3.988277,-2.3445325,0.56293213,-0.80699599,-0.57689953,-0.12627211,0
2.2936361,-3.4307642,1.0156736,0.53967911,-0.8072387,0.23898196,0
-3.8511925,2.0662339,1.4080033,-0.57613087,0.7221036,0.38293564,0
4.2087483,0.47827744,-3.2769618,0.37155157,-0.32978612,-0.86786556,0
-5.998765,0.56210041,0.13228011,-0.80699599,-0.57689953,-0.12627211,0
-2.7694745,-3.8731961,-0.24234104,-0.80699599,-0.57689953,-0.12627211,0
3.1790833,0.71293545,4.4708824,0.075583816,-0.31295672,0.94675517,0
-3.910944,-2.2418923,-0.40023315,-0.80699599,-0.57689953,-0.12627211,0
3.5905993,3.360512,-2.6631107,0.80699599,0.57689953,0.12627211,0
4.7751012,0.32136488,3.6517773,0.80699599,0.57689953,0.12627211,0
3.1065607,2.5461416,4.1509624,0.80699599,0.57689953,0.12627211,0
-1.0436592,4.4319577,0.78882742,-0.59004432,0.79655594,0.13170552,0
-1.6812605,-5.1199369,-1.5010557,-0.80699599,-0.57689953,-0.12627211,0
5.1386347,1.164259,-2.5224695,0.80699599,0.57689953,0.12627211,0
4.2750936,1.8461566,-0.11902523,0.80699599,0.57689953,0.12627211,0
-2.7270973,-3.5749512,-1.8757632,-0.80699599,-0.57689953,-0.12627211,0
-2.7151778,-1.6028256,-4.6751218,0.06486237,0.12594041,-0.98991525,0
-4.4404078,-1.4152694,-0.79305881,-0.80699599,-0.57689953,-0.12627211,0
-1.7276425,-4.9658918,-1.9084141,-0.80699599,-0.57689953,-0.12627211,0
-0.67215669,4.0463901,-1.9086156,-0.45264679,0.74156719,-0.49516571,0
2.8858438,4.4267645,-3.030457,0.80699599,0.57689953,0.12627211,0
-4.0986719,2.2942417,-0.24272275,-0.58183682,0.81330097,0.0027480125,0
1.2996111,4.339973,-2.7892785,-0.30188668,0.58675784,-0.75138509,0
3.6747482,1.0114994,4.5297222,0.082142055,-0.32139134,0.9433772,0
2.4702494,-0.061326504,4.264957,0.10716844,-0.35332721,0.9293412,0
-5.5117698,0.26272678,-1.612323,-0.80699599,-0.57689953,-0.12627211,0
