4.2046595,4.2420893,1.8351898,0.94165409,0.23267001,-0.24321258,0
3.8701675,3.6736417,-0.0036785901,0.94165409,0.23267001,-0.24321258,0
5.4506388,-3.1150038,0.11813116,0.2948947,-0.91864294,0.26293039,0
-3.7825036,-1.6703756,2.2595212,-0.94165409,-0.23267001,0.24321258,0
3.6792791,2.6638062,-1.7088102,0.94165409,0.23267001,-0.24321258,0
-4.421237,1.2873874,2.6160696,-0.94165409,-0.23267001,0.24321258,0
-3.207227,-2.9843183,3.2298503,-0.94165409,-0.23267001,0.24321258,0
-1.7258098,-1.3319496,5.0501289,0.27842253,-0.13243344,0.95128465,0
-0.16296244,2.4480488,-4.0217538,-0.32797492,0.47192073,-0.81836635,0
3.6759627,4.1524663,-0.29752016,0.94165409,0.23267001,-0.24321258,0
3.3831656,-0.34541106,3.6833506,0.2894485,-0.19100246,0.9379434,0
1.4542203,4.50033,-2.7093129,-0.32038796,0.84106129,-0.43585253,0
4.4103913,-0.15371299,-1.5735276,0.94165409,0.23267001,-0.24321258,0
2.5935557,0.084486246,3.9693601,0.26319528,-0.058600515,0.96296126,0
0.30177045,-4.5131679,-0.46516085,0.20365906,-0.9691745,-0.1386503,0
-2.077646,-3.0828688,4.5524397,0.32948399,-0.4895913,0.80730462,0
0.31257486,-4.3327394,-1.2444537,0.15548527,-0.94157553,-0.29876375,0
-1.2046266,3.1297562,3.2284346,-0.018399835,0.75709879,0.65304148,0
-3.8304358,3.3276968,-1.063149,-0.31255701,0.87258154,-0.37537932,0
0.51715803,2.5111341,3.7021542,0.079174757,0.54919666,0.83193421,0
5.2579298,1.1719279,3.287179,0.2426073,0.031670332,0.96960771,0
-2.2151282,-0.20717216,-4.0751271,-0.25307798,0.013058156,-0.96735787,0
-1.8514814,-5.0800028,0.41163421,0.22167221,-0.9724561,-0.072047472,0
3.7209249,-3.4111781,-2.3550224,0.13990086,-0.92778069,-0.34590566,0
-4.4071369,0.62191057,-3.2763565,-0.30797553,0.30409324,-0.90148681,0
3.2745991,1.7581391,-4.1420312,0.94165409,0.23267001,-0.24321258,0
-2.2498198,3.5783656,2.4304473,-0.10716707,0.89224625,0.43864805,0
-0.90924692,-0.038517773,4.8592086,0.22628856,0.097278357,0.9691906,0
4.6025014,2.8917174,2.0836895,0.94165409,0.23267001,-0.24321258,0
4.9716668,1.6127958,3.3161163,0.21540844,0.13863876,0.96663272,0
-5.5016775,2.8644607,-0.058393478,-0.94165409,-0.23267001,0.24321258,0
-3.2095804,1.502079,4.7216334,0.086367726,0.5313676,0.8427273,0
-4.0031004,0.76225758,3.732615,-0.94165409,-0.23267001,0.24321258,0
-5.2237377,0.84606028,-0.91319513,-0.94165409,-0.23267001,0.24321258,0
2.676919,-0.68250358,-5.050601,-0.15642321,-0.33730218,-0.92830992,0
3.3514423,-0.85781717,-5.0857882,-0.13269711,-0.40743506,-0.9035421,0
4.3978968,-1.6575937,-3.0605981,0.94165409,0.23267001,-0.24321258,0
3.7094748,0.5216279,-3.641222,0.94165409,0.23267001,-0.24321258,0
2.8075542,5.1230383,0.37612987,-0.1596061,0.94485897,0.28595042,0
-3.0116611,-0.39421737,5.3828788,0.21732998,0.1314601,0.96720523,0
3.2628384,3.7449737,-2.2868555,0.94165409,0.23267001,-0.24321258,0
-4.1438909,-0.12833858,2.3355203,-0.94165409,-0.23267001,0.24321258,0
0.18969393,-4.4968023,-0.69373822,0.18840766,-0.96315229,-0.19193876,0
-0.63881862,3.0124905,-3.4101949,-0.3363114,0.62142068,-0.70762348,0
4.0277071,-1.4048193,-4.2520533,0.94165409,0.23267001,-0.24321258,0
3.5248399,0.66291404,-4.2209172,0.94165409,0.23267001,-0.24321258,0
-0.4627471,-3.0844336,-3.2636602,-0.027575731,-0.66683471,-0.74469537,0
5.0987806,0.15803385,1.3899636,0.94165409,0.23267001,-0.24321258,0
3.8652592,-0.55441642,-4.0674677,0.94165409,0.23267001,-0.24321258,0
-3.6892843,-4.6818104,-0.2604568,-0.94165409,-0.23267001,0.24321258,0
3.8541031,3.2402098,2.9017463,0.086949825,0.52990919,0.84358531,0
4.9738955,1.613121,2.2984552,0.94165409,0.23267001,-0.24321258,0
-3.8367982,-3.7087724,0.099269956,-0.94165409,-0.23267001,0.24321258,0
-1.3028984,-4.8447876,1.6243308,0.28574944,-0.93447483,0.21237713,0
-3.8468151,-4.5469131,-0.74132401,-0.94165409,-0.23267001,0.24321258,0
-4.0526948,3.2952473,-0.95254755,-0.31094357,0.87797296,-0.36397469,0
-2.4721098,-3.6735387,4.3050747,0.33572233,-0.59765053,0.72808272,0
-3.1604056,-4.6164083,1.8497863,-0.94165409,-0.23267001,0.24321258,0
-4.8178873,-0.19124746,-0.33419394,-0.94165409,-0.23267001,0.24321258,0
3.9963944,0.5964191,-2.458796,0.94165409,0.23267001,-0.24321258,0
4.9259491,0.57464266,1.1193569,0.94165409,0.23267001,-0.24321258,0
-4.7402825,-1.8817778,-1.6509812,-0.94165409,-0.23267001,0.24321258,0
-4.3572388,1.1136537,-3.0950599,-0.32143432,0.40730429,-0.85485858,0
2.9679525,2.9691672,-4.170752,0.94165409,0.23267001,-0.24321258,0
-0.71465421,-4.8105054,0.34895778,0.2339808,-0.97194731,-0.023905277,0
4.3263688,0.24100518,-1.5212321,0.94165409,0.23267001,-0.24321258,0
5.108839,0.072024345,3.2358062,0.28979111,-0.19290787,0.93744749,0
-4.8220749,0.60543394,0.41174006,-0.94165409,-0.23267001,0.24321258,0
-4.6403866,-0.16976309,0.37359214,-0.94165409,-0.23267001,0.24321258,0
-4.7119627,-0.74699211,-3.4285502,-0.25674659,0.029288143,-0.96603501,0
-4.8236289,-2.0450683,-2.1298871,-0.94165409,-0.23267001,0.24321258,0
2.349978,4.0060134,-3.9386635,-0.3363364,0.67808819,-0.65350926,0
3.0958762,1.5352819,-5.0471959,0.94165409,0.23267001,-0.24321258,0
-3.0000906,-4.4028635,2.6747715,-0.94165409,-0.23267001,0.24321258,0
4.8409719,2.7009344,2.8244731,0.94165409,0.23267001,-0.24321258,0
-2.5860322,3.7837796,-0.98691797,-0.29955509,0.90881807,-0.29037327,0
-3.2024298,-2.6885674,-3.2916343,-0.11724484,-0.45058966,-0.88499886,0
4.4432912,3.551573,2.6408095,0.073342919,0.56338781,0.82293087,0
-0.96921098,-4.5380306,2.2449331,0.3107996,-0.87843931,0.36297107,0
-1.1339649,-4.0256338,3.2514186,0.33292839,-0.75005937,0.57146281,0
0.22220659,-4.0527406,-1.9600933,0.10315609,-0.88732153,-0.44946581,0
-4.1347799,0.8666575,3.3226628,-0.94165409,-0.23267001,0.24321258,0
-4.7866011,0.34145498,0.29654837,-0.94165409,-0.23267001,0.24321258,0
0.61262274,3.4827232,2.8672678,-0.0082168579,0.73827034,0.67445505,0
-3.3199189,-3.3030486,-2.9109221,-0.070909142,-0.56924111,-0.81910729,0
3.8264804,-2.9935362,1.6941619,0.32830262,-0.79421598,0.51131064,0
-3.8946602,-4.6068583,-0.98391378,-0.94165409,-0.23267001,0.24321258,0
4.8186727,-0.40035248,-0.22872114,0.94165409,0.23267001,-0.24321258,0
-3.6143112,3.7286272,1.0113964,-0.22105497,0.97241926,0.074402153,0
4.3931966,-1.4005256,-2.8328695,0.94165409,0.23267001,-0.24321258,0
-0.91681051,4.2805462,1.0494859,-0.17807841,0.9575721,0.22659236,0
-4.7754469,-1.6714044,-3.3501825,-0.20934892,-0.16093966,-0.96450597,0
3.8375092,0.95080662,-2.7349317,0.94165409,0.23267001,-0.24321258,0
3.0748017,-0.54452658,3.736146,0.29406673,-0.21717754,0.93078399,0
-4.0093446,-3.7368727,-0.59566712,-0.94165409,-0.23267001,0.24321258,0
-3.8574555,2.6392269,3.7121444,-0.036684275,0.78923625,0.61299324,0
1.8631682,5.0742011,-1.2049856,-0.26147223,0.96069098,-0.093302429,0
3.0631499,3.0299354,-3.7440386,0.94165409,0.23267001,-0.24321258,0
-4.5456886,1.1742504,2.0259943,-0.94165409,-0.23267001,0.24321258,0
1.9822536,0.77543354,4.1013265,0.22088134,0.11805353,0.96812963,0
1.1719948,-3.7044818,2.2919278,0.32651272,-0.80689335,0.49225265,0
3.634423,1.2178764,-3.2657325,0.94165409,0.23267001,-0.24321258,0
-4.0240474,-2.3817546,0.64378488,-0.94165409,-0.23267001,0.24321258,0
4.1182299,4.1038542,1.3683134,0.94165409,0.23267001,-0.24321258,0
-2.6925957,-4.2407336,-2.0420485,0.034757733,-0.78595173,-0.61731029,0
1.8461623,-3.0835395,-3.2592916,0.03072989,-0.77900732,-0.62626153,0
3.6987016,4.2362223,-0.12935585,0.94165409,0.23267001,-0.24321258,0
-5.5344162,2.15448,-0.86435461,-0.94165409,-0.23267001,0.24321258,0
-2.0850906,-0.24547362,-4.1091251,-0.24966973,-0.0017513335,-0.96832955,0
-4.185401,-2.9280858,-0.50358224,-0.94165409,-0.23267001,0.24321258,0
2.0782835,-1.6618422,3.690743,0.32106811,-0.40408123,0.85652417,0
-0.19257379,-4.4319019,-1.1925261,0.15023893,-0.93717116,-0.31486285,0
-3.1284637,-1.0566404,5.3789196,-0.94165409,-0.23267001,0.24321258,0
0.037328243,4.6128778,0.25491881,-0.21067697,0.97097892,0.11320525,0
4.2059741,3.4299178,1.063314,0.94165409,0.23267001,-0.24321258,0
3.2943969,-1.7891355,-4.5329628,-0.060654283,-0.59346163,-0.80257374,0
0.9947257,-3.0588274,-3.3114624,0.0054365396,-0.73301464,-0.6801914,0
-2.9907532,-3.2213633,3.8412085,-0.94165409,-0.23267001,0.24321258,0
-2.0004339,-1.9097638,-3.8158929,-0.15158439,-0.35200644,-0.92364168,0
3.3301449,1.8994777,-3.7917628,0.94165409,0.23267001,-0.24321258,0
-1.0837874,0.4092004,4.8287635,0.19854677,0.19950038,0.95957232,0
3.9374616,1.7422771,-1.5907812,0.94165409,0.23267001,-0.24321258,0
4.8366685,-3.3811836,-0.23568344,0.27439064,-0.94914824,0.15436143,0
-0.10179806,-2.1789901,4.2638998,0.32053339,-0.39943102,0.85890239,0
3.5438533,3.6570282,-1.2829746,0.94165409,0.23267001,-0.24321258,0
-3.9670148,-4.3190017,-0.98867315,-0.94165409,-0.23267001,0.24321258,0
-3.9072247,-3.6498985,-2.611486,-0.053567767,-0.60978609,-0.79075384,0
3.2443254,5.2395253,0.23469639,-0.16147989,0.94629967,0.28007364,0
-1.6313126,3.6400023,2.447226,-0.093743086,0.87529898,0.47440922,0
4.0489893,3.7696111,0.78047991,0.94165409,0.23267001,-0.24321258,0
2.4977374,-1.9924994,-4.3223705,-0.060091019,-0.59477121,-0.80164605,0
2.9795094,-0.13461483,-5.273881,-0.18684459,-0.23968038,-0.95270288,0
-2.6442528,-5.1914344,0.01055336,0.18672699,-0.96232355,-0.19765282,0
-5.0354538,0.75804901,-0.26840639,-0.94165409,-0.23267001,0.24321258,0
3.2789478,-0.65526402,-5.1601086,-0.14816654,-0.3622649,-0.92022324,0
-2.3141694,2.6284182,3.7614446,0.0052032471,0.71244526,0.70170856,0
3.737124,2.126446,3.442735,0.16576445,0.30830339,0.9367345,0
-2.5036216,2.3941355,-3.0603182,-0.335345,0.58664,-0.73715484,0
4.3352566,-3.4870017,-1.6884542,0.19298255,-0.96524656,-0.17622942,0
-3.3815579,-0.66921985,4.7696342,-0.94165409,-0.23267001,0.24321258,0
-4.8039818,-1.9704351,-1.9824219,-0.94165409,-0.23267001,0.24321258,0
3.7184422,1.9833798,-2.2081127,0.94165409,0.23267001,-0.24321258,0
4.6352348,2.3479886,1.6902652,0.94165409,0.23267001,-0.24321258,0
-4.8698111,-2.7615929,-2.9941609,-0.94165409,-0.23267001,0.24321258,0
3.6478143,-3.4469686,0.92655754,0.30681491,-0.89047778,0.33602691,0
-4.4404879,-1.0485392,0.30686569,-0.94165409,-0.23267001,0.24321258,0
-2.0865264,3.4165597,-2.1542373,-0.32851025,0.79263234,-0.51362938,0
-3.0198355,-2.0522742,4.847023,-0.94165409,-0.23267001,0.24321258,0
2.6980877,4.3761578,1.8619595,-0.050378442,0.81188482,0.58164024,0
-3.4290104,-5.0603018,0.38516915,-0.94165409,-0.23267001,0.24321258,0
2.6495843,3.1876495,3.0486929,0.066663742,0.57935458,0.81234509,0
-2.8451807,3.8868155,1.1073065,-0.20451266,0.969428,0.13558793,0
3.7625635,-3.4124222,-2.3345194,0.14205319,-0.92981195,-0.33951557,0
4.1268177,-1.8268411,-4.2720528,0.94165409,0.23267001,-0.24321258,0
-3.1623802,-2.0897694,4.2592583,-0.94165409,-0.23267001,0.24321258,0
-3.890825,-2.0313818,-3.4447193,-0.17436314,-0.2808632,-0.94377625,0
-1.5873046,2.7697992,3.6120994,0.0090179443,0.7048949,0.70925456,0
-3.8846142,2.3197541,4.0846386,-0.0028560162,0.72809201,0.6854735,0
5.6023936,-2.2427812,1.0430722,0.94165409,0.23267001,-0.24321258,0
2.5450325,-4.0063286,-0.33999538,0.24182662,-0.97028601,0.0080607533,0
4.5986767,1.7218986,3.3791504,0.2039144,0.18052381,0.96220064,0
4.0946631,2.3665097,-0.384965,0.94165409,0.23267001,-0.24321258,0
-4.2097883,-2.7014954,-0.38123304,-0.94165409,-0.23267001,0.24321258,0
5.0745101,0.13418245,1.2731786,0.94165409,0.23267001,-0.24321258,0
1.058077,-4.2351227,1.1238585,0.29003301,-0.92757213,0.23556525,0
1.8260072,4.2581816,-3.3473058,-0.33170846,0.76403934,-0.55336565,0
0.84900236,1.0366992,4.295867,0.18953216,0.23059136,0.95441359,0
-0.27577949,-4.6685472,0.91636205,0.26699525,-0.95634139,0.11884725,0
-0.18434572,-1.3655664,4.5742207,0.29464501,-0.22053441,0.92981136,0
-4.4532881,3.1399696,2.7692075,-0.12405419,0.91164052,0.39181924,0
-2.606739,-3.3125799,4.627202,0.33115312,-0.51117432,0.79311955,0
-5.3649182,1.9656291,-0.38876963,-0.94165409,-0.23267001,0.24321258,0
-1.1797827,-4.1398954,3.1222343,0.3307634,-0.77346998,0.54068458,0
2.957854,4.1291637,2.1867633,-0.01528275,0.75140554,0.65966386,0
4.3341641,0.64729929,-1.1023684,0.94165409,0.23267001,-0.24321258,0
3.9415741,2.0144079,-1.3145226,0.94165409,0.23267001,-0.24321258,0
5.4791718,-0.48454332,2.2480118,0.94165409,0.23267001,-0.24321258,0
3.691417,2.1801081,-2.1245465,0.94165409,0.23267001,-0.24321258,0
1.4179878,-0.73561203,4.2092619,0.28573859,-0.17072621,0.94297731,0
3.8798532,2.0186739,-1.5494087,0.94165409,0.23267001,-0.24321258,0
2.9435389,5.0860229,-2.2401781,0.94165409,0.23267001,-0.24321258,0
-4.524714,1.218684,2.1497095,-0.94165409,-0.23267001,0.24321258,0
4.9942527,0.38553762,1.2029018,0.94165409,0.23267001,-0.24321258,0
0.64505672,3.2433522,3.1114264,0.016680241,0.68944758,0.72414368,0
-5.5422678,-0.16451979,-3.1132329,-0.94165409,-0.23267001,0.24321258,0
-3.9068124,-1.1620152,2.2645552,-0.94165409,-0.23267001,0.24321258,0
-4.6849608,-3.1403971,-2.6408525,-0.94165409,-0.23267001,0.24321258,0
-2.9132123,-5.1536732,2.292877,-0.94165409,-0.23267001,0.24321258,0
-2.3357809,3.8504095,-1.036448,-0.29901981,0.91001612,-0.28715485,0
0.075888157,0.27176315,-4.6672072,-0.24885297,-0.0052632987,-0.96852708,0
-1.2821069,-4.6378574,-1.0881002,0.13815206,-0.92610151,-0.35107023,0
-1.9353206,4.1168194,0.83407211,-0.20671117,0.97003806,0.12765938,0
-3.9384511,-3.7268918,-0.31163758,-0.94165409,-0.23267001,0.24321258,0
0.83594489,-1.6503717,4.1465497,0.31243151,-0.33545187,0.88873994,0
4.8303275,-0.62477255,-0.39828873,0.94165409,0.23267001,-0.24321258,0
-0.1316123,0.036451221,-4.6089463,-0.2396549,-0.043888628,-0.96986568,0
-2.4391387,2.8154461,3.5580139,-0.017402172,0.75528336,0.65516746,0
3.1047974,-1.8509214,3.1840088,0.33032688,-0.50017512,0.80044311,0
2.9606202,-2.3708954,-4.0250473,-0.014882684,-0.69310516,-0.72068304,0
4.5620842,2.6659942,1.7112656,0.94165409,0.23267001,-0.24321258,0
-4.1930251,-1.3144467,1.0105926,-0.94165409,-0.23267001,0.24321258,0
0.05244422,4.3045607,1.4815331,-0.1328581,0.92086196,0.3665545,0
1.4090176,4.8840842,-1.5923343,-0.28336281,0.93797052,-0.19979239,0
-3.8350387,-1.9218252,1.8155695,-0.94165409,-0.23267001,0.24321258,0
3.748455,3.7475212,-0.40424001,0.94165409,0.23267001,-0.24321258,0
1.081759,-1.9577384,-4.2154517,-0.091989279,-0.51717967,-0.85091913,0
-3.7051771,-5.0011916,-0.98854458,0.099907815,-0.88324577,-0.45814365,0
4.7957096,-2.8411498,-2.6526222,0.94165409,0.23267001,-0.24321258,0
-4.0331511,3.1675551,-1.2468362,-0.31921208,0.84648091,-0.42611486,0
-4.8511825,2.5116107,2.1225944,-0.94165409,-0.23267001,0.24321258,0
4.4686241,0.9425559,-0.29931736,0.94165409,0.23267001,-0.24321258,0
0.54561138,-3.4077382,-2.9198337,0.031049371,-0.77956176,-0.62555546,0
4.0688596,-3.6094732,-0.33753014,0.2609925,-0.96103078,0.091120124,0
-2.7982187,1.8949156,4.4171915,0.062103391,0.59008217,0.80495119,0
4.10146,-0.15396976,-2.7698746,0.94165409,0.23267001,-0.24321258,0
4.0033021,4.1185346,2.20028,0.01224184,0.69844103,0.71556312,0
3.2206194,2.3697066,-3.7659688,0.94165409,0.23267001,-0.24321258,0
-4.0367751,-0.78128076,2.1256049,-0.94165409,-0.23267001,0.24321258,0
-3.9666588,-3.8857968,-0.57286793,-0.94165409,-0.23267001,0.24321258,0
-3.9841046,1.9765558,-2.7184856,-0.33488807,0.57524782,-0.74628407,0
3.7530403,0.27703428,-3.7065396,0.94165409,0.23267001,-0.24321258,0
-2.7662215,-5.04386,2.5508182,0.30575511,-0.89342177,0.32910717,0
-4.1777148,-1.2522748,1.1293476,-0.94165409,-0.23267001,0.24321258,0
-5.2042694,-1.5155821,-3.2756217,-0.22393632,-0.10637105,-0.96878171,0
-3.4693184,-2.8711281,2.3233876,-0.94165409,-0.23267001,0.24321258,0
-4.012239,-0.84915352,2.1556704,-0.94165409,-0.23267001,0.24321258,0
0.010517836,-2.2949796,4.1647696,0.32396311,-0.43052608,0.84243417,0
4.8733096,-2.5986183,-2.1201591,0.94165409,0.23267001,-0.24321258,0
-0.60823011,1.9125583,4.187602,0.1046927,0.4842779,0.86862803,0
2.9886527,2.8177555,-4.2354546,0.94165409,0.23267001,-0.24321258,0
-1.2748203,-1.15131,4.9427347,0.2755155,-0.11777246,0.95405501,0
4.1208744,3.2673392,0.57829833,0.94165409,0.23267001,-0.24321258,0
3.2180862,-0.126351,-5.3224564,-0.18371296,-0.25016993,-0.95061284,0
3.8940816,4.7345161,1.1037967,0.94165409,0.23267001,-0.24321258,0
2.7753954,3.6196964,-4.2939506,0.94165409,0.23267001,-0.24321258,0
-1.0840364,-2.7877066,-3.4623702,-0.067776799,-0.57671469,-0.81412947,0
5.4152207,-1.1296334,1.3832846,0.94165409,0.23267001,-0.24321258,0
3.8393729,-0.75062323,-4.3553958,0.94165409,0.23267001,-0.24321258,0
-3.8719172,-4.3456278,-0.64595336,-0.94165409,-0.23267001,0.24321258,0
4.2065039,-1.2747903,-3.4354064,0.94165409,0.23267001,-0.24321258,0
3.2262385,-2.3988969,-4.0012364,-0.005620718,-0.71162361,-0.70253861,0
-2.6855381,-3.4575238,4.5635004,0.3329843,-0.53860486,0.77396798,0
-1.4943604,2.467268,3.8846393,0.039957881,0.64020735,0.76716238,0
3.0815253,4.0760417,-2.6721332,0.94165409,0.23267001,-0.24321258,0
3.1789954,1.3288743,-4.9228406,0.94165409,0.23267001,-0.24321258,0
-1.4610505,3.9263811,1.8829966,-0.13211566,0.92010868,0.36870825,0
-3.1121855,-1.1958706,5.3087502,-0.94165409,-0.23267001,0.24321258,0
-3.2216079,2.9433444,3.3487742,-0.053977013,0.81763196,0.57320565,0
1.0942926,-2.3996964,-3.9143481,-0.054831505,-0.60689944,-0.79288501,0
4.0666189,4.5565147,1.6015302,0.94165409,0.23267001,-0.24321258,0
2.3721666,-3.086129,2.4391778,0.33411503,-0.73350239,0.59189647,0
-4.4876599,2.600266,3.6148679,-0.94165409,-0.23267001,0.24321258,0
-4.3570118,1.2355416,2.8151345,-0.94165409,-0.23267001,0.24321258,0
3.9842596,2.6311035,-0.55929267,0.94165409,0.23267001,-0.24321258,0
-1.9768515,-0.37902313,5.1420159,0.23038328,0.081242383,0.96970278,0
4.3665991,-0.52514172,-2.098408,0.94165409,0.23267001,-0.24321258,0
4.8352346,2.1064272,2.2335215,0.94165409,0.23267001,-0.24321258,0
0.71668863,4.3066497,1.6737862,-0.10645288,0.89137816,0.44058251,0
3.2320724,-3.6369698,0.77925825,0.29810271,-0.91202533,0.28168195,0
-3.7684112,-5.0224047,-0.89264536,-0.94165409,-0.23267001,0.24321258,0
-2.2452767,-2.8119321,4.7677927,0.32303274,-0.42177287,0.84720576,0
-3.4777079,-3.0346775,2.1344438,-0.94165409,-0.23267001,0.24321258,0
3.4450667,1.4401577,-3.7862263,0.94165409,0.23267001,-0.24321258,0
-3.9326267,-2.1109798,1.25678,-0.94165409,-0.23267001,0.24321258,0
5.0456867,-2.8489537,-1.692246,0.94165409,0.23267001,-0.24321258,0
1.592715,-1.9257271,3.7449558,0.32445097,-0.43522474,0.83982807,0
0.53525734,-2.7532365,3.6661172,0.33410653,-0.558667,0.75912058,0
3.4211905,0.7094878,-4.5776644,0.94165409,0.23267001,-0.24321258,0
4.3088617,0.99082661,-0.8716979,0.94165409,0.23267001,-0.24321258,0
-1.2883666,4.1639357,1.2455053,-0.17177874,0.95361674,0.2471993,0
-3.7217624,-1.5536804,2.6063306,-0.94165409,-0.23267001,0.24321258,0
3.9405434,2.665673,-0.69547904,0.94165409,0.23267001,-0.24321258,0
4.4167428,-1.3000379,-2.6455717,0.94165409,0.23267001,-0.24321258,0
-2.0581686,3.5768673,2.4776528,-0.099866807,0.88319385,0.45825267,0
-5.5355453,2.5277057,-0.51168013,-0.94165409,-0.23267001,0.24321258,0
-5.0271397,0.54534149,-3.0895777,-0.3103503,0.32053438,-0.89495277,0
-2.5368814,3.086916,-2.3443904,-0.33347595,0.74287933,-0.58045179,0
3.6883767,-0.6438098,-4.8378286,0.94165409,0.23267001,-0.24321258,0
3.1348681,3.4852226,-3.0308132,0.94165409,0.23267001,-0.24321258,0
2.8083284,4.6248779,1.4966928,-0.078302503,0.8542031,0.51400942,0
-1.7638948,3.2921383,-2.5257273,-0.33323675,0.74610019,-0.57644427,0
-5.4756074,2.5935855,-0.21659231,-0.94165409,-0.23267001,0.24321258,0
-2.2319043,-4.8157325,-0.98586845,0.12810409,-0.91596031,-0.38027138,0
3.7872472,-0.024181604,-3.8622582,0.94165409,0.23267001,-0.24321258,0
-4.0764484,-1.3290555,1.4479713,-0.94165409,-0.23267001,0.24321258,0
4.8828115,-2.8005397,-2.2765369,0.94165409,0.23267001,-0.24321258,0
5.4647479,-0.47281456,2.2033865,0.94165409,0.23267001,-0.24321258,0
-4.2557893,-1.3514555,0.73218215,-0.94165409,-0.23267001,0.24321258,0
3.4354033,1.1157086,-4.1340246,0.94165409,0.23267001,-0.24321258,0
4.6903882,1.9895501,1.5609035,0.94165409,0.23267001,-0.24321258,0
5.673924,-2.5982046,0.98000145,0.94165409,0.23267001,-0.24321258,0
-4.4433637,-0.32654428,-3.4733715,-0.27273631,0.10402191,-0.95644891,0
4.7361169,1.1558084,0.94035196,0.94165409,0.23267001,-0.24321258,0
1.9964309,-2.7525663,-3.6324396,-0.00059235096,-0.721448,-0.6924684,0
-0.43197203,-1.2252864,-4.3233571,-0.1712507,-0.29088077,-0.9413085,0
-3.7389963,1.6492488,4.6698313,0.063237906,0.58742619,0.80680341,0
-0.92830133,2.8955142,3.4784009,0.012683153,0.69755274,0.71642137,0
-2.9852796,-2.7686017,4.2955375,-0.94165409,-0.23267001,0.24321258,0
5.4776783,-3.0541978,-0.21603823,0.94165409,0.23267001,-0.24321258,0
-5.1537442,1.3420262,-2.6564429,-0.33028245,0.49960202,-0.80081922,0
-3.8408253,0.7316041,4.3315763,-0.94165409,-0.23267001,0.24321258,0
-2.0316093,-4.3496308,3.3433042,0.33078119,-0.77330118,0.54091519,0
1.8361818,3.6681123,-4.0101852,-0.33645964,0.63118011,-0.698861,0
2.3748426,-0.45790064,-5.0704894,-0.17597568,-0.275635,-0.94501752,0
4.7612915,0.29362345,0.2130084,0.94165409,0.23267001,-0.24321258,0
-5.3096123,3.1027868,0.91322708,-0.94165409,-0.23267001,0.24321258,0
4.4955997,-2.9186528,1.3744283,0.32522938,-0.81507462,0.47945732,0
1.4261496,-4.2098894,-0.91439152,0.19433635,-0.96582019,-0.17153633,0
2.9518528,3.6904559,-3.5430613,0.94165409,0.23267001,-0.24321258,0
-0.63301444,4.1782994,1.5463209,-0.14066988,0.92851108,0.34362698,0
2.7195382,-2.8734784,2.4993885,0.33557099,-0.70496041,0.62483835,0
-3.6675708,-4.7143726,-0.2075392,-0.94165409,-0.23267001,0.24321258,0
4.0677137,-3.3147748,0.89147139,0.30916408,-0.88357687,0.35172379,0
4.578826,-0.018866539,3.380753,0.28825021,-0.1843845,0.93963522,0
5.3649368,-2.137804,0.22413158,0.94165409,0.23267001,-0.24321258,0
0.60584354,4.1271138,1.9867656,-0.084573507,0.86297369,0.49812037,0
3.1332922,3.8656058,2.4616578,0.015956521,0.69092286,0.72275245,0
-3.596344,-4.1978745,0.56234246,-0.94165409,-0.23267001,0.24321258,0
-3.6177094,-4.5343161,0.15776253,-0.94165409,-0.23267001,0.24321258,0
-5.1014786,2.8338387,1.4617739,-0.94165409,-0.23267001,0.24321258,0
3.0246131,-0.92296505,3.6468949,0.30668616,-0.2954011,0.90481037,0
4.9541268,-2.9600084,-2.1529808,0.94165409,0.23267001,-0.24321258,0
-3.8432875,0.62618256,-3.4651201,-0.30359554,0.27516505,-0.91220295,0
-0.46983099,-0.10969329,-4.5183363,-0.23644263,-0.057000548,-0.96997213,0
3.2307193,1.0748963,-4.965549,0.94165409,0.23267001,-0.24321258,0
4.431952,2.1345069,0.69897974,0.94165409,0.23267001,-0.24321258,0
4.5523853,-2.3359413,-3.1114018,0.94165409,0.23267001,-0.24321258,0
-0.27708006,1.4570401,4.3606787,0.14401615,0.37458503,0.91593969,0
-1.1154333,-4.901721,0.2738924,0.22451198,-0.97255135,-0.061143994,0
2.5420728,-1.8634501,-4.4188271,-0.070166945,-0.57101774,-0.81793362,0
-0.57428837,0.4000541,-4.4917545,-0.26253802,0.055564404,-0.96332061,0
3.6354389,4.7576818,1.3984406,-0.068946302,0.84061193,0.5372321,0
-4.8795509,1.01773,0.58363247,-0.94165409,-0.23267001,0.24321258,0
3.5436494,-0.20338869,-4.9768424,0.94165409,0.23267001,-0.24321258,0
-3.981051,-2.3268044,0.86282539,-0.94165409,-0.23267001,0.24321258,0
-1.5146142,2.9193776,-3.0713487,-0.33658093,0.64875054,-0.68252188,0
0.14412284,4.3225555,1.4695115,-0.13203794,0.92002946,0.36893326,0
-4.4106774,1.7343616,3.084553,-0.94165409,-0.23267001,0.24321258,0
3.4120131,3.5130558,-1.9311548,0.94165409,0.23267001,-0.24321258,0
1.7532619,-4.103941,0.7698617,0.28313112,-0.93829721,0.19858295,0
-0.13615584,4.3736954,1.2071655,-0.15493572,0.94112599,0.30046147,0
-3.8078375,0.16497397,3.9172282,-0.94165409,-0.23267001,0.24321258,0
0.86257124,0.15519816,-4.8582449,-0.23309571,-0.070468396,-0.96989739,0
3.5165715,2.5119922,-2.4840035,0.94165409,0.23267001,-0.24321258,0
0.46117377,4.7486019,-0.47733569,-0.24388194,0.96966273,-0.016614735,0
-3.0360942,-2.8712821,4.000567,-0.94165409,-0.23267001,0.24321258,0
5.171402,0.87314653,2.3552475,0.94165409,0.23267001,-0.24321258,0
-0.56505132,-2.6735961,4.1830754,0.32883874,-0.48185501,0.81220746,0
-3.7501159,0.074625015,4.0542784,-0.94165409,-0.23267001,0.24321258,0
4.7302823,-0.92746186,-1.0752063,0.94165409,0.23267001,-0.24321258,0
-2.7546127,-5.0409756,-0.60041118,0.14552891,-0.93300813,-0.32911611,0
-5.3590899,1.3212132,-0.98268461,-0.94165409,-0.23267001,0.24321258,0
-4.2626238,-1.0967851,0.94935191,-0.94165409,-0.23267001,0.24321258,0
0.10318613,3.0445623,3.312099,0.022930264,0.6765694,0.736022,0
-1.2847229,-4.3188157,2.9144239,0.32625645,-0.80858159,0.48964548,0
-4.1300888,-2.9933326,-0.35184619,-0.94165409,-0.23267001,0.24321258,0
-5.0713978,-0.46901703,-1.5814478,-0.94165409,-0.23267001,0.24321258,0
-4.4980369,-0.43073416,0.67507577,-0.94165409,-0.23267001,0.24321258,0
3.304832,0.70439947,-5.033042,0.94165409,0.23267001,-0.24321258,0
-3.9305515,-3.7844596,-0.33612502,-0.94165409,-0.23267001,0.24321258,0
-0.80381167,4.4291487,-0.33579969,-0.25297129,0.96588528,-0.055419803,0
-2.1126416,3.1541235,3.1505136,-0.046411276,0.80544984,0.59084404,0
-5.5993919,2.6468728,-0.64487553,-0.94165409,-0.23267001,0.24321258,0
0.86446905,0.083509326,4.4220247,0.24275088,0.031071723,0.96959102,0
2.35535,3.5708706,-4.3341455,-0.33514264,0.58138984,-0.74139416,0
-2.2005045,0.2533133,-4.0497952,-0.27384049,0.10945511,-0.95552659,0
-2.5325875,-3.9664178,-2.3611703,0.0091888905,-0.74009615,-0.67243838,0
4.093636,4.5376282,1.6880643,0.94165409,0.23267001,-0.24321258,0
-4.1637936,-0.68419528,1.7267017,-0.94165409,-0.23267001,0.24321258,0
-1.7551191,-4.5491924,2.8354559,0.3216117,-0.83509541,0.44629776,0
0.062297344,2.7753861,-3.9093604,-0.33252111,0.53117037,-0.77928686,0
-0.18581372,-4.2263784,2.3036458,0.31833613,-0.85033596,0.41903573,0
0.063177586,4.1972151,1.7340119,-0.11451179,0.90095097,0.41853857,0
-1.9613547,-3.9850705,3.7583394,0.33592299,-0.69487494,0.63584954,0
-3.0606875,-4.504427,2.3429961,-0.94165409,-0.23267001,0.24321258,0
-0.63571501,0.88227081,-4.419497,-0.28388494,0.16082197,-0.94527555,0
5.0156374,-1.5944357,-0.60844946,0.94165409,0.23267001,-0.24321258,0
0.060896873,-0.89758128,-4.509335,-0.18426299,-0.24833512,-0.9509874,0
-3.0597706,-3.0303881,3.7566895,-0.94165409,-0.23267001,0.24321258,0
4.844244,1.0391855,1.2474234,0.94165409,0.23267001,-0.24321258,0
3.0168543,-1.8107544,-4.4955845,-0.064686537,-0.58402282,-0.80915588,0
-1.8832278,-3.92465,3.7824562,0.33617544,-0.6856755,0.64562786,0
-0.00077557564,-3.8723722,2.7833228,0.33017132,-0.77890366,0.5331943,0
-4.2979846,1.8638802,-2.6641967,-0.33454114,0.56752926,-0.752325,0
-4.7951813,-2.0967808,-2.0692163,-0.94165409,-0.23267001,0.24321258,0
0.06677103,-2.7765131,-3.5518048,-0.04390192,-0.63151675,-0.77411854,0
-5.3714805,0.66365623,-1.6597135,-0.94165409,-0.23267001,0.24321258,0
0.9328227,-2.3775992,3.7512136,0.33015728,-0.49799746,0.80186951,0
-0.26749229,1.6533556,4.2739844,0.13028717,0.41429204,0.90077049,0
-4.4568157,-1.7417994,-0.41956341,-0.94165409,-0.23267001,0.24321258,0
3.7487671,1.9571259,-2.1158195,0.94165409,0.23267001,-0.24321258,0
-5.4135284,2.0440445,-0.50195742,-0.94165409,-0.23267001,0.24321258,0
2.5760067,-0.93019795,3.7951741,0.30329114,-0.27321514,0.91288996,0
-3.8879771,-2.426652,1.1276613,-0.94165409,-0.23267001,0.24321258,0
-3.1498735,-1.6925325,4.6876988,-0.94165409,-0.23267001,0.24321258,0
-1.7319093,-0.98698318,5.0863857,0.26331854,-0.05917123,0.96289265,0
4.1673594,3.3958185,0.88118768,0.94165409,0.23267001,-0.24321258,0
3.5402801,-0.14266324,-4.9317932,0.94165409,0.23267001,-0.24321258,0
-1.2075706,1.9944358,4.206007,0.086554527,0.53089982,0.84300292,0
-3.5226359,2.5991971,-2.3752787,-0.33611852,0.68797034,-0.64321166,0
-3.4860082,-5.0865817,0.1393497,-0.94165409,-0.23267001,0.24321258,0
3.8970046,-2.2652164,-4.141717,-0.0023924112,-0.71794969,-0.69609106,0
1.8722949,2.2331419,-4.8776131,-0.30983174,0.31689432,-0.89642757,0
-3.2893221,-5.3609791,0.22800207,0.18980896,-0.96381903,-0.18715125,0
-5.3592334,1.023735,-1.2678242,-0.94165409,-0.23267001,0.24321258,0
-2.8488398,1.8216151,4.4741402,0.067296147,0.57785577,0.81335986,0
-3.7187929,-0.19728041,3.9154325,-0.94165409,-0.23267001,0.24321258,0
4.4650059,-2.0226722,-3.1500192,0.94165409,0.23267001,-0.24321258,0
1.4481378,-1.950664,-4.2582326,-0.085287333,-0.53406876,-0.84112829,0
4.5039082,0.93274355,-0.17209411,0.94165409,0.23267001,-0.24321258,0
3.2877331,1.3661978,-4.4661326,0.94165409,0.23267001,-0.24321258,0
-5.2970839,2.1580191,0.057919502,-0.94165409,-0.23267001,0.24321258,0
-4.6169071,-0.68482208,-0.028233767,-0.94165409,-0.23267001,0.24321258,0
0.87418365,-4.2721262,-1.1157312,0.17322385,-0.9545598,-0.24250621,0
1.0209241,0.42754507,4.3617568,0.22687209,0.095010072,0.96927929,0
4.6596818,2.663116,2.0863855,0.94165409,0.23267001,-0.24321258,0
-0.97362614,-4.6019435,2.0850778,0.3056646,-0.89366859,0.32852054,0
-2.7127099,3.9109015,1.1322026,-0.2010833,0.96835399,0.147838,0
3.4118381,-1.2375569,3.3896327,0.31865835,-0.38361409,0.86677408,0
5.0065155,0.049381256,0.92879605,0.94165409,0.23267001,-0.24321258,0
2.334327,-4.017314,0.29085207,0.26916325,-0.95440334,0.12909484,0
-3.9603989,-0.89941621,2.3082986,-0.94165409,-0.23267001,0.24321258,0
3.4187818,5.2565279,-0.23705149,0.94165409,0.23267001,-0.24321258,0
-3.8228073,3.3897638,-0.91787481,-0.30799338,0.88708299,-0.34383702,0
-1.0625479,-4.8693457,0.037608862,0.21224171,-0.97129232,-0.10744673,0
0.14969921,-0.37773919,4.6069779,0.25662673,-0.028752834,0.96608305,0
0.78706169,-1.9506748,4.0383525,0.32031536,-0.39755377,0.85985416,0
-5.4058666,0.5682106,-1.884156,-0.94165409,-0.23267001,0.24321258,0
5.203053,0.69210625,2.304601,0.94165409,0.23267001,-0.24321258,0
-4.4757457,-2.5223899,-1.2396088,-0.94165409,-0.23267001,0.24321258,0
3.1003518,2.0392017,-4.5477915,0.94165409,0.23267001,-0.24321258,0
-4.4322147,3.4476132,1.7941113,-0.18812847,0.96301675,0.19289005,0
3.7768593,3.767117,-0.27552062,0.94165409,0.23267001,-0.24321258,0
5.2060094,-0.36292315,1.306751,0.94165409,0.23267001,-0.24321258,0
3.5581803,3.3545325,2.8545079,0.071529627,0.56775272,0.82008576,0
-2.8351326,-2.7472606,4.8972821,-0.94165409,-0.23267001,0.24321258,0
4.812675,-2.1355782,-1.9119525,0.94165409,0.23267001,-0.24321258,0
4.2693963,4.1842709,2.0305228,0.94165409,0.23267001,-0.24321258,0
5.3356376,0.078338146,2.2307673,0.94165409,0.23267001,-0.24321258,0
5.2219243,0.75682878,2.4395812,0.94165409,0.23267001,-0.24321258,0
-3.7366445,-3.0214448,1.1445706,-0.94165409,-0.23267001,0.24321258,0
2.9543173,2.1139083,-5.041729,0.94165409,0.23267001,-0.24321258,0
-0.68849421,0.13379431,4.7888694,0.21987689,0.1218645,0.96788597,0
2.5124292,5.2522178,-1.1177797,-0.249356,0.96759415,-0.03978771,0
3.0241494,4.5896959,-2.4028885,0.94165409,0.23267001,-0.24321258,0
-2.337496,-0.30257297,-4.0439396,-0.24992645,-0.00064438581,-0.96826464,0
0.6507597,2.5306377,3.6765325,0.080284715,0.54646921,0.83362216,0
-0.73301315,4.2631354,1.2403104,-0.16289186,0.94736344,0.27562457,0
-3.2357743,3.0852447,3.1330788,-0.072220027,0.84543562,0.52917212,0
5.4180441,-3.2190216,-0.2799964,0.27887625,-0.9439261,0.17672426,0
-4.1266437,0.046191931,2.569262,-0.94165409,-0.23267001,0.24321258,0
-0.6471653,4.436223,0.49280715,-0.20720118,0.97016537,0.12588435,0
-0.99191976,1.2622325,-4.2216311,-0.30128169,0.26051784,-0.91725665,0
3.9734268,-1.3602579,3.1181717,0.32495463,-0.44016096,0.8370561,0
-2.421073,-5.1080847,-0.1755023,0.17881835,-0.95800978,-0.22414613,0
-5.2980237,3.2029862,1.0539503,-0.94165409,-0.23267001,0.24321258,0
5.2303362,-1.4628658,0.34867239,0.94165409,0.23267001,-0.24321258,0
0.29697597,-4.4129992,1.3597715,0.29153913,-0.92493755,0.24391723,0
3.5055828,0.37612295,-4.5698347,0.94165409,0.23267001,-0.24321258,0
-5.0851536,-1.5882921,-2.7054644,-0.94165409,-0.23267001,0.24321258,0
0.74347687,0.62679493,-4.8367376,-0.25796014,0.034726381,-0.96553135,0
-3.2294099,-5.3390145,0.89133775,-0.94165409,-0.23267001,0.24321258,0
-2.0492754,-5.027823,-0.22069788,0.18197048,-0.95980966,-0.213664,0
-3.4203725,1.9015689,-3.0188749,-0.33233309,0.52826202,-0.7813412,0
-1.7904024,2.5351253,3.8389564,0.026876092,0.66830957,0.74339765,0
4.9037709,2.2958484,2.6800842,0.94165409,0.23267001,-0.24321258,0
3.862021,4.6946373,0.94151741,0.94165409,0.23267001,-0.24321258,0
4.9192905,-0.48946047,0.075599909,0.94165409,0.23267001,-0.24321258,0
-3.8312461,-4.1667142,-0.31732589,-0.94165409,-0.23267001,0.24321258,0
-4.4562292,-1.7402887,-0.41584504,-0.94165409,-0.23267001,0.24321258,0
4.8826284,1.9147673,2.2336657,0.94165409,0.23267001,-0.24321258,0
4.5341978,-0.66525412,-1.5835509,0.94165409,0.23267001,-0.24321258,0
5.6371603,-1.1607189,2.212837,0.94165409,0.23267001,-0.24321258,0
2.7040238,0.78763819,3.932173,0.22984898,0.08335045,0.96965069,0
4.3248096,2.7547884,0.87754822,0.94165409,0.23267001,-0.24321258,0
-0.90567017,4.154336,1.49453,-0.14900303,0.93609774,0.3186208,0
-1.8811851,-0.92105246,-4.1034608,-0.21135581,-0.15360913,-0.96526331,0
-5.5831118,0.99638891,-2.1607826,-0.94165409,-0.23267001,0.24321258,0
0.90786314,-1.8226393,-4.2738099,-0.10591483,-0.48105016,-0.8702718,0
4.9918966,-1.188683,-0.31220341,0.94165409,0.23267001,-0.24321258,0
3.3165653,2.1647322,-3.5905809,0.94165409,0.23267001,-0.24321258,0
1.5283,1.9528642,-4.8526764,-0.30357665,0.27504405,-0.91224563,0
-2.4870265,-1.626107,5.2306776,0.28276962,-0.15493071,0.94659293,0
-4.9961467,2.7527621,-1.3153644,-0.32674783,0.80531883,-0.49466914,0
-1.2002234,-4.5348749,2.4434831,0.31493515,-0.86403167,0.392766,0
-4.5487504,2.6728477,3.4477773,-0.94165409,-0.23267001,0.24321258,0
3.2968192,4.0524678,-1.8611253,0.94165409,0.23267001,-0.24321258,0
-4.8151026,-2.5767612,-2.6055207,-0.94165409,-0.23267001,0.24321258,0
2.0602036,5.1421547,-0.66702509,-0.23244143,0.97214592,0.030055225,0
0.58553553,-1.6837044,-4.3044114,-0.12235129,-0.43653852,-0.89132738,0
4.6973801,2.4669571,2.0446868,0.94165409,0.23267001,-0.24321258,0
2.8736179,4.7373586,-2.8444443,0.94165409,0.23267001,-0.24321258,0
2.0873175,-0.81978321,3.9837813,0.29521161,-0.223842,0.92884076,0
0.16845602,-3.8153491,2.7616806,0.33055395,-0.77542955,0.53799921,0
0.4473815,-0.0053091049,4.5292721,0.24203324,0.034058452,0.96967018,0
-3.2665601,-0.068415523,5.3792782,0.19486713,0.21230629,0.95757675,0
3.4886975,-3.5662808,-2.0057697,0.15938085,-0.94468367,-0.28665429,0
4.3497486,-1.1737342,-2.7841263,0.94165409,0.23267001,-0.24321258,0
3.2430105,4.151289,2.1673784,-0.010167718,0.7419287,0.67040181,0
-0.88034391,-2.072679,-3.9125872,-0.12037528,-0.44200039,-0.88890141,0
-1.5578759,-2.8539524,4.4772739,0.32759839,-0.46772653,0.820921,0
0.06458807,-4.1920333,-1.7092452,0.11873645,-0.90577126,-0.40679282,0
1.2316637,-2.5523081,-3.7999015,-0.038118243,-0.64422631,-0.76388454,0
-5.4197383,0.12080574,-2.365875,-0.94165409,-0.23267001,0.24321258,0
-5.6661801,2.136157,-1.3920393,-0.94165409,-0.23267001,0.24321258,0
4.1412878,4.2203646,2.0972693,0.0055152178,0.71183133,0.70232898,0
-0.0046329498,-2.6781545,3.9496179,0.33128771,-0.51303434,0.7918613,0
-4.2041888,-0.43332863,1.8102946,-0.94165409,-0.23267001,0.24321258,0
-0.22936106,0.069675684,4.6892219,0.22948587,0.084780157,0.96961272,0
-4.5559492,0.94860697,1.7704031,-0.94165409,-0.23267001,0.24321258,0
-3.7296622,1.7321305,4.6075191,0.056266308,0.6036092,0.79529256,0
4.132925,-1.6040647,-4.0352869,0.94165409,0.23267001,-0.24321258,0
-2.7169833,2.131799,4.2280326,0.042988181,0.6335392,0.77251554,0
2.3566155,-1.2845957,-4.7427874,-0.1195066,-0.44439137,-0.88782579,0
-0.031894505,4.3393469,-1.8633089,-0.30690667,0.89021802,-0.33663064,0
-0.81531131,-4.4089904,2.4102888,0.31680691,-0.85672969,0.40699846,0
3.2742155,5.1876845,-0.86263251,0.94165409,0.23267001,-0.24321258,0
2.2119694,0.76476616,-5.2185984,-0.24714267,-0.012572616,-0.96889764,0
-2.9275999,0.85082603,-3.7021115,-0.30354178,0.2748203,-0.91232473,0
5.2906332,0.92211962,3.2799516,0.25522518,-0.022520363,0.96661937,0
5.6243911,-0.62983465,2.6712706,0.94165409,0.23267001,-0.24321258,0
4.3513246,-1.6118135,-3.1971154,0.94165409,0.23267001,-0.24321258,0
2.5453923,-3.8950486,0.62543583,0.28555226,-0.93477297,0.21132821,0
4.5890012,1.3035731,0.51211846,0.94165409,0.23267001,-0.24321258,0
3.9588423,2.2460322,-1.026081,0.94165409,0.23267001,-0.24321258,0
5.0949984,-2.1408019,-0.82386732,0.94165409,0.23267001,-0.24321258,0
4.3975315,3.1506758,1.5378366,0.94165409,0.23267001,-0.24321258,0
3.2304785,2.7674389,-3.3473053,0.94165409,0.23267001,-0.24321258,0
0.47471595,-4.3954182,-0.91120934,0.1795789,-0.9584536,-0.22162622,0
-3.9300642,-0.52632546,2.7826648,-0.94165409,-0.23267001,0.24321258,0
5.585012,-1.6640844,1.529386,0.94165409,0.23267001,-0.24321258,0
3.7598886,-0.89320135,-4.7995319,0.94165409,0.23267001,-0.24321258,0
-3.6843576,-1.0548921,-3.6767514,-0.22851741,-0.088582963,-0.96950144,0
4.6859202,-0.30287123,-0.64944625,0.94165409,0.23267001,-0.24321258,0
1.4490405,-3.7488608,2.0239375,0.32200906,-0.83308023,0.44976389,0
-1.3130231,2.6939631,3.678499,0.022994518,0.67643577,0.73614275,0
-3.9815536,0.12682605,3.2081518,-0.94165409,-0.23267001,0.24321258,0
-0.94992828,2.674603,3.6820836,0.033260465,0.65473318,0.75512803,0
0.97311306,1.7604101,4.0400362,0.14440072,0.37344995,0.91634262,0
4.7946501,0.64905882,0.68219256,0.94165409,0.23267001,-0.24321258,0
-0.79573572,3.8274622,-2.3391533,-0.32543153,0.81382978,-0.48143089,0
1.8031225,3.5112858,2.8295696,0.018444777,0.68583715,0.72752142,0
3.5342791,-3.6362276,-1.7152424,0.17872,-0.95795184,-0.22447151,0
-3.6383712,0.24408031,4.649035,-0.94165409,-0.23267001,0.24321258,0
-4.8440742,-0.8353529,-3.3957784,-0.25410241,0.017559677,-0.96701795,0
3.1612582,4.1460314,-2.2964723,0.94165409,0.23267001,-0.24321258,0
-0.65934849,-2.4448061,-3.7306726,-0.087435246,-0.52869076,-0.84429938,0
-4.2762442,1.7820263,3.6506393,-0.94165409,-0.23267001,0.24321258,0
4.6500196,1.7809877,1.2050853,0.94165409,0.23267001,-0.24321258,0
-4.1652522,0.23918939,2.6044116,-0.94165409,-0.23267001,0.24321258,0
4.0497842,-1.4198244,-4.1809325,0.94165409,0.23267001,-0.24321258,0
-1.5857449,-4.863915,-0.54177094,0.16931897,-0.95196342,-0.25514114,0
-5.1455312,-1.1484218,-2.5184281,-0.94165409,-0.23267001,0.24321258,0
3.2642701,0.72191012,-5.1733356,0.94165409,0.23267001,-0.24321258,0
-4.4655719,-2.9515653,-1.61079,-0.94165409,-0.23267001,0.24321258,0
3.8780606,-3.626205,-0.040201187,0.27213603,-0.95151925,0.14336383,0
0.7545929,-3.5585251,-2.7035613,0.054658771,-0.81871128,-0.57159829,0
3.0609252,4.0148053,-2.8104727,0.94165409,0.23267001,-0.24321258,0
-2.6730204,-2.166487,-3.6066399,-0.14536774,-0.37058946,-0.91735041,0
-3.6163094,-4.017076,0.6580025,-0.94165409,-0.23267001,0.24321258,0
3.5385919,1.973282,-2.9141061,0.94165409,0.23267001,-0.24321258,0
-3.1834514,2.6253872,-2.5233076,-0.33638838,0.67509961,-0.65656948,0
4.4426699,3.4038978,1.9548445,0.94165409,0.23267001,-0.24321258,0
-0.45862341,-4.1713052,-1.8797183,0.095879436,-0.87808406,-0.46880233,0
2.7720649,5.2970905,-0.52998281,-0.21508914,0.97177672,0.096885324,0
-4.0264773,0.40265226,3.2980895,-0.94165409,-0.23267001,0.24321258,0
-0.92930198,4.3806734,-0.51884127,-0.26308602,0.95950413,-0.10068583,0
-5.0661211,2.9491048,1.7089391,-0.94165409,-0.23267001,0.24321258,0
0.25764561,-4.0780468,-1.900703,0.10830301,-0.89361924,-0.43556327,0
-2.8868551,-4.3133574,3.1988149,-0.94165409,-0.23267001,0.24321258,0
-3.9274108,-1.6423857,1.7252567,-0.94165409,-0.23267001,0.24321258,0
-5.0031586,-1.2015085,-3.3490343,-0.23790127,-0.051069975,-0.96994591,0
5.0017762,0.21745634,1.0712354,0.94165409,0.23267001,-0.24321258,0
-1.9954102,-0.39893198,-4.1286297,-0.24093318,-0.038618654,-0.96977311,0
3.5149679,2.5637527,-2.4406962,0.94165409,0.23267001,-0.24321258,0
-0.22961617,-4.517499,-0.9335916,0.16665208,-0.9501034,-0.26368713,0
0.69028664,-3.7752101,-2.3755798,0.080282032,-0.8570013,-0.5090223,0
5.2409387,-0.68424273,1.1345952,0.94165409,0.23267001,-0.24321258,0
0.026506901,1.4050283,4.3321676,0.15274024,0.34851307,0.9247753,0
-3.3367324,-2.883883,2.8245215,-0.94165409,-0.23267001,0.24321258,0
4.8032289,0.53503704,0.60632825,0.94165409,0.23267001,-0.24321258,0
-2.0923567,1.3438749,4.6775403,0.11995232,0.44316483,0.88837862,0
0.34634066,-1.7809154,-4.2237649,-0.11953568,-0.44431156,-0.88786191,0
-3.4518995,-1.9095269,3.3107462,-0.94165409,-0.23267001,0.24321258,0
-3.3014579,0.49402165,-3.6763179,-0.29426897,0.21834946,-0.93044585,0
-5.2546411,2.0503612,-2.0520406,-0.3365494,0.66100144,-0.67068011,0
5.249043,-0.97341585,2.8255286,0.32334018,-0.42463657,0.84565657,0
0.27466488,4.6657243,-0.93620515,-0.26789582,0.95555294,-0.12308812,0
-0.38182497,1.1695578,-4.4409146,-0.29257059,0.20857674,-0.93321937,0
3.2833188,0.49643362,-5.3152876,0.94165409,0.23267001,-0.24321258,0
4.0403047,-3.5410655,0.16859579,0.28270167,-0.93889713,0.1963464,0
4.7316923,0.77205753,0.55610418,0.94165409,0.23267001,-0.24321258,0
4.9951172,-2.2455263,-1.3107667,0.94165409,0.23267001,-0.24321258,0
-5.345293,0.19180298,-2.0097232,-0.94165409,-0.23267001,0.24321258,0
-0.36840439,2.6601732,-3.8040948,-0.33239725,0.52924711,-0.78064698,0
-0.12087107,-3.0075443,-3.3451562,-0.026860237,-0.66834313,-0.74336803,0
-2.6085548,2.3747015,-3.0280368,-0.3353976,0.58807009,-0.73599052,0
4.0217643,0.14063954,-2.7965944,0.94165409,0.23267001,-0.24321258,0
3.0783222,5.1464329,0.44271195,-0.15053993,0.93743062,0.31394577,0
2.1064057,-2.5564625,-3.8287711,-0.017363548,-0.68805182,-0.72545391,0
-3.3174689,-2.7967668,2.9824452,-0.94165409,-0.23267001,0.24321258,0
-0.089433908,2.7242427,-3.8794384,-0.33232799,0.52818406,-0.78139603,0
-4.8950138,-0.55771255,-0.98338723,-0.94165409,-0.23267001,0.24321258,0
5.5955429,-1.5169392,1.7109275,0.94165409,0.23267001,-0.24321258,0
-3.842706,-3.4475472,0.32629812,-0.94165409,-0.23267001,0.24321258,0
2.681051,4.0192704,2.304944,-0.010886073,0.74326992,0.66890329,0
5.045146,-1.3678112,-0.27739716,0.94165409,0.23267001,-0.24321258,0
-0.10481644,-4.4997611,-0.91767049,0.16974056,-0.95225114,-0.25378382,0
3.6955228,0.65366316,-3.568928,0.94165409,0.23267001,-0.24321258,0
-2.485487,-2.1148176,-3.657227,-0.14573681,-0.36949569,-0.91773307,0
3.4559126,1.098969,-4.070632,0.94165409,0.23267001,-0.24321258,0
-3.5349402,-3.0597246,1.8888947,-0.94165409,-0.23267001,0.24321258,0
-5.1793022,2.8677685,1.1929216,-0.94165409,-0.23267001,0.24321258,0
2.1546602,-1.359277,-4.6781354,-0.11766446,-0.44944316,-0.88552594,0
0.68729961,-4.4607663,0.31080532,0.25030541,-0.96717268,0.043866694,0
2.1011305,2.0906999,-5.0017433,-0.30345315,0.27425173,-0.91252524,0
3.1313121,0.37117171,-5.4063296,-0.21438932,-0.14242452,-0.96630871,0
3.0952613,-2.8374157,-3.5025458,0.03781271,-0.79114878,-0.61045396,0
-1.1453552,4.2743616,0.86904693,-0.19271421,0.96513039,0.17715734,0
-3.2126024,-0.49667978,-3.8178763,-0.25100154,0.0040056109,-0.96797848,0
4.9552722,-2.1381738,-1.3623371,0.94165409,0.23267001,-0.24321258,0
-3.902766,2.6596174,-2.1026468,-0.33475471,0.7226063,-0.60479712,0
2.9254422,1.8187947,3.6862595,0.17270303,0.28621861,0.9424715,0
4.7601457,-1.275948,-1.2929623,0.94165409,0.23267001,-0.24321258,0
-0.48040092,4.516119,-0.22362041,-0.24335456,0.96983039,-0.014412522,0
3.8684375,2.650614,-0.98905993,0.94165409,0.23267001,-0.24321258,0
-3.8864083,2.802428,3.4868882,-0.056823254,0.82211697,0.56647593,0
-1.0005434,4.2236476,-1.2353106,-0.29369813,0.92095745,-0.25608367,0
-1.5700421,0.42036867,-4.2113261,-0.27432311,0.11184174,-0.95511168,0
-0.43032408,-0.33153534,-4.5091352,-0.22417867,-0.10543787,-0.96882749,0
5.5583591,-2.4516101,0.67280626,0.94165409,0.23267001,-0.24321258,0
-2.3370481,3.8248513,1.7912934,-0.15389282,0.940265,0.30367565,0
4.4354577,-2.4337094,2.0739102,0.33570373,-0.701419,0.62874049,0
2.3553979,-3.0888829,-3.2203689,0.04579103,-0.80443448,-0.59227407,0
3.9488263,2.4692266,-0.85134017,0.94165409,0.23267001,-0.24321258,0
-4.7962523,0.90117812,0.79464197,-0.94165409,-0.23267001,0.24321258,0
-1.3155712,3.3480725,-2.7109964,-0.33410251,0.73369932,-0.59165943,0
2.9388661,2.4536567,-4.7765312,0.94165409,0.23267001,-0.24321258,0
-1.1312346,-2.2386842,4.6145611,0.31537014,-0.35744771,0.87907505,0
-4.9462638,2.4354408,1.6815948,-0.94165409,-0.23267001,0.24321258,0
-5.3624544,2.815212,0.43352747,-0.94165409,-0.23267001,0.24321258,0
-0.57954097,4.4809189,0.19410563,-0.22287691,0.97251129,0.067436337,0
-4.9662404,3.1495414,2.2873983,-0.94165409,-0.23267001,0.24321258,0
4.5376244,-0.45960522,-1.373549,0.94165409,0.23267001,-0.24321258,0
3.1267483,0.68843102,3.8360176,0.24042737,0.040707231,0.96981323,0
-2.8784897,2.1887197,4.1882935,0.034128428,0.65286726,0.75670326,0
1.6660303,-4.0481181,1.102634,0.29515329,-0.91813207,0.26442045,0
3.5878696,3.3940125,-1.3641691,0.94165409,0.23267001,-0.24321258,0
-3.2262454,3.4818926,2.3595743,-0.13065869,0.91861701,0.37292272,0
0.28515434,-2.5189819,3.9300094,0.32983536,-0.49393314,0.80451155,0
0.55428767,-3.4399731,3.0226998,0.33527535,-0.7120313,0.61692935,0
3.0082693,0.96700168,3.8434618,0.22426069,0.1051226,0.96884286,0
5.2144718,-2.449338,-0.65646029,0.94165409,0.23267001,-0.24321258,0
-3.8813255,-0.12639952,-3.6114478,-0.27535874,0.11699,-0.95419645,0
-2.621953,-0.14201462,5.258379,0.20852554,0.16393149,0.96418029,0
1.1095011,4.7032127,-1.9214768,-0.29884818,0.91039628,-0.28612667,0
-2.2153804,-3.048507,4.6286259,0.3282209,-0.47470462,0.81665581,0
3.6009345,1.7418118,-2.8941681,0.94165409,0.23267001,-0.24321258,0
1.2615557,-0.64034235,4.2718196,0.28034568,-0.14229828,0.9492932,0
-3.3175941,-2.9361944,2.848577,-0.94165409,-0.23267001,0.24321258,0
4.0574694,-0.66603041,-3.4300566,0.94165409,0.23267001,-0.24321258,0
3.2839837,3.4655528,-2.4722953,0.94165409,0.23267001,-0.24321258,0
-2.0667987,3.5888958,2.4523814,-0.10195577,0.88582456,0.45268106,0
1.7530588,4.9709101,-1.6726189,-0.28301483,0.93846035,-0.19797659,0
5.6353607,-2.8078172,0.63016891,0.94165409,0.23267001,-0.24321258,0
-4.9278498,-0.91828823,-1.4554651,-0.94165409,-0.23267001,0.24321258,0
5.5674105,-1.4228745,1.6919904,0.94165409,0.23267001,-0.24321258,0
-0.082229137,3.1986721,-3.5105565,-0.33647174,0.63219345,-0.69793856,0
4.9737577,-3.3237867,-1.8827033,0.19122422,-0.96446991,-0.18229407,0
-1.2721536,4.1483183,1.3146558,-0.16709083,0.95041418,0.26228565,0
4.8239222,-1.9940014,2.3154964,0.33637023,-0.62487125,0.70455033,0
4.9073315,1.7496691,2.1713676,0.94165409,0.23267001,-0.24321258,0
5.0426006,-3.3773012,-0.68973589,0.25627753,-0.96406829,0.069958925,0
4.1408091,0.81224632,-1.6931908,0.94165409,0.23267001,-0.24321258,0
-5.4842134,3.0785995,-0.20369434,-0.29832211,0.91154969,-0.28298634,0
-4.0361423,-3.3435221,-2.8175232,-0.082216144,-0.54170245,-0.83654004,0
-0.44906902,0.44128853,4.6890326,0.20585203,0.17358491,0.96306461,0
2.5097821,-3.9430346,0.44165945,0.27763897,-0.94543654,0.17048895,0
-1.9934506,-3.8116636,-2.5239792,0.0069409609,-0.7358647,-0.67709333,0
-4.726881,3.4521639,0.56735373,-0.25820264,0.96289331,-0.07853663,0
-2.582372,3.939502,-0.33844805,-0.27404159,0.94952607,-0.15264857,0
1.2281189,1.5955812,4.0604935,0.15988672,0.32664582,0.93152511,0
-0.11623383,3.4590211,2.8760533,-0.02496469,0.76888514,0.63889962,0
1.7248118,4.9938831,-1.5097961,-0.2765578,0.94671202,-0.16508281,0
-1.3615389,0.2442238,4.9195013,0.20420468,0.17948774,0.96233302,0
5.1678224,-0.59813976,3.0208185,0.31296319,-0.33934644,0.88707274,0
-3.0442665,-2.6075232,4.2212515,-0.94165409,-0.23267001,0.24321258,0
-5.2744823,2.2162423,-1.868494,-0.3357839,0.6991424,-0.63122833,0
3.3894534,-3.6206925,-1.8776054,0.16605437,-0.94967699,-0.26559317,0
-4.9335279,0.71255302,0.082699299,-0.94165409,-0.23267001,0.24321258,0
-4.1758289,-4.2508659,-2.0659463,-0.0033056736,-0.71616673,-0.69792157,0
-5.0267215,-0.87610149,-1.7979107,-0.94165409,-0.23267001,0.24321258,0
2.286658,-3.7850158,-1.9314768,0.14355034,-0.9312014,-0.33504844,0
0.079236925,4.1235981,-2.4239886,-0.32213977,0.83240801,-0.45091337,0
-0.51253605,-3.6483204,-2.6723692,0.028718233,-0.77549964,-0.63069475,0
-3.7210865,-0.48155904,3.6345954,-0.94165409,-0.23267001,0.24321258,0
-2.1594334,-5.1547356,1.1980727,0.25758299,-0.96328115,0.075766206,0
-3.3491137,1.4135706,-3.330816,-0.3226555,0.41829637,-0.84907109,0
3.8897653,1.4126725,-2.090765,0.94165409,0.23267001,-0.24321258,0
-5.1547918,1.9497416,0.40958595,-0.94165409,-0.23267001,0.24321258,0
-5.4262743,1.1437206,-1.4126034,-0.94165409,-0.23267001,0.24321258,0
-2.9846106,1.7058455,4.5664015,0.074210048,0.56129247,0.8242839,0
