-3.7783337,-2.4007919,-0.49833775,-0.85424137,-0.50171179,-0.13622379,0
-1.2258308,-3.2974451,-0.8635807,0.33753976,-0.73454338,0.58865356,0
0.29593754,1.6272726,4.4090652,0.33753976,-0.73454338,0.58865356,0
-0.056679249,3.2602818,1.552611,-0.33753976,0.73454338,-0.58865356,0
1.9926287,2.6284356,-0.41092348,-0.33753976,0.73454338,-0.58865356,0
-4.0929241,-1.7545563,-0.89720964,-0.86296779,-0.49124756,-0.11816239,0
-1.5339468,-0.22715175,-1.9520564,-0.33753976,0.73454338,-0.58865356,0
4.5330658,-0.2479831,-0.36055899,0.33753976,-0.73454338,0.58865356,0
-0.3669571,1.6614848,-0.26450995,-0.33753976,0.73454338,-0.58865356,0
3.8220494,2.282666,0.65679312,0.84934425,0.50725901,0.14595389,0
0.81784177,1.4325378,3.8668027,0.33753976,-0.73454338,0.58865356,0
-4.004313,-0.099756002,2.0519478,-0.88456273,-0.033668309,0.46520451,0
4.4436464,-0.37273294,-1.2175114,0.9081924,0.089707136,-0.40882674,0
1.082849,1.4595957,-1.3477678,-0.33753976,0.73454338,-0.58865356,0
-0.8462019,-0.21363074,-2.3295441,-0.33753976,0.73454338,-0.58865356,0
3.3228979,2.8630252,1.0661268,0.7649619,0.57847208,0.28320181,0
3.1486535,3.4818575,0.23372698,0.80150247,0.55220854,0.22947657,0
1.339819,1.7524043,3.9666364,0.33753976,-0.73454338,0.58865356,0
-0.55203295,1.4205415,4.4577265,-0.22725677,0.54326582,0.80821824,0
-0.80276686,-3.0455868,-0.79189205,0.33753976,-0.73454338,0.58865356,0
-3.7765737,-2.0868633,-1.3966293,-0.79693472,-0.55580741,-0.23658639,0
-0.96508193,0.056325674,3.1718612,0.33753976,-0.73454338,0.58865356,0
-1.3623136,-3.5051501,-1.0445018,0.33753976,-0.73454338,0.58865356,0
1.6882343,-1.6200497,-3.8793867,0.41445076,-0.44550726,-0.7935704,0
3.5875242,2.9185371,-0.96345329,-0.33753976,0.73454338,-0.58865356,0
-3.8571994,-1.5396075,-2.2576108,-0.33753976,0.73454338,-0.58865356,0
-3.0567274,0.8809011,0.30378997,-0.33753976,0.73454338,-0.58865356,0
-2.4541416,0.52523094,-0.48555684,-0.33753976,0.73454338,-0.58865356,0
-2.5398846,-1.86253,-3.4159262,-0.33753976,0.73454338,-0.58865356,0
0.85840988,3.1083651,3.1419618,0.20155555,0.6672498,0.71704471,0
3.2079966,0.21441603,-3.310636,0.78965896,-0.11941797,-0.60181236,0
2.7499535,2.3915739,2.756604,0.55152965,0.66109776,0.50868934,0
-4.3944869,-0.71871036,0.80765295,-0.94055122,-0.23805858,0.2422632,0
-1.1088765,-2.3852229,0.20766091,0.33753976,-0.73454338,0.58865356,0
0.40477586,3.4723473,1.5526309,-0.33753976,0.73454338,-0.58865356,0
2.1441145,-1.3189592,-3.766762,0.51583159,-0.37875974,-0.76841325,0
1.139627,-3.6069336,-2.6061487,0.33753976,-0.73454338,0.58865356,0
0.82050383,-1.1994909,0.58093476,0.33753976,-0.73454338,0.58865356,0
2.0587511,-1.2226112,-0.15793908,0.33753976,-0.73454338,0.58865356,0
1.1625862,-0.6442064,-4.0186911,-0.33753976,0.73454338,-0.58865356,0
1.6109955,-2.9782281,-3.0995531,0.28997725,-0.51380169,-0.80741632,0
-3.9272075,-0.43474442,-0.8387785,-0.33753976,0.73454338,-0.58865356,0
-4.5290699,-0.50042284,0.49429965,-0.94118816,-0.25324747,0.22367525,0
-3.5445733,-1.0508895,2.8569801,-0.88198864,-0.028305888,0.47041985,0
-0.86308742,2.5900941,1.1787283,-0.33753976,0.73454338,-0.58865356,0
3.2351828,-1.2944992,-2.8693304,0.69238931,-0.22991064,-0.68391377,0
2.71912,0.31984317,1.3881299,0.33753976,-0.73454338,0.58865356,0
-3.890197,-0.69575274,2.2092392,-0.90187573,-0.073250324,0.42574,0
-2.0057642,-2.8309677,0.16572809,0.33753976,-0.73454338,0.58865356,0
-0.91899753,-1.2719884,-3.6084595,-0.33753976,0.73454338,-0.58865356,0
-0.909006,-1.0133129,1.8049728,0.33753976,-0.73454338,0.58865356,0
2.6172838,1.296967,2.6658149,0.33753976,-0.73454338,0.58865356,0
-1.1443207,-1.1054513,-3.2714458,-0.33753976,0.73454338,-0.58865356,0
1.2001966,0.53248161,2.5244339,0.33753976,-0.73454338,0.58865356,0
0.090453267,-3.0766411,-1.3428236,0.33753976,-0.73454338,0.58865356,0
0.31742334,2.4196389,0.28911185,-0.33753976,0.73454338,-0.58865356,0
3.3514957,-2.1827931,-2.0973618,0.33753976,-0.73454338,0.58865356,0
-4.2501259,-0.77122986,1.2674844,-0.93532312,-0.1912947,0.29761904,0
2.2167506,1.3066736,2.9075963,0.33753976,-0.73454338,0.58865356,0
3.0745983,-1.2471778,-0.77109087,0.33753976,-0.73454338,0.58865356,0
-1.3487426,-3.0450366,-3.0263257,-0.29972056,-0.67667484,-0.6725167,0
-3.936543,-0.21925437,-0.56452894,-0.33753976,0.73454338,-0.58865356,0
0.45530531,2.6912031,0.54891682,-0.33753976,0.73454338,-0.58865356,0
-1.9674188,-1.9619695,1.2281085,0.33753976,-0.73454338,0.58865356,0
1.9944274,3.1389446,0.22507668,-0.33753976,0.73454338,-0.58865356,0
-1.6349404,-1.5353973,1.5697547,0.33753976,-0.73454338,0.58865356,0
-3.7882044,-0.49922025,2.4333363,-0.88085938,-0.025988549,0.47266409,0
-3.0444133,1.2569308,3.0695918,-0.66573846,0.25581995,0.70096254,0
-1.0149254,-1.3267047,1.474646,0.33753976,-0.73454338,0.58865356,0
3.8433177,-0.51609218,-2.3053257,0.8301183,-0.062562913,-0.5540663,0
1.4499652,1.6102753,3.7261238,0.33753976,-0.73454338,0.58865356,0
0.52162099,2.3619144,3.8612394,0.062354088,0.64142907,0.76464415,0
-2.043021,-3.9575942,-1.2187538,0.33753976,-0.73454338,0.58865356,0
0.53028095,-1.9294084,-0.16346645,0.33753976,-0.73454338,0.58865356,0
-2.350039,-3.8682899,-1.2310257,-0.62150872,-0.64357489,-0.44669706,0
-4.577353,-0.70728266,-0.13467121,-0.93432111,-0.33750981,0.1145919,0
-3.8166232,0.57949001,0.36341047,-0.33753976,0.73454338,-0.58865356,0
0.34133196,-1.5853339,0.37422752,0.33753976,-0.73454338,0.58865356,0
1.0633504,1.8637416,-0.83227921,-0.33753976,0.73454338,-0.58865356,0
3.224427,0.80517739,1.7039993,0.33753976,-0.73454338,0.58865356,0
2.0238116,2.1174748,3.6460295,0.35417554,0.67850536,0.64357603,0
-2.2629406,0.11380172,3.9877865,0.33753976,-0.73454338,0.58865356,0
2.0586641,0.29824102,-3.3564904,-0.33753976,0.73454338,-0.58865356,0
-2.057694,-0.52796435,-2.0270994,-0.33753976,0.73454338,-0.58865356,0
2.6556716,-2.7480779,-2.7161703,0.49143058,-0.39585549,-0.77575409,0
-3.5841012,-2.0635576,-1.9678779,-0.73252904,-0.59770751,-0.32580179,0
4.3954182,-0.76232088,-0.92343974,0.33753976,-0.73454338,0.58865356,0
1.1277728,1.666014,3.9804254,0.33753976,-0.73454338,0.58865356,0
3.9421887,2.1507964,-0.74676943,0.92770773,0.36552125,-0.075845957,0
3.2186556,0.085839599,0.8096931,0.33753976,-0.73454338,0.58865356,0
-3.9370399,0.61734253,2.1526799,-0.83625388,0.053091884,0.54576617,0
-2.7787976,-1.0236331,-2.2321253,-0.33753976,0.73454338,-0.58865356,0
-1.3775588,-3.1743915,-2.8817701,-0.31890446,-0.67760843,-0.66268146,0
0.96565175,0.57739156,2.7149644,0.33753976,-0.73454338,0.58865356,0
-1.7339331,-1.1581777,2.0972261,0.33753976,-0.73454338,0.58865356,0
-1.8026862,0.79569972,-0.52160704,-0.33753976,0.73454338,-0.58865356,0
-3.016871,-3.078186,-1.3659124,-0.70332193,-0.61243182,-0.36092311,0
1.6730195,1.3494971,-1.8235625,-0.33753976,0.73454338,-0.58865356,0
-2.0406694,1.2199123,0.14420283,-0.33753976,0.73454338,-0.58865356,0
2.4045115,-3.001843,-2.7287743,0.42855096,-0.4368704,-0.79087818,0
-3.4795413,-1.6151109,-2.5683794,-0.33753976,0.73454338,-0.58865356,0
-0.73802292,-1.7412875,0.7985357,0.33753976,-0.73454338,0.58865356,0
1.9501275,1.4559538,3.2467582,0.33753976,-0.73454338,0.58865356,0
-2.8621576,-1.7736874,-3.1202707,-0.33753976,0.73454338,-0.58865356,0
-1.4047987,1.6047366,4.0269389,-0.36599982,0.47373483,0.80101156,0
0.5639801,-0.83460999,1.1833397,0.33753976,-0.73454338,0.58865356,0
2.9158273,-0.79644275,-0.1176064,0.33753976,-0.73454338,0.58865356,0
-3.0699141,2.4585633,2.2800159,-0.33753976,0.73454338,-0.58865356,0
-1.6012826,3.4870434,2.7725129,-0.24559021,0.53497517,0.80838543,0
-4.1148071,-1.6985542,-0.96969414,-0.8609907,-0.4936879,-0.12234116,0
-2.6834013,-2.6152811,-2.5374219,-0.56042874,-0.65926039,-0.50129372,0
-2.8159463,0.19236898,3.6628194,-0.70560032,0.21648192,0.67473233,0
2.7068937,-0.17666864,-3.7799072,0.69016236,-0.23213452,-0.68541193,0
0.925138,-3.3523102,-2.1654303,0.33753976,-0.73454338,0.58865356,0
-1.7287188,-1.5208944,-3.4547515,-0.33753976,0.73454338,-0.58865356,0
3.3658571,1.7669761,2.8230696,0.33753976,-0.73454338,0.58865356,0
-0.36672914,-2.9974523,-0.98185635,0.33753976,-0.73454338,0.58865356,0
1.7283208,-2.8547354,-2.005091,0.33753976,-0.73454338,0.58865356,0
0.66656673,-0.30880749,1.7806311,0.33753976,-0.73454338,0.58865356,0
-2.4605918,2.6771617,2.8725801,-0.46383214,0.41437653,0.78304011,0
-3.3361275,-1.1132683,3.0719802,0.33753976,-0.73454338,0.58865356,0
2.7687917,0.29949057,1.3342512,0.33753976,-0.73454338,0.58865356,0
3.2407451,-1.8399823,-1.6060842,0.33753976,-0.73454338,0.58865356,0
-4.4335766,0.034831107,1.1451232,-0.92163092,-0.13068238,0.36540198,0
0.47284961,1.4176903,4.0460973,0.33753976,-0.73454338,0.58865356,0
-3.9973783,-1.6997321,-1.5530748,-0.81217456,-0.54339367,-0.21235752,0
2.1614213,3.1209321,2.4201567,0.49068657,0.67097193,0.55589867,0
-1.8059337,1.8441812,3.692064,-0.41700602,0.44395652,0.79310054,0
-2.2369823,0.5155443,4.0712051,-0.59182602,0.32068953,0.73952705,0
-2.5282254,-1.9174746,1.6052029,0.33753976,-0.73454338,0.58865356,0
-1.3329737,-3.5931177,-2.4704463,-0.35135779,-0.67847365,-0.64515203,0
-0.92881656,-2.3535967,-3.8124788,-0.14422715,-0.65832806,-0.73878461,0
0.28274941,-0.50223589,-3.337028,-0.33753976,0.73454338,-0.58865356,0
-4.3324723,-0.23107541,1.3044777,-0.92340988,-0.13700783,0.35852897,0
4.563622,-0.45739949,-0.63939762,0.33753976,-0.73454338,0.58865356,0
-2.7884307,-0.1632514,3.8020058,-0.72592175,0.19498438,0.65955937,0
-4.2751112,-0.42095339,1.3784609,-0.9258436,-0.14616719,0.34849524,0
3.5262816,1.2192807,-2.8790724,0.88864028,0.042405337,-0.45664021,0
1.3269062,-3.2341449,-3.0203931,0.21644342,-0.54803383,-0.80796742,0
-0.29389173,-1.8292766,0.43407065,0.33753976,-0.73454338,0.58865356,0
0.57166266,-3.124701,-1.6787249,0.33753976,-0.73454338,0.58865356,0
0.14933109,-0.33987808,2.0384481,0.33753976,-0.73454338,0.58865356,0
3.360415,0.21853769,-3.1046505,0.81080258,-0.090805829,-0.57823312,0
3.6032343,2.4800048,-1.5196781,-0.33753976,0.73454338,-0.58865356,0
0.67912406,2.1611438,-0.24085069,-0.33753976,0.73454338,-0.58865356,0
0.85214412,2.674099,0.30002236,-0.33753976,0.73454338,-0.58865356,0
-1.2580831,1.4491919,4.1853099,-0.35267383,0.48112023,0.80258614,0
4.6949072,0.07480967,-0.050567627,0.33753976,-0.73454338,0.58865356,0
4.6475649,-0.49293521,-0.76921678,0.92192781,0.13171852,-0.36427945,0
-3.0826919,2.3376548,2.1364689,-0.33753976,0.73454338,-0.58865356,0
-3.6793723,-1.1534935,2.5770888,-0.90182585,-0.073125541,0.42586717,0
4.0760312,1.8661752,0.48903561,0.88381398,0.46251759,0.070358634,0
-1.4105971,2.1574175,0.95276672,-0.33753976,0.73454338,-0.58865356,0
2.2917471,-2.6008134,-3.0107787,0.44089448,-0.42914656,-0.7883181,0
2.8532834,1.3533062,-2.4955845,-0.33753976,0.73454338,-0.58865356,0
0.63061893,-2.5293581,-0.96964037,0.33753976,-0.73454338,0.58865356,0
0.059125066,0.52479047,-1.9272386,-0.33753976,0.73454338,-0.58865356,0
-3.909374,-1.4477493,1.9015768,-0.93350005,-0.1808145,0.30965126,0
1.6231872,-1.6643691,-0.45942402,0.33753976,-0.73454338,0.58865356,0
-0.9872129,-2.8804736,-3.3177276,-0.20660043,-0.66791713,-0.71498466,0
-2.0741322,-0.1735051,-1.5753663,-0.33753976,0.73454338,-0.58865356,0
3.5705955,2.6714907,0.6961441,0.81951773,0.53697085,0.20013231,0
2.373085,1.0220456,2.4627836,0.33753976,-0.73454338,0.58865356,0
-2.5747783,2.0829422,1.5273867,-0.33753976,0.73454338,-0.58865356,0
0.40130484,-0.31014758,1.9310628,0.33753976,-0.73454338,0.58865356,0
-0.49706244,-1.5411272,-4.1862426,-0.33753976,0.73454338,-0.58865356,0
4.2214575,1.41343,-0.65689611,0.93810165,0.31409556,-0.14597684,0
2.2311463,-2.0717239,-3.3285847,0.4721458,-0.40888533,-0.78095508,0
-1.5760288,-0.40393591,2.9478528,0.33753976,-0.73454338,0.58865356,0
4.4288626,-0.69742864,-0.8616426,0.33753976,-0.73454338,0.58865356,0
-1.646311,-3.7034073,-2.1518955,-0.43319711,-0.67641407,-0.59565473,0
0.45740926,-0.0076230764,2.2763929,0.33753976,-0.73454338,0.58865356,0
-1.8129523,-4.087709,-1.5575423,-0.51342654,-0.66780818,-0.53891152,0
-1.3108199,-2.7872932,-3.2978611,-0.26606309,-0.67430377,-0.68885761,0
3.4627109,-1.3085949,-1.0702771,0.33753976,-0.73454338,0.58865356,0
0.92164254,3.9075446,1.7993097,-0.33753976,0.73454338,-0.58865356,0
-2.6522343,1.9336877,1.3855551,-0.33753976,0.73454338,-0.58865356,0
-1.4019191,1.0813036,-0.39502376,-0.33753976,0.73454338,-0.58865356,0
-2.366282,-3.3295844,-0.24973917,0.33753976,-0.73454338,0.58865356,0
2.8649993,-0.43687642,-3.5323,0.6960243,-0.22625645,-0.68143833,0
-3.1433668,0.35047489,-0.30841517,-0.33753976,0.73454338,-0.58865356,0
-3.2750483,1.5347666,1.2448945,-0.33753976,0.73454338,-0.58865356,0
3.1364279,1.5917315,2.7359502,0.33753976,-0.73454338,0.58865356,0
1.9953536,0.033709109,1.4460964,0.33753976,-0.73454338,0.58865356,0
-3.2955589,-0.1629549,-0.86182308,-0.33753976,0.73454338,-0.58865356,0
-2.6615345,0.89601183,3.5569763,-0.63175386,0.28681713,0.72015488,0
-1.6644897,-3.6284673,-1.0251105,0.33753976,-0.73454338,0.58865356,0
0.19234657,-2.6027088,-0.80986011,0.33753976,-0.73454338,0.58865356,0
-2.6143858,1.4255662,0.72980022,-0.33753976,0.73454338,-0.58865356,0
-2.4364166,-2.9111037,-2.4188836,-0.53332955,-0.66453117,-0.5234099,0
1.2812815,1.4338262,-1.4937071,-0.33753976,0.73454338,-0.58865356,0
4.6760235,0.5589605,0.55844307,0.92686611,0.36848873,-0.071660578,0
2.1732101,-0.37889111,-4.181499,0.59166807,-0.32081854,-0.73959744,0
2.0406189,-3.2420511,-2.7664971,0.34533006,-0.48512292,-0.8033697,0
0.81770051,-1.0779048,0.73426175,0.33753976,-0.73454338,0.58865356,0
-0.85730201,-2.1781454,0.32180464,0.33753976,-0.73454338,0.58865356,0
-1.1556187,2.9329824,1.7743376,-0.33753976,0.73454338,-0.58865356,0
-4.1598535,0.3544454,1.7874265,-0.87848425,-0.021180689,0.47730154,0
-0.040031552,-0.51934046,1.9230909,0.33753976,-0.73454338,0.58865356,0
-0.47355258,3.1499403,1.6539619,-0.33753976,0.73454338,-0.58865356,0
-0.90629297,0.49811357,-1.4069465,-0.33753976,0.73454338,-0.58865356,0
-1.3102293,1.041274,-0.49755025,-0.33753976,0.73454338,-0.58865356,0
1.0151917,2.2444863,-0.3295573,-0.33753976,0.73454338,-0.58865356,0
-0.086150169,-0.032068253,-2.5388048,-0.33753976,0.73454338,-0.58865356,0
-3.7743926,0.013452888,2.455585,-0.8508752,0.029367685,0.52454644,0
-3.2190628,0.28188515,-0.35059905,-0.33753976,0.73454338,-0.58865356,0
-1.7666435,0.99451756,4.1732883,-0.47733182,0.40542197,0.77960718,0
1.938271,-1.0809253,0.087946177,0.33753976,-0.73454338,0.58865356,0
-2.011065,-1.7428122,1.526608,0.33753976,-0.73454338,0.58865356,0
-2.8726482,-2.5455117,1.0190108,0.33753976,-0.73454338,0.58865356,0
-2.0091105,-0.9393549,2.5280712,0.33753976,-0.73454338,0.58865356,0
1.3547187,-3.2979355,-2.3439052,0.33753976,-0.73454338,0.58865356,0
1.5003979,-2.2107308,-3.6209772,0.33351028,-0.49146608,-0.80450743,0
2.173805,1.1770644,2.7704911,0.33753976,-0.73454338,0.58865356,0
-1.3490574,-1.5663908,1.3671519,0.33753976,-0.73454338,0.58865356,0
-0.17224383,-3.7650328,-2.7007375,-0.12210941,-0.65423918,-0.74636483,0
0.35930037,-0.78247893,-3.7306206,-0.33753976,0.73454338,-0.58865356,0
3.1447988,1.0061088,2.0003889,0.33753976,-0.73454338,0.58865356,0
-3.1965826,-1.2225257,-2.2407486,-0.33753976,0.73454338,-0.58865356,0
-2.8639045,-1.798231,1.9464816,0.33753976,-0.73454338,0.58865356,0
1.2868948,3.9445312,1.636024,-0.33753976,0.73454338,-0.58865356,0
-0.099646091,1.3812392,4.328887,0.33753976,-0.73454338,0.58865356,0
-2.1102519,-2.6322019,0.47367001,0.33753976,-0.73454338,0.58865356,0
2.4781239,0.49024311,1.738951,0.33753976,-0.73454338,0.58865356,0
-2.5188572,-1.7824712,1.7682936,0.33753976,-0.73454338,0.58865356,0
4.3562555,-0.59115249,-0.68739343,0.33753976,-0.73454338,0.58865356,0
1.8717394,3.0733232,0.21354246,-0.33753976,0.73454338,-0.58865356,0
-2.115211,0.19758153,4.0076203,0.33753976,-0.73454338,0.58865356,0
2.3433759,-2.5572925,-1.9866093,0.33753976,-0.73454338,0.58865356,0
3.7334795,2.5150812,-1.4151654,0.93619573,0.32707191,-0.12869173,0
-1.700062,0.069888711,3.6102307,0.33753976,-0.73454338,0.58865356,0
-3.2778018,-0.15827429,3.2073643,-0.79575068,0.11139333,0.59529191,0
2.4830415,-3.0183034,-2.6419613,0.33753976,-0.73454338,0.58865356,0
-2.8453195,0.28778315,3.6014495,-0.70341712,0.21872962,0.67628521,0
0.90023565,-2.0281491,-3.9508569,0.23996127,-0.53754848,-0.80836886,0
3.4371586,-0.38218904,0.10037804,0.33753976,-0.73454338,0.58865356,0
2.4877095,3.2196693,0.04295516,-0.33753976,0.73454338,-0.58865356,0
-3.5416613,0.29653338,-0.14733958,-0.33753976,0.73454338,-0.58865356,0
3.5043874,-0.79184604,-2.7147665,0.76626682,-0.14879452,-0.62505627,0
0.39023179,1.639348,-0.72631288,-0.33753976,0.73454338,-0.58865356,0
3.4156559,-0.51212949,-0.049436331,0.33753976,-0.73454338,0.58865356,0
-0.4466126,-3.5871732,-1.6719255,0.33753976,-0.73454338,0.58865356,0
-0.66502869,-2.8116333,-0.57893658,0.33753976,-0.73454338,0.58865356,0
-4.1581759,-0.27850914,1.7086051,-0.90954781,-0.093426734,0.40496242,0
-4.5306883,-0.25600731,-0.26970196,-0.33753976,0.73454338,-0.58865356,0
3.0959833,-0.19085395,-3.3543253,0.74720281,-0.17125535,-0.64215219,0
2.5306778,-1.0131484,-0.16717112,0.33753976,-0.73454338,0.58865356,0
1.7762091,3.2311146,0.46521854,-0.33753976,0.73454338,-0.58865356,0
2.4161129,-1.6359487,-3.4257956,0.53686875,-0.3634457,-0.76136672,0
-2.3955538,2.2626352,3.1284895,-0.48516458,0.40013462,0.77750087,0
1.170427,2.6520383,0.089987516,-0.33753976,0.73454338,-0.58865356,0
-4.1854968,-0.32580474,-0.55473375,-0.33753976,0.73454338,-0.58865356,0
-2.4723051,-3.903029,-0.90451002,0.33753976,-0.73454338,0.58865356,0
0.12313879,-2.5999057,-0.76667821,0.33753976,-0.73454338,0.58865356,0
-0.36260056,-0.96365088,1.5536284,0.33753976,-0.73454338,0.58865356,0
3.6767082,1.0510899,1.7515154,0.33753976,-0.73454338,0.58865356,0
-2.5098433,-1.6959953,-3.2253439,-0.33753976,0.73454338,-0.58865356,0
-3.8668666,-0.54232675,-1.0076239,-0.33753976,0.73454338,-0.58865356,0
-0.6432488,-0.59848207,-2.926151,-0.33753976,0.73454338,-0.58865356,0
-4.5792904,-0.80889922,-0.72584963,-0.91419834,-0.40481865,0.019062877,0
2.04917,0.59976232,2.1215794,0.33753976,-0.73454338,0.58865356,0
-2.9693286,-0.50961459,-1.4814618,-0.33753976,0.73454338,-0.58865356,0
0.02981329,-0.79512596,1.5389059,0.33753976,-0.73454338,0.58865356,0
3.7744853,1.70744,2.1918635,0.74050552,0.59328091,0.31570435,0
2.3284559,-2.1984198,-3.203227,0.47879082,-0.40444234,-0.77922136,0
-0.69888216,-3.1089556,-0.93053436,0.33753976,-0.73454338,0.58865356,0
4.3811231,-0.87272269,-1.0530064,0.33753976,-0.73454338,0.58865356,0
0.1429317,-3.5014567,-1.9030157,0.33753976,-0.73454338,0.58865356,0
-3.6532476,-2.0349476,-1.8590803,-0.74937201,-0.58813596,-0.30420029,0
-3.4004164,-1.5764987,2.5308082,0.33753976,-0.73454338,0.58865356,0
-1.8973527,-0.25443128,-1.777716,-0.33753976,0.73454338,-0.58865356,0
-4.328578,0.96518302,1.138252,-0.33753976,0.73454338,-0.58865356,0
0.90590668,-1.0397882,-4.3651299,-0.33753976,0.73454338,-0.58865356,0
0.051301956,-0.00016856194,-2.577816,-0.33753976,0.73454338,-0.58865356,0
1.0365924,3.6583924,2.5481138,0.29316625,0.67628562,0.67578942,0
-1.2079825,-1.492234,-3.7175832,-0.33753976,0.73454338,-0.58865356,0
-3.6620734,-2.8068211,0.82300043,-0.91206312,-0.40988818,0.011512518,0
-2.9752469,-0.034919381,-0.88572598,-0.33753976,0.73454338,-0.58865356,0
-2.8410296,2.2992234,1.949941,-0.33753976,0.73454338,-0.58865356,0
0.88942409,-0.38993788,-3.5447717,-0.33753976,0.73454338,-0.58865356,0
-3.2939656,2.0407627,2.5444164,-0.64850044,0.27181053,0.71103173,0
2.9017477,3.1584888,1.4466939,0.68151134,0.62206763,0.38545322,0
-4.4190836,-0.45784941,-0.58556318,-0.33753976,0.73454338,-0.58865356,0
-4.017724,-2.020838,0.39013529,-0.91967362,-0.3906534,0.039878368,0
3.07618,2.6109915,2.0159836,0.6605556,0.63035905,0.40781587,0
3.4839096,2.5828383,-1.322937,-0.33753976,0.73454338,-0.58865356,0
-3.0267882,-3.0333557,0.49864674,0.33753976,-0.73454338,0.58865356,0
-2.7257681,1.2254319,0.5439328,-0.33753976,0.73454338,-0.58865356,0
2.1401887,-0.22505569,-4.0562263,-0.33753976,0.73454338,-0.58865356,0
-0.89880759,-2.3952248,0.074724793,0.33753976,-0.73454338,0.58865356,0
2.3435466,0.30309257,1.5825856,0.33753976,-0.73454338,0.58865356,0
0.53939211,-3.2392862,-1.8032047,0.33753976,-0.73454338,0.58865356,0
-1.7385817,-4.0296993,-1.6964982,-0.48945105,-0.67112672,-0.55680031,0
2.2919888,0.45990056,1.8078198,0.33753976,-0.73454338,0.58865356,0
3.2674,3.4273987,-0.1075716,0.83695328,0.52038455,0.16943753,0
-2.6070206,-3.1674612,0.090605974,0.33753976,-0.73454338,0.58865356,0
1.8024449,-0.29720259,-3.9525886,-0.33753976,0.73454338,-0.58865356,0
-3.9386647,1.3257896,1.3646497,-0.33753976,0.73454338,-0.58865356,0
-2.7600651,-2.5494351,0.94955897,0.33753976,-0.73454338,0.58865356,0
-2.499182,-3.9086854,-0.94439697,-0.66575694,-0.62838423,-0.4023692,0
-1.964337,1.1635098,0.030052185,-0.33753976,0.73454338,-0.58865356,0
-3.0499997,2.2406688,1.9966999,-0.33753976,0.73454338,-0.58865356,0
-2.3386049,-2.0727859,1.3026698,0.33753976,-0.73454338,0.58865356,0
1.5518165,-1.2793556,0.06193459,0.33753976,-0.73454338,0.58865356,0
1.3375084,1.8629782,4.1059399,0.33753976,-0.73454338,0.58865356,0
-0.10161495,3.7903192,2.2397776,-0.33753976,0.73454338,-0.58865356,0
-1.6383011,-2.7354455,0.074217796,0.33753976,-0.73454338,0.58865356,0
2.4409051,3.2277741,0.07990694,-0.33753976,0.73454338,-0.58865356,0
-4.4065523,-0.30605489,-0.40333366,-0.33753976,0.73454338,-0.58865356,0
-1.0462962,-2.2721913,0.31282163,0.33753976,-0.73454338,0.58865356,0
1.1782854,-0.23099184,-3.5120685,-0.33753976,0.73454338,-0.58865356,0
-0.85180187,-1.5291259,-3.9678555,-0.33753976,0.73454338,-0.58865356,0
0.74979222,-3.0777898,-1.7223284,0.33753976,-0.73454338,0.58865356,0
-1.0109725,-0.4071191,-2.4765048,-0.33753976,0.73454338,-0.58865356,0
-0.36607933,-1.98081,-4.1792822,0.003313303,-0.6244238,-0.78107882,0
3.2629566,-0.90648532,-0.453969,0.33753976,-0.73454338,0.58865356,0
3.4564772,2.2357659,1.9350314,0.71833801,0.60514027,0.34321398,0
2.1343834,2.8463297,-0.22031069,-0.33753976,0.73454338,-0.58865356,0
0.921839,-3.227284,-3.1151197,0.14124477,-0.5787518,-0.80317879,0
2.7863293,1.6049443,-2.143189,-0.33753976,0.73454338,-0.58865356,0
3.886194,2.3079495,-0.080248833,0.89591116,0.4425602,0.038518429,0
0.88408065,-2.3307216,-0.86711192,0.33753976,-0.73454338,0.58865356,0
-0.66659105,-1.2443669,1.3776516,0.33753976,-0.73454338,0.58865356,0
0.62887371,3.2581789,1.1568842,-0.33753976,0.73454338,-0.58865356,0
-0.23997116,-0.018324971,-2.4334533,-0.33753976,0.73454338,-0.58865356,0
2.4912319,0.65757489,-3.1561396,-0.33753976,0.73454338,-0.58865356,0
2.4258695,1.5813265,3.1304073,0.33753976,-0.73454338,0.58865356,0
0.17863071,-3.2576501,-1.6192551,0.33753976,-0.73454338,0.58865356,0
1.1141343,2.64323,3.502625,0.21035624,0.66840136,0.71343529,0
1.2913061,0.98752415,-2.0563676,-0.33753976,0.73454338,-0.58865356,0
-2.233079,-1.4393476,2.0325875,0.33753976,-0.73454338,0.58865356,0
3.857446,0.32512751,0.74199653,0.33753976,-0.73454338,0.58865356,0
-3.9294558,0.03458184,-0.25184679,-0.33753976,0.73454338,-0.58865356,0
0.85727698,2.1779959,-0.32197666,-0.33753976,0.73454338,-0.58865356,0
-2.1719708,-0.10390869,-1.4324199,-0.33753976,0.73454338,-0.58865356,0
2.2109406,-1.5381213,-0.63891095,0.33753976,-0.73454338,0.58865356,0
1.6649015,-2.6168876,-3.3046079,0.32955438,-0.49356198,-0.80485439,0
1.5611715,-0.62235117,0.87640452,0.33753976,-0.73454338,0.58865356,0
3.1505942,0.99416268,-3.1142175,-0.33753976,0.73454338,-0.58865356,0
0.27833864,2.242142,0.090036273,-0.33753976,0.73454338,-0.58865356,0
4.4101272,-0.53201604,-0.64449143,0.33753976,-0.73454338,0.58865356,0
-2.9978876,2.4847908,2.6052918,-0.56842482,0.33940643,0.74946415,0
0.013127297,-1.5728561,0.57799381,0.33753976,-0.73454338,0.58865356,0
3.7121966,2.6892619,-0.88531971,0.91820693,0.39463302,-0.034071505,0
1.3464437,-0.71949339,-4.2180624,-0.33753976,0.73454338,-0.58865356,0
-3.3930995,0.43028247,-0.065629005,-0.33753976,0.73454338,-0.58865356,0
-3.1854978,-3.1557798,0.43688726,0.33753976,-0.73454338,0.58865356,0
-1.7675066,-0.48704219,2.9539454,0.33753976,-0.73454338,0.58865356,0
-3.8598514,-0.20391527,-0.58936429,-0.33753976,0.73454338,-0.58865356,0
-1.3353857,-2.5370767,0.14805508,0.33753976,-0.73454338,0.58865356,0
2.5773764,-0.94082868,-0.10370517,0.33753976,-0.73454338,0.58865356,0
-1.0701418,2.1398654,0.73564363,-0.33753976,0.73454338,-0.58865356,0
-1.3538475,3.482173,2.8440807,-0.20029771,0.55498654,0.80738515,0
0.20548224,-2.3152609,-0.45870423,0.33753976,-0.73454338,0.58865356,0
2.5111651,0.31283045,-3.597754,-0.33753976,0.73454338,-0.58865356,0
-1.540962,-2.2203226,-3.7637947,-0.25956747,-0.67374098,-0.69187993,0
4.3249764,0.44017357,0.61746836,0.33753976,-0.73454338,0.58865356,0
-0.39403415,1.2111083,4.2853961,0.33753976,-0.73454338,0.58865356,0
0.59272242,-1.011618,-4.1503949,-0.33753976,0.73454338,-0.58865356,0
3.7183537,2.6021509,-1.2819178,0.93213117,0.34795097,-0.10030735,0
1.4444213,-0.30270004,-3.754154,-0.33753976,0.73454338,-0.58865356,0
3.3493845,2.9792719,0.73781061,0.79107863,0.56027901,0.24552429,0
-3.3121018,-2.7335422,1.0363665,0.33753976,-0.73454338,0.58865356,0
0.67042589,-1.3612989,-4.4618506,0.25401503,-0.53107721,-0.80835217,0
-3.9397094,0.69702548,0.58065391,-0.33753976,0.73454338,-0.58865356,0
-1.8230693,1.6928384,3.766866,-0.43202162,0.43471426,0.79017776,0
-1.9506271,-1.9750211,1.2021935,0.33753976,-0.73454338,0.58865356,0
-3.4366004,0.95830774,2.7532811,-0.74544847,0.17326267,0.64365101,0
-3.2954378,-0.2735014,3.2039096,-0.80541939,0.098299503,0.58449721,0
-1.6731515,-1.9170587,-3.9809625,-0.33753976,0.73454338,-0.58865356,0
0.39025736,1.5653124,-0.81871188,-0.33753976,0.73454338,-0.58865356,0
1.687642,-1.9537357,-0.85746521,0.33753976,-0.73454338,0.58865356,0
-4.1175365,0.14274597,-0.0090286732,-0.33753976,0.73454338,-0.58865356,0
0.18485832,2.2565739,0.16164732,-0.33753976,0.73454338,-0.58865356,0
-1.6724268,-2.5119491,0.37267256,0.33753976,-0.73454338,0.58865356,0
-0.76614344,-3.6291285,-1.5410566,0.33753976,-0.73454338,0.58865356,0
3.496078,2.1978068,-1.8103707,-0.33753976,0.73454338,-0.58865356,0
4.3077908,0.82832813,1.1116767,0.33753976,-0.73454338,0.58865356,0
1.2793815,-0.66928887,-4.1169615,-0.33753976,0.73454338,-0.58865356,0
-4.1764665,0.24538733,0.15284228,-0.33753976,0.73454338,-0.58865356,0
0.795614,2.8978324,0.61161971,-0.33753976,0.73454338,-0.58865356,0
1.5396931,-0.731139,0.75297105,0.33753976,-0.73454338,0.58865356,0
-3.4381573,-3.093461,-0.070552349,-0.84431207,-0.51273918,-0.1556778,0
1.5552139,0.31879854,-3.0421548,-0.33753976,0.73454338,-0.58865356,0
-3.7386637,-1.1341116,2.4528251,-0.90694594,-0.086349249,0.41230199,0
-2.9463124,0.02486451,-0.82771683,-0.33753976,0.73454338,-0.58865356,0
1.7322667,1.6771346,3.6476789,0.33753976,-0.73454338,0.58865356,0
-1.8153764,-1.9949327,1.099793,0.33753976,-0.73454338,0.58865356,0
1.1883649,-1.3987012,0.12141773,0.33753976,-0.73454338,0.58865356,0
2.21311,-0.10543495,1.1476035,0.33753976,-0.73454338,0.58865356,0
-1.0422828,1.9931498,0.53659201,-0.33753976,0.73454338,-0.58865356,0
-4.458807,-0.89889437,-1.1131377,-0.33753976,0.73454338,-0.58865356,0
-2.2228627,-1.9238269,1.4221779,0.33753976,-0.73454338,0.58865356,0
-1.2002798,-2.0097737,0.72857141,0.33753976,-0.73454338,0.58865356,0
1.0027696,-1.6921839,-0.13837853,0.33753976,-0.73454338,0.58865356,0
1.3363025,3.4852397,1.0345724,-0.33753976,0.73454338,-0.58865356,0
-2.459723,-2.099668,1.3385755,0.33753976,-0.73454338,0.58865356,0
-2.6967449,-0.29236674,3.7297025,0.33753976,-0.73454338,0.58865356,0
-2.3326766,-0.57366014,-1.9264426,-0.33753976,0.73454338,-0.58865356,0
0.76662707,1.2522511,3.6712012,0.33753976,-0.73454338,0.58865356,0
-1.0773211,0.21886474,-1.6573342,-0.33753976,0.73454338,-0.58865356,0
-1.2234182,2.1763053,0.86900496,-0.33753976,0.73454338,-0.58865356,0
1.2327411,1.7306197,-1.0955241,-0.33753976,0.73454338,-0.58865356,0
-1.9979455,-3.3568144,-0.4949255,0.33753976,-0.73454338,0.58865356,0
3.3814039,1.9249017,2.5819976,0.65786183,0.63136095,0.4106108,0
-1.0425599,-0.40708786,-2.4583535,-0.33753976,0.73454338,-0.58865356,0
-0.04611516,3.7613382,2.1717899,-0.33753976,0.73454338,-0.58865356,0
1.9548757,-2.95363,-2.9772663,0.35364443,-0.48058772,-0.80247808,0
-2.3092077,-0.56162268,-1.9248793,-0.33753976,0.73454338,-0.58865356,0
-4.5555172,0.32407534,0.94086003,-0.92068577,-0.1274322,0.3689158,0
0.28797239,-1.0629611,1.0566604,0.33753976,-0.73454338,0.58865356,0
1.2139914,-0.36736786,-3.7027178,-0.33753976,0.73454338,-0.58865356,0
0.67473054,1.9711046,4.1764946,0.057049513,0.64016873,0.76611322,0
-1.4912595,-1.9439662,0.97753942,0.33753976,-0.73454338,0.58865356,0
-1.7725642,0.22462702,3.844892,0.33753976,-0.73454338,0.58865356,0
1.3802454,-0.17845356,-3.5623155,-0.33753976,0.73454338,-0.58865356,0
1.8902535,-2.0553989,-3.5294762,0.41479248,-0.44530019,-0.79350793,0
-1.7354187,-1.4958974,1.6766591,0.33753976,-0.73454338,0.58865356,0
-3.3447704,-1.6485422,2.4090018,0.33753976,-0.73454338,0.58865356,0
0.40150356,1.0989232,3.6892385,0.33753976,-0.73454338,0.58865356,0
2.9841204,2.7141654,2.0039105,0.64864635,0.63468361,0.4200412,0
-0.69475508,-3.1150734,-3.1776049,-0.16812718,-0.6623441,-0.73009145,0
-4.4458961,0.34393364,0.43030548,-0.33753976,0.73454338,-0.58865356,0
-2.7932174,-3.3558786,-0.037740707,0.33753976,-0.73454338,0.58865356,0
3.6536989,1.4279124,-2.5759745,0.91184127,0.099896997,-0.39820376,0
-1.770328,2.7429769,3.1838591,-0.33803457,0.48905236,0.80408978,0
1.2781839,-2.0438983,-3.8125806,0.3074075,-0.50504953,-0.80648971,0
2.0523732,3.3462458,0.45052862,-0.33753976,0.73454338,-0.58865356,0
4.458622,0.72916853,-0.52466679,0.94126087,0.26985365,-0.20299512,0
4.1403623,1.7397163,-0.28864384,0.92385131,0.37839779,-0.057566881,0
1.6627927,-3.1914616,-2.3876958,0.33753976,-0.73454338,0.58865356,0
3.0010545,-1.0811622,-0.52175975,0.33753976,-0.73454338,0.58865356,0
2.7104459,2.9210067,2.0907426,0.60232127,0.64911258,0.4646095,0
1.9291538,3.6392951,1.9994986,0.49208647,0.67079443,0.55487454,0
-3.0434937,-1.533702,-2.7168283,-0.33753976,0.73454338,-0.58865356,0
0.1618402,0.75798672,3.4012313,0.33753976,-0.73454338,0.58865356,0
3.0258276,0.79989743,-3.2850864,-0.33753976,0.73454338,-0.58865356,0
-1.056381,-3.7922568,-1.5781889,0.33753976,-0.73454338,0.58865356,0
-3.6855803,1.4526861,1.377875,-0.33753976,0.73454338,-0.58865356,0
2.2176316,0.51714301,-3.1744905,-0.33753976,0.73454338,-0.58865356,0
-4.1253071,-1.7354032,0.50177336,-0.93005973,-0.35664791,0.088267148,0
-3.3257165,2.0407045,1.9052761,-0.33753976,0.73454338,-0.58865356,0
0.95993268,2.0020726,-0.60036385,-0.33753976,0.73454338,-0.58865356,0
1.7167397,3.9512677,1.8090901,0.47585753,0.67271674,0.56657898,0
1.1206094,2.1763711,-0.47500157,-0.33753976,0.73454338,-0.58865356,0
0.4895016,-1.5420065,0.34333119,0.33753976,-0.73454338,0.58865356,0
2.0403478,3.2465961,0.33307719,-0.33753976,0.73454338,-0.58865356,0
4.4700403,1.039655,0.43161964,0.91839212,0.39413884,-0.034794331,0
-0.080206111,1.5973735,-0.50893641,-0.33753976,0.73454338,-0.58865356,0
-0.39756039,1.555414,-0.37932086,-0.33753976,0.73454338,-0.58865356,0
-4.2506838,-0.63095701,1.3473439,-0.93123055,-0.16929907,0.32271922,0
-0.08959353,-3.5556283,-1.8372809,0.33753976,-0.73454338,0.58865356,0
0.55659556,1.0687902,3.5627065,0.33753976,-0.73454338,0.58865356,0
-2.7823257,-1.6913799,2.0330358,0.33753976,-0.73454338,0.58865356,0
-3.329114,-0.099382557,-0.76325464,-0.33753976,0.73454338,-0.58865356,0
-0.7736153,0.97426796,-0.88886249,-0.33753976,0.73454338,-0.58865356,0
-2.0884631,-0.46162182,-1.9266715,-0.33753976,0.73454338,-0.58865356,0
1.9116684,1.4455627,-1.8405318,-0.33753976,0.73454338,-0.58865356,0
3.9418833,2.1829329,-0.54970837,0.92071712,0.38772765,-0.044127524,0
1.8631012,-2.3832762,-1.4940717,0.33753976,-0.73454338,0.58865356,0
3.7535441,-0.22535917,0.11465788,0.33753976,-0.73454338,0.58865356,0
2.8277123,0.4783037,1.5235951,0.33753976,-0.73454338,0.58865356,0
-3.3451707,-0.23200257,-0.91953588,-0.33753976,0.73454338,-0.58865356,0
-3.7081347,0.10143638,2.5535827,-0.83730829,0.051437199,0.54430604,0
-0.28133464,-1.0296019,-3.6716433,-0.33753976,0.73454338,-0.58865356,0
-1.0608521,-0.81499141,-2.9568615,-0.33753976,0.73454338,-0.58865356,0
-2.6197,1.9751073,3.1200266,-0.5447681,0.3575514,0.75854123,0
3.9445972,1.1718426,1.7485852,0.33753976,-0.73454338,0.58865356,0
3.5581374,0.38707852,-2.8283739,0.8468222,-0.036119998,-0.53064817,0
1.497874,1.3190056,-1.7611808,-0.33753976,0.73454338,-0.58865356,0
-3.1701012,-2.94837,-1.275362,-0.73033923,-0.59889072,-0.32853401,0
-0.0046679974,0.078165054,-2.4479744,-0.33753976,0.73454338,-0.58865356,0
4.5086637,0.63008183,0.74911499,0.33753976,-0.73454338,0.58865356,0
1.4856982,-1.3421394,0.021503687,0.33753976,-0.73454338,0.58865356,0
-0.82285166,0.86423051,4.0984378,0.33753976,-0.73454338,0.58865356,0
-2.7256563,-1.4305313,-2.770339,-0.33753976,0.73454338,-0.58865356,0
2.5247641,3.4967482,1.5232096,0.62254053,0.64326012,0.44571263,0
1.624828,3.2901409,0.62567711,-0.33753976,0.73454338,-0.58865356,0
0.069236517,-0.082531095,2.4055018,0.33753976,-0.73454338,0.58865356,0
-2.4467139,-0.13393188,-1.3123434,-0.33753976,0.73454338,-0.58865356,0
4.320353,1.3612553,0.12793493,0.92004633,0.38961792,-0.04138422,0
-1.2407701,-0.50345898,-2.4649532,-0.33753976,0.73454338,-0.58865356,0
1.2392769,3.7732882,1.4496448,-0.33753976,0.73454338,-0.58865356,0
-0.44157767,0.3927111,-1.8049442,-0.33753976,0.73454338,-0.58865356,0
-3.1665859,-1.5545546,2.4241099,0.33753976,-0.73454338,0.58865356,0
3.5876601,2.9404376,-0.44377375,0.88802832,0.45589882,0.059682965,0
2.3099375,-1.2875817,-0.38304424,0.33753976,-0.73454338,0.58865356,0
-1.0469077,-1.0987802,-3.3189788,-0.33753976,0.73454338,-0.58865356,0
-1.5640094,1.2719339,4.1395426,-0.42065758,0.44172955,0.7924155,0
-0.42446375,0.067441106,-2.2206411,-0.33753976,0.73454338,-0.58865356,0
-1.3536081,-1.8870769,0.96959734,0.33753976,-0.73454338,0.58865356,0
1.0843455,2.8632076,0.4028523,-0.33753976,0.73454338,-0.58865356,0
3.4900165,-0.78350204,-2.7343433,0.76476127,-0.15061355,-0.62646282,0
3.936069,1.2138467,-1.9456995,0.92781723,0.15411252,-0.33971226,0
-1.3118165,0.88934618,-0.68622106,-0.33753976,0.73454338,-0.58865356,0
-4.1526971,-0.7694031,-1.12708,-0.33753976,0.73454338,-0.58865356,0
-3.7217827,1.7486463,1.7679434,-0.33753976,0.73454338,-0.58865356,0
3.487416,2.3891928,1.5826821,0.74844116,0.58868754,0.30542231,0
3.8484735,0.39647508,-2.326571,0.8823514,0.02905488,-0.46969327,0
0.16128087,2.3375838,3.8929849,-0.011340499,0.62213618,0.78282702,0
0.17512131,3.8834653,2.5959773,0.13382697,0.65644979,0.74240428,0
-4.0214858,-1.0853351,-1.5965495,-0.33753976,0.73454338,-0.58865356,0
0.1206733,3.4846892,1.7309389,-0.33753976,0.73454338,-0.58865356,0
2.4038205,2.4189694,-0.90808439,-0.33753976,0.73454338,-0.58865356,0
3.0801718,1.765451,2.9849818,0.33753976,-0.73454338,0.58865356,0
-1.1284872,2.5666645,1.3016751,-0.33753976,0.73454338,-0.58865356,0
-2.5447054,2.5949879,2.1490917,-0.33753976,0.73454338,-0.58865356,0
-3.549469,-1.2710956,2.8277121,-0.89379299,-0.053919733,0.4452267,0
-2.3898211,-1.4313433,2.132453,0.33753976,-0.73454338,0.58865356,0
2.128511,-3.1039834,-2.8094316,0.37213916,-0.47027853,-0.80021906,0
-1.7156729,-2.8268895,0.0044760704,0.33753976,-0.73454338,0.58865356,0
-3.7960861,1.0364654,0.92186463,-0.33753976,0.73454338,-0.58865356,0
4.3825803,0.99417752,-0.50737596,0.94012558,0.2944414,-0.17166263,0
-0.89430857,-0.330369,2.6487472,0.33753976,-0.73454338,0.58865356,0
-2.6278663,-2.0150666,-3.3426139,-0.4808709,-0.67215425,-0.56300253,0
2.5659957,-1.5440961,-0.84995848,0.33753976,-0.73454338,0.58865356,0
0.2631079,3.1426485,1.2224544,-0.33753976,0.73454338,-0.58865356,0
-1.9073337,2.5903287,1.7778025,-0.33753976,0.73454338,-0.58865356,0
-3.6389475,1.8059782,2.2831411,-0.71782827,0.20367439,0.66576225,0
3.3128378,0.40631276,1.1555858,0.33753976,-0.73454338,0.58865356,0
4.6318774,-0.40307406,-0.77559328,0.92407149,0.13943619,-0.35587817,0
-3.159066,-2.2527936,-2.4298,-0.63886875,-0.63803691,-0.42983204,0
3.9433296,0.68779528,-2.0960917,0.90690333,0.086235583,-0.4124195,0
-2.3457012,-0.57753444,3.1725678,0.33753976,-0.73454338,0.58865356,0
-2.8570404,-0.1463654,3.7207196,-0.7349118,0.1851214,0.65240693,0
2.1225586,3.1984322,2.3609133,0.48992029,0.67106813,0.55645812,0
-0.52341545,-1.0399456,1.5506377,0.33753976,-0.73454338,0.58865356,0
3.5064785,-0.12286308,0.38422561,0.33753976,-0.73454338,0.58865356,0
-4.2881436,-1.2253381,0.62633133,-0.93951958,-0.30146086,0.16255605,0
-2.6640182,-3.1304061,-1.8568554,-0.615044,-0.6455071,-0.45281506,0
4.1126561,0.72661936,-1.6811781,0.92406332,0.13940534,-0.35591197,0
-3.4576318,-2.1665218,-2.05335,-0.709526,-0.60948759,-0.35369158,0
-2.5675044,2.4980321,2.0411801,-0.33753976,0.73454338,-0.58865356,0
4.416647,0.75878716,-0.67461848,0.94124866,0.25616312,-0.22007155,0
-0.92572141,3.1605663,1.9265001,-0.33753976,0.73454338,-0.58865356,0
-0.50014508,2.7122633,1.1230612,-0.33753976,0.73454338,-0.58865356,0
-2.8989413,1.9474784,2.9205065,-0.59246445,0.32016766,0.7392419,0
-2.1058884,2.216188,1.4247893,-0.33753976,0.73454338,-0.58865356,0
-4.01265,-0.028758526,2.0408874,-0.88180411,-0.02792576,0.47078842,0
-1.4245774,-1.3077263,1.7332265,0.33753976,-0.73454338,0.58865356,0
2.1447186,-1.6800218,-0.77800727,0.33753976,-0.73454338,0.58865356,0
-2.5754731,-2.1985042,-3.1680171,-0.48837051,-0.67126071,-0.55758715,0
2.0788143,-1.4768386,-0.48667759,0.33753976,-0.73454338,0.58865356,0
2.0210769,0.65389669,2.2052391,0.33753976,-0.73454338,0.58865356,0
1.882962,0.29562524,1.8373712,0.33753976,-0.73454338,0.58865356,0
-3.6112447,-0.65205276,-1.2911198,-0.33753976,0.73454338,-0.58865356,0
3.4589741,2.2091315,1.9766259,0.71552563,0.60654926,0.34658492,0
1.410655,3.1727033,2.867353,0.32596478,0.67787391,0.65896434,0
-4.0641265,-0.63072604,-1.0048208,-0.33753976,0.73454338,-0.58865356,0
-2.6773422,-1.1325347,2.6701846,0.33753976,-0.73454338,0.58865356,0
-0.443425,-1.8404305,0.50589627,0.33753976,-0.73454338,0.58865356,0
0.74606657,0.57960254,2.8436356,0.33753976,-0.73454338,0.58865356,0
3.1931279,-2.3083994,-2.1632881,0.33753976,-0.73454338,0.58865356,0
-2.716222,-2.4444461,-2.7244222,-0.54922187,-0.66155696,-0.51058573,0
-2.7963984,0.26512802,-0.61386943,-0.33753976,0.73454338,-0.58865356,0
-2.6413987,0.31527194,-0.6401763,-0.33753976,0.73454338,-0.58865356,0
0.83271599,-0.2222681,-3.30303,-0.33753976,0.73454338,-0.58865356,0
-2.3968022,0.022679567,3.9508381,0.33753976,-0.73454338,0.58865356,0
-0.844836,-2.7522843,-3.472126,-0.16468579,-0.6617918,-0.73137558,0
-1.6771748,2.7036767,1.787267,-0.33753976,0.73454338,-0.58865356,0
-3.8887601,-2.3119218,0.22309685,-0.9029426,-0.42938218,-0.018042445,0
-4.5693607,0.29748663,0.44314337,-0.33753976,0.73454338,-0.58865356,0
-3.6778233,-0.45723081,2.6323524,-0.8655988,0.0035124719,0.50072598,0
1.3814927,0.78217089,-2.3643286,-0.33753976,0.73454338,-0.58865356,0
3.5628219,1.1671683,1.9616659,0.33753976,-0.73454338,0.58865356,0
-3.4080093,-0.77625418,3.0941088,-0.85043716,0.030104369,0.52521455,0
0.38840151,2.813199,0.73951101,-0.33753976,0.73454338,-0.58865356,0
3.2520897,-0.82786447,-0.34963155,0.33753976,-0.73454338,0.58865356,0
-1.4776067,1.4719929,0.13589251,-0.33753976,0.73454338,-0.58865356,0
-0.60599172,-0.14024293,-2.3757069,-0.33753976,0.73454338,-0.58865356,0
2.8331208,3.7085524,0.6384654,0.73399222,0.59690946,0.32396704,0
0.011624336,0.96481693,-1.3509202,-0.33753976,0.73454338,-0.58865356,0
1.081811,2.8357134,3.3312991,0.22216174,0.66985333,0.70847774,0
-0.5103097,-1.1822116,-3.7307787,-0.33753976,0.73454338,-0.58865356,0
-2.6700923,-0.36136079,3.6283264,0.33753976,-0.73454338,0.58865356,0
-2.1069574,-0.47643256,-1.9345479,-0.33753976,0.73454338,-0.58865356,0
3.447778,-1.272939,-2.6517391,0.72583038,-0.19508348,-0.65963072,0
-3.0031013,-0.23921028,-1.1246755,-0.33753976,0.73454338,-0.58865356,0
0.57515371,2.3065996,0.00027179718,-0.33753976,0.73454338,-0.58865356,0
-0.76701307,-3.3872156,-2.9079466,-0.20925587,-0.66826063,-0.71389061,0
0.08136332,-0.97854048,1.2804753,0.33753976,-0.73454338,0.58865356,0
1.1677275,-0.93693495,0.70946014,0.33753976,-0.73454338,0.58865356,0
-4.1468506,-0.96227694,1.468715,-0.93439925,-0.18581711,0.30392438,0
-0.19625986,2.8713653,1.1473434,-0.33753976,0.73454338,-0.58865356,0
1.884105,-0.36655641,-4.0859551,-0.33753976,0.73454338,-0.58865356,0
2.4035764,-1.2954586,-0.44656682,0.33753976,-0.73454338,0.58865356,0
0.45037651,0.98942715,3.5245814,0.33753976,-0.73454338,0.58865356,0
-1.8734262,0.85822016,-0.40302861,-0.33753976,0.73454338,-0.58865356,0
4.4174256,-0.33869725,-0.40744638,0.33753976,-0.73454338,0.58865356,0
2.2871635,-1.4532773,-0.57674658,0.33753976,-0.73454338,0.58865356,0
-2.2271321,0.50844836,-0.63666809,-0.33753976,0.73454338,-0.58865356,0
-0.3292613,3.1973734,1.6304126,-0.33753976,0.73454338,-0.58865356,0
-1.6323743,-1.6456403,1.4307179,0.33753976,-0.73454338,0.58865356,0
3.3385344,1.1061922,2.0141864,0.33753976,-0.73454338,0.58865356,0
0.22302681,-0.89570284,1.3026117,0.33753976,-0.73454338,0.58865356,0
0.81626093,-2.4100485,-0.92721057,0.33753976,-0.73454338,0.58865356,0
4.1882257,0.11322367,-1.677402,0.90498,0.081168324,-0.41763973,0
0.55423772,3.8337855,1.9179442,-0.33753976,0.73454338,-0.58865356,0
3.4259589,0.33746243,-3.0267844,0.82682264,-0.067544132,-0.55839241,0
-3.3241057,-2.6743717,-1.4311037,-0.7386902,-0.5943048,-0.31802291,0
1.0323153,2.5148461,-0.0020112991,-0.33753976,0.73454338,-0.58865356,0
-1.9211011,0.94483447,4.1005359,-0.50727022,0.38483754,0.77108812,0
3.0192852,0.26691189,1.1499622,0.33753976,-0.73454338,0.58865356,0
-2.9054694,-2.3134503,1.3274052,0.33753976,-0.73454338,0.58865356,0
2.421241,1.1051033,2.5388126,0.33753976,-0.73454338,0.58865356,0
-3.5561006,-2.3717701,-1.4395161,-0.76732683,-0.57693285,-0.27992499,0
0.72444177,0.39276314,-2.4734862,-0.33753976,0.73454338,-0.58865356,0
-0.11679459,-2.8457079,-3.4840074,-0.025954366,-0.63237953,-0.77422392,0
-1.2058694,-1.8411043,-4.1541281,-0.33753976,0.73454338,-0.58865356,0
3.9594729,-0.32096571,-0.12272573,0.33753976,-0.73454338,0.58865356,0
3.6315517,-0.64527953,-2.5840602,0.79361022,-0.11423197,-0.59760678,0
0.7457158,2.7410522,0.44459605,-0.33753976,0.73454338,-0.58865356,0
2.0717003,2.306509,-0.85797548,-0.33753976,0.73454338,-0.58865356,0
2.0074062,2.3383384,-0.78139091,-0.33753976,0.73454338,-0.58865356,0
1.8032205,-1.2162375,-4.0350533,0.46621424,-0.41281086,-0.78245229,0
3.3147757,1.2461101,-2.8939719,-0.33753976,0.73454338,-0.58865356,0
1.0033445,-3.664865,-2.7838173,0.11855561,-0.587201,-0.80071181,0
1.8016967,2.2511573,-0.77222276,-0.33753976,0.73454338,-0.58865356,0
-3.9577279,-1.8597987,1.3415823,-0.94099766,-0.27944836,0.19087148,0
2.3379774,2.4175091,3.1061583,0.45640457,0.6746403,0.58013386,0
-2.2130318,1.3541312,0.41052067,-0.33753976,0.73454338,-0.58865356,0
-1.3988173,-2.484997,0.24941349,0.33753976,-0.73454338,0.58865356,0
0.68761635,-2.7274706,-1.2495351,0.33753976,-0.73454338,0.58865356,0
-1.3638566,0.80592906,4.3359051,0.33753976,-0.73454338,0.58865356,0
-1.0238936,-2.3021398,0.26260495,0.33753976,-0.73454338,0.58865356,0
3.6315441,2.8017695,-0.10469437,0.87405717,0.47670907,0.093662024,0
-1.2988203,1.1684655,4.3323383,-0.38265425,0.464279,0.79876208,0
-1.01517,-2.8591762,-0.4374876,0.33753976,-0.73454338,0.58865356,0
-0.37380612,1.4298538,-0.54962027,-0.33753976,0.73454338,-0.58865356,0
-3.2316644,0.6032238,0.05760479,-0.33753976,0.73454338,-0.58865356,0
0.7131803,-0.39732885,-3.4529343,-0.33753976,0.73454338,-0.58865356,0
-3.8428888,-1.6214368,2.0002215,-0.9343341,-0.18544486,0.30435157,0
-0.68463802,1.4927456,4.3707833,-0.24555016,0.53499359,0.80838543,0
2.2379911,-2.5624516,-1.9326186,0.33753976,-0.73454338,0.58865356,0
-2.0458522,-1.4841769,1.8692902,0.33753976,-0.73454338,0.58865356,0
-2.0698476,2.4408348,3.2192969,-0.41522294,0.44503927,0.79342926,0
0.26107812,-3.9402599,-2.600615,-0.050862014,-0.63867337,-0.76779509,0
-4.1891265,0.36775219,1.7338409,-0.88114905,-0.02658087,0.47209105,0
-1.4253877,2.8440261,1.8180225,-0.33753976,0.73454338,-0.58865356,0
-3.1241784,-1.7197354,-2.9027021,-0.33753976,0.73454338,-0.58865356,0
2.0304706,-0.42418206,-4.2417898,-0.33753976,0.73454338,-0.58865356,0
-1.9058475,0.48667192,4.2483072,0.33753976,-0.73454338,0.58865356,0
-1.3134964,-2.4048297,-3.6658485,-0.22926921,-0.67067587,-0.70542866,0
2.7994869,-2.7961221,-2.5461686,0.33753976,-0.73454338,0.58865356,0
-3.0604851,2.5168748,2.5429575,-0.57623047,0.33325091,0.74625885,0
0.97706151,0.94615149,-1.9278027,-0.33753976,0.73454338,-0.58865356,0
2.3555665,-1.984484,-1.2788285,0.33753976,-0.73454338,0.58865356,0
4.1456604,1.4662545,1.5714464,0.8276968,0.52943921,0.18604398,0
-1.3704553,-0.54520965,2.6536884,0.33753976,-0.73454338,0.58865356,0
3.560904,-0.52765536,-2.7002854,0.79131204,-0.11725679,-0.60006344,0
0.61527395,3.9140534,1.9831064,-0.33753976,0.73454338,-0.58865356,0
-2.6099651,1.2103171,3.4710035,-0.60048622,0.31355771,0.73559356,0
1.1668978,-0.28542817,-3.5734668,-0.33753976,0.73454338,-0.58865356,0
1.1569417,2.2828956,3.8251398,0.18469137,0.6648795,0.72375715,0
-2.2729294,-3.5954967,-0.63508368,0.33753976,-0.73454338,0.58865356,0
3.3935728,2.4466577,1.6930757,0.72825497,0.60000437,0.33111882,0
1.9778926,-1.4822006,-0.43549901,0.33753976,-0.73454338,0.58865356,0
4.181313,1.0718832,-1.2783582,0.93881899,0.21722174,-0.26727086,0
-0.20179176,0.76216817,-1.4814174,-0.33753976,0.73454338,-0.58865356,0
-1.1018493,-2.3867314,0.20174909,0.33753976,-0.73454338,0.58865356,0
0.44889903,0.34383965,-2.3765359,-0.33753976,0.73454338,-0.58865356,0
2.0927241,0.2249673,1.6289219,0.33753976,-0.73454338,0.58865356,0
-1.7408636,0.52262008,4.1985612,0.33753976,-0.73454338,0.58865356,0
-2.1842215,-2.1246569,-3.5439517,-0.39066383,-0.67827004,-0.62235969,0
-2.9141412,2.2414217,2.7789092,-0.57300979,0.33580118,0.74759448,0
1.5222516,-0.7454555,-4.3512692,-0.33753976,0.73454338,-0.58865356,0
-0.5214541,3.7497146,2.4298496,-0.33753976,0.73454338,-0.58865356,0
3.3427453,-1.3577586,-1.0628361,0.33753976,-0.73454338,0.58865356,0
-0.54589581,0.13362527,3.0279529,0.33753976,-0.73454338,0.58865356,0
1.7242033,2.3693013,-0.58036304,-0.33753976,0.73454338,-0.58865356,0
4.3911872,1.1792872,0.064150333,0.92678422,0.36877254,-0.071259379,0
-1.3632047,-2.0119038,-4.0203857,-0.2017535,-0.66727638,-0.71696436,0
0.056724072,3.3215513,1.5640388,-0.33753976,0.73454338,-0.58865356,0
1.8571606,-2.5117576,-3.2836659,0.37227863,-0.47019964,-0.80020058,0
0.89941859,2.3777456,-0.096885562,-0.33753976,0.73454338,-0.58865356,0
-0.804555,0.2854681,-1.7306309,-0.33753976,0.73454338,-0.58865356,0
-0.41036606,3.7524586,2.369575,-0.33753976,0.73454338,-0.58865356,0
-2.9199066,0.84421551,3.3377199,-0.67580104,0.24621396,0.69474578,0
3.1024187,-0.41279101,-3.2856195,0.73320824,-0.18700798,-0.65378422,0
1.8707875,2.1526117,-0.93480909,-0.33753976,0.73454338,-0.58865356,0
-2.6820362,1.5781847,3.253958,-0.58482528,0.3263723,0.7426039,0
-3.1353881,-0.91733599,3.2013657,0.33753976,-0.73454338,0.58865356,0
-2.1371722,-3.2436795,-2.2930398,-0.49828768,-0.66998124,-0.55030406,0
-2.2128034,0.80943739,-0.26929939,-0.33753976,0.73454338,-0.58865356,0
1.2790718,1.582062,3.7889106,0.33753976,-0.73454338,0.58865356,0
-1.1125519,-3.6128349,-1.3220906,0.33753976,-0.73454338,0.58865356,0
-0.67128623,-0.58310902,-2.8908906,-0.33753976,0.73454338,-0.58865356,0
3.2825449,2.5968282,1.6623616,0.71602321,0.60630149,0.34599018,0
0.48437929,-0.45113599,-3.3888803,-0.33753976,0.73454338,-0.58865356,0
-1.0892605,3.0282149,1.8551219,-0.33753976,0.73454338,-0.58865356,0
1.6115513,2.6497424,-0.16582274,-0.33753976,0.73454338,-0.58865356,0
2.9847715,-0.97736871,-0.38290584,0.33753976,-0.73454338,0.58865356,0
3.8052363,2.4859726,-0.73234367,0.91857159,0.39365739,-0.035498023,0
-1.4966958,2.8979211,1.9261634,-0.33753976,0.73454338,-0.58865356,0
2.1208251,-1.528424,-0.5751372,0.33753976,-0.73454338,0.58865356,0
-3.5105271,-2.2955999,-1.7056317,-0.74240643,-0.59219831,-0.31326348,0
4.1555586,-0.13536435,-0.0035629272,0.33753976,-0.73454338,0.58865356,0
-0.22239064,-1.8912899,0.31568849,0.33753976,-0.73454338,0.58865356,0
-3.5187566,-0.18796688,-0.76505065,-0.33753976,0.73454338,-0.58865356,0
