-1.61676,3.5199666,-2.7658968,-0.37747449,0.75723416,-0.53301924,0
1.2978997,1.2517104,-5.2578058,0.58182925,-0.25385416,-0.77267903,0
-2.1532393,-3.0944443,-3.8015709,-0.75587875,-0.51945174,-0.39851916,0
2.416434,0.046057224,-4.0194435,0.58182925,-0.25385416,-0.77267903,0
-3.4823697,1.8624785,2.589766,-0.58182925,0.25385416,0.77267903,0
-5.2453866,1.501964,1.380652,-0.58182925,0.25385416,0.77267903,0
4.9705892,1.4265594,0.53824282,0.78749436,0.41330707,0.45719826,0
-3.2014992,-1.6895242,3.9682288,-0.58182925,0.25385416,0.77267903,0
-1.5602431,-2.2177286,5.3776345,-0.58182925,0.25385416,0.77267903,0
1.7384946,0.73888826,-4.757556,0.58182925,-0.25385416,-0.77267903,0
-0.71789956,0.25206852,-6.4472885,0.58182925,-0.25385416,-0.77267903,0
5.7995367,-2.4021356,-0.66763592,0.58182925,-0.25385416,-0.77267903,0
-3.4411595,-3.1879282,-0.89826155,-0.66335279,-0.69780177,-0.27025205,0
-0.14538503,-4.1623378,-4.5658836,0.58182925,-0.25385416,-0.77267903,0
-3.3628106,-3.6438658,0.74060559,-0.51150733,-0.85284257,-0.1049754,0
2.4941821,4.0438447,0.22637391,0.49450177,0.86468172,0.088280559,0
3.747829,2.9807327,0.67141008,0.67814565,0.67589605,0.28858799,0
1.6386433,-2.5629017,3.9151723,0.51905572,-0.61550915,0.59306818,0
-1.2385955,-1.3435612,5.3326383,-0.58182925,0.25385416,0.77267903,0
2.9418249,3.8526011,-0.40881276,0.49077541,0.86716354,0.0846591,0
3.0887282,0.53483629,-3.6737876,0.58182925,-0.25385416,-0.77267903,0
4.6379642,2.5745943,-3.1773458,0.58182925,-0.25385416,-0.77267903,0
0.56947374,-0.69206476,-5.1677094,0.58182925,-0.25385416,-0.77267903,0
4.3681898,0.37979054,-2.6594114,0.58182925,-0.25385416,-0.77267903,0
0.62296486,-0.50806332,-5.187881,0.58182925,-0.25385416,-0.77267903,0
0.67998612,3.2323289,5.273983,-0.58182925,0.25385416,0.77267903,0
4.2638559,3.0885506,-1.0326128,0.59208047,0.78354383,0.18841434,0
-2.4553213,-1.9556508,4.6175361,-0.58182925,0.25385416,0.77267903,0
-1.7899752,-3.9686046,-2.9285038,-0.64984095,-0.71638298,-0.25397313,0
2.6607301,0.29428291,-3.9170403,0.58182925,-0.25385416,-0.77267903,0
5.5598464,-0.27945542,-1.5455036,0.58182925,-0.25385416,-0.77267903,0
4.608778,-0.60383588,1.7659912,0.79017591,-0.048548102,0.61095428,0
0.76140535,2.2638657,5.6534691,-0.58182925,0.25385416,0.77267903,0
0.44063881,-2.1607437,-4.7822056,0.58182925,-0.25385416,-0.77267903,0
4.8840847,-3.8891206,-0.30301952,0.53053653,-0.60161757,0.59714949,0
-4.8603573,0.80856824,-1.4229417,-0.786376,0.066883355,-0.61411667,0
-4.0833969,1.3030841,2.3209734,-0.58182925,0.25385416,0.77267903,0
-0.32065642,3.5891359,4.4032717,-0.58182925,0.25385416,0.77267903,0
-2.0355489,0.053244114,4.2736273,-0.58182925,0.25385416,0.77267903,0
3.519995,-4.7669692,-1.6071992,0.58182925,-0.25385416,-0.77267903,0
1.4631312,2.3916707,5.6023073,0.80835521,0.28521499,0.51498961,0
0.49859929,-0.38687181,-5.3213453,0.58182925,-0.25385416,-0.77267903,0
-1.5681186,-4.3512926,-2.1378651,-0.55601466,-0.81750751,-0.15009844,0
-0.12248349,-4.3621216,-4.4830027,0.58182925,-0.25385416,-0.77267903,0
2.982152,2.8565335,2.530405,0.74360323,0.55085957,0.37895691,0
-2.5675077,-2.6267533,-3.583478,-0.77838445,-0.44922307,-0.43853867,0
-3.8310409,1.0694366,2.58776,-0.58182925,0.25385416,0.77267903,0
-4.9998803,0.26770619,-1.2454338,-0.80582333,-0.051313162,-0.58992863,0
5.2966766,-0.062448263,-1.814966,0.58182925,-0.25385416,-0.77267903,0
-1.9760413,-1.9611602,-5.0248675,-0.81174314,-0.2402156,-0.53232467,0
-3.4516435,3.2038739,2.1722038,-0.58182925,0.25385416,0.77267903,0
0.27402413,4.3569841,4.5988007,-0.58182925,0.25385416,0.77267903,0
-3.4490142,-1.0606489,3.5752401,-0.58182925,0.25385416,0.77267903,0
-4.0690498,4.7276196,1.2066871,-0.58182925,0.25385416,0.77267903,0
-5.3492842,-2.088629,2.4820626,-0.58182925,0.25385416,0.77267903,0
3.4939401,0.53669882,-3.3692739,0.58182925,-0.25385416,-0.77267903,0
0.063524723,5.1412868,1.8935198,0.34792662,0.93640959,-0.045656264,0
-4.9164829,2.577868,1.2748427,-0.58182925,0.25385416,0.77267903,0
1.5190768,-1.8702314,-4.0655832,0.58182925,-0.25385416,-0.77267903,0
-1.1176143,1.144022,-5.6187239,-0.65185177,0.42259532,-0.62968463,0
2.7754462,-3.8297608,1.4964592,0.40905094,-0.72980165,0.54778373,0
-5.0967636,-0.11759663,2.0246525,-0.58182925,0.25385416,0.77267903,0
0.56629276,-3.5902128,3.3382301,0.28317338,-0.8273679,0.48505181,0
2.7808862,-5.0479403,-2.0714402,0.58182925,-0.25385416,-0.77267903,0
5.3935771,-0.20120287,-1.6964135,0.58182925,-0.25385416,-0.77267903,0
-4.0329504,-0.88609695,3.0781879,-0.58182925,0.25385416,0.77267903,0
4.5971284,1.4849308,1.1247644,0.79281384,0.3889713,0.46919906,0
-3.5769751,3.8358369,-0.86528921,-0.46074361,0.68001151,-0.57035053,0
-1.3656139,5.6835003,2.8657556,0.25778568,0.95861727,-0.1208286,0
-1.9497974,3.3666894,3.2496066,-0.58182925,0.25385416,0.77267903,0
0.4336009,-4.1168232,2.3940535,0.15895802,-0.89622587,0.41413972,0
1.1657171,-0.29147243,-4.8503461,0.58182925,-0.25385416,-0.77267903,0
-2.5250137,-2.9524021,-3.2813339,-0.75399625,-0.52451819,-0.395437,0
5.5981464,0.84893572,-0.052517891,0.80101275,0.34344748,0.49032927,0
1.2161884,0.70058107,6.2526569,0.7829355,-0.082395643,0.61662245,0
-4.4831343,3.4298992,-0.50260305,-0.56522918,0.55690449,-0.60858309,0
0.24716949,-0.39136648,6.1385908,-0.58182925,0.25385416,0.77267903,0
0.71941173,2.6800723,5.4851074,-0.58182925,0.25385416,0.77267903,0
-5.0577793,0.12837377,-1.1494579,-0.80913502,-0.084519565,-0.58151281,0
1.1003556,4.4972014,-1.1229706,0.18678784,0.96635443,-0.17683217,0
2.7060204,-0.44291949,-3.6407375,0.58182925,-0.25385416,-0.77267903,0
-4.2689886,-0.58813787,-2.1167941,-0.8131237,-0.16117084,-0.55933356,0
-2.2857985,5.3340693,2.3502383,-0.58182925,0.25385416,0.77267903,0
-4.2686768,-1.5369017,3.1144998,-0.58182925,0.25385416,0.77267903,0
-1.4880693,4.9062014,-0.21926808,-0.075421333,0.92910683,-0.36203909,0
-5.835536,1.734107,-0.035835266,-0.76211429,0.16157472,-0.62695742,0
-3.7485812,-3.1575465,-0.20045042,-0.63917392,-0.73019242,-0.24140382,0
5.0623126,-2.0610313,0.82871532,0.71931392,-0.28275001,0.63453925,0
3.2433476,3.5061212,0.43388891,0.60174906,0.77349794,0.19899535,0
-5.5747576,-1.1421959,2.0013411,-0.58182925,0.25385416,0.77267903,0
4.395617,-1.5397933,-2.0081027,0.58182925,-0.25385416,-0.77267903,0
2.0422156,-1.7839243,-3.7000136,0.58182925,-0.25385416,-0.77267903,0
-1.1762164,2.3647139,-4.5255747,-0.51859367,0.6160593,-0.59290111,0
6.1750627,1.2359343,-1.5801067,0.58182925,-0.25385416,-0.77267903,0
-4.271275,-2.3129184,3.3674941,-0.58182925,0.25385416,0.77267903,0
-0.49125147,-4.5192809,1.3942316,-0.076978207,-0.96296465,0.25840542,0
1.2209057,1.1610422,6.274857,0.80001134,0.0075265467,0.5999378,0
0.030953407,-1.3718305,6.2979007,-0.58182925,0.25385416,0.77267903,0
-1.7797374,5.3105736,2.739023,-0.58182925,0.25385416,0.77267903,0
-0.92974186,5.2749867,3.3907635,-0.58182925,0.25385416,0.77267903,0
2.5249884,-0.16043234,-3.869863,0.58182925,-0.25385416,-0.77267903,0
-1.7303219,-2.1949902,5.242094,-0.58182925,0.25385416,0.77267903,0
-2.5862312,-3.6973376,3.8136749,-0.1141727,-0.96612722,0.23143701,0
4.9688611,0.39539552,1.1522851,0.81330651,0.18479928,0.55170834,0
3.7713227,-0.20545483,-2.9165785,0.58182925,-0.25385416,-0.77267903,0
-0.8020606,-2.9908428,5.1594381,0.2836262,-0.82707012,0.48529503,0
-0.16650534,3.8949227,4.4188857,-0.58182925,0.25385416,0.77267903,0
-2.3378069,1.6309524,-4.0284929,-0.65612346,0.41489196,-0.63037026,0
-0.40193701,-4.8827019,-0.29891169,-0.23608971,-0.96184975,0.13822778,0
3.1015246,1.0039588,3.6923995,0.8125993,0.14170535,0.56533372,0
1.6595116,0.11297321,-4.6113935,0.58182925,-0.25385416,-0.77267903,0
-5.0010872,2.4350448,1.2580581,-0.58182925,0.25385416,0.77267903,0
-2.12467,-2.0868878,4.9096332,-0.58182925,0.25385416,0.77267903,0
1.676676,4.2183104,2.3991892,0.59173042,0.78389966,0.18803388,0
1.9422998,3.9848404,-2.9310467,0.11697674,0.96628308,-0.22937661,0
-1.5105891,-4.4809632,-1.4509146,-0.48701841,-0.86962557,-0.081021309,0
-0.0819664,-3.1586912,4.4460502,0.31116658,-0.80827957,0.49985969,0
1.4123687,-4.7370324,-3.2040827,0.58182925,-0.25385416,-0.77267903,0
0.13386929,3.3257034,4.832078,-0.58182925,0.25385416,0.77267903,0
2.8493974,1.3818488,-4.1322794,0.58182925,-0.25385416,-0.77267903,0
5.3507619,2.487561,-2.0173671,0.63155031,0.73963493,0.23256099,0
-3.3779273,-2.5407364,4.1150331,-0.58182925,0.25385416,0.77267903,0
-2.131835,2.1761913,3.5036554,-0.58182925,0.25385416,0.77267903,0
0.48350543,-2.4545515,-4.6533999,0.58182925,-0.25385416,-0.77267903,0
0.8294611,3.4236567,-4.3692431,-0.19156361,0.88053858,-0.43353805,0
-2.046443,-1.2048864,-5.1456752,-0.80946493,-0.088460654,-0.58046651,0
-3.0462582,-1.568222,4.0452738,-0.58182925,0.25385416,0.77267903,0
-1.9615891,-0.3572979,4.4641981,-0.58182925,0.25385416,0.77267903,0
-0.10412169,5.198904,1.8569785,0.32291365,0.94405389,-0.067002565,0
-4.795013,-3.0252059,2.694334,-0.50680381,-0.85620332,-0.10032946,0
3.5666752,-1.9736447,-2.4897614,0.58182925,-0.25385416,-0.77267903,0
-1.6108842,-2.6768069,5.4903259,-0.58182925,0.25385416,0.77267903,0
-0.96139956,-4.7508006,-0.72758269,-0.35046965,-0.93556511,0.043463886,0
-4.690155,-2.7983642,1.213367,-0.62531501,-0.74710858,-0.22541046,0
3.5067196,2.9805257,1.2232976,0.69679666,0.64556825,0.31259614,0
-1.4466138,2.1148691,4.0397754,-0.58182925,0.25385416,0.77267903,0
3.0257602,-2.9839635,-2.5651438,0.58182925,-0.25385416,-0.77267903,0
3.8468411,1.0367379,-3.2678201,0.58182925,-0.25385416,-0.77267903,0
2.2510734,4.1380091,-1.6536026,0.28564346,0.95330131,-0.098105282,0
-2.4745672,4.447732,2.4992905,-0.58182925,0.25385416,0.77267903,0
4.0540438,-1.1584644,-2.390589,0.58182925,-0.25385416,-0.77267903,0
-4.1800594,0.070620298,2.6530969,-0.58182925,0.25385416,0.77267903,0
1.2294662,0.98698711,-5.2223649,0.58182925,-0.25385416,-0.77267903,0
-2.0970402,-2.8463655,5.1799555,-0.58182925,0.25385416,0.77267903,0
-3.1179457,2.1856835,-2.8448012,-0.63548344,0.45101371,-0.62669575,0
-4.5616388,3.7597823,-0.11374092,-0.52909976,0.60337931,-0.59664637,0
-2.2458735,-3.671484,4.018033,-0.046629548,-0.9588905,0.27991962,0
-1.043664,-1.168725,5.4219823,-0.58182925,0.25385416,0.77267903,0
-0.54076362,-0.65585852,-6.0156159,0.58182925,-0.25385416,-0.77267903,0
0.42916799,0.22582674,6.0728655,-0.58182925,0.25385416,0.77267903,0
1.6365218,4.3267641,-1.4571316,0.22452652,0.963256,-0.14739682,0
0.78583664,1.6423202,5.8760667,-0.58182925,0.25385416,0.77267903,0
-2.8999479,4.3259187,2.2189977,-0.58182925,0.25385416,0.77267903,0
-5.5997009,-1.5045824,2.1016159,-0.58182925,0.25385416,0.77267903,0
5.9065747,-0.17786813,-0.043638229,0.81287593,0.1504322,0.56267488,0
-3.8498735,-1.8334773,3.5272954,-0.58182925,0.25385416,0.77267903,0
-0.82775068,4.8161192,3.6183186,-0.58182925,0.25385416,0.77267903,0
5.0797133,-3.6986833,-0.78369975,0.58182925,-0.25385416,-0.77267903,0
-1.4320674,-2.1446905,-5.7708759,-0.81230396,-0.22864294,-0.53654909,0
-6.1717033,1.4417115,0.70292854,-0.58182925,0.25385416,0.77267903,0
0.87799191,0.612957,-5.3641434,0.58182925,-0.25385416,-0.77267903,0
-0.10232353,1.700592,-6.1484976,-0.54329902,0.5856638,-0.60151815,0
-0.59874272,-2.2183328,-5.5459423,0.58182925,-0.25385416,-0.77267903,0
0.50394142,-3.0070188,-4.4565058,0.58182925,-0.25385416,-0.77267903,0
5.5854917,-0.12807178,-1.5759275,0.58182925,-0.25385416,-0.77267903,0
3.798851,-0.22226882,-2.8903253,0.58182925,-0.25385416,-0.77267903,0
2.2082484,-5.4446616,-2.3723001,0.58182925,-0.25385416,-0.77267903,0
-4.5979443,-2.450686,0.11814737,-0.70532107,-0.63053662,-0.32395351,0
-1.2450247,-3.8891778,3.3732865,0.024954915,-0.94402188,0.32893795,0
-2.3146553,3.8373408,2.8202412,-0.58182925,0.25385416,0.77267903,0
-1.3329637,1.9818475,4.1690569,-0.58182925,0.25385416,0.77267903,0
-3.3582439,1.9316111,-2.7655168,-0.66934329,0.39022583,-0.63222116,0
-2.2509332,-2.9484375,-3.8007941,-0.76486969,-0.4937641,-0.41372859,0
-4.0635977,-3.4038076,2.5272467,-0.43253511,-0.90112966,-0.029644907,0
-5.852325,-1.5843146,1.2524872,-0.7457034,-0.54574269,-0.38221943,0
2.6618505,-1.6729019,3.6621959,0.66527641,-0.39795244,0.63169718,0
-1.2629232,-4.0814743,2.7767453,-0.039977074,-0.95781946,0.28457701,0
4.3777275,-2.1473136,-1.8219801,0.58182925,-0.25385416,-0.77267903,0
-2.9285295,-0.29165649,3.7145238,-0.58182925,0.25385416,0.77267903,0
-5.4412665,-2.492331,2.5454311,-0.58182925,0.25385416,0.77267903,0
-0.094185352,-4.9155855,-0.10321271,-0.17573321,-0.96683818,0.18531522,0
-3.5070539,1.5248919,2.6820886,-0.58182925,0.25385416,0.77267903,0
1.0925684,-3.2284918,3.5502841,0.38777894,-0.74851578,0.53791428,0
0.59631759,2.6677909,5.3964529,-0.58182925,0.25385416,0.77267903,0
0.91453838,4.3050013,-2.0649076,0.065784574,0.96161741,-0.26639163,0
1.3108296,3.7147183,-3.8593938,-0.067223787,0.9317801,-0.35674465,0
0.61326218,-1.924758,5.4687533,0.54314601,-0.58585846,0.60146695,0
2.3480637,3.0710182,3.4603915,0.74998999,0.53498447,0.38898182,0
-1.3768232,5.5425186,1.9803414,0.16804028,0.96706355,-0.19118211,0
1.5301075,4.266953,-1.916576,0.16436338,0.96713918,-0.19397569,0
1.0130669,0.85030317,6.3073783,-0.58182925,0.25385416,0.77267903,0
-3.0665245,-0.68993473,3.7414622,-0.58182925,0.25385416,0.77267903,0
-1.405993,-4.5648022,-0.9539423,-0.42802316,-0.90340805,-0.025498927,0
0.52880526,4.2514,-2.2768505,-0.0096578598,0.94781792,-0.3186664,0
0.81732094,-2.9317358,-4.2452631,0.58182925,-0.25385416,-0.77267903,0
3.1977291,-4.476018,0.27067089,0.33174634,-0.79333955,0.51044792,0
0.11121112,-1.8015716,-5.1482673,0.58182925,-0.25385416,-0.77267903,0
-0.63349581,4.8963971,-0.30007285,0.035632014,0.95708525,-0.28760755,0
3.5999789,-4.1504664,-1.7495155,0.58182925,-0.25385416,-0.77267903,0
-5.1127596,0.036541224,1.9619672,-0.58182925,0.25385416,0.77267903,0
2.5240526,-5.0317183,-0.38821483,0.15829152,-0.8965295,0.41373765,0
-2.4886036,1.0537586,3.6037693,-0.58182925,0.25385416,0.77267903,0
-0.69306946,4.7235942,-0.83142811,-0.028327823,0.94313955,-0.33118784,0
-2.5596759,-1.5371587,-4.3196039,-0.81308448,-0.2039756,-0.545241,0
-5.2375674,-1.165853,-0.30658484,-0.79464114,-0.37982616,-0.47357965,0
2.2102671,2.2265072,-4.8910484,0.58182925,-0.25385416,-0.77267903,0
2.8831463,1.5030689,3.8474302,0.81238097,0.22681759,0.53720677,0
3.5013776,0.56338835,-3.3724418,0.58182925,-0.25385416,-0.77267903,0
0.34918308,-5.3251376,-2.5255241,-0.35598719,-0.93368959,0.03869307,0
-5.1271315,-2.7039442,2.1463077,-0.59493279,-0.78062457,-0.19152135,0
-0.047373772,2.4522834,-5.3613815,-0.43777591,0.70292193,-0.56058282,0
-4.2677393,1.4051011,-2.0083513,-0.74070686,0.22697756,-0.63232487,0
5.9457493,-0.55881882,-1.163136,0.58182925,-0.25385416,-0.77267903,0
1.5011085,2.3489974,5.5661535,0.80889511,0.27948391,0.51727903,0
2.6298442,-4.9377427,-2.2213793,0.58182925,-0.25385416,-0.77267903,0
-3.7519038,3.9933772,1.6867255,-0.58182925,0.25385416,0.77267903,0
4.5365157,3.1654086,-2.6192069,0.48227608,0.87267733,0.076447666,0
6.3633308,-1.0528421,-0.55489063,0.80088788,0.013412178,0.59866405,0
1.990617,3.8044863,2.866267,0.66678834,0.6928674,0.2744602,0
2.5179317,-1.1678295,-3.5442088,0.58182925,-0.25385416,-0.77267903,0
-2.4743328,3.5367897,-2.106086,-0.43392694,0.7066353,-0.55890441,0
2.2566094,1.7512207,-4.7000027,0.58182925,-0.25385416,-0.77267903,0
-5.50003,2.0930381,0.99471521,-0.58182925,0.25385416,0.77267903,0
-5.3425641,-2.6015573,2.6556394,-0.58182925,0.25385416,0.77267903,0
-5.3809676,-0.83019924,2.0447631,-0.58182925,0.25385416,0.77267903,0
-0.075009704,-1.0734806,-5.5276966,0.58182925,-0.25385416,-0.77267903,0
5.8630066,0.44390988,-1.5548754,0.58182925,-0.25385416,-0.77267903,0
-3.1812263,0.70995378,3.1951756,-0.58182925,0.25385416,0.77267903,0
-2.7765427,1.6261714,3.1988914,-0.58182925,0.25385416,0.77267903,0
-0.55617738,-1.2393384,-5.8355274,0.58182925,-0.25385416,-0.77267903,0
2.0049272,-5.3568301,-2.5542574,0.58182925,-0.25385416,-0.77267903,0
-4.2980433,4.7748337,1.018743,-0.58182925,0.25385416,0.77267903,0
2.5254984,3.9375927,-2.6462312,0.2236793,0.96335053,-0.14806595,0
-2.8679991,5.2980661,1.9236684,-0.58182925,0.25385416,0.77267903,0
0.83990192,4.1859946,-2.4750986,0.012867689,0.95279562,-0.30333993,0
-3.9436057,4.23248,1.4638191,-0.58182925,0.25385416,0.77267903,0
-1.2260926,4.8168364,-0.50270981,-0.068544269,0.93135619,-0.35759968,0
4.8038177,-2.5740228,0.83852816,0.66829395,-0.39223164,0.63208985,0
-2.0301766,-0.29287004,-5.1642237,-0.78059649,0.092441559,-0.61816168,0
-0.66601944,-1.3795652,5.7756186,-0.58182925,0.25385416,0.77267903,0
5.9487705,-1.4280169,-0.87529659,0.58182925,-0.25385416,-0.77267903,0
0.51588631,-0.13790464,-5.3901234,0.58182925,-0.25385416,-0.77267903,0
-3.6441653,-1.2711878,-2.7921572,-0.81127149,-0.24838671,-0.52928519,0
4.7332168,3.0156305,-3.2505181,0.58182925,-0.25385416,-0.77267903,0
-2.0314717,-4.2920065,-0.11961699,-0.42767823,-0.90358031,-0.025182545,0
2.6415317,3.8067856,1.0779796,0.58825088,0.78740615,0.18426174,0
1.5985444,-1.7596431,-4.0420771,0.58182925,-0.25385416,-0.77267903,0
-0.27168751,1.9369988,-5.7609754,-0.52285594,0.61095768,-0.59443444,0
-2.2725334,-3.6542599,4.0725441,-0.044647336,-0.95857793,0.28130949,0
-3.1505945,3.2981424,-1.8278637,-0.50918978,0.6271143,-0.58945191,0
1.1880569,1.1518145,-5.3076987,0.58182925,-0.25385416,-0.77267903,0
-3.7924914,0.01278615,-2.8599567,-0.79841924,0.002691865,-0.60209608,0
2.2422006,-0.12130833,-4.0956564,0.58182925,-0.25385416,-0.77267903,0
0.59498024,3.7655771,-3.5440323,-0.13548243,0.90651536,-0.39984304,0
-1.0426539,4.428515,3.5838385,-0.58182925,0.25385416,0.77267903,0
1.0670224,0.64335871,6.4159966,-0.58182925,0.25385416,0.77267903,0
1.0083454,3.4316559,5.4557519,-0.58182925,0.25385416,0.77267903,0
-3.8017225,1.4592257,-2.5255094,-0.72307426,0.27348423,-0.63432658,0
-0.90985584,-0.20539808,5.2062511,-0.58182925,0.25385416,0.77267903,0
0.35515928,-5.0586872,-0.437828,-0.14927816,-0.96723378,0.20536596,0
-0.22032404,0.74787331,-6.2355032,0.58182925,-0.25385416,-0.77267903,0
-2.7906537,-3.5537145,-1.5372987,-0.6446209,-0.72323102,-0.24779242,0
4.2485175,-1.0859306,-2.2679801,0.58182925,-0.25385416,-0.77267903,0
-1.7155249,-0.72994232,-5.6131563,-0.7928589,0.034678221,-0.60841787,0
-1.7175601,3.1802464,-3.1442802,-0.43788767,0.70281374,-0.56063139,0
-1.674226,-0.10323524,4.5971136,-0.58182925,0.25385416,0.77267903,0
2.9236867,-1.1656623,-3.2393861,0.58182925,-0.25385416,-0.77267903,0
2.5036297,2.0161629,4.1754241,0.80652803,0.30253115,0.5079248,0
3.3210371,0.42734003,-3.4635417,0.58182925,-0.25385416,-0.77267903,0
2.3915966,-1.0236492,4.3162174,0.70973003,-0.30548662,0.63479239,0
-4.6924219,2.4030805,1.5009851,-0.58182925,0.25385416,0.77267903,0
1.003932,1.1292906,6.2088423,-0.58182925,0.25385416,0.77267903,0
-1.4996941,4.6612763,-0.80337918,-0.13993967,0.90462559,-0.40257859,0
-0.26730418,-0.86643887,-5.7405167,0.58182925,-0.25385416,-0.77267903,0
3.0972211,-0.08845377,-3.4626179,0.58182925,-0.25385416,-0.77267903,0
-1.7096927,2.0349126,3.8679452,-0.58182925,0.25385416,0.77267903,0
3.4856627,-4.2719259,-1.7956917,0.58182925,-0.25385416,-0.77267903,0
-6.299489,1.5319171,0.57706976,-0.58182925,0.25385416,0.77267903,0
2.8269114,2.6301806,3.1135874,0.77014202,0.47736794,0.42308545,0
-3.693413,1.985013,2.3905926,-0.58182925,0.25385416,0.77267903,0
-2.082386,-0.9998436,4.5843382,-0.58182925,0.25385416,0.77267903,0
-0.75213581,-3.5395436,-5.2273798,0.58182925,-0.25385416,-0.77267903,0
1.2479746,4.3625622,3.137886,0.60643029,0.76847708,0.20416987,0
4.4863076,-2.5239463,-1.6164808,0.58182925,-0.25385416,-0.77267903,0
5.4677339,-2.693202,-0.82185793,0.58182925,-0.25385416,-0.77267903,0
-5.6379623,-1.11127,1.9435878,-0.58182925,0.25385416,0.77267903,0
-4.5197539,2.7898397,-0.98853493,-0.6362226,0.44976622,-0.62684244,0
3.2153859,-4.2211576,-2.0158904,0.58182925,-0.25385416,-0.77267903,0
-0.0032544136,-0.46524906,5.9742947,-0.58182925,0.25385416,0.77267903,0
-5.0486717,-2.9025142,2.9333115,-0.51569462,-0.84979403,-0.10912997,0
-2.3283443,-1.4963627,4.5622559,-0.58182925,0.25385416,0.77267903,0
-0.83634138,-4.0277834,2.9429531,0.03682816,-0.94084352,0.33683431,0
0.68686843,-2.6051872,-4.4507775,0.58182925,-0.25385416,-0.77267903,0
-0.6704185,-0.20485115,5.3863678,-0.58182925,0.25385416,0.77267903,0
-3.869879,-1.4412553,-2.3482761,-0.80598086,-0.30723143,-0.50596857,0
-0.19398212,2.458138,-5.2388701,-0.4464151,0.69445741,-0.56430715,0
-4.3637195,1.179817,2.1503873,-0.58182925,0.25385416,0.77267903,0
-2.8157434,1.5663941,-3.5629704,-0.6806277,0.36809194,-0.63344646,0
-5.1072474,-2.1211948,0.59700584,-0.72067803,-0.60125077,-0.34513885,0
2.8296037,-2.0539174,-3.0184054,0.58182925,-0.25385416,-0.77267903,0
2.2614563,3.1056592,3.57973,0.75030118,0.5341863,0.38947821,0
4.2894444,-0.93249202,-2.2875719,0.58182925,-0.25385416,-0.77267903,0
3.397748,-4.1641908,-1.8972868,0.58182925,-0.25385416,-0.77267903,0
-0.61274791,-0.5827899,5.5539618,-0.58182925,0.25385416,0.77267903,0
-1.9584081,2.8784847,-3.3024158,-0.49577764,0.64241993,-0.58438104,0
0.69473648,4.7294269,-0.25954938,0.21924233,0.96382654,-0.15156336,0
-2.695282,2.0214679,3.1302111,-0.58182925,0.25385416,0.77267903,0
5.323,0.52281106,0.57003498,0.81147754,0.24495052,0.5305692,0
-4.5551634,-1.4657447,2.8753967,-0.58182925,0.25385416,0.77267903,0
-0.51482463,-0.57212877,5.6241951,-0.58182925,0.25385416,0.77267903,0
4.1203189,-3.8574264,0.3918972,0.49093255,-0.64782017,0.5825069,0
0.73272085,-0.55009031,6.3900948,0.68972737,-0.34943607,0.63416928,0
-5.4091902,-1.3508093,2.1945519,-0.58182925,0.25385416,0.77267903,0
-3.6723166,-3.54777,1.5345502,-0.47647715,-0.87632495,-0.070882618,0
-0.39290404,5.2792544,3.7936013,-0.58182925,0.25385416,0.77267903,0
5.967135,-1.846903,-0.72384834,0.58182925,-0.25385416,-0.77267903,0
5.5276012,1.0412641,-0.080152035,0.79455358,0.3802757,0.4733659,0
-3.4734335,1.6614354,-2.7959123,-0.69666219,0.33468547,-0.63454527,0
3.2112663,2.0224457,3.0193429,0.79584932,0.37351191,0.47656381,0
-3.7513874,3.0105042,-1.5644269,-0.57686579,0.54090136,-0.61208791,0
-2.2041903,0.2299118,4.0885983,-0.58182925,0.25385416,0.77267903,0
-4.3424664,-3.2860253,3.0498133,-0.41824871,-0.90818155,-0.016570389,0
-1.2622619,-3.9875507,3.0802426,-0.0082396269,-0.95183241,0.30650836,0
-1.1250699,2.0236356,-4.9077463,-0.55824769,0.56625253,-0.60639721,0
-0.45418143,5.3501797,2.3015876,0.32094938,0.94460422,-0.068662494,0
2.8461459,-5.0656981,-2.0164657,0.58182925,-0.25385416,-0.77267903,0
-0.5816102,-4.9209461,-1.338195,-0.36066353,-0.93205285,0.034633905,0
-1.3422132,2.0376146,4.1437702,-0.58182925,0.25385416,0.77267903,0
3.6373844,3.0156715,0.8488555,0.68064624,0.67201585,0.29174578,0
-4.335196,3.0159152,-0.99989843,-0.60456729,0.50050187,-0.6196745,0
0.34647036,-3.7731607,3.1286254,0.22703451,-0.86158103,0.45401943,0
-5.4057655,-1.306381,0.10452318,-0.78352404,-0.42971101,-0.44881928,0
-6.0649176,1.0880436,0.89953184,-0.58182925,0.25385416,0.77267903,0
2.0083323,3.9891584,-2.8757808,0.13153732,0.96690476,-0.21861677,0
-4.9501071,0.039255977,-1.2860007,-0.80983508,-0.093085736,-0.5792259,0
4.049345,2.8552089,0.25681925,0.67699176,0.67766869,0.28713679,0
-3.1950884,5.2786875,1.1811444,-0.16901159,0.89156336,-0.42017847,0
3.0010104,2.00737,-4.2236223,0.58182925,-0.25385416,-0.77267903,0
2.9960794,0.47301388,-3.7232409,0.58182925,-0.25385416,-0.77267903,0
-1.9165173,-0.82424927,4.6515479,-0.58182925,0.25385416,0.77267903,0
2.5829415,-4.2903662,0.95691514,0.31685519,-0.80422813,0.50281203,0
-5.9674277,-1.7889361,1.8159642,-0.71476412,-0.61289227,-0.33686107,0
-4.0838895,0.43678379,2.6052146,-0.58182925,0.25385416,0.77267903,0
-4.9512491,0.1655066,2.0412154,-0.58182925,0.25385416,0.77267903,0
0.41906834,-4.6544743,1.0491256,0.012924314,-0.94703549,0.32086897,0
-0.76052618,4.9794164,-0.038376141,0.045292139,0.95868021,-0.28085759,0
3.0567541,2.9362054,-4.4868045,0.58182925,-0.25385416,-0.77267903,0
-0.78549099,-4.5048738,1.3295629,-0.12362599,-0.96660608,0.22447583,0
4.654346,0.54602575,-2.4985497,0.58182925,-0.25385416,-0.77267903,0
3.7180769,-0.43696547,-2.8806124,0.58182925,-0.25385416,-0.77267903,0
-5.2194829,1.217314,1.4936759,-0.58182925,0.25385416,0.77267903,0
-1.1757412,-3.0516872,5.2577038,0.23899674,-0.85473132,0.4607766,0
0.32106125,3.2598367,4.9946742,-0.58182925,0.25385416,0.77267903,0
4.5383744,-0.92572355,-2.1023512,0.58182925,-0.25385416,-0.77267903,0
0.23916006,-4.954114,-0.040598929,-0.1245842,-0.96664721,0.22376785,0
1.7311244,3.9012756,3.2518926,0.67015934,0.68793797,0.2786181,0
-0.82348347,-2.8327193,5.4347496,0.31161672,-0.80796123,0.50009394,0
4.774703,0.38888144,-2.3562925,0.58182925,-0.25385416,-0.77267903,0
-0.21981621,-3.2092252,4.4465756,0.29044837,-0.82254088,0.48894408,0
-6.3698063,0.027915001,0.77882242,-0.81246531,-0.22472996,-0.53795624,0
6.3911152,-0.43528986,-0.67523575,0.81256962,0.14087857,0.56558287,0
2.4146876,-1.5269573,-3.5039649,0.58182925,-0.25385416,-0.77267903,0
1.2843916,-5.5105348,-3.0463252,0.58182925,-0.25385416,-0.77267903,0
-0.33197927,0.65609264,-6.2894258,0.58182925,-0.25385416,-0.77267903,0
-3.7298934,1.3566942,-2.6508856,-0.72812599,0.26070043,-0.63393068,0
2.7300308,3.5171704,1.7929978,0.65924317,0.70358932,0.26525611,0
4.3318214,-4.2832222,-1.1548212,0.58182925,-0.25385416,-0.77267903,0
0.39118826,3.8758769,4.8450875,-0.58182925,0.25385416,0.77267903,0
4.5455093,-3.000371,0.80555153,0.61594421,-0.48287529,0.62245035,0
-3.5586622,-1.1834426,3.5330176,-0.58182925,0.25385416,0.77267903,0
-3.090595,2.2779834,2.7482643,-0.58182925,0.25385416,0.77267903,0
-4.5285883,-2.0465584,-0.66199923,-0.75693393,-0.51656753,-0.40026128,0
3.3784251,-2.0509844,-2.6061051,0.58182925,-0.25385416,-0.77267903,0
3.5306599,-2.5870051,2.1303396,0.61285752,-0.4877215,0.62171817,0
0.25523806,3.6764688,-3.6020393,-0.19105506,0.88079596,-0.43323958,0
2.27985,-4.4034414,-2.660464,0.58182925,-0.25385416,-0.77267903,0
1.4748976,-4.0618668,-3.3788157,0.58182925,-0.25385416,-0.77267903,0
4.9898272,-2.1044326,0.89075994,0.71374243,-0.29611439,0.63473463,0
-0.75175381,4.9800725,-0.034689173,0.046882987,0.9589299,-0.27974164,0
3.2830129,-2.7108247,2.2692714,0.58766985,-0.52554655,0.6151787,0
2.399575,-1.688354,-3.4623194,0.58182925,-0.25385416,-0.77267903,0
3.172503,2.8799748,-4.3811717,0.58182925,-0.25385416,-0.77267903,0
-4.4590383,1.6924436,1.9101946,-0.58182925,0.25385416,0.77267903,0
2.2308867,4.0568204,1.2862928,0.55855614,0.81528187,0.1527434,0
1.1111872,0.97551537,-5.3076606,0.58182925,-0.25385416,-0.77267903,0
0.57421327,0.015414715,-5.396574,0.58182925,-0.25385416,-0.77267903,0
3.7799215,2.3330483,1.7071834,0.76050675,0.50655484,0.40624118,0
-1.9119992,-0.65447283,-5.3528032,-0.79323149,0.032682419,-0.60804272,0
2.5700827,4.031322,-0.10418105,0.47339654,0.87822556,0.067938685,0
1.3136334,2.8239684,-5.7418184,-0.27269417,0.83415896,-0.47939211,0
5.2082024,-0.56313264,0.97942591,0.80047101,0.010588408,0.59927809,0
-2.5077152,-0.16446304,-4.5410328,-0.78412223,0.077149391,-0.61579251,0
-0.22236967,4.5977378,-1.2235745,-0.0038075447,0.94918066,-0.31470877,0
3.6672692,3.5049715,-1.0968015,0.51587445,0.84966195,0.10930872,0
-1.177433,3.7166433,3.7162259,-0.58182925,0.25385416,0.77267903,0
3.6744659,0.21362066,3.0124207,0.80345345,0.031935304,0.59451056,0
2.1665702,-1.9044881,-3.5667644,0.58182925,-0.25385416,-0.77267903,0
3.3551221,-0.32187176,-3.1917315,0.58182925,-0.25385416,-0.77267903,0
4.9303136,1.1749058,-2.4973559,0.58182925,-0.25385416,-0.77267903,0
-3.5454211,5.2504101,1.4292247,-0.58182925,0.25385416,0.77267903,0
0.51711208,-3.4743016,-4.2930675,0.58182925,-0.25385416,-0.77267903,0
-0.68358791,-0.60303831,-6.1405168,0.58182925,-0.25385416,-0.77267903,0
-2.1726565,-3.5157697,4.5143051,0.015378356,-0.9464376,0.32252052,0
-3.413363,0.8399477,2.977668,-0.58182925,0.25385416,0.77267903,0
-3.3807073,2.5188069,2.4506893,-0.58182925,0.25385416,0.77267903,0
3.8631146,0.82810384,2.6368718,0.81328738,0.17433767,0.55513096,0
-1.8451867,4.5088773,-0.98042822,-0.20954782,0.8711772,-0.44400474,0
1.2415786,-0.25440931,5.9622078,0.72928631,-0.25770688,0.63382089,0
2.2406714,-1.0872891,4.4519963,0.69958472,-0.32832089,0.63465488,0
0.21716058,-1.9443805,-5.0215683,0.58182925,-0.25385416,-0.77267903,0
0.32844496,3.9252715,-3.090596,-0.12471795,0.91095662,-0.39319664,0
1.2507014,1.8991365,-5.5060501,0.58182925,-0.25385416,-0.77267903,0
-0.92177939,-4.2729731,-4.2802668,-0.66634083,-0.69351506,-0.2739104,0
-4.581605,-2.34498,-0.11070442,-0.72141862,-0.59975851,-0.34618676,0
-4.5849452,-2.8223031,3.2986512,-0.58182925,0.25385416,0.77267903,0
0.0012433529,-0.69492292,-5.5946488,0.58182925,-0.25385416,-0.77267903,0
0.48070574,0.69137478,-5.6890635,0.58182925,-0.25385416,-0.77267903,0
-1.6178799,1.3945267,-4.9325795,-0.64878768,0.42804515,-0.62916785,0
-4.2306166,-3.3176308,2.4654787,-0.45896018,-0.88679898,-0.054251254,0
5.8781757,-1.7795486,-0.02781105,0.76061523,-0.16657075,0.62747014,0
-6.4506092,0.75589108,0.69743252,-0.8087846,-0.080499709,-0.58256972,0
5.2350111,2.5007541,-2.7035096,0.58182925,-0.25385416,-0.77267903,0
1.1350639,1.1175685,6.3114367,-0.58182925,0.25385416,0.77267903,0
0.76521528,1.206419,6.0037489,-0.58182925,0.25385416,0.77267903,0
-5.3758812,-1.8324335,0.67827606,-0.74141657,-0.55608571,-0.37559342,0
-5.2898803,2.9763148,0.86276841,-0.58182925,0.25385416,0.77267903,0
-5.0984116,0.41791749,1.8474751,-0.58182925,0.25385416,0.77267903,0
-5.2044706,1.8161434,-0.76351547,-0.74055427,0.22740427,-0.63235015,0
-0.65385842,0.015042305,-6.3211927,0.58182925,-0.25385416,-0.77267903,0
-0.4409076,1.7601547,4.9136119,-0.58182925,0.25385416,0.77267903,0
1.3812237,4.5722985,0.28241754,0.3612501,0.93184447,-0.034123898,0
-4.9445176,1.8398631,1.4961948,-0.58182925,0.25385416,0.77267903,0
-1.5527477,-4.0229349,2.9254785,-0.06444025,-0.96144331,0.2673468,0
0.09313646,-2.5350585,-4.9208994,0.58182925,-0.25385416,-0.77267903,0
-1.921385,0.62927651,-5.0267353,-0.72375971,0.2717725,-0.63428032,0
0.16819334,-4.8968568,0.16511619,-0.11321652,-0.96607137,0.23213869,0
3.9669249,1.3349984,2.2570982,0.80756152,0.29308575,0.51180613,0
0.73436832,1.8034282,-5.8634071,0.58182925,-0.25385416,-0.77267903,0
-0.99478626,1.2014725,4.6800876,-0.58182925,0.25385416,0.77267903,0
3.4027839,3.6926427,-1.665858,0.4310196,0.90190029,0.028250575,0
0.15813231,0.8967967,-5.9994512,0.58182925,-0.25385416,-0.77267903,0
3.2450619,-5.3842845,-1.6114134,0.58182925,-0.25385416,-0.77267903,0
-2.1280458,-0.55560827,4.4040084,-0.58182925,0.25385416,0.77267903,0
-1.638069,0.68500328,-5.3216553,-0.71048588,0.30373651,-0.63478661,0
-1.5420092,-2.5988436,-5.3478527,-0.80169857,-0.33897984,-0.49231339,0
-4.6213522,-2.3694596,0.016072273,-0.71571594,-0.61105096,-0.33818257,0
-6.0522642,1.0510188,0.14173889,-0.79672921,0.012962103,-0.60419774,0
1.5472391,-0.16575909,5.639636,0.74407846,-0.2174215,0.63172424,0
-4.5897875,2.6601877,1.4937999,-0.58182925,0.25385416,0.77267903,0
2.820683,1.987896,-4.3530116,0.58182925,-0.25385416,-0.77267903,0
4.5301352,0.57125717,1.7400804,0.8133111,0.18152229,0.55278838,0
4.1792879,-2.5870848,1.4791503,0.64154923,-0.44067797,0.62786758,0
-5.3457103,1.9564208,-0.54679012,-0.73534906,0.24169195,-0.63312465,0
-2.6160212,2.7654839,2.9454575,-0.58182925,0.25385416,0.77267903,0
1.5810515,2.9705129,4.9791608,0.78379738,0.4286226,0.44938266,0
0.78349161,-3.1084845,3.9400382,0.38535774,-0.7505843,0.5367707,0
-1.2845796,0.52754545,4.6832833,-0.58182925,0.25385416,0.77267903,0
-0.5372746,-4.9293242,-2.4348261,-0.45854133,-0.88703966,-0.05385685,0
-3.6205204,1.0375314,2.7567639,-0.58182925,0.25385416,0.77267903,0
5.2603731,-0.47573519,-1.706522,0.58182925,-0.25385416,-0.77267903,0
5.6116076,2.2968912,-2.1345391,0.65085644,0.71503007,0.25518227,0
1.5846412,0.32702112,-4.7380934,0.58182925,-0.25385416,-0.77267903,0
2.4814267,-2.5630617,3.1549358,0.56446171,-0.55794114,0.60834587,0
0.74410391,2.4000812,5.5956883,-0.58182925,0.25385416,0.77267903,0
5.515851,-1.935498,0.35589314,0.74162555,-0.22439757,0.63216895,0
-5.0343237,-2.7008905,2.9203792,-0.58182925,0.25385416,0.77267903,0
-2.8881466,3.7568636,-1.5062404,-0.42793781,0.71234339,-0.55626994,0
-5.2112446,-0.98323327,-0.48510981,-0.80219364,-0.33566698,-0.49377453,0
2.6461399,-5.1737542,-2.1315701,0.58182925,-0.25385416,-0.77267903,0
-0.61043739,-1.2585392,5.7777104,-0.58182925,0.25385416,0.77267903,0
-5.5522013,-1.756923,0.91453552,-0.74126184,-0.55645192,-0.37535655,0
-2.5623844,3.934936,2.6016369,-0.58182925,0.25385416,0.77267903,0
1.0215826,-0.30629683,6.1911869,0.71870857,-0.28422287,0.63456732,0
-5.2888374,0.28815418,-0.85055256,-0.80805326,-0.072577089,-0.58462191,0
4.2708941,1.6909593,1.503788,0.78966236,0.40375489,0.46196914,0
-2.0479314,4.0304508,-1.7095895,-0.32167017,0.80075246,-0.50529587,0
-4.790657,4.337635,0.71357822,-0.46472198,0.67590809,-0.57199818,0
-3.0732553,1.9930172,2.8549433,-0.58182925,0.25385416,0.77267903,0
5.0037584,-3.7875628,-0.31094027,0.54961032,-0.57756656,0.60361034,0
-3.4798973,3.0636563,2.1969955,-0.58182925,0.25385416,0.77267903,0
-5.0678468,-1.8021467,0.042406559,-0.757761,-0.51428425,-0.40163422,0
0.10122252,-4.2002344,2.312623,0.10237086,-0.91962719,0.37921777,0
0.081919909,4.3944035,4.4418526,-0.58182925,0.25385416,0.77267903,0
4.1024179,1.3855941,-3.1899819,0.58182925,-0.25385416,-0.77267903,0
-2.539803,5.2797818,2.1768081,-0.58182925,0.25385416,0.77267903,0
3.6225758,3.4647188,-0.64487863,0.55117154,0.82168245,0.14507991,0
2.0234833,-0.30760384,5.0292568,0.74821866,-0.20534539,0.63087428,0
-5.3497801,3.0222428,0.023089409,-0.64883775,0.42795658,-0.62917638,0
-2.5509932,1.6155164,3.3722312,-0.58182925,0.25385416,0.77267903,0
-1.8380134,4.390995,2.997257,-0.58182925,0.25385416,0.77267903,0
-2.2133076,5.1325088,2.4710443,-0.58182925,0.25385416,0.77267903,0
2.5208015,4.0805039,-0.61386108,0.41982406,0.90742701,0.018004596,0
5.3156242,2.1248465,-2.5193074,0.58182925,-0.25385416,-0.77267903,0
0.22428894,-3.9581394,2.8155711,0.17463851,-0.88888627,0.42353603,0
-4.806603,-1.1787741,2.5917816,-0.58182925,0.25385416,0.77267903,0
-1.4814646,1.537729,-4.9699106,-0.62887102,0.46203363,-0.625337,0
-0.13576937,-4.7906137,0.45695966,-0.12462032,-0.96664876,0.2237412,0
-2.8345482,1.9152958,3.0602248,-0.58182925,0.25385416,0.77267903,0
1.2241011,2.9288061,5.6269746,0.79410505,0.38255772,0.47227848,0
-1.4979436,4.0459585,-2.0161867,-0.27361608,0.83356917,-0.47989252,0
2.3629017,4.142468,-1.0609088,0.35745096,0.93318194,-0.037424088,0
1.0990186,-4.8739748,0.36776999,0.036300063,-0.94098914,0.33648452,0
2.1603098,-3.1732092,2.7993593,0.46711749,-0.67341739,0.57298368,0
-0.78250003,-0.79002857,5.4942236,-0.58182925,0.25385416,0.77267903,0
2.9788685,3.7295461,-3.3138237,0.2171607,0.96403885,-0.15320061,0
-3.6842594,-0.13472557,3.0938993,-0.58182925,0.25385416,0.77267903,0
3.4729261,2.4637401,2.1189275,0.7607888,0.50574732,0.40671885,0
-1.7289783,-0.80382633,-5.5988235,-0.79567337,0.019115925,-0.6054244,0
1.0393348,3.81075,4.9478006,0.73151785,0.57856566,0.36075413,0
-3.2246799,3.0306695,-2.0331547,-0.54725367,0.58060658,-0.60283464,0
2.7482412,2.8583522,2.9804416,0.75367975,0.52536047,0.39492202,0
3.8948927,-0.23208594,-2.8147807,0.58182925,-0.25385416,-0.77267903,0
-1.6422911,-2.815537,5.5122547,-0.58182925,0.25385416,0.77267903,0
0.56485844,4.6291928,-0.91316372,0.1361773,0.96703637,-0.21516618,0
-0.75987446,1.3839767,4.7970181,-0.58182925,0.25385416,0.77267903,0
-3.132931,-2.0236559,-3.1488571,-0.79723597,-0.36596629,-0.48008692,0
-2.5512726,-1.1168694,4.2697124,-0.58182925,0.25385416,0.77267903,0
-4.3986797,-0.96068835,-1.7812896,-0.81101447,-0.2524353,-0.52776146,0
1.2806475,0.40203905,-4.9916477,0.58182925,-0.25385416,-0.77267903,0
0.60665512,4.1008639,4.9334183,-0.58182925,0.25385416,0.77267903,0
-3.086705,-2.4001598,-2.8940434,-0.77838898,-0.44920725,-0.43854725,0
-2.4895349,-3.9662819,2.5119631,-0.23227108,-0.96233827,0.14126375,0
-5.6223092,-0.56577206,1.7761574,-0.58182925,0.25385416,0.77267903,0
-5.7421913,1.0047598,-0.26686096,-0.79365963,0.030365288,-0.60760379,0
-4.2029209,1.1472404,-2.1693788,-0.75493908,0.18485439,-0.62920272,0
4.2611156,0.79993975,2.0581393,0.81306183,0.20506451,0.5448662,0
1.5441341,1.9716964,-5.3089337,0.58182925,-0.25385416,-0.77267903,0
-0.31549644,3.2149129,-4.1038809,-0.33238345,0.79286438,-0.51077151,0
1.668421,-0.80049992,-4.304574,0.58182925,-0.25385416,-0.77267903,0
0.6437583,3.5615964,-4.0055852,-0.17871648,0.88691562,-0.42595923,0
-1.7477279,5.2112055,0.64812911,-0.020001411,0.94528794,-0.32562381,0
-3.4283667,-0.7818737,3.4991999,-0.58182925,0.25385416,0.77267903,0
-1.204844,2.5071633,-4.3496032,-0.50149584,0.63595933,-0.58656436,0
0.49861908,4.5232582,-1.3771074,0.079748631,0.96327013,-0.25641969,0
2.5727556,2.6285439,3.5723224,0.77811521,0.4501996,0.43801522,0
-4.3257051,0.83398366,2.2926316,-0.58182925,0.25385416,0.77267903,0
-4.00142,2.4797711,1.9961153,-0.58182925,0.25385416,0.77267903,0
3.6320269,-5.0642595,-1.4251677,0.58182925,-0.25385416,-0.77267903,0
2.5460808,0.68466473,-4.1316261,0.58182925,-0.25385416,-0.77267903,0
3.9828434,3.1069694,-0.27405691,0.62531418,0.74710965,0.22540951,0
5.5210752,2.218401,-1.7102451,0.6759662,0.6792348,0.28584993,0
-3.8778081,-3.1230061,0.03847456,-0.63348252,-0.73727399,-0.23479164,0
-3.923552,-3.3971472,3.9787447,-0.27544761,-0.95540172,0.10647288,0
1.0611455,1.4354315,6.1513453,-0.58182925,0.25385416,0.77267903,0
4.3742943,-0.66670871,-2.3109999,0.58182925,-0.25385416,-0.77267903,0
-1.391748,-3.6192448,4.1212516,0.08370769,-0.926305,0.36735827,0
-2.5818818,1.3229554,3.4450893,-0.58182925,0.25385416,0.77267903,0
-0.35397196,-2.8098154,-5.167305,0.58182925,-0.25385416,-0.77267903,0
3.7391284,-2.7151442,-2.1162934,0.58182925,-0.25385416,-0.77267903,0
-0.9109962,-1.8221774,-5.9112225,0.58182925,-0.25385416,-0.77267903,0
4.4363322,1.8709309,1.0391183,0.77431822,0.46353453,0.43077505,0
0.41106868,4.9714546,2.7865994,0.47557008,0.8768872,0.070015013,0
-3.4869876,3.8723245,1.9259783,-0.58182925,0.25385416,0.77267903,0
-5.0830073,-2.8258486,2.5748782,-0.55201638,-0.82096028,-0.1459533,0
-3.6068926,-2.4217956,-1.9203482,-0.75934577,-0.50985175,-0.40428376,0
-1.1416473,5.1129694,0.35770899,0.033858418,0.95677793,-0.28884214,0
-0.47975206,-4.3572211,1.9522946,-0.017519355,-0.95373273,0.30014512,0
-0.9242574,-1.165935,-6.1368079,0.58182925,-0.25385416,-0.77267903,0
5.1519628,-2.6643372,-1.0691171,0.58182925,-0.25385416,-0.77267903,0
-6.2195635,1.7704796,0.55887699,-0.58182925,0.25385416,0.77267903,0
-4.1287355,-2.7023983,-0.41111565,-0.69789934,-0.64366823,-0.31405067,0
-1.3858789,-0.41691303,-5.9926786,-0.77313972,0.12225482,-0.62234151,0
-3.2798278,4.5779848,1.850134,-0.58182925,0.25385416,0.77267903,0
0.90968013,-2.6622186,4.4192491,0.46216229,-0.67855293,0.5709396,0
3.972074,1.6690896,-3.3812711,0.58182925,-0.25385416,-0.77267903,0
6.249423,0.99232554,-1.2778177,0.78019726,0.44253844,0.44209993,0
1.2788609,3.6336036,4.7423348,0.73991895,0.55960774,0.37330866,0
3.3907187,-5.1190825,-0.94790673,0.22329265,-0.86367583,0.45188999,0
-3.5465102,-0.54601121,3.3327477,-0.58182925,0.25385416,0.77267903,0
3.3392098,-4.5789728,0.018249989,0.32435656,-0.79879463,0.50667548,0
-6.2375884,1.1727445,0.74168301,-0.58182925,0.25385416,0.77267903,0
3.5452557,0.29648256,-3.251713,0.58182925,-0.25385416,-0.77267903,0
-4.2454205,4.618371,0.65667248,-0.38545001,0.75050575,-0.53681433,0
-4.6929827,-2.2919564,0.029550552,-0.72200555,-0.59856999,-0.34701914,0
4.417634,-1.9561453,1.6019239,0.70597965,-0.31406692,0.63478732,0
4.6250777,-1.299427,1.6180034,0.75681007,-0.17893359,0.62866628,0
-0.6448127,2.0353153,4.6696701,-0.58182925,0.25385416,0.77267903,0
1.9630637,-3.6448536,2.3430674,0.38179773,-0.75360334,0.5350818,0
2.5632257,-3.5289552,2.0465343,0.44091323,-0.69986904,0.56194216,0
1.9261582,-2.5447326,-3.5374508,0.58182925,-0.25385416,-0.77267903,0
2.7633951,1.6219505,3.9772973,0.81169266,0.24114606,0.53198099,0
1.4327149,4.5306554,1.365097,0.4695968,0.88053513,0.064318478,0
-4.8472705,4.2412539,0.78047466,-0.58182925,0.25385416,0.77267903,0
4.9731979,-2.7309957,0.56106377,0.66073966,-0.40642446,0.63106436,0
0.36044979,1.4972706,-6.044384,0.58182925,-0.25385416,-0.77267903,0
-5.3549767,1.6655641,1.2443819,-0.58182925,0.25385416,0.77267903,0
-4.4103532,-2.1422281,-0.76102686,-0.7528162,-0.52764487,-0.39352131,0
-3.1887407,-2.8781562,-2.0849943,-0.73088825,-0.57993507,-0.35983014,0
-0.90147924,-3.2973447,-5.4194078,0.58182925,-0.25385416,-0.77267903,0
-2.2339697,-3.2260084,5.2015743,-0.58182925,0.25385416,0.77267903,0
0.38457227,-0.41473627,6.2497339,-0.58182925,0.25385416,0.77267903,0
-4.782959,-0.18104243,2.2817926,-0.58182925,0.25385416,0.77267903,0
-5.6269069,-0.20708215,-0.24319935,-0.81304783,-0.20571092,-0.5446434,0
-5.2105894,-1.3086598,2.3302503,-0.58182925,0.25385416,0.77267903,0
3.6700835,-2.5392256,-2.2260799,0.58182925,-0.25385416,-0.77267903,0
2.2097201,-2.575067,-3.3139625,0.58182925,-0.25385416,-0.77267903,0
-2.7458811,5.5234356,1.6304259,-0.056323171,0.93518412,-0.3496547,0
1.5033708,-0.79787827,-4.429718,0.58182925,-0.25385416,-0.77267903,0
1.301643,-3.8440948,-3.5808227,0.58182925,-0.25385416,-0.77267903,0
-1.5406275,0.76606894,-5.389802,-0.70084524,0.32554713,-0.63469279,0
1.7061067,-4.6549869,0.74086642,0.16296315,-0.89438689,0.41655147,0
-5.001596,1.9514107,1.4165668,-0.58182925,0.25385416,0.77267903,0
2.7813663,-1.4778323,-3.2439938,0.58182925,-0.25385416,-0.77267903,0
0.070287704,-4.9041719,0.079266608,-0.13520348,-0.96701145,0.2158913,0
3.150491,-1.8529108,-2.8428149,0.58182925,-0.25385416,-0.77267903,0
-0.27155328,0.87310934,-6.3152237,0.58182925,-0.25385416,-0.77267903,0
-1.0344682,-1.685421,5.5986614,-0.58182925,0.25385416,0.77267903,0
-3.8809786,-2.360142,3.676903,-0.58182925,0.25385416,0.77267903,0
-0.42046666,-4.8453426,-3.6978595,-0.55920428,-0.8147105,-0.15341914,0
3.2670388,-1.573037,3.0691366,0.69652826,-0.33497491,0.63453943,0
0.0093604922,2.0370631,5.1616898,-0.58182925,0.25385416,0.77267903,0
0.4911859,0.23648643,-5.531724,0.58182925,-0.25385416,-0.77267903,0
-3.1496615,-3.5635629,-0.49263144,-0.59604859,-0.77947283,-0.19273973,0
0.46929169,-4.8595543,0.4004623,-0.047851801,-0.95908034,0.27906159,0
3.0662766,3.7675114,-0.30120015,0.51564527,0.84983027,0.10908097,0
3.6622534,-4.9061561,-0.71421504,0.28984481,-0.82294488,0.48862228,0
4.4050899,1.4294255,-2.9764705,0.58182925,-0.25385416,-0.77267903,0
1.9651964,-5.5057998,-1.5641158,-0.045568943,-0.95872396,0.28066346,0
2.2073014,-2.3903644,-3.3764653,0.58182925,-0.25385416,-0.77267903,0
1.343044,-0.14644289,-4.7644663,0.58182925,-0.25385416,-0.77267903,0
-2.9418559,-3.1756704,-2.0764375,-0.70494896,-0.63120991,-0.32345206,0
-5.3884573,-2.6006119,2.6207702,-0.58182925,0.25385416,0.77267903,0
2.5458403,-1.9209661,-3.2757597,0.58182925,-0.25385416,-0.77267903,0
1.4566612,-5.5560188,-1.9806807,-0.15737414,-0.96722603,0.19926715,0
1.3874593,1.9853058,-5.4313817,0.58182925,-0.25385416,-0.77267903,0
-2.5489683,-3.0586691,4.9094024,-0.58182925,0.25385416,0.77267903,0
-0.23009324,4.7849846,4.0785847,-0.58182925,0.25385416,0.77267903,0
-5.2115302,0.26771522,1.8116438,-0.58182925,0.25385416,0.77267903,0
-2.8069167,-3.8569982,2.7224231,-0.25315166,-0.95937353,0.12456658,0
1.9523398,-4.9308882,-2.7337942,0.58182925,-0.25385416,-0.77267903,0
1.7495797,-4.359807,-3.0740943,0.58182925,-0.25385416,-0.77267903,0
-5.7858677,2.9566014,0.43746901,-0.67238826,0.38435635,-0.63258553,0
2.9222791,-4.1261978,-2.2677982,0.58182925,-0.25385416,-0.77267903,0
-2.6731865,1.106478,-3.9613023,-0.7127769,0.29838854,-0.63475472,0
0.17105722,-3.8320084,3.0974259,0.19782406,-0.87733763,0.43720061,0
-3.25106,1.3381788,-3.2034206,-0.71431541,0.29475936,-0.63472086,0
-1.0832298,1.8515167,-5.1032419,-0.57627583,0.54172587,-0.61191458,0
3.5129402,3.2537365,0.53330088,0.64085305,0.72806597,0.24336684,0
-3.935559,1.7778134,2.276329,-0.58182925,0.25385416,0.77267903,0
0.75444603,-0.043166637,-5.241612,0.58182925,-0.25385416,-0.77267903,0
-2.0040312,-3.7365227,-2.9989586,-0.67910165,-0.67441905,-0.28979319,0
-0.88030112,-3.8994167,-5.1277952,-0.72916389,-0.5836516,-0.35731071,0
4.6672001,1.4295404,-2.7791381,0.58182925,-0.25385416,-0.77267903,0
0.18797112,-3.4085784,3.8688293,0.28635597,-0.82526773,0.48675829,0
-3.8268285,-1.6583049,3.4870977,-0.58182925,0.25385416,0.77267903,0
-2.3322988,-3.2004528,-3.3031902,-0.73694086,-0.56647915,-0.36880851,0
1.3853192,3.7405038,-3.803335,-0.050742984,0.93686008,-0.34600359,0
-5.7557673,-1.7413549,1.2972021,-0.73290813,-0.57551736,-0.36280239,0
0.13525867,4.7021136,-0.81733078,0.087689757,0.96408325,-0.25070712,0
-2.5978181,-3.6853285,-1.6492147,-0.63245177,-0.738536,-0.23360085,0
2.4075546,4.1254697,-0.30235648,0.43493438,0.89989865,0.031856,0
-1.0685555,3.4734774,3.8781004,-0.58182925,0.25385416,0.77267903,0
0.088078499,4.2548189,4.4923487,-0.58182925,0.25385416,0.77267903,0
1.8102564,3.3902311,4.0538173,0.7411871,0.55662847,0.37524211,0
0.22489524,-4.0940261,-4.3095045,0.58182925,-0.25385416,-0.77267903,0
-1.198637,-3.0593586,5.2552347,0.23533607,-0.85685223,0.45871696,0
1.362875,2.343318,-5.5675144,0.58182925,-0.25385416,-0.77267903,0
-1.1593381,-1.5804114,-6.1776533,0.58182925,-0.25385416,-0.77267903,0
3.5220942,-2.0317814,-2.504231,0.58182925,-0.25385416,-0.77267903,0
-2.3410277,-2.3444009,-4.2192001,-0.79823411,-0.36031705,-0.48269451,0
-2.9971657,-0.37649131,-3.916059,-0.79972398,-0.0056387782,-0.60034156,0
-3.5426917,-2.0723319,-2.4137297,-0.78623533,-0.41865134,-0.45449448,0
3.314183,1.3529087,3.2586703,0.81201351,0.2349574,0.53425586,0
-0.97101259,3.5819855,3.9159009,-0.58182925,0.25385416,0.77267903,0
4.0637765,-4.5026441,-1.2845712,0.58182925,-0.25385416,-0.77267903,0
-0.74757862,-2.9465737,5.2016196,0.29658204,-0.81839871,0.49220198,0
3.0097289,-4.2161541,0.78851628,0.36265802,-0.76938665,0.525855,0
0.27275705,-2.9066584,4.5888209,0.3819142,-0.75350499,0.53513712,0
-3.3923819,2.9861403,-1.9215658,-0.56143069,0.56201357,-0.60740137,0
-2.9308977,-3.2568007,-1.9355373,-0.69260997,-0.65266687,-0.30711144,0
-2.8544426,-2.8478975,4.6101332,-0.58182925,0.25385416,0.77267903,0
-2.8850045,2.0108602,2.9908347,-0.58182925,0.25385416,0.77267903,0
1.5232654,3.3181157,4.7034626,0.76046497,0.50667417,0.40617049,0
-0.78212643,-0.72377968,5.4727397,-0.58182925,0.25385416,0.77267903,0
-1.3616881,2.0172424,4.1357985,-0.58182925,0.25385416,0.77267903,0
-2.5500178,-2.7064657,4.7929006,-0.58182925,0.25385416,0.77267903,0
4.3086977,-1.8352215,-1.9764936,0.58182925,-0.25385416,-0.77267903,0
4.9622927,2.4900389,-1.0355349,0.67045617,0.68749964,0.27898574,0
3.2962353,-1.0199294,-3.0067348,0.58182925,-0.25385416,-0.77267903,0
-0.036150694,5.1952286,2.8223648,0.42363453,0.90557849,0.021481156,0
3.4546626,-4.6936302,-1.6804893,0.58182925,-0.25385416,-0.77267903,0
-4.0373483,3.9535191,1.48488,-0.58182925,0.25385416,0.77267903,0
1.1099541,-3.8213553,-3.732636,0.58182925,-0.25385416,-0.77267903,0
-0.66162109,-3.7205501,-5.0997543,0.58182925,-0.25385416,-0.77267903,0
-1.8175378,-1.0365911,4.7958426,-0.58182925,0.25385416,0.77267903,0
-2.1893249,-0.1073997,-4.9334993,-0.77515501,0.1144954,-0.62130976,0
-1.5252934,-4.3714533,1.3343521,-0.22204745,-0.96352929,0.14935353,0
-3.7263293,1.7354846,2.4477861,-0.58182925,0.25385416,0.77267903,0
4.5859966,-0.65264237,1.7910399,0.78785658,-0.059903771,0.61293864,0
4.2255077,-2.9855168,-1.6612204,0.58182925,-0.25385416,-0.77267903,0
-1.4923329,-2.0521061,-5.7180862,-0.81282115,-0.21446145,-0.54159772,0
0.77201462,-2.462564,4.7642951,0.48185655,-0.65775812,0.57893747,0
-2.1788449,-4.2291718,0.60988355,-0.37720323,-0.92591107,0.020161808,0
3.9458442,0.22762871,-2.9274478,0.58182925,-0.25385416,-0.77267903,0
1.7226336,-2.2184775,-3.7978926,0.58182925,-0.25385416,-0.77267903,0
2.1822767,1.2684484,-4.5973668,0.58182925,-0.25385416,-0.77267903,0
1.9188993,-1.4151633,-3.9140229,0.58182925,-0.25385416,-0.77267903,0
-4.863781,-0.26855087,2.2496829,-0.58182925,0.25385416,0.77267903,0
-0.94370461,3.5417094,-3.187043,-0.32292992,0.79983604,-0.50594336,0
3.5967231,-3.9051518,0.76598191,0.45193934,-0.68894893,0.56665719,0
4.2530112,-1.4979799,-2.1292229,0.58182925,-0.25385416,-0.77267903,0
1.2670488,-0.48669004,5.8316259,0.71325147,-0.29727241,0.6347453,0
