0.20416355,2.5744164,4.1280518,0.10070142,0.33478469,0.93689817,0
2.0848825,0.59683037,4.4264059,0.36798292,0.38030243,0.84850371,0
-0.90658683,0.24533641,4.7568688,-0.24330406,0.23990819,0.93981224,0
0.20623067,-1.568638,0.020253778,0.25592822,-0.91871274,0.30077824,0
1.9924576,1.5141176,-2.0576177,-0.25592822,0.91871274,-0.30077824,0
-3.0570216,0.52917123,-0.76955462,-0.25592822,0.91871274,-0.30077824,0
-1.1105455,-2.7053068,-2.3312194,0.25592822,-0.91871274,0.30077824,0
3.7680974,-1.4127607,-2.5343719,0.25592822,-0.91871274,0.30077824,0
-1.0785038,-0.22388887,-4.7532349,-0.25592822,0.91871274,-0.30077824,0
1.8921765,2.1447685,3.8076696,0.41672051,0.38559556,0.82320106,0
-0.037000418,-0.41135693,-4.8564334,0.051061004,-0.29785901,-0.9532432,0
1.0842685,-1.1003108,0.70362628,0.25592822,-0.91871274,0.30077824,0
-2.5407486,0.088111997,4.041532,-0.56099403,0.11224042,0.82017523,0
3.0472407,1.288897,-3.6430442,-0.25592822,0.91871274,-0.30077824,0
0.21422327,0.065561771,-4.9690857,-0.25592822,0.91871274,-0.30077824,0
-1.2763088,2.4068377,3.4505033,-0.25592822,0.91871274,-0.30077824,0
1.6300607,-1.3927643,-0.65406728,0.25592822,-0.91871274,0.30077824,0
-1.9501969,-1.1861312,-4.2205644,-0.37399149,-0.38101047,-0.84555387,0
-3.879889,1.3695453,2.7654972,-0.7403425,0.013796464,0.67208827,0
2.3720911,2.4941511,0.61282235,-0.25592822,0.91871274,-0.30077824,0
0.091305137,-1.7175964,-0.33694398,0.25592822,-0.91871274,0.30077824,0
-1.0451342,-1.3132036,-4.461854,-0.19831201,-0.35441935,-0.91381568,0
-1.9236581,-1.5909705,-4.0487757,-0.39159384,-0.38299605,-0.83664101,0
-2.5253158,0.3409791,4.0163097,-0.54503214,0.11983999,0.82980603,0
1.6099789,1.8795003,-0.61612791,-0.25592822,0.91871274,-0.30077824,0
-2.1383004,1.557673,1.5902267,-0.25592822,0.91871274,-0.30077824,0
-0.14079177,-0.11389422,4.758975,0.25592822,-0.91871274,0.30077824,0
-1.5510533,0.76088953,-1.3431898,-0.25592822,0.91871274,-0.30077824,0
-0.95592332,2.3174868,2.9049733,-0.25592822,0.91871274,-0.30077824,0
2.287086,-0.74194109,0.77478725,0.25592822,-0.91871274,0.30077824,0
1.395031,3.0542877,3.1550999,-0.25592822,0.91871274,-0.30077824,0
-1.6024513,-2.2025032,-0.3768734,0.25592822,-0.91871274,0.30077824,0
-2.5880499,1.8250476,2.7895947,-0.25592822,0.91871274,-0.30077824,0
0.27842432,-0.74460351,2.4757981,0.25592822,-0.91871274,0.30077824,0
0.11946249,0.043855906,-4.9547548,-0.25592822,0.91871274,-0.30077824,0
2.6214805,0.42563629,4.0565643,0.25592822,-0.91871274,0.30077824,0
0.51751965,0.53093338,-3.8057017,-0.25592822,0.91871274,-0.30077824,0
3.3154891,1.5571754,3.0423899,0.6800549,0.3922359,0.619416,0
4.521812,0.18747914,1.7121577,0.25592822,-0.91871274,0.30077824,0
-1.7174034,0.3831315,4.4456663,-0.3909575,0.18619327,0.90137887,0
0.33838189,2.6467707,2.8094471,-0.25592822,0.91871274,-0.30077824,0
-0.30329496,0.36242199,-3.6219921,-0.25592822,0.91871274,-0.30077824,0
1.8491118,1.35867,4.1871166,0.36318702,0.37972635,0.85082483,0
3.6437607,0.87044251,-3.0215838,0.80891669,0.033167809,-0.58698702,0
3.4164772,2.9756534,1.194894,-0.25592822,0.91871274,-0.30077824,0
2.2834229,-1.2440703,-0.75582576,0.25592822,-0.91871274,0.30077824,0
-0.40014112,2.2364178,2.1844432,-0.25592822,0.91871274,-0.30077824,0
1.2150711,-0.48821235,-4.6087422,0.28957146,-0.22399589,-0.93057722,0
3.3991594,-0.94404459,-3.2688775,0.67498517,-0.052905098,-0.73593199,0
2.6525302,1.1424408,3.8525898,0.51596719,0.39293459,0.76117009,0
0.54061097,-1.7988796,-0.9675287,0.25592822,-0.91871274,0.30077824,0
-1.6254135,0.79659653,4.3950272,-0.35157257,0.20137703,0.91424489,0
3.3236325,1.3440486,3.1674454,0.66908062,0.39291602,0.63083118,0
-2.4113564,1.5515046,3.8863659,-0.46058547,0.15766931,0.87349939,0
-4.2122869,-2.1539786,-0.7876178,-0.92257041,-0.32505322,-0.20785654,0
-4.2733493,0.33024645,-0.34220386,-0.25592822,0.91871274,-0.30077824,0
-2.1871831,-1.6321665,1.8627331,0.25592822,-0.91871274,0.30077824,0
-2.3224611,-3.2347703,-2.9172378,0.25592822,-0.91871274,0.30077824,0
-3.3983898,-2.392617,0.57057178,0.25592822,-0.91871274,0.30077824,0
-2.3109138,0.80186164,4.0730581,-0.48095748,0.14888732,0.86400938,0
-1.7680483,1.283344,0.43725955,-0.25592822,0.91871274,-0.30077824,0
4.2239084,2.4179282,-0.9557209,0.96617448,0.23287746,-0.11079204,0
0.063573241,2.3870106,2.2498536,-0.25592822,0.91871274,-0.30077824,0
2.6280363,2.5954614,0.70448947,-0.25592822,0.91871274,-0.30077824,0
1.437922,1.8782387,-0.47358078,-0.25592822,0.91871274,-0.30077824,0
-4.4158468,-1.6443868,-0.62883878,-0.93996656,-0.30915999,-0.14450933,0
-1.2435713,-2.0631173,-0.25649196,0.25592822,-0.91871274,0.30077824,0
-1.613946,-3.057863,-2.9797487,0.25592822,-0.91871274,0.30077824,0
0.85826039,3.0314283,3.5420072,-0.25592822,0.91871274,-0.30077824,0
3.0531185,1.8617728,-1.8982236,-0.25592822,0.91871274,-0.30077824,0
-0.095311582,1.8057303,0.60955405,-0.25592822,0.91871274,-0.30077824,0
0.89155197,0.77004969,4.6952124,0.13742882,0.34255806,0.92939067,0
-1.4206595,1.3022279,0.19935071,-0.25592822,0.91871274,-0.30077824,0
2.4124858,1.1075015,-3.6570034,-0.25592822,0.91871274,-0.30077824,0
1.0780258,-0.3132199,-4.6926537,0.27263153,-0.2299152,-0.9342435,0
2.7757926,2.9966102,1.8040552,-0.25592822,0.91871274,-0.30077824,0
4.3876314,-0.1505755,-1.9363232,0.88713574,0.099598542,-0.45063299,0
0.067395627,-1.4080274,0.62896311,0.25592822,-0.91871274,0.30077824,0
4.0500112,1.5559847,1.9430562,0.84231931,0.36460242,0.39694229,0
0.34190917,1.9579144,4.3334184,0.093956113,0.33330721,0.9381249,0
3.5664489,-0.72680008,-0.26755786,0.25592822,-0.91871274,0.30077824,0
-1.4120595,-1.6022741,1.2944949,0.25592822,-0.91871274,0.30077824,0
4.1684761,-0.58269715,-0.33965969,0.25592822,-0.91871274,0.30077824,0
-4.8359675,0.3957777,0.89216542,-0.94628108,-0.17448324,0.27222723,0
3.9441385,0.1216625,2.0026586,0.25592822,-0.91871274,0.30077824,0
1.1409395,-1.1445028,-4.4666381,0.24019779,-0.24094795,-0.94034499,0
0.84278405,0.79075158,4.6945896,0.12886924,0.34078753,0.93126601,0
3.0912704,1.1597307,3.5026765,0.60881007,0.39486387,0.68806446,0
-3.1840477,1.3779457,3.4114594,-0.61349726,0.086094946,0.78498948,0
-3.2564964,1.6674335,2.8769426,-0.25592822,0.91871274,-0.30077824,0
4.7527857,0.29543841,-0.66440487,0.96044022,0.20631179,-0.1870563,0
-3.1081986,1.4111468,3.4657855,-0.59781194,0.094099998,0.79609406,0
3.0143838,-1.0345441,-0.73780274,0.25592822,-0.91871274,0.30077824,0
2.017724,0.95148659,4.2964277,0.3744323,0.38106179,0.84533548,0
2.1728492,-0.91608286,0.34008205,0.25592822,-0.91871274,0.30077824,0
1.5497653,0.86084962,-3.6763117,-0.25592822,0.91871274,-0.30077824,0
-0.92903888,-2.8772283,-3.0107868,0.25592822,-0.91871274,0.30077824,0
3.5423656,3.0698605,1.3755279,-0.25592822,0.91871274,-0.30077824,0
0.36282223,0.91550207,-2.4994245,-0.25592822,0.91871274,-0.30077824,0
-3.3545988,-1.9024479,2.030508,0.25592822,-0.91871274,0.30077824,0
-2.4948769,1.5909514,1.9952807,-0.25592822,0.91871274,-0.30077824,0
3.169374,1.7995425,3.0470877,0.6632297,0.39323467,0.63678306,0
2.323873,-0.18379104,2.448328,0.25592822,-0.91871274,0.30077824,0
-2.2665336,-2.6620488,-3.3294995,-0.52372491,-0.39329383,-0.75566661,0
4.4494362,-0.84747559,-1.3874779,0.25592822,-0.91871274,0.30077824,0
-1.586899,-3.1754582,-3.3619521,0.25592822,-0.91871274,0.30077824,0
-2.8053916,-2.5975049,-2.9268208,-0.63306898,-0.39442235,-0.66607404,0
-4.212245,-0.46889377,2.1446764,-0.88667077,-0.099136427,0.45164889,0
-3.4719028,-1.963521,1.9437776,0.25592822,-0.91871274,0.30077824,0
2.8379955,0.032281637,2.6708515,0.25592822,-0.91871274,0.30077824,0
0.32676634,-0.91868544,1.9029405,0.25592822,-0.91871274,0.30077824,0
3.4343071,-0.98976529,-0.95833516,0.25592822,-0.91871274,0.30077824,0
2.2007077,0.28674912,3.9903705,0.25592822,-0.91871274,0.30077824,0
-0.55510437,-1.5032804,0.86769474,0.25592822,-0.91871274,0.30077824,0
-1.6376237,-1.2657707,-4.3109369,-0.31497434,-0.37341052,-0.87255692,0
3.8430061,1.2628984,-2.6763008,0.86194652,0.076003417,-0.50127006,0
-3.7313437,-2.9703693,-0.91083896,0.25592822,-0.91871274,0.30077824,0
-4.3998952,-0.9127003,1.5499394,-0.93591881,-0.15759605,0.3149913,0
-0.51428246,-1.2123834,1.7214911,0.25592822,-0.91871274,0.30077824,0
-0.71896851,2.3556619,2.8199546,-0.25592822,0.91871274,-0.30077824,0
3.1040344,1.3372219,-3.5437622,-0.25592822,0.91871274,-0.30077824,0
-1.3259318,-0.23612905,4.7376513,-0.34932581,0.20222366,0.9149192,0
0.65130854,2.506377,2.1143565,-0.25592822,0.91871274,-0.30077824,0
4.2036042,2.1322789,-1.4421594,0.9559235,0.19419476,-0.22022402,0
0.86501807,0.6585536,-3.7115736,-0.25592822,0.91871274,-0.30077824,0
4.5913401,1.1341778,-0.44241858,0.96659797,0.23877427,-0.093140751,0
-0.64324403,0.54791212,4.7350125,-0.17616308,0.26160723,0.94896138,0
0.017536163,-1.6915352,-0.19457293,0.25592822,-0.91871274,0.30077824,0
-0.27185214,1.0645467,4.6341372,-0.075888395,0.29108644,0.95368189,0
3.1116228,-0.94796741,-0.55609703,0.25592822,-0.91871274,0.30077824,0
0.47185493,-2.5737188,-4.1526065,0.03272894,-0.3027274,-0.95251507,0
2.4050486,-1.8453615,-2.6959305,0.25592822,-0.91871274,0.30077824,0
-3.3063679,-2.4929633,-2.4336586,-0.73444688,-0.38709852,-0.55744267,0
-4.748086,-0.65536815,-0.24868846,-0.96253461,-0.27101621,-0.0087981224,0
-2.0258965,-2.5588036,-1.1048722,0.25592822,-0.91871274,0.30077824,0
3.1222138,-1.7528975,-3.0237298,0.25592822,-0.91871274,0.30077824,0
3.8120863,1.0084043,-2.7611706,0.84464145,0.061179236,-0.53182513,0
-0.32510126,-0.57929313,-4.8078513,-0.014719248,-0.31480789,-0.94904113,0
1.7006972,1.3500566,-2.3104784,-0.25592822,0.91871274,-0.30077824,0
-4.2794733,-0.69641197,-2.2455332,-0.84001243,-0.36533308,-0.40113696,0
2.250411,2.377996,0.36156803,-0.25592822,0.91871274,-0.30077824,0
1.8218033,0.31664586,4.4040928,0.25592822,-0.91871274,0.30077824,0
-4.496285,-1.000131,-1.3194699,-0.91270888,-0.33216459,-0.23796889,0
-2.0663445,0.25621986,-2.4462259,-0.25592822,0.91871274,-0.30077824,0
-0.085725784,0.018256426,-4.8583555,-0.25592822,0.91871274,-0.30077824,0
1.5427144,-1.3318126,-0.39357042,0.25592822,-0.91871274,0.30077824,0
3.965296,0.065289497,1.8124676,0.25592822,-0.91871274,0.30077824,0
3.6447339,0.9142915,3.079078,0.71241236,0.38955861,0.58370602,0
-1.5717524,-1.5392692,-4.2176571,-0.31706488,-0.37370375,-0.87167376,0
3.3700428,2.1931152,2.5577855,0.73012012,0.38762587,0.56273508,0
2.9695692,1.1781898,-3.8094182,0.70427918,-0.035931572,-0.70901293,0
-3.2462802,-1.6495919,2.7106783,0.25592822,-0.91871274,0.30077824,0
2.2284954,-2.0299077,-3.1093917,0.25592822,-0.91871274,0.30077824,0
2.5252457,3.1304898,2.4261725,-0.25592822,0.91871274,-0.30077824,0
-1.5945296,-0.57229722,-4.6159606,-0.26722613,-0.36625168,-0.89131898,0
0.76050198,-2.516923,-3.3478589,0.25592822,-0.91871274,0.30077824,0
0.40813756,1.6624689,-0.25640914,-0.25592822,0.91871274,-0.30077824,0
3.1185064,-0.33809114,1.3008829,0.25592822,-0.91871274,0.30077824,0
0.90136206,0.14024019,4.6484609,0.25592822,-0.91871274,0.30077824,0
2.2362604,0.30616152,4.019413,0.25592822,-0.91871274,0.30077824,0
1.4539453,0.2775054,4.5975466,0.25592822,-0.91871274,0.30077824,0
-0.1648258,-1.3288729,-4.5614467,-0.024284422,-0.31715244,-0.94806355,0
3.2775831,-1.3325517,-1.872005,0.25592822,-0.91871274,0.30077824,0
1.6049589,1.0071144,4.4319677,0.29378316,0.37034154,0.8812142,0
-3.3764243,0.57664037,-0.35278678,-0.25592822,0.91871274,-0.30077824,0
-2.0147643,2.0498405,2.9884143,-0.25592822,0.91871274,-0.30077824,0
-4.4969845,0.20181203,-0.54421222,-0.25592822,0.91871274,-0.30077824,0
0.17683691,-0.64825463,2.8565314,0.25592822,-0.91871274,0.30077824,0
-2.0789247,-2.6365242,-1.2971461,0.25592822,-0.91871274,0.30077824,0
1.9972366,2.0674844,3.7895622,0.43385765,0.38720495,0.81353527,0
4.2780781,-0.72402632,-2.2202168,0.84179747,0.058830991,-0.53657782,0
-1.0497222,-1.8534693,0.21892366,0.25592822,-0.91871274,0.30077824,0
2.9991164,2.7637298,2.6255546,0.6842922,0.39194369,0.61491793,0
-1.2034637,-2.7720685,-2.4560771,0.25592822,-0.91871274,0.30077824,0
-4.4683309,0.43617466,1.8405776,-0.88732344,-0.099785402,0.45022202,0
-0.90538001,1.2361143,-0.44103491,-0.25592822,0.91871274,-0.30077824,0
-2.7568192,-1.9892942,1.2565993,0.25592822,-0.91871274,0.30077824,0
1.7759684,0.43581009,-4.5792308,0.44518143,-0.16417426,-0.88026136,0
-0.99117899,-1.9542019,-4.2231312,-0.22329506,-0.35890827,-0.90626919,0
-1.8859259,-0.91227984,3.8052564,0.25592822,-0.91871274,0.30077824,0
-1.4846876,-2.5505209,-1.5400809,0.25592822,-0.91871274,0.30077824,0
-2.5763083,-2.0062091,1.0513383,0.25592822,-0.91871274,0.30077824,0
4.0715313,-0.9958241,-1.5190461,0.25592822,-0.91871274,0.30077824,0
-1.6097734,1.5237273,1.0368249,-0.25592822,0.91871274,-0.30077824,0
-0.71745229,-0.37950993,4.4383373,0.25592822,-0.91871274,0.30077824,0
2.872036,1.415586,-3.1070004,-0.25592822,0.91871274,-0.30077824,0
-2.3227541,1.8247713,3.8801975,-0.42952752,0.17066902,0.88677955,0
-1.2429507,2.4148121,3.4464755,-0.25592822,0.91871274,-0.30077824,0
3.7784276,1.8357253,-2.5949411,-0.25592822,0.91871274,-0.30077824,0
-3.31668,0.67066085,-0.11644113,-0.25592822,0.91871274,-0.30077824,0
1.1510073,-1.0773697,0.71691191,0.25592822,-0.91871274,0.30077824,0
2.2745278,2.1810985,-0.26036695,-0.25592822,0.91871274,-0.30077824,0
0.12621868,2.6479042,2.9934361,-0.25592822,0.91871274,-0.30077824,0
0.71481562,2.1026459,4.2259464,0.17622653,0.35026622,0.91992253,0
-2.7408209,-1.1940868,-3.7639124,-0.53733075,-0.39384207,-0.74576402,0
-2.8467586,0.31961954,-1.5885299,-0.25592822,0.91871274,-0.30077824,0
-4.2969627,-1.9567742,-0.71013486,-0.93072343,-0.31826192,-0.18017553,0
2.2940087,2.4922047,0.67331707,-0.25592822,0.91871274,-0.30077824,0
2.3718514,-0.35076761,1.8974817,0.25592822,-0.91871274,0.30077824,0
-3.3987765,-0.71902776,3.3352842,-0.75830793,0.0021800101,0.65189284,0
-2.8173149,1.761516,2.7906199,-0.25592822,0.91871274,-0.30077824,0
1.9947206,-0.5188309,1.7050368,0.25592822,-0.91871274,0.30077824,0
1.103088,-1.7470154,-1.2877154,0.25592822,-0.91871274,0.30077824,0
1.1143887,1.4470305,-1.515395,-0.25592822,0.91871274,-0.30077824,0
-3.3204765,-2.3151236,0.74097788,0.25592822,-0.91871274,0.30077824,0
3.5291724,-1.3441844,-2.1216104,0.25592822,-0.91871274,0.30077824,0
-0.96702105,2.1856675,2.5117803,-0.25592822,0.91871274,-0.30077824,0
-1.0964192,-0.6480372,3.9405921,0.25592822,-0.91871274,0.30077824,0
4.3324838,0.053665057,-1.9997466,0.88742381,0.099885345,-0.45000213,0
-1.2605805,-1.8175061,0.50818771,0.25592822,-0.91871274,0.30077824,0
-2.2523096,-2.3376896,-0.23683989,0.25592822,-0.91871274,0.30077824,0
4.1855555,0.67185771,2.451885,0.81697571,0.37188229,0.44074279,0
1.9878426,1.733001,3.9520593,0.41281915,0.38521039,0.82534438,0
3.0189586,-0.22370774,-3.6624537,0.64222038,-0.070968747,-0.76322728,0
1.259192,1.0676765,-2.7973239,-0.25592822,0.91871274,-0.30077824,0
-0.20525074,1.6410949,0.20022941,-0.25592822,0.91871274,-0.30077824,0
-2.7127018,-2.8431201,-2.8692985,-0.62792361,-0.39455265,-0.67085016,0
-3.1586285,0.87687004,3.4838395,-0.63447261,0.075110942,0.76928705,0
1.0448457,2.8272724,2.7596605,-0.25592822,0.91871274,-0.30077824,0
-3.7425203,-2.7021863,-0.082177639,0.25592822,-0.91871274,0.30077824,0
-0.58836418,0.74604785,-2.2076635,-0.25592822,0.91871274,-0.30077824,0
0.027507603,-0.75037503,2.6716714,0.25592822,-0.91871274,0.30077824,0
-1.4766042,0.2590158,-2.9394865,-0.25592822,0.91871274,-0.30077824,0
-0.30566341,1.8403921,0.89441168,-0.25592822,0.91871274,-0.30077824,0
-0.8682223,-0.66945601,3.680999,0.25592822,-0.91871274,0.30077824,0
3.2555923,0.98773354,3.4521697,0.63344288,0.39441204,0.66572458,0
3.3386083,0.27806008,2.9956055,0.25592822,-0.91871274,0.30077824,0
-3.4070749,-3.0024283,-1.9127729,-0.78791952,-0.37850958,-0.4857091,0
0.78465748,2.200067,4.1743937,0.19562474,0.3539232,0.91458684,0
-1.204003,-0.83383369,-4.6132231,-0.20338556,-0.35534897,-0.91233838,0
1.6460153,-1.1088436,0.19957972,0.25592822,-0.91871274,0.30077824,0
0.17284602,0.61239076,-3.2636161,-0.25592822,0.91871274,-0.30077824,0
-1.1584036,1.6860468,4.3215227,-0.21447551,0.24942312,0.9443453,0
1.9723983,2.8522327,3.4229243,0.47375762,0.39041382,0.78938603,0
2.0946298,-0.9824782,-4.1527953,0.43075806,-0.17016262,-0.88627982,0
-0.99264824,-2.3611264,-1.3802549,0.25592822,-0.91871274,0.30077824,0
1.368428,-1.3460935,-0.28889346,0.25592822,-0.91871274,0.30077824,0
-0.12426722,-0.6408217,3.1354394,0.25592822,-0.91871274,0.30077824,0
0.4098593,0.88246751,-2.6403518,-0.25592822,0.91871274,-0.30077824,0
-4.1357098,-0.48577583,-2.6913872,-0.79407686,-0.37723783,-0.47658539,0
-0.00093799829,-1.6768588,-0.13402498,0.25592822,-0.91871274,0.30077824,0
3.25827,2.0055909,-1.6334989,-0.25592822,0.91871274,-0.30077824,0
0.31044161,0.66935539,4.7781911,0.01677385,0.31531402,0.94883883,0
-0.64748192,-2.9185824,-3.3766749,0.25592822,-0.91871274,0.30077824,0
4.2616496,0.86942708,-1.9308991,0.91275251,0.12716986,-0.38821465,0
3.2917876,0.057202816,2.3608465,0.25592822,-0.91871274,0.30077824,0
-4.5933614,-0.29762506,-1.8780526,-0.88798124,-0.34639829,-0.30248553,0
-0.88704896,-0.94486618,2.855792,0.25592822,-0.91871274,0.30077824,0
-2.664254,-2.6354547,-0.79582995,0.25592822,-0.91871274,0.30077824,0
1.7274451,2.2378855,0.37859288,-0.25592822,0.91871274,-0.30077824,0
0.72047079,-0.66315353,2.3484523,0.25592822,-0.91871274,0.30077824,0
-1.8367682,0.88122892,-0.73250836,-0.25592822,0.91871274,-0.30077824,0
-4.4087067,-0.69606704,1.6252067,-0.92814881,-0.14654043,0.34214872,0
1.05057,3.0906954,3.5594025,-0.25592822,0.91871274,-0.30077824,0
-0.82353044,1.2450937,4.5093274,-0.17346421,0.26244599,0.94922704,0
2.2209761,1.7289448,-1.5958817,-0.25592822,0.91871274,-0.30077824,0
0.72047639,1.9992955,0.50664598,-0.25592822,0.91871274,-0.30077824,0
0.8058579,-2.4049451,-3.0444217,0.25592822,-0.91871274,0.30077824,0
-4.3329773,-1.4870816,1.4316301,-0.9492681,-0.18002608,0.25783855,0
1.5042832,0.67792058,-4.1963601,-0.25592822,0.91871274,-0.30077824,0
3.4728777,1.3370669,-3.2299855,0.80177283,0.027907088,-0.59697694,0
1.433872,-1.9208237,-2.100065,0.25592822,-0.91871274,0.30077824,0
1.1361681,1.5335572,4.3539023,0.22887865,0.35988086,0.90448886,0
2.616379,-1.4130303,-1.5552127,0.25592822,-0.91871274,0.30077824,0
0.99764252,-0.46332264,2.7229834,0.25592822,-0.91871274,0.30077824,0
-1.0372733,1.0537131,-0.88594365,-0.25592822,0.91871274,-0.30077824,0
-0.86330861,0.39408827,-3.0487597,-0.25592822,0.91871274,-0.30077824,0
2.7046499,-1.6315467,-2.2977712,0.25592822,-0.91871274,0.30077824,0
3.7625551,2.9285202,1.2780479,0.86448348,0.35675421,0.35411119,0
0.069345564,-0.78208876,2.5392032,0.25592822,-0.91871274,0.30077824,0
1.4043686,-1.9344938,-2.1167154,0.25592822,-0.91871274,0.30077824,0
-1.4703822,-2.453198,-1.2549841,0.25592822,-0.91871274,0.30077824,0
1.4726303,2.8863087,2.5759878,-0.25592822,0.91871274,-0.30077824,0
-0.82954311,0.14848971,-3.8276596,-0.25592822,0.91871274,-0.30077824,0
4.7836871,-0.21124887,0.27143645,0.25592822,-0.91871274,0.30077824,0
1.5008135,-2.1742535,-2.9311125,0.25592822,-0.91871274,0.30077824,0
-1.1183041,-0.59426785,4.1234484,0.25592822,-0.91871274,0.30077824,0
-4.7066789,-0.49362767,0.68136525,-0.96145451,-0.20955044,0.17802721,0
-3.2953565,-2.286243,0.80781674,0.25592822,-0.91871274,0.30077824,0
3.4094999,2.1318803,-1.3764325,-0.25592822,0.91871274,-0.30077824,0
-4.5505676,-0.96952134,-1.1377437,-0.92481816,-0.32327467,-0.20051149,0
3.5994315,-0.011329353,-3.0994287,0.7578094,-0.0025082082,-0.65247101,0
-2.6928587,1.2769649,1.2046835,-0.25592822,0.91871274,-0.30077824,0
-4.3506451,-0.37682807,-2.3871233,-0.83590055,-0.36659944,-0.40850365,0
2.5530825,0.99375486,-4.1240678,-0.25592822,0.91871274,-0.30077824,0
0.36866421,1.3702103,-1.1155114,-0.25592822,0.91871274,-0.30077824,0
1.8780626,0.35682631,4.4789524,0.25592822,-0.91871274,0.30077824,0
0.20966935,2.2491946,4.2428927,0.083825052,0.33105934,0.93987918,0
-2.7158825,-2.6327453,-2.9891605,-0.61619341,-0.39477533,-0.68151152,0
-1.5836346,0.17369246,4.5462632,-0.37663767,0.19179001,0.90628934,0
0.23651278,1.5354633,4.4887528,0.049792111,0.32325545,0.94500077,0
-3.7926719,0.41213566,2.8712645,-0.7722894,-0.0071700066,0.63523036,0
2.5490441,0.54443598,-4.1167889,0.59515685,-0.095438085,-0.79792196,0
-1.4240315,-0.8301053,-4.5599308,-0.24735239,-0.36301768,-0.89835119,0
0.61066121,-1.8516779,-1.1884031,0.25592822,-0.91871274,0.30077824,0
-1.4971161,1.0259141,-0.57958031,-0.25592822,0.91871274,-0.30077824,0
-4.79178,-0.38377833,-0.85698557,-0.94782925,-0.29964876,-0.10876737,0
-4.4718971,-0.092596769,-1.4648165,-0.25592822,0.91871274,-0.30077824,0
4.0991559,2.7299087,-0.13660347,-0.25592822,0.91871274,-0.30077824,0
-1.6009357,0.29387736,4.513608,-0.37356308,0.19298021,0.9073087,0
-1.52231,-1.2363287,-4.3631454,-0.28998452,-0.369773,-0.88270986,0
-3.429477,-2.7081535,-2.1031108,-0.77467573,-0.38102874,-0.50467271,0
-0.95716584,-1.3196062,-4.4776001,-0.18106711,-0.35119116,-0.91862899,0
1.4007105,-1.5351422,-0.89380276,0.25592822,-0.91871274,0.30077824,0
-1.3671423,-1.2599978,-4.401391,-0.26000908,-0.36509424,-0.89392459,0
-1.9041488,2.1893065,3.3202853,-0.25592822,0.91871274,-0.30077824,0
-4.4282975,-0.72330099,1.558691,-0.93227309,-0.15227391,0.32814544,0
3.2743855,2.5429981,-0.0057270527,-0.25592822,0.91871274,-0.30077824,0
3.4822903,2.2962,-0.93646276,-0.25592822,0.91871274,-0.30077824,0
-1.791285,-1.7781409,1.0799962,0.25592822,-0.91871274,0.30077824,0
-3.8081136,-2.914732,-0.67557526,0.25592822,-0.91871274,0.30077824,0
1.0281963,-2.1669631,-2.5067017,0.25592822,-0.91871274,0.30077824,0
0.42245251,-1.9156523,-1.223665,0.25592822,-0.91871274,0.30077824,0
-0.057031155,-2.2000771,-1.6844418,0.25592822,-0.91871274,0.30077824,0
-3.3879349,1.2332274,3.2565427,-0.65826249,0.062238425,0.750211,0
-1.0669122,-2.6906269,-3.9032109,-0.27983221,-0.36822647,-0.88662452,0
1.8646637,-1.5279955,-1.2667453,0.25592822,-0.91871274,0.30077824,0
-0.96760124,-1.6985905,0.62211704,0.25592822,-0.91871274,0.30077824,0
-4.2833443,-2.17172,0.95008242,-0.96558917,-0.22806323,0.12499869,0
-1.6152136,-1.5709586,1.563007,0.25592822,-0.91871274,0.30077824,0
-1.7924569,-2.4627564,-1.0101314,0.25592822,-0.91871274,0.30077824,0
-0.40653419,-2.6171298,-4.0860319,-0.14331046,-0.34376004,-0.92805755,0
1.3660876,-2.4500701,-4.072557,0.21348086,-0.24974607,-0.94448537,0
3.0310082,2.5941811,0.35769513,-0.25592822,0.91871274,-0.30077824,0
2.1033828,-1.0958376,-0.14986193,0.25592822,-0.91871274,0.30077824,0
2.5578623,0.96335292,-4.1575074,0.61828792,-0.083615109,-0.78149128,0
-4.3952909,-0.0022124052,-1.2539251,-0.25592822,0.91871274,-0.30077824,0
0.97546816,-1.885217,-1.6012552,0.25592822,-0.91871274,0.30077824,0
-2.8856518,0.01505208,-2.4857228,-0.25592822,0.91871274,-0.30077824,0
-2.3088183,-3.2278934,-2.9078393,0.25592822,-0.91871274,0.30077824,0
1.202281,-0.19828486,3.3584049,0.25592822,-0.91871274,0.30077824,0
4.7717161,0.34092945,-0.50066328,0.9637627,0.21826811,-0.15336341,0
2.6963935,-0.15604806,2.2160947,0.25592822,-0.91871274,0.30077824,0
2.1950145,-1.178351,-0.47986317,0.25592822,-0.91871274,0.30077824,0
-3.1324258,-1.568733,2.8607821,0.25592822,-0.91871274,0.30077824,0
2.1486475,0.84793901,-4.225328,-0.25592822,0.91871274,-0.30077824,0
1.2571027,-0.87472963,1.2455897,0.25592822,-0.91871274,0.30077824,0
3.0246572,-1.460277,-3.5210738,0.5798403,-0.10306478,-0.80818474,0
3.4068463,1.5116742,-3.2685654,-0.25592822,0.91871274,-0.30077824,0
1.5059452,-2.2014856,-3.0186591,0.25592822,-0.91871274,0.30077824,0
3.7718382,-0.77115631,-0.57780528,0.25592822,-0.91871274,0.30077824,0
0.11990076,1.3769904,-0.88313216,-0.25592822,0.91871274,-0.30077824,0
3.5546963,2.6522729,0.089535028,-0.25592822,0.91871274,-0.30077824,0
-4.404974,-1.8498892,0.51500726,-0.96653688,-0.24882685,0.062383711,0
-0.043030217,-1.2191107,1.2999605,0.25592822,-0.91871274,0.30077824,0
1.34337,2.1627188,0.47580391,-0.25592822,0.91871274,-0.30077824,0
-3.1410494,1.2557487,3.4584517,-0.61184824,0.086944729,0.78618205,0
1.7753626,1.7329853,-1.2043742,-0.25592822,0.91871274,-0.30077824,0
1.2881601,2.8344321,2.5744975,-0.25592822,0.91871274,-0.30077824,0
0.21076822,-2.3468034,-2.3604767,0.25592822,-0.91871274,0.30077824,0
-2.206955,-2.6427317,-3.3799875,-0.51022923,-0.39264756,-0.76517582,0
2.8582153,1.679425,-2.2893567,-0.25592822,0.91871274,-0.30077824,0
3.7770581,-0.7064358,-0.38456106,0.25592822,-0.91871274,0.30077824,0
-3.0588117,-1.4943218,3.0254297,0.25592822,-0.91871274,0.30077824,0
-0.94474673,0.01802516,-4.1281328,-0.25592822,0.91871274,-0.30077824,0
1.8092966,1.4396156,4.167943,0.35967153,0.37929794,0.85250753,0
-1.5702239,-0.14333224,-4.0887814,-0.25592822,0.91871274,-0.30077824,0
-0.10908771,2.4464993,2.5784748,-0.25592822,0.91871274,-0.30077824,0
0.69439065,-2.4139471,-2.977072,0.25592822,-0.91871274,0.30077824,0
1.4199544,-1.4098116,-0.52736068,0.25592822,-0.91871274,0.30077824,0
-1.6947961,-1.5630406,1.6549094,0.25592822,-0.91871274,0.30077824,0
0.64243007,2.9909265,3.6019442,-0.25592822,0.91871274,-0.30077824,0
-1.3576427,0.41284382,-2.5708499,-0.25592822,0.91871274,-0.30077824,0
0.25696099,-0.11714292,-4.9181371,0.12445763,-0.27723703,-0.9527064,0
-0.0019223392,0.91821134,-2.180794,-0.25592822,0.91871274,-0.30077824,0
4.4151411,1.8508413,-0.22461843,0.96387815,0.26625454,-0.0068892539,0
-1.5152715,1.0138797,4.3861704,-0.31900454,0.21344835,0.9234044,0
2.8820236,-1.1283273,-3.665319,0.57054806,-0.10761695,-0.81418246,0
0.92356545,-1.8292906,-1.3862677,0.25592822,-0.91871274,0.30077824,0
0.63383418,1.9757822,0.50854897,-0.25592822,0.91871274,-0.30077824,0
3.7869158,-1.1938465,-1.8817215,0.25592822,-0.91871274,0.30077824,0
2.5749896,0.16575396,3.302325,0.25592822,-0.91871274,0.30077824,0
2.6120887,1.7381625,-1.9005196,-0.25592822,0.91871274,-0.30077824,0
2.6626005,2.7777081,1.2317425,-0.25592822,0.91871274,-0.30077824,0
-1.6608049,-2.8428764,-2.2832108,0.25592822,-0.91871274,0.30077824,0
-2.884551,1.5293734,3.6086063,-0.55027437,0.11736102,0.82669473,0
-4.1958327,-0.83608121,2.0886519,-0.90070975,-0.11363986,0.41929442,0
2.3254147,3.0443821,2.3331916,-0.25592822,0.91871274,-0.30077824,0
0.33871818,-2.6862903,-4.1186171,0.00041285157,-0.31103659,-0.95039755,0
0.71073508,-0.61172867,2.5138109,0.25592822,-0.91871274,0.30077824,0
-0.75494605,0.25532889,4.7910376,-0.21352978,0.24973018,0.94447851,0
-3.5170975,1.2984316,1.971586,-0.25592822,0.91871274,-0.30077824,0
-0.11324772,-1.0921819,1.7474052,0.25592822,-0.91871274,0.30077824,0
-2.8533044,-0.29334497,3.8498302,-0.63826072,0.073091611,0.76634234,0
3.8481612,0.99207377,2.75372,0.76155698,0.38325477,0.52263445,0
-1.0795697,-0.79391694,3.4806716,0.25592822,-0.91871274,0.30077824,0
4.3661857,1.9744109,-0.61411405,0.9666757,0.24523,-0.073488086,0
0.94862503,-0.96836483,1.2220651,0.25592822,-0.91871274,0.30077824,0
-2.7359786,-1.3883171,3.0745218,0.25592822,-0.91871274,0.30077824,0
0.27863455,0.53858769,4.8217263,0.0033377707,0.31197846,0.95008314,0
4.2227831,1.3583845,-1.8458915,0.92793167,0.14624625,-0.34286255,0
-1.6392968,-0.16013622,-4.0813341,-0.25592822,0.91871274,-0.30077824,0
1.6582092,2.4915352,1.2122644,-0.25592822,0.91871274,-0.30077824,0
3.4971318,0.91136879,3.2519107,0.68042797,0.39221084,0.61902201,0
1.7001731,0.22897792,-4.5766959,0.41999048,-0.17457007,-0.89058018,0
-2.3365088,1.430728,1.3711324,-0.25592822,0.91871274,-0.30077824,0
1.4805381,2.4824233,1.3356104,-0.25592822,0.91871274,-0.30077824,0
1.0433183,-2.202981,-4.2040925,0.1643427,-0.26526198,-0.9500671,0
0.063896298,-2.4355178,-2.506479,0.25592822,-0.91871274,0.30077824,0
-2.7516806,-2.8333998,-1.3260541,0.25592822,-0.91871274,0.30077824,0
1.669964,0.0318892,3.6635156,0.25592822,-0.91871274,0.30077824,0
4.6922698,-0.58997238,-0.80756998,0.25592822,-0.91871274,0.30077824,0
-1.5091481,-3.1846137,-3.4560738,0.25592822,-0.91871274,0.30077824,0
3.2166712,2.1808705,-1.0627196,-0.25592822,0.91871274,-0.30077824,0
0.053497076,2.8812537,4.0341449,0.087769955,0.33193877,0.93920875,0
4.3128052,2.1975145,-0.059248209,0.95822525,0.28219241,0.046601892,0
1.4637272,3.0347493,3.0369678,-0.25592822,0.91871274,-0.30077824,0
-1.4876082,1.2817698,4.3326297,-0.29943395,0.22049914,0.9282884,0
2.0687103,-1.8394179,-2.3915899,0.25592822,-0.91871274,0.30077824,0
1.1941957,1.199209,-2.3402598,-0.25592822,0.91871274,-0.30077824,0
4.3220496,0.33242464,2.3248625,0.25592822,-0.91871274,0.30077824,0
1.2683859,0.61591721,4.6837463,0.2041223,0.35548323,0.91212153,0
-2.8402491,1.936476,3.3445411,-0.25592822,0.91871274,-0.30077824,0
-0.15463358,-1.5738305,0.31144708,0.25592822,-0.91871274,0.30077824,0
2.2175975,2.2547584,0.013065107,-0.25592822,0.91871274,-0.30077824,0
4.5470414,-0.11553337,-1.5823615,0.91449594,0.12923145,-0.3834011,0
2.9104459,-1.6433468,-2.5089207,0.25592822,-0.91871274,0.30077824,0
-2.8758745,1.7395465,2.7733426,-0.25592822,0.91871274,-0.30077824,0
4.1267447,2.588578,-0.59176743,-0.25592822,0.91871274,-0.30077824,0
-2.3784657,0.14983344,-2.5055976,-0.25592822,0.91871274,-0.30077824,0
-3.1899371,-1.2858429,3.5792906,-0.74923313,0.0081010312,0.66225672,0
1.2607228,1.38639,-1.8251318,-0.25592822,0.91871274,-0.30077824,0
-2.9462976,0.2102263,-1.8379701,-0.25592822,0.91871274,-0.30077824,0
4.8909883,0.002613306,0.83336681,0.25592822,-0.91871274,0.30077824,0
2.5037456,1.0775113,-3.8262591,-0.25592822,0.91871274,-0.30077824,0
4.5747619,0.017266393,1.1471971,0.25592822,-0.91871274,0.30077824,0
-4.4582915,0.39806771,1.8519177,-0.88741839,-0.099879995,0.45001382,0
1.5922081,2.6528912,1.7612776,-0.25592822,0.91871274,-0.30077824,0
1.0645986,-2.3338642,-3.0474675,0.25592822,-0.91871274,0.30077824,0
0.2079618,-2.0109534,-1.3322507,0.25592822,-0.91871274,0.30077824,0
-3.4876897,-1.1459397,-3.1124711,-0.69244134,-0.39133382,-0.60612118,0
-0.38972878,-2.2801688,-4.2120852,-0.12128186,-0.33919716,-0.93286419,0
-2.847702,-2.347506,0.23978961,0.25592822,-0.91871274,0.30077824,0
2.6731126,-1.5506377,-2.0238032,0.25592822,-0.91871274,0.30077824,0
1.7492909,-1.551577,-1.2406039,0.25592822,-0.91871274,0.30077824,0
2.2198622,0.087571144,3.3656921,0.25592822,-0.91871274,0.30077824,0
-2.1368878,-0.071236372,-3.3864002,-0.25592822,0.91871274,-0.30077824,0
-2.2235148,-0.93404531,4.0260239,0.25592822,-0.91871274,0.30077824,0
1.4191524,2.5061467,1.4603051,-0.25592822,0.91871274,-0.30077824,0
3.5608749,-0.64129162,-3.1280375,0.71950424,-0.026765928,-0.69397181,0
-2.8529005,1.1667155,1.0041099,-0.25592822,0.91871274,-0.30077824,0
2.6099701,-1.548031,-1.9621124,0.25592822,-0.91871274,0.30077824,0
2.4648333,-0.80597353,0.42796063,0.25592822,-0.91871274,0.30077824,0
1.6653383,3.0050864,2.7748153,-0.25592822,0.91871274,-0.30077824,0
1.7078679,-0.61045456,1.6692548,0.25592822,-0.91871274,0.30077824,0
-3.5377462,1.3131742,3.1149449,-0.68148386,0.049210519,0.73017669,0
-4.688827,-0.8409813,-0.42067957,-0.95727676,-0.284183,-0.053489268,0
-0.69127905,-1.0921971,2.2391982,0.25592822,-0.91871274,0.30077824,0
-1.3177675,-0.16634941,4.7252574,-0.34406456,0.20419796,0.91647273,0
0.25908566,0.70361376,-3.0583601,-0.25592822,0.91871274,-0.30077824,0
3.8526492,-0.01189816,-2.7829857,0.80247021,0.028416291,-0.59601498,0
3.9842582,-0.83750427,-0.96120691,0.25592822,-0.91871274,0.30077824,0
0.94602144,-2.1612742,-2.4194038,0.25592822,-0.91871274,0.30077824,0
4.4218259,1.2227125,-1.2878568,0.95133173,0.18410742,-0.24712813,0
1.7968657,3.203999,3.2704697,-0.25592822,0.91871274,-0.30077824,0
-4.4930758,-1.5635785,0.24411404,-0.9653073,-0.25954589,0.028596669,0
-4.8529887,-0.19905603,-0.82470262,-0.95125073,-0.29473513,-0.09084776,0
2.5444276,-0.65244281,0.82918686,0.25592822,-0.91871274,0.30077824,0
-4.5127711,-0.4865827,-1.8958644,-0.88119084,-0.34964967,-0.31819463,0
4.5142708,1.4947938,-0.1150974,0.96398139,0.26584193,-0.0082375109,0
-0.85632193,0.92371833,-1.4369754,-0.25592822,0.91871274,-0.30077824,0
-1.217764,2.4473469,3.5244207,-0.25592822,0.91871274,-0.30077824,0
-1.0101936,0.36398935,-3.0157137,-0.25592822,0.91871274,-0.30077824,0
0.69462729,-0.68290532,-4.6882401,0.17883189,-0.26077527,-0.94869113,0
-2.5599189,-1.0479109,-3.9613776,-0.49130481,-0.39157519,-0.77800292,0
0.8381387,-0.42816901,2.9660795,0.25592822,-0.91871274,0.30077824,0
3.9907472,-0.75253284,-0.70718789,0.25592822,-0.91871274,0.30077824,0
-0.98499632,-3.1063445,-3.6629987,0.25592822,-0.91871274,0.30077824,0
-2.3022821,-0.43943083,-4.3703003,-0.25592822,0.91871274,-0.30077824,0
-1.9908259,-2.1499581,0.11408579,0.25592822,-0.91871274,0.30077824,0
1.8987641,-0.78482854,0.97420704,0.25592822,-0.91871274,0.30077824,0
-1.0063891,2.5361915,3.6159372,-0.25592822,0.91871274,-0.30077824,0
-1.5306458,-0.83682799,3.7334161,0.25592822,-0.91871274,0.30077824,0
-2.118186,-1.285323,-4.0958023,-0.41397306,-0.38532498,-0.82471246,0
0.72496986,-1.8216001,-1.1937957,0.25592822,-0.91871274,0.30077824,0
2.0334873,2.5148263,0.96408671,-0.25592822,0.91871274,-0.30077824,0
-0.81483877,1.0938116,4.5526271,-0.1799444,0.26042777,0.94857639,0
2.5893941,-0.19778132,2.1796668,0.25592822,-0.91871274,0.30077824,0
2.3767591,-0.58580709,1.1753888,0.25592822,-0.91871274,0.30077824,0
-3.8035665,0.39012134,-0.55905086,-0.25592822,0.91871274,-0.30077824,0
2.5183909,-0.27042711,-4.0310206,0.54740053,-0.11872205,-0.82840663,0
0.55323809,-1.3712084,0.32802874,0.25592822,-0.91871274,0.30077824,0
2.8941724,0.95388645,3.7786419,0.55537212,0.39440286,0.73212576,0
0.94742298,-0.069328785,3.9691505,0.25592822,-0.91871274,0.30077824,0
4.1804857,2.1783922,-1.501003,0.9546113,0.19114128,-0.22843421,0
-4.4474182,-1.7351319,0.12161756,-0.96283156,-0.27004501,-0.0055789351,0
4.7844954,0.48158875,-0.09168148,0.96661144,0.2473115,-0.067075729,0
-0.15452325,-0.1814363,4.5643559,0.25592822,-0.91871274,0.30077824,0
-4.1075244,-2.2727623,1.5400572,0.25592822,-0.91871274,0.30077824,0
1.7883813,1.5473696,-1.7824054,-0.25592822,0.91871274,-0.30077824,0
-1.6652123,1.9344621,4.1203032,-0.29862604,0.22078697,0.92848015,0
-2.527981,1.918812,3.0248828,-0.25592822,0.91871274,-0.30077824,0
1.2397258,0.88022208,-3.3533325,-0.25592822,0.91871274,-0.30077824,0
2.2018595,1.4025912,-2.5764463,-0.25592822,0.91871274,-0.30077824,0
-0.00023365021,0.92872977,-2.1501026,-0.25592822,0.91871274,-0.30077824,0
2.3460793,-1.5565894,-1.7637136,0.25592822,-0.91871274,0.30077824,0
0.28053999,-2.4598904,-2.7652638,0.25592822,-0.91871274,0.30077824,0
-4.0063763,-2.1745627,-1.4400015,-0.87250668,-0.35348862,-0.33730966,0
2.1777062,-1.2831118,-0.78512311,0.25592822,-0.91871274,0.30077824,0
-0.025939107,-0.47431421,-4.836164,0.04979232,-0.29819953,-0.95320374,0
-4.4503541,-0.46052122,-2.085361,-0.86455005,-0.35672814,-0.35397488,0
-2.8049245,1.3852282,1.6307249,-0.25592822,0.91871274,-0.30077824,0
0.58112788,0.47352624,4.833601,0.05943644,0.32550633,0.94366968,0
1.1985347,-0.49558687,2.4534984,0.25592822,-0.91871274,0.30077824,0
-2.9708643,-0.97682577,-3.706516,-0.57276452,-0.39475638,-0.71840668,0
-2.0567799,-1.1838107,-4.1727972,-0.39561966,-0.38343132,-0.8345449,0
3.4000187,2.4490128,-0.39970183,-0.25592822,0.91871274,-0.30077824,0
-3.6416154,0.16305888,-1.390404,-0.25592822,0.91871274,-0.30077824,0
-0.59289813,2.5414286,4.1569734,-0.058211654,0.29592958,0.95343423,0
-4.7808514,-0.3267532,-1.0734459,-0.93934852,-0.3098278,-0.14707503,0
-0.9929955,2.035306,2.074609,-0.25592822,0.91871274,-0.30077824,0
2.9423771,-1.8790053,-3.255898,0.25592822,-0.91871274,0.30077824,0
-0.34879029,-0.83049321,2.7471404,0.25592822,-0.91871274,0.30077824,0
-1.8588076,-1.1967402,2.9133112,0.25592822,-0.91871274,0.30077824,0
0.095411777,-2.2803557,-2.0593598,0.25592822,-0.91871274,0.30077824,0
-0.86661255,0.022536516,-4.1808367,-0.25592822,0.91871274,-0.30077824,0
0.31809866,-2.766561,-3.7339315,0.25592822,-0.91871274,0.30077824,0
-0.6431278,0.044588327,-4.3036399,-0.25592822,0.91871274,-0.30077824,0
4.0886483,2.3704143,-1.2257217,-0.25592822,0.91871274,-0.30077824,0
0.3242861,2.6140523,2.7215049,-0.25592822,0.91871274,-0.30077824,0
-4.5572052,0.61837947,0.7794137,-0.25592822,0.91871274,-0.30077824,0
0.41783941,-0.17047381,-4.8794079,0.15284085,-0.26877159,-0.95100015,0
3.131474,1.8230922,-2.0830438,-0.25592822,0.91871274,-0.30077824,0
-1.7715067,-1.3926516,2.2406254,0.25592822,-0.91871274,0.30077824,0
0.73957902,0.060083628,-4.8773532,0.22751825,-0.24515568,-0.94240844,0
1.6519058,-1.871706,-2.1355596,0.25592822,-0.91871274,0.30077824,0
-2.1061735,0.62151098,-1.2965714,-0.25592822,0.91871274,-0.30077824,0
-1.0497639,-1.0366913,-4.5674849,-0.18382365,-0.35171425,-0.91788113,0
-1.5107268,0.53072631,4.4975009,-0.34383067,0.20428547,0.91654116,0
3.2861972,0.80499971,-3.4640765,0.74250215,-0.012422249,-0.66972834,0
-1.8313593,-0.3422513,-4.4741721,-0.25592822,0.91871274,-0.30077824,0
-2.4579844,-1.1156998,3.670676,0.25592822,-0.91871274,0.30077824,0
-2.7402411,-1.5989625,2.434742,0.25592822,-0.91871274,0.30077824,0
-0.13830963,0.81092966,-2.3924296,-0.25592822,0.91871274,-0.30077824,0
-0.17676103,-2.2808671,-1.8293328,0.25592822,-0.91871274,0.30077824,0
-2.4219055,0.42125952,-1.6395769,-0.25592822,0.91871274,-0.30077824,0
3.4835165,-1.2809662,-3.1672664,0.67325705,-0.053881094,-0.73744267,0
-2.5950828,0.36870402,3.9658771,-0.55656832,0.11436301,0.82289296,0
-4.2182913,-2.5332572,0.67556155,-0.96623802,-0.2526843,0.050346851,0
-4.5291858,-1.3828068,-0.36989301,-0.95351279,-0.29111722,-0.077872172,0
4.4497132,-0.16533914,-1.8139472,0.89663541,0.10930596,-0.42906541,0
-2.1508918,0.68260145,-1.0719233,-0.25592822,0.91871274,-0.30077824,0
-0.081446648,0.085915565,-4.6553354,-0.25592822,0.91871274,-0.30077824,0
0.47654092,-0.49681354,3.064086,0.25592822,-0.91871274,0.30077824,0
-1.8316379,0.091248274,-3.1498318,-0.25592822,0.91871274,-0.30077824,0
-2.9458785,-1.3097545,-3.5423782,-0.58698881,-0.39490265,-0.70675015,0
-0.68763506,-1.8613187,-0.11314714,0.25592822,-0.91871274,0.30077824,0
-4.5846925,-1.1783028,-0.45436287,-0.9529413,-0.29206392,-0.081250131,0
-4.5733995,-0.76530039,-1.3505502,-0.91575241,-0.33007914,-0.2290093,0
3.3953547,-0.54641414,0.42900407,0.25592822,-0.91871274,0.30077824,0
-0.94336593,1.214964,-0.47331524,-0.25592822,0.91871274,-0.30077824,0
-2.070272,1.4507296,1.2056899,-0.25592822,0.91871274,-0.30077824,0
3.0498729,2.8550377,1.138418,-0.25592822,0.91871274,-0.30077824,0
-4.2528639,0.77512634,0.99922943,-0.25592822,0.91871274,-0.30077824,0
2.1793208,2.7742908,3.3308892,0.51210034,0.39274311,0.7638756,0
-3.7825079,-2.5782852,0.33029789,0.25592822,-0.91871274,0.30077824,0
-3.019207,-1.3999722,3.2799177,0.25592822,-0.91871274,0.30077824,0
0.5048492,1.5180746,-0.77974421,-0.25592822,0.91871274,-0.30077824,0
-2.6278944,1.8993794,3.0505419,-0.25592822,0.91871274,-0.30077824,0
-1.4733661,-1.5035882,1.6480912,0.25592822,-0.91871274,0.30077824,0
0.7389822,2.5398202,2.1419067,-0.25592822,0.91871274,-0.30077824,0
-2.1306658,0.21099448,-2.529634,-0.25592822,0.91871274,-0.30077824,0
-2.4072478,-1.3195488,3.0048583,0.25592822,-0.91871274,0.30077824,0
4.4118085,1.8628253,-0.15742016,0.96272665,0.2703923,0.0067290068,0
-0.34293509,2.5486917,3.0895941,-0.25592822,0.91871274,-0.30077824,0
1.5475693,-0.30443168,2.7403846,0.25592822,-0.91871274,0.30077824,0
2.7784433,-1.616519,-2.3146582,0.25592822,-0.91871274,0.30077824,0
-1.616395,-3.0769188,-3.0358698,0.25592822,-0.91871274,0.30077824,0
1.5206414,1.2796073,-2.3724566,-0.25592822,0.91871274,-0.30077824,0
3.5086713,-0.86143422,-0.62962985,0.25592822,-0.91871274,0.30077824,0
-0.95472038,-0.33511543,4.7758255,0.25592822,-0.91871274,0.30077824,0
3.4229693,2.6515539,0.19942445,-0.25592822,0.91871274,-0.30077824,0
0.8369112,-1.5624089,-0.49735856,0.25592822,-0.91871274,0.30077824,0
-2.2886615,1.458915,1.4165158,-0.25592822,0.91871274,-0.30077824,0
0.58176124,-2.7712121,-3.9724851,0.25592822,-0.91871274,0.30077824,0
-3.460948,1.1305777,3.1987753,-0.67677182,0.051893204,0.73436147,0
-2.6682634,0.4216671,3.9084716,-0.56741363,0.10914011,0.81616789,0
-0.59840286,0.81590557,-1.9857448,-0.25592822,0.91871274,-0.30077824,0
-0.24272853,0.37810731,-3.6256161,-0.25592822,0.91871274,-0.30077824,0
3.6782687,0.70645702,-2.9832404,0.8069669,0.031722069,-0.58974379,0
-1.0260906,-0.59054232,-4.7406883,-0.154275,-0.34596905,-0.92547524,0
1.1737977,1.4657847,4.3713026,0.23264503,0.36053047,0.90326834,0
-0.73102677,-0.072827816,-4.5874901,-0.25592822,0.91871274,-0.30077824,0
-0.71342444,-1.0879385,-4.6035004,-0.11960629,-0.33884329,-0.93320912,0
1.8192781,-0.53515279,1.8044637,0.25592822,-0.91871274,0.30077824,0
3.7789807,1.2178792,-2.7892704,0.84895265,0.064783946,-0.52448308,0
-4.8287654,0.0061922073,-0.85941571,-0.25592822,0.91871274,-0.30077824,0
0.94898915,-0.88735646,-4.580019,0.2170002,-0.24860187,-0.94398504,0
-0.54194093,-2.6433337,-2.6257436,0.25592822,-0.91871274,0.30077824,0
3.6583529,0.44183183,3.223772,0.25592822,-0.91871274,0.30077824,0
4.6960239,0.13436592,1.4016917,0.25592822,-0.91871274,0.30077824,0
2.7513452,1.4514074,-2.8948908,-0.25592822,0.91871274,-0.30077824,0
-1.7677819,-2.7701116,-1.9699291,0.25592822,-0.91871274,0.30077824,0
2.1127894,1.4602973,-2.3243988,-0.25592822,0.91871274,-0.30077824,0
-2.3778834,-2.9273562,-1.9310966,0.25592822,-0.91871274,0.30077824,0
-3.6899848,1.0642257,2.9778309,-0.72153556,0.025523886,0.69190651,0
0.50200486,-2.6004207,-3.3829474,0.25592822,-0.91871274,0.30077824,0
-4.2896566,-2.0079322,-0.6567499,-0.93268341,-0.31647438,-0.17304787,0
2.0871325,-0.66023612,1.1944885,0.25592822,-0.91871274,0.30077824,0
-1.0598373,-2.3301373,-1.2284285,0.25592822,-0.91871274,0.30077824,0
-0.19354081,-1.7342646,-0.14548492,0.25592822,-0.91871274,0.30077824,0
-0.50504804,1.2818109,-0.64209306,-0.25592822,0.91871274,-0.30077824,0
-2.5579467,1.2524203,1.0149188,-0.25592822,0.91871274,-0.30077824,0
-2.2308996,1.3344833,0.98729634,-0.25592822,0.91871274,-0.30077824,0
3.2622957,2.3359399,-0.62788939,-0.25592822,0.91871274,-0.30077824,0
-3.4768205,-2.9931908,-1.1971161,0.25592822,-0.91871274,0.30077824,0
4.2265759,0.55923307,2.4707792,0.81916475,0.3713139,0.43714404,0
3.7511251,-0.063022494,1.6027797,0.25592822,-0.91871274,0.30077824,0
-3.7434397,-2.0631299,-2.0945492,-0.80465388,-0.37489238,-0.46042138,0
-3.4544196,-0.74800718,3.2693253,-0.76962054,-0.0053629875,0.63847893,0
0.36951566,2.8667355,3.4548283,-0.25592822,0.91871274,-0.30077824,0
-0.43711498,1.318373,-0.5882197,-0.25592822,0.91871274,-0.30077824,0
2.9776297,3.0725417,1.8642443,-0.25592822,0.91871274,-0.30077824,0
4.7013154,0.27963039,-0.91279149,0.9535569,0.18879518,-0.234703,0
-2.3686891,-0.72894788,-4.228548,-0.43356454,-0.3871786,-0.81370401,0
-2.0341992,-1.1694939,-4.189971,-0.39019018,-0.3828426,-0.83736676,0
-0.53400135,-2.3371224,-1.6971917,0.25592822,-0.91871274,0.30077824,0
3.0861909,-1.8224915,-3.2056494,0.25592822,-0.91871274,0.30077824,0
-2.8383896,0.57516026,-0.81511396,-0.25592822,0.91871274,-0.30077824,0
2.7579489,0.72092843,3.9986956,0.51347429,0.39281207,0.76291728,0
2.3368719,-0.096099854,-4.1732354,0.52262282,-0.13025634,-0.84255451,0
-4.3103523,-1.540091,1.4776006,-0.94818592,-0.17797247,0.26319045,0
-2.989109,-1.7047069,-3.2796404,-0.61930186,-0.39472628,-0.6787166,0
-2.5942824,-0.012897968,-2.8190174,-0.25592822,0.91871274,-0.30077824,0
1.791657,-2.1224718,-3.0204239,0.25592822,-0.91871274,0.30077824,0
-2.0975263,-1.5886042,1.9195039,0.25592822,-0.91871274,0.30077824,0
2.0714381,-1.8203325,-2.3356159,0.25592822,-0.91871274,0.30077824,0
4.442235,1.7067118,0.22142953,0.95484561,0.28881186,0.069696486,0
-2.1007478,0.2269671,4.2887731,-0.47156304,0.15296286,0.86846441,0
1.0454446,-1.012167,-4.5245738,0.22889996,-0.24470004,-0.94219244,0
-1.5306399,2.1997266,3.0342989,-0.25592822,0.91871274,-0.30077824,0
-1.128888,-1.7768455,0.52032864,0.25592822,-0.91871274,0.30077824,0
0.43682355,0.71041536,-3.1888196,-0.25592822,0.91871274,-0.30077824,0
3.7204266,2.5406895,-0.39230931,-0.25592822,0.91871274,-0.30077824,0
-4.9331722,0.21257126,0.27241445,-0.96442991,-0.22136411,0.14447445,0
2.4434226,-0.066863775,-4.1096816,0.54400259,-0.1203249,-0.83041126,0
-0.10519254,2.6778865,3.2819211,-0.25592822,0.91871274,-0.30077824,0
0.66565722,-1.8705918,-1.2929695,0.25592822,-0.91871274,0.30077824,0
0.096531153,-0.059017181,4.7246594,0.25592822,-0.91871274,0.30077824,0
-4.4469528,-0.341591,-2.2109742,-0.85595834,-0.35996222,-0.37116385,0
-2.4007351,1.7226375,3.8606257,-0.4496077,0.1623168,0.87835407,0
4.2863317,1.3680278,1.553332,0.8858242,0.34745666,0.30755359,0
-4.0222406,0.27023041,-0.7391848,-0.25592822,0.91871274,-0.30077824,0
4.2854671,0.32625151,-2.0311255,0.8921755,0.10468303,-0.43939096,0
2.9170744,2.4271665,2.9202743,0.64671564,0.39397675,0.65310115,0
2.8800876,-1.2906532,-1.4058039,0.25592822,-0.91871274,0.30077824,0
-0.53596759,2.4205513,2.8624432,-0.25592822,0.91871274,-0.30077824,0
2.0983472,3.1269927,2.7787306,-0.25592822,0.91871274,-0.30077824,0
-2.168334,-1.513931,2.2078393,0.25592822,-0.91871274,0.30077824,0
-0.63836825,2.2039123,2.2878609,-0.25592822,0.91871274,-0.30077824,0
-2.0748932,2.317759,3.8579202,-0.25592822,0.91871274,-0.30077824,0
4.5581088,-0.28981912,-1.6125851,0.90853596,0.12229842,-0.39950645,0
2.8531761,3.1975248,2.3518934,-0.25592822,0.91871274,-0.30077824,0
-0.8659361,-1.38954,1.4795923,0.25592822,-0.91871274,0.30077824,0
1.8683583,-1.9438014,-2.539947,0.25592822,-0.91871274,0.30077824,0
2.8407648,2.6937335,2.8350334,0.64627904,0.39399326,0.65352333,0
-3.4717321,-0.94270253,-3.2598739,-0.67685294,-0.39244565,-0.62278128,0
1.1678272,-1.9730308,-4.2430596,0.20085227,-0.25381526,-0.94616896,0
-0.47439998,-0.76277375,3.0608664,0.25592822,-0.91871274,0.30077824,0
-3.6461623,-2.6933897,-0.13729587,0.25592822,-0.91871274,0.30077824,0
-2.3134651,1.7496794,3.8991318,-0.43172386,0.16976467,0.88588607,0
1.6701781,1.7405282,-1.0918342,-0.25592822,0.91871274,-0.30077824,0
-4.2493272,-2.046648,-0.79054117,-0.92449737,-0.32353255,-0.20157215,0
2.7025645,1.6307702,-2.3055282,-0.25592822,0.91871274,-0.30077824,0
3.7360239,2.8835866,0.64178139,-0.25592822,0.91871274,-0.30077824,0
2.7155843,-1.1341825,-0.78789902,0.25592822,-0.91871274,0.30077824,0
-3.95578,-0.44645405,-2.9848132,-0.25592822,0.91871274,-0.30077824,0
0.53017396,-0.52626276,2.9284992,0.25592822,-0.91871274,0.30077824,0
-2.8201416,-0.13884103,-3.0115242,-0.25592822,0.91871274,-0.30077824,0
0.049929231,0.93348813,-2.1782508,-0.25592822,0.91871274,-0.30077824,0
-0.77958226,-3.0265512,-3.5940568,0.25592822,-0.91871274,0.30077824,0
-1.8847245,-2.7757859,-1.8877566,0.25592822,-0.91871274,0.30077824,0
2.2619195,-1.3854183,-1.1692693,0.25592822,-0.91871274,0.30077824,0
-3.9530187,0.88943934,1.0932589,-0.25592822,0.91871274,-0.30077824,0
3.5323763,2.3777471,-0.7299993,-0.25592822,0.91871274,-0.30077824,0
0.80041128,-0.95444715,1.3906885,0.25592822,-0.91871274,0.30077824,0
-3.605417,-2.586334,-1.9096961,-0.8063941,-0.37448597,-0.45769948,0
1.8676844,-1.944572,-2.541728,0.25592822,-0.91871274,0.30077824,0
-2.4699421,-2.3043163,0.050278664,0.25592822,-0.91871274,0.30077824,0
1.8589129,3.0479071,3.3936355,0.46159142,0.3895174,0.79700017,0
-0.68223405,0.39223087,4.7699866,-0.19210684,0.25659993,0.94723332,0
3.0809779,3.2156587,2.2284698,0.72920299,0.38773477,0.56384802,0
0.69051003,1.7794347,4.3521843,0.15339997,0.34579426,0.92568606,0
-1.1948385,0.48352194,-2.4934955,-0.25592822,0.91871274,-0.30077824,0
0.90072918,1.0978422,-2.4001737,-0.25592822,0.91871274,-0.30077824,0
-3.0545473,0.83321249,0.1570195,-0.25592822,0.91871274,-0.30077824,0
3.6379671,2.6393402,-0.020822823,-0.25592822,0.91871274,-0.30077824,0
-0.78920448,1.2573577,4.5120625,-0.16614828,0.26470688,0.94990772,0
2.1226034,3.0280001,2.4557247,-0.25592822,0.91871274,-0.30077824,0
3.1981063,0.9334954,3.5374475,0.61806655,0.3947466,0.67982996,0
-1.6348277,-1.8068886,0.85906082,0.25592822,-0.91871274,0.30077824,0
3.9533887,0.4126904,2.883718,0.25592822,-0.91871274,0.30077824,0
0.46539962,1.5111952,-0.76719064,-0.25592822,0.91871274,-0.30077824,0
3.5475028,-0.78573,-0.4314363,0.25592822,-0.91871274,0.30077824,0
1.5973337,1.0028296,-3.2831173,-0.25592822,0.91871274,-0.30077824,0
-2.6986065,-2.1720366,-3.2659287,-0.58550417,-0.39489359,-0.70798576,0
-0.20443463,-2.7282102,-3.172174,0.25592822,-0.91871274,0.30077824,0
-0.30883086,1.9723312,1.3001091,-0.25592822,0.91871274,-0.30077824,0
-0.55569327,0.9663626,-1.5625219,-0.25592822,0.91871274,-0.30077824,0
