0.46496964,-0.5985049,4.1846089,0.92863619,-0.055162549,0.36686751,0
2.4821773,-2.4771466,-1.2039394,0.92863619,-0.055162549,0.36686751,0
-2.0959663,0.61790228,-0.053218842,-0.92863619,0.055162549,-0.36686751,0
-0.91203046,-1.4493946,-3.3609073,-0.92863619,0.055162549,-0.36686751,0
-1.3895586,4.2863789,-1.289721,-0.92863619,0.055162549,-0.36686751,0
1.1383934,4.2943497,2.3880453,-0.091980964,0.92377383,0.37172735,0
1.5090697,0.20073438,1.6618973,0.92863619,-0.055162549,0.36686751,0
1.7828205,4.2398181,-1.477165,0.20333004,0.90281045,-0.37893283,0
0.050423145,-2.1705453,4.6161141,-0.35303068,-0.43535566,0.82815123,0
2.4173145,-4.3543358,-1.3220124,0.92863619,-0.055162549,0.36686751,0
2.7017951,-1.9699795,-1.6835901,0.92863619,-0.055162549,0.36686751,0
-1.7234902,-2.9202623,-1.5280557,-0.92863619,0.055162549,-0.36686751,0
2.503418,-0.22932529,-4.1144066,0.36516476,-0.038663596,-0.9301396,0
1.4208717,3.3121743,-3.0940459,0.29880637,0.69731921,-0.6515063,0
-0.94100773,4.8081059,-0.74270201,0.077855498,0.99584007,-0.04733634,0
-0.76424599,0.9508034,4.6896467,-0.3482483,0.21129835,0.91327763,0
-1.185065,3.7435882,2.6917882,-0.18703005,0.78441375,0.59136677,0
-1.9617219,-1.8346047,-0.76178861,-0.92863619,0.055162549,-0.36686751,0
2.7572184,-2.9348352,-2.996805,0.26318318,-0.59901285,-0.75625277,0
-3.2542322,-1.6426904,2.5387444,-0.92863619,0.055162549,-0.36686751,0
-2.0790634,-3.6599226,-0.73922443,-0.92863619,0.055162549,-0.36686751,0
-0.69915295,0.20849276,4.8227706,-0.3639158,0.056767046,0.92970026,0
-1.1221243,2.4886372,-2.2369778,-0.92863619,0.055162549,-0.36686751,0
-2.8011613,-3.9763675,1.5021381,-0.23178709,-0.85839176,0.45764399,0
0.88838017,-4.7926307,0.91178083,-0.091340393,-0.99243933,0.081981659,0
2.3574598,4.4488029,-0.52677107,0.15406883,0.95691979,-0.24610424,0
-0.80910087,0.096525848,-3.3890026,-0.92863619,0.055162549,-0.36686751,0
3.3753512,-1.8251829,-3.4277186,0.32396752,-0.36128241,-0.87436831,0
-2.9494829,0.066736221,2.0243773,-0.92863619,0.055162549,-0.36686751,0
2.3850031,3.9817905,0.013208628,0.92863619,-0.055162549,0.36686751,0
0.033566952,1.8870893,-4.7173166,0.35966599,0.37633699,-0.85382116,0
0.972588,-4.3847952,-1.6388643,0.098438889,-0.91679937,-0.38702542,0
-1.8433493,1.9424907,-0.4934907,-0.92863619,0.055162549,-0.36686751,0
1.8805974,1.4724977,0.91268903,0.92863619,-0.055162549,0.36686751,0
2.4816318,-0.87014079,-0.96092683,0.92863619,-0.055162549,0.36686751,0
1.2364829,4.5269842,-0.92370367,0.15090024,0.95954847,-0.2376883,0
-2.6851265,-1.0366027,1.189324,-0.92863619,0.055162549,-0.36686751,0
-0.096442461,2.7398448,4.0769444,-0.26565939,0.59138405,0.76137376,0
-0.087349415,4.7613621,0.0094847679,0.048137352,0.99844033,0.028278828,0
3.2774749,0.05260849,-3.8101087,0.36880875,0.030154467,-0.92901599,0
-1.2845329,1.8578565,-1.9207256,-0.92863619,0.055162549,-0.36686751,0
-3.4956236,0.52549601,3.4757805,-0.92863619,0.055162549,-0.36686751,0
1.8888524,1.1852945,0.84860939,0.92863619,-0.055162549,0.36686751,0
-3.5102043,-1.1254275,3.264452,-0.92863619,0.055162549,-0.36686751,0
0.068064213,-0.65398484,-5.0160837,0.35469019,-0.15789902,-0.92155445,0
1.4492429,-0.4956969,1.708618,0.92863619,-0.055162549,0.36686751,0
-2.7553582,3.7018635,2.0795813,-0.92863619,0.055162549,-0.36686751,0
-2.547308,-2.0711951,3.5604753,-0.35151649,-0.44701609,0.82256472,0
-2.5581789,3.4875026,2.552865,-0.21961462,0.71526492,0.66344959,0
-2.4243817,1.6090896,3.8659401,-0.33017367,0.32805029,0.88508081,0
0.29313517,-4.7290859,-0.4876132,-0.0075334385,-0.99148369,-0.1300118,0
1.3060579,2.662333,2.5459013,0.92863619,-0.055162549,0.36686751,0
0.29745102,-4.4135056,2.1751442,-0.19498718,-0.91385669,0.35615414,0
0.43393052,-4.7841439,0.2757473,-0.058798403,-0.99826908,-0.0012670755,0
3.2968326,2.0527344,-2.5849226,0.92863619,-0.055162549,0.36686751,0
-0.9162097,4.215589,-2.4985342,-0.92863619,0.055162549,-0.36686751,0
1.6583772,-4.2311277,-1.7792578,0.13003695,-0.87774903,-0.46113646,0
2.6804132,2.7684698,-0.91698766,0.92863619,-0.055162549,0.36686751,0
0.067594051,-0.65973985,-5.0152745,0.35455656,-0.15910852,-0.92139781,0
-1.3949054,2.9698272,-1.4741464,-0.92863619,0.055162549,-0.36686751,0
1.8935381,2.8725827,1.0904514,0.92863619,-0.055162549,0.36686751,0
-2.1992483,-0.53624773,4.2023902,-0.37091792,-0.11836407,0.9210915,0
-1.0156994,4.4496322,-2.2115092,-0.92863619,0.055162549,-0.36686751,0
1.1740987,-3.393363,-3.1124704,0.220662,-0.71281713,-0.66573256,0
-2.5385959,-0.34335995,0.92265463,-0.92863619,0.055162549,-0.36686751,0
1.3497398,0.47013533,2.1057098,0.92863619,-0.055162549,0.36686751,0
0.10405493,1.1775329,4.9589405,-0.33995837,0.26939702,0.90102911,0
-1.5255847,0.6175375,4.4596047,-0.3574034,0.13215992,0.92455202,0
-0.59981632,0.96673089,4.7485828,-0.34753925,0.2166656,0.91228962,0
1.8176448,3.217216,1.3343763,0.92863619,-0.055162549,0.36686751,0
0.29504395,1.0974975,4.8697486,0.92863619,-0.055162549,0.36686751,0
1.8020971,3.9248106,1.4801266,0.92863619,-0.055162549,0.36686751,0
-1.5673268,3.7607,-0.91878605,-0.92863619,0.055162549,-0.36686751,0
1.5294596,-2.9225211,1.1406682,0.92863619,-0.055162549,0.36686751,0
1.6633688,-2.9504163,0.79751515,0.92863619,-0.055162549,0.36686751,0
-1.2365019,0.34848773,-2.2692549,-0.92863619,0.055162549,-0.36686751,0
2.5256333,3.8715224,-0.35934234,0.92863619,-0.055162549,0.36686751,0
-0.76070023,-4.6366577,0.72102642,-0.12376016,-0.97829998,0.16617024,0
-0.67095268,4.767375,-0.95613861,0.10054967,0.98929435,-0.10576546,0
-2.5880737,-2.5578637,3.236804,-0.33473122,-0.5509795,0.76444513,0
0.48056245,-3.8676488,-2.7370696,0.16852629,-0.81824279,-0.54961574,0
-3.3560588,-2.198158,2.7129726,-0.92863619,0.055162549,-0.36686751,0
1.2234674,2.3692915,-3.9561243,0.34474921,0.49361974,-0.79842794,0
-1.3603992,-4.3400002,1.4548163,-0.19056749,-0.91937679,0.34413666,0
-3.3480442,1.6532183,3.2717845,-0.92863619,0.055162549,-0.36686751,0
-1.2443805,-4.5178456,-1.7235415,0.038839135,-0.96899426,-0.24401122,0
3.3741159,0.21132255,-3.7635226,0.36997926,0.064706951,-0.92678368,0
3.160955,-1.0150437,-2.7022569,0.92863619,-0.055162549,0.36686751,0
3.2872624,-0.40071678,-3.7977929,0.36332011,-0.064833939,-0.92940563,0
0.061565876,2.0080428,-4.6499891,0.35695291,0.4023121,-0.84304762,0
1.9680341,-3.0280099,0.014660835,0.92863619,-0.055162549,0.36686751,0
1.1150231,-3.630491,-2.858964,0.19821054,-0.76214385,-0.61631906,0
1.72822,-3.0138462,-3.2880902,0.253407,-0.62793428,-0.73585558,0
2.7197716,-1.7163329,-3.7149377,0.32674581,-0.34673002,-0.87921286,0
-3.3080845,-0.89718866,3.688005,-0.37004626,-0.20827013,0.90536684,0
-0.54239273,2.637521,-3.6820426,-0.92863619,0.055162549,-0.36686751,0
1.6651173,3.4754534,1.7592918,0.92863619,-0.055162549,0.36686751,0
0.41166151,4.513576,1.5923007,-0.053600773,0.95855862,0.27980763,0
0.26392746,2.5819056,-4.2345705,0.33920991,0.52671003,-0.7794311,0
-2.8680115,-3.9634855,1.4923689,-0.23288453,-0.85645056,0.46071374,0
-1.2776194,-0.31944776,4.5928807,-0.36988235,-0.061257929,0.92705679,0
0.81059521,-4.5304542,-1.2888486,0.067069843,-0.94762683,-0.31225759,0
1.0437667,-3.7214007,-2.7658248,0.18848523,-0.78159618,-0.59462649,0
3.3934441,0.032478571,-3.1332388,0.92863619,-0.055162549,0.36686751,0
-0.98351645,4.233274,-2.3255043,-0.92863619,0.055162549,-0.36686751,0
0.029482841,3.4681153,-3.563482,0.29384118,0.71304351,-0.63657361,0
1.537451,4.1033773,2.1768632,0.92863619,-0.055162549,0.36686751,0
-2.5279868,2.4758637,3.4015002,-0.29051679,0.50687754,0.81158793,0
2.3375556,-2.7083807,-3.3139968,0.27621537,-0.55736053,-0.78297782,0
-0.37484074,-4.5133228,1.5020471,-0.16726696,-0.94492495,0.28131557,0
-0.95323038,3.5958824,2.9535537,-0.20068005,0.75702792,0.62180078,0
0.11732483,-2.2182622,4.6192412,-0.35183108,-0.44463593,0.82371932,0
0.70638752,-1.9312418,-4.3630638,0.3125748,-0.41631088,-0.85380447,0
-0.40416932,-4.1613498,-2.4910178,0.1220755,-0.88837951,-0.44258255,0
1.1942363,2.8770664,-3.6051915,0.32420838,0.60137439,-0.73023129,0
0.33639121,4.3016157,-2.1051207,0.20712423,0.89750659,-0.38933456,0
0.70588285,-4.7128415,-0.58638525,0.011685658,-0.98404384,-0.17754161,0
-1.9191209,-3.473969,-1.1161199,-0.92863619,0.055162549,-0.36686751,0
0.33282804,-1.1113251,4.4419851,0.92863619,-0.055162549,0.36686751,0
2.0521998,2.1904016,-3.7059433,0.34888935,0.46607664,-0.81304884,0
-1.7781906,-2.5203688,3.6169896,-0.33812809,-0.53275597,0.77578354,0
-1.8692726,2.4721017,-0.34823918,-0.92863619,0.055162549,-0.36686751,0
-2.2591925,2.9151239,0.70536208,-0.92863619,0.055162549,-0.36686751,0
-0.55073643,1.0183113,-3.9043884,-0.92863619,0.055162549,-0.36686751,0
2.1784203,1.0423049,0.094137818,0.92863619,-0.055162549,0.36686751,0
-3.1343093,1.6939197,2.7368863,-0.92863619,0.055162549,-0.36686751,0
0.36094999,0.30745548,4.5841312,0.92863619,-0.055162549,0.36686751,0
-2.2886395,1.199291,4.0478849,-0.34370971,0.2442784,0.90674788,0
1.1874776,1.7814653,-4.2775955,0.36042416,0.36848566,-0.85692042,0
-1.7115865,1.1502033,-0.94614625,-0.92863619,0.055162549,-0.36686751,0
1.139559,-3.8819625,1.9833441,0.92863619,-0.055162549,0.36686751,0
-1.9010177,-1.6744615,-0.89136732,-0.92863619,0.055162549,-0.36686751,0
-1.8172702,4.7290668,0.39153194,-0.029738449,0.9746334,0.2218228,0
-0.40506649,1.417291,-4.2131252,-0.92863619,0.055162549,-0.36686751,0
-1.8664412,4.2680459,-0.085365295,-0.92863619,0.055162549,-0.36686751,0
0.9184531,-4.6221824,-0.96154737,0.045730665,-0.96432173,-0.26075286,0
-0.83296061,1.4510082,-3.1249449,-0.92863619,0.055162549,-0.36686751,0
-0.92291808,4.7435017,0.39645052,-0.0040209964,0.98732913,0.15863442,0
1.6706134,2.2370653,1.5591739,0.92863619,-0.055162549,0.36686751,0
-2.7150939,-1.170908,1.244985,-0.92863619,0.055162549,-0.36686751,0
-0.70647854,-4.5268393,-1.5991228,0.045404464,-0.96455085,-0.25996172,0
2.0641756,-3.8746493,-0.35600042,0.92863619,-0.055162549,0.36686751,0
0.6118145,1.9983784,4.2033782,0.92863619,-0.055162549,0.36686751,0
1.6250011,-0.91853833,1.20015,0.92863619,-0.055162549,0.36686751,0
-0.74923682,-4.2286243,-2.4424522,0.10786809,-0.90601391,-0.40927154,0
0.92983413,2.6480889,3.4960794,0.92863619,-0.055162549,0.36686751,0
1.5937674,-4.5493269,-1.061182,0.073230319,-0.94217199,-0.32703102,0
-1.7464375,-3.6856761,-1.5850587,-0.92863619,0.055162549,-0.36686751,0
0.20277262,0.15241265,-5.0267143,0.3680526,0.012759686,-0.92971736,0
1.208436,1.8121808,-4.2554245,0.35977244,0.3752529,-0.85425341,0
0.27514601,-2.1721344,-4.3928299,0.29961628,-0.47164834,-0.82932377,0
2.8757555,0.29354048,-1.7835827,0.92863619,-0.055162549,0.36686751,0
-1.3945284,4.2765594,1.7635617,-0.12077591,0.89006311,0.43954617,0
-0.2639308,-1.1454149,-4.955709,-0.92863619,0.055162549,-0.36686751,0
-0.20291948,1.750199,-4.6747551,-0.92863619,0.055162549,-0.36686751,0
-0.92759895,0.93135124,4.6317558,-0.34903932,0.20520726,0.91436386,0
-2.6281779,3.1543198,1.6753249,-0.92863619,0.055162549,-0.36686751,0
-1.5597503,-4.4102783,-2.1613636,0.062263206,-0.95168382,-0.30070084,0
3.3285718,1.368654,-3.5430889,0.36533058,0.30806231,-0.8784253,0
2.8175344,-0.47917104,-3.974664,0.36154914,-0.087119699,-0.92827368,0
2.9472387,2.8045478,-1.5869675,0.92863619,-0.055162549,0.36686751,0
0.65199995,-2.4847202,3.4275734,0.92863619,-0.055162549,0.36686751,0
-1.9056001,-0.56088114,4.3174691,-0.37092876,-0.11987722,0.92089158,0
-2.6380091,-2.2738128,0.88402891,-0.92863619,0.055162549,-0.36686751,0
2.7320027,-3.5876894,-2.3847368,0.21151209,-0.73370177,-0.6457122,0
1.8819156,-1.0262079,-4.2460046,0.34800094,-0.21318111,-0.91293436,0
-2.0684693,0.95956969,-0.071447611,-0.92863619,0.055162549,-0.36686751,0
-1.8707626,2.4693747,-0.34487796,-0.92863619,0.055162549,-0.36686751,0
-0.70282799,4.7377,0.43687105,-0.00060541928,0.98865706,0.15018839,0
2.8098862,2.2958136,-1.315786,0.92863619,-0.055162549,0.36686751,0
-0.14222121,-4.1112471,-2.5150459,0.13192937,-0.87514114,-0.46553463,0
2.8314681,2.9596267,-1.2706041,0.92863619,-0.055162549,0.36686751,0
-1.5143869,3.2680163,-1.1268721,-0.92863619,0.055162549,-0.36686751,0
-3.084394,0.10360241,2.3714156,-0.92863619,0.055162549,-0.36686751,0
-0.92302084,-2.1126871,-3.4328218,-0.92863619,0.055162549,-0.36686751,0
-1.6625004,-4.1913157,1.6524251,-0.21189082,-0.89058614,0.40244049,0
3.2404985,0.55330467,-2.6677823,0.92863619,-0.055162549,0.36686751,0
-2.5932574,-1.2356539,3.8914182,-0.36757338,-0.27073348,0.88971508,0
0.53782815,-4.6641488,-0.84722805,0.026049875,-0.97674751,-0.21280414,0
1.7210176,1.7984427,1.3656361,0.92863619,-0.055162549,0.36686751,0
0.90327287,-0.056406677,3.1566613,0.92863619,-0.055162549,0.36686751,0
-2.2676291,-4.5591941,0.051629066,-0.11857766,-0.98114479,0.15262425,0
1.6634433,0.7422744,1.3525645,0.92863619,-0.055162549,0.36686751,0
2.7693534,2.3756051,-3.2829866,0.34133077,0.51448423,-0.78663778,0
0.58456469,-0.27124757,3.9310901,0.92863619,-0.055162549,0.36686751,0
-1.2686003,4.8336949,-0.63180733,0.060685545,0.99815059,-0.0035274029,0
0.26365709,-3.1361115,-3.67767,0.23759365,-0.67105025,-0.70231092,0
3.1883988,2.7242272,-2.2094812,0.92863619,-0.055162549,0.36686751,0
2.65238,3.6617818,-2.0869112,0.26602542,0.7882688,-0.55485362,0
2.0676408,4.080122,-1.6754451,0.22408193,0.87151939,-0.43616641,0
1.108772,2.7505383,3.0585458,0.92863619,-0.055162549,0.36686751,0
1.2246475,1.5553887,2.585531,0.92863619,-0.055162549,0.36686751,0
-2.4390469,-4.4446192,0.49196196,-0.15389115,-0.95706975,0.24563175,0
0.11653042,1.8100696,4.7226572,-0.3158282,0.4012852,0.85978049,0
0.51423597,-0.28599033,4.1068931,0.92863619,-0.055162549,0.36686751,0
-1.9472363,3.5528278,2.6813631,-0.21042401,0.73611188,0.64332026,0
1.9541945,0.0025458336,0.50537151,0.92863619,-0.055162549,0.36686751,0
0.81449604,-4.6385427,1.7747455,-0.15371442,-0.95721859,0.24516195,0
-1.3439388,0.27168536,-2.008852,-0.92863619,0.055162549,-0.36686751,0
-2.6848679,2.3412178,1.6965625,-0.92863619,0.055162549,-0.36686751,0
-3.3147886,0.87864542,3.0711398,-0.92863619,0.055162549,-0.36686751,0
1.4011801,2.0205526,2.2086239,0.92863619,-0.055162549,0.36686751,0
-2.6166468,-1.5931433,0.9323017,-0.92863619,0.055162549,-0.36686751,0
2.286005,-1.6911149,-0.5891881,0.92863619,-0.055162549,0.36686751,0
1.1357653,4.6899004,0.44244337,0.051753983,0.99847656,0.019129634,0
-3.1126308,-2.4587796,2.0576077,-0.92863619,0.055162549,-0.36686751,0
-0.24005318,-0.37715602,-4.9006333,-0.92863619,0.055162549,-0.36686751,0
0.48364401,-1.4655776,4.0069652,0.92863619,-0.055162549,0.36686751,0
2.4162459,1.1801752,-0.48713028,0.92863619,-0.055162549,0.36686751,0
1.3821441,1.0224659,2.1067352,0.92863619,-0.055162549,0.36686751,0
2.5028758,4.2506123,-0.24473715,0.92863619,-0.055162549,0.36686751,0
0.91179442,-4.2649026,-1.9194939,0.11809807,-0.89348692,-0.43328261,0
-1.4461341,-0.084911585,4.5354195,-0.36811447,-0.014094293,0.92967349,0
0.38118649,-3.7901025,3.3576591,-0.27065188,-0.77707225,0.56824821,0
2.1852851,-3.8368568,-2.2512264,0.18340763,-0.79132563,-0.58323681,0
-0.85280561,-2.7389278,-3.7047174,-0.92863619,0.055162549,-0.36686751,0
-3.0745447,3.0428891,2.7884398,-0.92863619,0.055162549,-0.36686751,0
-1.7668043,-3.7031312,-1.5361295,-0.92863619,0.055162549,-0.36686751,0
-0.67506242,2.4726112,-3.3710165,-0.92863619,0.055162549,-0.36686751,0
1.5887237,2.8255322,1.8549408,0.92863619,-0.055162549,0.36686751,0
-3.011847,-0.97407651,2.0257387,-0.92863619,0.055162549,-0.36686751,0
-1.1366338,-3.6883152,-3.1290259,-0.92863619,0.055162549,-0.36686751,0
1.6736486,1.9597239,1.5097896,0.92863619,-0.055162549,0.36686751,0
1.6652687,-3.317471,0.73751545,0.92863619,-0.055162549,0.36686751,0
2.9725757,-2.7437348,-3.0648098,0.27636164,-0.55687076,-0.78327453,0
1.2701147,4.0774727,-2.0878429,0.23052305,0.86060548,-0.45411152,0
1.2069809,-2.359807,2.0415556,0.92863619,-0.055162549,0.36686751,0
-1.3114852,-0.98172033,-2.2794647,-0.92863619,0.055162549,-0.36686751,0
1.0842912,-0.61882186,2.6138916,0.92863619,-0.055162549,0.36686751,0
3.3169615,-2.0666432,-3.2552691,0.92863619,-0.055162549,0.36686751,0
-1.9230587,4.3037558,0.063317299,-0.92863619,0.055162549,-0.36686751,0
-0.76907229,-1.0012687,-3.6553907,-0.92863619,0.055162549,-0.36686751,0
-0.86962652,0.25622731,-3.2117832,-0.92863619,0.055162549,-0.36686751,0
-3.2409914,1.1486976,2.9249463,-0.92863619,0.055162549,-0.36686751,0
3.0478177,1.9386182,-1.971761,0.92863619,-0.055162549,0.36686751,0
-3.4004316,-0.84534478,3.0287035,-0.92863619,0.055162549,-0.36686751,0
2.4091837,-3.4013958,-1.158145,0.92863619,-0.055162549,0.36686751,0
-3.0616007,-2.6145597,1.9050139,-0.92863619,0.055162549,-0.36686751,0
3.0348496,-2.006855,-2.5321813,0.92863619,-0.055162549,0.36686751,0
2.9772012,0.52115798,-2.0061426,0.92863619,-0.055162549,0.36686751,0
0.99281335,2.1274538,3.258379,0.92863619,-0.055162549,0.36686751,0
-1.6559763,-3.2674799,-1.7511588,-0.92863619,0.055162549,-0.36686751,0
2.5812345,-0.49368668,-1.1564429,0.92863619,-0.055162549,0.36686751,0
1.438463,4.5344343,-0.76267099,0.14528322,0.96397662,-0.22280449,0
1.2039785,-0.6133548,2.3117535,0.92863619,-0.055162549,0.36686751,0
0.88366461,-0.59402293,-4.7110877,0.35709405,-0.13521865,-0.92422909,0
-3.4404082,0.26187873,3.7451389,-0.36547852,0.033817887,0.93020517,0
-3.1026671,-3.3638887,1.8962924,-0.92863619,0.055162549,-0.36686751,0
3.3371272,0.58280635,-2.907939,0.92863619,-0.055162549,0.36686751,0
1.4439766,-2.354414,1.4424691,0.92863619,-0.055162549,0.36686751,0
0.065219045,-4.1908956,-2.3022387,0.12181786,-0.88871443,-0.44198078,0
-1.5057119,-3.7134557,-2.1985743,-0.92863619,0.055162549,-0.36686751,0
-1.0792074,-1.6530902,-2.9683681,-0.92863619,0.055162549,-0.36686751,0
3.4387674,-1.0260477,-3.4071264,0.92863619,-0.055162549,0.36686751,0
1.1215527,1.164246,2.7876778,0.92863619,-0.055162549,0.36686751,0
-1.498701,4.7652507,0.24324512,-0.0094817653,0.98503178,0.17211163,0
-1.5921032,-4.1903067,1.6916847,-0.21265596,-0.88944805,0.40454847,0
3.0478604,3.0364408,-2.6329732,0.3099063,0.65895712,-0.68537104,0
-0.50667143,1.511659,-3.9417486,-0.92863619,0.055162549,-0.36686751,0
-2.3521495,-2.8548629,0.073077679,-0.92863619,0.055162549,-0.36686751,0
1.6495297,3.9034925,-2.2049732,0.24804151,0.82768214,-0.50340581,0
3.0701871,0.6294508,-3.8372402,0.3709693,0.14887428,-0.91663402,0
-0.20871115,0.52096868,-4.8449244,-0.92863619,0.055162549,-0.36686751,0
2.9247835,0.60234785,-1.8612525,0.92863619,-0.055162549,0.36686751,0
0.36909258,4.5995235,1.253824,-0.029630568,0.97469652,0.22155935,0
-0.25389266,2.9794955,3.8244648,-0.24952835,0.63890958,0.72768807,0
-1.9596462,-0.041746378,-0.49746615,-0.92863619,0.055162549,-0.36686751,0
-1.3511791,-3.5182228,2.8911788,-0.28445882,-0.74067855,0.60866934,0
-2.6242962,-0.17189002,1.1653656,-0.92863619,0.055162549,-0.36686751,0
1.5544552,-2.1926277,1.1871455,0.92863619,-0.055162549,0.36686751,0
0.24767494,1.0161426,4.9774179,0.92863619,-0.055162549,0.36686751,0
-2.5818467,3.4618626,1.6042912,-0.92863619,0.055162549,-0.36686751,0
2.2954669,-2.8448317,-3.227977,0.26735461,-0.58608699,-0.76486832,0
-0.71256375,-1.3828225,-3.8557992,-0.92863619,0.055162549,-0.36686751,0
-1.934667,3.9365759,0.037491322,-0.92863619,0.055162549,-0.36686751,0
-3.101809,-0.62295151,3.8254948,-0.37097311,-0.1479013,0.91678995,0
1.1330645,4.6858678,0.097854614,0.076347321,0.99613291,-0.043474793,0
0.71106172,2.3842301,4.0101752,0.92863619,-0.055162549,0.36686751,0
-1.1090872,3.5327394,-2.1129854,-0.92863619,0.055162549,-0.36686751,0
1.1859746,-4.8278718,0.47775793,-0.051967904,-0.99847573,-0.018588066,0
1.9358952,4.4260869,-0.86675954,0.16599381,0.9461571,-0.27790767,0
1.2639251,-4.122963,1.6323042,0.92863619,-0.055162549,0.36686751,0
2.5383048,3.2091897,-0.49100661,0.92863619,-0.055162549,0.36686751,0
0.96644485,4.2522264,2.4456208,-0.10154706,0.91332358,0.3943705,0
-0.24468887,-4.0293007,-2.6932213,0.14262336,-0.85980588,-0.49029815,0
-0.816118,-0.30680245,-3.4318857,-0.92863619,0.055162549,-0.36686751,0
1.2253208,-4.8132586,1.0373998,-0.090809643,-0.99259996,0.080613971,0
-0.9064784,1.4293737,4.4977522,-0.33344519,0.30939189,0.89055645,0
1.0049702,3.4111326,3.4206228,0.92863619,-0.055162549,0.36686751,0
-1.5324157,-2.6705003,-1.9741602,-0.92863619,0.055162549,-0.36686751,0
2.4317284,-0.89130616,-0.83779025,0.92863619,-0.055162549,0.36686751,0
2.4272385,0.86150122,-4.0552945,0.37048161,0.18971562,-0.90925854,0
-2.1791034,-0.11845231,0.046502948,-0.92863619,0.055162549,-0.36686751,0
-2.5335114,3.6006186,1.5028064,-0.92863619,0.055162549,-0.36686751,0
2.1709392,-2.7405081,-3.3495696,0.27359247,-0.5660519,-0.77764535,0
-1.6846174,-2.0718026,-1.498877,-0.92863619,0.055162549,-0.36686751,0
0.52094173,-2.9765382,-3.7354059,0.25091064,-0.63502949,-0.73060346,0
1.3106827,-2.5527494,1.7500482,0.92863619,-0.055162549,0.36686751,0
0.00072193146,3.8548772,-3.0832415,0.26273429,0.79595518,-0.54536742,0
1.1708386,-3.7949758,1.9172468,0.92863619,-0.055162549,0.36686751,0
2.5831373,0.16257358,-1.0625831,0.92863619,-0.055162549,0.36686751,0
-1.9833281,4.3235064,1.5065541,-0.11889705,0.89247179,0.43515241,0
-2.9475496,0.18980575,2.0379887,-0.92863619,0.055162549,-0.36686751,0
-2.5264306,3.5308728,1.4743955,-0.92863619,0.055162549,-0.36686751,0
0.70571327,-2.0678916,-4.2939181,0.30612218,-0.44470432,-0.84174049,0
1.184852,-4.7551126,-0.31719828,0.0058012977,-0.98660374,-0.16303164,0
0.21468592,2.4751828,4.3791237,-0.28117186,0.54047805,0.79298538,0
2.6401069,2.3008204,-0.88527787,0.92863619,-0.055162549,0.36686751,0
1.7205808,0.88351369,1.2291715,0.92863619,-0.055162549,0.36686751,0
0.038843155,-1.9508927,-4.5973516,0.30982423,-0.42863262,-0.8486948,0
2.2182012,-0.09162569,-0.17705739,0.92863619,-0.055162549,0.36686751,0
2.9750345,-1.1449494,-2.2511761,0.92863619,-0.055162549,0.36686751,0
-0.89687824,0.1052525,4.750185,-0.36555231,0.032656848,0.93021762,0
-0.41210634,-4.2861309,-2.2243614,0.1013743,-0.91351885,-0.39396256,0
1.2562957,2.051918,2.58008,0.92863619,-0.055162549,0.36686751,0
2.2443738,3.2126727,0.25353193,0.92863619,-0.055162549,0.36686751,0
-2.9722884,3.0245137,2.526839,-0.92863619,0.055162549,-0.36686751,0
-0.35329008,1.4514053,-4.339056,-0.92863619,0.055162549,-0.36686751,0
2.2788846,-4.4860592,-1.0658307,0.094097778,-0.92152423,-0.37674743,0
-2.8604517,0.9644773,3.8857052,-0.35117847,0.1881367,0.91721207,0
2.7447426,1.5735576,-1.2594905,0.92863619,-0.055162549,0.36686751,0
1.714156,2.2800829,1.4554247,0.92863619,-0.055162549,0.36686751,0
3.2280722,0.72712302,-2.6101933,0.92863619,-0.055162549,0.36686751,0
2.3678818,-3.4791031,-2.6249096,0.2193585,-0.71586126,-0.66289097,0
-2.2275283,-3.4840219,-0.33697343,-0.92863619,0.055162549,-0.36686751,0
1.5746984,2.3089395,-3.8415031,0.34605455,0.48522887,-0.80299371,0
1.3594079,3.292356,2.5055902,0.92863619,-0.055162549,0.36686751,0
1.1875653,3.3186438,-3.1941073,0.29929262,0.69573468,-0.65297544,0
1.5273393,1.5554861,1.8193545,0.92863619,-0.055162549,0.36686751,0
-3.0945997,-1.2421744,3.6821413,-0.36716032,-0.27840039,0.88751692,0
-1.5717506,-1.3294697,-1.6729538,-0.92863619,0.055162549,-0.36686751,0
3.0829883,0.98242736,-3.7597644,0.36959004,0.22342724,-0.90193301,0
-0.39133573,-3.3642101,-3.6612828,0.21497953,-0.72591883,-0.65331882,0
1.4414914,-0.92499697,1.6636887,0.92863619,-0.055162549,0.36686751,0
0.64786172,0.61161619,3.9036186,0.92863619,-0.055162549,0.36686751,0
-0.47609568,0.68413246,-4.1435709,-0.92863619,0.055162549,-0.36686751,0
2.0190682,3.3959467,-2.7251732,0.29058629,0.72292459,-0.62684876,0
0.033548832,-2.4500117,4.4489741,-0.34454572,-0.49490574,0.79771936,0
-2.2004118,-1.8724842,3.8090649,-0.35715151,-0.40050924,0.84382159,0
-0.41792941,3.2083042,3.5554423,-0.23251873,0.68401802,0.69141471,0
-0.98186195,-3.9209151,-3.094641,0.1512233,-0.84671754,-0.51009887,0
-2.4298861,1.0303948,0.8540411,-0.92863619,0.055162549,-0.36686751,0
3.2359049,-2.3348246,-3.0904188,0.92863619,-0.055162549,0.36686751,0
-2.7965367,2.5311377,3.2705846,-0.28831249,0.51502484,0.80723304,0
-3.1879532,2.5293407,2.9982884,-0.92863619,0.055162549,-0.36686751,0
1.7589892,-3.6957989,0.44339848,0.92863619,-0.055162549,0.36686751,0
0.51161671,-1.5568165,-4.5983644,0.32784569,-0.34082735,-0.8811093,0
-1.213353,4.2933602,-1.7346935,-0.92863619,0.055162549,-0.36686751,0
-2.4848609,1.326252,1.0376822,-0.92863619,0.055162549,-0.36686751,0
0.51666212,-2.6761241,3.7413692,0.92863619,-0.055162549,0.36686751,0
0.85437059,4.2355599,-1.979985,0.21244562,0.88976169,-0.40396875,0
-3.4571676,-1.1986668,3.1191916,-0.92863619,0.055162549,-0.36686751,0
2.3732424,0.29939795,-0.51071125,0.92863619,-0.055162549,0.36686751,0
-0.94934106,-2.1178832,-3.3669803,-0.92863619,0.055162549,-0.36686751,0
0.54165387,-4.0550871,3.0350504,-0.2457214,-0.83233249,0.49683344,0
2.7515924,0.33501554,-1.4630578,0.92863619,-0.055162549,0.36686751,0
-2.8398027,2.7893426,2.1561234,-0.92863619,0.055162549,-0.36686751,0
-1.8380482,1.6809028,-0.546242,-0.92863619,0.055162549,-0.36686751,0
-2.7306652,2.7214475,1.8696585,-0.92863619,0.055162549,-0.36686751,0
0.47357321,0.012167096,4.254653,0.92863619,-0.055162549,0.36686751,0
1.4801642,1.8528937,1.9834855,0.92863619,-0.055162549,0.36686751,0
1.7908099,-2.8590708,0.4886632,0.92863619,-0.055162549,0.36686751,0
1.9186424,1.7128711,0.85253012,0.92863619,-0.055162549,0.36686751,0
-1.8267846,4.3136554,1.5695286,-0.1189841,0.89236081,0.43535602,0
-1.8018223,2.6723969,-0.48885703,-0.92863619,0.055162549,-0.36686751,0
1.2447735,4.2724986,2.4682527,-0.094886929,0.92067659,0.37861747,0
-1.5400158,0.98541248,-1.4052136,-0.92863619,0.055162549,-0.36686751,0
-0.05359602,0.93538725,4.9641104,-0.34750855,0.216896,0.91224653,0
1.7878075,1.5144262,1.1538687,0.92863619,-0.055162549,0.36686751,0
-1.7533429,3.1173077,-0.54467273,-0.92863619,0.055162549,-0.36686751,0
2.4674029,-2.2448609,-3.5589325,0.30254406,-0.45971754,-0.83494109,0
-2.5413125,-4.1573358,0.35605478,-0.92863619,0.055162549,-0.36686751,0
-2.8452775,-4.0951691,1.1348162,-0.92863619,0.055162549,-0.36686751,0
3.1420996,0.84388375,-2.3750172,0.92863619,-0.055162549,0.36686751,0
0.97046757,2.9936299,-3.6060035,0.3190397,0.62342268,-0.71383315,0
-3.2237375,1.6814656,3.5408392,-0.32923764,0.33323506,0.88349122,0
-1.3745246,-0.49272323,-2.0463696,-0.92863619,0.055162549,-0.36686751,0
3.5293546,-0.33432364,-3.5324168,0.92863619,-0.055162549,0.36686751,0
2.2829006,-0.30964375,-0.3736093,0.92863619,-0.055162549,0.36686751,0
3.4507852,-0.57398438,-3.3695741,0.92863619,-0.055162549,0.36686751,0
1.8068025,3.7077775,1.4355824,0.92863619,-0.055162549,0.36686751,0
-3.3085165,1.8075657,3.1949377,-0.92863619,0.055162549,-0.36686751,0
-2.0606971,0.20785904,-0.20414948,-0.92863619,0.055162549,-0.36686751,0
-3.3892403,-1.3757529,2.9206212,-0.92863619,0.055162549,-0.36686751,0
-3.0098991,1.4494562,2.3852134,-0.92863619,0.055162549,-0.36686751,0
-0.1598649,-0.62975705,-5.1079478,0.35493577,-0.15566352,-0.92184013,0
-1.8171089,-4.3093457,1.2837777,-0.19120294,-0.91859704,0.34586245,0
3.3940432,1.0536487,-2.9812112,0.92863619,-0.055162549,0.36686751,0
0.7150991,-2.7810366,3.2232978,0.92863619,-0.055162549,0.36686751,0
0.52229977,-2.5239823,3.749974,0.92863619,-0.055162549,0.36686751,0
-2.3732407,-4.1592312,-0.069662809,-0.92863619,0.055162549,-0.36686751,0
-1.3988667,-3.0322714,3.3797476,-0.31564164,-0.63711703,0.7031728,0
3.1373782,3.493217,-1.9647098,0.92863619,-0.055162549,0.36686751,0
-1.4392004,3.1624956,-1.3330538,-0.92863619,0.055162549,-0.36686751,0
3.0916824,-1.358562,-2.5785611,0.92863619,-0.055162549,0.36686751,0
-2.5265994,-4.1212249,1.3520913,-0.2146318,-0.88647354,0.40999711,0
-2.8953624,0.851933,3.8938842,-0.35399044,0.16417354,0.92072666,0
1.0335846,-0.63599455,2.7396612,0.92863619,-0.055162549,0.36686751,0
-1.002727,1.9416099,-2.6214554,-0.92863619,0.055162549,-0.36686751,0
-1.2173442,3.1651697,-1.8942277,-0.92863619,0.055162549,-0.36686751,0
2.8711753,1.0842981,-1.6530892,0.92863619,-0.055162549,0.36686751,0
-1.169107,-3.2478938,-2.9806056,-0.92863619,0.055162549,-0.36686751,0
-3.4761541,1.2458541,3.534812,-0.92863619,0.055162549,-0.36686751,0
1.1277204,3.6515262,-2.8273215,0.27484143,0.76651919,-0.58043975,0
3.0944028,-2.7198639,-2.7901354,0.92863619,-0.055162549,0.36686751,0
2.1325126,3.0538571,-3.0297418,0.31202888,0.65105069,-0.69193262,0
-1.4478951,2.7728841,3.5792763,-0.26876789,0.58162349,0.76777464,0
0.37260437,-2.3692801,4.152153,0.92863619,-0.055162549,0.36686751,0
2.0415175,4.4670258,-0.65370607,0.15421486,0.95679635,-0.24649245,0
1.6123319,-4.6511145,-0.73211002,0.049068324,-0.96193349,-0.26884216,0
-0.39994657,-4.7335734,-0.1535964,-0.051621258,-0.99847692,-0.019465804,0
-3.1198807,-3.1618543,2.4749153,-0.30200905,-0.68672979,0.66120529,0
2.2088256,-3.9291635,-0.73034382,0.92863619,-0.055162549,0.36686751,0
1.136543,-4.8172741,0.86711454,-0.081211925,-0.99512571,0.055939913,0
-1.1031852,0.02357161,4.6709838,-0.36673057,0.012950867,0.93023694,0
0.60993099,-4.0773492,3.0312743,-0.24371219,-0.83628488,0.49115366,0
0.44706964,2.1886415,4.6437969,-0.29651177,0.48397076,0.82331818,0
-0.27987289,0.38310182,4.971724,-0.36056721,0.098571301,0.92751002,0
-1.7142814,-2.9371881,-1.5539104,-0.92863619,0.055162549,-0.36686751,0
-2.2913914,0.25633883,0.38708729,-0.92863619,0.055162549,-0.36686751,0
-2.4123664,-3.1576807,0.17996907,-0.92863619,0.055162549,-0.36686751,0
1.9771743,3.2566597,-2.8981571,0.30027717,0.69250143,-0.65595359,0
3.3982933,-0.93409395,-3.2908492,0.92863619,-0.055162549,0.36686751,0
-0.94620347,4.1163583,-2.4375329,-0.92863619,0.055162549,-0.36686751,0
-0.32649875,-3.815623,-3.0619795,0.1690059,-0.81741136,-0.55070466,0
-2.8490677,-1.5113297,3.6907134,-0.36356342,-0.33220768,0.87032151,0
1.3545953,1.0515338,2.1808386,0.92863619,-0.055162549,0.36686751,0
-2.4346395,-4.3385806,0.058786869,-0.92863619,0.055162549,-0.36686751,0
-2.4265726,3.341296,2.7483263,-0.23139721,0.68683034,0.68899882,0
0.88825822,-2.6837137,-3.8421125,0.27236515,-0.57006305,-0.77514201,0
-2.083497,2.8976479,0.25800347,-0.92863619,0.055162549,-0.36686751,0
-1.0454946,2.7544439,-2.3909812,-0.92863619,0.055162549,-0.36686751,0
-0.69378328,-2.310545,-4.0428319,-0.92863619,0.055162549,-0.36686751,0
-0.58362079,3.4759083,3.2153986,-0.21004456,0.73694867,0.64248574,0
-2.3112922,-3.691561,-0.15615082,-0.92863619,0.055162549,-0.36686751,0
0.68966603,2.5863004,4.094717,0.92863619,-0.055162549,0.36686751,0
-1.374084,3.0747759,-1.511071,-0.92863619,0.055162549,-0.36686751,0
0.68785429,-2.9085908,3.273083,0.92863619,-0.055162549,0.36686751,0
0.33278608,4.5804539,-1.2815685,0.1509589,0.95950067,-0.23784405,0
2.6988378,2.4566498,-3.2594638,0.33847439,0.53083408,-0.77694917,0
-1.498705,0.66081071,-1.5585899,-0.92863619,0.055162549,-0.36686751,0
-1.6118321,1.1343422,-1.2010351,-0.92863619,0.055162549,-0.36686751,0
1.4470372,-3.7966528,1.2178655,0.92863619,-0.055162549,0.36686751,0
1.3539114,0.91080666,2.1614101,0.92863619,-0.055162549,0.36686751,0
-2.2191532,1.3677051,0.37133992,-0.92863619,0.055162549,-0.36686751,0
-3.3654919,1.9697471,3.3687432,-0.31789291,0.39147925,0.8635323,0
3.5275478,0.017882586,-3.4748869,0.92863619,-0.055162549,0.36686751,0
0.91569519,-0.057290435,3.1250844,0.92863619,-0.055162549,0.36686751,0
-2.9465067,3.2536778,2.4960372,-0.92863619,0.055162549,-0.36686751,0
3.1240802,1.6472914,-2.2086053,0.92863619,-0.055162549,0.36686751,0
0.90721148,-4.3953319,-1.6302011,0.095809609,-0.91967899,-0.38080305,0
1.304348,2.3447597,-3.9362981,0.34540629,0.4894276,-0.80072141,0
-1.4703605,-2.2248161,-2.0642238,-0.92863619,0.055162549,-0.36686751,0
-0.67545176,-4.3634777,-2.0984795,0.083880797,-0.93205643,-0.35246933,0
-0.37027502,3.4204273,-3.7996702,0.29868394,0.69771707,-0.65113628,0
0.94820046,3.1645346,3.5272439,0.92863619,-0.055162549,0.36686751,0
0.37675071,3.4792864,3.5242181,-0.20433038,0.74933046,0.62988329,0
-0.95560479,-0.32529289,-3.081588,-0.92863619,0.055162549,-0.36686751,0
-1.9968586,2.1789684,-0.069361925,-0.92863619,0.055162549,-0.36686751,0
-2.6773415,-0.66240978,1.2258818,-0.92863619,0.055162549,-0.36686751,0
0.41008091,-4.6891828,1.2785921,-0.13039288,-0.97432244,0.18355757,0
1.5887927,-4.164948,0.80366755,0.92863619,-0.055162549,0.36686751,0
2.1277065,1.0993998,0.23109198,0.92863619,-0.055162549,0.36686751,0
1.2393937,2.9319925,-3.5391259,0.32137054,0.613671,-0.72119951,0
-1.4401374,1.5483218,4.2556286,-0.33025962,0.32757071,0.88522637,0
-1.8765302,1.2857698,-0.50824714,-0.92863619,0.055162549,-0.36686751,0
1.9004767,0.1825242,0.66840672,0.92863619,-0.055162549,0.36686751,0
-2.1469431,-1.6067291,-0.25868291,-0.92863619,0.055162549,-0.36686751,0
-0.57782602,4.0286388,-3.0966525,0.24880636,0.82612884,-0.50557506,0
1.2049727,-2.1035624,2.0851679,0.92863619,-0.055162549,0.36686751,0
-2.769403,1.8265746,3.6514671,-0.32244277,0.36906257,0.87167847,0
-1.2549504,2.5461078,-1.8921196,-0.92863619,0.055162549,-0.36686751,0
-0.59529138,-1.355177,-4.1484895,-0.92863619,0.055162549,-0.36686751,0
-2.7618394,-0.079084873,1.5274787,-0.92863619,0.055162549,-0.36686751,0
-1.5112269,-3.318079,-2.1251655,-0.92863619,0.055162549,-0.36686751,0
-3.017575,1.7386606,2.4481287,-0.92863619,0.055162549,-0.36686751,0
2.913862,-1.4524934,-3.7369277,0.33679241,-0.2893545,-0.89601606,0
2.8085947,-2.2660687,-1.998448,0.92863619,-0.055162549,0.36686751,0
0.6391623,-4.5286202,-1.3310251,0.065147243,-0.94927049,-0.30763823,0
-2.4737189,2.6015832,1.2012391,-0.92863619,0.055162549,-0.36686751,0
-1.0215719,-3.9099796,2.5030546,-0.25129545,-0.82100159,0.51264679,0
-0.85589147,-4.3066096,1.8151779,-0.20143539,-0.90539253,0.3737486,0
3.3149509,0.65058565,-2.8416142,0.92863619,-0.055162549,0.36686751,0
-1.7323321,4.1753931,-0.43876171,-0.92863619,0.055162549,-0.36686751,0
-2.5788262,-4.2595944,0.99477077,-0.19200915,-0.91760099,0.34805298,0
-1.1248471,-1.588177,-2.8430815,-0.92863619,0.055162549,-0.36686751,0
2.6995661,2.0097985,-1.0795426,0.92863619,-0.055162549,0.36686751,0
0.79064369,-4.7569017,-0.30419397,-0.0065731853,-0.99117506,-0.13239604,0
2.9412332,-3.3413973,-2.4958777,0.92863619,-0.055162549,0.36686751,0
-3.1212385,-1.4916022,2.2248211,-0.92863619,0.055162549,-0.36686751,0
-0.71284747,-2.9190969,-4.0860777,-0.92863619,0.055162549,-0.36686751,0
1.2348142,-1.76019,2.0612617,0.92863619,-0.055162549,0.36686751,0
1.3952996,-4.1480846,-2.0075023,0.13968009,-0.86412913,-0.48349798,0
-0.30180407,4.1990371,-2.654634,0.22693884,0.86675298,-0.44411463,0
-0.9653365,4.4179482,1.560338,-0.092239067,0.92350137,0.37233984,0
-3.2375913,0.18169308,3.8272176,-0.36635339,0.019525081,0.93027079,0
0.016501188,-4.7290711,-0.45804596,-0.017669573,-0.99433792,-0.10478377,0
-0.25849193,-4.5423245,-1.4628,0.04844065,-0.96238887,-0.26732194,0
2.8384504,2.1232557,-1.4140351,0.92863619,-0.055162549,0.36686751,0
-3.2462592,-2.3516316,3.0917289,-0.34117317,-0.51541048,0.78609955,0
0.79319715,0.73826367,3.5547786,0.92863619,-0.055162549,0.36686751,0
-1.8130651,0.53170407,-0.7822758,-0.92863619,0.055162549,-0.36686751,0
3.3115633,0.98901248,-2.7821519,0.92863619,-0.055162549,0.36686751,0
1.0690806,0.38669038,2.8035841,0.92863619,-0.055162549,0.36686751,0
-1.8606839,0.99087453,-0.59269917,-0.92863619,0.055162549,-0.36686751,0
-2.7964501,0.042984009,1.6334407,-0.92863619,0.055162549,-0.36686751,0
-2.4374652,-2.6096663,3.265039,-0.33295095,-0.56010765,0.75856626,0
-2.9451041,-3.0847692,1.5394282,-0.92863619,0.055162549,-0.36686751,0
-1.9321899,2.0918593,-0.24615335,-0.92863619,0.055162549,-0.36686751,0
-1.722712,-2.6339567,3.5607553,-0.33371234,-0.5562377,0.76107514,0
-2.4014585,-2.6015558,0.23597801,-0.92863619,0.055162549,-0.36686751,0
2.597929,1.8706324,-3.6416206,0.35664034,0.40512109,-0.84183395,0
0.83040118,2.2016368,3.6806409,0.92863619,-0.055162549,0.36686751,0
-2.0979209,-3.5051491,2.5577035,-0.2820372,-0.74740851,0.60152763,0
0.65588641,-2.1718988,3.4647715,0.92863619,-0.055162549,0.36686751,0
-2.0449495,0.73206377,-0.16518998,-0.92863619,0.055162549,-0.36686751,0
-1.7874868,0.59019136,-0.83822691,-0.92863619,0.055162549,-0.36686751,0
3.3071384,0.085865974,-3.7971137,0.36909485,0.037509978,-0.92863435,0
-0.11159492,4.7635918,-0.031036377,0.05036512,0.998474,0.022644758,0
0.7932874,4.4188976,1.9711256,-0.070734531,0.94441658,0.32105124,0
-1.9244725,-0.87805319,-0.71224815,-0.92863619,0.055162549,-0.36686751,0
-1.3260615,-3.1620879,-2.5704117,-0.92863619,0.055162549,-0.36686751,0
-0.6155169,-0.20582649,-3.9244752,-0.92863619,0.055162549,-0.36686751,0
-0.21486712,1.301443,-4.7119875,-0.92863619,0.055162549,-0.36686751,0
1.7706575,-3.6127501,0.42634916,0.92863619,-0.055162549,0.36686751,0
-1.3000736,-2.4931173,3.8434963,-0.34022629,-0.52091497,0.78287512,0
0.0087118149,0.34770945,5.0876341,-0.36090052,0.094749033,0.92777872,0
-1.1576177,-0.18783474,-2.5495734,-0.92863619,0.055162549,-0.36686751,0
2.9506078,0.16811919,-1.9919114,0.92863619,-0.055162549,0.36686751,0
2.4817085,-0.85566306,-4.0521626,0.35331666,-0.17009184,-0.91991079,0
-2.2899961,1.2715566,0.53620458,-0.92863619,0.055162549,-0.36686751,0
0.42929316,-2.5148983,3.9867647,0.92863619,-0.055162549,0.36686751,0
-2.4033213,-1.720155,0.37322152,-0.92863619,0.055162549,-0.36686751,0
1.8715615,-2.1127458,0.39647913,0.92863619,-0.055162549,0.36686751,0
2.9344378,3.5895605,-1.4365289,0.92863619,-0.055162549,0.36686751,0
3.0279789,-1.2952409,-2.4077909,0.92863619,-0.055162549,0.36686751,0
2.6720524,3.8984754,-0.72591448,0.92863619,-0.055162549,0.36686751,0
1.8456402,1.4746026,1.0014914,0.92863619,-0.055162549,0.36686751,0
1.4443448,-2.470695,1.424053,0.92863619,-0.055162549,0.36686751,0
-1.0220435,4.6090984,-2.0102267,0.16427243,0.94779706,-0.27330393,0
-0.99640107,-4.4239292,-2.0002489,0.066883728,-0.94778728,-0.31181049,0
2.691695,-2.5095403,-3.3217685,0.28917861,-0.5118407,-0.80894667,0
0.80578446,4.389657,-1.6286387,0.18749976,0.92307734,-0.33581507,0
0.29309988,0.52613527,4.7887592,0.92863619,-0.055162549,0.36686751,0
0.84850526,4.4326425,-1.4812875,0.17863268,0.93318796,-0.31185007,0
-1.0989733,3.0318174,-2.2139063,-0.92863619,0.055162549,-0.36686751,0
0.71125412,-3.1725445,3.1741636,0.92863619,-0.055162549,0.36686751,0
0.23787069,-1.376404,4.6424885,0.92863619,-0.055162549,0.36686751,0
0.74923897,-3.4153323,3.041508,0.92863619,-0.055162549,0.36686751,0
-3.1904101,-2.0606141,3.291276,-0.35072863,-0.45287761,0.81968963,0
2.0364363,-1.7076041,0.040056229,0.92863619,-0.055162549,0.36686751,0
-1.7415892,4.5532579,1.0166941,-0.074280277,0.94121343,0.32954472,0
2.7651992,1.1289709,-1.378119,0.92863619,-0.055162549,0.36686751,0
3.1168556,0.076562643,-3.8730712,0.36892891,0.033181787,-0.92886502,0
-2.8556807,0.42759895,1.8411995,-0.92863619,0.055162549,-0.36686751,0
1.6418785,-3.6109324,0.75259686,0.92863619,-0.055162549,0.36686751,0
-2.8319557,-1.3781631,1.5096291,-0.92863619,0.055162549,-0.36686751,0
2.0260534,2.0076599,0.62497014,0.92863619,-0.055162549,0.36686751,0
-2.1481245,-4.6159472,-0.33499694,-0.087996751,-0.99341494,0.073371172,0
-0.13817668,4.1037717,2.4491205,-0.13540629,0.87026739,0.47360283,0
2.2165661,-0.19386387,-0.18829101,0.92863619,-0.055162549,0.36686751,0
1.7371302,-3.7654986,0.48824883,0.92863619,-0.055162549,0.36686751,0
3.4424639,0.98200035,-3.1145492,0.92863619,-0.055162549,0.36686751,0
-0.13065195,0.86319745,-4.9910536,-0.92863619,0.055162549,-0.36686751,0
-2.0994816,-4.0004663,-0.73874474,-0.92863619,0.055162549,-0.36686751,0
1.226539,4.6544809,-0.20818663,0.10066772,0.98924959,-0.10607111,0
3.3613024,-1.9362321,-3.3853238,0.31932217,-0.38456094,-0.86610985,0
-1.6882631,4.1975293,1.8336542,-0.1351667,0.87060678,0.47304738,0
-0.92817903,-2.8241217,-3.5267377,-0.92863619,0.055162549,-0.36686751,0
-0.73930544,-4.1755228,-2.553756,0.11671163,-0.89523584,-0.43003619,0
0.17720795,0.63523048,5.0985146,0.92863619,-0.055162549,0.36686751,0
-1.429795,-0.71719742,-1.940218,-0.92863619,0.055162549,-0.36686751,0
-2.9555671,-3.2919455,1.5347626,-0.92863619,0.055162549,-0.36686751,0
-1.3184419,-4.1934371,-2.6703651,0.10810119,-0.90573817,-0.40982002,0
-1.7923272,-1.9043242,-1.2010534,-0.92863619,0.055162549,-0.36686751,0
0.97728443,3.7937515,3.2940085,-0.16702673,0.82082778,0.5462085,0
0.15719128,-1.202765,4.872818,0.92863619,-0.055162549,0.36686751,0
1.8898932,2.499316,1.0435524,0.92863619,-0.055162549,0.36686751,0
-1.9246168,3.2354794,-0.093365669,-0.92863619,0.055162549,-0.36686751,0
2.3875031,1.697298,-0.33661908,0.92863619,-0.055162549,0.36686751,0
0.049529076,-2.17365,-4.4734426,0.2988444,-0.47474298,-0.82783514,0
1.8174754,-4.6355081,-0.74712276,0.056257553,-0.95650959,-0.28622454,0
-0.032999575,-4.7086568,-0.62446976,-0.0069472939,-0.99129611,-0.13146728,0
-1.1663398,3.8660939,2.5281487,-0.17342943,0.80963069,0.56073189,0
-2.4401605,1.2957988,0.91995478,-0.92863619,0.055162549,-0.36686751,0
2.7470369,-0.68712378,-3.9774809,0.35746586,-0.13153827,-0.92461646,0
2.3876812,0.61792254,-0.4993664,0.92863619,-0.055162549,0.36686751,0
-0.12120914,-0.99941325,-5.0148134,0.34538954,-0.23243529,-0.90921938,0
1.8983237,0.68389094,0.7492432,0.92863619,-0.055162549,0.36686751,0
-1.9190909,2.6699219,-0.19239163,-0.92863619,0.055162549,-0.36686751,0
1.0870318,3.2772794,-3.28354,0.30234802,0.68558758,-0.66223496,0
-1.7908492,-4.427825,0.94728088,-0.16758502,-0.94461447,0.28216743,0
2.3834903,2.3732321,-0.22482729,0.92863619,-0.055162549,0.36686751,0
-2.8888388,-3.1099234,2.6330519,-0.30609661,-0.67266476,0.6736666,0
-1.5184427,-3.1549733,-2.082375,-0.92863619,0.055162549,-0.36686751,0
-1.416088,4.5745611,1.0247397,-0.065195985,0.94922918,0.30775529,0
-0.53949332,-1.6757053,-4.337924,-0.92863619,0.055162549,-0.36686751,0
1.418941,1.4792491,-4.2985039,0.36537123,0.30746189,-0.8786186,0
-1.9416695,0.72498739,-0.42768276,-0.92863619,0.055162549,-0.36686751,0
-2.751446,-2.3284943,1.1629447,-0.92863619,0.055162549,-0.36686751,0
-1.4826223,1.2908731,-1.5045624,-0.92863619,0.055162549,-0.36686751,0
-1.3319896,4.1914244,1.9464931,-0.13300243,0.87364835,0.46802652,0
-2.190599,1.7751977,0.3603332,-0.92863619,0.055162549,-0.36686751,0
1.0020018,0.47851294,-4.690012,0.37057805,0.091257244,-0.92430717,0
-2.0069773,3.2910647,0.12346792,-0.92863619,0.055162549,-0.36686751,0
2.4768434,-0.070128918,-0.82851481,0.92863619,-0.055162549,0.36686751,0
-1.9903476,-0.58560002,-0.50152749,-0.92863619,0.055162549,-0.36686751,0
0.60905838,3.1111383,-3.6625512,0.31389064,0.6439476,-0.69771338,0
-0.37405968,2.2009025,-4.1737871,-0.92863619,0.055162549,-0.36686751,0
0.54716825,-4.4676633,-1.5298545,0.07739985,-0.93831575,-0.33700538,0
-2.1929188,1.6694999,3.9291711,-0.32735056,0.34349501,0.88025713,0
-2.233103,-0.83515906,0.075424388,-0.92863619,0.055162549,-0.36686751,0
-2.8050504,-2.1125331,1.3311034,-0.92863619,0.055162549,-0.36686751,0
-0.62760496,4.5690165,-1.9109564,0.16814935,0.9440614,-0.28367907,0
0.27573967,-2.6216192,4.3594017,0.92863619,-0.055162549,0.36686751,0
1.4599714,3.5609798,2.291429,0.92863619,-0.055162549,0.36686751,0
-2.5960488,0.18914652,1.1481503,-0.92863619,0.055162549,-0.36686751,0
-3.3992386,0.10112119,3.1679945,-0.92863619,0.055162549,-0.36686751,0
0.31624699,-3.0977035,4.0900021,-0.31759268,-0.62932765,0.70928228,0
-3.2043653,-2.1728992,2.3327949,-0.92863619,0.055162549,-0.36686751,0
1.1959432,3.1184061,2.8932066,0.92863619,-0.055162549,0.36686751,0
-1.8076166,-4.2239904,-1.5111403,-0.92863619,0.055162549,-0.36686751,0
1.6693735,-1.0685614,1.0652736,0.92863619,-0.055162549,0.36686751,0
-2.8827331,1.6599946,3.6760139,-0.3292836,0.33298221,0.88356948,0
0.023570061,2.6484871,-4.2936525,0.337201,0.53784072,-0.77267236,0
0.6442852,4.3744383,-1.7592196,0.19202179,0.91758519,-0.34808743,0
0.35526657,-1.3704848,4.34622,0.92863619,-0.055162549,0.36686751,0
1.5785398,2.6754735,-3.5934033,0.33232403,0.56325758,-0.75650597,0
-2.1598134,-1.818779,3.8512659,-0.35842288,-0.38861978,0.84882718,0
-1.3705616,1.979335,-1.6846986,-0.92863619,0.055162549,-0.36686751,0
-2.2013388,-3.1418543,-0.35181665,-0.92863619,0.055162549,-0.36686751,0
-1.6179552,-1.2682122,4.2843599,-0.36784756,-0.26537478,0.89121497,0
2.736001,-0.18702483,-1.5020868,0.92863619,-0.055162549,0.36686751,0
2.7679756,3.3144708,-2.4714711,0.29321128,0.71498132,-0.63468778,0
0.9333837,-3.6343725,-2.9124966,0.19674516,-0.76514548,-0.61306095,0
1.2452598,2.8154566,2.7228215,0.92863619,-0.055162549,0.36686751,0
-1.9821377,2.7343335,-0.023118973,-0.92863619,0.055162549,-0.36686751,0
1.4445106,4.6600008,0.088861942,0.085737765,0.99402428,-0.067561507,0
-0.72906804,3.188416,-3.1266856,-0.92863619,0.055162549,-0.36686751,0
1.788043,4.5028996,-0.67023945,0.14844304,0.96152174,-0.23117179,0
-2.6497483,0.34708595,1.3078271,-0.92863619,0.055162549,-0.36686751,0
3.5868025,0.10939598,-3.6848252,0.36939847,0.045943052,-0.92813462,0
2.7953079,-2.309691,-1.9713753,0.92863619,-0.055162549,0.36686751,0
-1.1312528,1.0970429,4.5140104,-0.34470844,0.2372857,0.90822434,0
0.91627073,3.5574341,-3.046644,0.28343028,0.74355578,-0.60563332,0
-1.7746967,0.30116475,-0.91406065,-0.92863619,0.055162549,-0.36686751,0
1.0675659,2.7401457,-3.7694678,0.33084369,0.57057059,-0.75165892,0
2.7460396,0.36589193,-1.4443593,0.92863619,-0.055162549,0.36686751,0
-0.45020366,3.7990267,2.8461742,-0.17621204,0.80463237,0.56702375,0
-2.3635023,3.956491,2.0271602,-0.17121062,0.81355864,0.55570596,0
3.1577499,0.39789128,-2.4816935,0.92863619,-0.055162549,0.36686751,0
2.1715436,1.2363207,0.14071712,0.92863619,-0.055162549,0.36686751,0
-1.8998353,1.5558521,-0.40864563,-0.92863619,0.055162549,-0.36686751,0
-1.3049364,-0.62000191,-2.2416532,-0.92863619,0.055162549,-0.36686751,0
0.2895565,-3.4718089,-3.3161762,0.2087962,-0.73968887,-0.63973773,0
-2.4743733,-2.1328638,3.55759,-0.34986115,-0.45918512,0.81654519,0
1.6886692,3.1806278,-3.1077788,0.30613238,0.67253894,-0.67377615,0
2.5544119,-0.46691585,-4.0782957,0.36149001,-0.087826669,-0.92823023,0
-2.7516379,-1.4608392,1.2938921,-0.92863619,0.055162549,-0.36686751,0
-0.50911808,2.5920744,-3.7731018,-0.92863619,0.055162549,-0.36686751,0
0.76104045,-0.99304014,3.375855,0.92863619,-0.055162549,0.36686751,0
3.349412,1.2009196,-2.8460948,0.92863619,-0.055162549,0.36686751,0
2.9513807,0.88927126,-1.8854356,0.92863619,-0.055162549,0.36686751,0
0.84677243,0.9858017,3.4563856,0.92863619,-0.055162549,0.36686751,0
2.1630683,0.46724534,0.046530828,0.92863619,-0.055162549,0.36686751,0
-1.5601873,-4.5325518,0.69120407,-0.14366406,-0.96519864,0.21852231,0
-1.4611201,4.4061084,-1.0905786,-0.92863619,0.055162549,-0.36686751,0
2.7000208,0.86376977,-1.2530129,0.92863619,-0.055162549,0.36686751,0
0.083880901,2.3090708,4.4405956,-0.29116231,0.50446469,0.812859,0
3.0646462,-2.8016996,-2.9905896,0.273081,-0.56772757,-0.7766028,0
-1.8756857,-1.1986307,-0.88394254,-0.92863619,0.055162549,-0.36686751,0
1.2535636,-3.611917,-2.837101,0.2008571,-0.75665826,-0.62219346,0
-2.3610337,-3.9182854,1.827673,-0.2417562,-0.84006763,0.48563355,0
1.3077146,-2.2359989,1.8051889,0.92863619,-0.055162549,0.36686751,0
-2.4686692,0.686167,0.90045309,-0.92863619,0.055162549,-0.36686751,0
0.89568615,3.3756342,-3.2666497,0.29665285,0.70423925,-0.64501464,0
-1.5329846,-0.52045774,-1.6494365,-0.92863619,0.055162549,-0.36686751,0
-2.0226779,-1.3623623,4.0874715,-0.36646855,-0.29033911,0.8839705,0
-2.3107486,-0.88046086,0.265154,-0.92863619,0.055162549,-0.36686751,0
1.8537028,-0.35824275,0.70549321,0.92863619,-0.055162549,0.36686751,0
-3.3952098,-0.71347785,3.6907895,-0.37078941,-0.1706396,0.91290593,0
-0.67701626,-3.9283891,2.6424687,-0.25150943,-0.82055569,0.51325554,0
-1.058629,-0.65330195,4.6463857,-0.37097502,-0.12873951,0.91967571,0
-1.9437239,-1.6313872,-0.77679032,-0.92863619,0.055162549,-0.36686751,0
1.613977,-2.1739318,-3.9071643,0.30355674,-0.45551786,-0.83687299,0
2.0542903,-3.5032382,-0.2751317,0.92863619,-0.055162549,0.36686751,0
0.61891031,0.96353459,4.0298171,0.92863619,-0.055162549,0.36686751,0
2.2537763,1.0208759,-0.099830031,0.92863619,-0.055162549,0.36686751,0
0.22078371,-1.60303,4.6516643,0.92863619,-0.055162549,0.36686751,0
2.3405921,0.69028187,-0.36929196,0.92863619,-0.055162549,0.36686751,0
-1.2493627,1.0499266,-2.131232,-0.92863619,0.055162549,-0.36686751,0
0.57551622,-2.7913716,3.5750651,0.92863619,-0.055162549,0.36686751,0
1.5231285,1.0217144,-4.3888736,0.36993754,0.21217051,-0.90450513,0
-3.0134425,2.2728772,3.345644,-0.30276614,0.45880035,0.83536512,0
-0.98339581,2.327877,-2.612308,-0.92863619,0.055162549,-0.36686751,0
