-4.3106403,1.6358389,2.4787483,-0.598014,-0.75610137,0.26587468,0
-2.8093886,-0.78287697,-4.2209415,-0.42436475,0.017289817,-0.90532607,0
-4.2483625,2.6884708,0.11197281,-0.78537476,0.61898935,-0.0061919689,0
-4.3785424,0.58303404,-0.66797566,-0.598014,-0.75610137,0.26587468,0
-0.4240818,1.803914,-3.346179,0.598014,0.75610137,-0.26587468,0
2.211164,-1.7464155,4.2841597,0.57824624,-0.17731383,0.79636079,0
-4.2662773,0.24610925,-1.3736209,-0.598014,-0.75610137,0.26587468,0
-2.7189255,0.53347957,2.9239664,-0.598014,-0.75610137,0.26587468,0
-0.69931185,-1.1585237,2.6547821,-0.598014,-0.75610137,0.26587468,0
-4.6082168,2.1448407,-0.44339776,-0.80010599,0.58263397,-0.14271438,0
1.354497,-2.2439747,4.1874428,-0.598014,-0.75610137,0.26587468,0
-0.93253613,1.458086,-5.0570693,-0.41247749,0.0059109032,-0.9109484,0
3.6842275,-2.6521997,-2.24105,0.64191359,-0.65046734,-0.40600371,0
-0.92653751,3.0864286,-0.82906771,0.598014,0.75610137,-0.26587468,0
-4.3180661,2.4682236,-0.73097396,-0.80121768,0.57253468,-0.17393547,0
3.153255,0.64030051,1.39097,0.598014,0.75610137,-0.26587468,0
-1.9239656,0.84972429,4.8824916,-0.16876516,0.44308075,0.88045317,0
-3.2210412,3.6479585,-1.7276697,-0.79865652,0.53431439,-0.27686679,0
3.8730783,-2.9561501,-1.1910405,0.72705293,-0.65136623,-0.21706182,0
-2.5341949,3.8160224,-2.3702254,0.598014,0.75610137,-0.26587468,0
1.0891188,0.86739242,-2.6059427,0.598014,0.75610137,-0.26587468,0
-3.7588673,0.49197459,0.46686065,-0.598014,-0.75610137,0.26587468,0
0.16469848,3.6568561,3.2475741,0.598014,0.75610137,-0.26587468,0
4.7848783,-1.3193169,-0.51194143,0.598014,0.75610137,-0.26587468,0
0.67700982,-3.2355978,-3.8846054,0.25605267,-0.49457431,-0.830562,0
4.506907,-1.2935643,2.0890262,0.76243776,-0.43438688,0.47957906,0
4.9827452,-1.6276617,0.43602705,0.80122018,-0.57249713,0.17404783,0
1.4357296,-3.1859126,-3.62394,0.35732573,-0.54845041,-0.75598967,0
-1.7487888,2.3922291,-4.4758339,-0.58333969,0.18311571,-0.79131728,0
3.284296,0.29379153,0.70030069,0.598014,0.75610137,-0.26587468,0
-2.3457427,1.4323021,-4.2549338,-0.56620109,0.16375142,-0.80783737,0
0.70279503,-0.84037006,-5.0043993,0.0071516633,-0.33674803,-0.9415676,0
-4.2420216,1.6396742,2.6439943,-0.598014,-0.75610137,0.26587468,0
-1.2236944,4.3129454,1.9905617,0.598014,0.75610137,-0.26587468,0
-2.1372025,3.7382026,-1.6986029,0.598014,0.75610137,-0.26587468,0
-0.77500188,-1.3865196,1.8361571,-0.598014,-0.75610137,0.26587468,0
-2.7930737,3.7227395,-2.5881073,-0.7777971,0.46742392,-0.42017394,0
-3.5791817,2.0390208,-2.8383384,-0.73448801,0.38422152,-0.55937511,0
1.3889215,-3.2897274,-3.5705841,0.36239684,-0.55096519,-0.75173521,0
-0.09660244,-2.544209,0.069765568,-0.598014,-0.75610137,0.26587468,0
3.8633702,0.31227517,2.0553398,0.598014,0.75610137,-0.26587468,0
-1.6503088,-1.5988991,-0.73658395,-0.598014,-0.75610137,0.26587468,0
3.6705031,-3.1197641,1.4476092,0.79973,-0.54097378,0.26034307,0
1.8995372,0.074452162,-3.0381086,0.598014,0.75610137,-0.26587468,0
4.6783257,-2.0765181,0.32350826,0.79912251,-0.58794177,0.12540793,0
2.030009,0.12186027,-2.6098263,0.598014,0.75610137,-0.26587468,0
-3.4351709,0.88960791,2.3257303,-0.598014,-0.75610137,0.26587468,0
-1.5957001,4.352448,1.266171,0.598014,0.75610137,-0.26587468,0
-0.55249405,2.3520303,-2.0762582,0.598014,0.75610137,-0.26587468,0
2.3719041,-3.8609562,-2.2936828,0.58094835,-0.63745224,-0.50611603,0
0.86658382,-4.1943655,-2.4565644,-0.598014,-0.75610137,0.26587468,0
1.6860735,2.5217111,3.4413447,0.598014,0.75610137,-0.26587468,0
1.1353149,-1.2235184,4.9667506,0.41444504,-0.0077863038,0.9100408,0
3.9680276,-0.48276973,0.029765606,0.598014,0.75610137,-0.26587468,0
1.0734473,-3.997679,-1.4319377,-0.598014,-0.75610137,0.26587468,0
2.6642766,-1.4009905,-4.3338528,0.3311756,-0.53519267,-0.77710462,0
0.80029106,-3.0504327,0.6474762,-0.598014,-0.75610137,0.26587468,0
-2.3496933,4.7378783,0.66636133,0.598014,0.75610137,-0.26587468,0
0.30254078,3.6289704,3.4783132,0.598014,0.75610137,-0.26587468,0
5.1711068,-1.4668303,0.038178205,0.79822457,-0.59174967,0.11255896,0
3.0699706,0.18262362,-0.097909451,0.598014,0.75610137,-0.26587468,0
-0.7455008,2.1703279,-3.0271068,0.598014,0.75610137,-0.26587468,0
3.216723,-0.83028078,-2.6483555,0.598014,0.75610137,-0.26587468,0
-2.4061193,3.0608344,-3.6383524,-0.70162255,0.333505,-0.62968206,0
-2.1367817,2.6098959,-4.1001368,-0.64092427,0.25195354,-0.72507578,0
0.82940531,-2.9606833,0.96819186,-0.598014,-0.75610137,0.26587468,0
-2.6400914,4.6441584,-0.25333595,0.598014,0.75610137,-0.26587468,0
3.2191107,0.48817992,1.1064907,0.598014,0.75610137,-0.26587468,0
-0.80246735,2.4993298,-2.2196131,0.598014,0.75610137,-0.26587468,0
3.0137653,-0.5594486,3.9636018,0.56382787,-0.16110487,0.81002629,0
4.4235654,-0.33049083,1.4874321,0.598014,0.75610137,-0.26587468,0
0.038648546,-3.6736627,-2.8379941,-0.598014,-0.75610137,0.26587468,0
-4.4479046,0.80648208,-0.18853903,-0.598014,-0.75610137,0.26587468,0
1.4968791,-2.9621861,-3.7556019,0.34076318,-0.54010898,-0.76952106,0
-0.90780711,-1.4075484,1.4776447,-0.598014,-0.75610137,0.26587468,0
1.1010298,1.2548862,-1.4771872,0.598014,0.75610137,-0.26587468,0
5.0075507,-1.6295459,0.30703235,0.80047548,-0.58008802,0.15078562,0
3.5915797,-3.2976809,1.3060813,0.80117911,-0.55476749,0.22437555,0
-1.7959292,-0.076325417,3.26582,-0.598014,-0.75610137,0.26587468,0
3.0331407,0.9147501,1.901293,0.598014,0.75610137,-0.26587468,0
-0.33744264,1.9214017,-2.8171916,0.598014,0.75610137,-0.26587468,0
-0.39025903,3.3672562,3.8913443,-0.23090404,0.48019201,0.84622633,0
-2.1759725,-1.4822605,-1.5872245,-0.598014,-0.75610137,0.26587468,0
-0.30651581,-2.1087482,0.83599758,-0.598014,-0.75610137,0.26587468,0
-3.0816183,-0.23909855,-4.0430741,-0.50285852,0.095640466,-0.859061,0
-1.377126,-2.2870591,-4.4444213,-0.11143404,-0.2500689,-0.96179414,0
0.51074386,1.2856066,4.8048258,0.10214883,0.25712132,0.96096516,0
-1.0811043,3.2896335,-0.59884524,0.598014,0.75610137,-0.26587468,0
-1.9673257,-1.5300822,-4.4823871,-0.2569226,-0.13337824,-0.95718372,0
-4.8597827,1.7769883,1.4047859,-0.7403897,0.64818013,0.17800343,0
1.1079085,-3.5421476,-0.058972359,-0.598014,-0.75610137,0.26587468,0
-2.0799751,2.4234741,-4.2090931,-0.62023222,0.22646648,-0.75101554,0
-0.55651283,1.5972162,-4.2318592,0.598014,0.75610137,-0.26587468,0
1.4363863,0.23665643,-3.6185622,0.598014,0.75610137,-0.26587468,0
4.4520845,-0.21905422,1.8684838,0.598014,0.75610137,-0.26587468,0
4.5443401,-1.203583,-0.72384191,0.598014,0.75610137,-0.26587468,0
1.6288213,2.0557592,1.9874856,0.598014,0.75610137,-0.26587468,0
0.24255633,-2.8248954,0.034389973,-0.598014,-0.75610137,0.26587468,0
-3.4423728,1.4410298,3.8776815,-0.598014,-0.75610137,0.26587468,0
-4.5226536,1.605824,1.9165242,-0.598014,-0.75610137,0.26587468,0
-1.422611,-2.491998,-2.7642581,-0.598014,-0.75610137,0.26587468,0
4.9338832,-1.4096298,-0.43362975,0.598014,0.75610137,-0.26587468,0
1.7859209,-2.8958163,-3.6669087,0.37471652,-0.55699623,-0.74117649,0
3.9387684,-0.72471261,-0.72408855,0.598014,0.75610137,-0.26587468,0
2.8619986,0.43623281,0.15553463,0.598014,0.75610137,-0.26587468,0
-0.62493849,1.4622627,-4.7695489,0.598014,0.75610137,-0.26587468,0
-0.85614848,-1.1161854,2.4224238,-0.598014,-0.75610137,0.26587468,0
3.8454714,-3.1836758,0.34021091,0.7927745,-0.60679507,0.057514071,0
-0.15002668,3.8664939,3.1358581,0.598014,0.75610137,-0.26587468,0
2.1195107,1.3627844,4.4595423,0.29087722,0.10436642,0.95105088,0
0.95913243,1.1381849,-2.1282256,0.598014,0.75610137,-0.26587468,0
4.9533958,-0.90632558,1.0415688,0.598014,0.75610137,-0.26587468,0
-0.065027952,-3.693526,-3.1276751,-0.598014,-0.75610137,0.26587468,0
3.2830157,-2.4201612,-3.0417476,0.54392225,-0.62650073,-0.5582521,0
2.6620977,-4.4346104,0.89874887,-0.598014,-0.75610137,0.26587468,0
0.3159399,-1.7651039,3.2133117,-0.598014,-0.75610137,0.26587468,0
-4.5043321,1.8413569,2.2113328,-0.67489618,0.65397775,0.34180117,0
2.6709247,0.26035905,-0.77439153,0.598014,0.75610137,-0.26587468,0
-0.074398875,2.5482302,-0.44295311,0.598014,0.75610137,-0.26587468,0
-3.9999194,1.479319,-2.6701775,-0.73258054,0.38108552,-0.56400275,0
3.6183619,-3.4380484,0.68473959,0.79755545,-0.59419519,0.10409975,0
-1.4935738,2.1788306,4.262104,-0.25339171,0.49307048,0.83227038,0
-1.130878,0.083881259,5.2172747,-0.598014,-0.75610137,0.26587468,0
2.505898,0.71374679,0.14378262,0.598014,0.75610137,-0.26587468,0
0.48490059,-3.4884324,-1.307507,-0.598014,-0.75610137,0.26587468,0
1.1144488,-4.0420256,-3.136915,0.40895587,-0.57315159,-0.71010727,0
4.4102812,-2.4451485,-0.73371959,0.76440203,-0.63778615,-0.094435334,0
4.1158161,0.067622662,1.9273981,0.598014,0.75610137,-0.26587468,0
3.1320276,-4.0969424,0.20567799,0.77942455,-0.62591827,-0.026896,0
-0.80013341,-1.4719176,1.536773,-0.598014,-0.75610137,0.26587468,0
1.7199028,-3.4138505,1.6823988,-0.598014,-0.75610137,0.26587468,0
3.6426883,-1.369694,-3.2242579,0.598014,0.75610137,-0.26587468,0
-1.7051239,3.4813759,-1.4571259,0.598014,0.75610137,-0.26587468,0
1.2091775,-2.0943635,4.2860532,-0.598014,-0.75610137,0.26587468,0
-0.49301124,-1.9623728,0.83279181,-0.598014,-0.75610137,0.26587468,0
-3.3459592,-0.89780545,-2.5567079,-0.598014,-0.75610137,0.26587468,0
-2.4465499,-2.1771688,-4.1720161,-0.598014,-0.75610137,0.26587468,0
1.1132035,-3.5569246,-0.089086771,-0.598014,-0.75610137,0.26587468,0
2.3711405,2.2345278,4.1655226,0.598014,0.75610137,-0.26587468,0
1.3751521,-3.1537535,1.6466458,-0.598014,-0.75610137,0.26587468,0
3.5707555,-0.3034544,-0.35384893,0.598014,0.75610137,-0.26587468,0
-2.5625725,4.1808028,1.5584176,-0.65774977,0.6525315,0.37625456,0
-0.20590627,-3.3342745,-2.4228935,-0.598014,-0.75610137,0.26587468,0
-5.1250067,1.0386801,-1.2169809,-0.79106838,0.50350994,-0.34740186,0
-0.30549908,1.0744073,-5.1540489,0.598014,0.75610137,-0.26587468,0
-1.0064348,-2.9229796,-3.053818,-0.598014,-0.75610137,0.26587468,0
4.1734648,-1.9023609,-2.6603572,0.62362581,-0.64733583,-0.43823177,0
1.5027524,0.15845454,-3.6916819,0.598014,0.75610137,-0.26587468,0
2.9271078,-1.1818428,-4.2995491,0.598014,0.75610137,-0.26587468,0
-4.2783899,0.35093951,-1.102747,-0.598014,-0.75610137,0.26587468,0
3.9795101,-0.058990479,1.2607483,0.598014,0.75610137,-0.26587468,0
-1.421912,-1.421885,0.28053188,-0.598014,-0.75610137,0.26587468,0
1.6813731,-1.7890756,4.6331,0.52513504,-0.11902882,0.84265357,0
0.56428623,-3.8153071,-2.0585253,-0.598014,-0.75610137,0.26587468,0
1.8218722,-1.3674681,4.6016054,0.50405729,-0.096884906,0.85821849,0
-2.6883576,4.6519465,-0.33974886,0.598014,0.75610137,-0.26587468,0
-2.3222024,4.3427601,-0.39545345,0.598014,0.75610137,-0.26587468,0
1.8729788,-4.4988093,-1.0587332,-0.598014,-0.75610137,0.26587468,0
1.353582,-1.6362658,-4.5957775,0.17573047,-0.44734907,-0.87692505,0
-2.0763664,-1.1388209,-0.38650313,-0.598014,-0.75610137,0.26587468,0
1.6362088,2.6932216,3.8169341,0.598014,0.75610137,-0.26587468,0
1.6642208,-3.1399722,2.3360188,-0.598014,-0.75610137,0.26587468,0
-2.7294717,3.3075304,2.5775588,-0.56781262,0.63379353,0.52525645,0
-3.3724937,1.5246264,3.8563416,-0.44852954,0.59063029,0.67080331,0
-4.8409581,1.7125661,-0.76401186,-0.80111176,0.5537613,-0.22708547,0
-0.65072751,-0.82527578,3.7117603,-0.598014,-0.75610137,0.26587468,0
2.5262859,-3.2971299,-2.7935917,0.53389788,-0.62321383,-0.57145196,0
0.078183651,0.97754771,4.9309273,0.078443587,0.27491957,0.95826185,0
-0.96474123,0.7172215,-5.0247684,-0.34859008,-0.053342015,-0.93575597,0
2.9514489,0.95288396,4.1575942,0.42522746,-0.018120289,0.90490484,0
-4.4916682,1.3940294,1.3839087,-0.598014,-0.75610137,0.26587468,0
4.7448206,-1.6131209,-1.4375703,0.598014,0.75610137,-0.26587468,0
0.60108697,1.7373016,-1.2297683,0.598014,0.75610137,-0.26587468,0
-2.8399596,0.55140018,-4.0827637,-0.5445596,0.13990685,-0.82697064,0
-1.0620244,-0.75286198,2.992589,-0.598014,-0.75610137,0.26587468,0
-2.5681691,-0.89298725,-0.79357398,-0.598014,-0.75610137,0.26587468,0
-0.43363404,-1.70657,1.693805,-0.598014,-0.75610137,0.26587468,0
3.1857581,-0.85676265,-2.7933121,0.598014,0.75610137,-0.26587468,0
2.8987751,-2.2907619,3.494267,0.690696,-0.31788379,0.64952946,0
3.0378392,0.7125988,1.3369772,0.598014,0.75610137,-0.26587468,0
-3.8770063,-0.056251764,-1.3579227,-0.598014,-0.75610137,0.26587468,0
-0.14360285,-3.7778108,-3.8,0.20234752,-0.4634102,-0.86273193,0
0.46944028,3.0547233,2.2206478,0.598014,0.75610137,-0.26587468,0
0.98092055,3.2815342,4.1398964,-0.039084733,0.35884365,0.93257892,0
-3.0274506,-0.95746446,-2.0099664,-0.598014,-0.75610137,0.26587468,0
0.57303751,-3.1509848,-0.14962411,-0.598014,-0.75610137,0.26587468,0
-0.12118351,2.7319269,-0.025780916,0.598014,0.75610137,-0.26587468,0
2.0865309,0.73719192,-0.7327987,0.598014,0.75610137,-0.26587468,0
3.9557309,-2.6450469,-1.7447183,0.69193149,-0.65445191,-0.30483317,0
3.0511708,1.6367764,3.9951658,0.598014,0.75610137,-0.26587468,0
4.3933659,-1.0062885,-0.50234652,0.598014,0.75610137,-0.26587468,0
2.8475831,-0.3912344,-2.2300644,0.598014,0.75610137,-0.26587468,0
-3.2187934,1.4690673,4.0009518,-0.41915995,0.57778573,0.70033467,0
3.7920046,-2.0054605,2.5697186,0.75025398,-0.41139281,0.51756573,0
-3.0650764,0.056379557,0.78860164,-0.598014,-0.75610137,0.26587468,0
-2.0387406,3.7297156,-1.5012743,0.598014,0.75610137,-0.26587468,0
-3.4823301,3.5846052,-0.87405372,-0.79935241,0.58683646,-0.12906802,0
-2.9439316,0.45658517,2.1992011,-0.598014,-0.75610137,0.26587468,0
3.3864861,-3.3824472,1.7578688,0.79686195,-0.52531755,0.29841578,0
4.3257575,-1.1503942,-1.0642247,0.598014,0.75610137,-0.26587468,0
-3.5794184,-0.025420189,-0.60089743,-0.598014,-0.75610137,0.26587468,0
2.8679156,-1.1294974,-4.2838249,0.598014,0.75610137,-0.26587468,0
0.8903861,0.5240351,4.9065099,0.22302753,0.16164005,0.96131736,0
-0.15620732,-1.3769113,3.2552948,-0.598014,-0.75610137,0.26587468,0
4.1117315,-2.5264823,-1.6365273,0.7046923,-0.65405297,-0.27499682,0
-4.7029557,1.8727454,-0.85964513,-0.80090821,0.55115777,-0.2340315,0
2.4452477,-2.3976872,3.8981633,0.6549418,-0.26979101,0.70587772,0
-4.8938303,1.6813879,1.2965498,-0.598014,-0.75610137,0.26587468,0
-0.1833179,1.0088803,4.9379907,0.042238116,0.30153567,0.95251876,0
-1.7995028,0.71915972,-4.6631608,-0.44451308,0.036851794,-0.89501375,0
0.48486924,-2.6868467,0.97199392,-0.598014,-0.75610137,0.26587468,0
1.6605666,-0.57708532,-5.0516076,0.10489172,-0.40270561,-0.90929967,0
-1.6599331,-0.025969625,3.71491,-0.598014,-0.75610137,0.26587468,0
4.8825588,-1.7236978,-1.442225,0.598014,0.75610137,-0.26587468,0
0.12031889,-2.6327903,0.30576265,-0.598014,-0.75610137,0.26587468,0
2.770468,0.19936728,-0.72394478,0.598014,0.75610137,-0.26587468,0
1.6977925,-2.7271671,3.5854788,-0.598014,-0.75610137,0.26587468,0
2.1854529,-3.8682749,1.4372237,-0.598014,-0.75610137,0.26587468,0
-4.4647551,2.0997427,1.7461679,-0.70796967,0.65383029,0.26699162,0
1.1537523,-2.5711899,2.805378,-0.598014,-0.75610137,0.26587468,0
-1.7259469,3.1926312,-2.3251052,0.598014,0.75610137,-0.26587468,0
0.2376247,-3.9747593,-3.2467175,-0.598014,-0.75610137,0.26587468,0
4.9506426,-1.6674062,0.45306921,0.80123204,-0.57231355,0.17459667,0
-0.93300581,2.526705,-2.4353747,0.598014,0.75610137,-0.26587468,0
2.6464543,-2.964273,3.4152465,0.7166729,-0.35593736,0.59973991,0
-1.5886806,3.003608,3.6838937,-0.3585836,0.54907596,0.75493932,0
-3.5421786,-0.65244269,-2.3002815,-0.598014,-0.75610137,0.26587468,0
-3.2948904,1.7313211,-3.3463969,-0.68629366,0.31172764,-0.65713489,0
1.5714669,-2.5198412,3.8909419,-0.598014,-0.75610137,0.26587468,0
2.3343577,-4.4944363,-0.0085449219,-0.598014,-0.75610137,0.26587468,0
2.6180711,-1.9706534,3.896744,0.63848269,-0.24889624,0.72827876,0
-1.2784607,4.1439357,1.3867431,0.598014,0.75610137,-0.26587468,0
-2.8668447,3.9279735,-2.1703854,-0.79255122,0.50847071,-0.33662957,0
-1.024195,3.0892828,-1.0406055,0.598014,0.75610137,-0.26587468,0
-3.4489017,2.6062984,-2.5818191,-0.76089323,0.43134785,-0.48474729,0
2.1387465,0.76874137,-0.5256325,0.598014,0.75610137,-0.26587468,0
-0.30235672,-0.7234717,-4.9737997,-0.13158429,-0.23460621,-0.96314347,0
4.4639187,0.06832695,2.7123661,0.598014,0.75610137,-0.26587468,0
-0.031568766,2.1929569,-1.3569535,0.598014,0.75610137,-0.26587468,0
-2.4986148,4.0555964,-1.6088903,0.598014,0.75610137,-0.26587468,0
-0.61056137,2.4526463,-1.9207319,0.598014,0.75610137,-0.26587468,0
4.173985,-1.3565938,-1.9919926,0.598014,0.75610137,-0.26587468,0
2.0229349,-4.5100245,-0.75334024,-0.598014,-0.75610137,0.26587468,0
-3.071352,2.6634226,-3.0761917,-0.73327386,0.38222224,-0.56232995,0
0.2850399,0.014402507,5.1300163,0.19844955,0.18171266,0.96311891,0
2.9564843,-0.7448864,-2.9908454,0.598014,0.75610137,-0.26587468,0
-1.2292316,-2.1613665,-4.4940853,-0.1053791,-0.25467297,-0.96126825,0
-2.1390252,4.4956427,1.7245975,-0.62652159,0.64788073,0.43326795,0
0.28757861,2.5380268,0.34220266,0.598014,0.75610137,-0.26587468,0
-0.94714785,3.2256103,-0.4796164,0.598014,0.75610137,-0.26587468,0
-2.5956597,4.2505631,-1.2727127,0.598014,0.75610137,-0.26587468,0
1.336216,0.83003163,-2.1564121,0.598014,0.75610137,-0.26587468,0
2.7858591,0.69396853,0.71723473,0.598014,0.75610137,-0.26587468,0
-1.13519,-3.1917479,-4.1077485,-0.598014,-0.75610137,0.26587468,0
-1.4933801,3.0428166,-2.228054,0.598014,0.75610137,-0.26587468,0
3.2752979,-3.8707228,-0.28951454,0.76162702,-0.63940555,-0.10528243,0
0.64544034,-2.9855819,0.48360586,-0.598014,-0.75610137,0.26587468,0
-3.9998989,-0.64431691,-3.5164826,-0.5674454,0.1651424,-0.80668044,0
-0.87954426,3.2993164,-0.11795235,0.598014,0.75610137,-0.26587468,0
-0.82659388,3.508445,0.59587193,0.598014,0.75610137,-0.26587468,0
-4.0344257,0.92766738,-2.9530454,-0.69612175,0.32557753,-0.63985401,0
-3.3889129,-0.49430776,-1.5058432,-0.598014,-0.75610137,0.26587468,0
4.7729325,-0.53640676,1.6876498,0.598014,0.75610137,-0.26587468,0
2.5798278,-0.99873078,-4.5599236,0.598014,0.75610137,-0.26587468,0
0.61461234,0.69677293,-4.1584315,0.598014,0.75610137,-0.26587468,0
0.24218243,-3.9476671,-3.1594219,-0.598014,-0.75610137,0.26587468,0
-3.0585644,4.1243334,-1.0442848,-0.79913044,0.58790445,-0.12553185,0
-0.59584033,3.495616,3.7532291,-0.27331603,0.50422561,0.81917936,0
0.7567156,-3.6826715,-3.5741215,0.31659591,-0.52759635,-0.78829503,0
-3.2332916,-1.403208,-3.7405698,-0.598014,-0.75610137,0.26587468,0
5.0743513,-1.5955534,0.046514511,0.79769957,-0.59369141,0.10585618,0
-4.2417259,1.0860782,1.0703273,-0.598014,-0.75610137,0.26587468,0
0.7740562,2.9841282,2.7050405,0.598014,0.75610137,-0.26587468,0
2.9044466,0.57885432,4.1673379,0.45332283,-0.045518219,0.89018309,0
3.9797072,0.099993229,1.7133133,0.598014,0.75610137,-0.26587468,0
1.1760035,2.7211375,4.3356681,0.042881846,0.30106828,0.95263779,0
1.7162517,-1.0627531,-4.8149729,0.16349062,-0.43983066,-0.88307405,0
-2.9858942,4.2814775,-0.56520033,-0.78877032,0.61405599,-0.027859211,0
2.6720228,-4.4477744,0.88363838,-0.598014,-0.75610137,0.26587468,0
-3.5709906,-0.73533225,-2.6008091,-0.598014,-0.75610137,0.26587468,0
4.0417786,-2.5837262,-1.6780369,0.69956154,-0.6542995,-0.28723788,0
0.36499566,2.1761351,-0.51282573,0.598014,0.75610137,-0.26587468,0
3.9396074,-3.0768747,0.11099577,0.78792167,-0.61537492,0.022199094,0
1.5067261,1.8319523,1.076396,0.598014,0.75610137,-0.26587468,0
3.5400965,-3.4256909,1.1587286,0.80145526,-0.56700182,0.19020438,0
0.520895,-1.9897037,3.0355794,-0.598014,-0.75610137,0.26587468,0
1.8431978,-0.46108639,-4.6878085,0.598014,0.75610137,-0.26587468,0
4.6287613,-1.9295633,0.97619152,0.80022025,-0.54462951,0.2510494,0
1.7009044,0.19341135,-3.1465805,0.598014,0.75610137,-0.26587468,0
-0.42292118,-0.52967542,5.064785,-0.598014,-0.75610137,0.26587468,0
0.98059142,-3.3701324,0.14384198,-0.598014,-0.75610137,0.26587468,0
-3.5067811,3.1219451,1.7304997,-0.67783123,0.6541329,0.33564079,0
3.7288833,0.14150071,3.602412,0.58082962,-0.18025142,0.79381722,0
-0.36326814,2.341197,-1.6814533,0.598014,0.75610137,-0.26587468,0
-0.83536494,-1.677143,0.87390298,-0.598014,-0.75610137,0.26587468,0
-4.3094625,2.2314587,1.8282444,-0.69731975,0.65436989,0.29248053,0
0.46163559,2.0310874,4.5840182,0.021402717,0.31654394,0.94833636,0
-0.012329243,3.216994,1.598506,0.598014,0.75610137,-0.26587468,0
1.5381384,-4.5550404,-1.9717803,-0.598014,-0.75610137,0.26587468,0
2.2368374,-3.5159509,2.5547509,-0.598014,-0.75610137,0.26587468,0
-2.3824306,4.4415064,1.4204524,-0.66256911,0.65302646,0.36682224,0
-0.51888537,-2.9527683,-2.0419183,-0.598014,-0.75610137,0.26587468,0
-1.0185821,-1.3605568,1.3621211,-0.598014,-0.75610137,0.26587468,0
1.5797877,-3.0162981,2.4978194,-0.598014,-0.75610137,0.26587468,0
-1.5367966,0.28104484,4.8649688,-0.598014,-0.75610137,0.26587468,0
1.6485,-2.7075031,3.530529,-0.598014,-0.75610137,0.26587468,0
0.52397633,0.45468098,-5.0507603,0.598014,0.75610137,-0.26587468,0
3.7307792,-0.45120358,-0.41409254,0.598014,0.75610137,-0.26587468,0
3.735558,-1.3501769,-2.9598691,0.598014,0.75610137,-0.26587468,0
-1.3917022,3.7529283,0.020078421,0.598014,0.75610137,-0.26587468,0
0.92875147,1.9217373,0.031729102,0.598014,0.75610137,-0.26587468,0
-0.87525058,-2.1900222,-4.516119,-0.058010399,-0.2900247,-0.95525932,0
0.86771166,3.1073585,3.266139,0.598014,0.75610137,-0.26587468,0
-4.5844965,1.4392723,-1.812037,-0.77677459,0.46502161,-0.42470616,0
3.0921054,-4.1445489,0.16730213,0.77738023,-0.62792897,-0.037212193,0
1.2139833,-2.9751508,-3.8628032,0.30218142,-0.51994687,-0.79896289,0
0.92294121,3.2820103,3.8870444,0.598014,0.75610137,-0.26587468,0
0.43037474,-3.0927944,-4.033237,0.20672566,-0.46601358,-0.86028814,0
2.5279157,-0.3010664,-2.6926486,0.598014,0.75610137,-0.26587468,0
-2.2746487,3.3307769,-3.1663995,0.598014,0.75610137,-0.26587468,0
0.14368948,2.8225636,0.82773519,0.598014,0.75610137,-0.26587468,0
-1.7219422,3.2587674,3.4192257,-0.4071953,0.57234341,0.71176887,0
-2.0101013,4.2681117,0.094246864,0.598014,0.75610137,-0.26587468,0
0.2109524,-3.5421939,-3.8408442,0.22529328,-0.47693205,-0.84957558,0
3.2074299,-3.01983,2.5890164,0.76749516,-0.44464564,0.46178007,0
0.17669797,-1.6678724,3.1766329,-0.598014,-0.75610137,0.26587468,0
-1.324445,-2.2629001,-1.8919452,-0.598014,-0.75610137,0.26587468,0
-4.5549564,2.2826529,0.63523555,-0.77142632,0.63299012,0.064997077,0
0.88079214,-0.15768856,-5.2383394,-0.039155304,-0.30377048,-0.9519403,0
5.142889,-1.482425,0.14768744,0.79949182,-0.58613092,0.13138831,0
-0.75616455,2.1377406,-3.143765,0.598014,0.75610137,-0.26587468,0
1.5048786,0.6474334,-2.2963274,0.598014,0.75610137,-0.26587468,0
-1.2828628,1.842864,4.5038223,-0.18825194,0.45495436,0.87038946,0
0.62338853,-2.7179341,1.1951494,-0.598014,-0.75610137,0.26587468,0
1.7024775,-2.9510486,2.9593349,-0.598014,-0.75610137,0.26587468,0
-0.88296163,-2.6526477,-2.0073199,-0.598014,-0.75610137,0.26587468,0
-3.3392143,3.4494665,-1.7660534,-0.79710943,0.52645445,-0.29573923,0
-3.4849172,0.049855947,-0.17426991,-0.598014,-0.75610137,0.26587468,0
-0.43282631,-2.4653935,-0.4623419,-0.598014,-0.75610137,0.26587468,0
2.3872128,-3.4547775,3.066946,-0.598014,-0.75610137,0.26587468,0
-2.3978243,2.2237566,-4.0032754,-0.63646257,0.2463771,-0.73089892,0
-1.0018835,2.9741452,-1.317853,0.598014,0.75610137,-0.26587468,0
-3.5501471,2.4363711,2.734292,-0.58948511,0.63968515,0.49326485,0
1.6512709,-3.1659541,2.2330046,-0.598014,-0.75610137,0.26587468,0
3.1383386,-3.8545914,-0.95295143,0.7214753,-0.65231216,-0.23229682,0
-1.5644231,-0.7708602,1.811394,-0.598014,-0.75610137,0.26587468,0
-2.90098,-0.69583678,-0.98148143,-0.598014,-0.75610137,0.26587468,0
-2.9878817,1.6005855,4.028038,-0.40052554,0.56925911,0.71799958,0
-2.7713394,1.5664806,-3.8965232,-0.62161684,0.22814313,-0.74936152,0
3.3331163,-0.54058981,-1.5627279,0.598014,0.75610137,-0.26587468,0
4.3530698,-2.545794,0.070037842,0.79171252,-0.60891837,0.049086928,0
4.0533571,-0.58781314,-0.077032804,0.598014,0.75610137,-0.26587468,0
-3.8745956,2.6715345,-1.6952865,-0.79329288,0.51107603,-0.33088845,0
0.97653151,-0.78132921,5.0237579,0.35587007,0.046743602,0.93336558,0
-0.71358252,-1.7696923,0.88462609,-0.598014,-0.75610137,0.26587468,0
-4.162097,0.42151809,-0.64046216,-0.598014,-0.75610137,0.26587468,0
1.3302784,-1.0475438,4.87923,0.42079639,-0.013861746,0.907049,0
0.86607337,1.7392579,-0.62818825,0.598014,0.75610137,-0.26587468,0
-2.5228014,1.8267909,-4.0231943,-0.61725438,0.22287327,-0.75453579,0
2.7907398,-2.5142608,-3.3659387,0.47887725,-0.60307837,-0.63794434,0
0.852777,-2.9607353,1.0206118,-0.598014,-0.75610137,0.26587468,0
1.3521571,0.78778005,-2.2407119,0.598014,0.75610137,-0.26587468,0
-2.9745269,3.8953521,-1.9549508,-0.79658508,0.52407587,-0.30132407,0
0.14402223,-0.81644094,-4.9947534,-0.066494226,-0.28377953,-0.95658123,0
-4.1123085,0.5302,-0.21940446,-0.598014,-0.75610137,0.26587468,0
-0.73326659,3.6297545,1.1507704,0.598014,0.75610137,-0.26587468,0
4.2730656,-0.43219471,0.85969305,0.598014,0.75610137,-0.26587468,0
2.6361947,-4.6718507,0.16581869,-0.598014,-0.75610137,0.26587468,0
1.0823872,2.8696585,3.0730162,0.598014,0.75610137,-0.26587468,0
-3.2306771,1.880805,-3.3419509,-0.69142056,0.31890458,-0.64825666,0
-2.2572532,3.773289,-1.8688452,0.598014,0.75610137,-0.26587468,0
2.9073925,-2.3367844,3.4621515,0.69494373,-0.32389671,0.64198422,0
1.3433177,1.509413,-0.20839354,0.598014,0.75610137,-0.26587468,0
1.5767521,2.0961635,1.9852716,0.598014,0.75610137,-0.26587468,0
-1.5888302,-2.1653204,-2.2091081,-0.598014,-0.75610137,0.26587468,0
-1.3513832,-1.6352372,-0.16756952,-0.598014,-0.75610137,0.26587468,0
3.1288757,0.054007769,-0.33117914,0.598014,0.75610137,-0.26587468,0
3.3222492,-3.8453875,0.57100201,0.79273188,-0.60688353,0.057166696,0
-1.2087814,3.836741,0.66985917,0.598014,0.75610137,-0.26587468,0
-1.2205729,-0.50552309,-4.8253298,-0.26454097,-0.12693098,-0.95598435,0
2.4353604,0.83880758,0.34077835,0.598014,0.75610137,-0.26587468,0
-0.8126123,-2.7398949,-2.097203,-0.598014,-0.75610137,0.26587468,0
-0.0087132454,-1.2815943,-4.8431058,-0.039230108,-0.30371627,-0.95195448,0
-2.7749741,0.72833765,3.3520417,-0.598014,-0.75610137,0.26587468,0
1.2264314,-4.2736096,-1.8725393,-0.598014,-0.75610137,0.26587468,0
0.25208199,1.8536024,-1.6840222,0.598014,0.75610137,-0.26587468,0
-0.86760426,2.5995531,-2.0811017,0.598014,0.75610137,-0.26587468,0
-0.46099901,-3.5240121,-3.9878492,0.13264477,-0.42051908,-0.89753491,0
-3.4032412,3.5443509,0.99955869,-0.72597134,0.65156579,0.2200622,0
-2.3103702,0.4052521,3.4782457,-0.598014,-0.75610137,0.26587468,0
-0.59389579,-1.3982528,2.2101393,-0.598014,-0.75610137,0.26587468,0
2.495069,1.1382008,4.3486443,0.35591042,0.046706885,0.93335187,0
-0.18614817,2.1989226,-1.6876724,0.598014,0.75610137,-0.26587468,0
-4.2094173,2.1244259,2.2453654,-0.66152298,0.6529246,0.36888558,0
-0.92550957,3.5503392,0.49252677,0.598014,0.75610137,-0.26587468,0
-4.1809282,0.94827056,0.8151741,-0.598014,-0.75610137,0.26587468,0
3.7426453,-3.2272844,-0.75975776,0.74852914,-0.64545691,-0.15195149,0
-3.0214825,0.18830895,1.2618392,-0.598014,-0.75610137,0.26587468,0
-4.1627769,2.2641418,2.0767443,-0.6735276,0.65389568,0.34464574,0
2.6573524,1.814101,4.2433329,0.31228811,0.085696191,0.94611406,0
2.7053399,1.286309,4.2604384,0.36672664,0.036832571,0.92959917,0
-1.9796021,-1.8142412,-2.0896368,-0.598014,-0.75610137,0.26587468,0
2.7750731,-3.3894651,2.9411695,0.75657284,-0.42305204,0.49862191,0
3.2558789,-1.1357598,3.6228354,0.63621455,-0.24606837,0.73121881,0
5.1314831,-1.5399609,-0.08239603,0.79591292,-0.59927869,0.085948467,0
-4.3809357,0.23416233,-1.6654892,-0.598014,-0.75610137,0.26587468,0
-3.7858934,1.658035,3.4039173,-0.52809262,0.62125289,0.5789327,0
4.1049242,-2.6086068,1.1721461,0.80055821,-0.5475477,0.24351078,0
4.2372847,-0.60517216,0.28729677,0.598014,0.75610137,-0.26587468,0
-1.918174,3.6077905,-1.5768273,0.598014,0.75610137,-0.26587468,0
4.7553978,-0.43017125,2.3960662,0.72604805,-0.37055352,0.5792613,0
-0.88244152,-0.80472136,3.2490344,-0.598014,-0.75610137,0.26587468,0
2.7583504,0.17204261,-0.82890713,0.598014,0.75610137,-0.26587468,0
-0.47823024,-1.9404637,0.92834359,-0.598014,-0.75610137,0.26587468,0
-3.9768872,-0.4938941,-2.8271575,-0.598014,-0.75610137,0.26587468,0
-1.1405401,3.8027148,3.3109221,-0.38513339,0.56200731,0.73199731,0
-2.3233051,-2.130604,-3.7623854,-0.598014,-0.75610137,0.26587468,0
-0.67784548,-3.3242655,-3.4559331,-0.598014,-0.75610137,0.26587468,0
1.2035332,-2.2340503,3.8761134,-0.598014,-0.75610137,0.26587468,0
-1.3803806,0.89518261,-4.8579373,-0.41277784,0.0061970949,-0.91081035,0
0.071287155,1.5549527,-2.9399803,0.598014,0.75610137,-0.26587468,0
3.4829741,0.14693928,0.72955084,0.598014,0.75610137,-0.26587468,0
-1.4937413,4.2156844,1.1065681,0.598014,0.75610137,-0.26587468,0
1.1168809,-2.780242,2.1279364,-0.598014,-0.75610137,0.26587468,0
1.2552722,-3.5455313,0.26285911,-0.598014,-0.75610137,0.26587468,0
3.9956474,-2.3777945,1.8415413,0.78693241,-0.49098036,0.37373108,0
-3.6414976,-0.48591614,-2.0500996,-0.598014,-0.75610137,0.26587468,0
-3.7403383,1.5522532,3.5237877,-0.598014,-0.75610137,0.26587468,0
-0.26516604,1.7176692,-3.234005,0.598014,0.75610137,-0.26587468,0
0.43439424,-2.814069,0.49666548,-0.598014,-0.75610137,0.26587468,0
3.3123822,0.63012004,1.7199333,0.598014,0.75610137,-0.26587468,0
3.7571397,-1.3800559,3.0230799,0.70363456,-0.33643875,0.62586457,0
-3.3085151,-0.85003138,-3.9724793,-0.47451651,0.066663742,-0.87771839,0
-1.3314098,-0.96854043,1.7733264,-0.598014,-0.75610137,0.26587468,0
4.2319207,-0.68088961,0.059904575,0.598014,0.75610137,-0.26587468,0
4.8263197,-1.3760624,1.406796,0.78924066,-0.4977684,0.35961854,0
1.2935135,-4.2440052,-1.6374664,-0.598014,-0.75610137,0.26587468,0
-1.7691693,0.43323743,4.7751179,-0.598014,-0.75610137,0.26587468,0
-4.3260951,2.5675383,-0.20525265,-0.79451281,0.60290515,-0.072486103,0
-4.869904,1.7648138,1.4070182,-0.74051809,0.64814222,0.17760694,0
1.4212818,-0.087632179,-4.5747566,0.598014,0.75610137,-0.26587468,0
1.5870771,-0.34989166,-4.9476647,0.598014,0.75610137,-0.26587468,0
1.7298689,0.28164089,-2.830523,0.598014,0.75610137,-0.26587468,0
1.5943918,2.1611373,2.2097216,0.598014,0.75610137,-0.26587468,0
0.89033175,0.11538136,-5.1916513,0.598014,0.75610137,-0.26587468,0
-1.0271903,-2.8746786,-2.9631412,-0.598014,-0.75610137,0.26587468,0
0.36426282,3.3780627,4.0419064,-0.13015565,0.41893825,0.89863795,0
3.2424021,-0.71419239,3.7598183,0.60071588,-0.20322981,0.77319956,0
-3.9313335,0.36471891,-0.28294969,-0.598014,-0.75610137,0.26587468,0
3.7134316,-2.2415884,-2.7917175,0.59102243,-0.64007455,-0.49091434,0
-3.7112617,1.2320684,2.6786361,-0.598014,-0.75610137,0.26587468,0
1.5000699,0.4380281,-2.9026561,0.598014,0.75610137,-0.26587468,0
3.4603124,-1.2876503,-3.4011464,0.598014,0.75610137,-0.26587468,0
3.6705663,0.76134801,2.8987637,0.598014,0.75610137,-0.26587468,0
1.2664711,2.465112,4.4068708,0.079921782,0.27381831,0.95845491,0
3.6873589,-0.96800804,3.2900553,0.66589689,-0.28409758,0.68983287,0
-1.4589497,-2.1373172,-1.8373402,-0.598014,-0.75610137,0.26587468,0
-3.3033004,1.0070671,2.9563723,-0.598014,-0.75610137,0.26587468,0
-1.0783832,2.3565099,4.2759733,-0.21567667,0.47130197,0.85519469,0
3.8407152,-3.1768389,-0.39571905,0.768143,-0.63536781,-0.079143822,0
-4.0616088,2.3301103,-1.7643998,-0.78864151,0.49596208,-0.36340809,0
2.4436498,-3.0346293,-3.1336241,0.48872989,-0.60692579,-0.62672478,0
-3.6440752,1.2007926,2.7408113,-0.598014,-0.75610137,0.26587468,0
-1.9413466,-0.45783317,-4.593822,-0.35409391,-0.048356861,-0.93395865,0
-1.524346,-1.2389374,0.57040548,-0.598014,-0.75610137,0.26587468,0
2.3449159,-0.47887886,-3.6099257,0.598014,0.75610137,-0.26587468,0
0.69087839,-0.51136661,-5.1171312,-0.027716398,-0.31201977,-0.94967121,0
0.59644651,2.5103993,4.4169559,-0.009934783,0.33869475,0.94084382,0
-0.62688917,3.9823442,2.3927417,0.598014,0.75610137,-0.26587468,0
2.782418,1.6453381,3.4150257,0.598014,0.75610137,-0.26587468,0
-1.6804075,1.9962802,-4.6018548,-0.54275525,0.13794737,-0.82848465,0
-0.59331751,1.8929582,-3.4736032,0.598014,0.75610137,-0.26587468,0
-3.4572508,-0.83596754,-2.631171,-0.598014,-0.75610137,0.26587468,0
-2.4424543,0.17177141,-4.3628054,-0.46806449,0.060180634,-0.88164258,0
-0.62867904,-0.70348287,4.1077099,-0.598014,-0.75610137,0.26587468,0
-0.42281967,3.9673905,2.8092151,0.598014,0.75610137,-0.26587468,0
1.4967308,-1.9553723,4.7244096,0.51935506,-0.11290546,0.84706688,0
-3.156707,0.059214592,0.59056485,-0.598014,-0.75610137,0.26587468,0
-0.16036952,-2.4306164,0.24937606,-0.598014,-0.75610137,0.26587468,0
-2.0922832,-1.7803652,-2.2467458,-0.598014,-0.75610137,0.26587468,0
2.8662462,0.11919522,-0.73651212,0.598014,0.75610137,-0.26587468,0
-3.6228743,-1.0886085,-3.7221639,-0.598014,-0.75610137,0.26587468,0
-0.067587614,1.6959944,-2.8512444,0.598014,0.75610137,-0.26587468,0
3.0839887,0.34106565,0.38420266,0.598014,0.75610137,-0.26587468,0
-2.3329749,-0.64306736,0.44616264,-0.598014,-0.75610137,0.26587468,0
2.408349,-4.3252249,0.63908434,-0.598014,-0.75610137,0.26587468,0
-2.783983,1.0260693,4.1784773,-0.598014,-0.75610137,0.26587468,0
1.956717,-0.018690825,-3.1743801,0.598014,0.75610137,-0.26587468,0
3.7413282,-1.4406563,-3.2041988,0.598014,0.75610137,-0.26587468,0
2.5345564,-3.9635909,1.9513793,-0.598014,-0.75610137,0.26587468,0
2.9937167,-4.1780462,1.1934619,0.80040044,-0.58064365,0.14903659,0
0.47212338,-3.2092867,-0.54240394,-0.598014,-0.75610137,0.26587468,0
0.16059279,1.4666755,-2.9901576,0.598014,0.75610137,-0.26587468,0
-2.7424264,-0.10773587,-4.222106,-0.47685295,0.069021434,-0.87626868,0
3.110353,-2.5588658,-3.0530441,0.53392333,-0.62322241,-0.571419,0
-1.1274881,-1.1513133,1.7122197,-0.598014,-0.75610137,0.26587468,0
-1.5124575,-2.0521083,-1.7153735,-0.598014,-0.75610137,0.26587468,0
-2.6478672,2.3401508,3.6216257,-0.43664584,0.58552355,0.68300986,0
3.6306753,0.28452396,1.4530342,0.598014,0.75610137,-0.26587468,0
0.80116653,0.60656369,-3.9953673,0.598014,0.75610137,-0.26587468,0
3.1780505,0.022995234,-0.30876791,0.598014,0.75610137,-0.26587468,0
-1.9987912,0.57367873,-4.5696039,-0.45398581,0.046173066,-0.88981158,0
1.6281052,-2.4862344,4.1139054,-0.598014,-0.75610137,0.26587468,0
-4.1304069,2.3685243,1.9382231,-0.68321335,0.65434062,0.32412606,0
-3.8996682,1.8984283,3.0115714,-0.57692552,0.63635981,0.51205766,0
-1.7223861,-1.5772028,-0.83700091,-0.598014,-0.75610137,0.26587468,0
4.400599,0.25146127,3.0907474,0.598014,0.75610137,-0.26587468,0
-1.8862019,-2.0143888,-2.4487426,-0.598014,-0.75610137,0.26587468,0
-3.9100316,0.9428606,1.4090997,-0.598014,-0.75610137,0.26587468,0
2.9416614,-3.4387426,2.6247642,0.77237028,-0.45505944,0.44313031,0
-0.056976557,-2.3392501,0.74176192,-0.598014,-0.75610137,0.26587468,0
3.3878143,1.158082,3.3910301,0.598014,0.75610137,-0.26587468,0
-3.89569,2.3531675,-2.0703115,-0.77913791,0.47063351,-0.41406238,0
-3.4094977,3.6879523,0.42406321,-0.75806153,0.6412946,0.11867398,0
-0.93347144,0.45174286,5.1412368,0.0027076006,0.32981956,0.94404006,0
4.860775,-1.8535618,-1.0663793,0.75820303,-0.64122343,-0.11815363,0
1.078712,0.76788652,-2.9123278,0.598014,0.75610137,-0.26587468,0
0.91270971,0.6627667,-3.5846481,0.598014,0.75610137,-0.26587468,0
-3.5041795,-0.50584269,-1.7979064,-0.598014,-0.75610137,0.26587468,0
2.545013,-1.2154436,4.1591415,0.56914544,-0.16704673,0.80508894,0
-0.26873374,2.967278,4.1340923,-0.17140093,0.44469908,0.87912703,0
-2.0786777,3.3174546,-2.7635009,0.598014,0.75610137,-0.26587468,0
-2.2768369,0.23769784,-4.4451666,-0.45536739,0.047539562,-0.88903326,0
-0.49945021,3.1606925,3.9784894,-0.22348127,0.47587532,0.85064602,0
0.10771799,3.8369379,3.6315336,0.598014,0.75610137,-0.26587468,0
-0.81750894,-1.2692257,2.0741124,-0.598014,-0.75610137,0.26587468,0
-1.3825743,-2.6676295,-3.1736717,-0.598014,-0.75610137,0.26587468,0
-1.6919531,0.04234755,3.837172,-0.598014,-0.75610137,0.26587468,0
-0.98388863,-1.8595552,0.021089792,-0.598014,-0.75610137,0.26587468,0
-4.4679465,1.0260305,-2.3645499,-0.7420001,0.39686847,-0.54030591,0
3.7203696,-3.2380662,0.94871926,0.80097067,-0.57567561,0.16444772,0
1.4499043,-2.9975543,-3.7515347,0.33805585,-0.53872716,-0.77168083,0
4.6716805,-0.85004878,2.2124753,0.74742466,-0.40633172,0.52559507,0
1.1553524,-4.1824074,-1.7730498,-0.598014,-0.75610137,0.26587468,0
-0.41666174,1.0322593,-5.2407351,-0.31353211,-0.084602207,-0.94580108,0
1.4328756,-1.5629449,4.8031378,0.4781667,-0.070349455,0.87544686,0
-0.79912782,-0.94299638,3.0431962,-0.598014,-0.75610137,0.26587468,0
-3.0717559,2.7156382,-3.0396073,-0.7368843,0.38820243,-0.55344379,0
3.4045448,0.5575211,1.7207717,0.598014,0.75610137,-0.26587468,0
2.6207848,-4.0780735,1.8197591,-0.598014,-0.75610137,0.26587468,0
-3.2603881,3.8874927,0.29539776,-0.76104093,0.63973033,0.10752428,0
-4.4684968,2.3653817,-0.29403043,-0.79734975,0.59489638,-0.10164273,0
0.8558203,1.9971089,0.082033634,0.598014,0.75610137,-0.26587468,0
-1.5882469,0.19672072,4.5094419,-0.598014,-0.75610137,0.26587468,0
0.68920469,0.98096323,-3.182467,0.598014,0.75610137,-0.26587468,0
1.8857846,-2.4240437,4.3643799,0.60027313,-0.20271093,0.77367949,0
1.9181978,-3.4700484,-3.1144645,0.46120712,-0.59593678,-0.65737915,0
0.056832165,-3.1103983,-1.1952688,-0.598014,-0.75610137,0.26587468,0
-0.89818573,-0.79015863,-4.8573155,-0.19839907,-0.18175353,-0.96312165,0
-3.7902894,-0.86892104,-3.4739668,-0.598014,-0.75610137,0.26587468,0
1.1742439,1.4768912,4.6662941,0.16568917,0.20793577,0.96400702,0
3.0480809,0.20479679,-0.084087253,0.598014,0.75610137,-0.26587468,0
-2.1791699,-1.7738359,-2.423605,-0.598014,-0.75610137,0.26587468,0
-1.5710821,-2.0811183,-1.9297324,-0.598014,-0.75610137,0.26587468,0
3.9287596,-2.9959989,-0.82521796,0.74944317,-0.64510703,-0.14890075,0
1.5693201,1.9882064,1.6615442,0.598014,0.75610137,-0.26587468,0
0.87684381,-3.9413853,-1.7140546,-0.598014,-0.75610137,0.26587468,0
-0.38037664,-2.9885914,-1.832255,-0.598014,-0.75610137,0.26587468,0
-3.7328627,-0.71568871,-2.9090352,-0.598014,-0.75610137,0.26587468,0
-4.5542955,1.587831,1.7941842,-0.598014,-0.75610137,0.26587468,0
-3.3718882,-0.31119084,-0.94679731,-0.598014,-0.75610137,0.26587468,0
-2.6061234,0.5719837,-4.2285867,-0.52101576,0.11466093,-0.84581023,0
0.8602109,-2.4748814,2.419019,-0.598014,-0.75610137,0.26587468,0
2.3754864,1.286592,4.3829079,0.32821727,0.071610063,0.9418838,0
-2.6691117,-1.9049854,-3.8985677,-0.598014,-0.75610137,0.26587468,0
1.3231134,-2.4303424,3.5868552,-0.598014,-0.75610137,0.26587468,0
1.0495157,-2.2674699,3.4346514,-0.598014,-0.75610137,0.26587468,0
-0.54278767,3.9895382,2.6023633,0.598014,0.75610137,-0.26587468,0
-1.256119,-2.7418127,-4.3252592,-0.050974071,-0.29517591,-0.95408207,0
1.8233927,-0.41862357,-4.6115985,0.598014,0.75610137,-0.26587468,0
2.4246354,1.3319073,1.718946,0.598014,0.75610137,-0.26587468,0
-1.8625493,1.292586,-4.5861363,-0.50201976,0.094770819,-0.85964769,0
3.9127254,-1.2707746,-2.3355713,0.598014,0.75610137,-0.26587468,0
-2.4780281,4.1003494,-1.4353147,0.598014,0.75610137,-0.26587468,0
4.5606604,-2.1310325,0.71772504,0.80147105,-0.56612116,0.19274437,0
3.1123581,-3.0903313,2.6782665,0.7644943,-0.43849909,0.47251043,0
3.8178473,-0.071794748,0.86071765,0.598014,0.75610137,-0.26587468,0
-1.0647404,2.829366,-1.8709598,0.598014,0.75610137,-0.26587468,0
-3.6709528,1.0670632,2.3000541,-0.598014,-0.75610137,0.26587468,0
-1.8511884,-2.3575656,-3.3459256,-0.598014,-0.75610137,0.26587468,0
1.9003825,0.12809801,-2.8836474,0.598014,0.75610137,-0.26587468,0
1.5720774,0.9642272,-1.2442749,0.598014,0.75610137,-0.26587468,0
0.74784994,1.2618051,4.7817826,0.13403082,0.23271401,0.96326518,0
5.1108923,-0.93771195,1.3065579,0.598014,0.75610137,-0.26587468,0
-1.44278,-2.2872319,-2.2273035,-0.598014,-0.75610137,0.26587468,0
0.027514696,-3.224524,-4.0508766,0.16631958,-0.44157571,-0.88167375,0
0.84285533,-3.4310384,-3.7064762,0.30069831,-0.51915205,-0.80003852,0
3.7378178,0.77319217,3.713387,0.52838135,-0.12248559,0.84012496,0
-0.19822335,2.3843551,-1.1874958,0.598014,0.75610137,-0.26587468,0
2.6058726,2.0426774,4.2360044,0.28477073,0.10963723,0.95230508,0
2.8736649,0.73603249,1.0343524,0.598014,0.75610137,-0.26587468,0
3.5346231,-1.4309273,3.2385244,0.68649811,-0.31201184,0.65678644,0
3.7527561,-0.29163837,0.089114904,0.598014,0.75610137,-0.26587468,0
-0.25256675,-2.5665326,-0.34451842,-0.598014,-0.75610137,0.26587468,0
0.77536786,3.2058232,3.3384533,0.598014,0.75610137,-0.26587468,0
-0.8736372,2.959213,-1.0718615,0.598014,0.75610137,-0.26587468,0
0.83597231,0.78508455,4.8708715,0.19129622,0.18749,0.96345901,0
-0.42446688,3.9017744,2.6189089,0.598014,0.75610137,-0.26587468,0
-1.2948682,3.286278,-1.0891929,0.598014,0.75610137,-0.26587468,0
-4.3141499,1.0108218,0.69341421,-0.598014,-0.75610137,0.26587468,0
2.8305032,-0.2761519,-1.9412057,0.598014,0.75610137,-0.26587468,0
-3.8711123,0.017245054,-3.4537952,-0.60873234,0.21268722,-0.76433533,0
-3.024085,-1.2508943,-4.1273971,-0.40664971,0.00037491322,-0.91358387,0
4.3743086,-1.2313273,-1.1851826,0.598014,0.75610137,-0.26587468,0
-0.99232936,-2.173388,-0.89038289,-0.598014,-0.75610137,0.26587468,0
1.4813271,-1.1316162,4.8041964,0.44541925,-0.037739992,0.89452606,0
-2.6712437,1.7632399,-3.919229,-0.62727237,0.23503323,-0.74248791,0
1.0285046,0.38786256,-4.105978,0.598014,0.75610137,-0.26587468,0
-2.0099988,2.7950361,-4.0946956,0.598014,0.75610137,-0.26587468,0
2.9633241,0.62616205,0.9235642,0.598014,0.75610137,-0.26587468,0
2.4489267,-2.8365076,-3.3162608,0.46568367,-0.59777457,-0.65253663,0
-1.6305571,1.5678871,-4.691247,-0.50045276,0.093148202,-0.86073786,0
-1.4392099,2.3010619,-4.2156363,0.598014,0.75610137,-0.26587468,0
1.836267,-3.4750447,1.7701049,-0.598014,-0.75610137,0.26587468,0
4.9401283,-1.7104348,0.35356784,0.80060828,-0.57904917,0.15403867,0
4.0050631,-2.8760567,0.82931042,0.80101269,-0.57521135,0.16586208,0
-4.0070844,2.6679311,1.5681238,-0.70621419,0.65395606,0.27129805,0
-0.54108572,-0.38892907,5.1992645,-0.598014,-0.75610137,0.26587468,0
-1.2880534,-0.27929854,3.83093,-0.598014,-0.75610137,0.26587468,0
3.8610497,-1.5202776,-3.161346,0.598014,0.75610137,-0.26587468,0
2.1117535,-0.16753948,4.5295753,0.43049777,-0.023207128,0.90229297,0
-4.6391687,1.2058411,-1.9560902,-0.76726991,0.44417769,-0.46260408,0
-1.4509358,3.7773142,3.1541405,-0.42770022,0.58159757,0.69196582,0
2.9356866,-0.15243697,-1.3528007,0.598014,0.75610137,-0.26587468,0
-2.7323856,-0.8175683,-0.94845611,-0.598014,-0.75610137,0.26587468,0
-4.074244,0.056046963,-3.2739563,-0.63261992,0.24161112,-0.73580945,0
4.2740145,-0.25450826,1.3671391,0.598014,0.75610137,-0.26587468,0
1.9776369,-4.7571335,-1.557961,-0.598014,-0.75610137,0.26587468,0
-3.2905288,2.4064298,3.0498333,-0.54338861,0.626329,0.55896389,0
2.9440064,-2.8595319,3.1087029,0.73568135,-0.38619798,0.55643821,0
3.484798,-2.6455786,2.4881847,0.76607966,-0.4417235,0.46690649,0
-4.0827079,2.2388015,-1.8402643,-0.78550762,0.48699832,-0.38185054,0
3.8213861,-0.72661996,-0.99353278,0.598014,0.75610137,-0.26587468,0
3.7742558,-3.1681445,0.93100405,0.80100727,-0.57527119,0.16567999,0
-0.27052104,-3.4764972,-2.9726849,-0.598014,-0.75610137,0.26587468,0
0.469239,1.0542946,-3.4686804,0.598014,0.75610137,-0.26587468,0
2.8070667,-1.7863605,-3.9814367,0.39557704,-0.56694788,-0.72255713,0
-3.2229352,1.0307995,3.204623,-0.598014,-0.75610137,0.26587468,0
0.92105436,0.26513267,-4.696682,0.598014,0.75610137,-0.26587468,0
1.3121216,0.91427195,-1.9710402,0.598014,0.75610137,-0.26587468,0
1.549732,-4.4501948,-1.6475408,-0.598014,-0.75610137,0.26587468,0
2.4206119,1.346694,1.7519457,0.598014,0.75610137,-0.26587468,0
1.4336774,0.28134453,-3.4975696,0.598014,0.75610137,-0.26587468,0
2.0233569,-4.6160054,-1.0537829,-0.598014,-0.75610137,0.26587468,0
3.047863,-2.6489732,3.1162572,0.73022336,-0.37724936,0.5696106,0
-3.6634545,1.9063327,-2.8186831,-0.73269105,0.38126653,-0.56373668,0
1.0377212,-2.2944314,3.331449,-0.598014,-0.75610137,0.26587468,0
-4.5646687,1.5216123,-1.7565629,-0.77990931,0.47251225,-0.41045463,0
1.0259334,2.4319408,1.7012461,0.598014,0.75610137,-0.26587468,0
-4.5083981,0.055372,-2.4606326,-0.598014,-0.75610137,0.26587468,0
0.76880598,0.35027379,4.9639177,0.22494638,0.16005814,0.96113485,0
3.0631859,-0.34196162,-1.605,0.598014,0.75610137,-0.26587468,0
-0.70116764,-2.7375433,-1.8398515,-0.598014,-0.75610137,0.26587468,0
0.49313614,2.6932683,1.246029,0.598014,0.75610137,-0.26587468,0
2.5314147,-2.9614124,-3.135879,0.49331278,-0.60868132,-0.6214093,0
1.9783878,-1.7351892,4.4492655,0.55257535,-0.14866364,0.82009703,0
-2.6272087,-2.0419238,-4.1937456,-0.598014,-0.75610137,0.26587468,0
0.9066149,2.6836236,2.1486125,0.598014,0.75610137,-0.26587468,0
3.385813,-3.2705007,-1.6852577,0.67716253,-0.65410012,-0.33705151,0
-1.9288398,-0.1702708,2.699708,-0.598014,-0.75610137,0.26587468,0
-2.8887467,3.9447241,1.3734205,-0.68418908,0.65436733,0.32200688,0
1.5188794,-1.8211672,4.7280598,0.51018,-0.10326536,0.85384536,0
-3.7266581,3.1855116,-1.0885043,-0.80147105,0.56612217,-0.19274151,0
2.3144667,-4.4515967,0.068540573,-0.598014,-0.75610137,0.26587468,0
2.5835767,0.99759078,1.1257039,0.598014,0.75610137,-0.26587468,0
-3.5458264,-0.93660164,-3.116585,-0.598014,-0.75610137,0.26587468,0
-2.7978354,-0.66101217,-0.65044904,-0.598014,-0.75610137,0.26587468,0
4.6880293,-1.3131825,1.7607276,0.77704197,-0.46564603,0.42353153,0
3.1351681,1.5324202,3.8873239,0.598014,0.75610137,-0.26587468,0
-1.220233,-2.484252,-2.2870333,-0.598014,-0.75610137,0.26587468,0
-0.9567048,4.3964105,2.9392664,-0.42702246,0.5812974,0.69263643,0
4.6092343,-0.63309526,2.4493966,0.72731638,-0.37257439,0.57636672,0
-0.33489203,-1.1268287,3.5645833,-0.598014,-0.75610137,0.26587468,0
3.483984,0.16903806,3.7799964,0.55252254,-0.14860588,0.82014287,0
1.6049042,1.0501294,4.6465263,0.25898266,0.13163832,0.95686936,0
-2.5943322,4.5964861,-0.28598261,0.598014,0.75610137,-0.26587468,0
-0.71858609,3.6106069,1.1293378,0.598014,0.75610137,-0.26587468,0
-0.91594028,-2.8406682,-2.6161957,-0.598014,-0.75610137,0.26587468,0
-3.3951678,-0.38936543,-1.2214731,-0.598014,-0.75610137,0.26587468,0
-2.4144673,3.023293,3.1670246,-0.48289347,0.6046586,0.63340497,0
2.7362666,-4.2551789,-1.0495033,0.70297444,-0.65414906,-0.27913374,0
-3.7944899,2.4061179,-2.1978412,-0.77497995,0.46089029,-0.43241829,0
-0.15305269,-2.2271924,0.84433722,-0.598014,-0.75610137,0.26587468,0
2.0286734,-3.6196475,-2.8901556,0.49606198,-0.60972381,-0.61819041,0
3.3363962,-0.15301752,-0.4531616,0.598014,0.75610137,-0.26587468,0
1.1591734,2.5221334,2.2574251,0.598014,0.75610137,-0.26587468,0
2.5150936,1.9725883,3.7443941,0.598014,0.75610137,-0.26587468,0
1.1033294,-3.4617264,0.15943146,-0.598014,-0.75610137,0.26587468,0
1.7170119,1.1336234,4.6045589,0.26450068,0.12696519,0.95599103,0
-4.6051478,0.88283038,-2.2811062,-0.74402392,0.40036389,-0.53491735,0
-1.1420031,-1.6426989,-4.6343675,-0.14553732,-0.22377121,-0.96371424,0
1.6492124,-0.89955395,4.730371,0.44365507,-0.036011398,0.8954736,0
3.9597316,-2.8756845,-1.1390719,0.73256159,-0.65022016,-0.20141214,0
4.6524911,-1.0400348,-0.015481949,0.598014,0.75610137,-0.26587468,0
3.972157,-2.57636,1.6075833,0.79443133,-0.51527202,0.32151663,0
-1.2614181,-0.59111333,3.004092,-0.598014,-0.75610137,0.26587468,0
-2.6331449,3.892549,1.9117017,-0.62951517,0.64842522,0.42808324,0
-2.4516687,4.5440974,-0.11408377,0.598014,0.75610137,-0.26587468,0
1.1997285,-1.9915955,-4.4439578,0.19292483,-0.45777005,-0.86788625,0
-2.6235383,3.7384629,2.1476817,-0.60684276,0.6438449,0.46605319,0
-0.17454743,-2.8878298,-1.0827496,-0.598014,-0.75610137,0.26587468,0
-0.82262498,-2.1128752,-0.33658898,-0.598014,-0.75610137,0.26587468,0
-1.8770514,3.3548138,3.2443843,-0.44136858,0.58756804,0.67820168,0
-4.2366505,2.4153397,-1.1719718,-0.79999888,0.54291135,-0.25543773,0
1.8172464,0.057559729,4.6589756,0.37641943,0.027910769,0.92602861,0
1.8917136,-1.9950815,4.4590688,0.56525409,-0.16269426,0.80871379,0
0.065165043,-1.0928528,4.5610266,-0.598014,-0.75610137,0.26587468,0
-4.5232892,1.9125137,-1.3084836,-0.79569447,0.52027106,-0.31014138,0
4.3322296,-2.5404792,-0.72121453,0.76339293,-0.63839114,-0.098425865,0
-4.9003248,1.7405509,-0.44358802,-0.80108052,0.57441008,-0.16829348,0
-3.0703406,3.6408663,-2.1241379,-0.79126132,0.50413847,-0.3460483,0
-3.0359406,3.7869201,-1.9799905,-0.79546565,0.51933438,-0.31229061,0
3.5995765,-2.4132414,2.5170977,0.76073462,-0.43103814,0.48527148,0
2.4037313,0.74219394,-0.0051155686,0.598014,0.75610137,-0.26587468,0
