0.91966438,-2.5761218,4.9533472,0.5182063,-0.61689091,0.59237486,0
-5.1752825,0.85847569,1.4234943,-0.63091409,0.19188732,0.7517491,0
0.32302207,5.0364685,2.7303753,0.41983333,0.89925379,0.12281132,0
2.8868322,4.0888839,0.56624079,0.50026035,0.84122807,0.20512211,0
0.38622904,1.0424042,6.0441098,-0.63091409,0.19188732,0.7517491,0
0.41383302,-5.0681133,-4.345068,0.63091409,-0.19188732,-0.7517491,0
-5.1043916,0.88454795,1.4763355,-0.63091409,0.19188732,0.7517491,0
-0.45632505,2.3127823,-5.6300783,-0.53299451,0.59690481,-0.59968448,0
-0.48785162,-0.020348549,-6.3902817,0.63091409,-0.19188732,-0.7517491,0
2.336607,-1.6774211,-3.5968466,0.63091409,-0.19188732,-0.7517491,0
0.98353481,3.2684338,-5.5291643,-0.32693899,0.81294942,-0.48189628,0
-1.5774584,1.7184167,-5.0756025,-0.62976217,0.43926603,-0.64065975,0
2.1019857,-4.4201374,1.4758193,0.2860257,-0.84315956,0.45527068,0
2.1351616,4.477294,-2.3156829,0.14579856,0.98099375,-0.1280399,0
4.8042259,-3.3276386,0.73857343,0.56786609,-0.54600644,0.61595875,0
-0.0093874931,1.0701141,-6.2670698,0.63091409,-0.19188732,-0.7517491,0
3.03227,-0.19743395,-3.3907766,0.63091409,-0.19188732,-0.7517491,0
2.6441011,2.7747564,-4.4752173,0.63091409,-0.19188732,-0.7517491,0
2.0695961,0.035925865,5.2751207,0.75041378,-0.095156938,0.65408272,0
-5.2669306,1.9154202,1.0767882,-0.63091409,0.19188732,0.7517491,0
2.0762956,-5.7505455,-2.644985,-0.1401706,-0.98117971,0.13281059,0
0.7124294,-5.2119236,-0.27703667,-0.066705763,-0.97876078,0.19384944,0
-3.5242014,3.298526,-1.9216857,-0.52669686,0.60552436,-0.59659922,0
2.0517406,3.8708568,-4.8218369,-0.11665624,0.93445539,-0.33642906,0
2.7039692,-1.632437,3.9999096,0.66542602,-0.36439329,0.6514796,0
-2.8805439,-3.5345526,4.4707203,-0.63091409,0.19188732,0.7517491,0
-1.8536534,-1.4748883,4.8068118,-0.63091409,0.19188732,0.7517491,0
-1.0463488,-2.9145503,-5.7830009,-0.74510181,-0.4199411,-0.51814353,0
-2.3070679,1.7854819,3.5940547,-0.63091409,0.19188732,0.7517491,0
-3.4136219,-1.5560119,-3.375097,-0.76879394,-0.285025,-0.57246536,0
-0.17512178,-0.99918365,6.0941133,-0.63091409,0.19188732,0.7517491,0
-2.6301258,2.4339249,3.1574068,-0.63091409,0.19188732,0.7517491,0
-1.7708712,-2.8870628,5.2367516,-0.63091409,0.19188732,0.7517491,0
-4.1516385,2.4306788,1.8812878,-0.63091409,0.19188732,0.7517491,0
5.2375293,-2.9284043,0.64674067,0.62098664,-0.45595869,0.63755572,0
-2.1088958,3.0294693,3.4428396,-0.63091409,0.19188732,0.7517491,0
0.24044132,-0.090371609,6.2109008,-0.63091409,0.19188732,0.7517491,0
-3.869503,3.7838483,-1.0960208,-0.47819573,0.66683346,-0.57154357,0
3.1929541,3.7576783,-4.2654805,0.63091409,-0.19188732,-0.7517491,0
2.7978745,1.6758785,4.1413803,0.77025473,0.27109921,0.57724583,0
6.2721348,0.60742152,-0.87712526,0.63091409,-0.19188732,-0.7517491,0
-3.2623591,0.91460514,3.0146103,-0.63091409,0.19188732,0.7517491,0
4.8168001,-1.8885757,1.6773007,0.69326931,-0.2955693,0.65727967,0
3.7362642,-1.8356676,-2.3817747,0.63091409,-0.19188732,-0.7517491,0
-1.963704,0.54919147,4.1977954,-0.63091409,0.19188732,0.7517491,0
-4.1269579,4.1290212,1.4684918,-0.63091409,0.19188732,0.7517491,0
-0.7569468,-4.656507,1.9688356,-0.017116427,-0.97213936,0.23377776,0
-5.9165707,-1.5192354,0.091770649,-0.74037284,-0.438564,-0.50942105,0
1.7216752,-4.6743116,-3.3479657,0.63091409,-0.19188732,-0.7517491,0
-5.4584308,3.1520665,0.60041022,-0.63091409,0.19188732,0.7517491,0
-3.4181166,5.0193033,0.47843683,-0.24458998,0.8703323,-0.42743117,0
0.42105412,-4.8633709,-4.3912683,0.63091409,-0.19188732,-0.7517491,0
-0.67708445,3.872015,-3.3807626,-0.30845302,0.82703042,-0.46997601,0
-6.1339455,1.1375023,0.54770231,-0.63091409,0.19188732,0.7517491,0
-5.6190171,2.6175213,-0.47006726,-0.65768236,0.38173738,-0.64940774,0
2.4607515,-1.1571405,-3.6254609,0.63091409,-0.19188732,-0.7517491,0
-5.6821666,-1.0224612,1.4782038,-0.63091409,0.19188732,0.7517491,0
0.03008461,-1.5132637,-5.5745239,0.63091409,-0.19188732,-0.7517491,0
3.6360233,1.3354328,-3.2753408,0.63091409,-0.19188732,-0.7517491,0
-2.481792,-0.96096802,4.148459,-0.63091409,0.19188732,0.7517491,0
-4.3579421,0.60907698,-2.5555482,-0.75231665,0.085539848,-0.65322483,0
-1.3331718,3.8258293,3.8906004,-0.63091409,0.19188732,0.7517491,0
2.0925555,0.87015867,5.2666154,0.77257025,0.066347539,0.6314531,0
-0.93095708,1.4198508,4.8423004,-0.63091409,0.19188732,0.7517491,0
4.2827992,0.85401154,2.5187292,0.77520329,0.1955463,0.60068429,0
3.705049,3.9270072,-0.80754471,0.46453118,0.86949015,0.1679219,0
-0.094203234,1.2124691,5.5974908,-0.63091409,0.19188732,0.7517491,0
1.1954093,3.2810912,-5.6494021,-0.31253058,0.82398665,-0.47262123,0
5.2304735,-3.3172283,-0.74956727,0.63091409,-0.19188732,-0.7517491,0
2.8770497,-1.4978793,-3.1891026,0.63091409,-0.19188732,-0.7517491,0
1.9476559,4.3001471,1.9678531,0.52526253,0.81874788,0.23184359,0
1.7599428,4.5662293,1.2412252,0.44018006,0.88642311,0.14316273,0
3.0798454,0.96137238,-3.6466386,0.63091409,-0.19188732,-0.7517491,0
0.74784136,2.0089698,-5.8712034,0.63091409,-0.19188732,-0.7517491,0
3.1977758,0.73575759,-3.4900751,0.63091409,-0.19188732,-0.7517491,0
4.3458252,2.7624631,-3.0438871,0.63091409,-0.19188732,-0.7517491,0
0.78230953,-3.2096586,4.3191023,0.42616731,-0.72396028,0.54246002,0
1.7079206,2.7284739,-5.2491031,0.63091409,-0.19188732,-0.7517491,0
4.4795704,0.94373059,2.231415,0.77381068,0.22588283,0.59177202,0
-2.7639356,4.3246126,-1.2025346,-0.34210724,0.80084598,-0.49153697,0
-0.29530108,5.3147812,2.2457178,0.30615893,0.95187783,0.013976336,0
1.142796,-4.2425332,2.4016709,0.26267397,-0.85888231,0.43968564,0
5.773499,-3.4239948,-0.24704146,0.58872992,-0.51266396,0.62495822,0
-5.4896097,1.4184209,1.0167634,-0.63091409,0.19188732,0.7517491,0
6.4363594,1.2163616,-0.59259892,0.74810886,0.40725428,0.52390558,0
2.1782002,-0.36900854,-4.0637693,0.63091409,-0.19188732,-0.7517491,0
5.5494847,3.0763648,-1.9153275,0.56090337,0.78224474,0.27107322,0
-1.8034732,4.0728755,3.4328349,-0.63091409,0.19188732,0.7517491,0
-0.73402596,0.46670437,5.2508721,-0.63091409,0.19188732,0.7517491,0
-1.4522045,-4.2145352,-3.2572594,-0.58585268,-0.75305998,-0.29946172,0
-4.4758554,-1.2456286,-2.1030703,-0.76849878,-0.28765202,-0.57154703,0
2.3978879,0.49842167,4.9200048,0.76744962,0.012130499,0.64099467,0
1.9354644,-0.55442142,5.2871261,0.72111058,-0.21247303,0.65943515,0
-3.3738325,2.4220712,-2.8235517,-0.61536455,0.46634752,-0.63548911,0
3.037684,-0.4464159,-3.3226788,0.63091409,-0.19188732,-0.7517491,0
-2.613476,-3.6045754,4.7127337,-0.63091409,0.19188732,0.7517491,0
1.7725732,0.92500019,5.65206,0.77193826,0.058044165,0.63304216,0
-4.3595276,2.3964121,1.7155612,-0.63091409,0.19188732,0.7517491,0
-0.20907855,-4.7924719,1.4407456,-0.0045443773,-0.96983016,0.24373955,0
-1.2658257,5.6108809,3.3160362,0.29801545,0.95453924,0.006462574,0
-4.8304682,2.7864981,1.2207477,-0.63091409,0.19188732,0.7517491,0
-3.1581583,-4.2236905,3.0018172,-0.19773093,-0.97670543,0.083360434,0
-2.4618187,-2.7395782,-3.869653,-0.72977698,-0.47570831,-0.49104708,0
-1.5777928,4.1719799,3.5969429,-0.63091409,0.19188732,0.7517491,0
0.08589983,-5.1227474,-0.11540031,-0.12464166,-0.98141563,0.14590371,0
-3.2409613,-1.3253238,-3.7053783,-0.77375174,-0.22687683,-0.59146863,0
-3.6083119,4.8166833,1.7282428,-0.63091409,0.19188732,0.7517491,0
-1.0919924,-3.0846877,-5.5694194,-0.73445654,-0.45998278,-0.49898851,0
-5.4465885,-0.71392655,-1.0538435,-0.7729634,-0.2390019,-0.58771229,0
-2.0626087,-1.62884,4.6707406,-0.63091409,0.19188732,0.7517491,0
-1.1731864,-4.8678956,-0.15777731,-0.27407151,-0.96158552,0.015431285,0
-3.008142,-0.64306045,3.6255662,-0.63091409,0.19188732,0.7517491,0
-4.554275,-3.324894,0.57878876,-0.57388937,-0.76746404,-0.28574467,0
-5.4982352,-2.2149205,0.1939249,-0.697164,-0.56539601,-0.44078302,0
1.7578133,4.3932734,2.0648637,0.51386446,0.829292,0.21958625,0
1.8095036,0.52594805,-4.601644,0.63091409,-0.19188732,-0.7517491,0
1.8245766,-2.8263512,-3.733304,0.63091409,-0.19188732,-0.7517491,0
4.5696659,-2.6559324,-1.4729565,0.63091409,-0.19188732,-0.7517491,0
0.97081232,-4.3355165,-4.0646152,0.63091409,-0.19188732,-0.7517491,0
-2.823875,0.38858891,3.5168815,-0.63091409,0.19188732,0.7517491,0
-0.86767948,-4.6745214,-3.0853226,-0.51031005,-0.83247721,-0.21579015,0
-4.7898235,1.1190925,1.6804721,-0.63091409,0.19188732,0.7517491,0
-6.1424913,1.3633556,0.48288083,-0.63091409,0.19188732,0.7517491,0
1.9619702,-3.7656436,-3.3782365,0.63091409,-0.19188732,-0.7517491,0
4.4931784,-1.3688054,-1.8656942,0.63091409,-0.19188732,-0.7517491,0
-5.2868061,-1.7658112,1.9997582,-0.63091409,0.19188732,0.7517491,0
-3.3268459,-4.1687913,3.2440753,-0.19372982,-0.97720349,0.086845636,0
3.9271638,2.0191705,2.3659015,0.74610329,0.41579574,0.52004212,0
-2.3128047,4.2431474,2.9619095,-0.63091409,0.19188732,0.7517491,0
-3.5755756,-2.3223701,-2.6165686,-0.73489493,-0.45845819,-0.49974561,0
1.3674058,3.8444965,4.1752329,0.65376103,0.65324026,0.38193393,0
-1.2395926,-0.98505354,-6.2948527,-0.77020085,-0.038163006,-0.63665867,0
3.1963577,1.0911508,-3.5819812,0.63091409,-0.19188732,-0.7517491,0
5.2735415,2.1422153,0.24586535,0.71007037,0.53326184,0.45981735,0
-1.036091,-4.9108887,-0.44459009,-0.28581408,-0.95827347,0.0047308207,0
3.1558895,4.26301,-1.7587032,0.31632894,0.94836074,0.023409367,0
0.14864922,1.634933,5.6934719,-0.63091409,0.19188732,0.7517491,0
0.31878042,1.5155139,5.8667388,-0.63091409,0.19188732,0.7517491,0
1.8468709,-4.3587146,1.749741,0.28278339,-0.84540695,0.45312315,0
-1.9918921,4.0409193,3.2828593,-0.63091409,0.19188732,0.7517491,0
1.2480054,4.7135429,1.9022217,0.44481584,0.88333565,0.14784145,0
-5.8319836,3.3203843,0.24393725,-0.63091409,0.19188732,0.7517491,0
-1.7048635,-4.2794566,3.4454901,0.017966032,-0.96505958,0.26141405,0
4.7095575,2.3725417,-2.6390915,0.63091409,-0.19188732,-0.7517491,0
-3.0705888,0.29750657,-4.0780768,-0.7493006,0.10061607,-0.65454191,0
-5.4394422,1.4543955,-1.1616383,-0.72982705,0.18197766,-0.65896642,0
2.2859631,-3.7604752,2.400475,0.41185778,-0.73830682,0.53411257,0
-5.7146969,-2.8131208,1.9079771,-0.63091409,0.19188732,0.7517491,0
-2.2879224,-1.5049992,-4.8809023,-0.77487391,-0.20449889,-0.59812266,0
5.8287163,0.49017549,-1.2193418,0.63091409,-0.19188732,-0.7517491,0
-1.9104751,4.2796345,3.290256,-0.63091409,0.19188732,0.7517491,0
3.5578842,0.79357362,-3.2026079,0.63091409,-0.19188732,-0.7517491,0
3.2040358,3.0655415,-4.0795097,0.63091409,-0.19188732,-0.7517491,0
1.7096604,-5.2520289,-3.2105837,0.63091409,-0.19188732,-0.7517491,0
5.7368684,-0.81482124,0.93394303,0.75952125,-0.045002162,0.64892393,0
0.28037238,-2.2698326,-5.1713495,0.63091409,-0.19188732,-0.7517491,0
0.7360462,4.9046931,-0.63420963,0.14720926,0.98093867,-0.1268419,0
5.7558098,-1.7141756,-0.71785879,0.63091409,-0.19188732,-0.7517491,0
1.8274708,-2.2927344,4.3974543,0.58162743,-0.52428204,0.62196296,0
-3.3751178,2.1851561,2.5956626,-0.63091409,0.19188732,0.7517491,0
-6.0734816,-1.0156347,-0.05621624,-0.76110721,-0.34108225,-0.55170524,0
-3.3430743,1.2777967,2.8541629,-0.63091409,0.19188732,0.7517491,0
-5.9022264,1.9428393,0.53661013,-0.63091409,0.19188732,0.7517491,0
4.6310797,3.0703554,-2.8830743,0.63091409,-0.19188732,-0.7517491,0
1.0538073,-3.3422825,-4.2484879,0.63091409,-0.19188732,-0.7517491,0
-2.0183601,5.2359581,2.9556065,-0.63091409,0.19188732,0.7517491,0
-6.5990577,-0.84606504,0.66366673,-0.63091409,0.19188732,0.7517491,0
-1.7501721,5.696332,2.6328633,0.17697001,0.97898239,-0.10136557,0
4.7273426,-4.450386,-0.88258231,0.63091409,-0.19188732,-0.7517491,0
-4.8015823,0.36648798,1.8627088,-0.63091409,0.19188732,0.7517491,0
0.43055516,-5.3331099,-2.9641387,-0.35846737,-0.93140715,-0.063102126,0
5.0644803,3.1460199,-2.5386515,0.63091409,-0.19188732,-0.7517491,0
-3.3856699,0.29983521,3.0680432,-0.63091409,0.19188732,0.7517491,0
0.82990384,-2.6100309,-4.6233115,0.63091409,-0.19188732,-0.7517491,0
-0.27487659,0.066874504,-6.2338037,0.63091409,-0.19188732,-0.7517491,0
1.0194583,2.4408116,-5.7534752,0.63091409,-0.19188732,-0.7517491,0
-1.9639223,-0.54616833,4.4772081,-0.63091409,0.19188732,0.7517491,0
-1.1644689,3.5115368,4.1124105,-0.63091409,0.19188732,0.7517491,0
-0.99518037,-4.3489528,3.0989034,0.068845332,-0.9512642,0.30059367,0
6.1118326,-1.0269951,-0.59446907,0.63091409,-0.19188732,-0.7517491,0
-4.6057119,-1.9080871,-1.4785881,-0.74093509,-0.43642592,-0.51043874,0
-3.6389692,-0.65235162,3.0985088,-0.63091409,0.19188732,0.7517491,0
5.0689545,-3.3315835,-0.88145995,0.63091409,-0.19188732,-0.7517491,0
-2.2235696,2.1587589,3.568851,-0.63091409,0.19188732,0.7517491,0
-2.7576134,-2.5912533,4.3331103,-0.63091409,0.19188732,0.7517491,0
-5.5012007,-1.0591919,1.6394572,-0.63091409,0.19188732,0.7517491,0
-5.6069174,1.9519207,0.78213334,-0.63091409,0.19188732,0.7517491,0
5.2756796,-3.5300438,-0.65730536,0.63091409,-0.19188732,-0.7517491,0
6.1861472,0.99481702,-0.08638525,0.76064008,0.34391409,0.55059052,0
3.7354004,3.5449917,-3.7559361,0.63091409,-0.19188732,-0.7517491,0
-5.9173994,-0.85817587,-0.35922194,-0.76724637,-0.29822904,-0.56779617,0
-5.4788251,3.7394507,0.25579369,-0.54478598,0.58031434,-0.60534579,0
-1.2175477,-3.8338542,-4.4477491,-0.66131228,-0.63969946,-0.39172781,0
-6.2677321,-0.60661018,0.88061333,-0.63091409,0.19188732,0.7517491,0
3.8441868,1.6705837,-3.1861856,0.63091409,-0.19188732,-0.7517491,0
3.2383947,-4.030067,1.2932857,0.41496736,-0.73523599,0.5359385,0
-0.22557473,-2.3377113,-5.5786448,0.63091409,-0.19188732,-0.7517491,0
-4.4941931,1.7812254,1.759571,-0.63091409,0.19188732,0.7517491,0
-2.6784499,2.0265553,3.2208326,-0.63091409,0.19188732,0.7517491,0
-2.8717136,5.3779154,1.0714235,-0.1138764,0.93553603,-0.33437186,0
-3.7347465,2.3717501,2.2462111,-0.63091409,0.19188732,0.7517491,0
-5.8396521,-1.3955833,1.4412732,-0.63091409,0.19188732,0.7517491,0
3.4041946,-0.91912818,3.5625854,0.72551346,-0.19741306,0.65928614,0
-2.3380189,-1.1738362,4.3234577,-0.63091409,0.19188732,0.7517491,0
-0.19326544,4.0327573,4.7944613,-0.63091409,0.19188732,0.7517491,0
0.8063786,0.32512236,-5.3922668,0.63091409,-0.19188732,-0.7517491,0
0.32511663,-1.0652065,6.530797,-0.63091409,0.19188732,0.7517491,0
1.0718155,-2.9246342,4.4392247,0.47931659,-0.66551036,0.57214653,0
-1.337149,1.7262087,4.4232001,-0.63091409,0.19188732,0.7517491,0
-5.9296675,-1.2553486,1.3299317,-0.63091409,0.19188732,0.7517491,0
-4.6252704,0.62094349,-2.2454238,-0.75479496,0.072405875,-0.65195245,0
-3.7156129,-2.1395912,-2.5722308,-0.74312258,-0.42791826,-0.5144462,0
1.9819381,1.6827536,5.215189,0.77405018,0.22168776,0.59304374,0
-3.1878841,0.11662149,-3.9649119,-0.75706691,0.059666187,-0.65060723,0
-2.6438708,5.4758759,2.3693993,-0.63091409,0.19188732,0.7517491,0
-2.7802875,-3.5805001,4.5665903,-0.63091409,0.19188732,0.7517491,0
2.5781293,-4.0501928,1.7637812,0.37962121,-0.7686739,0.51480895,0
-2.548703,-0.96449852,4.0932045,-0.63091409,0.19188732,0.7517491,0
-4.1311994,1.4533262,-2.5889831,-0.70774901,0.25462729,-0.65898132,0
-4.2784142,4.7943983,0.61697197,-0.34046531,0.80218047,-0.49049956,0
1.6777983,-1.506156,5.1136808,0.65059346,-0.39704618,0.64736593,0
3.8863621,1.1206608,-3.0104194,0.63091409,-0.19188732,-0.7517491,0
5.9447126,2.4044945,-1.198493,0.66021413,0.64170718,0.3902936,0
-0.18430233,0.81864834,5.6223984,-0.63091409,0.19188732,0.7517491,0
-2.5553203,1.9664004,3.3395255,-0.63091409,0.19188732,0.7517491,0
-2.1205592,1.1133904,3.9221387,-0.63091409,0.19188732,0.7517491,0
0.24599648,-0.706429,-5.5992651,0.63091409,-0.19188732,-0.7517491,0
-0.57572502,-5.0407524,-1.5196614,-0.33551413,-0.94112694,-0.04135716,0
0.97302723,-0.56574202,-5.0250072,0.63091409,-0.19188732,-0.7517491,0
-1.9590163,-4.5295658,-0.84757566,-0.42591798,-0.8955375,-0.12886679,0
1.4383936,-2.3380203,4.7186432,0.56415749,-0.55169272,0.61429769,0
1.8579183,4.0854998,2.7879806,0.58705723,0.75156546,0.30085421,0
2.2432504,4.0444551,2.1295643,0.56999737,0.7719841,0.28132451,0
3.6066592,2.5094109,2.3863926,0.72133189,0.5018822,0.47727847,0
-6.575429,0.36744237,0.37374449,-0.63091409,0.19188732,0.7517491,0
0.17503357,3.8069415,-4.0392842,-0.26990849,0.85412574,-0.44454318,0
-1.5533108,-4.7452793,0.55067921,-0.24966295,-0.96760821,0.037453771,0
-4.4520931,-3.2460003,3.0781255,-0.63091409,0.19188732,0.7517491,0
2.2040434,3.4909685,3.3410983,0.66679931,0.62946057,0.39894652,0
-1.4388986,-1.9619789,5.279232,-0.63091409,0.19188732,0.7517491,0
0.96440673,-4.0065145,-4.1539707,0.63091409,-0.19188732,-0.7517491,0
-3.3897343,0.42448735,3.0328143,-0.63091409,0.19188732,0.7517491,0
-1.0913429,-0.18671227,5.1177773,-0.63091409,0.19188732,0.7517491,0
3.3064992,0.24670815,-3.2739959,0.63091409,-0.19188732,-0.7517491,0
-0.057202101,1.8444848,5.4672198,-0.63091409,0.19188732,0.7517491,0
-1.1469207,-0.047802925,-6.3251991,-0.7392292,0.1455045,-0.65754735,0
-1.4962006,4.7954636,-1.0006456,-0.15893388,0.91641986,-0.36730736,0
-0.16500473,0.81248045,5.6401691,-0.63091409,0.19188732,0.7517491,0
5.6201582,1.2029178,-1.5763078,0.63091409,-0.19188732,-0.7517491,0
6.4983168,-0.30092764,-0.005256176,0.77454412,0.099525154,0.62464088,0
0.90298021,4.7706804,2.5748734,0.46846807,0.86658221,0.17196822,0
0.34768963,2.8665915,5.5461321,-0.63091409,0.19188732,0.7517491,0
-1.070181,5.3997135,3.7095773,-0.63091409,0.19188732,0.7517491,0
-4.6785536,0.055580854,2.0453224,-0.63091409,0.19188732,0.7517491,0
-5.9402628,-1.8002735,1.4601336,-0.63091409,0.19188732,0.7517491,0
-1.1279349,3.2566681,-3.983999,-0.43485159,0.71497977,-0.54745603,0
1.1155863,-2.0246809,5.2886896,0.58695507,-0.51559424,0.62421656,0
-0.65865564,-0.39692688,-6.4375072,0.63091409,-0.19188732,-0.7517491,0
2.3253055,-0.72923827,4.8040586,0.71798778,-0.22277322,0.65944344,0
5.1409197,1.8091552,-2.1332588,0.63091409,-0.19188732,-0.7517491,0
-1.8613033,4.3487139,-1.759303,-0.2856701,0.84340709,-0.45503539,0
0.86826992,2.1208744,6.1733832,-0.63091409,0.19188732,0.7517491,0
0.28410125,1.7765322,5.771008,-0.63091409,0.19188732,0.7517491,0
-1.5821664,-1.7032318,5.0929465,-0.63091409,0.19188732,0.7517491,0
-0.21227837,5.255105,1.0912061,0.20519456,0.97570014,-0.076839924,0
-1.4962196,-4.7707324,-0.037968636,-0.2992439,-0.95414644,-0.0075936317,0
6.2304139,-1.921783,-0.26654911,0.63091409,-0.19188732,-0.7517491,0
-0.7424078,-1.9272528,5.8549056,-0.63091409,0.19188732,0.7517491,0
-1.4621816,1.5292778,-5.315033,-0.64317542,0.41252995,-0.64509261,0
-1.4537282,-4.7740536,0.46950436,-0.24607101,-0.96839821,0.040670037,0
2.0973041,2.7572227,4.391427,0.73581487,0.45522815,0.50134224,0
5.4288535,0.9609313,0.96495342,0.76837713,0.28871882,0.5711726,0
6.3805413,-1.9787515,-0.12601185,0.63091409,-0.19188732,-0.7517491,0
0.63024664,-2.4829974,5.3035021,0.51883322,-0.61606133,0.59268922,0
5.4244967,1.699761,0.46768713,0.7385723,0.44528472,0.50619447,0
-4.9908762,-2.4589431,2.4250455,-0.63091409,0.19188732,0.7517491,0
0.32803297,-2.7340732,5.2837152,0.47449368,-0.67117423,0.56954443,0
-0.048614264,2.8217187,5.2249837,-0.63091409,0.19188732,0.7517491,0
-6.2527137,1.2081965,0.42998028,-0.63091409,0.19188732,0.7517491,0
-4.6230068,1.3292346,1.7668351,-0.63091409,0.19188732,0.7517491,0
-0.49439776,-5.0658946,-0.6751914,-0.24622735,-0.96836424,0.040530086,0
0.0035939217,-3.2423887,4.8682227,0.38371396,-0.76496261,0.51729661,0
-1.9028885,-2.8364415,-4.6047096,-0.73455888,-0.45962787,-0.499165,0
4.4245834,2.754528,-2.9757624,0.63091409,-0.19188732,-0.7517491,0
0.4531343,-3.9948533,-4.5860376,0.63091409,-0.19188732,-0.7517491,0
-1.0930388,-4.4833736,-3.2400458,-0.54748952,-0.79664814,-0.25613904,0
0.46377826,-1.134347,-5.3072615,0.63091409,-0.19188732,-0.7517491,0
4.2902927,0.097565651,-2.4102666,0.63091409,-0.19188732,-0.7517491,0
-6.3598814,-0.22316968,0.70540094,-0.63091409,0.19188732,0.7517491,0
-3.9403656,-2.8679032,3.411088,-0.63091409,0.19188732,0.7517491,0
-5.6494937,1.3377268,-0.95667648,-0.73849761,0.14850402,-0.65769899,0
4.1619701,-0.18952346,-2.4446816,0.63091409,-0.19188732,-0.7517491,0
-0.17845821,-3.9459314,3.7650161,0.24011427,-0.87307042,0.42437381,0
3.8382044,1.474949,2.84477,0.76764095,0.29498973,0.56895411,0
-0.43934298,1.369719,5.2676897,-0.63091409,0.19188732,0.7517491,0
-4.7378049,3.2761793,-0.84525871,-0.5712356,0.54077953,-0.61745244,0
-0.60530686,5.0614367,-0.38444757,0.013211608,0.97144938,-0.23687887,0
0.57265377,-2.1790233,-4.9492283,0.63091409,-0.19188732,-0.7517491,0
4.3492765,-4.3742757,-0.039068997,0.41398728,-0.73620677,0.53536373,0
-1.443114,-1.10463,5.0568519,-0.63091409,0.19188732,0.7517491,0
0.98694324,-3.0852735,4.3159027,0.45351136,-0.69495225,0.55800426,0
0.82178056,-5.4268017,-1.6576209,-0.18970299,-0.97767603,0.09034574,0
5.943213,-0.1830349,-0.95140934,0.63091409,-0.19188732,-0.7517491,0
-3.7841158,2.4286275,-2.4192953,-0.62625277,0.44601357,-0.63943678,0
0.42140329,5.0977297,1.157793,0.28398898,0.95880628,-0.0063984394,0
-0.86461163,4.8424463,-1.1040235,-0.091565847,0.94374537,-0.31774288,0
-4.2132173,0.56943452,-2.7274153,-0.75215608,0.086365938,-0.653301,0
4.0834832,0.97335291,-2.8073821,0.63091409,-0.19188732,-0.7517491,0
3.1457858,-4.0529151,1.3329673,0.40702915,-0.74302465,0.53126431,0
0.31005716,-5.2514954,-0.85258102,-0.17070019,-0.97952163,0.10676527,0
1.8993866,-3.588707,-3.4759245,0.63091409,-0.19188732,-0.7517491,0
-5.2213459,-1.8954006,2.0877743,-0.63091409,0.19188732,0.7517491,0
4.8393397,1.7083039,-2.3606205,0.63091409,-0.19188732,-0.7517491,0
-5.2416553,3.0822179,-0.52911413,-0.60660136,0.48209524,-0.63215423,0
0.72271252,-1.4924574,6.0705619,0.62671047,-0.4451389,0.63959783,0
-1.7957146,-1.5824542,-5.4911165,-0.77537626,-0.18989694,-0.60227156,0
-3.9522498,2.0372083,2.1490624,-0.63091409,0.19188732,0.7517491,0
-3.5215967,-0.32206511,3.1127081,-0.63091409,0.19188732,0.7517491,0
-0.16540241,4.0086441,-3.4405375,-0.2492137,0.86746395,-0.43057951,0
1.6698558,0.96218538,-4.8301964,0.63091409,-0.19188732,-0.7517491,0
0.19317102,1.2060642,-6.131772,0.63091409,-0.19188732,-0.7517491,0
3.3896415,2.0832429,-3.6730008,0.63091409,-0.19188732,-0.7517491,0
5.4209924,-2.7211814,-0.74181592,0.63091409,-0.19188732,-0.7517491,0
0.72544312,-0.61437941,-5.2203808,0.63091409,-0.19188732,-0.7517491,0
-0.84764338,-0.88429832,5.5003672,-0.63091409,0.19188732,0.7517491,0
4.1844397,1.8676112,2.1164651,0.74974602,0.40002573,0.52712464,0
-3.121408,3.3659699,-2.2019343,-0.50315553,0.63635445,-0.58471149,0
5.7483187,1.85799,-1.6359572,0.63091409,-0.19188732,-0.7517491,0
-3.6802807,3.6314249,1.9703846,-0.63091409,0.19188732,0.7517491,0
-1.0590979,-4.6974287,-2.5138512,-0.47970095,-0.85801184,-0.18358326,0
3.5684948,4.116735,-1.7993975,0.35860038,0.93134737,0.063228846,0
-0.47457528,1.3826323,5.2348247,-0.63091409,0.19188732,0.7517491,0
-3.3375335,2.877955,2.4503655,-0.63091409,0.19188732,0.7517491,0
-3.1192627,5.3970461,1.2124993,-0.12983334,0.92915726,-0.34613568,0
1.6613181,-5.3114839,-0.59593272,0.014870107,-0.96576405,0.25899547,0
2.5063274,-4.7878695,0.51347172,0.23451418,-0.87644368,0.42053488,0
1.0897181,-3.841604,-4.0908952,0.63091409,-0.19188732,-0.7517491,0
3.275301,2.4574156,-3.8644724,0.63091409,-0.19188732,-0.7517491,0
3.6166871,3.7348557,0.17299938,0.54225308,0.80204642,0.25036633,0
5.5804443,1.9519838,-0.011194706,0.71802807,0.51146364,0.47206002,0
-0.32004786,3.6918805,-3.9301529,-0.32194507,0.81682497,-0.47869432,0
-2.5492952,0.70049381,3.6677105,-0.63091409,0.19188732,0.7517491,0
1.5956585,1.1427765,-4.9385643,0.63091409,-0.19188732,-0.7517491,0
-5.498971,2.1109092,0.83214593,-0.63091409,0.19188732,0.7517491,0
0.20008373,-3.852411,-4.8347726,0.63091409,-0.19188732,-0.7517491,0
5.4616876,-3.0078959,-0.63447702,0.63091409,-0.19188732,-0.7517491,0
-5.1856456,-2.1793222,-0.338521,-0.70917618,-0.53560853,-0.45846778,0
-0.028680563,-4.9894409,-3.8387456,-0.48839658,-0.85109091,-0.19264781,0
0.069160938,-2.4962859,-5.2908077,0.63091409,-0.19188732,-0.7517491,0
-4.7211342,-2.1658692,2.5766215,-0.63091409,0.19188732,0.7517491,0
-3.3674598,4.464952,-0.55321324,-0.34977394,0.79453427,-0.49636027,0
1.6473393,-5.5897255,-1.9233923,-0.11946979,-0.9814043,0.15024149,0
2.3875046,-2.5165596,-3.339936,0.63091409,-0.19188732,-0.7517491,0
-3.8450489,1.1221006,2.4726169,-0.63091409,0.19188732,0.7517491,0
5.044899,0.50425315,-1.8807631,0.63091409,-0.19188732,-0.7517491,0
2.4440582,-5.3213606,-0.77358794,0.092012525,-0.94358897,0.31807792,0
2.5506737,1.6981635,4.4601936,0.771276,0.26020885,0.58088285,0
4.4617748,0.8730396,2.2805634,0.77461886,0.21041647,0.59639812,0
-2.2928786,-3.2382393,-3.5620964,-0.69233823,-0.57655096,-0.43388557,0
2.7890556,-4.1576133,-2.5840435,0.63091409,-0.19188732,-0.7517491,0
3.9439654,4.0263729,-3.039155,0.2840144,0.95879877,-0.0063753128,0
1.2805419,0.19822741,6.2031388,0.74737966,-0.10977054,0.65526646,0
0.83421713,-4.6445775,-4.1003647,0.63091409,-0.19188732,-0.7517491,0
0.13062716,5.1736856,1.0448642,0.24010953,0.96965563,-0.045994282,0
-3.4697528,-1.6891239,3.5051663,-0.63091409,0.19188732,0.7517491,0
-2.212297,-0.18106127,4.175561,-0.63091409,0.19188732,0.7517491,0
-3.1430326,4.0451646,2.3156674,-0.63091409,0.19188732,0.7517491,0
4.3974528,-0.45133853,2.5265648,0.75814319,-0.053360969,0.64990115,0
1.7969587,-4.8432045,-3.241672,0.63091409,-0.19188732,-0.7517491,0
2.927259,1.9955473,3.7906606,0.7603029,0.3459298,0.54979283,0
-5.5051894,0.77614892,-1.2076426,-0.75852835,0.051058441,-0.64963657,0
-5.0009546,-0.98266959,2.0397615,-0.63091409,0.19188732,0.7517491,0
-3.5411334,3.133225,2.2143331,-0.63091409,0.19188732,0.7517491,0
2.4651041,-4.1984477,-2.8455002,0.63091409,-0.19188732,-0.7517491,0
4.9296227,-1.8533592,-1.3757191,0.63091409,-0.19188732,-0.7517491,0
-0.76178432,0.55802107,5.2042665,-0.63091409,0.19188732,0.7517491,0
4.2099409,-0.38361716,2.7508504,0.75848377,-0.051326305,0.64966762,0
-0.038066387,3.2109318,-4.8886685,-0.39056522,0.75865805,-0.52143723,0
-0.99389553,0.16569376,-6.4405532,-0.72657937,0.19366494,-0.65922403,0
-1.1573052,-0.32779789,5.0984306,-0.63091409,0.19188732,0.7517491,0
0.35573959,-1.0475163,6.5519819,-0.63091409,0.19188732,0.7517491,0
-4.779829,2.5461669,-1.3569455,-0.64250797,0.41389781,-0.64488155,0
3.877419,0.55953264,-2.8746946,0.63091409,-0.19188732,-0.7517491,0
3.8218377,3.454318,0.5309062,0.59410864,0.74264646,0.30904865,0
1.729794,2.6327546,-5.2063127,0.63091409,-0.19188732,-0.7517491,0
4.00807,2.6814759,-3.3066797,0.63091409,-0.19188732,-0.7517491,0
-2.1987424,5.0653176,-0.020768642,-0.14402956,0.92312312,-0.35650975,0
3.3127835,-5.4429078,-1.408358,0.13344198,-0.92765558,0.34878111,0
-3.4119778,-0.2487731,3.1859989,-0.63091409,0.19188732,0.7517491,0
4.4035916,-2.155025,-1.7401952,0.63091409,-0.19188732,-0.7517491,0
-1.1217146,0.096111298,-6.3184805,-0.73207271,0.17364404,-0.65872395,0
-0.51711178,1.8603067,5.0771966,-0.63091409,0.19188732,0.7517491,0
1.8189878,0.1537137,-4.4986696,0.63091409,-0.19188732,-0.7517491,0
-1.9598055,1.9757872,3.8369224,-0.63091409,0.19188732,0.7517491,0
-0.34473419,2.6537948,5.0193243,-0.63091409,0.19188732,0.7517491,0
5.5810423,1.4933227,-1.6832633,0.63091409,-0.19188732,-0.7517491,0
3.1705735,-0.21842074,3.9740686,0.75338662,-0.079959691,0.6526984,0
0.88947749,0.23013878,-5.2982798,0.63091409,-0.19188732,-0.7517491,0
4.4790621,-1.1549296,-1.9321344,0.63091409,-0.19188732,-0.7517491,0
-1.8579888,-1.3630958,4.7746382,-0.63091409,0.19188732,0.7517491,0
-4.3195467,2.4299047,-1.8900691,-0.64048094,0.41802704,-0.6442343,0
3.1067965,-5.4919891,-1.472636,0.1013577,-0.9402436,0.32506698,0
4.9606996,-4.0114865,-0.79876572,0.63091409,-0.19188732,-0.7517491,0
3.7488692,-4.9525547,-1.5755962,0.63091409,-0.19188732,-0.7517491,0
-1.2707272,0.71384144,-5.9445057,-0.69958091,0.27824375,-0.65815431,0
4.6965322,-2.4070823,-1.4300027,0.63091409,-0.19188732,-0.7517491,0
1.5977478,4.7300577,-0.6457119,0.24562958,0.96849364,-0.041064858,0
6.1423736,-0.92762685,-0.59420156,0.63091409,-0.19188732,-0.7517491,0
4.1814265,0.92401981,2.626482,0.77491522,0.2034691,0.59842014,0
-5.2886124,-2.3896477,0.092435837,-0.68578535,-0.59105116,-0.42468482,0
5.5055013,1.5382913,-1.7581401,0.63091409,-0.19188732,-0.7517491,0
0.33750963,0.47836733,-5.8248863,0.63091409,-0.19188732,-0.7517491,0
-2.7758603,0.68223333,-4.3246808,-0.72789532,0.18897903,-0.6591323,0
6.3930759,0.82294261,-0.83063698,0.63091409,-0.19188732,-0.7517491,0
-2.6126401,2.8127217,3.0753922,-0.63091409,0.19188732,0.7517491,0
1.975956,4.4442816,-2.6584001,0.093323171,0.980667,-0.17199707,0
-4.0893774,1.4531698,2.1830544,-0.63091409,0.19188732,0.7517491,0
-1.7491179,-1.2935996,4.8482695,-0.63091409,0.19188732,0.7517491,0
1.4240539,-3.7839553,-3.8250148,0.63091409,-0.19188732,-0.7517491,0
2.0166876,-0.48196268,-4.1704888,0.63091409,-0.19188732,-0.7517491,0
-3.0888932,-2.3617513,3.9964979,-0.63091409,0.19188732,0.7517491,0
3.9386697,-2.597631,2.1477666,0.61501074,-0.46699372,0.63535714,0
-3.6764634,-4.0882316,1.9951415,-0.35234055,-0.93411797,-0.057268023,0
-0.79278135,-3.1394355,5.6054592,0.36026442,-0.78568202,0.50290489,0
-0.78425097,3.2292931,4.5035572,-0.63091409,0.19188732,0.7517491,0
2.8431349,-2.3386645,3.3977025,0.60795629,-0.4796946,0.63267863,0
4.1686954,-1.6136572,2.4836719,0.69839156,-0.28156662,0.65800428,0
3.6381145,-4.1658182,0.79750514,0.41277385,-0.73740494,0.5346511,0
-1.6844568,-1.1473627,-5.7330499,-0.77439642,-0.096408993,-0.62531221,0
-5.7541552,-1.9600217,0.28555012,-0.71311074,-0.52513325,-0.4644438,0
3.8396897,-2.9993844,-1.9979298,0.63091409,-0.19188732,-0.7517491,0
-1.7098107,2.3438034,-4.4631796,-0.57246053,0.53886467,-0.61799169,0
2.6695104,-1.2397401,-3.4291732,0.63091409,-0.19188732,-0.7517491,0
0.85600567,-1.4037647,5.9991565,0.6381318,-0.42276597,0.64347243,0
-1.0269663,-4.4391413,-3.5097172,-0.56404442,-0.77874744,-0.27460206,0
-1.849993,4.3812423,-1.7055612,-0.27842301,0.84839648,-0.45022672,0
4.0655832,0.74459314,2.8291099,0.77584535,0.16025445,0.61023158,0
4.3216801,2.880439,0.76426125,0.6625247,0.63746709,0.39331532,0
2.3204229,-1.6732802,4.3652325,0.65291601,-0.39208761,0.64804941,0
-4.321919,-3.2000141,3.1756372,-0.63091409,0.19188732,0.7517491,0
3.7229545,-3.6189938,1.4079353,0.49413192,-0.64762372,0.58001482,0
-5.9299703,-0.52124715,-0.49604464,-0.77358067,-0.22968152,-0.59060931,0
3.5110006,-0.92887497,-2.8022928,0.63091409,-0.19188732,-0.7517491,0
2.746067,-3.4980319,2.3687696,0.47059643,-0.67569572,0.56742787,0
-4.9752746,3.1868722,0.99701995,-0.63091409,0.19188732,0.7517491,0
0.21113479,5.1298413,0.63246536,0.20962095,0.97505677,-0.072960854,0
-6.66681,-0.18186307,0.43726397,-0.63091409,0.19188732,0.7517491,0
-5.9289751,2.1623337,0.4581337,-0.63091409,0.19188732,0.7517491,0
-4.7930775,-0.56073928,2.1065254,-0.63091409,0.19188732,0.7517491,0
3.2151756,4.2482305,-2.1279206,0.2880854,0.95760107,-0.0026530027,0
-4.1861358,-2.8756366,3.2067962,-0.63091409,0.19188732,0.7517491,0
2.7708838,0.2270956,-3.7185111,0.63091409,-0.19188732,-0.7517491,0
-2.2826967,-4.1680002,-1.672657,-0.53439653,-0.80992043,-0.24176264,0
4.8811302,2.4370453,0.49664021,0.69375485,0.57332033,0.43589914,0
3.9204197,1.7397342,-3.1398578,0.63091409,-0.19188732,-0.7517491,0
3.8455393,2.1412759,-3.3051965,0.63091409,-0.19188732,-0.7517491,0
-0.45794559,2.6634598,4.921844,-0.63091409,0.19188732,0.7517491,0
0.42658567,-1.2477837,6.5273972,0.64031869,-0.41835585,0.64418209,0
-1.9610057,1.6359396,3.9226623,-0.63091409,0.19188732,0.7517491,0
-0.53550482,-5.0515323,-0.58366299,-0.24214631,-0.96923357,0.044177055,0
1.2084646,2.1338964,6.0469899,0.77075851,0.26586837,0.57900387,0
4.5698757,2.0519547,1.4021573,0.73285437,0.46547735,0.49624133,0
3.7642853,-5.1996346,-1.4995903,0.63091409,-0.19188732,-0.7517491,0
0.84534466,-4.4481602,-4.1411619,0.63091409,-0.19188732,-0.7517491,0
-2.4311645,-3.9825327,-1.9187078,-0.57111961,-0.77068895,-0.28259695,0
-2.7740545,3.8143167,2.6842616,-0.63091409,0.19188732,0.7517491,0
3.9157157,-4.389677,0.26924387,0.39066422,-0.75856614,0.52149683,0
-3.0082049,-4.1851921,0.23753929,-0.44095936,-0.88590848,-0.14394808,0
0.87430668,1.4947829,-5.6338186,0.63091409,-0.19188732,-0.7517491,0
-1.3447406,2.1397104,4.3112803,-0.63091409,0.19188732,0.7517491,0
-2.7033761,4.5130587,2.5652223,-0.63091409,0.19188732,0.7517491,0
-6.2705584,-1.8902169,1.2058873,-0.63091409,0.19188732,0.7517491,0
-3.3836639,5.4687581,1.5042502,-0.13225323,0.92815286,-0.34791028,0
1.8037291,-0.56114912,-4.3290038,0.63091409,-0.19188732,-0.7517491,0
4.7773256,-3.549818,-1.0705075,0.63091409,-0.19188732,-0.7517491,0
4.1357307,-0.055047274,2.8497012,0.76688206,0.0073194206,0.64174628,0
0.083535194,1.4758248,-6.2926426,0.63091409,-0.19188732,-0.7517491,0
0.19366574,3.2766881,5.3121872,-0.63091409,0.19188732,0.7517491,0
-4.4849558,-1.4938035,2.6032891,-0.63091409,0.19188732,0.7517491,0
-2.8732369,1.7213235,3.1352673,-0.63091409,0.19188732,0.7517491,0
-3.8019323,1.8132393,2.3323867,-0.63091409,0.19188732,0.7517491,0
1.8746355,2.4537172,-5.039053,0.63091409,-0.19188732,-0.7517491,0
0.0087976456,-4.4353046,-4.8465252,0.63091409,-0.19188732,-0.7517491,0
-2.7513037,2.4023118,3.063776,-0.63091409,0.19188732,0.7517491,0
2.4722624,-0.037369728,-3.9016266,0.63091409,-0.19188732,-0.7517491,0
-4.7024865,-1.8266308,2.5056801,-0.63091409,0.19188732,0.7517491,0
-0.8305831,-3.4873605,-5.5468655,-0.71059597,-0.53187311,-0.46061289,0
-5.8423948,-1.2476108,1.4012012,-0.63091409,0.19188732,0.7517491,0
-0.52189893,5.1608906,4.23069,-0.63091409,0.19188732,0.7517491,0
0.73068285,-1.6753187,5.9304876,0.60995537,-0.47613037,0.63344651,0
-2.222106,-4.5502625,0.88309336,-0.29392484,-0.95582473,-0.0027012825,0
-3.9091311,0.82964277,-3.0255017,-0.73752272,0.15245399,-0.65788907,0
-5.0487847,2.8497672,1.0213732,-0.63091409,0.19188732,0.7517491,0
2.9912906,-0.39562964,-3.3745787,0.63091409,-0.19188732,-0.7517491,0
5.5141277,0.19446158,-1.4078817,0.63091409,-0.19188732,-0.7517491,0
5.3897839,2.447751,-0.34091425,0.67580211,0.6118623,0.41099417,0
0.35806143,-3.9614549,-4.6743536,0.63091409,-0.19188732,-0.7517491,0
0.036940798,5.1674423,2.6933446,0.38505071,0.91862547,0.088675022,0
-2.6783381,-2.6893423,4.4246812,-0.63091409,0.19188732,0.7517491,0
-2.2955043,-0.78580523,4.2600918,-0.63091409,0.19188732,0.7517491,0
-0.76371527,-4.9785519,-0.23851109,-0.23511299,-0.97065824,0.05044353,0
-3.4034214,-4.0297213,0.50603247,-0.45930624,-0.87327462,-0.16257083,0
2.8496051,-4.7656355,-2.3780262,0.63091409,-0.19188732,-0.7517491,0
-2.1679709,-3.2935402,-3.6877763,-0.69056147,-0.58055371,-0.43137282,0
5.4068947,2.2641156,-0.1127739,0.6950565,0.57031983,0.43775755,0
-3.2566226,4.3786111,2.1352222,-0.63091409,0.19188732,0.7517491,0
2.6999693,-4.3083234,-2.6203411,0.63091409,-0.19188732,-0.7517491,0
1.8967444,3.9999905,2.918335,0.60202616,0.73227262,0.31834161,0
3.4171138,4.1305318,-1.2465448,0.39315212,0.91438973,0.096555352,0
4.4205694,-2.5671191,1.698905,0.63118708,-0.43649822,0.64114916,0
-3.3764749,3.1403861,-2.2102332,-0.54011208,0.58696258,-0.60312021,0
-0.93132734,-1.2640033,-6.445025,0.63091409,-0.19188732,-0.7517491,0
3.111546,4.2430196,-2.8839707,0.20376605,0.97590035,-0.078089833,0
3.6684275,-4.5483484,-1.7462839,0.63091409,-0.19188732,-0.7517491,0
0.45007408,4.6419706,4.1179924,0.55720341,0.78630257,0.26693213,0
0.62801027,-3.6237652,3.830126,0.35118139,-0.79336113,0.49724203,0
-1.3342136,-4.5809669,-2.3328567,-0.49283332,-0.84746021,-0.19729793,0
4.0429611,3.9701524,-3.6063375,0.63091409,-0.19188732,-0.7517491,0
-1.3546598,-3.2840059,-4.9723997,-0.71427292,-0.5219627,-0.46622854,0
5.190197,-0.75190449,-1.4381807,0.63091409,-0.19188732,-0.7517491,0
-5.3322344,-0.5943625,1.6626143,-0.63091409,0.19188732,0.7517491,0
-4.6843348,0.66451353,-2.1721089,-0.75389636,0.077253729,-0.65243554,0
-1.6655756,-4.6370354,-1.0637856,-0.41370213,-0.90289724,-0.11673582,0
-2.8754573,0.23993087,3.5115361,-0.63091409,0.19188732,0.7517491,0
-0.3256107,5.235549,3.4899578,0.41861746,0.89998436,0.12160456,0
-2.2004774,4.7975097,2.9146786,-0.63091409,0.19188732,0.7517491,0
1.7117648,-1.7867954,-4.0933342,0.63091409,-0.19188732,-0.7517491,0
-4.7085414,-1.3447828,2.377604,-0.63091409,0.19188732,0.7517491,0
-1.2917671,-1.2803526,5.2287254,-0.63091409,0.19188732,0.7517491,0
1.4215083,-2.4664137,4.615746,0.54925513,-0.57386625,0.60745078,0
0.88965893,-0.053725243,-5.2256699,0.63091409,-0.19188732,-0.7517491,0
-4.3485827,2.8312616,1.6137495,-0.63091409,0.19188732,0.7517491,0
-4.4105697,0.12129545,2.2534573,-0.63091409,0.19188732,0.7517491,0
1.629107,3.9521041,-4.4473476,-0.13004655,0.92906928,-0.34629214,0
2.0895786,-3.2061822,-3.4139447,0.63091409,-0.19188732,-0.7517491,0
-5.3646288,-2.2770901,2.0649505,-0.63091409,0.19188732,0.7517491,0
1.2515955,4.8206244,-0.50458193,0.21953663,0.9734872,-0.064238191,0
-0.43161058,-2.9286122,-5.6007333,0.63091409,-0.19188732,-0.7517491,0
-5.4857602,2.5785444,0.72386694,-0.63091409,0.19188732,0.7517491,0
4.2511897,3.7012544,-3.3629413,0.63091409,-0.19188732,-0.7517491,0
5.7707334,-1.8658394,-0.66662169,0.63091409,-0.19188732,-0.7517491,0
2.8327193,2.8765786,-4.3429074,0.63091409,-0.19188732,-0.7517491,0
5.4936008,0.89272892,0.91182613,0.76948112,0.2786811,0.57466131,0
0.82151341,-4.7969351,1.2503436,0.10135877,-0.94024318,0.32506776,0
-2.2875676,1.1197219,3.7803588,-0.63091409,0.19188732,0.7517491,0
-2.7229042,-3.6046362,-2.2421002,-0.62776846,-0.69562644,-0.34930015,0
0.7122457,3.7277365,5.4337792,0.69144255,0.57857549,0.43261719,0
-6.161159,-0.62913477,0.97580528,-0.63091409,0.19188732,0.7517491,0
3.1988325,-1.3931704,-2.9457703,0.63091409,-0.19188732,-0.7517491,0
-1.5325882,5.6671462,3.2532334,-0.63091409,0.19188732,0.7517491,0
-0.21168137,3.2719235,-4.6698689,-0.38923502,0.75989121,-0.52063566,0
-3.8480346,4.0975661,-0.72512573,-0.43283296,0.71708626,-0.54629946,0
-1.0633078,-0.87735558,5.3175955,-0.63091409,0.19188732,0.7517491,0
-3.0463111,-2.6886961,4.1156902,-0.63091409,0.19188732,0.7517491,0
-0.38906193,4.0746331,-3.1781404,-0.24965185,0.86719018,-0.43087736,0
0.83689356,0.82216263,-5.4935284,0.63091409,-0.19188732,-0.7517491,0
4.0104847,-3.7467313,1.0200187,0.48885792,-0.65407723,0.57723576,0
-1.5018644,5.0831742,-0.20255542,-0.076944351,0.948681,-0.30673158,0
2.2036831,-3.8373482,2.3548975,0.39576745,-0.7537927,0.52456141,0
4.6430874,-2.3163252,1.6354806,0.65803206,-0.38096866,0.64950502,0
-4.0542989,-2.7547746,-1.392529,-0.68688822,-0.58865988,-0.42622089,0
-0.058118343,-2.0083165,-5.5221853,0.63091409,-0.19188732,-0.7517491,0
3.5363398,0.99426913,-3.2719181,0.63091409,-0.19188732,-0.7517491,0
0.84119487,-2.2249613,-4.7121263,0.63091409,-0.19188732,-0.7517491,0
-3.1677456,4.3982277,2.2048056,-0.63091409,0.19188732,0.7517491,0
2.9067557,-2.5525362,-2.8949656,0.63091409,-0.19188732,-0.7517491,0
-3.4226508,-4.1788912,1.9751139,-0.32587916,-0.94485891,-0.032318473,0
1.8427503,4.2204466,-3.6721785,-0.024297953,0.96357059,-0.26634806,0
-2.1418033,-3.8548927,-2.7828078,-0.61515975,-0.71416521,-0.33398616,0
-3.9374986,0.71489048,2.49897,-0.63091409,0.19188732,0.7517491,0
-3.5599442,-4.04915,1.1058989,-0.42171827,-0.89811331,-0.12468445,0
-1.937387,-3.5520387,5.2667389,-0.63091409,0.19188732,0.7517491,0
2.9350727,-3.4106877,2.3115411,0.49003708,-0.65264261,0.57785916,0
5.4530659,2.6860685,-2.0951223,0.63091409,-0.19188732,-0.7517491,0
-4.2628756,-1.3987038,2.765398,-0.63091409,0.19188732,0.7517491,0
5.6565695,-3.1747193,-0.42833734,0.63091409,-0.19188732,-0.7517491,0
-6.5580187,-0.2921083,0.55670834,-0.63091409,0.19188732,0.7517491,0
-2.5626049,-0.72601509,-4.706665,-0.77255356,-0.066116273,-0.63149798,0
5.0712461,1.8412082,-2.1999149,0.63091409,-0.19188732,-0.7517491,0
4.3676305,-2.5747631,-1.6632364,0.63091409,-0.19188732,-0.7517491,0
2.3113451,-1.4647603,4.4943905,0.66912365,-0.35586524,0.65240604,0
1.8805887,-3.3823113,-3.5443845,0.63091409,-0.19188732,-0.7517491,0
0.051817656,4.0418458,4.9978299,-0.63091409,0.19188732,0.7517491,0
-1.9801424,2.7602582,-3.8302736,-0.53488594,0.59428394,-0.60060275,0
5.3380418,-3.5658059,-0.59583879,0.63091409,-0.19188732,-0.7517491,0
-0.51721144,-0.99221706,5.8052325,-0.63091409,0.19188732,0.7517491,0
-1.4621601,-3.887161,4.5468588,0.16115701,-0.91538739,0.36890957,0
-3.4349031,3.7035913,2.1578999,-0.63091409,0.19188732,0.7517491,0
-0.39278072,-5.1008925,-1.6203737,-0.32449907,-0.94537699,-0.031027913,0
4.2491603,-2.0285242,2.1993122,0.67105967,-0.35133255,0.65287381,0
1.5983903,1.0318217,-4.9079499,0.63091409,-0.19188732,-0.7517491,0
-4.2789345,2.4960768,-1.8865867,-0.63365901,0.43165699,-0.64198792,0
4.3723869,-0.82636094,2.5040214,0.74390674,-0.12556025,0.65638208,0
-4.4349947,1.3812151,1.9113581,-0.63091409,0.19188732,0.7517491,0
1.0381753,0.13152981,-5.148313,0.63091409,-0.19188732,-0.7517491,0
-3.0876098,3.2108092,2.5751545,-0.63091409,0.19188732,0.7517491,0
0.75351143,-3.9332199,-4.3496752,0.63091409,-0.19188732,-0.7517491,0
-5.4289675,0.13405561,1.3954978,-0.63091409,0.19188732,0.7517491,0
-3.0965295,-4.1480503,0.28087568,-0.44658262,-0.88214254,-0.14962888,0
1.2981355,-4.962471,0.62242627,0.095168173,-0.94247544,0.32044202,0
4.8761072,0.086727738,1.9426782,0.77341014,0.078724802,0.62899858,0
5.4671302,-0.6668762,1.2592795,0.76149046,-0.032419801,0.64736497,0
-3.2710161,2.366802,2.6366649,-0.63091409,0.19188732,0.7517491,0
0.53375316,-1.8429704,-5.0676551,0.63091409,-0.19188732,-0.7517491,0
1.6212244,4.5651999,-2.1600609,0.10081637,0.98099399,-0.16579175,0
0.70391083,-5.116312,0.16298199,-0.023677111,-0.97324342,0.22855347,0
2.1993749,-0.52231503,-4.006866,0.63091409,-0.19188732,-0.7517491,0
1.3355036,-2.2612543,4.8817229,0.56909877,-0.544101,0.61650693,0
3.5894375,-2.5445001,-2.3240685,0.63091409,-0.19188732,-0.7517491,0
1.1848743,3.4641917,5.0240602,0.70309591,0.55107158,0.44941795,0
-2.2236476,-4.4849272,2.1287961,-0.17436385,-0.97921491,0.10361207,0
3.0518434,-2.7934442,2.827662,0.56799835,-0.5458023,0.6160177,0
2.63854,0.54671693,4.6287179,0.76996017,0.03566438,0.6370945,0
2.2638755,0.075810432,-4.1054077,0.63091409,-0.19188732,-0.7517491,0
-2.7285187,4.3097124,2.5960255,-0.63091409,0.19188732,0.7517491,0
1.999334,4.3950682,1.4684992,0.48641467,0.85269088,0.19057596,0
6.1216455,-1.8287263,-0.38158774,0.63091409,-0.19188732,-0.7517491,0
0.22629201,4.7501793,4.2628441,0.54662281,0.79755008,0.25518131,0
-4.441864,3.2768807,1.4217156,-0.63091409,0.19188732,0.7517491,0
3.8192875,-1.7877724,2.7689886,0.67917502,-0.33179906,0.65469879,0
-4.8613329,3.3091316,1.0614399,-0.63091409,0.19188732,0.7517491,0
4.7945395,3.641674,-2.3646464,0.4410823,0.88582718,0.14407206,0
3.5737371,4.0385761,-1.0772014,0.42584494,0.89558268,0.12879395,0
-3.7874558,0.23748589,2.7467546,-0.63091409,0.19188732,0.7517491,0
4.897265,-4.5442004,-0.69649374,0.41348308,-0.73670501,0.53506768,0
2.6731803,3.3169897,2.8308816,0.67066789,0.62202489,0.40409124,0
-0.18014312,-1.5469255,-5.7423673,0.63091409,-0.19188732,-0.7517491,0
-0.36077952,2.3135362,5.0927114,-0.63091409,0.19188732,0.7517491,0
4.3756943,-2.1617465,1.9962748,0.66380769,-0.36807469,0.651061,0
0.14614773,-3.3433917,4.6121545,0.37414044,-0.77358013,0.51146138,0
1.7056987,1.0798225,-4.830142,0.63091409,-0.19188732,-0.7517491,0
-1.0085888,3.8345377,4.1607871,-0.63091409,0.19188732,0.7517491,0
5.0153441,3.3276999,-1.5528102,0.5370717,0.80726916,0.24468458,0
-4.4551516,0.19878197,-2.4693089,-0.76577353,0.0016606152,-0.64310825,0
4.7419934,2.932934,-2.7549129,0.63091409,-0.19188732,-0.7517491,0
-5.9224105,0.20854783,0.96235561,-0.63091409,0.19188732,0.7517491,0
4.5351505,-4.5436602,-1.0200733,0.63091409,-0.19188732,-0.7517491,0
1.5257921,-0.72774744,-4.5197411,0.63091409,-0.19188732,-0.7517491,0
5.2920609,-2.8405912,-0.81954312,0.63091409,-0.19188732,-0.7517491,0
1.6092398,-0.52443981,-4.5016017,0.63091409,-0.19188732,-0.7517491,0
-0.076809406,-3.0092716,5.2605424,0.41689336,-0.73332119,0.5370661,0
0.70081878,-2.4961958,-4.760705,0.63091409,-0.19188732,-0.7517491,0
0.94894552,3.6576805,-4.7925024,-0.25180018,0.86584187,-0.43233624,0
-0.82152843,-3.7064834,4.6205049,0.24964297,-0.86719561,0.43087131,0
2.0996537,1.9936028,4.9215145,0.76789129,0.29289129,0.56969982,0
-2.3367441,-4.5118294,0.77011442,-0.31751239,-0.94793737,-0.024510741,0
3.8031693,-3.2797394,-1.9570181,0.63091409,-0.19188732,-0.7517491,0
-2.6012726,0.99520564,3.548861,-0.63091409,0.19188732,0.7517491,0
4.2015228,2.0322111,-2.9785945,0.63091409,-0.19188732,-0.7517491,0
-4.0469999,-3.81791,1.1888137,-0.46689048,-0.86775333,-0.17034531,0
-0.54896688,3.9569626,-3.3092732,-0.28419083,0.84443402,-0.45405596,0
-0.92370701,-3.5307572,5.023447,0.27981877,-0.84744358,0.45115495,0
-0.45708299,0.71840096,5.4190531,-0.63091409,0.19188732,0.7517491,0
-6.3500681,-1.7600766,1.1059394,-0.63091409,0.19188732,0.7517491,0
-3.2902479,-2.3692751,3.8294291,-0.63091409,0.19188732,0.7517491,0
-2.6701767,5.5752578,1.6414907,-0.030759931,0.96198452,-0.27136648,0
0.53027296,0.51871729,6.2986736,-0.63091409,0.19188732,0.7517491,0
0.33539665,-5.2440205,-0.75030613,-0.15776703,-0.98041892,0.11784858,0
-0.73980141,-3.3784103,-5.7445726,0.63091409,-0.19188732,-0.7517491,0
-3.083441,1.8177897,-3.5079346,-0.65995491,0.37671712,-0.65003359,0
0.36495352,-4.9765148,0.7189002,-0.0083658695,-0.97055894,0.24071831,0
-2.9803956,3.3056381,-2.3888783,-0.505373,0.63354015,-0.58585417,0
-3.5552893,5.0910659,1.702705,-0.63091409,0.19188732,0.7517491,0
0.25949097,-0.36783075,-5.6743693,0.63091409,-0.19188732,-0.7517491,0
1.2078481,3.6428924,-4.9708481,-0.23790669,0.87440717,-0.42286229,0
0.84535265,-2.9306886,4.6206965,0.46912032,-0.67739552,0.56662297,0
2.9344618,2.004535,-4.0349255,0.63091409,-0.19188732,-0.7517491,0
0.76283956,-4.3142853,-4.2445774,0.63091409,-0.19188732,-0.7517491,0
1.9114578,-5.321311,-3.0235388,0.63091409,-0.19188732,-0.7517491,0
2.8323743,3.2682626,-4.4431753,0.63091409,-0.19188732,-0.7517491,0
2.7019703,-3.2183497,2.7234478,0.50570357,-0.63311905,0.58602405,0
1.947795,-1.3934352,-3.9956503,0.63091409,-0.19188732,-0.7517491,0
3.5577626,3.3952365,1.156796,0.62025678,0.70681411,0.34014022,0
-2.7789602,4.3123217,-1.2120069,-0.3451122,0.79838783,-0.49343145,0
1.2897801,-2.5315385,4.6713457,0.5370937,-0.59120524,0.60166991,0
-3.1408105,1.966861,2.8480289,-0.63091409,0.19188732,0.7517491,0
-2.3668582,1.921684,3.5091085,-0.63091409,0.19188732,0.7517491,0
1.1298718,3.3150842,-5.5467253,-0.30985779,0.82598579,-0.47088826,0
4.4754634,3.8108187,-2.5284066,0.39123046,0.91540909,0.094682336,0
6.3998237,-1.342214,-0.27230787,0.63091409,-0.19188732,-0.7517491,0
3.0391221,-2.7366891,-2.7368693,0.63091409,-0.19188732,-0.7517491,0
-3.9896221,-1.955318,3.1368072,-0.63091409,0.19188732,0.7517491,0
-5.1595201,-1.5008402,-1.0065913,-0.75297463,-0.38500214,-0.53366923,0
-1.1403642,5.5634899,2.6325977,0.24714278,0.9681651,-0.039711118,0
-0.91914701,5.3191996,0.75947523,0.090179622,0.98050231,-0.17459321,0
1.6729487,4.3798118,2.308845,0.5264653,0.81760502,0.23314488,0
3.0532184,2.5497525,-4.0744271,0.63091409,-0.19188732,-0.7517491,0
1.9745345,0.27130318,-4.3981409,0.63091409,-0.19188732,-0.7517491,0
-1.5462101,-2.0629582,5.2149444,-0.63091409,0.19188732,0.7517491,0
-4.5391164,-3.8232365,2.9815373,-0.35621122,-0.93241537,-0.060951114,0
-0.70929527,3.9125628,-3.2879033,-0.30254054,0.83138257,-0.46612483,0
1.6200631,1.3370914,-4.9676824,0.63091409,-0.19188732,-0.7517491,0
-0.79143673,5.4668212,2.6511559,0.28856975,0.95745641,-0.0022095442,0
0.031420946,1.534348,5.6207614,-0.63091409,0.19188732,0.7517491,0
0.28381288,4.8089128,3.9407248,0.5244143,0.81955016,0.23092699,0
-0.24250889,1.1648335,-6.4868975,0.63091409,-0.19188732,-0.7517491,0
-1.4872189,-3.2123098,5.5578303,-0.63091409,0.19188732,0.7517491,0
-1.0301542,-1.1648798,-6.5353494,-0.77215368,-0.060794413,-0.63252097,0
3.263428,2.3551629,3.0442951,0.73868287,0.4448773,0.50639123,0
4.8067541,0.32661772,-2.0352869,0.63091409,-0.19188732,-0.7517491,0
-5.6916409,1.8231376,-0.76864219,-0.71398187,0.23556617,-0.65934694,0
-5.0925708,-1.961826,2.2128057,-0.63091409,0.19188732,0.7517491,0
-5.2601147,3.3605189,0.71364105,-0.63091409,0.19188732,0.7517491,0
4.2527189,3.5084028,-3.3124323,0.63091409,-0.19188732,-0.7517491,0
-2.296535,-3.5927069,4.9757004,-0.63091409,0.19188732,0.7517491,0
-3.3059959,-3.3603489,4.0691886,-0.63091409,0.19188732,0.7517491,0
-0.3265743,5.3254509,2.1412907,0.29274651,0.95618868,0.0016194582,0
-6.1645279,1.5122485,0.42638087,-0.63091409,0.19188732,0.7517491,0
