-0.80124545,-1.3565415,0.0028982726,-0.50856507,-0.86102164,0.0018395864,0
0.032377757,1.4017855,-0.24963583,0.022733865,0.98425603,-0.17528044,0
1.4840225,0.30033943,-0.24660259,0.96738243,0.19578078,-0.16075163,0
-0.42244416,1.1458085,-0.7867021,-0.29080629,0.78876293,-0.54155773,0
-0.33379823,1.3552611,0.16984846,-0.23739985,0.96387202,0.12079752,0
1.4453559,0.29497173,-0.28502128,0.96201146,0.19632964,-0.18970673,0
-1.1039766,0.87010801,-0.48437729,-0.74253541,0.58523524,-0.32579252,0
0.66495305,1.3006104,-0.45299187,0.43479082,0.85042614,-0.2961964,0
-1.1126601,0.21860527,0.80563468,-0.79990625,0.15715826,0.57918155,0
1.1134479,0.88304073,0.3104288,0.76546091,0.60706311,0.21341017,0
0.4008933,-0.97243506,-0.82658815,0.29967576,-0.72691464,-0.61789119,0
-0.87167871,0.9658289,-0.56472367,-0.61459595,0.6809786,-0.39817068,0
-0.11276615,-1.4155395,-0.2096058,-0.078560211,-0.98615664,-0.146025,0
-0.67759371,1.2659385,-0.26419339,-0.4641127,0.86709505,-0.18095726,0
0.97125566,0.75982642,-0.62868744,0.701689,0.54894078,-0.45419872,0
0.89994764,0.25776067,1.1410755,0.60974532,0.17464167,0.77311766,0
1.3156422,-0.22528543,0.72347504,0.86655158,-0.1483849,0.47651893,0
-0.71668631,1.0966457,-0.68833923,-0.48428264,0.74103057,-0.46512783,0
0.018998722,-1.2261344,0.75432104,0.013196209,-0.8516534,0.52393937,0
0.68829,-1.2855355,-0.31865624,0.46113166,-0.86126649,-0.2134892,0
-0.33442014,-0.78007483,-1.0609381,-0.2461406,-0.57415229,-0.78087384,0
1.2928516,-0.080159731,0.71948779,0.87252253,-0.054098379,0.48556954,0
-1.3605819,-0.46413204,-0.4919647,-0.89546257,-0.30546701,-0.32378498,0
-0.97336876,1.1200086,-0.2318763,-0.64810181,0.74573952,-0.15439107,0
0.95165932,-1.1515419,0.2567336,0.62783098,-0.75969803,0.1693729,0
1.1515042,-1.0335339,-0.37660581,0.72308952,-0.64900982,-0.23649043,0
-1.1395341,0.5114373,0.75965714,-0.77948231,0.34984151,0.51963282,0
0.80314904,-1.2368503,0.39993894,0.52561951,-0.8094545,0.26173934,0
-1.292649,-0.24642311,0.5033437,-0.91748315,-0.17490366,0.35725811,0
1.3108757,-0.66933447,0.37280181,0.8633557,-0.44083032,0.24553098,0
-0.91886145,-0.17732924,0.9646275,-0.68369144,-0.13194424,0.71774429,0
-1.1361629,0.98832911,-0.038105384,-0.75424522,0.65610534,-0.025296375,0
-0.96981782,-0.099524938,1.1321933,-0.64910138,-0.066612281,0.75777972,0
0.1361798,0.92656523,-1.2332215,0.087942109,0.59835672,-0.79638898,0
-0.20169699,1.3967007,0.30937308,-0.13961141,0.96677369,0.21414305,0
-0.09284582,-0.67741591,1.3784208,-0.060340956,-0.44025594,0.89584249,0
-0.68439859,-0.81758028,0.92791599,-0.48420113,-0.57842505,0.6564858,0
1.3129936,-0.39910862,-0.57884383,0.88156122,-0.26796678,-0.38864338,0
-0.85469019,0.68070042,-0.94717228,-0.59106249,0.47073954,-0.65501863,0
-0.72276807,-0.12088632,-1.293228,-0.48624736,-0.081327133,-0.87002838,0
-0.92590761,1.0763323,0.36691901,-0.63140124,0.73397988,0.25021189,0
-0.34773964,-0.77371937,-1.2220722,-0.23375507,-0.52010417,-0.82149273,0
-0.20313595,-1.1968031,-0.73360723,-0.14321759,-0.84378594,-0.51721746,0
-1.1527845,0.75453347,-0.70808339,-0.74417889,0.48708835,-0.45710254,0
0.95545536,1.0527506,-0.18177393,0.66663313,0.73451722,-0.12682593,0
-0.54791731,0.95166695,-1.0767609,-0.35626417,0.61878836,-0.70012635,0
0.69663733,-0.61213654,-1.0589986,0.49489209,-0.43486261,-0.75231403,0
-0.33717483,0.50066626,-1.2647681,-0.24059427,0.35725513,-0.90248722,0
0.39996913,-1.268708,-0.40535706,0.28761292,-0.91231245,-0.29148734,0
1.2825928,0.34141544,0.32865179,0.93801981,0.24969301,0.24035835,0
-0.74829674,-0.90461862,-0.87482405,-0.5110954,-0.61786509,-0.59751505,0
0.12299214,-1.0123119,1.0105933,0.085667707,-0.70510554,0.70390844,0
-0.11394484,-0.60447824,-1.3920372,-0.074870683,-0.39718953,-0.91467744,0
-0.094395846,-1.1224926,0.80012894,-0.068318419,-0.81239712,0.57908845,0
1.3653671,-0.42628282,0.40807578,0.91793245,-0.28658876,0.2743482,0
-0.71592504,1.2294731,0.20690134,-0.49796799,0.85517091,0.14391206,0
-0.10879105,-0.88455057,-1.0831788,-0.07755883,-0.63060981,-0.77221495,0
-0.71132702,0.084139228,1.3427296,-0.46741337,0.055287931,0.8823083,0
-0.99070257,0.9034918,0.46859619,-0.69750988,0.63610864,0.32991788,0
0.98095036,0.18160205,1.0485623,0.67777169,0.12547499,0.72448707,0
-0.46695277,1.2843597,0.68101496,-0.30581868,0.84115827,0.44601318,0
-0.82768357,-0.95614403,0.59970987,-0.59136498,-0.68314767,0.42848191,0
-0.57670325,0.62372333,-1.1587489,-0.40138787,0.43411407,-0.80649406,0
0.68514884,-0.083125934,1.3274494,0.45794168,-0.055559941,0.88724434,0
0.57536387,-1.2813389,-0.16655013,0.40678146,-0.90590489,-0.11775071,0
0.66314018,-0.36378822,-1.1917323,0.4698135,-0.25773227,-0.84430403,0
1.3625091,-0.56217605,-0.17471795,0.91797793,-0.3787609,-0.1177146,0
1.1644007,0.43901929,0.83542001,0.77687275,0.29290786,0.55738115,0
1.3693804,-0.042142257,0.30135038,0.97619069,-0.030041967,0.21482377,0
-0.012375521,0.55059373,1.3706046,-0.0083781807,0.37274984,0.92789406,0
0.9930563,-0.73037809,0.75000209,0.68821067,-0.50616866,0.51976854,0
-1.4634699,0.02678287,-0.090374023,-0.99793226,0.018263096,-0.061625563,0
-1.3409665,-0.14080772,0.6864776,-0.88627696,-0.093063205,0.45370954,0
-1.0878224,-1.0233665,-0.37952432,-0.7059207,-0.66409326,-0.24628474,0
0.63791329,1.2892528,-0.10847009,0.4422206,0.89374864,-0.075194716,0
-1.3346709,0.074550986,-0.41975585,-0.95258349,0.053208653,-0.29958883,0
-0.31826723,1.4696102,0.34878144,-0.20618522,0.95206755,0.22595344,0
-1.1223675,0.068826206,0.90142208,-0.77878225,0.04775675,0.62547386,0
0.83194089,0.69528347,0.87523812,0.59705472,0.49898046,0.62812757,0
1.1834036,0.67855567,0.2611745,0.85203254,0.48854974,0.18804166,0
0.6238302,1.1571788,0.65610093,0.42459095,0.78759837,0.44655505,0
0.17462939,1.3060504,-0.57469213,0.12147756,0.90852869,-0.39977348,0
1.0524253,-0.012894714,0.99385494,0.72701955,-0.0089077195,0.68655896,0
0.75695312,-0.005685247,1.0898627,0.57044345,-0.0042844289,0.82132572,0
0.57252967,0.47753122,1.1702756,0.41261098,0.34414744,0.84339482,0
0.79923022,-1.1389508,-0.37923312,0.55419368,-0.7897591,-0.26296377,0
-0.42194307,-0.69451076,-1.2719115,-0.27955267,-0.46013871,-0.84268773,0
0.64811391,-1.2638298,0.23197922,0.45034721,-0.87818241,0.16119264,0
-0.57826465,1.3965789,-0.028347418,-0.3824935,0.92376792,-0.018750416,0
1.0328673,-0.8553986,0.77540696,0.66674387,-0.55218303,0.50054628,0
-1.286652,-0.27736983,-0.43007189,-0.92919791,-0.20031172,-0.31059051,0
0.97551322,-0.98801553,-0.41147664,0.67363119,-0.68226451,-0.28414118,0
-0.02216742,-1.4637425,0.36710635,-0.014687819,-0.96985507,0.24323948,0
-1.0375524,-0.71497464,0.68255752,-0.72402459,-0.49892348,0.47630218,0
-0.096744828,-1.4191308,0.060060456,-0.067953475,-0.99679613,0.042186409,0
0.38626361,-1.1115501,0.88431698,0.26240882,-0.75513333,0.60076219,0
-1.1444118,0.90872675,0.28155491,-0.76899117,0.61062187,0.18919173,0
1.2519658,-0.46835443,0.38635057,0.89977759,-0.33660251,0.27766702,0
0.67920858,-1.2071359,0.064735584,0.4898333,-0.87056524,0.046686165,0
-0.26477027,1.3546728,0.43104139,-0.18309994,0.93681407,0.29808351,0
-0.90012783,-0.80168951,-0.7135902,-0.6425966,-0.57232195,-0.50942832,0
-0.22902191,-1.3951491,0.26097986,-0.1592966,-0.97039849,0.18152502,0
0.21561748,-0.83206171,1.2216648,0.14434664,-0.55702955,0.81785208,0
-0.7390694,-1.1021161,0.84092206,-0.4704459,-0.70153904,0.53527904,0
-0.93698245,0.74635005,-0.93900359,-0.61559677,0.49035144,-0.61692464,0
0.9630565,-0.98469371,0.18260963,0.69314319,-0.70871615,0.1314301,0
0.13724159,-1.4149864,0.51231086,0.090821095,-0.93638241,0.3390272,0
0.54036927,-1.2937708,0.30850539,0.37640017,-0.90119034,0.21489283,0
0.058889367,-1.3448557,-0.51362193,0.040872615,-0.93340731,-0.35648322,0
-1.3984011,-0.068659507,-0.30818939,-0.9754445,-0.047892936,-0.21497525,0
0.12492938,0.8240065,-1.0695961,0.092133477,0.60769194,-0.78881043,0
-0.14969544,-0.77909875,1.2358516,-0.10193197,-0.5305109,0.84152722,0
1.3452605,0.10618963,-0.22726372,0.98305535,0.077598564,-0.16607402,0
0.69026858,-0.75769854,1.0681787,0.46627176,-0.51182026,0.72154742,0
-1.0466232,0.20032762,1.140992,-0.67038715,0.12831461,0.73083264,0
0.95460474,0.14611353,1.0832021,0.6578092,0.10068547,0.7464245,0
-1.3547326,-0.29828495,-0.3743411,-0.94287926,-0.2076031,-0.26053736,0
1.3269929,0.31530145,0.38691849,0.93598139,0.22239478,0.27290916,0
-1.4191158,0.091944776,-0.14384648,-0.99284142,0.064326383,-0.10063784,0
0.38350591,-0.91828865,1.0469768,0.26549953,-0.63572741,0.72481769,0
0.054998621,-1.3445817,0.77560592,0.035409443,-0.8656742,0.49935386,0
-0.77629745,-0.67153704,-0.92697984,-0.56128442,-0.48553976,-0.67023194,0
1.1652784,0.46664315,-0.68130648,0.81589645,0.32673094,-0.47703239,0
-1.1746988,-0.55914319,0.43126753,-0.8570677,-0.40795442,0.31465551,0
-0.66005903,0.38021499,-1.0942909,-0.49505317,0.28516635,-0.82073289,0
-0.21588558,1.4208664,-0.13380857,-0.1495685,0.9843958,-0.092704423,0
-1.0009947,0.99126381,-0.27072605,-0.69778401,0.6910007,-0.1887206,0
-1.3722507,0.33026084,0.49351117,-0.91775542,0.22087705,0.33005816,0
-0.86381495,-1.0782819,0.10616689,-0.62338215,-0.77815467,0.076616578,0
0.90246344,-0.84199774,0.66015804,0.64474684,-0.60154837,0.47163665,0
-0.22753054,0.64239514,1.2383147,-0.16097432,0.45448458,0.87608844,0
0.41488108,-1.3819844,0.097023174,0.28688174,-0.95561385,0.067089535,0
0.033019099,0.11681768,1.5332315,0.02146844,0.075952806,0.99688023,0
-1.2972007,0.31741425,0.61862379,-0.88137394,0.21566489,0.42031962,0
0.30495811,-1.485646,-0.19351719,0.19945998,-0.97169715,-0.12657127,0
0.74774915,-0.10223326,1.1707664,0.53681463,-0.073394015,0.84050184,0
0.89385682,-0.037695166,-1.0519733,0.64727235,-0.027296361,-0.76176995,0
-0.035966374,-0.94726294,1.0783917,-0.025049664,-0.6597445,0.75107235,0
0.58177179,-0.37541571,-1.2555108,0.40576306,-0.26183778,-0.87566966,0
-0.78909647,-0.49511626,1.0462825,-0.56327826,-0.35342729,0.74686462,0
-0.020158386,-1.1845124,-0.71443009,-0.01457128,-0.8562125,-0.5164184,0
1.385497,0.17183124,-0.11668743,0.9889487,0.12265077,-0.083289884,0
-0.94328415,0.47246125,-1.0836731,-0.62370044,0.31239185,-0.71652573,0
0.081498936,-0.66222608,-1.1784555,0.060180951,-0.48900509,-0.87020242,0
1.0530024,-0.53326321,0.8492716,0.72415417,-0.36672735,0.58404768,0
0.86689001,0.23220728,-1.2421665,0.56568974,0.15152705,-0.81057674,0
-0.10192618,-0.41115099,-1.4125665,-0.069115944,-0.2788007,-0.95785862,0
1.0799544,-0.93587387,0.24124984,0.74517494,-0.64575857,0.16646382,0
-0.15517147,1.2397761,-0.76534128,-0.10590317,0.84613639,-0.52233875,0
-0.4755592,-0.86613148,-1.1336682,-0.31622928,-0.57594538,-0.75384742,0
-0.79777968,0.54498225,1.1672379,-0.52650958,0.35967121,0.77034038,0
0.59219539,1.1287302,0.66598678,0.41177678,0.7848506,0.46308684,0
0.96995538,-0.027927376,1.0169803,0.69004214,-0.019867994,0.72349644,0
-0.02448404,-1.0271469,0.96183562,-0.01739672,-0.72982186,0.68341601,0
0.082241587,-1.5038786,-0.28198442,0.053672142,-0.98145461,-0.18402743,0
-1.4341999,-0.27767828,0.26804882,-0.96564674,-0.18696077,0.18047726,0
1.3725867,0.084413171,-0.18767184,0.98894757,0.060819618,-0.1352174,0
0.13477047,1.3602628,0.44451392,0.09376099,0.94634664,0.3092522,0
-0.67205912,-1.4014753,0.18545994,-0.429346,-0.89533466,0.11848137,0
1.2888013,-0.54062647,0.24608794,0.90818214,-0.38096431,0.17341127,0
0.79822373,1.2357018,0.063702583,0.54209715,0.83920139,0.043262295,0
0.96619087,-0.21855538,0.94350153,0.70626813,-0.15976004,0.6896826,0
-0.13175039,0.73171461,-1.2702924,-0.089512125,0.49713197,-0.86304545,0
0.073676765,0.93769979,1.048026,0.052319285,0.66587859,0.74422336,0
0.19817314,1.389105,-0.40528983,0.13568586,0.95109719,-0.27749524,0
-0.096927784,-0.480097,1.3705888,-0.066595383,-0.32985634,0.94167924,0
0.36948586,1.1446959,0.62427431,0.27264306,0.8446694,0.46065107,0
-0.92880976,0.34509733,1.0970017,-0.62832153,0.23345155,0.7421,0
1.3778598,-0.41473523,0.079396434,0.95610809,-0.28778815,0.055093829,0
0.17615947,-0.91820174,1.0881877,0.12278742,-0.64000887,0.75849319,0
0.081347108,-1.5274384,0.13588628,0.052973215,-0.99466753,0.088489115,0
-0.87120289,0.67234421,0.86568385,-0.62221634,0.48019075,0.61827463,0
0.9300642,0.059881371,-0.96490353,0.69329745,0.044637352,-0.71926773,0
0.69535154,-1.154166,0.28184289,0.50511968,-0.83841324,0.20473729,0
-0.55249822,1.2459366,-0.43886608,-0.38586119,0.87015408,-0.30650124,0
-0.99834299,-0.87986869,-0.35916442,-0.72430146,-0.63834792,-0.26057509,0
-1.0680304,-0.66538268,0.64189541,-0.75607151,-0.47103238,0.45440549,0
1.1972797,-0.76601923,-0.096049309,0.84043127,-0.53770769,-0.067421876,0
-0.75543463,1.1334337,0.12356332,-0.55233681,0.82871115,0.090343446,0
0.37237158,1.02538,-0.93267775,0.25944656,0.71442431,-0.64983487,0
-0.28517634,-0.95340192,1.1173725,-0.19059157,-0.63718605,0.74677229,0
-0.4666816,-0.58614439,-1.2334267,-0.32337579,-0.40615466,-0.85467339,0
1.034891,-1.1106994,0.020720227,0.68163431,-0.73156571,0.013647444,0
0.82726419,0.081097007,1.05205,0.61699176,0.060483925,0.78464192,0
-1.498134,-0.08598835,-0.066683598,-0.99737251,-0.05724616,-0.04439415,0
1.2258409,-0.66523236,0.25278014,0.86483133,-0.46932173,0.1783365,0
1.0545187,0.87747335,-0.31780875,0.74885207,0.62312573,-0.22568755,0
0.52800256,-1.1133276,-0.9668234,0.33711988,-0.71083915,-0.6172989,0
0.28754431,-1.231886,-0.49573562,0.21163693,-0.9066866,-0.36486885,0
1.2672786,-0.51719016,0.63774097,0.83923995,-0.34250295,0.42233628,0
-1.2363521,0.5139277,0.61129206,-0.83999413,0.34916934,0.41531998,0
-1.0632203,-0.94766146,0.19297308,-0.73975104,-0.65934932,0.13426384,0
-0.12838486,0.38563165,1.5010289,-0.082558222,0.24798144,0.9652406,0
1.3076824,0.031732865,0.52476919,0.92782575,0.022515077,0.37233382,0
0.99840468,0.55564243,-0.75053781,0.73032898,0.40645018,-0.54901534,0
-0.65806139,1.313203,-0.034983456,-0.44788152,0.89377582,-0.023810003,0
-0.13057296,1.2375261,-0.58474153,-0.094966732,0.90006232,-0.42528707,0
-0.78303182,-1.0193064,-0.6453228,-0.54443336,-0.70871246,-0.4486858,0
0.77366197,0.58463252,-0.96453929,0.56565422,0.42744747,-0.705212,0
0.50269079,-0.63884681,1.1887412,0.34906313,-0.44360843,0.82544923,0
1.0069035,-0.81475437,0.65581697,0.69354671,-0.56119597,0.45172125,0
-0.19733168,0.62714821,-1.3937473,-0.12805146,0.40696579,-0.90442336,0
-0.66517848,1.1368062,-0.88005233,-0.41991693,0.71764827,-0.55556345,0
-0.4939974,1.2359056,-0.1404456,-0.3691051,0.92344433,-0.10493819,0
1.1837759,0.68647367,0.20472863,0.85554624,0.49613273,0.14796281,0
-0.58148742,-0.60992861,1.2568463,-0.38427421,-0.4030695,0.8305831,0
-0.75497502,-1.133028,0.28365797,-0.54285234,-0.81468511,0.20395958,0
0.39584881,-1.399303,0.27668536,0.26741049,-0.94528079,0.18691117,0
-0.7171337,0.28542387,-1.1773915,-0.50938773,0.20273963,-0.83631378,0
0.80772269,0.77130634,0.93764919,0.55389571,0.52892321,0.64299279,0
-0.49012208,-1.3409626,-0.19064568,-0.34026852,-0.93096679,-0.13235626,0
-1.1508991,-0.68556207,0.798024,-0.73808855,-0.43966109,0.51178455,0
1.1701719,0.66454279,-0.68614739,0.77467352,0.43993855,-0.45424116,0
0.86771274,0.62152481,0.9527331,0.60649282,0.43441835,0.66591829,0
-1.364742,0.18482947,0.55697209,-0.91866922,0.12441703,0.37492296,0
-0.38267705,-0.33688125,1.3752638,-0.26090586,-0.22968268,0.93764281,0
-0.32511827,0.47559893,1.405497,-0.21403641,0.31310293,0.92528641,0
0.55247462,-1.2086098,0.71254599,0.36639279,-0.80153173,0.47254971,0
-0.75447321,0.6280219,-0.99930763,-0.53859943,0.448329,-0.71338058,0
0.87682235,-1.1490445,-0.014852715,0.6066063,-0.79493594,-0.010275457,0
-0.40867546,1.1695359,-0.70142043,-0.28705883,0.82149684,-0.49268663,0
-1.3159893,-0.13414147,-0.78137243,-0.85656989,-0.087311924,-0.50859088,0
0.0010893859,-0.037015971,1.3705114,0.0007945855,-0.026999021,0.99963516,0
1.2364284,-0.3647584,0.76578474,0.82460999,-0.24326797,0.51072407,0
-0.50818717,-0.096198782,1.4392539,-0.33228618,-0.062901087,0.94107878,0
0.79124951,0.43550482,1.1613404,0.5378232,0.29601863,0.78937906,0
0.51091993,1.3473471,0.49400297,0.33540484,0.88449621,0.32429931,0
-0.43192413,-1.1609881,-0.67749202,-0.30591804,-0.82229072,-0.47984591,0
-0.43577543,-0.80110174,1.0180843,-0.31882748,-0.58611208,0.74486357,0
0.89835703,-0.82925725,0.55556732,0.66897023,-0.61751443,0.41370857,0
-0.65016222,-1.1278663,0.61914772,-0.45100838,-0.78238499,0.42949405,0
-0.10714505,-0.93345523,1.1055962,-0.073846415,-0.64335513,0.761998,0
0.3915818,-1.241976,0.46651375,0.28308117,-0.89784575,0.33725077,0
1.3666422,0.092010893,-0.0091392007,0.99771905,0.067172676,-0.0066720862,0
-0.23917931,0.34804791,-1.3833525,-0.16536435,0.24063419,-0.95642555,0
-0.51720101,0.99080294,-0.83261895,-0.37109524,0.71090782,-0.59740978,0
-0.94429982,-1.0574294,0.05343252,-0.66560853,-0.74535018,0.037662975,0
-0.090323538,-1.4527725,0.34108442,-0.06041681,-0.97174984,0.2281491,0
-1.2926503,0.62103248,-0.2376035,-0.88924807,0.42722452,-0.16345368,0
-0.66169769,0.17738424,1.1515205,-0.49384433,0.13238706,0.85941344,0
-0.70906579,-1.1341459,-0.42459711,-0.50527263,-0.80818009,-0.30256331,0
-0.58506858,1.3119835,-0.25816539,-0.40085837,0.89890242,-0.1768814,0
-0.43002415,1.2287105,0.60256964,-0.29977646,0.85655308,0.42006058,0
-0.80369514,-0.71446103,-0.83874893,-0.58931684,-0.52388507,-0.61502033,0
-0.32098326,0.9014926,-0.94387138,-0.23880857,0.67070216,-0.70223159,0
-0.8848182,-0.072765149,1.1003836,-0.6258108,-0.051465057,0.77827513,0
-0.38899854,1.2823788,-0.66017967,-0.26039624,0.85842639,-0.44192532,0
-1.2087214,-0.61551797,-0.1779976,-0.88353783,-0.44992453,-0.13011073,0
-0.0056823068,-0.73242646,-1.2891912,-0.0038323218,-0.49397084,-0.86947006,0
-0.24186406,-1.4752234,0.13584016,-0.16112691,-0.98277605,0.09049508,0
-0.85367602,-1.1297888,-0.017782595,-0.60281157,-0.79778475,-0.012556935,0
-1.06381,0.96134889,0.0153018,-0.74189103,0.67043561,0.010671331,0
-0.6487627,-0.095472522,1.2652892,-0.45523399,-0.066992655,0.88784802,0
-0.98278314,-0.84383833,0.76906091,-0.65238506,-0.56015158,0.51051331,0
-1.1883111,-0.45938227,0.87362516,-0.76924443,-0.29737771,0.56553477,0
-1.0754619,0.19111304,0.81922758,-0.78766197,0.13997006,0.59999746,0
1.2491413,-0.60310519,0.14195757,0.89585233,-0.43253165,0.10180835,0
-0.43643144,-0.84068543,1.0292526,-0.31200865,-0.60101336,0.73582166,0
0.41608757,-0.96488774,-0.84592551,0.30844775,-0.71527594,-0.62708867,0
1.39528,-0.67560923,0.080000624,0.89884335,-0.43522939,0.051536631,0
-0.28871554,0.75280219,1.1390588,-0.20688494,0.53943557,0.81621557,0
-1.0674853,-0.7105211,-0.76929146,-0.71385342,-0.47514278,-0.51444393,0
0.48353165,0.27524653,1.4628769,0.30894402,0.17586391,0.93467939,0
0.62772942,-1.2761443,0.35131571,0.4285056,-0.87113166,0.2398179,0
-1.1964186,0.3392317,-0.64228255,-0.8547979,0.24236879,-0.45888767,0
0.036772441,-0.23552123,-1.4715276,0.024667738,-0.15799266,-0.98713207,0
-1.3116134,0.63529962,0.058560476,-0.89925915,0.43556964,0.040149819,0
1.3490865,-0.065875813,0.26744205,0.97978806,-0.047842994,0.19423257,0
0.66643953,0.72681093,-1.1112963,0.44856218,0.48919651,-0.7479831,0
-1.2411345,0.7372753,-0.15870263,-0.85459912,0.50766039,-0.10927673,0
-0.61261004,0.11390986,-1.2714423,-0.4326584,0.080449313,-0.89796144,0
-0.28704137,1.2585626,-0.36396444,-0.21401681,0.93837887,-0.27137032,0
0.19684809,-1.4807447,0.055130351,0.13168958,-0.99060464,0.0368817,0
-0.38781363,-1.1786232,0.84306169,-0.25852489,-0.78569555,0.56200302,0
0.81635886,0.71936363,1.0222217,0.54681379,0.48184437,0.68470484,0
0.26516879,-1.4456789,-0.11894447,0.17982401,-0.98038608,-0.080662109,0
0.84852922,1.2218224,-0.30707628,0.55863625,0.80439693,-0.20216621,0
0.77409792,1.2396442,0.12662336,0.52768761,0.84504151,0.086316705,0
-0.65379167,1.2273968,-0.35745621,-0.45532802,0.85481083,-0.24894755,0
0.45718092,0.12968777,-1.3388083,0.32181153,0.091287754,-0.94239265,0
1.0724144,0.59375483,1.0039793,0.67682219,0.37473056,0.63363147,0
0.63714254,-0.69351476,-0.96172607,0.47334504,-0.51522499,-0.71448416,0
1.0857275,-0.22355337,-0.90761971,0.75783306,-0.15603928,-0.63351458,0
0.10732853,-1.397277,-0.37077171,0.074039504,-0.96389747,-0.25577313,0
0.65494746,0.49070978,-1.3162422,0.4225691,0.31660369,-0.84923345,0
-1.0445769,0.86169583,-0.084965281,-0.76988828,0.63509881,-0.062622271,0
0.16482925,0.21930183,1.4533207,0.11144738,0.14827839,0.98264593,0
1.3726538,0.092062324,-0.38226914,0.96133649,0.064475738,-0.26772174,0
-0.64349496,0.89934111,-0.9584862,-0.43972015,0.61454779,-0.65496349,0
-0.82091779,1.0158162,-0.55138683,-0.57905728,0.71653432,-0.3889361,0
0.32154122,-1.2949744,0.58206838,0.22087964,-0.88957024,0.39984626,0
0.054016359,-0.9164331,-1.2668939,0.03452538,-0.58575219,-0.80975455,0
0.95280433,-0.40129697,1.1610171,0.61288661,-0.25813228,0.74681842,0
0.16191031,-1.5207109,0.0033460723,0.10587151,-0.99437743,0.0021879626,0
0.10037669,1.0281122,-1.1127158,0.066111349,0.6771481,-0.73287088,0
-1.0274869,-0.86854786,0.80544901,-0.65525448,-0.55389506,0.5136553,0
-0.084357083,-0.47206092,-1.2690235,-0.062182475,-0.34797215,-0.93544042,0
-0.58567077,1.0797522,0.62756181,-0.42458767,0.78277677,0.45495698,0
-0.274784,-1.2045249,0.63246197,-0.19797887,-0.86784697,0.45568192,0
1.3734978,0.4731994,-0.016683493,0.94539982,0.32571048,-0.011483506,0
0.61225796,-1.0146208,0.87840241,0.41506332,-0.68783408,0.59548861,0
1.3201369,0.48875704,-0.030135158,0.93757617,0.34712079,-0.021402331,0
-1.0878358,0.0021173551,-0.86770898,-0.78176439,0.0015216202,-0.62357205,0
-0.11208246,1.4160334,0.026989412,-0.078891382,0.99670219,0.018997014,0
-1.283002,0.62497681,0.29017666,-0.88098395,0.42914549,0.1992522,0
-0.35538465,0.89835066,0.99825794,-0.25582135,0.64667189,0.71858948,0
0.71555907,-1.161132,-0.60878116,0.47908071,-0.77740043,-0.40759084,0
0.18960822,0.43289733,-1.3095456,0.13619182,0.31094158,-0.94062066,0
-0.80586666,-0.40946886,1.1191428,-0.5601747,-0.28463036,0.7779395,0
0.3907603,-0.2232053,-1.324767,0.27929112,-0.15953325,-0.94686097,0
0.60846949,-0.74623394,-1.0444751,0.42832673,-0.52530479,-0.73524904,0
-1.0832478,-0.089747556,0.80590808,-0.80054808,-0.066325761,0.5955869,0
-0.14240757,-0.94176173,1.0328268,-0.10136024,-0.67030984,0.73512644,0
-1.2821926,-0.1194249,-0.81329435,-0.84185004,-0.078410886,-0.5339852,0
0.0060691619,1.3733402,0.048569802,0.0044164662,0.99936545,0.03534374,0
-1.2975367,0.423457,-0.11587896,-0.94724703,0.30913836,-0.08459568,0
0.77966195,-0.60400486,-1.0935965,0.52943397,-0.410153,-0.74261302,0
0.80255115,-1.1425456,0.59384316,0.5289396,-0.75302064,0.39138585,0
1.1943924,-0.58372921,-0.31845987,0.87372309,-0.42701012,-0.23296006,0
-0.057337135,1.0169058,-0.99191648,-0.04032946,0.71526527,-0.69768846,0
-1.1342605,0.16824786,-0.79823053,-0.81183916,0.12042225,-0.57132798,0
-1.2043219,0.80022728,0.25715601,-0.8200289,0.54487884,0.17509885,0
0.87405831,-0.67502695,0.86434805,0.62325716,-0.48133561,0.61633313,0
-0.96336806,-0.71266693,0.82079172,-0.66326159,-0.49065837,0.56510031,0
0.89502209,-0.5304693,-1.101172,0.59079725,-0.35015872,-0.72687519,0
0.66002852,1.0181428,0.71158409,0.46922725,0.72381771,0.5058791,0
-1.1514716,0.80868053,0.21188623,-0.8092224,0.56831831,0.14890778,0
-0.36612567,0.89498317,-1.1550038,-0.24305557,0.59414202,-0.76675886,0
0.52403069,0.59910113,1.3046613,0.34288687,0.39200738,0.8536737,0
-0.81981802,1.0846027,0.63297653,-0.54665178,0.72320926,0.42206654,0
-0.68042541,1.1574748,-0.35404685,-0.49002525,0.83358419,-0.25497565,0
0.33516508,0.5701763,1.3417251,0.22405849,0.38116395,0.89694577,0
0.16437989,1.3704908,0.18118347,0.11807592,0.9844389,0.13014612,0
-0.46097741,1.4165918,-0.22363447,-0.30601236,0.94038141,-0.1484561,0
-1.1511263,0.90798038,0.22490856,-0.77607083,0.61214578,0.15162975,0
-1.1919221,0.31515098,0.52322119,-0.88995051,0.23530798,0.39066392,0
-0.73163581,-0.87290865,0.79407036,-0.52694225,-0.62869048,0.57190919,0
-0.5796358,0.29282326,1.3375794,-0.38983101,0.19693674,0.89958197,0
0.093731791,-0.8967393,1.0679593,0.06706319,-0.6415987,0.76410311,0
-1.3051797,0.36124206,-0.27738902,-0.94416392,0.26132166,-0.20066257,0
-0.4211165,-0.3977758,-1.2654985,-0.30257407,-0.28580368,-0.90926629,0
-1.1397778,-0.32946059,-0.68558669,-0.83178473,-0.24043308,-0.50032604,0
-0.41776797,-1.2350428,-0.46682024,-0.30167237,-0.89183068,-0.33709326,0
0.68663615,0.3407388,1.3093584,0.45255861,0.22457932,0.86299181,0
-1.1850466,0.13730131,-0.79715532,-0.82593304,0.095693864,-0.55558735,0
1.4841644,0.11889184,0.21208107,0.98684603,0.079053193,0.1410163,0
0.7297433,0.51252776,-1.169331,0.49623519,0.34852573,-0.79516065,0
-0.093838528,0.87215376,-1.1256301,-0.06575653,0.61115414,-0.7887755,0
-1.0945146,-0.0028268355,-0.91881108,-0.76590359,-0.0019781222,-0.64295232,0
-1.2106636,-0.49646318,0.6038965,-0.84007585,-0.34449434,0.41904199,0
1.2032897,0.2463495,-0.71664751,0.84617567,0.17323753,-0.50395977,0
0.11601094,-1.2165407,0.5168606,0.087432265,-0.91685236,0.38953474,0
1.3118742,0.15374796,0.64705056,0.8919307,0.10453177,0.4399235,0
-1.3306307,0.57813615,-0.22403298,-0.90642709,0.39382699,-0.15261151,0
0.83085531,0.89338702,0.48360088,0.6330924,0.68074012,0.36849263,0
0.25965181,0.93344158,0.97925019,0.18848717,0.67760652,0.71086007,0
-0.54174882,0.10970028,-1.4018564,-0.35951373,0.072798967,-0.93029577,0
-0.33246976,1.1218193,-0.98488158,-0.21738844,0.73351192,-0.64397395,0
-0.50930375,-1.3448371,0.088060819,-0.3535015,-0.93343496,0.061121937,0
0.44764894,-0.87930369,1.1895953,0.28963873,-0.56892884,0.76969439,0
-0.71225291,-0.086485453,-1.2241989,-0.50195426,-0.060949896,-0.86274385,0
-0.60748339,-0.12328178,-1.3307089,-0.41381735,-0.08397948,-0.90647811,0
-1.1751356,-0.89653343,0.32644713,-0.77633393,-0.59227997,0.2156619,0
1.2426244,0.68073958,-0.37208903,0.84825778,0.46469605,-0.25400066,0
-0.25467607,0.32205051,1.3314333,-0.18278596,0.2311419,0.95559549,0
0.18622991,1.170773,0.85121149,0.12760407,0.80220944,0.58324707,0
0.30339459,-0.23856705,-1.394197,0.20972461,-0.16491191,-0.96375293,0
-0.008343854,1.4077182,-0.192295,-0.0058725798,0.99078161,-0.13534126,0
-1.1665542,-0.72144771,0.3943978,-0.8173756,-0.5055005,0.27634475,0
-0.99303985,-0.75044048,-0.69879359,-0.69567603,-0.52572256,-0.48954126,0
-1.3048275,0.096510872,-0.52213657,-0.92624491,0.068509214,-0.37064388,0
-0.2682659,-1.3249903,-0.70079547,-0.17617531,-0.87014627,-0.4602257,0
-1.4195309,-0.18300501,0.14519079,-0.98672819,-0.12720837,0.10092337,0
0.37908715,-0.5825929,1.1661747,0.27923277,-0.42913362,0.85899562,0
-0.76120645,-1.0986291,-0.55123049,-0.52650273,-0.75988746,-0.38126892,0
0.69206035,-0.22495079,-1.2245191,0.48585114,-0.1579235,-0.85965627,0
-0.30206433,-1.2423897,0.7448386,-0.20413668,-0.83961356,0.50336587,0
0.66659409,1.0406879,-0.85275656,0.44394517,0.693088,-0.56792754,0
-1.1580017,-0.62346071,0.28290826,-0.86080527,-0.46345207,0.21030101,0
0.55871272,-1.0975051,-0.74432695,0.38826653,-0.76268983,-0.51725554,0
1.4699521,0.10678371,-0.19562033,0.98870081,0.071823522,-0.1315757,0
0.94977981,1.1056635,0.1828226,0.64654303,0.75265765,0.12445272,0
0.73466539,0.469165,1.1402141,0.51187342,0.32688773,0.79443693,0
-1.3173581,-0.82571942,-0.1790769,-0.84174716,-0.52760673,-0.11442406,0
0.73366481,-0.18373872,-1.3194084,0.48241717,-0.12081636,-0.86756957,0
-0.41934115,-1.2611986,0.40124446,-0.30204672,-0.90842718,0.28901187,0
-0.44080561,1.0808388,0.83487517,-0.30715823,0.75314045,0.58175027,0
0.20160967,0.62642515,1.2765429,0.14037898,0.43617415,0.88884521,0
0.49155703,1.2244772,-0.52777165,0.34589982,0.86164248,-0.3713834,0
0.47688681,0.36263868,-1.2991321,0.33334288,0.25348368,-0.90809059,0
-0.72034782,0.28509301,-1.2042423,-0.5030663,0.19909921,-0.84100169,0
0.80265725,0.9028548,0.87746722,0.53757691,0.60468388,0.58768064,0
0.71167338,-1.1885898,0.078773305,0.51288128,-0.85658044,0.056769516,0
0.95307529,-0.95747524,0.55830824,0.65199357,-0.65500355,0.3819356,0
-0.070038259,1.137911,0.79871225,-0.050314527,0.8174597,0.57378399,0
1.3714397,-0.32485718,-0.25833711,0.95712763,-0.22671779,-0.18029344,0
-1.0626378,-0.61046362,0.9217701,-0.69296366,-0.3980934,0.60110146,0
0.53408587,-1.0877912,0.86971211,0.35805708,-0.7292673,0.58306468,0
-0.65108621,-0.99491912,0.85266691,-0.44498831,-0.67998272,0.58275974,0
0.90623796,-1.1491851,-0.22585225,0.6119734,-0.77603316,-0.15251575,0
-1.4555472,-0.22099467,0.10919735,-0.98596108,-0.14969775,0.073968291,0
-0.90608323,0.86478609,0.66905314,-0.63807505,0.60899311,0.47115552,0
-0.76312113,-0.82220078,-0.75678158,-0.56394804,-0.60760802,-0.55926311,0
0.82445174,-0.67966133,-1.1319274,0.52965826,-0.43663955,-0.72719193,0
-1.1108383,0.27608198,0.86620593,-0.77386463,0.1923323,0.60344166,0
0.37845588,0.160743,-1.3739648,0.26388478,0.11208078,-0.95802021,0
-0.58275807,1.315322,-0.39657769,-0.39051056,0.88140714,-0.26574969,0
-0.45105001,-0.12782182,-1.3687587,-0.31175295,-0.088346802,-0.94604707,0
0.026548123,1.3502679,-0.042226695,0.019647975,0.99931848,-0.031251512,0
-0.51180959,0.28288364,1.2792082,-0.36387926,0.20112069,0.90947366,0
-0.12558129,-0.94812685,1.1170031,-0.085399598,-0.64475882,0.75960046,0
-0.9200052,-0.98284847,0.22004011,-0.67443222,-0.72050101,0.16130577,0
-0.68437785,0.51237786,-1.2163416,-0.46032164,0.34463215,-0.81812751,0
1.3340737,-0.28987625,-0.11256996,0.97389239,-0.21161371,-0.082177639,0
1.1936252,0.085876375,-0.78989232,0.83243746,0.059890416,-0.55087304,0
1.1324044,-0.46725142,0.74051118,0.7910946,-0.32642055,0.51731902,0
0.6651327,-0.89410496,-1.0677625,0.43096569,-0.57932585,-0.69184542,0
0.51579052,0.28304791,1.2735808,0.36765689,0.20175733,0.90781182,0
-0.89685863,0.78415012,-0.80282772,-0.62429863,0.54584283,-0.55884421,0
-0.030374592,-1.3525136,0.42084882,-0.021438833,-0.95462388,0.29704127,0
-0.81694943,-0.94476229,-0.45049185,-0.61528772,-0.71155035,-0.33928919,0
-0.56370592,-1.3251253,-0.1975816,-0.38781759,-0.91165781,-0.13593191,0
-1.1870272,-0.041119151,-0.66098827,-0.87327939,-0.030250786,-0.48627985,0
-0.43745783,0.19558987,-1.4393909,-0.28835896,0.12892692,-0.94880295,0
0.78892297,-0.37457246,1.2401354,0.52012807,-0.24695142,0.8176074,0
-0.88461632,0.41867337,1.02871,-0.62301904,0.29486397,0.72450161,0
-0.26551476,1.1356411,-0.86682194,-0.18272041,0.78151888,-0.59652448,0
0.68599826,-1.2926081,0.090059504,0.467897,-0.88164574,0.061426643,0
-0.22530167,-0.69109797,-1.1989926,-0.16068561,-0.4928925,-0.855124,0
0.98700833,-0.85514212,0.68615139,0.66906101,-0.57967317,0.46511981,0
-0.15962009,0.030940624,-1.4869307,-0.10671264,0.020685088,-0.99407476,0
1.0715928,0.71857989,0.62455493,0.74756962,0.50129908,0.43570495,0
1.3946007,-0.14786756,-0.14380798,0.98923856,-0.10488757,-0.10200798,0
0.38300276,-1.1726664,-0.61729252,0.27764848,-0.85009587,-0.44749114,0
0.77267629,0.045359515,1.1749024,0.54918897,0.032239821,0.83507609,0
1.3106781,-0.28069031,-0.34167248,0.94752938,-0.20291963,-0.24700551,0
-0.20741713,-0.52901441,1.304368,-0.14578475,-0.37182191,0.91678524,0
0.60951257,-0.88822812,0.95432997,0.42351773,-0.61718231,0.66311294,0
-1.3113276,-0.57346171,0.34296933,-0.89099509,-0.3896445,0.23303406,0
0.19379969,-1.3245933,-0.37991291,0.13926792,-0.95187646,-0.27301222,0
1.2297624,-0.69900072,0.5754267,0.80529279,-0.45773089,0.37681016,0
0.60715342,1.1608647,-0.51653659,0.43115297,0.82435548,-0.36680397,0
1.3673124,-0.11485,-0.67265189,0.89475936,-0.075157009,-0.44017854,0
-1.0516491,-1.0552243,0.070062421,-0.70512652,-0.7075237,0.046976574,0
0.23500662,0.72864151,-1.2955304,0.1561671,0.48419842,-0.86090869,0
0.050783247,-1.2447788,-0.62960494,0.036381051,-0.89175785,-0.45104814,0
0.4395574,0.19358225,-1.2900064,0.31932563,0.14063185,-0.93715203,0
-0.97076195,0.57568401,0.81069118,-0.69858676,0.41427791,0.58339548,0
-1.3812445,0.55120093,0.13973273,-0.92470425,0.36901346,0.093547121,0
0.76165783,-0.03332353,1.2706016,0.51401669,-0.022488905,0.85748535,0
-1.1603791,-0.53485876,-0.88636965,-0.74619675,-0.34394783,-0.56999147,0
-0.03175639,1.0741545,-1.020732,-0.02142618,0.72473687,-0.68869251,0
-0.46146074,-0.22237752,1.2877432,-0.33297163,-0.16045873,0.92918402,0
0.48199207,-1.3237017,-0.66293418,0.30958149,-0.85020804,-0.42579985,0
-0.65379196,1.2002119,-0.50336474,-0.44888553,0.82405072,-0.34560406,0
-1.2584518,0.1544769,0.62388468,-0.89057344,0.10931926,0.44150686,0
1.1602044,-0.74203283,0.088540316,0.84069997,-0.53768712,0.064157523,0
0.97519064,-0.34470868,-1.1109351,0.64246356,-0.2270969,-0.73189312,0
-0.91731989,-0.93161726,-0.85171318,-0.58788043,-0.59704316,-0.54583526,0
0.88443267,-0.56413716,-0.98034966,0.61598063,-0.39290449,-0.6827839,0
0.32816863,1.0218159,-0.95466179,0.22846957,0.71138376,-0.66463137,0
0.75201762,-0.77688253,-1.1018306,0.48714268,-0.5032497,-0.71374488,0
0.4488962,-0.62009412,-1.3153288,0.2949619,-0.40745309,-0.86427975,0
0.44312742,1.3098892,0.34488663,0.31092882,0.91910881,0.2419963,0
1.1285685,0.60028529,-0.75636345,0.75982893,0.40415281,-0.5092352,0
0.81646311,-0.038893286,-1.1757301,0.57017779,-0.027161162,-0.82107222,0
-0.1817327,1.2936678,0.48071942,-0.13055408,0.92935175,0.34534171,0
-0.62139142,-1.13749,0.46823505,-0.45089313,-0.82538384,0.33976004,0
-0.11314186,-0.48731798,1.2683468,-0.082982324,-0.35741657,0.93025124,0
0.70470941,1.3678024,-0.046043158,0.45779479,0.88855457,-0.02991065,0
0.28171203,0.17653155,-1.4540441,0.18886997,0.11835316,-0.97484392,0
-0.34615698,1.3175999,0.06174716,-0.25383464,0.9661873,0.045278784,0
0.626037,-0.39892641,-1.1444594,0.45892754,-0.29244009,-0.83896625,0
-0.12574659,-0.74375463,-1.278373,-0.084716342,-0.50107259,-0.86124867,0
-1.243221,-0.42179447,0.37045941,-0.91139036,-0.30921245,0.27157933,0
-1.393845,0.25077039,0.056832738,-0.98340684,0.17692736,0.040097505,0
-0.56274164,-0.92625803,0.99197888,-0.38301653,-0.63043523,0.67516649,0
1.3396324,-0.027968246,-0.55521107,0.92363048,-0.019283144,-0.38279894,0
-1.2100848,-0.26301801,-0.82995081,-0.81173497,-0.17643468,-0.55673796,0
-0.89828229,0.96437669,0.80411333,-0.58183843,0.62464929,0.52084297,0
0.37748685,-1.2836136,0.28726593,0.275848,-0.93799883,0.20991917,0
-0.064547211,-0.98853689,-1.0459222,-0.044805821,-0.68619865,-0.72603297,0
-0.74192029,-0.0082439752,1.287095,-0.4993943,-0.0055491058,0.86635709,0
-0.34448767,-1.4471196,-0.061628062,-0.23138094,-0.97198218,-0.041393526,0
-0.16464756,-1.371922,0.40662074,-0.1143105,-0.95248955,0.28230613,0
-1.323519,-0.35001078,-0.25239292,-0.95074302,-0.25142843,-0.18130514,0
-0.92796379,0.62314326,0.75707912,-0.68736303,0.46157581,0.56078506,0
-1.2601153,0.90117681,-0.39264658,-0.7884686,0.56387669,-0.24568348,0
1.4546245,0.054807842,-0.24209367,0.98575103,0.037141465,-0.16405889,0
-0.28831562,1.3908553,0.49003446,-0.19188075,0.92564648,0.32612932,0
-0.32267588,1.1448308,-0.802351,-0.2248995,0.79792726,-0.55922472,0
1.0689964,0.18711622,1.0225334,0.71692425,0.12548982,0.68576378,0
-0.88271821,1.1062653,-0.025270617,-0.6236068,0.78153431,-0.017852729,0
1.3854985,-0.25027972,0.37430689,0.95103699,-0.17179756,0.25693256,0
0.9701162,0.94269276,0.43665722,0.68249291,0.66320002,0.30719563,0
0.24029133,-0.66477543,1.3069751,0.1617161,-0.44739398,0.8795945,0
-0.06901063,1.4875624,0.310467,-0.045366459,0.97789913,0.20409591,0
0.8151871,1.1913673,0.05817911,0.56424522,0.8246246,0.040269636,0
-0.93159467,0.057519641,1.0514178,-0.66261518,0.040911984,0.74784178,0
-1.1745127,-0.8393448,-0.35949856,-0.78948802,-0.56419367,-0.24164897,0
0.7847321,-0.86397636,0.87710041,0.53749222,-0.59176952,0.60075867,0
0.93974775,0.80862492,0.57289118,0.68809444,0.59208477,0.41947773,0
-0.18130191,0.2684674,1.3930272,-0.12676689,0.18771328,0.97400916,0
0.035090778,0.48889911,-1.3135494,0.025028693,0.34871,-0.93689644,0
-0.94612992,0.079657324,1.0328487,-0.67438352,0.056778233,0.73619503,0
-0.22354078,-1.2125108,-0.73427594,-0.15577418,-0.84493697,-0.51167947,0
1.0003759,-1.118631,-0.14568622,0.66348898,-0.74192047,-0.096624888,0
1.4990743,-0.054054551,-0.30418792,0.97941571,-0.035316378,-0.19874026,0
0.67709881,1.2527628,0.087026983,0.47459343,0.87808895,0.060999122,0
0.70059061,0.35868698,-1.2487518,0.47462347,0.24299678,-0.84598178,0
0.52593511,1.2229316,0.35744983,0.38155949,0.88722187,0.25932547,0
0.28837678,1.2360061,-0.76672757,0.19447912,0.83355319,-0.5170753,0
-1.4196782,-0.37292665,0.020263361,-0.96709514,-0.25404036,0.013803549,0
-0.65102071,1.1853886,0.38848636,-0.46267244,0.84244114,0.2760925,0
0.63940072,-0.41907856,-1.1532533,0.46211573,-0.30288172,-0.83349371,0
1.1200866,-0.84318346,0.038075272,0.79863656,-0.601201,0.027148174,0
0.30417067,-1.0718228,-0.86042655,0.21607424,-0.76139259,-0.61122268,0
1.2328113,0.66506374,0.23135583,0.8683365,0.4684408,0.16295658,0
-0.69689602,0.75082022,1.0860548,-0.46679017,0.5029093,0.72745383,0
-0.019346196,-1.2395083,0.92657161,-0.012500188,-0.80088544,0.59868717,0
1.0050706,0.38297603,-0.90934771,0.71359694,0.27191177,-0.64563406,0
1.0934067,-0.71853071,-0.72034949,0.73207974,-0.48108521,-0.48230296,0
-0.64149618,-1.1146784,0.62437218,-0.4487122,-0.77969253,0.43673435,0
-0.39803472,0.011328906,-1.3866159,-0.27590361,0.0078527974,-0.96115321,0
-1.1114249,-0.66893321,-0.54796201,-0.78925771,-0.47503045,-0.38912502,0
-0.26485884,-0.21292995,1.4141607,-0.18210606,-0.14640188,0.97231883,0
-0.62081295,-0.2633574,-1.324457,-0.417703,-0.17719537,-0.89113748,0
-1.1840158,-0.31482562,0.7436235,-0.82615,-0.21967039,0.51886517,0
-0.65910262,1.3819098,-0.089003131,-0.42976716,0.9010728,-0.058034394,0
-1.0984166,0.38119635,0.75489116,-0.79236519,0.27498376,0.54455614,0
0.32648966,-1.1307961,-0.93894732,0.21684608,-0.75104582,-0.6236248,0
1.4643928,-0.28486967,0.10467037,0.97919232,-0.19048317,0.069989704,0
-0.031957399,-1.474826,-0.31713131,-0.021179613,-0.97743386,-0.21017726,0
-0.7075069,0.95089734,-0.97541237,-0.46091887,0.61948025,-0.63545102,0
0.51460928,1.2570882,0.65415841,0.34133145,0.83380491,0.43389198,0
0.40422207,1.2572743,0.58974481,0.27947703,0.86927289,0.40774649,0
0.86344421,0.38485488,1.1025201,0.59453225,0.26499528,0.75915015,0
0.0047626258,1.5097923,0.31080556,0.0030896871,0.97945672,0.20163077,0
-1.0644034,0.90010339,0.35397142,-0.74009109,0.62585151,0.24612013,0
1.3354976,-0.047865696,0.20849341,0.98741323,-0.035389971,0.15415163,0
1.0344537,-0.82076919,-0.22239086,0.77249372,-0.6129216,-0.16607369,0
-0.83428931,0.80978942,0.84409028,-0.58067316,0.56362098,0.58749473,0
-0.31912261,-0.6380384,-1.2429205,-0.2226795,-0.44521466,-0.8672933,0
0.23914218,0.96718663,1.0239302,0.16738905,0.67698824,0.71670628,0
0.90038335,-1.1720576,0.1669085,0.60535288,-0.78800708,0.11221725,0
0.58227307,-1.1515597,0.42993289,0.42809868,-0.84664953,0.31609517,0
0.26729822,-1.0175285,-0.81596363,0.20076573,-0.76425815,-0.61286426,0
0.61145282,-0.65116346,-1.2418363,0.3997153,-0.42567471,-0.81180584,0
-0.68607718,-0.33375591,-1.2611635,-0.46545777,-0.22643121,-0.85561556,0
0.29145867,0.37699986,1.4342601,0.19284655,0.24944574,0.94899261,0
0.12829386,-0.73144233,-1.2178602,0.089941666,-0.51278478,-0.85379285,0
-0.596816,1.087834,-0.66738242,-0.4236072,0.77212125,-0.47369373,0
-0.95895076,-0.30442265,-0.99027067,-0.67928815,-0.21564266,-0.70147413,0
1.0724357,1.0460745,0.014471577,0.71581668,0.69822139,0.0096593164,0
1.451481,-0.15337908,-0.27899927,0.97677785,-0.10321685,-0.18775328,0
-1.0928695,-0.62028199,-0.85263455,-0.71966326,-0.40846062,-0.56146663,0
0.24954417,1.3392557,-0.44365054,0.17417438,0.93476051,-0.30965483,0
0.43116957,0.89177531,1.1138606,0.28926116,0.59827036,0.747262,0
0.67422688,0.71819913,1.0678825,0.46407279,0.49433905,0.73502743,0
0.80388176,-0.72141153,-1.0548484,0.53245777,-0.47783294,-0.69868767,0
1.2569262,0.35927647,-0.46907714,0.90499526,0.25868148,-0.33773869,0
1.2733366,0.73830891,-0.22426476,0.85522789,0.49588016,-0.1506259,0
1.0691774,0.84881425,0.32481956,0.76192492,0.60488814,0.23147526,0
-1.2680166,-0.39231378,-0.6064465,-0.8689217,-0.26883715,-0.41557387,0
0.66814637,1.3706133,-0.042460699,0.43801782,0.89853519,-0.027836028,0
-1.2638006,0.49437815,-0.35560212,-0.90086555,0.35240388,-0.25348121,0
0.5020386,1.0815992,0.82012022,0.34689438,0.74735427,0.56667972,0
-0.064327762,0.01207007,-1.4598793,-0.044019539,0.0082595581,-0.99899656,0
-1.3650711,0.27727598,0.25235435,-0.96429116,0.19586876,0.17826404,0
-1.0910949,-0.82801092,-0.74924064,-0.69886696,-0.53035671,-0.47990283,0
-0.17062089,-1.0576056,-0.84504789,-0.1250466,-0.77511013,-0.61932838,0
0.60329813,1.3165488,-0.29599133,0.40814847,0.890683,-0.20024662,0
0.91257358,1.0354646,-0.23462673,0.65183371,0.73961246,-0.16758935,0
-1.3286142,0.16538388,0.48080063,-0.93394625,0.11625621,0.33797768,0
-0.69197881,1.1412469,0.63622504,-0.46801701,0.77187759,0.43030816,0
-1.2669926,0.66763312,-0.051403679,-0.88412005,0.46588105,-0.035870001,0
-1.0426404,-0.55358166,-0.7951296,-0.7325514,-0.38894236,-0.55865216,0
-1.0651851,-0.25752702,0.95679253,-0.73219556,-0.17702101,0.65768778,0
-0.81009704,0.64571762,1.0162064,-0.55823857,0.44496456,0.70026869,0
-0.92937446,0.073816776,1.2241553,-0.60398138,0.047972005,0.79555339,0
0.60971606,-1.3255905,-0.20015836,0.41399693,-0.90007538,-0.13590744,0
0.97337615,-0.85018444,-0.51163983,0.70027971,-0.61165142,-0.36809099,0
-1.0294935,0.81297964,0.525666,-0.72848696,0.5752781,0.37197015,0
-1.4400791,0.30593422,0.053894222,-0.97751552,0.20766599,0.036583018,0
0.80000716,-1.1718963,-0.30479789,0.55123717,-0.80748379,-0.21001802,0
1.2965723,0.43693832,-0.056431103,0.94683224,0.31907767,-0.041209262,0
-1.2736486,-0.16451031,0.66598016,-0.88041711,-0.11371872,0.4603627,0
-1.1982083,0.63420027,-0.52154768,-0.82489526,0.43660921,-0.3590546,0
0.21563262,0.85458702,-1.0094564,0.16091007,0.63771266,-0.75327981,0
-0.25641927,-0.68916029,-1.3441881,-0.16735731,-0.44979462,-0.87731194,0
-1.4107102,-0.084632754,0.20136073,-0.9882248,-0.059286579,0.14105637,0
0.55541009,-1.2128161,0.25700161,0.40884835,-0.89277792,0.18918397,0
0.77472591,-0.045962904,1.2396352,0.52971447,-0.031426877,0.84759361,0
-0.95979667,-1.1548532,-0.26125371,-0.62971014,-0.75768423,-0.17140517,0
0.57962596,1.3608423,0.4541097,0.37460974,0.87950647,0.29348913,0
-0.9384712,-1.1119429,-0.06310913,-0.6443733,-0.76348245,-0.043332003,0
-1.2397488,-0.39934102,0.66243529,-0.84841281,-0.27328601,0.45333263,0
1.2968509,-0.28165883,-0.32838792,0.94860685,-0.20602483,-0.24020573,0
-0.896146,0.99578065,0.55190921,-0.6185084,0.68727499,0.38092062,0
0.34966701,0.17533705,1.4386116,0.23454311,0.11760931,0.96496511,0
-0.74406517,-0.33475769,-1.2677015,-0.49355313,-0.2220514,-0.84089148,0
-0.45725241,-0.3645632,1.310171,-0.31869626,-0.25409365,0.91316438,0
-0.1850993,0.99113983,1.0247272,-0.12875602,0.68944192,0.71280551,0
-0.55058074,0.78364807,-0.9538632,-0.40732402,0.57974911,-0.7056756,0
-0.60832846,-0.56881958,-1.3251158,-0.3886824,-0.36343879,-0.84666294,0
0.48875248,1.1144849,-0.64117384,0.35532159,0.81022716,-0.46613145,0
-0.67646718,0.47626069,1.2151992,-0.46015608,0.3239688,0.82661998,0
0.82974148,-0.3233456,-1.0789388,0.59310651,-0.23113029,-0.77123499,0
1.0616006,-0.85344654,-0.52877957,0.72654879,-0.58409029,-0.36189145,0
-1.0121435,0.25291291,0.94415689,-0.71932966,0.17974502,0.67101163,0
-0.19656929,-1.3438518,-0.13519967,-0.14402106,-0.9846043,-0.099057183,0
-0.52655613,1.4447172,0.21911567,-0.33901021,0.93014556,0.14107223,0
-0.54433894,0.74467927,0.93779957,-0.41381496,0.56611681,0.71292984,0
1.4307346,-0.14427267,0.39543313,0.95934266,-0.096738368,0.26514763,0
-1.391662,0.62215656,-0.26760167,-0.89917368,0.40198469,-0.17290145,0
0.8662678,0.8451969,-0.87418365,0.58022922,0.56611586,-0.58553129,0
-1.5203559,0.10569561,-0.21811338,-0.98752993,0.068653382,-0.14167307,0
0.51296902,0.49639472,1.218124,0.36332649,0.35158721,0.86277473,0
1.481987,-0.26142573,0.34045365,0.96052098,-0.16943799,0.22065841,0
-1.2926449,-0.32118839,0.68270302,-0.86365074,-0.21459459,0.45613223,0
-1.1658183,-0.086760402,-0.97047114,-0.76730567,-0.057103019,-0.63873416,0
1.049498,-0.66249281,-0.64415127,0.75054687,-0.47378072,-0.4606638,0
-0.70570874,-0.90954643,-0.96174145,-0.47044677,-0.60633111,-0.64112592,0
1.1226678,-0.5942257,0.46270555,0.83044839,-0.43955457,0.34226784,0
-0.46454003,0.18389826,-1.413335,-0.30989096,0.12267706,-0.94282448,0
-0.33654615,1.2530104,-0.34260172,-0.25079972,0.93376398,-0.25531244,0
0.44433165,-0.66153955,-1.1422642,0.31902528,-0.47497821,-0.82013333,0
0.90161765,1.0665612,-0.44573155,0.61502057,0.72753358,-0.30404693,0
-0.33742473,-1.39563,-0.46454561,-0.22359048,-0.92479759,-0.30782562,0
-1.3217167,-0.25543633,-0.48409978,-0.92390805,-0.17855543,-0.33839604,0
-1.1138877,-0.78152883,0.5002088,-0.76833695,-0.53908265,0.34503379,0
0.58729702,-1.223001,0.07246688,0.43226856,-0.90016609,0.053337839,0
0.49497914,0.34673429,-1.2735754,0.35112646,0.24596508,-0.90344423,0
0.56049126,0.70478922,1.1543424,0.38284132,0.48140344,0.78846896,0
0.15829194,0.062301997,1.4180766,0.1108298,0.043621413,0.99288166,0
0.65676183,-0.62367487,1.1350088,0.45228875,-0.42950293,0.78164059,0
-0.32656577,1.0732127,0.81054509,-0.2359605,0.77545118,0.58566034,0
-0.99972928,1.0171418,-0.10142643,-0.69920999,0.71138829,-0.070937574,0
-0.15022784,-1.3111737,-0.66066384,-0.10178866,-0.88840133,-0.44764066,0
1.2081172,0.60649008,0.36449313,0.86288971,0.43318149,0.26033679,0
0.51163709,1.0029074,0.79354513,0.37144363,0.72810113,0.57610613,0
0.98111665,0.59948635,-0.98263216,0.64868873,0.39636472,-0.64969075,0
1.1578386,0.80202764,0.24161944,0.81020874,0.56122655,0.16907553,0
0.26085767,-0.94938755,-1.144529,0.1727826,-0.62883967,-0.75809425,0
0.78800148,-1.2787336,0.38796258,0.50795257,-0.82428277,0.25008404,0
-1.0491331,0.83900076,-0.38385749,-0.75092465,0.60052091,-0.2747488,0
0.2152877,-1.3378397,-0.06853319,0.15867509,-0.98603791,-0.050511524,0
-1.3439156,0.051667787,0.44004834,-0.9497171,0.036512546,0.31097299,0
-0.14394927,-1.4035739,0.53692037,-0.095353134,-0.92973846,0.35566029,0
-0.0064715315,0.079959422,-1.4849166,-0.0043518324,0.053769346,-0.99854392,0
0.53887296,1.0547286,-0.69334263,0.39264187,0.76851255,-0.50519395,0
0.653319,0.49233416,1.0833989,0.48124468,0.3626608,0.79804808,0
1.2091392,-0.54855889,-0.77209556,0.78723836,-0.3571521,-0.50269085,0
1.3243556,-0.11716012,0.58458799,0.91185635,-0.080668062,0.4025054,0
1.2642523,0.42010793,0.61704928,0.86109734,0.28614053,0.42027962,0
-0.69813555,1.1111639,-0.44313556,-0.50403976,0.80223781,-0.3199349,0
1.3399642,-0.097453423,-0.61837333,0.90600461,-0.065892249,-0.41810751,0
0.4923512,0.11618912,-1.3649518,0.33822772,0.079817779,-0.93767321,0
0.79191482,-0.280146,-1.2152414,0.53605461,-0.18963347,-0.82260841,0
1.2550777,-0.18160887,-0.71524757,0.86203545,-0.12473592,-0.49125943,0
1.0051097,-0.36737132,0.87487823,0.72715402,-0.2657775,0.63293713,0
-0.90698284,-1.1053327,0.40911523,-0.60986078,-0.74323243,0.27509156,0
0.076687068,-1.0330091,-1.0583762,0.051783107,-0.69754159,-0.71467078,0
-0.54559082,-0.57112557,1.2565706,-0.36760145,-0.38480592,0.84663659,0
0.73920101,1.1721042,-0.12661023,0.53122544,0.84233052,-0.090988211,0
-1.0099163,-1.0204573,-0.015462602,-0.70338547,-0.71072704,-0.010769377,0
1.1501447,0.28312129,0.74905086,0.8206808,0.20201997,0.534482,0
-0.76780927,1.1343042,0.21329342,-0.55387765,0.81825751,0.15386432,0
0.92358261,-1.0617735,-0.1905472,0.65036577,-0.74767667,-0.13417898,0
-0.82111567,0.36807868,1.1944698,-0.54906368,0.24612688,0.79871815,0
0.36180621,-0.26701713,1.4059806,0.24510324,-0.180889,0.95247233,0
-0.52079266,-1.3657357,-0.46813333,-0.33932307,-0.88984668,-0.30501282,0
-1.0773252,-0.73687625,0.86233777,-0.68866545,-0.4710381,0.55123764,0
0.50044668,-1.3814639,-0.043474477,0.34044939,-0.93979752,-0.029575298,0
0.14102036,-1.4975477,-0.099932313,0.093546532,-0.99340552,-0.06629058,0
-0.55722964,-1.1133379,0.59665626,-0.40361747,-0.80642265,0.43217531,0
-1.2506059,0.52570963,-0.60262847,-0.84247953,0.354148,-0.40596491,0
0.61002123,1.2173195,-0.35081705,0.43384483,0.86575311,-0.2494998,0
0.39157516,-0.039073803,1.3475204,0.27893841,-0.027834207,0.95990556,0
-1.321717,0.35753241,-0.59868318,-0.88445544,0.23925051,-0.40062174,0
0.64620775,0.21058165,1.318998,0.43550643,0.14191978,0.88892794,0
0.3706595,-0.28115523,-1.4007733,0.2511228,-0.19048341,-0.9490276,0
-0.91100204,-0.45997369,-1.0283312,-0.62880605,-0.31749022,-0.70979077,0
0.13512348,0.44246817,1.4886752,0.086678356,0.28383234,0.95494819,0
1.083304,-0.79651308,-0.68802488,0.71722192,-0.52734655,-0.45551986,0
