-0.26620832,0.21321987,-1.3395507,-0.19258501,0.15425119,-0.96908081,0
0.74044722,0.96246004,-0.85149747,0.49925032,0.6489436,-0.57412654,0
1.1765479,0.26447701,-0.36594924,0.93361181,0.20986725,-0.29038727,0
-0.62909782,-1.1309505,-0.31123027,-0.47263497,-0.8496719,-0.23382422,0
0.12164988,-0.89030045,0.94535512,0.093270212,-0.68260247,0.72481346,0
1.2598372,0.43923447,0.35055518,0.91325986,0.31840244,0.25411856,0
0.51406449,-1.0218728,-0.51798981,0.40938258,-0.81378293,-0.41250858,0
-1.2595502,0.11524397,-0.49572155,-0.92717111,0.084832564,-0.364907,0
-1.2375081,0.4942123,0.18058689,-0.92026889,0.36751938,0.13429286,0
1.1120063,0.62739104,-0.06529218,0.86980659,0.49074259,-0.051071264,0
0.42196843,1.1597592,0.257635,0.33469805,0.91990089,0.20435162,0
1.0690928,-0.86098522,0.34045178,0.75593209,-0.60878384,0.24072601,0
0.71179348,0.75255311,-0.94493842,0.5076611,0.53673142,-0.67394334,0
-0.11025895,-0.27809688,1.3538839,-0.079520866,-0.2005688,0.97644693,0
0.062475398,0.29933399,1.2805064,0.047455288,0.22736919,0.9726516,0
-0.36458215,-0.93188578,0.78185046,-0.28709736,-0.7338317,0.61568344,0
0.71629542,-0.0068616462,1.0420952,0.56644261,-0.0054261535,0.82408339,0
0.080391243,0.97345871,-0.83913821,0.062428858,0.75595194,-0.65164363,0
-1.0811164,0.64729083,0.6686334,-0.75788665,0.45376527,0.46872687,0
0.30878249,-0.49584222,1.1917832,0.23265092,-0.37359032,0.89794421,0
1.2021295,-0.38331842,-0.49838254,0.88611722,-0.28255281,-0.3673692,0
-0.14459366,-0.61258113,-1.2711903,-0.10193558,-0.4318572,-0.89616323,0
0.55431837,-0.28675532,1.2663219,0.39264327,-0.20311892,0.89698046,0
1.0819938,0.49822044,-0.55680335,0.82287103,0.37890342,-0.42345652,0
-0.89002693,0.068454497,-1.0782437,-0.63582379,0.048903011,-0.77028346,0
1.1670135,0.66678071,-0.17310564,0.8611573,0.49202779,-0.12773733,0
0.76863378,-1.167227,-0.21932854,0.54332662,-0.82508153,-0.15503746,0
0.9637078,0.066563971,0.95729744,0.70861214,0.048944335,0.70389861,0
1.2212533,-0.51215786,-0.46776369,0.86954033,-0.36465976,-0.33305082,0
-0.6967327,-0.82723641,0.93339133,-0.48769385,-0.57904285,0.65334839,0
0.40528083,0.49363637,-1.163642,0.30531916,0.37188199,-0.87663215,0
0.52167261,-1.0400388,0.67303687,0.38809925,-0.77373868,0.50070697,0
0.55412287,-0.36171964,-1.1813459,0.40923142,-0.26713759,-0.87244892,0
0.64549214,-0.61992806,1.1300766,0.44777885,-0.43004501,0.78393584,0
0.18866703,-0.99232244,-0.79013216,0.14711766,-0.77378738,-0.61612463,0
-1.1867306,0.35323194,-0.0083648162,-0.95842171,0.28527549,-0.0067555527,0
0.65131575,0.96646106,0.83520949,0.45425275,0.67404723,0.58250731,0
0.55964988,0.25081727,1.1804543,0.4207074,0.18854767,0.88738662,0
-0.69005769,-0.82395762,0.59345603,-0.56206822,-0.67113286,0.48338386,0
0.19629082,1.2363757,-0.78084552,0.13304032,0.83798015,-0.52923483,0
0.56869048,-1.3183439,2.7362805e-05,0.39608708,-0.91821295,1.9057912e-05,0
0.76028943,1.099094,0.064201578,0.56824011,0.82146257,0.047984242,0
-1.3717744,0.052027099,0.11022346,-0.99607587,0.037778031,0.080035701,0
-0.53965986,-0.63355219,0.93868768,-0.43018124,-0.50502598,0.7482599,0
-1.0166888,0.84896719,0.22396801,-0.75683641,0.63198227,0.16672471,0
-0.23027521,1.0149541,0.92615372,-0.16528881,0.728522,0.66478211,0
-0.84312987,0.79865509,-0.72140384,-0.61669922,0.58416855,-0.52766389,0
-1.2503365,-0.30863369,0.27265421,-0.94980752,-0.23445095,0.20711945,0
-0.7287457,-0.4044216,1.0746918,-0.53584391,-0.29736966,0.79021674,0
0.3692306,-0.74338412,0.95321846,0.29212373,-0.58814234,0.75415671,0
1.1614295,-0.77253187,-0.42078316,0.79715014,-0.53022921,-0.2888056,0
0.24436946,-1.3690414,-0.18838106,0.1741291,-0.97553086,-0.13423373,0
0.86154133,0.98872477,-0.42004582,0.62564242,0.71800166,-0.30503294,0
1.3552991,-0.39442429,0.016428128,0.96010071,-0.27941215,0.011637769,0
-0.99708313,0.54800451,-0.64952099,-0.76107424,0.41829222,-0.49577981,0
0.79409826,0.58169705,-0.79025435,0.62907571,0.46081385,-0.62603062,0
0.98976988,0.36803854,0.69011319,0.78460479,0.29174942,0.54706264,0
0.70027953,-0.86760098,0.75531143,0.5199942,-0.64423913,0.56085831,0
-1.2338756,-0.36933181,0.40412432,-0.91406435,-0.27360377,0.29937834,0
1.4038081,-0.25607851,-0.13462919,0.97941679,-0.1786623,-0.093928851,0
-0.87221658,-0.6045897,0.70049375,-0.68591726,-0.47545362,0.55087322,0
0.093410365,-0.26667649,1.2868036,0.070901766,-0.20241688,0.97672939,0
-0.14143021,1.2550259,-0.29967111,-0.10895716,0.96686584,-0.23086518,0
1.1175125,-0.86867779,-0.21540955,0.7805357,-0.60673505,-0.15045455,0
-1.1576251,-0.64988679,-0.33232772,-0.84588581,-0.47487742,-0.24283449,0
1.2527498,0.019950159,0.33882323,0.96520239,0.015370939,0.2610521,0
0.07692486,1.3868525,0.28678948,0.054238033,0.97783929,0.20220898,0
0.14570208,-1.0276928,0.95528692,0.10328664,-0.72852039,0.67719269,0
1.1041369,0.14441784,-0.78553945,0.81023592,0.10597645,-0.57644325,0
0.33306873,1.1042781,0.79699588,0.23756906,0.78765219,0.56847596,0
0.06622158,-0.0084914658,1.3548754,0.048817277,-0.0062597455,0.99878818,0
0.96699476,0.47947428,-0.7219013,0.74469835,0.36925092,-0.5559479,0
-0.87672794,-0.5654223,-0.69670963,-0.69886899,-0.45071691,-0.55537045,0
0.99654561,0.068865262,0.75997645,0.79396325,0.054866016,0.60548496,0
0.95855153,1.0072778,0.13937868,0.68593085,0.72079897,0.099738136,0
-0.78232884,-1.1873175,-0.052306343,-0.54983294,-0.83446532,-0.036761716,0
0.50820541,-0.99493849,0.78232282,0.37261385,-0.72948426,0.57359546,0
0.55039322,0.51523191,-1.1746495,0.39432701,0.36913583,-0.84157288,0
-1.186536,-0.65486711,0.15574425,-0.86978251,-0.48004612,0.11416732,0
0.049243629,1.2590646,0.34539029,0.037691031,0.96368688,0.26436141,0
1.0029738,-0.58862525,0.59489882,0.76781523,-0.45061538,0.45541805,0
-1.3354903,0.24715818,-0.071982197,-0.9819243,0.18172398,-0.052925181,0
-0.50305802,-0.33575982,-1.1474497,-0.3878358,-0.25885618,-0.88463372,0
-0.51960105,1.0285996,0.67219847,-0.3894735,0.77099979,0.50385481,0
0.51704162,-1.0842344,0.58622885,0.38682687,-0.81117451,0.43858957,0
-0.73888999,-0.92519051,0.28667805,-0.60652018,-0.75944555,0.23532058,0
-0.67363739,1.0475323,-0.24915706,-0.53037536,0.8247543,-0.19616899,0
0.91429067,-0.90446079,-0.39912176,0.67897296,-0.67167306,-0.29639685,0
-0.80164033,1.1328474,0.29828423,-0.56473935,0.79806805,0.21013519,0
-0.63411874,-1.0336272,-0.17931512,-0.51729977,-0.84320974,-0.14628124,0
-0.82184076,-0.89206076,-0.52556461,-0.62171298,-0.6748336,-0.39758351,0
-1.1406528,0.11412638,-0.49399489,-0.91379672,0.09142863,-0.39574787,0
-1.1065732,-0.2193564,-0.72228187,-0.82609713,-0.16375753,-0.53920966,0
1.121249,0.2057443,0.61989415,0.86408603,0.15855601,0.47771895,0
-0.47305426,-1.1036422,-0.47829825,-0.36599728,-0.85387683,-0.37005451,0
0.1851926,1.1569935,0.74671614,0.13328676,0.83271104,0.53742629,0
0.019077174,0.54539466,1.3184465,0.013369412,0.38221624,0.92397618,0
0.37466559,1.1805379,-0.71395993,0.26207551,0.82577664,-0.49940914,0
0.29843888,0.1197286,1.2295464,0.23482496,0.094207779,0.96746171,0
-0.65051466,-0.66379827,1.0298839,-0.46892443,-0.47849995,0.74239326,0
0.37301806,0.10676482,-1.3164515,0.27179229,0.077792086,-0.95920658,0
0.74636126,0.72489017,1.0463135,0.50581378,0.49126267,0.70909333,0
0.91266942,0.93983871,0.4322384,0.66158181,0.6812765,0.31332383,0
0.1468648,1.0744416,-0.73963672,0.111884,0.81852704,-0.56346726,0
-1.169306,-0.51781023,-0.42076531,-0.86855125,-0.38462535,-0.31254113,0
-0.30117819,0.40336725,-1.2202967,-0.22815628,0.30556917,-0.92443073,0
1.173721,0.18237939,0.53443497,0.90112996,0.14002267,0.41031507,0
-1.1370729,-0.73079288,-0.31384084,-0.81944114,-0.52665204,-0.22617203,0
1.2975017,0.43591961,0.20674673,0.93729943,0.31490302,0.14935131,0
0.7236166,-0.90095663,-0.66801542,0.54213172,-0.67499441,-0.50047547,0
0.58966672,-0.89903843,-0.75701237,0.44843915,-0.68371511,-0.57570481,0
-0.66895652,0.9712109,-0.66852856,-0.49347195,0.71643722,-0.49315625,0
-0.11490741,-0.18558747,1.3310152,-0.085192643,-0.13759501,0.98681802,0
-1.1444901,0.070794567,-0.71051222,-0.84842312,0.052480794,-0.52671051,0
0.41175169,1.161865,0.29433182,0.32489944,0.9167887,0.23224737,0
0.85509127,0.87225378,-0.56358004,0.63564926,0.64840734,-0.41894853,0
-0.84638506,1.0250564,0.24978632,-0.62575108,0.75784671,0.1846725,0
-0.26557508,1.0797043,0.79483545,-0.19430882,0.78996897,0.5815438,0
0.35925621,0.48670387,-1.1193196,0.28236103,0.3825298,-0.87974042,0
0.12369424,0.18767527,-1.2691424,0.095969371,0.14560968,-0.98467642,0
0.5146172,-0.81268817,-0.85370868,0.40013072,-0.63189006,-0.6637848,0
-1.1404197,0.14270952,0.80718702,-0.8120057,0.10161255,0.57473618,0
0.77218038,-0.86587596,-0.82825267,0.54169679,-0.60742569,-0.5810324,0
1.1081128,0.44230336,0.70553839,0.7994346,0.31909442,0.50900215,0
0.41830346,1.1671997,0.60151368,0.30353698,0.84696478,0.43648133,0
-0.72218758,-0.32436714,-1.1274731,-0.52421081,-0.2354468,-0.81839347,0
0.3751792,1.3535817,-0.10687703,0.2663348,0.96088994,-0.075870603,0
-0.20946158,1.2757642,-0.17177591,-0.16060457,0.97819161,-0.1317091,0
0.27421245,0.38421208,-1.2937706,0.19911005,0.27898252,-0.93942744,0
-1.2375989,-0.44906816,-0.057018541,-0.93914896,-0.3407743,-0.043268383,0
-0.17921455,0.57148737,1.3115495,-0.12429646,0.39636213,0.90964139,0
-0.94393933,-0.81863344,-0.31728384,-0.73223084,-0.63502878,-0.24612282,0
-1.0422426,0.99445593,0.18548161,-0.71757478,0.68467408,0.12770244,0
-0.81381643,0.78223449,-0.71292377,-0.60956216,0.58590674,-0.53399187,0
0.14208066,-0.94302207,-1.024048,0.10153407,-0.67390501,-0.73180795,0
-0.42398962,1.0106362,-0.61241478,-0.3377139,0.80498642,-0.48779726,0
-0.82735085,-0.55470222,-0.85162014,-0.63131523,-0.423269,-0.6498341,0
-1.1386025,-0.19880898,0.67328441,-0.85120922,-0.14862785,0.5033415,0
0.67168707,0.16187136,1.1625595,0.49667323,0.11969439,0.85964465,0
-0.4604961,-0.75025272,-1.0308483,-0.33970535,-0.55345714,-0.7604509,0
-1.265712,0.1636439,-0.56194156,-0.90765649,0.1173509,-0.40297467,0
-0.38459775,-0.89649302,0.81734961,-0.30219877,-0.70442194,0.6422348,0
0.34933433,1.2817159,0.011904403,0.26294953,0.96476793,0.0089606335,0
0.16607857,1.1242104,-0.57305831,0.13049062,0.88331032,-0.45026121,0
-1.2307961,0.14667451,0.69006985,-0.86758238,0.10339018,0.48642701,0
0.69223475,-0.98363662,0.64435571,0.50730884,-0.72086459,0.47222033,0
1.1699351,0.34359205,0.40937823,0.90958285,0.26713058,0.31827697,0
0.67526245,1.2318206,0.25945571,0.47269967,0.86230356,0.18162513,0
-1.1792767,0.40827349,-0.74822015,-0.81046325,0.28058779,-0.51421767,0
0.20392855,-1.3547863,0.44017956,0.14171307,-0.94146174,0.30588752,0
1.1382854,0.18959774,-0.69008476,0.84658194,0.14101036,-0.51323974,0
-1.3161829,0.55410802,-0.13076332,-0.91781431,0.38639638,-0.091185242,0
0.8017832,-0.56929672,-1.0346464,0.56171197,-0.39883694,-0.72485083,0
1.2300986,-0.3415384,-0.5214048,0.89201915,-0.24767022,-0.37810227,0
0.27007917,1.1736488,0.67702079,0.19548634,0.84950018,0.49003524,0
-1.0668583,0.87655169,0.23993984,-0.76124573,0.62545443,0.17120659,0
-1.0700694,0.21925683,-0.87120765,-0.76587546,0.1569276,-0.62354511,0
0.70904225,-0.99063921,-0.41079572,0.55151087,-0.77054405,-0.31952721,0
0.038084295,0.36774686,1.2702024,0.028788179,0.27798235,0.96015465,0
0.79999578,1.0758178,0.32518592,0.57990152,0.77983958,0.23572101,0
0.69951236,-0.7876026,-0.82171571,0.52359349,-0.58953011,-0.6150642,0
0.82800913,-0.62134045,0.83819306,0.62162727,-0.46647093,0.62927288,0
-0.6764732,-0.67923069,-0.98691362,-0.49167585,-0.49368006,-0.71731091,0
-1.2061075,0.77164131,-0.1827126,-0.83558041,0.53458619,-0.12658165,0
-0.29617697,0.43316197,1.3549737,-0.20383367,0.29810891,0.93251431,0
-0.63559008,-0.29478487,-1.1471809,-0.47283587,-0.21929993,-0.85342467,0
-0.54258621,-1.2182075,-0.083644204,-0.40606716,-0.91169667,-0.062598653,0
0.20917377,-1.1933414,0.39325386,0.1642175,-0.93686473,0.30873454,0
-0.87935543,0.43543807,-0.95261806,-0.64298761,0.31839377,-0.69655746,0
-0.18621387,0.77391624,1.069594,-0.13966529,0.58045751,0.80222362,0
0.93340427,0.86913753,0.24397349,0.71881902,0.6693269,0.18788514,0
-0.50795078,-1.102684,-0.54636729,-0.38153595,-0.82825661,-0.41039166,0
-0.98681283,-0.33320153,-0.82613629,-0.74229532,-0.25063914,-0.62143201,0
-0.91741294,0.020063348,0.82828623,-0.74214363,0.0162303,0.67004436,0
0.068576217,1.144151,0.56621671,0.053640928,0.89496511,0.44289976,0
1.1624739,0.61545551,0.24462146,0.86888087,0.46001679,0.18284015,0
-0.46531966,-1.2422782,-0.13307634,-0.34901828,-0.93178487,-0.099815421,0
-0.33059186,-0.46411082,1.3028042,-0.23248921,-0.32638663,0.91619903,0
-0.56966281,0.04098314,1.2726496,-0.40838066,0.02938005,0.91233879,0
1.1247218,0.45535013,-0.56981707,0.83900958,0.3396779,-0.42506689,0
0.10590224,0.34975368,-1.2968109,0.078602351,0.25959283,-0.96251398,0
0.62034696,-0.91677761,-0.76612139,0.46081349,-0.68101162,-0.56909937,0
0.54471809,-1.1492552,-0.49232894,0.39941818,-0.84269899,-0.36100349,0
0.44900966,-1.1314276,0.54801029,0.336353,-0.84755212,0.41051435,0
-1.1105793,0.49080366,0.48848769,-0.84856325,0.37500966,0.37324008,0
-0.19498596,1.0286604,0.75617611,-0.15097672,0.79648697,0.58550364,0
0.70303869,0.71246523,0.86204141,0.53221035,0.5393464,0.6525777,0
-1.0257369,-0.90831882,0.44045174,-0.71273386,-0.63114583,0.30604813,0
-0.60115117,-0.75833189,0.94658095,-0.4440847,-0.56019783,0.6992619,0
0.68670458,0.29178524,0.98350841,0.55626124,0.23635902,0.79668552,0
0.72114265,0.9980197,0.60743433,0.52524006,0.72690183,0.44242126,0
-0.60529006,-0.26736405,1.1336663,-0.4611195,-0.20368215,0.86364484,0
0.98632932,0.45785305,0.83091831,0.72071677,0.33455598,0.60715699,0
-0.7542634,-0.64474297,0.93428588,-0.55342531,-0.47306693,0.68551308,0
0.48387802,0.18568119,1.3081604,0.3438859,0.13196124,0.9296928,0
-0.13798815,-1.2819812,-0.22145869,-0.10547405,-0.97990847,-0.16927646,0
-0.39044908,-0.13649493,1.2724652,-0.29181501,-0.102014,0.95101893,0
-0.84072459,-1.011071,-0.20247139,-0.63191354,-0.75995094,-0.1521835,0
1.2973036,-0.27723497,0.013896741,0.97786576,-0.20897081,0.010474917,0
1.0558999,-0.13799655,0.81908226,0.78596026,-0.10271789,0.60968482,0
0.98966652,-0.61111659,0.55707002,0.76738393,-0.47385764,0.43195012,0
-0.5735563,0.17120416,-1.2217966,-0.42156571,0.1258356,-0.89802438,0
1.0179051,0.41792789,0.79428446,0.75006682,0.30795979,0.5852868,0
0.38347647,0.88559729,0.97301143,0.27982128,0.64621687,0.7100026,0
0.41673636,-1.2891027,-0.20822185,0.30403236,-0.94047213,-0.15190943,0
-1.0791241,0.74849147,0.33982185,-0.79549176,0.55176115,0.25050452,0
-0.011972514,-1.3650161,0.29506901,-0.0085726446,-0.97738856,0.21127741,0
-0.45277014,-0.19546765,1.3431646,-0.31643689,-0.13661054,0.93872535,0
-0.32058167,-0.55984187,1.2144872,-0.23311642,-0.40709853,0.88313502,0
-1.2850906,-0.43367767,0.32623628,-0.92122632,-0.31088492,0.23386478,0
-0.41563222,1.1549001,-0.058174454,-0.33824471,0.9398666,-0.047342818,0
-1.2822686,0.67288828,-0.16416271,-0.8798483,0.46171263,-0.11264277,0
-1.0860059,-0.3545194,0.62581807,-0.83372808,-0.27216497,0.48044127,0
0.34500402,-1.1925739,0.71285796,0.24099496,-0.83304626,0.49795124,0
0.50015974,-0.019225309,-1.2998354,0.35908437,-0.013802606,-0.93320304,0
1.2726754,0.2677342,0.065888047,0.97732699,0.20560141,0.050597478,0
-0.10719357,1.320231,0.19133423,-0.080095425,0.98648137,0.14296563,0
-0.38345006,-1.1062406,-0.78041303,-0.27251664,-0.78620142,-0.55463684,0
-0.35156482,0.90864402,0.8300097,-0.27468115,0.70993274,0.64849496,0
-1.1787629,-0.61418831,0.43181342,-0.84344393,-0.43947211,0.30897683,0
-0.55597663,-1.1271385,-0.50062501,-0.41096991,-0.83316457,-0.37005481,0
0.16355345,1.2548882,-0.069256097,0.12904693,0.99013174,-0.054644439,0
1.2912846,-0.25136709,-0.25943983,0.96302587,-0.18746682,-0.19348738,0
-1.3832989,0.2205057,-0.17880738,-0.97958338,0.15615116,-0.12662248,0
-0.75354379,0.47055036,1.0479537,-0.54849213,0.34250587,0.7627883,0
0.53495198,-0.5039385,1.2069396,0.37856823,-0.356621,0.85411215,0
-0.62700403,0.88339192,0.69849443,-0.48644298,0.68535411,0.54190677,0
-1.3159035,-0.11290785,-0.43291059,-0.94677603,-0.081235774,-0.31147373,0
-0.66078186,0.48753935,-1.0086085,-0.50805056,0.37485084,-0.77548146,0
1.2398554,0.43446276,0.56027657,0.86809176,0.30419153,0.39228079,0
0.52978063,-1.0105342,-0.82014418,0.37702432,-0.71915793,-0.58366477,0
-0.37607574,1.3196108,-0.026346514,-0.27402648,0.96153051,-0.019197309,0
-0.43379739,-0.088184141,1.2691288,-0.32273835,-0.0656076,0.9442116,0
-0.65755832,1.1087735,0.41105431,-0.48598456,0.81946611,0.30379975,0
-0.50562066,-1.174875,-0.12551963,-0.39341792,-0.91415745,-0.097665459,0
0.96813405,0.88694841,-0.040727079,0.7369923,0.67518973,-0.031003499,0
-0.24036653,0.14947233,-1.2210815,-0.19176266,0.11924793,-0.97416985,0
-0.81880087,0.52117288,0.87600034,-0.62625659,0.398617,0.67000538,0
-0.46254548,-0.14080215,1.341195,-0.32443738,-0.098761052,0.94073731,0
-0.65409189,0.77716374,-0.8321498,-0.49811915,0.59184366,-0.63371795,0
-1.0160522,-0.51675069,-0.73310715,-0.74968779,-0.38128126,-0.54091853,0
-0.83876711,1.1027342,-0.0023824037,-0.60539764,0.79592139,-0.0017195494,0
0.61774576,-1.094573,0.19692723,0.48557469,-0.86038142,0.15479326,0
0.3312749,0.65685833,1.0502986,0.25834119,0.51224393,0.81906408,0
1.1541493,0.8812592,-0.30883047,0.77741122,0.59359807,-0.20802185,0
1.2356441,-0.060245305,0.52567589,0.91926479,-0.044819854,0.39107972,0
-1.0447154,-0.23090133,0.88597971,-0.75205994,-0.16621909,0.6377908,0
-0.88169038,0.39794406,-1.0832862,-0.6070891,0.27400491,-0.74589813,0
-0.4334774,1.2670865,0.477164,-0.3049109,0.89127713,0.33564034,0
-0.95168465,0.82548714,-0.19295731,-0.74670875,0.64769191,-0.15139775,0
0.70541722,1.26237,0.16863947,0.48452473,0.86707479,0.11583215,0
-0.23631193,1.0609934,-0.81779873,-0.17372377,0.77998513,-0.60120147,0
0.18422198,0.52458519,1.2125365,0.13810457,0.39326259,0.90899479,0
0.70344287,-0.38126028,1.0496613,0.53297549,-0.28886837,0.79529381,0
-0.34156036,-0.88071167,-0.98760718,-0.24992844,-0.64443922,-0.72265744,0
-1.0660621,-0.46774867,0.6449095,-0.80103314,-0.35146374,0.48458141,0
-0.56096709,0.93454182,0.86985606,-0.4022637,0.67015028,0.62376475,0
-0.29063782,-1.310762,-0.35608575,-0.20924012,-0.94366252,-0.25635833,0
-1.3390479,0.1175191,-0.15856563,-0.98931134,0.08682511,-0.11715098,0
0.66915625,1.1169368,0.066554748,0.51325756,0.85671508,0.051048953,0
0.67498672,-0.87508535,0.83822757,0.48662218,-0.63088048,0.60430837,0
-0.54205227,1.1599073,-0.16167159,-0.42003867,0.8988173,-0.12528002,0
0.70910531,1.0139197,-0.27121347,0.55982423,0.80046898,-0.21411751,0
1.2498922,-0.24638779,0.53627777,0.90426445,-0.17825516,0.38798299,0
0.5419479,-0.55557615,-1.0492848,0.4152436,-0.42568561,-0.80396801,0
-0.69150829,-0.073494174,1.0665361,-0.54311854,-0.057723165,0.83766961,0
0.18401355,0.46416259,-1.3266188,0.12981817,0.32745817,-0.93590516,0
-0.30142021,1.1739062,-0.69725394,-0.21557127,0.83956033,-0.49866569,0
-0.11605832,-1.0530095,-0.85830158,-0.08512143,-0.7723158,-0.62950987,0
-0.92808783,-0.84057689,-0.10145907,-0.73876548,-0.66910607,-0.080762252,0
0.34049487,0.85626549,1.0022432,0.25009233,0.62892413,0.73614419,0
0.54784685,0.97183079,0.68831289,0.41792789,0.74136627,0.52508312,0
-0.87413085,1.0531472,0.20765138,-0.63145125,0.76076841,0.15000241,0
-0.69414341,1.051476,0.57360387,-0.50141758,0.75953835,0.41434529,0
-0.83737612,0.58742231,-0.76705855,-0.65495151,0.45945081,-0.59995282,0
-1.0830374,-0.68476844,0.60259742,-0.76486731,-0.48360011,0.42556894,0
1.2641377,0.26346079,0.47718593,0.91827172,0.19137834,0.34662864,0
0.29713309,-1.409723,0.17531435,0.20473237,-0.97133565,0.12079612,0
0.90597516,0.45357326,-0.94095129,0.6552133,0.3280302,-0.68050849,0
0.98932755,-0.30367878,-0.84381199,0.74090648,-0.22742476,-0.63192999,0
1.1816113,-0.26034948,-0.2546609,0.95563871,-0.21055998,-0.20595929,0
-0.013271736,-1.145642,-0.4914239,-0.010645807,-0.91896677,-0.39419138,0
0.58434427,0.52968699,1.1087339,0.42946556,0.38929504,0.81486732,0
0.91760367,-1.0405225,0.24304828,0.65149492,-0.73876673,0.1725633,0
1.0893463,0.60584664,0.73129034,0.75378513,0.41922227,0.50602442,0
-0.53936243,-1.1214795,0.23733462,-0.42574462,-0.88523751,0.18733959,0
0.7789889,-0.57171977,-0.87230057,0.59840918,-0.43918774,-0.67009002,0
0.18998064,0.84590191,-0.87778789,0.15398556,0.68563133,-0.71147597,0
0.60165799,-1.0326834,0.6186015,0.44707364,-0.76735544,0.45966387,0
-1.2893426,-0.49307916,-0.2310728,-0.92121136,-0.35229591,-0.16509722,0
0.26605314,0.27293319,-1.2107139,0.20960733,0.21502772,-0.95384896,0
0.20708469,1.3883457,0.32476863,0.14373042,0.96360338,0.22541083,0
1.2102886,-0.31425369,-0.098812006,0.9648965,-0.25053716,-0.078777373,0
-0.60738975,-0.26884785,-1.2527499,-0.42835748,-0.18960311,-0.8834933,0
-1.3112054,0.61689162,0.037099142,-0.90456116,0.42557499,0.025593583,0
0.52962673,-0.17552997,-1.1205918,0.42308703,-0.14022037,-0.89517355,0
0.64070362,-0.010188806,-1.1212066,0.49613175,-0.0078897476,-0.86821145,0
0.37966165,0.53329915,-1.1317605,0.29038268,0.40789169,-0.86562246,0
-0.016428195,0.42634842,1.3347538,-0.011723632,0.30425447,0.95251864,0
0.95873016,0.85392791,0.2687023,0.73090655,0.65100849,0.20485041,0
1.2531006,-0.59495151,0.068872869,0.90224189,-0.42836955,0.049588982,0
0.27566883,-0.72227824,-1.0754665,0.20813006,-0.54532033,-0.81197757,0
1.1623746,0.65777349,-0.40115693,0.8335256,0.47168189,-0.28766507,0
0.82152164,0.8689937,-0.65090001,0.60338861,0.63825572,-0.47807097,0
-0.68809098,-0.83276683,-0.8181836,-0.50776517,-0.61452627,-0.60376483,0
0.24030501,0.7842139,1.0514067,0.18020765,0.58809155,0.78846276,0
-1.2251065,-0.30700392,0.096192531,-0.96720564,-0.2423756,0.075942755,0
-0.21524902,0.56562448,1.2298863,-0.15703312,0.41264659,0.89725322,0
0.35810968,1.3591446,0.10793523,0.25403816,0.96415871,0.076567784,0
0.59537107,0.3898015,1.0793002,0.46053264,0.30152005,0.83486241,0
1.1560044,-0.34721074,-0.43847567,0.9001767,-0.27037182,-0.34143952,0
0.23723339,1.1179584,0.81130165,0.16926593,0.79766291,0.57886344,0
0.40794298,1.2488142,-0.00010251965,0.31051657,0.95056796,-7.803554e-05,0
-1.2160827,-0.26980177,-0.42949039,-0.92294157,-0.20476508,-0.32596019,0
0.91126561,0.10967523,-0.90060002,0.70866513,0.085291274,-0.70037079,0
-0.0026606049,1.2606053,0.58213645,-0.0019161307,0.90787041,0.41924658,0
0.41637129,0.032123774,-1.3789881,0.28897917,0.02229525,-0.95707577,0
0.72128546,0.19822642,-1.1423343,0.52823722,0.14517216,-0.83659458,0
0.04941595,-1.2899331,-0.054566592,0.038246691,-0.99837548,-0.042233158,0
1.3819745,-0.06097956,0.2731525,0.98010296,-0.043246999,0.19372107,0
0.41358116,0.86745471,0.90677828,0.31301615,0.65652734,0.68628913,0
-0.77512866,0.8619101,0.56774759,-0.60052305,0.66775608,0.43985668,0
0.61609608,-1.1402538,-0.10553095,0.47379535,-0.87688744,-0.081156291,0
0.12137896,-0.81309545,-0.99305689,0.094151102,-0.63070101,-0.77029335,0
0.70862216,-0.3452315,1.1704885,0.50215566,-0.2446437,0.82945108,0
-0.31674206,0.10326374,-1.3448159,-0.22861755,0.07453353,-0.97065896,0
-0.45643428,-0.59145403,0.97859395,-0.3707301,-0.48039734,0.79484439,0
0.76216298,0.84110272,-0.73089916,0.56455588,0.62302881,-0.54139787,0
-1.0490757,0.93577147,-0.0045378148,-0.74625289,0.66565466,-0.0032279438,0
-1.1465125,0.90856636,-0.22353481,-0.77474993,0.61395901,-0.15105249,0
-1.1958205,-0.60543793,-0.24429415,-0.8777101,-0.44438025,-0.17930739,0
-0.96386695,0.60833859,-0.68528068,-0.72474784,0.45742005,-0.51527411,0
0.58450568,-1.0240669,0.51652396,0.45405337,-0.7955116,0.4012441,0
1.1602328,-0.073918819,-0.75323105,0.83755255,-0.053360753,-0.5437448,0
-0.3709242,1.2603395,0.52855593,-0.26192889,0.88999128,0.37324083,0
1.0589094,0.4702276,-0.56268609,0.82211608,0.36507529,-0.43685821,0
0.58786082,-1.1149588,0.19799088,0.46074307,-0.8738625,0.15517776,0
-0.28882375,0.77405709,1.1343911,-0.20580836,0.5515731,0.80833781,0
-0.41839394,0.79955196,-1.0058968,-0.30961025,0.59166604,-0.74436063,0
-0.44513395,-1.3857543,-0.13457301,-0.30453151,-0.94804239,-0.092066042,0
-0.68169689,-1.0177537,0.51400852,-0.51315808,-0.76613015,0.38692802,0
1.2667302,0.19102131,-0.21599269,0.9750579,0.14703749,-0.16625907,0
0.65205729,-1.2179806,-0.045901932,0.47171792,-0.88112396,-0.033206843,0
-0.01144242,-0.12526743,1.3645228,-0.0083502512,-0.091415495,0.99577779,0
-0.47475213,-0.75695544,-1.0438725,-0.34551048,-0.55088967,-0.75969934,0
1.2961162,0.37664974,-0.32687235,0.93329674,0.27121484,-0.23537156,0
1.094853,-0.58152777,0.13182539,0.87820238,-0.46645445,0.10573964,0
0.016488945,1.3303403,-0.46862546,0.011689623,0.94312739,-0.33222592,0
1.3060547,-0.40430322,0.22317517,0.94279772,-0.29185313,0.16110279,0
0.49358359,1.2354407,-0.23872486,0.36517411,0.91403157,-0.1766188,0
-0.83373177,1.0316782,-0.22961515,-0.61933309,0.7663765,-0.17056835,0
-0.9791128,-0.21687484,0.98235917,-0.69746047,-0.15448846,0.69977295,0
0.80407274,1.0505601,0.35977763,0.58648503,0.76627117,0.26241928,0
-1.2257733,-0.50073844,-0.13567406,-0.92091423,-0.376201,-0.10193089,0
-0.4502978,-1.1049998,-0.8385092,-0.30876446,-0.75768667,-0.57495689,0
-1.0120611,-0.3572399,-0.74673587,-0.77405506,-0.27322793,-0.57112628,0
-0.89032501,1.0310994,0.36003834,-0.63185388,0.73175997,0.25551525,0
1.0699838,0.30530968,0.57056898,0.85567814,0.24415959,0.45629042,0
0.36949682,-0.89434624,-0.81574959,0.29194593,-0.70663869,-0.6445381,0
0.47902712,0.99714786,-0.8607564,0.34175512,0.71140105,-0.6140945,0
-1.1692166,0.30698428,-0.46922457,-0.90167356,0.23673937,-0.36185542,0
0.68315208,-0.70056373,-0.89224511,0.51588589,-0.52903444,-0.67378366,0
-0.78269964,-1.0670812,-0.16298732,-0.58701348,-0.80029559,-0.12223815,0
1.4064709,-0.15727019,-0.14157751,0.98887044,-0.11057452,-0.09954121,0
1.1311979,-0.26797593,-0.63130862,0.85511243,-0.20257246,-0.47722846,0
1.2134683,-0.30270404,-0.4200772,0.91976941,-0.2294398,-0.31840482,0
-1.1260457,-0.11686507,-0.72200215,-0.83862418,-0.087035432,-0.53771216,0
0.52497995,0.34588557,-1.1280926,0.40650541,0.26782805,-0.87351096,0
0.33348402,-1.3161459,0.44529843,0.23338588,-0.92109317,0.31163821,0
1.1024222,-0.4795419,0.79459208,0.76500458,-0.33276883,0.55139184,0
1.2324057,0.62980658,-0.097896539,0.88824165,0.45392555,-0.070557758,0
-1.2247334,-0.53261173,0.23496424,-0.90316641,-0.39276877,0.17327185,0
-0.71349251,-0.13893293,-1.0035104,-0.57580799,-0.11212268,-0.80986029,0
0.38305169,-1.1728812,0.79439169,0.26103052,-0.79925972,0.54133809,0
-1.0863779,0.31534299,0.75911516,-0.79744726,0.23147509,0.5572226,0
-0.24845022,0.22060913,-1.3550582,-0.17807518,0.15812024,-0.97122973,0
-0.53966683,-0.58111334,1.0177408,-0.41826728,-0.45039028,0.7887972,0
-1.209905,-0.034177911,0.72365725,-0.85795528,-0.024235886,0.5131523,0
-0.50267226,0.88223547,0.77692449,-0.39316526,0.69004071,0.60767174,0
0.13640095,1.2492954,-0.21474786,0.10698655,0.97988898,-0.1684382,0
-0.97040397,0.96013141,0.090280384,-0.70930988,0.70180118,0.0659898,0
-0.37096298,1.0944704,0.70019144,-0.27454296,0.80999762,0.51819891,0
-0.25991756,0.98817486,0.9979986,-0.18197656,0.69185269,0.69873059,0
-0.63013572,-1.1183279,-0.37804791,-0.47090027,-0.83572614,-0.28251511,0
-0.91402572,-0.33690536,-0.89232022,-0.69189125,-0.25502771,-0.67546082,0
0.53862751,0.38127968,-1.1192251,0.41455474,0.29345196,-0.86141181,0
0.54995328,0.87742323,0.85534185,0.40946421,0.6532799,0.63683933,0
0.85220653,-0.81630045,-0.5699088,0.65029335,-0.62289453,-0.43488041,0
-0.92626595,-0.5347535,-0.74997759,-0.70908082,-0.4093678,-0.57412744,0
0.46676344,-1.1990317,-0.31290859,0.35249203,-0.90548891,-0.23630339,0
-0.42519823,1.1069907,-0.52391344,-0.32797852,0.85388213,-0.40412295,0
0.60406595,-1.1462277,0.50331777,0.43458405,-0.82463223,0.36210263,0
-1.3424096,0.12610903,0.20882413,-0.98388618,0.09242852,0.15305252,0
1.0999602,-0.96974051,0.020418599,0.75004005,-0.66124594,0.013923019,0
0.32238543,-0.41938666,1.2887676,0.23141517,-0.3010447,0.92510492,0
0.5907439,-1.1181759,0.26278374,0.45735723,-0.86569798,0.20344864,0
-0.12172328,-0.83288771,1.1288387,-0.086443968,-0.59149015,0.80166501,0
0.75841665,1.2134875,-0.42137879,0.50840855,0.81346762,-0.28247344,0
-0.12406915,0.99224967,0.78733307,-0.097482562,0.77962208,0.6186167,0
-0.76602376,0.19045703,-1.0691816,-0.57639521,0.14330955,-0.8045066,0
1.3117585,-0.047038555,-0.30813688,0.97290921,-0.034887705,-0.22853994,0
0.490071,0.36873895,1.1104213,0.38632923,0.29068163,0.8753593,0
-0.30158788,0.95672685,-0.68171316,-0.24865972,0.78882289,-0.56207365,0
0.23263599,-1.2963047,-0.42787728,0.16799541,-0.93611157,-0.30898666,0
0.67938632,0.68414569,-0.87782741,0.52103454,0.52468461,-0.67322284,0
0.10767975,-0.8143363,0.99572462,0.083419897,-0.63086933,0.77139157,0
1.2098855,0.40010101,0.24758504,0.93200511,0.30820784,0.19072096,0
-0.69372785,0.038944885,1.0190972,-0.56244081,0.031574622,0.82623446,0
-0.44583169,-0.42825931,1.2005085,-0.33016488,-0.31715149,0.88904792,0
-1.399471,0.051723924,-0.13621818,-0.9946236,0.036760915,-0.096812159,0
-0.81353718,0.45486668,0.89799416,-0.6285674,0.35144597,0.69382185,0
0.43033352,0.47627699,-1.1307544,0.33096388,0.36629841,-0.8696484,0
1.1953508,0.74978369,-0.23669027,0.83546823,0.52404737,-0.16543026,0
0.68976063,0.72142911,-0.91062683,0.5105179,0.53395694,-0.6739893,0
-1.1156845,0.30351734,-0.55020028,-0.87131083,0.2370365,-0.42968732,0
0.93711871,0.048640218,-1.0252433,0.67425925,0.034996755,-0.73766506,0
0.70657456,-1.0132222,0.42692456,0.54062653,-0.77525413,0.32665589,0
-1.1112735,0.62274933,-0.49267349,-0.81362915,0.45595166,-0.36071542,0
-1.1135712,-0.071133479,0.58630097,-0.883439,-0.056432936,0.46513522,0
1.0312908,0.9326849,-0.060396675,0.7409758,0.67012811,-0.043394625,0
-0.091519468,0.68232697,1.0466715,-0.073052883,0.54464865,0.83547658,0
0.70782626,-0.56499988,1.0046061,0.52331507,-0.41771969,0.74273247,0
0.4514589,-1.2361735,-0.055104692,0.34274521,-0.93849641,-0.041835189,0
0.79115134,-0.95418674,-0.58713824,0.57683396,-0.69570422,-0.42808661,0
0.13248175,-1.3464024,0.15463842,0.097290464,-0.98875588,0.11356163,0
-1.3332816,-0.25595284,0.21847317,-0.96959341,-0.18613485,0.15887876,0
1.0810579,0.8522175,-0.51486886,0.73555803,0.57985371,-0.35031974,0
0.73856664,-0.40780631,-1.068128,0.54261154,-0.2996079,-0.78473431,0
-0.48482579,-0.45072454,-1.2333076,-0.34636986,-0.32200721,-0.88110119,0
-1.3930235,0.037298664,0.33755681,-0.97154456,0.026013426,0.23542422,0
-1.3700093,0.24709034,0.25844917,-0.96758848,0.17451105,0.18253338,0
0.6327967,0.26175904,1.2767758,0.43676418,0.18066937,0.88124663,0
-0.23870464,0.93905652,-0.99338031,-0.17201903,0.67671746,-0.71586514,0
-0.34021407,-1.0288625,-0.74395752,-0.25882638,-0.78273284,-0.56598431,0
0.089528821,1.3265294,-0.14811181,0.066923849,0.99159634,-0.11071532,0
1.3832272,-0.13561986,0.37870237,0.96022123,-0.094145827,0.26289105,0
-0.030213619,-0.92025572,1.0313678,-0.021853212,-0.66561186,0.74597812,0
-1.0582513,-0.36890042,0.63024145,-0.82305288,-0.28691158,0.49016908,0
-1.1601139,-0.59749514,-0.39597258,-0.8507148,-0.43814486,-0.29036781,0
0.97629738,0.44400606,0.91397411,0.69283712,0.31509238,0.64860892,0
-0.42073756,0.38750812,-1.1162959,-0.33543286,0.30894071,-0.88996655,0
1.3197496,0.067580961,-0.11035933,0.99522704,0.050963003,-0.083222292,0
-0.25899681,-0.99803019,0.86199051,-0.19271475,-0.74261588,0.64139122,0
-0.41412029,1.0459759,0.73958266,-0.30759713,0.77692205,0.54934162,0
-0.64906287,0.48670593,1.204779,-0.44686955,0.33508936,0.82947135,0
-0.28667891,-0.66433924,1.2483881,-0.19868036,-0.46041462,0.86518461,0
-0.9761048,0.17187464,-0.81204444,-0.76180637,0.13414051,-0.63376456,0
0.12512432,0.82308674,-1.051037,0.093319044,0.61386681,-0.78387445,0
0.60698903,0.20355907,-1.065696,0.48824197,0.16373621,-0.85721076,0
0.86346936,1.1227551,-0.30420175,0.59603542,0.77501506,-0.2099843,0
-0.29613432,-1.3859516,0.094007492,-0.20849386,-0.97578156,0.06618613,0
-0.31633285,-0.038860291,1.3299463,-0.23130485,-0.028414926,0.97246629,0
0.97074461,-0.5132215,0.63484603,0.76534611,-0.40462968,0.50051981,0
-1.0658059,0.093507782,0.81869334,-0.79112738,0.069409043,0.60770047,0
1.1689854,-0.31825179,-0.38274181,0.92006105,-0.2504831,-0.30124059,0
1.0035337,-0.13056645,-0.73596621,0.80198729,-0.10434391,-0.58815712,0
-0.21483113,0.30663356,-1.220711,-0.16825263,0.24015097,-0.95604318,0
0.35855651,0.61533016,-1.2205826,0.25372708,0.43542907,-0.86372679,0
1.2406213,-0.68473917,-0.16006435,0.86996806,-0.4801636,-0.11224286,0
0.42615265,0.21161413,-1.3018727,0.30744839,0.1526693,-0.93923777,0
0.85514057,-0.94082671,-0.57504052,0.612836,-0.67424291,-0.41210246,0
0.8109647,-0.35581052,1.097308,0.57511616,-0.25233203,0.77818376,0
-0.24582265,1.3195099,0.16789301,-0.18173109,0.97548354,0.12411948,0
0.53224343,-0.76442403,-1.058154,0.37755197,-0.54225147,-0.75061166,0
0.84935445,1.0295148,0.35161817,0.61538714,0.74591964,0.25475973,0
-0.65943617,-0.31522819,-1.084285,-0.50429833,-0.24106815,-0.829198,0
0.95248759,0.88396072,-0.12171366,0.72978806,0.67728335,-0.093255989,0
0.8148126,0.056791022,-1.0978425,0.59546751,0.041503049,-0.80230659,0
0.54173088,-0.95917982,-0.85637444,0.38825271,-0.6874339,-0.61375439,0
0.46914905,0.06682197,1.2188628,0.35874704,0.051097162,0.93203521,0
-0.26944998,0.54852229,-1.305035,-0.18698299,0.38064334,-0.90562022,0
0.95846248,-0.97293335,-0.040335782,0.70148325,-0.71207422,-0.02952111,0
-0.5587424,-1.1718656,-0.51721478,-0.39981908,-0.8385514,-0.37010315,0
0.080614939,1.4395275,0.031661272,0.055899888,0.99819499,0.021954512,0
-1.2591351,-0.56567949,-0.11669885,-0.90893143,-0.40834683,-0.084241353,0
0.12756477,1.0774592,-0.62654066,0.10181606,0.85997605,-0.50007463,0
0.18127091,-1.3258674,-0.16850467,0.13439731,-0.98302048,-0.12493221,0
-1.236686,0.61228007,-0.031336393,-0.89594674,0.44358093,-0.0227024,0
-0.56441128,-1.3123229,-0.055988032,-0.3947911,-0.91793591,-0.039162181,0
0.82208794,1.0320584,0.14426628,0.61935794,0.77754885,0.10868967,0
1.4442904,-0.062160652,-0.067588776,0.99798495,-0.042952161,-0.046702921,0
-0.67326015,1.1834121,-0.05495685,-0.49408835,0.86847579,-0.040331423,0
-0.49072063,1.2017922,-0.17697743,-0.37455964,0.91730988,-0.1350842,0
0.86883271,-0.11611944,-1.1377068,0.60494357,-0.080850676,-0.792153,0
-0.11276808,-0.4017069,-1.3580631,-0.07937438,-0.28275055,-0.95590365,0
-1.036252,-0.19718064,0.92462623,-0.73874313,-0.1405699,0.6591652,0
-0.60382164,0.62734145,0.97980589,-0.46065381,0.47859702,0.74749112,0
-0.45382044,0.83356941,0.91588348,-0.34407663,0.63199395,0.69440264,0
-1.2766352,0.33881474,-0.13480385,-0.96154499,0.25519085,-0.1015325,0
-1.0779383,-0.14385781,0.83395964,-0.78655756,-0.10497117,0.60852951,0
-0.92637861,0.88087338,0.58896661,-0.65818292,0.62585193,0.418455,0
1.3997198,-0.057997797,0.015126172,0.99908447,-0.041397352,0.010796677,0
-0.94660628,0.70273525,-0.68931174,-0.69314492,0.51457226,-0.50474304,0
1.2109419,0.49893343,0.46883035,0.87050188,0.35866502,0.33702499,0
0.66770208,0.80075854,0.93722862,0.47626984,0.57117862,0.6685223,0
-1.0008386,1.0591447,0.025035005,-0.68671638,0.72672254,0.017177541,0
-0.74197626,-0.49029896,1.0717775,-0.53275889,-0.35204783,0.76956499,0
0.86672527,0.51019138,0.84559709,0.6596185,0.38827953,0.64353895,0
-1.2537781,-0.13213149,-0.67816961,-0.87581921,-0.092299663,-0.47373134,0
0.91429341,-0.51528513,-0.72611022,0.71641845,-0.40376508,-0.56896257,0
-0.55039716,-0.62623781,0.98914933,-0.42546102,-0.48408639,0.76461965,0
0.72043478,-0.29922915,-1.0530568,0.54972714,-0.22832653,-0.80353409,0
-1.074353,0.65883356,-0.52371806,-0.7872088,0.48274598,-0.38374302,0
0.74301618,-0.83695769,0.84438437,0.52997524,-0.59698141,0.60227865,0
-0.34769827,-1.1783925,0.59484231,-0.2547161,-0.86326444,0.4357684,0
0.14821251,-0.95989794,-0.88850671,0.11259231,-0.72920382,-0.67497015,0
0.39180201,-0.3410531,1.1588424,0.30852064,-0.26855892,0.9125191,0
0.50596684,1.2255684,-0.52172774,0.35509986,0.86013371,-0.36616123,0
-0.2421996,-0.58741319,-1.2117193,-0.17702027,-0.42933199,-0.88562846,0
0.19823477,-1.2798761,-0.080682613,0.15276471,-0.98630476,-0.062176052,0
-1.2473211,-0.29592359,-0.15001647,-0.96639723,-0.22927515,-0.11622949,0
-1.173936,0.66913646,-0.047163643,-0.86825079,0.49489772,-0.034882538,0
-1.1836751,0.58723861,-0.35128796,-0.86574197,0.42950734,-0.25693262,0
-0.7037887,-0.036020249,-1.1721985,-0.5145697,-0.026335929,-0.85704398,0
-1.0386325,0.10956243,-0.80955487,-0.78599954,0.082912892,-0.61264187,0
-0.23321249,1.2205373,0.56844389,-0.17066841,0.89320761,0.41599581,0
-0.044931602,0.98080015,0.96852636,-0.0325794,0.71116722,0.70226759,0
0.57172042,-1.273015,0.50537676,0.38520551,-0.85771364,0.34050545,0
-0.95328873,-0.96247464,0.16762947,-0.6983816,-0.70511121,0.12280574,0
1.1932327,0.49735355,-0.26645386,0.90402573,0.37680867,-0.20187274,0
-0.44508436,0.44540495,1.2245995,-0.32322752,0.32346034,0.88932413,0
-1.1816388,0.37024209,-0.22233513,-0.93923473,0.29428977,-0.17672479,0
-0.64059943,-1.1000491,0.46600339,-0.47255999,-0.81148869,0.34376326,0
-1.2300043,0.43596897,0.29331908,-0.91960132,0.32594815,0.21929727,0
-0.16397315,-1.3792531,0.29371396,-0.1155,-0.97152323,0.20688727,0
-0.55928773,1.1326027,-0.12316003,-0.44067648,0.89240539,-0.097040802,0
0.33495745,-0.060723685,1.2563332,0.25733566,-0.046651807,0.96519524,0
0.91243708,0.62734431,0.60497487,0.72313297,0.49718866,0.47946021,0
0.72445315,-0.69787538,0.98981541,0.5133453,-0.49451235,0.70138019,0
-1.2128689,-0.70182735,-0.016807863,-0.86547542,-0.50080788,-0.011993705,0
-0.18504652,-0.5811761,1.2101963,-0.13654496,-0.42884707,0.8929981,0
-0.19716114,-0.96020204,-0.98982763,-0.14153087,-0.68927491,-0.71054149,0
-0.30064029,-1.3197761,-0.60304648,-0.20288271,-0.89063156,-0.40695709,0
1.1401865,0.47961491,0.44414845,0.86753911,0.36492687,0.33794132,0
0.74881214,0.5426774,1.0977358,0.5216915,0.37807906,0.7647838,0
-0.8891964,0.93191445,-0.10724483,-0.68794984,0.72099978,-0.082972743,0
0.25440702,-1.2851756,-0.5114395,0.18089196,-0.91380316,-0.36365074,0
-0.4289301,-0.21104664,1.2988808,-0.30990788,-0.15248409,0.93845916,0
-0.70022261,-0.76600659,0.83232188,-0.5263437,-0.57579225,0.62564015,0
0.20006955,-1.0596734,0.68652409,0.15650262,-0.82892013,0.53702736,0
-1.347949,0.3247737,0.25999317,-0.95552588,0.2302236,0.18430236,0
-0.31416574,-1.1845241,0.12782905,-0.2549783,-0.96136498,0.10374662,0
0.0036428354,-1.3497857,-0.42836121,0.0025723851,-0.95315003,-0.30248693,0
-0.2293255,-0.34366238,1.2618524,-0.17271516,-0.2588273,0.95035672,0
-0.76223892,0.50159973,0.85726076,-0.6088165,0.40063843,0.68471247,0
0.74117851,-0.42152193,1.0178628,0.55819756,-0.31745726,0.76657444,0
0.80023545,1.0114018,0.2073417,0.61261833,0.7742762,0.15872994,0
-0.14865772,0.91315144,1.1319451,-0.10168582,0.62461978,0.77428043,0
0.98109496,0.82805705,0.0053945258,0.76418561,0.64498276,0.0042018555,0
0.38714704,1.202028,0.70926404,0.26729625,0.82991105,0.48969412,0
0.69639522,-1.1461654,-0.17671233,0.51480585,-0.84729564,-0.13063349,0
-0.83049256,0.49544874,-0.91304201,-0.62444234,0.37252492,-0.6865108,0
1.0394182,-0.65594733,0.24059507,0.8299312,-0.52374601,0.19210492,0
0.10324437,-1.4019001,-0.11534731,0.07320109,-0.99395841,-0.08178217,0
-1.3660818,0.37788376,0.00086358411,-0.96380526,0.26660654,0.00060928043,0
-1.3242034,-0.30701295,0.090578765,-0.97200501,-0.22535671,0.066487528,0
0.98248506,0.74742776,-0.64458561,0.70548946,0.53670269,-0.46285522,0
-0.79835647,1.0063994,-0.71567011,-0.54291171,0.68438852,-0.48668191,0
-1.3511291,-0.08627256,-0.36395848,-0.96375114,-0.061537627,-0.2596091,0
-0.90921265,1.020432,0.3469058,-0.64480036,0.72367555,0.24602054,0
0.62352312,0.092365459,1.1857662,0.46431431,0.0687811,0.88299572,0
0.48392045,1.3274862,-0.15059732,0.34056297,0.9342292,-0.10598409,0
0.9305225,0.86139798,-0.018907446,0.73375654,0.67924893,-0.014909325,0
-0.89361644,-0.97010314,-0.18695249,-0.67081183,-0.72822815,-0.14033978,0
0.09707313,1.3828373,0.37182045,0.067635491,0.96348882,0.25906509,0
1.1404824,0.46686599,0.71402639,0.80075812,0.327797,0.50133383,0
0.90632945,1.0154693,-0.48648933,0.62702876,0.70253533,-0.33656946,0
-1.1044419,0.85365951,0.29510638,-0.77409655,0.59832472,0.20683827,0
-1.2913307,0.13601157,-0.31592837,-0.96630806,0.10177802,-0.2364105,0
1.1139816,-0.17596535,0.94242764,0.75795287,-0.1197268,0.6412276,0
1.2933487,0.66387546,0.14993666,0.88495016,0.45424464,0.10259142,0
-0.97116226,0.95178133,-0.074974455,-0.71311414,0.69888294,-0.055052947,0
0.47588208,-0.76912588,0.93711919,0.36539236,-0.59055114,0.71954,0
-0.55951422,0.20513889,-1.1519921,-0.43138915,0.15816344,-0.88819349,0
-0.20094544,1.2757844,-0.15982494,-0.15441138,0.98034388,-0.12281338,0
0.8381505,1.1125562,0.27361304,0.59043109,0.78373486,0.19274539,0
1.1661974,-0.46896324,-0.53917068,0.8526603,-0.34288049,-0.39421237,0
0.56379777,0.056909479,-1.2512249,0.41046426,0.041432068,-0.91093498,0
-0.89820832,0.027629144,-0.98308945,-0.6743719,0.020743873,-0.73810041,0
-0.76601398,0.94998157,-0.55906987,-0.57066762,0.7077204,-0.41649771,0
0.7830956,-1.1077935,-0.34602883,0.5593282,-0.79124451,-0.24715205,0
1.0935373,0.26325133,0.45194378,0.90212518,0.21717197,0.37283579,0
1.1549652,-0.6269021,-0.11127942,0.87574446,-0.47534424,-0.084376864,0
0.2200935,0.59613669,-1.1468629,0.16786294,0.454667,-0.87469989,0
-1.0401032,-0.53556561,-0.55227309,-0.80397773,-0.41398087,-0.42689541,0
0.93143421,-0.24073699,1.0890464,0.64099097,-0.1656695,0.74945593,0
-0.7122336,-0.48504829,-0.89770228,-0.57237202,-0.38979918,-0.72142011,0
1.2762854,-0.64209986,0.14996728,0.88843548,-0.44697237,0.10439378,0
-0.020335557,-1.3216623,0.56662619,-0.014140099,-0.91900289,0.3939971,0
0.31159717,1.3278019,0.37512991,0.22028439,0.93869281,0.26519901,0
-1.2248596,0.40544325,-0.19449382,-0.93873632,0.31073302,-0.14906068,0
-1.2677306,0.49743465,-0.21728648,-0.91927421,0.36070663,-0.15756176,0
1.2652643,-0.45767987,0.0095961774,0.94034493,-0.34014788,0.0071318829,0
-0.17807156,0.64710563,-1.1753439,-0.13156642,0.47810763,-0.86839128,0
-1.3677924,0.17783202,0.21977264,-0.97930056,0.12732269,0.15735097,0
-1.3786856,-0.23744836,-0.15204667,-0.97972143,-0.16873553,-0.10804739,0
0.93234342,0.4836328,-0.72692454,0.72991312,0.3786265,-0.56909478,0
0.92240751,0.67656499,0.97961837,0.61246246,0.44922733,0.65044951,0
0.55912888,-0.098341048,-1.3187187,0.38943925,-0.068495594,-0.91850168,0
-0.16818641,0.46253642,1.150391,-0.13441473,0.36965954,0.91939354,0
-0.61482251,0.08197692,1.157268,-0.46825412,0.062434331,0.88138533,0
0.93942791,0.45613253,0.93754393,0.6693877,0.32501644,0.66804528,0
-1.1065382,-0.48200631,-0.58542007,-0.82488555,-0.35931885,-0.43641022,0
-1.2262614,0.43965816,0.38357294,-0.90299553,0.32375589,0.2824558,0
0.69037616,-0.84128654,0.80606496,0.50976682,-0.62119752,0.59519023,0
0.49668315,-1.2935467,0.091404729,0.3576768,-0.93152273,0.065823354,0
0.7873646,0.8351534,-0.68002039,0.59017926,0.62599993,-0.509718,0
-0.95609444,-0.40043044,-0.83761948,-0.71741605,-0.3004674,-0.62851703,0
0.020602345,0.61540312,-1.329568,0.014060835,0.4200047,-0.90741301,0
-0.7613073,-0.86174232,-0.81006104,-0.54125798,-0.61266315,-0.57591987,0
-1.0940268,-0.45944351,0.514552,-0.84588802,-0.35523605,0.39784524,0
1.0753109,0.046705309,-0.90791237,0.76365435,0.033168741,-0.64477277,0
0.4807784,-0.4388817,-1.2054762,0.35092959,-0.32034838,-0.87990075,0
1.2471292,0.033758644,-0.46779931,0.93599755,0.025336595,-0.35109353,0
-0.13812843,-0.17883751,1.389833,-0.098096788,-0.12700778,0.98703903,0
-1.0213256,-0.77166748,-0.48835683,-0.74545956,-0.56323552,-0.35644877,0
0.70643049,-0.0059100655,-1.0984652,0.54090065,-0.004525227,-0.84107429,0
0.85160089,-0.60630214,0.84839547,0.63253564,-0.45033738,0.63015479,0
0.23777008,1.3950061,-0.057287753,0.16788314,0.98497677,-0.040449362,0
1.3549523,-0.055558477,0.41285813,0.95584416,-0.039193444,0.29124865,0
-0.33577612,-1.279958,0.017830234,-0.2537246,-0.96718264,0.013473171,0
0.14778742,1.1479974,0.5319919,0.11601418,0.90118611,0.41761741,0
1.291136,-0.50076151,-0.091637403,0.93029839,-0.36081219,-0.066027224,0
0.80818897,1.070238,-0.23084907,0.59389222,0.78645718,-0.16963789,0
-0.31279603,1.1102326,-0.75679159,-0.22673574,0.80477178,-0.54857379,0
-0.029113194,-1.0524428,-0.70495635,-0.022976924,-0.83061647,-0.55637074,0
0.36602843,0.977947,0.94094044,0.26040629,0.69574797,0.66942012,0
-0.20608623,-0.15880859,1.3293777,-0.15213826,-0.11723667,0.98138148,0
-0.94458932,0.97694296,0.036841184,-0.69484711,0.71864665,0.027100654,0
1.1351094,-0.27582625,0.71749032,0.8280077,-0.20120196,0.52337462,0
0.431274,-0.34630504,-1.2817206,0.30894217,-0.24807484,-0.91815776,0
0.050201587,-1.3263214,0.31342635,0.036810733,-0.97253621,0.22982247,0
0.98832881,0.95834792,-0.39037469,0.69068033,0.66972858,-0.2728081,0
0.96663493,-0.95146894,0.20906802,0.70435703,-0.69330603,0.15234141,0
-0.15882665,1.1374768,0.71852005,-0.11723677,0.83962047,0.53037053,0
0.22372328,0.4579806,-1.2578503,0.16484207,0.33744574,-0.92679954,0
-1.0490803,-0.67456919,-0.60101897,-0.75773293,-0.48722991,-0.43410584,0
0.69571394,0.73516542,0.92877239,0.50644559,0.5351643,0.67610067,0
1.1950586,0.50315094,-0.34400442,0.890827,0.37506148,-0.25642964,0
1.0847341,-0.56335914,0.49044985,0.8236227,-0.42775035,0.37239137,0
0.20081435,0.74440849,-0.96291429,0.16279231,0.60346276,-0.78059679,0
-0.133856,1.3653599,-0.39228788,-0.09380962,0.95687824,-0.27492511,0
-0.84295827,-1.0883974,-0.20470704,-0.60566282,-0.78201002,-0.14708135,0
1.0436628,-0.63104391,0.36208001,0.820346,-0.49601689,0.28460428,0
0.61055601,1.033226,0.41341048,0.48099992,0.81398207,0.32568741,0
0.18103224,1.2651808,-0.189234,0.14011779,0.97924191,-0.14646591,0
0.088907771,0.63870907,1.2194641,0.064450525,0.46300942,0.88400704,0
0.44338521,-0.89203942,-1.0523847,0.30597663,-0.61558938,-0.72624242,0
1.1736453,-0.6956991,-0.37369287,0.82966715,-0.49179995,-0.26416901,0
-0.1472082,-0.72568697,-1.2672489,-0.10029697,-0.49443039,-0.86341131,0
1.1167769,0.17700541,0.6469602,0.85726553,0.13587372,0.49662262,0
-0.79632229,-0.85399097,-0.66110772,-0.59346229,-0.6364401,-0.49269313,0
0.65013731,-1.1361012,-0.15074146,0.49341717,-0.86223614,-0.11440418,0
1.1154203,0.65746164,-0.34876412,0.83183479,0.49030796,-0.26009399,0
0.53168064,-1.0265746,0.73553234,0.38802114,-0.74919534,0.53679234,0
-1.1907284,-0.39487109,-0.43107727,-0.89765114,-0.29768038,-0.32497504,0
-0.26586246,-1.2673936,0.63105744,-0.1845554,-0.87979448,0.43806508,0
-1.1125641,-0.19365919,-0.65022659,-0.85377562,-0.14861301,-0.49898034,0
1.0615952,0.080211453,0.84317964,0.78169066,0.05906257,0.62086344,0
0.039685402,-1.0699652,-0.92716599,0.028019559,-0.75544035,-0.65461808,0
-0.78648436,-0.15472932,1.1652991,-0.55606991,-0.10939865,0.82390422,0
0.71810722,-0.89108229,-0.49301261,0.5762834,-0.71509647,-0.39564425,0
-0.0089958198,-0.10673063,1.3788778,-0.0065044216,-0.077171512,0.99699664,0
0.94012129,-0.12627438,-1.115792,0.6419394,-0.086223446,-0.76189196,0
1.2450999,-0.5166055,0.4470132,0.87670577,-0.36375475,0.31475309,0
0.045161698,-0.44544366,-1.1786585,0.035818987,-0.35329363,-0.93482655,0
-0.17405939,-1.1055756,-0.61761886,-0.1361649,-0.86488062,-0.48315698,0
0.82576758,-0.53640932,0.90197515,0.61838579,-0.40169644,0.67545474,0
-0.67082268,1.0515348,-0.72142678,-0.46555898,0.72977769,-0.50067884,0
-0.9428547,0.74506319,-0.68754119,-0.68101329,0.53815073,-0.49660322,0
0.92679387,0.27327797,0.96298242,0.67938238,0.20032528,0.70591027,0
-1.0574002,-0.3815124,0.95681226,-0.71630365,-0.25844398,0.64816338,0
-1.0412079,-0.10944261,-0.76157022,-0.80424798,-0.084535465,-0.5882507,0
-1.2244688,-0.72358811,0.11755075,-0.85798931,-0.50702053,0.082368195,0
-0.26107648,-1.1859009,-0.66355419,-0.1886701,-0.85700577,-0.47952554,0
0.17647532,-0.46748546,1.2856034,0.12794578,-0.33893007,0.93207097,0
1.0663898,0.26548871,0.80440998,0.78302145,0.19494125,0.5906567,0
1.2625271,0.22234344,0.34769806,0.95050377,0.16739307,0.2617673,0
1.0438106,0.92134196,-0.16818888,0.74430811,0.65697962,-0.11993014,0
0.3487424,-1.2897996,-0.025220808,0.2609657,-0.96516359,-0.018872859,0
-0.7758671,-1.0801373,0.44174218,-0.55365402,-0.77077937,0.31522453,0
0.33387029,-0.65891331,1.1571862,0.2431951,-0.47996032,0.8429082,0
1.2237828,-0.61306363,0.18687658,0.88586599,-0.44378155,0.13527532,0
0.7449792,0.093859732,-0.98121881,0.60295153,0.075965703,-0.79415286,0
-1.0570139,0.67690742,-0.6493842,-0.74794883,0.4789834,-0.45950782,0
