0.059673481,-1.1730812,-0.38345319,0.048294995,-0.94939911,-0.31033668,0
0.49690858,1.0014727,0.60303897,0.39119121,0.78840929,0.47474235,0
-0.68637574,0.0095011154,0.9959172,-0.56745559,0.0078549702,0.82336652,0
-0.94186747,0.8628515,-0.0026327705,-0.73735809,0.67549896,-0.0020611123,0
0.94197232,-0.069627799,-0.77325988,0.77167028,-0.057039578,-0.63345987,0
-0.12727128,0.80770624,0.83589798,-0.10884199,0.69074774,0.71485728,0
-0.76988351,-0.95842421,-0.40158802,-0.59529579,-0.74108082,-0.31051928,0
1.1375753,0.54126227,-0.19613902,0.89224672,0.42453408,-0.15383984,0
0.26970488,-0.67424285,0.98012197,0.22110052,-0.55273545,0.80349118,0
0.92323524,0.75485563,0.17876607,0.76561618,0.62598312,0.14824629,0
-0.23629597,-0.87196201,0.71701032,-0.20487475,-0.75601381,0.62166661,0
-0.50567907,1.1860924,-0.12295468,-0.3904137,0.91573238,-0.094928175,0
0.18186714,-1.2155862,0.29806197,0.14379808,-0.96113551,0.23567061,0
-0.30000883,0.81390637,0.88701928,-0.24181272,0.65602374,0.71495414,0
0.65794104,-0.091504708,-1.1460057,0.49670589,-0.069080546,-0.86516535,0
-0.77227485,0.84536117,-0.12346223,-0.67058396,0.73404646,-0.10720509,0
-1.2104169,0.52166778,-0.032134604,-0.91806883,0.39567107,-0.024373237,0
-0.25742829,1.0036337,0.75929469,-0.20040289,0.78130925,0.5910961,0
1.1419783,0.045191213,-0.52084017,0.90924865,0.035981461,-0.41469547,0
-0.32390192,-0.8744427,0.88863277,-0.25145492,-0.67885643,0.68987262,0
0.098904058,1.1295415,0.61015952,0.076812096,0.87723857,0.47386968,0
-1.0098019,-0.40159494,-0.65648907,-0.79535228,-0.31630903,-0.51707184,0
-0.44907328,1.2437775,0.055376761,-0.3393012,0.93974686,0.041840389,0
0.92311591,-0.37719491,-0.76556349,0.73427391,-0.30003205,-0.60895199,0
-0.040891718,0.061083697,-1.2297841,-0.033191893,0.049581766,-0.99821842,0
-0.50464845,1.0649484,0.51031965,-0.39296219,0.8292594,0.39737827,0
-0.18406078,-0.78786224,-0.86029077,-0.15585473,-0.66712779,-0.72845715,0
-0.49248886,1.0991751,-0.55638993,-0.37119573,0.82846361,-0.41935885,0
0.55155927,-0.087162592,1.192817,0.41878307,-0.066180043,0.90567154,0
-0.47360474,1.0193574,-0.51626617,-0.38289651,0.82412273,-0.41738713,0
0.52343565,0.88267744,0.56469125,0.44687834,0.75357771,0.48209992,0
1.151314,-0.50910282,-0.41235968,0.86913282,-0.38432431,-0.31129241,0
-0.51125962,-0.81353903,0.60411632,-0.45045534,-0.7167846,0.53226858,0
-0.87385583,0.23560719,-1.0163934,-0.64209157,0.1731194,-0.74682534,0
-0.97951239,-0.92835891,0.073301733,-0.72473645,-0.68688828,0.054235596,0
0.53273499,-0.47928247,-0.97467023,0.44036704,-0.39618236,-0.80567759,0
0.71942508,-0.31744719,-0.91902518,0.59479934,-0.26245591,-0.75982279,0
-0.13846688,1.1929443,0.28858954,-0.11210614,0.96583658,0.23364908,0
0.52388787,-0.64947432,1.0151992,0.39866135,-0.49422848,0.772533,0
-0.53166145,-0.87861705,0.59157699,-0.44860032,-0.74135125,0.49915528,0
0.91352957,-0.78651273,-0.25806972,0.74103409,-0.63800097,-0.20934018,0
0.2417919,1.1977965,0.39583001,0.18824267,0.93252259,0.30816624,0
0.44633725,-1.208999,-0.33533671,0.33517092,-0.9078815,-0.25181657,0
-0.74928308,0.96266758,0.36406502,-0.58856571,0.75618035,0.28597495,0
-0.23837267,-0.52027518,-1.2274355,-0.17601281,-0.38416779,-0.90633029,0
0.40308964,0.81485134,-0.94196695,0.30791152,0.62244743,-0.71954829,0
-0.52328759,0.10100066,1.0671139,-0.43870658,0.084675528,0.8946321,0
0.14458042,0.97279948,-0.64869082,0.12271798,0.82569951,-0.55060029,0
-0.3013069,-0.84238654,-0.99624521,-0.2250248,-0.62911892,-0.74402505,0
-1.1418222,0.46985605,0.356462,-0.88847995,0.36560655,0.27737185,0
0.89679134,0.42931661,0.80282593,0.70175916,0.33594981,0.62822914,0
0.7662282,-1.0656548,0.15161698,0.57992476,-0.8065477,0.11475229,0
-0.94574231,-0.50677454,0.54037839,-0.78722858,-0.42183521,0.44980681,0
1.212463,-0.42639625,-0.28849766,0.92045987,-0.32370523,-0.21901742,0
0.56907231,0.90471381,0.49742162,0.4827193,0.76742935,0.42194113,0
-0.27070335,1.2343218,-0.013666469,-0.21420953,0.97672784,-0.010814376,0
-0.98277318,-0.041315585,0.84218961,-0.75894153,-0.031905748,0.65037662,0
-0.014176725,-0.90775883,0.84595436,-0.011424429,-0.73152483,0.68171918,0
-0.19551291,0.99850255,0.84248364,-0.14800496,0.75587511,0.63776743,0
0.9982273,0.57649225,-0.19590355,0.85372245,0.49303839,-0.16754428,0
0.52307189,1.1323805,-0.24402836,0.41154376,0.89093703,-0.19199722,0
-1.2211382,0.3302125,-0.19798003,-0.95371884,0.25789863,-0.154624,0
1.242502,-0.24712032,0.47228718,0.91900253,-0.18277976,0.34932187,0
-0.91989219,0.45359716,-0.68515193,-0.74579132,0.36774835,-0.55547857,0
-0.26087365,0.4259136,-1.1770792,-0.20402104,0.33309358,-0.92055643,0
-0.55204922,-1.170367,-0.095254935,-0.42546079,-0.90199435,-0.073412366,0
0.32595107,-1.1974759,0.18899715,0.25964883,-0.95389533,0.15055293,0
-0.22729871,1.1165373,0.45984599,-0.18498662,0.90869176,0.37424478,0
0.4392249,0.8290115,0.84390175,0.34807101,0.65696383,0.66876388,0
-0.8630057,-0.83279961,-0.037343942,-0.71923918,-0.69406509,-0.031122884,0
0.87323308,-0.86971807,0.41775402,0.6710304,-0.6683293,0.32102042,0
-0.38009074,0.12748845,-1.2492286,-0.28970748,0.097172476,-0.95216966,0
0.17587788,-1.0121274,0.71157002,0.14073983,-0.80991787,0.56940788,0
-0.77925229,-0.96931863,-0.27626824,-0.61164653,-0.76083237,-0.21684699,0
0.95248455,0.81988883,0.14886834,0.75262743,0.64785391,0.11763172,0
0.11697387,0.24675713,1.2628043,0.090537526,0.19098949,0.97740781,0
-0.51387244,-1.2378075,-0.03676958,-0.38327518,-0.92322695,-0.027424837,0
-0.27092552,-0.46335649,-1.0940571,-0.22231963,-0.38022718,-0.89777577,0
0.25463635,1.2508144,0.26590112,0.19529259,0.95930839,0.20393208,0
0.83908111,-0.62422585,0.61824858,0.69066691,-0.51381463,0.50889456,0
-0.9924233,-0.37442198,0.62434953,-0.80631328,-0.30420631,0.50726473,0
0.67203224,-0.94369507,0.46107662,0.53895897,-0.75682819,0.36977598,0
-0.72410524,-0.25476265,-0.97321892,-0.5841862,-0.2055348,-0.78516358,0
1.0051475,0.54109073,-0.24153271,0.86145133,0.46373624,-0.20700313,0
0.0263381,1.2793045,0.35710639,0.019825857,0.96298927,0.26880983,0
0.67703903,-0.87739676,-0.57214123,0.54283941,-0.70348316,-0.45873398,0
0.15495813,-0.55423075,1.0009984,0.13420531,-0.48000523,0.86693937,0
-0.59154314,-0.38105479,-0.97912329,-0.49060595,-0.31603399,-0.81205183,0
1.0062363,0.68596911,0.11328903,0.82271379,0.56085861,0.092626803,0
-0.25061017,-1.0352869,0.6452049,-0.20123562,-0.83131742,0.51808834,0
-1.1966623,-0.46756834,-0.0021327864,-0.93142384,-0.36393249,-0.0016600575,0
-1.1683655,-0.10342259,0.30015177,-0.96500969,-0.085421734,0.2479099,0
0.45524034,0.9491381,0.45552123,0.39689693,0.82749695,0.39714181,0
0.54749346,-0.41552943,1.1016817,0.42163354,-0.32000592,0.84842288,0
-0.80094463,0.54678327,0.77191603,-0.6461882,0.44113526,0.62276846,0
0.96043164,-0.83619487,0.129804,0.75031435,-0.65325737,0.10140629,0
0.3090679,1.0007386,0.78388584,0.23624808,0.76495349,0.59919363,0
-0.86709136,-0.16511308,0.90407628,-0.68625468,-0.13067783,0.71552616,0
0.81685197,-1.0228832,0.10869044,0.62187725,-0.77873081,0.082747079,0
0.090550929,-1.1536956,0.70537293,0.066813812,-0.85126454,0.52046567,0
0.14703837,-1.0844513,-0.41222897,0.12573411,-0.92732602,-0.35250145,0
0.65928972,0.75780505,0.73675829,0.52925658,0.60834152,0.5914458,0
1.1436601,0.071067475,0.020037783,0.99792236,0.062011275,0.017484348,0
-0.13710521,1.1759623,0.072407208,-0.1155894,0.99141955,0.061044406,0
1.2717084,-0.40537432,-0.29762393,0.92992783,-0.29642713,-0.21763541,0
0.43995318,-1.1722558,-0.28983036,0.34232223,-0.91211796,-0.22551349,0
-0.56657386,-0.36430696,1.0111703,-0.46632132,-0.29984459,0.83224851,0
1.0919424,-0.53953743,0.037450112,0.89610666,-0.44277343,0.030733576,0
1.0532671,0.30308661,-0.58539551,0.84766835,0.24392381,-0.47112575,0
0.037008822,-0.58673757,1.1995852,0.027703237,-0.4392069,0.8979587,0
0.42472312,-0.78959149,-0.82780421,0.34805137,-0.64705306,-0.67836756,0
-0.046507306,0.78256863,0.89318109,-0.039133634,0.6584934,0.75156838,0
0.19941093,-1.1679345,-0.21256943,0.16565767,-0.97024423,-0.17658889,0
1.0212594,-0.26331604,0.79173517,0.77440381,-0.19966811,0.60035944,0
-0.95502675,-0.29117438,-0.76130301,-0.76063567,-0.23190725,-0.60634345,0
1.0780873,0.026866296,-0.76852345,0.81411523,0.020288024,-0.58034879,0
0.23397322,-1.1659901,-0.29021296,0.19113393,-0.95250332,-0.23707646,0
-0.54070222,0.95470899,-0.67182094,-0.42027801,0.74207795,-0.52219421,0
-0.13072358,-0.32978892,-1.2403361,-0.10133054,-0.25563627,-0.96144801,0
-1.2022536,-0.14273848,0.33270705,-0.95752823,-0.11368327,0.2649827,0
-1.2443033,-0.19022614,0.3501792,-0.95234984,-0.14559297,0.26801592,0
-0.49235812,0.62319887,-1.0642231,-0.37077472,0.46930552,-0.80142272,0
-0.44350231,0.94888055,-0.66837376,-0.35694513,0.76369005,-0.537929,0
-1.2355022,-0.29602429,-0.031444006,-0.9721781,-0.23293227,-0.024742305,0
0.68658775,-0.056138273,-1.1499393,0.51219147,-0.041878905,-0.85784966,0
-0.92192805,-0.30531535,0.81863576,-0.72583014,-0.24037351,0.64450854,0
-0.70714158,-0.85531175,0.61352903,-0.55764771,-0.67449385,0.48382542,0
-0.81202203,-0.94179952,-0.11520014,-0.65021354,-0.75413078,-0.092244655,0
1.0201492,-0.06367489,0.7206555,0.81570101,-0.0509138,0.57622886,0
0.88435096,0.19389896,-0.84133738,0.71553504,0.15688512,-0.68073243,0
-0.97867715,-0.35795635,0.77160436,-0.75477052,-0.2760613,0.59507287,0
1.1653383,-0.17846769,-0.21380697,0.97260988,-0.14895198,-0.17844671,0
-0.27714294,0.18291779,1.2079834,-0.22122,0.14600796,0.96423197,0
-1.2570337,0.30453426,-0.24427858,-0.95500231,0.23136286,-0.18558501,0
-0.30712062,-1.3033307,0.039963577,-0.22925891,-0.9729082,0.029831948,0
0.58318764,1.1761084,-0.28611428,0.43405586,0.8753559,-0.2129496,0
1.1997632,-0.4444752,-0.24517247,0.92096233,-0.3411881,-0.18819933,0
-1.066775,-0.32020739,-0.22727671,-0.9384445,-0.2816872,-0.19993587,0
0.53176969,-1.0764077,0.41610661,0.41849875,-0.84712476,0.32747278,0
0.22597921,0.20492259,1.2330197,0.17790896,0.16133149,0.97073197,0
0.72665858,-0.7859478,0.67881137,0.57330507,-0.6200819,0.53555548,0
-0.49858436,1.1483531,0.35932499,-0.38280052,0.88167661,0.27588069,0
0.22880769,0.99168026,0.80186564,0.17659356,0.76537788,0.61887914,0
0.66325289,-0.92069256,0.63518137,0.51003844,-0.70800835,0.48845157,0
-0.82168835,-0.49077618,0.89722097,-0.62634242,-0.37410042,0.68391812,0
0.41972667,1.1238004,0.58901542,0.31406629,0.84089923,0.44073895,0
-1.1088868,0.5808295,0.38906085,-0.8459214,0.44308949,0.29679754,0
0.34383878,-0.96364653,-0.61271006,0.28831443,-0.80803335,-0.51376742,0
-0.44211355,0.97206771,0.66690487,-0.3511557,0.77208018,0.5296998,0
-1.0637466,-0.42149529,-0.57281798,-0.83132213,-0.32940024,-0.44765952,0
0.18027303,0.23026045,1.2309196,0.142488,0.18199812,0.97292024,0
0.37874138,-0.29932553,-1.0649269,0.32392246,-0.25600123,-0.91078961,0
-0.23058051,1.3221048,-0.17906621,-0.1703015,0.97647643,-0.13225421,0
0.79497147,0.48442021,-0.83179545,0.63678741,0.3880299,-0.66628414,0
-0.68741518,1.1445111,-0.30934489,-0.50159729,0.83513385,-0.22572467,0
0.53150427,-0.84101105,-0.8816036,0.39983967,-0.63267523,-0.66321218,0
0.15546815,-1.0266675,-0.70934606,0.12362952,-0.81641418,-0.56407768,0
-1.148784,0.21865132,-0.4384329,-0.91984105,0.17507595,-0.3510569,0
-0.33730346,-0.11140101,-1.2926197,-0.25161746,-0.083101548,-0.96425241,0
0.69862819,1.1250306,-0.3462638,0.51038641,0.82189691,-0.25296479,0
-0.30994919,-1.2682884,-0.039107304,-0.23729113,-0.97097713,-0.029939799,0
-0.90134889,-0.68800086,-0.54854548,-0.71556425,-0.54619116,-0.43548012,0
0.66152698,-0.25225541,-0.94939959,0.55857182,-0.21299624,-0.80164206,0
1.1382353,-0.68335658,0.36814013,0.82617956,-0.49600923,0.26721174,0
-1.1387553,-0.29518226,-0.23730949,-0.94889289,-0.24596711,-0.19774334,0
-1.0562301,-0.46870956,0.60966098,-0.80842942,-0.35874626,0.4666293,0
0.56264007,-1.0011777,-0.49945897,0.44926754,-0.79943937,-0.39881748,0
-1.0363744,0.3292644,0.57907718,-0.84121484,0.26726064,0.47003117,0
-1.1062965,0.12068363,-0.40225872,-0.93490154,0.10198651,-0.33993807,0
0.880593,0.85146993,-0.35386503,0.69065255,0.66781121,-0.27753773,0
0.85369462,-0.93433845,-0.017362589,0.67446572,-0.73817873,-0.0137174,0
-0.09647572,-1.2050662,-0.052144412,-0.079728976,-0.99588466,-0.043092918,0
1.0291839,0.45088378,-0.55590254,0.82097477,0.35966772,-0.44344065,0
-0.5930841,-0.6077714,0.95121777,-0.46511751,-0.47663581,0.74597859,0
-0.77880901,-0.74007612,0.58399987,-0.63689095,-0.60521615,0.47758079,0
0.73951566,0.26985908,0.85133672,0.63777864,0.23273389,0.73421621,0
-0.99567622,0.73415542,0.10518017,-0.80196959,0.59132707,0.084717602,0
-1.0048637,-0.39180565,-0.71694034,-0.77590072,-0.30253085,-0.55358207,0
-0.18651843,-1.0554193,0.62339753,-0.1504316,-0.85122114,0.50278515,0
-0.91043395,0.65426296,0.53126901,-0.73383993,0.52735764,0.42822045,0
-0.094530053,-1.1045886,0.58388591,-0.075443804,-0.8815648,0.46599543,0
-1.1348103,0.038291179,0.21505326,-0.98197389,0.033134118,0.18608986,0
-0.38570297,-1.0359187,0.41555613,-0.32661119,-0.87721038,0.35189068,0
-1.0923651,0.41292363,-0.24103607,-0.91609073,0.34629035,-0.20214021,0
-0.43017358,0.25895435,-1.2057668,-0.32934928,0.1982605,-0.92315859,0
-1.0695171,0.67476457,-0.13946454,-0.84064901,0.53037035,-0.10962024,0
0.86517811,-0.6772247,-0.68629146,0.66786474,-0.52277619,-0.52977514,0
-0.76581264,-0.097332112,-0.9851647,-0.61186898,-0.077766411,-0.7871269,0
0.69778466,0.78923905,0.60273248,0.57491952,0.65027076,0.49660403,0
-0.64465988,1.0864254,0.065639809,-0.50961417,0.85883701,0.051889338,0
-0.61285424,0.95475745,-0.42581564,-0.50573677,0.78788054,-0.35138962,0
0.20938717,0.67765534,1.0050924,0.17021263,0.55087185,0.81704825,0
0.88138688,-0.77268714,0.46212852,0.69954622,-0.61327255,0.36678588,0
1.1115906,0.30926302,0.56709981,0.86461806,0.24055113,0.44110188,0
-1.1301038,-0.5775851,0.13020615,-0.88579273,-0.45272005,0.10205758,0
0.26772189,-1.1060039,0.54159224,0.21243477,-0.87760353,0.42974827,0
0.17245252,-1.2821842,-0.21162099,0.13155043,-0.97807729,-0.16142897,0
-1.0764604,0.41573262,0.62034029,-0.82164824,0.31732333,0.47349772,0
-0.36827636,-0.85555738,0.83118635,-0.29500115,-0.68532884,0.66580683,0
0.031722434,0.9874168,-0.69638991,0.026245071,0.81692421,-0.57614756,0
-0.81443965,0.41770479,-0.72449952,-0.69768685,0.35782534,-0.62063998,0
-0.84899068,-0.62901014,-0.57317042,-0.70627606,-0.52327406,-0.47682098,0
0.64734262,-0.9581095,0.055575658,0.55919486,-0.82764506,0.048007999,0
0.53337276,0.38732862,1.0232155,0.43821067,0.31822312,0.84065777,0
-1.129782,-0.35603952,0.43662336,-0.89490348,-0.28201991,0.34585059,0
-0.40881208,-1.1283256,-0.1424685,-0.33827236,-0.93363523,-0.11788584,0
0.97196645,-0.8122316,-0.043097898,0.76689941,-0.64086568,-0.034005035,0
-0.16630395,0.55253816,1.1252209,-0.13151273,0.43694574,0.88982177,0
-0.49593297,-0.5171029,0.92801005,-0.42300266,-0.44105941,0.79153991,0
-1.0649093,-0.12410647,0.42692178,-0.92280513,-0.10754538,0.36995226,0
1.1859275,-0.073570959,-0.36145008,0.95487821,-0.059237435,-0.29103026,0
1.1253257,0.5112263,-0.17882381,0.90107167,0.40934953,-0.14318794,0
-0.90541399,-0.6641897,0.17106973,-0.79711467,-0.58474398,0.15060756,0
0.84710509,0.81849587,-0.1806694,0.71083379,0.68682683,-0.15160564,0
1.0550634,-0.4558551,-0.31168759,0.88597876,-0.38279969,-0.26173648,0
0.34419489,-1.0441951,0.51753116,0.28324702,-0.85929561,0.42589,0
-0.57836771,1.0729848,0.55679023,-0.43159115,0.8006857,0.41548955,0
-0.95579863,-0.87284005,0.22812711,-0.72721797,-0.66409904,0.17357017,0
-0.8925876,-0.18397546,-0.86684936,-0.70965838,-0.14627105,-0.68919504,0
-0.66895795,-0.92470294,0.64423841,-0.51042843,-0.705567,0.4915669,0
1.2408651,0.50710517,0.13577802,0.92097086,0.37637377,0.10077453,0
1.1465055,0.13752976,0.45990747,0.92241287,0.11064859,0.37001532,0
-0.093351595,0.63690209,-0.98722392,-0.079209141,0.54041356,-0.83766282,0
0.68227428,0.86208326,-0.41440639,0.58070242,0.73374277,-0.35271266,0
-0.48624116,-1.0528773,-0.39635387,-0.3967396,-0.85907602,-0.3233977,0
-0.031734794,-1.2964141,0.051319167,-0.024452431,-0.99891859,0.039542664,0
0.048500199,0.3430672,1.1043911,0.041902058,0.29639509,0.95414573,0
-0.71828759,0.21589778,1.0583745,-0.55372524,0.16643479,0.81589699,0
0.93006271,0.41082069,0.68600476,0.75828356,0.33494362,0.55930221,0
0.33814919,-0.20911494,-1.0968367,0.28984073,-0.17924048,-0.94014108,0
-0.03193694,-0.95699108,0.87853098,-0.02457656,-0.73643714,0.67605942,0
0.027060041,-1.1989971,0.37986821,0.021509944,-0.95307916,0.30195609,0
-0.77198452,0.22539124,-0.94556803,-0.62190914,0.18157473,-0.76174772,0
-1.2655591,-0.010086704,-0.20980535,-0.98650479,-0.0078625977,-0.16354352,0
1.1421801,0.12501888,0.34801474,0.95138103,0.10413471,0.28987953,0
-0.79671586,0.86492097,-0.46151653,-0.63067925,0.68467033,-0.36533588,0
-1.2310388,0.31255597,-0.27763361,-0.94688898,0.24041143,-0.21354988,0
0.11434332,-0.53385603,1.204087,0.086487278,-0.40379933,0.91075027,0
0.60457945,0.39425346,1.0634999,0.47038174,0.30674154,0.82743621,0
1.1937541,-0.32557565,-0.063239567,0.96350491,-0.26277921,-0.051042031,0
-0.57855034,-0.79052973,0.81728005,-0.45348895,-0.61964619,0.64061403,0
-1.0053561,-0.59919113,-0.18305287,-0.84868765,-0.50581694,-0.15452705,0
-0.65247697,-0.79975617,0.48061159,-0.57307106,-0.70242649,0.42212155,0
-0.24534273,0.88228142,-0.77234578,-0.20479876,0.73648053,-0.64471221,0
-0.47544307,-1.1083014,0.085822836,-0.39324474,-0.91668957,0.070985109,0
-0.82077873,-0.89544261,0.48948684,-0.62673265,-0.68374473,0.37376383,0
0.093829498,-1.2072783,-0.28750193,0.075390421,-0.9700278,-0.23100297,0
0.10023741,-0.74259228,-1.0128626,0.079558976,-0.58939958,-0.80391455,0
-0.20644608,-1.1777291,-0.51587373,-0.15853328,-0.90439719,-0.39614776,0
-1.0491149,0.34993213,0.5299356,-0.8554799,0.2853452,0.43212542,0
-0.29180527,-0.29457742,1.1173824,-0.24483706,-0.24716301,0.93753147,0
1.1710136,0.067584671,0.21093394,0.98257738,0.056709137,0.17699105,0
-1.12577,0.53965324,-0.41308853,-0.85609865,0.4103826,-0.3141357,0
-0.82264,0.03017688,-0.99000502,-0.6389243,0.023437642,-0.76891255,0
0.760288,-0.04759825,-0.97816229,0.61323422,-0.038391866,-0.78896761,0
1.0875007,-0.23530941,0.53753787,0.88006258,-0.19042471,0.43500385,0
0.78207558,-0.066368051,0.88030887,0.66311157,-0.056272596,0.74640226,0
-0.65514159,0.30410239,-1.0949261,-0.49946067,0.2318387,-0.83473945,0
-0.86464459,0.70521492,0.63575935,-0.67330277,0.54915416,0.49506879,0
0.79804426,0.50028074,-0.84651816,0.63017166,0.39504418,-0.66844881,0
0.56130713,0.91963595,-0.34138605,0.49664631,0.8136968,-0.30205944,0
1.0377797,-0.45542628,0.22873798,0.89760405,-0.39391065,0.19784173,0
-1.3282881,-0.0062785908,0.11933011,-0.99597782,-0.004707817,0.089476176,0
-0.72269529,-1.1524675,0.24461094,-0.52288234,-0.83382982,0.17698017,0
0.78249633,-0.61448455,0.80737627,0.61070156,-0.47957629,0.6301192,0
1.269773,-0.11416768,0.10772678,0.99244553,-0.089232646,0.084198482,0
-0.62071079,0.19564003,1.0492985,-0.5027054,0.15844625,0.84981292,0
-0.54281449,-0.47723007,1.0338798,-0.43030354,-0.37831303,0.81958413,0
-1.0927907,-0.37740555,0.32268351,-0.91042149,-0.31442264,0.2688328,0
-0.83715296,0.82253522,-0.36692172,-0.68081003,0.66892225,-0.29839706,0
-0.47046617,0.091789879,-1.0716244,-0.40075719,0.078189373,-0.9128418,0
0.36869699,1.1052128,0.24800357,0.30951935,0.92782086,0.20819782,0
-0.84209275,0.9085995,-0.35226092,-0.65383482,0.7054733,-0.27350959,0
0.050567996,0.37638533,1.26608,0.03825663,0.28474995,0.95783812,0
-0.49015689,1.1535105,-0.060255587,-0.39063197,0.91929358,-0.048020869,0
0.53616858,0.032785162,-1.0776988,0.44526586,0.027226724,-0.89498436,0
-0.52565783,-1.1085594,-0.44129723,-0.40316549,-0.8502354,-0.33846316,0
-0.026592184,-1.149166,-0.022927646,-0.023129625,-0.99953353,-0.019942245,0
0.69727618,0.21843338,0.94745892,0.58276862,0.18256198,0.79186606,0
0.37892663,-0.38383207,1.0913482,0.31127045,-0.31530002,0.89649129,0
-0.60229951,-0.98540658,0.63901919,-0.45632201,-0.74657661,0.48414207,0
0.19524968,-1.2613043,-0.21115825,0.15092622,-0.97497666,-0.16322339,0
-0.004446384,1.1772656,-0.099399529,-0.0037634564,0.99644744,-0.084132589,0
0.49751624,-0.60287255,-1.0168066,0.38791898,-0.47006649,-0.79281551,0
0.81969965,0.57273871,0.88341671,0.61432832,0.42924213,0.66208142,0
0.16481198,1.1519063,0.28377289,0.13760261,0.96173412,0.23692386,0
-0.21208984,-1.3197718,0.065330282,-0.15847701,-0.98615515,0.048815861,0
0.33873338,-0.77434778,-0.96870518,0.26348454,-0.60232818,-0.75350952,0
1.047251,0.69107372,-0.33103177,0.80703562,0.53255725,-0.25510067,0
0.97705054,0.43135938,-0.7526235,0.74779463,0.33014488,-0.57602733,0
0.19950382,-0.77401716,-0.96909183,0.15881509,-0.61615664,-0.77144587,0
-0.60575426,1.0055293,-0.51369667,-0.47273916,0.78472924,-0.40089613,0
-0.58789951,-0.98004282,-0.27014306,-0.50061893,-0.83454394,-0.23003715,0
0.30749413,-0.43525124,1.1282017,0.24644242,-0.34883386,0.90420187,0
-0.2945489,-0.38300964,1.2082938,-0.22634655,-0.29432434,0.9285152,0
0.058908809,1.2085943,-0.4719815,0.045355588,0.93053156,-0.36339214,0
-1.1603107,-0.3168298,-0.35492048,-0.92524213,-0.2526429,-0.28301677,0
-0.031301703,-1.0430249,0.68345368,-0.025093695,-0.83616376,0.54790562,0
-0.77602953,-0.010181182,-0.95986384,-0.62868577,-0.0082480945,-0.77761573,0
-0.92645472,0.70311207,0.49496084,-0.7329604,0.55626386,0.39158601,0
-0.42998448,0.81750572,-0.91530329,-0.33066121,0.62866789,-0.70387495,0
-0.040177174,-0.26461175,1.2522162,-0.031376172,-0.20664728,0.97791225,0
-0.82552779,-0.87366676,-0.12275563,-0.68324471,-0.72308677,-0.1015982,0
-1.1126189,-0.54448962,-0.38929716,-0.85689008,-0.41934192,-0.29981953,0
0.20285875,-1.1119604,-0.043013975,0.17934148,-0.98305172,-0.038027398,0
-0.59303254,0.94171971,0.4897297,-0.48774025,0.77451843,0.40277871,0
-1.1892942,0.48251903,0.30160305,-0.90206581,0.36598507,0.2287624,0
0.78892344,0.2975651,0.92042381,0.63202417,0.23838605,0.73737204,0
0.93807757,-0.93574047,-0.26265332,0.69447482,-0.69274461,-0.19444673,0
0.66588002,-0.21815205,0.89869523,0.5843212,-0.19143219,0.78862059,0
-0.90528721,-0.64718527,-0.51573336,-0.73808843,-0.52765572,-0.42048183,0
-0.089120716,-1.2308712,0.42857811,-0.068218857,-0.94218981,0.32806188,0
1.1429801,0.054719891,0.66141117,0.86478734,0.041401479,0.50042868,0
-0.99051404,0.80096984,-0.071207635,-0.77636856,0.62780309,-0.055812806,0
0.78335828,-0.5775578,0.66186762,0.66556388,-0.49070987,0.56234193,0
-0.57252556,0.97912836,0.57944286,-0.44950902,0.76874655,0.45494002,0
-0.0060457997,-0.62390506,-1.2004421,-0.0044687502,-0.46115914,-0.88730621,0
-0.31907108,-1.1134697,-0.42752346,-0.25842726,-0.90183961,-0.34626681,0
-0.078150176,1.088009,0.4669686,-0.065862671,0.916942,0.39354739,0
0.08901871,-1.3110766,0.15450282,0.067278028,-0.99087769,0.11676922,0
-0.17487381,1.1206634,0.68651038,-0.13189992,0.84526896,0.51780576,0
-1.1536446,-0.40958038,-0.13432217,-0.9367485,-0.33257541,-0.10906833,0
-1.0121658,-0.069527753,-0.72196555,-0.81284744,-0.055836163,-0.57979417,0
-0.59625095,0.097720139,-0.99082935,-0.51377904,0.084203735,-0.85378033,0
0.15941325,-1.2306755,0.20665137,0.12671497,-0.97824365,0.16426378,0
0.48254085,0.20169294,-1.1119242,0.39269906,0.16414078,-0.90490073,0
-0.927912,0.89657503,-0.21033771,-0.70977694,0.68580669,-0.16089118,0
-0.41314101,-0.58057129,0.96860319,-0.34357622,-0.48281455,0.80550951,0
-0.21006109,0.30273414,-1.3062546,-0.15477185,0.22305284,-0.96244121,0
0.32356882,1.164475,0.08160834,0.26711515,0.96130681,0.067369975,0
-0.24551325,0.82589316,-0.77428597,-0.21194132,0.71295905,-0.66840869,0
0.32484871,-1.2197076,-0.18682386,0.25458828,-0.95590121,-0.14641637,0
1.0842432,-0.38728005,-0.33790824,0.90361404,-0.32276127,-0.28161451,0
0.46475083,0.84792036,-0.76826173,0.37632099,0.68658346,-0.62208176,0
0.43783674,0.87240958,0.76260859,0.35346544,0.70429593,0.61565363,0
-0.35888451,-1.102272,-0.19221301,-0.30542007,-0.93806219,-0.16357829,0
0.069302179,-1.147416,-0.32428825,0.058023851,-0.960684,-0.27151316,0
0.29709858,0.27101666,1.1759913,0.23904644,0.21806085,0.94620627,0
0.13039553,1.1372504,0.57695222,0.10172213,0.88717407,0.45008299,0
-0.22776546,1.105,0.35942611,-0.19235347,0.93319941,0.3035441,0
0.30301055,-0.14386797,-1.2009028,0.24301726,-0.11538343,-0.96313512,0
-0.31530917,1.1214424,0.45166078,-0.25236443,0.89757037,0.36149636,0
0.49603453,0.72718477,0.82237709,0.4117707,0.60365433,0.68267584,0
0.60662818,-0.62110376,0.86497855,0.49498731,-0.50679886,0.70579213,0
-0.57431513,-0.88996065,0.74981976,-0.44255438,-0.68578374,0.57779431,0
-0.56416351,-0.71050638,-0.70191324,-0.49182773,-0.61940688,-0.61191553,0
-0.026209084,1.2103993,-0.2224616,-0.021291722,0.98330349,-0.18072322,0
0.78065717,-0.16733435,-0.91716564,0.64199585,-0.13761219,-0.7542575,0
0.27617493,0.80528241,0.93089378,0.21893042,0.63836646,0.73794156,0
-1.1367412,0.21437825,0.26545817,-0.95778215,0.18062833,0.22366665,0
0.57781476,1.0467876,-0.55636668,0.43814373,0.79375517,-0.42188016,0
1.0514715,-0.0017401137,-0.5767647,0.87675828,-0.0014509753,-0.48092911,0
-0.016424567,-0.72164559,-1.0001371,-0.013316317,-0.5850786,-0.81086725,0
-0.49144077,-0.52078193,0.93100613,-0.41841793,-0.44339931,0.79266858,0
0.79410708,-0.11448369,1.0164251,0.61324531,-0.088409469,0.78492934,0
0.26235697,0.95663363,-0.75686026,0.21026833,0.76670259,-0.60659242,0
-0.27615398,0.75466084,1.005839,-0.21449955,0.58617443,0.78127432,0
-0.011693998,1.1016924,-0.49009278,-0.0096977903,0.91362953,-0.40643215,0
-0.24803989,-1.2471348,-0.055705275,-0.19488022,-0.97985005,-0.043766573,0
0.9770425,0.53549957,0.55209446,0.78574824,0.43065459,0.44400036,0
0.96677947,0.32914266,-0.57740259,0.82405549,0.28055191,-0.49216166,0
-0.49811435,-0.86489296,-0.75625002,-0.39778289,-0.69068402,-0.60392421,0
-0.027608866,0.58687717,-1.0823781,-0.022417879,0.4765332,-0.87887067,0
1.2533014,0.036874123,-0.19047554,0.98822945,0.029075285,-0.15019016,0
0.95472741,0.7158767,-0.075266168,0.79848117,0.59871966,-0.062948458,0
0.95943153,-0.72361928,0.27632505,0.77807653,-0.5868383,0.22409314,0
0.99279439,-0.64565873,-0.095129691,0.83561987,-0.54344112,-0.080069207,0
1.0274864,-0.53452253,-0.67986178,0.76506686,-0.39800569,-0.50622535,0
-0.28736556,-1.0820887,-0.35694799,-0.24454148,-0.92083263,-0.30375454,0
0.12705886,-1.217993,-0.24695073,0.10170779,-0.9749763,-0.19767857,0
0.21355569,-1.2316403,0.23479119,0.16790594,-0.96836442,0.18460213,0
-0.85746306,0.47042906,-0.71022195,-0.70940793,0.3892017,-0.5875904,0
-0.65795225,0.50143415,0.96737564,-0.51691169,0.39394528,0.76000619,0
-1.0041572,-0.54952168,-0.36225131,-0.83635294,-0.45769137,-0.30171567,0
0.52729374,-0.063370578,1.0246854,0.45687231,-0.054907277,0.88783604,0
-0.13232926,-0.1887105,-1.2303661,-0.10571387,-0.15075515,-0.98290259,0
-1.2571751,-0.10166544,-0.33789793,-0.96279436,-0.077859417,-0.25877559,0
-0.67014277,-0.67173886,0.74437857,-0.55567628,-0.55699974,0.61723191,0
1.3159431,-0.16504234,-0.14902824,0.98602134,-0.12366436,-0.11166518,0
1.2033229,0.56233615,0.023405753,0.90581572,0.42330527,0.017618962,0
0.1530402,1.0718027,0.46309844,0.12996407,0.91019118,0.39327022,0
0.33855796,1.0890926,-0.38139829,0.28152534,0.90562683,-0.31714892,0
0.29026982,-0.92304885,0.73313421,0.23910479,-0.7603457,0.60390675,0
0.87492055,0.13263798,0.8821792,0.70020115,0.10615051,0.70601028,0
1.1887137,0.15662703,-0.56374592,0.89720458,0.11821727,-0.42549813,0
0.29472971,-0.49436107,-1.0412034,0.24773651,-0.41553766,-0.87518865,0
0.37883464,1.2039615,-0.32418793,0.29071227,0.92390275,-0.24877717,0
0.8581571,-0.70832449,0.49829859,0.70386666,-0.58097285,0.4087081,0
-0.22989941,0.10929172,1.1166523,-0.20073301,0.095426328,0.97498715,0
-0.45755306,-0.088835754,-1.1461976,-0.36978704,-0.071795627,-0.92633843,0
0.32459983,-1.0921208,-0.6554302,0.2469542,-0.83088094,-0.49864858,0
0.26152045,-1.2345644,-0.40689039,0.19723482,-0.93109012,-0.30687067,0
-0.75053358,-0.30142075,-0.9828943,-0.58963186,-0.23680122,-0.77217835,0
-0.46873629,-0.40298516,1.0251924,-0.39154869,-0.33662489,0.85637218,0
1.079348,-0.49800107,0.45983085,0.84685576,-0.39073133,0.36078301,0
0.48578724,-1.1104304,0.057576496,0.40034935,-0.9151333,0.047450222,0
-1.1602362,0.46749374,0.15720783,-0.92029715,0.37081513,0.12469695,0
-0.63919348,-0.073175952,1.0617537,-0.51486886,-0.058943056,0.85524017,0
-0.6164214,-0.31895816,0.91762596,-0.53576607,-0.27722427,0.79755974,0
-0.31212899,1.1856319,-0.49586919,-0.2360125,0.896501,-0.3749454,0
0.53972417,-1.0536999,0.52697152,0.41649494,-0.81312025,0.40665397,0
0.54235673,1.1237484,0.4492335,0.40895945,0.84735292,0.33874068,0
-0.83346367,0.19097887,-0.95706689,-0.64941925,0.14880715,-0.74572855,0
0.93481958,-0.6592415,-0.30482292,0.78967083,-0.55688155,-0.25749329,0
1.1416037,0.45628756,0.57325763,0.84158278,0.3363722,0.42260176,0
-0.86098653,-0.41479009,-0.83579385,-0.67815244,-0.32670766,-0.65830952,0
-0.1131497,-0.25015548,1.1501812,-0.095687151,-0.21154866,0.97267222,0
-0.84308022,1.0568159,-0.061450142,-0.62298113,0.78091782,-0.045407638,0
-1.0488485,0.40574935,0.65096879,-0.80717051,0.31225568,0.50097114,0
-1.0520289,0.53894389,0.36126685,-0.85114402,0.43603259,0.29228297,0
0.87370634,-0.47900242,-0.78618336,0.68838674,-0.37740245,-0.61942804,0
0.68242151,-0.96643078,0.40545234,0.54566157,-0.77275425,0.3241981,0
-0.69546586,0.55531317,0.91363031,-0.54527217,0.43538702,0.71632153,0
-0.90888149,-0.64439458,-0.4009302,-0.76758188,-0.54421353,-0.33859944,0
0.79713339,0.7943303,0.24742588,0.69182628,0.68939352,0.21473913,0
0.64320683,0.8187741,-0.71627414,0.50895238,0.64787412,-0.56676859,0
1.1362594,0.10787849,0.59340215,0.88327974,0.083860151,0.46128559,0
-0.61259431,0.53303069,0.96013403,-0.48716104,0.42388868,0.76353943,0
-0.12063216,0.70228577,-0.9902997,-0.098877124,0.57563424,-0.81170714,0
0.20891707,-1.2998952,0.20426592,0.15680601,-0.97565687,0.15331502,0
0.17780913,-1.2674503,0.39921454,0.13262624,-0.94537979,0.29777053,0
-0.69305956,0.45159012,-1.0412337,-0.52116627,0.33958629,-0.78298587,0
-0.45220777,-1.1463422,-0.41603425,-0.3476797,-0.88136452,-0.3198677,0
-0.79615235,-0.73432195,-0.72396308,-0.61112273,-0.56366199,-0.55571055,0
1.0620406,-0.12436201,0.5514124,0.88275266,-0.1033679,0.45832598,0
0.51984555,-0.59878182,-0.9898625,0.40987307,-0.47211051,-0.78045869,0
-0.5811305,-1.051766,0.30808365,-0.46846479,-0.84785664,0.24835445,0
0.93288964,0.68764126,0.13895759,0.79922879,0.58911866,0.11904828,0
-0.95221281,-0.26201946,-0.80108446,-0.74879962,-0.20604645,-0.62995553,0
-1.2671582,-0.32507792,0.11341394,-0.96501368,-0.24756549,0.086371221,0
0.89055175,0.74927074,0.44682175,0.71435529,0.60102683,0.35841766,0
1.2297735,-0.041603457,-0.30313528,0.97041416,-0.032829285,-0.23920402,0
-0.76891398,0.21298498,-0.91465116,-0.63350511,0.17547746,-0.75357741,0
-0.21919554,-0.86103749,0.72267008,-0.19138904,-0.75180882,0.63099426,0
-0.94059271,0.63900548,0.33090881,-0.79422486,0.53956836,0.27941531,0
0.044650856,1.0022714,-0.75520498,0.035557482,0.79815376,-0.60140365,0
1.2548361,0.30334899,0.33985353,0.93997592,0.22723347,0.25457838,0
-0.98443365,-0.49239275,0.71344346,-0.75050104,-0.37538466,0.54390669,0
1.2161897,-0.21171276,0.21846099,0.97011077,-0.16887565,0.17425847,0
-1.1565742,-0.065483198,-0.26194206,-0.97381592,-0.055135742,-0.22055078,0
-0.37554705,-0.20711558,-1.1641992,-0.30269399,-0.16693684,-0.93835407,0
-0.51522863,0.89802206,-0.70517117,-0.41130587,0.71688902,-0.56293654,0
1.1404966,0.58053148,-0.12261699,0.88712722,0.45156229,-0.09537676,0
0.98226869,-0.25377399,0.49403566,0.87048405,-0.22489387,0.43781316,0
1.0309324,-0.7015363,-0.16867782,0.81927776,-0.55750799,-0.13404757,0
-0.0080661001,-1.017809,-0.68950021,-0.0065610344,-0.82789451,-0.56084532,0
0.75845325,-0.93858212,0.12071421,0.62540013,-0.77392954,0.099537693,0
0.62061274,-0.9238978,-0.36959949,0.52919275,-0.7878021,-0.31515527,0
0.38443485,-0.18759809,1.1263448,0.31907582,-0.15570393,0.93485123,0
-0.72529799,0.43791577,-1.0460535,-0.53880388,0.32531556,-0.77708435,0
-0.090690807,-0.97797912,0.87762839,-0.068853512,-0.74249309,0.66630566,0
-0.18256061,-0.91070527,0.88736224,-0.14211789,-0.70895636,0.69078457,0
-0.50591964,-0.9251402,-0.73560488,-0.39350587,-0.7195769,-0.57215577,0
-0.20139869,-0.52155352,-1.1768531,-0.1545766,-0.40030035,-0.90325284,0
-0.088796608,-0.87903041,-0.893938,-0.070649393,-0.69938445,-0.71124536,0
-0.46740061,1.147303,0.20660026,-0.37214425,0.91348237,0.16449508,0
-0.61608577,1.0594556,0.32385889,-0.48601288,0.83577502,0.25548324,0
0.23620215,1.1480204,0.47041157,0.18702494,0.9090029,0.37247202,0
-1.0550772,-0.20610596,0.75476247,-0.80324429,-0.15691121,0.57461071,0
-0.35359961,0.72893697,-1.0606729,-0.26492929,0.54614526,-0.79469353,0
-0.83799529,-1.0241566,0.1223143,-0.63057202,-0.77065408,0.092038684,0
0.63347924,-1.1518598,-0.16739441,0.47803319,-0.86921108,-0.1263184,0
0.64393234,0.8400895,0.72942936,0.50092638,0.65352052,0.56743604,0
0.061005261,0.045261085,-1.2208103,0.049874671,0.037003066,-0.99806982,0
0.80963248,-0.88835883,0.22929879,0.66166586,-0.72600436,0.18739265,0
0.90078413,0.71866196,0.60991621,0.69089329,0.55120724,0.46780023,0
-0.69096899,0.15883988,-1.0149858,-0.55809319,0.12829439,-0.81980038,0
-0.30401906,-0.64223742,-1.0490501,-0.23994343,-0.50687826,-0.8279503,0
0.59187001,-0.19524108,-0.98963153,0.50607526,-0.16693982,-0.84617907,0
0.36465296,-1.1387969,-0.16760018,0.30200413,-0.94314712,-0.13880581,0
0.073801897,-1.2639894,-0.039981619,0.058259748,-0.99780238,-0.031561777,0
0.97005588,0.58486146,0.23476265,0.83856875,0.50558585,0.20294154,0
-0.73041111,0.40819621,0.8950175,-0.59614354,0.33315969,0.73049122,0
0.66494441,-0.39905658,-0.96348637,0.53762782,-0.32264942,-0.77900809,0
-0.52656698,-0.22355013,1.0923741,-0.42702797,-0.18129157,0.88587832,0
1.1904566,-0.0091713937,-0.57713604,0.89980888,-0.0069322148,-0.43622935,0
-0.44332445,-0.73666328,-0.93962997,-0.34808159,-0.57840014,-0.73776191,0
0.97880906,-0.39973962,0.68847376,0.77579361,-0.31682938,0.54567695,0
-0.14245732,-1.1543037,0.018611139,-0.12246914,-0.99234337,0.015999811,0
0.85947537,-0.59967798,0.64269817,0.69911349,-0.48778936,0.5227828,0
0.64402324,-0.23787716,0.9384163,0.55388159,-0.20458233,0.80706948,0
-0.68389928,-0.76047134,0.73259103,-0.54361254,-0.60447758,0.58231628,0
-0.51174963,-0.95031047,0.4560883,-0.43674019,-0.81101924,0.3892374,0
0.96075785,-0.093918823,-0.66649753,0.81901091,-0.08006236,-0.56816477,0
0.61817801,0.75606781,-0.70370579,0.51354873,0.6281001,-0.58460057,0
0.71347547,-0.79151195,0.54341948,0.59646237,-0.66170049,0.45429629,0
0.70524865,0.78182429,0.55902928,0.5915944,0.65582949,0.46893898,0
0.580989,-0.93018204,-0.67618424,0.45093331,-0.7219587,-0.5248189,0
0.86334515,0.63916194,-0.56454635,0.71144485,0.52670532,-0.46521789,0
-0.5314787,-0.27418178,1.1216059,-0.4181315,-0.21570769,0.88240367,0
0.63075358,-0.76269281,0.60828602,0.54295433,-0.65652794,0.52361417,0
-0.93597811,-0.47808567,0.63399988,-0.76255304,-0.38950235,0.51652759,0
-0.66796333,-0.30727586,-0.92523307,-0.56520879,-0.26000682,-0.782902,0
-0.349821,-0.89561594,0.8043853,-0.27905089,-0.71442938,0.64165509,0
-0.087488264,1.0846124,-0.61271101,-0.070058957,0.86853719,-0.49064744,0
-0.56276625,-0.37628743,-0.93741184,-0.48669404,-0.32542259,-0.81069672,0
-0.67142838,-0.96732569,0.094990663,-0.56836289,-0.81883943,0.080409423,0
-0.95852178,-0.36654371,-0.78627402,-0.74142784,-0.28352585,-0.60819221,0
-0.48407146,0.95522624,0.85518324,-0.35322198,0.6970188,0.62401843,0
0.97415566,-0.2623485,0.59518474,0.83165514,-0.22397189,0.50812048,0
-0.56728017,-0.12964234,-1.186407,-0.42929286,-0.098107658,-0.89782095,0
-0.25244397,-1.1309094,-0.59252453,-0.19397147,-0.86896181,-0.45528066,0
1.1868415,0.53265285,0.13243902,0.90763968,0.40734747,0.10128304,0
0.057536107,-0.70144689,0.88086247,0.051029794,-0.62212569,0.78125256,0
-0.91306686,-0.28808999,0.8838594,-0.70072442,-0.2210919,0.67830944,0
-0.78564459,-0.82153618,-0.29054204,-0.66961682,-0.70020777,-0.2476334,0
0.21880291,1.0867003,-0.59733719,0.17376237,0.86300319,-0.47437543,0
0.26929227,0.025439285,-1.2119129,0.21686827,0.020486936,-0.97598588,0
-0.13437678,-0.60570747,1.113403,-0.10542663,-0.4752138,0.87353134,0
0.4961144,0.62815589,0.95395529,0.39839357,0.50442654,0.76605242,0
0.4694849,1.1676329,0.26333433,0.36514759,0.90814072,0.20481147,0
0.57203192,-0.13152373,-1.0956481,0.46021536,-0.10581445,-0.88147891,0
-0.85975522,0.50580627,-0.65040088,-0.72198892,0.42475638,-0.54618132,0
-0.21893503,-0.94594204,0.82190788,-0.17210345,-0.74359912,0.64609659,0
0.018427784,0.50524884,-1.250834,0.013658825,0.37449461,-0.92712849,0
1.3335421,-0.054208625,-0.0085072313,0.99915451,-0.040615734,-0.0063740308,0
-0.52743524,-0.80239069,-0.85783482,-0.40962839,-0.62317038,-0.66623062,0
0.86701643,-0.0026376515,-0.70129502,0.77749497,-0.0023653079,-0.62888467,0
0.97778594,-0.65187061,-0.36119896,0.79532516,-0.5302276,-0.29379705,0
0.94682252,-0.80830061,0.29920289,0.73949182,-0.63130277,0.23368487,0
-0.73084962,1.0135938,-0.30250275,-0.56844544,0.78836024,-0.23528276,0
-0.330488,0.86383086,-0.88492721,-0.25818411,0.67484266,-0.69132358,0
-0.79065162,-0.95429575,0.15379022,-0.63313711,-0.76417989,0.12315196,0
0.30366099,1.218537,-0.12138544,0.24068438,0.96582317,-0.096211173,0
-0.70301121,0.70361173,0.64180732,-0.59389615,0.59440345,0.5421918,0
0.19139645,0.49102584,-1.1291506,0.15359861,0.39405581,-0.90616083,0
-1.2557833,-0.13311347,0.43805048,-0.93950945,-0.099588335,0.32772577,0
0.92092061,-0.65758938,0.44983491,0.7562592,-0.54001182,0.36940402,0
-0.4082191,-1.1778877,0.19232169,-0.32363197,-0.93381745,0.15247069,0
0.5750252,0.54943591,-1.1080365,0.42159736,0.40283579,-0.81239092,0
0.56433874,0.80030805,-0.83284122,0.43899196,0.62254947,-0.64785665,0
-0.69301361,-0.91053504,-0.11232967,-0.60274363,-0.79193133,-0.097697929,0
0.82851428,0.43860391,-0.81200862,0.66803342,0.35364759,-0.6547249,0
-1.1834745,0.03388394,0.38135391,-0.95145214,0.027240932,0.30658877,0
-0.90741199,0.5365293,0.43531826,-0.79561979,0.47042945,0.38168749,0
0.18718237,1.234284,0.37183967,0.14369936,0.94755632,0.28546023,0
-0.90218347,-0.38338172,-0.74559063,-0.73253363,-0.31128925,-0.60538709,0
0.35035831,-0.41968676,-1.0251142,0.30156869,-0.36124271,-0.88236052,0
-0.643291,-0.91236752,-0.30729443,-0.55558038,-0.78796917,-0.26539585,0
-0.53667146,1.0818725,-0.097127095,-0.442956,0.89295208,-0.080166414,0
-1.273381,-0.19414291,-0.2352062,-0.97249645,-0.14826928,-0.17962982,0
1.0830028,0.49666363,0.24180464,0.89081311,0.40852568,0.19889398,0
-0.21488431,-0.26096353,-1.1509585,-0.17913353,-0.21754645,-0.95947099,0
-0.023223381,-0.35368761,1.083275,-0.020375159,-0.31030974,0.9504171,0
-0.87647593,0.46455556,0.68420559,-0.72733229,0.38550547,0.56777924,0
0.65776241,0.31287023,-0.96049273,0.54566169,0.2595486,-0.79679853,0
-0.53044534,0.6074062,0.96325064,-0.42224476,0.4835071,0.76676613,0
-0.53943717,-0.73826194,0.86889702,-0.42766637,-0.58529484,0.68886244,0
-1.2359518,0.16765758,-0.45051163,-0.93199217,0.12642528,-0.33971658,0
-0.94517356,-0.71076876,0.53272355,-0.72871,-0.54798853,0.41071925,0
0.96749681,-0.60040706,-0.79689139,0.69613552,-0.43200627,-0.57338113,0
-0.45861253,0.10465321,-1.1850497,-0.35969663,0.082081065,-0.929452,0
-1.0273383,0.38723746,0.41789776,-0.87452352,0.32963657,0.35573623,0
0.015937274,1.1318952,-0.42216742,0.013191291,0.93687028,-0.34942821,0
0.60417354,0.13693124,1.0747114,0.48704982,0.11038606,0.86637026,0
0.73911959,0.95433897,0.10102632,0.61018306,0.78785825,0.083402671,0
0.91512489,0.44325638,-0.80280846,0.70636404,0.34213951,-0.61966956,0
0.4145962,1.1150901,0.64280069,0.30660328,0.82463443,0.47536567,0
-0.79270995,0.9830668,-0.1007316,-0.62572384,0.77598161,-0.079512261,0
-0.072238907,-1.1640307,-0.13377398,-0.061536636,-0.99157828,-0.11395522,0
-0.8553201,-0.89087898,-0.050828557,-0.69197816,-0.72074628,-0.04112174,0
0.18892197,-1.0102518,0.6819343,0.15316872,-0.81906289,0.5528791,0
-0.25026122,-1.2874862,-0.31330103,-0.18558709,-0.95476568,-0.23233575,0
0.40766206,1.0894979,0.28754967,0.34020555,0.90921688,0.23996836,0
0.97199041,0.74715048,0.62920064,0.70536155,0.54219794,0.4566032,0
0.47430104,-0.90779853,0.6260463,0.39511457,-0.75623792,0.52152532,0
0.81453806,0.72691661,0.50830841,0.676377,0.60361785,0.4220897,0
0.06408529,0.33438098,1.2551868,0.049275804,0.25710881,0.96512538,0
-1.1372147,0.42099097,0.18677431,-0.92687267,0.34312347,0.15222809,0
0.85317457,0.57112205,0.64195389,0.70459974,0.47166482,0.53016174,0
-1.0142293,-0.59225017,0.14749047,-0.85682082,-0.50033289,0.12459994,0
-0.52881742,-0.32232025,-0.96276933,-0.46194831,-0.28156278,-0.8410269,0
0.74334902,-0.90452969,0.27729321,0.61782223,-0.75178486,0.23046765,0
0.45134526,-0.4519619,1.0744374,0.36108804,-0.36158136,0.85957801,0
-0.60928935,0.67724347,-0.91665071,-0.4714624,0.52404469,-0.70929575,0
0.11588686,-1.3087285,0.16693738,0.087500587,-0.98815787,0.12604637,0
-0.66304773,-1.079977,0.10406448,-0.52145284,-0.84934622,0.081841342,0
0.95675969,0.66813207,-0.24037005,0.80301726,0.56076944,-0.20174481,0
0.75058579,-0.25455999,-0.81785661,0.65905064,-0.22351599,-0.71811765,0
-0.19380483,0.85488874,0.83513594,-0.1600738,0.70609844,0.68978357,0
-0.53826088,0.17040288,1.1173041,-0.42997208,0.13612077,0.8925218,0
-0.15311919,-0.053010758,1.1490375,-0.13195309,-0.045682929,0.99020278,0
0.44072124,-0.13860831,1.1311058,0.36070836,-0.11344399,0.92575365,0
1.1654298,0.24042366,-0.080994338,0.97711623,0.20157529,-0.067907035,0
0.25627422,-0.18283023,-1.1606869,0.21309642,-0.15202647,-0.96513104,0
1.1824703,0.23459287,-0.53362548,0.89693731,0.17794536,-0.40477008,0
1.1366858,0.22656554,0.34752345,0.93939078,0.18724047,0.28720364,0
0.67292541,-1.1035812,0.20735946,0.51404041,-0.8430137,0.15839964,0
0.14855343,0.2913982,-1.1300905,0.12627031,0.24768826,-0.96057606,0
1.0873082,-0.47697607,-0.57395631,0.82448262,-0.36168078,-0.43521884,0
0.57594025,-0.27815846,-0.97409695,0.49423841,-0.23869939,-0.8359133,0
-0.37708816,0.73003471,0.94095474,-0.30185971,0.58439404,0.75323588,0
0.87753457,0.49333316,-0.79283988,0.68481368,0.38498914,-0.61871934,0
0.67357737,-0.59532106,0.82389832,0.55238694,-0.48821056,0.67566204,0
1.0863193,-0.59009475,0.40053925,0.83594364,-0.45408928,0.30822268,0
0.5609358,0.7442565,-0.85749513,0.44292408,0.58767712,-0.67709219,0
1.2057909,-0.16341814,-0.0037383351,0.99093604,-0.13429934,-0.0030722166,0
1.0930378,0.72732896,-0.27565747,0.81476426,0.54216021,-0.20547858,0
0.50435179,-0.22578007,1.0367384,0.4293057,-0.19218466,0.88247472,0
0.92701703,-0.0092875184,0.88310963,0.72402674,-0.0072538168,0.6897338,0
0.12396463,1.1334645,0.6133734,0.095745258,0.87544203,0.47374478,0
0.38707405,1.0630617,0.51879239,0.31099847,0.85412741,0.41682887,0
-0.82713187,-0.41926655,-0.90502328,-0.63833636,-0.3235676,-0.69844878,0
-0.13005294,1.3231177,0.077696986,-0.09765476,0.99350882,0.058341477,0
0.83036679,0.31328055,0.93880248,0.64274883,0.2424961,0.72668391,0
0.67912942,0.58966154,-0.88316506,0.53877139,0.46779415,-0.70063829,0
-0.062845945,-0.97917843,0.81110948,-0.049366709,-0.76916367,0.63714224,0
0.17918898,0.73508739,0.95323861,0.14723644,0.60400844,0.78325945,0
-0.61349219,0.093980052,1.1361711,-0.47387129,0.072591715,0.87759691,0
-1.0555779,0.43175197,-0.27934861,-0.89899433,0.36770624,-0.23791027,0
0.19907773,-1.0184988,-0.61618435,0.16494697,-0.84388292,-0.51054305,0
-0.76562476,0.81926447,-0.73364097,-0.57136106,0.61139059,-0.54749256,0
-0.94368923,0.48224771,0.7383126,-0.73063868,0.37337378,0.57162857,0
0.60341358,-0.40032476,-1.0470495,0.47398695,-0.31445882,-0.82246709,0
-1.1561935,-0.39214617,0.2003828,-0.93450862,-0.31695732,0.16196205,0
-0.62392569,-0.97800428,-0.0088862628,-0.53781611,-0.84302735,-0.0076598465,0
0.64099771,0.77668017,-0.65573961,0.53340507,0.64631301,-0.54567254,0
0.73172557,-1.0344186,0.19414654,0.57083601,-0.80697381,0.1514582,0
0.63424051,-0.5085786,-0.88560456,0.52758044,-0.42305106,-0.73667264,0
-0.31187913,0.12964554,1.2898313,-0.23391174,0.097235151,0.96738338,0
-0.25131869,-1.2641238,-0.027480135,-0.19494812,-0.98058188,-0.021316363,0
-0.85167313,-0.30763656,0.93125415,-0.65567231,-0.23683827,0.71693891,0
-0.49484694,0.2327899,1.1491557,-0.38883367,0.18291828,0.90296698,0
0.58724296,0.3044869,-0.96970528,0.50027615,0.25939438,-0.82609826,0
0.33018616,0.032464728,-1.1439177,0.27722034,0.027256997,-0.9604196,0
-0.75641298,-0.7328462,-0.57937133,-0.62927544,-0.6096698,-0.4819909,0
0.077450916,1.209295,-0.052248962,0.06385605,0.99702895,-0.043077767,0
-0.69300401,0.2923654,1.0832525,-0.52549058,0.22169463,0.82140797,0
0.24520971,-1.1782874,0.043466017,0.20360902,-0.97838682,0.036091857,0
0.78903818,0.89565307,0.0072714202,0.6610232,0.7503407,0.006091692,0
-1.0927573,0.28917357,-0.15545309,-0.95770991,0.25343633,-0.13624156,0
0.52245384,-0.57796079,1.0539836,0.39861327,-0.44096306,0.80415112,0
-0.70873898,0.28464401,-1.0540618,-0.54447883,0.21867378,-0.8097682,0
-0.69163162,-0.80474883,-0.57673699,-0.5726729,-0.66633427,-0.47753984,0
-0.36262503,-0.36696556,-1.1833127,-0.28091151,-0.28427392,-0.91666627,0
1.0620188,-0.069880046,-0.86135817,0.77564985,-0.051037185,-0.62909657,0
0.043101098,0.99364865,0.62430012,0.036704112,0.84617311,0.53164262,0
0.61178976,0.36359069,1.0605341,0.47901186,0.28467989,0.83036435,0
1.1662757,-0.22969103,-0.00017860461,0.98115301,-0.19323222,-0.00015025474,0
-1.0041535,0.45863432,-0.51280653,-0.82495213,0.37678638,-0.42129102,0
0.65270501,-0.63374889,0.77444035,0.54631251,-0.53044629,0.64820468,0
0.8840664,0.92390031,-0.15952149,0.68604213,0.71695352,-0.12378987,0
0.29487965,-1.2681681,-0.014635485,0.22646773,-0.97395378,-0.01124006,0
-0.33371615,0.48351419,1.130801,-0.2618801,0.37943247,0.8873837,0
0.88444138,0.87503755,-0.044812519,0.71041524,0.70286173,-0.035995033,0
1.2310677,0.090996429,0.51098353,0.92145365,0.068110794,0.38247097,0
0.021227688,-0.33848217,1.2166061,0.016807446,-0.26800004,0.96327227,0
0.36218622,-0.8679055,0.80341035,0.29281911,-0.70168132,0.64953852,0
-0.91713542,0.53239602,-0.52621788,-0.77470922,0.44971779,-0.44449908,0
0.22432752,-0.53526914,-1.0443342,0.18775827,-0.44801104,-0.87408972,0
-0.47136977,0.99988228,-0.50955635,-0.38725406,0.82145375,-0.41862628,0
0.908122,0.6814099,0.30631891,0.77225155,0.57945943,0.26048842,0
0.34851199,0.35130465,-1.1118731,0.28636506,0.28865975,-0.91360307,0
0.93740904,0.78479677,0.033733953,0.76647031,0.64168727,0.027582487,0
0.12639362,-1.1036904,-0.68151474,0.096980274,-0.84684813,-0.52291793,0
-0.83027172,-0.76382959,0.52891636,-0.6663447,-0.61302078,0.42448828,0
-0.78897518,-0.75366116,-0.67642391,-0.61458218,-0.58707386,-0.52690893,0
-0.41540015,-1.1234471,-0.59971577,-0.3101081,-0.83868539,-0.447705,0
-1.1159773,-0.64080065,0.17185669,-0.85957253,-0.49357155,0.13237123,0
-0.039670058,0.71868789,1.0547819,-0.031065784,0.56280744,0.82600403,0
0.94893718,0.11783347,0.69123971,0.80424798,0.0998668,0.58584291,0
-1.2021288,-0.51277721,0.42712611,-0.87430656,-0.37294215,0.3106482,0
0.95928425,0.84376216,-0.18922471,0.7427687,0.65332055,-0.14651568,0
-0.12343588,1.163651,-0.10042021,-0.10509829,0.9907794,-0.08550182,0
-0.72505242,0.78101468,-0.67658514,-0.5743807,0.61871356,-0.53598529,0
-0.70538563,-0.071713477,0.9100818,-0.61142612,-0.062161025,0.78885615,0
0.15494698,-1.2736955,0.091896556,0.12045267,-0.99014527,0.071438536,0
0.26895583,0.19547315,1.2782571,0.20363243,0.14799707,0.96779686,0
-0.79062176,0.94573927,-0.15533866,-0.63635051,0.76120049,-0.12502797,0
-0.24109097,0.13636144,1.269933,-0.18548483,0.10491051,0.97703075,0
-0.37340468,-0.76291198,0.92696339,-0.2969965,-0.60680062,0.73728287,0
-0.26266468,0.93847454,-0.59091765,-0.23046874,0.82344168,-0.51848632,0
-1.0447071,-0.48371574,0.44651216,-0.84604371,-0.3917315,0.3616026,0
-0.51962137,1.0401862,0.58420002,-0.39932105,0.79936713,0.44894877,0
0.63413197,-0.93816113,0.61586088,0.49195161,-0.7278136,0.47777712,0
0.16890866,-1.2649113,0.095653616,0.13198888,-0.98842901,0.074745804,0
-0.27190074,0.49584827,1.1318223,-0.21490152,0.39190239,0.89455569,0
-0.45609918,-0.31483623,-1.0736896,-0.37747583,-0.26056409,-0.8886047,0
0.21278557,0.73384947,-0.89176565,0.18119691,0.62490731,-0.75938034,0
-1.1986604,-0.19250801,0.41264319,-0.93482286,-0.15013501,0.32181618,0
