0.98311311,-0.90334636,0.5719738,0.67685109,-0.62193346,0.39379099,0
-1.4466581,0.03176656,-0.80159974,-0.87453431,0.019203532,-0.48458335,0
-1.1460719,1.0625687,-0.014391704,-0.73328573,0.67985827,-0.0092081754,0
0.11094777,-1.2395759,-0.9345898,0.071285821,-0.79644853,-0.60048985,0
0.82675517,0.22432558,1.288606,0.53429729,0.14497223,0.8327722,0
-0.79031879,1.2661179,0.50123799,-0.50196451,0.80416441,0.3183572,0
1.1625135,-0.23213466,-0.98812109,0.75327545,-0.15041661,-0.64027417,0
0.99644095,0.81447947,0.90431279,0.6335007,0.51781625,0.57492894,0
0.055367507,-1.4070705,0.77440089,0.034452882,-0.87556112,0.48187727,0
-0.68615776,0.97296357,-0.94014657,-0.45230669,0.64136553,-0.61973298,0
-1.1079539,-1.0773646,-0.21215945,-0.71027243,-0.69066262,-0.13600838,0
-0.77676415,1.1488305,0.69452739,-0.50082111,0.74071211,0.44779873,0
-0.33268124,-0.89309496,-1.2721708,-0.20929086,-0.561849,-0.80032682,0
-1.2395675,0.52228916,-0.58450902,-0.8451885,0.35611838,-0.39854246,0
0.35323769,-1.4207776,0.40920612,0.23237132,-0.93463397,0.26918918,0
1.4938337,-0.26487124,-0.48176387,0.93846208,-0.16639847,-0.30265561,0
0.92339414,-0.82553339,0.76951855,0.63324636,-0.56613529,0.52772135,0
1.0841616,-0.94853812,-0.29999021,0.73680496,-0.64463413,-0.20387575,0
0.5911116,1.2308387,-0.69152099,0.38620907,0.80418158,-0.45181262,0
1.5787938,-0.24606849,-0.31125385,0.9698419,-0.15115815,-0.19120105,0
0.70248812,-0.89423585,1.1074702,0.44255778,-0.56335616,0.69769084,0
-0.34279704,-1.5108086,0.41216466,-0.21383375,-0.94242895,0.25710464,0
0.3719742,-1.0901638,1.004079,0.24342752,-0.71342552,0.65708983,0
1.0470067,-0.83216888,1.0011525,0.62671036,-0.49811414,0.59926325,0
1.4086217,-0.07848455,-0.65717107,0.90507591,-0.050428357,-0.42224944,0
0.40701622,-0.87521166,1.183405,0.26652479,-0.57311136,0.7749244,0
-0.12842599,0.43956193,1.5468889,-0.079607032,0.27246994,0.9588654,0
0.071153089,0.54657894,-1.3354869,0.049249012,0.37831771,-0.92436481,0
-0.97618181,-1.0107799,0.77774984,-0.60780299,-0.62934482,0.48425269,0
-1.3948476,-0.47429821,-0.40270126,-0.91326082,-0.31054142,-0.26366413,0
-0.80452871,1.1542602,-0.81635022,-0.49459049,0.70959067,-0.50185782,0
0.58923852,-1.4068778,0.26027006,0.38080847,-0.909226,0.16820531,0
-1.1314688,0.58964092,-0.7377888,-0.76769662,0.40006879,-0.50058651,0
0.22823697,-1.4482566,0.34258756,0.15158956,-0.96189749,0.2275385,0
-0.20006111,1.5064138,0.060638454,-0.1315456,0.99050796,0.039871428,0
0.88999981,1.1922196,-0.44110885,0.57352966,0.76828474,-0.28425735,0
-0.087434001,0.15560184,-1.4891121,-0.058298253,0.10375044,-0.99289334,0
-1.1689248,-0.91871363,-0.12624712,-0.78340989,-0.61571914,-0.084610447,0
1.1973261,0.6438691,0.84911245,0.74699515,0.40170103,0.52974951,0
1.0359164,1.2166312,-0.47104344,0.62183887,0.73031813,-0.28275749,0
0.35980675,0.6604054,1.4463153,0.22071856,0.40511671,0.88722247,0
1.2702546,0.38831726,-0.91623217,0.78720063,0.24064749,-0.56780624,0
1.50299,0.097247005,0.27615303,0.98155081,0.06350866,0.180346,0
-0.65441823,-0.54703754,1.3426347,-0.41141447,-0.34390724,0.84407693,0
-0.97266233,-1.0581136,0.59469646,-0.62533623,-0.68027389,0.38233748,0
0.12961829,-1.4117084,-0.521981,0.085800692,-0.93447888,-0.34552479,0
-0.10631222,1.4686469,-0.39687604,-0.06971126,0.96302402,-0.26024035,0
0.5300613,-1.4082493,-0.40898475,0.33993661,-0.90313226,-0.2622883,0
-0.36426428,-1.1546311,0.76625252,-0.25422698,-0.80583906,0.53478223,0
-1.2724657,-0.7656427,0.64788353,-0.78536332,-0.47255316,0.39987242,0
0.15390821,-0.96586138,-1.1599255,0.10143991,-0.63659304,-0.76449943,0
-1.3735577,-0.60251814,0.70417964,-0.82895625,-0.36362591,0.42497969,0
-1.4684955,0.54829502,-0.45528933,-0.89964944,0.33590388,-0.27892548,0
0.43613797,-0.99007046,-1.1391411,0.27761483,-0.63020939,-0.7250973,0
-0.95080948,-0.43079755,-1.0974987,-0.627747,-0.28442276,-0.72459465,0
-1.5036048,0.050210584,-0.028212663,-0.99926716,0.033369001,-0.0187496,0
-1.012591,-1.0097792,-0.28586498,-0.69435185,-0.69242376,-0.19602275,0
1.5241526,-0.030970337,0.068619519,0.99878228,-0.020294964,0.044966601,0
-0.91696894,-1.0449529,0.42728257,-0.63047183,-0.71846855,0.29378271,0
0.58326066,-1.3902049,0.29791653,0.37954035,-0.90463644,0.19386074,0
0.25151169,1.0147041,-1.2499892,0.15434653,0.6226989,-0.76708752,0
-0.35507214,0.20667787,1.5257522,-0.22471517,0.13080062,0.96560568,0
0.76356494,0.96486336,-1.124665,0.45804942,0.57880485,-0.67466712,0
-0.34832349,-1.2075933,-1.0344639,-0.21398446,-0.74185693,-0.63549888,0
0.634848,-0.95560271,0.99592471,0.4178735,-0.62900263,0.65554363,0
-0.4348003,1.4840045,0.18502285,-0.27918002,0.95286137,0.11880094,0
0.34882501,1.4374902,0.17798682,0.23412992,0.96483755,0.11946402,0
0.79252881,-0.03328244,1.2890289,0.52362573,-0.021989789,0.85166454,0
1.4393915,0.62771326,-0.10709994,0.91450471,0.39881209,-0.068044998,0
-0.071765102,-1.0771273,-1.035089,-0.04798476,-0.72020656,-0.6920982,0
0.26158762,-0.83703709,-1.332551,0.16398136,-0.52471322,-0.83533591,0
0.4472588,1.1751738,0.91658789,0.28743717,0.75524193,0.5890581,0
-0.32747114,1.0599413,-0.99476707,-0.21977066,0.71134204,-0.66760266,0
0.37497744,0.006267481,1.4218339,0.25500652,0.0042622522,0.96692991,0
1.2933106,0.38403475,0.85807723,0.80888313,0.24018918,0.53667241,0
-0.33869255,1.2675279,-0.5950796,-0.23509778,0.87983334,-0.41306457,0
-0.079461247,1.348208,0.9627831,-0.047908831,0.81286252,0.58048189,0
-1.0322589,-0.092399076,-1.1792065,-0.65752655,-0.058856212,-0.75112903,0
0.027658129,1.0967425,1.0067179,0.018575098,0.73656827,0.67610812,0
-0.96444976,-1.2124354,0.57436317,-0.5837056,-0.73379177,0.34761685,0
-1.4183419,0.57147729,-0.31244466,-0.90876389,0.36615849,-0.2001904,0
0.62797862,0.01342597,1.4639926,0.39419869,0.0084278341,0.91898662,0
0.91574019,1.2278785,-0.45237595,0.57335651,0.76879019,-0.28323829,0
-0.49065742,0.77979618,1.2595911,-0.31440794,0.49968493,0.8071323,0
-0.97331333,-1.0276742,-0.32101533,-0.67061234,-0.70806694,-0.22117938,0
-0.74219739,0.070026912,-1.2941012,-0.496961,0.046888664,-0.86650515,0
0.67027164,0.83984643,1.062744,0.44350636,0.55571085,0.70319808,0
-0.77799135,1.1692452,-0.42367995,-0.53035021,0.79706472,-0.2888191,0
-0.37003958,1.4266601,-0.62309879,-0.23125035,0.89156848,-0.38939565,0
-0.39085245,1.4288402,-0.70445013,-0.23828039,0.87108213,-0.42946294,0
0.86983567,1.1232127,0.057872511,0.61177653,0.78998274,0.04070314,0
-0.76730686,-0.75664079,-1.0734226,-0.50446874,-0.49745628,-0.70572561,0
-0.98195249,-0.40864369,1.2546326,-0.597009,-0.24844784,0.76279348,0
-0.93307769,1.048808,-0.76856118,-0.58302343,0.65533626,-0.48022708,0
0.76473999,-0.89604515,0.88816166,0.51835698,-0.6073584,0.60201478,0
0.11005312,-0.13303052,1.5430421,0.070879869,-0.085678495,0.99379843,0
0.62427217,0.34780636,1.3158607,0.41690707,0.23227519,0.87877005,0
-0.15528624,1.1692623,1.0534703,-0.098190278,0.73934555,0.66612822,0
0.19216955,-0.43024415,-1.5264938,0.12028883,-0.26931199,-0.95551121,0
-0.64504439,0.50194329,-1.4065242,-0.39652157,0.3085545,-0.8646183,0
-0.15851739,-1.3754442,-0.64407343,-0.10380799,-0.9007346,-0.42178321,0
1.1034921,-0.8297891,-0.71168673,0.71041763,-0.53421026,-0.45817706,0
-1.5730228,0.097062595,0.14778218,-0.99374241,0.061318383,0.093359999,0
0.047893014,1.3460492,0.6935674,0.031612873,0.88849044,0.45780495,0
0.45655239,0.37865442,-1.4236951,0.29601812,0.24551086,-0.92309135,0
-1.5775384,-0.010005561,-0.33016679,-0.97877365,-0.0062078866,-0.20484988,0
0.91179001,0.096503042,-1.1665974,0.61450201,0.065038346,-0.78622979,0
-1.149181,0.90002871,0.59825462,-0.72847199,0.57053304,0.37923682,0
-0.83893555,0.30005434,1.2396318,-0.54954219,0.19654968,0.81201702,0
0.58243316,0.35481808,-1.2935426,0.39829418,0.24264067,-0.88458306,0
-1.146386,0.051702525,-1.0223478,-0.74590683,0.033640735,-0.66520017,0
0.8109327,0.63049316,1.1788135,0.5186435,0.40324083,0.75392687,0
1.2780439,-0.81566143,0.42380938,0.81183463,-0.51812166,0.26921076,0
-0.82648665,0.44841158,1.2288356,-0.53414178,0.28979942,0.79417181,0
0.89695704,0.010802452,-1.3828568,0.54416609,0.0065536336,-0.83895189,0
0.13166262,0.78976893,1.2581205,0.088287912,0.52958876,0.84364742,0
0.90968317,-1.2486758,-0.0042086495,0.58882779,-0.80825394,-0.0027242119,0
0.46178049,1.1580347,0.8287735,0.30846083,0.77354574,0.55360538,0
-1.5817431,-0.37140888,0.07778693,-0.97240835,-0.22833107,0.047821078,0
-0.70128185,1.320883,-0.33941993,-0.45729715,0.86133134,-0.22133151,0
-1.1106219,0.34649554,-0.96997774,-0.73321605,0.22875118,-0.64036483,0
1.167801,-0.89933568,0.52566761,0.74624968,-0.57469463,0.33591279,0
-1.5333699,0.012258648,0.15620308,-0.99481988,0.007953167,0.10134145,0
0.40409625,-1.170352,1.1354584,0.24053845,-0.69665247,0.67588204,0
1.122032,1.1120324,-0.26513433,0.70046765,0.69422507,-0.16551936,0
-0.16300528,-0.87771106,-1.220649,-0.10778917,-0.58039683,-0.8071686,0
0.58043516,0.10133248,-1.3471988,0.39474264,0.068914242,-0.91620368,0
-0.2674306,-0.98648357,-1.2867446,-0.16274162,-0.60031247,-0.78303266,0
-0.67977917,-0.095290765,-1.5105411,-0.40970522,-0.05743207,-0.91040826,0
-0.39846027,1.1196148,1.0504349,-0.25121972,0.70589054,0.6622743,0
-0.97121638,-1.2235122,0.27193725,-0.61251491,-0.77162975,0.17150207,0
-0.19760242,-0.8739599,-1.3152722,-0.12416305,-0.54915082,-0.82644844,0
1.1376255,-0.96208662,-0.33061573,0.74542576,-0.63040441,-0.21663499,0
-1.324131,0.32738861,0.61284614,-0.88549608,0.21893705,0.40983319,0
0.33878005,-1.1803192,0.95388293,0.2178743,-0.75908023,0.61345577,0
1.5188087,-0.1818112,0.11087745,0.99031311,-0.11854687,0.07229574,0
0.043844976,1.0338178,1.1067936,0.028937623,0.68231827,0.73048228,0
-0.94851899,0.1355326,-1.2104913,-0.61440176,0.087791041,-0.78409392,0
-0.10228589,-0.015203723,-1.5311114,-0.066653155,-0.0099072903,-0.99772704,0
-0.03310468,-0.56279451,1.3937654,-0.02201888,-0.37433091,0.92703372,0
0.29574206,1.5353923,0.074062683,0.1889281,0.98085046,0.047313262,0
-0.0074360729,0.39446485,1.4981999,-0.0047997036,0.25461212,0.96703136,0
0.4125798,-0.55136287,-1.479995,0.25275007,-0.33776981,-0.90665811,0
-1.2258725,0.76966953,0.39423791,-0.81714332,0.5130471,0.26279151,0
1.3400762,-0.68685579,0.38073859,0.86276501,-0.44221002,0.24512631,0
-0.91741633,-0.39555228,1.2477983,-0.57393306,-0.24745639,0.78061908,0
-0.48082975,1.4907904,-0.36134979,-0.29910663,0.92736626,-0.22478251,0
1.2637827,0.64593071,0.42255723,0.85341495,0.43618804,0.28534704,0
-0.46661317,-0.59320146,-1.2360092,-0.32219821,-0.40960792,-0.85346919,0
0.55775809,1.0750402,1.0605664,0.34646657,0.66779035,0.65879959,0
1.2984936,-0.039139375,0.61188364,0.90426028,-0.02725634,0.42611074,0
0.098305158,1.0307835,1.1561267,0.063339591,0.66415036,0.74491096,0
-0.31371579,0.95988452,-1.1235405,-0.20766596,0.63540107,-0.74373406,0
0.66330391,0.93007165,-0.93344051,0.44962612,0.63045686,-0.6327405,0
0.66175598,-1.2830036,-0.41072994,0.44090441,-0.85481954,-0.27365473,0
1.2705117,-0.32314202,0.9782148,0.77673733,-0.19755541,0.59803933,0
-0.73815376,-0.12872839,-1.3024852,-0.49123979,-0.085668474,-0.8668012,0
1.4161036,-0.24648665,0.57878983,0.913881,-0.15906991,0.37352142,0
0.92587918,0.831577,-1.0512284,0.56834996,0.51046264,-0.64529544,0
-0.096301407,-0.95569432,1.1318666,-0.06487117,-0.64378089,0.76245517,0
-0.74996305,0.98326504,-0.92110759,-0.48636451,0.63766503,-0.59735483,0
-0.20934656,-0.33762401,1.5717845,-0.12912981,-0.20825431,0.96951306,0
-1.16168,-0.92047781,0.40453085,-0.75612122,-0.5991261,0.26330346,0
1.5042752,-0.015704112,0.079972588,0.99853551,-0.010424365,0.053085677,0
0.99103421,-0.67569274,1.0480176,0.62219155,-0.42421374,0.65796691,0
0.30269942,-1.0367296,1.1827537,0.18899007,-0.64728105,0.73845106,0
0.03451151,1.4701984,-0.14944552,0.023347341,0.9946022,-0.10110121,0
1.489803,-0.018284908,0.60014373,0.92750728,-0.011383642,0.37363175,0
0.2704916,-0.45988104,-1.4691037,0.17306091,-0.29423255,-0.93993467,0
0.67534018,-0.64493471,-1.3228216,0.41707677,-0.39829895,-0.81694853,0
0.77546841,0.88210851,1.1473433,0.47229698,0.53724587,0.69878644,0
0.64932436,0.085081153,1.4802958,0.40114349,0.052561942,0.91450596,0
0.098456189,-0.3802743,1.5437449,0.061807934,-0.23872516,0.96911818,0
-0.48949999,1.3342868,0.66342908,-0.31208938,0.85069811,0.42298093,0
-0.96436614,1.0953451,0.42842767,-0.634049,0.72016478,0.28168154,0
1.1942586,-0.32736245,-0.83818316,0.79866618,-0.21892522,-0.56053907,0
0.018048879,-0.48990798,-1.444837,0.011829573,-0.32109484,-0.94697315,0
-1.374416,-0.70353693,0.29417095,-0.87442791,-0.44760272,0.1871568,0
0.92595649,-1.2262442,0.67163646,0.55216658,-0.73123425,0.40051043,0
-1.1647952,-0.79318911,0.48913375,-0.7808544,-0.53173745,0.32790506,0
-0.099818014,-0.99644798,1.1547743,-0.065303668,-0.65190345,0.75548482,0
0.72199565,-0.078824326,-1.2727867,0.49268609,-0.053789314,-0.86854309,0
-0.55194157,0.29577169,-1.4559411,-0.3482517,0.18661939,-0.91863704,0
-0.16054402,1.5225935,-0.22525539,-0.10374305,0.98389524,-0.14555934,0
-0.040555347,1.45315,0.67056441,-0.025332518,0.9076966,0.41886181,0
-0.47921097,1.5479258,0.19618391,-0.29359108,0.94834483,0.12019309,0
1.1488047,0.1817576,0.83045429,0.80384308,0.12717967,0.58108658,0
-1.5849233,0.2091933,-0.043856453,-0.99102867,0.13080543,-0.02742278,0
0.44009972,-1.3497008,0.54960841,0.28909856,-0.88660944,0.3610341,0
-0.5815773,1.1582917,-0.68941003,-0.39615753,0.78900254,-0.46961078,0
0.21104345,-0.90675473,1.2414505,0.13600309,-0.58434147,0.80003011,0
-0.13674635,1.3831807,0.50619864,-0.092444189,0.93506724,0.34220383,0
-0.77473915,1.0177716,1.0387121,-0.47018674,0.61768234,0.63039112,0
0.82417959,0.39925399,1.1261252,0.56781483,0.27506423,0.77583891,0
-0.34576139,-1.2085199,0.78104287,-0.23363858,-0.81662357,0.5277679,0
1.2617238,0.32034084,0.61915904,0.87528509,0.22222738,0.42952403,0
0.2114803,1.4257529,-0.34322801,0.14273252,0.96227074,-0.23165183,0
0.59016699,1.2858955,0.39437154,0.40180406,0.87547767,0.26850042,0
1.2392222,1.0568722,0.080044039,0.75995046,0.64812475,0.049086843,0
0.6102742,-0.44661146,1.3415608,0.3962751,-0.29000244,0.87112838,0
1.1799086,-0.85543925,0.3832778,0.78298414,-0.56766713,0.25434211,0
1.0028447,0.59590352,1.0766156,0.63174534,0.37539142,0.67821759,0
0.2868295,0.18316068,-1.6016562,0.17517236,0.11185979,-0.97816259,0
0.79221964,0.5601024,1.3271185,0.48190019,0.34070534,0.80727446,0
-0.49862662,0.30221993,-1.3146291,-0.346719,0.21014801,-0.91412461,0
-0.42189598,1.4494613,0.074241459,-0.27913541,0.95899457,0.049119737,0
0.2965728,0.37679479,-1.5704831,0.18061069,0.22946531,-0.95641285,0
-1.1525034,-1.0984056,-0.14452523,-0.72092789,-0.68708801,-0.090405174,0
-0.9458378,-1.0799717,-0.068422295,-0.6580978,-0.75142586,-0.047607064,0
1.4207003,-0.51695693,0.61211866,0.87103438,-0.3169474,0.37529126,0
1.1021017,-0.85287738,0.74015194,0.69844919,-0.54050505,0.46906608,0
0.72086054,0.4725036,-1.3655995,0.44639295,0.29259789,-0.84564757,0
1.0715606,-0.20875564,1.2290359,0.65184742,-0.12698938,0.7476421,0
0.70878261,0.15272696,-1.2904232,0.47885358,0.10318235,-0.87180996,0
1.1594908,-0.80589646,-0.30782035,0.80229735,-0.55763149,-0.21299303,0
-0.78732455,-0.58790064,1.2053347,-0.50628519,-0.3780466,0.77508456,0
-1.3766088,0.66196901,0.48932132,-0.85825592,0.41270897,0.30507064,0
-0.23333085,-1.3995415,0.41447973,-0.15785237,-0.94681412,0.28040272,0
0.64691693,0.9842357,-0.89510888,0.43730158,0.66532165,-0.60507387,0
-0.58518124,-0.80130374,-1.0892833,-0.39714965,-0.54382724,-0.73927271,0
-0.95019466,0.58428609,-1.1475283,-0.5937463,0.36510172,-0.71705377,0
0.43557334,-0.18610682,-1.5157036,0.27429196,-0.11719635,-0.95447832,0
-0.091961317,1.1757817,1.0128131,-0.0591552,0.75633544,0.65150392,0
-0.32621223,0.025543401,1.5843078,-0.2016463,0.015789513,0.9793312,0
0.27565533,1.4931791,-0.034662161,0.18149477,0.983127,-0.022821983,0
-1.0109588,-1.078223,0.53285408,-0.64344835,-0.68626022,0.33914745,0
-0.57986027,1.1104629,-1.0254703,-0.35817358,0.68592125,-0.6334222,0
1.5441595,0.066269062,0.10671857,0.99670726,0.042774633,0.068883538,0
0.28378046,0.74383748,1.1722678,0.20026109,0.52491885,0.82725793,0
0.31898406,1.5908352,0.10984078,0.19615133,0.9782446,0.067543857,0
1.4944638,0.079441249,0.47319567,0.95212978,0.050612386,0.30147514,0
0.15683435,-0.58986336,1.3349106,0.10684782,-0.40186107,0.90944552,0
-0.069703236,-0.045368988,-1.6257191,-0.042819332,-0.027870581,-0.998694,0
1.2880301,0.25344774,1.0316368,0.77146477,0.15180235,0.61789817,0
-1.3699751,0.73314691,0.26437363,-0.86919421,0.46515226,0.16773446,0
-0.23090428,-0.7582469,-1.4082421,-0.14288782,-0.46921712,-0.87144613,0
-1.4516107,-0.41648191,-0.082064532,-0.95980364,-0.27537745,-0.054260992,0
1.3068655,0.42210236,0.75270283,0.83447808,0.26952672,0.48062637,0
0.13023354,-1.3916736,0.75738531,0.081920065,-0.87539655,0.47641379,0
1.3138111,-0.83484328,-0.23857886,0.83427376,-0.53012788,-0.15149826,0
-0.16798256,-0.83895612,1.2647477,-0.11001004,-0.54942364,0.82827014,0
0.13434635,-0.9586271,-1.1954499,0.087338939,-0.62320614,-0.77716535,0
0.33618242,-1.5410904,0.11501207,0.21256918,-0.97443616,0.072722487,0
1.2771701,-0.2553775,-0.88924116,0.80984032,-0.16193223,-0.56385863,0
-1.1974171,-0.64173436,-0.71981013,-0.77883238,-0.41740134,-0.4681839,0
-1.2930578,-0.68982893,-0.50964493,-0.83334672,-0.44457924,-0.3284547,0
-0.77476913,-0.20065117,1.2574519,-0.51979041,-0.1346163,0.84362096,0
0.70868158,0.11922047,-1.4512177,0.43761823,0.073619872,-0.89614195,0
-0.7884084,1.2854925,-0.24560919,-0.51601624,0.84135967,-0.16075213,0
-0.94218194,-1.1160587,-0.13589199,-0.64229983,-0.76083428,-0.092639647,0
1.1772293,0.80351329,-0.51997161,0.77592611,0.52960539,-0.34271961,0
-0.10592674,-0.37807944,-1.5085435,-0.067953877,-0.24254465,-0.96775734,0
1.155019,0.37504834,-1.0341417,0.72412795,0.2351329,-0.64834505,0
-0.32942557,-0.9154588,-1.1255561,-0.22142223,-0.61532235,-0.75653851,0
-0.89788181,1.1019237,0.61648035,-0.57952279,0.71121824,0.39789695,0
1.4240789,-0.31789017,0.62907326,0.89623439,-0.20006202,0.39590299,0
-0.80910438,0.32682049,-1.2537715,-0.52967507,0.21395096,-0.8207736,0
-1.1525096,-0.16425847,-1.1333021,-0.70936996,-0.10110113,-0.69754773,0
0.89792567,1.2235618,-0.63428885,0.54588461,0.74385172,-0.38560936,0
0.072584242,-1.2248011,-1.0320584,0.045271955,-0.76392812,-0.64371139,0
1.301609,0.82950705,-0.27910531,0.82984734,0.52885634,-0.17794497,0
-0.86485225,0.062574178,-1.3529972,-0.53817427,0.038938224,-0.84193373,0
-0.18352583,-0.97747427,-1.2655312,-0.11402185,-0.60729009,-0.78625554,0
0.61440808,1.4117776,0.23885621,0.39433244,0.90609109,0.15329999,0
-1.2483959,0.70931667,0.63211566,-0.79575527,0.45213419,0.40292454,0
-0.28313985,1.4619235,-0.5032717,-0.1801331,0.93007332,-0.32018062,0
0.96469539,-1.3208567,0.24365011,0.58336198,-0.79873669,0.14733793,0
0.18193066,0.15594907,-1.4987572,0.11986536,0.10274734,-0.987459,0
0.4235037,-1.3428167,-0.68400377,0.27054596,-0.85782874,-0.43696067,0
0.79951185,0.77476925,-1.1835656,0.49203625,0.47680911,-0.72839093,0
0.21068138,1.5217232,0.35076094,0.13370031,0.96569932,0.22259608,0
-0.028410383,-1.3672186,0.59636235,-0.019043189,-0.91643262,0.39973557,0
-0.63355309,-1.1923523,0.81206852,-0.40210003,-0.75675565,0.51539922,0
-1.4380012,0.4432444,0.4918099,-0.90834796,0.27998596,0.31066352,0
1.4506295,0.54020935,0.22307181,0.92754716,0.34541532,0.14263438,0
-0.31045079,1.3412601,0.6368987,-0.20466079,0.88420886,0.41986749,0
-0.15759057,1.1299903,0.95058763,-0.10611907,0.76091814,0.64011115,0
0.27847692,-1.5150185,0.28693661,0.17772521,-0.96689153,0.18312423,0
-0.29003292,-0.41728365,-1.4752673,-0.18587813,-0.26743138,-0.94547856,0
1.1738291,0.89375365,-0.36310941,0.77257055,0.58823538,-0.23898509,0
0.1768638,1.3439295,0.83200395,0.11120084,0.84497839,0.52311176,0
-0.82234526,-0.55056316,1.0610312,-0.56677639,-0.37945887,0.73128343,0
-0.96951413,1.3237411,0.20310865,-0.58640075,0.80065131,0.1228482,0
0.16947433,-1.3406693,0.91385639,0.10388699,-0.82182413,0.56018978,0
0.34061944,0.59538931,1.4542758,0.21183766,0.37028384,0.9044416,0
-0.20036308,-1.355423,0.83266175,-0.12496744,-0.845384,0.51933521,0
0.58473343,-1.4070449,0.070641071,0.38334492,-0.92244345,0.046311524,0
-0.059456114,1.3084903,0.61921525,-0.041037317,0.9031356,0.42738974,0
-1.1172487,0.59559333,-0.84113753,-0.73501796,0.39183024,-0.55336934,0
-0.95594412,0.69333369,1.0415576,-0.60710067,0.44032213,0.66147202,0
0.63225728,-0.77028686,-1.1808836,0.40918067,-0.49850985,-0.76423758,0
-0.71378285,-1.0716184,0.86871308,-0.45954829,-0.68993032,0.55929559,0
-0.90406483,-0.23439883,-1.2351334,-0.58383524,-0.15137222,-0.79763573,0
-0.69317359,-0.81208748,1.0927441,-0.45371747,-0.53155267,0.71525675,0
-0.87365359,1.2332956,0.12745346,-0.57600337,0.81311679,0.084030584,0
1.3247499,-0.93149781,0.20978728,0.81124115,-0.57042414,0.12846807,0
-0.13547416,-0.087866791,1.4410772,-0.09342429,-0.060593788,0.99378079,0
1.0642247,1.018435,0.24583045,0.71262294,0.68196136,0.16461225,0
-0.91284925,1.1881757,-0.69913346,-0.55209303,0.718611,-0.42283732,0
-1.1974769,0.62681615,-0.67782396,-0.79195595,0.41454729,-0.4482815,0
-1.3654467,0.24323936,-0.84654421,-0.84033501,0.14969647,-0.52098757,0
-0.50275594,-1.0130795,-0.94757318,-0.3407447,-0.68661845,-0.64222127,0
-0.47995546,-0.91932285,1.2958724,-0.2891719,-0.55388963,0.78075975,0
1.0835359,1.0967797,-0.56693816,0.6596151,0.6676774,-0.34513021,0
1.2410548,-0.90126234,0.2669968,0.79715818,-0.57890165,0.17149822,0
-0.7497015,-0.031958677,1.3282617,-0.49142501,-0.020948729,0.87066787,0
-0.14939313,1.3311878,0.80862856,-0.095477685,0.85076696,0.51679742,0
0.023888124,-1.2861997,-0.79646349,0.015788356,-0.85008681,-0.52640587,0
-0.43307137,0.93410218,1.1892115,-0.27531597,0.59383571,0.75601602,0
0.29762903,0.76837897,1.2082834,0.2035055,0.52538341,0.8261705,0
1.0860555,-1.1501503,-0.15797727,0.68315929,-0.72347671,-0.099372119,0
-0.35912997,-1.3947271,-0.23164718,-0.24619329,-0.95612305,-0.15880039,0
-0.91186374,-0.034405518,1.2842274,-0.5788101,-0.021839077,0.81516981,0
1.4133022,0.54236799,-0.19178395,0.92620963,0.35544166,-0.12568589,0
0.83593303,-0.55539167,1.190894,0.53675157,-0.35661629,0.76467156,0
0.1718709,-1.1212773,1.0203601,0.11264624,-0.73489857,0.66875625,0
1.3661262,-0.89415926,0.29184368,0.8236562,-0.53910089,0.17595656,0
-0.41564518,-0.92433834,1.2474314,-0.25860667,-0.57510608,0.77612853,0
1.4168611,0.098039396,0.7365911,0.88559461,0.061278529,0.46039879,0
-0.4246453,-0.079408929,1.4585907,-0.27914751,-0.05220075,0.95882833,0
1.3266459,0.48984784,0.54546845,0.8752448,0.32317349,0.35986876,0
-0.30673757,-0.54834956,-1.3996392,-0.19993342,-0.35741761,-0.91229343,0
-0.29598889,0.83391285,1.19761,-0.1987761,0.5600276,0.80427426,0
-1.4417933,-0.45923561,0.16748178,-0.94705003,-0.30165151,0.11001135,0
0.6868977,0.42530605,1.3946087,0.42618874,0.26388302,0.86529118,0
0.71831936,1.4071759,0.27364826,0.44798729,0.87759978,0.17066357,0
0.43612978,1.2332698,0.63571,0.29986838,0.84795547,0.43709314,0
0.93434972,-0.21604015,-1.2322004,0.59840131,-0.13836223,-0.78915882,0
-1.0124685,0.46872804,-1.1408194,-0.63449693,0.29374394,-0.71493226,0
0.54938871,-0.8411907,1.2101405,0.34929416,-0.53481805,0.76939148,0
-0.029615767,0.58573115,-1.4944756,-0.018447213,0.36484307,-0.93088627,0
-0.53550893,1.273555,-0.38798261,-0.37317535,0.88749099,-0.27037001,0
1.1544304,0.50798547,-0.83081692,0.76436996,0.33634669,-0.55009943,0
-1.5696249,-0.36978245,-0.27168649,-0.95982677,-0.22612223,-0.16613649,0
0.62354881,-1.240375,-0.84300327,0.38391337,-0.76368773,-0.5190295,0
0.26251829,-0.91888505,1.3477588,0.15889145,-0.55616313,0.81574261,0
0.65614754,-1.1999546,0.68157965,0.42939869,-0.7852791,0.44604206,0
0.20371822,-1.0111659,1.2630857,0.12492308,-0.62006211,0.77454323,0
0.12963805,1.3421234,-0.73713797,0.084360845,0.8733753,-0.4796862,0
1.0928869,-0.19412969,1.0161562,0.72622901,-0.12900017,0.67524105,0
-1.1060811,0.47296661,0.8991856,-0.73646373,0.3149161,0.59870613,0
-1.3229961,0.57239753,0.6307922,-0.84080607,0.3637768,0.40088847,0
1.2832899,0.94923836,0.074952647,0.80307567,0.59402812,0.046904951,0
-1.0276675,-1.0102694,0.44449517,-0.68143868,-0.66990209,0.29474142,0
0.48668054,0.4985595,-1.2888964,0.33217043,0.34027809,-0.87970084,0
1.011199,-1.1210194,0.48419631,0.63779908,-0.70706671,0.30539981,0
0.28192854,-1.4460573,0.40904984,0.18438572,-0.94574434,0.26752505,0
-1.2478787,0.53885108,-0.89398706,-0.76703274,0.33121523,-0.54950643,0
-0.62525594,-0.54338801,-1.2333251,-0.42084923,-0.36574531,-0.83013034,0
0.062205784,-1.3720601,-0.62651795,0.041206338,-0.90887964,-0.41501784,0
-1.4423442,0.026703479,-0.70222133,-0.89897799,0.016643627,-0.43767744,0
0.97636753,0.62013376,-0.86330831,0.67647529,0.42965907,-0.59814233,0
1.3134735,0.60112882,0.36989713,0.88087291,0.40314335,0.24806924,0
-0.069397449,1.5082868,0.25667176,-0.045312099,0.98481488,0.16759025,0
0.68904907,1.5192506,0.12860496,0.41182601,0.90801507,0.076863714,0
1.0804348,0.36916852,0.99116772,0.71458977,0.24416472,0.65554935,0
1.0217179,1.1800896,0.58158273,0.61336434,0.70843905,0.34913951,0
-0.15564074,-1.1207968,1.0871341,-0.099187151,-0.71426445,0.69281179,0
1.2817791,-0.685911,0.17238417,0.87556243,-0.46853465,0.11775283,0
-1.0063245,-0.96766627,-0.67150956,-0.64958078,-0.62462693,-0.43345827,0
-0.98294115,1.194676,0.36280936,-0.61857468,0.75182152,0.22831954,0
-0.84610969,0.64140773,1.0319214,-0.57146525,0.43320888,0.69696307,0
1.2290962,0.78215754,-0.45783415,0.80485201,0.51218212,-0.29980463,0
-1.2765228,0.49813271,0.5545494,-0.86354661,0.33697855,0.37514353,0
0.0034369156,-1.3959849,0.47621071,0.002330146,-0.94644409,0.32285938,0
0.87690431,0.7324838,1.1068863,0.55122972,0.46044573,0.6957984,0
-0.17991211,1.3560752,-0.93894017,-0.10843359,0.81731075,-0.56590217,0
1.1754483,0.46993873,-0.81455833,0.78085619,0.31218266,-0.54111516,0
1.2268801,-0.066049032,-0.90511215,0.80395854,-0.043281071,-0.59310824,0
-0.15656872,-1.025609,1.2308872,-0.097259454,-0.63710153,0.76461899,0
-1.4832165,-0.26144999,0.065112039,-0.98389792,-0.17343394,0.043192346,0
1.3192872,0.38701737,-0.76665395,0.83807611,0.24585247,-0.48701632,0
1.109498,-0.60495502,0.85468084,0.7272566,-0.39653745,0.56022835,0
-0.352422,-1.4571278,0.33072895,-0.22956266,-0.94915229,0.21543212,0
-1.484339,0.035022195,0.2343287,-0.987499,0.023299519,0.15589388,0
0.14946713,1.3922836,0.52268326,0.10000113,0.93150866,0.34970176,0
-0.59506267,1.3828094,0.37396806,-0.383623,0.89146495,0.24108848,0
-1.083383,1.1929203,0.10330581,-0.67092508,0.73876017,0.063975953,0
-1.4369189,0.52818751,0.24714953,-0.92660081,0.34060308,0.15937501,0
-1.0317891,-0.89604414,0.75209546,-0.66146696,-0.57444263,0.48215893,0
-0.12654078,-1.037114,-1.0351857,-0.08603584,-0.70514011,-0.70382899,0
-0.49427566,0.88816798,1.27969,-0.3024489,0.54347289,0.78304654,0
1.5198145,-0.096779957,0.23229875,0.98656708,-0.0628234,0.1507936,0
-1.1414684,-0.35503709,0.91431803,-0.75845844,-0.23590744,0.60752642,0
-1.4746492,-0.3608945,-0.22807375,-0.96055561,-0.23507912,-0.14856246,0
0.27246955,0.75192404,1.3447014,0.17415079,0.48059747,0.8594752,0
0.46910146,-0.45475489,-1.4089683,0.30204639,-0.29280886,-0.90721053,0
-1.1750197,0.4457542,-0.85493273,-0.77305967,0.29326707,-0.56247056,0
-1.1377112,-1.1806794,-0.30092472,-0.68248314,-0.70825869,-0.18051687,0
-1.1318041,0.76608694,0.69231731,-0.73875213,0.50004089,0.4518899,0
-1.4820311,-0.11986297,-0.40852487,-0.96112746,-0.077733591,-0.26493672,0
-0.71461028,0.95745897,-0.80224591,-0.49656925,0.66532022,-0.55746561,0
0.53208971,-0.80425179,1.2596279,0.33541116,-0.50697285,0.79402637,0
-0.82346004,1.1556189,-0.63176322,-0.5301441,0.74398816,-0.40672955,0
-1.4776444,0.40454453,0.53666037,-0.91027349,0.24921162,0.33059895,0
0.79088962,1.1853511,-0.19890261,0.54968959,0.82385093,-0.13824266,0
-1.3723631,-0.42387259,0.30987281,-0.93397599,-0.28847089,0.21088716,0
0.63686013,0.053207643,-1.4247183,0.40785471,0.034074966,-0.91241074,0
-0.54993111,-0.7743367,-1.2833943,-0.34443948,-0.48499188,-0.80383098,0
1.1640003,-0.5323332,-1.0178193,0.71179283,-0.32552481,-0.62240231,0
-0.895284,-1.2487991,0.44759983,-0.55940193,-0.78028941,0.27967462,0
1.2310954,0.24215354,0.85416448,0.81108505,0.15953849,0.56275088,0
-0.71523833,-0.99394685,-0.93103737,-0.46495768,-0.64613879,-0.60524297,0
1.4531776,-0.46917561,-0.46438158,0.91046137,-0.29395324,-0.29094964,0
-0.96355343,1.0712693,-0.35095379,-0.64974254,0.72237742,-0.23665486,0
-1.0494571,-1.1639701,0.54736179,-0.63218111,-0.70116246,0.32972455,0
-1.0653622,1.0837176,-0.58288115,-0.65454674,0.66582406,-0.3581157,0
1.5013222,-0.27383235,-0.3421979,0.95993334,-0.17508622,-0.21879859,0
-1.201983,-0.78025573,0.48446375,-0.79459339,-0.51580268,0.32026383,0
0.19995032,1.4430764,-0.085981786,0.13700877,0.98881626,-0.058915932,0
0.46602091,1.394935,-0.084380999,0.31634545,0.94691318,-0.057279717,0
0.089756645,-1.6053785,0.03992315,0.055805579,-0.99813306,0.024821945,0
1.0235637,-0.26028332,1.0694685,0.68098611,-0.17316881,0.71152693,0
-0.10214642,0.50692624,1.3945259,-0.068678327,0.34083277,0.937612,0
1.2639065,0.87727284,-0.16742085,0.81668276,0.5668565,-0.10818025,0
0.48962191,0.36617789,-1.4402206,0.31293246,0.23403557,-0.92048937,0
1.5963845,0.048292901,-0.3165361,0.98047161,0.029660661,-0.19441096,0
1.3377286,-0.19897738,0.52449924,0.92219669,-0.13717003,0.36157668,0
0.64834887,-0.99730635,-0.89112186,0.43621799,-0.67100137,-0.59955901,0
-1.0461426,1.0930784,-0.31302267,-0.6770876,0.70746553,-0.20259549,0
-0.35250375,-1.5241287,-0.52606744,-0.21358082,-0.92346436,-0.31874245,0
1.2827792,0.82833642,0.035630193,0.8398481,0.54231995,0.023327436,0
0.88575286,1.1584225,0.5511198,0.56818336,0.7430926,0.3535265,0
-0.12143128,1.0888493,0.98921531,-0.082264677,0.73765045,0.67015254,0
-0.12587336,1.3588626,0.51556379,-0.086284325,0.93148023,0.35341135,0
-1.5801216,-0.076837294,0.41036561,-0.96682167,-0.04701408,0.2510885,0
-0.19580378,-1.5489379,-0.3910352,-0.12165583,-0.96237844,-0.24295606,0
0.56869501,1.4214307,-0.077228725,0.37098807,0.92727005,-0.050380144,0
1.102091,-0.74853307,0.88288385,0.6895628,-0.4683466,0.55240798,0
-1.2915642,-0.43425822,0.78961957,-0.82010818,-0.27574217,0.50138694,0
0.55896211,-0.77582318,1.1764611,0.36869687,-0.51174057,0.77600527,0
0.22742251,0.76465267,-1.2499334,0.15337187,0.51567549,-0.84294474,0
0.59862357,-0.14209129,1.4682149,0.3760398,-0.08925806,0.9222945,0
-1.0092146,-0.92545766,0.76752281,-0.64291912,-0.58956182,0.48894963,0
-1.2886093,-0.40907082,0.69377679,-0.84799337,-0.26919669,0.45655277,0
-0.12879087,0.086298503,1.5214833,-0.084212199,0.056427807,0.99484885,0
-0.37550911,1.3466336,-0.64771527,-0.24371566,0.87400192,-0.42038488,0
-0.96755064,-1.2467328,0.41633385,-0.59281665,-0.76387107,0.25508705,0
-1.3210586,-0.025789659,-0.63772625,-0.90041953,-0.017577957,-0.43466744,0
0.35271257,1.377247,-0.49288324,0.23440583,0.91529125,-0.32756051,0
-1.1210465,0.30974114,1.1934091,-0.67273301,0.18587372,0.71615732,0
-1.408946,0.31954178,-0.36109173,-0.94612926,0.2145773,-0.24247874,0
-0.51985294,0.1866965,-1.3336967,-0.36012006,0.1293311,-0.92389774,0
-0.87558955,1.0743067,0.5657919,-0.58490872,0.71765518,0.37795863,0
1.3075945,0.68266094,-0.1683774,0.88074368,0.45981327,-0.11341232,0
-1.2631881,-0.45335203,0.8695066,-0.78992248,-0.28349933,0.54373753,0
0.16211842,0.33264929,-1.560835,0.1010649,0.20737414,-0.97302717,0
-1.4499964,0.32979146,-0.43720907,-0.93550026,0.21277294,-0.28207603,0
-0.51101953,-1.4385092,-0.25070807,-0.3303228,-0.92985171,-0.16205758,0
0.59860045,1.058648,-0.99761617,0.38054952,0.67301655,-0.63421667,0
0.87758899,-1.2655106,-0.1249839,0.56798601,-0.81905341,-0.080891058,0
-1.2587274,0.4304693,0.53271931,-0.87838632,0.30039731,0.37175113,0
-0.92739803,1.1419047,-0.55335259,-0.59006381,0.72654527,-0.35207465,0
-1.3696592,0.7127772,-0.23786314,-0.87672728,0.45625308,-0.15225767,0
-1.1487026,-0.64281142,-0.98761749,-0.69803023,-0.39061618,-0.60014391,0
-0.610039,-1.0399818,1.0201288,-0.3862575,-0.6584838,0.64591348,0
-0.19984281,0.98782355,1.1381333,-0.1314562,0.64978832,0.74866176,0
-0.53716767,1.0226896,0.9622525,-0.35728914,0.68022686,0.640028,0
0.99879694,0.32825771,1.1776948,0.63266802,0.2079283,0.7459873,0
0.2302165,-1.2239883,0.92420787,0.14844008,-0.78920895,0.59591514,0
0.31650737,0.2993221,-1.5706818,0.19417951,0.18363622,-0.96362442,0
-0.18899307,1.4619843,0.78943175,-0.11301928,0.87427759,0.47208613,0
0.24192512,1.3424358,0.76628298,0.15462811,0.85802716,0.48977506,0
-0.38897145,0.78345436,1.2724587,-0.25190789,0.50738513,0.82407689,0
0.021812757,-0.082441986,1.5471983,0.014076863,-0.053203937,0.99848443,0
1.2041018,-0.10294399,-0.98830324,0.77128959,-0.065940961,-0.63305944,0
0.038765993,-1.4434878,-0.40308776,0.025857562,-0.96283036,-0.26886624,0
0.46447572,1.4553756,-0.34721622,0.29647565,0.92896873,-0.22162871,0
-0.36326736,1.316807,0.70140988,-0.23657121,0.85754639,0.45678031,0
1.2381033,-0.84196264,0.13265507,0.82368374,-0.56013978,0.088252589,0
-0.0036089441,-0.17686142,1.5358845,-0.0023343174,-0.11439653,0.9934324,0
0.043860853,-0.33025554,-1.5633204,0.027440039,-0.20661306,-0.97803783,0
-1.44879,0.28979278,0.6758334,-0.89171535,0.17836447,0.41596851,0
-0.81846797,0.27154753,1.4062401,-0.49616525,0.16461541,0.85247982,0
-0.15545523,0.91976863,-1.2027484,-0.10213304,0.60428184,-0.79019767,0
-1.368318,-0.63319802,0.12128887,-0.90461594,-0.41861692,0.080185935,0
0.64653629,-0.48083994,-1.2884785,0.42544556,-0.31641102,-0.84786803,0
-0.58332676,1.1627367,0.81401145,-0.38012907,0.75770569,0.53045642,0
-0.58759648,-1.0735677,0.88734007,-0.38870314,-0.71017981,0.58698761,0
0.9636277,1.1934049,0.16505687,0.62462217,0.77356344,0.10698964,0
-0.73250514,-1.3632287,0.26317427,-0.46662843,-0.86841881,0.16765015,0
0.4097594,0.24896713,1.4327977,0.27120352,0.16478148,0.94831204,0
0.97450054,0.41147789,1.3013098,0.58109301,0.24536356,0.77596879,0
1.4936947,0.028861087,0.52191454,0.94387436,0.018237488,0.32980084,0
-0.61766267,1.3347266,-0.066135995,-0.41955048,0.90661973,-0.044923209,0
-0.53056765,-0.7053225,-1.3287566,-0.33260828,-0.44216061,-0.83298606,0
0.34053695,1.3176063,-0.49997887,0.23487929,0.90879548,-0.34485149,0
1.440442,0.60328948,-0.16207957,0.91744155,0.38424513,-0.10323118,0
-1.4681029,0.32572883,0.65255195,-0.89557618,0.19870199,0.39807153,0
0.07366588,-0.36912075,-1.4690056,0.048577491,-0.24340931,-0.96870637,0
-0.27676407,1.1280406,-0.94878393,-0.18453953,0.75214994,-0.632626,0
-1.3894804,-0.25020704,-0.70007586,-0.88172287,-0.15877394,-0.44424731,0
0.3368195,-1.5311643,0.50683594,0.20442253,-0.92929447,0.30760893,0
1.2419072,-0.76606631,-0.58778507,0.78945869,-0.48697495,-0.37364468,0
1.2109522,-0.37232947,0.81056815,0.80514741,-0.24755736,0.53893697,0
1.207958,0.89249659,0.55172908,0.75495642,0.55779755,0.34482276,0
-0.81926423,0.15426056,-1.2496521,-0.54537433,0.1026894,-0.83187842,0
-0.11656276,1.083805,-1.0502826,-0.077004753,0.71599317,-0.6938473,0
1.4412133,-0.41576701,-0.60704058,0.89064699,-0.25693744,-0.37514147,0
-0.46860614,-1.5255737,0.18739264,-0.29162374,-0.9493975,0.11661849,0
0.92036176,-1.16325,0.31865761,0.60663664,-0.76673114,0.21003629,0
0.52909738,1.3699925,0.24905595,0.35519874,0.91971654,0.16719864,0
1.4875562,-0.30465505,-0.14177075,0.97542316,-0.19976898,-0.092962183,0
-0.80236977,-1.2735223,-0.43039423,-0.51252156,-0.81347483,-0.27491856,0
-0.90401602,-0.7653203,-1.0480301,-0.57159823,-0.48390263,-0.66265661,0
1.434644,0.48344621,0.40964299,0.91474563,0.3082509,0.26119313,0
-0.69355625,-1.1803833,0.84117073,-0.43163094,-0.73460507,0.523498,0
-1.1567211,-0.0073315739,1.0169146,-0.75102693,-0.0047601876,0.66025442,0
0.36603272,0.75104553,-1.2987616,0.23702334,0.48633716,-0.84100896,0
0.50755984,-1.4253416,0.42236146,0.32310927,-0.90736318,0.26887256,0
-1.3974837,0.24485083,0.7266618,-0.87669533,0.15360436,0.45586294,0
-0.73106784,-0.72264856,-1.147355,-0.47456887,-0.46910354,-0.74479949,0
0.57831657,-1.5150635,0.019356249,0.35658887,-0.93418521,0.011935025,0
-1.1070836,-0.26789623,-0.9698534,-0.7400288,-0.17907494,-0.64829743,0
-0.25755522,-0.35796204,-1.4826826,-0.16650045,-0.23140995,-0.95850247,0
-1.3914796,-0.66911149,0.35360742,-0.87847549,-0.42242664,0.22324111,0
-0.44156083,-1.5013981,-0.020597033,-0.2821261,-0.95928705,-0.013160045,0
-0.55108458,-0.33051091,-1.5044308,-0.33686465,-0.20203331,-0.91962206,0
-0.32953849,1.4875124,-0.23114577,-0.21384555,0.96528298,-0.14999612,0
-0.40853134,-1.0452178,-1.0907605,-0.26104712,-0.66788286,-0.69698417,0
-1.1816527,0.68947405,0.57956815,-0.7953018,0.46404493,0.39007366,0
-0.087543055,-0.05123299,1.472935,-0.059294004,-0.034700744,0.99763727,0
-0.33304304,-0.20183,1.4719734,-0.21873085,-0.13255478,0.96673989,0
1.577888,-0.13707414,-0.53636861,0.94360709,-0.081972949,-0.32075864,0
-1.2917887,0.80062199,0.018053928,-0.84992731,0.52676612,0.011878512,0
1.0881767,-0.13866948,1.094142,0.70234126,-0.089501359,0.70619142,0
-0.926503,-0.85484189,-0.97082096,-0.58229697,-0.53725874,-0.61015028,0
-0.27182761,-1.3575108,0.62539029,-0.17893316,-0.89359462,0.41166922,0
-1.227075,-0.8333075,-0.43362013,-0.79403776,-0.5392316,-0.28059471,0
1.3874137,-0.032767773,-0.80944854,0.86356568,-0.020395592,-0.50382376,0
0.75392753,-1.2049525,0.42696026,0.50799632,-0.81189692,0.28768581,0
-1.5503242,0.23094776,0.19135641,-0.98179626,0.14625564,0.12118305,0
-1.534971,0.065958127,-0.10745171,-0.99664354,0.042826049,-0.069767483,0
-0.4834145,-1.2813987,-0.76165318,-0.30847806,-0.81769031,-0.48602864,0
-1.2292395,-0.95198488,0.15800598,-0.78657401,-0.60916251,0.10110594,0
-1.1383414,0.62463343,0.99450999,-0.6959973,0.38190928,0.60805678,0
-1.2129587,0.60202259,0.57281631,-0.82496667,0.40945217,0.38958818,0
1.576282,-0.50719982,0.043788131,0.95160121,-0.30619645,0.026434889,0
-0.69127274,0.78904253,-0.95567495,-0.4871307,0.55602777,-0.67345142,0
0.066764943,1.3190405,-0.63765824,0.045523431,0.89938295,-0.43478492,0
0.25643066,-0.68617368,-1.4205021,0.1604442,-0.42932692,-0.88878345,0
-1.0244147,-0.46828657,-0.9151141,-0.70588011,-0.32267615,-0.63056582,0
0.3905842,-1.4121523,0.059571128,0.26635894,-0.96301746,0.04062454,0
-0.72789687,-1.4326512,0.3638415,-0.44178262,-0.86951929,0.22082642,0
0.88187522,-0.45296311,-1.2515302,0.55233759,-0.28370062,-0.78386045,0
-1.4622102,-0.28387651,0.28374553,-0.96432978,-0.18721697,0.18713059,0
0.65103775,-0.90330338,-1.1415045,0.40826926,-0.56646639,-0.71584356,0
0.71848518,-0.69773126,1.1670274,0.46719909,-0.45370373,0.75886619,0
-0.79034513,1.2141272,0.31118891,-0.53338557,0.81938624,0.21001418,0
-0.53591591,-1.1264632,0.82588202,-0.35821733,-0.75295138,0.5520367,0
0.26379544,0.97905058,1.1315944,0.17361599,0.64435852,0.74475473,0
1.2645131,0.92517722,-0.34821102,0.78783232,0.57641512,-0.21694665,0
1.0468616,-1.121654,0.094485804,0.6810227,-0.72967792,0.061466552,0
0.053967018,-1.4463776,-0.052969523,0.037260953,-0.99863607,-0.036572244,0
1.1427337,0.93125933,-0.18148725,0.76937866,0.62699741,-0.12219156,0
1.2320136,1.1184516,0.20071597,0.73507828,0.66732174,0.11975675,0
1.2787555,0.81323904,-0.043497253,0.84346789,0.53641295,-0.028690813,0
-1.1064322,1.1172645,0.47030929,-0.6741448,0.68074489,0.28655761,0
-0.16029701,-0.29963332,-1.5815622,-0.099092089,-0.18522674,-0.977687,0
0.47489715,1.5130892,0.52621573,0.28421828,0.90555948,0.31493163,0
-1.0030864,-0.34438923,-1.1253939,-0.64866656,-0.22270641,-0.72775918,0
0.33891267,1.4261792,-0.71097481,0.20802236,0.87537932,-0.43639162,0
-0.44143873,-0.91249883,1.1394759,-0.28944919,-0.59832096,0.74714869,0
0.44724321,-0.46464506,1.3467813,0.29951358,-0.31116742,0.90192378,0
0.98694414,-0.92830247,-0.75989491,0.63531905,-0.59757006,-0.48916218,0
-0.30361828,0.80985159,1.2172835,-0.20332593,0.54233831,0.81518573,0
-0.55499768,-0.73127615,-1.2997727,-0.3487727,-0.45954996,-0.81680566,0
0.58368313,0.80966598,-1.1811268,0.37745014,0.52358639,-0.76379883,0
-0.94041252,-0.65179282,-0.88640618,-0.64973176,-0.45032418,-0.61241877,0
1.4869405,-0.4694564,-0.12896556,0.95035684,-0.30004635,-0.082426496,0
-0.4465594,1.0211126,-0.97806084,-0.30116001,0.68863916,-0.65960503,0
0.4732182,-0.10619994,1.4765915,0.30447713,-0.068330951,0.95006555,0
-1.1686014,0.93926638,-0.3082113,-0.7634747,0.61364478,-0.20136167,0
-0.4190045,-0.59571826,1.2809241,-0.28435943,-0.40428707,0.86930531,0
0.54214901,0.54948366,-1.3389734,0.35078192,0.35552758,-0.86634421,0
-0.52548313,0.70627671,1.226828,-0.34800467,0.46773639,0.81247491,0
1.0756938,-1.1117361,0.033568934,0.69519776,-0.71849108,0.02169488,0
0.1944669,-1.6212883,-0.089169286,0.11891511,-0.99140614,-0.054526377,0
1.0593284,-0.7115345,-0.6259619,0.74528807,-0.50059843,-0.44039404,0
1.3272396,0.30398259,0.66573691,0.87569362,0.20056334,0.43924364,0
0.44299272,-1.5253925,-0.047180183,0.27876669,-0.95989984,-0.029689571,0
1.4230843,-0.11801268,0.36526552,0.96549326,-0.080065854,0.24781485,0
-1.2400008,-0.79395151,-0.13594463,-0.8385964,-0.53693902,-0.091937587,0
1.2891694,0.69338048,-0.57650161,0.81943524,0.4407337,-0.36644194,0
0.76756036,1.2402495,-0.26924792,0.51750529,0.8362022,-0.18153259,0
-0.57142168,0.34234563,-1.4365247,-0.36087039,0.21620181,-0.90720963,0
-0.12946652,0.0050998866,-1.6092892,-0.080190025,0.0031588092,-0.99677461,0
0.54647458,1.3831991,-0.42899051,0.35304898,0.89361346,-0.2771486,0
1.2034069,-0.97459131,0.030086849,0.77697039,-0.62923735,0.019425342,0
1.1777012,-0.30500317,1.0634658,0.72884375,-0.18875726,0.65814692,0
-0.49322668,-0.92223811,1.1921306,-0.31101409,-0.581536,0.75172216,0
0.69300097,0.90410614,0.92195189,0.47288084,0.61693203,0.62910938,0
0.32282355,0.79604262,-1.2878507,0.20853563,0.51422286,-0.83191806,0
-1.30922,-0.056784779,-0.8789854,-0.8297016,-0.035986636,-0.55704588,0
-1.5350099,0.54591495,-0.17163138,-0.93700367,0.33323845,-0.10476756,0
0.85995406,0.1626617,1.3925766,0.52284336,0.098896667,0.84667248,0
-1.6011574,-0.35185543,-0.092212535,-0.9751541,-0.21429077,-0.056160267,0
-0.58545941,-0.95331597,0.95794153,-0.39750665,-0.64726853,0.6504091,0
-1.5270917,0.14009878,-0.12373639,-0.9925921,0.091062598,-0.080427229,0
1.3337247,0.5200485,-0.58803773,0.86180294,0.33603585,-0.37996796,0
1.4828893,-0.11718778,-0.092214748,0.99498188,-0.07863009,-0.061873805,0
-0.74631673,0.027003791,1.3875984,-0.47361118,0.017136553,0.88056725,0
-1.3057092,-0.67000115,0.64467841,-0.81457603,-0.41798499,0.40218723,0
1.2006694,0.8569144,0.35311434,0.79159486,0.56495905,0.23280637,0
-0.42103103,-1.159948,-0.89681309,-0.27600315,-0.76039356,-0.58789784,0
-1.4688442,0.39702842,-0.21834329,-0.95556772,0.25828984,-0.14204487,0
-0.60487598,-1.2513065,-0.79008985,-0.37835169,-0.78269589,-0.49420351,0
0.33689559,1.0163934,1.0329255,0.2264418,0.68316114,0.69427299,0
-1.3369867,-0.46478087,0.89084643,-0.7994076,-0.27790058,0.53265262,0
-0.51993746,0.72315049,1.3224427,-0.32610068,0.45355427,0.82942563,0
0.96695244,-0.99769479,-0.74098808,0.61408287,-0.63360643,-0.47057959,0
-0.98595691,-0.9635247,0.77348709,-0.62372696,-0.60953611,0.48931625,0
0.78314251,-0.61485839,-1.0885673,0.53085661,-0.4167845,-0.73789012,0
-1.2635299,-0.92161512,0.42654407,-0.77944869,-0.5685277,0.26312733,0
-1.0621315,1.0525571,-0.39013568,-0.68729383,0.68109834,-0.25245258,0
0.058921188,1.1558278,0.89212441,0.040322039,0.79097748,0.61051512,0
-1.6225678,0.25935993,-0.25208405,-0.97604525,0.15601631,-0.15163955,0
0.73835212,-0.98504847,-0.98427081,0.46845064,-0.62496817,-0.62447476,0
-0.22491552,-1.4249865,0.57216185,-0.14492464,-0.91819209,0.36867332,0
0.64941651,1.2985581,0.46718505,0.42578906,0.85139787,0.30630925,0
0.17389384,-1.5541639,-0.071550369,0.11107893,-0.99276006,-0.045704544,0
1.3339446,0.75007498,0.028195433,0.8715027,0.49004465,0.018420853,0
-0.040354904,1.5639079,-0.3363449,-0.025219036,0.97733468,-0.2101924,0
-0.47549841,1.4178019,-0.61217427,-0.29426873,0.87742621,-0.37885249,0
0.023080138,-1.3131868,-0.94692767,0.01425443,-0.81103194,-0.58482814,0
-0.51144987,-0.057075899,-1.4615798,-0.33006701,-0.036834247,-0.94323862,0
-1.5344201,0.15159865,0.012484001,-0.99512219,0.098316737,0.008096288,0
0.855335,-1.105894,0.57691735,0.56553829,-0.73120522,0.38145155,0
1.2449607,-0.70652616,-0.33859223,0.84635389,-0.48031327,-0.23018305,0
1.315287,-0.18510845,0.72602803,0.86890781,-0.12228676,0.47963023,0
0.16318332,1.3553495,-0.73246676,0.10533199,0.87485456,-0.47279456,0
-0.27797797,1.3283151,-0.67921948,-0.18317255,0.87528831,-0.44756913,0
-0.73791474,-0.15011415,-1.3772341,-0.47011179,-0.095634937,-0.87741029,0
1.3330923,-0.17019361,0.78375137,0.85687917,-0.10939629,0.50377625,0
0.0016358516,1.05233,1.0890307,0.0010802022,0.69488525,0.71911985,0
0.43007621,-0.57665342,1.4962791,0.259047,-0.34733456,0.90125096,0
1.005257,-0.4238601,1.0992222,0.649095,-0.27368671,0.70976841,0
-0.12858906,1.004231,-1.2557102,-0.079719603,0.62257934,-0.77848554,0
1.4671813,-0.096449703,0.18018556,0.99043691,-0.065109432,0.12163625,0
0.075664431,-1.259393,-0.7790333,0.051028159,-0.84933573,-0.52538073,0
-0.74727738,-1.3760241,-0.46023703,-0.45786822,-0.84311092,-0.28199422,0
-0.26880869,-0.80805004,-1.4029588,-0.16378915,-0.49235696,-0.85484374,0
0.57656693,1.3330816,-0.7834546,0.34938079,0.80780405,-0.47474799,0
1.0472546,1.2911913,0.014810469,0.62990129,0.77662408,0.0089081815,0
-0.69022578,-1.3630878,-0.10314215,-0.45072782,-0.89011687,-0.067353375,0
0.16019849,1.4843862,0.39304826,0.10376384,0.96146727,0.25458539,0
0.13063966,0.443627,-1.4745368,0.084536843,0.28707075,-0.95417184,0
-0.55156118,0.82744527,-1.167956,-0.35956889,0.53942084,-0.76140356,0
-1.4095279,-0.68167442,-0.32926121,-0.8809787,-0.42605799,-0.20579381,0
0.42715448,-0.18658626,-1.5299938,0.26706773,-0.11665843,-0.95659059,0
0.56117499,0.12503873,-1.5014105,0.34904873,0.077773616,-0.93387163,0
-1.1155369,0.43088719,-0.95632231,-0.72852755,0.28140098,-0.62454867,0
1.2478204,0.095181465,0.90329134,0.80849361,0.061670419,0.58526474,0
-1.23959,-0.96157342,-0.090940505,-0.78881574,-0.61189926,-0.057870183,0
-0.28308871,-0.26060539,-1.4147341,-0.19308613,-0.17775096,-0.96494681,0
0.089569598,0.11933988,1.5699724,0.056795761,0.075672992,0.99551386,0
1.2661756,-0.69539833,0.65870935,0.79750848,-0.43800092,0.41489214,0
-0.83738655,0.1516369,-1.3560915,-0.52304041,0.094713993,-0.84702897,0
1.4105877,-0.53294665,0.086156927,0.93393618,-0.35285872,0.057043653,0
-1.5022205,-0.17279249,0.39618626,-0.96101165,-0.11054009,0.2534512,0
-0.2015169,-0.64935881,-1.4685732,-0.12452172,-0.40125307,-0.90746367,0
-0.43704823,1.2268051,0.84469533,-0.28155252,0.79032481,0.54416442,0
-0.82908392,-1.2091788,-0.30281577,-0.5538078,-0.80770189,-0.20227353,0
0.076404057,-0.51131117,1.4625863,0.049252618,-0.32960835,0.94283217,0
1.047274,1.1651993,0.39725658,0.64796275,0.72092474,0.24578808,0
0.53114992,0.62008893,1.1643517,0.37349901,0.43603995,0.8187598,0
-1.2307755,0.32595712,-0.83152163,-0.80935568,0.21434879,-0.54680711,0
0.9013685,1.2744288,-0.41986582,0.55762112,0.78841054,-0.25974509,0
0.68765205,-0.016869551,1.3928194,0.44267139,-0.01085966,0.89661819,0
0.89323258,0.53731525,1.1649631,0.57139915,0.34371954,0.74522471,0
-0.71803635,1.3716241,0.39622515,-0.44930628,0.85828429,0.24793515,0
0.093748532,-0.48758635,-1.4584666,0.060849324,-0.31647748,-0.94664639,0
-0.33277193,-1.4946804,-0.28786182,-0.21357566,-0.95929772,-0.184752,0
-1.0977833,-0.49201885,0.95989865,-0.71329516,-0.31969392,0.6237033,0
1.1270586,0.66388935,0.89515674,0.71106517,0.41885006,0.56475747,0
-1.2135297,1.0435114,-0.20204218,-0.75225329,0.6468609,-0.12524365,0
-0.41225865,-0.74996793,1.3120173,-0.26317847,-0.47876593,0.8375681,0
1.4013902,0.66956651,-0.034705181,0.90207523,0.43100014,-0.022339735,0
-0.27021426,1.2670414,-0.9813723,-0.16625811,0.77958846,-0.60382122,0
1.5173701,0.59200507,-0.081052706,0.93045527,0.36301902,-0.049701728,0
0.61481363,-1.1402987,0.77713132,0.40697306,-0.75481552,0.51441854,0
-0.63516754,-1.3136249,0.58710688,-0.40384158,-0.83520693,0.37328446,0
0.48735365,0.13061962,-1.5430751,0.30019253,0.080457039,-0.95047939,0
-1.3131229,-0.59026295,0.33299363,-0.8886283,-0.39944804,0.22534645,0
-1.038763,0.86311495,-0.76841527,-0.66850805,0.55546767,-0.4945226,0
-0.80511838,1.2200831,0.55230922,-0.5152275,0.78078002,0.35344478,0
1.3308814,0.6621359,0.27467611,0.88041043,0.43801904,0.18170494,0
-0.71656907,0.74837279,-1.0960436,-0.47509688,0.49618328,-0.72669464,0
