1.4649484,1.0319693,0.41669595,0.79627699,0.56092989,0.22649629,0
0.29014209,0.74985296,1.7295829,0.15211926,0.39314216,0.90680707,0
1.403085,0.22865732,1.0986993,0.78093052,0.12726633,0.61151522,0
-0.59194678,-0.26189041,-1.6597917,-0.33226633,-0.14700201,-0.93165958,0
1.11272,-1.1263411,-1.0422057,0.58702731,-0.59421331,-0.54982674,0
-1.7655858,-0.76143247,-0.18520018,-0.91401762,-0.39418229,-0.09587539,0
0.62113398,1.3093966,-1.0685889,0.34495685,0.72719473,-0.59345818,0
-0.52254605,-1.7807921,0.45678839,-0.27340338,-0.93173522,0.23899804,0
1.1130257,-1.4537075,0.37616661,0.59548259,-0.77775156,0.20125382,0
0.41405982,-1.7370716,0.0043500722,0.23186961,-0.97274381,0.0024359997,0
-0.17237841,1.7834709,0.66668957,-0.090165772,0.93287802,0.34872454,0
0.43677491,-1.7478364,0.13406198,0.24177094,-0.96749157,0.074208222,0
-1.1806228,1.5793667,0.13383305,-0.59735847,0.79911047,0.067715362,0
-1.6820666,-0.44288111,0.54953992,-0.92211497,-0.24278903,0.30125979,0
-1.8520293,-0.50316691,0.14687942,-0.96220505,-0.26141581,0.076309875,0
1.7195247,0.34557542,-0.54903525,0.93562663,0.18803427,-0.29874068,0
-1.2470002,0.88607758,1.020231,-0.67817694,0.48189038,0.55484927,0
1.6582732,0.87002301,-0.27664956,0.87601542,0.45960677,-0.14614557,0
-0.20518294,1.212931,1.5112027,-0.10529771,0.62246335,0.7755332,0
-0.54880232,-1.1015632,-1.4194275,-0.29212284,-0.58635277,-0.75554925,0
-1.5828409,-0.052382432,-0.85716468,-0.87896812,-0.029088512,-0.4759925,0
-0.98665988,0.45105264,-1.5433339,-0.52301496,0.23909687,-0.81810027,0
0.82910436,-1.4921789,-0.39863965,0.47296956,-0.85122603,-0.22740734,0
-1.6507841,0.38440162,-0.40047878,-0.94784462,0.22071512,-0.22994629,0
0.66365778,1.6159171,0.60884106,0.35874352,0.87349206,0.32911208,0
0.99911177,0.42213956,-1.471961,0.54643649,0.23087753,-0.80504829,0
-1.2977974,-0.70771086,1.0241756,-0.72165942,-0.39353308,0.56950802,0
0.37570643,1.7092427,-0.61616009,0.20249908,0.92125142,-0.33209932,0
0.89883858,0.87454879,1.3992863,0.47835281,0.46542603,0.74468601,0
0.5622651,1.6614331,-0.58037126,0.30433494,0.89927709,-0.31413519,0
-0.42538899,1.7267423,0.11665589,-0.23868884,0.96888757,0.065456457,0
-0.74423194,1.3532158,-0.97431648,-0.40756944,0.74107194,-0.53357238,0
0.93241167,1.2855127,-0.81775826,0.52199608,0.71967411,-0.45780915,0
-0.9564954,-1.5926827,0.384404,-0.5041672,-0.83950049,0.20261873,0
1.1685414,0.066847995,1.4398422,0.62975132,0.036025777,0.77596098,0
-0.90679157,-0.75583488,1.3794395,-0.49944404,-0.41629988,0.7597698,0
1.8175182,0.084122814,0.2049513,0.99265271,0.045944374,0.11193586,0
0.57993031,0.53988963,-1.6835704,0.31167296,0.29015383,-0.90480423,0
-1.6883583,-0.60526359,0.49361852,-0.90759397,-0.32536554,0.2653496,0
0.77013415,-1.5873736,0.7345925,0.40296933,-0.83058631,0.38437232,0
-0.24479927,-1.9294429,-0.13086586,-0.12558265,-0.98980904,-0.067134514,0
0.39775062,-0.74928761,-1.6886208,0.21048018,-0.39650521,-0.89357805,0
-0.58739942,1.4462383,-0.88124955,-0.32768884,0.80680394,-0.4916172,0
-1.3169388,-1.0574859,0.50254148,-0.74735016,-0.60011315,0.28518748,0
0.10655697,-0.87784946,-1.702031,0.055555087,-0.45768011,-0.88737965,0
0.56162012,1.5762373,-0.88662261,0.29657534,0.83236533,-0.46819976,0
1.2887324,-1.2764349,0.29289478,0.70140308,-0.69471008,0.15941036,0
0.40194741,0.96646833,-1.5724814,0.21278319,0.51162964,-0.83244127,0
-1.2089769,0.98961592,1.0474,-0.64274454,0.52612275,0.55684322,0
0.180135,-0.49556553,1.8307154,0.094552182,-0.26012048,0.96093559,0
-1.5730815,-0.67505509,0.37814435,-0.89732611,-0.38506877,0.21570326,0
1.5501018,-0.1193964,1.0707576,0.82113802,-0.063248053,0.56721425,0
1.3142638,0.51723671,-1.1687253,0.71691054,0.28214461,-0.63752151,0
-1.6107415,0.96411002,-0.13524663,-0.85582292,0.51225317,-0.071859561,0
0.031692266,0.65455246,1.6863713,0.017517049,0.36178631,0.93209648,0
-0.41895398,-1.0679054,-1.4709263,-0.22459683,-0.5724929,-0.78854817,0
0.39896801,-1.4555401,-0.94764876,0.22387767,-0.81676453,-0.53176546,0
-1.6344453,0.94064862,-0.020837832,-0.86666024,0.49877641,-0.011049205,0
-0.99382615,0.98453087,-1.2758869,-0.52489591,0.51998651,-0.67386812,0
0.83002168,-0.75952876,1.5435952,0.43454215,-0.39763689,0.80812007,0
-1.0547891,-1.3377149,0.61065006,-0.58285826,-0.73919827,0.33743471,0
1.5296841,0.78483236,-0.51549435,0.85224402,0.43725935,-0.28720111,0
1.5843213,0.55561924,0.77678096,0.85643047,0.30034897,0.41990152,0
0.56666642,1.1858052,1.2407693,0.31352293,0.65607756,0.68648785,0
0.9185043,-0.60487324,1.4627249,0.50190097,-0.33052266,0.79928106,0
1.5843723,1.0400199,0.025352646,0.83590645,0.54870898,0.013375921,0
1.5720365,-0.47198454,1.0874265,0.79843414,-0.23971999,0.55230176,0
0.91877663,-0.86615455,1.4635959,0.47531137,-0.44808835,0.75716311,0
-1.511009,0.40740177,1.0001878,-0.81355888,0.21935365,0.53852206,0
-1.1621363,1.4214258,0.31980768,-0.62357199,0.76270002,0.17160045,0
-1.0764832,1.2092125,0.80472565,-0.59542459,0.66883981,0.44510996,0
-0.30006602,1.2184868,1.422449,-0.15819019,0.64236748,0.74989325,0
0.14653708,1.7289695,-0.48202595,0.081369847,0.96007091,-0.26766181,0
0.70522845,1.3769019,0.90395254,0.39359951,0.76847142,0.5045107,0
1.1508532,-0.57116413,-1.3339329,0.62139612,-0.30839658,-0.72024888,0
-0.23269498,-1.7488334,-0.14860885,-0.13142939,-0.98776567,-0.083936363,0
-0.23952906,-1.4858329,1.0324222,-0.13124202,-0.81411296,0.56568152,0
0.64074785,1.552238,0.70952475,0.35147476,0.85146207,0.38920155,0
-1.1067529,-0.65125853,-1.2712656,-0.61248952,-0.36041382,-0.70353276,0
0.76212776,-1.6413225,-0.029489018,0.42109412,-0.90687054,-0.016293399,0
0.74258798,1.2135564,-1.2833732,0.38756424,0.63336748,-0.66980559,0
0.31460559,0.72158211,-1.5863465,0.17765108,0.40746203,-0.89577609,0
1.748789,-0.5622173,-0.52336729,0.91557568,-0.29434797,-0.27400813,0
-0.48944423,0.60252541,-1.7637967,-0.25398457,0.31266516,-0.91527718,0
-0.12902971,1.2754217,-1.2753748,-0.071354352,0.70531738,-0.70529139,0
0.21809143,0.93245143,-1.6756653,0.11300099,0.4831365,-0.86822224,0
-0.66096818,-1.7044189,0.51591575,-0.34796998,-0.89729977,0.27160642,0
0.24813674,1.8293166,-0.24705419,0.13322584,0.98216915,-0.13264462,0
0.20533121,-1.5822363,1.1108931,0.10561494,-0.8138451,0.57140321,0
-0.60464114,-1.438115,1.0279241,-0.32363874,-0.76976186,0.5502041,0
0.83059788,-1.7083443,0.49202186,0.42328885,-0.87060553,0.25074393,0
-1.2414573,-0.48512948,-1.2980038,-0.66727847,-0.26075521,-0.69767195,0
1.2034171,0.32187241,1.3628606,0.65176302,0.17432405,0.73811662,0
-0.19909833,1.6721032,0.82375371,-0.10620822,0.89197683,0.43942818,0
1.6557978,-0.76345414,0.19932278,0.90273994,-0.4162347,0.10867065,0
1.8740879,-0.22157006,-0.10346629,0.99159425,-0.11723441,-0.054744806,0
-0.33531132,-1.3602818,1.153419,-0.18477395,-0.74958593,0.63559377,0
1.2302796,0.46437958,-1.2802802,0.67033976,0.2530255,-0.6975835,0
0.90614098,1.4022732,0.8795436,0.48018238,0.74309283,0.46608788,0
1.9324405,0.17793688,0.039906699,0.99557704,0.091671579,0.020559594,0
-0.095987298,1.1837413,1.5454178,-0.049248394,0.60734451,0.79291058,0
1.8746263,-0.3489356,0.029002823,0.98300046,-0.18297186,0.015208252,0
-1.145377,0.94601417,-1.1879489,-0.60215867,0.49734768,-0.62453997,0
0.53761476,1.7067381,0.61655772,0.2840538,0.90177113,0.32576406,0
0.12365432,-0.21527858,1.8270347,0.067064017,-0.11675651,0.99089372,0
-1.7169685,0.057000756,0.50602204,-0.95872343,0.031828165,0.28255334,0
0.72016597,1.4006133,0.92351478,0.39445689,0.76715869,0.50583726,0
-0.083232731,1.5597651,1.1252254,-0.043236017,0.81023455,0.58450884,0
0.53760386,-0.67904329,1.6315434,0.29104128,-0.367612,0.8832646,0
-1.7254217,0.43929955,-0.60274428,-0.91791195,0.23370421,-0.32065564,0
-0.043603297,1.2443463,-1.3058763,-0.024165904,0.68964398,-0.72374529,0
0.50501627,-0.94664741,1.5898063,0.26330563,-0.49356347,0.82889402,0
-1.1651351,1.0509318,0.9848783,-0.62893212,0.5672859,0.53163069,0
-1.6186072,-0.34319696,-1.0504968,-0.82586116,-0.17510922,-0.53599447,0
-1.0291682,0.57307374,-1.435148,-0.55430645,0.30865556,-0.77296579,0
-1.5006658,-0.52788502,-0.90120184,-0.82078069,-0.28872374,-0.49290729,0
1.0346955,-1.2795179,-0.94267118,0.54560608,-0.67470354,-0.49708065,0
-1.5668925,0.97443455,-0.093582831,-0.84809309,0.52742052,-0.050652456,0
0.5664444,-1.5515696,0.8865211,0.30216718,-0.82767773,0.47291064,0
-0.088709056,-1.1371541,-1.5208759,-0.046662796,-0.59816653,-0.80001211,0
-1.5557765,-0.41040081,-0.94338042,-0.83412325,-0.22003473,-0.50578958,0
-0.76334751,1.6839241,-0.20075184,-0.41046116,0.90546626,-0.10794669,0
-0.34348777,0.56870049,-1.6986432,-0.18832085,0.31179613,-0.93129933,0
-1.3277186,-1.2265629,0.77319413,-0.67534304,-0.62389022,0.39328459,0
0.3938759,0.42263442,-1.7114806,0.21804991,0.23397066,-0.94747663,0
1.6041206,-0.67548335,-0.83815163,0.83036196,-0.34965929,-0.4338634,0
-1.0974666,1.3602022,-0.43939918,-0.60898471,0.75477684,-0.24382281,0
-0.086196557,-1.4445106,1.1902965,-0.046002772,-0.77092975,0.63525671,0
1.6913776,-0.51973724,-0.46756378,0.92416716,-0.28398395,-0.25547642,0
-0.14272073,0.86679465,1.6450435,-0.076529764,0.46479297,0.88210583,0
0.078995042,1.8406336,-0.15780033,0.042721413,0.99543554,-0.085340209,0
0.9462055,-1.6036977,0.45365682,0.49371648,-0.83678645,0.23671164,0
1.6691688,0.41459879,0.65721029,0.90657586,0.22518109,0.3569507,0
-1.7521099,0.34841031,0.44708779,-0.95145178,0.18919796,0.242783,0
1.5505118,-0.8181811,0.50192231,0.85025847,-0.44866824,0.27524054,0
-0.78878921,1.4287852,0.85913265,-0.42767256,0.77467114,0.46581197,0
-1.1211181,-0.50470209,-1.4142914,-0.59825093,-0.26931909,-0.75469404,0
1.74501,0.045788683,-0.43838421,0.96954918,0.02544076,-0.2435717,0
0.24747732,1.0116398,1.5164305,0.13452594,0.54991621,0.82431483,0
0.59834576,1.6439884,-0.024939923,0.34197679,0.93960029,-0.01425409,0
1.400548,1.076389,-0.66059715,0.74265027,0.57076269,-0.35028622,0
-0.6852501,-0.2195549,-1.6015632,-0.39028159,-0.12504666,-0.91216427,0
-0.85380191,-0.35869554,1.6556782,-0.45006123,-0.18907776,0.87275106,0
0.025266839,-1.0448105,1.574041,0.013372868,-0.55298227,0.83308572,0
-0.16422199,-1.1485889,-1.4986615,-0.086646363,-0.60601538,-0.79071981,0
-0.89695388,-1.1560271,1.1816422,-0.47691405,-0.61466432,0.62828398,0
-1.0212058,1.3692322,0.81358594,-0.5397557,0.72370416,0.43001875,0
0.82850081,-1.5687804,-0.48155373,0.4506864,-0.85338235,-0.26195472,0
0.80523884,-1.0814147,-1.1494108,0.45449403,-0.61037362,-0.64875209,0
1.3728151,-0.92175907,-0.60947526,0.77898812,-0.52304155,-0.34583971,0
1.6536497,0.42099354,0.35665736,0.94858956,0.24149618,0.20459075,0
1.4433335,1.1463008,-0.638161,0.73997968,0.58769459,-0.32717746,0
-0.55588853,-1.4918797,0.95657766,-0.29929084,-0.80322921,0.51502216,0
-1.2679095,-1.4609265,-0.063896991,-0.65509659,-0.75482357,-0.033013947,0
0.58420187,-1.6510051,-0.27527967,0.32953265,-0.93128783,-0.15527789,0
-0.93525779,0.027174914,-1.6219285,-0.49948141,0.014512966,-0.86620301,0
1.0098212,1.3404843,-0.69105536,0.55637789,0.73856223,-0.38074851,0
-0.52497643,0.75665975,1.6356894,-0.27966985,0.40309411,0.87137818,0
-0.47852746,-1.7606027,-0.32680005,-0.25817332,-0.94987363,-0.17631391,0
-0.26222441,-0.88053602,-1.6552187,-0.13851535,-0.46512744,-0.87433976,0
-0.561378,1.6338408,0.51149422,-0.31157833,0.90682107,0.28389162,0
-0.9597128,-1.1206391,1.2059602,-0.50363392,-0.58808416,0.63285857,0
1.7536421,-0.86854565,-0.032950561,0.89598531,-0.44376451,-0.016835373,0
0.93869156,0.76692051,1.2874346,0.53085154,0.43371111,0.72807372,0
-1.7768697,-0.50805157,-0.49526766,-0.92869937,-0.26553842,-0.25885677,0
-0.81161731,-0.74953079,1.3698947,-0.46118113,-0.42590201,0.77840823,0
1.3592631,-0.18382359,-1.0292759,0.79263097,-0.10719358,-0.60020465,0
1.0965002,-0.86879945,-1.2675207,0.5808394,-0.4602215,-0.67143261,0
-0.64883953,-0.67923164,1.6428286,-0.34286326,-0.35892323,0.86811227,0
1.1243342,0.059594046,1.4193286,0.62060422,0.032894414,0.78343368,0
-1.1991208,-1.4664822,0.25625917,-0.62729377,-0.76715803,0.13405637,0
-1.3601327,1.0464127,0.11775525,-0.79072046,0.60833764,0.068457648,0
0.18352234,-1.0388006,1.3655231,0.10635733,-0.60201967,0.79136622,0
0.93649834,-1.6907073,0.042473033,0.48442507,-0.87455684,0.021970142,0
0.11282647,-1.8703899,0.37913108,0.059017047,-0.97835988,0.19831513,0
0.74622631,1.7298805,0.046304148,0.39597303,0.91793334,0.024570554,0
1.4369272,-0.20468527,-1.0456916,0.80325085,-0.11442028,-0.58454782,0
1.2775401,-0.059300743,1.2341129,0.71882492,-0.033366352,0.69439,0
1.3511467,1.0008477,-0.55803108,0.76265508,0.56492871,-0.31498078,0
-0.2859621,1.4922347,-0.97657222,-0.15832557,0.82618958,-0.54068828,0
-1.5097437,0.99378216,-0.41251493,-0.81434286,0.53603762,-0.22250703,0
1.1950481,-1.1197222,-0.74671608,0.66396654,-0.62211567,-0.41487411,0
-0.43131089,-1.7594937,-0.4429158,-0.23127267,-0.94345587,-0.23749532,0
-0.51220304,-1.7440674,0.07623484,-0.281535,-0.95863557,0.04190287,0
-1.5418218,-0.31495711,-0.88015401,-0.85510635,-0.17467766,-0.48814023,0
0.80961853,-1.5576817,0.28458571,0.45524123,-0.87587047,0.16001999,0
0.58487648,1.1134542,-1.3998494,0.31079516,0.59167397,-0.74386036,0
-1.1967679,1.0992767,-0.84459132,-0.65347439,0.60024101,-0.46117449,0
-1.0382171,0.042523239,1.391989,-0.59769046,0.024480173,0.80135316,0
1.4643407,-0.98049313,0.350218,0.8149938,-0.54570353,0.19491741,0
1.5599557,0.15887789,0.95159578,0.85048932,0.086620383,0.51881093,0
1.4803387,-0.32096332,0.90428722,0.83913231,-0.18193856,0.51259661,0
0.0089419521,-0.60895497,-1.8220774,0.0046544443,-0.31697184,-0.9484235,0
0.21133348,-0.85106015,-1.5016195,0.12153179,-0.48942015,-0.86353809,0
1.6149586,-0.50951999,-0.65481615,0.88947916,-0.28063098,-0.3606565,0
0.6650309,1.6489779,-0.075596645,0.373689,0.92658085,-0.042478681,0
-0.21161808,1.5871317,0.90054506,-0.11519454,0.86395699,0.49021274,0
-1.3876776,-0.16174525,1.1949589,-0.75482643,-0.087981239,0.64999723,0
-1.2939,-1.1367385,-0.5718711,-0.71298313,-0.62638175,-0.31512052,0
-0.46551299,-0.64229709,1.7329826,-0.24424765,-0.33700359,0.90926987,0
0.67248029,0.14724046,1.649439,0.37624794,0.082379989,0.92284942,0
-0.6461336,1.6594639,-0.10246599,-0.36223075,0.93031663,-0.057443742,0
1.4909961,-0.013684458,-0.9838528,0.83463758,-0.0076603573,-0.55074626,0
1.1938919,0.89584881,1.2682687,0.60953891,0.45737368,0.64751184,0
0.58077329,1.4807328,0.85093766,0.32195887,0.82086253,0.47172782,0
0.38538206,1.7169276,0.71965587,0.20271297,0.90311289,0.37854275,0
1.876143,-0.22906983,0.2352124,0.98503041,-0.12026842,0.12349345,0
-1.6543816,-0.66017973,0.40050438,-0.90615755,-0.3616015,0.21936902,0
-0.98643184,1.2037766,1.0547029,-0.52468854,0.64029545,0.56100231,0
-1.8015442,-0.044910323,-0.57093281,-0.95300555,-0.023757279,-0.30201986,0
-1.0990475,1.3930886,-0.45247933,-0.60017478,0.7607466,-0.24709277,0
1.408671,0.14497256,0.9781357,0.81848025,0.084233418,0.56832629,0
0.29312301,0.81124765,-1.5858079,0.16237494,0.44938913,-0.87845534,0
0.16004068,-1.3868295,1.2453545,0.085547581,-0.74131095,0.66568744,0
-0.94442266,1.0552719,1.1730237,-0.51358294,0.57386339,0.63789761,0
-0.51725578,-1.7752148,-0.14887884,-0.27884081,-0.95697784,-0.080257192,0
0.89563257,-1.409447,0.67372686,0.49737364,-0.78271133,0.37414226,0
-1.8289293,-0.28463593,-0.29006356,-0.97619116,-0.15192445,-0.15482146,0
-0.9146679,-1.4871454,-0.72181946,-0.48414499,-0.78716439,-0.38206792,0
-0.76628745,-1.3139319,-1.0933254,-0.40907377,-0.70142752,-0.58365923,0
-1.4389087,-1.1740353,-0.1097348,-0.77346611,-0.63108701,-0.058986478,0
-1.6354179,0.30960339,0.62320602,-0.92016459,0.17419772,0.3506456,0
-1.2254038,1.3375032,0.47954214,-0.65309697,0.71284199,0.25557902,0
0.90394992,-0.023806106,-1.5291995,0.50882214,-0.013400161,-0.86076736,0
1.6277218,-0.02396889,0.82550788,0.89178306,-0.013131882,0.45227259,0
-0.87492186,-1.6582211,0.3575803,-0.4583917,-0.8687802,0.18734455,0
0.049423274,-1.9103619,0.14436658,0.025789019,-0.9968251,0.075330347,0
-1.4415725,0.87741297,-0.83355123,-0.76588511,0.46615589,-0.44285282,0
-0.74152339,-1.0497528,-1.2744771,-0.40967956,-0.57997131,-0.70412779,0
1.1875386,-1.3276443,-0.61236185,0.63046885,-0.70485151,-0.32510528,0
1.4160212,-0.20266268,-1.2953596,0.73376417,-0.10501722,-0.67123884,0
0.56591177,1.7527512,-0.11589389,0.3066462,0.94974965,-0.062798522,0
-0.48639104,-0.731134,-1.7094187,-0.25309378,-0.3804459,-0.88949674,0
-0.41185883,1.6232085,0.85038215,-0.2192854,0.86424261,0.45276776,0
1.15413,-0.25793016,1.4332589,0.62111294,-0.13880911,0.77133048,0
0.071678959,0.35536861,-1.7506641,0.040093258,0.19877361,-0.97922498,0
0.86760277,-1.3168786,-1.0424838,0.45894784,-0.69660747,-0.55145705,0
1.0530019,0.18480839,1.5281252,0.56461972,0.099094272,0.81938082,0
-0.20599057,1.9096789,-0.030880015,-0.10723064,0.99410421,-0.016074929,0
-0.066766575,-1.8814524,-0.17669137,-0.035309229,-0.9949984,-0.093442507,0
-0.25832748,-0.11291627,-1.7257254,-0.14773366,-0.064575143,-0.98691678,0
-0.26215279,-1.5197709,0.89915907,-0.14684841,-0.85132009,0.50367606,0
0.48244062,0.84543318,-1.6804655,0.24842113,0.43533537,-0.86531502,0
1.5533407,-0.87020987,-0.41568378,0.8495782,-0.47594926,-0.2273525,0
0.3909713,1.7742727,0.27732152,0.21272929,0.96538997,0.15089191,0
-1.1428292,0.57988191,-1.3099573,-0.62362134,0.31643113,-0.71482009,0
-0.69395316,-1.403258,1.0008396,-0.37348282,-0.7552278,0.53864783,0
-1.8557324,-0.27763709,-0.083495364,-0.98801512,-0.14781745,-0.044453975,0
-1.0586383,-1.0334163,-0.93185663,-0.60547805,-0.59105253,-0.53296643,0
1.8826854,-0.16285591,-0.11499435,0.99444002,-0.086020976,-0.060740359,0
-1.5371677,-0.8529104,0.72198796,-0.80885559,-0.4488003,0.3799091,0
1.2792761,-1.0398287,0.49413273,0.74331832,-0.60418832,0.28711385,0
-1.5838054,0.79652387,0.33699563,-0.87766588,0.44139376,0.18674615,0
0.3032726,1.5013876,-1.183344,0.15668365,0.77568132,-0.61136633,0
0.79496491,-1.3086523,-1.0953323,0.42226312,-0.6951195,-0.58180988,0
0.71109748,-1.6223435,-0.23203225,0.39804476,-0.90812492,-0.12988265,0
0.057797521,1.7585716,-0.022220042,0.032845818,0.99938065,-0.012627453,0
0.60257483,1.6222767,0.65838927,0.3254379,0.87615728,0.35558212,0
-0.16366,-1.8794181,-0.30149296,-0.085664794,-0.98374653,-0.1578109,0
-0.77689654,-0.79402548,1.6238842,-0.39486542,-0.4035714,0.82535535,0
1.6430027,-0.0039057031,0.77619594,0.90417564,-0.0021493826,0.42715538,0
-0.028997043,-0.67233694,-1.7538209,-0.015436268,-0.35791144,-0.93362796,0
0.64893639,-1.7280691,0.43960917,0.34199113,-0.9106968,0.23167516,0
1.8310702,0.25715065,0.37681937,0.97033757,0.13627164,0.19968759,0
-1.7466992,0.62100232,0.031738456,-0.94208449,0.33493841,0.017118178,0
1.2586964,-0.069947459,-1.3420737,0.68359262,-0.037988164,-0.72887444,0
0.35339156,-0.98166758,1.591599,0.18569374,-0.51582879,0.83632439,0
1.3075947,-1.0875329,-0.53629673,0.73324585,-0.60984415,-0.30073339,0
-0.2624386,1.4549352,-0.99723619,-0.14716385,0.81586272,-0.55920553,0
1.8672534,0.26614299,0.12892261,0.98768991,0.14077723,0.068194047,0
-0.22101682,-0.55817431,-1.8172144,-0.11548515,-0.29165581,-0.94952619,0
-1.1418451,-0.69131011,1.1572797,-0.64633721,-0.39131355,0.65507394,0
1.7544551,0.0048541343,0.058508515,0.99944055,0.0027651996,0.033329882,0
-1.4880068,0.82347417,-0.62472188,-0.82129496,0.45451081,-0.34481087,0
-0.96465594,-1.4082099,-0.82127875,-0.50925964,-0.74341995,-0.43356818,0
1.5178465,-1.0298409,0.23224559,0.82095319,-0.55700707,0.125614,0
-0.61386335,1.6716725,0.54582185,-0.32957527,0.89749926,0.29304466,0
-1.6556118,-0.19765997,-0.7718662,-0.90108114,-0.10757817,-0.42009491,0
-1.7696003,-0.3391889,0.21872714,-0.97496408,-0.18687665,0.12050807,0
0.37818292,-0.32433799,-1.862353,0.196169,-0.16823885,-0.9660297,0
-1.868466,-0.24205492,-0.3753756,-0.97259718,-0.12599744,-0.19539519,0
0.15877591,-1.6299701,1.0827078,0.080874875,-0.83024955,0.55149335,0
1.312399,1.3746338,-0.019577442,0.69050753,0.72325182,-0.010300504,0
0.83187819,-0.71968681,-1.4402217,0.45903349,-0.39712587,-0.7947197,0
-1.7110547,-0.13041101,-0.65361857,-0.93180376,-0.071019046,-0.35594669,0
0.77732319,0.74260437,1.5777657,0.40714645,0.3889614,0.82640231,0
-0.079654679,0.78631496,-1.5831125,-0.045017149,0.44438893,-0.89470214,0
0.0069102407,1.8694261,0.17581689,0.0036801852,0.99559981,0.093634762,0
-1.4747593,-0.42031085,-1.0200239,-0.80074018,-0.22821337,-0.55383557,0
1.4834995,-0.83512801,-0.6683448,0.81114072,-0.45662728,-0.36543435,0
0.33234715,1.6304227,0.72759032,0.1830032,0.89777386,0.40063938,0
0.40604737,0.40212885,1.7032424,0.2260142,0.22383307,0.94805926,0
0.24916655,0.84969151,-1.5569301,0.13911258,0.47439265,-0.86925215,0
-0.40284973,1.4273707,-0.96978986,-0.2273352,0.80549043,-0.54726952,0
-0.73907602,-0.12726107,-1.6413549,-0.40955785,-0.070521526,-0.9095543,0
-0.37818697,1.8284539,-0.37729597,-0.1985344,0.95987171,-0.19806665,0
-0.64816999,1.8308225,0.038029384,-0.3336705,0.94248646,0.019577092,0
0.82163084,1.1798788,0.96755773,0.47410342,0.68082225,0.55830723,0
0.934071,-1.2793925,-1.0985023,0.48455116,-0.66368735,-0.56985021,0
-1.0016043,1.0719305,-1.0324135,-0.55833495,0.59753764,-0.57550925,0
-1.1886517,1.2630067,-0.73719674,-0.63073421,0.6701892,-0.3911787,0
0.27737671,-1.8388234,0.59243631,0.1421195,-0.94215786,0.30354658,0
0.79948133,1.4803909,-0.85062963,0.42406398,0.78523469,-0.45119426,0
-1.8185407,-0.28463331,-0.40110874,-0.9653179,-0.15108907,-0.21291657,0
-1.0197346,0.70198911,-1.4630673,-0.53206426,0.36627501,-0.76338077,0
-1.7663399,-0.63680065,-0.274414,-0.9308427,-0.33558729,-0.14461333,0
1.3044401,0.68568957,-0.97833943,0.73744482,0.38764387,-0.5530889,0
0.20867616,-0.81524134,-1.7315992,0.10838894,-0.42344627,-0.8994137,0
-0.17346647,-1.4366953,1.2726218,-0.090013824,-0.74551839,0.66037863,0
-0.34662083,-1.6358795,-0.94807136,-0.18031935,-0.85101849,-0.49320638,0
0.70458513,0.17829005,1.7074776,0.37968233,0.096075803,0.92011458,0
-0.55478978,-1.7105427,-0.54975075,-0.29503527,-0.90966064,-0.29235554,0
0.65565628,1.6942326,-0.22742689,0.35811469,0.92537749,-0.12421891,0
0.073724523,-0.26635313,1.7761279,0.04101501,-0.14817968,0.98810959,0
1.3906362,0.59463674,-0.9554832,0.77733946,0.33239073,-0.53409714,0
-0.31975722,1.8082045,-0.42210105,-0.16970909,0.9596929,-0.22402741,0
-1.8235841,-0.0092603695,-0.036317449,-0.99978882,-0.0050770426,-0.019911218,0
1.5042508,0.55836058,1.0465716,0.78522861,0.29146785,0.54631716,0
-1.4788134,-0.79946828,0.59542966,-0.82920235,-0.44827899,0.33387017,0
1.1810213,1.2256393,-0.6524151,0.64791125,0.67238879,-0.35791656,0
1.2144114,1.2754225,0.33755058,0.67724496,0.7112692,0.18824299,0
-0.085226335,1.3677357,1.2210337,-0.046433404,0.74517608,0.66524923,0
1.1859969,-0.075132206,1.4974647,0.62038547,-0.039301056,0.78331178,0
0.86710417,-1.3873526,0.87803906,0.46699774,-0.74718881,0.47288695,0
-0.65733922,1.5626836,0.84638077,-0.34690934,0.82470286,0.4466756,0
-1.5281211,-0.90472829,-0.45918009,-0.83309656,-0.49323708,-0.25033444,0
1.0254993,-1.3732264,0.74942321,0.54822809,-0.73412162,0.40063882,0
-0.16928336,-0.40676048,1.8033497,-0.091189578,-0.21911378,0.97142863,0
0.22562368,1.555017,0.82480931,0.12713879,0.87625098,0.46477947,0
0.35846341,1.4992069,1.1040891,0.18905471,0.79068637,0.58230007,0
-0.43842486,1.3826752,1.1829941,-0.23423146,0.73870361,0.63202268,0
-0.20417985,-0.30588534,1.7164052,-0.11631769,-0.17425753,0.97780597,0
-1.18479,0.75660104,-1.1680971,-0.64822775,0.41395503,-0.63909471,0
0.29987594,-1.8153188,-0.45909303,0.15813474,-0.95727915,-0.24209531,0
1.339974,1.0396364,-0.44571835,0.76413673,0.59286547,-0.25417638,0
-1.2765999,-0.0097104488,1.2831148,-0.70529461,-0.005364819,0.70889395,0
-0.021861279,-0.66860741,1.6773797,-0.012105769,-0.370244,0.92885566,0
0.56778896,0.82115775,1.5415274,0.30915719,0.44711474,0.83935106,0
-1.3075353,-1.012625,0.76939648,-0.7168448,-0.55516279,0.42181492,0
-1.33207,-1.3546078,0.40345457,-0.68585557,-0.69745982,0.20773049,0
0.829584,-1.6538988,-0.38003233,0.43918452,-0.87557948,-0.20119037,0
-0.61153066,-1.7120991,-0.1108962,-0.33574489,-0.93998319,-0.060884655,0
-0.90778476,1.3096197,-0.96780431,-0.48691607,0.70245165,-0.51910925,0
1.3275634,0.18715578,-1.3565094,0.69606471,0.098129049,-0.7112416,0
-1.4056844,-0.61540765,1.1319889,-0.73717642,-0.32273534,0.59364361,0
-1.1738738,-1.0762125,-1.0884718,-0.60854471,-0.5579164,-0.56427169,0
1.3459798,1.1754667,0.3857519,0.73624629,0.64297616,0.21100496,0
1.5807856,1.0124203,0.27443424,0.83324069,0.53365225,0.14465578,0
-0.38693899,-0.1740423,-1.7369632,-0.21640512,-0.097337425,-0.97143924,0
1.5150576,-0.27366778,1.1490828,0.7886343,-0.14245254,0.59813309,0
1.7473941,0.055366371,0.73334521,0.92169434,0.029203985,0.38681608,0
0.30767769,1.8008852,0.16140422,0.1677545,0.98189306,0.088002108,0
1.6216747,-0.6491726,-0.22302081,0.92090195,-0.36864626,-0.12664704,0
-1.2724254,0.76267093,-1.1783693,-0.6716271,0.40256226,-0.62198126,0
0.14734475,-1.6581922,-0.83271587,0.079158969,-0.89084125,-0.44736531,0
0.78958988,-1.0292611,1.2335134,0.44109198,-0.57498056,0.68908286,0
1.1544119,-0.20167474,-1.3592356,0.6432426,-0.11237392,-0.75737119,0
-0.52925491,-0.25381589,1.8467518,-0.27312312,-0.13098222,0.95302016,0
-1.0292164,0.079176351,-1.478287,-0.57082862,0.043913141,-0.81989413,0
0.41273481,1.7183278,0.86072719,0.20997176,0.87416977,0.43788019,0
1.3356515,0.72848827,-0.96104032,0.74222809,0.40482453,-0.53405482,0
1.4420897,-0.087738223,-0.96437138,0.83019602,-0.050509982,-0.55517858,0
-0.18791923,0.33794025,-1.8407675,-0.099906981,0.17966543,-0.97864133,0
-0.38574558,-1.4718609,-1.0003682,-0.21183589,-0.80828655,-0.54936182,0
0.42912579,1.0774083,1.5605087,0.22071426,0.55414838,0.80262369,0
0.91029876,1.673752,0.48171809,0.4632014,0.85168111,0.24512006,0
0.41592312,-1.7626202,0.07892824,0.22944355,-0.97234762,0.043540683,0
1.5438068,0.84305304,0.33786285,0.86190665,0.47067615,0.18862869,0
-1.8373706,0.20648855,0.39912435,-0.97136974,0.10916509,0.2110066,0
0.16620448,1.1483086,-1.3588643,0.09301658,0.64265257,-0.76049036,0
1.296286,0.81295925,-0.95681483,0.71830404,0.45048079,-0.5301947,0
-1.220013,-0.68898124,1.2617338,-0.64705116,-0.36541095,0.66917837,0
-0.91344303,1.6889536,-0.046237867,-0.4755787,0.87934369,-0.024073472,0
0.032974105,0.47947919,1.7551866,0.018119644,0.26347923,0.96449488,0
-0.098160565,0.34149507,-1.7744898,-0.054240897,0.18870102,-0.98053545,0
-1.3649658,-0.15569396,1.3087608,-0.71937746,-0.082055338,0.68975574,0
-0.25725859,1.8141195,-0.21558912,-0.13944241,0.983311,-0.11685622,0
0.031506684,-0.59559745,-1.7348206,0.017174685,-0.32466757,-0.94567227,0
1.0995936,1.4605881,-0.072929576,0.60097474,0.79827356,-0.039859116,0
0.37115756,-0.166861,1.7775785,0.20353414,-0.091502681,0.97478259,0
-0.31846842,1.5125747,0.91309637,-0.17739153,0.84252608,0.50860792,0
0.10812572,0.76949936,-1.6433949,0.059480105,0.42330262,-0.90403378,0
0.68034679,1.323543,1.1823177,0.35795268,0.69635922,0.62205601,0
-1.4756289,0.97900468,0.43579811,-0.8091439,0.53682584,0.23896483,0
-0.44442335,-1.7644321,-0.15119424,-0.24341123,-0.96638167,-0.082809277,0
-0.91052067,1.2632643,0.89817268,-0.50650191,0.70272517,0.49963301,0
1.1962029,1.4470289,0.14139698,0.63534522,0.76856768,0.075100884,0
1.0573865,0.077536322,1.4764953,0.58170938,0.042655744,0.81227744,0
-0.12158117,-1.5992585,1.002912,-0.064273424,-0.84544194,0.53018564,0
1.1498518,1.2641404,-0.81284916,0.60763633,0.66803181,-0.42954811,0
0.77690744,0.16314462,1.6791705,0.41828412,0.087836467,0.90405923,0
0.1832276,1.5585465,-0.74325979,0.10552172,0.89757496,-0.42804715,0
0.12372496,1.0308492,-1.5026153,0.067741781,0.56440967,-0.82271063,0
1.6268736,-0.79683751,-0.29284927,0.88655281,-0.43423074,-0.15958606,0
0.97211313,1.5220368,-0.5922116,0.51147455,0.80081528,-0.31159043,0
0.033284605,-1.7446804,0.61425406,0.017992137,-0.94309455,0.33203769,0
-0.31224677,-1.7684416,-0.52379304,-0.16692097,-0.94537401,-0.28000945,0
0.14002264,1.3342589,-1.2337039,0.076825678,0.7320627,-0.67689151,0
-0.73924267,1.6141279,-0.87926382,-0.37313637,0.81473893,-0.44381273,0
-1.0888387,1.1615345,-0.98654854,-0.58134389,0.62015706,-0.52672994,0
-1.8912781,-0.031746197,-0.24931243,-0.99128586,-0.016639307,-0.13067347,0
1.7259351,0.070163473,0.51502943,0.95751941,0.038925499,0.28572956,0
0.82775748,1.0699755,-1.1770818,0.46161017,0.5966863,-0.65641558,0
-0.21117011,-0.9270395,-1.5437566,-0.11647179,-0.51131266,-0.85146564,0
-0.83426613,1.4509569,-0.66959399,-0.4627938,0.80489165,-0.37144494,0
0.6865083,0.57774413,1.5508789,0.38315323,0.32244989,0.86557478,0
-0.090939358,1.7297215,0.44244677,-0.050868724,0.96755385,0.24749132,0
0.87915593,1.5186957,0.28765365,0.49439991,0.85404986,0.16176417,0
-1.513672,-0.058966953,1.01661,-0.82971442,-0.032322545,0.55725151,0
-0.84608799,-1.6170897,-0.089155793,-0.46304244,-0.88499206,-0.048792697,0
-0.78794962,0.97087944,1.4464695,-0.41210744,0.50778204,0.75652158,0
-1.7050163,0.15942235,0.47653666,-0.95920986,0.089687996,0.26809052,0
1.1109061,-0.39916691,1.2595388,0.64354312,-0.23123567,0.72964537,0
1.392061,0.46207106,-1.166118,0.74290287,0.24659403,-0.62232363,0
-0.26202729,0.525401,1.841732,-0.13555124,0.271799,0.95275974,0
-0.36510828,1.8504908,0.21748282,-0.19229762,0.97462863,0.11454528,0
-0.25541982,-1.7362322,-0.50618422,-0.13984403,-0.95059848,-0.27713919,0
-0.058962286,-0.50525039,1.7177916,-0.032911781,-0.28202251,0.95884311,0
1.3506981,1.1720349,-0.66822195,0.70751405,0.61392778,-0.35002375,0
0.093750961,-0.51266187,1.8101852,0.049769189,-0.27215469,0.96096557,0
0.99155921,0.42903355,-1.4954209,0.53746849,0.23255497,-0.81058365,0
-1.2285112,0.57805204,-1.207026,-0.67624289,0.31819293,-0.66441619,0
1.2467264,0.058990434,1.4649054,0.64781362,0.030652119,0.76118195,0
-1.4387802,0.0090568187,1.2399844,-0.75749075,0.0047682449,0.65282851,0
1.4931211,-0.66804385,-0.89814705,0.80012554,-0.35798764,-0.48129407,0
0.64891446,1.5119539,0.76790512,0.35739043,0.8327105,0.42292467,0
-1.4261851,0.16750504,1.0989724,-0.788706,0.0926333,0.60775149,0
0.57019132,-0.023435086,1.7303363,0.31294581,-0.012862195,0.9496839,0
-1.7043536,-0.51219082,-0.43939731,-0.92976922,-0.2794134,-0.23970266,0
-1.1589035,1.2459348,-0.72290462,-0.62684637,0.67392129,-0.39101627,0
-0.23041983,-1.1872554,-1.3337824,-0.12797855,-0.65941906,-0.74080229,0
1.3109779,-1.1558329,-0.74185324,0.69047064,-0.60875827,-0.39072198,0
-0.71945685,-1.4866087,0.83553404,-0.3887116,-0.80319208,0.45142633,0
-0.14699735,-1.2665319,-1.2354646,-0.082796238,-0.71337396,-0.69587523,0
-0.4969632,1.0178636,1.353579,-0.28156692,0.57669604,0.766904,0
-1.3984252,1.0865097,0.13130833,-0.78750616,0.61185473,0.073944695,0
-1.7678244,-0.0049033309,-0.27986026,-0.98769635,-0.0027395266,-0.15635996,0
-0.32435229,1.7072403,-0.45372951,-0.18059345,0.95056033,-0.25262833,0
-1.6668276,-0.67989475,-0.53515953,-0.88754416,-0.36202702,-0.28495914,0
1.0702468,0.71921265,-1.1627069,0.61641097,0.41423208,-0.66966355,0
-1.1082538,-0.34340796,1.4285419,-0.60219741,-0.18659928,0.77623391,0
-1.0324671,1.4652034,-0.23013757,-0.57132506,0.81078357,-0.12734871,0
1.0019511,0.64251572,1.4173996,0.54133791,0.34714079,0.76579797,0
1.1777967,0.36689436,1.3219787,0.65137845,0.20291029,0.73111802,0
-0.3478601,0.95195329,-1.4713478,-0.19470061,0.5328173,-0.8235274,0
-0.47138211,0.85080224,-1.6294894,-0.24839529,0.44833112,-0.85866117,0
-0.62592041,-0.15083507,-1.6346335,-0.3562724,-0.085854955,-0.93042946,0
0.1541058,0.27933449,1.9144781,0.079400092,0.14392181,0.98639858,0
-0.71465528,-1.1264076,-1.3591317,-0.37526399,-0.59147429,-0.71367717,0
-1.4709113,0.26135111,1.005483,-0.81680989,0.14513056,0.55835354,0
-0.34084353,0.63466108,-1.64949,-0.18936376,0.35260114,-0.91641361,0
1.5122896,-0.15371642,-1.181302,0.78555226,-0.079847321,-0.61362213,0
-1.7147555,-0.65696049,-0.54299259,-0.8954826,-0.34307903,-0.28356254,0
-0.54981482,0.67066652,1.6524048,-0.29462454,0.3593843,0.88545996,0
0.28156197,-1.4913644,-1.0006182,0.15488493,-0.8203873,-0.55043191,0
0.80174375,0.94372332,-1.4539006,0.41981098,0.49415466,-0.7612949,0
0.66642708,1.6980107,-0.023350805,0.36531442,0.93079621,-0.012800178,0
0.50031155,0.91158897,1.491237,0.27520013,0.50142634,0.82026613,0
1.2781653,-1.4077132,0.50823307,0.64942062,-0.71524233,0.2582272,0
0.38721237,-1.7383775,0.56147373,0.20735493,-0.93091333,0.30067313,0
0.16037232,0.56787348,-1.8419002,0.082917728,0.29360914,-0.9523226,0
0.62363797,0.64254618,-1.7676214,0.31473294,0.32427537,-0.89206988,0
-1.6257993,-0.47171849,-0.69326359,-0.88875252,-0.25786763,-0.37897652,0
1.2492012,0.82499653,1.0708508,0.67868876,0.44821915,0.58179134,0
-0.28278953,1.7739497,-0.53980714,-0.1507646,0.94575226,-0.28778934,0
-0.97559887,-1.5977365,0.356291,-0.51195097,-0.83842117,0.18696569,0
-0.38036984,-1.5961909,-1.0361146,-0.19600341,-0.82251227,-0.53390664,0
-0.99607599,0.91448879,-1.243925,-0.54213035,0.49772519,-0.67702609,0
-0.39693493,0.51513427,-1.7430075,-0.21336284,0.27689806,-0.93691188,0
-1.2137464,0.79052961,1.014847,-0.68626583,0.44697431,0.57380587,0
-1.5880483,0.45910022,-0.54798681,-0.91186464,0.26361746,-0.31465653,0
-1.2259775,1.1346772,-0.67706794,-0.68016154,0.62950891,-0.37563133,0
0.16340078,-1.1427449,1.2918465,0.094316967,-0.65960658,0.74566984,0
0.33101484,-1.5241284,0.94782478,0.18137023,-0.83510309,0.51933378,0
1.2453187,-1.333051,-0.39862186,0.66691512,-0.71389908,-0.21347703,0
-1.3817101,0.22650614,1.2499444,-0.73616236,0.12068038,0.66595888,0
-1.1460961,0.11922806,1.4943295,-0.60736388,0.063183896,0.79190719,0
-1.108367,-0.04920255,-1.3920692,-0.62264317,-0.027640333,-0.78201753,0
-0.35005295,-0.69967932,-1.5931557,-0.19722518,-0.39421001,-0.89760828,0
-1.2343613,-1.2813764,0.0073391097,-0.69376504,-0.72018957,0.0041249008,0
-0.95092219,1.2150702,-0.96503866,-0.5225203,0.66766649,-0.53027713,0
-1.2211181,1.3636651,-0.17630741,-0.66402423,0.741539,-0.095873117,0
-0.40538144,-0.043055847,1.8061848,-0.21893357,-0.023253087,0.97546268,0
1.8678697,0.057448223,-0.57806444,0.9548862,0.029368492,-0.29551619,0
-1.2896857,0.90668201,-0.95144743,-0.70039773,0.49239752,-0.51670855,0
-1.1819826,0.12567212,-1.3774892,-0.64964181,0.069071963,-0.75709617,0
0.02400328,0.35094494,1.8140136,0.012990158,0.1899253,0.98171258,0
-0.21586801,-1.1089005,1.459259,-0.11697292,-0.60088259,0.7907322,0
-0.45535904,0.60535061,-1.7503895,-0.23874959,0.31739178,-0.9177478,0
0.47814021,1.653193,0.77412069,0.25338078,0.87607634,0.41022968,0
-0.4870981,1.0510017,1.4677292,-0.26051015,0.56209743,0.78497195,0
0.26457497,-1.1647805,-1.3686571,0.14564514,-0.64119679,-0.75342828,0
-1.8021957,-0.34960076,-0.31324229,-0.9677133,-0.18772285,-0.16819967,0
-0.88464826,-0.39163163,-1.6207896,-0.46866935,-0.20747879,-0.85866266,0
1.1681299,-1.2077075,0.63742763,0.65002537,-0.67204899,0.35470721,0
1.5033028,0.57271171,-0.81528699,0.83354765,0.31755579,-0.45205832,0
0.41495487,1.3073821,-1.2677706,0.22216234,0.69995821,-0.67875063,0
0.91794747,-1.1380649,0.89504308,0.53545606,-0.66385466,0.5220955,0
-0.62933481,0.31418389,-1.7052656,-0.34116906,0.1703224,-0.92444253,0
0.97567272,0.57501495,1.4101115,0.53946626,0.31793568,0.77967495,0
-0.59880304,-0.98057473,-1.5789865,-0.30664372,-0.5021469,-0.80859023,0
-1.7672585,0.060118407,0.50365561,-0.96119279,0.032697752,0.27393284,0
-1.2791637,-1.3411404,0.48282599,-0.66789651,-0.70025676,0.2521005,0
-1.363286,-0.48133293,-1.1683735,-0.73340255,-0.25894111,-0.62854606,0
-1.1343284,-1.3644626,0.38614967,-0.62465721,-0.75138855,0.21264669,0
-0.75033975,-0.41850203,-1.711154,-0.391877,-0.21856941,-0.89367771,0
0.29328996,1.4711523,-1.2381026,0.15078814,0.75635839,-0.63654137,0
-1.530962,-0.93311006,0.24159245,-0.84624797,-0.51578194,0.13354161,0
-0.95864475,0.26858291,-1.6216542,-0.50378996,0.14114653,-0.85221672,0
-0.82088661,-0.42265379,1.4696754,-0.47295976,-0.24351504,0.84676415,0
1.167567,1.3574879,0.74210012,0.60239124,0.70037848,0.38287702,0
0.51368666,1.3585514,-1.1245168,0.27965397,0.73960316,-0.61219341,0
-1.840652,0.21981595,-0.078873716,-0.99204683,0.11847309,-0.042510167,0
1.5961837,-0.7173363,0.41978872,0.88696086,-0.39860654,0.23326649,0
0.85718322,-1.4034628,-0.63500708,0.48624346,-0.79612452,-0.36021242,0
0.30028358,-0.89159364,-1.6208701,0.16022636,-0.47573966,-0.86486953,0
-0.49507323,-0.37556791,1.70447,-0.27288604,-0.20701429,0.93950963,0
-1.6816416,-0.54645717,-0.54571831,-0.90875089,-0.29530278,-0.29490352,0
1.8318803,-0.17247996,-0.029416112,0.99546951,-0.093728028,-0.015985128,0
-1.5810136,-0.36368129,-1.0094795,-0.82743639,-0.19033559,-0.52831936,0
0.83945537,-1.5776478,0.3721911,0.45986792,-0.86426228,0.20389262,0
-1.7003971,0.74143678,-0.18348899,-0.91219729,0.39775214,-0.098434746,0
0.88133419,-0.22979645,-1.6314695,0.47168297,-0.12298521,-0.87314939,0
-1.1112001,1.0501349,-1.08232,-0.59320217,0.56060314,-0.57778484,0
0.68861854,1.7183411,-0.4739868,0.36036265,0.89922929,-0.24804319,0
-0.31570894,0.82259965,-1.6225135,-0.17099375,0.44553506,-0.87878305,0
-0.43865561,0.11979211,1.7705004,-0.23996994,0.065533198,0.96856588,0
-0.0382131,0.93599743,-1.5886108,-0.020720199,0.50752366,-0.86138868,0
-0.67151213,1.4583247,0.95202279,-0.35976225,0.78129667,0.51004571,0
0.29768586,1.250338,1.3891481,0.15729465,0.66066784,0.73401392,0
-0.76482588,1.3633906,-0.95606726,-0.41737986,0.74402785,-0.52174389,0
0.17648135,1.5949485,1.0114254,0.09303984,0.84084672,0.53321701,0
-1.1175685,-1.1569976,0.74966514,-0.62971842,-0.65193564,0.42241526,0
1.3467861,0.88204837,0.79854906,0.7494272,0.49082109,0.4443574,0
0.81517977,1.4121271,0.5453037,0.47413591,0.8213405,0.31716692,0
-0.57207769,0.39732575,-1.7118019,-0.30955213,0.2149936,-0.92625868,0
1.7638885,-0.51850444,-0.37737548,0.93981385,-0.2762633,-0.20106867,0
0.88945901,1.1967651,-1.0022793,0.49506554,0.66610956,-0.55786037,0
0.96874982,-0.06224696,1.6748509,0.50042868,-0.032155011,0.86518043,0
-0.020860357,1.768118,-0.11969942,-0.011770298,0.99764717,-0.067539483,0
0.60616195,-0.8298983,-1.5146083,0.33117169,-0.45340821,-0.82749397,0
-0.42800438,1.658235,0.42041433,-0.24271154,0.94034731,0.2384074,0
0.36414832,1.7156076,0.15257461,0.20684929,0.97452658,0.086667843,0
0.12553397,1.9439353,-0.018386461,0.064440139,0.99787694,-0.0094382903,0
-1.739494,-0.14746696,-0.8273285,-0.90042746,-0.076334439,-0.42825633,0
0.38619736,-0.36076924,1.6909035,0.21799733,-0.20364389,0.95446652,0
-0.10299151,-1.8518231,-0.35050544,-0.054564629,-0.9810909,-0.18569684,0
0.88365585,1.2422603,1.1358265,0.46481428,0.65344483,0.59745926,0
-0.87713963,1.6334609,-0.14589208,-0.47163138,0.87829959,-0.078445077,0
-1.4669273,1.2755477,0.32332572,-0.74438983,0.64727461,0.16407111,0
-1.3485585,-0.83907562,-0.91829664,-0.73505098,-0.45735011,-0.50053066,0
-1.6433949,-0.31510472,0.84543747,-0.87657988,-0.16807552,0.45095274,0
-0.95175827,1.2938584,0.85012347,-0.52371758,0.7119627,0.46779168,0
0.73256975,-1.1943096,1.1182756,0.40865311,-0.66622782,0.62381339,0
1.4800487,-0.32300493,-1.0279404,0.80845141,-0.17643596,-0.56149501,0
1.6357675,0.53995639,0.74394119,0.87177581,0.28776762,0.3964805,0
-1.18285,0.31718096,1.3402308,-0.65153682,0.17470944,0.73822522,0
1.5583228,-0.984402,0.55273014,0.80981308,-0.51156384,0.28723708,0
-0.96686101,1.5810559,-0.54371434,-0.50060934,0.81861961,-0.28151771,0
1.6092181,-0.28961402,0.97587633,0.84511018,-0.15209608,0.51249921,0
0.21078271,1.8206919,-0.29522049,0.11353914,0.98072463,-0.15902197,0
-1.3173975,-1.2033978,0.72520554,-0.68399322,-0.62480456,0.37652698,0
-1.7609767,-0.52022153,-0.28937501,-0.9473359,-0.27985865,-0.15567233,0
0.88758057,-0.36788225,1.5952817,0.47661147,-0.19754477,0.85663158,0
0.020646747,-0.051383667,1.7873722,0.011545913,-0.028734375,0.99952042,0
0.99297494,-0.32057244,1.5587041,0.52938342,-0.17090635,0.8309899,0
1.5325506,1.1894157,0.051398277,0.78971618,0.61290038,0.026485294,0
-0.18236944,-1.7170236,-0.67866808,-0.09829817,-0.92548555,-0.36580598,0
1.5608976,0.096801266,1.0476518,0.82921594,0.051424995,0.55655766,0
1.4499192,0.98340505,0.85270625,0.74413967,0.50471133,0.43763301,0
-1.1733469,-1.2888557,-0.0054485691,-0.67319077,-0.73946226,-0.0031260375,0
0.32661006,1.8138943,-0.046183847,0.17715472,0.98386419,-0.02505032,0
-0.55571336,1.8207864,0.18302858,-0.29057211,0.9520551,0.095702216,0
0.0085247997,-1.7698798,-0.45764086,0.0046631792,-0.96814787,-0.25033563,0
1.2623343,-1.1760317,0.81420255,0.66169167,-0.61645347,0.42678949,0
-0.46550044,0.067459933,-1.7377996,-0.25856391,0.037470866,-0.96526712,0
0.16405387,1.3451999,-1.2287617,0.08968132,0.73536396,-0.6717121,0
1.5873597,1.0277547,0.045348074,0.83917457,0.54333347,0.023973742,0
-0.9565044,-1.5876653,-0.32103619,-0.50847363,-0.84399605,-0.17066145,0
0.62365323,-1.6370151,0.58782375,0.33751452,-0.88593519,0.31812397,0
-0.66435683,0.79033983,1.5327305,-0.35949171,0.42766267,0.82937944,0
-1.17219,0.050899319,-1.4229436,-0.63557947,0.027598396,-0.77154201,0
-0.91253483,-1.3516659,-0.80521446,-0.50171924,-0.74315715,-0.44271362,0
-0.95473462,0.99251306,1.3985784,-0.48641223,0.50565934,0.71253896,0
-1.3379163,-0.51282007,1.3116616,-0.68874592,-0.26399463,0.67523026,0
-0.59930468,-1.6182609,-0.80230767,-0.31491658,-0.8503474,-0.42158854,0
-0.78598696,0.8279953,1.5495443,-0.40837026,0.43019626,0.80508691,0
-1.426651,-0.057705075,-1.0632384,-0.80139589,-0.032414801,-0.59725529,0
0.68226922,-1.3025515,1.2270801,0.35624564,-0.68012494,0.64071769,0
-1.8011167,0.10193823,0.58420926,-0.94983751,0.053758178,0.30808878,0
-1.1874068,-1.0527031,-1.0884053,-0.61707455,-0.5470714,-0.56562519,0
0.67186761,-1.2983105,1.1935798,0.35600668,-0.68794388,0.63244957,0
-0.887824,1.5163202,-0.6648078,-0.47257933,0.80712128,-0.35387018,0
-1.4067621,-1.0895622,-0.75043648,-0.72846413,-0.56420833,-0.38859877,0
0.037584886,0.66232038,-1.6095709,0.021589106,0.38044295,-0.92455238,0
1.6474851,0.7059136,0.42398793,0.89448947,0.38327038,0.23020099,0
-0.79944676,-1.3177969,-1.1766446,-0.41227242,-0.67958415,-0.60679227,0
1.7920654,0.05742855,0.65977496,0.93799716,0.030059068,0.3453373,0
1.1482182,-1.4017886,0.27586234,0.62644947,-0.76479346,0.15050608,0
1.5907443,0.39757061,1.1284598,0.79918224,0.19973755,0.56693274,0
-0.17162192,0.33578727,-1.7147311,-0.097750843,0.19125463,-0.97666085,0
-1.032674,-1.3738724,0.73971343,-0.55189943,-0.73424858,0.3953304,0
-0.72861999,1.3071183,-1.152078,-0.38580337,0.69211745,-0.61002386,0
1.208545,1.3214782,-0.15653345,0.67230791,0.73513216,-0.087078825,0
1.1778355,0.77719498,1.181668,0.63993257,0.42225963,0.64201486,0
-1.5978211,0.52074867,-0.8094573,-0.85659182,0.27917334,-0.43395004,0
-1.4742373,1.0428454,0.61000115,-0.77345395,0.54712552,0.32003519,0
-1.4594557,-1.078956,-0.3631869,-0.78848481,-0.5829162,-0.19621517,0
-1.0079857,1.3286263,-0.74981344,-0.55125624,0.72661102,-0.41006467,0
0.20128556,1.200983,-1.3671237,0.10994282,0.65598077,-0.74672735,0
-0.00049117283,0.027386643,1.7908273,-0.0002742394,0.015290945,0.99988306,0
-0.98006636,1.2516017,0.84432173,-0.54448837,0.69534326,0.46907368,0
1.3740593,0.94269341,-0.72178996,0.75665957,0.5191173,-0.3974714,0
-0.61306971,0.020602454,1.7271404,-0.33449215,0.011240742,0.94233149,0
0.70731354,0.6167081,1.6041965,0.38058051,0.33182892,0.86316168,0
-0.16347094,-1.8229125,-0.55872393,-0.085425399,-0.9526037,-0.29197371,0
1.5736232,0.81326568,0.084903464,0.88735491,0.45859471,0.047876459,0
0.58943462,-0.21377589,-1.8556669,0.30092657,-0.10913991,-0.9473815,0
-1.4134189,0.35628432,1.2524924,-0.73545486,0.18538809,0.6517188,0
1.7423053,0.14213747,-0.34745777,0.97756553,0.079749912,-0.19495019,0
1.5161113,1.0095205,-0.60569525,0.78983498,0.52592093,-0.31554368,0
-1.0956389,-1.4106175,-0.50481373,-0.5902912,-0.75999045,-0.27197567,0
-0.31430078,-1.8963281,0.028475842,-0.16349319,-0.98643327,0.014812583,0
-0.94833171,0.2405092,1.5490125,-0.51761794,0.13127461,0.84548128,0
-0.3487809,1.0202146,-1.4749253,-0.19090472,0.55841297,-0.80729818,0
-0.5887776,0.80641967,1.522398,-0.32339352,0.44293615,0.83619624,0
-0.96020252,-1.4568088,-0.35246342,-0.53943014,-0.81841755,-0.19800968,0
0.065278441,-1.5466988,0.90322715,0.0364215,-0.86296624,0.5039472,0
1.460104,-1.0361158,-0.27768025,0.80589485,-0.57187736,-0.15326381,0
0.98756838,0.32323301,-1.5458956,0.53018779,0.17353147,-0.82993233,0
-1.58875,0.82358956,-0.16446018,-0.88407618,0.45829484,-0.091515549,0
0.19900751,0.79972637,-1.6397318,0.1084403,0.43577537,-0.89349902,0
0.79594088,0.25868109,1.6798811,0.42409104,0.13782975,0.89506966,0
-1.3025683,0.99639159,0.71168518,-0.72861606,0.55735034,0.39809448,0
1.389269,1.3529627,0.15366165,0.7141673,0.69550371,0.078991279,0
-0.6824919,-0.93653935,1.5179058,-0.35738248,-0.49041277,0.79484159,0
0.9356814,-0.93535882,1.4387277,0.47871536,-0.47855031,0.73608506,0
0.76488215,-1.145759,1.1683805,0.42343935,-0.63429308,0.64681637,0
0.58932841,1.0800449,-1.4316405,0.31219441,0.57214952,-0.75840592,0
-1.7205352,0.41097218,0.31509784,-0.95756471,0.22872677,0.17536786,0
-0.39378595,1.6267757,-0.83448255,-0.2105528,0.86981815,-0.44618815,0
-1.0835639,-0.75903797,1.3157219,-0.58073664,-0.4068068,0.70516181,0
0.67486823,-1.2404584,-1.1327944,0.37278101,-0.68519944,-0.62572843,0
1.7910476,-0.13242829,0.32339883,0.98149163,-0.072570518,0.17722212,0
1.7536035,-0.24967802,-0.51397288,0.95079684,-0.13537443,-0.27867404,0
-0.12747864,0.66421813,-1.6519339,-0.071415514,0.3721053,-0.92543906,0
0.49638233,-1.320886,-1.1875058,0.26914945,-0.71621352,-0.64389187,0
-1.0010211,-0.2094143,1.5917174,-0.52909589,-0.11068722,0.84131199,0
-1.6224358,-0.35709873,-0.73434031,-0.89324695,-0.196604,-0.40429783,0
-0.76232439,1.6287807,0.040498655,-0.42379451,0.90547848,0.022514179,0
-1.0795521,1.4929775,0.21689168,-0.58193231,0.80478919,0.11691541,0
1.45837,0.11085837,1.0035248,0.82219517,0.062499382,0.56576401,0
1.7065369,0.41814086,-0.43221945,0.94315141,0.23109382,-0.23887464,0
0.31909019,1.4954526,0.90506595,0.17957781,0.84161192,0.5093537,0
-1.451373,1.025,0.20100617,-0.81165779,0.57321531,0.11240958,0
0.17200677,1.1446108,-1.329389,0.097583242,0.64936298,-0.75419176,0
-0.75680572,-0.83086872,1.4328769,-0.41558686,-0.45625728,0.78683978,0
0.85793328,-1.4892195,-0.84453648,0.44801661,-0.77767718,-0.44102076,0
1.8298649,-0.05226706,0.14088488,0.99664515,-0.028467519,0.076733664,0
-0.949889,-0.92994511,-1.3377703,-0.50367248,-0.49309736,-0.70934409,0
-0.050284609,0.88840139,-1.6003873,-0.02746102,0.48516649,-0.87399042,0
-0.55300373,-0.47512081,1.6443844,-0.30743536,-0.26413736,0.9141745,0
0.15112202,1.1425927,-1.3375468,0.085591838,0.64713675,-0.75755399,0
0.33960479,-1.587849,0.74909419,0.18991198,-0.88794845,0.41890445,0
0.068941467,1.8505224,-0.40404314,0.036373571,0.97633708,-0.21317348,0
1.6265829,-0.33598563,-0.68648517,0.90506613,-0.18694972,-0.38197529,0
1.6795006,-0.65444356,0.48333526,0.8999666,-0.35068601,0.25899699,0
1.7641196,0.42851362,0.43029448,0.94554579,0.22967787,0.23063239,0
-0.87000746,0.99799126,-1.3486434,-0.4603447,0.52806443,-0.71360403,0
-0.73967433,1.6478114,-0.47986954,-0.39578694,0.88171536,-0.2567699,0
-1.4502604,-1.0736203,-0.057451293,-0.80332148,-0.59469473,-0.031823151,0
1.414826,0.25860929,-1.1065724,0.77964997,0.14250849,-0.6097846,0
-0.096244983,-0.24320167,-1.7906719,-0.053183634,-0.13438985,-0.98950028,0
1.8470774,-0.38719732,0.16508512,0.97500366,-0.2043871,0.087142311,0
-1.6854091,-0.26579896,-0.62992942,-0.92665571,-0.14613907,-0.34634185,0
1.3826694,-0.29514202,-1.3848451,0.69864947,-0.1491324,-0.69974881,0
-1.7585469,0.099682771,0.2259324,-0.99028373,0.056133974,0.12722844,0
-0.44767967,-1.0369101,-1.3532977,-0.25397781,-0.58826023,-0.76775336,0
-0.63273674,0.65600717,-1.478063,-0.36437842,0.3777793,-0.85118222,0
0.45126057,-1.7273936,0.75765103,0.23267162,-0.89065051,0.39064768,0
0.29054502,1.7307953,-0.31872424,0.1628872,0.97032952,-0.17868523,0
1.6736826,0.4532378,0.43329185,0.93643975,0.25359043,0.24243051,0
0.64424914,-1.6586158,0.68908411,0.33763656,-0.86924344,0.36113355,0
0.66057128,-0.34453771,1.6912018,0.35744572,-0.18643488,0.9151364,0
1.7850335,0.45036489,0.11841116,0.9676159,0.24413,0.064187326,0
-0.75566071,1.5579128,-0.4690381,-0.42123675,0.86844546,-0.26146138,0
-1.555173,-0.98681825,-0.016759206,-0.84432358,-0.53575641,-0.0090987897,0
-0.054056961,1.6023397,-0.98403364,-0.028736077,0.8517859,-0.52310133,0
-0.40507409,1.577491,-0.81556404,-0.22239007,0.86605972,-0.44775352,0
0.46295083,1.4985148,-1.0702895,0.24381408,0.78919613,-0.56367034,0
