0.56514233,-0.53497839,-1.6966853,0.30275986,-0.28660032,-0.90895367,0
-0.36742112,-1.2973465,1.3446406,-0.19294804,-0.68129033,0.70612645,0
1.4251297,-1.2621384,0.25266722,0.74211127,-0.6572364,0.13157202,0
-0.71216124,-1.816826,-0.51938087,-0.35266802,-0.8997069,-0.25720161,0
0.32417548,0.62011641,-1.7719983,0.17015709,0.32549408,-0.93010759,0
-0.28810877,0.24277447,-1.9359723,-0.14607817,0.12309257,-0.98158514,0
0.33022514,1.1259546,-1.5265951,0.17150642,0.58477813,-0.79285562,0
-0.17403951,1.9321977,-0.47572362,-0.087128833,0.96730983,-0.23815997,0
-0.0010430811,1.5357728,-1.196543,-0.00053577253,0.78884077,-0.61459738,0
-1.9368526,-0.025295157,-0.23904923,-0.99238616,-0.012960493,-0.12248178,0
1.5468099,-1.2774224,0.45290324,0.75212473,-0.62113708,0.2202208,0
-0.61445582,0.19107805,-1.8507787,-0.3135857,0.097516112,-0.94453937,0
1.2416714,-1.3950518,-0.11809947,0.66352457,-0.74548799,-0.063110009,0
0.029927839,1.7851143,0.46134174,0.016229779,0.96806222,0.25018427,0
-0.63916457,-0.65423685,-1.742161,-0.324835,-0.332495,-0.88539779,0
-1.5281986,1.1497304,-0.14175092,-0.79691398,0.59955317,-0.073919244,0
1.1972721,0.50099075,1.4335593,0.61913234,0.25907192,0.74132103,0
-0.023844255,-0.88225019,1.6970654,-0.012465355,-0.46122479,0.88719577,0
0.81938988,0.27743813,1.7038661,0.42879832,0.1451873,0.89165723,0
-0.95653665,1.1450944,1.1132488,-0.51382709,0.61511552,0.59800887,0
1.437289,1.3531988,-0.43026957,0.71138293,0.66976267,-0.21296096,0
0.20451863,1.789444,-0.67381841,0.10635337,0.93054307,-0.35039771,0
0.84390777,1.5001379,0.73476148,0.45092869,0.80157483,0.39260811,0
1.3629,1.045939,-0.95324481,0.69368345,0.53235787,-0.48517877,0
0.15693235,-1.9308568,0.20471573,0.080560327,-0.99119437,0.10508965,0
-0.13597997,0.55103481,1.7809137,-0.072748981,0.29480243,0.95278496,0
-1.0990176,0.15843444,1.6037045,-0.56342775,0.081223771,0.82216293,0
-0.060691796,0.36111364,1.8639256,-0.031950552,0.19010444,0.98124385,0
-0.38503221,-0.86928904,1.7472934,-0.19356059,-0.43700263,0.87838656,0
0.089622788,0.051314738,-1.9040192,0.047001231,0.02691119,-0.9985323,0
1.7815484,0.53395092,-0.83543682,0.87379396,0.26188627,-0.40975571,0
-0.33271182,-0.90465456,1.737888,-0.16741922,-0.45521849,0.87449813,0
-0.46196949,0.62984514,1.8389813,-0.23121688,0.31523904,0.92041469,0
-0.97875375,-1.6960328,-0.30785513,-0.4937624,-0.85561585,-0.15530698,0
-0.59930062,-0.17297013,1.7694795,-0.31942207,-0.092191592,0.94311732,0
0.60277629,1.2250968,1.448599,0.30280554,0.61542916,0.72770578,0
-1.8201376,-0.46815187,-0.27696353,-0.95812958,-0.2464375,-0.145795,0
0.25497308,1.4972643,-1.3587033,0.12511787,0.73472273,-0.66672945,0
-0.49977031,0.39189744,1.7405549,-0.26973715,0.21151577,0.93941623,0
1.1967791,0.074288964,1.6722949,0.58159363,0.036101889,0.81267798,0
0.16368803,-1.4338822,-1.482065,0.079127803,-0.69314748,-0.71643931,0
-0.13567762,0.85223097,1.828575,-0.067101449,0.4214839,0.90434986,0
0.16720778,-1.9221945,-0.36699951,0.085134327,-0.97869092,-0.18685888,0
1.2569413,-1.2344371,0.8836937,0.63773316,-0.62631524,0.44835886,0
1.6525122,0.77854288,-0.7755509,0.83269221,0.39230368,-0.39079604,0
0.5296405,-0.24638589,-1.799276,0.27997771,-0.13024411,-0.95113033,0
-1.4342244,1.3941438,0.1973545,-0.71358991,0.6936481,0.098192573,0
-1.7305812,0.20374972,-0.94545537,-0.8729282,0.10277407,-0.47690028,0
0.68756753,0.67014951,1.7793099,0.34007204,0.33145705,0.88004959,0
-0.48119128,-1.560411,-1.009302,-0.25066403,-0.81285536,-0.52576953,0
1.046014,0.59266019,1.4431096,0.55689824,0.31553254,0.76831216,0
-1.7781178,-0.2280291,-0.75683355,-0.91378015,-0.11718485,-0.38893908,0
-1.6478108,0.49155,0.6593616,-0.89474899,0.26690799,0.35802841,0
1.249714,-0.90864873,-1.1981938,0.63915038,-0.46471685,-0.61280102,0
-1.945052,-0.24598221,-0.39150339,-0.97288978,-0.12303711,-0.19582492,0
1.3961788,0.22364479,-1.3431973,0.71589392,0.11467439,-0.68872756,0
-0.29202968,-0.57360423,-1.7841518,-0.15396661,-0.30242097,-0.94065714,0
-0.46305957,0.97615522,1.7328511,-0.22675918,0.47802094,0.84857315,0
1.1394926,-0.41480339,-1.4792811,0.59572184,-0.21685742,-0.77336174,0
0.20096606,1.4182683,-1.1461756,0.10954487,0.77308589,-0.62477046,0
-0.97189349,-1.6927459,0.35661092,-0.48981085,-0.85310304,0.17972329,0
-1.3581829,-0.58788598,-1.3298554,-0.68261719,-0.29546911,-0.6683799,0
0.99316078,1.7718843,-0.04868168,0.48880237,0.87206548,-0.023959585,0
-1.3449506,0.32170522,-1.3125497,-0.70541352,0.16873127,-0.68841958,0
-0.52237684,-1.6014985,-0.90472144,-0.27319276,-0.83755201,-0.47315142,0
0.93400562,-1.7585987,-0.15458935,0.46765015,-0.8805182,-0.077401824,0
-1.5924774,1.1335527,0.0056179925,-0.81468028,0.57990336,0.0028740549,0
0.59589893,-1.7430686,0.35210907,0.31773418,-0.9294067,0.18774508,0
1.237413,1.6217766,0.071237162,0.6062237,0.79452807,0.03489995,0
-0.14879115,-0.03909811,2.0297158,-0.07309673,-0.019207755,0.99713987,0
-1.9090672,0.26163697,0.092454381,-0.98960048,0.13562439,0.04792545,0
-0.55910122,-0.037923642,1.9703587,-0.27293223,-0.018512897,0.96185517,0
1.2027805,-0.78747445,-1.3341563,0.61325103,-0.40150261,-0.68023443,0
1.0492203,0.65637195,-1.4840593,0.54296595,0.33966899,-0.76799279,0
-0.42393574,1.489244,1.2368671,-0.21391782,0.75147194,0.62412268,0
-0.86000079,0.76612657,-1.4840906,-0.45779213,0.40782139,-0.79000509,0
0.96290195,0.076338269,1.7210354,0.48789907,0.038680334,0.8720426,0
-0.51481616,1.7991195,0.61923516,-0.26117936,0.91273916,0.31415376,0
1.5187989,-0.81311071,-1.0991031,0.74323106,-0.39789936,-0.53785098,0
-1.5058855,0.89203209,-0.94476587,-0.75711894,0.44848984,-0.475003,0
1.2828465,-0.98516166,-1.0546572,0.66436273,-0.51019722,-0.5461877,0
-1.6587414,-0.64618063,-1.0194551,-0.80858809,-0.31499422,-0.49695462,0
1.9175817,-0.24924174,0.029407067,0.99154389,-0.12887801,0.015205817,0
-0.16875102,2.0030298,0.27990383,-0.083148241,0.98694754,0.13791627,0
-0.22244248,0.9224332,-1.6378106,-0.11751877,0.48733145,-0.86527306,0
-1.7822983,0.67066216,-0.47239351,-0.90839869,0.34182194,-0.2407687,0
0.24465883,-0.045400988,1.9571286,0.12401075,-0.023012497,0.99201399,0
0.60874307,-0.82240045,1.616824,0.31815031,-0.42981511,0.84500849,0
-0.13346292,-0.48276916,1.927992,-0.066999733,-0.24235499,0.96787143,0
0.67055899,0.30028045,1.8440758,0.33780417,0.15127079,0.92898089,0
-0.65649486,-1.8412375,0.029915657,-0.3358025,-0.9418081,0.015302104,0
-0.62156165,0.20081994,1.8343689,-0.31920838,0.10313282,0.94205606,0
1.7560699,-0.31900215,-0.88255948,0.88196236,-0.16021451,-0.44325355,0
-0.19069839,-0.85751641,-1.804577,-0.095014878,-0.42725489,-0.89912486,0
1.2474217,-1.306311,-0.68198818,0.64609689,-0.67659831,-0.35323292,0
-1.4829594,-0.092712149,-1.4290559,-0.7193439,-0.044972181,-0.69319677,0
-1.6289198,0.75505602,0.65288234,-0.8526454,0.39522821,0.34174618,0
1.2017539,0.72562194,-1.3929676,0.60766768,0.36691126,-0.70435506,0
1.9154803,0.32963464,-0.32954526,0.97164631,0.16721043,-0.16716509,0
0.72203189,1.7247863,-0.28928909,0.38161072,0.91158986,-0.15289603,0
-0.70562541,1.8304471,0.24287869,-0.35696727,0.92600083,0.12286936,0
1.7971691,0.071543664,0.87206292,0.8990984,0.035792287,0.43628082,0
-0.97120005,-1.508491,0.64347714,-0.50954872,-0.79144323,0.33760598,0
-0.96077538,0.21817371,-1.7020727,-0.48853219,0.11093631,-0.86546487,0
0.63778502,-1.2726712,-1.2392926,0.33791587,-0.67429584,-0.65661097,0
0.95835835,1.6677607,-0.013645669,0.49822253,0.86702013,-0.0070939851,0
-0.68635291,-1.0248344,-1.4674807,-0.35803604,-0.53460497,-0.76551139,0
-0.7672776,0.12528145,-1.7417976,-0.4022584,0.065680943,-0.91316718,0
-0.11146753,1.9209093,0.15570237,-0.057742324,0.99506801,0.080656826,0
1.1208282,-1.0644163,-1.0499344,0.59982806,-0.56963843,-0.56188822,0
0.94695663,0.74533623,1.5468274,0.482932,0.38010898,0.78885603,0
0.49764475,-0.59613061,-1.6942991,0.26700848,-0.3198505,-0.90906662,0
-0.024648972,-0.33237439,-1.955332,-0.012426801,-0.16756685,-0.98578238,0
-1.1500938,1.6155957,0.26388177,-0.57486737,0.8075456,0.13189968,0
-0.6046949,-1.5202913,1.161638,-0.3013567,-0.75765473,0.57891572,0
0.47535256,1.9284521,0.43296304,0.23383933,0.94866002,0.21298674,0
0.57269067,0.66806388,1.725403,0.29568496,0.34492695,0.89083993,0
-1.4857094,0.30233371,-1.4116727,-0.71717703,0.1459416,-0.68143827,0
0.82498497,0.27569586,-1.7886029,0.41479534,0.13861752,-0.8992942,0
1.1104378,-0.40155223,-1.4936278,0.58321118,-0.21089858,-0.78446573,0
1.138913,-0.88488579,1.3168416,0.58316016,-0.45309001,0.67426527,0
0.68160814,0.38613811,-1.8373626,0.34124824,0.19332069,-0.91987866,0
1.5768957,1.1039691,-0.19975396,0.81482172,0.57044864,-0.1032179,0
1.6313272,-0.87338966,0.71493244,0.82235539,-0.44027752,0.36039892,0
-1.197948,-1.5937569,0.11436428,-0.59985793,-0.79805446,0.05726653,0
0.68987828,1.8510237,-0.29846078,0.34531489,0.92652005,-0.14939295,0
0.69039464,1.4588985,-0.96806145,0.36682805,0.77515799,-0.51436102,0
-1.5203335,1.0524859,-0.34785569,-0.80803168,0.55937856,-0.18487945,0
0.65607393,1.7635456,0.10457594,0.34813622,0.93580014,0.055491719,0
-1.7300431,0.35221866,0.51330966,-0.94093668,0.19156486,0.27917913,0
-1.8619367,-0.39558879,0.60955387,-0.93156767,-0.19792172,0.30497316,0
1.0349432,-0.16204806,1.6616269,0.52688342,-0.082497701,0.84592432,0
-0.20744434,-1.3694738,1.3391323,-0.1076741,-0.71082616,0.69507736,0
0.60063785,1.6163383,0.81665134,0.31480962,0.84716415,0.42802781,0
-0.095820479,1.8682557,0.3396256,-0.050397594,0.98262495,0.17862897,0
-0.98091525,1.6354884,-0.59833282,-0.49076328,0.81825382,-0.29935285,0
0.92181629,-1.7590935,0.50303489,0.44995034,-0.85863608,0.24553777,0
1.9736444,-0.19563341,-0.045578547,0.99486053,-0.098613493,-0.022974908,0
1.6581728,-0.99873114,0.11322355,0.85515779,-0.51506853,0.058391985,0
-1.5487156,0.68888646,0.94067889,-0.79890567,0.35536242,0.48524967,0
-1.5810755,-0.37363544,0.91179377,-0.8486715,-0.20055573,0.48942214,0
1.2701306,1.4511583,0.14420198,0.65677893,0.75038749,0.0745662,0
0.98061562,0.48056597,-1.5136569,0.52538538,0.25747329,-0.81097335,0
0.8483969,-1.3273308,1.1389773,0.43643445,-0.68280882,0.58591557,0
-1.7750151,-0.82102919,0.44452655,-0.88503611,-0.40937144,0.22164434,0
0.1781199,-1.8233708,-0.42916602,0.09466175,-0.96902972,-0.22808011,0
-1.7121011,-0.66018528,-0.48701218,-0.90181613,-0.34773982,-0.25652424,0
0.12577762,1.9076205,0.57565129,0.06299749,0.95545858,0.28832304,0
-0.84779614,1.1381422,1.1637838,-0.46192551,0.62012184,0.63409275,0
1.084358,1.6120137,0.023845796,0.55810362,0.8296805,0.012273092,0
0.83702046,-0.52060294,-1.6634662,0.43288529,-0.26924235,-0.86030161,0
-1.1011672,0.52476722,1.4965725,-0.57034022,0.27179873,0.77513707,0
1.7631817,0.91330808,0.08180856,0.8871941,0.45955646,0.04116426,0
-0.35346398,1.3281965,-1.4943166,-0.17409644,0.65419471,-0.73601609,0
1.4634011,0.51491022,-1.1617192,0.75506645,0.26567659,-0.59940857,0
-1.5055349,0.22556131,1.2445722,-0.76565534,0.11471154,0.63294005,0
1.5582273,-1.1934923,-0.11981555,0.79241383,-0.60693312,-0.060930453,0
-1.9376308,-0.48513848,0.029088024,-0.96995354,-0.24285419,0.014561098,0
-0.28128844,0.99557555,1.6678156,-0.14332245,0.50726694,0.84978759,0
-1.3858765,-1.4156821,0.48561931,-0.67942995,-0.69404221,0.23807625,0
-0.25488994,-1.7376097,-0.80323923,-0.13198674,-0.89976656,-0.41593218,0
0.37499312,1.4601531,1.1492594,0.19781838,0.77026778,0.60626352,0
0.031681057,1.919039,-0.088907346,0.016488884,0.99879277,-0.046273168,0
0.7797851,1.6938552,0.14051282,0.41699415,0.9057979,0.07513997,0
-0.54248846,-0.59823883,1.8160362,-0.27294967,-0.30100012,0.91372722,0
1.4656208,1.3412234,-0.47969514,0.71711314,0.65624678,-0.2347099,0
1.6570894,0.20968316,-1.0863197,0.83166903,0.10523693,-0.54520804,0
-0.75359863,0.21294172,1.6484529,-0.41292909,0.11667992,0.90325814,0
0.4546957,0.28821781,1.9703107,0.22261362,0.14110802,0.96464074,0
-1.4675006,-0.829175,-1.0067803,-0.74745184,-0.42232925,-0.51279014,0
0.78455299,1.7776741,0.31667098,0.39850554,0.90295106,0.16084974,0
-0.20523958,1.9558451,0.39782548,-0.10229146,0.97479373,0.19827633,0
1.4194784,0.89207989,0.83620679,0.75766504,0.47615924,0.44633624,0
1.6434788,-0.58667493,-0.54494637,0.89897871,-0.32090968,-0.29808429,0
0.38236722,-0.44389257,1.8268074,0.19930996,-0.23138021,0.95222831,0
1.4615957,1.2981008,0.0002657056,0.74768746,0.66405076,0.0001359232,0
0.75781512,1.8853999,-0.26976365,0.36969718,0.91978508,-0.13160315,0
-1.8219192,0.49107194,0.10587005,-0.96402568,0.25983915,0.056018643,0
1.4618038,-1.1556996,0.13516772,0.78239799,-0.61856252,0.072345518,0
-1.81708,0.35596964,-0.6395461,-0.92757517,0.18171383,-0.32647273,0
1.5918258,0.44331756,0.91004825,0.84382868,0.23500314,0.48241758,0
-1.3316015,-0.77727026,1.1746348,-0.686988,-0.40100235,0.6060071,0
-0.94788843,-0.98710281,-1.4206914,-0.48052266,-0.50040197,-0.72020543,0
-1.1309148,0.74448067,1.48751,-0.56224036,0.37012255,0.73952359,0
-0.51349622,-0.44793832,-1.7844068,-0.26883388,-0.23451193,-0.93420154,0
-0.50138164,-1.8107411,0.62883854,-0.25305513,-0.91390926,0.31738463,0
0.18363138,1.4077415,-1.4881769,0.08928328,0.68445706,-0.72356546,0
-1.5281935,-0.99681681,0.84083545,-0.76067913,-0.49617913,0.41853729,0
0.51721191,1.3906609,1.3361042,0.25903955,0.69649631,0.66917217,0
-0.21417736,-0.85534638,1.7263558,-0.11048596,-0.4412407,0.89056134,0
-1.1102184,-1.1533221,1.096036,-0.5722447,-0.59446186,0.56493461,0
-0.28355548,1.9042333,0.24296801,-0.14612493,0.98131049,0.12520894,0
0.13974698,-0.41079956,-1.9904227,0.068598531,-0.20165192,-0.97705209,0
-1.832221,0.36821961,0.29529008,-0.96838379,0.19461511,0.15606967,0
1.1578556,-1.2756621,-0.97212046,0.58533114,-0.64488584,-0.49143639,0
-0.84331423,0.59830904,1.6454777,-0.43394065,0.30786937,0.84670651,0
0.63437498,-1.6800637,-0.75593847,0.32557794,-0.86225295,-0.38796753,0
-0.74168724,-1.7901717,0.42359897,-0.37392953,-0.90253419,0.21356195,0
0.50789773,-0.52841377,-1.7884815,0.2627736,-0.27338809,-0.92531562,0
-1.5564215,-0.56820667,1.0609282,-0.79108405,-0.28880301,0.53923911,0
-0.53728145,0.99547088,1.5990043,-0.27430716,0.5082342,0.81636608,0
-1.8017632,0.68101162,-0.47769314,-0.90790898,0.34316194,-0.24070971,0
-1.0233121,1.6027676,0.080439791,-0.53765512,0.84210497,0.042263612,0
1.5518129,-1.2912523,-0.40075827,0.75397706,-0.62737888,-0.19471584,0
1.4832318,0.81799001,0.97033554,0.75981933,0.41903403,0.49707651,0
1.9131417,-0.50335252,0.35329741,0.95202458,-0.25048012,0.17580914,0
2.0259683,-0.23277254,-0.2358205,0.98688775,-0.11338794,-0.11487266,0
0.10176854,-1.7942169,0.78775102,0.051865224,-0.91440302,0.40146869,0
-0.15864612,-0.54940492,1.824385,-0.082977876,-0.28735939,0.95422184,0
-0.88369489,-0.42363346,1.5567949,-0.48038304,-0.23029026,0.84628516,0
0.75745994,1.7985917,-0.20042765,0.38609505,0.91678429,-0.10216266,0
-1.2236562,-0.96818161,-1.1951897,-0.62256753,-0.49258807,-0.60808444,0
0.37410808,1.6886132,0.92625999,0.19067974,0.860672,0.47210696,0
-1.6146312,-1.0369409,0.31159198,-0.83054584,-0.53338933,0.16027898,0
1.6852125,0.18810658,-0.80951792,0.89686626,0.1001099,-0.43082359,0
-0.98532552,-0.27810571,1.6587946,-0.50547403,-0.14266881,0.85096508,0
-0.43104336,-0.32084653,1.833178,-0.22564058,-0.16795525,0.95962358,0
0.4880898,-0.66190612,-1.6784636,0.26113415,-0.35412806,-0.89799905,0
-0.82718945,1.5454783,-0.87774521,-0.42194855,0.78834707,-0.44773701,0
0.26980919,-1.3685565,1.2652998,0.14326589,-0.7266894,0.67186117,0
-1.6296965,0.88799244,0.75722212,-0.81303853,0.44301012,0.37777019,0
-1.2581527,-1.3772153,0.40712225,-0.65896094,-0.72132027,0.21323138,0
-0.33315191,-0.96490204,1.6617405,-0.17082675,-0.49476251,0.85207295,0
0.53054416,0.35721806,-1.8296431,0.27372828,0.18430264,-0.94398379,0
-1.7599207,-0.38339153,0.83222586,-0.8869831,-0.19322565,0.41943383,0
0.53474528,-1.857504,0.131806,0.27600712,-0.95874488,0.068031259,0
1.0060406,-1.4827865,0.84445846,0.50787568,-0.74854958,0.42630479,0
-1.5542631,-1.1050395,0.45616588,-0.7926476,-0.56355125,0.23263679,0
-0.3220529,-0.6804316,1.7744676,-0.16707908,-0.35300374,0.92058289,0
1.299124,1.2473397,-0.70992899,0.67108142,0.64433151,-0.36672416,0
0.39759314,-1.4649917,-1.3609095,0.19502153,-0.71858609,-0.66753322,0
1.9912174,-0.021815643,0.25689629,0.99172151,-0.010865234,0.12794665,0
-0.070616707,0.39074492,-1.9717343,-0.035109647,0.19427297,-0.98031896,0
0.64384079,-0.4944737,-1.6655318,0.34748784,-0.26687279,-0.89890552,0
-1.061754,1.4218076,0.88647664,-0.53526413,0.7167787,0.4469012,0
0.9050675,1.5233196,-0.67565066,0.47726747,0.80328918,-0.35628954,0
1.9156243,-0.23981851,-0.019001069,0.99220645,-0.12421511,-0.0098416917,0
-0.27494976,-1.8104988,-0.54351354,-0.14393677,-0.94779986,-0.28453046,0
-1.7714601,-0.98936182,-0.020479221,-0.87301898,-0.48758179,-0.010092663,0
1.0955935,-1.5321496,0.29111788,0.574835,-0.80388689,0.15274347,0
-1.326275,-1.1059194,1.1292933,-0.64278102,-0.53598535,0.54731357,0
-0.83790046,1.7974592,0.29048106,-0.41804633,0.89679056,0.14492716,0
-0.17889096,-1.0680728,1.6361415,-0.091174349,-0.54435861,0.83388305,0
1.6954336,-0.6908536,-0.37903035,0.9068386,-0.36951768,-0.20273241,0
-1.5356172,-0.64302588,-1.0802712,-0.77377141,-0.32400981,-0.5443303,0
-0.7003932,-1.4250664,-1.0546688,-0.36742434,-0.74758589,-0.55327636,0
-1.5838785,1.0358971,-0.21654469,-0.83147573,0.54380643,-0.1136777,0
0.66048193,-0.49976078,-1.7214537,0.34574047,-0.26160824,-0.90112406,0
1.8474874,0.19721179,-0.10438196,0.99278539,0.10597581,-0.056091797,0
-1.0420408,1.6351906,-0.1564623,-0.53567201,0.8405869,-0.080431089,0
-0.45382151,-0.73321748,1.6382625,-0.24513115,-0.39604655,0.88490558,0
-0.99247718,1.5817074,0.81281435,-0.4873361,0.77666581,0.39911628,0
-0.012330906,1.3300922,-1.4942442,-0.0061638635,0.66487467,-0.74692953,0
-1.9378943,0.50140685,-0.13146727,-0.96603811,0.24995074,-0.065536283,0
-0.51391888,-0.94866991,-1.6711931,-0.2583527,-0.47690684,-0.84012723,0
-0.37084961,-0.15333989,1.9264932,-0.18845457,-0.077922702,0.97898567,0
-1.8650571,0.23827928,0.33573639,-0.97649187,0.12475639,0.17578222,0
-0.78486419,-1.1396995,1.3078543,-0.41220757,-0.5985657,0.68687993,0
-0.88433182,1.8176358,0.1491133,-0.43631077,0.89678341,0.073569372,0
0.55434597,1.5173329,-1.0958809,0.28397942,0.77729672,-0.561396,0
-0.61715895,1.6671325,0.76903796,-0.31863004,0.86071587,0.39704293,0
0.56382012,-0.36387002,1.836975,0.28829548,-0.18605594,0.93929172,0
0.14283682,1.4093225,-1.290609,0.074537225,0.73543358,-0.67348474,0
-0.53917283,-0.82067877,1.7235075,-0.27181426,-0.41373038,0.86887521,0
-0.1189038,1.9370888,0.51094174,-0.059248488,0.96523058,0.25459677,0
0.88277334,1.5368967,0.86224294,0.44788313,0.77975857,0.43746683,0
0.63564152,-0.46551135,1.8557231,0.31529087,-0.23090291,0.92047572,0
-1.4694172,-0.66476804,1.1593716,-0.73978937,-0.33468255,0.58369452,0
-1.7757521,-0.013806813,0.72261554,-0.92622119,-0.0072015473,0.37691173,0
-1.3284516,1.3465925,0.62988955,-0.66632336,0.67542249,0.31593934,0
-1.0954989,-1.3973619,0.92863667,-0.54671824,-0.69736552,0.46344417,0
-1.2660041,-1.3124276,-0.63835496,-0.65527236,-0.67930079,-0.33040679,0
-1.7010334,0.90114647,-0.43695107,-0.86173785,0.45651782,-0.22135797,0
-0.37557927,0.73468876,1.8829299,-0.18269382,0.35737622,0.91591763,0
1.72497,-0.32489002,-0.7491926,0.90383643,-0.17023335,-0.39255616,0
-0.78098845,-1.7671936,-0.46269816,-0.39310697,-0.88950878,-0.23289701,0
-0.9137674,0.90541315,-1.5552735,-0.45273641,0.44859719,-0.77057785,0
-1.2266626,-0.51357186,-1.3827006,-0.63941443,-0.26770627,-0.72075135,0
1.6419668,0.72687572,0.55654609,0.87341791,0.38664988,0.29604575,0
-1.6692843,-0.88700408,-0.08356782,-0.88221091,-0.46877855,-0.044165298,0
0.74097168,0.29579911,-1.8332975,0.37060094,0.14794549,-0.91693348,0
-1.2251842,0.25757092,-1.3797976,-0.65759391,0.13824621,-0.74057966,0
1.5357815,-0.53365868,1.0418261,0.79532355,-0.27636179,0.53952259,0
1.0938802,-1.5790883,-0.17700852,0.56704175,-0.81856227,-0.091757059,0
1.8451858,0.20087363,-0.50230581,0.95960724,0.10446633,-0.26122916,0
-1.4798571,0.043917473,-1.4015974,-0.72587544,0.021541685,-0.68748879,0
-1.5130806,1.1419051,-0.33650112,-0.78591323,0.59311998,-0.17478295,0
1.7276514,0.81368017,-0.095293231,0.90355968,0.4255538,-0.049838252,0
1.6695548,0.13723604,1.0909179,0.83515865,0.068649359,0.54570806,0
-1.112846,1.2175611,1.1661755,-0.55088371,0.60272002,0.57728297,0
1.4758896,0.26460093,-1.1294469,0.78621483,0.14095443,-0.60166281,0
0.70883709,-0.61197847,1.7312139,0.36013284,-0.31092271,0.87956321,0
-0.94276518,1.473173,-0.89754778,-0.47956687,0.74937534,-0.45656565,0
-0.66097242,1.660876,-0.83925015,-0.33470777,0.84104586,-0.42498529,0
-0.24492091,-1.3781273,-1.1799923,-0.13378258,-0.75277132,-0.64454448,0
-0.047462184,-1.8619584,0.70373446,-0.023837453,-0.93515182,0.35344428,0
1.7982234,-0.52545118,0.43245324,0.93526626,-0.27329016,0.22492139,0
0.3874048,-1.1470801,1.4110663,0.20836097,-0.61694306,0.75892484,0
0.7960068,-1.2000537,-1.3232846,0.40701488,-0.61361247,-0.67662299,0
-1.5484508,0.59768492,-0.89226431,-0.82170939,0.31717074,-0.47349384,0
-0.71956009,0.9988336,1.5526122,-0.36315307,0.50409895,0.78358412,0
0.13305217,-1.934024,0.30735523,0.067786612,-0.98533481,0.15658948,0
0.3862063,1.6693077,0.90690744,0.19921772,0.86108303,0.46781224,0
1.2937521,-1.4136608,0.25652951,0.66915876,-0.73117834,0.13268305,0
0.47596368,1.7545153,0.47269824,0.25339061,0.93405801,0.25165218,0
1.3187218,1.4341893,-0.67426085,0.63963228,0.69563866,-0.32704324,0
0.17030279,1.5732824,1.1541195,0.086950175,0.80325854,0.58924985,0
1.8825676,0.76338595,-0.078993648,0.92600811,0.37549862,-0.038855847,0
-0.30188638,-0.76252395,-1.8377674,-0.15000916,-0.37890273,-0.91319764,0
1.9410216,0.10798443,0.081193447,0.99758637,0.055498507,0.041729301,0
0.41503045,-1.055609,1.565087,0.21472032,-0.5461303,0.80971402,0
-1.4903961,1.1626962,-0.58158332,-0.75359255,0.58789688,-0.29406735,0
-0.94348633,1.4988815,0.64624083,-0.50043774,0.79502672,0.34277475,0
-0.45572129,1.3201365,1.2813746,-0.24044137,0.69651222,0.67606115,0
0.93713713,-0.12463657,-1.679088,0.48633441,-0.06468109,-0.87137544,0
0.40338182,1.4656727,-1.1760371,0.20987913,0.76258796,-0.61189085,0
-1.6197877,-0.19185975,-1.0769953,-0.82870764,-0.098158322,-0.55100691,0
-1.1802956,-1.7103697,-0.080960311,-0.56754053,-0.82242459,-0.038929448,0
-1.306947,1.5631115,-0.266877,-0.63601202,0.76067179,-0.12987289,0
-1.7977335,0.0054181283,0.41388297,-0.9745031,0.0029370219,0.22435485,0
1.4858596,0.73099422,1.0896491,0.74956793,0.36876282,0.54969257,0
1.1802014,-0.62787604,1.5417621,0.57835406,-0.30768871,0.75553572,0
-0.20463149,-1.8567613,-0.10375215,-0.10937699,-0.99245214,-0.055456262,0
-0.92251956,0.71841633,1.4403603,-0.49725899,0.3872427,0.77638692,0
-0.38266227,0.60615659,-1.7992326,-0.19757712,0.31297228,-0.92898422,0
-0.37514994,-1.3607023,-1.3282973,-0.19355579,-0.70204407,-0.68532497,0
-1.8064294,-0.10929819,-0.50684065,-0.96119028,-0.058156915,-0.26968688,0
-0.20015676,-0.88444233,-1.6387279,-0.10687034,-0.47223312,-0.87497121,0
0.66760528,1.8648425,0.46385294,0.32816979,0.91668683,0.22801276,0
1.4862115,0.81837553,0.96317244,0.76178277,0.41947216,0.49369025,0
-0.31923926,-0.57056701,-1.7733681,-0.16890505,-0.30187908,-0.93826437,0
-1.5196939,-0.51423335,-1.0596802,-0.79039013,-0.26745185,-0.5511378,0
-1.6707944,-1.0097438,0.24182737,-0.84935457,-0.51330703,0.12293385,0
0.52165896,0.19501813,-1.8950032,0.26411176,0.098736115,-0.95942491,0
0.33798048,0.27091643,-1.9091874,0.17264085,0.13838445,-0.97521532,0
1.2927525,-1.4277183,0.65967548,0.63498825,-0.7012822,0.32402658,0
1.5790206,0.9520939,-0.58648103,0.81608325,0.49206948,-0.30311024,0
0.61473632,0.67531258,1.8673586,0.29573175,0.32487321,0.89833182,0
0.77060235,1.6496689,-0.50658035,0.40773985,0.87287009,-0.26804096,0
-1.997385,0.52453446,-0.085718095,-0.96637255,0.25377965,-0.041472029,0
0.7232666,-1.3643968,-1.2790707,0.36070052,-0.68043876,-0.63788581,0
-0.62538105,-0.18946742,1.9108571,-0.30967146,-0.093819037,0.94620371,0
-0.66743791,1.2593914,-1.2984577,-0.34616524,0.65318066,-0.67344236,0
0.9390741,1.1450654,-1.125881,0.50480247,0.61553383,-0.60522115,0
1.7776868,0.67363834,0.48982546,0.90553594,0.34314466,0.24951221,0
0.25351462,1.9939829,-0.076306611,0.12603375,0.9913004,-0.037935518,0
0.62140512,0.9278025,-1.5802004,0.32114947,0.47949922,-0.81666613,0
0.77531195,1.4898497,-0.93270671,0.40357286,0.77551091,-0.4855015,0
1.8313574,0.24228692,-0.38947082,0.97003716,0.12833504,-0.20629571,0
0.8690666,-1.6832637,0.065876611,0.45848474,-0.88802248,0.034753863,0
1.0512848,-1.4525877,-0.78442359,0.53714418,-0.74218619,-0.40079394,0
-0.87669653,1.5203404,0.54611236,-0.47698209,0.82716781,0.297122,0
1.7613527,0.84492761,-0.12530883,0.89977801,0.43162695,-0.064013377,0
0.32398826,-1.4829652,1.0704582,0.17442852,-0.7983976,0.57631236,0
0.66046274,1.7328705,-0.13408461,0.35521945,0.93199706,-0.072115295,0
0.70797783,1.8381802,-0.085089833,0.35907999,0.93230844,-0.043156799,0
1.7053341,0.73082763,0.17492226,0.91509277,0.39216661,0.093864359,0
-1.5775546,-0.34560183,1.0218444,-0.82547146,-0.18083966,0.53469044,0
-0.527017,-1.521564,-1.1280962,-0.2680535,-0.77390403,-0.57377684,0
1.8402388,0.40899295,-0.22815458,0.96910948,0.21538451,-0.12015113,0
0.28081891,-1.7009183,-0.93501425,0.14318863,-0.86729252,-0.47676063,0
-0.35574773,1.5803488,0.9964031,-0.18705752,0.8309713,0.52392381,0
1.9491988,-0.097739786,0.11476184,0.99702299,-0.04999429,0.058701135,0
-1.259697,1.4110384,-0.082327664,-0.66533917,0.74527377,-0.043483328,0
-0.097327158,-0.7894994,1.842782,-0.048490368,-0.39334464,0.91811144,0
0.47003546,-0.72994173,-1.7094066,0.24516222,-0.38072476,-0.89159638,0
0.75339794,-0.52958882,-1.7629726,0.37878111,-0.26625803,-0.88635862,0
-1.0158994,1.2480776,0.95561522,-0.54279238,0.66684461,0.51058269,0
1.8243368,0.19583431,0.63070261,0.94028711,0.10093558,0.32507241,0
1.2239448,-0.6336652,1.3325844,0.63842851,-0.33052954,0.69509661,0
0.60293454,-0.3001453,1.7463663,0.32212508,-0.16035625,0.93301731,0
1.3122458,0.24019909,1.3555311,0.68997282,0.12629557,0.71273202,0
0.90749812,-1.6605327,-0.51449287,0.46276689,-0.84676713,-0.26235896,0
-1.6306473,-0.40869749,0.74124163,-0.88754839,-0.22245079,0.40345195,0
1.7914152,-0.58946133,-0.6369741,0.89995086,-0.2961269,-0.31999582,0
0.0097785452,-1.4757991,1.2996092,0.0049726013,-0.7504757,0.66087937,0
-1.6608894,-0.24287924,0.73396993,-0.90659469,-0.13257538,0.4006367,0
-0.28396544,-0.66277605,1.8906876,-0.14033285,-0.32753721,0.93435866,0
-1.9372046,-0.53408831,0.28005958,-0.95480418,-0.26324001,0.13803501,0
-1.6855605,-0.020217841,-1.0084493,-0.85809523,-0.010292619,-0.51338744,0
-0.94249415,1.3872194,-0.99385095,-0.48346305,0.71158993,-0.50980711,0
-0.16915388,1.7112392,-0.96929276,-0.085693069,0.86691087,-0.49104205,0
1.6052504,-0.36164188,-1.1359282,0.80283129,-0.18086737,-0.56810993,0
-1.3447124,-1.2694685,0.27006203,-0.71952611,-0.67926478,0.14450428,0
1.2748337,-0.78522605,-1.1431662,0.67674398,-0.41683635,-0.60684848,0
0.62868398,0.48180348,-1.8064673,0.31872669,0.24426202,-0.91583264,0
-1.3680403,-0.95285487,-1.0964183,-0.68559891,-0.47752705,-0.54947442,0
1.1561388,-1.5500226,-0.16355023,0.59575981,-0.79872864,-0.084277645,0
0.28501418,-0.78426003,1.7443337,0.14739709,-0.40558559,0.90209442,0
-0.18211405,-0.67938536,1.9276953,-0.088749163,-0.33108309,0.93941867,0
-0.37938046,-0.29525638,1.94982,-0.18891481,-0.14702471,0.97092474,0
1.1450756,1.6668149,0.11245781,0.56536663,0.82296884,0.055524625,0
1.7107613,-0.38459131,0.84866709,0.87819725,-0.19742499,0.43565232,0
1.4702058,-0.98341,-0.65420431,0.77958167,-0.52145654,-0.34689409,0
-1.4120774,-0.47577706,-1.4724239,-0.67407382,-0.22711846,-0.70288098,0
0.87005872,0.074842043,-1.6826557,0.45894805,0.039478496,-0.88758558,0
-1.9258832,-0.22829176,0.24783394,-0.98503691,-0.11676504,0.12676032,0
-1.4579917,1.2604167,0.098100781,-0.75552601,0.65314335,0.050835468,0
-0.6465925,1.2908765,1.2702053,-0.33624443,0.67128837,0.66053879,0
-0.55820614,-1.5029488,-1.1601567,-0.28206578,-0.75945133,-0.58623594,0
-1.2992357,1.2216907,-0.92657745,-0.64646697,0.6078825,-0.4610416,0
-0.86859667,-1.7459418,-0.045390561,-0.4452976,-0.89508021,-0.023270072,0
-1.0333755,1.4344099,-1.0616058,-0.50111908,0.69559431,-0.51480889,0
-0.000907026,1.7569444,-0.95765233,-0.00045328913,0.87803859,-0.4785898,0
-1.7805284,0.5773989,0.18083052,-0.94682568,0.3070415,0.096159644,0
-0.97853959,0.55321634,-1.5720954,-0.50632447,0.28625003,-0.8134473,0
-0.26357639,1.4020375,1.4722995,-0.12856853,0.68389243,0.71816516,0
-0.61159962,-0.4055922,1.7504641,-0.32222122,-0.21368623,0.92223191,0
1.2566644,0.14088179,1.5366782,0.63146311,0.070791893,0.77216762,0
-0.81889355,-0.03133402,-1.8677814,-0.40148711,-0.015362442,-0.91573584,0
1.8413134,0.46156877,-0.6740064,0.91408008,0.22913581,-0.33459586,0
0.84461474,-0.19561425,1.7021919,0.4421463,-0.10240185,0.89107829,0
-0.87764853,-0.89024824,1.4962921,-0.45012358,-0.45658565,0.7674101,0
-0.14948377,-1.4816992,-1.3225499,-0.07505291,-0.74393255,-0.66402674,0
1.8689286,-0.70800579,0.18005477,0.93137425,-0.35283229,0.089729689,0
-0.65928048,0.040257089,1.8295685,-0.33893627,0.02069618,0.94058168,0
-0.67913556,1.8131427,0.0027541493,-0.35076401,0.93646276,0.0014224795,0
-1.5186071,-0.87760842,-0.76744181,-0.79321116,-0.45839953,-0.40085641,0
0.76829755,1.7539734,-0.21873251,0.39863595,0.91005999,-0.11349072,0
0.47148424,-1.129077,1.6147709,0.23271905,-0.55729902,0.79703182,0
0.65926391,1.5383475,1.1191105,0.32744738,0.76407617,0.55584687,0
1.0092456,-1.5040866,0.84613633,0.50482476,-0.75234431,0.4232375,0
-0.75109255,-1.0557364,-1.3002292,-0.40918776,-0.57515472,-0.70835191,0
1.7900779,0.60495675,0.53472686,0.91156447,0.30806318,0.27229989,0
0.33635038,-1.999558,-0.30755159,0.16400601,-0.97499377,-0.14996359,0
0.79121733,-1.1646124,-1.4051428,0.39776376,-0.58547831,-0.70639867,0
-1.4139862,1.0592108,0.67814708,-0.74719304,0.55971903,0.35835341,0
-1.6849722,-1.1078858,0.040187426,-0.83539885,-0.54928297,0.01992468,0
-0.43895081,1.0679804,-1.6738523,-0.21586186,0.52519834,-0.82314664,0
0.86794227,1.7158341,-0.26271307,0.44722489,0.88411838,-0.13536824,0
-0.18088366,-0.5513469,1.7724818,-0.096986204,-0.29562119,0.9503693,0
0.87454379,1.5780702,0.73571587,0.44884357,0.8099156,0.37759268,0
-1.6375183,-0.31194398,0.95889902,-0.85150516,-0.16221003,0.49862495,0
0.38533825,-0.9080044,1.584205,0.20648399,-0.48655531,0.84889829,0
-1.0654708,0.061582863,1.6618164,-0.53947687,0.03118108,0.84142286,0
-0.15321961,-1.9958422,-0.30723014,-0.07565821,-0.98552561,-0.15170698,0
0.77551627,0.38789451,-1.6654714,0.41301829,0.20658177,-0.88698357,0
-0.13454953,1.9347827,-0.53070116,-0.066914968,0.96221757,-0.26393142,0
0.32866398,-0.38236374,1.9399586,0.1639704,-0.19076119,0.96784496,0
-0.45150012,-0.38525254,1.7965291,-0.23863228,-0.20361832,0.94952315,0
-0.52008349,-1.6776375,0.91364956,-0.26269156,-0.84736621,0.46147978,0
-0.7088185,-0.84036142,-1.6916029,-0.35134175,-0.41654396,-0.83848089,0
0.87504804,-1.5327908,0.79803872,0.45175108,-0.79131639,0.41199434,0
0.7018671,1.7733026,-0.31837344,0.36299571,0.91712689,-0.16465823,0
-1.3982576,1.0954643,0.9371419,-0.69622797,0.54545951,0.46662676,0
-1.3085275,1.3417617,0.40336028,-0.68255609,0.69989175,0.2104014,0
1.3437698,0.80013388,1.1521119,0.69177455,0.41191006,0.59310883,0
1.5170165,-1.2961279,0.075428806,0.75974613,-0.64912158,0.037775952,0
-1.4919204,-0.41975668,-1.0986085,-0.78533411,-0.22095633,-0.57829809,0
1.0296806,1.3327985,-0.96427226,0.53056484,0.68675274,-0.49686179,0
-0.31054178,-1.726263,0.85213232,-0.15925115,-0.8852573,0.43698806,0
-1.3930094,-0.27775532,1.3257558,-0.71693718,-0.14295174,0.68232393,0
0.94167721,1.1899842,1.3698215,0.46063185,0.58209395,0.67006344,0
1.0691785,-0.74252087,1.4421924,0.55033398,-0.38219479,0.74233395,0
0.78648698,0.14069688,-1.7776748,0.40353978,0.072190374,-0.91210979,0
-1.6309812,0.27759382,1.1960809,-0.79890883,0.13597469,0.58588022,0
-0.33596772,1.3917043,1.4039674,-0.16754796,0.6940465,0.70016211,0
1.5046703,0.06558349,-1.2958059,0.75732654,0.033009306,-0.65220153,0
-1.5388736,0.27504075,-1.3043426,-0.75585067,0.13509214,-0.64065576,0
0.89320225,0.3812229,-1.74137,0.44797456,0.19119765,-0.8733626,0
-0.47758529,-1.0024742,1.7074338,-0.23448339,-0.49219176,0.83831072,0
0.079285875,-0.95754075,1.7514626,0.039688647,-0.4793224,0.87674099,0
-0.26889828,0.76918507,-1.719637,-0.14130826,0.40421307,-0.90368342,0
-0.19318296,1.9722158,0.044228002,-0.097461417,0.99498916,0.022313168,0
-0.90496641,-1.7192053,-0.32024485,-0.45959368,-0.87311071,-0.16263865,0
-0.80724972,-1.6744602,-0.49265045,-0.41977277,-0.87072533,-0.25618002,0
-1.6381677,-0.24747628,1.0116794,-0.84388584,-0.12748495,0.52115661,0
1.2463253,0.44986713,1.4469683,0.63523364,0.22929066,0.73749846,0
-0.25643802,1.5042155,-1.2336123,-0.13068911,0.76659691,-0.62868875,0
0.26855719,-1.9367057,0.34754983,0.13523294,-0.97523516,0.17500997,0
1.3337027,-1.4073801,-0.26792473,0.68137771,-0.71901888,-0.13688053,0
-0.65152913,-1.5452058,0.90148294,-0.34220824,-0.8116017,0.47349364,0
1.4658928,1.3292078,-0.21805614,0.73634291,0.66768372,-0.10953332,0
-1.3393867,-1.4178255,0.24937773,-0.6811676,-0.72105896,0.12682523,0
-1.9115703,-0.16623309,0.2628538,-0.98702186,-0.085832939,0.13572216,0
0.81806898,0.5050559,-1.7413641,0.41126823,0.25390702,-0.87543684,0
0.2873981,1.5843838,1.0499707,0.14950597,0.82420468,0.54620022,0
1.1231854,0.8151564,1.3382887,0.58257616,0.42280704,0.69414639,0
-1.6344841,0.80775046,-0.2998758,-0.88461387,0.43716991,-0.16229849,0
0.61759782,-1.8779335,-0.26326206,0.30967623,-0.94163442,-0.13200501,0
-0.16589081,-1.5214683,1.4052371,-0.079841271,-0.73226458,0.67632389,0
-1.4023128,1.0306481,0.74351567,-0.74098676,0.54459792,0.39287618,0
-0.58547854,1.1120839,-1.4814318,-0.30137071,0.57243693,-0.76255602,0
-1.96934,-0.25512016,-0.29450557,-0.9809835,-0.12708251,-0.14670148,0
-1.675967,-0.85717934,-0.32758868,-0.87712872,-0.44861066,-0.17144577,0
1.084354,1.4596243,-0.75841135,0.55038995,0.74086738,-0.38494989,0
-0.82101327,1.5681696,-0.71625489,-0.42995951,0.8212406,-0.3750982,0
1.5110735,0.77922624,1.0183406,0.76247305,0.39319,0.51384479,0
-1.7303243,-0.5480029,-0.47378266,-0.9224233,-0.29213637,-0.25257009,0
0.54552615,1.8852623,0.53438514,0.26819637,0.92684919,0.26271912,0
1.1049529,-1.5847473,0.41533557,0.55916721,-0.80196965,0.21018273,0
0.71840727,0.0064147329,-1.8968887,0.35417736,0.0031624865,-0.93517298,0
1.357963,-1.2331636,0.61310863,0.70212418,-0.63759762,0.31700304,0
0.59290934,-0.40421712,1.8650118,0.29670689,-0.20228052,0.9332993,0
0.059989013,1.7584085,-0.84320408,0.030747054,0.90126312,-0.43217984,0
1.4729816,-1.4586259,-0.038162258,0.71044046,-0.70351654,-0.018406212,0
0.7570008,-1.8116648,0.12250949,0.38479576,-0.92089856,0.062273562,0
0.51029509,1.1916757,1.4257741,0.26481342,0.61841023,0.73989367,0
0.32207772,1.0333229,1.6821873,0.16101381,0.51658112,0.84096283,0
-0.90438527,0.020187942,-1.7215722,-0.46503451,0.010380631,-0.88523167,0
1.5007567,1.044958,0.63330162,0.77547574,0.53995401,0.3272416,0
-0.43605492,1.6215661,1.0103956,-0.22250828,0.82744598,0.51558048,0
1.6476611,0.089202359,-1.149768,0.81926453,0.044353984,-0.57169777,0
-0.72992462,0.60735673,1.7567182,-0.36552331,0.30414516,0.8797093,0
-0.77094877,1.6949707,0.61473227,-0.3931579,0.86437798,0.31349275,0
-1.2074568,0.77573186,1.3540331,-0.61195976,0.39315414,0.68624711,0
1.8508418,-0.54849267,0.54728043,0.92243069,-0.27336019,0.27275604,0
0.6470446,-0.7291742,-1.6340986,0.34004903,-0.38321158,-0.8587873,0
0.27534947,1.8402976,-0.26853505,0.14645785,0.97885072,-0.14283328,0
0.46117613,-1.0296406,1.6838286,0.2275334,-0.50800031,0.83076125,0
-0.17707303,1.6631842,-0.96412635,-0.091720894,0.86150181,-0.49940148,0
1.5499249,-0.20232007,1.032882,0.82728332,-0.10798977,0.55130804,0
-0.51542521,0.62660128,-1.764629,-0.26537979,0.32262161,-0.90856421,0
-1.0908204,-1.1685129,-1.1979185,-0.54607135,-0.58496469,-0.59968531,0
-0.37816569,-0.62963438,1.8080845,-0.1937753,-0.32262999,0.92647779,0
-0.34349293,-1.8729428,-0.58583641,-0.17241356,-0.94010884,-0.29405597,0
-0.41208318,1.8570536,0.093959913,-0.21636838,0.97506452,0.049334589,0
0.80025798,-1.6780659,-0.69629526,0.40310556,-0.84527457,-0.35073751,0
-0.31927365,-1.0455298,1.5807669,-0.16611964,-0.54399425,0.82248074,0
1.8762621,0.59808558,0.055096254,0.95239264,0.30358887,0.027966917,0
-0.7305969,-0.65670282,1.5461942,-0.39882576,-0.3584877,0.84405243,0
-0.74114442,-0.70483941,-1.5978926,-0.39065242,-0.37151629,-0.84223884,0
1.6522567,0.77075684,-0.74138767,0.83949089,0.39161187,-0.37668976,0
0.24396089,0.18307325,-1.981319,0.12169696,0.09132389,-0.98835713,0
0.10451404,-1.9578319,0.41806176,0.052134618,-0.976623,0.20854126,0
1.1511297,-0.84569788,-1.287015,0.59870988,-0.43985286,-0.66938472,0
-1.1406171,1.5776898,-0.27747819,-0.58002514,0.80228478,-0.14110285,0
-1.0298262,-0.68617606,-1.5766344,-0.51381242,-0.34235466,-0.78663206,0
0.075075671,-1.081653,-1.605149,0.038757995,-0.55840594,-0.82866198,0
0.46933848,0.83576965,-1.6284339,0.24837986,0.44229987,-0.86178786,0
-0.66457343,-0.078404188,1.7929016,-0.34726894,-0.040969647,0.93687016,0
-1.2779191,-0.81038398,-1.1990664,-0.66189796,-0.41973826,-0.62105626,0
-1.3420753,0.10285461,1.3241297,-0.71079308,0.054474097,0.70128864,0
-0.39767608,0.16244823,-1.8917536,-0.20499673,0.083739899,-0.97517383,0
-0.28263208,1.8402466,0.27685121,-0.15015291,0.97766101,0.14708172,0
1.3000945,1.4043107,-0.062728643,0.67898899,0.73341709,-0.032760739,0
0.48186532,-0.60629231,1.7386261,0.25317168,-0.31854555,0.91347295,0
-0.52700788,1.4658829,1.1320131,-0.2736825,0.76125336,0.58787012,0
-0.75224352,0.2369422,1.7318137,-0.39530542,0.12451359,0.91007143,0
-0.086214036,-1.8455042,-0.83668751,-0.042508852,-0.90994769,-0.41253868,0
0.41644746,0.2017145,-1.8003371,0.22403476,0.10851563,-0.96852094,0
1.1402105,1.3455467,-0.84779823,0.58267075,0.68760169,-0.43324211,0
0.57880175,1.3224143,1.3377675,0.29409182,0.67192477,0.67972577,0
1.5311078,-1.1841027,0.15279929,0.78858805,-0.60986513,0.078698374,0
1.3618022,1.3733467,0.052946482,0.70385224,0.70981908,0.027365575,0
-1.5245543,-1.0773671,-0.024962891,-0.81658906,-0.57706451,-0.013370743,0
1.3483887,1.4083927,-0.62813592,0.65823817,0.6875301,-0.3066349,0
-0.77750862,1.4670502,1.0679914,-0.39384004,0.74312115,0.54098147,0
-1.7596213,-0.77993864,0.25077847,-0.90655637,-0.40182418,0.12920099,0
-0.94038624,-0.88968486,-1.3589163,-0.50104833,-0.47403404,-0.72404581,0
0.55328107,-0.81993705,1.6872745,0.28288659,-0.41922492,0.86268508,0
1.1103915,-1.2849898,0.85260206,0.5843277,-0.67620754,0.44866967,0
-0.68108189,-1.3369644,1.0709293,-0.3694644,-0.72525895,0.5809437,0
1.7587953,-0.055502094,0.89990103,0.88988632,-0.028082039,0.45531714,0
1.6444778,0.61082751,-0.77700871,0.85710824,0.31836566,-0.40497994,0
-0.39578289,1.8817455,0.51694715,-0.19876684,0.9450348,0.25961697,0
1.6461837,-1.1676221,0.16518806,0.81293774,-0.57660884,0.081575103,0
0.28304172,-1.793606,0.47948551,0.15071107,-0.95504045,0.2553114,0
0.19654378,0.77208221,-1.7411883,0.10264429,0.4032172,-0.90932941,0
1.4414229,0.074214906,-1.3617636,0.72639894,0.037400283,-0.68625492,0
-0.59674108,-0.55919516,-1.7026407,-0.31592691,-0.29604936,-0.90141273,0
0.75863194,-0.11157562,-1.8215055,0.38386023,-0.056456156,-0.9216637,0
1.0859638,-1.4336753,0.70733076,0.56190985,-0.74182606,0.36599389,0
-0.060854949,1.7142692,0.90732485,-0.031359948,0.88340211,0.46756524,0
0.59663725,0.40482199,-1.6951091,0.32389358,0.21976376,-0.92021567,0
-1.8597579,0.65282553,-0.05860211,-0.94313902,0.33106741,-0.029718887,0
-0.20973405,1.8717356,0.71304804,-0.10414288,0.92940527,0.35406211,0
-0.50957423,-0.56235749,-1.852204,-0.25457808,-0.28094804,-0.92534214,0
1.1127188,-1.6113392,-0.21175539,0.56494123,-0.81809705,-0.10751086,0
1.6685001,0.22705245,0.78462458,0.89814955,0.12222178,0.42236149,0
0.21853042,0.76808417,1.7973961,0.11110906,0.39052281,0.9138636,0
1.51486,1.1791694,-0.16997766,0.78603834,0.61185348,-0.088198885,0
-0.78740108,-0.78612077,-1.5066249,-0.42040908,-0.41972551,-0.80441701,0
0.37804151,-1.9137332,-0.024751419,0.19378075,-0.98096287,-0.01268736,0
-1.9526114,0.37682632,-0.31238797,-0.96998799,0.18719392,-0.15518324,0
0.50523186,1.7198814,0.72782665,0.26114506,0.88897508,0.3762002,0
-1.5005453,-0.24828203,-1.1483451,-0.7873677,-0.13027881,-0.60256088,0
0.41021389,-0.27632436,-1.9204175,0.20685622,-0.13934051,-0.96839797,0
0.14983904,0.19033429,1.9871855,0.074848585,0.095077038,0.992652,0
-1.2521919,1.6025888,-0.099954955,-0.61495358,0.78703403,-0.049088046,0
-0.63659918,-1.7932668,-0.018124498,-0.33452475,-0.94233882,-0.0095241927,0
-1.0645407,-1.0770453,1.0981308,-0.56908888,-0.57577366,0.58704567,0
-1.1430014,-1.0068445,1.1892952,-0.59145826,-0.52100241,0.61541343,0
1.6309541,-0.67111564,0.71624511,0.85680646,-0.35256431,0.37627265,0
-0.79677343,-1.7521584,0.19411933,-0.41185918,-0.90570605,0.10034198,0
-1.614785,-1.0042245,-0.63942426,-0.80489504,-0.50055915,-0.3187232,0
-0.95441425,1.5222758,-0.98122925,-0.46620393,0.74358797,-0.47930229,0
1.9431961,-0.31196001,0.06865146,0.98675722,-0.15841365,0.034861293,0
1.209518,-1.1106852,1.0607688,0.6186986,-0.56814319,0.54260969,0
-0.16506048,1.1648046,1.5387497,-0.085216805,0.60136098,0.79441994,0
-1.3106289,-0.74826974,-1.0705662,-0.70831692,-0.40439525,-0.57857728,0
-0.65170181,-0.74916375,1.5962603,-0.34666908,-0.39851341,0.84912163,0
0.21401933,-0.57003945,1.7329043,0.1165197,-0.31034964,0.94345438,0
-1.3268822,-1.3212004,0.58284193,-0.6766029,-0.67370564,0.29720238,0
-0.31938252,0.098239861,-1.918051,-0.16404331,0.050458591,-0.98516178,0
0.67439544,-0.65712732,1.6693609,0.35186902,-0.3428593,0.87099695,0
-0.776393,1.2915125,-1.3304002,-0.38623384,0.6424914,-0.66183698,0
-1.8725773,-0.11389601,0.54369712,-0.95870584,-0.058311492,0.27835733,0
-1.3131655,1.5776793,0.22049466,-0.63607448,0.76420033,0.10680377,0
1.6309521,0.86941439,-0.78105032,0.81284612,0.43330526,-0.38926572,0
-0.85946786,-1.5794793,-0.7762264,-0.43882582,-0.80644822,-0.39632452,0
0.54852545,-1.8074861,-0.15485626,0.28942543,-0.95370674,-0.081708774,0
-1.2899555,0.84247065,1.3093842,-0.6379801,0.41666517,0.64758909,0
-1.7302639,-0.67636162,-0.71015632,-0.86997378,-0.34007347,-0.35706541,0
1.2139715,1.5758226,-0.18917033,0.60753816,0.7886284,-0.094671249,0
-1.8295701,0.57931101,0.35417724,-0.93751782,0.29685357,0.18148933,0
0.83643782,-1.7441189,0.1466554,0.43118292,-0.89909166,0.075600721,0
0.93182522,1.409355,-0.7559514,0.50342882,0.76141959,-0.40841109,0
1.0525572,1.359525,1.0550485,0.52177733,0.67394847,0.52301228,0
1.3803267,0.24897783,1.4240754,0.69057071,0.12456238,0.7124579,0
0.95843178,-1.549507,0.79580146,0.48206466,-0.77935916,0.40026611,0
-1.246652,-0.60517323,1.3329171,-0.64836258,-0.31474036,0.69322759,0
0.88225794,-0.94980192,1.5472829,0.43707278,-0.47053427,0.76652783,0
1.809306,-0.25622189,0.59789604,0.94103092,-0.13326254,0.31096932,0
-0.37904581,-1.454698,1.23957,-0.19453971,-0.74660242,0.63619113,0
-0.59736139,1.8449653,0.48139051,-0.29896206,0.92335165,0.24092199,0
-0.24286158,-0.079090603,1.9207476,-0.12533785,-0.040817682,0.99127406,0
-0.88337243,0.92974496,-1.4353732,-0.45892921,0.48302066,-0.74570441,0
-1.5364521,0.51035321,-0.9406321,-0.82057285,0.27256429,-0.50236332,0
-1.2447062,-0.057289261,1.5139127,-0.63481402,-0.029218163,0.77211237,0
-0.73710555,1.1021045,-1.448934,-0.37530479,0.56114775,-0.7377395,0
1.5784569,1.0381913,0.3332617,0.82277936,0.54116297,0.1737145,0
0.080069564,-0.33069807,1.983019,0.039796043,-0.16436301,0.98559684,0
-1.069881,0.69094968,1.4845201,-0.54697961,0.35324991,0.75896496,0
-0.093252346,-2.0151448,0.3820731,-0.04541884,-0.98148239,0.18608987,0
-0.17302023,1.7010491,-0.94837725,-0.088490993,0.86999959,-0.48504645,0
0.75674105,0.26658392,-1.8401574,0.37696412,0.13279651,-0.91665876,0
-0.38969204,-0.71391732,-1.857127,-0.1922102,-0.35212982,-0.91600209,0
-1.1442658,-0.11467947,1.7308701,-0.55063665,-0.055185359,0.83291882,0
0.77013987,1.7245216,-0.21364994,0.40518323,0.90729916,-0.11240474,0
0.35778111,0.4283607,-1.9344012,0.1777081,0.21276464,-0.96080744,0
-1.4427253,0.41693464,1.1886811,-0.75327575,0.21768992,0.6206342,0
1.6635212,0.81991029,0.90247881,0.8065446,0.3975268,0.43755946,0
-1.7344769,-0.94946575,0.31192869,-0.86645955,-0.47430649,0.15582426,0
-1.7056105,0.40444919,-0.64642525,-0.91292018,0.21647957,-0.34599614,0
1.4181057,-1.3253977,0.40182662,0.71541548,-0.66864556,0.20271619,0
0.75417787,-0.12938227,1.7782737,0.38957104,-0.06683249,0.91856837,0
-0.34408373,0.86892295,1.817927,-0.16833149,0.42509159,0.88936019,0
0.70753902,-1.7572577,0.18686122,0.37169546,-0.92315012,0.098164856,0
1.4449434,-0.026477845,1.3161042,0.73923033,-0.013546016,0.67331642,0
1.8238028,0.71478915,0.23312441,0.92452323,0.36234134,0.11817557,0
-0.39845324,-0.33004087,1.9286028,-0.19954613,-0.16528508,0.96584791,0
-0.65896755,-1.3851737,-0.98619825,-0.36135453,-0.75958031,-0.54079628,0
-1.9938786,-0.24766138,0.12408666,-0.99048686,-0.12302922,0.061641768,0
1.1612866,-0.04708102,1.4177907,0.6334458,-0.025681235,0.77336079,0
0.50558585,1.7651228,0.33754432,0.27081975,0.94549739,0.18080741,0
1.0865493,0.20825079,-1.5281374,0.57593781,0.1103857,-0.81000662,0
-0.8188687,-1.4905003,-0.76816219,-0.43882036,-0.79873842,-0.41164744,0
1.5249829,-1.1637033,-0.44007403,0.77484775,-0.59128064,-0.22360274,0
-0.65639794,-1.7383442,0.076968797,-0.35295194,-0.93472564,0.041386917,0
0.75943577,1.2874608,1.3595726,0.37585074,0.63717449,0.67286319,0
1.5214928,-0.068945579,1.3485529,0.74792755,-0.033891909,0.66291463,0
0.065186873,1.2630453,1.586169,0.032132957,0.62260056,0.78187984,0
0.89395511,-1.6368315,-0.5430094,0.46021304,-0.84264994,-0.27954423,0
0.025742551,1.4033629,1.2190816,0.013846787,0.75486171,0.65573776,0
-0.18526572,-1.5180022,-1.0751108,-0.099106349,-0.81204259,-0.57512158,0
0.11895095,1.19006,-1.6169071,0.059145328,0.59172702,-0.80396587,0
-1.1436622,-1.4558046,-0.62392634,-0.58540797,-0.74518472,-0.31937006,0
-0.25368813,1.6611454,1.0787768,-0.12704238,0.83187133,0.54023176,0
-0.064968601,-1.9086024,0.45886049,-0.033078704,-0.97176313,0.23362839,0
0.15045355,-1.7593518,0.85007805,0.076772131,-0.89774674,0.43377042,0
0.21242636,-2.0126731,0.078947373,0.10488163,-0.99372053,0.038978819,0
-1.2325761,-1.3637036,-0.51308179,-0.64585167,-0.71456057,-0.26884729,0
0.42355162,-1.845937,0.36314395,0.21963811,-0.9572342,0.18831293,0
0.75796056,-1.255901,1.2021056,0.39965522,-0.66220778,0.63384277,0
0.61308295,-1.6396649,-0.68657184,0.32604557,-0.87199533,-0.36512792,0
-1.2070594,-0.90778089,-1.2865106,-0.60840368,-0.45755598,-0.64845008,0
-0.47978747,1.1192728,1.3842651,-0.26023355,0.60708612,0.75081617,0
1.4546195,1.0459731,0.807302,0.74021751,0.53226811,0.41081467,0
-1.4591446,0.20708747,1.4339035,-0.7096225,0.10071238,0.69734704,0
-0.2314322,0.91457677,-1.7905749,-0.11434963,0.45188835,-0.8847152,0
-1.9886942,0.17055188,-0.37102026,-0.97956342,0.084008083,-0.18275201,0
1.608088,-1.1245787,-0.27258635,0.81169707,-0.56764138,-0.13759044,0
-0.049550354,1.8893113,0.30950686,-0.025873017,0.98651528,0.16161087,0
-0.76129293,-1.5774276,-1.0849749,-0.36949807,-0.76561391,-0.52659905,0
-1.0043303,-1.5419911,0.79285425,-0.5012241,-0.7695508,0.39568424,0
1.6639631,-1.03071,0.32817471,0.83841646,-0.51934099,0.16535649,0
1.2864308,-1.3079885,0.87976801,0.63226688,-0.64286226,0.43239647,0
0.58289963,-1.7278625,0.61738676,0.30277142,-0.89749134,0.32068482,0
-1.2585844,0.34618059,1.4852171,-0.63651419,0.17507674,0.751131,0
0.31779692,-1.7620301,-0.92054456,0.15785323,-0.87521982,-0.45724463,0
-0.8963213,-0.84591657,1.58937,-0.44565734,-0.42059574,0.79024607,0
-1.9056584,0.40612379,-0.47840005,-0.9498257,0.2024218,-0.23844603,0
-0.9305194,0.21792012,-1.7680893,-0.46297964,0.10842609,-0.87971228,0
-0.068351321,-1.3996779,-1.2620711,-0.036243472,-0.74218297,-0.66921657,0
-1.102209,-1.6682698,-0.31449169,-0.54454857,-0.82421201,-0.15537526,0
0.31859857,-1.631047,0.93922132,0.16690035,-0.8544367,0.49201843,0
1.3797878,-1.2930709,0.54965591,0.70066458,-0.6566292,0.2791186,0
-1.52509,-0.54569608,-1.1189502,-0.77467316,-0.27718765,-0.5683735,0
-1.8260045,-0.67137152,-0.44145688,-0.91530293,-0.33653167,-0.22128466,0
-1.0602471,-0.052517358,-1.7223355,-0.52404571,-0.025957625,-0.85129452,0
