-1.8696154,0.64901978,-0.61674231,-0.90191704,0.31309217,-0.29752129,0
-0.38656268,-1.9655296,-0.34326118,-0.19020204,-0.96710771,-0.16889623,0
-1.413817,-0.98866731,-1.22031,-0.6690495,-0.46785924,-0.57747769,0
0.71712029,0.35807732,-1.9039794,0.34713566,0.17333411,-0.92165732,0
1.2456303,1.6263218,-0.66910213,0.57800686,0.75465822,-0.31048188,0
-1.7159162,1.2726542,0.21326014,-0.79922545,0.59276652,0.099330574,0
1.3545612,-1.0228974,-1.1511867,0.66045624,-0.49874377,-0.56129503,0
-1.0746607,1.6040767,0.7885682,-0.51527232,0.76911384,0.37809831,0
0.60568321,-1.4511514,-1.3974332,0.28791463,-0.6898123,-0.66427708,0
1.2436633,-0.70093,-1.5778637,0.58447528,-0.32941088,-0.74153692,0
0.99960911,-0.68622273,1.8028847,0.46008238,-0.31584245,0.82979983,0
1.4411587,0.9052223,1.1204023,0.70729488,0.44426692,0.54987341,0
-0.92384368,-1.6662128,0.82212913,-0.44522464,-0.80299187,0.39620569,0
-1.0872395,-1.5495665,-0.93950838,-0.51448137,-0.73325431,-0.44457504,0
-1.5464903,1.3558569,-0.013716528,-0.75191432,0.65922701,-0.006669071,0
-1.9279481,0.069234222,-0.59120995,-0.95549506,0.034312624,-0.29300487,0
1.9915,-0.56109375,-0.52383041,0.93308669,-0.26289183,-0.24543267,0
-1.1758623,-0.020606328,1.7490469,-0.5578987,-0.0097768623,0.82985145,0
1.3927925,-0.3050988,-1.5253916,0.66704381,-0.14611959,-0.73054892,0
-1.3359632,-0.85725403,-1.394951,-0.63220221,-0.40566829,-0.66011631,0
-1.5136327,1.4644576,-0.25981095,-0.713278,0.69010496,-0.12243224,0
-1.5203397,1.3977953,0.36568284,-0.72487682,0.66644937,0.1743525,0
-0.086387649,-1.2210459,1.6216526,-0.04251799,-0.60097033,0.79813969,0
1.4500974,-0.999385,1.0809468,0.70175141,-0.48363635,0.52310687,0
-1.6737618,-0.83012038,-1.030535,-0.78444922,-0.38905612,-0.48298532,0
0.38988161,-1.9667078,0.37903523,0.1910722,-0.96383917,0.18575662,0
1.44865,1.1320074,-0.96919602,0.69703299,0.54467708,-0.46633872,0
-0.92697227,0.16007066,-1.9278413,-0.43213391,0.074621394,-0.89871687,0
-1.285908,-0.66998744,1.516883,-0.6127975,-0.31928152,0.72286832,0
-0.87464315,0.26355177,-1.9325148,-0.40918228,0.12329682,-0.90408391,0
1.9589452,-0.6342085,0.27100801,0.94324797,-0.30537653,0.13049255,0
0.04197621,0.88782758,1.9206078,0.019834697,0.41951838,0.90753013,0
-1.5716475,-1.1349473,-0.83908951,-0.74400884,-0.53727746,-0.39722013,0
-1.9056079,-0.81760442,0.6388613,-0.87824786,-0.37681377,0.29443547,0
0.48817345,-1.2271694,1.6794434,0.22848825,-0.5743733,0.78605884,0
-0.81320351,0.29110533,1.8854305,-0.39212099,0.14036892,0.90914124,0
-1.7572671,1.1799241,0.42084941,-0.81427217,0.54674637,0.19501075,0
1.4932611,-1.512693,-0.21869867,0.6988318,-0.70792574,-0.10234886,0
-0.83736271,1.8225254,-0.52310985,-0.40398037,0.87926596,-0.25237107,0
-1.6606703,1.109315,0.33034271,-0.8203935,0.54801661,0.16319376,0
0.30299801,-0.14295246,2.0613232,0.14508815,-0.068451636,0.98704803,0
-0.64116114,-0.57744557,1.8947767,-0.30795494,-0.27735183,0.91007674,0
1.0470273,-1.3229828,1.3456455,0.48516601,-0.61303681,0.62353814,0
0.013962122,-0.63685054,1.9432441,0.0068274876,-0.31142038,0.95024776,0
-1.8306848,0.51318944,0.81465238,-0.88505733,0.24810502,0.39384937,0
1.0646219,-0.68771809,-1.6370062,0.51423419,-0.33218193,-0.79070753,0
0.45703074,-2.0014188,-0.68967068,0.21103267,-0.92414957,-0.31845352,0
1.7929498,1.0435945,-0.2255474,0.85919648,0.50009918,-0.10808419,0
0.64566708,1.6727165,-0.97623205,0.31626433,0.81933951,-0.47818354,0
-0.10726047,-0.13075401,2.0022414,-0.053380121,-0.065072104,0.9964518,0
-0.27490279,2.0271783,-0.38195363,-0.13209595,0.97409719,-0.18353587,0
0.94030273,-1.8100204,0.20715636,0.45864293,-0.88285726,0.10104278,0
0.12779404,-2.0304022,-0.72350681,0.059184674,-0.94033092,-0.33507442,0
2.013,-0.17190386,0.36259216,0.98070437,-0.083749063,0.17664963,0
-1.9443212,0.48225558,0.3631683,-0.95502287,0.23687707,0.1783831,0
-0.78659523,-0.79441953,-1.6995047,-0.38667682,-0.39052314,-0.83544761,0
-0.7058726,0.080110088,-1.9979123,-0.33288741,0.037779678,-0.94220942,0
-1.1731248,1.6382334,0.77889293,-0.54304904,0.75835162,0.36055592,0
-1.2120432,-1.5967786,-0.40989539,-0.59235054,-0.78037876,-0.20032436,0
-1.7253314,-0.92088729,-0.43756863,-0.86091679,-0.45951018,-0.21834077,0
0.86082268,1.8909752,-0.41313195,0.40636137,0.89265686,-0.19502375,0
1.7467233,-0.911237,-0.8568356,0.81303978,-0.42414957,-0.39882758,0
-1.706928,0.86204487,0.72303373,-0.83493549,0.42166504,0.35366842,0
-1.5771624,0.98075789,-1.104308,-0.72991562,0.4538978,-0.51107717,0
-1.7458526,1.2353483,-0.2057693,-0.81255829,0.57495838,-0.095769569,0
1.7836431,-0.87107348,-0.83600062,0.82812041,-0.40442717,-0.38814333,0
2.063297,0.71213692,0.13944568,0.94335735,0.3255952,0.063755773,0
0.79326004,0.22017936,-1.8188192,0.39733374,0.11028501,-0.91102308,0
-1.5983576,0.49390265,1.2322886,-0.76925749,0.23770545,0.59307581,0
-2.0911844,0.24347703,-0.43215105,-0.97300303,0.11328695,-0.2010747,0
0.56143296,-1.5041165,-1.3872043,0.26460591,-0.70889693,-0.65379566,0
1.969113,-0.10441901,0.83868223,0.91893333,-0.04872961,0.39139098,0
-0.94793093,-0.89686704,-1.7878588,-0.42825851,-0.40518874,-0.80772316,0
-1.6335754,-0.2999731,-1.3337891,-0.76688218,-0.14082241,-0.62614745,0
1.8066225,0.42789584,0.96997887,0.86246622,0.20427383,0.46305966,0
1.9302005,0.34216014,0.65755576,0.93352926,0.16548358,0.31802267,0
1.6691377,-1.0355899,0.68439114,0.80242747,-0.49785337,0.32901675,0
-1.8780931,-0.34303573,0.6887446,-0.92535132,-0.16901641,0.3393499,0
2.0277755,-0.22798179,-0.68986052,0.94139576,-0.10584066,-0.32026809,0
1.6332085,-0.28527084,-1.2907597,0.77729452,-0.13576923,-0.61431253,0
0.95447916,1.4093813,-1.248134,0.45220116,0.66771895,-0.59132528,0
1.3678468,-1.5012162,0.2839829,0.66702014,-0.73205668,0.13848211,0
1.1917608,1.6405894,-0.14853495,0.58615118,0.80690134,-0.07305488,0
-0.56344569,-0.50899994,-1.9289622,-0.27179831,-0.24553446,-0.93050444,0
0.74601489,1.8594671,0.0019699023,0.37234896,0.9280923,0.00098321238,0
1.0108962,0.45556569,1.811828,0.47589782,0.21446586,0.85295111,0
-1.9839071,-0.93341744,-0.010855352,-0.90484029,-0.42572242,-0.0049510179,0
0.73813319,-0.71927708,1.8231169,0.35245413,-0.34345046,0.87052727,0
0.83009052,1.9440515,-0.35928157,0.38713822,0.90666813,-0.16756199,0
0.23028518,-2.0896783,-0.2951031,0.10847467,-0.98433244,-0.13900682,0
-0.5978021,1.2986428,-1.542116,-0.28428239,0.61756432,-0.73334706,0
-0.2685301,1.5413551,-1.2964967,-0.13215442,0.75856262,-0.63805801,0
1.0050591,1.8152418,0.30259937,0.47931677,0.86569619,0.14431088,0
-0.62730706,-0.88657039,-1.6825656,-0.3132408,-0.44270188,-0.84017575,0
-0.23581153,-1.866769,0.96043855,-0.11162402,-0.88365591,0.45463428,0
1.1148714,-1.498803,-0.78658092,0.55005544,-0.73947972,-0.38808346,0
1.3865421,-0.7288447,-1.4195813,0.65589076,-0.34477317,-0.6715197,0
1.2798514,-1.1303332,-1.1894857,0.61501843,-0.54316908,-0.57159412,0
1.7468314,-0.98858654,0.78886533,0.80998385,-0.45839518,0.36578697,0
-1.5971503,-0.58864909,-1.2323409,-0.76002568,-0.28011668,-0.5864262,0
-1.9852245,-0.044552576,0.42909315,-0.97719377,-0.021930266,0.21121398,0
1.1958846,-0.84296572,-1.5822732,0.55491722,-0.39115497,-0.73421019,0
1.9216205,0.68043929,-0.64214879,0.89909506,0.31836653,-0.30045101,0
1.2676107,-1.1978132,-1.1625729,0.6047793,-0.57147878,-0.55466563,0
-0.95786184,-0.21479595,-1.9412968,-0.44031972,-0.098739594,-0.89239514,0
1.9671426,-0.22068045,-0.56823474,0.95518917,-0.10715622,-0.27591881,0
-0.47262961,0.97165078,-1.8394752,-0.2215441,0.45545918,-0.86224997,0
0.73215514,-0.0030832211,2.0791152,0.33215401,-0.001398753,0.94322413,0
-0.50516242,-1.9825149,0.31288135,-0.24408115,-0.95789886,0.15117601,0
0.047815729,-0.89018804,-1.8951724,0.022830566,-0.42503792,-0.90488762,0
2.0802135,0.31153774,0.064089768,0.98851204,0.14804192,0.030455289,0
-2.0757253,-0.10479639,0.148132,-0.99620092,-0.050294835,0.071092851,0
1.9717755,0.21999717,0.6428991,0.9454357,0.10548522,0.30826011,0
-1.1220291,0.49383435,-1.6961473,-0.53614229,0.23597024,-0.81047481,0
0.74319595,-2.0156629,-0.38412488,0.34054354,-0.92360699,-0.17601179,0
1.2168888,0.93727309,1.4316478,0.57954222,0.44637546,0.68182099,0
-0.87038642,-1.5087526,-1.3401785,-0.39604014,-0.68650728,-0.60980326,0
-0.27230984,0.12113846,-2.1028373,-0.128215,0.057037115,-0.99010485,0
0.97080249,-1.5471426,-1.0537063,0.46039054,-0.73371238,-0.4997066,0
0.23360677,1.1558813,-1.8319937,0.10722187,0.53053153,-0.84085661,0
-0.37215334,0.34119222,-2.0724382,-0.1744699,0.15995495,-0.9715836,0
0.6546964,1.708586,-0.82570732,0.32614022,0.8511405,-0.41133016,0
-1.0235252,0.69551235,-1.7657899,-0.47468138,0.32255849,-0.81892222,0
-0.1845026,2.1223435,-0.2272688,-0.086118117,0.99062145,-0.10607959,0
1.305449,-1.2299266,1.0551571,0.62733901,-0.59104639,0.50706017,0
-0.90276599,1.2848583,-1.3059599,-0.44201335,0.62909383,-0.63942564,0
1.734373,-1.0543342,-0.2193455,0.84955198,-0.51644695,-0.10744251,0
-1.8713646,-0.9130311,0.33939156,-0.88703036,-0.43277848,0.16087225,0
-1.2043443,1.465297,0.99974048,-0.5617103,0.68341953,0.4662824,0
-1.965089,0.71815968,-0.1078716,-0.93799645,0.34279937,-0.051490381,0
-1.2302611,-0.85519224,-1.4234523,-0.5952875,-0.41380262,-0.68876708,0
1.3171784,0.6170302,1.4395807,0.64363146,0.30150816,0.70344263,0
-0.44589347,-1.7762196,-0.98105651,-0.21462378,-0.85495526,-0.47221607,0
0.24529077,1.8127383,-0.96117848,0.1187038,0.87724024,-0.46514407,0
-0.53370434,2.0441675,-0.084916286,-0.25241452,0.96678543,-0.040161006,0
-0.73574769,1.0952803,-1.6584463,-0.34716639,0.5168137,-0.78254652,0
1.3516545,-0.16653384,1.6899501,0.62276757,-0.076729573,0.77863544,0
0.14756298,-2.0898373,-0.49224666,0.068567209,-0.97107226,-0.22872932,0
-0.58006936,1.7948756,0.7737568,-0.28451326,0.88035321,0.37951335,0
-1.4353474,0.40959218,-1.5131633,-0.67530608,0.19270602,-0.7119171,0
0.036592949,1.1450299,-1.7002894,0.017848272,0.55849028,-0.829319,0
0.1507602,1.6652421,-1.3051902,0.071074717,0.78506535,-0.6153217,0
1.9724494,0.73016846,-0.46728674,0.91548353,0.33889699,-0.2168843,0
-0.40528166,1.7976247,1.0238932,-0.19225018,0.85272467,0.48569593,0
0.82922393,1.7150524,-0.88090158,0.3950924,0.81715459,-0.41971475,0
1.6052337,1.2436413,0.60381263,0.75772464,0.58704078,0.28501999,0
-0.85179067,1.8902417,-0.3786566,-0.40415356,0.89687288,-0.17966317,0
1.983601,0.077395126,0.21705776,0.99331933,0.038756825,0.10869508,0
0.1261355,-1.1163121,1.8047402,0.059334729,-0.52511847,0.84895819,0
1.1562148,0.78601778,1.5001656,0.5638293,0.38330233,0.73155719,0
-1.752074,0.62584555,-0.75223511,-0.87306237,0.31186023,-0.37484044,0
0.17863804,-0.229423,-2.0480864,0.086355984,-0.1109061,-0.99007195,0
0.25949714,-1.9901376,0.30981722,0.12778346,-0.97999805,0.15256245,0
1.6206872,1.3896883,0.13569276,0.75760567,0.64962304,0.063430876,0
1.4768225,1.2623008,1.1091937,0.66014367,0.56425196,0.49581262,0
1.1816258,-1.5505279,0.66594011,0.57358766,-0.75266099,0.32326224,0
1.4211599,-0.9306339,-1.0638064,0.70903426,-0.46430477,-0.53074616,0
0.93772179,-0.60716516,1.6801469,0.464762,-0.30092859,0.83272934,0
1.7064672,-0.62866098,-1.1417036,0.79471797,-0.2927734,-0.53170222,0
0.40312874,-1.9244803,0.46188894,0.1995912,-0.95282054,0.2286837,0
-1.6363876,0.55094737,-1.0729049,-0.80497664,0.27102366,-0.52778661,0
1.6452506,1.0703442,-0.83076543,0.77192849,0.50219047,-0.3897835,0
1.144698,1.4212586,-1.2771435,0.51391184,0.63807362,-0.5733732,0
0.51256204,0.89037901,-1.8616054,0.24106041,0.41874954,-0.87552202,0
-0.32657936,1.9912351,-0.19716522,-0.16107903,0.98213875,-0.097247981,0
1.8872868,1.0228738,0.36935857,0.86644393,0.46959624,0.16957068,0
-0.010566739,-2.124594,0.33439067,-0.0049129939,-0.9878276,0.15547457,0
-0.93728399,0.33337376,-1.8406522,-0.4479723,0.15933508,-0.87973469,0
-1.102525,-0.88314366,-1.522243,-0.53089958,-0.42526075,-0.73300672,0
-0.99143815,0.2282481,1.8355525,-0.47241881,0.10875989,0.87463808,0
1.5326233,-0.82765967,-1.2725841,0.71047544,-0.38367671,-0.58992952,0
1.3966134,-1.5187383,0.082261071,0.67635489,-0.73549777,0.039837565,0
-0.26287183,-1.4780203,1.4687759,-0.12516361,-0.70374358,0.69934189,0
1.4877074,0.061891206,-1.4447362,0.71707219,0.029831447,-0.69636017,0
0.5659216,1.015476,1.7402811,0.27040666,0.48521113,0.83153498,0
0.29925627,2.0750506,0.43445215,0.13977014,0.96916968,0.20291451,0
-0.64920521,-2.0576591,0.20534465,-0.29953265,-0.94937027,0.094742663,0
1.0274581,1.7559261,0.50924301,0.48991743,0.83726901,0.24281967,0
1.2222948,-1.563607,0.11808822,0.61478412,-0.78645575,0.059395462,0
0.89139241,-1.3759391,1.3019358,0.42578644,-0.65723717,0.6218884,0
-0.38540074,-1.3276944,1.5241498,-0.18729222,-0.64521629,0.74068719,0
0.54679376,-2.1029909,0.19859274,0.25059637,-0.96380383,0.091015346,0
1.1429486,1.0294045,-1.4909809,0.53353918,0.48053572,-0.69600391,0
1.863795,0.35412711,-0.73234022,0.9165079,0.17413947,-0.36012307,0
1.6551669,-0.80760908,-1.099429,0.77167904,-0.37652698,-0.51258051,0
1.5403444,-0.99710679,-1.164189,0.70883441,-0.45884779,-0.53573555,0
1.885823,1.1575477,-0.049550518,0.85204101,0.52299613,-0.022387613,0
-0.78635621,-1.1661795,1.4655504,-0.38712016,-0.57410574,0.7214849,0
-0.71367103,0.43585488,1.8574499,-0.35035196,0.2139678,0.91185039,0
0.70526934,0.50249249,-1.8225515,0.34952047,0.24902743,-0.90322804,0
-1.9533888,-0.24826314,0.46538571,-0.96542299,-0.12269904,0.23000748,0
-0.37319174,-1.9662031,-0.76172745,-0.17427729,-0.91819966,-0.35572007,0
0.32274705,-1.0296867,1.8089874,0.15322323,-0.48884079,0.85881156,0
0.23311356,1.9581531,-0.45262814,0.11521685,0.96782118,-0.22371238,0
0.67327851,1.9537543,0.69605076,0.30876064,0.89597756,0.31920382,0
-1.7229102,-1.0347513,0.27869141,-0.8491469,-0.50998354,0.13735478,0
-0.14897318,0.30948192,1.993582,-0.073641427,0.15298519,0.9854809,0
1.1035727,0.1243709,-1.837568,0.51398522,0.057925321,-0.85584098,0
1.9568763,1.0135216,0.0065137199,0.88796473,0.45990202,0.0029557073,0
-0.83068967,-0.65917033,1.9471816,-0.37465361,-0.29729578,0.87820834,0
-1.2330322,0.70698577,1.5431979,-0.58771437,0.33697879,0.73555219,0
-0.38495067,0.49688566,2.067333,-0.17815399,0.22995715,0.95675534,0
-0.22361684,1.6189808,1.4071747,-0.10368597,0.75068402,0.6524744,0
-2.1259203,0.067586482,0.14240097,-0.9972626,0.031704608,0.066799849,0
1.9760284,0.023837779,0.45140544,0.97481877,0.011759706,0.22268833,0
-0.45733073,-0.35477307,-2.0691168,-0.21285568,-0.16512223,-0.96303016,0
-0.69279373,1.098103,1.6563671,-0.32918057,0.52176309,0.78702193,0
1.7311567,-0.048409589,-1.095876,0.84469873,-0.023620922,-0.53472054,0
0.16702253,-1.9972879,0.082460605,0.083263345,-0.99567932,0.041107904,0
-0.55566883,2.015466,-0.44167185,-0.2600463,0.94321376,-0.20669709,0
-1.1939213,1.1537548,1.1941638,-0.58378273,0.56414282,0.58390129,0
1.4838901,-1.5621954,0.11655111,0.6876964,-0.72398633,0.054014631,0
-1.5418235,0.097302988,1.4702897,-0.72294199,0.045624167,0.68940067,0
0.69798243,1.3432437,1.5796038,0.31902853,0.61395967,0.72199333,0
-0.37004986,-1.9055283,-0.59529561,-0.18225847,-0.93851858,-0.29319742,0
0.89752573,1.8604872,0.49542192,0.42251557,0.87583542,0.23322281,0
-1.4638282,-1.3691928,0.54793012,-0.70447141,-0.65892792,0.26369292,0
1.6706285,-1.3626275,-0.30636236,0.76721472,-0.6257692,-0.14069298,0
-0.091563866,-0.96447754,-1.8100893,-0.044598892,-0.46977735,-0.88165766,0
0.65333086,-0.20381533,2.0569913,0.30137202,-0.094017044,0.94886017,0
1.5213645,1.0347139,-1.0028896,0.72602743,0.49378741,-0.4786002,0
0.70258886,-0.01086117,1.9781766,0.33468255,-0.0051737861,0.94231671,0
-0.91000116,-1.0074199,1.7516843,-0.41061944,-0.45457768,0.79041177,0
1.1199785,-1.472594,1.0655445,0.52457756,-0.68973619,0.49908161,0
-1.7580198,1.1448977,0.34848928,-0.82664067,0.53834379,0.16386358,0
-1.2252505,1.7987409,0.27889845,-0.55840546,0.81977254,0.12710741,0
2.0939863,-0.24021924,-0.12029488,0.99186993,-0.11378596,-0.056980733,0
-1.4418362,-0.84083831,1.1974075,-0.70190108,-0.40932894,0.5829106,0
0.58526593,1.5480278,1.2749373,0.2801505,0.74099779,0.610277,0
-0.88963997,-0.66995305,-1.8159066,-0.4176293,-0.31450027,-0.85245252,0
-1.0960933,-0.54357958,1.7581249,-0.51172948,-0.2537792,0.82081002,0
1.0982254,-0.20851064,-1.729951,0.53320038,-0.10123419,-0.83991009,0
0.72863716,-1.8550946,-0.54806936,0.35250214,-0.89746284,-0.26514652,0
1.2901026,1.7470657,-0.16351828,0.59235501,0.80217117,-0.075079978,0
-1.6036221,1.2058893,-0.68108946,-0.75682509,0.56911618,-0.32143831,0
-1.7797191,-1.0911586,-0.29411891,-0.84418643,-0.51757681,-0.13951145,0
-0.051520783,-2.0795503,-0.2710585,-0.024559736,-0.99131268,-0.12921242,0
-0.13689417,1.6965839,1.1406682,-0.066811353,0.82801968,0.55670434,0
0.50778008,-0.70701408,1.8938105,0.2436236,-0.33921242,0.90861565,0
-0.88550693,1.8988651,0.41403401,-0.41462043,0.8891046,0.19386292,0
-1.5309732,1.3946356,0.63096911,-0.70716327,0.64418828,0.2914474,0
1.5055048,1.5230963,-0.26375413,0.69771612,0.70586878,-0.12223508,0
0.69506192,1.4418188,1.3737519,0.32952252,0.68355316,0.65128326,0
-1.9698298,-0.36811015,-0.78528661,-0.91521949,-0.1710308,-0.36485872,0
-0.39597195,-1.9029964,0.75820637,-0.18978715,-0.91209555,0.36340407,0
-0.36967769,2.0417871,0.17753467,-0.1775108,0.98041958,0.085248098,0
-0.27537805,-0.51704293,-2.0529141,-0.1289912,-0.24219066,-0.96161574,0
-1.846898,0.60642815,0.54444349,-0.91488838,0.30040321,0.26969817,0
-0.70131344,1.927411,0.63989997,-0.3264139,0.89707929,0.2978301,0
-1.5284482,0.21804164,1.4946252,-0.71128321,0.10146851,0.69554323,0
-1.6989222,-1.1545587,0.86304408,-0.76251674,-0.51819342,0.38735476,0
-1.6694317,-1.2823746,-0.53412318,-0.76868087,-0.59046251,-0.24593416,0
-1.1211556,1.8213552,0.12398131,-0.52332795,0.85016394,0.057871439,0
-0.015108507,-1.8227774,-1.0985162,-0.0070990007,-0.85646439,-0.51615739,0
0.9664861,-0.97532123,1.5524526,0.46632746,-0.47059038,0.74905503,0
-1.1012143,-0.39007434,1.837069,-0.50582296,-0.17917363,0.84382463,0
0.50890362,1.9813941,-0.46551374,0.24256596,0.94441998,-0.22188441,0
1.811269,-0.95346546,-0.4833307,0.86120158,-0.45334288,-0.22980857,0
1.1459011,0.75497729,-1.4608119,0.57173324,0.3766866,-0.72885406,0
1.3438212,-1.5701599,0.3344301,0.64187539,-0.74998599,0.15974034,0
-1.1462663,-1.7651021,-0.12163418,-0.54373032,-0.83727443,-0.05769705,0
1.1458428,0.14047645,-1.7601944,0.54434651,0.066735044,-0.83620167,0
-1.7945521,-0.87437695,0.66762859,-0.852552,-0.41539717,0.31717557,0
-1.3251019,-1.2443637,-0.96686685,-0.64358956,-0.60437578,-0.4695982,0
-0.14893155,1.2526468,1.5679765,-0.074006006,0.62245631,0.77914768,0
0.030640556,-1.3307235,-1.5904151,0.014774155,-0.64164352,-0.76686072,0
-0.70021141,1.7611256,-0.97791344,-0.32833004,0.8257941,-0.45854491,0
-0.89339066,1.8958051,-0.33868054,-0.42082456,0.89300394,-0.15953277,0
0.29378155,1.56359,1.4082081,0.13827239,0.7359255,0.6627928,0
1.200291,-1.6117327,0.90908074,0.54419386,-0.73073536,0.41216353,0
2.1319649,-0.27300769,-0.22716026,0.98640692,-0.12631384,-0.10510138,0
0.20482215,-1.2026215,-1.632825,0.10049038,-0.59003323,-0.80110085,0
-1.588379,-0.69439334,-1.3863811,-0.71557444,-0.31282842,-0.62457317,0
-0.9946754,-1.3748112,-1.1021329,-0.49158409,-0.67945313,-0.54469126,0
-0.082554042,2.120786,0.38179708,-0.038282216,0.98345745,0.17704812,0
0.042623222,-1.8387401,-0.79708332,0.021263493,-0.91729426,-0.39764181,0
0.8142615,1.9071583,-0.037059981,0.39259654,0.91953725,-0.017868487,0
-0.069347814,1.7004128,1.1461228,-0.033798821,0.82874918,0.5585987,0
0.3858892,-1.0903873,-1.716818,0.18641078,-0.52673143,-0.8293401,0
1.7669213,-0.044595767,1.066274,0.85598171,-0.021604337,0.51655447,0
-0.76992077,-1.2822367,-1.4211353,-0.37317964,-0.62149853,-0.68882257,0
-0.2221925,2.014328,0.43684953,-0.10717911,0.97165239,0.21072333,0
-1.3193306,0.81159443,-1.4815533,-0.61552125,0.37864175,-0.69120479,0
0.12426068,-1.9880639,-0.15321267,0.062197916,-0.99511313,-0.076689653,0
-1.3300663,-1.3892063,0.90306294,-0.625992,-0.65382606,0.42502406,0
1.9617107,-0.13362621,-0.4646976,0.97094059,-0.066137739,-0.23000015,0
-2.0732918,0.19501826,0.76702309,-0.93424743,0.087877311,0.3456288,0
1.3472943,0.29283223,1.6126033,0.63501889,0.13802032,0.76006669,0
-1.5301784,-0.59342241,-1.356859,-0.71857089,-0.27867082,-0.63718015,0
-1.0302442,-0.13140011,-1.7861807,-0.49862206,-0.063595593,-0.86448348,0
-0.33691201,0.69923681,-1.8864652,-0.16516103,0.34277993,-0.92478317,0
-1.7042881,-0.44483548,-1.0678575,-0.82740271,-0.21596001,-0.51842654,0
-1.016775,-1.0563506,-1.4234079,-0.49757105,-0.51693785,-0.69656175,0
0.87227464,0.69625372,-1.7738816,0.4162055,0.33221719,-0.84640688,0
0.7886613,-1.8971664,-0.27242464,0.38052797,-0.91538012,-0.13144451,0
-1.5714785,0.23391654,-1.3235794,-0.75994694,0.11311905,-0.64006615,0
-1.5827073,0.32295305,1.284098,-0.76698905,0.1565049,0.62228131,0
1.0045235,-1.6657424,0.84999919,0.47320768,-0.78469253,0.40041485,0
-1.7661222,-1.159024,0.26784694,-0.82940614,-0.54430073,0.12578626,0
1.3546638,1.2134895,1.1753502,0.62558436,0.56039,0.54277724,0
-0.64631748,0.66420758,1.8301204,-0.31506178,0.32378271,0.89213276,0
1.5095576,0.49706241,-1.3838984,0.7163229,0.23586856,-0.65669441,0
-1.9227756,-0.84163135,0.38111538,-0.90134597,-0.39453435,0.17865673,0
-0.71551543,-0.16959637,1.9522214,-0.34298876,-0.081297547,0.93581492,0
0.34377,-0.61489624,1.9255123,0.16766529,-0.29990038,0.93912089,0
0.29028049,-1.5656387,-1.3289497,0.13995974,-0.7548781,-0.64075768,0
1.2545015,0.75686228,-1.4080443,0.61735934,0.37246349,-0.69292015,0
0.9401195,-1.8772578,-0.14825569,0.44666925,-0.89192206,-0.07043919,0
0.40037179,0.80001426,1.9010063,0.19056369,0.38078025,0.90481597,0
1.185318,-1.5346451,-0.6721701,0.57755643,-0.74776912,-0.3275207,0
-0.86844563,1.5568317,1.1426173,-0.41014192,0.7352469,0.53962535,0
1.003661,-1.0412704,1.5641744,0.47113377,-0.48878819,0.73424733,0
0.216904,-1.4839076,1.4125587,0.10528389,-0.72027975,0.68564743,0
1.2999036,-1.5671022,0.61326051,0.61131185,-0.73696864,0.28840095,0
0.36574942,-1.2224669,-1.5863739,0.17965233,-0.60046315,-0.77921051,0
-0.83862561,-1.8754942,0.40832052,-0.40036833,-0.8953799,0.19493634,0
0.030822802,-2.1437793,0.29329842,0.01424364,-0.99066979,0.13553722,0
1.7216766,0.32037386,-1.1920229,0.81271505,0.15123203,-0.56269276,0
-1.9741955,-0.54112709,-0.19589043,-0.96004117,-0.26314732,-0.095260508,0
-2.1499755,0.0070857587,0.054752301,-0.99967045,0.003294653,0.025458083,0
-0.32514974,0.7320143,1.9278798,-0.15574907,0.35064012,0.92346835,0
1.5246769,0.56850427,1.3673544,0.71734655,0.26747605,0.64332771,0
1.432083,1.4707916,-0.033733033,0.69752163,0.71637529,-0.016430276,0
-0.28515851,-0.72823012,-1.8899399,-0.13941711,-0.35603964,-0.92401218,0
-0.90851146,1.7150226,-0.72845912,-0.43825826,0.82731241,-0.35140255,0
0.6183213,1.9270732,-0.57666653,0.29382384,0.91573757,-0.27402964,0
-0.76953477,-1.801717,-0.50613451,-0.38029942,-0.89039767,-0.2501286,0
1.9294192,-0.64841545,-0.494113,0.92115027,-0.30956885,-0.23590122,0
1.5596753,-0.3942917,-1.3875514,0.73414963,-0.18559574,-0.65312976,0
-1.3523871,1.4099561,0.73750269,-0.64761376,0.67518169,0.35316581,0
1.7231243,-1.0710009,0.35607564,0.83652824,-0.51994073,0.17286469,0
0.28845593,1.3290141,-1.5866829,0.13803381,0.63596845,-0.75926983,0
0.85284728,-0.42014134,1.8407003,0.41166043,-0.20279782,0.88848674,0
-1.6538827,0.54390103,-1.1450815,-0.79367262,0.26100966,-0.54950684,0
1.8895772,0.046182171,0.96693444,0.89000422,0.02175213,0.45543298,0
-0.28904003,-1.1844196,-1.6691304,-0.13983715,-0.57302046,-0.80752289,0
-1.5889088,1.2410376,-0.31482887,-0.77865958,0.60818201,-0.15428482,0
0.79343802,1.7183855,1.0581216,0.36590728,0.79246235,0.48797056,0
1.2905185,-0.53200299,1.6202589,0.60343456,-0.2487597,0.75761819,0
-1.7392293,0.4758186,-0.90514117,-0.86204016,0.23583707,-0.44862863,0
-0.98754561,-0.57101494,1.7925693,-0.46477965,-0.26874316,0.84365696,0
-1.2672623,-0.46817252,1.4509813,-0.63920975,-0.2361472,0.73187798,0
-0.027616134,-1.7494935,1.3207215,-0.012597381,-0.79804927,0.60246056,0
-1.3011936,-0.061547171,1.5636444,-0.63935691,-0.030241931,0.7683152,0
-1.4088925,1.5641258,0.27424878,-0.66366589,0.73678929,0.12918626,0
1.6335182,0.45249367,1.3687292,0.74978179,0.20769374,0.6282441,0
-0.89327615,-0.93580878,1.5034846,-0.45036069,-0.47180426,0.75800788,0
-0.58395505,-1.8817911,0.58183277,-0.28424227,-0.91596878,0.28320923,0
2.0353873,0.45936576,-0.08136981,0.97472465,0.21998522,-0.03896711,0
-1.4967715,-1.4941716,0.037120439,-0.70761216,-0.70638305,0.017549021,0
-1.787987,-0.9762311,0.093066148,-0.87678176,-0.47871804,0.04563719,0
-0.98697644,1.0090054,1.639282,-0.45625636,0.46643984,0.75780213,0
-0.32309839,0.56012291,2.0008054,-0.15365873,0.26638255,0.95154053,0
-1.8612282,-1.0219737,0.30965245,-0.86737931,-0.47626555,0.14430586,0
1.9186987,0.68692499,0.20990138,0.93652689,0.33529168,0.10245396,0
-1.6566827,-0.76674163,0.79794401,-0.83154845,-0.38485512,0.40051672,0
0.30771548,-1.0964824,-1.7680414,0.1463168,-0.52137053,-0.8406927,0
0.31216243,0.2978372,2.1361487,0.14324075,0.13666739,0.98020619,0
-0.71938866,-1.0738111,-1.615435,-0.34772068,-0.51903278,-0.78082991,0
-1.7279097,0.96513724,-0.49580324,-0.84687394,0.47302794,-0.24300045,0
-1.0422692,1.7723311,-0.30976304,-0.50126272,0.85237432,-0.14897558,0
-0.45239225,-1.971249,-0.73231864,-0.21031784,-0.91643655,-0.34045601,0
-1.1407564,-0.69896805,1.6001428,-0.54692954,-0.33511648,0.76717991,0
1.1757035,1.2929605,-1.2159619,0.5522359,0.60731232,-0.57114559,0
-0.76631677,1.7814549,0.63329291,-0.3756327,0.87323254,0.31042716,0
0.68814814,-0.37468725,1.8966078,0.33534068,-0.18258843,0.92423379,0
-1.5881654,-0.74343437,0.95863795,-0.79468381,-0.37199858,0.47968182,0
2.0294654,0.27949154,0.055556972,0.99028569,0.136379,0.027109245,0
-0.13884783,0.53492516,1.9876678,-0.067301646,0.25928631,0.96345264,0
1.9238759,-0.9119274,-0.59680396,0.87008816,-0.41242641,-0.26990932,0
0.48875687,-1.3309858,1.6767472,0.22257908,-0.60612875,0.76358789,0
-1.3975834,-0.17642693,1.6681358,-0.64010793,-0.080805399,0.76402378,0
-1.7923613,-0.64765888,-0.84146672,-0.86035234,-0.3108831,-0.40391293,0
0.4737846,0.85782212,1.8768502,0.22376983,0.40515184,0.88644177,0
0.47775128,-2.0207067,-0.75063688,0.21637967,-0.91520387,-0.33997303,0
-0.49244812,-1.1173587,1.8140436,-0.2251993,-0.51097441,0.82957238,0
0.24190402,-2.0193241,-0.55350465,0.11476956,-0.95805323,-0.26260614,0
1.905172,0.62109363,0.34227335,0.93718016,0.30552447,0.16836895,0
-0.17083946,1.5116413,-1.5953441,-0.07749939,0.68573898,-0.72370982,0
-1.3105519,0.54427737,-1.5640931,-0.62055236,0.25771785,-0.74060535,0
-1.9390827,0.016792275,0.51970071,-0.9658764,0.008364399,0.2588681,0
-0.036100097,2.0644875,-0.71682143,-0.016516561,0.94454688,-0.32796103,0
-1.0969681,1.5100698,-0.86880386,-0.53283095,0.73348713,-0.42200461,0
-0.63085353,1.0529778,-1.7417831,-0.29605639,0.49415717,-0.81741005,0
-0.23677945,2.0114927,-0.20420772,-0.11631642,0.98813325,-0.10031576,0
0.31673232,2.0701728,0.61142135,0.14517751,0.94888496,0.28025126,0
0.55961746,1.2301806,-1.4954492,0.27763489,0.61031163,-0.74191546,0
0.94992387,-1.9406489,-0.11533516,0.4390192,-0.89689517,-0.053303584,0
-0.34617001,-0.0088391053,1.9565455,-0.17422155,-0.0044485731,0.98469645,0
-2.0486462,-0.67634791,0.40299079,-0.93344277,-0.30817038,0.18361825,0
0.065037981,-1.9994522,0.61021793,0.031096216,-0.95598596,0.29175979,0
0.47923845,1.912046,-0.77684915,0.22618969,0.90244234,-0.3666552,0
0.87397718,-1.9142609,0.17671461,0.41386533,-0.90648383,0.083681874,0
-0.44910762,-1.9390577,-0.28801683,-0.22331239,-0.96416897,-0.14321229,0
0.84642041,-1.7920693,0.12393562,0.42624196,-0.9024536,0.062411733,0
-2.0153167,0.38904202,-0.32027516,-0.97013283,0.18727699,-0.154174,0
-1.111933,-0.94263184,1.4078189,-0.54868281,-0.46514121,0.69468755,0
-1.1363021,0.52622718,-1.7690927,-0.52426052,0.24278767,-0.81621385,0
1.0323434,-1.0115745,1.552272,0.486729,-0.47693688,0.73186475,0
0.75254333,-1.888829,-0.59570968,0.35519198,-0.89150602,-0.28116828,0
1.2872151,0.079679199,1.719285,0.59891772,0.037073281,0.79995197,0
-1.4788084,1.4703398,0.52913874,-0.68735248,0.68341625,0.24594453,0
1.3693271,1.4776678,-0.27335885,0.6735341,0.72682393,-0.13445765,0
0.75165534,-1.0154157,1.7194281,0.35228515,-0.47590411,0.80585998,0
-1.6580349,-1.307358,-0.28545788,-0.77817571,-0.61359036,-0.1339757,0
-1.4129947,0.068996064,1.4818178,-0.68970907,0.033678267,0.7233029,0
-1.8810021,0.60857111,-0.67621964,-0.90023792,0.29125902,-0.32363525,0
-1.0053852,-0.14455716,-1.7815028,-0.49025983,-0.070490964,-0.86872107,0
-1.1937125,0.354954,-1.5479569,-0.60084158,0.17866205,-0.77914649,0
-0.0042971992,0.59887683,2.1067171,-0.0019620219,0.27343613,0.96188819,0
-0.38511315,-0.035822853,-2.0375047,-0.18569602,-0.017273264,-0.98245543,0
-0.63494051,1.2893559,-1.4913386,-0.30656365,0.62253022,-0.72005206,0
-0.40746191,0.7055887,-1.8661001,-0.20010659,0.34651816,-0.9164511,0
0.79140115,0.43801466,1.829736,0.38773185,0.2145969,0.89644414,0
1.9292893,0.19144644,-0.72743028,0.93169075,0.092453152,-0.35129002,0
1.8291271,0.43311822,0.72593665,0.90774912,0.21494552,0.36026382,0
-0.26609555,-1.6904707,-1.1966184,-0.1274309,-0.80955213,-0.57305044,0
-2.1240396,0.095436685,-0.21840079,-0.99376303,0.044651449,-0.10218201,0
0.69407284,-1.2496483,1.6337463,0.31972754,-0.5756557,0.75259203,0
1.4376616,-0.58163655,-1.3238195,0.70506912,-0.28525066,-0.64923775,0
0.079971708,1.6392574,1.4459921,0.03656118,0.74942988,0.66107351,0
-0.91259807,-1.7308446,0.98275119,-0.4167828,-0.79047537,0.44882169,0
-1.8752551,-0.62653589,-0.75196272,-0.8865115,-0.29618973,-0.35548422,0
1.2225628,-0.46687189,1.662159,0.57790327,-0.22068952,0.78569961,0
-1.1112093,-0.054918751,-1.8077312,-0.52349794,-0.025872583,-0.85163397,0
-1.2978264,-0.63247126,1.5465167,-0.6134333,-0.29894519,0.7309798,0
0.89138758,1.6492697,-1.1298823,0.40723026,0.75346857,-0.51618654,0
1.4878957,-1.2925005,-0.52102506,0.7298643,-0.63401616,-0.25558081,0
-0.31636918,-1.6092834,-1.3782949,-0.14767525,-0.75118357,-0.64336246,0
-0.047023077,2.1797018,-0.043349121,-0.021563888,0.99956977,-0.019879082,0
-1.3826176,-0.21597965,-1.5891219,-0.65296406,-0.10199996,-0.75048912,0
-1.5160736,-0.61119729,1.2228286,-0.7426604,-0.29939973,0.59901208,0
-1.4967384,0.0023153503,-1.4409213,-0.72041172,0.0011144269,-0.69354576,0
-0.433422,-0.57319206,1.9599648,-0.20762232,-0.27457643,0.93888271,0
-1.544376,0.01726415,1.3717828,-0.74762255,0.0083574643,0.66407126,0
-0.071119227,-0.91882294,-1.9020197,-0.033649638,-0.4347356,-0.89992929,0
0.45358929,-1.1219568,-1.8213848,0.2074241,-0.51306522,-0.83291012,0
-1.8253226,0.57285231,0.87856746,-0.86705661,0.27211374,0.41733319,0
1.4730777,-1.2049036,1.067153,0.6751439,-0.55223382,0.48909968,0
0.51753628,-1.2949456,-1.6103147,0.24294959,-0.60789263,-0.75593793,0
-0.88902569,-1.6834406,-0.79726118,-0.43073615,-0.815633,-0.38627592,0
2.0648193,0.49504328,-0.19180703,0.96849871,0.23219889,-0.08996664,0
-1.5632957,-0.88630521,1.0377563,-0.75333053,-0.42709818,0.50008035,0
-0.10052454,0.98638779,1.8506917,-0.047879007,0.46980834,0.88146913,0
1.1959627,0.85458368,-1.4193791,0.5852952,0.41822687,-0.69463354,0
1.9214082,0.02463685,0.6825881,0.94223559,0.012081617,0.33473304,0
0.28212461,-1.0119022,-1.9351478,0.12812816,-0.45955992,-0.878856,0
1.3385068,-1.4142207,0.3823531,0.6745171,-0.71267176,0.19268015,0
-1.8146898,-0.77102387,-0.67349434,-0.87096143,-0.37005335,-0.32324401,0
0.72336376,1.4368153,1.3287002,0.34670135,0.68865186,0.63683337,0
-1.1359537,-1.634763,-0.55024159,-0.55000949,-0.79152453,-0.26641765,0
-2.0628164,0.11448041,-0.42840084,-0.9776662,0.05425768,-0.20303941,0
-0.70222902,-1.8689167,0.29104266,-0.34805289,-0.92631012,0.14425242,0
-0.95556891,-1.5382138,-0.78317809,-0.484332,-0.77964675,-0.39695537,0
-0.1566024,0.82631099,-1.9101093,-0.075034827,0.39592052,-0.91521406,0
0.29042211,-1.9432513,-0.95532256,0.1329304,-0.88945419,-0.43726495,0
-0.83569163,-1.3736018,1.3315444,-0.40030757,-0.65797383,0.63782775,0
0.8703326,-0.63518405,1.7491813,0.42364252,-0.30918178,0.8514303,0
0.5706262,0.58996797,-1.9097083,0.27452162,0.28382674,-0.91873842,0
2.0431588,0.47588345,-0.18359272,0.97022283,0.22597998,-0.087181598,0
1.8845803,0.85436809,0.24151497,0.90463614,0.41011372,0.115932,0
0.78833938,-0.77490526,1.748592,0.38107911,-0.37458512,0.8452602,0
0.78348047,0.2307643,2.007139,0.36155802,0.10649236,0.92624795,0
-1.6083394,-0.19845809,1.2626126,-0.78289658,-0.096604086,0.61460602,0
0.8654232,-1.0416828,1.596645,0.41335782,-0.4975459,0.76261616,0
-0.1719052,-1.8813143,1.0430447,-0.079660587,-0.87179792,0.48334515,0
1.1620176,-1.5559591,0.75093025,0.55809563,-0.74729854,0.36065799,0
-2.1397414,0.51352185,0.099512123,-0.97139615,0.23312777,0.045176342,0
0.97232258,0.62584931,1.7866778,0.45687145,0.29407182,0.83951777,0
0.56269819,1.0910902,1.7021536,0.26812077,0.51989496,0.81106132,0
-0.32062879,1.409628,1.6056939,-0.1483994,0.65243036,0.74317724,0
0.4659926,-1.5840275,-1.1959603,0.22856474,-0.77694976,-0.58660662,0
1.9262705,0.53417838,0.33357769,0.95049006,0.26358253,0.16459905,0
-1.4903176,0.93759066,-0.99571997,-0.73677224,0.46351919,-0.49225673,0
-1.8235356,-0.80992711,0.72545373,-0.85890299,-0.38148355,0.34169576,0
1.5648302,-0.40059105,1.3006977,0.75454205,-0.19316012,0.62718058,0
-0.43191659,1.4962575,1.2852018,-0.21390708,0.74102288,0.63649732,0
-1.6280924,0.2706168,-1.3322147,-0.76759982,0.12758821,-0.62810177,0
-0.8771013,-1.0082397,1.7191222,-0.40281349,-0.46303952,0.78951609,0
0.065516226,2.0950975,0.57983661,0.030124595,0.96333337,0.26661095,0
-0.5584783,-1.860203,0.94986558,-0.25830856,-0.860385,0.43933383,0
1.4616227,-1.5749238,0.0020118635,0.68024915,-0.73298025,0.00093633501,0
-0.79185426,1.9190845,0.29534644,-0.37762409,0.91518426,0.14084654,0
1.3560697,-0.24576902,1.5150987,0.6621002,-0.11999658,0.73974603,0
0.47477016,1.0046914,1.8230107,0.2223759,0.4705838,0.85387349,0
0.45388547,1.8303045,-0.96951884,0.21405897,0.86319816,-0.45723915,0
2.0930622,0.13225855,0.28612921,0.98884898,0.062484398,0.13517925,0
-1.7413373,0.71631449,-1.0246884,-0.81231356,0.33415237,-0.47800517,0
0.59388983,-0.45171472,-1.9775866,0.28097567,-0.2137111,-0.93561757,0
-1.4649686,-0.35322782,-1.4787053,-0.69387943,-0.16730565,-0.70038581,0
-0.87769985,1.9049301,0.049508519,-0.41835248,0.90797812,0.023598058,0
-1.7322552,-0.99526489,-0.61546195,-0.82864493,-0.47609681,-0.29441354,0
-1.5825928,1.2222975,0.55965114,-0.76214725,0.58863574,0.26951757,0
-0.11471151,1.7803038,1.1151445,-0.054524552,0.84621209,0.53004926,0
-1.3594921,-1.459676,0.13698167,-0.6799469,-0.73005372,0.068511076,0
-1.3651857,-1.3817481,-0.96987015,-0.62880361,-0.63643223,-0.44672152,0
-0.97353929,-0.720433,-1.6463323,-0.47633249,-0.35249284,-0.80551606,0
-1.9062203,-0.67000747,0.70083046,-0.89132673,-0.31328779,0.32770026,0
0.18614103,-0.99086487,-1.9309468,0.085452192,-0.45487863,-0.88644421,0
1.9440199,0.030514518,0.96619928,0.8954069,0.014054851,0.44502705,0
-1.3272867,1.1472027,-1.2809347,-0.61102653,0.5281235,-0.58968806,0
0.6439091,-0.98610359,-1.6784017,0.31404403,-0.48093739,-0.81858146,0
1.6906558,1.3308815,-0.35349998,0.77535683,0.61035961,-0.1621197,0
-0.93728781,0.731143,-1.7879634,-0.43654358,0.34053123,-0.83274734,0
1.2678828,0.62888211,-1.6821837,0.57674181,0.28606951,-0.76520139,0
0.81918323,1.8533504,-0.63184297,0.38594401,0.87317395,-0.29768187,0
1.3229117,1.101561,1.3344847,0.60735279,0.50572997,0.61266601,0
0.26462597,1.9047961,-0.97328323,0.12277605,0.88375056,-0.45156518,0
-0.52408558,-1.6753943,-1.2443376,-0.24356356,-0.77862281,-0.5782935,0
-0.50672042,1.8855069,0.9687531,-0.23248988,0.8650949,0.44447646,0
-1.7958667,-0.25399521,-1.0554385,-0.85579574,-0.12103795,-0.50295478,0
-1.2911006,0.9249922,-1.3138833,-0.62636119,0.44874832,-0.63741392,0
-1.3453842,-0.84082395,-1.3357755,-0.64870083,-0.40541816,-0.64406782,0
1.6481242,-0.90184402,-0.83295,0.80196732,-0.4388319,-0.40530846,0
0.61121523,1.5687102,1.2240695,0.29363701,0.75363201,0.58806139,0
-2.1026471,0.46123895,-0.0036201493,-0.97677386,0.21426618,-0.0016817218,0
-1.5627563,1.3152363,-0.46341977,-0.74613386,0.62795615,-0.22125855,0
0.13904558,2.1157303,0.32271302,0.064831801,0.98648655,0.15046911,0
0.35139096,-2.008533,0.39131436,0.16924322,-0.96738571,0.18847184,0
-0.59642464,-1.042788,-1.7740929,-0.27837098,-0.48670343,-0.82802743,0
0.39590162,-1.676186,-1.0751837,0.19499095,-0.82556134,-0.52955353,0
-1.8066601,-0.94701427,-0.28364483,-0.87725604,-0.45983967,-0.13772881,0
0.80893964,1.8756313,-0.48351207,0.38537717,0.89354688,-0.23034415,0
0.50174242,-1.7309769,1.2767749,0.22717047,-0.78372258,0.5780766,0
0.9435035,1.3318385,1.2510332,0.45879719,0.64763272,0.60833955,0
-1.6344161,-0.87749916,1.0185579,-0.77229416,-0.41463581,0.48128888,0
-1.0911132,-1.6571374,0.62634754,-0.52441949,-0.79646653,0.30104011,0
-0.22347562,-1.8100898,-1.1843667,-0.10276408,-0.83236015,-0.54462475,0
-0.3936685,-1.7904603,-1.053987,-0.18616526,-0.84670609,-0.49842891,0
-0.96946567,-1.828539,0.59461164,-0.45020962,-0.84915417,0.27613136,0
-2.1351964,0.43824145,0.052339558,-0.97929764,0.20099734,0.024005286,0
-1.2953094,1.2554023,-1.1851803,-0.60013622,0.58164668,-0.54911172,0
0.96594959,-1.8992174,0.1738423,0.45183703,-0.88838667,0.081317276,0
2.0506532,-0.16411604,-0.66444063,0.94856417,-0.075914636,-0.30734819,0
0.058981955,1.4003427,1.4643753,0.029097784,0.69083619,0.72242558,0
1.1204654,1.2290311,1.2508709,0.53842163,0.59059113,0.60108596,0
0.12197508,-2.1199055,-0.3489807,0.056682557,-0.98513293,-0.16217345,0
0.73211128,-1.9072161,-0.74763775,0.33653897,-0.87671441,-0.34367621,0
-0.17902283,2.047801,0.23261806,-0.086537503,0.98988253,0.1124448,0
0.32600513,1.7306905,-1.2659258,0.15030882,0.79795694,-0.58367121,0
1.681573,0.37696749,-1.1207713,0.81800336,0.18337631,-0.54520065,0
-0.50573426,1.7916461,-0.74841511,-0.25205278,0.89293814,-0.37300247,0
-1.6748048,1.0022382,-0.34797508,-0.84476936,0.50552762,-0.17551817,0
-0.19830282,2.1413119,-0.12324117,-0.092062466,0.99410814,-0.057214953,0
1.7647511,0.80717385,-0.50231141,0.88037574,0.40267223,-0.25058648,0
1.7186853,0.22642349,1.1411105,0.82812297,0.10909879,0.54982716,0
-1.4482781,0.26985779,-1.5502768,-0.67720246,0.12618321,-0.72489619,0
-0.76471531,1.7667996,0.60345399,-0.37903076,0.87571329,0.29910168,0
1.573279,0.94315052,0.99494278,0.75392663,0.4519645,0.47678372,0
-1.478178,1.0482575,0.93020743,-0.72568429,0.51462269,0.45666823,0
-0.86782956,-0.40401226,-1.7491391,-0.43523109,-0.20261893,-0.8772226,0
2.0521138,0.037092745,0.5819633,0.96191591,0.017387001,0.27279177,0
-0.5143764,-0.16614942,-2.0838945,-0.23892705,-0.077176154,-0.96796578,0
-0.074852079,0.88578689,1.8407311,-0.036617864,0.43332964,0.90049124,0
-0.81652153,0.24951921,2.0152857,-0.37306482,0.11400415,0.92077452,0
-1.3523791,1.0669917,1.3681653,-0.61476374,0.48503247,0.62193978,0
-1.3869466,-1.425882,-0.2496984,-0.69182271,-0.71124405,-0.12455203,0
-1.9107156,0.022717953,0.75198591,-0.93047106,0.011063079,0.36619848,0
-1.7429894,0.21462466,1.1202899,-0.83674604,0.10303352,0.53781056,0
-0.73505288,-0.093160488,-1.927681,-0.35592818,-0.045110282,-0.93342394,0
2.0665655,-0.22507027,0.060004581,0.99370766,-0.108225,0.028853193,0
-0.81949258,-0.014498807,2.0416567,-0.37249121,-0.0065902709,0.92801231,0
1.6169492,-0.0026359081,1.2745128,0.78536046,-0.001280274,0.61903733,0
1.5020984,-0.37144423,-1.3952744,0.7209422,-0.17827713,-0.6696713,0
0.50434709,1.0092989,1.8155351,0.23594379,0.4721705,0.84934413,0
-0.6079827,0.093393169,2.0521548,-0.28379115,0.043593604,0.95789468,0
-1.4316403,0.58042479,1.4157902,-0.68321085,0.27699172,0.67564684,0
1.388413,0.10795664,1.4941816,0.67975193,0.0528544,0.73153514,0
-0.27458197,-1.8838875,-0.90033871,-0.13038373,-0.89455354,-0.42752084,0
0.69289762,0.28751919,-1.8974899,0.3395887,0.14091298,-0.92995864,0
0.34152505,0.0036188902,2.0718958,0.16264196,0.0017233973,0.98668367,0
-0.91647351,1.0865242,-1.4784384,-0.44686154,0.52977622,-0.72086889,0
-0.46306393,-0.065447055,-2.087512,-0.21646021,-0.030593365,-0.97581196,0
1.8631941,0.54744869,-0.57290554,0.92023188,0.270385,-0.28295815,0
-0.68387359,0.83530933,1.78732,-0.3275184,0.40004349,0.85597718,0
-1.552816,1.2865078,-0.11301219,-0.76884216,0.6369856,-0.055955458,0
-0.36209261,-0.56933224,-2.0846536,-0.16525418,-0.25983554,-0.95140773,0
0.56480616,-1.886333,0.65194184,0.27230132,-0.90942878,0.31431073,0
-1.0679113,0.50591713,1.6772125,-0.52050346,0.24658567,0.81747884,0
1.64758,0.30104113,1.2689046,0.78409404,0.14326744,0.60387993,0
-0.95594168,-1.2171403,-1.4530416,-0.45030588,-0.57334608,-0.68446976,0
1.4786761,1.5383545,0.54760367,0.6712324,0.69832295,0.24858002,0
-1.973146,-0.61927545,-0.6800437,-0.90636605,-0.28446463,-0.31237859,0
1.4610966,-1.0171134,0.9502514,0.72403413,-0.504022,0.47088906,0
-0.26359907,-2.1270435,0.43652323,-0.12051257,-0.97244453,0.19957027,0
0.42353156,1.9944187,-0.041085433,0.20768405,0.97798842,-0.020146761,0
0.61007935,1.4619322,1.378644,0.29051062,0.69615012,0.65648955,0
-1.3015544,-1.0806804,1.3275555,-0.60525519,-0.50254327,0.61734635,0
-0.39852059,-1.2994521,1.6954982,-0.183393,-0.59798771,0.78024203,0
1.3352578,1.6263611,-0.3675167,0.62508392,0.76136029,-0.17204827,0
-0.39601034,1.4280173,-1.445119,-0.1913199,0.68990147,-0.69816369,0
-0.45816368,-0.40495574,2.0103893,-0.21803558,-0.19271445,0.95672446,0
1.4829065,-0.51217782,-1.2178236,0.74665767,-0.25788647,-0.61318588,0
-1.2105175,-1.4171665,-0.85048932,-0.59087998,-0.69174981,-0.41514236,0
-1.9964972,-0.52699274,-0.62434548,-0.92550218,-0.24429433,-0.28942347,0
0.62592632,-0.58541793,-1.8599343,0.30564451,-0.28586397,-0.90821987,0
-0.3284314,-0.14965363,1.9827881,-0.16296341,-0.074256197,0.98383379,0
-1.7042471,-0.62487602,1.0710324,-0.80861425,-0.29648498,0.50817281,0
-1.0596089,0.94541812,-1.4306577,-0.52565712,0.46900865,-0.70972919,0
-1.2393923,0.56916136,-1.7781905,-0.55305773,0.25397858,-0.79348725,0
-1.6024178,-1.3900595,0.15751119,-0.75331253,-0.65348077,0.074047573,0
0.64113826,1.3829942,1.5759555,0.29241392,0.63076371,0.71877062,0
0.78246945,1.052712,-1.6412183,0.37243319,0.5010609,-0.78117317,0
1.8836414,-0.26800665,0.89867997,0.89519179,-0.12736891,0.42709348,0
1.3487973,-1.0603045,-1.3503958,0.61776173,-0.48562932,-0.61849385,0
-0.87657768,1.6947429,-0.54486692,-0.44175801,0.85407859,-0.27458984,0
1.0375707,0.81982172,1.57745,0.50406671,0.39828113,0.76634777,0
0.19151521,2.0685117,-0.039268289,0.09217523,0.99556345,-0.018899614,0
-1.2078184,0.57127815,1.6374794,-0.57150084,0.27031046,0.77480257,0
2.1190009,-0.45391417,0.13708773,0.97586668,-0.20904177,0.063133217,0
-1.7433442,-0.6619916,1.0636678,-0.81205577,-0.30835798,0.49546012,0
-1.0715275,1.7283617,0.50360197,-0.51146924,0.82499415,0.24038294,0
0.39107355,1.7065495,0.93897426,0.19684716,0.85899293,0.47263336,0
-1.8085794,0.70878303,-1.0267355,-0.82314366,0.32259032,-0.46730092,0
-0.72084326,0.85212064,-1.6925814,-0.35554168,0.42029166,-0.83483231,0
-1.5119277,0.52332926,-1.301468,-0.73308069,0.25374401,-0.63103616,0
-0.28982276,0.70727718,-1.9242587,-0.13997653,0.34159568,-0.92936474,0
-1.2924963,-1.3812712,0.65309972,-0.64584494,-0.69020474,0.32634613,0
-1.3792214,-0.30868649,-1.3952187,-0.69447392,-0.15543169,-0.70252895,0
1.5855455,-0.82086301,-1.0227568,0.77057236,-0.398938,-0.49705803,0
-1.9735043,-0.78805721,-0.08949215,-0.92787224,-0.37051675,-0.042076059,0
-1.5450289,-1.4419388,-0.22852932,-0.72683889,-0.67834145,-0.10750866,0
-1.1776552,-1.4824648,-0.9969818,-0.5503695,-0.69282025,-0.46593294,0
-0.58842945,-0.34691316,2.082962,-0.2684311,-0.15825565,0.95021045,0
-1.894467,-0.31602511,0.84508634,-0.90283906,-0.1506069,0.40273964,0
0.27727881,0.83097154,2.0252757,0.12565812,0.37658244,0.91782117,0
1.6365553,0.66820741,-1.3531324,0.73514777,0.30016166,-0.60783291,0
-0.73842454,0.42512274,-1.76087,-0.37748179,0.21732226,-0.90015471,0
1.3283069,1.4994651,0.70595825,0.62539405,0.70597881,0.33237958,0
2.0789659,0.51422405,-0.12364213,0.96913195,0.23971099,-0.057637088,0
-0.92147112,0.40616995,1.8843646,-0.43128613,0.19010413,0.88195962,0
1.1413504,-0.85388643,-1.4609232,0.5591833,-0.41834569,-0.71575201,0
0.5283438,1.7058001,-1.0324003,0.25614125,0.82697248,-0.50050801,0
-0.7696982,0.56174564,1.9343542,-0.35694978,0.26051116,0.89706236,0
-0.34791777,-2.0020487,-0.53340507,-0.16560443,-0.9529497,-0.253894,0
1.973304,-0.022782825,0.55883539,0.96210152,-0.011107964,0.27246505,0
-1.6541559,-0.13655812,1.3211597,-0.77974689,-0.06437166,0.62277699,0
-1.9207547,-0.11757052,0.5891186,-0.95440918,-0.058419947,0.29272878,0
0.55852556,-1.2203299,1.6442153,0.26315701,-0.57497519,0.77469468,0
0.37918589,-1.7560898,-1.0139415,0.18380871,-0.85125691,-0.49150375,0
-0.411567,-2.0759993,0.086720549,-0.19430231,-0.98008698,0.040941093,0
0.65024632,0.15672314,-1.9989558,0.30848187,0.074350663,-0.94832003,0
-0.8993184,0.89011234,1.649137,-0.43264839,0.4282195,0.79337472,0
-1.6468389,-0.57859039,0.9807564,-0.82252258,-0.2889801,0.48984408,0
1.1982533,0.58534986,-1.6177248,0.57153857,0.27919808,-0.77161658,0
0.92149335,0.23401187,1.9314892,0.42804343,0.108701,0.89719719,0
1.0026352,-1.576955,-0.77412182,0.49569067,-0.77962738,-0.38271642,0
2.1118608,0.14405204,-0.27370617,0.98944449,0.067490958,-0.12823623,0
0.49047852,2.0219414,-0.26114646,0.23390585,0.96425003,-0.12453896,0
0.079970896,1.7895,1.274466,0.036376838,0.81400055,0.57972395,0
0.57110327,0.49032557,2.0338304,0.263345,0.22609711,0.9378323,0
-0.62613654,-2.0126665,0.66859889,-0.28315169,-0.91016877,0.30235404,0
-1.4332675,-1.6216263,-0.12497546,-0.66114891,-0.74803656,-0.057649665,0
-1.9513696,0.0793093,0.57931077,-0.95792037,0.038932651,0.2843816,0
0.65165961,-0.43342766,-1.9986585,0.3036018,-0.20192969,-0.93115538,0
0.49176341,-1.9105791,-0.86559844,0.2282609,-0.88682991,-0.4017832,0
0.77197188,1.9576039,0.64597398,0.35069942,0.88932073,0.2934598,0
-1.7597278,-0.6350612,-0.74689442,-0.87357545,-0.31526119,-0.37077814,0
-0.23516709,-0.69634169,-1.9257836,-0.11408839,-0.33782151,-0.93427002,0
-1.6166823,-0.7733745,1.0739604,-0.77379256,-0.37016019,0.51402962,0
-0.53231454,-2.0541127,-0.11424869,-0.25049639,-0.9666236,-0.053763103,0
-1.5161856,-1.4368943,0.11175501,-0.72479475,-0.68689048,0.053423174,0
0.53753042,1.3784163,-1.4657733,0.25809836,0.66185457,-0.70379955,0
0.46075734,0.34034613,2.0849133,0.21309911,0.15740922,0.96426713,0
0.12320031,-1.1486931,-1.8259977,0.057016764,-0.53161198,-0.84506667,0
1.6649615,1.2147279,0.37901029,0.79452431,0.57967156,0.18086478,0
1.1931868,0.22490095,1.6568437,0.5808751,0.10948777,0.80659562,0
-0.29487735,1.8339039,-1.1580219,-0.13471642,0.83782965,-0.52904904,0
-0.57322013,0.68772173,1.9119399,-0.27151722,0.32575321,0.90562868,0
-0.61340851,1.2790177,1.5899225,-0.28788656,0.60027206,0.74618679,0
0.8170436,-0.51936454,-1.85346,0.39072815,-0.2483715,-0.88636512,0
-0.020882199,1.4905699,-1.5151756,-0.0098243421,0.70126086,-0.71283698,0
1.6598426,-1.2425578,-0.31749117,0.79131442,-0.59237778,-0.15136094,0
-1.1658828,1.6343353,0.60722619,-0.55587232,0.77922213,0.28951469,0
0.95841354,1.6624999,-0.93347883,0.44912145,0.77906287,-0.43743682,0
0.78946114,-1.743209,0.95095867,0.36944196,-0.81576473,0.44501752,0
-2.0806682,-0.28285122,-0.3494567,-0.97744244,-0.13287596,-0.16416544,0
-0.99769795,-0.72889614,-1.7482015,-0.46604615,-0.34048307,-0.8166225,0
-0.031586025,-0.83578265,1.9680766,-0.014770705,-0.39084053,0.92033988,0
1.662096,0.81031466,1.1178766,0.76922339,0.37501621,0.51735687,0
1.3155926,-0.67950857,1.5394428,0.61592066,-0.31812534,0.72072053,0
-1.455018,-1.4968581,0.028465247,-0.69694942,-0.71699071,0.01363477,0
-0.17331693,0.69660288,-2.046752,-0.079906993,0.32116565,-0.94364583,0
0.85683596,1.8892688,-0.13965367,0.41210198,0.90865862,-0.067167528,0
1.4203929,1.5457299,-0.25365731,0.67173719,0.73101205,-0.11996052,0
0.67782831,0.046336453,-2.0170758,0.31846476,0.021770302,-0.94768476,0
-0.43749925,1.6634084,-1.24365,-0.20612469,0.78370315,-0.5859369,0
1.918748,-0.57371384,-0.83201665,0.88477081,-0.26455024,-0.38365853,0
0.075787336,2.1484811,0.35621598,0.034778722,0.98593557,0.16346711,0
0.69025701,0.096985675,2.0409825,0.32004842,0.044968918,0.94633335,0
0.61794692,-0.61480159,-1.8475285,0.30249384,-0.30095413,-0.90439153,0
-2.080713,0.26964286,-0.28675485,-0.98257279,0.12733315,-0.13541393,0
1.0410324,-1.6470953,0.91913384,0.48321018,-0.76452297,0.42662919,0
