-2.2391257,-1.1797081,0.61628622,-0.8596012,-0.4528904,0.23659252,0
0.11428738,-1.1384209,2.436831,0.042453442,-0.42288032,0.90519059,0
-0.1215236,-2.3671141,-1.12139,-0.046345554,-0.90274823,-0.42766541,0
-1.6027062,-0.15770778,2.1666963,-0.5936718,-0.058417857,0.80258405,0
-2.0919828,-1.8288258,-0.070784375,-0.75262839,-0.6579529,-0.02546595,0
0.50596011,2.6387329,-0.047417972,0.18828379,0.98195612,-0.01764573,0
0.11105075,-2.3543072,1.171643,0.042191263,-0.89446664,0.44513971,0
1.0624958,1.1525226,-2.1415989,0.40033937,0.43426067,-0.8069362,0
-0.22926316,0.057748724,2.6103597,-0.087470151,0.022032715,0.99592346,0
2.4205289,0.21088535,-1.412829,0.86121178,0.075031929,-0.50267732,0
-0.8296842,-1.2301304,-2.1856511,-0.31407008,-0.46565568,-0.82736009,0
-2.5395379,0.068231694,0.78845209,-0.95471585,0.025651077,0.29641131,0
1.0582428,0.67525685,2.2995071,0.40393353,0.25774696,0.87772673,0
1.903828,-1.8115438,0.55401832,0.70886588,-0.674505,0.20628159,0
-1.5762638,1.0476296,1.9597064,-0.57856387,0.38452998,0.71930563,0
0.76126438,1.8773081,1.8621192,0.27666253,0.68226075,0.67674077,0
-0.95372599,2.6177547,-0.27434087,-0.34067085,0.93506175,-0.097994536,0
-2.4770918,0.83151835,0.50497961,-0.93078965,0.31245053,0.18975066,0
-0.22876188,-1.9984075,-1.6102902,-0.088783517,-0.77559096,-0.6249609,0
-1.3691857,-2.1554956,-0.7263304,-0.51572418,-0.81189954,-0.27358314,0
-1.2921849,1.9276453,1.4647985,-0.47086111,0.70241737,0.53375995,0
-0.26998109,-2.5227787,-0.73086947,-0.10225183,-0.95546967,-0.27680731,0
0.012599223,2.7681522,0.24619801,0.0045335502,0.99605799,0.088588879,0
-0.0034199448,1.5199423,-2.1901159,-0.0012828643,0.57014948,-0.82154,0
-1.3906115,-2.3933973,-0.2639063,-0.50011003,-0.86074507,-0.094909459,0
1.2372227,-0.99193901,2.1636295,0.46121523,-0.36977771,0.80656368,0
-1.6395168,-1.3276622,1.60839,-0.61802059,-0.50046611,0.60628724,0
-1.9006221,0.94729716,1.5245465,-0.72704113,0.36236766,0.58318168,0
-1.9839697,1.0378628,-1.5326856,-0.73118073,0.38249841,-0.56486255,0
1.3962437,0.68306363,-2.0746992,0.53859472,0.26348871,-0.80030584,0
1.4811352,-1.567897,1.5466119,0.55806255,-0.59075266,0.58273286,0
-1.1745101,2.4526107,-0.5362832,-0.42374936,0.88487297,-0.19348463,0
1.9565343,-0.88015383,1.6282028,0.72645116,-0.32679662,0.60454339,0
1.1435338,-1.8035359,1.6443006,0.42428437,-0.66916436,0.6100834,0
0.84207654,2.2429934,1.231254,0.31260791,0.83267671,0.45708406,0
-1.4083685,1.0544734,-2.0464604,-0.52185363,0.39072219,-0.75829077,0
1.7996696,1.2360705,1.4980627,0.67968357,0.46682835,0.56577528,0
-0.11121633,1.6084005,-2.0113542,-0.043144494,0.62395179,-0.78027087,0
-2.2619092,-0.13749337,1.4859356,-0.83470726,-0.050738867,0.54835147,0
0.88480604,-1.1997249,2.2206645,0.33081606,-0.44855964,0.83027405,0
-0.28505167,-2.0462682,1.6810117,-0.1070212,-0.76826096,0.63112724,0
0.26602077,1.1938837,-2.4057257,0.098569207,0.44237208,-0.89139837,0
-2.2175601,-0.078139871,1.5887221,-0.8125757,-0.028632622,0.58215201,0
2.4633617,-0.18299665,0.8778615,0.93967521,-0.069805995,0.3348695,0
2.3571823,-0.26479134,1.4239932,0.85200834,-0.095709369,0.51470524,0
-2.4356689,-0.77058238,-0.96168256,-0.89229333,-0.28229842,-0.35230687,0
0.032722503,-2.7028069,0.26964802,0.01204618,-0.99498802,0.099265896,0
1.6228837,-0.65315187,-2.0917418,0.59514832,-0.23952565,-0.76708925,0
-0.75789165,1.4043822,2.1125915,-0.28625718,0.53043795,0.79793,0
1.9542478,-1.5386393,1.1742135,0.71050537,-0.5594027,0.42690849,0
0.72456652,0.038297039,2.5524776,0.27305016,0.014432094,0.96189153,0
-2.3301203,0.79247046,1.0319936,-0.87309736,0.29693913,0.38668859,0
2.2022374,-1.2475537,0.89475411,0.82033676,-0.46471563,0.33329725,0
-0.23750859,-2.2896814,-1.3652644,-0.088742554,-0.85551506,-0.51011646,0
0.65272123,-1.0641837,2.2878385,0.25044096,-0.40831393,0.87781495,0
-2.11375,-0.81492585,1.4019486,-0.79341573,-0.30588999,0.52623445,0
2.7948492,0.06522619,0.065089673,0.99945688,0.023325326,0.023276506,0
-1.9236509,0.61284828,-1.8221642,-0.7073251,0.22534388,-0.67000848,0
-0.96137816,2.4430797,0.40830225,-0.36182976,0.91949141,0.15367097,0
0.79844493,1.7133416,-1.8210882,0.30419618,0.65275884,-0.69380873,0
-2.002723,-1.4376321,-0.88245237,-0.76484346,-0.54903424,-0.33701015,0
0.56506717,1.3548745,-2.3041184,0.20683108,0.49592361,-0.84337461,0
0.21815032,1.4992858,2.2097394,0.081422068,0.559591,0.8247596,0
-0.50240541,-1.5249481,2.1133835,-0.18929379,-0.57456231,0.79627007,0
1.2949076,-1.6540539,-1.596987,0.49072602,-0.62683034,-0.60520387,0
-2.2679088,-1.1933211,-0.49127355,-0.86914265,-0.45732275,-0.18827336,0
2.3812993,-0.93722975,0.68423426,0.89894515,-0.35380608,0.2582998,0
-0.12439825,1.8924721,-1.8742132,-0.046654299,0.70975244,-0.70290458,0
-0.86213243,2.4870145,0.18374142,-0.32673708,0.94254643,0.06963563,0
-0.58848494,2.1101592,-1.5582415,-0.21890226,0.7849285,-0.57962841,0
-0.2120378,2.4305823,-1.0566229,-0.07974986,0.91417003,-0.39740804,0
0.9801175,2.4543099,-0.55394846,0.36297843,0.90893346,-0.20515025,0
1.5630627,-1.5197316,1.5945969,0.57869428,-0.56265181,0.59036922,0
2.2253358,1.4012616,-0.65975136,0.82077581,0.51683056,-0.24333763,0
-1.5342324,-1.3486506,-1.7911749,-0.56471914,-0.49641034,-0.65929437,0
-1.5287063,2.259315,0.063715413,-0.56024361,0.8279987,0.023350565,0
0.68447477,1.121223,-2.2425277,0.26336518,0.43141267,-0.86285681,0
-1.8902997,1.9829253,-0.059990678,-0.68983412,0.72363639,-0.021892622,0
-2.2508013,1.3960093,0.16527209,-0.84816635,0.52605623,0.06227925,0
2.369179,0.19232094,1.3835446,0.86142331,0.069927067,0.50305086,0
2.4049828,0.26039219,-1.3972266,0.86090189,0.093211532,-0.5001595,0
1.2935976,2.3381469,0.088274643,0.48384175,0.87453252,0.033017192,0
2.6525865,0.79677349,0.21914069,0.95474333,0.28678206,0.078875139,0
2.2725835,0.59569246,1.2911162,0.84773898,0.22221042,0.48162347,0
-2.0460293,1.0180662,-1.5935503,-0.73438245,0.36541507,-0.57197392,0
0.024626119,1.6827548,-2.1619079,0.0089885229,0.61420476,-0.78909546,0
-2.020556,-1.1735132,1.3239363,-0.75235939,-0.43696076,0.49297121,0
0.30735633,1.8350379,-1.9223291,0.11488707,0.68592089,-0.71854955,0
-0.019731253,2.760932,0.38426539,-0.0070781857,0.99042815,0.13784739,0
-0.50090837,-2.4403584,0.86110389,-0.19003603,-0.92583007,0.32668802,0
-0.40911096,-2.6363757,0.054602005,-0.15331188,-0.987966,0.020461773,0
1.1713104,1.6124046,1.8514228,0.43059441,0.5927484,0.68061572,0
0.25526458,-2.7728002,-0.077323101,0.091637239,-0.99540544,-0.027758162,0
2.0782413,0.86280882,1.6107482,0.7509954,0.31178549,0.58206159,0
-1.599225,-0.92369318,-2.0713015,-0.57628256,-0.33285388,-0.74639583,0
2.2578418,-1.6380287,-0.15104453,0.80824012,-0.58636546,-0.054069445,0
0.23281834,0.16752152,2.5954044,0.089161262,0.064154871,0.99394888,0
-2.0858376,-0.9963237,-1.304756,-0.78580779,-0.37534991,-0.49154711,0
1.8783586,-1.725338,0.96709192,0.68862629,-0.63252729,0.35454622,0
0.96691674,1.8480868,1.7484443,0.35526782,0.6790303,0.64241934,0
2.0004799,-0.14625946,1.7779002,0.74635214,-0.054567434,0.66331059,0
1.9220827,0.39785933,-1.8346022,0.71540147,0.14808372,-0.68284112,0
1.5036738,2.1903374,-0.31810522,0.56195694,0.81857872,-0.11888313,0
0.17216459,-0.79191047,-2.5302436,0.064800069,-0.29806274,-0.95234424,0
0.15520474,2.1981056,1.743616,0.055233516,0.78225124,0.62050968,0
-0.93929428,1.0906122,2.2516527,-0.35148147,0.40810421,0.84256256,0
-2.683939,0.21687779,0.61770386,-0.97151601,0.078504108,0.2235927,0
1.7496264,2.1669154,0.033885304,0.62816578,0.77798444,0.01216579,0
1.6372039,1.2092731,1.7284018,0.61313123,0.45287156,0.64728469,0
0.069844656,-2.4716477,0.87740713,0.026620746,-0.94204921,0.33441687,0
2.4138126,-0.97167259,-0.69785964,0.89599508,-0.36067995,-0.25904197,0
-0.16726063,2.2862611,1.4766146,-0.06133987,0.83844566,0.5415222,0
0.53252435,-1.2966417,2.4099081,0.19101109,-0.46509224,0.86440957,0
0.15651341,0.45940945,-2.68629,0.057335503,0.16829531,-0.98406774,0
0.15784363,2.5396745,0.83127445,0.058964733,0.94873154,0.31053439,0
2.3779249,1.0509279,-0.76616728,0.87735027,0.38774642,-0.28268221,0
-1.872401,1.538933,-1.0811721,-0.70553064,0.57987815,-0.4073914,0
-0.019466056,-2.5732894,0.54795086,-0.007398576,-0.97804493,0.20826285,0
-2.3178558,-1.3430842,0.68724883,-0.83809692,-0.48563623,0.2484974,0
0.25287837,2.4677827,-1.1928254,0.091869369,0.89653236,-0.43334714,0
-2.6908975,-0.58650452,-0.13191302,-0.97594231,-0.21271512,-0.047842588,0
1.0058587,2.4050508,-0.88842356,0.36521626,0.87324756,-0.32257685,0
-1.721184,-2.2148695,-0.2322004,-0.61151743,-0.78691834,-0.0824982,0
1.597483,-1.0900739,-1.9008293,0.58910561,-0.40198779,-0.70097095,0
-1.2588767,1.655302,1.802313,-0.457452,0.60150552,0.65492648,0
-1.9469639,1.851764,0.35881436,-0.71822435,0.68310559,0.13236466,0
-0.80869079,0.59886533,-2.4052997,-0.3101624,0.22968668,-0.9225201,0
-1.7247776,1.1763471,-1.6131444,-0.65373367,0.44586486,-0.61142188,0
0.53765875,1.4904728,-2.2963164,0.19271474,0.53423488,-0.82307595,0
0.69242716,-0.97281545,-2.4671776,0.25262332,-0.35491946,-0.90011871,0
-0.24203043,-0.53997332,2.5793729,-0.091457255,-0.20404243,0.9746806,0
-2.3965254,-0.475032,0.89596438,-0.92094105,-0.18254615,0.3443028,0
-2.4434063,-0.92905414,-0.64688027,-0.9073438,-0.34499848,-0.24021497,0
-2.5254109,0.81575507,0.56097114,-0.93101507,0.30073532,0.20680697,0
-1.6232249,1.9737372,-0.78943884,-0.6068942,0.73794436,-0.29515678,0
2.3803465,0.96833998,-0.7476123,0.88941234,0.36181855,-0.27934402,0
0.76156187,-1.3299457,-2.0989196,0.29303423,-0.51173729,-0.80762357,0
0.63505411,2.6619477,-0.25289133,0.23107068,0.96857584,-0.092016995,0
-0.80073071,-1.3355006,2.3228555,-0.28633359,-0.47756216,0.83063072,0
1.8498093,0.21667148,-1.9332383,0.68908894,0.080714226,-0.72016782,0
2.3743329,0.70251888,-0.80332035,0.91210502,0.26987413,-0.30859724,0
2.5096602,-1.1489339,-0.011647129,0.90923876,-0.41625366,-0.0042197034,0
-0.12882742,-1.7264292,1.9760809,-0.049036477,-0.65714276,0.75216943,0
1.1176647,2.0126653,-1.1101149,0.43729728,0.78747505,-0.43434337,0
-1.687271,1.6717381,-1.3938162,-0.61267,0.60702986,-0.50611275,0
0.75570041,0.99572623,2.3684521,0.2821798,0.37180582,0.88438392,0
0.46266073,-0.68311721,2.6802959,0.1649764,-0.24358718,0.9557448,0
-2.2524211,-0.71404457,1.468805,-0.80958217,-0.25664729,0.52792895,0
-1.0398799,-0.54796189,-2.3692007,-0.39318585,-0.20718822,-0.89581132,0
1.8290325,1.845036,-0.26825362,0.70029688,0.7064243,-0.1027085,0
-1.6097317,-1.4106724,1.66522,-0.59358925,-0.52018607,0.61405063,0
-0.85344487,2.4533937,-0.982867,-0.3072902,0.88336557,-0.35388976,0
-0.6966899,-1.0921549,-2.4153018,-0.25419426,-0.3984836,-0.88124692,0
-2.5880997,0.81218666,0.46167043,-0.94059581,0.29517385,0.16778538,0
2.130326,0.24154489,-1.5337083,0.80814302,0.091630489,-0.581815,0
1.1322341,2.1386974,-1.2525229,0.41552201,0.78488702,-0.45966718,0
2.2101803,0.76399797,-1.3290842,0.8216877,0.28403464,-0.49411902,0
-1.4544686,1.5161878,1.7238945,-0.53517556,0.55788529,0.63431156,0
-2.3274698,0.14242114,1.404916,-0.85494882,0.052315518,0.51606739,0
-2.2852483,-0.24806257,1.424642,-0.84502733,-0.091727301,0.52679676,0
2.1556833,-0.028799776,1.5879533,0.80508858,-0.010755926,0.59305704,0
1.5840544,1.3998594,-1.8127935,0.5688237,0.50268048,-0.65096241,0
0.16769332,1.6439728,-2.0998092,0.062757798,0.61524284,-0.78583568,0
1.910416,-1.5783744,-0.95044386,0.71979541,-0.59469068,-0.35810271,0
0.31276202,2.3566811,1.5136286,0.11097526,0.83620542,0.53707075,0
0.56705832,1.3915455,-2.2492261,0.20963416,0.51443642,-0.83150989,0
-0.083527431,-2.5740483,-0.33653811,-0.032159351,-0.99104834,-0.12957238,0
-1.5979816,2.2502477,-0.15261123,-0.57811242,0.81408709,-0.055211179,0
1.1045492,-2.2765195,1.2542737,0.39110976,-0.80609274,0.44412571,0
-2.5795531,0.72899187,-0.072015822,-0.96196353,0.27185467,-0.026856044,0
0.70840907,2.3815172,1.2012224,0.25669014,0.86293638,0.43525973,0
-0.80535257,2.4638669,0.79840457,-0.29692382,0.90839815,0.29436219,0
0.65698314,-0.17038931,-2.5380094,0.25007021,-0.064855993,-0.96605307,0
1.8003727,2.009095,0.70068622,0.64593142,0.72081608,0.25138974,0
0.85872269,0.66222024,-2.5313866,0.31182277,0.24046801,-0.91920704,0
1.5074788,2.2398443,-0.67050117,0.54188824,0.80514914,-0.24102275,0
-0.39066458,1.6278702,2.1377184,-0.14387952,0.59953523,0.78730941,0
1.4961957,1.5081316,-1.8042439,0.53681391,0.54109633,-0.64733726,0
-0.55669284,-1.4765053,2.2088487,-0.20507453,-0.54391509,0.81369579,0
-1.5577301,0.77449578,1.9326249,-0.59906471,0.29785204,0.74324,0
1.5242929,1.706549,-1.6938744,0.53541708,0.59943563,-0.59498358,0
-0.83185786,1.3478718,2.1261983,-0.31375307,0.5083788,0.80194139,0
-1.1032287,0.47058544,-2.4386959,-0.40594456,0.17315684,-0.89734375,0
1.8301337,1.9754533,-0.33359534,0.67445463,0.72800893,-0.12293907,0
0.91170555,2.5842564,-0.10797974,0.33243722,0.94230318,-0.039372895,0
-2.376358,-0.70388073,-1.1610774,-0.86826605,-0.25718167,-0.42423072,0
-1.8219452,-1.7905978,-0.63027745,-0.69245082,-0.68053693,-0.23954406,0
1.954963,1.0146143,-1.57367,0.72219241,0.37481365,-0.58133709,0
1.5641929,2.2490234,-0.06282752,0.57082945,0.82074839,-0.02292799,0
-1.9252359,1.6658869,0.5630337,-0.73836374,0.63889861,0.21593389,0
1.318676,-1.9477603,1.489416,0.47365072,-0.6996094,0.53497827,0
2.4545579,-0.83397418,0.56941789,0.9247939,-0.3142131,0.21453729,0
1.5688885,1.7701337,1.3946593,0.57136083,0.6446507,0.50790972,0
-2.1615384,-1.3673398,-0.20760007,-0.84233773,-0.53284359,-0.080900423,0
0.89287579,-2.1163507,1.3268044,0.33659708,-0.79782367,0.50017983,0
-1.2403623,0.76538414,-2.1748164,-0.473775,0.29234996,-0.83070379,0
-1.6162131,1.9108901,1.0521206,-0.5953154,0.70385659,0.38753775,0
2.1839352,1.3051538,-1.2250103,0.77341247,0.46220341,-0.43382159,0
-0.3200129,-0.9583028,2.4747577,-0.11971841,-0.35850585,0.92581916,0
1.3532922,0.81926984,-2.1883173,0.50117344,0.30340549,-0.81041366,0
1.2976277,-1.8305707,1.6062895,0.47023544,-0.66336375,0.58208859,0
-2.4956913,1.1176592,0.6367898,-0.8888762,0.39807034,0.22680181,0
0.5514431,-2.5244277,-1.0926185,0.19656025,-0.89982474,-0.38946059,0
-1.7083402,-2.1107919,-0.69595432,-0.60941368,-0.75297976,-0.24826677,0
-2.2328348,-1.39227,0.56617427,-0.82956761,-0.51727164,0.21035136,0
2.2388949,-0.80281371,-1.2691119,0.83048552,-0.29779208,-0.47075859,0
-2.212574,1.3012903,-0.97895914,-0.80538744,0.47367585,-0.35634577,0
-1.2574171,0.37202361,-2.3568509,-0.46621409,0.13793565,-0.87385249,0
-1.7927817,-1.0023209,1.7193949,-0.66929173,-0.3741923,0.64189458,0
1.2054551,2.0669625,1.4128227,0.43380994,0.74384266,0.50843585,0
2.4589388,0.66442192,-1.0739737,0.88953972,0.24035965,-0.3885181,0
2.7160411,-0.20508313,0.67146307,0.96817636,-0.073105171,0.23935378,0
2.5343854,-0.25102928,-0.97596353,0.92923629,-0.092040271,-0.35783854,0
2.2389925,-0.92323834,1.1068844,0.84083277,-0.34671357,0.41568011,0
1.906975,-0.41132325,-1.6899315,0.73884857,-0.15936527,-0.65475607,0
-0.91608316,0.020326892,-2.5892863,-0.33352879,0.0074006421,-0.94271082,0
0.51128358,2.4791956,-1.1270531,0.18451674,0.89471507,-0.40674138,0
-0.66003472,1.7167821,-1.9643853,-0.24526954,0.63795787,-0.72996747,0
0.91837984,2.0732899,-1.5005361,0.33775014,0.76248837,-0.55184817,0
-0.43503124,0.75540596,2.4995162,-0.16433868,0.28536436,0.94422454,0
0.38447344,-0.389103,2.6649837,0.14132227,-0.14302397,0.9795776,0
-0.23752455,2.6392763,0.25501195,-0.089221656,0.99139476,0.095790468,0
-0.16170968,-1.7279181,-2.0634286,-0.059976496,-0.64086747,-0.76530498,0
-0.26000994,-2.7355771,0.23883718,-0.094265737,-0.99177432,0.08658962,0
1.0303451,2.2241828,0.98229212,0.39017311,0.84225798,0.37197632,0
-0.30345705,-1.6471196,-2.1059616,-0.11277766,-0.6121403,-0.78266561,0
-1.9873847,1.8386513,-0.29432815,-0.7297411,0.67512822,-0.10807337,0
-0.78601116,0.28776425,2.4977367,-0.29838058,0.10923924,0.94817501,0
-1.2613631,2.3082929,0.080002062,-0.47930259,0.87712306,0.030399807,0
-1.3615329,-2.0607984,-1.3112295,-0.48688364,-0.73694068,-0.46889514,0
-2.4043343,-0.48837283,-1.1955214,-0.88096255,-0.17894275,-0.43804622,0
1.3187938,2.1091301,-0.97208691,0.49380213,0.7897315,-0.36398306,0
1.9401764,-0.63332111,1.7582217,0.72022951,-0.23510055,0.65268457,0
-2.311461,0.9072358,1.0165741,-0.86146945,0.33812204,0.37887186,0
0.3436425,-0.29899067,2.5598569,0.13216674,-0.11499341,0.98453462,0
1.4745998,1.3627176,-1.8185407,0.54433906,0.50303847,-0.67130262,0
0.72697151,0.7708391,-2.4312851,0.27410787,0.29064834,-0.91672701,0
-2.0949528,-1.8303211,-0.085331872,-0.75271463,-0.65763265,-0.030659663,0
-0.33614641,-2.0842967,-1.6886185,-0.12433913,-0.77097249,-0.62461281,0
0.015329408,2.5962265,0.96900034,0.0055316719,0.93685758,0.34966725,0
-1.3184336,-2.316834,0.88621217,-0.46933439,-0.82474375,0.31547272,0
0.23148161,-2.5992479,-0.89392316,0.083918795,-0.9423027,-0.32407305,0
0.013285377,-2.7759013,0.035156719,0.0047855303,-0.99990839,0.012663814,0
-1.2328869,-2.4878275,0.50713938,-0.43680725,-0.88142806,0.17967761,0
-0.61535263,-1.7599832,1.9226363,-0.22976393,-0.65715265,0.71788502,0
-2.3444145,-0.95770466,0.97302896,-0.86414719,-0.3530083,0.35865682,0
-1.192771,1.2148522,-1.9372466,-0.46248484,0.4710466,-0.75114769,0
2.6297543,-0.01517756,-0.81264442,0.95540744,-0.00551411,-0.29523918,0
1.8513871,1.4443704,-1.105342,0.71335942,0.55653149,-0.42590019,0
1.1881311,0.41177613,-2.3057041,0.45239621,0.15678906,-0.87792653,0
-1.5075692,1.1133953,1.9076674,-0.56373549,0.41633943,0.7133469,0
-0.023767048,-1.4012053,-2.3301885,-0.0087406505,-0.51531202,-0.85695803,0
-2.6546021,-0.59400338,-0.27998683,-0.97073907,-0.21721609,-0.10238602,0
-1.705409,1.5922787,1.2744141,-0.64148027,0.5989269,0.47936386,0
1.5968113,0.93895465,-1.8770561,0.60549676,0.35604334,-0.71176314,0
0.051775701,-1.8924507,-1.9796878,0.018901763,-0.69087726,-0.72272491,0
0.07405483,1.6212212,2.163934,0.027378086,0.59936583,0.80000687,0
2.3904288,-1.0165708,0.89723158,0.86981684,-0.36990452,0.32648,0
1.9017102,0.48129502,1.777306,0.71842164,0.18182202,0.67142469,0
2.3156443,-1.307974,-0.20599468,0.86810255,-0.4903411,-0.077224515,0
-0.048514448,2.5029387,-0.84390861,-0.018363992,0.94742799,-0.31944156,0
-0.48076376,2.1421304,-1.4754615,-0.18175261,0.8098318,-0.55779779,0
1.8291684,1.3930984,-1.5180216,0.66390365,0.50563037,-0.55097169,0
-0.67843801,-2.0143521,1.5037849,-0.26056674,-0.77364939,0.57755655,0
-2.2485883,-0.26038197,-1.4904321,-0.82966757,-0.096073821,-0.54992872,0
1.6996466,1.5720907,1.4219398,0.62555611,0.57860911,0.52334595,0
0.36168462,0.83854049,2.4912426,0.13631254,0.3160311,0.93890536,0
-2.4711487,0.063493699,1.1615888,-0.90475816,0.023246856,0.42529082,0
0.71083587,-2.2579138,1.2527499,0.26541388,-0.84306616,0.46775526,0
1.8822985,-0.34091946,1.9236189,0.69384408,-0.12566814,0.70907545,0
2.2275062,1.6858166,-0.14994234,0.79623675,0.60260624,-0.053597875,0
1.8019755,1.7559149,-0.90610313,0.67383581,0.6566118,-0.33883077,0
-2.3869207,1.1760346,-0.71677804,-0.8661567,0.42675492,-0.26010168,0
1.0867838,-2.3630428,0.2453226,0.41599083,-0.90450758,0.093902722,0
1.4463329,-2.214721,-0.77180767,0.52489728,-0.80375755,-0.2801013,0
-0.98104411,-1.4101166,-2.0613995,-0.36560738,-0.52551055,-0.76822525,0
1.9050676,-1.1370895,1.5816901,0.69918394,-0.41732624,0.5805003,0
-2.0377102,0.94005483,1.4867432,-0.75697601,0.349215,0.55230075,0
0.52012014,2.6573091,-0.62268382,0.18720077,0.95641422,-0.22411533,0
2.6479099,-0.23783347,0.85337377,0.94833249,-0.085178584,0.30563051,0
1.8065566,-1.976476,0.60256284,0.65820658,-0.7201156,0.21953967,0
-1.6027519,-2.0081625,-0.61884558,-0.60645509,-0.75985587,-0.23416105,0
-1.5381103,-1.1726607,-1.9546539,-0.55934656,-0.42644781,-0.7108261,0
-0.90191031,-0.089412898,2.6116216,-0.3262569,-0.032344207,0.9447276,0
-1.1438426,1.9097718,-1.4548883,-0.43011618,0.7181266,-0.54707795,0
1.3147891,0.57134354,2.2556379,0.4919439,0.21377495,0.84397358,0
-0.71282172,-2.4965875,0.42562357,-0.27093074,-0.94890803,0.16177186,0
1.67778,-1.1732193,-1.62459,0.64195263,-0.44889748,-0.62160105,0
1.1867687,-0.21748282,-2.4101586,0.44031218,-0.080689974,-0.89421153,0
1.3405147,2.251802,-0.66555804,0.49578831,0.83282721,-0.24615613,0
-0.72561377,1.2419261,-2.358145,-0.26269424,0.449615,-0.85372019,0
-0.093860954,1.9609439,1.783056,-0.035391774,0.73940527,0.67232978,0
1.0806252,2.3094103,0.92569286,0.39837691,0.85137361,0.34126049,0
2.3157649,-0.64751339,-1.1744348,0.86536115,-0.24196452,-0.4388659,0
1.1125053,0.86828393,2.3886747,0.40098804,0.31296161,0.86096668,0
-2.3463516,-0.7341311,-1.1440365,-0.86528033,-0.27073061,-0.42189428,0
0.85063958,-0.78301901,2.4813323,0.31073985,-0.28603795,0.90643424,0
-1.3727545,-1.3409027,-1.9190897,-0.50581914,-0.49408272,-0.70712739,0
-0.83366382,-2.6064861,0.48414665,-0.29998073,-0.93790275,0.1742125,0
-2.1101029,-1.6703422,0.42213792,-0.77460259,-0.61316979,0.15496358,0
-1.6497837,-0.37469035,-2.1361673,-0.60543483,-0.13750324,-0.78392702,0
0.19897556,1.407629,-2.2563813,0.074609771,0.52781796,-0.84607416,0
2.0584095,-1.447244,0.78142893,0.78123796,-0.54927945,0.29657945,0
0.49480101,-2.0202873,-1.7020309,0.18410382,-0.75170141,-0.6332857,0
0.77475947,2.5697207,0.63733083,0.28085178,0.93152869,0.23103364,0
-1.3096792,-2.4653111,0.45100874,-0.46314493,-0.87181377,0.15949129,0
1.1097231,0.76075542,2.2651112,0.42121589,0.28875875,0.85976475,0
-1.4786764,-2.1408014,-0.21548611,-0.56638271,-0.8199988,-0.082538411,0
-2.3623152,-1.5029278,0.029817596,-0.84367251,-0.53675264,0.010648997,0
-0.6976487,1.287377,2.1752715,-0.26605615,0.49095565,0.82956415,0
2.0003481,-0.0084018186,1.7952236,0.7442314,-0.0031259046,0.66791463,0
2.1898098,0.024323698,1.5931522,0.80860454,0.0089817178,0.58828402,0
-1.3995332,-1.5769455,-1.6737692,-0.5198828,-0.58578598,-0.62175292,0
-0.46032089,-2.6753318,-0.43235675,-0.16745888,-0.97325158,-0.15728587,0
1.1912332,-2.1543772,1.0235608,0.44680849,-0.80806518,0.38391784,0
-2.6020956,-0.37367472,-0.37785906,-0.97977579,-0.140701,-0.14227654,0
0.05835348,1.746139,-2.0792842,0.021486286,0.6429444,-0.76561147,0
2.0476663,1.4396397,1.2210617,0.73523563,0.51691741,0.43843475,0
2.2444344,0.42550457,-1.6499712,0.79647261,0.15099694,-0.58551806,0
-2.0307088,-1.7027839,-0.39458323,-0.7579093,-0.63551986,-0.14726794,0
1.7226239,1.5791821,1.3023578,0.64389241,0.59027588,0.48680285,0
0.013909434,-0.94470537,-2.4727089,0.0052546635,-0.35688791,-0.9341324,0
0.85015255,-2.2959468,-1.3169478,0.30580863,-0.8258757,-0.47371969,0
-2.3475301,0.19413449,-1.2340158,-0.88279337,0.073004656,-0.46405408,0
2.2973826,0.6780811,1.3235081,0.839477,0.24777479,0.4836176,0
-1.7150267,-1.4831481,-1.5540971,-0.62390345,-0.53954917,-0.56535941,0
0.94093239,1.2301451,2.055387,0.36561465,0.47799298,0.7986542,0
-0.93908542,2.1677072,-1.3352388,-0.34606454,0.79882681,-0.49205196,0
0.54500514,-0.62920547,-2.6628251,0.19534902,-0.22552939,-0.95445025,0
-2.2953143,-1.213348,0.21579717,-0.8810392,-0.46573457,0.082832128,0
1.6987362,0.49277192,-1.9033574,0.653781,0.18964978,-0.7325322,0
-2.3096695,1.1495501,-0.77440363,-0.85745037,0.42676327,-0.28749251,0
1.2680973,1.6888875,-1.8121837,0.45567802,0.60688478,-0.65119004,0
1.9864465,-0.38145256,1.9620543,0.7049132,-0.13536279,0.69625735,0
-0.8672238,2.4504113,-0.23519021,-0.33227435,0.93886817,-0.090112463,0
-0.36103153,-2.0880628,1.788944,-0.13018563,-0.75294191,0.64508158,0
-1.4428718,0.71437943,-2.2269094,-0.52506816,0.25996619,-0.81038326,0
-1.234758,-1.2606043,-2.0840743,-0.45216444,-0.46162927,-0.76318133,0
-0.46102196,1.4488225,2.2558074,-0.16947167,0.53258711,0.82923478,0
1.3415157,0.36138132,2.2349844,0.50976831,0.13732284,0.84928131,0
-1.6294453,1.0945096,1.9927649,-0.58253372,0.39129189,0.71242201,0
-1.1433212,2.3688409,0.87495226,-0.41244954,0.85455197,0.31563631,0
-0.48243344,0.75377977,2.6241879,-0.17400064,0.27186787,0.9464733,0
2.2048748,1.170755,1.1850023,0.79788524,0.42366496,0.42882067,0
-0.7840063,2.5043838,0.30646467,-0.29673961,0.94788766,0.11599424,0
-0.35448912,2.3882787,1.1501458,-0.13254942,0.89301747,0.43005878,0
0.48315105,-1.3076639,-2.3513343,0.17674978,-0.47837898,-0.86018199,0
-0.4629721,2.3898163,1.0704725,-0.1741004,0.89868909,0.40255058,0
0.091794685,2.220993,1.5406351,0.033940364,0.82119477,0.56963778,0
1.438238,1.2017967,1.9826272,0.52715421,0.44049188,0.72668797,0
1.2633613,0.86298174,2.0835245,0.48873991,0.33385035,0.80602556,0
-2.7665737,0.47360963,0.1219245,-0.98473281,0.16857636,0.043397743,0
0.64408219,1.2078243,-2.3026836,0.24043575,0.45088059,-0.85959131,0
2.695504,-0.77939922,0.13609426,0.9595198,-0.27744311,0.048445538,0
-1.4666852,-0.089077525,2.3042512,-0.53667969,-0.032594655,0.84315628,0
-0.70773739,2.0785201,-1.394765,-0.27207577,0.79904628,-0.53619009,0
2.7058773,0.47628704,0.13151428,0.98373312,0.17315616,0.047812574,0
-0.53878409,1.7916614,1.7933807,-0.20789379,0.69132566,0.69198912,0
1.4506413,-0.93089986,-2.0799847,0.5370068,-0.34460592,-0.76998079,0
2.1631303,-0.6104061,1.636938,0.77795875,-0.21952944,0.58871639,0
-0.6135416,2.4427912,-1.0753855,-0.224032,0.89197439,-0.39267221,0
-1.3911811,-1.9130089,1.4077557,-0.50540763,-0.6949845,0.51142907,0
-2.188942,-0.37334976,-1.496312,-0.81748635,-0.13943189,-0.55881548,0
1.0875399,2.220571,-0.85356712,0.41576272,0.84891659,-0.32631573,0
-0.37072235,2.5953848,-0.90517884,-0.13366152,0.93574899,-0.32635629,0
0.41054875,-0.47730401,2.6148229,0.15264601,-0.17746626,0.97221649,0
1.8154163,-1.94068,0.60268229,0.66622686,-0.71219647,0.22117414,0
2.3869417,0.24916692,1.3357455,0.8690545,0.090718441,0.48632759,0
0.197347,1.2338501,2.3550572,0.074023262,0.46280721,0.88336295,0
0.63148677,1.9182776,1.8339728,0.23148283,0.70317918,0.67227572,0
-2.3739536,1.2636625,-0.19494076,-0.88042033,0.46865034,-0.072297037,0
-0.85090381,2.5264182,-0.53604221,-0.31292179,0.92909604,-0.19713074,0
0.82954705,-0.64070976,2.4880936,0.30725509,-0.23731183,0.92156243,0
-2.0956211,-1.5826863,-1.0392059,-0.74200583,-0.56038874,-0.36795622,0
0.82902855,2.4812272,0.57291234,0.3095631,0.92650169,0.21392812,0
1.7780764,1.5077648,-1.4241143,0.65086865,0.55192053,-0.52130008,0
2.6245341,-0.45850825,-0.03657005,0.98498768,-0.17207815,-0.01372474,0
-0.14336586,1.6010196,-2.1413331,-0.053544227,0.59794819,-0.79974431,0
1.8867821,-1.3268415,-1.3239697,0.70942932,-0.49889189,-0.49781212,0
-2.6385059,0.3248775,-0.53784102,-0.97279543,0.11977966,-0.19829756,0
-1.9436834,-1.5985914,-0.85311931,-0.73145205,-0.60158616,-0.32104811,0
2.4641945,-0.30186284,1.216774,0.89128596,-0.10918217,0.44010064,0
-2.439796,0.15848742,-1.1937165,-0.89672434,0.05825058,-0.43873942,0
-2.5203578,0.98381931,-0.31137863,-0.92543584,0.36124301,-0.11433334,0
2.343209,1.2202785,0.43564484,0.87511832,0.45573744,0.16270028,0
1.2937218,0.94074488,-2.3113682,0.46025234,0.33467788,-0.82228857,0
-1.5875256,2.070538,0.042956799,-0.60837638,0.79347783,0.016462035,0
-1.0497805,-2.3733509,-0.81599283,-0.38588932,-0.87242115,-0.2999512,0
-1.0012676,-1.4529486,1.9128746,-0.38474208,-0.55830276,0.7350316,0
-2.2691655,-1.2863343,-0.082189254,-0.86951274,-0.49290544,-0.031493783,0
1.0060037,-0.82647127,2.4824014,0.35888869,-0.29484105,0.88558894,0
1.4222341,1.7618383,1.4626782,0.52761346,0.65359819,0.5426172,0
0.40715799,-1.8931813,1.8238747,0.1530579,-0.71168041,0.68562686,0
-1.7776027,-0.77589417,1.9874372,-0.64011365,-0.27939904,0.715675,0
-1.4221551,2.2357025,0.70765418,-0.5185492,0.81518656,0.25802636,0
0.93434608,-1.9029059,-1.8075057,0.33538628,-0.68305367,-0.64880949,0
-1.6222131,-1.0761956,-1.9219345,-0.59299695,-0.39340129,-0.70255953,0
0.12839006,-2.06179,1.7355858,0.047585439,-0.76416492,0.64326328,0
-1.1801287,2.4114463,0.086495303,-0.43934271,0.89774221,0.032200795,0
1.9287775,1.1109699,1.5420102,0.71230179,0.41028363,0.56946778,0
1.4778574,2.252768,-0.16603522,0.54748249,0.83455354,-0.061508898,0
-0.65045857,-2.3795583,-1.0065744,-0.24413706,-0.8931213,-0.37779826,0
0.075199872,-0.50371081,2.7214561,0.02716071,-0.18193039,0.9829362,0
2.1058581,-1.5710346,0.030102972,0.80147195,-0.59792262,0.011456939,0
1.3489788,0.20300615,-2.4050503,0.48787668,0.073419958,-0.86981946,0
2.5508602,0.2330233,0.62405503,0.96755236,0.088386752,0.23670679,0
-0.44832283,1.9123707,1.7036126,-0.1724261,0.73550266,0.65521377,0
-0.32567635,2.7162919,0.15592739,-0.11885191,0.99128002,0.05690394,0
-1.2807393,1.1052293,-2.0713189,-0.47889614,0.41326913,-0.77451092,0
-2.0402019,-0.94408047,-1.3975352,-0.77074867,-0.35665527,-0.52796167,0
1.070609,-0.43756667,-2.5119867,0.38713655,-0.15822588,-0.90834457,0
1.7501526,0.058289703,-2.0036902,0.6576916,0.021904746,-0.75296873,0
-1.1896822,0.56968367,-2.4426944,-0.42854699,0.2052113,-0.87990671,0
1.5686842,1.9659365,0.9611184,0.58261782,0.73015946,0.35696459,0
-1.7871547,1.7876948,-0.85892868,-0.66941053,0.66961282,-0.32172698,0
-1.9714465,-1.8056948,0.051999547,-0.73728752,-0.67529917,0.019446947,0
-0.13870253,-2.6314743,-0.71727479,-0.050788127,-0.96355593,-0.26264152,0
-0.45074207,-2.5625746,0.62362015,-0.16846365,-0.95775545,0.23307638,0
0.88621235,2.4520535,0.72084981,0.32760802,0.90645593,0.26647809,0
2.336982,-0.75033617,-1.0880877,0.87043267,-0.27947032,-0.40526929,0
-1.301585,2.1608205,0.69886118,-0.49724922,0.82550609,0.26698846,0
0.98623192,1.5881202,-1.9209697,0.36793286,0.59247893,-0.71665484,0
0.98101765,0.63794899,-2.3980961,0.36764574,0.23907748,-0.89870942,0
-2.0518517,1.7759017,-0.062216617,-0.7559225,0.65425974,-0.022921218,0
-1.2169002,2.160234,0.66025102,-0.47427502,0.84193015,0.25732639,0
0.73379189,1.470113,2.2076266,0.26664311,0.53420532,0.80220079,0
-2.390331,-1.0386671,-0.74401057,-0.88192308,-0.38322076,-0.27450594,0
1.6659096,0.1379652,2.1565506,0.61054695,0.050563507,0.79036427,0
-0.84969765,1.4106197,2.2195597,-0.30744445,0.51040179,0.80309898,0
-0.83520061,2.4998717,0.66249943,-0.30732033,0.91985255,0.24377324,0
-1.5377716,2.0183952,-1.1118885,-0.55507779,0.72856492,-0.40135002,0
1.407272,2.089772,1.0420171,0.51616132,0.76648968,0.38219258,0
-0.32073772,-2.6302514,-0.35935926,-0.11994714,-0.98364216,-0.13439055,0
1.8358388,-1.6874406,-0.76898086,0.70354187,-0.64667177,-0.29469377,0
0.0085769594,2.7724085,-0.090996854,0.0030920054,0.99945694,-0.032804489,0
-2.1055293,-1.2776041,-1.1188284,-0.77836943,-0.47230306,-0.41360709,0
1.810976,0.40523198,-1.9764237,0.66798413,0.14947107,-0.72901005,0
1.9279287,-1.4323322,-1.1521282,0.72374856,-0.53770059,-0.43251142,0
0.82051808,-1.4345458,2.2148607,0.29691562,-0.51910985,0.80147743,0
-2.2287269,0.91819537,-1.2823929,-0.81627738,0.33629158,-0.46967992,0
-0.87240559,0.23140235,2.4677746,-0.3320097,0.088064343,0.93915617,0
1.5181271,-1.7594421,-1.4719671,0.55188078,-0.6396054,-0.5351004,0
0.21856058,2.5526738,-0.47468781,0.083880536,0.97968102,-0.18217865,0
1.760058,0.35345525,-2.0194008,0.65139484,0.13081326,-0.74737722,0
1.0864626,1.3838632,2.0509019,0.40207168,0.51213193,0.75898564,0
2.2985899,1.0453229,-0.7698825,0.87071955,0.39597455,-0.29163608,0
2.077105,1.5952049,-0.81391412,0.75736672,0.58165336,-0.29677433,0
0.0010772864,2.3786783,-1.31045,0.00039667849,0.87587714,-0.48253399,0
-1.3498766,2.3405178,0.5650118,-0.48902705,0.84791195,0.20468986,0
-2.6294065,0.43041605,-0.12810265,-0.98572695,0.16135684,-0.048023853,0
-0.31058922,-1.9764973,1.7431607,-0.11704428,-0.7448349,0.65690297,0
0.90071899,2.500674,-0.097325951,0.33865115,0.94020015,-0.036592484,0
2.742074,0.35614777,-0.10608176,0.99094152,0.12870608,-0.038336243,0
-1.3385115,-2.2648125,0.63058639,-0.49477446,-0.83717722,0.23309328,0
1.1598468,-1.9884948,1.4077165,0.42983764,-0.73693347,0.52169782,0
0.078403264,2.2388539,1.4172595,0.02957616,0.84456563,0.53463453,0
-0.96027488,-0.98109955,-2.3667462,-0.35096651,-0.35857764,-0.86501133,0
0.45164153,1.4680057,-2.2505629,0.16575755,0.53877467,-0.82598203,0
0.85317415,-1.3143936,-2.2475998,0.31138486,-0.47971714,-0.82031149,0
2.2071509,0.7120316,1.3847533,0.81712455,0.26360613,0.51265907,0
-1.0775733,2.246901,-1.254638,-0.38623333,0.80535412,-0.44969842,0
-0.32938424,-2.6645086,0.56446606,-0.12006043,-0.97121233,0.20574766,0
2.1409559,-1.3054094,-0.76513338,0.8166346,-0.49792826,-0.2918483,0
2.5859439,0.59882891,0.18575433,0.97184306,0.2250504,0.069809735,0
0.66880411,1.8958106,-1.724672,0.25249779,0.71573716,-0.65112615,0
0.32741535,1.0737888,-2.5687664,0.11679423,0.38303742,-0.91631955,0
-0.56148815,-0.33741963,-2.575237,-0.21130438,-0.12698086,-0.96913689,0
-2.3415048,-1.1557902,-0.9666571,-0.84093487,-0.41509387,-0.34716806,0
0.023636222,0.97104484,2.5804455,0.0085725263,0.35218433,0.93589139,0
1.1717656,0.22087654,2.5048168,0.42238671,0.079619437,0.90291214,0
-1.0947912,0.67098171,-2.2800694,-0.41837454,0.25641572,-0.87132871,0
-2.1751096,0.22619405,-1.4383552,-0.830998,0.086417168,-0.54952186,0
1.1783671,-2.0084555,1.4689615,0.42799401,-0.72948992,0.53354061,0
-2.0017853,-0.94333279,-1.4785068,-0.75215745,-0.354451,-0.55553907,0
0.90244526,-2.4348087,-0.48769313,0.34156722,-0.92155266,-0.18458736,0
0.72879499,2.1929886,1.4532171,0.26697075,0.80333126,0.53233963,0
2.1746621,1.3673434,-0.71566135,0.81550723,0.51275939,-0.26837596,0
0.73950469,-2.0958257,-1.4163224,0.2806046,-0.79525971,-0.53742266,0
-1.214522,-0.17722216,2.4793139,-0.43901184,-0.064060286,0.8961947,0
-1.8834223,1.8722826,-0.60287338,-0.6916042,0.68751365,-0.2213788,0
1.6240066,-1.5761298,-1.382679,0.61235839,-0.59430563,-0.52136183,0
0.77369672,2.532949,-0.94783938,0.27504557,0.90045154,-0.33695248,0
-2.5883231,-0.31934628,0.68154442,-0.96022666,-0.11847238,0.25284213,0
-1.3548394,-1.5619512,-1.7884525,-0.49558237,-0.5713411,-0.65419227,0
-1.5963502,-1.3104937,1.7835323,-0.58498645,-0.48023361,0.65357977,0
-2.1982203,1.393252,-0.0412376,-0.84453136,0.53527164,-0.015843019,0
2.2097619,-1.3996935,-0.59427601,0.8237955,-0.52180338,-0.2215451,0
2.6458952,0.0046663969,0.47786784,0.98407751,0.0017355548,0.17773153,0
-1.5952865,-1.4593425,1.6028244,-0.59273356,-0.54222316,0.59553432,0
1.559882,2.2016764,-0.59195554,0.56467742,0.79700696,-0.21428795,0
-0.54823619,1.6856962,-1.8928363,-0.21140863,0.65003139,-0.72990793,0
-1.124642,2.3352304,-0.93337089,-0.40823796,0.84767389,-0.33880776,0
-0.51022297,-2.5282049,0.35117161,-0.19601545,-0.97127581,0.13491173,0
0.51281136,-2.4266491,-1.0169687,0.1913019,-0.90525013,-0.37937546,0
1.6567959,-2.0549078,0.64831573,0.6095475,-0.75601584,0.23852018,0
0.68165606,2.5959644,0.65926713,0.24664164,0.93929029,0.23854071,0
2.4131024,-1.0719881,0.90589362,0.86442471,-0.38400897,0.3245104,0
0.50468445,-2.6255417,-0.66947836,0.18311194,-0.95261115,-0.24290322,0
2.5861809,-0.80770862,0.2716718,0.94976699,-0.2966285,0.099770635,0
-0.24987742,2.7550223,-0.19669202,-0.090100639,0.99340415,-0.070923083,0
-1.022401,0.2270616,2.4608009,-0.38229209,0.084901966,0.92013282,0
2.5869575,-0.5451656,-0.56792635,0.95668375,-0.2016079,-0.21002506,0
0.15062177,-1.8463689,-1.9350343,0.056226727,-0.68924487,-0.72234339,0
0.11337883,2.1642144,1.7318971,0.040869124,0.78012401,0.62428868,0
-1.1942525,-0.3495633,2.4986956,-0.42783281,-0.12522867,0.89514065,0
1.1326954,-0.94303668,-2.2760761,0.41772032,-0.34777716,-0.83938116,0
-1.7457027,-1.9245119,-0.62249088,-0.65337145,-0.72029513,-0.23298226,0
2.7402956,0.43371969,0.18515848,0.98551285,0.15598182,0.066589914,0
0.7104373,-2.3106389,1.2588695,0.26066002,-0.84777528,0.46188024,0
-2.5498748,-0.16274071,0.53645355,-0.97667474,-0.062334333,0.205477,0
1.6086006,-1.2650553,-1.7661618,0.59507281,-0.46798441,-0.65335971,0
-1.4769372,-0.28696939,2.221031,-0.55054921,-0.1069719,0.82792068,0
-1.1718427,1.6750412,-1.8514596,-0.4248797,0.60732639,-0.67129111,0
0.6663602,-1.392265,-2.2970297,0.24078485,-0.50308573,-0.83001655,0
-0.81145263,-0.36017409,-2.6261277,-0.29271767,-0.12992665,-0.94733071,0
-0.60920036,1.5034459,-2.204711,-0.22256391,0.54926556,-0.80546421,0
-1.5518483,-2.3289673,-0.01152402,-0.55449837,-0.83217454,-0.0041177031,0
1.9566885,1.8304125,-0.16409607,0.72891271,0.68187195,-0.061129667,0
1.9646468,1.8566,-0.30268458,0.7222957,0.68257272,-0.11128096,0
0.69425935,-2.6141763,-0.58046043,0.25096327,-0.94498152,-0.20982686,0
-1.7788663,-1.5958073,-1.3749753,-0.64519799,-0.57880217,-0.49870598,0
2.4836974,0.97667301,0.51240849,0.91393942,0.35939157,0.18855369,0
0.91256303,2.1853292,-1.4284015,0.32996446,0.79017115,-0.51648128,0
-2.3388429,-0.54813653,1.2903583,-0.85771137,-0.20101519,0.47320622,0
-2.4801514,0.90127403,-0.23825027,-0.93605894,0.34015891,-0.089920431,0
-1.187537,2.2597191,-0.48428589,-0.4570457,0.86969501,-0.18638644,0
-2.6495748,0.036784828,-0.3095277,-0.99315095,0.013788207,-0.11602154,0
-2.5478318,1.0540431,-0.19487551,-0.92174727,0.38132867,-0.070501499,0
0.14862615,0.98771852,2.4878795,0.055438913,0.36842805,0.92800182,0
1.4787084,0.059043098,2.2599859,0.5473845,0.021856423,0.83659583,0
-1.1379529,-0.63826704,2.3573463,-0.42235127,-0.23689285,0.87492919,0
2.3951881,0.50789046,1.0697726,0.89642107,0.19008265,0.40037218,0
2.6569934,0.5768981,-0.33846104,0.96974564,0.21055543,-0.12353102,0
0.54597676,-1.3701655,2.2280114,0.20433412,-0.51279026,0.83384269,0
-0.16211818,1.8573208,1.9791882,-0.059623595,0.68308282,0.72790301,0
2.6535871,0.79487479,0.065088421,0.95768124,0.28687081,0.023490451,0
-1.3842306,2.2382994,-0.76595241,-0.50502008,0.81661689,-0.27944863,0
2.0677152,0.64825654,-1.5616602,0.77412307,0.242698,-0.58466327,0
-0.4744885,-2.3171415,1.5060825,-0.16921678,-0.82636195,0.53711408,0
-0.85056639,-0.7414515,-2.5340478,-0.30663016,-0.26729411,-0.91352719,0
-1.8168525,-0.59171122,1.8598279,-0.68137127,-0.22190851,0.69748825,0
1.9111974,-0.72423238,1.6604046,0.72578758,-0.27503118,0.63054764,0
-2.6422067,-0.25859368,-0.19115652,-0.99267495,-0.09715344,-0.071817353,0
0.040330827,1.4656128,2.2589805,0.014975767,0.54421586,0.83881158,0
-0.10878383,-2.3511817,1.2953528,-0.040491242,-0.87515086,0.48215291,0
-0.49289453,-1.6111965,2.0719836,-0.18456438,-0.60331261,0.77585435,0
-2.5483952,0.77406609,-0.023045667,-0.9567982,0.29062411,-0.008652525,0
-2.0328462,-1.0631385,-1.3519787,-0.76342052,-0.39925388,-0.50772572,0
0.69623661,2.2255766,-1.2089479,0.26506251,0.84729373,-0.46025553,0
-1.9921025,0.95196879,1.4056288,-0.76111495,0.36371505,0.53704321,0
-2.1732581,1.2458642,1.2100031,-0.78119498,0.44783583,0.43494532,0
-2.7075088,-0.23086976,0.33439896,-0.98892421,-0.084325738,0.12214004,0
2.5812726,0.059674978,-0.67567331,0.9671647,0.022359332,-0.2531648,0
0.22082481,-2.5344465,1.0931826,0.079749614,-0.91530085,0.39479664,0
1.7478427,-1.5566951,-1.431694,0.63703382,-0.56736654,-0.52180755,0
-1.4605391,0.89610428,-2.1255209,-0.53495592,0.32821873,-0.77852076,0
2.3090434,1.2155004,-0.3013733,0.87904108,0.46273482,-0.11473128,0
1.1114161,2.4088295,-0.12606044,0.41847682,0.90698636,-0.047465004,0
0.33330148,-1.395986,2.251909,0.12481398,-0.52276564,0.84328973,0
1.2692136,0.98907834,-2.1060586,0.47887483,0.37317967,-0.79461682,0
0.74362183,1.1602814,2.3567877,0.27237478,0.42498943,0.86324733,0
-2.2089725,1.4649509,0.57288003,-0.81457943,0.54021448,0.21125491,0
-1.4935563,0.36531299,2.149411,-0.56515217,0.1382321,0.81332338,0
2.3127306,1.3928334,0.23463109,0.85342592,0.51397258,0.086581752,0
0.029600454,-1.4186169,-2.2977977,0.010960707,-0.52529752,-0.85084802,0
-0.91181701,-2.1388109,1.2980472,-0.34241959,-0.80319923,0.4874627,0
-0.69338822,-2.6590445,-0.23119031,-0.25143972,-0.96423531,-0.083835326,0
-1.6305205,1.4641052,-1.5298113,-0.61009914,0.54783082,-0.57241637,0
0.0031357994,2.5842841,-0.6683836,0.0011747557,0.96814311,-0.25039467,0
-2.3740394,-0.77335978,-1.0332334,-0.87856793,-0.2861996,-0.38237181,0
-0.37911659,2.6452272,0.55337459,-0.13892387,0.96931976,0.20277914,0
-2.4210477,-0.22331035,0.96374577,-0.9257009,-0.085383937,0.3684935,0
2.6819022,-0.36984736,-0.46033973,0.97660702,-0.13467886,-0.1676314,0
1.9097533,-1.6832733,0.86935115,0.70993382,-0.6257419,0.32317355,0
0.0072890162,-2.5641527,0.54957134,0.0027795255,-0.97779006,0.2095684,0
2.4614329,0.44324017,-0.68471485,0.94923955,0.17093341,-0.26405695,0
2.3246474,0.96839482,1.0642214,0.85029697,0.35421422,0.38926515,0
1.4750702,-1.9237485,1.0847099,0.55541611,-0.72435939,0.40843165,0
1.7280015,-0.34877267,-2.0427065,0.64042753,-0.12926126,-0.75706273,0
-0.46478388,-1.3451085,-2.226315,-0.17590037,-0.50906473,-0.84256285,0
-0.36817506,-0.015027596,-2.6919146,-0.13550708,-0.0055309166,-0.99076098,0
-0.66655189,-0.54325676,2.5117383,-0.25106916,-0.20462775,0.9460929,0
-1.7986915,-1.5776653,1.1766075,-0.6746226,-0.59172386,0.44130188,0
-1.9100881,-1.7232023,0.69194067,-0.7170127,-0.64685917,0.25974208,0
2.1835361,-1.1478482,0.96642917,0.8241595,-0.43324682,0.36477154,0
0.95355898,0.81005311,-2.4026091,0.3520132,0.29903698,-0.88694054,0
1.4490339,1.4426811,1.8225769,0.52901316,0.52669388,0.6653862,0
0.073581614,-1.5201677,2.2403774,0.027167585,-0.56127179,0.82718551,0
-0.91669899,1.1559063,2.1860642,-0.34759039,0.43829212,0.82890344,0
-1.9838811,0.68297809,-1.710964,-0.73278117,0.25226989,-0.63197446,0
-0.92616445,-2.3196523,1.1414549,-0.33725595,-0.8446843,0.41565239,0
1.8994431,0.29804775,1.999894,0.68467665,0.10743482,0.72088534,0
-2.3988843,0.48199728,-0.932702,-0.91610527,0.18406901,-0.35618776,0
1.9568201,1.5777981,0.95143944,0.72806001,0.58704001,0.35399523,0
1.9359317,-1.0301635,-1.377682,0.74752104,-0.3977769,-0.53196418,0
1.4960526,-2.1384835,-0.94192356,0.53919226,-0.77073073,-0.33947861,0
-0.48058045,-2.0104089,-1.7873847,-0.17586526,-0.73569596,-0.65408176,0
2.0971127,0.80646265,1.4593486,0.78274661,0.30101192,0.5447014,0
1.6965358,1.8025044,0.89749348,0.64433283,0.68457901,0.34086195,0
-2.2288146,1.411831,-0.52940387,-0.82826668,0.52466118,-0.19673577,0
0.31505686,2.67519,-0.70036846,0.11319792,0.96117872,-0.25163794,0
-1.8154262,0.4603461,-2.0359325,-0.65625238,0.16640899,-0.73596251,0
-2.1682246,-1.0735437,1.2631749,-0.79441309,-0.3933343,0.46281305,0
1.4947301,1.7310115,1.2861011,0.56966704,0.65971786,0.49015495,0
0.089778744,0.51894194,-2.7230694,0.032369848,0.18710522,-0.9818064,0
0.37339768,-0.90356773,-2.4185257,0.14313753,-0.34637186,-0.92711282,0
0.29451129,-2.5310774,0.88998342,0.10911448,-0.93774742,0.32973295,0
1.9783633,1.9284211,0.11357655,0.71548319,0.69742143,0.041075423,0
0.35581213,-1.3153477,-2.3752177,0.12993807,-0.48034826,-0.86739933,0
-2.3902159,-0.99534971,0.77367765,-0.88451141,-0.36833417,0.28630331,0
2.5802872,-0.099355139,-0.66692406,0.96751046,-0.03725443,-0.25007138,0
2.173315,-1.4855348,0.91153228,0.78012425,-0.53324145,0.32719988,0
-1.6377115,-1.8185883,-1.2757643,-0.59339958,-0.65893745,-0.4622536,0
-0.090224735,-0.41283661,-2.6812477,-0.033239979,-0.15209444,-0.98780686,0
0.093389474,1.4493045,2.2155085,0.035253402,0.547095,0.83632779,0
1.059033,2.2147412,-1.2691549,0.3832103,0.80140245,-0.45924276,0
0.58742332,1.4715619,-2.1603615,0.21925922,0.54926914,-0.80636764,0
1.248847,-1.8538532,-1.6300044,0.45142409,-0.67011732,-0.58920211,0
1.9924839,-0.36675367,-1.7819978,0.73846281,-0.1359278,-0.66045159,0
1.117462,-2.2399116,-0.85744208,0.42232677,-0.84653848,-0.32405642,0
-0.35475731,2.1662319,1.7064288,-0.12759475,0.77912366,0.61374736,0
-0.9522047,-1.7627301,1.8950168,-0.34528738,-0.6391992,0.68716884,0
-2.7161026,-0.24022299,0.25671884,-0.99172592,-0.087712213,0.093735315,0
0.59052598,-1.141639,2.3270309,0.2221352,-0.42944461,0.87534755,0
0.71126395,2.2073648,-1.3930895,0.26290771,0.81591827,-0.514934,0
-2.4506638,-0.71082503,-0.77453858,-0.91901034,-0.2665627,-0.29045558,0
-2.6223605,-0.081992283,-0.71037084,-0.96477336,-0.030165179,-0.26134732,0
-0.80321759,-2.0328324,-1.6925308,-0.2905516,-0.73534578,-0.61224693,0
2.2111018,-1.2104944,-0.74871612,0.84084809,-0.46033245,-0.28472525,0
1.9665698,0.89041609,-1.6794609,0.7190094,0.32555038,-0.61403775,0
-2.1805339,1.2853572,-0.82433593,-0.81912464,0.48284861,-0.30966446,0
-0.60380608,-0.26073831,-2.6583023,-0.22049148,-0.095213644,-0.9707306,0
2.1395023,0.68098956,1.3870661,0.81067526,0.25803262,0.52557093,0
-0.56062627,-1.2020748,-2.3793204,-0.20580612,-0.44128212,-0.87344944,0
-2.1549263,1.3196439,0.44923502,-0.83963257,0.5141781,0.17503724,0
-0.1358109,-2.0464702,-1.711904,-0.050836273,-0.76602775,-0.6407941,0
-1.0043207,0.015170541,-2.4133377,-0.38420579,0.0058035338,-0.92322928,0
-2.1892283,-1.2974732,-0.61422002,-0.83625221,-0.49561518,-0.23462278,0
-1.822499,-1.1096511,1.5531155,-0.69056863,-0.42046127,0.58849573,0
2.3299456,-1.2533095,-0.20770045,0.87797099,-0.47227255,-0.078265764,0
-1.9319173,-1.7733427,-0.72857112,-0.70980984,-0.65154761,-0.26768586,0
0.84106314,1.8510486,-1.766119,0.31229961,0.68732262,-0.65578699,0
-1.0112817,2.4877305,0.063526303,-0.37647668,0.92612422,0.023649365,0
0.32893136,-2.6503088,-0.19862878,0.12282637,-0.98965275,-0.074170038,0
1.1143663,2.3293154,0.66461873,0.41794232,0.87360817,0.24926481,0
-2.1622367,1.0265023,1.4094633,-0.77842981,0.36955249,0.5074228,0
2.2727315,1.4146594,-0.25148779,0.8452487,0.52612418,-0.093530506,0
0.42936131,2.4200976,1.0633633,0.16032596,0.90367818,0.39706591,0
-2.3449504,0.51838326,-1.0337154,-0.89687115,0.1982656,-0.3953642,0
-1.8792819,1.9921618,-0.19169594,-0.68452317,0.72563934,-0.06982471,0
2.4477949,-0.24015906,-1.095116,0.90917253,-0.089201108,-0.4067536,0
0.267472,2.7603078,0.11608567,0.096363209,0.9944672,0.04182265,0
-0.14030315,2.6914949,-0.17671275,-0.051946115,0.99650443,-0.065426476,0
-0.22343861,-2.7165871,-0.045417964,-0.081961565,-0.9964962,-0.01666018,0
-0.27341074,2.6353879,0.085719325,-0.1031381,0.99414134,0.032335706,0
-0.77006102,-1.5317981,2.2320018,-0.273608,-0.54425848,0.7930457,0
0.63649267,0.079925798,2.7292581,0.22702421,0.028507935,0.97347176,0
-2.1196473,-1.5505271,0.75798768,-0.77545613,-0.56724805,0.27730379,0
-0.40980405,-2.3657699,-1.2545494,-0.15127482,-0.87329888,-0.46310362,0
2.0125825,1.8034058,-0.076027773,0.7444548,0.66708028,-0.028122693,0
1.5051719,0.33183396,2.2640481,0.54955351,0.12115595,0.82662696,0
1.2104739,1.7440023,1.6985008,0.44522893,0.64146805,0.6247319,0
-0.056257408,-1.7562814,1.970719,-0.021306839,-0.66517115,0.74638689,0
-1.507568,1.609858,1.392971,-0.57792318,0.61713588,0.53399265,0
-1.9815835,0.87731797,1.4419945,-0.76126355,0.33703864,0.55397004,0
-0.1255548,-1.9727883,1.8025233,-0.04693269,-0.73743308,0.67378759,0
-1.3235406,-0.67984396,2.3821294,-0.47123808,-0.24205405,0.84814179,0
1.5387785,2.1024032,-0.20804866,0.58874452,0.80439019,-0.079600483,0
-1.8819098,-0.72157353,1.8852177,-0.68190968,-0.26146203,0.68310827,0
2.4398427,-0.66018152,-0.98936117,0.89887959,-0.24322212,-0.36449748,0
2.7792814,0.039209355,-0.33740577,0.99261409,0.014003533,-0.12050372,0
0.96430784,2.0555565,1.3672249,0.36383778,0.77557093,0.51586026,0
0.50923854,0.73430675,2.5569208,0.18800981,0.27110451,0.94400984,0
-0.29336169,2.052774,1.6050687,-0.1118741,0.78282964,0.61209631,0
0.75810975,2.2843564,1.092398,0.28681839,0.86424869,0.41329086,0
1.3337783,2.3920133,-0.42950466,0.48112398,0.86285329,-0.15493205,0
2.3779564,0.92627835,-0.91466242,0.87716568,0.34167975,-0.33739495,0
0.57561815,0.12439323,2.6684854,0.21064118,0.045520343,0.97650307,0
-1.8743553,0.72722358,-1.7732539,-0.69918716,0.27127483,-0.66147351,0
1.9010998,-1.3146931,1.2720343,0.72057539,-0.49830917,0.48214018,0
-1.4208283,-2.095057,1.1739334,-0.50919086,-0.75081825,0.42070961,0
2.4055872,-1.1201103,0.58146888,0.88553268,-0.41232938,0.2140474,0
2.3017502,-0.18441689,1.5021648,0.83556151,-0.066945434,0.54530293,0
-2.0816205,0.85253608,1.4972441,-0.77035254,0.315501,0.55409032,0
-1.2223852,-1.2702432,2.0188537,-0.45607853,-0.47393459,0.75324523,0
2.6286392,0.70113897,-0.070912689,0.96589148,0.25763297,-0.026056813,0
1.4622872,-2.0095835,0.72837168,0.56462604,-0.77595097,0.28124273,0
0.35539836,-0.86120641,2.5835495,0.12940517,-0.31357649,0.94070405,0
-2.2824819,-1.4021989,-0.034534715,-0.85198808,-0.52340251,-0.012890865,0
0.059683494,-2.6705742,0.23553763,0.02225663,-0.99588639,0.087834559,0
0.39028871,-2.64535,0.61297214,0.14226751,-0.96427935,0.22343975,0
-1.0924973,-1.5688093,-1.8635733,-0.40921181,-0.58762181,-0.69803029,0
-1.3343648,-1.597092,1.5652322,-0.51241499,-0.61330593,0.6010713,0
0.19525911,-2.5860071,-0.97716469,0.070456184,-0.93312007,-0.35259452,0
-1.2194589,0.44266737,-2.4421723,-0.44097584,0.1600756,-0.88312858,0
-1.6724021,-2.0153856,0.52553129,-0.62610477,-0.75450903,0.19674553,0
-1.1625688,-2.2931769,-0.68364751,-0.43699417,-0.86197472,-0.25697401,0
