1.4752377,-2.108803,-0.008380007,0.57321823,-0.81939632,-0.0032561347,0
-1.9684367,-0.87568641,-1.4702601,-0.75468153,-0.33573055,-0.56368494,0
2.4375794,0.37843785,-1.2390375,0.88302892,0.13709156,-0.44884935,0
0.044923201,-1.1063595,2.3952518,0.017024085,-0.41926569,0.907704,0
0.95162803,2.489027,0.26200023,0.3554045,0.92957687,0.097849227,0
-1.2552862,1.6812242,1.5911149,-0.47670951,0.63846439,0.60424435,0
2.5650847,0.40286127,-0.1354811,0.9865483,0.15494306,-0.052106913,0
2.4116771,0.50435305,0.76126313,0.93520266,0.19557855,0.29520339,0
0.96495211,-1.9835219,-1.438864,0.36640114,-0.75316143,-0.54634982,0
-0.92250878,1.5873628,2.0381052,-0.33630115,0.57867408,0.74299252,0
2.0598814,0.61189497,1.5194244,0.78270012,0.2325038,0.57734084,0
-1.4757835,-0.92164779,-1.808179,-0.5881117,-0.36728412,-0.72057402,0
2.1504335,0.5717963,-1.4857633,0.80372167,0.2137081,-0.55530208,0
1.0454034,-1.5729537,1.9112841,0.38905725,-0.58539039,0.71130341,0
-1.2620597,0.053815987,2.3820333,-0.4680793,0.019959554,0.883461,0
-0.51017255,-2.0509522,1.7440774,-0.18618336,-0.74847847,0.63648701,0
0.69244981,-0.5923242,2.4386663,0.26598421,-0.22752389,0.93674183,0
-0.39531836,-0.51011395,2.6071098,-0.14718838,-0.18993008,0.97070187,0
-0.14683646,-2.4977667,0.78873885,-0.055970673,-0.95209104,0.30064905,0
2.1475377,0.1427404,1.3988577,0.83661932,0.05560758,0.54495502,0
-1.250644,-1.2845969,2.0390289,-0.46062008,-0.47312516,0.75098723,0
-0.44174144,2.6612139,0.17889918,-0.16339292,0.98433936,0.066171877,0
1.4123012,-0.21660207,2.2207971,0.53481483,-0.082023583,0.84097874,0
-0.556189,2.6182327,0.39416191,-0.20557545,0.96773642,0.14568791,0
1.5350673,1.3342192,1.7179276,0.57659411,0.50115258,0.64527917,0
-2.4103007,-0.80566663,0.71567327,-0.91291171,-0.30514967,0.27106431,0
-1.6446238,1.7817097,1.0884957,-0.6187827,0.67036068,0.40954188,0
0.32087684,0.16465804,2.6182008,0.12140976,0.062301453,0.99064529,0
0.51098347,2.4487176,0.79063296,0.19477633,0.93340051,0.30137295,0
2.2620127,1.0402639,-0.47724158,0.892286,0.41034824,-0.18825534,0
0.47608453,-2.568866,0.53351372,0.17854105,-0.96337521,0.20007813,0
1.736486,2.0181158,0.014420931,0.65222538,0.75800574,0.005416512,0
-0.85574538,-1.1572986,-2.2380111,-0.32160124,-0.43492919,-0.84107625,0
2.0542443,-1.7280159,-0.071555778,0.7649833,-0.6434986,-0.026646771,0
-1.5787505,0.94782341,1.8065299,-0.61201203,0.36742938,0.70031208,0
2.2345021,0.60314274,-1.1218852,0.86876529,0.23449944,-0.43618438,0
-2.1313732,1.5460789,-0.11824925,-0.80864501,0.58658379,-0.04486388,0
-0.16344857,-2.2973604,1.3238599,-0.061526947,-0.86479539,0.49834061,0
0.059476245,1.3258389,-2.3113163,0.022315428,0.49745345,-0.86720359,0
-2.5772288,0.052419573,0.52453262,-0.979716,0.019926945,0.1993975,0
-0.55944288,-0.099222407,-2.6730371,-0.20471756,-0.036308568,-0.97814745,0
1.8868495,1.8494756,-0.37824586,0.70693654,0.69293386,-0.1417155,0
-1.2191232,1.8087368,1.6645033,-0.44432154,0.65921205,0.60664469,0
0.95576054,2.0169587,1.2446529,0.37399617,0.78925091,0.48704189,0
-2.4791403,-0.96665144,-0.61072195,-0.90807146,-0.35406974,-0.22369817,0
2.2061281,-0.45955762,1.2448701,0.85692513,-0.17850572,0.4835442,0
-1.2701925,-0.84047168,2.2748766,-0.46396822,-0.3070024,0.83095312,0
0.85952049,-1.9746168,1.5382714,0.32477158,-0.746113,0.58123899,0
-0.66593796,2.1241162,-1.4772996,-0.24926017,0.79505539,-0.55295235,0
2.1705313,1.4407368,0.56778187,0.81405264,0.54034489,0.21294525,0
0.72973704,-2.2375426,0.99140924,0.28574315,-0.87615454,0.38820612,0
-2.5838289,0.57277787,-0.57055527,-0.9543733,0.2115635,-0.21074256,0
1.9832928,-1.4265436,-0.9580422,0.75577611,-0.54361492,-0.36508247,0
-1.8947606,-0.89385617,-1.5890175,-0.72058856,-0.33993873,-0.60431266,0
-0.64468014,-1.6241057,-2.1620572,-0.23190798,-0.58423251,-0.77774745,0
1.2140135,-1.5368068,1.8887112,0.4461948,-0.56483328,0.69417113,0
1.8507527,1.3336122,-1.4149709,0.68944997,0.49680269,-0.52711076,0
2.1317158,-1.0197663,-1.2101961,0.8029241,-0.38410136,-0.45582795,0
2.573472,-0.3855176,0.84441227,0.94067705,-0.14091763,0.30865663,0
-0.64946312,-2.1583958,1.4292707,-0.24334039,-0.80870622,0.53551817,0
-1.4968296,-2.0261853,0.093685456,-0.59377891,-0.80376953,0.037164181,0
1.9488506,-0.41154963,1.7117687,0.74204683,-0.15670216,0.65177524,0
0.25281662,2.6597228,0.65646082,0.091893941,0.96675771,0.23861079,0
-0.62271571,-0.98744792,-2.4906654,-0.22638606,-0.35898316,-0.90547246,0
-1.6945753,-1.8381928,-0.99151105,-0.63006109,-0.68345958,-0.36865431,0
2.1775496,1.5500003,0.39091954,0.80611062,0.57379711,0.14471513,0
1.7110237,-1.8393245,0.81264424,0.64804494,-0.69663846,0.30778649,0
0.19742577,-2.1833973,1.4082584,0.075768441,-0.83794844,0.54046416,0
-0.58647412,2.3444488,-1.0889463,-0.22125277,0.88446498,-0.41081506,0
1.1120628,-0.81379265,2.3975003,0.40214732,-0.29428601,0.86699086,0
0.68527889,-2.2592881,1.082145,0.26386118,-0.86992085,0.41667131,0
-0.48384708,1.5958779,-2.1129982,-0.17974967,0.59287018,-0.78498089,0
-0.31523171,-2.5971813,0.74997747,-0.11582524,-0.95427942,0.27556339,0
-0.49469811,-1.5217557,-2.1546082,-0.18432723,-0.56701452,-0.80281883,0
-2.642628,-0.063470274,0.25023139,-0.99526232,-0.023904074,0.094241746,0
-0.3402732,2.6715975,-0.44550902,-0.12465226,0.97868609,-0.16320328,0
-2.3383086,-0.20690691,1.1219975,-0.89872646,-0.079524457,0.43123856,0
2.3997471,0.73215103,-0.57507747,0.93229783,0.28443947,-0.22341666,0
-0.64700747,-0.54404557,2.5370517,-0.24194618,-0.20344393,0.94872159,0
-0.95737129,-2.4444764,0.11776139,-0.36430952,-0.93019921,0.044811867,0
-2.3061194,-0.52231914,1.1154467,-0.88207471,-0.19978346,0.42665064,0
1.4228741,-2.0938976,0.81890512,0.53476453,-0.78695804,0.30777243,0
0.015843011,0.39845949,-2.6164887,0.0059859431,0.15054941,-0.98858434,0
1.2016956,-0.4368692,-2.3071408,0.45557269,-0.16562073,-0.87465614,0
-1.0961993,-1.651233,1.6350271,-0.42664534,-0.64266676,0.63635933,0
1.740732,-1.6731155,1.2248261,0.64296883,-0.61799353,0.45241025,0
0.22863844,-2.5417333,-1.0101187,0.083303757,-0.92607319,-0.36803386,0
2.1672356,-1.0560306,1.0754931,0.82096994,-0.40003467,0.40740725,0
-0.8599385,-2.3030891,-0.7226789,-0.33559668,-0.89879578,-0.28203022,0
1.3788098,1.6035469,-1.5024476,0.53149897,0.61812979,-0.57915843,0
-1.3326792,-0.15079543,-2.2539246,-0.50811797,-0.057494611,-0.85936636,0
1.4782917,-0.12411661,2.2452481,0.54933107,-0.046121553,0.83433098,0
2.5183702,-0.31040886,-0.7198627,0.95480907,-0.1176877,-0.27292708,0
-2.6328275,0.22560801,-0.35737637,-0.98735982,0.084607244,-0.13402286,0
-2.3502917,1.2823611,-0.12019997,-0.87695193,0.47848067,-0.044849582,0
-1.0088686,2.083359,-1.4537944,-0.36908326,0.76217353,-0.53185439,0
0.98043627,2.4470048,-0.79147762,0.35621569,0.88905466,-0.28756252,0
-0.60705721,-0.57693249,2.4601014,-0.23359641,-0.22200438,0.94665027,0
1.6187054,-0.60978043,1.9116924,0.62786722,-0.23652306,0.7415117,0
-1.8521285,-0.74422282,-1.6608418,-0.71327341,-0.28660774,-0.63960701,0
-0.61619335,-2.381026,1.0228285,-0.23133215,-0.89388806,0.38399166,0
-0.26832482,2.3470616,-1.2522534,-0.10035597,0.87782276,-0.46835437,0
-2.229737,-0.15674409,1.4816097,-0.83146697,-0.058449734,0.55249095,0
0.62907541,-2.634402,-0.22799762,0.23144369,-0.96922517,-0.083882801,0
1.0600661,0.09718404,2.534039,0.38568166,0.035358269,0.92195415,0
-1.1585078,0.47731277,-2.2589145,-0.44848654,0.18477938,-0.87448066,0
-1.2534741,1.0764847,2.1641622,-0.46036297,0.39536014,0.79483104,0
1.1507889,2.1245251,-1.1582055,0.4294897,0.79290098,-0.43225768,0
-0.95829654,0.72550327,2.2731173,-0.37268484,0.28215075,0.88402319,0
-2.3870859,1.1402512,-0.55084735,-0.8833921,0.4219743,-0.20385283,0
0.16580446,-0.60538983,2.5771832,0.062508278,-0.22823197,0.97159809,0
1.6150587,1.9986066,-0.79034746,0.60075098,0.74341869,-0.29398438,0
-0.44473293,0.065330677,2.6225576,-0.16714248,0.024553007,0.985627,0
-1.7324421,-0.23634282,2.0401545,-0.64477301,-0.087961078,0.75929612,0
-1.6796088,0.84214592,1.7459009,-0.65485603,0.32834095,0.68070239,0
0.92066181,-2.1682134,-1.0976938,0.35426584,-0.83431715,-0.42238683,0
-1.7342942,-1.2566681,-1.5462369,-0.65654165,-0.47572953,-0.58534986,0
-0.59902424,-0.19571027,-2.6536396,-0.21962866,-0.071756005,-0.9729411,0
-0.063669488,-2.7232459,-0.030626126,-0.023372136,-0.99966365,-0.011242402,0
-2.069829,1.5688871,-0.70003057,-0.76947755,0.5832479,-0.26024267,0
1.9047109,1.7700577,0.70940751,0.70669591,0.65673614,0.26320812,0
2.0507257,1.273687,-1.0999626,0.77302414,0.48011824,-0.41463256,0
-1.8266963,0.73727208,-1.8668523,-0.67307651,0.27166012,-0.68787265,0
0.92150354,2.1560292,1.2335759,0.34781542,0.813779,0.46560511,0
-1.6038418,-0.56517309,-1.9811999,-0.6142832,-0.21646546,-0.7588141,0
1.4540319,-0.092109025,-2.3080709,0.53272021,-0.033746399,-0.84561831,0
1.4302638,0.73963034,2.0538399,0.54803938,0.28340688,0.78697735,0
-0.8230477,-2.2793951,-1.1517354,-0.30674148,-0.84950733,-0.42924005,0
-2.3182645,-0.8778345,-0.85140198,-0.88448411,-0.33491892,-0.32483417,0
-0.13028428,2.6844225,0.32964253,-0.048115812,0.99139494,0.12174162,0
-0.85474283,-2.391794,0.66358817,-0.32559299,-0.91109431,0.25277737,0
1.4923804,1.0257452,1.81145,0.58264542,0.40046471,0.70721447,0
-0.98672539,-1.2631842,2.0959694,-0.37395421,-0.47872797,0.79434115,0
0.44564745,-1.350361,2.2706652,0.16633736,-0.50402057,0.84752291,0
-0.085792467,-1.4088839,2.315187,-0.031639852,-0.51958966,0.85382992,0
-0.39646062,-2.6464012,0.59453267,-0.14463116,-0.96542269,0.21688901,0
0.486469,-0.61107278,2.4592979,0.18852827,-0.23681775,0.95308679,0
-0.57559288,2.0122843,1.733019,-0.21182199,0.74053395,0.63776249,0
2.3863249,1.3574122,0.020364767,0.86919075,0.49442142,0.0074176267,0
0.95143253,-2.0785089,1.3660573,0.3572793,-0.78051591,0.51297802,0
1.8313015,0.22397789,-1.9325012,0.68542451,0.083831057,-0.72330183,0
-0.91863525,2.1429949,-1.4312199,-0.33578065,0.78331,-0.52314121,0
-2.1316898,0.77389807,1.4247569,-0.79593033,0.28895804,0.53197569,0
0.32866403,-2.283869,1.1681149,0.12708244,-0.88308918,0.45166761,0
0.43233848,-2.2769558,-1.3177036,0.16216484,-0.85405809,-0.49425438,0
1.0513265,-2.1712825,1.1625969,0.39258713,-0.81080192,0.43413782,0
1.8160748,-0.82139105,1.8001099,0.67619127,-0.305834,0.6702469,0
-2.1687055,-1.0606059,-0.86007816,-0.84622765,-0.4138478,-0.33560202,0
0.15714413,-2.1549001,1.5703183,0.058833659,-0.80677944,0.5879162,0
-0.66160887,2.3675456,0.90000802,-0.25273219,0.90439379,0.3437998,0
-1.3102416,0.04569323,2.3058937,-0.49395737,0.017226219,0.86931539,0
1.4938068,-1.8800678,-1.3119369,0.54592383,-0.68708605,-0.47945797,0
-0.23133475,-0.047925808,2.7107701,-0.085016869,-0.017613014,0.99622381,0
2.057863,1.4974215,-0.76027185,0.77475673,0.56375831,-0.28623176,0
-0.081298314,-1.3392264,2.1998985,-0.031550601,-0.51973277,0.85374612,0
-2.3608315,-1.142478,-0.092403211,-0.89958018,-0.43533415,-0.035209671,0
2.3745852,-0.87463778,-0.47701299,0.92212987,-0.33965075,-0.18523991,0
0.64993089,2.1971326,1.3947116,0.24229871,0.81910616,0.51995808,0
-1.2788318,0.71158159,2.2632532,-0.47448587,0.26401863,0.83973646,0
0.78400892,2.4951258,0.14671978,0.29929563,0.95251501,0.056010321,0
-1.1224841,2.2628844,-0.7682566,-0.42514572,0.8570773,-0.29098052,0
1.0746326,2.2339909,0.64220077,0.4196384,0.87236172,0.25077602,0
1.4356447,1.1440138,-1.8337804,0.55329376,0.44089994,-0.70673424,0
1.9319136,-0.023673318,-1.8591208,0.72052324,-0.0088291606,-0.69337457,0
-0.092237197,1.6394213,-2.0848758,-0.034756001,0.61775219,-0.78560436,0
0.84554654,-0.72146213,-2.3373635,0.32669422,-0.27875167,-0.90308827,0
2.3738189,-1.1053888,-0.13932551,0.90525264,-0.42153853,-0.053131599,0
2.3269558,-0.95341343,-0.84825963,0.87680119,-0.35924792,-0.31962577,0
-2.5742924,0.37535113,0.34793767,-0.98080343,0.1430085,0.13256399,0
-1.9330285,-0.90118092,-1.6830164,-0.71149635,-0.33170074,-0.61947358,0
0.46655622,0.81319416,-2.4871633,0.17552933,0.30594262,-0.93572885,0
-0.92466509,2.0818212,1.210873,-0.35842967,0.80698025,0.46937296,0
-1.4542865,-0.72475213,-2.2140911,-0.52953511,-0.26389691,-0.80619538,0
0.84282368,2.5243573,0.36841995,0.31369984,0.9395684,0.13712628,0
-1.184396,-1.2531717,1.993324,-0.4493778,-0.47547233,0.75629735,0
-1.9868137,0.020856749,1.7112422,-0.75767416,0.0079537509,0.65258461,0
1.8223609,1.9022691,0.31552148,0.68686801,0.71698636,0.11892354,0
-0.89638066,0.57928753,-2.4237962,-0.33846512,0.21873367,-0.91520321,0
-1.6405077,-0.68356466,1.9240168,-0.62633198,-0.26097921,0.73457336,0
-1.1640968,2.4410973,0.31320995,-0.42757881,0.89662772,0.11504365,0
2.3992941,0.6133371,0.97044444,0.90205681,0.23059486,0.36485565,0
-1.8885312,0.38641405,1.6858922,-0.73745441,0.15089121,0.65832573,0
-2.0608792,1.6480947,-0.2597203,-0.77722591,0.62155116,-0.09794914,0
-1.9385909,-0.6033814,-1.7936326,-0.71557999,-0.22272243,-0.66207242,0
1.1199145,-0.46805826,-2.301533,0.43040729,-0.17988488,-0.8845287,0
1.6584486,-1.2862967,1.685623,0.61608803,-0.47783938,0.62618291,0
1.2420456,-2.4465444,0.21679574,0.45127249,-0.88890302,0.078768402,0
1.2462593,-0.15756895,-2.243897,0.48462638,-0.06127302,-0.87257254,0
1.4040923,1.9254228,-1.1978141,0.5264467,0.72191298,-0.44910526,0
-0.38417059,-1.9723507,1.813659,-0.14192459,-0.72864783,0.67002219,0
-0.63650447,-2.2044592,1.2795705,-0.24227661,-0.83909684,0.48705077,0
-0.12966457,-2.6806614,-0.029422512,-0.048310973,-0.9987722,-0.010962364,0
-0.56811589,-1.0507509,2.3983438,-0.2120354,-0.39216715,0.89512336,0
0.18616195,2.2056265,1.34018,0.071944654,0.85239244,0.51792961,0
-2.0785725,1.3280474,0.56027722,-0.82175094,0.52503538,0.22150217,0
0.54623967,0.16598123,2.5245075,0.2110455,0.064128615,0.97537035,0
-1.1724963,0.64913583,-2.2747583,-0.44409391,0.24586625,-0.86158597,0
0.68193424,-2.3465996,1.0979459,0.25454789,-0.87592316,0.409834,0
-0.90338486,-0.37185195,-2.4585168,-0.34147951,-0.14056006,-0.9293195,0
-0.83036977,-0.77977228,-2.4819324,-0.30406997,-0.28554186,-0.90884948,0
-2.0773914,-0.92854768,-1.1867709,-0.80947143,-0.36181569,-0.46243435,0
2.2946982,-0.54598093,0.98363656,0.89789706,-0.21363798,0.38488913,0
-2.3323143,-1.0939109,0.72953916,-0.87110633,-0.4085696,0.27247879,0
-1.2455629,-0.64777583,-2.2656918,-0.46730667,-0.24303065,-0.85003567,0
2.590482,-0.84348702,-0.060140379,0.9506318,-0.30953529,-0.022069776,0
-1.9896587,-1.4665865,0.97083622,-0.74923509,-0.55226457,0.36558259,0
-2.5343952,0.20980678,-0.8659935,-0.94339222,0.078097567,-0.32235366,0
-1.4081377,2.034924,0.7308287,-0.54572922,0.78864264,0.28323549,0
1.7624962,0.87613165,1.7821791,0.66378689,0.32996649,0.6711998,0
0.18957889,-2.5689154,-0.3851344,0.072788045,-0.98632461,-0.14787078,0
0.99911803,-0.96360964,-2.2285237,0.38054809,-0.36702353,-0.84880906,0
1.9751647,-1.9270567,-0.044308953,0.71567756,-0.69824624,-0.016054826,0
0.58403516,-0.45491025,2.5996866,0.21606626,-0.16829596,0.96176499,0
1.1981761,-1.637267,1.5088737,0.47388107,-0.64754242,0.5967626,0
1.8623908,1.7279795,0.33554846,0.72675353,0.67430276,0.13093977,0
0.97539717,2.4189105,0.30655643,0.37142146,0.92109686,0.11673361,0
-1.0459284,2.1520116,-1.1946031,-0.39109495,0.80468315,-0.44668761,0
2.1838908,1.3553641,-0.31215411,0.84346956,0.5234732,-0.1205612,0
-1.4760115,-1.1155539,-1.7944635,-0.57266688,-0.43281555,-0.69622076,0
1.1452464,2.1219203,1.1425629,0.42921174,0.79524642,0.428206,0
1.5916271,0.94508517,1.8944249,0.60092175,0.35681865,0.71524364,0
-1.7304769,-2.0476105,0.45187753,-0.63650364,-0.75315171,0.1662095,0
-2.410893,0.76517433,-0.60596234,-0.92691779,0.29418716,-0.2329748,0
-0.39393881,-2.3848412,1.2006968,-0.14596005,-0.8836183,0.4448756,0
1.7168906,1.9550083,-0.013286171,0.65985721,0.75137365,-0.0051063104,0
-2.5643265,-0.23228352,-0.1841909,-0.993384,-0.089983366,-0.071352959,0
-2.5681779,0.046896081,0.65828812,-0.9685322,0.017685832,0.24825899,0
-0.47426337,-2.4956992,-0.42947894,-0.1840791,-0.96867287,-0.16669661,0
1.5902376,-1.6525799,-1.3605576,0.59634405,-0.6197226,-0.51021332,0
2.3310881,0.03098035,-1.1790059,0.89229363,0.011858655,-0.45129973,0
0.43902805,0.67553598,2.5105834,0.16650739,0.25620627,0.95217311,0
0.53169537,2.5642562,-0.73658955,0.19544621,0.94259638,-0.27076337,0
0.68997759,-1.7498311,1.8492919,0.26157558,-0.66337383,0.7010802,0
-1.4089944,0.70291835,-2.29827,-0.50575376,0.25231016,-0.82495624,0
-1.7025262,0.94632107,1.7019167,-0.65820324,0.36585137,0.65796757,0
-0.12319493,1.3119369,-2.2987275,-0.046495266,0.49514091,-0.86756772,0
1.606441,-1.5178704,1.5175455,0.59920448,-0.56616753,0.5660463,0
2.3941872,-0.92686796,-0.1923389,0.92995077,-0.36001429,-0.07470832,0
0.65773141,-0.67203218,-2.5625873,0.2409565,-0.24619551,-0.93879062,0
2.10287,-0.64528382,-1.5611429,0.77961004,-0.23923007,-0.57877219,0
0.43216723,-0.32828391,2.5361712,0.16662905,-0.12657516,0.9778617,0
1.2076309,1.195309,2.1498544,0.44069982,0.43620321,0.78454477,0
-1.5576583,0.35066837,-2.2437191,-0.56563479,0.12733874,-0.8147651,0
-1.3561624,1.4703289,-1.612978,-0.52777588,0.5722059,-0.62772048,0
-1.4217315,0.44804093,2.0443692,-0.56192255,0.17708288,0.80801278,0
1.3980434,-0.57462096,-2.2524633,0.51538497,-0.21183248,-0.83036458,0
-0.02253348,-0.99477071,-2.5458114,-0.0082438895,-0.36393756,-0.93138689,0
-1.5001284,-1.4973148,1.6683497,-0.55614775,-0.55510467,0.61851305,0
1.1880859,-1.6437622,1.7170391,0.44708738,-0.61856246,0.64613724,0
0.13228476,1.8407514,-1.8877517,0.050108328,0.6972608,-0.71506411,0
-0.04310431,-2.69645,0.29167983,-0.015890859,-0.99407476,0.10753085,0
-2.4816079,-0.31672627,0.8019346,-0.94460934,-0.12055998,0.30525166,0
0.022731861,0.92932457,-2.5656986,0.0083300034,0.34054741,-0.94019043,0
2.3941669,0.6539849,-0.71312857,0.92714441,0.25325653,-0.27616,0
1.93618,-1.4736683,-1.137476,0.72085404,-0.54865754,-0.42349067,0
-2.6117988,-0.29019392,0.50755364,-0.97584909,-0.10842545,0.1896378,0
1.8756646,0.75362241,-1.7694135,0.69820058,0.28052968,-0.65864944,0
-0.36214373,2.6670313,0.0417662,-0.1345344,0.99078745,0.015515913,0
-1.3075957,-1.7755551,1.5326892,-0.48692214,-0.66118073,0.57074243,0
2.527909,0.6092127,-0.13249433,0.97090787,0.23398367,-0.050887823,0
1.4485482,-0.49966016,-2.1077125,0.5558852,-0.19174626,-0.80884176,0
2.4085581,-1.1617454,0.52806461,0.88363469,-0.42621291,0.19373259,0
1.6936822,1.5599434,1.1865685,0.65384227,0.60221273,0.45807216,0
0.92673492,2.4605336,0.78084701,0.33788288,0.89709812,0.28469288,0
-1.3313979,-0.31225181,2.3990953,-0.48213175,-0.11307402,0.86877108,0
1.7326734,1.3006622,-1.7297908,0.6249783,0.46915111,-0.62393856,0
0.22253026,-0.29452237,-2.6074777,0.084500536,-0.11183782,-0.99012721,0
2.4440892,-0.98315531,0.073294245,0.92739362,-0.37305182,0.027811021,0
-0.87046409,2.5005643,0.41046643,-0.32487664,0.93326646,0.15319525,0
1.8653656,0.61047983,-1.7467643,0.70995462,0.23234746,-0.66481519,0
-2.3162153,1.2218704,-0.79990524,-0.84589374,0.44623336,-0.29212952,0
-0.017495092,-1.6065812,-1.9886383,-0.0068431674,-0.62841076,-0.77785152,0
-0.53374958,2.248208,-1.3069676,-0.20105749,0.84687477,-0.49232006,0
1.8288822,0.38965976,-1.9371632,0.67926514,0.14472352,-0.71948177,0
0.86147004,1.3168224,2.0565069,0.33268154,0.50852901,0.79417956,0
-1.1730244,0.2172894,2.2412159,-0.46201223,0.085582502,0.88273454,0
-0.6069814,-2.500493,0.72144425,-0.22713523,-0.93569601,0.26996776,0
1.9750826,-1.1317861,-1.4661746,0.72943586,-0.41799027,-0.54148638,0
0.91376233,-1.9694914,-1.5154071,0.34511545,-0.74384981,-0.57234842,0
2.5647883,0.16911277,-0.87987894,0.94405246,0.062247369,-0.32386759,0
1.2767547,0.16232415,2.3858962,0.47097164,0.059878431,0.88011384,0
-1.9672918,0.89285791,1.3786818,-0.76761901,0.34838486,0.53794885,0
-1.8269117,1.117313,-1.6033736,-0.6829015,0.41765276,-0.5993427,0
0.55966884,-1.1533282,2.2929199,0.21304876,-0.43903664,0.87284422,0
2.160656,-0.53942966,1.647384,0.78000027,-0.19473498,0.59470826,0
-1.3291993,0.38381618,-2.2339118,-0.50585455,0.14606926,-0.85016173,0
2.2381232,-1.2768848,-0.3826037,0.85916501,-0.49016726,-0.14687292,0
0.63857484,-0.42542839,2.493994,0.24472445,-0.16303919,0.95578665,0
-1.5137211,0.87244976,-2.0298185,-0.56520373,0.32576138,-0.75790781,0
0.080787532,-1.0862552,2.3350272,0.031354409,-0.42158595,0.90624624,0
-0.22159413,-1.6424315,2.0304151,-0.084547922,-0.62665999,0.77469283,0
-0.27982914,-0.85677892,-2.4029064,-0.1090363,-0.33384657,-0.93629998,0
-0.64855033,-1.424579,-2.1347742,-0.2450012,-0.53815961,-0.80644822,0
1.1587939,1.5271229,-1.8566995,0.43420807,0.57222342,-0.69571805,0
1.7058852,1.8005966,-0.60639989,0.66808069,0.70517278,-0.23748612,0
1.84542,-0.76693761,1.5433474,0.7308557,-0.30373615,0.61122358,0
1.3678383,-0.86419314,-2.1725118,0.50496024,-0.31903127,-0.80201888,0
-1.0638814,2.4441516,-0.21582663,-0.39780504,0.91391373,-0.08070159,0
-2.0429547,-1.4725717,-1.0129563,-0.75262332,-0.5424946,-0.37317249,0
-1.4848586,1.6628186,1.3734994,-0.56707579,0.63503969,0.5245471,0
-1.3820839,-0.73895848,-2.1222029,-0.52387899,-0.28010228,-0.80442119,0
0.7704379,-2.5802331,0.34355661,0.28380969,-0.95049208,0.1265575,0
-2.2981992,-1.1072488,-0.53562552,-0.88166839,-0.42477879,-0.20548441,0
-0.58298385,-0.94107151,2.3386333,-0.22531559,-0.36371174,0.90385097,0
-2.5830801,-0.64461672,0.36901361,-0.96105635,-0.23983501,0.13729458,0
-0.9381125,-1.0023425,-2.2456868,-0.35641465,-0.38081738,-0.85319793,0
-0.090585306,-2.2417698,-1.5603757,-0.033146735,-0.82030249,-0.57096857,0
-1.701661,-1.4738888,1.4447567,-0.63614851,-0.55099821,0.54010749,0
2.3879902,0.0376863,-1.297714,0.87855649,0.013865025,-0.47743708,0
-0.084389821,2.6029041,-0.030534299,-0.032402158,0.99940616,-0.011723892,0
1.5420018,-0.45927253,2.0609171,0.58976811,-0.17565757,0.78823721,0
0.276631,-1.7490368,-1.970461,0.10441975,-0.66020799,-0.74378884,0
1.695346,1.2182671,-1.6715064,0.63392121,0.45553261,-0.62500715,0
1.4044358,2.1670043,-0.24898507,0.5413565,0.83529764,-0.095974259,0
1.8737365,1.6464202,-0.9794817,0.69922489,0.61439693,-0.36551455,0
-1.9994595,-0.60907757,-1.6389359,-0.75277716,-0.22931181,-0.6170435,0
-1.1119294,-0.036057968,2.4200904,-0.41746068,-0.013537535,0.90859419,0
-0.99907017,2.184428,-0.92582405,-0.38809401,0.84855247,-0.35964116,0
2.6382959,0.10760984,-0.83910328,0.95224375,0.038839765,-0.30285868,0
1.6836247,-1.8264644,-0.70668328,0.65190375,-0.70721161,-0.27362955,0
2.0970976,-0.88902181,-1.4029102,0.78392285,-0.33232811,-0.5244264,0
-2.4198103,-0.68036878,-0.72841543,-0.9246313,-0.25997505,-0.27833411,0
-1.7670985,-0.78120494,-1.8807364,-0.65537661,-0.28973112,-0.69752228,0
2.0295982,-1.5090536,0.90784407,0.75530201,-0.56158465,0.33784837,0
0.30023125,1.524588,2.1516633,0.11312048,0.57443094,0.81069905,0
-1.1699144,2.2052286,0.79029036,-0.44679618,0.84218788,0.30181587,0
2.3284585,1.4248438,-0.29134798,0.84815556,0.51900828,-0.10612532,0
0.77953881,-2.0106354,1.4641628,0.29906908,-0.77137774,0.56172425,0
-0.89267552,0.51981866,2.455708,-0.33507219,0.19511768,0.92176765,0
2.1168861,1.6467577,0.13426156,0.78831249,0.61324024,0.049998,0
-1.587092,2.1529253,-0.1646308,-0.5922541,0.8034057,-0.061435167,0
-0.033936776,0.9585793,-2.4499032,-0.012898915,0.36434317,-0.93117541,0
-0.94012254,1.0216029,-2.1715949,-0.36474693,0.3963595,-0.84253114,0
2.0329282,-1.5953137,-0.59213722,0.76681799,-0.60175031,-0.22335342,0
-1.0797946,-1.5431073,1.972417,-0.3959367,-0.56582314,0.72324151,0
2.0569878,-1.6919342,0.33972055,0.76610214,-0.63014197,0.12652512,0
0.60120392,-1.6492102,-1.8885899,0.23316999,-0.6396271,-0.73246777,0
-2.5201285,-0.93862695,-0.55733967,-0.91761267,-0.34176669,-0.20293486,0
-2.3965371,-1.1199739,0.035461117,-0.90587127,-0.42334092,0.01340401,0
-0.8252219,1.1713697,2.1653099,-0.31782436,0.45113903,0.83394325,0
-1.0395988,-1.1724131,-2.0555079,-0.40221989,-0.45360562,-0.79527426,0
-1.7509747,-2.0864625,0.28718016,-0.63929266,-0.76178151,0.10485141,0
0.62417245,2.0964589,1.4176792,0.23945527,0.80427796,0.54387331,0
-2.0380013,-0.12190176,1.6160897,-0.78268647,-0.046815898,0.62065297,0
1.4937662,-0.0096128304,2.3302,0.53967524,-0.0034729708,0.8418662,0
-0.67444414,1.2205482,2.1483333,-0.26332721,0.47654584,0.83878648,0
-1.4326781,-2.2131255,-0.36218792,-0.53836989,-0.83164537,-0.1361025,0
1.5220237,-0.071042933,2.0219946,0.60116011,-0.028060127,0.79863578,0
0.50431073,-0.4669345,-2.5922933,0.18804556,-0.17410885,-0.96660489,0
-0.31296757,-1.5581708,2.0815871,-0.11950159,-0.59496224,0.79482025,0
-1.9725796,-1.8231504,-0.47537303,-0.72313768,-0.66835773,-0.17426935,0
-0.096767716,-2.4118717,1.1184244,-0.036374312,-0.90660578,0.42040795,0
-1.7747086,1.6882076,-0.77081954,-0.69112921,0.65744293,-0.30018216,0
0.65507525,-1.2777705,-2.2445929,0.24584503,-0.47953808,-0.84237957,0
1.2906802,0.825315,2.1899149,0.48293269,0.3088074,0.81939858,0
-1.3278246,-1.4493105,1.7838433,-0.50023967,-0.54600787,0.6720385,0
1.9934056,-1.7769769,-0.045174263,0.74636078,-0.66532665,-0.016913917,0
0.077056944,-1.9680523,-1.7988118,0.028888676,-0.73782355,-0.67437524,0
1.0415696,0.7686857,-2.2536469,0.40076172,0.29576498,-0.86712921,0
-1.9486045,-1.1047705,1.3773232,-0.74103767,-0.42013484,0.52378428,0
1.1621171,1.7041407,-1.6752176,0.43733865,0.64131796,-0.63043338,0
-0.03217696,-0.052582964,-2.7402482,-0.011739383,-0.019184271,-0.99974704,0
-0.19484192,-2.0063221,1.7939595,-0.072205372,-0.74351162,0.66481334,0
-0.56886363,-0.56398344,-2.4794688,-0.21831869,-0.21644576,-0.9515714,0
-0.34611699,-0.47312531,2.6288562,-0.12850448,-0.17565948,0.97602785,0
1.1244578,-1.9775119,-1.3432989,0.42563155,-0.74853092,-0.50846761,0
-1.1211165,-2.3614225,0.75477976,-0.41204959,-0.86790556,0.277408,0
-0.01129768,-1.4295555,2.2598851,-0.0042248452,-0.53459215,0.84509963,0
-0.5014807,-1.6247984,-1.8739157,-0.19818102,-0.64210689,-0.74055594,0
-1.9027423,-0.016635757,-1.9284662,-0.70232999,-0.0061405012,-0.71182507,0
0.95441574,-0.47175789,2.3917089,0.36456412,-0.18020029,0.91357589,0
-2.1825624,-1.2626096,-0.76022476,-0.8287459,-0.4794285,-0.28866675,0
-1.5189641,0.29685584,2.2398601,-0.557917,0.10903544,0.82270283,0
-2.4876032,0.70520002,-0.388843,-0.95139009,0.26970553,-0.14871399,0
2.0870104,-0.50678492,-1.4809512,0.79999912,-0.19426233,-0.56768268,0
-0.42650798,-1.3647807,-2.1640396,-0.16443603,-0.526178,-0.83432454,0
-1.344005,2.0639307,-1.1178359,-0.49690393,0.76307404,-0.41328496,0
2.4810519,-0.0098273382,1.0590318,0.91971189,-0.0036429386,0.39257711,0
1.0966623,-0.88973165,2.3583384,0.39895645,-0.32367685,0.85794353,0
2.5433481,0.15372236,0.63595587,0.96846843,0.058535147,0.24216236,0
-0.27630976,-1.0330689,-2.4651387,-0.10282838,-0.38445547,-0.91739869,0
0.5267204,0.66141462,2.430244,0.20470041,0.25704691,0.94447058,0
1.0913963,-1.3399689,-1.9918516,0.41386712,-0.50812805,-0.7553277,0
-1.8913569,1.3009411,1.4990147,-0.68985718,0.47450778,0.54675353,0
-1.6582816,1.8009948,-0.60974526,-0.65727919,0.71384525,-0.24167964,0
1.1395842,-1.7571642,-1.7445611,0.41807932,-0.64465094,-0.64002723,0
1.2508235,0.83310318,-2.2039843,0.46889216,0.31230268,-0.82620043,0
1.4233714,2.1673369,-0.32170048,0.54476452,0.82950115,-0.12312388,0
1.1931225,2.2154043,-1.0678954,0.43648347,0.81046778,-0.39067128,0
2.0955148,-0.2965087,1.4593016,0.81514335,-0.1153402,0.56766003,0
1.6085991,-1.2853981,1.6308635,0.61240298,-0.48935848,0.62087917,0
-1.164629,1.0920095,-2.2179158,-0.42617261,0.39959899,-0.81160182,0
-0.48620236,-0.032764874,-2.5695271,-0.18590499,-0.012528022,-0.98248786,0
-0.62326831,-1.5704898,1.9704075,-0.24012017,-0.60504645,0.75911862,0
-1.2318541,-1.6962272,-1.6052933,-0.46654388,-0.64241731,-0.60797763,0
-0.98966831,1.712467,-1.9124814,-0.35971123,0.6224243,-0.69512284,0
-1.8106059,-0.017168276,-1.7414314,-0.72072393,-0.0068339487,-0.69318855,0
-2.5127146,0.49819237,-0.17915027,-0.9785158,0.19400895,-0.069765732,0
-2.4715524,0.10172122,-0.88218373,-0.94109714,0.038732558,-0.33591059,0
0.40806976,1.8415563,-1.9342722,0.15104105,0.68162513,-0.71594256,0
0.81242007,2.5024121,-0.49428818,0.30347976,0.93477672,-0.18464148,0
-1.6608595,1.9985536,0.61259425,-0.62208652,0.74857223,0.22945145,0
-1.9035878,1.7023835,-0.46436667,-0.7333765,0.65586048,-0.17890197,0
0.32540476,-1.8922262,-1.7062126,0.12668696,-0.73668373,-0.66426468,0
-1.160535,-0.66297787,2.2994907,-0.43633947,-0.2492673,0.86456555,0
-0.095137313,-1.687124,2.058583,-0.035721499,-0.63346964,0.77294254,0
0.091520265,2.1187785,1.7318622,0.033425283,0.77382612,0.63251549,0
-1.7369671,-1.4438847,-1.3245218,-0.66336006,-0.55142987,-0.5058443,0
-0.48484534,-1.3574096,-2.2160082,-0.18340728,-0.51348084,-0.8382715,0
0.82800061,2.1447845,1.30584,0.31315833,0.81117952,0.49388212,0
1.7392923,-1.819863,-0.99145889,0.64285964,-0.67263937,-0.36645302,0
-0.048277546,2.4945443,-0.5310455,-0.018925691,0.97790754,-0.20817967,0
0.13142143,-1.3179293,2.3750038,0.048328292,-0.48464903,0.87337261,0
1.3502809,0.86683196,-2.243309,0.48956999,0.31428638,-0.81335431,0
1.045403,-2.5041265,-0.17604497,0.38444042,-0.92087692,-0.064739436,0
-0.046703257,2.3147385,1.1353817,-0.018111717,0.8976652,0.44030574,0
0.74996424,-2.5210409,-0.73755902,0.27454302,-0.92288959,-0.27000177,0
2.234226,-1.4712967,-0.60661691,0.8144967,-0.53636754,-0.2211448,0
0.36353257,1.0034356,-2.4675963,0.13521726,0.37323153,-0.91783142,0
0.88621229,1.0948417,-2.1321998,0.346793,0.42843395,-0.83437335,0
-0.84424907,2.0362666,-1.3390909,-0.3273291,0.78949368,-0.51918733,0
2.2195544,0.7497775,1.377339,0.81671667,0.2758913,0.5068115,0
-0.52219903,0.38288617,-2.5273526,-0.20015407,0.14675672,-0.9687109,0
0.16398604,0.81127614,2.4912901,0.062466517,0.30903602,0.94899672,0
1.420808,1.8378052,-1.2252184,0.54099494,0.69977319,-0.46652114,0
0.31720501,-1.029562,2.3534522,0.1225529,-0.39777368,0.90926176,0
0.41043165,2.6766801,-0.42394769,0.1497407,0.97655225,-0.15467186,0
0.056627657,-2.4769473,1.0849956,0.020936349,-0.91577572,0.40114406,0
1.5949391,-2.0281689,-0.20265788,0.61625367,-0.78364533,-0.078303091,0
-1.8553745,2.014498,0.27611223,-0.67404217,0.73185045,0.10030929,0
1.8210036,-1.9715865,-0.04490719,0.67840189,-0.73450047,-0.016729852,0
-2.406944,-0.93218344,0.69621545,-0.90033102,-0.34868848,0.26042333,0
-1.9477154,1.0838642,-1.6193917,-0.70693928,0.39339742,-0.58777148,0
2.2408905,-0.52268726,-1.3560945,0.83899742,-0.19569598,-0.50772661,0
0.074849829,2.1716626,-1.4556473,0.028618228,0.83031768,-0.55655503,0
2.1868618,-1.4506178,-0.50482672,0.81832612,-0.54282278,-0.18890673,0
-1.1033698,1.1897111,2.2113144,-0.40228406,0.43376371,0.80623603,0
-2.3711114,0.26041371,-0.88062221,-0.93250585,0.10241497,-0.3463293,0
-1.8218337,-0.68743366,-1.9423335,-0.66240609,-0.2499461,-0.70621896,0
-1.8314118,0.94389141,-1.6236669,-0.69815356,0.35982138,-0.61895895,0
0.72803706,0.18199089,-2.4747665,0.28152531,0.070374221,-0.95696968,0
-2.1072521,-1.5561604,0.23920259,-0.80109382,-0.59159058,0.090935349,0
0.50799686,-2.3960335,-1.1822141,0.18678541,-0.88099784,-0.43468845,0
-0.70102245,-1.6095581,-1.9192667,-0.26951051,-0.61880022,-0.73786873,0
-0.67619187,-2.4551294,0.97494036,-0.24798056,-0.90037221,0.35754094,0
-2.4523168,-0.8235901,0.850878,-0.90050739,-0.30242789,0.31244817,0
2.3764751,0.48098892,-1.3513131,0.85614252,0.17327978,-0.48682043,0
-0.12749594,-2.0355878,-1.6848185,-0.048194151,-0.76946312,-0.63687044,0
-1.0060846,-0.69114,-2.3304863,-0.38242704,-0.26271212,-0.88585091,0
-1.7255881,-1.9138848,0.63612384,-0.65011251,-0.721053,0.23965862,0
2.5176165,0.90075517,0.20782243,0.93872041,0.33585626,0.077488832,0
0.64429802,-1.3019545,2.1464968,0.24858676,-0.50232756,0.8281737,0
-1.6488248,-0.38765997,-2.0439687,-0.6211282,-0.14603525,-0.7699827,0
0.85803533,1.3210205,2.0460305,0.33229339,0.51159477,0.79237109,0
1.9084325,1.5384163,-0.92099702,0.72879833,0.58749539,-0.3517133,0
-2.2793896,-1.2964753,-0.29517698,-0.8637774,-0.49130085,-0.11185767,0
-1.7265596,-2.0241368,0.2507537,-0.64610273,-0.7574603,0.09383554,0
-0.83853424,-2.2076368,1.2162632,-0.31567383,-0.83108491,0.45787328,0
-2.3940358,-0.83320111,0.098760784,-0.94372046,-0.32844493,0.03893115,0
1.3370991,2.0268753,-0.84178501,0.52028149,0.78868181,-0.32754877,0
-1.0007299,2.5126526,-0.014617046,-0.37000433,0.92901427,-0.0054044258,0
-0.98318118,1.6524391,1.706917,-0.38239101,0.64268708,0.66387534,0
-2.3121741,1.2193623,-0.507002,-0.86835247,0.45793965,-0.19040799,0
-1.818994,-1.9132756,0.028747363,-0.68898374,-0.72469497,0.010888692,0
-2.0129478,-1.0417453,1.3440371,-0.76390487,-0.39533779,0.5100562,0
1.4902745,-1.8854016,1.1923976,0.55549014,-0.70277119,0.44445845,0
-2.4371245,0.40120986,-1.1808311,-0.89021432,0.14655089,-0.43132502,0
0.62355036,-2.2850828,0.93894297,0.24472661,-0.89683306,0.36850965,0
-1.1820161,2.3463335,-0.58476216,-0.43915972,0.87174374,-0.21725929,0
-1.3739833,-1.0301077,2.0562723,-0.51286572,-0.38450757,0.76754326,0
1.6064235,0.75601518,1.9337715,0.61192632,0.28798482,0.73662126,0
0.18109789,-2.3945735,1.081136,0.068765461,-0.90925378,0.41052279,0
-2.6118643,0.76257986,-0.05234991,-0.95974469,0.2802144,-0.019236278,0
1.5805668,1.3945179,-1.450269,0.61776,0.54504335,-0.5668335,0
-0.79165757,2.5902181,-0.45550758,-0.28823894,0.94308674,-0.16584826,0
-0.79114413,1.3821857,2.0520337,-0.30457494,0.53211433,0.78999263,0
1.6369233,-0.53100443,-2.0538619,0.61090147,-0.19817141,-0.76650339,0
1.0802284,0.2491616,2.4286711,0.40462199,0.093328647,0.90970916,0
-1.0096381,1.4748635,-1.8275168,-0.39496857,0.5769639,-0.71492124,0
1.575165,-2.0501797,-0.52295697,0.59715635,-0.77723783,-0.19825673,0
-1.3855255,-1.1553621,1.8939189,-0.52971196,-0.44171625,0.72408009,0
0.45962107,-1.6416854,-2.0385394,0.17295587,-0.61776787,-0.76710445,0
-0.13162589,-2.1257973,-1.5965838,-0.049449116,-0.7986179,-0.59980339,0
-1.647287,2.0461252,-0.054207109,-0.62696964,0.77877039,-0.020631628,0
0.70154965,-1.0231014,2.3647971,0.26271078,-0.38312295,0.88555056,0
-1.1513555,2.2958703,-0.66965824,-0.43377692,0.86497653,-0.25229591,0
-0.90835208,-2.5568027,-0.19931139,-0.3338702,-0.93976808,-0.073258087,0
-1.5531477,1.8521756,-0.97563231,-0.59583801,0.7105549,-0.37428433,0
1.8837365,0.86830628,1.8095527,0.68434387,0.31544757,0.65739357,0
-2.4679148,0.26006606,0.79549205,-0.9470259,0.099796511,0.30525833,0
1.9295537,-0.96094066,-1.3237139,0.76279444,-0.37988067,-0.52329278,0
-2.5624156,-0.020210989,-0.33442065,-0.99156052,-0.0078209089,-0.12940848,0
2.1333175,-1.5142906,-0.18058576,0.81351298,-0.5774551,-0.06886404,0
-1.4195304,-2.033186,-0.82236391,-0.5433594,-0.77825081,-0.31477955,0
2.3137069,1.0814447,0.71276975,0.8725813,0.40785134,0.26881087,0
2.0176556,-0.40607896,-1.5535572,0.78245008,-0.15747808,-0.60247195,0
-0.85790342,-1.6278412,-1.9338728,-0.32138363,-0.60981399,-0.72445804,0
-0.51025069,-0.19355151,-2.5604465,-0.19490407,-0.073932245,-0.97803187,0
-0.64009511,0.52714515,-2.4385996,-0.24851042,0.20465875,-0.94676149,0
-0.37663421,0.42506596,-2.6559491,-0.1386729,0.15650499,-0.97789359,0
0.25051516,1.6979644,2.1538994,0.090960465,0.61652011,0.78206724,0
0.92730474,2.190403,-0.96080643,0.36147606,0.85384905,-0.3745355,0
-1.3807493,-0.16080298,-2.2716713,-0.51844835,-0.060378835,-0.85297465,0
-1.2737181,-2.223865,-0.099693142,-0.4966273,-0.86709303,-0.038870718,0
0.67903376,0.46740761,-2.5211031,0.25600198,0.17621697,-0.95047909,0
1.5231113,0.49840957,-2.1563663,0.5669142,0.18551201,-0.80261672,0
-0.33187634,1.0681555,2.4102015,-0.1249018,0.40200078,0.90708041,0
-0.75376409,1.7904921,1.7964919,-0.28486747,0.67667449,0.67894197,0
1.0522619,0.14650179,2.4528072,0.39366186,0.054807805,0.91762,0
0.32464239,-2.5900061,0.64034069,0.1207896,-0.96366286,0.23825137,0
-2.2625639,1.1877393,-0.77010787,-0.84775388,0.44503078,-0.2885496,0
-1.8339461,-0.55115086,-1.7653896,-0.70412928,-0.21161008,-0.67780757,0
1.7065784,-1.0482305,-1.6458393,0.65832764,-0.40436417,-0.63489705,0
-1.118247,1.1644315,-2.0595,-0.42732519,0.44497404,-0.78701413,0
-1.2178338,2.3000212,0.56907272,-0.45713952,0.86336136,0.21361342,0
1.131852,-2.0504594,1.1685659,0.4324263,-0.78338206,0.44645289,0
-1.7239056,-0.089098781,-1.9368242,-0.66446358,-0.034342308,-0.74653113,0
0.58819056,-1.7492718,1.9913632,0.2166415,-0.64428926,0.73345602,0
-1.0115891,2.3608274,-0.90163261,-0.37162256,0.86728567,-0.33122838,0
1.2025139,0.90872318,2.0808096,0.46802166,0.35367751,0.80985671,0
-1.4118611,2.2975852,-0.30579329,-0.52021539,0.84656996,-0.11267282,0
1.3769993,-0.88037902,-2.0351112,0.527556,-0.33729085,-0.77969187,0
1.2533214,2.0605836,1.0898201,0.47355786,0.77857566,0.41178018,0
0.87377352,1.3930857,-1.9738259,0.34011185,0.54225147,-0.76830161,0
2.5111613,0.48193926,0.7214998,0.94517112,0.18139619,0.27156392,0
0.44488236,0.9120813,2.4205871,0.16949831,0.34749916,0.92223352,0
-1.1304262,-0.51539427,2.3176093,-0.42988485,-0.19599704,0.88135356,0
1.0037684,1.4328526,-2.0369048,0.3738333,0.53363705,-0.75860411,0
0.89892185,0.3505221,-2.5333524,0.33159938,0.12930258,-0.93451732,0
-0.40745804,2.5690346,-0.68634707,-0.15146163,0.95496988,-0.25513116,0
1.3460956,1.9389889,1.2319313,0.50556153,0.72823822,0.46268418,0
-1.9086405,-1.6780906,-0.86115789,-0.71128416,-0.62536621,-0.32092369,0
0.54553241,1.7310718,-1.7790717,0.21464829,0.68111742,-0.70000374,0
-0.83734518,-1.2135898,-2.1618056,-0.31999505,-0.46377853,-0.82614326,0
0.45514768,-0.26892352,-2.5108902,0.17738047,-0.10480507,-0.9785459,0
-0.44418785,-0.72009933,2.4534755,-0.17115334,-0.27746686,0.94536698,0
0.10921365,0.50149262,-2.5422535,0.042109795,0.19336183,-0.98022342,0
1.697746,-1.7352725,-1.0782274,0.63913226,-0.65325946,-0.40590873,0
-1.895928,0.25097463,1.9004565,-0.70319629,0.093086034,0.70487589,0
2.0361383,-0.12581629,1.7012718,0.76652712,-0.047364954,0.64046288,0
-0.57409739,2.3345172,-1.2819421,-0.21071613,0.85685885,-0.47052276,0
-2.3354685,-0.96541017,0.13302137,-0.92287761,-0.38148895,0.052564375,0
0.73776472,0.052772455,2.5235157,0.28055313,0.02006802,0.9596287,0
1.3904395,-1.7679889,1.4024106,0.52456862,-0.66700596,0.52908492,0
-1.1296846,1.8388267,1.5977843,-0.42070529,0.68479657,0.59503007,0
-1.2528441,-2.3421581,0.53813213,-0.46227863,-0.86421734,0.1985618,0
0.60196525,2.0853243,-1.5316933,0.22660036,0.78498757,-0.5765819,0
-0.46251637,-2.2657924,-1.1579758,-0.17883728,-0.87609476,-0.4477447,0
-0.40531799,-0.50925624,-2.5562634,-0.15365629,-0.19305934,-0.96908098,0
2.1891179,-0.81786382,-1.339353,0.81273746,-0.30364221,-0.49725157,0
-0.073502883,-2.5427167,-0.95289952,-0.027058933,-0.93606126,-0.350795,0
1.8500464,-0.56338662,1.6508582,0.72758651,-0.22156876,0.64924973,0
-0.76741695,0.2621614,2.4952276,-0.29249385,0.099920385,0.95103276,0
1.5011976,-0.60886246,2.1231964,0.5621134,-0.22798447,0.79501671,0
-1.4727595,-0.31370541,2.2992072,-0.53585774,-0.11414048,0.83655751,0
-2.2324426,1.1709322,0.84287649,-0.83987433,0.44052011,0.31710124,0
-1.4479513,1.5621064,1.5467733,-0.55006111,0.59342736,0.5876025,0
2.0066872,-1.0348008,1.3127482,0.76834875,-0.39621916,0.50264359,0
-0.0626195,-2.563024,-0.27137074,-0.024288908,-0.99414808,-0.10525953,0
0.66775185,-2.2487037,1.3279419,0.24772377,-0.8342281,0.49264225,0
-1.7971743,-0.99964875,-1.6661617,-0.67901456,-0.3776907,-0.62951493,0
-0.79354966,-2.1233647,-1.5283821,-0.29026014,-0.77667236,-0.55904299,0
0.61490619,-1.9323161,1.7167478,0.23143648,-0.72727907,0.64614415,0
2.0006917,-1.6473207,-0.029902464,0.77193707,-0.63559419,-0.011537421,0
-1.7093408,0.94226903,-1.7213223,-0.65682364,0.36207208,-0.66142762,0
-1.4012271,0.43916711,2.2648699,-0.51911753,0.16269979,0.83907431,0
-1.5032508,0.026593244,2.1472642,-0.5734753,0.010145059,0.81916004,0
-0.59256864,1.690492,-1.9943663,-0.22104618,0.6306051,-0.74395949,0
2.0942676,-1.634733,-0.32609394,0.78241074,-0.61073029,-0.12182751,0
0.27148819,0.89800096,2.5074716,0.10140663,0.33542249,0.93659407,0
-1.2895377,2.342875,-0.78464144,-0.46268955,0.84062976,-0.28153142,0
2.5043042,-0.68791139,-0.62075913,0.93786246,-0.25762296,-0.23247443,0
1.9921223,-0.11422509,-1.7679787,0.74724364,-0.042845748,-0.66316754,0
-2.0518916,1.4637561,-0.63131797,-0.78969133,0.56334144,-0.24296916,0
-1.0499144,1.4729067,-1.9335588,-0.39653519,0.55629236,-0.73027301,0
-1.7893202,-1.7642138,0.63019907,-0.69069415,-0.68100286,0.24326268,0
-1.8964363,0.61096674,-1.6991638,-0.72422594,0.23332076,-0.64888996,0
0.14530824,0.27338877,2.6967881,0.053530347,0.10071415,0.9934743,0
1.6104045,-1.7370675,1.0740108,0.6191892,-0.66789025,0.41294962,0
-0.29224905,-2.5988472,0.59155196,-0.10899543,-0.96925026,0.22062163,0
-1.9974512,0.75316668,1.4953798,-0.76636904,0.28897008,0.57373756,0
-0.66967195,-2.055639,1.5315832,-0.25275391,-0.7758587,0.57806462,0
-0.22978576,-0.10320291,2.7253063,-0.083957709,-0.037707645,0.99575567,0
-0.033412199,2.6072822,0.4740082,-0.012607282,0.98379463,0.17885548,0
-1.6327109,2.029773,0.50073898,-0.61550575,0.76519173,0.18877053,0
0.39179698,2.1674535,1.5487295,0.14551052,0.80497634,0.57518679,0
0.89374471,-2.15395,1.1248331,0.34519279,-0.83192438,0.43444651,0
0.94627136,1.6599824,1.7964302,0.36081156,0.63294828,0.68497556,0
-1.4362938,-0.066484794,2.112061,-0.56214434,-0.026021173,0.8266297,0
1.066192,2.4291356,0.24331373,0.40022871,0.91185242,0.091335461,0
0.43179032,1.0704396,2.3344569,0.16580395,0.41104007,0.89641237,0
-0.79568082,0.75271535,-2.476907,-0.29379612,0.2779316,-0.9145698,0
-2.4862883,-0.96486342,0.07567998,-0.93188602,-0.36164057,0.028365623,0
-1.8934706,-0.7665267,-1.5671377,-0.73543435,-0.29772314,-0.60868484,0
1.8116221,0.95469934,-1.5460817,0.70604032,0.37207329,-0.6025517,0
1.5056049,-2.1117926,-0.18387865,0.57906485,-0.81220835,-0.070720851,0
0.57679981,-0.54566234,-2.5433512,0.21648313,-0.2047967,-0.95456451,0
0.84546131,-0.46884787,-2.4497066,0.32103252,-0.17802756,-0.93018508,0
0.99865317,-0.30666772,-2.364742,0.38629344,-0.11862349,-0.9147163,0
0.53449059,-0.36522794,-2.4774647,0.20873278,-0.14263122,-0.96751583,0
-1.0827879,0.18660329,2.2929921,-0.42585036,0.073389329,0.90181237,0
-0.64073467,1.9794391,-1.5336684,-0.24789174,0.76581872,-0.59335595,0
-1.8488084,-2.0462096,-0.24538124,-0.66777164,-0.73907101,-0.088629313,0
-1.9289516,-0.19220679,-1.9540855,-0.7008003,-0.069829933,-0.70993155,0
-2.1571763,-0.6528787,-1.3720045,-0.81755483,-0.24743649,-0.51998019,0
-0.039336812,1.4611802,-2.1803617,-0.014985509,0.55664217,-0.83061719,0
-1.8740904,-1.6013161,-0.95079416,-0.70933145,-0.6060881,-0.35986963,0
2.4291282,0.82463473,0.47903422,0.93083304,0.315997,0.18356416,0
2.6961222,0.18704614,-0.19791675,0.99493784,0.069024794,-0.073036328,0
1.188689,-0.31531489,2.2664492,0.46098164,-0.12228125,0.87894434,0
0.22142322,1.9123741,-1.8956416,0.081954323,0.70781791,-0.70162481,0
-1.8239598,1.6956116,-0.85589778,-0.69264072,0.64390105,-0.32502344,0
2.5285239,0.074732229,0.72137666,0.96124208,0.028410157,0.27423808,0
-1.0721529,-1.8370628,-1.5532267,-0.40707681,-0.6974991,-0.58973169,0
-1.8310214,-1.5270151,1.1010163,-0.69722712,-0.58146578,0.41925147,0
-2.0166936,1.1988947,-1.2659389,-0.75647867,0.44971547,-0.47486427,0
0.20432582,-1.8229192,-2.0047922,0.075193122,-0.67084521,-0.7377755,0
-1.8460689,1.3798399,1.4658017,-0.67587101,0.50517827,0.53665006,0
0.8821466,-1.4697968,1.9650955,0.33828562,-0.56363773,0.75357497,0
-1.8729548,-1.8537817,-0.23848884,-0.70784247,-0.70059639,-0.090131663,0
0.86916709,-0.29395196,2.5598466,0.31962723,-0.10809779,0.94135714,0
0.46908244,0.46677858,-2.6078546,0.17434725,0.17349096,-0.96928012,0
-0.39350384,1.445106,2.1206648,-0.15156756,0.55661774,0.81682563,0
-2.2871819,-1.4732809,0.049697582,-0.8405447,-0.54143423,0.018263979,0
-2.1733286,-0.89495236,-1.2482802,-0.8166427,-0.33628431,-0.46904957,0
-0.92899209,0.55642295,-2.4644027,-0.34511629,0.20670855,-0.91551423,0
-0.65257806,-0.92219222,-2.3935108,-0.24655992,-0.34842673,-0.9043268,0
-0.42032087,2.1208584,-1.5310762,-0.15865226,0.80052888,-0.57791257,0
0.81117463,0.82447731,-2.4292917,0.30148682,0.30643097,-0.90288746,0
1.0890921,-2.3772204,-0.64985704,0.40421078,-0.88229275,-0.241191,0
-0.76132214,-1.8234961,-1.7898732,-0.28555033,-0.68394166,-0.67133063,0
-1.8679823,1.6894306,-0.57626545,-0.72298139,0.65387499,-0.22303702,0
1.5672317,-1.2012761,-1.6351088,0.61130226,-0.46856043,-0.63777786,0
0.53620368,1.8093299,-1.7849158,0.20642903,0.69656038,-0.68716139,0
-0.10301054,-0.82361233,2.5516386,-0.038390271,-0.30694628,0.95095223,0
-0.25299755,-1.8594913,-2.0312464,-0.091485344,-0.67240256,-0.73451018,0
0.34675226,2.4163203,-0.99019819,0.13163169,0.91726673,-0.37589216,0
-1.3209746,1.2067199,-2.0101845,-0.49086893,0.44841233,-0.74697661,0
1.8388207,-0.82674545,1.8985301,0.66399491,-0.29853633,0.68555588,0
1.1498033,2.3182735,-0.62540483,0.43189165,0.87079507,-0.23491596,0
-0.072905384,-1.75482,2.0991797,-0.0266368,-0.64114314,0.76695883,0
2.135689,1.4253653,-0.011615356,0.83175898,0.55511844,-0.0045236815,0
0.35174218,-0.50207442,2.4897287,0.13718019,-0.19581009,0.97099948,0
-1.2677073,-2.2565126,-0.73240823,-0.47129101,-0.83889562,-0.27228478,0
0.53110677,2.6970673,0.026952671,0.19320035,0.98111033,0.0098045552,0
-0.90531909,-0.31045896,-2.5400865,-0.33352321,-0.11437434,-0.93577814,0
2.1071291,0.79905784,1.3133324,0.80784947,0.30634972,0.50351679,0
1.5721089,-0.52705771,2.0611997,0.59429216,-0.19923954,0.77917933,0
0.3536109,-0.73514229,2.6155102,0.12906566,-0.26832211,0.95464408,0
-2.1682942,-1.4879092,0.49441126,-0.81034005,-0.55606496,0.18477254,0
-0.68326479,-0.75467789,-2.4732859,-0.25546345,-0.28216383,-0.92472804,0
2.2362044,-1.4426458,-0.45698148,0.82818586,-0.53428876,-0.16924465,0
-2.5687335,-0.64066482,-0.15066257,-0.96870995,-0.24160482,-0.056817234,0
2.327883,-1.089865,-0.35349292,0.89721286,-0.42005584,-0.13624327,0
-1.4882733,-1.6928957,-1.4294025,-0.55759567,-0.63425934,-0.53553915,0
0.8400017,-0.036548901,2.6055956,0.30680573,-0.013349273,0.95167857,0
-1.0209222,2.0499365,-1.1243021,-0.40017468,0.80352128,-0.44069692,0
-1.2678869,2.1425152,-0.60767615,-0.49475604,0.83605433,-0.23712797,0
2.2349772,0.21350861,1.347275,0.85357594,0.081542581,0.51454729,0
0.28382963,-2.5704997,-0.097639665,0.10967291,-0.99325138,-0.037728358,0
1.0306954,2.4186947,-0.40520555,0.38745186,0.90921891,-0.15232205,0
-0.35735184,-1.0199598,-2.4544325,-0.13324882,-0.38032112,-0.91520518,0
2.1725783,0.7568236,1.4311844,0.80184954,0.27932647,0.52821779,0
-2.0847745,-0.99131972,-1.2080004,-0.80016524,-0.3804822,-0.46364725,0
0.6270982,-0.15154976,2.5411785,0.23918661,-0.057803825,0.96925151,0
2.1283114,0.000901711,1.5975295,0.79976612,0.00033884041,0.60031164,0
1.1712469,-0.25486732,-2.2827389,0.45426953,-0.098850593,-0.88536304,0
1.4627452,2.2807677,-0.078992844,0.5396238,0.84140182,-0.029141381,0
2.6917899,-0.12833677,-0.32161281,0.99182707,-0.047287453,-0.11850267,0
1.4432008,1.7105863,-1.3707726,0.54989749,0.6517784,-0.52230042,0
-0.90804398,0.47412375,2.4201515,-0.34552446,0.18041125,0.92090422,0
1.3649544,2.1765137,-0.51129395,0.52107614,0.83089179,-0.19518827,0
-1.4499702,1.840485,1.0815724,-0.56186903,0.71319503,0.41911346,0
-1.1069853,-2.3481221,-0.348194,-0.42263868,-0.8964954,-0.13293786,0
-0.6457001,1.7484921,1.7670698,-0.25140148,0.6807704,0.6880036,0
1.0936356,-1.9425728,1.18621,0.43308571,-0.76926959,0.46974573,0
0.7974984,0.28914434,2.586267,0.29300028,0.1062314,0.95019245,0
-0.56042546,2.2541823,1.4115952,-0.20618351,0.82932568,0.51933342,0
0.79773194,-2.1948597,-1.2926676,0.29886249,-0.82228279,-0.48428532,0
-1.0766088,2.1208508,-1.1108676,-0.41012189,0.80791402,-0.42317241,0
0.33544609,0.66905922,2.5726748,0.12519766,0.2497112,0.96019256,0
0.11141244,-1.9740874,-1.8211428,0.041446213,-0.7343744,-0.67747796,0
-2.1732731,0.37236238,1.3456945,-0.84132671,0.14415051,0.52095103,0
0.75570834,1.2715991,-2.2103493,0.28413898,0.47810885,-0.83106983,0
0.6254856,1.7581517,1.7783659,0.24264571,0.68204284,0.68988454,0
1.7541115,0.90558481,-1.7072394,0.67209518,0.34697863,-0.65413594,0
1.1508005,-1.6228168,1.803328,0.4285844,-0.60437405,0.67160058,0
2.1954622,-0.92418939,1.3658047,0.79956126,-0.33657879,0.49740985,0
1.6581534,-0.97655922,-1.7488286,0.63767862,-0.37555689,-0.67254972,0
0.46662429,1.518245,2.0619683,0.17927846,0.5833143,0.79221445,0
1.5386744,1.6177951,-1.441364,0.57899302,0.6087656,-0.5423758,0
0.17119542,-2.2859571,1.3466041,0.064392626,-0.85982901,0.50650525,0
0.072445363,2.0217032,1.5287143,0.028570775,0.79731297,0.60288954,0
-1.3749889,-1.7886107,-1.4577131,-0.51190758,-0.66589874,-0.54270577,0
0.91512018,0.96553355,2.3211763,0.34205475,0.36089835,0.86761218,0
