0.86430174,0.56985587,-2.6886153,0.29999617,0.19779502,-0.93320918,0
1.3057436,0.85316008,-2.4219582,0.45326489,0.29615885,-0.8407383,0
-1.1849442,1.1841041,2.3160043,-0.4145577,0.41426378,0.81026381,0
0.38724688,0.64812338,-2.8350756,0.13199118,0.22090966,-0.96632153,0
-2.6299767,-1.3958825,0.45214137,-0.87328404,-0.46350291,0.15013358,0
-2.3007457,0.78703547,1.6267529,-0.78641635,0.26901606,0.55603927,0
2.7266347,0.025033548,-0.74108702,0.96495384,0.0088593531,-0.26227009,0
-1.1545466,-1.5389971,2.0565174,-0.40997207,-0.54648793,0.73025608,0
0.20830852,-0.15057094,-2.9931428,0.069340058,-0.050120838,-0.99633318,0
0.046428408,-0.89665157,2.7697444,0.015945816,-0.30795458,0.95126742,0
1.7789636,1.0157908,2.10359,0.60585999,0.34594694,0.71641773,0
-2.8829126,0.23693503,-0.6167925,-0.97472733,0.080108933,-0.20854066,0
1.7477132,1.0252389,2.1702156,0.58863747,0.34530494,0.73093808,0
-0.19618872,2.8392665,-0.80797333,-0.06631349,0.95969671,-0.27310199,0
1.47805,-1.9056841,1.6776639,0.50311017,-0.64867163,0.57105631,0
1.6479249,2.3108096,-0.28602678,0.57769293,0.8100723,-0.10026892,0
-0.18634073,-1.9605759,-2.1231914,-0.0643453,-0.6770063,-0.73315901,0
-2.7617714,0.64349675,0.43842483,-0.96247745,0.22425865,0.15279107,0
-2.0098619,1.0844315,1.8262221,-0.68733323,0.37085423,0.62453198,0
0.10832953,2.6506228,-1.0575252,0.037932459,0.928137,-0.37030098,0
1.9477068,1.9386972,1.2295429,0.64694363,0.643951,0.40840071,0
1.2530774,2.5050409,0.81242776,0.42966372,0.85894549,0.27857077,0
2.1658988,1.3487319,-1.4882139,0.7332567,0.45660797,-0.50382906,0
-2.3068466,0.77892786,1.718785,-0.77401847,0.26135442,0.57670557,0
2.0118747,-0.65923691,-2.0659688,0.68011987,-0.22285689,-0.69840652,0
2.8552361,0.8921777,-0.12979403,0.95359069,0.29796919,-0.043348562,0
1.6243047,2.1912813,-0.95250243,0.56220335,0.75844496,-0.32967958,0
2.8395905,0.58735335,-0.69008458,0.9526642,0.19705324,-0.23151889,0
-0.28900486,-2.864435,0.2337151,-0.1000554,-0.99168634,0.080913715,0
2.7735515,-0.78286678,-0.1326315,0.96137917,-0.27136034,-0.045973245,0
-0.46030906,-2.4169507,-1.6144758,-0.15641877,-0.82131004,-0.54861909,0
2.7136664,0.55108243,0.57229137,0.95971423,0.1948956,0.20239635,0
0.88870496,1.3742274,2.4601204,0.30077261,0.46509245,0.83260125,0
0.61184573,2.846489,-0.56128168,0.20634824,0.9599936,-0.18929525,0
2.3292968,-1.2047168,-1.0216403,0.8276422,-0.42805815,-0.36300766,0
0.84469998,-1.3231891,2.5140448,0.28499505,-0.44643348,0.84821868,0
2.4709201,-1.2081401,-0.919949,0.85197282,-0.41656649,-0.31719825,0
0.55514842,-2.8989289,-0.42700323,0.18614569,-0.97203398,-0.14317758,0
2.1824651,1.6557013,0.95324254,0.75243229,0.57082385,0.32864237,0
2.2865987,-1.7547213,0.50184721,0.7815693,-0.59977132,0.17153354,0
-1.6182458,-0.39828506,2.3848622,-0.55620277,-0.13689344,0.81969428,0
-0.57537031,-1.1756791,2.5858746,-0.19852139,-0.40564737,0.89221042,0
-0.42097548,-2.8085222,0.07012216,-0.14819099,-0.98865062,0.024684269,0
1.2031511,-2.6216934,0.79489589,0.40210822,-0.87620288,0.26566419,0
-0.379693,2.8329546,-0.41119045,-0.13148579,0.98103803,-0.1423932,0
0.50212848,-2.6114266,-0.93048787,0.1782269,-0.92690712,-0.33026999,0
-2.3802853,1.5464485,-0.1433704,-0.83749461,0.54411221,-0.05044435,0
-2.0854802,-1.3309646,-1.4794157,-0.72347271,-0.46172413,-0.51322323,0
-0.19261019,0.36254191,2.8268991,-0.067427494,0.12691587,0.98961902,0
2.7054698,-0.33478373,1.1036179,0.91990757,-0.11383238,0.37524959,0
0.96052468,1.1150727,-2.4071615,0.34043995,0.39521658,-0.8531732,0
-1.9780203,-0.55419749,-2.0504966,-0.68149942,-0.19094105,-0.70647013,0
-1.9274943,-2.1549935,-0.095887609,-0.66630214,-0.74494475,-0.033146724,0
-1.0783069,2.6011002,0.71760619,-0.37109324,0.89515394,0.24696012,0
-1.0042912,-2.1985316,-1.6007235,-0.34642148,-0.75836426,-0.55215561,0
-0.75552338,0.93793249,2.6906166,-0.25629449,0.31817272,0.91273177,0
0.29403386,-0.77056426,-2.6927593,0.10440674,-0.27361509,-0.9561559,0
0.81637394,-2.7059121,0.88643801,0.27560392,-0.91350293,0.29925722,0
-0.69147211,2.7495265,-0.24422739,-0.2429934,0.96622378,-0.085825071,0
0.86590993,2.5716395,-1.0635493,0.29710487,0.88236266,-0.36491749,0
-1.7956865,-0.69822896,2.2061136,-0.61307472,-0.23838601,0.75320083,0
-2.2751253,0.89759785,-1.7441764,-0.75736475,0.29880068,-0.58061755,0
1.9239453,2.0594716,0.79417062,0.65706551,0.70335042,0.27122504,0
-1.0856224,2.0699129,1.6888722,-0.37647584,0.71781147,0.58567286,0
-1.2508105,0.50294209,-2.5927498,-0.4280228,0.17210495,-0.88722956,0
-2.6607721,1.257394,-0.50334024,-0.89118719,0.42114595,-0.16858655,0
0.1261397,0.55955732,-2.8666482,0.043147225,0.19140165,-0.98056293,0
1.6888132,1.3260202,1.9517481,0.58201247,0.4569838,0.67262721,0
0.13277191,2.7139177,-0.99521834,0.045883264,0.93787467,-0.34392717,0
-2.4685786,-1.39273,0.38864493,-0.86287457,-0.48681912,0.13584815,0
1.4824467,2.3842766,-0.45112857,0.52133131,0.83847743,-0.15864816,0
-2.7186406,1.0807147,-0.39948356,-0.92072505,0.36600685,-0.13529354,0
2.2630172,-1.7884188,-0.48329774,0.7737878,-0.61150956,-0.16525279,0
1.3045634,1.1623321,-2.3722353,0.44278744,0.39451209,-0.80517048,0
-1.7214429,-2.2471864,-0.47754124,-0.59964728,-0.7827847,-0.16634667,0
-1.912482,-0.58636457,2.0044904,-0.67534649,-0.20706037,0.70783699,0
-1.2780511,2.5981543,0.44179213,-0.43634486,0.88704687,0.15083413,0
-2.8130453,0.86692762,-0.087891214,-0.95522189,0.29438141,-0.029845098,0
0.79159194,-2.0369198,-1.9949108,0.26752546,-0.68839502,-0.67419767,0
-2.7407501,0.66566604,0.487216,-0.95756692,0.23257129,0.17022417,0
-1.5318855,0.51807946,2.5079675,-0.5133456,0.17361206,0.84043753,0
-1.6621336,1.8518473,-1.4746376,-0.57463473,0.64022279,-0.50981343,0
2.4033787,-0.3398411,-1.395867,0.8583405,-0.12137054,-0.49851868,0
-0.86729193,-2.7503679,0.60172027,-0.29439867,-0.93360096,0.20425145,0
-2.0566864,-0.023442019,-1.997064,-0.71740526,-0.0081769526,-0.69660801,0
-1.0344316,1.1364582,2.4887803,-0.35365206,0.38853297,0.8508656,0
1.8367102,-0.19725345,2.3077741,0.62133926,-0.066728719,0.78069508,0
-2.5597568,-1.0825434,0.63223022,-0.89807898,-0.37980542,0.22181509,0
-1.0431217,-2.3865988,-1.4003087,-0.35274389,-0.80705649,-0.47353089,0
-0.16001314,-2.1907122,-1.8728031,-0.055433895,-0.75893587,-0.64880151,0
2.4323561,1.0891235,1.2647858,0.82454032,0.36920017,0.42874762,0
-2.6485655,0.80295271,-1.1447115,-0.88433045,0.26809815,-0.38220811,0
-2.2278543,1.0140648,1.6488891,-0.75485808,0.34359294,0.55868876,0
2.0417211,1.8489028,0.78402239,0.71292353,0.64559567,0.27376315,0
-0.80334175,0.86758536,-2.6173921,-0.279708,0.30207637,-0.9113251,0
-2.733495,-0.50426936,0.55919164,-0.9640907,-0.17785341,0.19722423,0
-0.4364056,-2.7740893,-0.023756292,-0.15539813,-0.98781568,-0.0084592942,0
1.2999567,-2.2098989,1.5406711,0.43459538,-0.73880297,0.5150699,0
1.5753859,-0.34027365,-2.3859708,0.54713821,-0.11817848,-0.82865781,0
-1.1353068,-1.9608866,1.8924338,-0.38456699,-0.6642189,0.64103162,0
-0.75387472,-2.8124478,-0.48976111,-0.25532266,-0.9525212,-0.16587254,0
-0.76920629,2.1415646,1.6961468,-0.27102727,0.75457317,0.59763169,0
1.2606894,-2.28263,1.4096514,0.42529607,-0.77004975,0.47554871,0
0.0056231502,2.1219652,1.9749014,0.0019398243,0.73201668,0.68128395,0
1.8013499,1.1535561,-2.0446768,0.60874981,0.38983381,-0.69097996,0
-1.4523416,-2.3920672,0.035074349,-0.51894134,-0.85471803,0.012532541,0
2.131604,0.80073911,1.8499906,0.7265591,0.27293262,0.63057095,0
1.3087704,0.89328718,-2.5704017,0.43342933,0.29583251,-0.85124743,0
-1.0691323,2.6099262,-0.70097464,-0.36787707,0.89804792,-0.24119793,0
-2.1540451,-1.4585468,1.3279485,-0.73750007,-0.49937594,0.45466182,0
1.9571148,-2.1010666,0.38541457,0.67553729,-0.72522509,0.13303354,0
-0.16869208,2.1209238,1.7942455,-0.060611274,0.76205051,0.6446746,0
0.98919052,2.5392544,0.9217158,0.34385321,0.88267201,0.32039827,0
1.4948562,-0.62564939,-2.3931394,0.51721883,-0.2164741,-0.82802397,0
1.8244034,2.3409643,0.33281654,0.61087841,0.78384233,0.11143941,0
-1.9757408,-0.31363004,2.2002871,-0.66439408,-0.10546624,0.73990363,0
2.6124356,-1.1067446,-0.19026682,0.91871595,-0.38920921,-0.066911183,0
0.85341233,2.2904325,-1.6463667,0.28958499,0.77720332,-0.55865508,0
-2.8626776,-0.51491714,0.067363225,-0.98394138,-0.17698404,0.023153661,0
2.146805,0.96949929,-1.7530245,0.73112857,0.33017838,-0.59702033,0
1.5044639,-2.4479992,0.081526555,0.52338254,-0.85162568,0.02836198,0
0.32099304,0.87798607,2.8108289,0.10836289,0.29639617,0.94889766,0
1.6874759,2.2285187,0.32748422,0.59957618,0.79181379,0.11635824,0
-1.303807,-1.619284,-1.8259139,-0.47120905,-0.58522564,-0.65990376,0
1.5796793,-0.59369546,-2.3409011,0.54740268,-0.20573196,-0.81118721,0
-1.448012,-2.132705,1.3134927,-0.50049323,-0.73715168,0.45399776,0
1.2115957,-1.9370645,-1.7122787,0.42434925,-0.67843747,-0.5997085,0
-0.36826134,2.2782393,1.6862534,-0.12884274,0.7970823,0.58996558,0
2.8297193,-0.065472998,-0.85355574,0.95715833,-0.022146376,-0.28871697,0
-2.0563116,-1.0651382,1.6420375,-0.72433972,-0.37519699,0.57841092,0
-0.6501416,-2.6788354,0.57380223,-0.23089984,-0.95139682,0.20378767,0
0.67916191,1.5105044,-2.3300231,0.23758116,0.52839738,-0.81507748,0
2.3686509,-0.38810322,1.66048,0.81156617,-0.13297504,0.56892699,0
-0.94609004,2.3503451,-1.4399806,-0.32464465,0.80650562,-0.49411997,0
0.67585248,-0.31576458,2.7616746,0.23625818,-0.11038202,0.96540034,0
-0.41621676,-2.7102945,-0.91924357,-0.14391766,-0.93715405,-0.31785214,0
-0.27293929,-0.94579184,-2.6840315,-0.095471598,-0.33082908,-0.93884897,0
-0.52047461,1.2432065,-2.5215857,-0.182037,0.43481386,-0.8819294,0
-0.58353209,-2.336406,-1.4574319,-0.20730448,-0.83002704,-0.51776439,0
0.57485914,1.8757421,-2.1438477,0.19781663,0.64546764,-0.73772633,0
-1.2872553,2.0933909,-1.5154152,-0.44585246,0.72506481,-0.52487773,0
-2.447433,-0.97446752,1.3027539,-0.83279347,-0.33158424,0.44329098,0
0.16699813,-0.95187056,2.7850678,0.056648448,-0.32288978,0.9447397,0
-0.42280874,-1.3566821,2.5116837,-0.14651294,-0.4701215,0.87035608,0
0.54489464,-0.80474591,-2.8335869,0.1818971,-0.26864082,-0.94590992,0
1.3597953,-0.83238959,-2.4025033,0.47159606,-0.28868437,-0.83322173,0
2.5700283,-1.141369,0.60930866,0.89319915,-0.39667648,0.21176186,0
2.9237382,0.21013911,-0.17733823,0.99560672,0.071557671,-0.060388144,0
2.3224349,0.36521533,-1.6251884,0.81260049,0.12778579,-0.56863976,0
-1.7864747,-2.2352026,0.036942326,-0.62428337,-0.78109127,0.012909492,0
2.3435547,-1.6194252,0.5899303,0.80559719,-0.55667758,0.20278861,0
0.149654,2.4690979,-1.3521622,0.05308621,0.87585396,-0.47964752,0
-2.393873,-1.6256083,0.46585289,-0.81676704,-0.55464238,0.15894465,0
2.8218889,0.86408538,0.33533731,0.95006353,0.29091719,0.11290018,0
2.5572193,-1.1641886,0.76224864,0.87837398,-0.39988473,0.26182321,0
-0.80660135,-1.7689973,2.1301048,-0.27968404,-0.6133889,0.73860067,0
-0.10620004,2.8118911,-0.23745269,-0.037607618,0.99574852,-0.08408688,0
-0.48784909,2.9142048,-0.44701305,-0.16324875,0.9751792,-0.1495838,0
1.609607,-1.4552974,-1.7759804,0.57402444,-0.51899391,-0.63335717,0
1.127974,1.5465662,-2.1891298,0.38788611,0.53183103,-0.75279486,0
2.4562979,1.4406211,0.14952271,0.8614006,0.50521231,0.05243621,0
2.5319417,1.1036372,0.86932421,0.87441164,0.38114354,0.30022305,0
0.50810134,2.8152709,-0.74593741,0.17186449,0.95226109,-0.25231218,0
-2.4659989,-0.94507402,1.2911913,-0.8388775,-0.32149297,0.43923432,0
0.26367617,-2.8984039,-0.023848129,0.090595722,-0.99585408,-0.0081939083,0
1.0737365,2.6371727,0.57521003,0.36962914,0.90783525,0.19801356,0
-1.3706659,2.4711654,-0.074023508,-0.48488054,0.87418824,-0.026186218,0
1.201461,-2.6578715,-0.6467182,0.40214291,-0.88962036,-0.21646407,0
-2.2591023,1.9065262,-0.46664393,-0.75487566,0.63706285,-0.15592836,0
2.1113958,-0.93085045,-1.7190859,0.7337727,-0.32349816,-0.59743339,0
1.7228383,2.0535934,0.93645197,0.60675508,0.72324151,0.32980284,0
2.2428689,1.0700314,-1.3355212,0.79501152,0.37928534,-0.47339135,0
-2.5876093,1.2769603,0.57319707,-0.87956423,0.43405646,0.19483761,0
-0.87042487,-2.5271182,-0.86492419,-0.30983901,-0.89956045,-0.30788097,0
-1.7091198,-2.353245,0.77453923,-0.56785578,-0.78186661,0.25734097,0
0.94937962,-1.0806609,-2.411844,0.33807075,-0.38481957,-0.85884923,0
-0.51326483,-0.50626481,2.7853279,-0.1783956,-0.1759626,0.96809721,0
-1.7654178,-0.61382025,-2.1524808,-0.61928672,-0.21532054,-0.75506359,0
-1.696666,1.891904,-1.4481786,-0.58007121,0.6468209,-0.49511617,0
1.7774698,-2.1713948,0.1604134,0.63239187,-0.77254337,0.057072215,0
1.7734355,2.1810973,0.65324032,0.61449653,0.75575161,0.22634819,0
2.7362776,0.76119792,-0.53858984,0.94654733,0.26331753,-0.18631178,0
0.97001153,1.1585811,2.5863214,0.32383606,0.38678959,0.86343729,0
-2.5435941,0.48130295,1.2577933,-0.88376969,0.16722831,0.43701926,0
0.59670848,-2.5985663,-0.96347642,0.21048352,-0.91662073,-0.33985758,0
-1.7297333,2.2940302,-0.3583459,-0.59742087,0.79231954,-0.12376665,0
-1.3777087,0.35518405,2.4187808,-0.49095237,0.12657136,0.86194289,0
2.6239905,0.82816529,-1.0518212,0.89076811,0.28113791,-0.35706258,0
-2.5856605,1.4056741,0.18913701,-0.87675542,0.47664121,0.064133286,0
-0.91121018,-0.03952679,-2.7431283,-0.31521237,-0.013673391,-0.94892263,0
-1.9831066,-0.074671857,-2.052659,-0.69457966,-0.026153689,-0.71894026,0
2.8049359,-0.8834191,0.2676762,0.94988507,-0.29916784,0.090647928,0
-0.44247153,1.8062398,-2.143358,-0.15592876,0.63652629,-0.75532806,0
0.94137436,-0.6461429,2.6330926,0.32800573,-0.2251374,0.91745591,0
-0.41001865,2.2480295,-1.7291299,-0.14308318,0.78448921,-0.60341018,0
-1.6986688,2.1528907,-0.7900911,-0.59521288,0.754372,-0.2768476,0
-0.19985732,2.7931483,-1.0728878,-0.066646107,0.93142682,-0.3577742,0
-1.0870694,-2.6470206,-0.12433211,-0.37953094,-0.92416012,-0.043408342,0
1.6221098,-0.14342685,2.3894637,0.56097317,-0.049601212,0.82634664,0
-2.6886125,0.84430104,-0.26779687,-0.94978499,0.29825959,-0.094602495,0
1.451032,-2.304785,0.92707855,0.50435984,-0.80111319,0.32224041,0
-1.6323847,-1.7404566,1.5639318,-0.57215929,-0.61003906,0.54816622,0
-1.4487264,-2.471452,-0.63245237,-0.49381417,-0.84242129,-0.21557827,0
-0.73032892,-2.3463969,-1.6213903,-0.24806324,-0.79697627,-0.55072081,0
-0.23252173,-2.8364935,-0.11337746,-0.081636257,-0.99586701,-0.039805792,0
1.7500094,1.4174075,-1.8589423,0.5992887,0.48538953,-0.63659263,0
-0.60108507,-0.34085384,-2.7647035,-0.21092561,-0.11960837,-0.97015685,0
-2.2941523,1.1163392,-1.285856,-0.80297744,0.39073047,-0.45006314,0
2.188905,-1.544662,1.0822915,0.75756347,-0.53459585,0.3745729,0
-2.1471589,-1.1117803,-1.6756405,-0.72988218,-0.37792671,-0.56959927,0
0.692801,2.7643723,-0.4223932,0.24047266,0.95951939,-0.14661355,0
1.4596951,1.1972673,2.0977106,0.51722747,0.42423895,0.74330151,0
-1.4380016,-0.83469737,2.4335382,-0.48790196,-0.28320584,0.82567918,0
-1.4164959,-2.3043723,0.83031899,-0.50061858,-0.81441218,0.29345167,0
-1.056813,2.6348498,0.33003813,-0.36977252,0.92191815,0.11547837,0
1.0705355,-2.7674677,0.14301138,0.36035827,-0.93157101,0.048139766,0
-2.5204222,0.20003527,1.2543478,-0.8930074,0.070874229,0.44442627,0
-0.035643853,-1.1870229,2.6254082,-0.012369881,-0.4119457,0.91112447,0
-0.99616241,1.54102,2.1306736,-0.35426506,0.5480327,0.75773114,0
-1.5869993,-0.024812175,-2.4409878,-0.54505479,-0.0085217394,-0.83835709,0
2.8271358,0.11873186,0.8783735,0.95420265,0.040073864,0.29646483,0
2.7919707,0.36403558,0.49452621,0.97665673,0.12734295,0.17298976,0
1.0257399,2.6480207,0.34680396,0.3585445,0.92560816,0.12122434,0
1.573261,-2.5270765,-0.23866491,0.52681911,-0.84621191,-0.079918869,0
-2.1296139,-0.24726941,1.8726993,-0.7481131,-0.086863391,0.65786141,0
-0.1699056,1.5200551,2.5375154,-0.057345524,0.51303989,0.85644704,0
1.8869526,-2.1801033,-0.22300886,0.65249234,-0.75386137,-0.07711459,0
-2.7296581,0.69608027,0.66819704,-0.94282955,0.24042757,0.23079664,0
-1.8489631,0.87389964,-2.0797925,-0.63389456,0.29960588,-0.71303159,0
-1.2487149,1.5932047,2.1745863,-0.42031133,0.53626496,0.73195511,0
-0.93717283,-0.98031425,2.5002158,-0.32948452,-0.34465188,0.879008,0
-1.68062,-2.1714664,-1.1433222,-0.56503206,-0.73005688,-0.38439012,0
2.7286372,-0.45935443,0.73111129,0.95340532,-0.16050172,0.25545552,0
1.1382239,0.96358806,-2.5112276,0.38971314,0.32992011,-0.8598119,0
1.5424286,-1.0966294,-2.1283691,0.5415653,-0.38503981,-0.74729609,0
-0.87622905,1.4843839,-2.3058021,-0.30436555,0.51561326,-0.8009398,0
0.028463399,-1.0134459,2.8511953,0.0094060106,-0.33490318,0.94220561,0
-1.7343713,2.3166578,-0.41500017,-0.59324062,0.79241133,-0.14195055,0
1.0972685,1.9169893,1.9992293,0.36830705,0.643453,0.67105752,0
2.2659116,0.31859058,1.6053355,0.81065345,0.1139791,0.5743255,0
0.4995423,2.4450271,1.4400667,0.17337808,0.84860504,0.4998095,0
2.5490198,-0.26126653,1.1656948,0.90549147,-0.092810035,0.41409123,0
-2.0275888,1.9506334,0.33684954,-0.71554035,0.68838263,0.11887491,0
-1.3701271,1.7660614,1.9091159,-0.4661012,0.60079342,0.64945889,0
2.7600446,0.92207897,-0.87820202,0.90802169,0.30335298,-0.28891799,0
-2.9345183,0.16092665,-0.23372063,-0.99535716,0.054584596,-0.079275534,0
-0.75029725,0.69303691,2.7326281,-0.25719097,0.23756297,0.93670517,0
-0.53702581,0.0442206,2.8745823,-0.18362056,0.015119964,0.98288089,0
-0.21911095,-2.0334206,-2.008435,-0.07643944,-0.70938277,-0.70066625,0
-2.5793719,1.3548608,0.054615304,-0.88514489,0.46493801,0.018741949,0
0.65680623,-2.6953125,0.37935117,0.23457348,-0.9626109,0.13548246,0
2.6590738,1.0389346,-0.1867028,0.92944413,0.36314586,-0.065259494,0
1.3112891,-1.4499648,-2.089644,0.45824379,-0.50670546,-0.73024809,0
-1.7535979,0.61927009,2.0747395,-0.62937742,0.22225998,0.74463719,0
-1.4957435,0.19970034,2.4518971,-0.51952678,0.069363274,0.85163409,0
1.0641134,2.5035799,0.93695951,0.36984646,0.87015176,0.32565248,0
-0.40335166,-1.6538919,2.4784482,-0.13414715,-0.55005324,0.82428509,0
-0.84660482,2.2186666,1.637506,-0.29349601,0.76915431,0.56768101,0
-2.1745975,-1.1451126,1.6340396,-0.73682398,-0.3880012,0.55366552,0
-0.15806419,-1.0835477,-2.7714829,-0.053042341,-0.36361119,-0.93003953,0
2.5730567,-0.090385601,1.2874094,0.89386368,-0.031399388,0.44723791,0
-1.7954837,-1.2068914,2.1151671,-0.5934298,-0.3988927,0.69908917,0
1.9976002,-2.1506834,0.71716219,0.66110313,-0.71176577,0.23734386,0
2.4365253,0.55854887,1.4349613,0.8453359,0.19378474,0.49785009,0
0.091454625,-2.708499,0.75318682,0.032514188,-0.96293271,0.26777497,0
-2.2302837,-1.7226191,-0.58843374,-0.77471066,-0.59836841,-0.20439816,0
2.3287437,0.98937494,1.4137421,0.80346537,0.34135509,0.48777062,0
1.0488638,2.3635747,-1.4173319,0.35569155,0.80153739,-0.48064676,0
-1.5787215,-2.3600352,-0.73148251,-0.53842741,-0.80489665,-0.24947417,0
2.3598251,-1.4903086,-0.47086346,0.8337248,-0.52652514,-0.16635577,0
-2.6648529,1.0280976,0.28592116,-0.92833555,0.35815096,0.099604294,0
2.2263072,-0.49369437,-1.8873352,0.75210458,-0.16678281,-0.637591,0
2.6480839,0.38297221,0.82504332,0.94576156,0.1367783,0.29466373,0
-1.4448271,1.2426343,-2.2248161,-0.49321353,0.42419195,-0.75947452,0
-1.8873979,1.662951,-1.377846,-0.65806001,0.57980436,-0.4803997,0
0.73014867,-2.6931422,-0.57923168,0.25620607,-0.94501215,-0.20324993,0
1.3591287,2.2639487,1.0988443,0.47520375,0.79156369,0.38419831,0
0.32281956,0.54407078,2.8460774,0.11072371,0.18661055,0.97617459,0
1.9673158,-1.2483498,-1.8397593,0.66267681,-0.42049804,-0.61971033,0
-1.8470604,1.3443164,-1.7136105,-0.64678758,0.47074103,-0.60005724,0
-1.2848942,1.4424551,2.183917,-0.44068599,0.49472532,0.74902791,0
-2.0624785,2.0271821,0.56317502,-0.70003265,0.68805259,0.1911491,0
-1.2465765,0.18968444,-2.6903334,-0.41955805,0.063841753,-0.90548068,0
-0.89092129,-2.5596495,0.87828946,-0.31271106,-0.89843029,0.30827731,0
0.95602125,1.6654686,-2.2261884,0.32517585,0.56648338,-0.75720358,0
0.68447155,-2.5962522,-0.9693647,0.23977913,-0.9095003,-0.33958083,0
0.79056579,1.8290541,2.0823982,0.27429679,0.63461345,0.72251439,0
-2.7764699,-0.99515969,0.23174457,-0.93846625,-0.33637092,0.078331284,0
-0.85743934,-0.11408657,-2.8786223,-0.28526396,-0.037955787,-0.95769715,0
-0.40893745,-1.926836,-2.2133758,-0.13801788,-0.65031421,-0.74702239,0
-0.30285805,-0.88863415,-2.8065395,-0.1023376,-0.30027494,-0.94834697,0
-1.4417324,-2.6084917,0.13497667,-0.48324156,-0.87431729,0.045241639,0
1.4531631,-1.5355812,2.0735214,0.49072117,-0.51855308,0.70021099,0
-2.6127431,0.48715711,0.82753056,-0.93861252,0.17500831,0.29728547,0
1.4911593,1.2226442,2.1407993,0.51754421,0.42434928,0.74301797,0
-2.7805715,0.83986843,-0.27887556,-0.95290297,0.28782323,-0.095570765,0
-1.2890257,-2.4166052,-0.81006157,-0.45131096,-0.84609675,-0.28361705,0
0.89434391,-1.6836932,-2.1044772,0.31495088,-0.59292698,-0.74110967,0
1.5524861,-0.41545403,-2.489861,0.52387232,-0.1401912,-0.84018099,0
-0.15272036,-2.1921215,1.7400773,-0.054485369,-0.78207356,0.62079972,0
1.3612458,1.546823,1.9201032,0.48331794,0.54920822,0.68174344,0
-1.0858295,2.2443376,1.41695,-0.37863845,0.78262061,0.49410313,0
-1.6815332,-1.7935981,-1.422866,-0.59196091,-0.63141179,-0.50090063,0
-2.1053021,-0.14097922,-1.9231651,-0.73742181,-0.049380634,-0.67362493,0
1.8136499,2.2300892,-0.75665486,0.61016387,0.75026602,-0.25456041,0
2.7982147,-0.14559409,0.79568553,0.9606663,-0.049984492,0.27316999,0
1.439303,2.3224487,-0.8011055,0.5054971,0.81566632,-0.28135595,0
1.6762395,2.4025476,0.15930517,0.57134742,0.81891006,0.05429928,0
2.4928985,0.72565246,-1.1221638,0.8813526,0.25655103,-0.39673576,0
-1.2948124,2.5243533,0.72526306,-0.44217297,0.86205596,0.24767427,0
0.6672101,2.1179633,-2.0233254,0.22209778,0.70501775,-0.67351514,0
-1.7232113,-1.5797371,-1.6581688,-0.60123831,-0.55117935,-0.57854462,0
-2.5628817,0.30771723,1.4106364,-0.87125748,0.10460918,0.47954905,0
1.247044,-0.8405363,2.5168335,0.42533562,-0.28668597,0.85842919,0
1.3298211,1.1531754,2.2930176,0.46003371,0.39892548,0.79323858,0
2.4926748,-1.0669261,1.007231,0.86178637,-0.36886576,0.3482275,0
-1.9654802,0.40077409,-2.0291665,-0.6888476,0.14046046,-0.71116793,0
-0.17168806,-0.7444849,-2.7241352,-0.060683277,-0.26313874,-0.96284765,0
2.6519501,-0.67892963,1.010345,0.90883213,-0.23267145,0.3462486,0
0.74279529,1.0622238,2.6162293,0.25440702,0.36381111,0.89605725,0
0.16224054,-2.0405662,-1.9692843,0.057117343,-0.71838838,-0.69329333,0
-1.9269451,-0.056398276,2.1828029,-0.66167951,-0.01936619,0.74953663,0
1.3770528,0.77266794,2.3238521,0.49013266,0.27501473,0.82712573,0
-0.0034579635,-2.9364936,0.005191192,-0.0011775799,-0.99999774,0.0017678159,0
2.4533987,0.80388224,1.1505753,0.8679927,0.28440705,0.40706426,0
-1.4349246,-2.2604167,-0.89585447,-0.50824296,-0.80062807,-0.31730708,0
0.46504694,0.43446797,-2.7574677,0.16433001,0.15352456,-0.97438484,0
-2.6655471,-1.113369,0.19761437,-0.92059022,-0.38452014,0.068249345,0
-0.25681806,2.9089584,-0.067324139,-0.087919809,0.99586093,-0.023047933,0
-1.3889832,2.0781515,1.2045267,-0.50059146,0.74896866,0.43411306,0
-1.7178394,2.1791208,0.71339375,-0.59958595,0.7605893,0.24899934,0
0.19066858,-0.78045273,-2.7383738,0.066812269,-0.27347881,-0.95955485,0
2.372175,-1.3136292,0.90741926,0.82960194,-0.45940512,0.31734455,0
2.8629837,-0.15810651,0.19524927,0.99617177,-0.055012971,0.067936748,0
2.4751892,-1.5595907,0.0011802602,0.8460573,-0.53309184,0.00040343089,0
1.8538154,-1.2843077,-1.6351906,0.66548413,-0.46104181,-0.58700204,0
1.2318243,-0.70794767,2.5252457,0.42513499,-0.24433137,0.87152874,0
0.46267101,2.3977685,-1.4360238,0.16331859,0.84639013,-0.50690317,0
2.2748756,-1.3874544,-1.2316122,0.77496248,-0.47265226,-0.41956282,0
0.30105558,1.5731531,-2.4238613,0.10362424,0.54148406,-0.83430034,0
2.5434473,-0.19635034,1.2878088,0.89005047,-0.068710573,0.45065406,0
1.2639637,-2.05444,1.5743513,0.4388099,-0.71323931,0.54656708,0
2.4285064,-1.3557377,-0.58502603,0.85445535,-0.47700816,-0.20583789,0
-1.9056674,-1.9548606,-0.96965557,-0.65778095,-0.67476094,-0.33469689,0
-1.6144619,-1.6502225,-1.6266588,-0.57166594,-0.58432841,-0.57598472,0
1.8047943,-1.6388131,1.3031936,0.65289593,-0.59285116,0.47143862,0
-0.67236578,-1.9820305,2.0736768,-0.2282072,-0.6727196,0.70382518,0
-2.346509,0.23675424,-1.6833953,-0.80981648,0.081707545,-0.5809657,0
-2.1281431,-1.2453536,-1.3714317,-0.75426602,-0.44138381,-0.48606896,0
-2.3606699,-0.0820475,1.4801433,-0.84686828,-0.029433774,0.53098762,0
-1.2389551,2.299458,1.0769354,-0.43852198,0.8138817,0.38117591,0
-0.52400428,2.7521374,0.59754187,-0.18292446,0.96074265,0.20859568,0
-0.68112594,-0.88140821,2.6051936,-0.24039637,-0.31108391,0.91947615,0
-0.30523586,-1.239781,2.510973,-0.10835683,-0.44011456,0.89137977,0
-1.0724242,2.6055481,0.7260493,-0.3685737,0.89548194,0.24953063,0
-0.28704914,-0.56723177,2.8891251,-0.097033709,-0.19174628,0.97663599,0
1.3248982,-1.7461817,-1.8771018,0.45910469,-0.60508811,-0.65045464,0
0.95767367,-0.68154174,-2.6296356,0.33248106,-0.23661475,-0.91294569,0
0.8205483,1.2964561,2.4389086,0.28477576,0.44994217,0.8464365,0
-0.36803052,-1.7498419,-2.3222301,-0.12556933,-0.59703326,-0.79232794,0
-0.38261428,-2.5024683,1.2835076,-0.13480248,-0.88166839,0.45220473,0
2.0057826,-2.0224116,0.38341478,0.69788754,-0.70367342,0.13340448,0
1.682628,2.2542949,0.11114261,0.59769082,0.80075413,0.039479263,0
-1.002304,-0.54277277,2.6272593,-0.3499833,-0.18952474,0.91738325,0
-0.9180094,-2.7551196,-0.0510749,-0.31606615,-0.94857419,-0.017584838,0
0.76234531,2.5199971,1.3514252,0.25760341,0.85152996,0.45665884,0
0.94684321,0.1912051,-2.7472463,0.32513899,0.06565842,-0.94338411,0
-0.48531523,2.9179595,0.20131195,-0.16368769,0.98417282,0.067898728,0
-2.6811154,0.51009917,1.135326,-0.90702814,0.17256784,0.38408369,0
2.0221879,-1.7168911,-0.86522645,0.7247299,-0.61531484,-0.31008762,0
-2.5439422,-1.159724,0.96170503,-0.86042857,-0.39224935,0.32527408,0
-0.84017634,0.1805452,-2.7508941,-0.29152566,0.062645845,-0.95450944,0
-2.82445,-0.72952569,0.61784697,-0.94721234,-0.24465497,0.20720221,0
1.9572365,-1.631763,1.149462,0.70014417,-0.5837155,0.41118643,0
-2.7433343,-0.63903898,0.029571919,-0.97387171,-0.22685605,0.010497903,0
1.9444779,-1.6891428,1.2839592,0.67564064,-0.58692032,0.44613263,0
-1.4711014,-0.05512546,-2.4887936,-0.50875241,-0.019064089,-0.8607018,0
0.51387626,-2.1323988,1.7685548,0.18237957,-0.75680864,0.6276769,0
0.067928761,2.8513439,0.65487915,0.023212634,0.97436202,0.22378547,0
-1.6858958,1.3239626,1.9885844,-0.57657802,0.45279652,0.68009788,0
-1.1124303,1.8519489,1.9608347,-0.38128942,0.63476199,0.67208302,0
2.2698498,-1.1563077,-1.5382444,0.76276636,-0.3885687,-0.51691574,0
-2.0322168,-1.7783089,0.80360168,-0.7212947,-0.63117516,0.28522235,0
2.3001435,-0.34221819,-1.7772667,0.78587681,-0.11692373,-0.60722852,0
2.3333149,-0.57519859,-1.6464413,0.80098122,-0.19745439,-0.56519103,0
-1.9772958,-1.8746502,0.74736768,-0.69984239,-0.66351211,0.2645227,0
2.5503917,-0.54241335,1.1065749,0.90039396,-0.19149439,0.39066681,0
2.5373619,-1.1963339,-0.88855457,0.86228293,-0.40655547,-0.30196145,0
0.61630511,0.74289972,2.7743638,0.20980696,0.25290319,0.94446862,0
-0.67086792,0.34554982,2.8025329,-0.23114614,0.11905847,0.96560687,0
1.793373,2.1149578,0.99922115,0.60844147,0.71754622,0.33900788,0
-0.59675902,-2.8099475,0.3433052,-0.20627274,-0.97127241,0.11866516,0
-0.81987453,-0.67273444,-2.6243098,-0.28965646,-0.23767281,-0.92715198,0
-1.3208022,-2.5408263,-0.7442835,-0.44640359,-0.85874629,-0.25155231,0
-1.5245599,1.4337153,-2.0993829,-0.51430231,0.48365638,-0.70821583,0
2.0103581,1.0865743,-1.8603342,0.68224108,0.36874309,-0.63132852,0
2.3794067,-1.1871082,-1.1337419,0.82312351,-0.41066396,-0.39220262,0
1.6628546,2.0533538,1.158787,0.57634789,0.71169555,0.40163735,0
0.68987447,-2.3836339,-1.456008,0.23978277,-0.82849032,-0.50607121,0
-2.1532485,-0.55626476,-1.8873303,-0.73821408,-0.19070835,-0.64704734,0
0.46595293,-2.4514971,1.4913547,0.16028236,-0.84328628,0.51300859,0
1.3793371,-0.30480716,-2.5099404,0.4789111,-0.10583021,-0.87146086,0
-1.382522,1.8612903,-1.8521601,-0.46588224,0.62721759,-0.62414092,0
-0.16873129,-1.3089844,2.5185099,-0.059341826,-0.46036232,0.88574547,0
-2.8004887,0.23246163,0.5623697,-0.97719669,0.08111468,0.19623213,0
1.9994906,-2.0302932,0.38220903,0.69545341,-0.70616704,0.13293815,0
-0.40278786,2.1420605,-1.9552745,-0.13755955,0.73155349,-0.66776258,0
1.0711304,-0.49599788,2.6525407,0.3689321,-0.17083777,0.91362113,0
1.6988021,-0.97257471,2.1495142,0.58432817,-0.33453149,0.73935729,0
2.4451752,0.8197158,-1.4091972,0.83202666,0.27892703,-0.47951153,0
-1.2802976,-2.623194,-0.20903882,-0.43749437,-0.89637947,-0.071431287,0
2.7291801,-0.2588608,0.68201417,0.96608436,-0.091632418,0.24142167,0
2.2531507,-0.69031566,-1.5799353,0.79415989,-0.24331307,-0.5568741,0
2.6794806,0.63762999,0.92224383,0.92249441,0.21952394,0.31751108,0
-1.4713537,1.1283035,-2.3584945,-0.49043906,0.37609184,-0.78614533,0
0.89705199,-2.8094037,0.52628309,0.2994431,-0.9378013,0.17567748,0
-1.8143936,-2.1573608,0.27832285,-0.6405372,-0.76161522,0.098256588,0
1.3780258,2.5366576,0.3143205,0.47455019,0.87354779,0.10824243,0
-1.1708024,-2.6222818,-0.43019131,-0.40319306,-0.90304381,-0.14814639,0
0.1164188,1.8721168,-2.2502868,0.039739709,0.63904953,-0.76813835,0
-0.017168242,-1.2185712,-2.680167,-0.0058311438,-0.41388416,-0.91031092,0
1.8376714,1.6426352,-1.3991708,0.64838046,0.57956642,-0.49366552,0
-2.0354133,-1.7951419,-0.93285006,-0.70925701,-0.62553239,-0.3250595,0
-0.30770782,-2.5432258,1.4835498,-0.10394347,-0.85909975,0.50114202,0
-1.4516877,2.4948089,0.14677741,-0.50228661,0.86320853,0.050785255,0
-0.19021322,-2.4945199,-1.6148393,-0.063879892,-0.83774233,-0.54231644,0
-0.20887445,1.2811728,-2.6613729,-0.070540182,0.43267217,-0.8987875,0
0.65326601,2.4793267,1.4668498,0.2211545,0.83934301,0.49658242,0
-2.3960662,-1.5820806,0.076348662,-0.83420616,-0.55081171,0.026581287,0
-2.9613202,-0.32160404,-0.24316044,-0.9908585,-0.1076088,-0.081361547,0
-1.7727349,1.5030751,1.702273,-0.61534166,0.52173895,0.59088337,0
1.6953812,0.12805325,-2.3646719,0.58211434,0.043967478,-0.81191736,0
-0.42100057,1.2107892,-2.6348655,-0.14367893,0.41321775,-0.89922607,0
2.0047555,-1.742625,1.261454,0.68175352,-0.59261125,0.42898032,0
-1.646266,2.3253615,-0.091795519,-0.57751548,0.8157444,-0.032202166,0
1.2582405,-2.392329,-1.1316253,0.42938155,-0.81639552,-0.3861734,0
1.6593932,-2.1840794,-0.86799294,0.5767765,-0.75914842,-0.3016994,0
0.90563607,0.75402701,-2.6928601,0.30809957,0.25652179,-0.91611749,0
-2.7169862,0.034802657,0.75989753,-0.96296978,0.012334957,0.26932722,0
2.8095527,0.58797449,-0.59810078,0.9582153,0.20053233,-0.20398596,0
1.8871557,0.93644184,-2.1217327,0.63115823,0.31319249,-0.70961243,0
-0.067754112,1.8773613,-2.270277,-0.022992961,0.63709927,-0.77043873,0
-0.91527694,2.4595289,-1.154685,-0.31923345,0.85784298,-0.40273502,0
-2.0527308,-1.0844356,1.8226677,-0.69546854,-0.36740854,0.61752284,0
-0.17290621,2.7302258,1.1066023,-0.05859175,0.9251762,0.37498808,0
1.0668273,0.55314183,2.5734439,0.37561783,0.19475499,0.90608048,0
2.5306687,0.94045871,0.88133419,0.89108628,0.33114955,0.31033093,0
-2.275377,1.3717692,1.3799978,-0.76000226,0.45818681,0.46093526,0
1.7840121,-1.9191943,1.269564,0.61271179,-0.65913963,0.43602669,0
2.8491604,0.18966113,0.37191871,0.98943436,0.065864049,0.12915705,0
-0.62716979,-1.7594835,2.1777081,-0.21859723,-0.61326009,0.75903046,0
2.4481075,0.74752641,1.238518,0.86092412,0.26288205,0.43554869,0
-1.2110877,-1.0317671,2.5405159,-0.40402156,-0.34419981,0.84752172,0
-0.94199616,-1.4287877,2.4499018,-0.3152127,-0.47810391,0.81979126,0
0.5542624,-0.0022878454,-2.9355977,0.18552935,-0.00076581503,-0.98263848,0
-1.5069653,-2.3290653,0.70778334,-0.52636915,-0.81352121,0.24722224,0
1.0149686,-2.4105923,1.3712227,0.34368479,-0.81626552,0.46431819,0
-0.85553133,-1.1789321,-2.4169166,-0.3031722,-0.4177748,-0.85647583,0
0.16606273,-0.87269843,2.793319,0.056653902,-0.29772949,0.9529677,0
2.2400887,1.4410236,-0.81170785,0.80448633,0.51751691,-0.29150984,0
-1.1885936,1.2612604,2.3430324,-0.40784422,0.43277851,0.80396879,0
2.0561972,1.1862702,1.77317,0.69395995,0.4003624,0.59843922,0
-1.5960044,-0.77515972,2.3246367,-0.54575694,-0.26506746,0.79491425,0
1.7475251,-1.7511104,-1.4535706,0.6090343,-0.61028379,-0.50658751,0
-2.8304541,0.82261324,0.17182212,-0.95863992,0.27860895,0.05819403,0
1.8105969,-2.2488263,-0.42443123,0.62045968,-0.77063316,-0.14544511,0
-1.923147,-2.1616719,0.46379083,-0.65630597,-0.7377066,0.15827636,0
0.60998833,2.6376054,-1.1520008,0.20732853,0.89649391,-0.39155278,0
-0.65254062,-2.5827706,1.1136758,-0.22599989,-0.89451265,0.38570872,0
1.8991421,1.9982829,-0.76683885,0.66369838,0.69834536,-0.26798925,0
-1.9181222,2.2548504,-0.49306563,-0.63913774,0.75133902,-0.16429447,0
1.9852635,-1.7014235,1.1811398,0.69196868,-0.59303558,0.41168934,0
0.62736088,-0.13467675,-2.7722561,0.22047129,-0.04732899,-0.97424448,0
0.61935019,-2.3808808,-1.5099171,0.21456587,-0.82482541,-0.52309126,0
-1.9907632,-0.46171662,-2.0932145,-0.68051362,-0.15783115,-0.7155351,0
0.1719864,1.8416849,2.2581635,0.058919203,0.63092554,0.77360296,0
-1.7703631,2.3218212,0.01503022,-0.60632908,0.79519713,0.0051476783,0
0.0055834157,2.8706942,-0.46789342,0.0019196359,0.9869743,-0.16086659,0
-0.030309081,2.8744779,-0.74777347,-0.010204032,0.96773851,-0.25174978,0
-0.70978504,2.3364582,-1.7250485,-0.2374059,0.78148866,-0.57698691,0
-1.7907242,-0.29653463,-2.0983307,-0.64543205,-0.1068802,-0.75630289,0
1.5948968,2.3766651,-0.13970631,0.5565635,0.82937348,-0.048752643,0
-2.2528474,1.2849245,1.3717891,-0.76785052,0.43794796,0.46755451,0
1.7639997,0.078538395,-2.2869298,0.6105336,0.027182732,-0.79152369,0
0.23422438,-2.9543698,-0.092839919,0.078993917,-0.99638325,-0.031310953,0
1.6991009,2.0640972,0.84358698,0.6060847,0.73628217,0.30091512,0
0.32745668,-0.41497776,-2.7657137,0.11629349,-0.14737587,-0.98221999,0
-2.0896211,-0.069916107,2.0047462,-0.72139961,-0.024137128,0.69209826,0
1.1540359,-2.2384431,1.4000535,0.40050957,-0.7768544,0.48589027,0
0.5373255,-1.8262118,-2.2663538,0.18154414,-0.6170153,-0.76572442,0
2.0217886,1.9444391,-0.19054654,0.71910256,0.69159114,-0.067772917,0
-0.11936796,2.8730288,-0.17827329,-0.041432414,0.99722332,-0.061878353,0
-0.043299563,-1.8189014,2.3404567,-0.014606229,-0.6135695,0.7895056,0
-1.6970155,-0.7075597,-2.1789722,-0.59522706,-0.2481761,-0.76427305,0
-0.93520123,0.45471662,2.6988504,-0.32334632,0.1572185,0.93312889,0
0.92108685,2.0699313,-1.8425711,0.31540954,0.70881051,-0.63095516,0
-1.2442789,1.9588926,-1.6449133,-0.43743193,0.68865764,-0.57827681,0
-0.97534126,2.4185863,-1.2831188,-0.33558232,0.83215469,-0.44147831,0
0.82477617,0.84996426,-2.5797226,0.29055712,0.29943052,-0.90880024,0
-2.4125862,-0.76355678,1.2807555,-0.8506459,-0.26921999,0.4515774,0
-2.8038549,-0.66632354,-0.10599102,-0.97224742,-0.23105024,-0.03675279,0
0.57333916,2.5696247,-0.94808382,0.20488749,0.91827661,-0.33880559,0
2.7596681,-0.38537264,-0.91564929,0.94089168,-0.13139041,-0.31218493,0
-0.86424696,-2.576632,0.86991125,-0.30286816,-0.90295923,0.30485317,0
-1.6319404,2.092828,-0.85098267,-0.58555597,0.75092691,-0.3053408,0
-0.58554399,-1.1193061,-2.6420906,-0.19994394,-0.38220608,-0.90218675,0
0.96317816,-2.4236221,-1.2694565,0.3320677,-0.83557403,-0.43766099,0
-0.37149486,1.1646723,2.6931958,-0.12560417,0.39378119,0.91058224,0
1.959339,-0.83819079,-1.9240568,0.68242037,-0.2919344,-0.67013186,0
-0.10399204,-2.4634132,-1.5791341,-0.035517029,-0.84134442,-0.5393312,0
-0.30246377,0.26244554,-2.8531637,-0.10498098,0.091091208,-0.99029356,0
0.13164999,0.51769894,2.7990372,0.046200223,0.18167724,0.98227233,0
2.5724776,0.066040874,1.2664615,0.89693129,0.023026099,0.44156998,0
2.1250598,-1.9649282,-0.44689542,0.72562987,-0.67095077,-0.15259837,0
1.403175,0.34012404,-2.5420234,0.47997487,0.116344,-0.8695333,0
-1.8324208,-1.4428598,1.7835159,-0.62410551,-0.49142462,0.60744894,0
-1.1777061,2.3557484,1.3255852,-0.39942399,0.79896194,0.44957781,0
1.1188935,2.1777642,-1.5209118,0.38819239,0.75556022,-0.52766985,0
2.0119042,1.3079587,-1.583259,0.69980979,0.45495322,-0.55071217,0
0.92815435,0.44040042,2.7009184,0.32119367,0.15240335,0.93466991,0
-2.0974498,1.1420357,-1.5178341,-0.74121952,0.40358496,-0.53638864,0
0.85992217,0.52977949,-2.7215838,0.29622298,0.18249659,-0.9375217,0
-0.98559237,0.13860784,2.6801846,-0.34473088,0.048480898,0.9374488,0
-2.6793716,0.66444999,-0.75736213,-0.93601263,0.2321192,-0.26457715,0
-2.4776404,0.92760396,1.2174004,-0.85076427,0.31851771,0.4180271,0
0.66491896,1.0373825,-2.5736475,0.23302621,0.36355904,-0.90195549,0
-2.325093,-0.3999781,-1.6735651,-0.80382049,-0.13827859,-0.57857728,0
1.3267728,1.2307718,-2.3917577,0.44236499,0.41035688,-0.79744619,0
-1.6005074,1.6974742,1.7104195,-0.55326331,0.58678275,0.59125769,0
0.76734543,-0.97860688,-2.6739147,0.26020965,-0.33184919,-0.90673423,0
0.15826108,0.76290131,2.8392308,0.053753559,0.25912032,0.96434802,0
1.4757447,-1.9624975,-1.5671232,0.50662071,-0.67372209,-0.53799075,0
0.7904287,-2.3870401,-1.5816216,0.26608685,-0.80356395,-0.53243101,0
0.88394219,2.4940481,1.1113875,0.30799544,0.86901098,0.38724509,0
0.09003599,0.86882651,2.793648,0.030760311,0.29682991,0.95443481,0
-2.160748,-0.46629304,-2.0583179,-0.71538013,-0.15438023,-0.68146759,0
2.2396631,-1.9436933,0.49497032,0.74494088,-0.64649749,0.16463351,0
-2.1198995,-0.31724766,-1.891716,-0.74151331,-0.11096911,-0.66169769,0
1.8789831,1.7454746,1.4110554,0.64191067,0.5963006,0.48205414,0
-0.59929895,2.6515014,-0.9702006,-0.20763347,0.91864067,-0.33613625,0
-2.9289033,-0.23993345,0.51238716,-0.98184878,-0.080432273,0.17176624,0
1.1082009,2.6120389,0.71043509,0.37887323,0.8930074,0.2428845,0
-1.7337108,-2.1777282,-0.33654162,-0.61833465,-0.77669519,-0.12002887,0
0.78704107,-1.9568071,-2.0077076,0.2702803,-0.67199343,-0.68947333,0
1.5998988,2.3733277,-0.36049226,0.55458796,0.82268888,-0.12496082,0
1.2746664,2.2247593,1.1642748,0.4526512,0.79004198,0.41344965,0
-1.5950041,1.66023,1.879312,-0.53669429,0.55864185,0.63235956,0
-1.2356002,2.6426277,0.3805801,-0.41999456,0.89825922,0.12936351,0
1.7634619,2.315675,0.8210746,0.58310008,0.76569289,0.27149361,0
-2.7774107,0.41444501,0.89795142,-0.94205874,0.14057393,0.30457252,0
2.7410834,0.8198961,0.62312913,0.93611467,0.28000489,0.21280648,0
-1.3000001,0.8017903,-2.5498152,-0.43737525,0.26975632,-0.85786617,0
1.2435279,0.84828752,2.3417068,0.44670153,0.30472282,0.84119064,0
1.9209436,-0.86345112,-2.0693479,0.65059668,-0.29243881,-0.70085913,0
-0.74170309,-0.21225815,2.7163215,-0.26266575,-0.075168818,0.96195447,0
-1.2217615,-2.4483409,-0.73779273,-0.43111235,-0.8639248,-0.26033852,0
-1.692883,1.5530117,-1.905863,-0.56713676,0.5202781,-0.6384877,0
-2.6476288,-0.20161024,-0.95216674,-0.93859184,-0.071471401,-0.33754578,0
1.8415039,1.3827573,1.6291225,0.6528188,0.49019173,0.57752895,0
0.31236693,2.2281635,1.8133768,0.10809502,0.7710591,0.62752157,0
1.6694273,1.6394165,1.5973194,0.58927107,0.57867789,0.56381857,0
0.79869032,1.1180317,-2.5216024,0.27812931,0.38933411,-0.87810189,0
0.97114408,2.6156182,-0.43151474,0.34397995,0.92645395,-0.15284285,0
1.4877515,0.47827399,-2.3786886,0.52273256,0.16804513,-0.83576995,0
1.5856743,-0.1458801,2.299973,0.56683594,-0.052148215,0.82217854,0
-0.82240927,-2.8319962,-0.23698343,-0.27798188,-0.95724064,-0.08010257,0
1.9116331,0.52668166,-2.0444527,0.67120224,0.1849256,-0.7178371,0
1.330634,2.4548302,-0.69401568,0.46247098,0.85319304,-0.24120991,0
-1.558725,-1.6921438,-1.7881279,-0.5349412,-0.58072942,-0.61367035,0
0.37419841,2.5770514,1.3916987,0.12673378,0.87279761,0.47134152,0
-1.3948708,-2.0752587,1.5524645,-0.47392771,-0.70509946,0.5274725,0
-1.8030305,2.3904531,0.34954157,-0.59811419,0.79297817,0.11595243,0
1.6290063,-2.3992035,0.64589709,0.54829675,-0.80753243,0.21739835,0
2.7119308,-0.90065569,0.71689987,0.92050546,-0.30570784,0.24333595,0
-1.6012268,0.83357161,2.3622482,-0.53858173,0.28037655,0.7945556,0
-0.078115858,0.057201561,-2.8057549,-0.027824735,0.020375099,-0.99940509,0
-2.0484827,1.5136093,1.2201667,-0.7253322,0.53594279,0.43203989,0
0.43156776,-2.4411554,-1.5884398,0.14657967,-0.82912529,-0.53950506,0
0.63961697,-2.8392706,0.39902303,0.21773084,-0.96651083,0.13583069,0
2.2073462,-0.74119908,-1.7620077,0.75593942,-0.25383493,-0.60342646,0
0.63673264,-2.5897074,1.1322343,0.21977256,-0.89385498,0.3907983,0
2.3425128,1.7048548,0.61784357,0.79075676,0.575504,0.20856404,0
1.7259969,-1.2181263,-2.0492005,0.58644587,-0.41388553,-0.69626147,0
2.4636879,1.4894156,0.50072902,0.84311354,0.50970197,0.17135751,0
0.81707442,-2.4118676,-1.1760277,0.29129711,-0.85986054,-0.41926834,0
-2.6399372,0.84499913,-1.0844314,-0.88694012,0.28389451,-0.36433661,0
0.38842157,0.78618491,-2.796706,0.1325237,0.26823467,-0.95419478,0
-0.13739263,0.81972021,-2.7218845,-0.048276417,0.2880297,-0.95640385,0
-2.0632846,0.41396973,2.0050435,-0.70984548,0.14242075,0.68980843,0
0.42131612,2.7960601,0.65425628,0.14516486,0.96338511,0.22542462,0
-0.18322547,0.71997947,2.8431401,-0.062351216,0.2450074,0.96751422,0
2.1057384,0.90936637,-1.8660899,0.71213925,0.30753842,-0.63109261,0
-0.27052832,-2.1725454,-1.7800442,-0.095876001,-0.76995623,-0.6308527,0
1.7858073,1.796268,1.4882419,0.60787648,0.6114372,0.50658727,0
-1.7613729,1.5209316,-1.8078822,-0.59770763,0.51611578,-0.61349016,0
1.2184989,-1.2579118,-2.342032,0.41666436,-0.43014154,-0.80085522,0
0.88173956,-2.0548687,1.7755262,0.3088136,-0.7196812,0.6218465,0
-1.1295477,-1.9332982,2.0007963,-0.37616694,-0.64383548,0.66631395,0
2.6632159,0.32829782,-1.2063593,0.90521705,0.1115872,-0.41003698,0
-0.11825365,-1.4075089,-2.5471365,-0.040601362,-0.48325592,-0.87453717,0
-2.3748338,0.21324524,1.6539866,-0.8183741,0.073484883,0.56996822,0
0.31377628,2.0401173,-2.123101,0.10596626,0.68897361,-0.71699828,0
1.1263416,0.47494853,-2.6838098,0.3819302,0.16104989,-0.91005069,0
-2.7325315,-1.1257526,0.44517156,-0.91429293,-0.37667182,0.14895244,0
-2.4010844,1.2265044,1.0730782,-0.82741845,0.42265585,0.36978486,0
-1.611261,-1.109374,-2.0397062,-0.57012039,-0.39253527,-0.72171932,0
-2.5978351,0.15505221,-1.1353366,-0.91494751,0.054608792,-0.39986119,0
1.4749777,0.45206344,-2.4069772,0.51592016,0.15812351,-0.8419165,0
1.1374372,2.171164,-1.3362666,0.40744224,0.77773428,-0.47866508,0
-2.1832795,1.7342342,-0.73021835,-0.75748539,0.60168982,-0.25334811,0
1.4594857,1.4728509,-1.9691319,0.51039487,0.51506883,-0.68862265,0
-0.6034832,0.43940982,2.8322883,-0.20603621,0.15001965,0.96697628,0
0.69623047,1.5757358,2.2793419,0.24368343,0.55151379,0.79777873,0
-1.1663661,1.4843154,2.2928934,-0.39271447,0.49976772,0.77201527,0
-0.17404935,1.6095958,2.4386468,-0.059460752,0.54988873,0.83311874,0
2.7990963,-0.10833985,0.85102701,0.95610148,-0.037006188,0.29068962,0
-1.3089714,2.3297691,-1.022676,-0.45747274,0.81423157,-0.35741529,0
-0.68858755,2.8563302,0.288946,-0.23323514,0.96748269,0.097870432,0
0.044510197,-2.6749094,-1.1418948,0.015301976,-0.91959602,-0.39256728,0
0.31683105,1.2218852,2.6825771,0.10686686,0.41214091,0.90483111,0
2.0868125,-1.6503693,1.0853274,0.72625142,-0.57436067,0.37771508,0
2.8417354,-0.1312719,-0.23425899,0.995565,-0.045989402,-0.082069591,0
2.4468963,-1.0289319,-1.0564209,0.85647863,-0.36015347,-0.36977535,0
1.7656116,1.6977526,1.6318339,0.59988815,0.57683223,0.55443555,0
2.6263182,1.0793049,-0.10627013,0.92429364,0.37984532,-0.037400194,0
0.54296929,-2.8037603,0.7885465,0.18326734,-0.94634765,0.26615652,0
-0.069902554,-2.1127818,-2.1111186,-0.023397822,-0.70719147,-0.70663476,0
-2.8996067,0.41994575,-0.10886291,-0.98899204,0.14323425,-0.037130743,0
1.3688748,2.4325321,0.96973592,0.46325627,0.82322049,0.32817921,0
1.8084775,-0.73112953,-2.0437493,0.64011174,-0.25878376,-0.72338635,0
-1.2842089,2.5521989,0.31111956,-0.44684136,0.88803935,0.10825426,0
-1.1807754,2.4827394,-0.86079365,-0.4098731,0.86181343,-0.29880038,0
-0.56530303,1.4171499,-2.501483,-0.19293171,0.48365769,-0.85372865,0
0.1856014,2.0766497,2.0053637,0.064159341,0.7178635,0.69322115,0
-0.71650749,2.0848551,-1.6949384,-0.25766283,0.74973351,-0.60951579,0
-2.4885859,-1.42809,0.90895885,-0.82683629,-0.47448495,0.30200288,0
0.47900623,-0.80673087,2.6787584,0.16876455,-0.28422922,0.94378614,0
1.5977365,1.9476352,-1.343163,0.55965817,0.68222129,-0.47048566,0
-2.6510375,0.81536597,-1.0406287,-0.89489949,0.27523965,-0.35128063,0
-2.2930355,0.16760169,1.9699668,-0.75735623,0.055356398,0.65065134,0
1.4073422,-2.4124005,1.0446402,0.471966,-0.80902213,0.35033032,0
-1.9691095,1.6258701,1.4276838,-0.67306209,0.55573928,0.48799717,0
0.4638896,-2.7803025,-0.086397603,0.16449635,-0.98590183,-0.030636793,0
-0.13475883,2.8010814,-0.48241818,-0.04735836,0.98438537,-0.16953644,0
2.8982878,0.65617627,-0.28071764,0.97099334,0.21983421,-0.094046898,0
-1.7035824,-1.4189427,1.892413,-0.58443332,-0.48678443,0.64921379,0
-0.71332419,-1.7575631,2.1516786,-0.24868575,-0.61273807,0.75013828,0
-2.5117335,-1.1323495,-0.37626657,-0.903256,-0.4072094,-0.13531095,0
2.4879465,-1.352074,-0.61382061,0.8586911,-0.46665549,-0.21185435,0
-2.1975062,-1.9328582,0.18424141,-0.74939048,-0.65914059,0.062829748,0
2.0827711,-1.6314982,-0.91067374,0.74436688,-0.5830853,-0.325468,0
-1.7488519,2.0247221,1.1319628,-0.60200381,0.69696605,0.3896533,0
-1.3744961,1.7541951,-1.8329676,-0.47634304,0.6079309,-0.63523018,0
0.33522707,-2.8351891,-0.88287032,0.11217862,-0.94875276,-0.29543906,0
-1.7985015,-0.36324361,-2.304759,-0.6105051,-0.1233038,-0.78235525,0
2.1168778,-0.87395394,1.7298199,0.73757267,-0.3045072,0.60271209,0
-2.8113191,-0.75740242,-0.0095080156,-0.96556675,-0.26013502,-0.0032655927,0
0.037691381,-1.5535412,2.498404,0.012810321,-0.52800828,0.84914261,0
-1.2184438,-1.7174568,1.9810255,-0.42143974,-0.59404016,0.68520427,0
-0.11299549,-2.5540805,-1.2426594,-0.039750941,-0.89850581,-0.43715802,0
0.091560453,-2.6985128,1.1115637,0.031357188,-0.92417377,0.38068303,0
1.0056159,-1.4873185,2.1855097,0.35554266,-0.52585202,0.77270246,0
-1.4801488,2.42889,-0.4124119,-0.51499623,0.84509689,-0.14349271,0
-1.262375,-0.35346913,-2.5303559,-0.4429732,-0.12403394,-0.88791353,0
1.8663856,-2.2182631,0.53190482,0.63323689,-0.75262374,0.1804674,0
2.8702767,0.16638428,-0.041268285,0.99822128,0.057864919,-0.014352233,0
-2.483238,-0.8511551,-1.4438442,-0.82886934,-0.28410339,-0.48193455,0
-2.240149,0.84765524,1.5399071,-0.78671485,0.29768687,0.54079783,0
1.1298615,1.655128,2.2442818,0.37551984,0.55009699,0.74590766,0
-0.78586048,-2.4807124,1.1793684,-0.27506539,-0.86829424,0.41280028,0
-2.0441422,-0.2845394,-1.9775679,-0.71514368,-0.099546179,-0.69185263,0
-1.26973,-1.6922221,-1.9695592,-0.43927684,-0.5854426,-0.68139035,0
1.5393103,2.3398299,-0.19853035,0.54822809,0.83333457,-0.070706934,0
0.63059235,-0.48898596,2.688848,0.22482964,-0.17434169,0.95867443,0
-1.0663761,2.3834198,1.4262637,-0.35841638,0.80108386,0.47937709,0
2.6256416,0.98416293,-0.0039970134,0.93638128,0.35098153,-0.001425453,0
2.499228,-0.62466913,1.2516532,0.87260932,-0.21810418,0.43701664,0
-1.4105072,-1.8033116,1.7114071,-0.49346259,-0.63088429,0.5987317,0
-2.665993,0.86570805,0.59106135,-0.93064642,0.3022019,0.20632805,0
0.57747555,1.0605656,-2.5633116,0.20380138,0.37429243,-0.90463817,0
-0.77912831,0.46263349,-2.8391404,-0.26143202,0.15523401,-0.95265722,0
-1.7811549,-2.2964523,0.0049877395,-0.6128726,-0.79017985,0.0017162174,0
0.99551016,2.4040251,-1.110271,0.35189828,0.84978771,-0.39246455,0
-0.37062791,-1.2583402,-2.5562077,-0.12899712,-0.43796557,-0.88968861,0
-1.2859018,-2.2409325,-1.207727,-0.45087659,-0.78573966,-0.42346612,0
1.4436836,0.41792452,-2.5547516,0.48706323,0.14099742,-0.86191016,0
-0.15106653,-2.3093617,-1.8618146,-0.05086004,-0.77749997,-0.62682295,0
-2.2701113,-0.33574903,-1.8154638,-0.77581555,-0.11474297,-0.62043875,0
0.32127571,-1.8037713,-2.2660413,0.11025017,-0.61898881,-0.77762312,0
2.5382156,-1.2391297,-0.97070539,0.84984553,-0.41488546,-0.32501164,0
1.4150406,-0.80778152,2.3326781,0.4973101,-0.28389144,0.81980991,0
1.8618183,-0.40755513,2.0672662,0.6621514,-0.14494604,0.73521847,0
-0.30023232,-1.2642719,-2.615032,-0.10281619,-0.43295676,-0.89553189,0
-1.178413,-2.5334985,-0.58816117,-0.41269892,-0.88727134,-0.20598336,0
-2.3010099,-0.79305631,-1.6201836,-0.78699416,-0.27124205,-0.55413711,0
0.52847797,-1.9344372,2.1371732,0.18032648,-0.66006583,0.7292431,0
-2.4749134,-1.3460983,0.76293564,-0.84792876,-0.46118602,0.26138899,0
-2.5796747,1.246379,-0.26156336,-0.89668322,0.43323568,-0.090918235,0
