-0.45746344,-1.9202315,2.7219913,-0.13605227,-0.5710879,0.80953592,0
0.44501507,-1.8296134,2.6322834,0.13750209,-0.56531948,0.81333083,0
-0.73875773,0.21320815,-3.3028679,-0.21784629,0.062871225,-0.97395593,0
-1.713877,-2.8030789,0.46537241,-0.51649052,-0.84473026,0.14024369,0
-2.3069966,1.7369039,-1.3624474,-0.72251403,0.54397023,-0.42669648,0
2.4403756,2.0066478,-0.74329787,0.75187987,0.61824834,-0.22901013,0
-2.8499477,-1.3236527,-0.75651604,-0.88175905,-0.4095313,-0.23406214,0
-0.89468181,-3.1453001,-0.87814254,-0.26423541,-0.9289332,-0.25935069,0
-2.8018501,-1.0254406,-1.4988261,-0.83914918,-0.30711764,-0.44889581,0
-0.68034685,2.9420485,-1.47103,-0.20254831,0.87588704,-0.43794522,0
1.4792025,3.0169685,-0.34539711,0.43792075,0.8931793,-0.10225548,0
0.5486117,0.3218807,3.2228148,0.16700591,0.097985484,0.98107487,0
0.94485831,3.1269422,0.10271582,0.28910741,0.95678061,0.031428948,0
-1.2316022,2.0269506,-2.1683798,-0.38324654,0.63074088,-0.67475039,0
-1.8026664,-1.9591632,1.9498042,-0.54627103,-0.59369498,0.59085888,0
0.69314051,3.2766185,-0.093676902,0.20688044,0.97796661,-0.027959581,0
-3.1990268,-0.90018183,0.62089789,-0.94624174,-0.26626524,0.18365569,0
-3.1771836,0.18075196,0.98020804,-0.95414901,0.054282133,0.29436904,0
1.9706638,-2.6644485,-0.50639814,0.58781958,-0.79476523,-0.15105101,0
-1.2442906,-2.4002521,-1.8598986,-0.37917557,-0.7314344,-0.56677121,0
-2.0753503,-2.3800626,-0.96341687,-0.62860698,-0.72090185,-0.29181126,0
-2.0013068,0.62695122,-2.6436839,-0.59306473,0.18578994,-0.78342599,0
-3.1645901,-0.37933996,-1.2679875,-0.92256528,-0.11058806,-0.36965331,0
-2.2366111,-0.27393702,2.3771739,-0.68284553,-0.083633974,0.72575986,0
-0.67650843,3.2344539,0.00182304,-0.20472677,0.97881901,0.0005516932,0
0.042398106,-2.8087482,-1.7802783,0.012748641,-0.84455949,-0.53530997,0
1.8351622,-1.272029,-2.4736059,0.5507099,-0.38172051,-0.74229914,0
2.8289826,-0.81452394,1.4957941,0.85671729,-0.24666703,0.45298001,0
-0.12927766,-3.0378773,-1.0673336,-0.040116988,-0.94270343,-0.33121121,0
0.61677057,-3.1734147,-0.7051692,0.18640248,-0.9590801,-0.21311861,0
-1.0014927,2.6312823,1.7716529,-0.30106789,0.7910139,0.53259283,0
1.3587134,-2.2012165,1.9202805,0.42174652,-0.68326062,0.59605771,0
2.7512865,1.0237918,1.4798446,0.83689284,0.3114194,0.45014262,0
1.8629423,1.2915515,-2.5338311,0.5479489,0.37988517,-0.745278,0
3.0662184,-1.0010139,1.101725,0.89959353,-0.29368606,0.32323354,0
2.5886137,-2.0624301,-0.57887763,0.77041948,-0.61381745,-0.17228472,0
-1.4060851,2.3911316,-1.7964076,-0.42546827,0.72353417,-0.54357624,0
2.8003657,1.6650518,0.17105286,0.85835779,0.51036555,0.052430492,0
-2.4077337,1.3984033,1.9419911,-0.70926094,0.41193625,0.57206428,0
2.5389152,1.506109,1.3957382,0.77753127,0.46123907,0.42743853,0
-0.96475643,2.8897393,-1.1351497,-0.29674402,0.88883865,-0.34915432,0
1.0969511,1.8818467,-2.5693238,0.32566005,0.55867785,-0.76277429,0
2.533154,-0.89018512,1.9749415,0.75999469,-0.26707259,0.59252024,0
3.1962783,-0.63889277,-0.17700101,0.97915947,-0.19572073,-0.054223131,0
-0.42181224,-2.5879488,2.0879586,-0.12584418,-0.772093,0.6229251,0
0.19160382,-3.2207899,-0.27579418,0.059168946,-0.99460822,-0.085167669,0
-0.53932232,3.0472829,-0.81472021,-0.16853352,0.95224935,-0.25459296,0
0.46150902,-3.3071105,-0.23202734,0.13787876,-0.98802036,-0.069319643,0
1.3919216,2.5205173,1.7417709,0.41362867,0.74900645,0.51759118,0
-0.59165096,0.69638366,-3.1025963,-0.18292658,0.21530782,-0.95926034,0
0.41708156,3.0377274,1.0963968,0.12808244,0.93286198,0.33669475,0
-0.091202833,-0.049304627,-3.3915367,-0.026878744,-0.01453076,-0.99953312,0
2.490205,-2.1059003,0.72409177,0.74541515,-0.63037783,0.21674882,0
-1.7078992,2.7657416,-0.22231981,-0.52418971,0.84886348,-0.068234563,0
0.35175568,-2.7695427,1.7879844,0.10610181,-0.83539087,0.53931856,0
2.8561156,0.076046236,-1.5112935,0.88364148,0.023527622,-0.46757269,0
1.1714664,3.0386589,0.45095357,0.35631511,0.92424345,0.13716277,0
2.0348077,-0.59047389,-2.4685555,0.62549186,-0.18150935,-0.75882423,0
1.9249121,-2.6206667,0.70896035,0.57839328,-0.7874521,0.21302682,0
-1.3258801,0.28711453,-3.0430155,-0.39795703,0.086176157,-0.91334766,0
-2.0051024,2.2908494,-1.1788361,-0.61418194,0.70170897,-0.36108869,0
-1.8562378,1.545082,-2.2594624,-0.56125903,0.46717677,-0.6831795,0
-0.78960103,2.927278,1.2771168,-0.24000748,0.88977677,0.38819298,0
2.5276165,1.581215,-1.368185,0.7705211,0.48201913,-0.41707888,0
1.3629838,-2.8775511,0.45432919,0.42377684,-0.89468372,0.14125933,0
-0.1123618,2.5070586,-2.0399323,-0.034743018,0.77519923,-0.63076067,0
-1.3092085,2.8505158,-0.83262271,-0.40340233,0.87832052,-0.25655344,0
3.1100404,0.28044581,0.92382449,0.95504075,0.086120166,0.28369087,0
0.32614204,0.92149764,-3.1002901,0.10032848,0.28347301,-0.95371759,0
-2.8035731,1.5958073,0.10738506,-0.86859334,0.4944075,0.033269666,0
1.4655106,2.9103808,0.61656904,0.44190434,0.87758487,0.18591782,0
0.98843902,1.5277883,-2.8333597,0.2935358,0.45370582,-0.84142011,0
0.26166591,2.7599344,1.8279555,0.07879813,0.83112729,0.55047095,0
-1.6579907,1.3174926,2.6504624,-0.48870936,0.38834414,0.7812503,0
-1.1717012,-3.0255499,0.1263978,-0.3608599,-0.93180722,0.038927928,0
-2.627444,-1.1603051,1.4953723,-0.81139147,-0.35831848,0.4617919,0
0.99949098,1.4054589,-2.7427166,0.30849677,0.43380034,-0.84655011,0
0.03251176,3.1452026,-0.88492602,0.0099500902,0.96257633,-0.27082795,0
-0.25004378,-1.5304168,3.0061605,-0.073921502,-0.45244363,0.88872397,0
1.1690001,2.1160364,-2.3394635,0.34749129,0.62900269,-0.69541752,0
2.475379,-1.0238544,2.0295742,0.73654544,-0.3046464,0.60389686,0
-0.92938322,-0.47860861,-3.1838689,-0.27733713,-0.14282154,-0.95009792,0
1.6043642,-2.4610963,-1.5569314,0.48252884,-0.74019974,-0.46826297,0
2.4931583,-1.1554462,-2.0825202,0.72310174,-0.33511916,-0.60400254,0
-1.7430691,-2.5936544,-1.2518656,-0.51778769,-0.77045852,-0.37187317,0
0.07800635,-3.2718523,-0.28572148,0.023744559,-0.99592781,-0.086971521,0
-2.8133042,-1.2741402,-1.4353751,-0.82607096,-0.37412602,-0.42146942,0
0.42345846,-2.1951032,-2.3337128,0.13103193,-0.67923689,-0.72212726,0
1.8713434,0.43044212,-2.6426785,0.57286435,0.13176896,-0.80898905,0
-1.2598456,-0.28150228,-2.9722652,-0.3887817,-0.086870119,-0.91722536,0
-1.9703914,-2.1922746,-1.5783195,-0.58930391,-0.65566462,-0.47204322,0
-0.43480414,1.6978712,-2.6887197,-0.13547316,0.52901053,-0.83773202,0
-0.8883999,-3.1985652,-0.3179836,-0.2663992,-0.95913482,-0.095351852,0
-1.6461508,2.6831882,0.64519548,-0.51228571,0.83501399,0.20078623,0
0.53473115,-2.2946365,2.3939173,0.15919882,-0.68315345,0.7127111,0
2.6990592,0.6867801,1.8335267,0.80945206,0.20596641,0.54987752,0
2.2913916,-2.4226954,-0.28873351,0.68458349,-0.72381222,-0.086262949,0
0.83579481,1.2268274,2.8889048,0.2573269,0.37771913,0.88944429,0
2.9574516,-1.5082923,0.21382886,0.88899434,-0.45338473,0.064275831,0
-1.0041848,-2.1326659,2.4537818,-0.29512268,-0.62677509,0.72114879,0
-0.79243946,3.2325022,0.44093761,-0.23603481,0.96282822,0.131337,0
3.0508206,1.0283149,0.60133672,0.93150836,0.31397584,0.1836064,0
-1.3430259,-0.82636738,2.8216195,-0.41549417,-0.25565466,0.87292916,0
-2.5891399,1.9079912,0.85179842,-0.77819574,0.57346869,0.2560178,0
2.8736732,1.4765842,0.66860068,0.87099701,0.44754583,0.20264977,0
-0.11422472,0.039981097,3.3110294,-0.03447523,0.012067068,0.99933273,0
-1.242364,-2.8402171,-0.92056417,-0.38417578,-0.87827927,-0.2846657,0
-0.30516031,1.0212235,-3.151546,-0.091725133,0.30695951,-0.94729215,0
-1.5964146,0.57968843,2.785511,-0.48932835,0.17768441,0.85380673,0
-0.23365214,-0.61086625,-3.2840717,-0.069776833,-0.18242636,-0.98074049,0
2.3241906,-2.184787,-1.2335447,0.67957664,-0.638816,-0.3606796,0
-0.079750523,-3.0685842,0.86343461,-0.02501001,-0.96231747,0.27077577,0
2.1508543,-1.2668564,2.1740777,0.64975709,-0.38270789,0.65677267,0
-2.4803345,1.0881027,1.8897021,-0.7510305,0.32947102,0.57219052,0
1.545083,1.9029243,2.1601186,0.47290918,0.58243495,0.66115534,0
2.1208367,-2.0650082,-1.59679,0.63057768,-0.61397845,-0.47476551,0
-1.0839951,1.5657973,2.6219375,-0.33450708,0.48318508,0.80909646,0
-2.169234,2.285105,1.0242877,-0.65475005,0.68972391,0.30916554,0
-3.1000152,-0.57080239,-0.96738833,-0.94018668,-0.17311555,-0.29339394,0
0.35970899,0.54146755,3.3083575,0.10668736,0.16059577,0.98123741,0
3.0344648,-0.84372652,0.97039008,0.92074007,-0.25600982,0.29444304,0
-3.1080046,-1.1492407,0.14286208,-0.93706214,-0.34649563,0.043072861,0
-0.89749831,2.6642442,1.8011565,-0.26880527,0.79795456,0.53945547,0
2.2747278,0.91406274,2.3286901,0.6727522,0.27033463,0.68871158,0
-3.0060096,-1.1899918,-0.47465748,-0.91993278,-0.36417466,-0.14526001,0
-0.10211633,3.0611296,-1.4562163,-0.03011049,0.90261871,-0.42938665,0
0.3586258,3.2120216,-0.49406248,0.10968744,0.98241234,-0.15111141,0
2.2255967,-2.357568,-0.77686042,0.66756463,-0.70714921,-0.23301819,0
0.37896276,-1.4958832,-2.8161378,0.11801221,-0.46583071,-0.87696916,0
-0.59595519,-0.5383364,3.134897,-0.18415666,-0.16635182,0.9687174,0
-0.61926281,-0.88975453,3.0155149,-0.19325109,-0.27766246,0.94104069,0
3.2839615,-0.40964532,0.48825297,0.98168308,-0.12245633,0.14595471,0
2.863714,-1.6676376,0.22425248,0.86218274,-0.50207818,0.067516036,0
-1.8297445,-1.8172851,2.0503283,-0.5553782,-0.5515964,0.6223315,0
0.62484866,-2.7961593,-1.5032295,0.19312108,-0.86420494,-0.46460098,0
1.6914554,2.8242681,-0.56982654,0.50627369,0.84533864,-0.17055619,0
-0.87202185,3.1945939,-0.049109001,-0.26330459,0.96459877,-0.014828327,0
-2.5810015,-1.7875905,-0.5938102,-0.80776054,-0.55945146,-0.18584122,0
0.34222549,3.2525108,-0.43979245,0.10370773,0.9856382,-0.13327435,0
2.2730048,2.3173287,-0.20607731,0.69883943,0.7124669,-0.063358843,0
1.9881421,1.4873046,-2.0701342,0.615013,0.46008366,-0.64037651,0
-1.9895866,1.527941,2.2113042,-0.5949564,0.45690811,0.66125774,0
2.92258,-1.1174171,-0.75906533,0.90772653,-0.34705952,-0.23575874,0
1.9039844,2.0686264,-1.7055156,0.5790115,0.62907994,-0.51865608,0
-1.0893372,3.1937184,0.047601666,-0.32279304,0.94636452,0.014105354,0
-0.067022972,-2.4526949,2.2129447,-0.020284554,-0.74231005,0.66974944,0
-1.0482756,0.64799732,-3.0360491,-0.31992385,0.19776268,-0.92657357,0
1.475878,2.2972124,2.0132391,0.43505132,0.67715985,0.59345174,0
1.3397439,-2.9623191,-0.87701595,0.39785668,-0.8797043,-0.26044279,0
-0.33450118,2.6156149,2.0396855,-0.10033889,0.78459489,0.61183578,0
0.039919045,1.8549459,2.7017925,0.01217967,0.56596118,0.82434189,0
1.6353759,-2.5843642,1.0671538,0.50487524,-0.79784811,0.32945305,0
1.500352,2.7359097,0.85978365,0.46356013,0.84530735,0.26564527,0
1.9963416,-1.4447689,-2.1904669,0.60548371,-0.43819359,-0.6643613,0
-2.7649007,1.2708118,1.3614465,-0.82939315,0.38120812,0.40839601,0
0.0036141991,0.44412276,3.2358532,0.0011065486,0.13597575,0.99071157,0
2.8964727,1.7459056,0.35961851,0.8516435,0.51334482,0.10573784,0
-2.7797024,-1.527555,-0.33477175,-0.87154531,-0.47894818,-0.10496403,0
1.1787664,1.5236356,-2.7415152,0.35180223,0.45472828,-0.81820381,0
-0.33191556,-2.7852523,-1.6548883,-0.10191603,-0.85522312,-0.50814021,0
-0.16875519,-0.32346237,-3.3222966,-0.050491206,-0.096779272,-0.99402434,0
-1.2218561,1.6136354,-2.6927397,-0.36271715,0.47901976,-0.79935998,0
-0.11072556,-3.2467983,0.19991484,-0.034018833,-0.99753201,0.061420958,0
-1.0442351,3.0644555,-0.062410694,-0.32248515,0.94637823,-0.019273937,0
-1.1652786,2.7108047,1.2635068,-0.36303827,0.84454131,0.39364094,0
2.731132,0.19246654,-1.8467815,0.82698089,0.058278456,-0.55920148,0
-0.061580386,0.31952837,3.2969644,-0.018587587,0.096447296,0.99516451,0
0.88072675,1.0088127,-2.9372256,0.27283069,0.31250903,-0.90989095,0
1.4364227,2.8042521,-0.8786056,0.43914595,0.85732144,-0.26860902,0
1.8045361,2.5814853,0.85530365,0.55290532,0.79096061,0.26206288,0
2.1667943,2.6338654,0.099682622,0.63503915,0.7719273,0.029214757,0
1.8493481,-1.1532282,-2.4466286,0.56441313,-0.3519603,-0.74670058,0
-1.6331396,-2.0242379,-1.9462389,-0.50274181,-0.62313658,-0.59912556,0
-3.1261301,1.0921551,0.51534802,-0.9328168,0.32589194,0.15377648,0
-2.5986876,0.18120584,2.2122095,-0.76038724,0.053021614,0.64730209,0
-1.4606344,0.56746358,-2.9048588,-0.44254184,0.17192967,-0.88011187,0
1.147851,2.7811,1.4528514,0.34355623,0.832394,0.43484405,0
-1.2842385,0.71992505,2.8834593,-0.39666665,0.22236545,0.89062291,0
0.49196973,-0.10739786,-3.2493761,0.14961843,-0.032661967,-0.98820418,0
-0.96672451,-2.4985747,1.7162993,-0.30384049,-0.78529942,0.53943104,0
-2.0105081,-1.3664112,2.2250855,-0.61007941,-0.41463116,0.67519194,0
-1.4800175,2.876116,-0.60346293,-0.4498001,0.87409592,-0.18340167,0
2.837625,0.65784782,-1.545342,0.86055982,0.19950396,-0.46865222,0
-2.9216883,-1.4705974,-0.58658957,-0.87920511,-0.44253755,-0.17651868,0
-3.0395989,0.14475641,1.2033792,-0.92887503,0.044236299,0.36774221,0
-1.7291019,2.7764032,0.26482382,-0.52692187,0.84607363,0.080701701,0
2.3914967,2.1779892,-0.63028198,0.72569126,0.66090316,-0.19125685,0
-2.1099179,-1.4008617,2.0317793,-0.64982736,-0.43144727,0.62576169,0
0.42263937,-1.2932585,-3.0205343,0.12757696,-0.39038008,-0.9117716,0
-0.031171165,2.1291513,2.397496,-0.0097209588,0.66399163,0.74767685,0
2.8620746,0.27313563,1.8495165,0.83720809,0.079897061,0.5410167,0
-1.27151,1.2597218,2.6911759,-0.39340821,0.38976088,0.8326562,0
-0.33923545,2.7013586,1.9147924,-0.10191871,0.81158668,0.57527351,0
1.6496296,0.035221886,2.7797489,0.51031488,0.010895932,0.85991859,0
-1.5124019,1.3424503,-2.7037559,-0.44793817,0.39760247,-0.80078942,0
-3.2028713,0.93130904,-0.29007408,-0.95661968,0.27815935,-0.086638063,0
2.0034938,0.57917756,2.4631793,0.62075925,0.17945144,0.76318747,0
2.4522383,-2.3670266,0.3820186,0.71501952,-0.69017363,0.11138834,0
-1.023241,-1.1018206,-2.9083622,-0.31252778,-0.33652827,-0.88829899,0
2.991353,0.4265061,-1.4624823,0.8910988,0.12705256,-0.43566111,0
-0.050214514,1.0978404,3.0197473,-0.015626064,0.34163278,0.93970364,0
-2.1085858,-1.5249902,2.0447524,-0.63713264,-0.46079275,0.6178447,0
0.70078516,2.7814906,-1.5681015,0.21436922,0.85085416,-0.47968012,0
-2.3041654,-1.5089225,-1.9187114,-0.68643636,-0.44952467,-0.57160532,0
2.3847544,-1.1394066,-2.0373495,0.71462339,-0.34143835,-0.61051887,0
-2.2759953,0.21643259,-2.341578,-0.69546765,0.06613452,-0.71550751,0
-2.8767736,1.6538844,-0.64145786,-0.85118246,0.48935288,-0.18979515,0
0.98139375,0.09715461,3.2180991,0.29157656,0.028865077,0.95611191,0
-2.8371558,1.4682109,0.63290519,-0.87119269,0.45083696,0.19434336,0
1.655706,2.6252654,1.007331,0.50739622,0.80452067,0.3086997,0
1.8080995,0.77631152,-2.6433737,0.54868269,0.23557812,-0.80215353,0
-2.6564727,-1.848266,-0.17278172,-0.81969649,-0.57031161,-0.053314522,0
2.9904318,-0.37531963,-1.2687225,0.91449213,-0.11477502,-0.38798302,0
1.6081526,2.4605956,1.4431864,0.49108827,0.75140232,0.44071183,0
-2.4666207,-0.90968812,-1.9625709,-0.75184256,-0.27727905,-0.59820485,0
-1.4236358,0.93051064,2.7460878,-0.44073963,0.28807431,0.85015398,0
3.0532541,0.27031577,-1.4268165,0.90305942,0.07995116,-0.42200878,0
1.8167559,-2.6005909,-0.2222335,0.57128817,-0.81776911,-0.06988246,0
1.4141508,-2.7928264,0.67589176,0.44156584,-0.87205458,0.21104588,0
1.8860154,1.9971818,-1.7058398,0.5832693,0.61764866,-0.52754819,0
-1.4058656,-2.2364016,2.221493,-0.40731794,-0.64794707,0.6436277,0
-0.37748486,-3.0508373,1.1517649,-0.11498927,-0.92934471,0.35085011,0
0.30119947,2.7650421,1.6181951,0.093601912,0.85927522,0.50287658,0
2.7677686,1.8059436,0.50345433,0.8279373,0.54022145,0.15060095,0
0.72728622,-3.1614118,-0.37700388,0.22269613,-0.96802902,-0.11543915,0
1.6569247,-0.92029452,2.8174725,0.48795393,-0.27102098,0.82972795,0
-2.5384822,1.1571326,1.8164449,-0.76253325,0.34759042,0.54564083,0
-1.0573034,-2.6856778,-1.5023458,-0.32493523,-0.82537454,-0.46170765,0
0.16717194,-3.1504509,-0.6251176,0.051977798,-0.97955137,-0.19436418,0
-0.74604261,-2.5488806,-1.8945367,-0.22868565,-0.78131247,-0.58073539,0
0.69616669,0.82040149,3.0770154,0.21356685,0.25167903,0.9439528,0
0.42343754,-3.2067125,0.3177197,0.13028385,-0.98664576,0.097756438,0
-0.65048909,3.308495,-0.074393004,-0.19287145,0.9809761,-0.02205769,0
3.1526976,0.022126498,-0.8803336,0.96313381,0.0067595378,-0.26893765,0
2.3769789,-2.1993613,0.46615073,0.72651041,-0.67222255,0.14247638,0
0.96744823,1.7235612,-2.5821059,0.29751602,0.5300408,-0.79406607,0
1.2945553,0.29442203,3.064564,0.38761729,0.088156193,0.91759539,0
-1.6636956,-1.0573375,-2.6628518,-0.50215691,-0.3191385,-0.80373442,0
3.3283715,0.56675965,0.094336294,0.98542535,0.16779958,0.027929988,0
-2.3497505,-2.1715174,0.77940971,-0.71354455,-0.65942079,0.23668195,0
-2.2726402,1.9054778,-1.5703697,-0.67721534,0.56780601,-0.46794847,0
-2.111357,2.5009816,-0.077744067,-0.64489496,0.76390225,-0.023746224,0
-0.16456336,-2.0090506,-2.5842409,-0.050210819,-0.61299235,-0.78849179,0
-2.0837874,-2.3653336,-0.76783329,-0.64225954,-0.72903693,-0.23665957,0
-2.0999098,1.8225662,-1.6888902,-0.64547807,0.56022716,-0.51913738,0
-2.9255402,0.70330697,-1.2138511,-0.90168875,0.21676816,-0.37412435,0
2.3367908,0.80208528,-2.2369173,0.70114392,0.2406622,-0.67117733,0
0.95552075,2.8758397,-1.3956244,0.28639692,0.8619715,-0.41830859,0
1.0142803,3.0979824,0.075438224,0.31106529,0.95010692,0.023135826,0
2.6115294,-0.22937477,-2.155719,0.76943517,-0.067580707,-0.6351397,0
-1.6087435,-2.8611755,-0.57206446,-0.48282892,-0.85871875,-0.17169254,0
3.3014195,0.20795865,-0.82600909,0.9682911,0.060993314,-0.24226464,0
3.079659,-1.2758074,-0.022575093,0.92384022,-0.38271841,-0.006772107,0
1.7951096,2.7242529,0.64433312,0.53979683,0.81919408,0.19375362,0
0.17830847,-1.8261943,2.8307841,0.052856524,-0.54134434,0.83913791,0
1.4717987,-2.8734584,0.36957392,0.45292461,-0.88426501,0.113731,0
2.1955342,1.0605692,-2.269098,0.65916854,0.31841627,-0.68125468,0
-0.29802284,-2.640976,2.0189786,-0.089291468,-0.79127026,0.60491192,0
-2.6111948,-1.2505572,1.4597676,-0.80532801,-0.38568884,0.45021218,0
2.137414,-1.3560934,2.1890781,0.63868624,-0.4052178,0.65412414,0
1.5900238,1.4623739,-2.5523825,0.47550613,0.43733168,-0.76330531,0
0.96712679,3.1641526,0.2052408,0.29174137,0.95449138,0.061912492,0
0.11800752,-3.015738,1.3483572,0.0356998,-0.91232526,0.40790692,0
2.1180809,2.1032996,-1.2144135,0.65726519,0.65267843,-0.37684667,0
-2.6864436,-1.109141,1.7246835,-0.79489952,-0.32818693,0.51032156,0
2.2998979,-1.6621985,-1.6421247,0.70149463,-0.50698918,-0.50086641,0
-0.95067918,1.6649017,2.7036982,-0.28682742,0.50231403,0.81572711,0
-1.921052,-1.427339,2.3073876,-0.57786065,-0.42934966,0.69407201,0
-2.9438784,0.96455187,-0.6737662,-0.9285832,0.30424717,-0.21252507,0
-0.7684139,2.24648,2.2419615,-0.23531242,0.68794256,0.68655884,0
-2.7253516,-0.82923472,1.5754532,-0.83719474,-0.25473079,0.48395997,0
2.4902186,-0.35033858,-2.314702,0.72858983,-0.10250229,-0.67723709,0
-3.236227,0.49886757,0.91956002,-0.9515177,0.14667739,0.27036968,0
1.400849,2.6277516,-1.6398543,0.4120754,0.77298254,-0.48238149,0
1.3371097,-1.7277024,-2.5118287,0.40165758,-0.51898867,-0.75453424,0
-0.46752748,-3.0148389,1.0940907,-0.14424866,-0.93018377,0.33756545,0
-2.734364,1.5163227,0.95789063,-0.8361721,0.46369347,0.2929242,0
-0.33970743,-1.7082529,2.7544291,-0.10424001,-0.52418137,0.84520292,0
-2.3482325,0.45392919,-2.117882,-0.73505574,0.14209123,-0.66295028,0
0.62975985,-2.3191206,2.2471404,0.19141231,-0.70488501,0.68300694,0
-2.9777982,0.92627746,1.2122637,-0.88999182,0.27684191,0.36231628,0
1.6569065,0.45578501,-2.8539338,0.49736509,0.13681614,-0.85668504,0
0.37555268,3.1667528,-0.13619512,0.11765984,0.99213684,-0.042669639,0
0.55734825,3.050005,-0.80035961,0.17405458,0.95248765,-0.24994472,0
-2.28088,2.3006055,0.31247216,-0.70080352,0.70686424,0.096007504,0
-1.2143716,-3.0521121,-0.69460809,-0.36169305,-0.90905273,-0.20688473,0
-3.0194905,1.3783001,-0.81561983,-0.88342577,0.40325537,-0.23862952,0
2.9727259,-1.0377002,-1.1574036,0.88615763,-0.30933425,-0.34501734,0
-2.6769173,-0.60843581,-1.9020002,-0.80154103,-0.18218204,-0.56951004,0
-1.4056449,2.4704423,1.5847745,-0.43193534,0.75913298,0.48697942,0
-1.168185,-2.9080083,0.70629138,-0.36363983,-0.90522277,0.21985874,0
3.1491876,0.23978123,-0.63366616,0.97763097,0.074437469,-0.19671476,0
-0.96497548,-1.2553848,-2.8491697,-0.29604185,-0.38513562,-0.87408793,0
-0.94865721,3.0899098,-0.79562187,-0.28498992,0.92825216,-0.23901595,0
2.0483963,-1.3489357,2.1440008,0.62879539,-0.41408226,0.65814304,0
2.7028635,1.9442611,-0.50930506,0.80245668,0.57723421,-0.15120824,0
-0.46672371,3.3290794,-0.047096394,-0.13882463,0.99021792,-0.014008585,0
-1.6076925,2.7135911,0.6123091,-0.50037587,0.84457409,0.19057418,0
-0.86967927,1.8301837,-2.5477378,-0.26715916,0.56221914,-0.7826466,0
0.20819513,-2.7822297,1.8032384,0.062671252,-0.83751148,0.54281384,0
3.1076057,1.0055925,0.46062937,0.942105,0.30485645,0.13964488,0
-2.1205473,2.0831549,-1.4790359,-0.63867843,0.62741637,-0.4454644,0
-0.15053864,-3.2022135,-0.59020698,-0.046182759,-0.98238605,-0.18106572,0
-0.78972566,2.4055352,-2.0896699,-0.2405623,0.73276216,-0.63654488,0
2.5145507,1.182904,-1.897716,0.74725533,0.35152656,-0.56394905,0
0.81984758,0.13055819,3.1055064,0.25504231,0.040614698,0.96607655,0
-0.61081702,-0.52157021,-3.2448339,-0.18272805,-0.15602957,-0.97070348,0
2.8596776,-1.5014174,-0.46564475,0.87632662,-0.46009803,-0.14269333,0
0.14155774,3.2643464,-0.21663995,0.04322917,0.99687231,-0.066157922,0
-3.0086255,1.1225082,-0.81899947,-0.90785253,0.33871675,-0.24713303,0
-0.24524872,-0.98033899,3.2254024,-0.072558694,-0.29004073,0.95425975,0
1.9870695,-2.7219625,0.090321928,0.58940703,-0.80739188,0.026791401,0
-1.8656491,2.6311486,0.18067743,-0.57750809,0.81446695,0.055928349,0
-1.3081733,2.9845321,0.33071458,-0.39939576,0.91120148,0.10096981,0
3.2969711,-0.55018348,0.39354423,0.97959423,-0.16347021,0.11692964,0
2.0708861,2.6244454,-0.56762499,0.61071134,0.77395785,-0.16739452,0
0.7212863,0.53931171,-3.1389642,0.22087339,0.16514885,-0.96121842,0
3.078088,-0.056618426,1.4473504,0.90482491,-0.016643371,0.42545849,0
-2.664247,0.55045617,1.7258888,-0.82694715,0.17085434,0.53569317,0
-3.0196114,0.075150616,1.5265813,-0.89221513,0.022205016,0.45106432,0
1.8810031,0.30615443,-2.6554101,0.57549393,0.093668118,-0.81242418,0
1.9362984,0.85202277,2.5521188,0.58412123,0.25702888,0.76989514,0
2.5368271,0.087052815,2.1211689,0.76689166,0.026316369,0.64123672,0
2.8144243,-1.7715834,0.3329877,0.84208465,-0.53006333,0.099630967,0
1.5185248,-1.8008922,2.3242748,0.45886758,-0.54419333,0.70234901,0
0.43320507,-1.7128099,-2.7526515,0.1324441,-0.52365857,-0.84157008,0
-0.41468546,-0.75732261,-3.2378035,-0.12375157,-0.22600229,-0.96623421,0
-1.0688435,-2.6456072,1.5828292,-0.32756707,-0.81079584,0.48508763,0
2.0709498,-2.326082,-1.059824,0.6295082,-0.70706093,-0.32215554,0
0.22415966,1.8995031,-2.720957,0.06739711,0.57111537,-0.81809837,0
1.7889081,-2.8864479,-0.24619882,0.52541393,-0.84776849,-0.072310187,0
-2.8904529,-1.7961614,0.2801668,-0.84650135,-0.52602589,0.082049973,0
-2.1454463,0.0192312,-2.5293114,-0.64685506,0.0057982337,-0.76259089,0
-2.5914824,0.8806302,1.674117,-0.80771303,0.27447474,0.52178866,0
-2.7329609,1.3678093,1.3642886,-0.81658232,0.40868819,0.40763623,0
2.2373054,-0.79316837,-2.2288883,0.6870988,-0.24358991,-0.68451381,0
-2.1913178,1.3798052,-2.0772028,-0.66009212,0.41563967,-0.62571722,0
1.6043611,-0.5606603,2.9251904,0.47423458,-0.1657261,0.86465973,0
1.3735015,1.8384125,2.2800603,0.42458117,0.56829596,0.7048195,0
-1.0305167,-0.69785607,3.1454909,-0.30463764,-0.2062977,0.92985868,0
2.4409382,0.83676493,-2.0347939,0.74279714,0.25463429,-0.61920416,0
-2.1460111,-0.88893545,-2.4109712,-0.6410045,-0.26552129,-0.72014695,0
1.7083972,0.37063426,-2.8956907,0.50507581,0.10957545,-0.8560909,0
-0.20727514,2.7478673,1.8472811,-0.062478244,0.82828033,0.55681968,0
0.6692813,-0.7718941,-3.1006749,0.20500857,-0.23644005,-0.94977242,0
-1.4356688,0.67221874,2.9458342,-0.42916131,0.20094487,0.88059169,0
-2.8844678,-1.6832514,-0.01707042,-0.86368358,-0.50400859,-0.0051113209,0
0.88806325,3.2001038,0.49658799,0.26446483,0.9529894,0.14788367,0
0.86686856,-3.213299,-0.3055487,0.25937283,-0.96144044,-0.0914222,0
-2.3417835,2.1928947,-0.10103814,-0.72956842,0.68318301,-0.03147782,0
3.0807872,-1.1407833,0.63583374,0.92068785,-0.34092107,0.19001779,0
-2.9744203,-1.4351585,-0.015829979,-0.90063238,-0.43455535,-0.0047932002,0
2.0335441,-0.39000353,-2.621114,0.6087898,-0.11675683,-0.78469282,0
0.18462719,-2.8660769,-1.6577477,0.055675767,-0.86428785,-0.49990675,0
-1.337363,-2.6716084,1.3581407,-0.40750206,-0.81405419,0.41383314,0
0.71029395,2.6974778,1.7153157,0.21690805,0.82375002,0.52381945,0
2.1060836,2.2523861,-1.2279793,0.63452476,0.67860305,-0.36996788,0
-1.5687554,2.3800721,-1.7034034,-0.47241125,0.71672922,-0.51295882,0
-0.4867456,-3.0737808,-1.377444,-0.14302196,-0.90317851,-0.40473863,0
2.0289207,-0.010885432,-2.5037475,0.62958401,-0.0033778029,-0.77692509,0
0.05589515,-2.6949697,1.6767468,0.017607531,-0.8489424,0.52819204,0
0.59067088,3.1268985,0.302304,0.18478529,0.97821796,0.094572693,0
-0.37234068,3.1320076,-0.95666742,-0.11296897,0.9502579,-0.29025495,0
-1.6292373,0.36280444,2.8848205,-0.48883456,0.10885544,0.86555833,0
-2.9276073,0.47688997,-1.459403,-0.88560325,0.14425954,-0.44147044,0
0.52783823,2.1963544,-2.4549441,0.15822175,0.65836656,-0.73587996,0
1.2333068,-0.76416916,-3.0322402,0.36689508,-0.22733185,-0.90205777,0
-3.0186038,-1.0975068,0.9421128,-0.90181673,-0.32788336,0.28145894,0
-1.5435603,1.4141537,2.5011528,-0.47324935,0.43357381,0.76684338,0
0.4627772,-3.2263834,-0.73584151,0.13849661,-0.96556872,-0.22021733,0
1.3470695,-0.15735154,2.8837318,0.42271179,-0.049377073,0.90491802,0
-1.1320914,-2.2138007,-2.226701,-0.33917546,-0.66325641,-0.66712135,0
1.3341525,-1.7138454,2.4551258,0.40700978,-0.52284265,0.74898499,0
-0.44869149,-2.9137406,1.4926081,-0.13578589,-0.88177484,0.45170262,0
-1.5996754,2.8201706,0.42929757,-0.48911229,0.86228752,0.13126083,0
-2.8373849,-1.2068042,1.0544378,-0.87071717,-0.37033576,0.3235786,0
-2.5784841,0.25444484,-2.0806923,-0.77594101,0.07656987,-0.62614101,0
-2.7810831,1.3656403,-1.3637201,-0.82155788,0.40342286,-0.40285563,0
-2.4573371,0.88600433,1.9787596,-0.74986458,0.27036718,0.60382509,0
2.6642201,1.7184485,0.88117003,0.80966264,0.52224046,0.2677896,0
-2.4051723,2.1263406,0.62611061,-0.73534477,0.65009618,0.19142377,0
-2.674489,-1.8108164,0.208763,-0.82632869,-0.5594824,0.064500868,0
1.8498305,2.5544541,-1.0400547,0.55701566,0.76918983,-0.31317827,0
-0.76167488,3.1127896,-0.71625048,-0.23195697,0.94795465,-0.21812363,0
-1.6988174,-2.5789864,-1.107942,-0.51778084,-0.78604674,-0.33768854,0
0.4454329,-2.4111726,-2.3581352,0.13093626,-0.70877105,-0.69318056,0
2.7602944,-1.8121088,0.68012571,0.81876725,-0.53751343,0.20174104,0
-1.6846124,1.6676716,-2.2790191,-0.51230359,0.50715172,-0.69306725,0
-1.321382,0.66046959,-2.9716465,-0.3981773,0.19902192,-0.89545804,0
2.5190337,1.4208232,-1.5805736,0.76430982,0.43109751,-0.479568,0
-0.91318327,-0.23939621,-3.1092925,-0.28102717,-0.073672883,-0.95686781,0
-1.0723691,2.7478666,-1.3543329,-0.33039066,0.84660167,-0.41726208,0
-0.43821213,-1.9740024,-2.7435074,-0.12857737,-0.57919902,-0.80498219,0
1.3742343,-2.0644794,2.0803177,0.4245365,-0.63777101,0.6426639,0
-0.61022794,2.9043856,1.4961725,-0.18360409,0.87386543,0.45016524,0
-1.1936704,1.6977274,-2.4312918,-0.37341774,0.53110266,-0.76058471,0
0.051103484,-2.284003,-2.3081739,0.015735738,-0.70328808,-0.71073079,0
-2.8811195,1.2862132,0.69634825,-0.89168006,0.3980712,0.21551341,0
1.6184071,0.18523067,2.7532315,0.50590456,0.057902016,0.86064398,0
-0.97636193,-1.2550468,-2.9128134,-0.29421163,-0.37818903,-0.87773144,0
-1.0732572,3.0614271,-0.24220456,-0.32991487,0.94107014,-0.074452691,0
0.94163376,-3.14551,0.33361274,0.28531468,-0.9530884,0.10108454,0
-2.1560574,1.5583614,1.8733895,-0.6626448,0.47894832,0.57576936,0
1.0913461,-1.3044971,2.840059,0.32967293,-0.39406142,0.85792267,0
0.77319056,2.5884974,-1.9448583,0.23227614,0.7776171,-0.58425981,0
-0.654571,2.7708921,1.6420836,-0.1991543,0.84304851,0.49960667,0
1.4231588,1.5768442,2.5918043,0.42469546,0.4705579,0.77343971,0
-2.1384306,2.2517188,1.2200545,-0.64093691,0.67489195,0.36567843,0
2.6836674,1.9092253,0.75319213,0.79432833,0.56510425,0.22293442,0
-1.8986812,1.6944773,-2.0376968,-0.58239418,0.51975751,-0.62503535,0
-3.0705016,0.41189617,0.97084492,-0.94576955,0.12687141,0.29903767,0
0.55764908,-2.324899,2.4029381,0.16451158,-0.68586648,0.70888871,0
-0.62084019,-3.3220742,0.0096126087,-0.18370216,-0.98297787,0.0028443018,0
-1.8118007,2.6160359,-1.1565551,-0.53511178,0.77264106,-0.34158626,0
-0.47155848,-0.47534943,-3.2876897,-0.14054643,-0.14167631,-0.97988492,0
2.9226336,-0.70480633,1.606039,0.85745341,-0.20677878,0.47118586,0
-1.3396357,-0.9437927,-2.8775008,-0.40455252,-0.28501308,-0.86896771,0
-0.52496469,-2.591141,1.7470737,-0.16566201,-0.8176809,0.55132031,0
1.3320909,1.1126587,2.8134527,0.40296161,0.33658272,0.85107815,0
0.90695745,-1.6060964,2.7705011,0.2724961,-0.48255295,0.83239931,0
-0.13397565,3.1346252,0.87065822,-0.041146666,0.96270758,0.26739696,0
0.77133912,-3.1699295,-0.12824693,0.23624875,-0.97089833,-0.039279971,0
-0.59963936,-3.1557679,-0.77086961,-0.18151999,-0.95529914,-0.233354,0
-3.0495203,1.2388191,0.13871661,-0.92565006,0.37603062,0.04210598,0
0.69874263,-3.2268324,0.3113454,0.21070158,-0.9730317,0.093884312,0
0.75471461,-0.089228921,3.1663759,0.23177058,-0.027401932,0.97238445,0
-1.1687602,-0.48736715,-3.0311475,-0.35578439,-0.14836031,-0.92271703,0
3.277998,0.33559561,-0.1583671,0.9936533,0.10172845,-0.048005518,0
-2.8074758,0.42570204,1.5524437,-0.86751264,0.13154233,0.47970659,0
-0.29796124,-2.9923539,1.5515258,-0.088054858,-0.88431406,0.45851398,0
-2.0692143,-2.4339447,0.89766347,-0.62356478,-0.73347747,0.27051392,0
-0.95872301,-1.8527946,2.6730657,-0.28274545,-0.54642403,0.78833741,0
-3.1179829,-0.77894282,-0.51717538,-0.95785981,-0.2392951,-0.15887883,0
2.5531857,-1.5968002,1.2988867,0.77851033,-0.4868919,0.39605293,0
-1.9136232,2.223074,1.5927241,-0.573322,0.66603351,0.47718054,0
-0.88938498,-3.0092957,-1.046895,-0.26885894,-0.90970284,-0.31647384,0
-3.3133609,-0.087651402,-0.18914901,-0.99802655,-0.026401719,-0.056974091,0
0.25625098,2.5518885,-2.0779181,0.077632062,0.77310282,-0.62951195,0
1.4677013,2.9819725,0.45014122,0.43760473,0.88909453,0.13421254,0
-1.4994524,2.3582988,-1.582342,-0.46690086,0.73432922,-0.4927111,0
0.80737513,-0.16734973,3.2662966,0.23966527,-0.049676929,0.96958381,0
-3.0508814,-0.86149836,0.60442811,-0.94533896,-0.26694188,0.18728669,0
2.8834805,0.26252079,1.5057347,0.88354707,0.080440797,0.46138251,0
0.68520314,-0.44763443,3.0766332,0.21522646,-0.14060469,0.96638912,0
0.34153795,0.72282773,-3.142271,0.10533573,0.22293158,-0.9691264,0
-2.1162794,-1.3118061,2.1846237,-0.63889432,-0.3960278,0.65952712,0
2.5817935,-0.98445183,1.7596979,0.78812397,-0.30051592,0.53716922,0
2.5081208,0.80734348,-2.0147731,0.7561655,0.24340348,-0.60742766,0
0.78737217,1.8325579,2.6070523,0.2398681,0.55827755,0.79422253,0
1.0877514,-2.9836996,0.60084802,0.33654287,-0.92313635,0.18589829,0
0.44672894,0.075430937,3.2968552,0.13423997,0.022666644,0.99068964,0
-0.05331254,1.2004826,-3.0509498,-0.016258437,0.36610469,-0.93043166,0
1.6125028,-1.0195404,2.7474387,0.48208469,-0.30480865,0.82139271,0
-2.0000038,2.4179449,-0.97515893,-0.60865486,0.73584551,-0.29676703,0
0.49264646,3.1561005,0.42983916,0.1528482,0.9792099,0.13336165,0
-2.6272571,1.8201747,0.77753597,-0.79870683,0.55334741,0.23637705,0
-3.0982859,-1.2365663,-0.039509263,-0.92869532,-0.3706544,-0.011842699,0
-1.1208485,2.3216169,2.0882313,-0.33784238,0.69977391,0.62942761,0
1.0815252,-2.7010241,1.4446229,0.33293995,-0.83149129,0.44471702,0
-0.26974803,2.8885255,-1.653017,-0.080787472,0.86509132,-0.49506599,0
-2.9325068,-0.53924394,1.3128133,-0.90012401,-0.16551928,0.40296406,0
-0.94162422,0.26815763,3.1601472,-0.2846216,0.081055105,0.95520711,0
-0.7337321,3.240175,0.52712566,-0.21812782,0.9632566,0.15670674,0
0.68635124,3.0954521,-0.46058804,0.21422297,0.96614808,-0.14375809,0
-2.3829455,-2.314116,0.56600732,-0.70719808,-0.68677121,0.16797668,0
-2.4080667,-1.7470385,1.5736881,-0.71548903,-0.51908314,0.46757698,0
-1.935002,-2.5064301,-0.47655886,-0.60428894,-0.78274238,-0.14882633,0
1.553875,-1.0530795,-2.629848,0.48092136,-0.3259261,-0.81393296,0
1.3895924,-0.75815058,-2.9700537,0.41288623,-0.22526744,-0.88248485,0
-0.35779345,-0.53485769,3.2779417,-0.10710751,-0.16011271,0.98127055,0
-0.13248941,2.8702996,-1.5756032,-0.040430147,0.87589365,-0.48080727,0
-0.32110652,-3.1562097,0.89265764,-0.097432099,-0.95767641,0.27085564,0
-3.0209494,-0.063931905,1.4049773,-0.90656745,-0.019185554,0.42162466,0
1.2069607,-3.0238895,-0.7443403,0.36137998,-0.90539247,-0.22286533,0
0.4057793,1.0843168,3.1218073,0.12187114,0.32566208,0.93759888,0
-0.88772154,-2.7471461,1.8013697,-0.26087132,-0.80729324,0.52936155,0
-0.29420719,2.061024,2.6077132,-0.088169225,0.61765617,0.78149027,0
1.7572387,-1.6475281,-2.1034691,0.54949087,-0.51518416,-0.65775758,0
1.3573281,-2.4817624,-1.8684163,0.40038541,-0.7320717,-0.55114651,0
-1.2813332,-2.5848913,-1.7004888,-0.382613,-0.77186251,-0.50777513,0
-3.0755975,-0.035682324,1.267544,-0.92450619,-0.010725893,0.38101614,0
-3.0911937,0.55026335,0.96309853,-0.94123811,0.16754977,0.29325405,0
-0.65297002,2.5628622,-2.1126993,-0.19290183,0.75712639,-0.6241383,0
3.2823069,0.34927306,-0.75793087,0.96916491,0.10312966,-0.22379382,0
-0.72398645,2.1936336,-2.4878213,-0.21325621,0.64615297,-0.73280841,0
0.30126834,-3.2810893,-0.72276849,0.089311436,-0.97268373,-0.21426576,0
1.9064046,-1.5858771,-2.1836367,0.57696629,-0.47995979,-0.66086954,0
-0.44833642,-3.0426564,0.98881394,-0.13877979,-0.94183564,0.3060813,0
-0.060746085,1.2338572,2.9821901,-0.018818881,0.38224375,0.92386991,0
1.0895933,-0.86922359,-3.0737827,0.32283852,-0.25754458,-0.9107393,0
2.3058536,-0.79771012,-2.2502282,0.69470978,-0.24033487,-0.67795092,0
1.9029952,-0.22513357,2.6077552,0.5880487,-0.069569014,0.80582809,0
-2.0152595,0.6693325,-2.4161801,-0.62649769,0.20808004,-0.75113469,0
1.7139258,-2.7008467,0.61553723,0.52615517,-0.82912832,0.18896273,0
0.40483895,3.0878723,-0.71867758,0.12666473,0.9661237,-0.22485757,0
-2.4136271,2.2711048,-0.04353511,-0.72821915,0.68521851,-0.013135044,0
-2.1553047,0.62203968,2.3993313,-0.65617067,0.18937656,0.73046327,0
1.245153,2.2680969,2.0610301,0.3764126,0.68565089,0.62305415,0
-2.9899282,1.2636974,0.43519112,-0.91293955,0.3858552,0.13288051,0
-2.2948358,-2.0042076,1.0984975,-0.70854539,-0.61881202,0.33916819,0
-1.6079874,-1.2930045,-2.6123455,-0.48303303,-0.38841343,-0.78473824,0
3.2499588,-0.700122,-0.18167593,0.97611725,-0.21027994,-0.054565925,0
-1.8932294,1.9141188,-1.7524568,-0.58935732,0.59586012,-0.54553521,0
1.9124964,0.57055169,2.5699525,0.58775616,0.17534426,0.78980821,0
1.064328,2.6608393,-1.5581623,0.32627946,0.81570464,-0.47766891,0
0.091221005,-3.0234108,1.1862258,0.028076021,-0.93054605,0.36509684,0
-0.75043815,-2.3755884,-2.286092,-0.22194159,-0.70257872,-0.67611027,0
2.484211,-0.16865325,-2.0455778,0.77090931,-0.052337084,-0.63479108,0
1.9824717,1.6660745,-2.1649082,0.58734232,0.49360403,-0.64139235,0
-2.8716593,1.0672538,1.5036489,-0.84146631,0.31273142,0.44060582,0
-0.40054977,-1.8527024,2.6386671,-0.12328688,-0.57025099,0.81216633,0
1.9083339,-1.325843,-2.3808708,0.57361037,-0.39852422,-0.71564633,0
0.2208419,0.13843122,3.3141534,0.066430867,0.041641127,0.99692172,0
0.065369748,-0.55889279,3.3196967,0.019414552,-0.16598889,0.98593646,0
-1.6747131,-1.6108156,2.291882,-0.51312423,-0.49354634,0.70222187,0
2.5610876,-1.3229663,-1.4364058,0.79520506,-0.41077453,-0.44599691,0
0.88945889,2.5584967,-1.9466878,0.26665145,0.76701337,-0.58359879,0
2.1759849,1.9753108,1.5036412,0.65915632,0.59836751,0.45548785,0
2.6524608,0.92840087,-1.745031,0.8018415,0.28065649,-0.52752459,0
1.879302,0.33685803,2.7497838,0.5613845,0.10062613,0.82141453,0
0.55616724,-2.5718741,-1.9925704,0.16850308,-0.77920574,-0.60369295,0
-3.2124422,-0.27675015,-0.042830296,-0.99622178,-0.085823961,-0.013282254,0
0.28554162,-3.2945323,-0.25027311,0.08610142,-0.99342406,-0.075466648,0
-2.7903209,-1.4383082,1.113718,-0.83770418,-0.43180585,0.33435807,0
2.8725984,1.5019581,0.92269892,0.85232151,0.44564226,0.2737717,0
1.625458,0.18018301,-2.8965869,0.48865694,0.054167919,-0.87079293,0
-1.0753574,-2.0327859,-2.5079465,-0.31603009,-0.59740275,-0.73704475,0
1.3647655,2.9697773,-0.27552685,0.41609329,0.90543348,-0.084003344,0
-2.895864,1.4107186,-0.19390833,-0.89737606,0.43715626,-0.060088698,0
0.2819255,2.9865098,1.1847864,0.087411121,0.92596865,0.36734354,0
-1.8844297,-0.77666718,-2.5461333,-0.57778823,-0.23813526,-0.78067434,0
-0.085293412,2.2910116,-2.3450902,-0.026007647,0.69857472,-0.71506435,0
-0.73991907,2.9904873,-1.1253451,-0.22560084,0.91179764,-0.343117,0
-2.5786622,-0.68062812,-1.9813994,-0.77613193,-0.20485708,-0.59636635,0
-2.9495089,1.2229792,0.095056124,-0.92333168,0.38284862,0.029756932,0
-2.5673387,0.97120172,1.6421106,-0.80264664,0.3036342,0.51338553,0
0.15669781,-1.2046121,-3.0160966,0.048191942,-0.37047487,-0.9275915,0
-1.2662989,-1.5856366,2.6013219,-0.38382152,-0.48061439,0.78847373,0
2.4022017,-2.2040315,-0.76133466,0.71754014,-0.65834653,-0.22741146,0
-0.55401313,2.7479389,-1.8323398,-0.16542816,0.82053375,-0.54713613,0
1.3055507,2.2827954,1.9816512,0.39648598,0.69326788,0.60181266,0
-1.9633751,-1.7032676,-1.9809277,-0.60078198,-0.52119052,-0.60615301,0
-1.3734902,-0.588938,-2.8862228,-0.42259026,-0.18120222,-0.88802212,0
-2.2963488,-0.93405348,2.2244411,-0.68944156,-0.28043446,0.66785246,0
-0.39836803,-3.2299817,-0.56060326,-0.12063035,-0.97807509,-0.16975702,0
2.8009918,-1.4867269,-0.88649338,0.8506707,-0.45152402,-0.26923105,0
2.7155423,-0.29903755,-1.8421106,0.82414258,-0.090755194,-0.55906391,0
0.025955677,-0.094998226,3.2180963,0.0080617638,-0.029506193,0.99953204,0
0.63456392,-2.1850693,2.4342096,0.19044234,-0.65577275,0.73054355,0
-1.4395356,2.5149565,1.6383827,-0.43243599,0.75549203,0.49216959,0
3.1085415,0.70968622,0.45698041,0.96505439,0.22032385,0.14187071,0
0.41693068,-0.55847746,3.2575431,0.12515692,-0.16764735,0.97787017,0
2.5291226,-2.0158165,-0.97722578,0.74857092,-0.59664232,-0.28923973,0
-1.0867891,2.7674735,1.2951316,-0.33511308,0.85335463,0.39935577,0
-0.45359865,2.1545653,-2.4557083,-0.13752736,0.6532464,-0.74455041,0
0.58184624,-2.0257668,-2.4757113,0.17895404,-0.62304974,-0.76143575,0
-3.3490632,-0.48930582,0.11143546,-0.98895907,-0.1444892,0.032906249,0
-2.142581,-0.79412746,-2.3788085,-0.64956462,-0.24075502,-0.72118157,0
1.077942,-0.23001868,3.1039152,0.32726339,-0.069833711,0.9423492,0
-1.0095518,-2.1056781,2.2835817,-0.30909413,-0.64469475,0.69916344,0
-1.5329342,-1.5776173,-2.5450826,-0.45569369,-0.46897659,-0.75657398,0
3.0738041,0.48204088,-1.0016444,0.94039595,0.147475,-0.30644187,0
0.28549623,-3.1337478,-1.2481583,0.084335841,-0.92571193,-0.36870709,0
1.8062609,-0.42693481,-2.8043401,0.53711224,-0.12695391,-0.83390242,0
-0.10387197,-1.6232847,-2.8765161,-0.031432819,-0.49122408,-0.87046593,0
0.27148905,-2.5305123,2.1592073,0.081343323,-0.75818998,0.64693993,0
-2.1314394,-0.40666166,-2.3836529,-0.66124266,-0.12615983,-0.73948759,0
0.011029798,2.8529923,-1.8310379,0.0032535871,0.84158015,-0.54012245,0
2.1087191,-0.19058716,2.4824045,0.64630681,-0.058413554,0.76083857,0
2.6317263,1.8464619,-0.41298464,0.81193787,0.56966883,-0.12741366,0
0.074570596,3.1119063,0.81505907,0.023174845,0.96710962,0.2533018,0
-2.2806261,1.3231572,-1.9368763,-0.69709408,0.40443501,-0.59202385,0
0.75689995,2.5521872,-2.0276062,0.22618991,0.76268864,-0.60592431,0
0.53515834,-2.9115686,1.5594538,0.15994111,-0.87017149,0.46606913,0
-2.9295743,0.05734361,1.4536939,-0.89564222,0.017531339,0.44442964,0
-1.6971083,-0.10105088,-2.9141848,-0.50301832,-0.029951211,-0.8637566,0
-1.24992,0.68893552,2.9873843,-0.37752807,0.20808733,0.9023149,0
-2.1942575,-2.0905285,1.3599977,-0.6605534,-0.62932712,0.40941009,0
-1.1291699,2.9532201,-0.88918287,-0.34379959,0.8991701,-0.27073047,0
-1.2794167,2.6708255,1.1703628,-0.40178505,0.83873987,0.36753803,0
-0.91758102,2.397923,-2.0967042,-0.27681011,0.72339046,-0.63252068,0
2.3118601,-2.0919261,-1.0467368,0.70293957,-0.63606685,-0.31826872,0
-0.12119378,-1.6415244,-2.8382437,-0.036938135,-0.50031322,-0.86505622,0
1.317956,-2.0638998,-2.1778698,0.40216351,-0.6297822,-0.66455919,0
-2.9439032,-1.25271,-0.21787117,-0.91803008,-0.39064649,-0.067941189,0
-1.6957821,2.4338763,1.267876,-0.52566433,0.75446135,0.39302057,0
1.281044,-0.40903941,3.1075008,0.37833628,-0.12080339,0.91775167,0
-1.9652971,0.37073031,2.6900759,-0.58629441,0.11059758,0.80251294,0
-0.81407279,0.72773957,3.06199,-0.25041753,0.2238605,0.94190097,0
1.4922708,1.5424124,2.3924253,0.46430755,0.47990867,0.74438304,0
0.47886384,2.7193418,1.7262726,0.14705309,0.8350758,0.53011668,0
2.0855982,-0.17261021,2.5837557,0.62725657,-0.051913589,0.77708054,0
1.8539909,-1.5983984,2.1747615,0.56620646,-0.48814887,0.66416943,0
-3.024611,-0.95934892,0.56622607,-0.93837786,-0.29763556,0.17567021,0
2.1089578,-1.7862796,1.8511763,0.63399422,-0.53699076,0.55650002,0
3.1841438,-0.40580034,-0.32819027,0.98683196,-0.12576592,-0.10171295,0
3.1246986,0.013268518,-1.2178895,0.93172228,0.003956405,-0.36315015,0
2.2631974,-0.081591852,-2.2781875,0.70454156,-0.02539984,-0.70920801,0
3.3123744,0.47782129,0.091020085,0.98938924,0.14272277,0.027187234,0
-1.7827977,0.38160861,-2.7090528,-0.54596293,0.1168636,-0.82961881,0
-0.7027967,0.85027874,-3.0408289,-0.21726532,0.26285851,-0.94005376,0
2.6005657,-1.9195563,-0.20875838,0.8028878,-0.59263581,-0.064451195,0
-0.74613243,3.1457253,0.56036448,-0.22739583,0.95871025,0.17078006,0
2.7619464,0.91953951,-1.4392691,0.85051858,0.28316459,-0.44321102,0
2.8862834,1.396066,-0.51007128,0.88904285,0.43002099,-0.15711389,0
-2.3047855,-2.2787216,-0.061995097,-0.71098614,-0.70294589,-0.019124407,0
-1.7002195,0.5503071,-2.8147864,-0.50993973,0.16505131,-0.84422714,0
-1.0941901,3.121829,0.13451225,-0.3304947,0.94293296,0.040628757,0
1.9080367,2.7777741,-0.25169727,0.56461704,0.82198548,-0.07448104,0
0.35666114,2.1123326,2.4261522,0.11019734,0.65264589,0.74960649,0
1.883842,-2.6232247,-0.80609423,0.56594658,-0.788073,-0.24216801,0
-0.37910238,-3.2705011,0.20111287,-0.11493048,-0.99150068,0.060970332,0
-1.5066915,-0.82332957,2.8267114,-0.45556426,-0.24894249,0.85468644,0
1.7846864,1.1124488,-2.5382984,0.54142076,0.33748388,-0.77004421,0
2.4882278,-0.21678941,-2.0177803,0.77493787,-0.067517258,-0.62842089,0
-2.9358392,1.598037,0.088654146,-0.87800521,0.47791612,0.026513306,0
-0.18724346,0.71956152,3.1463048,-0.057916947,0.22257015,0.97319484,0
-3.2613528,-0.26390499,-0.2018079,-0.99485159,-0.080502272,-0.061560012,0
-1.970713,0.71554083,2.7222555,-0.57354164,0.20824566,0.79226494,0
0.3171984,1.2430446,3.0182648,0.096718974,0.37902462,0.92031831,0
-0.7752074,-0.41490379,3.1337042,-0.23817953,-0.12747762,0.96281874,0
-1.6882194,-1.5923671,2.3169556,-0.51480633,-0.48557705,0.70653337,0
-2.6728199,1.8189737,0.68032378,-0.80899984,0.55056065,0.20591804,0
-2.8872356,-1.403453,0.59660536,-0.88423562,-0.42981708,0.18271446,0
3.2686508,-0.011339493,0.81314456,0.97041702,-0.0033665381,0.24141133,0
3.0461156,1.042102,0.10719904,0.94563895,0.32351109,0.033278968,0
-3.2212706,0.49320251,-0.64773142,-0.96951538,0.14844063,-0.19494966,0
-2.5669746,-2.0110815,0.8507176,-0.76169252,-0.59674358,0.25243148,0
-1.798606,2.0696952,-1.8848062,-0.54055554,0.62202907,-0.56646228,0
0.81197941,-3.2196414,-0.29929647,0.24355143,-0.96572435,-0.089773312,0
1.1369375,2.8553739,-1.3945267,0.33687234,0.84604168,-0.41319552,0
1.2371126,-2.5111122,1.9509362,0.36256856,-0.73594785,0.57177341,0
0.048537578,-1.1166222,3.0812054,0.014808626,-0.34067708,0.94006371,0
2.0915151,-2.1330492,1.500029,0.62567455,-0.63809943,0.44873208,0
-2.5121017,-1.0127845,-1.6567303,-0.79119283,-0.31897905,-0.5217914,0
-0.09953706,2.9875815,-1.6715872,-0.029062994,0.87231892,-0.48807278,0
0.011291578,0.099352926,-3.2528379,0.0034696616,0.030529039,-0.99952781,0
0.87469625,-0.48163944,3.1695778,0.26321337,-0.14493482,0.95378858,0
-1.4366254,1.7470967,-2.3450918,-0.44092968,0.53621966,-0.7197566,0
1.4187732,-1.9797136,-2.2599325,0.42701063,-0.59583783,-0.68017584,0
-0.2200819,0.69480598,3.2768672,-0.065560259,0.20697595,0.97614694,0
2.1107171,-2.0640924,1.6270832,0.62615728,-0.61232579,0.48268431,0
0.60349965,-0.45896432,-3.2908349,0.17870626,-0.13590695,-0.97447079,0
0.53078389,2.5915515,2.0110188,0.15973222,0.77989233,0.60518885,0
1.3232502,3.032799,0.20736079,0.39912266,0.9147619,0.062544778,0
0.34624588,-0.48794091,3.1553719,0.10781118,-0.151931,0.98249364,0
-3.1531701,-1.22332,0.13598169,-0.93154269,-0.36140609,0.040173143,0
2.3016143,1.5696781,-1.764443,0.69795328,0.47599721,-0.53505874,0
2.5024962,-0.22116163,2.041055,0.77312309,-0.068325847,0.63056511,0
-2.2590895,2.4008703,0.42068043,-0.67976332,0.7224254,0.12658335,0
2.3250782,0.81780964,-2.1039267,0.71749002,0.25236583,-0.64924544,0
-3.0213203,-1.4577763,0.26843217,-0.89777446,-0.43317297,0.079763651,0
1.6940812,1.1010934,-2.4939406,0.52780348,0.34305376,-0.77700555,0
0.096705154,-1.0419805,-3.204423,0.02868768,-0.30910456,-0.95059526,0
-0.83797419,-1.16528,-3.0746632,-0.24695879,-0.34341887,-0.90613186,0
0.33570001,1.3025546,-3.0873342,0.099684156,0.38678598,-0.91676587,0
0.27945912,-3.3582797,-0.017194856,0.082927249,-0.99654251,-0.0051024351,0
-3.1382701,0.28896222,0.48658586,-0.98412693,0.090615362,0.15258797,0
0.33123076,2.9562314,1.5797285,0.098341502,0.87769699,0.46901706,0
1.4460133,-0.057469614,2.8522701,0.45210657,-0.017968291,0.89178294,0
-2.1548285,-2.3123517,1.2707976,-0.63253814,-0.67877817,0.3730357,0
1.796491,1.392691,-2.2573729,0.56078219,0.43473431,-0.70464838,0
1.6438011,-2.0522044,-1.9392706,0.50312704,-0.62812918,-0.59356296,0
-0.20900801,-1.6732935,2.8071897,-0.063824341,-0.51097018,0.85722572,0
1.8861525,1.3829967,-2.4476044,0.55714107,0.40851641,-0.72298557,0
-0.49907091,-1.0959097,3.0215089,-0.15343608,-0.33693027,0.9289431,0
0.37938371,-2.9595501,1.2768717,0.1168953,-0.91189343,0.39342833,0
0.24336118,3.1634543,-0.98018146,0.073284864,0.95263064,-0.29516813,0
-1.3266231,-2.9550455,-0.35222146,-0.40715644,-0.90693867,-0.10810097,0
2.7176983,1.8617431,0.39066026,0.81924605,0.56121963,0.11776394,0
-0.29823759,2.6837168,-1.9512957,-0.089520738,0.80556011,-0.58571231,0
-1.9781095,1.7134857,-2.0183296,-0.59853178,0.51846254,-0.6107015,0
1.8491737,1.9984928,-1.7177705,0.57439524,0.62077713,-0.5335784,0
1.1225436,-1.7271382,-2.5662053,0.34112903,-0.52485889,-0.77984244,0
2.5661819,-0.31039724,1.997082,0.78560781,-0.09502463,0.61138427,0
-1.1676646,-2.8551924,0.95982301,-0.3614381,-0.88379425,0.29710296,0
0.48467743,0.91769105,3.0371141,0.15101162,0.28592625,0.9462778,0
1.4713377,2.9296176,0.5526458,0.44256189,0.8811962,0.16622967,0
0.9853785,-2.8071411,1.2767367,0.30436894,-0.86708462,0.39436519,0
-2.3955798,-1.1147002,2.1234663,-0.70671088,-0.32884347,0.6264357,0
-0.069564007,-2.842593,-1.8538288,-0.020493843,-0.83743954,-0.54614556,0
-2.2438776,-2.0993667,-0.90250999,-0.70063549,-0.65551293,-0.28180259,0
-2.0910289,0.17268501,-2.5447955,-0.63398856,0.052357152,-0.77156806,0
-2.2728953,-0.45469067,-2.2761719,-0.69964206,-0.13996278,-0.70065069,0
-2.5256381,-1.3159379,-1.5216912,-0.78218687,-0.40754426,-0.47126579,0
2.1108248,0.81934953,2.4099691,0.63833034,0.24777785,0.72879392,0
-0.85501635,0.9685654,2.903481,-0.26904643,0.3047767,0.91363299,0
2.3134456,2.2469337,-0.57539278,0.70619172,0.68588865,-0.17564175,0
3.226754,-0.67368019,-0.45198762,0.96981859,-0.20247827,-0.13584736,0
-1.9232639,1.3578247,2.4134817,-0.57043469,0.40272698,0.71583188,0
-1.1065778,-2.4355471,-2.0579493,-0.32786143,-0.72161394,-0.60973775,0
2.3209381,0.28367081,2.2509246,0.71510416,0.0874018,0.69353229,0
2.6047163,0.68042386,-1.8888105,0.7920354,0.20690152,-0.57434464,0
2.2030389,0.15168902,2.5324547,0.65566295,0.04514531,0.75370288,0
-0.85913676,1.2076553,-2.9893496,-0.25749031,0.3619442,-0.89593256,0
-0.6192686,-0.99711943,-3.036927,-0.19020085,-0.30625317,-0.93275535,0
2.9029062,1.135589,-0.94832885,0.89095867,0.34853446,-0.29106066,0
-0.53566343,-1.1725162,-3.1379073,-0.1579023,-0.34563309,-0.92498899,0
