1.6894546,-1.6960269,-1.7071067,0.57459861,-0.57683396,-0.58060229,0
1.3725046,2.2827554,-1.3249623,0.46135545,0.76732832,-0.44537452,0
-2.9237382,0.7016784,-0.35291669,-0.96575898,0.23177595,-0.11657421,0
1.734562,-2.4612727,0.68407732,0.56174624,-0.79709494,0.22154172,0
0.092872061,-2.9281037,-0.87882251,0.030364707,-0.95734942,-0.2873328,0
0.54926616,0.77859843,-2.8955579,0.1801874,0.25542012,-0.94989109,0
1.6048915,-2.5127358,-0.63460702,0.52648425,-0.82430232,-0.20818266,0
-2.4323061,0.14349322,-1.6250867,-0.83049124,0.048994601,-0.55487269,0
-1.4324147,1.6818197,2.1432216,-0.46538064,0.54641044,0.69631642,0
0.23947424,1.3121645,2.6423266,0.080906168,0.44331369,0.89270782,0
-1.4732728,-1.4204729,2.1925271,-0.49121511,-0.47361067,0.73102719,0
-0.23880975,2.4030249,-1.6040121,-0.082375556,0.82890463,-0.55329144,0
2.9646337,0.68653977,-0.3182123,0.96893549,0.22438277,-0.10400178,0
1.2102271,1.0402058,2.6274748,0.39368063,0.33837357,0.85470396,0
-2.2250881,2.0646217,-0.3156876,-0.72911251,0.67653114,-0.10344389,0
-0.21310112,1.8195803,-2.410877,-0.070377514,0.60092384,-0.79620194,0
-0.17315604,-2.9542913,-0.91923553,-0.055877682,-0.9533537,-0.29663852,0
-2.3108582,-2.0140538,0.22156183,-0.75189859,-0.65532547,0.072090976,0
-2.8876107,-0.26125276,0.95649976,-0.94579524,-0.085569575,0.31328771,0
0.14885458,-2.4933362,-1.6859947,0.049395155,-0.82737613,-0.55947202,0
-1.4080784,0.17012303,-2.632024,-0.47095352,0.056900267,-0.88032103,0
2.0468056,1.0677789,1.7628815,0.70465153,0.36760309,0.60690534,0
0.57006019,0.31761977,2.8925831,0.19224495,0.10711289,0.97548378,0
1.886288,1.2225411,-1.943935,0.63472992,0.41138119,-0.65412796,0
-2.2839525,1.8991784,-0.25776017,-0.76602352,0.63697267,-0.086451158,0
0.83606571,-2.8920376,0.71619928,0.27017939,-0.93457842,0.23144388,0
-1.7739294,2.224967,0.90983671,-0.59378552,0.74476093,0.30454871,0
-2.1147974,-1.75651,-1.0440687,-0.71914518,-0.59730816,-0.35503969,0
0.11207568,-1.5493968,-2.5131595,0.037933692,-0.52441651,-0.85061646,0
1.6817006,2.0012233,-1.2656765,0.5790385,0.68905568,-0.43579423,0
-1.4056565,2.6015542,0.70025605,-0.46256942,0.856112,0.23043826,0
1.5530052,2.4708943,-0.31636781,0.52904063,0.84172511,-0.1077726,0
2.8052113,0.43650284,0.68972623,0.96017838,0.14940785,0.23608212,0
-3.0103881,0.0163489,-0.1257516,-0.99911392,0.0054260157,-0.041735541,0
2.8369694,-0.23393197,0.82209218,0.95748776,-0.078952916,0.27745917,0
0.73784274,-2.357955,1.747854,0.24379866,-0.77911758,0.57752746,0
-0.37372786,-1.968642,-2.2207253,-0.12494547,-0.65816045,-0.74243748,0
-0.92329103,0.16241939,-2.8379853,-0.30891556,0.05434243,-0.94953573,0
-1.9305644,0.79965705,-2.1483829,-0.64416313,0.26681814,-0.7168417,0
-2.6954482,-0.71662104,-0.97016281,-0.91278332,-0.24267569,-0.32853478,0
2.2188523,1.8343821,-0.93849277,0.7327683,0.6057983,-0.30993399,0
0.22443274,2.2998624,-1.9507172,0.074215315,0.76051748,-0.64506227,0
2.5457163,-1.5263163,-0.71536899,0.8337847,-0.49990615,-0.23430094,0
-2.7999771,0.69639134,-0.6242311,-0.94849128,0.23590232,-0.21145807,0
0.38721168,-2.9104233,-0.23420548,0.13146344,-0.98812681,-0.07951583,0
-1.1415495,1.0765408,-2.468909,-0.39022857,0.36800596,-0.84397471,0
1.1361527,2.2130675,-1.6947781,0.37744516,0.73521066,-0.56302798,0
1.8796406,2.2996228,-0.34995347,0.62851292,0.76894629,-0.1170172,0
-1.6120924,-2.0254934,1.4670839,-0.54178262,-0.68071598,0.493049,0
-1.6760987,-2.3058944,0.86190444,-0.56279993,-0.77427256,0.28941002,0
-0.823466,-0.15037483,-2.8499131,-0.2772328,-0.050626054,-0.95946813,0
-1.6484936,-2.084533,1.3626308,-0.55196977,-0.69797003,0.45625353,0
2.0588732,2.3139529,-0.46401912,0.65739286,0.73883915,-0.1481601,0
-1.4066855,2.3102589,1.3742234,-0.46365583,0.76148152,0.45295605,0
-1.4447901,2.3776484,1.1241536,-0.4814803,0.79235792,0.37462729,0
0.53343064,2.8404131,-0.38040602,0.1829953,0.97441393,-0.13049966,0
0.33065429,-0.6734038,-2.9699068,0.10794432,-0.2198372,-0.96954608,0
-0.23089713,-3.0274866,-0.47317365,-0.075139143,-0.98521256,-0.1539814,0
-0.62571788,2.8986783,0.4996644,-0.20807013,0.96389824,0.16615354,0
0.81515962,2.6319511,1.4096075,0.26338476,0.85040498,0.45545575,0
-2.2935443,-0.46075222,-1.7715224,-0.78159565,-0.15701546,-0.60370064,0
2.3068058,-0.47034082,1.9684414,0.75170428,-0.153267,0.64144355,0
-2.0355699,-0.92443615,-1.9320092,-0.688905,-0.31286016,-0.65385664,0
-0.27173877,2.6990035,1.078868,-0.093082964,0.92453218,0.36956167,0
-0.72590953,2.6665514,1.3221381,-0.23694852,0.8704052,0.4315671,0
-2.5032203,1.6636095,-0.4438304,-0.82391405,0.5475632,-0.14608307,0
0.33879182,-3.0280375,0.2399922,0.11084784,-0.99073058,0.078522012,0
-1.5619398,0.47282791,2.5525658,-0.51555026,0.15606654,0.84252661,0
0.812011,-0.5305897,2.8049636,0.27359352,-0.17877331,0.94508553,0
1.1224464,0.044567347,-2.7184124,0.38160712,0.015151918,-0.92420048,0
-2.0237067,2.2331746,-0.19089068,-0.67015678,0.73952276,-0.063214049,0
0.98237664,-1.8768269,2.1427104,0.32603556,-0.6228897,0.71113235,0
-0.74548781,-2.6139896,1.1131419,-0.25379968,-0.88992697,0.37896669,0
2.330904,-0.46100935,-1.7512655,0.78968006,-0.15618399,-0.59330606,0
2.6984549,1.421729,0.1616098,0.88347757,0.46547589,0.052911256,0
1.7009022,0.52203733,2.4085596,0.56801766,0.17433478,0.80434036,0
1.0735531,2.7840474,-0.67852873,0.3508299,0.90980786,-0.22173861,0
-1.1119574,-2.4405792,-1.3966894,-0.36773008,-0.80711216,-0.46189243,0
-0.15562847,-2.9510033,-0.54704666,-0.05178446,-0.98192906,-0.18202657,0
-0.1983204,2.8822598,-0.40340561,-0.067985401,0.98805565,-0.13828981,0
-1.9052249,1.8291944,-1.3849766,-0.63884842,0.61335433,-0.46440193,0
0.13809995,-1.8656693,-2.4021833,0.045357298,-0.61275703,-0.78896868,0
-2.2680366,1.8587053,0.67857748,-0.75353616,0.61753929,0.22545169,0
-2.0140519,2.358717,-0.19047874,-0.64813691,0.75905275,-0.06129748,0
-0.13170449,-1.4761617,2.6058414,-0.043933708,-0.49241492,0.86925107,0
-1.382816,1.1298424,2.4634268,-0.45449036,0.37134549,0.80965489,0
-2.5886779,0.43864152,-1.4088966,-0.86876947,0.14720964,-0.47283068,0
-0.63285041,1.5714878,-2.4778221,-0.21083683,0.52354789,-0.82549709,0
1.2741374,0.94300818,-2.6279576,0.4151617,0.3072674,-0.85628706,0
1.666921,0.49886447,2.4924185,0.54838741,0.16411754,0.81996143,0
-1.3903115,-1.8884459,1.9079322,-0.45988929,-0.62466294,0.63110864,0
2.6991916,0.68467033,0.95799464,0.91657925,0.23249725,0.32531148,0
2.4515464,-1.6778401,-0.54377419,0.81174725,-0.55556041,-0.18005256,0
-1.1552055,-1.3617669,2.3905082,-0.387151,-0.45637718,0.80114543,0
1.4115746,2.5069978,-0.79165798,0.47304654,0.84014452,-0.26530024,0
-0.34838542,-2.796391,0.94257438,-0.11724354,-0.94108063,0.31720832,0
-2.4381595,0.33523035,-1.6734784,-0.81922984,0.11263853,-0.56229436,0
-2.5216649,1.6143262,-0.21189755,-0.84010035,0.53781772,-0.070594318,0
1.2307409,-1.3993329,2.3199735,0.41358909,-0.47024423,0.77962446,0
1.6733421,-2.6358604,0.18167494,0.53505284,-0.84281904,0.058090743,0
2.9141517,0.35957348,0.46664298,0.98017246,0.12094224,0.15695497,0
1.3314039,0.38171157,-2.7567821,0.43155155,0.12372521,-0.89356327,0
1.1433392,-0.99123693,2.4824843,0.39326236,-0.34094536,0.85387409,0
2.6632617,-1.1140717,-0.082462899,0.92216128,-0.38575023,-0.028552994,0
-2.3258202,1.8248426,-0.67472339,-0.76701945,0.60180479,-0.2225133,0
-0.18124899,0.95450544,2.8220575,-0.060727719,0.31980833,0.94553411,0
-0.53401762,-2.432637,1.5566984,-0.18182167,-0.82826126,0.5300228,0
-2.5067055,-1.3770651,0.7881617,-0.84495842,-0.46418005,0.26567295,0
0.57025236,2.721271,0.87107682,0.19571842,0.93397748,0.29896548,0
-1.036896,-2.1826944,-1.7587517,-0.34693512,-0.73030794,-0.58846092,0
-1.535893,2.5704234,0.052783869,-0.51285321,0.85829538,0.017625172,0
-1.0337006,-1.3599273,-2.4151042,-0.34944123,-0.4597218,-0.81642306,0
1.0645776,0.83368456,-2.5310309,0.37098762,0.29052523,-0.88202226,0
0.77901459,-2.4299388,1.4772668,0.26420507,-0.82412088,0.50101936,0
0.08754544,-2.6055191,-1.6572096,0.028339818,-0.84344697,-0.53646445,0
-0.56263143,-2.6566284,-1.0101058,-0.19418938,-0.91692179,-0.3486329,0
1.9421759,-2.2357225,-0.32961306,0.65178287,-0.7502954,-0.11061621,0
0.68170303,2.6640711,-1.2007097,0.22718768,0.88784128,-0.40015435,0
-0.55159813,2.4690928,-1.5757976,-0.18506444,0.82839525,-0.52868938,0
1.1963654,2.1251814,1.8236299,0.39286777,0.69787651,0.59885168,0
-0.12718514,-2.4237707,1.8927988,-0.041321918,-0.78747296,0.6149624,0
-1.8290762,-1.7309597,1.5354055,-0.62014306,-0.58687693,0.52057487,0
1.7707127,0.061266948,2.4487338,0.58584476,0.020270323,0.81016976,0
1.3978288,-2.3391426,1.3415885,0.46021631,-0.77013123,0.44169995,0
-2.0107825,2.2239537,0.14765516,-0.66985095,0.74086452,0.049188286,0
1.9873792,1.4023793,-1.6054761,0.68191028,0.4811849,-0.55087155,0
1.459047,2.6120791,0.28186381,0.48550758,0.8691867,0.093792059,0
-0.22414857,2.0667582,2.1514635,-0.074922398,0.69082075,0.71913379,0
2.3482487,-1.6432602,-1.2452526,0.75145477,-0.52585393,-0.39848888,0
1.6676214,-1.5009466,-2.026901,0.55153584,-0.49641117,-0.67036116,0
3.0506835,-0.17649193,-0.41491878,0.9892531,-0.057231497,-0.13454679,0
2.9791925,-0.56714004,0.066919327,0.9821192,-0.18696313,0.022060594,0
-0.90280586,2.5727971,-1.4520355,-0.29225206,0.83285373,-0.47004613,0
0.18780242,0.086406566,3.0819619,0.060799379,0.027973363,0.99775797,0
1.741482,2.4618614,0.098780744,0.57719171,0.81595212,0.032739602,0
-1.5564736,2.5355432,-0.33703518,-0.51983106,0.84682065,-0.11256301,0
0.91449499,1.5893546,-2.2779851,0.31272206,0.5434981,-0.77898318,0
2.8541114,0.49046382,0.84845132,0.94579744,0.16253024,0.28116038,0
-2.6888044,-1.0691184,0.64728707,-0.90682536,-0.36057055,0.21830384,0
2.7814291,-0.056401469,1.1937174,0.91878486,-0.018631004,0.3943187,0
1.3940512,-2.1688399,1.5748298,0.46143097,-0.71788603,0.52126867,0
0.14485162,1.1373564,2.7365241,0.048820801,0.3833347,0.92231828,0
0.25311905,-2.4103265,-1.6941231,0.085600205,-0.81512803,-0.57292128,0
0.85129017,2.0317287,-1.9878361,0.28690287,0.68473577,-0.66994303,0
-1.9664116,-1.822588,1.2643713,-0.66335845,-0.61484033,0.4265289,0
-2.6316977,0.82487386,1.1759435,-0.87776458,0.27512473,0.39221892,0
2.5206268,1.6443572,-0.47271532,0.82739484,0.53975964,-0.15516864,0
2.2176821,2.0656884,-0.70853776,0.71252483,0.66369033,-0.22764792,0
0.76494479,2.6240239,1.0483365,0.26130548,0.89636773,0.35811222,0
-1.813,-0.063988611,-2.2255936,-0.63142258,-0.022285633,-0.77511859,0
2.3094025,-0.17253308,-1.9287534,0.76626724,-0.057247035,-0.63996667,0
-2.999393,0.59755683,-0.42947984,-0.97119695,0.19348761,-0.13906464,0
-1.7638094,1.5768954,1.7684741,-0.59712589,0.53384733,0.59870505,0
-1.6412239,2.3283095,0.97193515,-0.54528123,0.77355897,0.32291633,0
-1.2380921,-1.0456264,-2.5593708,-0.40870732,-0.34517235,-0.8448754,0
0.64505529,2.5334382,-1.3956611,0.21766742,0.85488319,-0.47095177,0
-1.4691491,2.6586304,0.42946118,-0.47889963,0.86663574,0.13999178,0
-0.74616522,1.8472656,2.3409929,-0.24273527,0.60093462,0.76154923,0
0.43455574,-2.0101974,-2.1221042,0.14704907,-0.6802296,-0.71809763,0
1.9574465,1.2383285,-1.7924001,0.66834873,0.42281374,-0.61199546,0
-1.5309694,0.17963375,-2.6544223,-0.49876136,0.058521338,-0.86476141,0
2.7729096,-0.83020824,0.85703814,0.91856539,-0.27501819,0.28390595,0
1.3562566,1.4802117,2.271678,0.44736391,0.48825076,0.74931747,0
1.5455886,-2.425456,-0.455313,0.5307889,-0.83295459,-0.15636443,0
-0.59487456,-2.8580077,-0.041410491,-0.20375526,-0.97891909,-0.014183839,0
-2.9514124,0.75398284,0.0010980197,-0.96888369,0.24751596,0.00036045568,0
-0.13801549,2.2336957,-1.9534736,-0.046460375,0.75193256,-0.65760088,0
-0.091944613,-0.65254807,-2.9378836,-0.030537397,-0.21672961,-0.97575396,0
1.288316,0.97716576,2.4959996,0.43319425,0.32857049,0.83927602,0
-1.0383976,-1.3210315,-2.4513674,-0.34939724,-0.44449714,-0.82482958,0
-1.9517883,-1.5899231,-1.5786067,-0.65685385,-0.53507197,-0.53126353,0
-1.3019091,2.6670158,0.50762033,-0.43239626,0.885782,0.16859329,0
1.0976076,0.80643702,2.5582945,0.37871164,0.27824795,0.88269788,0
1.0094497,2.5273511,1.2034608,0.33923066,0.84932905,0.40442905,0
1.2126682,2.1808941,-1.4648192,0.4190954,0.75371212,-0.50623822,0
-1.675108,-1.3650265,-2.0111039,-0.56746417,-0.46242014,-0.68128711,0
-2.4593108,1.6906158,0.70856762,-0.80177808,0.55117011,0.23100537,0
0.20246109,2.8580115,1.0550643,0.066309869,0.93605322,0.34555367,0
-2.9066346,-0.58815932,0.033431202,-0.9800728,-0.19831835,0.011272491,0
0.11136641,2.8009326,-1.020378,0.037332628,0.9389382,-0.34205461,0
-2.491529,1.5444217,-0.069033407,-0.8497169,0.52671319,-0.023543315,0
-1.4911311,2.273725,1.3896319,-0.48832163,0.7446087,0.45508227,0
-1.6505311,-2.3670745,-0.81277645,-0.55054724,-0.78955573,-0.27110779,0
0.080310963,1.1388983,-2.809057,0.026485888,0.37559918,-0.9264037,0
-2.1014745,0.69443488,1.9488783,-0.71260744,0.23548202,0.66086227,0
1.4234544,-1.5164837,2.0245254,0.49041942,-0.52247059,0.697505,0
2.1144693,1.4499984,-1.5982518,0.69986832,0.47993505,-0.52900547,0
0.99721068,2.1478841,-1.8172294,0.33407518,0.71956187,-0.60878938,0
-0.18534829,-2.8301542,-0.646415,-0.063716598,-0.97291321,-0.22221605,0
0.97378325,-2.1375763,-1.9236276,0.32073617,-0.70405614,-0.6335876,0
0.56481004,-1.5989519,2.5588124,0.18399402,-0.52087885,0.83356553,0
-2.1148198,1.6072583,1.5341812,-0.68943155,0.52396643,0.50014329,0
-1.6297518,-0.26139966,-2.5732121,-0.53310436,-0.085505843,-0.84171754,0
0.52664107,2.3790529,1.8711877,0.1714199,0.77437377,0.60906535,0
0.56703115,0.93487805,-2.8839602,0.18384589,0.3031112,-0.93505311,0
1.9140763,1.3831259,-1.9020187,0.63124442,0.45614192,-0.6272679,0
0.81553847,2.8307436,0.76228237,0.26801291,0.93027592,0.2505112,0
1.6810457,-1.391571,1.9805923,0.57041556,-0.4721905,0.67205828,0
1.4396514,-2.2424936,-1.4694963,0.47307852,-0.73689753,-0.48288575,0
2.4302666,-0.9857288,-1.6317711,0.78680587,-0.31913257,-0.52829063,0
0.50945705,-0.72884476,2.860821,0.17005482,-0.24328561,0.95493114,0
-2.6067424,-0.3540023,1.5285805,-0.85676831,-0.11635134,0.50240463,0
1.5173916,-1.2989104,2.3387232,0.49336556,-0.42232847,0.76041383,0
-2.0950606,-0.59148347,1.8554842,-0.73243332,-0.20678265,0.64867741,0
-1.9883522,-1.7534256,1.3088236,-0.67252922,-0.59306896,0.44268921,0
2.9272754,-0.84311891,-0.46311188,0.95002043,-0.27362654,-0.15029873,0
-0.69976556,-0.82052267,-2.8856788,-0.22715266,-0.26635194,-0.93672746,0
1.9249585,-0.071328402,-2.2559056,0.64891583,-0.024045261,-0.76048023,0
-0.29500812,2.0827279,-2.1881478,-0.097193837,0.6861788,-0.72091061,0
-1.5627867,2.4955785,0.070886791,-0.53058988,0.84728694,0.024067145,0
-2.7051122,-1.4020432,0.32433102,-0.88284826,-0.45757487,0.10584961,0
-0.11056733,2.6023481,1.4638259,-0.037005693,0.87097782,0.48992673,0
-0.83011156,1.9389971,2.1802862,-0.27364334,0.63918358,0.71872365,0
-0.47061056,-2.9892619,0.20478529,-0.15516332,-0.98557878,0.067519024,0
0.67023736,-2.6691377,1.1712064,0.22409526,-0.89243174,0.39159527,0
2.3519037,-1.3182659,-1.429822,0.77065355,-0.43195915,-0.46851298,0
0.48461452,-2.7556567,-1.0446959,0.16226199,-0.9226681,-0.3497923,0
0.71807367,-2.6851776,-1.0292331,0.24226737,-0.90593898,-0.34724793,0
2.7329068,-1.2836514,0.050166711,0.90500265,-0.4250814,0.016612716,0
2.7967904,0.58811688,0.99253118,0.92443705,0.1943932,0.32806626,0
-2.8732126,-0.29625633,-1.1284583,-0.92652768,-0.095534071,-0.36389506,0
2.2651825,-0.58090013,1.8450594,0.76045632,-0.19501704,0.61941463,0
-2.1885769,-1.5224656,-1.3107122,-0.73669261,-0.51247418,-0.44119629,0
-1.5540907,-0.99027056,2.349685,-0.52043986,-0.33162561,0.78687155,0
3.0469911,0.05701803,-0.1909721,0.99786764,0.018672993,-0.062541984,0
-0.54683328,-1.3281673,2.6025081,-0.1839605,-0.44680953,0.87551123,0
1.7508327,1.2307813,-2.2096553,0.56916016,0.40010202,-0.71831405,0
-1.65205,-0.90474713,-2.4049072,-0.54081589,-0.29617843,-0.78727156,0
-2.3673851,1.4189126,-1.2286404,-0.78360248,0.46965888,-0.40667894,0
2.4852002,-1.6559051,0.13223901,0.83137387,-0.55394983,0.044237912,0
-1.3498423,-2.3574595,-1.3648393,-0.44400603,-0.77544332,-0.448939,0
1.9574757,-0.27128473,2.2571616,0.65248883,-0.090427816,0.75238365,0
-1.7126024,-0.6186704,-2.4506969,-0.56093115,-0.20263402,-0.80268037,0
-2.5042014,-1.5705708,-0.35295907,-0.84119385,-0.52757519,-0.11856355,0
2.512414,1.3421433,-0.91002351,0.84019631,0.4488368,-0.3043282,0
0.51270223,2.7655003,-1.2228147,0.16717051,0.90171272,-0.39870816,0
1.077624,-2.1733656,-1.7250215,0.36202481,-0.73013622,-0.57951623,0
-1.1312701,-2.1874204,-1.795952,-0.3711572,-0.71766847,-0.58923203,0
-0.6177932,-2.6655009,-1.1562114,-0.20798184,-0.89734846,-0.38924184,0
1.3970729,2.4057364,-1.4161664,0.44753829,0.77065355,-0.45365471,0
1.0104992,0.30444714,2.8558326,0.33189908,0.099995844,0.9379999,0
0.020520449,-0.99143314,2.75037,0.0070187091,-0.33910471,0.94072247,0
1.7017359,1.742715,-1.5892422,0.58511549,0.59920555,-0.54643631,0
-2.2119849,1.7948922,0.53189993,-0.76332396,0.61939132,0.18355097,0
2.6115205,-1.254071,0.37215674,0.89410293,-0.42935467,0.12741482,0
-2.2416527,0.026041353,1.9566281,-0.75334972,0.0087516885,0.65756184,0
-0.35202622,-1.9795853,2.3232727,-0.1145731,-0.64429069,0.75614977,0
1.326682,1.6539215,2.1359828,0.44081011,0.5495404,0.70971251,0
2.6437621,0.62076724,-1.1311387,0.89868253,0.2110147,-0.38450304,0
-2.3901892,1.1965474,1.590619,-0.76844239,0.38468826,0.51138169,0
1.3989131,2.7578154,0.066409856,0.45227733,0.89161885,0.02147072,0
-2.4215465,-0.81863058,-1.5644891,-0.80800539,-0.27315515,-0.52202827,0
1.7812929,2.0520701,1.1686993,0.60219193,0.69373214,0.39509577,0
2.50753,-1.1605455,0.99681908,0.85366112,-0.39509499,0.33935612,0
-1.2765543,-2.1412182,1.5266523,-0.4366982,-0.73249221,0.52225453,0
-2.5212507,-1.4580663,0.8633638,-0.82996702,-0.47997883,0.28420952,0
1.4691387,-1.4556763,2.0507624,0.50441545,-0.49979323,0.70411062,0
-0.80781394,-2.6981411,-1.1924232,-0.26412123,-0.88217884,-0.38987231,0
-0.063094236,-1.5100054,-2.5238228,-0.021447999,-0.51330513,-0.85793811,0
2.7504778,1.2893629,-0.038490538,0.90537655,0.42442045,-0.012669955,0
1.1202132,-0.64728969,-2.7035074,0.37376142,-0.21596953,-0.90203083,0
-2.8999481,-0.90464121,0.43948054,-0.94479305,-0.29472896,0.14318123,0
-0.59727651,-2.5864735,1.5517917,-0.19424637,-0.84117335,0.50467396,0
-0.81640089,2.876708,0.37270814,-0.27091917,0.95462334,0.12368161,0
-1.4933707,-0.59762311,-2.6034827,-0.48798192,-0.19528258,-0.85072815,0
-1.8414121,-0.64312285,2.2232969,-0.62260145,-0.21744683,0.75172085,0
-0.12794341,1.9019375,-2.3045919,-0.042779006,0.63592952,-0.77056056,0
-1.2105348,2.5130062,1.0979254,-0.40382501,0.83831936,0.3662594,0
0.020238534,0.088922665,-3.0271058,0.0066827377,0.02936215,-0.99954647,0
0.84878117,-2.9011261,0.1008814,0.28064227,-0.95923269,0.033355575,0
-2.6784861,1.3860255,0.40441012,-0.88025731,0.45550326,0.13290529,0
-2.1599402,1.6092803,1.3107617,-0.7210536,0.53722662,0.43757203,0
1.3565423,-0.95324999,2.598295,0.44011977,-0.30927467,0.8429969,0
-2.5338509,1.3507462,-0.97488517,-0.83559865,0.44544122,-0.32149196,0
-2.2524562,1.1112159,-1.7771639,-0.73207861,0.36116016,-0.57760221,0
-0.077316403,2.42977,1.6232669,-0.026449764,0.83121872,0.55531591,0
-1.9890729,0.81015444,2.1450496,-0.65527958,0.26689702,0.7066645,0
-0.046003409,-0.92609918,2.9233685,-0.014999983,-0.30196613,0.95320058,0
0.95359325,-0.20412114,2.7569828,0.32608464,-0.06979996,0.94276017,0
-1.1638266,-0.49545738,-2.7439191,-0.38519016,-0.16398089,-0.90815133,0
-0.36511207,1.6876453,-2.5404007,-0.11886477,0.54942471,-0.82704514,0
-0.86958015,-2.4733429,1.3188099,-0.296303,-0.84277332,0.44937471,0
-1.8785441,-1.9578441,1.3932776,-0.61588949,-0.64188838,0.45679259,0
0.78478837,2.076817,1.9779639,0.26393196,0.69845372,0.66520846,0
-0.81444144,-1.863639,-2.0796661,-0.27998632,-0.64067638,-0.71494156,0
-0.095221952,3.0635123,-0.0098395729,-0.031067442,0.99951214,-0.0032102931,0
1.9269984,-1.6866837,1.5906835,0.63919777,-0.55948383,0.52763999,0
-1.928521,2.2279541,-0.75082302,-0.63420665,0.73267716,-0.24691302,0
-0.058935151,-2.8811529,1.0311841,-0.019255478,-0.94133931,0.33691171,0
2.1446259,-0.46966466,-2.0671263,0.71120954,-0.15575209,-0.68550879,0
-0.0090368148,-2.9123783,1.0310237,-0.0029250043,-0.94266838,0.33371812,0
-2.144762,-2.0200031,-0.10873059,-0.727467,-0.68515086,-0.036879577,0
0.091919966,-0.010361484,-3.0023041,0.030601952,-0.0034495404,-0.99952567,0
1.5988982,-1.3530433,2.1133997,0.53735262,-0.45472652,0.71026468,0
2.4013541,1.0168041,1.5318513,0.79399502,0.33620089,0.50649852,0
1.3222827,2.701719,0.26935664,0.43784505,0.89461529,0.089191571,0
-1.3577098,0.65066165,2.7165163,-0.43714836,0.20949668,0.87464988,0
-0.61914551,0.46590924,2.8286674,-0.21110512,0.15885736,0.96446824,0
-0.18052347,3.0277994,0.32196155,-0.059183832,0.99265081,0.10555369,0
1.8961868,1.1595343,2.1254256,0.61658567,0.37704739,0.69112754,0
-0.2917496,-2.3081551,-1.9771987,-0.09555544,-0.75597972,-0.64758307,0
1.2950336,1.7773149,2.0859888,0.42725474,0.58636796,0.688205,0
-0.76246917,-2.7552619,1.0132923,-0.25138426,-0.90840322,0.33408004,0
-1.5826263,2.4619861,0.56989682,-0.53077006,0.82568347,0.19112797,0
-0.64523226,-2.5258739,-1.4863523,-0.21501045,-0.84169585,-0.49529651,0
-1.4476384,2.636539,0.132249,-0.48082668,0.87571472,0.043925919,0
2.3906941,-1.4928937,-1.0955818,0.7905789,-0.49368519,-0.36229804,0
0.34580886,2.8336205,-0.47307062,0.11950915,0.97927958,-0.16348992,0
1.2224894,-2.5870392,-0.87651318,0.40850699,-0.86448491,-0.29289562,0
1.0481441,-1.9193963,2.1698725,0.34022343,-0.6230284,0.70433199,0
0.3133119,1.7935133,2.3641205,0.10499927,0.60105467,0.79228055,0
0.099095777,3.0165651,0.70850009,0.031963956,0.97301173,0.22853109,0
1.6523496,-1.3670852,2.1496289,0.54416984,-0.45022345,0.70793927,0
-2.7245243,0.045975123,-1.3584756,-0.89482206,0.015099721,-0.44616741,0
2.0583544,1.3078948,-1.7406428,0.68698698,0.43651703,-0.58094901,0
1.9347509,-1.7617246,1.505845,0.64085317,-0.58354115,0.49878541,0
2.8079793,-1.0042183,-0.54651421,0.92617214,-0.33122718,-0.18025996,0
-0.27793941,2.5295317,1.5622244,-0.09308017,0.84712434,0.52317917,0
-1.4776751,2.5065255,-0.66428161,-0.49511027,0.83983719,-0.2225744,0
1.0973796,0.038727548,-2.746835,0.37096411,0.013091669,-0.92855495,0
0.89376307,1.0277097,2.7727489,0.28931892,0.33267862,0.8975631,0
1.1304976,1.2955912,2.4424317,0.37847501,0.4337461,0.81769252,0
2.7486544,-1.1536481,-0.36920613,0.91508418,-0.38407347,-0.1229164,0
2.8927162,0.086382054,0.84870088,0.95916003,0.028642358,0.28141025,0
-0.3663469,-1.6895429,-2.428318,-0.12289996,-0.56679815,-0.8146382,0
-0.38169897,2.7618999,-1.0130681,-0.12867002,0.93103135,-0.34150338,0
0.80805951,-0.56236541,2.8026445,0.27202561,-0.18931502,0.94348389,0
0.55236876,2.2361948,-1.8016078,0.18888991,0.76469684,-0.61608398,0
-0.48253885,-0.59856218,-2.8281,-0.16464713,-0.20423546,-0.96497625,0
-1.9535906,-0.11507389,2.2163794,-0.66073263,-0.038919657,0.74961162,0
0.67397976,2.6013896,1.1923473,0.22925054,0.88484848,0.40557042,0
-1.3936434,2.6306093,-0.18140329,-0.46727493,0.88201743,-0.06082274,0
-0.82298815,-2.3337519,1.8089335,-0.26848701,-0.76135004,0.59013623,0
2.8653197,0.42145613,0.8300851,0.95106137,0.13989037,0.27552313,0
2.3258672,1.9108001,-0.29075047,0.76910335,0.63185155,-0.096143566,0
3.0692244,0.14850979,0.0089232437,0.99882722,0.048330002,0.002903919,0
-0.2022889,3.0188503,-0.07318829,-0.066839106,0.99747074,-0.024182443,0
-2.5771825,-1.0489005,-0.82924616,-0.88764399,-0.3612667,-0.28561243,0
-0.29479778,-2.4304552,1.8207257,-0.096620947,-0.79658973,0.59674889,0
3.0054839,0.31338143,-0.26790506,0.99072176,0.10330243,-0.088311695,0
1.1336993,-1.5173403,2.1552413,0.39511889,-0.52882612,0.75114846,0
-2.1707597,1.4537653,-1.3295321,-0.74051201,0.49592346,-0.45354375,0
-2.3898108,1.9940095,-0.22320399,-0.76585925,0.63901734,-0.071529858,0
2.0621405,2.137573,0.21219224,0.69252908,0.71786165,0.071260571,0
-0.83852148,2.7160506,0.86952567,-0.28208715,0.91370702,0.29251727,0
0.20563048,0.96001661,-2.8423226,0.068381414,0.31924886,-0.94520056,0
-1.7905495,0.79904878,-2.3396244,-0.58656466,0.26175976,-0.76643568,0
0.41316682,-1.0070664,2.7340903,0.14039867,-0.34221232,0.92907423,0
-0.61482233,0.95605487,2.8550222,-0.20007372,0.31111664,0.92907315,0
0.80643952,1.6588267,-2.3378069,0.2708157,0.55706143,-0.78507417,0
2.7107036,0.064920105,-1.2099011,0.91294897,0.021864709,-0.40748754,0
2.1186936,1.4514713,-1.5089211,0.71128851,0.48728842,-0.50657547,0
2.9883223,0.32127991,-0.372098,0.98673689,0.10608587,-0.12286588,0
-0.36467403,-2.9421368,0.55443764,-0.12091114,-0.97549343,0.18382907,0
1.1172069,-1.5101901,-2.4195006,0.36472639,-0.49302074,-0.7898767,0
0.23056267,0.86671215,-2.9221413,0.075429253,0.28354743,-0.9559871,0
-0.72176844,1.8849555,2.3144586,-0.2350311,0.61380237,0.75366247,0
-1.9720169,-0.14569892,2.1732161,-0.67116773,-0.049588021,0.73964506,0
2.124994,-0.21406585,-2.0767016,0.71333778,-0.071859621,-0.69712657,0
-0.95462996,0.59131193,-2.875912,-0.30920514,0.19152625,-0.93150944,0
-2.726856,-0.82224196,-1.0327836,-0.90007174,-0.27140296,-0.34089786,0
-2.2266572,1.6864491,0.8740229,-0.7607879,0.57621354,0.29862973,0
-0.62601244,2.8376915,-0.49503228,-0.212367,0.96265185,-0.1679336,0
1.5810497,1.4939587,-2.0908816,0.52401447,0.49514955,-0.69299042,0
1.4910195,-2.5238345,-0.74106896,0.49312979,-0.83471608,-0.24509618,0
1.4090043,-1.5218292,-2.1049387,0.47682044,-0.51500148,-0.71233124,0
1.6481264,-2.2384577,-1.1245649,0.54963022,-0.74649853,-0.37502879,0
-0.25312379,2.8198109,0.96965301,-0.084583342,0.94226241,0.32401732,0
0.18495882,1.8797289,-2.2351213,0.063205227,0.64235216,-0.76379895,0
-1.8204527,-2.1129904,-0.83208883,-0.62547255,-0.7259829,-0.28588974,0
-0.66542733,0.33054894,3.0042038,-0.21502015,0.10681058,0.97075117,0
-2.9608705,-0.56652033,-0.26479596,-0.97841579,-0.18720591,-0.087501481,0
1.115929,-2.7393913,-0.33439049,0.3748745,-0.92024487,-0.11233194,0
-2.9668283,-0.01616236,-0.55684388,-0.98282427,-0.0053541218,-0.18446624,0
0.45823506,0.45286801,2.9835749,0.15012576,0.14836742,0.97747087,0
0.55307996,2.7441492,-0.73818779,0.19104493,0.9478842,-0.25498489,0
1.6509583,1.7801865,1.7079442,0.55616516,0.59969878,0.57536221,0
-0.16449614,2.2271807,-1.9565288,-0.055403188,0.75012648,-0.65896946,0
-2.1690109,-1.0084001,1.7320668,-0.73445517,-0.34145731,0.58650023,0
0.13489571,-1.2387636,-2.6202106,0.046493001,-0.42695084,-0.90307885,0
0.43083119,-0.15115277,-2.8707306,0.14821433,-0.051999498,-0.98758721,0
0.91337824,0.1364316,-2.9037144,0.29975954,0.044775181,-0.95296347,0
1.0944321,-0.30079415,-2.8830361,0.35322359,-0.097080112,-0.93048835,0
-2.2590132,0.79655743,1.8538303,-0.74581575,0.26298434,0.61204416,0
1.4112393,2.6946752,-0.11694958,0.4635981,0.8852123,-0.038418435,0
-0.63952368,-1.782771,2.3436832,-0.21223205,-0.59162962,0.77777368,0
0.27109444,-2.6120212,1.6840403,0.08689934,-0.83728355,0.53981924,0
-2.453064,0.17818196,1.6598362,-0.82672441,0.060050361,0.55939311,0
-1.6948379,2.3831315,-0.60192537,-0.56766135,0.79819524,-0.20160615,0
-2.6320436,0.10807137,1.4573717,-0.87428039,0.03589784,0.48409209,0
1.2813058,-0.78603554,2.5865893,0.42829233,-0.2627421,0.86459953,0
1.6919147,1.9884444,-1.3227476,0.57807702,0.6793924,-0.45194358,0
-0.479467,-1.1296326,2.7420597,-0.15960215,-0.37602544,0.91276067,0
2.6449039,0.090869799,1.3365158,0.89210147,0.030649539,0.45079434,0
-2.6459088,-0.45408976,1.541831,-0.85466373,-0.14667703,0.49803191,0
-2.1002271,1.9790108,0.7148391,-0.70644546,0.66567236,0.24044771,0
-0.79771733,-2.843194,-0.13524796,-0.26985666,-0.96181291,-0.045752499,0
1.4978364,2.1956062,1.3840506,0.49984011,0.73269159,0.46186888,0
0.31298858,-2.4805832,-1.7413541,0.10272378,-0.81413478,-0.57151759,0
-2.7922432,0.74077231,1.0068138,-0.91272002,0.24214141,0.32910424,0
-0.24375197,2.9932616,-0.53498423,-0.079906918,0.98125279,-0.17537886,0
1.4428564,-2.6200793,-0.85602641,0.46376526,-0.84215015,-0.27514538,0
-2.0506873,-1.6908826,-1.2841908,-0.69470745,-0.57281709,-0.43504286,0
1.2767131,2.1863372,1.7020988,0.41848859,0.71665055,0.55792403,0
-2.0359213,-2.0131719,0.91504502,-0.67731929,-0.66975093,0.30442122,0
0.83256018,-1.2252867,2.5904746,0.27899578,-0.41060075,0.86808318,0
-1.7174175,1.5142323,-1.8651223,-0.58155417,0.51275128,-0.63157016,0
1.4181283,0.86075813,-2.4709172,0.47649878,0.28921941,-0.83024162,0
-1.818329,-2.2680454,0.34879482,-0.62105656,-0.7746588,0.11913208,0
-3.0899625,-0.00071661407,0.13477837,-0.99905008,-0.00023169645,0.043576691,0
-0.97181737,2.0464518,2.1231821,-0.31299648,0.65910763,0.68382037,0
2.3037467,0.89627558,-1.8248941,0.74977404,0.29170054,-0.59392738,0
-2.1669934,-2.0997658,0.23738155,-0.71594685,-0.69373572,0.078427821,0
0.71561241,2.8010502,-0.74307823,0.23973717,0.93837929,-0.2489385,0
-2.7012322,-1.3748927,-0.37654182,-0.88440204,-0.45014936,-0.12328239,0
1.7742758,1.7227273,1.7862751,0.5816009,0.56470346,0.58553421,0
0.59097606,2.7794547,-1.1000141,0.19394879,0.91217214,-0.36100686,0
-1.4966536,-1.5175833,2.1605847,-0.49313313,-0.50002927,0.71189213,0
2.8077779,1.1259887,-0.75781357,0.90032899,0.3610543,-0.24299698,0
2.000315,0.089138493,-2.3127468,0.65389317,0.029138936,-0.75602555,0
0.021474004,-0.87396014,2.9768353,0.006921405,-0.28169093,0.95948023,0
0.31544304,2.6824236,-1.1906675,0.1068679,0.90876943,-0.4033823,0
-1.0872895,-0.12702076,-2.6923113,-0.3741082,-0.043704558,-0.92635471,0
2.4806063,-0.4627209,-1.775274,0.80400646,-0.14997567,-0.57539636,0
-2.9528399,0.47079024,-0.32128841,-0.98187554,0.15654673,-0.10683452,0
1.9867188,-0.65371037,2.1540825,0.66170824,-0.21772861,0.71745139,0
-0.25704259,-2.983052,-0.50008482,-0.084676556,-0.9826954,-0.16474102,0
-0.42102274,-1.1587993,-2.6047206,-0.14609824,-0.40211257,-0.90385878,0
1.157915,2.3069341,-1.4579161,0.39059433,0.77818787,-0.49179238,0
1.9634304,1.70904,1.4391366,0.66011214,0.57458526,0.48384276,0
-1.9205753,-2.313355,-0.51792508,-0.62949497,-0.7582339,-0.16975707,0
-1.0517465,1.9416695,2.0971909,-0.34535578,0.63757455,0.6886422,0
-2.7250113,1.2149805,0.51709735,-0.89991462,0.40123823,0.17076753,0
2.880511,0.54319662,0.60513955,0.96238637,0.18148343,0.20217873,0
0.07926058,-2.5637825,1.5358945,0.026511321,-0.85754174,0.51373065,0
1.618818,2.2907648,1.1886692,0.5313713,0.75193542,0.39017645,0
0.74264103,-2.7984276,0.83946055,0.24635363,-0.9283123,0.27847123,0
-2.8590233,-0.49301144,0.24874595,-0.98185349,-0.16931131,0.085425004,0
1.1487403,2.3122497,1.4580268,0.38741764,0.77981621,0.49172583,0
0.38655272,-2.8986554,-0.026224541,0.13218036,-0.99118513,-0.0089673903,0
-1.1680287,2.5028515,0.89307886,-0.40238246,0.86222494,0.30766302,0
-2.6072443,0.058312204,1.4854102,-0.86871636,0.019429237,0.49492875,0
-1.7133722,-2.0754235,1.2216237,-0.57970965,-0.70220762,0.41332936,0
-0.510001,2.8225439,0.69136781,-0.17285842,0.95666569,0.23433042,0
-1.7785479,-1.5181865,-1.8393996,-0.59780121,-0.51028913,-0.61825454,0
1.7789568,-1.4580816,1.9939409,0.58439672,-0.47898751,0.65502018,0
1.1358496,1.6290323,2.3179879,0.37212041,0.53369403,0.75940567,0
-2.1284983,-2.182781,0.36642385,-0.69315994,-0.71083748,0.11932842,0
2.3899007,-0.33165377,-1.6464984,0.81816286,-0.11353894,-0.56366521,0
-2.6637719,-1.0683212,1.0989764,-0.86676633,-0.34762168,0.35759658,0
0.015127235,2.0636544,2.2105577,0.0050021498,0.6823923,0.73096907,0
0.82266569,-2.5611715,-1.3090808,0.2749857,-0.85610181,-0.43757573,0
1.481035,1.6802814,1.8843211,0.50598645,0.57405776,0.64376664,0
-1.3679938,-2.7177911,-0.14988986,-0.44905961,-0.89214599,-0.049203061,0
-0.57596433,-2.942776,-0.41127115,-0.19029556,-0.97227758,-0.13588181,0
-1.7622112,1.4039018,1.8556848,-0.60372734,0.48097178,0.63575101,0
0.16132849,2.5260537,-1.6514645,0.053379346,0.83580452,-0.54642606,0
0.90306348,1.3962648,2.532027,0.29811642,0.46093047,0.83586466,0
-2.3235407,-1.6414522,1.0909488,-0.7626009,-0.53873509,0.35805637,0
-1.4254365,-0.42671993,-2.4696364,-0.49438733,-0.14800023,-0.85654956,0
0.23614061,-2.8046663,1.2428313,0.076749392,-0.91156042,0.4039396,0
0.15748227,0.83332616,2.8018713,0.053795807,0.2846635,0.95711684,0
0.73640078,2.336591,-1.6294531,0.25028163,0.7941407,-0.5538047,0
-2.646045,-0.71144015,1.0465634,-0.90213674,-0.24255683,0.35681301,0
0.26535663,-0.75401694,2.9281445,0.087423816,-0.24841677,0.96470004,0
-2.0071905,0.99486685,2.1166158,-0.65126532,0.32280061,0.68677014,0
0.58012038,2.8609052,-0.23402645,0.19809501,0.97691971,-0.079913534,0
-2.3182328,-0.91853464,-1.6179229,-0.77990091,-0.30901381,-0.54430234,0
-0.41437611,3.0054348,-0.076703131,-0.13653988,0.99031216,-0.025274228,0
2.0557511,0.75102895,-2.0386033,0.68731308,0.25109655,-0.68157995,0
-1.2960104,1.2877746,2.2744138,-0.44424146,0.44141841,0.77961481,0
0.9329558,0.87860262,-2.6278372,0.31910378,0.30051306,-0.89881295,0
-2.6283855,-1.3932743,-0.89758188,-0.84587604,-0.44838831,-0.28886285,0
0.50545347,2.8673785,0.26980665,0.17286004,0.98061478,0.092271179,0
-0.11518175,-2.3596036,-1.8541341,-0.03835386,-0.78571391,-0.61739987,0
0.13047077,2.7223892,-1.3031814,0.043187313,0.90114188,-0.4313679,0
1.7741174,-2.3129096,0.037640888,0.60857236,-0.79339331,0.012911888,0
0.54482883,0.7943868,2.8373024,0.18183023,0.26511726,0.9469164,0
1.194744,2.3033874,1.5319365,0.39649332,0.76441288,0.50839561,0
0.69902343,2.7857745,0.85719228,0.23321584,0.92942053,0.28598586,0
0.95188588,2.847013,0.6363523,0.31019861,0.92777866,0.20737316,0
-1.5917686,-2.1576502,1.3459116,-0.53057009,-0.71919042,0.44862077,0
-0.51569062,2.4124858,1.7714636,-0.16979584,0.79433292,0.58327055,0
-2.8029752,-0.76016361,-0.92371756,-0.91973656,-0.24943149,-0.30309823,0
-2.6704803,1.353323,-0.23895013,-0.88917041,0.45060614,-0.079561494,0
2.5841472,1.2528837,0.96610826,0.85285389,0.41349298,0.31884763,0
-1.4332757,-0.64639592,-2.6216457,-0.46885329,-0.2114491,-0.85759306,0
1.2742255,-2.4415438,1.3502197,0.41543242,-0.7960102,0.44020861,0
-0.28091681,0.32748994,-2.989583,-0.093001634,0.10842035,-0.98974532,0
-0.33959183,-0.54392833,3.0123682,-0.11026207,-0.17660809,0.97808582,0
0.39847589,-0.081823304,2.9393528,0.13428597,-0.027574372,0.99055892,0
0.21846245,2.6551344,1.1996456,0.074771136,0.90874851,0.41059169,0
-2.9084554,0.5051226,0.31968531,-0.97952449,0.17011778,0.10766526,0
-0.61735809,2.1823521,-1.8132689,-0.21260753,0.75156462,-0.62445867,0
-2.3675544,-1.7538344,-0.67353159,-0.78333622,-0.58027893,-0.2228467,0
-0.54474109,-1.8727998,2.3400314,-0.17882128,-0.61478096,0.76815838,0
1.8282653,1.0969081,2.0005891,0.62532234,0.37517592,0.68426234,0
-1.4923797,-0.60473973,-2.4733393,-0.50566441,-0.20490454,-0.83804393,0
-0.2932241,2.7777865,1.1562203,-0.096995622,0.91886419,0.3824662,0
-1.1612138,0.35906053,2.6786063,-0.39477265,0.1220682,0.9106338,0
-0.91704679,1.7139564,-2.3193555,-0.30303335,0.56636798,-0.76641899,0
-0.065652296,-0.44811749,3.0008445,-0.021632949,-0.14765824,0.98880184,0
1.0162538,-2.6280077,0.7575137,0.34830546,-0.90070939,0.25962624,0
0.94634497,-0.83587843,-2.802048,0.30791554,-0.27197266,-0.91171205,0
-0.51814437,0.51468706,2.9085414,-0.17278211,0.17162922,0.96989167,0
1.6902933,0.21511619,-2.3432341,0.5834111,0.074248157,-0.80877602,0
-2.1817462,1.7140539,0.65500158,-0.7653119,0.601255,0.22976114,0
-1.9663479,1.9196135,-1.142028,-0.66076905,0.64506447,-0.38376564,0
0.043777227,2.3414681,-1.9590774,0.014337881,0.76687574,-0.64163542,0
-0.30191723,1.2712126,-2.6584659,-0.10192361,0.42914605,-0.897466,0
2.7146134,-0.040192723,-1.367859,0.89295626,-0.013221162,-0.44994926,0
0.40669513,2.5166588,-1.5628921,0.136007,0.8416211,-0.5226624,0
0.97131926,1.1248095,2.7439635,0.31126285,0.36044937,0.87931323,0
0.96858293,-2.5291836,-1.4213113,0.31667501,-0.82690829,-0.46469304,0
0.00087354187,2.4714489,-1.6921457,0.00029164407,0.82512754,-0.56494635,0
-1.5135418,0.92076486,-2.4602506,-0.49923199,0.30370834,-0.81149775,0
2.2598176,0.36253223,1.9537356,0.75096941,0.1204746,0.64925402,0
-2.372822,1.6860931,0.18373103,-0.81353861,0.57808882,0.062993467,0
1.5322309,-0.057352986,2.5013461,0.52225101,-0.019548396,0.85256773,0
2.4380364,0.27763766,1.7778138,0.8045963,0.091625467,0.58671081,0
-1.5614897,2.607218,0.1357135,-0.5132966,0.8570509,0.044612065,0
2.8767426,-0.28608367,-0.22743931,0.99202615,-0.098654114,-0.07843098,0
-1.0415611,-1.5326037,2.4171464,-0.341977,-0.5032016,0.79362452,0
-0.72120857,-2.45278,1.5774167,-0.24007612,-0.81648213,0.52509093,0
2.231997,-0.5716064,1.9315692,0.74237156,-0.19011867,0.64244801,0
0.56308824,-1.5596569,-2.529145,0.18619019,-0.51571453,-0.83628452,0
0.37884501,-0.95475191,2.7459164,0.12922165,-0.32565987,0.93661481,0
2.2604208,1.9659239,0.26557729,0.75160146,0.65367973,0.088305809,0
-0.56014633,-0.5145216,2.9655921,-0.18296026,-0.16805789,0.96864957,0
2.3517172,-0.36716953,-2.0186124,0.75353175,-0.1176476,-0.64679903,0
-2.6964681,1.1394815,0.22956359,-0.91831106,0.38806263,0.078180335,0
0.44868845,-2.8404074,-0.46547973,0.15402661,-0.97506034,-0.15979075,0
-0.16222316,3.0349591,0.20127337,-0.053258665,0.99639201,0.066079043,0
-0.7245366,2.8591509,-0.035744283,-0.24562716,0.96928865,-0.012117769,0
-2.3373353,1.5208005,1.1100897,-0.77875406,0.50670075,0.36985999,0
2.1006558,-1.6669835,1.284786,0.70643657,-0.56059545,0.43206498,0
0.78589946,-1.7153518,-2.4319997,0.25531977,-0.55727643,-0.79009801,0
1.8834778,0.70449853,2.3131833,0.61449844,0.22984782,0.75469303,0
1.3753697,2.4775076,0.76159441,0.46873257,0.84434646,0.25955501,0
-2.9545977,-0.13532788,0.15696664,-0.99754888,-0.045690205,0.052996013,0
0.035169221,2.5688162,1.697355,0.011421789,0.83426571,0.55124426,0
2.0142481,-1.4875026,-1.6191852,0.67549556,-0.49884689,-0.54300779,0
2.2386909,2.1190903,-0.20351179,0.72466248,0.6859479,-0.065876611,0
-1.8704518,0.29757547,2.3533065,-0.61919224,0.098509043,0.77903593,0
-2.4401057,-0.94762146,1.4628977,-0.81372255,-0.31601131,0.48784479,0
2.7328746,0.23325825,1.2049369,0.91223186,0.077861458,0.40220717,0
-1.2513168,0.72402912,2.5764167,-0.42355669,0.24507572,0.87208813,0
-0.81673521,-2.4406772,-1.4797719,-0.27510753,-0.82211304,-0.49844354,0
-0.81426066,-1.8253912,-2.1815319,-0.27520502,-0.61694837,-0.73731732,0
0.26453087,-2.9849238,-0.15520371,0.088158175,-0.99476266,-0.051723551,0
0.27082425,-2.6174901,1.4084636,0.090737842,-0.87697238,0.47189623,0
-2.3514702,1.2129754,1.2925357,-0.79853803,0.41191548,0.43893343,0
2.4682889,0.61246192,-1.5813953,0.82421255,0.20451365,-0.5280605,0
0.65208155,2.3750591,1.639688,0.22038472,0.80270129,0.55416715,0
2.4955883,0.95885301,-1.335011,0.83513486,0.32087487,-0.44675407,0
-2.3252852,1.9309121,0.37608802,-0.76344329,0.6339618,0.12347814,0
-0.37242165,2.4148314,-1.740054,-0.12415507,0.80503792,-0.58008581,0
-1.9915584,0.95054579,1.9411827,-0.6776191,0.32341906,0.66047895,0
1.1010766,2.4682777,0.9738273,0.38327357,0.85918236,0.33897939,0
-0.69579244,2.8581302,0.78989077,-0.22844245,0.93838078,0.2593368,0
-1.9194241,1.6027086,-1.5747615,-0.64952481,0.54234964,-0.53289247,0
-1.4960681,1.6284887,2.2083502,-0.47870794,0.52107954,0.70662206,0
0.62302923,-2.4609215,-1.4473495,0.2132072,-0.84215337,-0.49529833,0
1.0889413,2.7819142,0.4981676,0.35954109,0.91851819,0.16448243,0
-1.6858742,-2.1247427,-1.238418,-0.56541193,-0.71260053,-0.41534314,0
2.4596806,-1.3835273,-1.1765907,0.80446428,-0.45249709,-0.38481632,0
1.7621791,-2.5313885,-0.34832528,0.56772065,-0.81553662,-0.11221984,0
2.5246627,-1.4291563,-0.70825648,0.84541261,-0.47856957,-0.23716789,0
2.3518727,-1.3761785,1.4579653,0.76101488,-0.44530144,0.47176588,0
2.7390542,-1.0000465,0.12914371,0.93842912,-0.34262657,0.04424601,0
-0.40981117,-0.9246875,2.8233166,-0.13664846,-0.30833009,0.9414137,0
-2.3469255,1.2654555,-1.5310789,-0.76330793,0.41157344,-0.49796411,0
2.9373906,0.64758021,0.58296293,0.95871043,0.21135831,0.19026841,0
1.4395407,2.6472845,0.74931061,0.46360016,0.85255075,0.24131344,0
-1.6110337,-0.5589847,2.4899371,-0.53382725,-0.18522348,0.82505804,0
0.27366558,-3.0555029,0.12269486,0.089136474,-0.99521738,0.039963327,0
2.689805,-0.0015812695,-1.532088,0.8689301,-0.0005108224,-0.49493453,0
0.31496906,0.56362945,-2.9982488,0.10269673,0.18377329,-0.97758925,0
-2.2098527,-0.34567007,-1.9962164,-0.73711669,-0.11530143,-0.6658563,0
1.4610868,-0.79917616,-2.4598699,0.49185035,-0.26902926,-0.82807392,0
2.9205134,0.25057587,-0.46335703,0.98411983,0.084436074,-0.15613654,0
-0.15099946,0.62438047,2.9531736,-0.049962893,0.20659581,0.97714984,0
1.3408147,0.89762473,-2.490906,0.45177999,0.30244961,-0.83929682,0
-1.2082322,-1.920101,-1.9772977,-0.40148982,-0.63804048,-0.65704668,0
1.4175941,-2.6397023,0.19352275,0.47213671,-0.87916589,0.064453706,0
-2.8576694,0.4426471,-0.66667187,-0.96295571,0.14915986,-0.22465003,0
1.7296524,-1.5680588,1.8190355,0.58441556,-0.52981627,0.61461633,0
2.184196,1.8313966,0.72857386,0.74241096,0.62249398,0.24764317,0
1.5960355,2.4678099,-0.81396419,0.52336198,0.80922878,-0.26691005,0
2.5520761,1.6309021,0.10796504,0.84210014,0.53814334,0.035624865,0
0.66269779,-2.9231608,-0.57918042,0.21707985,-0.9575395,-0.18972208,0
2.2579646,0.75758886,-1.9378964,0.73538071,0.24673381,-0.63113993,0
-0.49940768,1.9634229,-2.2960911,-0.16309306,0.6412009,-0.74984133,0
-1.8080978,2.3088355,-0.41363752,-0.61051524,0.77959234,-0.13966723,0
-0.53778881,-0.20756848,2.8918869,-0.18237662,-0.070391275,0.98070574,0
-2.7371659,0.00619312,-1.0772744,-0.93052256,0.0021054032,-0.36622849,0
1.4937881,2.342813,-1.0063161,0.50548828,0.7927928,-0.34053084,0
-2.5135136,1.5825815,0.42375857,-0.83775008,0.5274719,0.14123806,0
1.3063729,2.4459913,-1.1632297,0.43443102,0.81340826,-0.38682911,0
2.9512637,0.28814527,-0.017813772,0.99524957,0.097170733,-0.0060073077,0
1.004645,-2.8301516,-0.61276847,0.32777402,-0.92336118,-0.19992095,0
-1.0418057,-2.3516448,1.7252917,-0.33637762,-0.75929767,0.5570612,0
-0.182265,-0.60008031,-2.9901259,-0.059657551,-0.19641358,-0.97870457,0
1.1884073,-1.4318815,-2.2665315,0.40524915,-0.48827434,-0.77289152,0
-0.76613551,-2.2465,-1.6760374,-0.26367056,-0.7731477,-0.57681924,0
2.8701353,-0.085099101,0.82629997,0.96057838,-0.028481012,0.27654651,0
-2.3423979,1.9413245,-0.39416108,-0.76356208,0.63282233,-0.12848647,0
-2.6075418,-0.027698541,1.3464408,-0.88849598,-0.0094380239,0.45878735,0
0.042755902,-2.0122426,-2.3360517,0.013865946,-0.65258002,-0.75759292,0
1.1848726,2.5680509,0.984752,0.39564955,0.85751677,0.3288258,0
-2.6102228,-0.37167716,1.2995527,-0.88800329,-0.12644535,0.44211054,0
-2.8748336,0.035011377,0.78495508,-0.96461976,0.011747694,0.2633833,0
1.6357815,2.1990111,-1.2419661,0.54363471,0.73081815,-0.41275433,0
-1.9229165,1.7431619,-1.3798013,-0.65418673,0.59303319,-0.46941593,0
2.3732786,-1.0216284,1.6099042,0.77957243,-0.33558357,0.52881986,0
2.9348133,-0.82883322,-0.22691783,0.95970523,-0.27103448,-0.074203782,0
-0.88686562,2.5758119,-1.0615551,-0.30333292,0.88099992,-0.36308163,0
2.3236668,0.80834359,-1.529213,0.8021549,0.27904895,-0.52790082,0
2.1415777,1.1396484,1.7051814,0.72222137,0.38433275,0.5750519,0
1.9919859,-1.0299091,2.0850945,0.65053344,-0.3363429,0.68094039,0
-0.27140275,3.0086405,-0.56388879,-0.088317469,0.97904509,-0.18349569,0
-0.15562275,-1.422655,-2.6384428,-0.051846761,-0.47396705,-0.87901491,0
-2.6432369,0.98198658,-1.0388346,-0.87960559,0.32678148,-0.34569913,0
-0.50843382,1.975085,2.1449661,-0.17178048,0.66730624,0.7247026,0
2.3564055,-0.38377735,-1.7476805,0.79641396,-0.12970842,-0.5906781,0
1.8045999,0.81977916,2.2752454,0.59804291,0.27167413,0.75401449,0
-2.3645484,-1.7167706,-0.80517507,-0.78013277,-0.56641215,-0.26565048,0
0.0024654141,2.2209125,-2.0291293,0.00081953936,0.73826349,-0.67451197,0
-1.8799081,-2.2829804,0.13181621,-0.63503778,-0.77119666,0.044527855,0
-2.1081014,1.9551131,0.72324169,-0.71105963,0.65945691,0.2439484,0
-1.5209938,-2.4746137,-0.8779406,-0.50124127,-0.81550527,-0.28932402,0
0.90284199,-1.9850965,-1.9223634,0.31056482,-0.68284494,-0.66126567,0
1.008389,2.69733,-0.56062657,0.34372312,0.91942167,-0.1910972,0
1.094208,-1.9585052,1.8662217,0.37496153,-0.67113757,0.63951397,0
2.3361962,1.3910515,-1.0158662,0.80487597,0.47925082,-0.3499904,0
0.74801993,-2.8748069,0.48847124,0.24847661,-0.95495087,0.16225995,0
1.5987613,-1.5949335,1.9073173,0.54085994,-0.53956503,0.64524424,0
0.81515926,-2.4150455,1.6225098,0.26978621,-0.79928672,0.53698808,0
-2.6871367,-1.4267936,-0.012424076,-0.88321018,-0.46895963,-0.0040835552,0
-2.7195895,0.69506764,1.0472718,-0.90773767,0.23199791,0.34955573,0
0.30509329,2.3846197,1.6235551,0.10517067,0.82201767,0.55966616,0
-0.89905208,2.4881127,-1.3748183,-0.30154726,0.83452731,-0.46112198,0
2.2028103,-1.6508979,-1.0728431,0.7455883,-0.55878174,-0.36312672,0
1.760831,-1.5406399,1.7749653,0.59958154,-0.52460414,0.60439438,0
0.017746985,-1.7582356,2.4786327,0.0058398065,-0.57856333,0.81561655,0
2.7443836,0.6219334,1.0292968,0.91592008,0.20756622,0.34352106,0
-2.422313,0.81091791,-1.4226069,-0.82846212,0.27734432,-0.48654982,0
2.1516502,0.68143708,1.9970558,0.71396422,0.22611561,0.66266644,0
1.1182395,2.0981579,-1.8247979,0.37310708,0.70006251,-0.60885435,0
-0.71208888,-1.7629592,2.2973382,-0.23878855,-0.59118247,0.77037865,0
1.8074667,1.0462788,2.1459379,0.60360712,0.3494069,0.71664023,0
-2.8128028,-0.13236749,1.0643086,-0.93438113,-0.043970976,0.35355124,0
1.0765557,2.4248803,1.3677499,0.36066467,0.81237656,0.45821974,0
-1.3049929,-2.6505044,-0.37517622,-0.4382,-0.89000559,-0.12597939,0
-1.9923074,1.3776963,1.8623915,-0.65204817,0.45089644,0.6095289,0
-1.9659054,1.7161831,1.5773798,-0.64470834,0.56281322,0.51729339,0
-2.7370932,-0.98080999,-0.58013481,-0.9231869,-0.33081478,-0.19567212,0
0.0074703768,-1.5886127,-2.5930281,0.0024565712,-0.52240205,-0.8526957,0
-1.8627056,1.7919804,1.6050583,-0.61221963,0.58897424,0.52753812,0
-1.6471133,-2.3214953,-0.90887398,-0.55123562,-0.7769295,-0.30417076,0
0.36449376,-2.9221945,-0.63121223,0.12102479,-0.97027171,-0.20958474,0
2.8054752,-0.088661268,-1.0658648,0.93439978,-0.02952978,-0.35500005,0
0.25480217,2.9477177,-0.76283789,0.083392188,0.96473521,-0.24966319,0
2.9375839,0.43905255,-0.64830905,0.96626496,0.14441837,-0.2132495,0
-1.7258958,0.47709477,-2.464231,-0.56659061,0.15662441,-0.80897707,0
2.9879193,0.030806733,-0.26596612,0.99600911,0.010269282,-0.088658579,0
1.2588273,-2.0961695,-1.6278863,0.42854488,-0.71360284,-0.55418432,0
2.2223787,-1.5261302,1.2402004,0.74890256,-0.51427907,0.41792575,0
-2.091759,-0.74392653,-1.9734423,-0.70419788,-0.25044543,-0.66436613,0
-2.692625,-0.8467887,-0.88992423,-0.90979284,-0.28611571,-0.30069047,0
-2.2694633,0.4465788,1.9440631,-0.75111246,0.14780186,0.64341646,0
-2.7421491,1.0808895,-0.11678246,-0.92960387,0.36642757,-0.039589908,0
2.9348707,-0.018135855,-0.25993899,0.99608177,-0.0061552268,-0.088222109,0
-0.63063896,-2.6987314,-1.2112681,-0.20850529,-0.89226931,-0.40047607,0
1.3387201,2.6708825,0.43634617,0.44338733,0.88460273,0.14451891,0
0.052276697,-3.0257883,0.55545944,0.016990639,-0.9834224,0.18053189,0
-2.605593,-0.85379899,-1.529331,-0.82991862,-0.27194718,-0.48711377,0
2.8247137,1.0026519,0.40668181,0.93383646,0.3314718,0.13444701,0
2.3261387,0.1824449,-1.9016567,0.77278626,0.060611565,-0.63176548,0
-1.0164645,2.3209045,1.4597946,-0.34760728,0.79369557,0.49921593,0
2.8750794,-0.049485203,-1.039385,0.94030929,-0.016184386,-0.33993611,0
-1.0704002,1.6598821,2.327878,-0.35062161,0.54371303,0.76252258,0
0.94744217,-2.0645552,-2.0104237,0.31233123,-0.6805957,-0.66275084,0
-0.36937004,-2.9572265,0.47063583,-0.12242399,-0.98014301,0.15598752,0
-1.4127656,-2.3397868,1.4214369,-0.45857918,-0.75948727,0.46139386,0
1.8630415,0.76722544,-2.35307,0.60140383,0.24766615,-0.75958872,0
-2.428335,-1.390789,-1.2008584,-0.79743373,-0.45671707,-0.39434633,0
-2.7635603,0.21623032,1.0014628,-0.93763822,0.07336399,0.33978263,0
-2.5677836,0.74936002,1.2252814,-0.87275141,0.25469631,0.41645488,0
-0.81630844,-2.2179363,-2.0580924,-0.26047665,-0.70772344,-0.65671867,0
2.8482645,-1.0956274,-0.49990675,0.92105407,-0.35429719,-0.16165674,0
-2.7878394,0.86690378,-0.92195475,-0.91057396,0.28315118,-0.30113211,0
-0.99568516,1.8506361,2.0582578,-0.3384909,0.62913811,0.69972074,0
2.429971,-1.6176159,0.4327642,0.82342458,-0.54814839,0.14664729,0
-1.1411275,0.88970047,2.5738173,-0.38647279,0.30132043,0.87169081,0
2.8594654,-0.71631819,-0.41989109,0.96033311,-0.24057087,-0.14101774,0
2.5869505,0.34833336,-1.2449732,0.89452261,0.12044763,-0.43049011,0
-0.3759883,2.8819113,0.58836287,-0.12679642,0.97188145,0.19841658,0
