1.607643,0.2862899,-2.6217401,0.52049369,0.092689782,-0.84881973,0
0.92597842,-0.91602314,2.8306849,0.29717115,-0.29397625,0.9084422,0
-2.0349886,-1.7774215,-1.2852755,-0.68013281,-0.59404886,-0.42956409,0
1.6199882,2.4877169,-0.59364128,0.53509831,0.8217178,-0.19608566,0
2.0917158,-2.1137383,-0.4669809,0.69487864,-0.70219463,-0.15513344,0
-3.0268564,-0.39994678,-0.53236413,-0.97664779,-0.12904713,-0.17177302,0
2.9149301,-0.37300652,-0.87549007,0.95062226,-0.12164556,-0.28551641,0
-2.6347015,1.1483268,-1.0728419,-0.85882896,0.37431803,-0.34971237,0
1.7061219,1.6623566,1.7940241,0.57212472,0.55744863,0.60160148,0
-2.7527308,1.4962518,-0.13597356,-0.87777114,0.47711408,-0.043358278,0
0.27366063,2.9698906,-0.82208043,0.088457495,0.95998126,-0.26572758,0
-2.526089,0.51338273,-1.5484024,-0.84006077,0.17072743,-0.51492727,0
0.39544234,2.2549098,2.1348445,0.12632874,0.72035766,0.68200135,0
-0.31053212,-0.62768704,-2.9306867,-0.10305741,-0.20831276,-0.97261757,0
-0.75448281,0.74633485,2.7598598,-0.25516257,0.25240695,0.93337172,0
-0.76049227,0.29665816,2.9351339,-0.24962546,0.097375646,0.96343404,0
-1.0686961,-0.77277756,-2.729948,-0.35249364,-0.25488928,-0.90043306,0
2.2707756,-1.057246,1.7467904,0.74359918,-0.3462109,0.57201242,0
-1.0073525,1.2471238,-2.5109851,-0.33813822,0.41862231,-0.8428629,0
0.43626735,1.8661652,2.2875409,0.14618997,0.62533814,0.76653808,0
-1.3984833,2.4052179,1.3611647,-0.45150909,0.77653968,0.43946058,0
1.0028696,0.64141333,2.866451,0.32310814,0.20665285,0.92352349,0
-2.7215557,-0.92207193,0.75147259,-0.91630232,-0.3104462,0.25300825,0
-1.5767342,0.46458039,2.4385743,-0.53614998,0.15797512,0.82920867,0
0.72354168,0.61674529,2.8533387,0.24057415,0.20506486,0.94872153,0
-2.8680413,0.29045501,1.0178233,-0.93815106,0.095009327,0.33293524,0
-1.3966143,-2.598896,0.60232222,-0.46379995,-0.86306423,0.20002446,0
-2.2642558,-1.5131388,-1.3178198,-0.74841338,-0.50014377,-0.43558419,0
2.7331161,1.4944543,-0.56004274,0.86355501,0.47218758,-0.17695102,0
-1.4082112,0.90979618,2.4961264,-0.46832693,0.30256969,0.83013338,0
0.50490457,-0.85122353,2.8447735,0.16763005,-0.28260913,0.94447458,0
-0.64054579,1.3194532,2.6682453,-0.21037389,0.43334687,0.87632948,0
0.5979237,-0.91506082,2.8201525,0.19768791,-0.30254105,0.93241006,0
-1.2033052,1.3279855,-2.4957676,-0.39163533,0.43221456,-0.81228828,0
-2.8029411,1.4055716,-0.19190258,-0.89223403,0.44742247,-0.061086554,0
2.8544178,-1.0393057,0.14347801,0.93860579,-0.34175035,0.047179248,0
2.140667,-2.1406174,-0.85651857,0.68040627,-0.68039054,-0.27224255,0
1.0867534,1.4953021,-2.45946,0.35322377,0.48601297,-0.79938996,0
-0.73534828,-2.9119592,0.67593521,-0.23886617,-0.94590348,0.21956676,0
-1.4557678,-1.4509826,2.1465054,-0.48984671,-0.48823658,0.72227085,0
-0.31873989,-0.12241384,-2.9643455,-0.1068183,-0.041024171,-0.99343187,0
-1.7321826,2.31302,0.99759072,-0.56661445,0.75661224,0.32632202,0
-2.9721189,-0.88431573,0.093491718,-0.95803821,-0.28505194,0.030136291,0
0.25239626,1.7923117,2.5508304,0.080695786,0.57303542,0.815548,0
1.2012061,1.4849317,-2.2994766,0.40184432,0.49676019,-0.76925319,0
-0.53447133,2.2286673,1.9619309,-0.1771581,0.7387234,0.6503098,0
0.21385482,-2.715462,1.2330834,0.071523905,-0.90818828,0.41240564,0
-1.8753251,-2.2303901,0.9313184,-0.61300725,-0.72907108,0.30442986,0
-0.0062779309,-1.1993541,-2.7637727,-0.002083757,-0.39808694,-0.91734535,0
-0.39110029,-1.9299242,2.474973,-0.12365786,-0.61020231,0.78253549,0
-0.023079919,-1.3898467,2.6106553,-0.0078034503,-0.46991497,0.88267726,0
2.7863376,-0.1896258,-1.1922371,0.91757846,-0.062446326,-0.39261973,0
-1.7616259,0.55154717,2.4646854,-0.572083,0.17911337,0.8003996,0
2.9447231,0.025584877,0.77405906,0.96711051,0.0084026242,0.25421765,0
-0.56317472,1.0665576,-2.8393199,-0.18256003,0.34573781,-0.92040056,0
-0.57937229,2.3002427,1.9071895,-0.19035079,0.75573689,0.62660062,0
2.402926,1.6576308,0.7808879,0.79518366,0.54854828,0.25841382,0
-1.9077668,-1.248647,1.8320017,-0.6522547,-0.42690536,0.62635106,0
2.6052959,-1.3095294,-1.0632952,0.83941281,-0.42192358,-0.34258822,0
1.7513202,1.5790427,1.9245914,0.57537818,0.51877815,0.63230461,0
0.83836144,2.4765728,1.7129372,0.26820987,0.79230893,0.54800552,0
-0.7922743,1.7003162,-2.3546498,-0.26316977,0.56479406,-0.78214407,0
-1.5641866,1.4673399,-2.1143272,-0.51937544,0.48721829,-0.7020452,0
-2.7695034,-1.3941116,0.22779596,-0.8908155,-0.44841841,0.073270962,0
-2.0552359,-2.3347135,0.24047206,-0.65878671,-0.74837065,0.077081077,0
-2.9519746,-0.19188333,-0.50896949,-0.98344404,-0.06392552,-0.1695621,0
-0.79011649,2.8801875,0.46398789,-0.2614181,0.95293945,0.15351513,0
1.7433796,-2.2801821,1.0292664,0.57173842,-0.74778193,0.33754617,0
-2.6379135,0.97983426,1.3724886,-0.84254789,0.31295845,0.43837202,0
-1.4548315,2.4051502,-1.1761321,-0.4774543,0.78933495,-0.38598928,0
-0.33114129,-2.8293757,-0.87969434,-0.1110682,-0.94900173,-0.29505855,0
-2.9434843,0.46251458,-0.026780015,-0.98783892,0.15522078,-0.008987424,0
-1.8916728,1.1688762,2.1476588,-0.61190236,0.37809819,0.69470656,0
-1.6250334,-2.5433369,0.12390558,-0.53796524,-0.84196842,0.041018788,0
0.60721338,0.46705163,-2.9263647,0.20073356,0.15439866,-0.96740222,0
-2.1070049,1.4217815,1.5746466,-0.70467037,0.47550309,0.52662754,0
0.14700679,-2.5005171,-1.6915532,0.048637368,-0.827299,-0.55965233,0
1.2628263,-2.1862247,-1.9145231,0.39855024,-0.68997645,-0.60422695,0
-0.43527013,2.405791,-1.8931693,-0.14076625,0.77803224,-0.61225051,0
0.8795687,2.8862369,0.060201865,0.29145205,0.95637745,0.019948365,0
-1.5171977,-2.4414618,-0.93493336,-0.50193435,-0.80770856,-0.30930391,0
1.7068514,-0.18442965,2.4770665,0.5663383,-0.061194297,0.82189792,0
0.72758716,2.9250391,0.8891449,0.23152535,0.930776,0.28293461,0
2.1877635,-1.429297,-1.6931866,0.70259047,-0.45901236,-0.54375935,0
2.46683,1.1176015,1.4990919,0.79693174,0.36105129,0.48429519,0
0.60916966,2.8912733,-0.075780526,0.20609844,0.97819531,-0.025638584,0
-0.59585333,1.9590771,-2.2375925,-0.1964487,0.64589405,-0.73771864,0
-1.9885352,-1.5747056,1.8193247,-0.63703984,-0.50446689,0.58283222,0
-2.7598164,-1.0911727,-0.57272828,-0.91310287,-0.36102143,-0.1894908,0
-0.35292822,-2.3366616,1.8670282,-0.11718569,-0.77586114,0.6199249,0
-0.021830713,1.0581143,-2.800992,-0.0072908355,0.35337999,-0.93545145,0
-1.3093067,-2.2019691,1.6340692,-0.43089041,-0.72466391,0.53776914,0
-1.0606604,-2.1220679,-1.9737533,-0.34369203,-0.68762624,-0.63956696,0
1.1834913,2.7913749,0.0068351822,0.39034528,0.9206658,0.0022544153,0
-0.76106507,1.4510534,-2.6238754,-0.24602385,0.46907124,-0.84820068,0
-1.0976894,2.2089186,-1.8717841,-0.35450271,0.71337813,-0.60449934,0
-3.102288,-0.38387534,0.10816695,-0.9918375,-0.12272941,0.034582231,0
0.40862501,1.2189149,2.7193127,0.13585114,0.40523946,0.90406054,0
0.55641896,0.53309166,2.9588249,0.18198369,0.17435423,0.96772027,0
-0.02593834,2.5077584,1.820027,-0.0083706807,0.80929029,0.5873493,0
0.13456622,1.8396933,-2.3235371,0.045358643,0.62011099,-0.78320169,0
-0.96755707,-2.0931094,-1.8779634,-0.32535067,-0.70382881,-0.63148385,0
-1.3948669,0.16178566,-2.7254171,-0.45496204,0.05276943,-0.88894594,0
0.45171255,2.4614811,1.8013226,0.14649557,0.79828662,0.58418959,0
-1.1603904,2.7510014,0.68461484,-0.37881604,0.89808005,0.22349641,0
0.09714514,-3.023674,-0.77367932,0.031110354,-0.96831983,-0.24776779,0
-2.3439765,0.85219377,-1.6451206,-0.78451878,0.28522557,-0.55061471,0
-0.82202274,0.2877394,2.9740126,-0.26526159,0.092851698,0.95969522,0
0.18449983,-3.0955622,0.36255071,0.05909333,-0.99147558,0.11612113,0
-2.6981342,-0.70252478,-1.3644809,-0.86922348,-0.22632344,-0.4395774,0
2.1277769,-1.0753523,-1.9207044,0.69500601,-0.35124752,-0.62736893,0
-2.4165781,-1.7712326,0.87474179,-0.77423066,-0.56747293,0.28025246,0
-2.021874,1.8177745,-1.3356097,-0.66745853,0.60008144,-0.4409098,0
-2.4520645,1.3052074,1.1835489,-0.81209439,0.43226907,0.39197725,0
2.4344771,1.5906768,0.72637904,0.8121894,0.53068101,0.24233432,0
2.7747407,-0.49819258,-1.156827,0.91057706,-0.16349013,-0.37963191,0
1.14933,2.6219788,-1.0167091,0.37831825,0.86306149,-0.3346642,0
3.1028345,0.093205325,-0.55905461,0.9837234,0.029549841,-0.17724282,0
1.0787555,1.0194516,-2.6356101,0.35663655,0.33703071,-0.87133271,0
0.41571528,2.9237883,0.27398887,0.14016606,0.98580903,0.09238039,0
-0.40292382,0.11408985,3.0761831,-0.12978469,0.036749173,0.99086094,0
-2.6816423,-0.83664417,1.0217675,-0.89711684,-0.27989101,0.34182218,0
-0.84258747,-0.51655805,-2.8594296,-0.2785033,-0.17073968,-0.9451369,0
-2.3070257,-2.1304407,0.070075549,-0.73448116,-0.67826229,0.022309752,0
1.7319258,2.3140447,-1.3285497,0.544442,0.72743475,-0.41763812,0
-1.8126922,0.76446134,-2.4594631,-0.57555318,0.24272634,-0.78091133,0
1.1339633,2.7292976,-0.36550093,0.38077921,0.91648448,-0.12273338,0
-0.98705232,0.53401381,-2.8699875,-0.32030493,0.17329097,-0.93132967,0
-1.183646,-2.6523352,1.0520228,-0.38316628,-0.85860592,0.34055763,0
1.4114742,-1.5093502,2.2459464,0.46247596,-0.49454546,0.73589456,0
1.7859995,1.6264461,-1.9552057,0.5746969,0.52335596,-0.62914383,0
0.7574535,1.6348243,2.4435976,0.2494871,0.53847212,0.80486274,0
-1.8037196,-1.6483819,1.6304246,-0.61403418,-0.56115305,0.55503994,0
0.78186339,0.11913628,-3.0397615,0.24892467,0.037929848,-0.96777987,0
0.59422123,0.26900464,2.9067032,0.19947065,0.090300597,0.97573423,0
0.49690068,-2.8937073,0.74794316,0.16400281,-0.9550724,0.24685976,0
0.24743433,-2.8969538,-1.0885603,0.079699315,-0.93311721,-0.35062844,0
1.9458233,-2.2480259,-0.74653256,0.63475347,-0.73333597,-0.24352886,0
1.8859739,-2.4092641,-0.62916809,0.60376894,-0.77129322,-0.20141964,0
-2.5244603,1.2808989,-1.0138566,-0.83955306,0.42598516,-0.33717561,0
-2.4501617,1.5846559,0.029762024,-0.83964258,0.54304355,0.010199107,0
1.4816149,-2.1765311,-1.5797256,0.48253131,-0.7088511,-0.51448393,0
3.0895057,0.44116274,0.36310375,0.98332512,0.14041288,0.11556833,0
2.9378638,-0.78680199,-0.62821746,0.94598877,-0.25334933,-0.2022853,0
-2.4354649,-1.85463,-0.3069838,-0.79161286,-0.60282081,-0.099780671,0
-1.6137183,2.5942533,0.087764703,-0.5279699,0.84877747,0.028714506,0
1.4612374,-2.1285398,-1.7274269,0.47039139,-0.68520474,-0.55608124,0
-0.67461795,2.7886434,-0.76706809,-0.22715522,0.9389832,-0.25828475,0
1.8985404,2.1892309,-1.3222327,0.59605098,0.68731391,-0.41511789,0
-2.0461094,-2.2252672,0.53787142,-0.66638672,-0.72473568,0.17517655,0
1.2504417,-2.787256,0.15596573,0.40879115,-0.91120255,0.050987914,0
1.5400532,-0.071545132,-2.6898909,0.49672946,-0.023076199,-0.86759859,0
-0.015845997,-2.8748758,1.0690469,-0.0051661902,-0.93728119,0.34853593,0
1.3895674,-0.27490804,-2.7464175,0.44967037,-0.088961497,-0.88875329,0
-2.5729916,0.046870567,1.4743494,-0.86754316,0.015803488,0.49711072,0
0.046278059,2.0738492,2.1159885,0.015617734,0.69987428,0.71409529,0
-1.6211988,-0.041997779,-2.6128111,-0.5271855,-0.013656944,-0.84964049,0
2.0475981,-2.2255595,0.25871038,0.67460746,-0.73323911,0.085235454,0
-2.8300314,0.58405977,1.2636136,-0.89731908,0.18518804,0.40065441,0
-2.6221411,0.2573736,-1.5687412,-0.85512018,0.08393345,-0.51159042,0
-1.2693833,2.3873394,-1.4360591,-0.41462335,0.77978545,-0.46906528,0
-2.568552,-1.4262927,-0.75124466,-0.84700429,-0.47033346,-0.24773002,0
2.7255034,-0.38227105,-1.3084632,0.89437354,-0.12544219,-0.42937201,0
0.19562723,-2.9035382,-0.96276915,0.063821062,-0.94724494,-0.31409204,0
-1.359192,-2.1945555,-1.7290072,-0.43747267,-0.70634472,-0.55650228,0
1.3501954,1.6176202,-2.2635014,0.43661222,0.52308929,-0.73194766,0
0.19332552,-0.87063551,2.8380973,0.064985007,-0.292658,0.95400643,0
1.4383957,2.2424548,-1.4143238,0.47687864,0.74345243,-0.46889797,0
1.3536345,0.37792832,2.7126045,0.4430798,0.12370577,0.88790607,0
2.4947178,1.2407011,1.1159658,0.83118778,0.41337562,0.37181646,0
1.4120954,2.0013967,-1.8811388,0.45722389,0.64803433,-0.60909593,0
1.4653541,0.33426073,-2.5819523,0.49048644,0.11188447,-0.86423659,0
2.1373887,-2.0085242,-0.35256898,0.72352475,-0.67990297,-0.11934768,0
1.8080482,0.41164872,2.5259993,0.57699591,0.13136797,0.80611306,0
1.0274831,2.8607616,-0.75360119,0.32809037,0.91348296,-0.24063587,0
0.19103706,1.1162138,2.9206088,0.060986027,0.35633636,0.9323653,0
2.571924,-1.5951484,-0.52853471,0.83715022,-0.51921397,-0.17203578,0
-1.8765174,-0.59056139,-2.3212426,-0.61672026,-0.19408889,-0.76287985,0
1.472567,2.645164,0.81613672,0.46964186,0.84361511,0.2602883,0
-0.55396205,-2.1093559,2.175806,-0.17982,-0.68471187,0.70628208,0
1.107697,0.35659608,-2.819072,0.36320239,0.11692416,-0.92434454,0
-0.06450095,-2.1115236,2.1058939,-0.021623828,-0.70788449,0.70599711,0
-0.36146149,-0.67429423,2.9101727,-0.12012445,-0.22408812,0.96713728,0
2.141417,2.1124148,0.28236514,0.70879513,0.69919556,0.093461029,0
-1.5267134,2.4680076,0.93645746,-0.50065953,0.80934083,0.3070952,0
2.8543608,-0.82783997,-0.35049826,0.95381224,-0.27663073,-0.11712238,0
1.9438057,-1.2271034,-2.0082965,0.63680291,-0.40200675,-0.65793049,0
-1.4823704,-1.817927,1.9326726,-0.48772994,-0.59813488,0.63588852,0
0.26501268,-2.7292686,1.5971619,0.083512314,-0.86006278,0.50330681,0
2.5781612,-0.54557425,-1.5562626,0.84240502,-0.17826445,-0.50850326,0
-1.4461453,-2.6058609,-0.15901427,-0.48455486,-0.87313676,-0.053280357,0
-0.30211401,2.1107569,2.0949841,-0.10106733,0.70611942,0.70084292,0
-1.6645603,-1.8209373,-1.7792903,-0.54723167,-0.59864128,-0.58494967,0
1.2558641,-0.20425363,-2.7746165,0.41142911,-0.066914797,-0.9089821,0
1.8646467,0.49459022,2.3129508,0.61910248,0.16421451,0.76794904,0
-3.0340185,-0.33667576,0.50063282,-0.98079723,-0.10883607,0.16183794,0
-0.060868639,-0.059387021,3.017349,-0.020164881,-0.019674042,0.99960309,0
1.2412173,0.67942607,-2.7229714,0.40447885,0.22140643,-0.88734215,0
-3.0830431,0.094881393,0.17391713,-0.99794173,0.030711897,0.056294758,0
-2.1198361,-2.1046615,0.70828313,-0.69049782,-0.68555492,0.23071027,0
-0.56985772,-0.53735548,2.8733637,-0.19134265,-0.18042928,0.96479702,0
1.7684318,1.5479902,1.9333099,0.5811016,0.50866514,0.63528007,0
-2.5166359,-0.72739142,1.5433756,-0.82770807,-0.23923515,0.507608,0
2.2191911,2.1844354,-0.3769362,0.70750087,0.69642037,-0.12017112,0
0.92780757,-0.26894772,-2.9559221,0.29835299,-0.086484917,-0.95052922,0
-1.9092144,1.8761599,1.4479306,-0.62735331,0.61649185,0.47577897,0
0.7665562,0.57587928,2.8915901,0.25162709,0.18903615,0.9491834,0
2.9197698,-0.18121965,-1.050696,0.93933022,-0.05830086,-0.33802339,0
-1.7555504,2.0567396,-1.4423651,-0.57282436,0.67110038,-0.4706341,0
-2.6729698,-1.4203982,-0.22210334,-0.88069558,-0.46799573,-0.073179066,0
-1.788015,-2.3730454,-0.5842725,-0.5904637,-0.78366077,-0.19294676,0
-1.4608927,-2.6613336,-0.87613612,-0.46233284,-0.8422398,-0.27727327,0
2.486726,0.036259666,1.736228,0.81986678,0.011954713,0.5724296,0
-2.2773104,-0.95847851,1.7024477,-0.75897056,-0.31943691,0.56738323,0
1.1460336,-2.5962183,1.0641714,0.37811974,-0.85659039,0.35111031,0
-1.5254554,-2.6884592,-0.16189019,-0.49282563,-0.86855477,-0.052301522,0
-2.960006,-0.79237652,0.026969941,-0.96595001,-0.25857922,0.0088012032,0
0.96227551,-2.9222231,0.31692532,0.31112772,-0.94482774,0.10246988,0
2.3451526,1.5104269,1.2227372,0.76999104,0.49592301,0.401465,0
0.82886147,-0.13960248,2.8747549,0.27673775,-0.046610054,0.95981443,0
-1.4619166,-1.0936662,-2.4949462,-0.47286552,-0.35375276,-0.80700505,0
0.74119842,2.8335695,0.9132508,0.24159147,0.9235937,0.29767144,0
0.39567399,-1.6893114,-2.6137199,0.12612432,-0.53848183,-0.83314461,0
-2.4147089,0.031721435,-1.8613609,-0.7919637,0.010403832,-0.61047953,0
-0.30284527,3.0729012,0.2636852,-0.097722694,0.9915697,0.08508645,0
0.50937432,-0.78063065,-2.8748519,0.16854489,-0.25829983,-0.95124859,0
2.91869,0.56424427,0.56586105,0.96450335,0.18645883,0.18699309,0
0.84333062,-2.6563523,-1.1008239,0.28143519,-0.88647443,-0.36736551,0
-2.3790314,-1.7207607,-0.82071406,-0.78035098,-0.56443024,-0.26920411,0
-2.819627,-0.58987147,-0.81039751,-0.94223475,-0.19711734,-0.27081054,0
2.4295945,-1.0016291,-1.455909,0.80870378,-0.33339772,-0.48460728,0
-0.37016606,-2.3646324,-1.9258205,-0.12049606,-0.76973259,-0.62689102,0
-2.2834566,0.59657884,-1.9019899,-0.75333935,0.19681841,-0.62748897,0
-2.6215055,0.1142275,1.5939867,-0.85385478,0.037205223,0.51918,0
0.24635662,-0.75737518,2.9719181,0.08006949,-0.24615797,0.96591669,0
-2.3975821,-1.706531,1.1212077,-0.76131922,-0.5418855,0.35602409,0
-2.0860069,1.8512996,-1.4193318,-0.66658044,0.59158009,-0.45354539,0
2.8047812,0.044012368,1.2369289,0.91488069,0.014356223,0.40346906,0
0.36990833,-2.5258956,-1.7744323,0.11898163,-0.81245852,-0.5707491,0
1.8398854,2.3351259,-0.46936548,0.61131853,0.77586663,-0.15595092,0
-0.85416847,-1.4769442,2.4298646,-0.28769159,-0.49744806,0.8184002,0
-1.5797559,0.39934009,-2.6139753,-0.51286536,0.12964515,-0.84862316,0
-0.19967677,0.79434758,2.8869078,-0.066540085,0.2647076,0.96203029,0
1.0884856,1.3982451,2.4370058,0.36124876,0.46405235,0.80879831,0
-2.5703747,-0.67893714,-1.6811829,-0.81715983,-0.21584408,-0.5344727,0
-0.77684069,-0.83951992,-2.7424474,-0.26143816,-0.28253224,-0.92294395,0
0.31454617,-2.2838671,2.1405873,0.099983968,-0.72596687,0.6804229,0
-2.1972413,1.2979848,-1.6085101,-0.72838086,0.43027925,-0.53321773,0
0.40476942,3.0071571,-0.39197958,0.13229963,0.98289484,-0.12811925,0
-2.1956446,-1.0050457,-1.8500242,-0.72178459,-0.33039337,-0.60816717,0
-1.3790485,-0.85397452,2.5811429,-0.45236969,-0.28012952,0.8466931,0
-0.70196223,2.8880582,0.15897544,-0.23584342,0.97032213,0.053412147,0
-1.615582,-2.5494602,-0.66912419,-0.52258271,-0.82465875,-0.21643764,0
-0.50924885,-1.3085855,-2.7464547,-0.16509408,-0.42423213,-0.89037693,0
-2.5550246,0.81544471,-1.2811334,-0.85961992,0.27435058,-0.43102828,0
1.5015228,0.17746711,2.5952318,0.49991658,0.05908585,0.86405575,0
2.2484319,-1.1823596,1.6073203,0.74794561,-0.39331442,0.53467852,0
-0.77500272,2.7309616,-0.85924119,-0.26129678,0.92075998,-0.28969827,0
0.45069632,-3.0301521,-0.42949596,0.14569388,-0.97953898,-0.13884057,0
-2.960099,-0.86705863,0.26198769,-0.9562341,-0.2800957,0.084632829,0
1.4905365,2.6945984,0.29159871,0.48188269,0.87114966,0.094272345,0
1.6232215,2.6565468,-0.17687833,0.52055818,0.85193986,-0.056723904,0
1.970387,1.1903613,2.0599065,0.63784945,0.3853412,0.66682851,0
0.80826128,2.9039247,-0.6363728,0.2623584,0.94260246,-0.20656408,0
-2.7907629,0.29522794,1.3363168,-0.89785469,0.094981834,0.42992485,0
1.053573,0.23554437,-2.8026266,0.3507973,0.078426771,-0.93316156,0
-1.7925551,-0.90663779,-2.2999918,-0.58700693,-0.29689613,-0.75317693,0
-2.7526479,1.0804639,-0.38716039,-0.92298192,0.36228701,-0.12981756,0
-1.4638076,-2.5454357,-0.80523175,-0.48076782,-0.83601391,-0.26446748,0
0.62577981,-0.93106472,-2.743803,0.21110708,-0.31409508,-0.92562306,0
-2.1258087,0.015422023,-2.0298772,-0.72322726,0.0052467692,-0.69059014,0
1.5672504,1.3014098,2.1589391,0.52799129,0.43843225,0.72732544,0
2.0227363,0.35568854,-2.1773376,0.67579496,0.11883532,-0.72744715,0
0.95334876,2.0666974,2.0685842,0.30997431,0.67197138,0.67258489,0
-2.9150207,-0.18516241,0.45269978,-0.9862141,-0.062644422,0.15315805,0
-1.0544279,-1.2512642,-2.5553625,-0.34749565,-0.41236475,-0.84214139,0
-1.7486384,-2.4807274,0.011992789,-0.57613689,-0.81734371,0.003951353,0
-1.2290304,-2.8082867,-0.16592783,-0.40034366,-0.91476971,-0.054049235,0
-1.8268027,-1.4909859,-1.9331599,-0.5991174,-0.48898306,-0.63399827,0
-0.64702147,-2.8809109,-0.17467584,-0.21874823,-0.97399265,-0.059055272,0
-0.011152517,2.9042888,-0.89636987,-0.0036692072,0.9555186,-0.29490805,0
2.8554838,0.44853792,1.0385076,0.92970234,0.14603716,0.33812237,0
1.1256145,2.7417357,0.59710139,0.37230691,0.9068532,0.19749653,0
-0.74333519,-2.384371,1.6807154,-0.24692145,-0.79204154,0.55830091,0
2.8528066,-0.91063297,-0.28038132,0.94849521,-0.30276534,-0.093220599,0
-0.3119733,2.9794917,-0.27930593,-0.10368791,0.99026829,-0.092830539,0
1.9568311,2.3275678,-0.45382857,0.63646561,0.7570489,-0.1476092,0
-2.1780293,-1.0803638,-1.9272647,-0.70202976,-0.34822652,-0.62120247,0
-1.61283,1.8168324,1.7009755,-0.54382646,0.61261356,0.57354808,0
1.1752861,0.023187764,-2.7413142,0.39403123,0.0077740247,-0.91906422,0
1.6242335,-1.5670887,-1.9287893,0.54708999,-0.52784193,-0.6496734,0
-2.418056,0.54992092,-1.7315807,-0.79948163,0.1818203,-0.57251239,0
-0.99904001,2.5781589,1.4327383,-0.32081008,0.82789409,0.46007857,0
-1.775245,-2.1020494,1.5783732,-0.55966705,-0.66269606,0.49760091,0
2.4261744,1.0942796,1.5168558,0.79197896,0.357207,0.49514902,0
-3.1052499,-0.33299467,0.0062141712,-0.99429739,-0.10662451,0.0019897704,0
0.1014617,-1.6648498,2.6308877,0.032571364,-0.5344522,0.84457093,0
-0.4208191,-1.5811274,-2.6011274,-0.1369438,-0.51453364,-0.8464641,0
1.1516759,1.3224671,2.4196072,0.38539851,0.44255233,0.80970085,0
0.96432549,0.88875026,-2.7015493,0.32111785,0.29595149,-0.89960879,0
1.5507731,1.7334802,2.0144188,0.50399387,0.56337279,0.6546765,0
1.3731123,-0.82347423,2.5534725,0.45558879,-0.27322283,0.84722382,0
-3.0863612,0.10286104,-0.49868321,-0.98666281,0.032883111,-0.15942144,0
1.3924061,2.3180785,-1.3779906,0.45878497,0.76378548,-0.45403519,0
-2.5069356,0.69145709,-1.5443313,-0.82886708,0.22861616,-0.51060158,0
-1.9753544,-2.1784844,-0.60042238,-0.6581471,-0.72582585,-0.20004828,0
1.6184974,-2.3981273,0.62945873,0.54662848,-0.80993938,0.2125923,0
1.1290188,-0.45877039,-2.9012454,0.35878262,-0.14578928,-0.92196554,0
-0.9917531,2.8418834,-0.37605128,-0.32694837,0.93687552,-0.12397174,0
-1.7753807,2.4684212,-0.042774156,-0.58383912,0.81174749,-0.014066406,0
-1.3324728,1.6155173,-2.3077071,-0.42759126,0.5184204,-0.74054444,0
2.8182795,-1.0096673,-0.79538584,0.9098438,-0.32595757,-0.25677967,0
-0.0079328958,0.70351958,2.9046822,-0.0026543182,0.2353951,0.97189611,0
0.91833466,-2.9322052,0.071930811,0.29879215,-0.95403117,0.023403626,0
-2.0550311,0.16334444,2.2392936,-0.67516947,0.053665943,0.73570794,0
0.50177783,2.9645007,-0.38834774,0.1655135,0.97785282,-0.12809812,0
-0.66199619,2.1530001,-1.9445424,-0.22246608,0.72352308,-0.65347016,0
-0.44391605,2.9223368,-0.25322855,-0.14963354,0.9850502,-0.085357316,0
1.0878698,-2.6169116,-1.0823187,0.3585996,-0.86262482,-0.35676977,0
-2.4079957,0.14266697,1.8591481,-0.79066658,0.046844769,0.61045223,0
1.5474892,2.5010946,0.78451633,0.50838107,0.82165951,0.25772926,0
1.0424922,2.184504,-1.8294786,0.34359044,0.71998119,-0.60296988,0
0.49424055,0.069456242,-3.0164485,0.16165072,0.022716979,-0.98658657,0
-0.41478375,1.5430013,-2.5312276,-0.13856943,0.51548022,-0.84562325,0
-1.3304144,-1.9357468,-1.8105704,-0.44860286,-0.65271509,-0.61050677,0
2.7966912,0.74978167,-0.68022192,0.94029105,0.25208825,-0.22870117,0
0.28477824,-0.071768478,2.9449782,0.096222341,-0.024249503,0.99506444,0
1.7947488,-2.5021863,-0.10731163,0.58249038,-0.81209111,-0.034828268,0
-0.7176556,-2.5722454,1.6123244,-0.23005722,-0.82457888,0.51685917,0
-0.8178913,-2.756861,-1.0239756,-0.26794147,-0.90314865,-0.33545476,0
1.2378856,-1.3793902,-2.4395087,0.40404871,-0.45023617,-0.79626125,0
1.4864925,-0.26606235,2.6882567,0.48209989,-0.086289451,0.87185657,0
-0.59094298,-0.77290159,-2.8683639,-0.19510293,-0.25517753,-0.94700539,0
-2.9944115,0.51109254,-0.33998162,-0.97962821,0.16720504,-0.11122572,0
-2.7918804,-0.012817568,1.4847172,-0.88290781,-0.0040534441,0.46952888,0
2.1928847,1.7708502,1.2092142,0.71497953,0.5773772,0.3942585,0
-2.0484889,0.66581535,-2.1867743,-0.66737711,0.21691595,-0.71242911,0
2.5964587,0.29800144,-1.5909219,0.84861404,0.097397357,-0.51996922,0
-0.69306511,-1.1018749,-2.7570555,-0.22731607,-0.36140022,-0.90427727,0
2.7620196,1.0347917,-0.33261791,0.93053848,0.34862658,-0.11206067,0
1.7695929,2.2400358,-0.97371244,0.58670026,0.7426734,-0.32282981,0
2.9700143,-0.33126199,-0.29611972,0.98899394,-0.11030792,-0.098605789,0
-1.4929204,-2.1910641,1.577615,-0.48389789,-0.71018606,0.5113498,0
1.1655291,-0.32835251,-2.7671082,0.38587841,-0.10870954,-0.91612238,0
-2.2825835,2.0400887,-0.53392279,-0.73451483,0.65648216,-0.17181155,0
-2.2951355,-1.8935807,-0.94103169,-0.73545283,-0.60677868,-0.30154404,0
2.7938869,0.61879617,0.97013837,0.92464763,0.20479298,0.32107103,0
2.6896546,0.97467345,0.88799787,0.89791083,0.32538375,0.29644808,0
-1.4301807,-2.5293562,-0.80414438,-0.4743686,-0.83894795,-0.26672214,0
0.24076343,3.0375493,-0.00062721508,0.07901457,0.99687338,-0.00020584161,0
-3.1192667,0.34379539,0.083302885,-0.99363089,0.10951475,0.026535826,0
2.0337253,-1.9226115,-1.1929339,0.66848373,-0.63196069,-0.39211634,0
-0.47873527,3.0008094,-0.053011119,-0.15751916,0.98736191,-0.017442347,0
2.7927339,0.1908838,1.0080738,0.93866056,0.064157598,0.3388218,0
0.60813785,-0.088582307,-3.0132341,0.19775133,-0.028804766,-0.97982889,0
-0.0508756,0.51567191,3.0569968,-0.016408296,0.16631345,0.9859364,0
1.7300018,-2.0714595,1.5300264,0.55763495,-0.66769773,0.49317649,0
0.54493856,-0.43322998,2.8844988,0.1836468,-0.1460005,0.97208935,0
-1.0771893,2.7694373,-0.67895657,-0.35339338,0.90856898,-0.22274521,0
0.75049216,2.2536724,-1.7059209,0.25662622,0.77062958,-0.58332932,0
2.4479048,1.6392155,-0.9494741,0.79085052,0.5295853,-0.30674887,0
-3.02706,-0.18777029,0.65009266,-0.97591406,-0.060536519,0.20958771,0
0.82414937,-2.9575913,-0.33158913,0.26687688,-0.95773023,-0.10737553,0
-0.23427653,1.8372817,-2.3785608,-0.077712998,0.60945356,-0.78900385,0
2.6381347,-0.20406522,1.4586583,0.87313908,-0.067539126,0.48276976,0
-1.4423634,-2.6023867,-0.42216817,-0.47996044,-0.86596948,-0.14048056,0
-0.22100919,-2.8719556,-0.58210725,-0.07520704,-0.9772954,-0.1980848,0
0.45277157,2.997191,0.28888437,0.14869678,0.98432118,0.094873838,0
2.8824439,0.82371616,0.3219077,0.95601392,0.27320015,0.10676643,0
-0.52159917,-0.58054101,-3.0389585,-0.1662429,-0.1850287,-0.96856987,0
1.0359998,-0.22777666,2.8047731,0.34548819,-0.075959615,0.93534386,0
2.9716911,-0.62875646,0.36227369,0.97145611,-0.20554265,0.11842852,0
2.3186185,1.9703363,-0.34099048,0.75727814,0.64352655,-0.11137004,0
2.290117,-1.0186882,-1.7428088,0.75016302,-0.33368698,-0.57088381,0
2.0076017,-2.277499,-0.62672728,0.64760494,-0.73466736,-0.20216742,0
2.9899631,-0.083417974,-0.76415563,0.96850485,-0.027020639,-0.24752428,0
-1.3375415,1.8095236,1.8359802,-0.46055859,0.62307721,0.63218707,0
-0.92499614,-0.64292008,2.825103,-0.30413404,-0.21138886,0.92887956,0
0.7067647,-3.0355492,-0.34670612,0.22537386,-0.96797913,-0.11055801,0
-1.2033978,-1.5889621,-2.2473192,-0.40061191,-0.52896655,-0.74813408,0
1.7154067,1.6295096,1.809391,0.5759182,0.54707974,0.60747182,0
0.89648002,2.7988377,1.0485182,0.28730148,0.89696383,0.33602625,0
1.2987297,2.6825535,-0.74892026,0.4226183,0.87292701,-0.24370538,0
2.8537331,-0.99180037,0.56446165,0.92851216,-0.32269967,0.18365751,0
0.2262335,2.6891155,1.4676218,0.073646627,0.87539774,0.47776037,0
2.0881052,0.33025351,-2.1667953,0.68976927,0.10909351,-0.71576315,0
-1.5874913,-2.4389524,-0.8720789,-0.5225535,-0.80282843,-0.28706166,0
2.0381966,0.96810997,1.9857512,0.67809325,0.32208318,0.66064507,0
2.3114529,-0.6094479,-1.8318627,0.76750696,-0.20236428,-0.60826129,0
1.7369655,-1.7041829,1.7293429,0.58184284,-0.5708614,0.57928944,0
1.6073393,-1.3049979,2.3165832,0.51733726,-0.42002589,0.74561411,0
-1.2371262,0.82606608,-2.6758511,-0.40408587,0.26982018,-0.8740204,0
1.6669852,-2.1786122,1.2628051,0.55199796,-0.72141588,0.4181596,0
-0.081884384,-0.26181883,-3.0866015,-0.02642482,-0.084491268,-0.99607378,0
0.63015735,1.6868621,-2.446419,0.20744616,0.55531061,-0.80535477,0
0.76395005,2.1047792,-1.950247,0.25727651,0.7088294,-0.6567874,0
-0.45000234,1.0811915,2.8382797,-0.14656183,0.35213464,0.92440295,0
-2.4643538,-1.3867878,0.76514381,-0.84123492,-0.47339562,0.26119044,0
2.7605383,-0.33218893,-1.2706013,0.90301716,-0.10866443,-0.41563442,0
-2.6727257,1.5546647,0.54270744,-0.85138619,0.49523228,0.17287731,0
-2.3007004,-0.18775353,1.9557607,-0.76044381,-0.062057626,0.64643186,0
2.0873749,-1.7803761,1.1885157,0.69814438,-0.59546536,0.39751148,0
-1.8973368,2.4484973,0.32424298,-0.60919315,0.78615862,0.10410729,0
3.0839438,0.57783043,-0.052035898,0.98276061,0.18413727,-0.016582284,0
-1.6138209,-0.0026525054,-2.5644939,-0.5326097,-0.00087540696,-0.8463605,0
-2.9163623,-0.88519955,0.23637189,-0.95402706,-0.28957453,0.07732413,0
2.3886232,0.29200783,-1.7101202,0.80910796,0.098912992,-0.57927591,0
0.95537001,-2.5741684,-1.460951,0.30717143,-0.827649,-0.46972629,0
1.1613064,-0.44234198,2.8628821,0.37209907,-0.14173266,0.91730809,0
-1.07972,-1.8987281,2.0019548,-0.36441302,-0.64083397,0.67567366,0
1.4810239,1.6944566,2.0500407,0.48650339,0.55661416,0.67342043,0
1.5736947,-1.5991842,-2.1858189,0.50239831,-0.51053572,-0.6978175,0
-0.90313536,-0.64705873,-2.8724837,-0.29323965,-0.21009396,-0.93266881,0
-2.9848757,0.13929349,0.37984538,-0.9909386,0.046243567,0.12610357,0
1.6610606,-0.069353648,2.5371871,0.54759824,-0.022863666,0.83642894,0
1.6739466,-1.5106975,2.1683385,0.53510511,-0.48291975,0.69314575,0
1.9735585,-1.5781127,-1.6414124,0.6549626,-0.5237264,-0.54473358,0
1.9354074,0.022360286,-2.2533126,0.65154821,0.0075275125,-0.75856984,0
-2.2824175,-1.9147109,0.29592434,-0.76236951,-0.63954872,0.098844178,0
-0.40431905,-2.7932715,-0.89673376,-0.13652907,-0.94322234,-0.30280599,0
-2.6335549,1.4551904,-0.20413682,-0.87326151,0.48252714,-0.067689806,0
-0.61030102,-2.9340301,0.46573424,-0.20123318,-0.96743107,0.1535655,0
1.9455073,-2.3694508,0.57398564,0.62374091,-0.75965965,0.18402311,0
1.2873888,-0.14362282,-2.7355313,0.42533901,-0.047451388,-0.90378928,0
-1.5869623,-2.5724771,0.78779888,-0.5080598,-0.82356846,0.25221074,0
-3.0852618,-0.70291686,0.18276957,-0.97339284,-0.22176862,0.05766337,0
2.0341496,2.1402061,-0.52027959,0.67846698,0.71384084,-0.1735332,0
0.44322643,0.32537004,2.9633055,0.14706156,0.10795707,0.98321831,0
2.2254107,-0.82385576,-1.8558166,0.73872185,-0.27347773,-0.61603564,0
1.144876,-0.55951387,2.7826149,0.3740797,-0.182817,0.9091987,0
-0.63397461,-2.9861248,0.58561623,-0.20395887,-0.96067983,0.18840127,0
-1.2319727,2.0366075,1.9351025,-0.40160847,0.66390985,0.63082039,0
1.4385663,-0.85512114,2.66453,0.45719656,-0.27176949,0.84682506,0
-2.0256109,1.3845156,1.7518418,-0.67189217,0.45924181,0.58108336,0
-2.8746123,-0.49959579,-1.0720625,-0.92478079,-0.16072309,-0.34488922,0
-0.94348001,2.764513,-0.45933044,-0.31906986,0.93491411,-0.15533821,0
0.55680573,2.9234941,0.34952852,0.18581861,0.97563583,0.11664554,0
0.49481192,-2.4396901,1.6366233,0.16609044,-0.81891561,0.54935515,0
-0.0066598775,3.142303,-0.059605449,-0.0021190397,0.99981785,-0.018965259,0
-2.3817027,0.63245249,-1.612511,-0.80874288,0.21475874,-0.54755235,0
-0.76903516,2.380389,-1.83271,-0.2479921,0.76760817,-0.59099716,0
1.7422944,1.5852489,1.9728408,0.56704736,0.51593536,0.64208102,0
-1.2686658,-2.2692342,1.6349765,-0.41308877,-0.73888266,0.53236276,0
-0.67906082,-2.2490711,-1.9801031,-0.2210125,-0.73200047,-0.64446002,0
0.60289663,2.3606799,-1.9047647,0.19494563,0.76332194,-0.61590248,0
0.33062825,2.9389791,0.075656168,0.11175591,0.99340659,0.0255726,0
-2.4414716,-0.77672482,-1.5748175,-0.81183571,-0.25827578,-0.52365679,0
-2.1575193,0.40625495,-2.1008637,-0.71001923,0.13369466,-0.69137436,0
2.5537615,-0.22738776,-1.5741782,0.84883153,-0.075580232,-0.52323294,0
2.7055671,1.4252118,-0.17773521,0.88326186,0.46527591,-0.058023594,0
0.95401192,1.0797132,-2.6580579,0.31553853,0.35711411,-0.87915009,0
0.60952097,-2.4296155,1.8517889,0.19566838,-0.77995503,0.59446114,0
2.4709282,1.3033586,-1.1475277,0.81815904,0.43156031,-0.37996253,0
2.4187067,1.2080678,-1.4602461,0.78714323,0.39315325,-0.47522208,0
2.4063096,-1.7527289,0.36700296,0.80223352,-0.58433789,0.12235419,0
-2.3182237,1.6364552,-1.2708656,-0.74559665,0.52632344,-0.40874103,0
2.4786685,-0.076733388,-1.6188328,0.8369723,-0.025910573,-0.54663152,0
0.16851695,-1.7309303,2.4700241,0.055784605,-0.57299441,0.81765854,0
-2.4918818,1.3956953,-1.1568779,-0.80865169,0.45292333,-0.37542361,0
-1.5641837,-1.4697621,-2.1049557,-0.52030569,-0.48889756,-0.70018655,0
0.98045295,-2.1549454,1.9256456,0.32127547,-0.70613396,0.63099682,0
-0.98262912,-1.3408999,-2.6105673,-0.3174957,-0.433256,-0.84349614,0
-0.64962143,2.489383,1.5174915,-0.2174872,0.83342224,0.50804204,0
-0.6368708,2.3880403,1.7819823,-0.20902027,0.78375208,0.58484459,0
2.3621073,1.1757481,-1.3653369,0.79508895,0.39575863,-0.45957452,0
1.2898955,2.6954927,0.71070725,0.419945,0.87755841,0.23138149,0
-0.1540909,0.98290014,2.8089826,-0.051708881,0.32983562,0.94262117,0
-2.4602182,-1.1830138,1.2270646,-0.82199836,-0.39526388,0.40998197,0
0.074079953,-1.0033932,-2.929379,0.023917243,-0.32395265,-0.94577092,0
-0.38264495,1.7587798,-2.4891858,-0.12456824,0.5725624,-0.81034261,0
2.5006502,-0.54718924,-1.7091705,0.81243354,-0.17777573,-0.55529058,0
1.6157013,-0.55196524,2.507488,0.53260416,-0.18195131,0.82657516,0
-1.59029,-2.5953772,-0.58412033,-0.51309818,-0.83738399,-0.18846317,0
2.057478,1.4810842,-1.7274454,0.67068678,0.48279673,-0.56310433,0
1.5425014,2.5313268,0.21490327,0.51900172,0.85170937,0.072307974,0
-2.6152124,1.3656958,0.14198759,-0.88538808,0.46236047,0.04807033,0
-0.5699209,-1.3539406,2.6699853,-0.18701734,-0.44429037,0.8761453,0
-2.9388626,-0.25029418,0.28466684,-0.99178445,-0.084467329,0.096067145,0
-0.56371415,-0.52855295,-2.9862828,-0.18274854,-0.17134975,-0.96811271,0
-2.9594107,-0.3493056,-0.12780182,-0.99219412,-0.1171108,-0.042847794,0
-1.8735814,-0.23014627,-2.5545382,-0.58986115,-0.072457142,-0.80424738,0
2.3048341,1.4352095,-1.298998,0.76575172,0.47683004,-0.43157551,0
1.7523433,0.32948229,-2.5884457,0.55751395,0.10482591,-0.82352275,0
-2.7112095,0.26903802,1.503971,-0.87119228,0.086449921,0.48327062,0
-1.5592099,-2.6620018,-0.078929223,-0.50524682,-0.8625958,-0.025576247,0
2.8365264,0.55511069,0.75937015,0.9491716,0.18575372,0.25410396,0
1.6856291,-2.5779481,-0.2394473,0.545614,-0.83444488,-0.077505656,0
2.5002906,-1.8414708,0.10653179,0.80471289,-0.59267324,0.034287017,0
2.3554268,1.1349633,1.8037728,0.74153036,0.35730666,0.56785983,0
-2.2352159,-1.9434447,0.41222492,-0.74743855,-0.6498726,0.13784476,0
0.86013985,-1.2278774,-2.583276,0.28798258,-0.41110444,-0.86490411,0
-2.2141731,0.51991737,2.1835732,-0.7022624,0.16490057,0.6925571,0
-2.5174279,1.3192732,-1.2277889,-0.8131153,0.42611796,-0.39656901,0
2.7586796,-0.90797049,-1.104219,0.88786536,-0.29222512,-0.35538658,0
1.5212308,2.510349,0.58874011,0.50813353,0.83852661,0.19665562,0
-2.7000945,1.2472209,-0.95957345,-0.863976,0.39908561,-0.30704424,0
-2.7270105,0.37439537,-1.3301823,-0.89201176,0.12246564,-0.43510586,0
2.4335992,1.586965,-0.88240796,0.80148464,0.52265304,-0.29061335,0
2.6483216,-1.4955781,-0.63771099,0.85221422,-0.48126817,-0.20521162,0
2.7121458,1.5939949,0.051551361,0.86201084,0.506625,0.016384751,0
1.9422035,0.98327702,-2.2149312,0.62538242,0.31661159,-0.71319973,0
0.91050863,-0.78992587,2.8703644,0.29246733,-0.25373456,0.92199874,0
1.3101506,2.7546823,-0.042542502,0.42946342,0.90297657,-0.013945304,0
3.0991707,-0.50845319,-0.066825822,0.98658437,-0.16186006,-0.021273211,0
0.78084165,-2.8960021,-0.44826347,0.25747111,-0.95491427,-0.14780831,0
2.8463986,0.95451218,0.79087514,0.91683167,0.30745062,0.25474274,0
-0.50075263,-2.9803081,0.55400765,-0.16298185,-0.97001213,0.18031496,0
1.6936311,2.3109591,-0.62950438,0.57734907,0.78779262,-0.21459441,0
-1.8681049,1.2635164,-2.2130795,-0.59121948,0.3998788,-0.70039731,0
1.9718992,2.0998368,0.96061945,0.64939308,0.691526,0.31635475,0
-0.48794729,3.0122333,-0.31711358,-0.15904765,0.98184502,-0.10336398,0
1.3116595,-1.7736477,2.054975,0.43506914,-0.58830774,0.68162221,0
1.1485718,1.8503124,2.1501069,0.37530553,0.6046052,0.70256555,0
1.5542285,1.4659603,2.1777594,0.50945163,0.4805187,0.71383524,0
2.963016,0.32379216,-0.52225477,0.97916543,0.10700114,-0.17258558,0
-2.3637617,0.79694253,1.8034486,-0.76792014,0.25890437,0.58589005,0
-3.0431376,-0.22171348,-0.73744285,-0.96944392,-0.070630655,-0.23492514,0
-1.487188,-2.4808996,0.86062539,-0.49280128,-0.82208204,0.28518069,0
-1.2815111,-0.2023914,2.7464943,-0.42189533,-0.066630706,0.90419286,0
-1.7532315,0.32939652,2.5004349,-0.57079464,0.10724069,0.8140595,0
-2.1505728,-0.37343282,-2.0526094,-0.71775055,-0.12463266,-0.68505538,0
-1.8680488,-1.7643114,-1.7045875,-0.6058194,-0.57217675,-0.55280793,0
2.5440516,1.8366741,-0.34412324,0.80595213,0.58185589,-0.10901778,0
2.2126365,1.9186547,-0.83988446,0.72623956,0.62974781,-0.27566993,0
2.0314009,-1.1816297,-1.8977256,0.67250919,-0.39118659,-0.62825507,0
-1.0937586,-2.6926565,-1.0330832,-0.35460156,-0.87297165,-0.33493033,0
0.39865384,-0.067603894,3.0944693,0.12774195,-0.021662535,0.99157089,0
-0.50518274,0.74410397,2.8404982,-0.16955371,0.24974248,0.95335209,0
-2.168124,2.1182237,-0.78007221,-0.69271803,0.67677486,-0.24923395,0
-1.165767,2.7082586,0.22900142,-0.39418858,0.91576159,0.07743378,0
0.10715011,0.99632859,-2.9434509,0.034460615,0.32042989,-0.9466452,0
0.75657743,0.31491521,2.8674946,0.25368935,0.10559478,0.96150476,0
3.0056772,-0.45001182,0.099612221,0.98844606,-0.14799075,0.032758445,0
0.42443407,-2.6581199,1.3865728,0.14017324,-0.87786847,0.45792839,0
-0.36289608,-1.9155357,-2.2256019,-0.12265131,-0.64741111,-0.75220704,0
0.18585479,-2.8691254,-1.1476792,0.060035709,-0.9267987,-0.37072885,0
0.18007566,2.1387005,-2.2145574,0.058391288,0.6934945,-0.71809185,0
1.3667077,-2.2863238,-1.3983115,0.45429793,-0.75998122,-0.46480313,0
-2.9389691,-0.74637973,0.45244786,-0.95862013,-0.24345089,0.14757746,0
-2.6546776,-0.3867614,-1.6020831,-0.84958637,-0.12377669,-0.51272058,0
2.1728182,-1.3895485,1.435279,0.73614645,-0.47077626,0.48626965,0
-2.5066521,1.6208656,-0.54447907,-0.82610601,0.53418136,-0.1794415,0
-1.8178788,2.4497993,0.36330256,-0.59172595,0.79741824,0.11825626,0
0.68842369,2.4766781,1.5112015,0.23086922,0.83057678,0.50679535,0
-2.8436363,0.49946806,-1.098739,-0.92051834,0.16168365,-0.35567468,0
-1.131219,-2.1713746,-2.0187445,-0.35647997,-0.68426323,-0.63616502,0
2.8680618,0.7819978,-0.11851408,0.96401519,0.26284572,-0.039835047,0
2.1557007,-0.94519407,1.9136741,0.71061361,-0.31157747,0.630831,0
-2.2015784,0.015238234,-2.1315942,-0.71842456,0.0049725785,-0.69558716,0
-1.5845845,2.2884967,1.0936931,-0.52983725,0.76520425,0.36569798,0
-1.6907194,-1.6592401,-1.8744813,-0.55969083,-0.54927003,-0.62052286,0
2.8499606,-0.43451276,1.1770915,0.91522664,-0.13953795,0.37800714,0
1.4701992,1.939244,-1.7326167,0.49214566,0.64915729,-0.57998925,0
-1.7137046,-1.4108931,2.0689063,-0.56475306,-0.46496123,0.68181014,0
-2.5331304,1.481353,-0.3893742,-0.85573024,0.50042373,-0.13153656,0
1.6535308,-2.5316656,-0.18835278,0.54577708,-0.835621,-0.062169164,0
1.3671631,-2.5798535,1.0938307,0.43848968,-0.82743543,0.35082391,0
-0.79284441,-2.3031151,-1.8199052,-0.26075616,-0.75746447,-0.59854305,0
-2.0751786,-2.108248,0.25841153,-0.69883406,-0.70997047,0.087022282,0
2.2383621,1.9840059,0.73972535,0.72645998,0.64390874,0.24007773,0
2.742115,1.3396192,0.59047616,0.88214982,0.43096107,0.18995865,0
-1.1424403,-2.712605,0.40452713,-0.38452628,-0.91301745,0.13615707,0
2.0576298,-0.52959436,2.1230407,0.68505454,-0.17631988,0.70683205,0
-2.2875223,1.3309158,1.4295967,-0.76048881,0.44246414,0.47527066,0
-2.659081,-0.32937711,-1.5027509,-0.86557353,-0.10721754,-0.48916954,0
0.693784,-2.7215211,1.0995634,0.23002441,-0.90232158,0.36456075,0
-1.0788687,0.49727225,-2.8678057,-0.3475605,0.1601976,-0.9238714,0
0.75112271,2.9293392,0.39462575,0.24629037,0.96051949,0.12939633,0
-2.7650042,1.0922869,-0.48480591,-0.91793376,0.36262047,-0.16094722,0
1.8962013,1.5693061,-1.8116339,0.62044543,0.51348394,-0.59277463,0
0.97780079,2.8576732,-0.34753495,0.32161766,0.93994415,-0.11431099,0
0.60277075,2.3637247,1.8957406,0.19510965,0.7651093,0.61362845,0
2.5074742,-1.2691144,-1.2141124,0.81906223,-0.41455409,-0.39658779,0
-2.418582,1.8638312,-0.67935836,-0.77318227,0.59583724,-0.21718009,0
-2.2368226,-1.4601635,-1.4274393,-0.73854166,-0.48210865,-0.471304,0
-2.5023942,-1.0950233,-1.4110236,-0.813941,-0.35617265,-0.45895648,0
-2.2409012,2.0625882,-0.53168195,-0.72481251,0.66713774,-0.17197087,0
-0.99301261,-2.8434608,-0.03203648,-0.32968137,-0.94403231,-0.010636149,0
-0.90677661,2.3686152,1.5365751,-0.30578476,0.79874843,0.51816648,0
-1.9175577,0.55926001,-2.2952576,-0.63021642,0.18380404,-0.75434965,0
0.28700408,-1.7874767,2.4021158,0.095416017,-0.59425598,0.79859602,0
0.48104388,-2.2731295,1.8433241,0.16219336,-0.76643014,0.62151283,0
-0.93213546,-0.64311653,2.7461352,-0.31379992,-0.21650277,0.92447615,0
2.5277975,1.6328955,-0.25351787,0.83702004,0.54069453,-0.083946414,0
1.6322324,-2.3400266,-0.91959071,0.54451466,-0.7806356,-0.30677652,0
-0.5942077,1.7206995,2.5322003,-0.19053411,0.55174643,0.81195605,0
1.4941418,2.2657521,-1.2416871,0.50061595,0.75914586,-0.41603035,0
0.38876316,-1.1441878,2.8637428,0.12507391,-0.36811113,0.92133093,0
-2.5247798,1.5346954,0.83945036,-0.8219862,0.4996469,0.27329773,0
-2.4096124,0.79355127,1.5364566,-0.81243461,0.26755694,0.51803792,0
0.89190197,2.2832556,1.8715038,0.28919971,0.74034685,0.60683614,0
-1.3437519,-0.19582339,2.6627822,-0.44955805,-0.065513566,0.89084542,0
-1.6369258,2.3986111,-0.82257289,-0.54235297,0.79471767,-0.27253821,0
1.3380053,2.2183588,-1.6345731,0.43679965,0.7241962,-0.53361595,0
-2.0434008,1.5019599,1.6805193,-0.67166585,0.49369422,0.5523867,0
1.0499308,2.3480983,-1.4714904,0.35431018,0.79239041,-0.49656987,0
-1.0429678,0.74497044,-2.6267836,-0.35683867,0.25488254,-0.89872193,0
0.57981116,-2.9588993,-0.48355356,0.18987162,-0.96895516,-0.15835001,0
-2.9711924,-0.29072019,0.83020711,-0.95886105,-0.093821011,0.26792383,0
-0.79723918,-2.5629144,1.2464616,-0.26939619,-0.86603791,0.42119357,0
2.9077296,-0.087597564,-0.94725001,0.9504289,-0.028632393,-0.30962089,0
-0.56243128,-2.6251669,1.6243399,-0.17923908,-0.83660442,0.51765466,0
1.5720274,-0.29178989,2.6574037,0.50688922,-0.094085604,0.85686123,0
2.8293736,-0.21986541,1.1626755,0.92256957,-0.071691178,0.37911183,0
2.9515357,-0.50299776,-0.244983,0.98250419,-0.16743737,-0.081549689,0
0.36266479,1.873323,2.4091971,0.11800548,0.60955018,0.78391528,0
-2.9611416,-0.088612504,0.71410358,-0.9717201,-0.029078837,0.23433828,0
-2.8210821,-0.42480922,-1.2091694,-0.91045016,-0.13709903,-0.39023623,0
-1.5747499,-0.11606262,2.5785019,-0.52082455,-0.038385943,0.85280025,0
0.31803018,0.57740676,3.0526512,0.10183435,0.18488762,0.97746938,0
-0.44649976,-2.6753144,-1.3651586,-0.14704426,-0.8810522,-0.44958302,0
-2.1881258,-0.80624312,-1.8918672,-0.72868401,-0.268493,-0.63002473,0
-1.9099303,0.19824085,-2.3751235,-0.62533855,0.064906895,-0.77764946,0
-2.3656845,1.2847672,-1.4644781,-0.77193856,0.41922805,-0.47786891,0
2.7475059,0.81548059,-1.1824256,0.88620335,0.26303187,-0.38138938,0
1.8918015,-0.23994613,2.2769213,0.63697171,-0.080790132,0.76664197,0
2.3237653,-1.7446082,-0.35239401,0.79388851,-0.59602594,-0.12039149,0
1.6017091,-2.4578664,0.66100603,0.53261721,-0.81731564,0.21980469,0
2.0196779,1.9401977,-1.1388508,0.66803372,0.64174461,-0.37668914,0
0.010900997,2.9577065,0.094686903,0.0036837126,0.99948114,0.031997014,0
1.8630252,2.3232303,-0.18244076,0.62443322,0.77868086,-0.061148968,0
-2.2692132,0.26068878,1.8862398,-0.76603234,0.088002324,0.63674963,0
-1.8835459,2.3491881,-0.22715478,-0.62377173,0.77797794,-0.07522659,0
-2.5472648,0.75484592,-1.3942965,-0.84897447,0.25158158,-0.4647032,0
0.046757247,1.9102893,2.4313872,0.015119975,0.61773366,0.78624201,0
1.9753166,0.86568463,-2.3022046,0.62617242,0.27442074,-0.72979546,0
2.1987941,-0.38166249,-2.0912921,0.71893406,-0.1247912,-0.68378437,0
2.9517496,-0.29998922,0.37416071,0.98705733,-0.10031562,0.12511836,0
-0.083753034,2.3810363,2.0430052,-0.02668564,0.75865287,0.65094841,0
-1.3399378,-2.7605231,0.34797186,-0.433889,-0.89389271,0.11267774,0
-1.7613143,-2.0709851,1.3753498,-0.57809275,-0.67973185,0.45141274,0
-2.1012762,-1.7436273,1.5570792,-0.66850179,-0.55471909,0.49537054,0
0.13433626,-0.76572639,2.9156399,0.044518981,-0.25376141,0.96624184,0
-1.5616605,1.604861,1.957842,-0.52502036,0.53954411,0.65821403,0
-0.78789788,0.40859178,2.9280488,-0.25751597,0.13354383,0.95700133,0
2.9883778,0.29261625,0.18812132,0.99329269,0.097261325,0.062528752,0
-0.13649532,-1.5270382,2.5658138,-0.045666508,-0.51089299,0.85843056,0
-1.046177,2.9359293,-0.092551447,-0.33551428,0.94156742,-0.029681718,0
2.920656,-0.43527475,-0.45847538,0.97736603,-0.14566,-0.15342385,0
0.017282164,1.0964342,-2.8596489,0.005642809,0.35799736,-0.93370557,0
1.4135184,-2.336863,1.3224573,0.46582437,-0.77011216,0.43581522,0
-0.11190534,-2.0989635,2.1145117,-0.037533261,-0.7039963,0.70921117,0
0.23521186,3.0954838,-0.059458762,0.075753182,0.9969427,-0.019149505,0
-0.62848109,1.173834,-2.6864514,-0.20961139,0.39149779,-0.89598691,0
1.1739204,-1.6103182,2.2454135,0.39102241,-0.53638262,0.74792725,0
-2.387238,1.6512859,1.1529272,-0.76433635,0.52870214,0.36913961,0
-0.27511466,1.2016227,2.7649765,-0.090877227,0.39692593,0.91334063,0
1.1926215,2.3053482,-1.6467283,0.38798669,0.74998182,-0.5357179,0
2.4654663,-0.98890299,1.3982655,0.821293,-0.32942212,0.46578842,0
2.367641,-1.7615855,-0.81702173,0.77320927,-0.57528752,-0.26681781,0
3.0380664,-0.56880873,0.35910726,0.97635305,-0.18279988,0.11540744,0
-0.78105831,-0.57668447,2.8363247,-0.26053587,-0.19236335,0.94610649,0
-1.1058795,-0.88221973,-2.7666149,-0.35589492,-0.28391656,-0.89035398,0
-0.96504641,2.6334047,1.0334735,-0.3228645,0.881028,0.34575737,0
1.4963474,-2.1714251,1.3259672,0.50695014,-0.73566085,0.44922674,0
2.6421025,-1.4404013,-0.81525928,0.84745002,-0.46200636,-0.26149306,0
0.18933296,2.9645081,0.72627079,0.061913121,0.96941364,0.23749532,0
0.20640416,0.94293183,-2.8458562,0.068684645,0.3137773,-0.94700909,0
1.2141631,-0.67195386,2.697227,0.40028143,-0.22152762,0.88921326,0
2.9892697,-0.18296577,-0.19076775,0.99611324,-0.060969617,-0.063569464,0
-0.88260537,-0.14229801,-2.9857209,-0.28318658,-0.045656744,-0.95797747,0
-1.3121051,-1.8923769,2.0974483,-0.42124814,-0.60754299,0.67338067,0
-2.559623,0.27407271,-1.6093924,-0.84310734,0.09027607,-0.53011346,0
-1.5441587,-2.6727898,0.0066788439,-0.5002473,-0.86587989,0.0021636854,0
-2.399513,0.77633274,-1.9218379,-0.75675905,0.24484003,-0.60610974,0
0.35106468,1.9535074,2.1973848,0.11856006,0.6597302,0.74209142,0
0.34107351,2.7852836,1.3167675,0.11003509,0.89857149,0.42480761,0
3.0799496,-0.43176705,-0.1165534,0.98962164,-0.13873149,-0.037449889,0
2.6551738,1.0846665,0.93357235,0.88027799,0.35960284,0.30951011,0
-0.09727741,0.20995761,-3.098062,-0.031312216,0.067582376,-0.99722219,0
0.42913413,-2.2584937,2.0295796,0.13993728,-0.73647714,0.66183007,0
-0.24952865,2.5456972,-1.7949611,-0.079852849,0.81466073,-0.57441407,0
2.9089172,-0.82834542,0.86195713,0.92493856,-0.26338619,0.2740736,0
1.0594825,0.92979038,-2.6287236,0.35519519,0.31171545,-0.88128877,0
0.65987962,-0.40604398,2.8844357,0.22094055,-0.13595143,0.96576524,0
-0.32657173,1.2624443,2.6969905,-0.10901378,0.42141989,0.9002896,0
2.6411076,0.74100155,1.0285077,0.90153527,0.25293896,0.35107845,0
2.1940539,-2.1112905,-0.043802723,0.72049212,-0.69331396,-0.014384112,0
-1.5542505,-2.3209212,1.1190706,-0.51651657,-0.77130055,0.37189534,0
1.8595091,1.758177,-1.5613251,0.62029499,0.58649266,-0.52082676,0
0.01724739,3.0717509,-0.29657724,0.0055887639,0.99535584,-0.096101508,0
1.9260298,1.9054229,-1.2632056,0.64430791,0.6374144,-0.42257571,0
-1.1078428,-0.19244134,2.9199343,-0.35406148,-0.061503369,0.93319762,0
-2.5264268,-0.71853763,-1.6098473,-0.820081,-0.23323813,-0.52255827,0
0.72998166,2.039434,2.118125,0.24094799,0.67316419,0.69913805,0
2.0301273,1.9254824,-1.1321468,0.67258698,0.63791782,-0.37508348,0
-2.819114,-0.44241855,-1.1172462,-0.91991562,-0.14436725,-0.36457276,0
-2.921169,0.50133407,0.10714266,-0.98494732,0.16903768,0.036125906,0
-2.7798123,1.1765064,-0.15582965,-0.91969121,0.38924304,-0.051555697,0
2.3257105,0.70683515,1.7235574,0.78049272,0.2372091,0.5784142,0
0.79347473,0.81407934,-2.7814398,0.26407036,0.27092764,-0.92567009,0
-1.894115,1.2915119,1.9608154,-0.6278767,0.42812091,0.64998716,0
2.1306126,-0.61243296,2.0717213,0.7021898,-0.20184062,0.68278092,0
3.0115359,-0.23023361,-0.8055281,0.96341497,-0.073653616,-0.25769502,0
-1.1597592,-2.0550084,2.0174718,-0.37356633,-0.66193223,0.64984143,0
2.7737937,0.68107134,0.82516944,0.93299669,0.22908601,0.27755502,0
