-2.8082516,0.90307814,-1.3348811,-0.86731732,0.2789121,-0.41227269,0
-1.93297,-0.70934385,-2.4840028,-0.59910601,-0.2198545,-0.76989347,0
-1.9471225,2.4386427,1.0704414,-0.59019679,0.73918259,0.32446393,0
0.30129683,1.4763108,-2.7733147,0.095462136,0.46775064,-0.87869012,0
2.9942243,-0.99623668,1.0189931,0.90294802,-0.30042839,0.30729088,0
-2.1602743,-0.43426254,-2.5611677,-0.63939893,-0.12853323,-0.75805557,0
0.50926912,-2.2341514,-2.2186947,0.15966673,-0.70045412,-0.69560808,0
2.4918821,-1.2122734,1.6768764,0.76934135,-0.37427616,0.5177173,0
1.3176435,-1.5014533,2.5901556,0.40282568,-0.45901939,0.7918539,0
-3.0938332,-0.71716267,0.38598293,-0.96705383,-0.22416687,0.12064848,0
-0.68329233,3.0657196,-1.168623,-0.2038888,0.91478544,-0.34870747,0
2.9405355,-0.073356546,-1.5287009,0.8870461,-0.022128839,-0.46115011,0
-1.5439795,-2.2914622,1.6608185,-0.47892919,-0.71079189,0.51517159,0
0.22815181,-2.1062067,2.313354,0.072733007,-0.67144215,0.73747909,0
-3.0615032,0.37814331,-0.96217495,-0.94743997,0.11702359,-0.29776323,0
-1.3789783,2.265168,2.0168848,-0.41389319,0.67987847,0.60535753,0
2.2817874,-2.3636043,0.34955895,0.69064671,-0.71541083,0.10580378,0
-0.91457349,-2.9732666,-0.80815279,-0.28455827,-0.9250952,-0.25144678,0
1.2768099,2.7096975,1.167312,0.39715886,0.84286654,0.36309892,0
-2.0844505,-0.17611945,-2.4174604,-0.6520257,-0.055090975,-0.75619274,0
-1.9824048,1.836769,1.7225733,-0.61856872,0.57312602,0.53749359,0
-0.92725098,2.9082718,-0.96597099,-0.28961128,0.90834987,-0.30170482,0
-2.5955575,0.47400802,-1.9707125,-0.78815144,0.14393444,-0.59841478,0
0.044134818,1.1920265,2.985878,0.013726376,0.37073234,0.92863834,0
0.37299666,1.8158687,-2.646821,0.11542758,0.56193894,-0.81908548,0
-2.9727764,-0.36239132,1.1770431,-0.92385721,-0.11262126,0.36579263,0
2.7537479,-0.10271216,-1.5441399,0.87176907,-0.032516152,-0.4888368,0
1.2056419,-1.2912129,2.6760864,0.37598836,-0.40267435,0.83455741,0
1.4795073,0.16023244,2.8799968,0.45639038,0.049427632,0.88840574,0
0.28397891,-0.83880377,3.1751375,0.086150251,-0.25446662,0.96323663,0
-0.95268875,-1.3391951,-2.8094761,-0.29269591,-0.41144279,-0.8631593,0
-1.5556927,-1.7868541,-2.1952167,-0.48165929,-0.55322939,-0.67966282,0
-2.9869092,-0.8286624,-1.0088985,-0.91629088,-0.25420785,-0.3094987,0
2.158175,1.6189866,-1.8248836,0.66259581,0.49705595,-0.56026977,0
-1.0962849,-3.056386,0.57966149,-0.33237019,-0.92663109,0.175741,0
0.18418379,1.1872917,3.0785291,0.055734187,0.35927558,0.93156576,0
-0.57844317,-0.9334386,-2.9643188,-0.18298303,-0.29528126,-0.93772399,0
-0.94389576,-0.90736485,-2.9879966,-0.28933752,-0.2781395,-0.91592693,0
-0.5875935,-0.919599,-3.0060961,-0.18373476,-0.28754964,-0.93997699,0
1.6530087,0.2933926,-2.8177309,0.50397253,0.089450106,-0.85907531,0
-2.4625351,2.1714725,0.54751176,-0.73982567,0.652381,0.16449034,0
0.12924889,-2.2409489,-2.2764013,0.040428668,-0.70096219,-0.71205157,0
0.39240474,2.5085897,-1.8762573,0.12429238,0.79458416,-0.5942958,0
0.24776132,-2.3991292,-2.3181288,0.074062854,-0.71716744,-0.69295418,0
-0.94593519,0.85319179,-2.9762149,-0.29219219,0.26354447,-0.91933018,0
-0.90323281,2.5170064,-1.6130501,-0.2892203,0.80595988,-0.51650786,0
-0.30112028,1.0138016,-3.0098531,-0.094387732,0.31778142,-0.94345427,0
3.021435,0.59704536,1.2143966,0.91264564,0.18034175,0.36681703,0
1.2251661,2.549881,1.4720787,0.38418087,0.79957777,0.46160638,0
0.97253859,2.150882,2.0744557,0.30947638,0.68444288,0.66012293,0
0.35725322,-2.6954174,1.7863384,0.10981283,-0.82851994,0.54908639,0
0.55594766,-3.1261661,0.14849222,0.17489859,-0.98347759,0.046714973,0
-2.7345827,1.5741806,-0.89291781,-0.83391231,0.48004714,-0.27229571,0
-1.6753111,-0.54720551,-2.7199674,-0.51690584,-0.16883653,-0.83922738,0
1.4831648,-2.8226357,-0.17541689,0.46444651,-0.88389593,-0.054931026,0
0.631275,-2.4481859,-1.9263042,0.19860873,-0.77023661,-0.60604465,0
-2.6974068,0.62933874,1.8443272,-0.81059098,0.18912101,0.55423415,0
2.9384897,1.3263992,0.090659402,0.91108727,0.41125393,0.028109211,0
1.5797168,2.0597732,1.978734,0.48398498,0.63106203,0.60623372,0
-0.44388345,-3.14972,0.21472271,-0.13923208,-0.98796666,0.067351662,0
1.938218,-2.3980434,-1.101156,0.59198183,-0.73242438,-0.33632147,0
-0.40031457,-3.0683722,-1.2140566,-0.12043094,-0.92309141,-0.36523771,0
2.8514702,-0.65889704,1.3347969,0.88647747,-0.20484078,0.41496748,0
0.66006368,0.28044412,-3.101125,0.20737341,0.088107638,-0.97428608,0
3.1568327,-0.32685393,0.44571614,0.98501605,-0.10198715,0.13907534,0
0.79094297,1.3035004,2.88627,0.24230544,0.39932746,0.8842091,0
2.9382277,0.34550706,1.2907981,0.91028696,0.10704091,0.39989981,0
3.2044582,-0.099904336,0.63364661,0.98054641,-0.030570172,0.19389233,0
-2.0053258,-2.0264525,1.6938654,-0.60471034,-0.61108118,0.5107888,0
-0.60167873,-0.53074205,-3.1666985,-0.18418242,-0.16246769,-0.96937144,0
0.1530204,1.1326364,-3.0482247,0.047004376,0.34792009,-0.9363451,0
1.2208803,-0.88409477,-2.8261282,0.38116843,-0.27602133,-0.88233942,0
-1.0150768,-3.062434,0.39204472,-0.3123301,-0.94228369,0.12062868,0
0.6112237,2.4247212,-2.2007174,0.18349172,0.7279107,-0.6606639,0
0.90363747,-0.92123979,3.0800929,0.2705912,-0.27586216,0.92232341,0
-0.53479272,-1.6448997,-2.7465618,-0.1647639,-0.50677592,-0.84618616,0
3.008297,-1.2064153,-0.052125402,0.92802691,-0.37216601,-0.016080121,0
0.09854348,1.2951411,2.9535139,0.030541848,0.40140662,0.91539061,0
-0.54735565,2.7587783,1.5936681,-0.16931935,0.85340226,0.49298632,0
1.0374829,1.4282253,-2.8376341,0.31044605,0.42736793,-0.84910536,0
-2.0358596,1.4317772,-2.1059637,-0.62443238,0.43915015,-0.64593446,0
0.93590844,1.5401781,-2.7161167,0.2871187,0.47249699,-0.83325231,0
1.2173204,2.805017,-1.1612405,0.37217236,0.85758007,-0.35502696,0
0.13864607,-2.9769547,-1.3331441,0.042467266,-0.91184074,-0.40834183,0
-2.1268044,2.247123,0.74290961,-0.66839761,0.70621055,0.23347658,0
-0.0069219409,3.0314271,-0.88044447,-0.0021927746,0.96031398,-0.27891257,0
2.0275838,-2.228457,-1.1049019,0.6318354,-0.69443148,-0.34430939,0
1.0815437,-3.0660779,0.61655879,0.32683069,-0.92653525,0.18631732,0
-2.2950079,0.63774318,-2.2422698,-0.70155358,0.19494966,-0.6854322,0
1.8212515,-2.1398869,1.7982696,0.54591537,-0.64142549,0.53902662,0
1.8218189,-0.41725579,2.6447752,0.5625481,-0.12884182,0.81666362,0
-2.1125748,1.1364841,-2.0921366,-0.66370177,0.35704607,-0.65728074,0
2.7397921,1.2600752,1.2640295,0.8378914,0.38535994,0.38656926,0
-1.5873801,-0.54488742,2.730231,-0.49531099,-0.17002149,0.85191536,0
-3.2591512,0.2763828,-0.20816399,-0.99441177,0.084328182,-0.063513689,0
3.2628913,0.19533153,0.12829739,0.99744493,0.059711594,0.039219689,0
-1.2259077,-2.0183949,-2.3222425,-0.37013727,-0.60941225,-0.70115268,0
-1.725584,2.3069818,1.2343384,-0.55056077,0.7360602,0.39382511,0
-1.1770836,-0.64660537,-2.9280679,-0.36539876,-0.2007239,-0.90895194,0
-2.2419727,-0.064018786,-2.1898632,-0.7152223,-0.020422935,-0.69859856,0
2.3594732,1.9811867,0.92129046,0.73372608,0.61609024,0.28649399,0
-1.9718337,2.5209365,-0.77693784,-0.59871185,0.76543701,-0.2359032,0
-0.81105024,0.23470569,-3.0504551,-0.25624397,0.074153133,-0.96376365,0
-2.4301598,-2.2553825,0.5905571,-0.72161508,-0.66971648,0.17536086,0
-1.971409,-0.095339112,-2.5706882,-0.6082747,-0.029416712,-0.79318124,0
-2.043268,1.1224221,-2.2507224,-0.63055038,0.3463783,-0.6945706,0
-2.8428276,1.4549441,0.23013151,-0.88788551,0.45441514,0.071875773,0
-0.36527228,-2.4541843,-2.1080043,-0.11219182,-0.75379223,-0.64746451,0
1.2599214,-0.95695651,-2.8443401,0.38710162,-0.29401788,-0.87390268,0
-2.6619134,-0.27340084,-1.8398908,-0.81970125,-0.084190197,-0.56657022,0
-0.62766504,-0.69281119,-3.0433025,-0.19715253,-0.21761523,-0.95591551,0
-0.78376591,1.5936966,2.7095594,-0.241923,0.4919222,0.83635271,0
2.946435,1.3719728,-0.43928793,0.8983717,0.41831622,-0.13393945,0
-0.68103945,-0.62323624,-3.0340502,-0.21474496,-0.19651848,-0.9566949,0
-0.95217872,3.0799861,-0.6976499,-0.2886759,0.93377197,-0.21150936,0
0.8006283,1.7184963,2.5707579,0.25064921,0.53800213,0.80481595,0
1.536998,-0.13239877,-2.9110615,0.46652508,-0.040187005,-0.88359463,0
3.0631964,1.0803823,0.73065639,0.92007142,0.32450709,0.21946228,0
-0.1800921,-3.230963,0.80725384,-0.053998228,-0.96876138,0.24204436,0
-0.73075271,2.5860715,1.7721021,-0.2270107,0.80337149,0.55050927,0
-1.2051433,2.7669952,-1.195655,-0.3712402,0.85236323,-0.36831734,0
2.3120801,-1.7714173,1.2539406,0.72910529,-0.55860943,0.39542517,0
-0.7669391,-0.33189011,-3.1317332,-0.23661384,-0.10239378,-0.96619326,0
2.361125,1.7225069,-1.5567161,0.71303129,0.52017635,-0.47010949,0
-0.03764201,2.6761217,1.8979532,-0.01147256,0.81563038,0.57845956,0
-1.2221617,-0.60937446,-2.8342602,-0.38846678,-0.19369102,-0.90087587,0
3.0387664,1.1004323,-0.50345391,0.92904228,0.33643526,-0.15392101,0
1.1428646,-2.2074754,2.0807114,0.35255387,-0.68096787,0.64186335,0
1.0057681,-2.2991331,1.9013027,0.3194519,-0.7302503,0.60389149,0
2.1531796,2.2549629,0.13043998,0.68999213,0.72260886,0.04179984,0
-3.1733322,0.52265918,-0.13522051,-0.98583519,0.16237059,-0.042007938,0
-0.86007833,-0.95275539,2.8931603,-0.27173817,-0.3010191,0.91408199,0
2.3160961,-0.22108823,-2.4099498,0.69141698,-0.066000782,-0.7194348,0
2.9599888,1.1973538,0.36819187,0.92092454,0.3725259,0.11455344,0
2.0578351,2.2103317,-0.84509367,0.65619946,0.70482737,-0.26948225,0
-1.6057287,2.4085896,-1.3675483,-0.50154889,0.75232226,-0.42715332,0
-0.71707273,-3.0553665,-0.64969921,-0.22374062,-0.95333374,-0.20271878,0
-1.84926,-1.0008143,2.4538395,-0.57225704,-0.30970392,0.75934535,0
-1.4812984,1.7641108,2.293205,-0.45572761,0.54273599,0.70551401,0
0.88391393,-2.8996563,0.96072143,0.27796179,-0.91184628,0.3021152,0
1.1492462,-0.17982948,-2.9051666,0.36724257,-0.057464659,-0.92834842,0
-0.33888897,0.90021199,3.1453342,-0.10303311,0.27369329,0.95628244,0
2.5239124,-2.1052883,-0.37718752,0.76291031,-0.63637161,-0.11401357,0
2.8563509,0.86758494,1.3484132,0.87200409,0.26486158,0.41165176,0
2.4046144,0.88031864,2.0353472,0.73512,0.26912415,0.62223053,0
2.1380217,-1.5599906,-1.8119435,0.66657633,-0.48636213,-0.56491411,0
1.7759714,2.3161128,-1.4283013,0.54655629,0.71278512,-0.43956062,0
1.3777236,2.1435151,-2.0267887,0.42315143,0.65835524,-0.62250406,0
-0.26898387,1.8751686,-2.508373,-0.085572809,0.59655416,-0.79799777,0
-1.7624066,0.099837683,2.7592874,-0.53803694,0.030478984,0.84237003,0
-1.9261711,-0.4069671,-2.4733553,-0.60931468,-0.12873779,-0.782408,0
-3.21963,-0.15169998,-0.65911037,-0.97864002,-0.046110786,-0.20034346,0
1.0400387,1.4187131,-2.7157633,0.3214255,0.4384554,-0.83931071,0
1.9628063,1.0434893,2.3812335,0.60253727,0.3203277,0.73098493,0
0.11951353,-2.2566922,2.3360977,0.036770266,-0.6943078,0.7187382,0
0.29654554,-3.2378769,-0.0073983404,0.091204464,-0.99582958,-0.0022754066,0
-1.3032308,1.0780766,-2.8231869,-0.39599177,0.3275778,-0.85783637,0
3.0555971,-0.80200833,0.15938151,0.96600896,-0.2535502,0.050387524,0
1.699599,2.2710214,-1.5024698,0.5294832,0.70750076,-0.46807069,0
-1.7139039,1.9643501,1.8149014,-0.53956127,0.61840534,0.57135671,0
0.059703372,-1.7949486,-2.8190908,0.017861595,-0.53699887,-0.84339386,0
0.74225247,1.7104818,2.7307315,0.22447628,0.51729375,0.82584357,0
-3.0872977,-0.31166914,1.022675,-0.94494516,-0.095394179,0.31301543,0
-2.9061778,-1.0457851,-1.0917306,-0.88714325,-0.31923759,-0.33326298,0
2.2824953,1.956362,-1.3938872,0.68882293,0.59040076,-0.42065427,0
2.134959,2.1632917,1.0787586,0.66197175,0.67075664,0.33448309,0
1.6345791,0.89378285,-2.5704784,0.51489365,0.2815423,-0.80970269,0
-0.54309148,2.7466712,-1.8652247,-0.16142991,0.81642765,-0.55442423,0
-3.0222557,1.1329236,-0.1052043,-0.93587518,0.35082242,-0.032577686,0
-2.9433424,1.2856581,-0.073899262,-0.91614956,0.40017605,-0.023002004,0
-1.1999278,2.5715783,1.5263679,-0.37239274,0.79807895,0.47370213,0
0.56490839,-2.8294306,1.5946968,0.17135866,-0.85827625,0.48373351,0
-2.3385079,-0.64315164,-2.0648611,-0.73416424,-0.20191462,-0.64825404,0
1.5585821,-0.85945213,-2.7081082,0.48095027,-0.2652114,-0.83567327,0
-1.5797437,-2.3537216,1.4302533,-0.49754241,-0.7413078,0.4504602,0
-2.4711096,-1.707288,1.1341918,-0.76968515,-0.531775,0.35327068,0
1.7437034,-2.3995907,1.3027569,0.53822845,-0.74068105,0.40212163,0
-0.86853814,-2.7471669,-1.5426241,-0.26575625,-0.84058112,-0.4720138,0
1.8795109,-0.69914663,2.452843,0.59323323,-0.22067283,0.77419496,0
-1.8007097,-2.0002172,-1.7839032,-0.55768681,-0.61947507,-0.55248177,0
-3.0509388,-0.40682858,-1.1553789,-0.92800009,-0.12374452,-0.35143009,0
2.5941508,-1.6954498,-0.82125664,0.8091473,-0.52883148,-0.25615996,0
2.8040619,-0.34930348,-1.554004,0.869515,-0.10831595,-0.48188302,0
0.7983765,2.8756263,1.2852458,0.24570097,0.88497621,0.39553535,0
1.2550416,-2.7694077,-1.2379014,0.38230166,-0.84359688,-0.37708056,0
2.6282241,1.7963381,0.22586648,0.82351816,0.56285799,0.070772178,0
1.8534794,0.34202221,-2.6713903,0.56692481,0.10461453,-0.81709975,0
-2.9144163,-1.1659939,0.19796336,-0.92661089,-0.37071666,0.06294056,0
2.5649438,1.1210968,-1.6549362,0.7887615,0.34475532,-0.50891954,0
-3.108444,-0.14090934,-1.0241945,-0.94889426,-0.04301447,-0.31264913,0
0.40484384,3.0154426,1.087988,0.12529296,0.93323326,0.33671561,0
1.9588373,2.1632519,1.1661376,0.62329704,0.68834126,0.37106201,0
1.5216157,-2.6932449,0.58641744,0.48328966,-0.85541797,0.18625562,0
2.3110352,-1.6432213,-1.5663863,0.7133835,-0.50723892,-0.48352107,0
-2.2697139,-1.8662314,-1.362622,-0.70074397,-0.57617414,-0.4206914,0
-0.25829053,3.0573967,1.0219035,-0.079867512,0.94539529,0.31598869,0
-0.25860772,-2.6365759,1.7599658,-0.081309155,-0.82896888,0.55335289,0
0.044326879,-2.5424638,-2.0215981,0.013645212,-0.78265059,-0.62231165,0
-0.87752903,-2.9038496,1.1482664,-0.27054203,-0.89525622,0.35401031,0
0.65409434,2.5654099,1.8548493,0.20234378,0.79360837,0.57379681,0
-3.0771396,0.77814001,0.72917348,-0.94486928,0.23893638,0.22390068,0
2.2260976,-2.2962537,0.33500984,0.69226587,-0.71408284,0.10418047,0
1.4240071,-1.6597933,2.573339,0.42166603,-0.49148524,0.7619974,0
1.7845505,-2.7957699,-0.2165404,0.53689599,-0.84112924,-0.065147869,0
0.33822221,-1.3876582,2.8538768,0.10598151,-0.43482098,0.89425874,0
-2.8899329,1.0500562,0.87234914,-0.90419418,0.32853866,0.27293816,0
-1.593014,-2.4835365,-1.3312024,-0.49213657,-0.76724946,-0.41125399,0
1.4373753,0.91792995,-2.8385398,0.43405724,0.27719563,-0.85717958,0
-1.9324976,-2.3470454,-0.97528446,-0.60525614,-0.73509204,-0.30545804,0
2.819346,-1.3035282,-1.116022,0.85421383,-0.39494684,-0.33813566,0
2.7581048,-0.47445348,-1.8016248,0.82866335,-0.14254795,-0.54129213,0
1.8827311,2.2608473,1.6222543,0.56038088,0.6729244,0.48285192,0
-2.6911643,1.655082,-0.773139,-0.8273887,0.50884897,-0.23769878,0
-1.7819014,-1.368561,2.4521103,-0.53578049,-0.41149771,0.73729831,0
2.0990849,2.3794432,0.79610509,0.64165831,0.72735959,0.24335721,0
-2.1297119,2.3860204,-0.10059726,-0.66557115,0.74567193,-0.031438354,0
0.35603932,-2.6704535,-1.7923614,0.11003003,-0.82527423,-0.55390954,0
1.4538633,-0.87590176,2.8962426,0.43308994,-0.26092154,0.86275893,0
-2.5152686,1.4278491,-1.7479814,-0.74428064,0.4225077,-0.51723647,0
-2.5084379,-1.3979962,1.6471661,-0.75770789,-0.42228383,0.49754903,0
0.10723385,2.2982793,-2.2268269,0.033490397,0.71777976,-0.69546431,0
-1.6111088,2.7631726,-0.43078882,-0.49919084,0.85614979,-0.13347691,0
3.3291872,0.29278582,-0.10641354,0.99565053,0.087562621,-0.031824794,0
-2.06301,-1.6815615,-1.710884,-0.65202957,-0.53146994,-0.54073757,0
-2.1563339,-1.3039598,-2.1693678,-0.64850336,-0.39215741,-0.6524232,0
2.2896793,-2.2126646,-0.78151625,0.69836891,-0.6748789,-0.23836817,0
2.9810421,-0.89280438,0.55463511,0.94309711,-0.28245199,0.17546709,0
-3.1127918,-0.86580288,0.67736405,-0.94292784,-0.26226929,0.20518734,0
-0.28523675,3.0083683,1.0428824,-0.089226961,0.9410693,0.32623157,0
-1.4010433,1.8500272,-2.1102605,-0.44666529,0.58980542,-0.67277014,0
-1.2973001,-1.4977661,-2.6556847,-0.39152548,-0.45202616,-0.80148625,0
-1.4147532,2.2222898,-1.7366259,-0.44837245,0.70430201,-0.55038238,0
1.566649,0.8290742,2.7692776,0.4764812,0.25215495,0.8422491,0
1.9639778,2.4487529,0.29810509,0.62285864,0.7766009,0.09454146,0
0.35929167,-2.0840154,2.3991995,0.11234247,-0.65162498,0.75017601,0
1.2136004,-2.6572537,1.3598202,0.37663063,-0.82465625,0.42200872,0
-2.1856904,1.3380282,-2.103008,-0.65930402,0.40361041,-0.63436329,0
2.9794774,-0.71808237,-0.93606788,0.92976421,-0.22408201,-0.29210573,0
0.95570576,2.7662611,1.5612594,0.28811547,0.8339414,0.470671,0
-3.1642962,0.78797191,-0.078880154,-0.97008216,0.24156952,-0.024182385,0
0.22253157,2.9464748,-1.0925013,0.070636779,0.93528074,-0.34678575,0
-0.66174555,2.9260819,1.348056,-0.20120338,0.88967365,0.40987569,0
-2.1046264,-0.089057706,-2.5763106,-0.63242328,-0.026761122,-0.77416056,0
-2.8459995,-1.0130684,1.1886197,-0.87667465,-0.3120631,0.36613947,0
-0.47128865,0.96468252,-3.0006678,-0.14788018,0.3026965,-0.94154465,0
-2.0511444,-0.042198028,2.5968342,-0.61978227,-0.012750732,0.78467017,0
3.2353861,0.71266651,-0.43489912,0.96828127,0.21328571,-0.13015592,0
-2.9015057,-0.42542017,-1.2562522,-0.90948302,-0.13334884,-0.39377487,0
-0.6787675,-1.3613919,2.9396627,-0.20506917,-0.41130358,0.88813061,0
0.96179354,2.7385602,1.3575528,0.30015469,0.8546446,0.42366245,0
1.5506423,-2.7892489,-0.20692094,0.48487842,-0.87218481,-0.064703189,0
0.13165924,-1.0692798,3.0756955,0.040399585,-0.32810807,0.94377589,0
3.3141792,-0.36940333,0.053330325,0.99371839,-0.11076132,0.015990483,0
1.2920758,0.47768146,2.9875312,0.3927485,0.14519943,0.9081111,0
-3.067122,0.71019197,0.22639048,-0.97171515,0.2250006,0.071724266,0
-2.9493504,-1.0848081,-0.98853469,-0.89527804,-0.3292945,-0.30007061,0
-0.66198432,-1.9763625,-2.469121,-0.20487125,-0.6116457,-0.76414484,0
-0.40592316,-0.5127036,3.1011062,-0.12807953,-0.1617716,0.97848129,0
2.7418547,-1.6586916,0.9676615,0.81908858,-0.49550962,0.28907457,0
1.532145,-2.6718011,0.84428871,0.47976115,-0.83662206,0.26437244,0
-1.7894431,0.55107445,-2.6900985,-0.54596758,0.16813542,-0.8207618,0
-0.40361586,2.4680161,2.1568511,-0.12221799,0.7473343,0.6531111,0
-1.4756361,-2.9761908,0.60322022,-0.43706319,-0.88150686,0.17866555,0
-1.3673002,-2.7018378,-1.1498476,-0.42212716,-0.83413953,-0.35499293,0
1.967766,-2.5442834,-0.21170293,0.61046314,-0.78931701,-0.065676928,0
2.7284513,1.5475086,0.90079725,0.83604151,0.47418159,0.2760188,0
-2.7260945,0.3445068,-1.6051513,-0.85665327,0.10825849,-0.50440592,0
3.3304272,-0.22099034,0.0096471738,0.9978016,-0.066209078,0.0028903096,0
2.8236053,1.5635488,0.86327893,0.84512258,0.46797985,0.25838473,0
-2.9149387,0.01730614,-1.393499,-0.90219378,0.0053563705,-0.43129763,0
-0.9029907,-0.011236644,3.2189887,-0.27009264,-0.0033609814,0.96282846,0
-2.3187401,0.20191255,2.3296156,-0.7041232,0.061314035,0.70742571,0
-2.5005221,-0.95932394,-1.8020269,-0.77462655,-0.29718506,-0.55824256,0
2.3872912,0.622208,-2.1345732,0.73177803,0.19072585,-0.65431219,0
-1.1497529,-1.6530689,2.5551801,-0.35341874,-0.50813138,0.78542835,0
-1.1100255,-2.5585194,-1.6578192,-0.34212914,-0.78858012,-0.51096869,0
1.5570182,-1.3450229,-2.3394802,0.49975944,-0.43171486,-0.75090796,0
1.6762353,0.88846999,2.6736755,0.51130205,0.27101001,0.81555122,0
-3.08829,0.49171942,-0.49158695,-0.97558022,0.15533248,-0.15529063,0
-0.19665265,-3.2138243,-0.0059430911,-0.061075274,-0.99813145,-0.0018457718,0
0.74327564,0.53189403,-3.0340085,0.23456897,0.16785944,-0.95749706,0
-1.2097788,0.92275351,2.8542609,-0.37402603,0.28528672,0.88244885,0
1.9412496,2.7473798,0.045627445,0.57701153,0.81662339,0.013562173,0
2.8489091,-0.93460882,1.2881901,0.87301135,-0.28639877,0.39474919,0
-0.47421509,2.9266787,-1.200412,-0.14825508,0.91497511,-0.37528792,0
-2.5937939,1.607293,1.0105277,-0.80693114,0.50002998,0.31437591,0
3.2230928,-0.60569966,-0.0087373964,0.98279297,-0.18469135,-0.0026642273,0
-1.0002781,-2.9679911,-0.97122735,-0.30504209,-0.90511048,-0.29618284,0
0.56094652,0.79284513,-3.0676856,0.17432843,0.24639684,-0.95336151,0
-0.80731189,0.14597975,3.1760917,-0.24610627,0.044501428,0.96822071,0
-0.42385185,0.089456074,3.1649997,-0.13268146,0.028003091,0.99076307,0
-1.0944923,-3.102989,-0.044967983,-0.33260521,-0.94296718,-0.013665318,0
-1.3750355,1.563558,2.5320709,-0.41944396,0.47695127,0.77238864,0
1.328784,0.64528704,-2.8772609,0.41084138,0.1995137,-0.88960868,0
0.065924495,2.1600912,-2.4115295,0.020358499,0.66706938,-0.74471742,0
0.73555183,1.0342895,-2.9964812,0.2260329,0.31783408,-0.92080981,0
0.63720745,2.4976304,-1.9534827,0.19701944,0.77224731,-0.60400122,0
-1.153049,2.2124043,1.95964,-0.36345685,0.69738019,0.6177054,0
-0.84303766,-2.8242137,1.2265781,-0.2640768,-0.88466907,0.38421869,0
-2.8778057,-0.59373885,1.5730933,-0.8634271,-0.17813927,0.47197464,0
-1.9424622,-2.4247787,-1.0802544,-0.59053516,-0.73716599,-0.32841218,0
2.996664,1.0941312,0.67937768,0.91874361,0.33544838,0.20828958,0
1.2128835,-2.8771019,-0.70750511,0.37885287,-0.89868349,-0.22099431,0
2.9643457,-1.2614655,-0.28455114,0.91658151,-0.39004764,-0.087983772,0
1.1593951,-2.9756372,0.89348805,0.34961951,-0.89731342,0.26943433,0
-1.2160751,-0.54260492,3.0367854,-0.36673838,-0.16363631,0.91581988,0
-0.075561896,-3.3108363,0.038349386,-0.022815131,-0.99967265,0.0115792,0
-1.5047393,0.39901897,-2.7466466,-0.47661489,0.12638627,-0.86997974,0
-1.2330233,3.0864823,0.27178091,-0.3697494,0.92555022,0.081499539,0
-1.6229647,1.3729601,-2.5899215,-0.48437589,0.40976167,-0.77296537,0
0.1416191,-3.1257546,0.80269027,0.04384112,-0.96764195,0.24848936,0
0.080585562,-3.0584822,1.1754521,0.024586949,-0.93315411,0.35863474,0
2.7850111,1.3721168,1.137134,0.84231746,0.41499224,0.34392244,0
1.4446908,0.84214365,2.7945125,0.44361532,0.25859362,0.85809958,0
-1.9766593,-2.6166604,0.42681515,-0.59771937,-0.79124844,0.12906407,0
0.13956277,0.59891105,3.1840551,0.04303645,0.18468396,0.98185521,0
1.8493768,1.7373545,-2.0107496,0.57122785,0.53662688,-0.62107199,0
-0.6598177,2.3950036,2.065655,-0.20422477,0.74129421,0.63935524,0
-1.5468087,-2.0088797,2.0022607,-0.47878805,-0.62181419,0.6197654,0
0.68251538,-0.28438416,-3.0823903,0.21531598,-0.089715861,-0.97241455,0
2.6463306,0.18448897,1.8080667,0.82431781,0.057467323,0.5632031,0
-1.4478917,-0.32177177,-2.9453962,-0.43905178,-0.097572535,-0.89314789,0
-2.8607173,1.6576746,0.22493273,-0.8632381,0.50021297,0.067874759,0
1.1112285,2.2811365,-1.8935164,0.35098359,0.72050124,-0.59807068,0
1.1957438,-2.9238389,0.28985202,0.37694842,-0.92171621,0.091373473,0
-0.23319779,-3.265476,-0.55488199,-0.070230074,-0.98343396,-0.1671088,0
-2.1482849,0.4802666,2.2664113,-0.67994577,0.15200742,0.71733356,0
-2.2769592,-0.67796713,-2.1968088,-0.70368576,-0.20952322,-0.67891556,0
1.6145594,-1.311071,2.4636586,0.50076622,-0.40663731,0.76411992,0
1.1680535,0.57958603,-2.8516285,0.37251231,0.18483992,-0.90943325,0
2.6905456,-1.7533505,-0.44363573,0.8299219,-0.54083604,-0.13684325,0
0.047671523,2.6729767,-1.7734964,0.014859404,0.83317757,-0.5528059,0
-2.7114129,1.640402,0.29580292,-0.85189706,0.51539683,0.092938125,0
-0.90563107,-3.1274924,0.45966423,-0.27541327,-0.95110798,0.13978942,0
2.052835,1.7449843,1.8476444,0.62836647,0.53413433,0.56555825,0
0.09563385,3.0199389,-0.84769529,0.030474938,0.96234179,-0.27012885,0
-0.17159379,-2.0984418,2.562237,-0.051742271,-0.63276267,0.77261513,0
2.5458341,0.54770446,2.0293372,0.77112997,0.16589901,0.61468375,0
1.8200744,1.7949685,2.0918374,0.55102271,0.54342192,0.63329822,0
-0.936791,2.3597512,-2.109781,-0.28378254,0.71484053,-0.63911694,0
-2.118576,-0.51453304,-2.2358742,-0.67840934,-0.16476351,-0.71597046,0
-2.8849578,-1.2688693,-0.44581565,-0.9063521,-0.39863405,-0.14005958,0
-2.1159489,0.075771727,2.555408,-0.63760328,0.022832453,0.77002645,0
-2.4029281,0.75299066,-1.9848688,-0.74942493,0.23484263,-0.61904061,0
2.9107533,-1.3035858,0.79129648,0.88579726,-0.39670581,0.24080649,0
-3.0821114,0.47295129,1.0160309,-0.93979859,0.14421248,0.30980852,0
-0.021330137,2.7232752,1.7613027,-0.0065767164,0.83966684,0.54306209,0
-1.7595491,2.6344459,0.97339422,-0.53091472,0.7949003,0.29370555,0
-0.25825742,-2.7946651,-1.7100701,-0.078580901,-0.85034263,-0.52032912,0
0.85533822,2.7134798,-1.295948,0.27359015,0.86793894,-0.41452447,0
2.4633515,-2.2484429,-0.36907366,0.73410952,-0.67006403,-0.10998856,0
0.7820918,3.1150842,-0.54873586,0.24003051,0.95604539,-0.16841163,0
-2.5316617,1.6931872,1.1300522,-0.77931559,0.5212099,0.34786135,0
0.67665476,-2.931452,-1.0686429,0.21193875,-0.91817617,-0.33471549,0
1.1879402,1.058654,2.8797641,0.36106122,0.32176608,0.87527221,0
-3.039001,-1.0976181,-0.40536708,-0.9332186,-0.33705735,-0.12448041,0
2.8701048,-1.5934986,0.53658152,0.8628369,-0.47905201,0.161312,0
-0.087891482,1.8182483,2.7544718,-0.026620504,0.55070966,0.83427227,0
-1.1836343,0.42817941,-3.011853,-0.36260089,0.13117078,-0.92266721,0
-0.25622395,-3.2293322,-0.10028938,-0.079056256,-0.99638975,-0.030943647,0
-2.4136436,-2.0249469,0.55477172,-0.75448996,-0.63298583,0.17341819,0
0.73445767,-2.9290254,-1.0206268,0.23041649,-0.91890353,-0.32019442,0
2.5586588,-0.42102179,-1.9233272,0.79252362,-0.13040805,-0.59573483,0
-0.75295871,-2.8892262,-1.4559867,-0.2266707,-0.86977267,-0.43831027,0
1.2865586,2.9683468,0.33613881,0.39554965,0.91261178,0.10334515,0
-0.97148174,-1.6206377,2.5630169,-0.30509192,-0.50895804,0.80491036,0
-0.16234747,-2.9745455,1.5153847,-0.048574232,-0.88998163,0.45340189,0
-1.4300209,2.2687571,-1.9719361,-0.42959359,0.68155891,-0.59239072,0
-0.075201869,-3.1784401,0.41179848,-0.023457427,-0.99143845,0.12845069,0
-1.5710143,-0.31902331,2.9403996,-0.46909928,-0.095259227,0.87799287,0
1.3833624,-2.1354907,1.8980427,0.43579218,-0.67273051,0.59792876,0
-0.63338631,-1.1100394,-2.8807781,-0.20097633,-0.35222048,-0.91408384,0
2.3903306,0.39616767,2.1850147,0.73263353,0.12142494,0.6697045,0
-0.61743563,-0.28492111,-3.1073096,-0.19411053,-0.089574009,-0.97688156,0
-1.3860883,2.9630153,0.6838094,-0.41476053,0.88662595,0.20461695,0
2.1174424,0.081821702,-2.5784636,0.63444465,0.024516057,-0.77257937,0
-3.087944,0.41954729,1.2365133,-0.92104077,0.12513833,0.36881471,0
-2.0715477,-1.3755115,2.012419,-0.6475746,-0.42999074,0.62909073,0
-0.30168802,2.3066723,2.3128655,-0.091966517,0.70316553,0.70505345,0
-1.9970189,-2.3679931,0.96036118,-0.6157726,-0.73016095,0.29612342,0
2.3862362,1.9891025,-0.98213851,0.7324,0.61050904,-0.30144471,0
0.53610641,-2.9151106,1.3845518,0.16387518,-0.89108104,0.42322505,0
-3.0984981,0.33501756,1.1985134,-0.92795354,0.10033271,0.35893673,0
-2.4969344,-1.1893816,-1.7393513,-0.76424086,-0.36403599,-0.5323661,0
2.3657837,0.46188858,2.2306395,0.72035122,0.14063923,0.67920154,0
1.4034878,0.99688345,2.6132178,0.44850025,0.31856528,0.83508301,0
-1.2280438,1.4869846,-2.5323856,-0.38579991,0.46714827,-0.79556948,0
-2.3448186,-1.2359356,-1.8201605,-0.72924989,-0.38438192,-0.56607866,0
-0.81745785,2.1772313,-2.3263915,-0.2485068,0.66187727,-0.70722193,0
0.53120685,3.1801915,0.85744178,0.15921958,0.95320451,0.25700256,0
-1.6762501,2.0336692,1.9132372,-0.51470804,0.62445682,0.58747709,0
-2.1882548,-1.9136251,1.4484794,-0.67375547,-0.58919799,0.44598138,0
0.64683807,-3.1068852,-0.80999076,0.19749312,-0.94859672,-0.24730703,0
2.9606991,0.83249068,-1.0739894,0.90884721,0.25555006,-0.32968304,0
-2.3084741,-0.50769055,2.1318636,-0.72524548,-0.15949942,0.66976035,0
1.1440225,1.0935022,2.8213005,0.35365522,0.33803773,0.87215739,0
-2.8028855,0.98817664,1.3290323,-0.86094058,0.30353054,0.40822855,0
-1.9205483,2.5088949,-1.0839891,-0.57495028,0.75108224,-0.32451141,0
1.3804328,2.5461292,1.5268942,0.4216212,0.77765614,0.46635443,0
2.1373632,-2.4499469,-0.34303385,0.65377057,-0.74938279,-0.10492621,0
-0.58633137,0.28321052,-3.2170901,-0.1786329,0.08628349,-0.98012519,0
1.5367736,2.6137853,-1.0980016,0.47655264,0.81053334,-0.34048969,0
1.6847264,1.7832963,2.0658302,0.52529579,0.5560298,0.64412355,0
-1.3344817,1.3569987,-2.6450891,-0.40952012,0.41643003,-0.81171381,0
2.5587125,1.3174974,1.6588709,0.77026826,0.39661604,0.49938226,0
-0.73645741,-1.5188401,2.7397604,-0.22885555,-0.47198245,0.85138577,0
-2.4985204,-0.67301935,-2.0746698,-0.75333863,-0.20292468,-0.62554181,0
-1.0882759,1.5868964,2.6760116,-0.3301807,0.48146117,0.8118965,0
1.5025061,-0.34387442,2.8086917,0.46897194,-0.10733231,0.87666702,0
-1.6164671,0.33431262,2.8634624,-0.48907232,0.1011484,0.86635864,0
3.0099459,0.71984881,-1.0324858,0.92258543,0.22064252,-0.31646961,0
1.0417284,-2.5078032,-1.7779088,0.32094631,-0.77262962,-0.54775631,0
-0.6723786,-0.63705242,3.0360115,-0.2118288,-0.20069949,0.95647699,0
2.3922894,-0.059506193,-2.2521064,0.72799855,-0.018108355,-0.68533945,0
0.46455061,-3.2570796,-0.46954516,0.13978262,-0.98005062,-0.14128546,0
-1.2363448,1.8225998,2.27934,-0.39007413,0.57504106,0.7191453,0
1.5282673,-2.8928721,0.68027389,0.45732975,-0.86568397,0.20357008,0
-1.0143385,1.5812359,-2.6263809,-0.31412452,0.48968363,-0.81334841,0
-0.36772782,1.4819447,2.8369744,-0.11413842,0.45997831,0.88056368,0
-2.067585,1.9710445,-1.3873521,-0.65107727,0.62067688,-0.43687364,0
-1.4822184,2.5395372,-1.4317299,-0.45321059,0.77650172,-0.43777296,0
0.29801139,2.8528223,1.3125741,0.094474748,0.90439379,0.41610861,0
-3.1300998,-0.094525725,0.41416177,-0.9909156,-0.029924609,0.13111383,0
2.9090304,1.0195066,-1.0517609,0.89316237,0.31302008,-0.32292315,0
-0.10060167,2.9275334,-1.2978038,-0.031399917,0.91374534,-0.40507212,0
0.29992938,-0.27786553,3.159143,0.094154842,-0.087228484,0.99172878,0
3.3185921,-0.23294087,-0.17402132,0.99618357,-0.069924794,-0.05223817,0
-3.0374124,-1.0180585,0.70782375,-0.92582816,-0.31031257,0.21575049,0
-0.8231526,1.0358342,-2.8641107,-0.2609089,0.3283211,-0.90781707,0
-1.0175686,3.1849957,0.14457899,-0.30404937,0.95167631,0.043200184,0
-3.1896789,0.48236868,-0.52775007,-0.97578603,0.14756614,-0.16144921,0
0.15543856,3.1917894,0.80081576,0.047182847,0.96885681,0.24308491,0
3.1926398,-0.28417054,0.46678281,0.98566496,-0.087732084,0.14411004,0
-2.6158674,-1.8794864,0.44933292,-0.8043254,-0.57790339,0.13816063,0
2.090641,-0.4002375,-2.3804526,0.65468454,-0.12533443,-0.74543911,0
-2.3312752,2.1644332,-0.058403738,-0.73272055,0.68028206,-0.018356312,0
1.6066726,1.6395874,-2.219697,0.50315017,0.51345783,-0.69512659,0
0.95423865,-0.51315624,-3.1095636,0.28978541,-0.15583648,-0.94431955,0
1.0233732,1.7447648,2.3755796,0.32799622,0.55920583,0.76138514,0
1.6718127,0.83977437,-2.530633,0.53122211,0.26684013,-0.8041141,0
3.0393343,-0.83949232,0.87855172,0.92853767,-0.25647071,0.26840365,0
-1.966651,2.0258741,-1.8021444,-0.58713567,0.6048165,-0.53802294,0
1.5569897,0.83363277,2.762552,0.47485852,0.25424549,0.84253699,0
3.1807768,-0.21242787,-0.37232301,0.99104089,-0.06618657,-0.11600541,0
1.6485633,2.3531406,-1.4570231,0.51174062,0.73045278,-0.45228347,0
2.4534395,-1.3828351,-1.6163143,0.75556391,-0.42585945,-0.49776193,0
-1.8372202,2.5178239,0.64504856,-0.57721436,0.79104513,0.20266013,0
-0.95202643,-1.4434454,2.7187917,-0.29547068,-0.44798735,0.84380352,0
-0.6835925,-3.0933237,-0.44747964,-0.21366242,-0.96684361,-0.13986342,0
-3.0378466,-0.97112244,0.11231759,-0.95192391,-0.30430591,0.035195261,0
2.9799268,0.4973526,1.1213877,0.92471057,0.15433507,0.34798139,0
-0.076689191,0.6135419,-3.1227436,-0.024090571,0.19273348,-0.98095536,0
-2.5502982,-1.4520471,1.2677345,-0.79776275,-0.45421711,0.39656201,0
0.82577854,0.81306255,3.0057502,0.25634032,0.25239298,0.93305278,0
-1.2558315,-1.6212783,2.3358235,-0.40402102,-0.52159113,0.7514717,0
0.75438577,-3.1363537,-0.48920295,0.23121604,-0.96127909,-0.14993863,0
-1.4264654,0.15710734,-3.0388777,-0.42445561,0.046748482,-0.90424114,0
1.8293549,0.82400405,2.4889467,0.57222193,0.25774834,0.7785421,0
-0.084144168,3.1270874,-1.2173504,-0.025067234,0.93158489,-0.36265862,0
0.7732181,-2.0430052,-2.4041696,0.23803422,-0.62893659,-0.74012059,0
-1.2226967,2.5930552,-1.4791201,-0.37901971,0.80381268,-0.4585076,0
0.49390531,-2.6586294,1.7549392,0.15321201,-0.82472074,0.54439127,0
3.0981786,-0.34661099,-0.69172233,0.97020435,-0.10854232,-0.21661502,0
0.26524553,2.82515,1.5390817,0.082167804,0.87517548,0.47677699,0
-2.2604022,1.8056515,1.4051425,-0.7028082,0.56141633,0.43688938,0
-0.65415293,1.3578701,3.0110719,-0.19426997,0.40325952,0.89422649,0
-1.5583043,2.5661557,1.1009057,-0.48731619,0.80249357,0.3442775,0
-0.23940693,0.59339869,-3.0992565,-0.07565105,0.18751018,-0.97934514,0
-2.6918755,-0.97085899,1.4564112,-0.83835477,-0.30236328,0.45358315,0
0.73508459,-1.0226547,2.9013801,0.23240562,-0.32332426,0.91730535,0
-1.154791,-1.2296211,-2.7273943,-0.36009604,-0.38343012,-0.85047764,0
-1.6453837,0.84730035,-2.5351181,-0.52420884,0.26994455,-0.80767262,0
-0.97658855,-3.1223893,0.037385732,-0.29848993,-0.95434433,0.011426782,0
1.1107526,2.2636425,2.0011482,0.34505334,0.70319659,0.6216532,0
3.1718795,0.18317187,-0.5300675,0.98472613,0.056866638,-0.16456215,0
2.6204035,-1.8929319,0.38238257,0.80500537,-0.58152127,0.11747047,0
-2.6095841,-0.50008214,-2.0888457,-0.77210391,-0.1479605,-0.6180318,0
-2.8870847,-0.17470002,1.5509725,-0.87968177,-0.053230312,0.47257435,0
-2.8266912,1.5061442,0.62093431,-0.86640626,0.46164674,0.19032195,0
-2.2001917,1.8900522,1.4938889,-0.67435855,0.57930082,0.45787677,0
0.4554877,1.7061515,-2.7660863,0.13879561,0.51989621,-0.84287822,0
-0.49101847,2.5885749,1.991419,-0.14867359,0.78378463,0.60297406,0
-1.9281148,2.4541755,1.1728029,-0.57830536,0.7360884,0.35176238,0
3.2147603,-0.45345742,-0.80591452,0.96103084,-0.13555802,-0.2409227,0
0.73096442,-2.4254782,-1.8497703,0.23303592,-0.77325726,-0.58971804,0
2.9455738,-0.066439942,-1.3083988,0.91370326,-0.02060936,-0.4058592,0
-2.3359385,-0.037325516,-2.2045233,-0.72721899,-0.011620094,-0.68630713,0
-2.2794569,0.64509588,2.1236427,-0.7164728,0.20276482,0.66749769,0
0.81598085,-1.9945731,2.4409163,0.25060028,-0.61256415,0.74964303,0
-3.2235987,0.045859948,0.48502958,-0.98877132,0.014066578,0.14877266,0
-3.1458602,0.059074856,-0.40538144,-0.99162728,0.018621374,-0.12778296,0
0.73888642,2.9879329,1.0082831,0.22813036,0.922521,0.3113063,0
2.5022244,1.9771008,0.4091247,0.77825117,0.61492527,0.1272475,0
2.7471988,1.608241,0.4064841,0.85604662,0.50113928,0.12666333,0
-2.0073442,-2.1435058,-1.4088782,-0.61628973,-0.65809369,-0.43255022,0
-1.3588998,-1.6795192,-2.4149039,-0.41938248,-0.51833177,-0.74528551,0
3.1627612,0.42927384,-0.84688973,0.95777255,0.12999612,-0.25646189,0
1.3737705,-2.9625866,-0.016324621,0.42067367,-0.90719825,-0.0049988977,0
-0.53773785,-2.5036969,2.0726981,-0.16322285,-0.75996238,0.62913871,0
2.2976055,1.4204897,-1.5950593,0.73241282,0.45281267,-0.50846058,0
-1.6759499,2.7658851,-0.67908621,-0.50716352,0.83699161,-0.20550002,0
3.1793842,-0.27830914,0.52038616,0.98320669,-0.086065531,0.16092649,0
-0.57044506,0.62662959,-3.1605475,-0.17433205,0.19150244,-0.9658857,0
0.20002468,2.1930814,2.4156938,0.061191685,0.67090893,0.73901069,0
2.340981,1.7067043,1.6522315,0.70192206,0.51173991,0.49540672,0
2.548492,0.8726604,-1.7733469,0.79021174,0.2705861,-0.54986227,0
-2.5428431,-1.25989,1.3363405,-0.81066257,-0.40165499,0.42602757,0
2.2753551,2.0267131,-0.90773898,0.715648,0.63744473,-0.28550339,0
1.9711608,1.0865914,-2.3303459,0.60841,0.33538261,-0.71927452,0
1.126562,2.9544783,-0.4070549,0.35336825,0.92673004,-0.12768075,0
1.1091932,-0.95829117,2.8821728,0.34303129,-0.29636303,0.89134645,0
0.32251105,3.222321,-0.5967561,0.097940013,0.97855306,-0.18122263,0
-0.094316632,-1.730677,-2.7034535,-0.029369732,-0.53892428,-0.84184206,0
2.4742389,0.20208837,2.2848268,0.73334908,0.059897739,0.67720848,0
2.2116435,2.2595201,0.49247074,0.69116139,0.70612329,0.15390219,0
-2.7418146,-1.2398443,-1.0822477,-0.85740244,-0.38771605,-0.33843347,0
-1.3477788,-0.56550467,2.9306118,-0.41155156,-0.17267992,0.89487821,0
-0.94410145,3.214793,0.069750674,-0.28171358,0.95927274,0.020813135,0
1.8583716,-0.3354924,2.5494835,0.58573991,-0.10574381,0.8035714,0
2.5400755,-1.3329409,-1.339395,0.80233246,-0.42103544,-0.4230741,0
2.5393491,0.17020604,-2.1317759,0.76488739,0.051268436,-0.64212066,0
1.304701,2.9355183,-0.09126088,0.40598148,0.91343999,-0.028397486,0
-1.3688303,-1.7068608,-2.4251583,-0.41908169,-0.52257323,-0.74248749,0
3.0584509,-1.2410865,-0.087844141,0.92628741,-0.37587747,-0.026604619,0
1.1745414,-2.9486902,-0.090470485,0.36989975,-0.92863464,-0.028491981,0
2.5052979,-1.5265837,1.1005063,0.79955047,-0.48719981,0.35121983,0
0.065200113,2.8674083,-1.2828423,0.020751357,0.91261524,-0.40829253,0
-0.042671945,-2.8157346,1.6507372,-0.013072642,-0.86260635,0.50570685,0
0.72692102,-0.54018068,-3.1256249,0.22338015,-0.16599554,-0.96049303,0
-2.4088867,-2.0027306,-0.75998706,-0.74727863,-0.62128192,-0.23576123,0
3.0809271,0.28846356,0.80099469,0.96387678,0.09024664,0.25059345,0
1.0450708,2.7227464,1.3571943,0.32488379,0.84642708,0.42191443,0
-2.0811021,-1.2034594,2.2922077,-0.62652212,-0.3623051,0.69007611,0
-2.7922392,1.5035434,-0.087634392,-0.88013119,0.47392625,-0.027622906,0
0.58353943,1.0385425,-2.9276252,0.18462299,0.32857904,-0.926256,0
1.0764475,-2.8034978,-1.3616273,0.3264606,-0.85023332,-0.41294876,0
1.4348011,1.3873936,2.5482523,0.44327277,0.42862651,0.78726649,0
3.003258,1.0330371,0.83271766,0.91470361,0.31463253,0.25362119,0
-1.3471687,-0.055899475,-3.0566685,-0.40324253,-0.016732162,-0.91494012,0
-3.0748148,0.95926285,-0.052695177,-0.95449507,0.29777783,-0.016357826,0
1.0401514,2.7929292,1.4301835,0.31465188,0.84487736,0.43263888,0
-0.50237292,-2.8355334,1.5351319,-0.15394534,-0.86891055,0.47042027,0
2.3421032,1.6996957,-1.3057789,0.73771256,0.53536785,-0.41129246,0
2.684562,1.6282538,0.88627648,0.82286727,0.49908954,0.27165994,0
0.95718771,-1.4796417,2.8371961,0.28658789,-0.44301385,0.84947401,0
-0.52632064,2.0956478,2.4586647,-0.16079736,0.64024591,0.75115198,0
2.8273947,1.4384059,-0.59836465,0.87584513,0.44557655,-0.18535607,0
-0.17146148,-0.089929968,3.1869318,-0.053702414,-0.028166423,0.99815965,0
-2.2962201,-2.1837363,-0.64013928,-0.71028441,-0.67549008,-0.1980128,0
-0.61164474,-3.1300175,0.096410751,-0.19169752,-0.98098874,0.030216401,0
-0.035438169,2.2564385,2.471014,-0.010589803,0.67427969,0.73840016,0
0.13811736,2.8081994,-1.5020691,0.043328557,0.8809554,-0.47121149,0
1.6138744,-0.57571524,-2.7190671,0.50214934,-0.17913106,-0.84602481,0
-0.66456342,3.0531881,0.87977546,-0.20472242,0.94055146,0.2710197,0
-1.3394079,-2.3221154,1.8667041,-0.41002846,-0.71086144,0.57144785,0
-2.2897398,1.2108588,-2.0414143,-0.69429231,0.36715522,-0.61899531,0
3.0033498,0.16555053,1.1148263,0.93624765,0.051607806,0.3475298,0
-2.1734393,-0.24774109,2.4011805,-0.66911864,-0.076269984,0.73923147,0
3.3042717,-0.04780646,-0.2194337,0.99769825,-0.014434776,-0.06625624,0
1.5945915,0.75602692,-2.7412689,0.48910964,0.23189642,-0.84083039,0
2.3160179,2.3200901,-0.50299591,0.69831324,0.69954103,-0.15166062,0
-0.049082447,-3.1945159,-0.20619754,-0.015330886,-0.99780601,-0.064405739,0
3.1482518,0.65067822,-0.7547608,0.95337969,0.19704376,-0.22856292,0
0.58449894,-2.7421725,-1.7735426,0.1761802,-0.8265481,-0.53458279,0
-0.93880659,-2.5907567,-1.8519624,-0.28276354,-0.78032213,-0.55780125,0
0.76951063,-1.6562078,-2.8007982,0.23014455,-0.49533713,-0.83766019,0
-0.33890304,2.6482296,-1.9216655,-0.10302587,0.80505669,-0.58418262,0
0.36658898,3.053309,0.94464207,0.11395179,0.94910115,0.29363582,0
-1.2174505,-1.537351,2.4865906,-0.38443908,-0.4854553,0.78520042,0
0.5715974,1.0199147,2.9859822,0.17824998,0.31805566,0.93116462,0
-2.6631577,1.287735,1.5933456,-0.79261273,0.38325748,0.47421375,0
-2.950371,-1.348016,-0.59293795,-0.89473355,-0.4088012,-0.17981517,0
-0.4378736,3.2093384,-0.69905949,-0.13214241,0.96852088,-0.21096364,0
1.0400888,-0.73736185,-2.9723916,0.32158229,-0.22798297,-0.9190259,0
-1.0814683,0.11672933,-3.1330116,-0.32609037,0.035196878,-0.94468313,0
-1.9073584,2.7142177,0.084046438,-0.57477528,0.81791925,0.025327077,0
-0.82989812,-0.25111535,-3.114099,-0.25673145,-0.077683277,-0.96335578,0
-1.7908493,-0.62884253,-2.7257681,-0.539168,-0.18932457,-0.82064247,0
2.0024376,0.14367343,-2.5784163,0.61277527,0.043966178,-0.78903323,0
-1.4554145,2.9098458,-0.15016989,-0.44685873,0.89341557,-0.046106953,0
-1.9287589,-2.1036997,1.4170671,-0.6052919,-0.66019267,0.44471046,0
0.13013904,-1.9135717,-2.4746091,0.041566335,-0.61119372,-0.79038876,0
1.5982349,-2.5171754,0.97463953,0.50948703,-0.80242789,0.31069663,0
-2.0939198,0.77337408,-2.4022987,-0.63853127,0.23583689,-0.73256999,0
-2.4076576,1.2146833,-1.7015569,-0.75506824,0.3809382,-0.53362721,0
-0.27709204,-1.1392345,2.9715586,-0.086740494,-0.35662436,0.93021244,0
1.9681685,1.9953934,1.7330859,0.597269,0.6055308,0.52592981,0
-0.95308006,3.1946192,0.12919441,-0.28567302,0.95754445,0.0387243,0
2.1698687,1.2297949,1.9060293,0.69124877,0.39177218,0.60719824,0
2.1420617,2.4462636,-0.26210901,0.65664995,0.74990314,-0.080349632,0
2.2236769,-2.1911242,0.9966346,0.67856097,-0.66862744,0.30412573,0
1.5554482,-0.45803919,2.8368578,0.47602668,-0.14017753,0.86818713,0
-2.2992697,0.91813308,2.0391634,-0.71685076,0.28624931,0.63575655,0
2.5107377,0.88285542,1.7796526,0.7842074,0.27575231,0.55585921,0
-0.9067868,-0.7027995,3.1465204,-0.27075163,-0.20984438,0.93949926,0
1.080412,-0.40981916,-2.9843736,0.33760029,-0.12805769,-0.93253809,0
-2.1997366,-1.5153006,-1.7386501,-0.69019073,-0.47544166,-0.54551995,0
-1.098317,3.0612471,0.73049134,-0.32949451,0.91837245,0.219147,0
3.1898766,0.16390806,0.91904187,0.9597438,0.049315307,0.27651376,0
-2.9230044,1.5384167,-0.52752006,-0.87384546,0.45991668,-0.15770453,0
-2.7769413,-0.060347036,1.6401871,-0.86087537,-0.018708093,0.50847191,0
1.1212469,-3.0510101,0.78962481,0.33519578,-0.9120968,0.23605764,0
-2.3632846,-2.2186189,-0.24981342,-0.72691363,-0.6824165,-0.076839149,0
-2.8002942,0.079022884,1.6586146,-0.86014837,0.024272952,0.50946599,0
-0.73267663,-3.1856463,-0.21982728,-0.22363615,-0.97236031,-0.06709826,0
-1.5699035,-2.4707975,-1.2918563,-0.49063486,-0.77218723,-0.40373802,0
1.1684076,-2.3066041,1.9304142,0.36209726,-0.71483195,0.59824818,0
-1.3217854,-0.28243625,-3.0373988,-0.39758244,-0.08495456,-0.91362518,0
3.1517594,0.27994594,0.79849821,0.96580023,0.08578442,0.24468549,0
-1.8954192,2.1410022,1.3849709,-0.59656763,0.67386281,0.4359082,0
2.992121,1.3164901,-0.17371467,0.91403019,0.40216011,-0.053066187,0
0.5996244,3.2231355,0.61515301,0.17976235,0.9662689,0.18441769,0
-2.1247411,0.79105455,-2.1465981,-0.68052536,0.25336391,-0.68752587,0
-0.88722003,-1.0140386,-2.8851969,-0.27862287,-0.31844899,-0.90606815,0
-2.9434216,0.10967246,-1.2756587,-0.91699988,0.034167595,-0.39742145,0
0.03507394,-2.109473,2.4450884,0.010860541,-0.65319204,0.75711435,0
-0.54634857,0.93802279,3.022779,-0.17010735,0.29205635,0.94115174,0
-2.6538382,1.5542668,0.70001882,-0.84138119,0.49276966,0.22193618,0
-3.1250513,1.0959603,-0.16798215,-0.94244009,0.33051518,-0.050659362,0
2.0151694,-2.6283867,0.011952154,0.60844141,-0.79359055,0.003608722,0
3.3294394,-0.26056686,-0.068294726,0.9967432,-0.078006595,-0.020445574,0
2.3770449,-1.2617922,-1.6321605,0.75523001,-0.40089414,-0.51856685,0
0.45074621,2.0892913,2.5179358,0.13647507,0.63258696,0.76237017,0
0.58446789,1.6978886,-2.6800292,0.18117498,0.52631623,-0.83076286,0
2.9368219,1.5206839,0.17827149,0.88672811,0.45914707,0.053826328,0
-2.8629448,1.1795298,0.7536056,-0.89837736,0.37013036,0.23647755,0
-1.5887132,0.74340177,2.6175628,-0.5042063,0.23593172,0.83072996,0
2.127377,0.13864142,2.489809,0.64902192,0.042296838,0.75959301,0
-3.0736325,0.54508561,0.7267918,-0.9589867,0.17006908,0.22676219,0
-0.41557077,-2.840378,-1.4153247,-0.1298431,-0.88746256,-0.44221142,0
-2.5354066,-1.6742629,1.0005983,-0.7925995,-0.5233953,0.31279942,0
1.6968004,-2.353276,-1.2044824,0.5401572,-0.74913883,-0.38343337,0
-1.0895627,2.583945,1.5804813,-0.33848059,0.80272138,0.49098805,0
0.77809232,-0.99486083,-3.0732663,0.23417678,-0.29941601,-0.92493856,0
0.81892192,-1.0487304,-3.0073555,0.2490211,-0.31890219,-0.91448885,0
-2.5521712,-1.4735057,1.2443941,-0.79781401,-0.46062097,0.38900018,0
-0.44573349,3.2955441,0.13203143,-0.13392746,0.99019676,0.039670866,0
0.97041577,0.45791605,3.147449,0.29182526,0.13770539,0.94650686,0
2.7503717,0.41609159,1.729465,0.83968681,0.1270325,0.52800459,0
0.84624046,-2.1178467,2.2730598,0.26281014,-0.65772277,0.70592606,0
-2.3560636,-2.065388,1.0057753,-0.715985,-0.62765145,0.30564541,0
0.35662445,1.7708353,-2.5806584,0.11321219,0.56216037,-0.81924272,0
-1.7181118,2.0057135,-1.731128,-0.54408783,0.63516492,-0.54820979,0
-0.49293417,0.55641842,3.0714123,-0.15598746,0.17607684,0.97193867,0
-0.99050891,0.95074874,-2.8935113,-0.3092708,0.29685631,-0.90345329,0
2.3156526,0.73998213,-2.2328537,0.70153719,0.22418086,-0.67645288,0
1.9708463,-2.4437244,-0.75152993,0.61052269,-0.75700939,-0.23280661,0
-2.9978948,0.93965507,-0.7657488,-0.92708415,0.29058367,-0.23680402,0
-2.2365103,2.0921612,1.2369976,-0.67713124,0.6334278,0.3745164,0
2.1117318,-1.8678544,1.6329229,0.64816314,-0.57330877,0.5012002,0
0.69230455,-2.9508872,-0.92226213,0.21851563,-0.93140364,-0.29109833,0
-2.0543327,-2.3442497,0.029312467,-0.65904117,-0.75204813,0.0094035994,0
0.26592007,-3.1740594,-0.18732305,0.083342686,-0.99479008,-0.058709394,0
1.420577,2.8847938,-0.012939111,0.4417733,0.89711773,-0.0040238253,0
-1.3210192,0.7594803,2.904695,-0.40273562,0.23154074,0.88554668,0
1.3645066,1.9941174,-2.1094582,0.42540836,0.62170029,-0.65765977,0
-2.9455698,-0.13628908,1.4869111,-0.89194757,-0.041269679,0.45025134,0
0.97661889,1.4258122,-2.7525082,0.30049062,0.43870053,-0.84690446,0
2.9919839,0.63366818,1.0752766,0.92291909,0.19546378,0.33168405,0
-1.5410612,-1.2292125,-2.6285303,-0.46903849,-0.37412399,-0.80002135,0
-2.9063821,0.95960116,0.91876066,-0.90948814,0.30028602,0.28750589,0
1.160735,-1.4770446,-2.5759561,0.36407405,-0.46328714,-0.80796975,0
1.7917756,-2.5447459,0.62418902,0.56447381,-0.80168653,0.196642,0
2.0700586,2.434566,-0.076732427,0.64758486,0.76161522,-0.024004517,0
-2.3614206,-1.0803441,-1.9021126,-0.73360521,-0.33562255,-0.59091532,0
2.5810392,-0.25400919,1.9293385,0.79848158,-0.078581393,0.59686857,0
-0.9635852,0.20469244,-3.0336056,-0.30210799,0.064176187,-0.95111102,0
-3.1842568,0.22194402,0.63936627,-0.97815019,0.068177477,0.19640258,0
1.930979,-2.4818149,1.1089281,0.57911927,-0.74432021,0.33257824,0
1.2862395,1.3645324,-2.661535,0.39506289,0.41911021,-0.81747895,0
0.64401245,-3.0996728,-0.59799308,0.19988902,-0.96207851,-0.1856055,0
0.39313409,-2.9240518,-1.2479001,0.12272331,-0.91279113,-0.38955268,0
1.9067296,1.17126,-2.3570845,0.58666337,0.3603738,-0.72522879,0
0.75810361,-0.10981335,-3.125545,0.23557895,-0.034124248,-0.9712559,0
-0.63888824,-2.5913715,-1.8516973,-0.19667722,-0.79773539,-0.57003188,0
-0.58110082,2.4150157,2.0836918,-0.17923135,0.74487334,0.64268178,0
2.2207401,-1.4251049,1.9005193,0.68291414,-0.43824321,0.58444095,0
-1.8115118,-0.89770514,-2.5212736,-0.56053418,-0.27777597,-0.78015506,0
-1.5434561,-2.7738123,-0.069389224,-0.48611629,-0.87362081,-0.021854352,0
0.15417439,-3.1453507,-0.3095859,0.048722941,-0.99400908,-0.097836845,0
-2.1475332,-2.2823355,0.96155852,-0.65512711,-0.69624996,0.29333332,0
1.5058937,2.8475471,-0.42949533,0.46339124,0.8762427,-0.13216363,0
-0.63032573,1.9882022,2.4891617,-0.19409634,0.61222756,0.76648813,0
1.3356533,-2.3330095,1.8523544,0.40912259,-0.71462172,0.56739277,0
2.6901352,-1.7828276,-0.67564839,0.81587446,-0.54070276,-0.20491321,0
-2.3386686,0.65085608,-2.2880423,-0.70106411,0.19510752,-0.68588781,0
1.9423172,-0.46562213,2.6158271,0.59015596,-0.14147519,0.79479599,0
2.7511287,1.6364603,-0.82448083,0.83228248,0.49506855,-0.24942525,0
-1.0251588,-2.945214,0.55309838,-0.32367986,-0.92991108,0.17463325,0
1.0435028,-2.3355985,2.1743562,0.31081221,-0.69566894,0.6476422,0
-0.68679285,2.997798,0.87181622,-0.214848,0.93779498,0.27272847,0
-0.40164781,-2.963237,-1.2289826,-0.12423257,-0.91655064,-0.38013318,0
2.3938088,-1.8829427,-1.2681432,0.72559714,-0.57074642,-0.38439205,0
0.20321204,1.5671827,2.9041731,0.061462186,0.47399983,0.87837726,0
2.9969099,1.1164746,-0.47617495,0.92686683,0.34529677,-0.14726861,0
0.8213318,-3.2402799,-0.062603422,0.24566211,-0.96917468,-0.018724818,0
1.948469,-2.3029473,1.3579674,0.58898199,-0.69613343,0.41048554,0
-1.0647246,-1.6907324,2.6577733,-0.32021287,-0.50848293,0.79931772,0
