2.9977849,-0.51685333,-1.6469556,0.86660314,-0.14941256,-0.47610384,0
2.5737684,0.30666804,2.181097,0.75977218,0.0905279,0.64385629,0
-2.4185529,1.9927244,1.4618388,-0.69942093,0.57627565,0.42274895,0
3.3330858,-0.33023167,1.1648455,0.93990928,-0.093123257,0.32847911,0
-3.2561319,0.51934743,-1.213668,-0.9267329,0.14781231,-0.345424,0
1.8796898,2.4246695,1.676911,0.53761876,0.69349092,0.47962105,0
-1.7081734,0.24143018,-3.04497,-0.48808965,0.068985716,-0.87006289,0
-1.2334664,-2.2641537,2.4027472,-0.34998432,-0.64243203,0.68175662,0
-2.6410213,-2.343822,-0.26661822,-0.74581379,-0.66188592,-0.075291909,0
2.0912027,-1.0561217,-2.6085343,0.59644127,-0.30122119,-0.74399173,0
1.941411,2.9557533,0.32502469,0.54668778,0.8323195,0.091524683,0
0.32639357,-2.3630672,-2.5941181,0.092614636,-0.67052364,-0.73608464,0
-0.6425094,-1.9252381,2.8415425,-0.18399724,-0.55133593,0.81374061,0
2.3777728,-0.93929511,2.4269433,0.6745317,-0.26646125,0.6884805,0
1.9421448,0.048014272,2.9202719,0.55371958,0.013689217,0.8325907,0
-0.56161922,0.53773046,-3.3118062,-0.16509196,0.15806969,-0.97352898,0
-2.686291,-0.21292092,-2.2303107,-0.76795757,-0.060869887,-0.63760179,0
-1.8619162,2.7554848,-1.1037886,-0.53137392,0.78639024,-0.3150112,0
2.5741241,-1.4090155,-1.9857391,0.72648734,-0.39766225,-0.56042922,0
-2.3912597,-2.599704,-0.12285943,-0.6765756,-0.73555225,-0.034761466,0
-0.42244259,1.0952666,-3.262768,-0.12182832,0.31586418,-0.94095045,0
2.6569006,-2.1969228,0.026552139,0.77064091,-0.63722312,0.0077015166,0
1.3159657,-3.2043273,0.45926413,0.37659934,-0.91700536,0.13143091,0
0.83537722,3.4837029,-0.12583427,0.23304145,0.97183305,-0.035103425,0
0.81732178,-3.3682847,0.36933631,0.23448178,-0.96632862,0.10595904,0
-2.1117837,-2.5435231,-1.1653879,-0.60245103,-0.72561795,-0.33246261,0
2.3824716,-0.66135389,-2.5936224,0.66487163,-0.18456273,-0.72379708,0
-0.58088416,1.7374648,3.0320084,-0.16397589,0.49046329,0.85589582,0
2.6216872,1.89691,-1.0952649,0.76740509,0.55525249,-0.32059962,0
-1.4142815,-2.471648,-2.0944438,-0.40008435,-0.69920146,-0.59249461,0
0.32905516,-1.1160241,3.2134087,0.096283384,-0.32655489,0.94026136,0
3.2868609,-1.4118891,0.30507883,0.91549414,-0.3932555,0.084974051,0
2.3881142,0.20147112,2.4512556,0.69661534,0.058769327,0.71503371,0
0.26506704,2.368773,-2.5709779,0.075606175,0.67565501,-0.73333073,0
2.4214649,1.440902,-2.1044209,0.6885311,0.40971309,-0.59838128,0
-2.9582512,1.1081957,1.4875236,-0.84722006,0.31737858,0.42601514,0
1.7995583,-0.76256204,-2.7926693,0.52793831,-0.22371364,-0.81928837,0
-3.4264402,0.57818478,-0.3945587,-0.9797644,0.16532752,-0.11282104,0
-2.6747518,-2.1795611,0.35012749,-0.7712552,-0.62846875,0.10095802,0
3.4498503,0.18949623,-0.56791383,0.98527336,0.054119911,-0.16219555,0
0.76608574,2.1881459,2.6918304,0.21564212,0.61593157,0.75771153,0
0.38770401,-0.80155838,-3.4503624,0.10880174,-0.22494209,-0.96827847,0
0.70861512,2.6368966,-2.0915613,0.20602421,0.7666567,-0.60810483,0
2.4678106,2.5210173,0.59820187,0.68968076,0.70455045,0.1671799,0
0.14111134,3.3883727,0.53220534,0.041106589,0.98705345,0.15503463,0
2.4002607,-2.7065403,0.0950545,0.66327697,-0.74791288,0.026266923,0
-1.1170465,-0.3304942,-3.2200882,-0.32620946,-0.096513741,-0.94035769,0
-0.55576158,-1.3004247,3.260628,-0.1563717,-0.3658936,0.91742563,0
2.9540663,-1.8877898,-0.34077018,0.83868265,-0.53595835,-0.096747331,0
-3.2713127,-0.96065849,0.71129507,-0.93926126,-0.27582484,0.20422746,0
1.3028508,1.9852123,-2.4938533,0.37834916,0.57650763,-0.72421741,0
0.36992934,0.28452149,3.5178363,0.10424486,0.08017721,0.99131459,0
1.7674961,-2.8686278,-0.61512989,0.51603907,-0.83752602,-0.17959364,0
1.807989,-2.9299333,-0.44732925,0.52076328,-0.84392196,-0.12884627,0
1.4727607,2.3112171,-2.1704974,0.4212738,0.66110891,-0.62085694,0
0.4206357,0.59446126,3.3868752,0.12142079,0.1715973,0.97765607,0
1.8675847,-3.0352781,0.26305342,0.52261895,-0.84938252,0.073612027,0
-0.1795039,-3.4646173,0.79264843,-0.050441381,-0.97357255,0.22273767,0
-0.81848264,2.5474467,2.3324571,-0.23058361,0.71766883,0.65710175,0
2.7925699,-1.6586839,-1.1951723,0.80688155,-0.479258,-0.34533155,0
-0.22998171,0.074804403,3.5526595,-0.064585611,0.021007271,0.99769104,0
1.2484888,3.1078258,-0.60728121,0.3667888,0.91303641,-0.17841086,0
-0.18205494,3.4176331,-1.0639755,-0.05079589,0.95356774,-0.29686412,0
2.2464907,-1.976604,1.5825373,0.66366386,-0.58393323,0.46751708,0
-1.0077456,2.0983,-2.7507293,-0.27966052,0.58230138,-0.76335776,0
-1.1888578,-2.1691546,2.4281929,-0.34298319,-0.62579691,0.70052892,0
-2.5659077,-2.3387599,0.336436,-0.73561674,-0.67049599,0.0964524,0
-0.5751704,-1.7572435,-3.0614536,-0.16082016,-0.49133295,-0.85599577,0
2.7809908,1.5358174,-1.2777309,0.81215453,0.44851679,-0.37314579,0
2.6850882,-0.16648793,2.2703321,0.76276529,-0.047294989,0.64494365,0
-2.8481493,-0.75397611,1.6946626,-0.83796954,-0.22183143,0.49859592,0
-0.99848461,1.3214319,-3.1040354,-0.28380027,0.3755919,-0.88226312,0
1.8767713,1.1467676,2.7436633,0.53372025,0.32612023,0.78024888,0
-1.9228675,-2.9395332,0.30997795,-0.54530269,-0.83361715,0.087906107,0
-1.2185618,1.3528497,-2.9448903,-0.35195222,0.39073807,-0.85056067,0
-2.1039519,-1.6496809,2.1774178,-0.61018193,-0.47843558,0.63148826,0
3.4233496,-0.75103199,-0.33572516,0.97231954,-0.21331245,-0.095354594,0
-2.8347473,-0.70975995,-1.9798899,-0.80308914,-0.20107631,-0.56090647,0
-0.8675428,1.4956902,-3.0981236,-0.24451809,0.42156228,-0.87321025,0
-0.37566724,-2.2613034,-2.5553675,-0.10943276,-0.65872306,-0.74438459,0
0.89896852,0.51746714,-3.2556806,0.26309288,0.15144236,-0.95281023,0
-2.4504986,-2.5077326,0.043966457,-0.698843,-0.7151652,0.01253853,0
-2.0351698,-0.29133484,-2.7320242,-0.59522271,-0.085206211,-0.79903054,0
-1.5677167,-3.1520257,0.4243131,-0.44212735,-0.88893402,0.11966474,0
2.724158,1.6614908,1.5528036,0.76766431,0.46820602,0.43757811,0
0.3385438,-2.1704659,2.6365378,0.098650664,-0.63246733,0.76827931,0
0.14703993,1.5855513,3.1675291,0.041475136,0.44723192,0.89345586,0
-0.98613214,-3.1687057,1.1219914,-0.28149918,-0.90453202,0.3202813,0
-0.27576995,-2.2325194,-2.6734402,-0.07892853,-0.63897276,-0.76516938,0
0.75018173,1.4238963,-3.0208759,0.21916834,0.41599652,-0.88255996,0
-0.035502642,3.5802593,-0.16894649,-0.0099047134,0.9988395,-0.047133576,0
1.0881902,-3.3565445,0.53722334,0.30488387,-0.94042039,0.15051663,0
0.61432648,-0.81965667,-3.3983953,0.17307839,-0.23092747,-0.95745307,0
0.99266404,-3.344624,0.38102427,0.28284505,-0.9530015,0.10856728,0
1.3213377,2.1122947,2.4756689,0.37619677,0.60138935,0.70484525,0
-1.5960745,-2.9267523,1.3704034,-0.44281897,-0.81200564,0.38020822,0
-0.97546214,3.314471,0.62031686,-0.27788758,0.94421947,0.17671455,0
-0.10415191,-3.1053233,-1.7200636,-0.029326934,-0.87439215,-0.48433286,0
0.055380542,-1.7902458,3.0988159,0.015472862,-0.50017977,0.86578333,0
0.32120049,-2.1863196,2.7386527,0.091275997,-0.62128949,0.77824676,0
-1.0417415,3.3502665,-0.79149038,-0.28964132,0.93149364,-0.22006257,0
-0.063191503,-2.1769638,-2.7091377,-0.018179363,-0.62628376,-0.77938318,0
-0.19482651,0.23844993,3.4525242,-0.056207065,0.068792336,0.99604642,0
-2.6359279,-0.4408209,-2.2371595,-0.75629854,-0.12648001,-0.64188421,0
-3.5514009,-0.42981881,0.11222328,-0.99226743,-0.12009211,0.031355377,0
0.31799248,-2.0006628,-2.7461126,0.093185611,-0.58628112,-0.8047303,0
-1.6857098,0.092378035,-3.0084307,-0.48864633,0.026778148,-0.87207097,0
-3.3329544,1.0421647,0.21608399,-0.95260775,0.29786611,0.061760005,0
-1.89601,2.6005743,-1.5446562,-0.53111809,0.7284835,-0.43269542,0
-3.1619949,1.2685062,-0.88140494,-0.89851904,0.36046132,-0.25046185,0
-1.4817208,-2.6378965,1.6309167,-0.43109205,-0.76747,0.47449914,0
-2.8641491,-1.2943162,-1.5834856,-0.81382221,-0.36776829,-0.4499332,0
-2.6982636,-1.8734913,1.1788684,-0.77313423,-0.53681201,0.33778152,0
2.8266358,0.68475652,-1.769761,0.83025759,0.20113108,-0.51982558,0
1.8628553,-0.91742468,2.7557466,0.53987783,-0.26588067,0.79864848,0
-0.17822558,0.76106155,-3.4190078,-0.050816763,0.2169985,-0.97484833,0
2.6860392,-1.2072723,1.7998629,0.77825743,-0.34979707,0.52149522,0
0.59035027,1.5539091,-2.9808013,0.17297289,0.45529604,-0.87337613,0
2.7625155,-2.0613854,-0.38402608,0.79653156,-0.59437078,-0.11072839,0
-0.090626366,-3.4151547,-0.58130747,-0.026151324,-0.98548377,-0.16774324,0
-0.13801943,-3.5842741,0.23353347,-0.03839713,-0.99714828,0.064969227,0
2.7308502,-0.91571188,2.2215097,0.75075573,-0.2517443,0.61072963,0
0.65612686,-2.3812151,-2.3577476,0.19215196,-0.69735777,-0.69048512,0
3.5458505,-0.1664611,0.15951706,0.9978928,-0.046846401,0.044892173,0
-0.08452756,2.9885511,1.9297893,-0.023753941,0.83984292,0.54230952,0
-3.3294256,-0.65724272,1.1253953,-0.93120104,-0.18382303,0.31475979,0
1.3165189,-0.86759263,3.2317722,0.36611959,-0.24127467,0.89874524,0
-3.199966,-0.38196328,1.3463882,-0.91620618,-0.10936277,0.38549447,0
-1.3702364,-1.1486353,-3.08003,-0.38474771,-0.32252449,-0.86483943,0
-3.0307229,1.6215414,-0.83678353,-0.85670799,0.45836836,-0.23653734,0
-1.5580803,0.49453485,3.1701179,-0.43683267,0.13865073,0.88879311,0
0.15370619,-0.37477714,-3.5105085,0.04349599,-0.10605495,-0.9934085,0
-1.2588124,-0.90443641,-3.1642368,-0.35726258,-0.25668737,-0.89803958,0
3.2360206,1.0534219,0.76550615,0.92770553,0.30199599,0.21945605,0
2.5888131,2.3117759,-0.53448522,0.73719954,0.65830946,-0.15220191,0
1.5532832,-3.1591647,-0.17377305,0.44069061,-0.89630413,-0.049302116,0
-2.7496057,-1.3594022,1.7378565,-0.77994126,-0.38560215,0.49295288,0
-1.6453534,-2.8091745,-1.1655539,-0.47582263,-0.81239009,-0.33706856,0
-0.33018425,0.49642986,3.3537366,-0.096932843,0.1457379,0.98456311,0
0.017806232,-0.38275594,3.4578931,0.0051181186,-0.11001712,0.99391651,0
-2.5787838,1.8174015,1.5349294,-0.73502493,0.5180099,0.43749747,0
-3.3850086,-0.091925427,0.70697373,-0.97853279,-0.026573652,0.20437081,0
-1.1872828,0.40033963,-3.195586,-0.34589997,0.11663394,-0.93099391,0
1.7791573,0.32398105,-2.9444108,0.51488906,0.093760282,-0.85211402,0
-0.202528,0.4928304,3.4807844,-0.057514645,0.13995579,0.98848593,0
2.6375165,-2.357074,0.61690575,0.73454851,-0.65644526,0.17180829,0
0.94304156,3.2686357,-1.0779321,0.26425743,0.91593128,-0.30205622,0
2.3673508,-1.1721051,2.2746925,0.67909652,-0.33622918,0.6525166,0
2.6833196,-0.38485777,2.2249062,0.7651487,-0.10974221,0.63443214,0
-0.033792298,-1.8785119,-2.9463282,-0.009670428,-0.53757852,-0.84315825,0
-0.97624528,-1.1368512,3.2781224,-0.27084953,-0.31540805,0.90948248,0
-3.3079093,0.81403375,0.25371075,-0.96834809,0.23829795,0.074270576,0
1.8246483,2.5412192,1.4427752,0.52963525,0.73763222,0.4187901,0
0.18499838,1.159812,3.361084,0.051960357,0.32575554,0.94402516,0
2.2885466,-0.32795444,2.6149595,0.65566564,-0.093958519,0.74918246,0
-2.9146154,0.24555443,-1.8998382,-0.83566302,0.07040406,-0.54471147,0
-0.2454838,3.4390457,-0.17629264,-0.07110732,0.99616069,-0.051065274,0
-2.4733696,-2.2652864,-1.2541173,-0.69073743,-0.63262612,-0.35023707,0
-2.8847299,-0.43768194,1.8518282,-0.83475214,-0.12665169,0.53586215,0
-0.13793586,-3.4841585,0.33531517,-0.039376792,-0.99462885,0.095723011,0
-2.8597016,-0.57728004,1.971634,-0.81215024,-0.16394652,0.55994064,0
-1.8355497,-2.4967232,1.4710212,-0.53510308,-0.72784966,0.428835,0
0.91763312,-1.2932611,-3.1106732,0.26281604,-0.37039828,-0.89091682,0
-1.1340706,0.76078337,3.1231477,-0.33270282,0.22319137,0.91623926,0
2.8636889,-1.1554151,1.833179,0.79743302,-0.32174098,0.51047355,0
2.9293826,-1.5075346,1.1409527,0.84020609,-0.43239138,0.32724828,0
-0.65776736,3.2700822,-0.93782705,-0.18983667,0.94377065,-0.27066404,0
-2.6564689,-1.4116015,-1.8351139,-0.75386721,-0.40059197,-0.5207786,0
-2.8632812,-1.2494231,1.4094157,-0.83545113,-0.36455795,0.41124076,0
-1.8158607,0.14832565,3.0040755,-0.51684195,0.042217396,0.85503924,0
1.3770807,0.34817603,-3.1209359,0.40160215,0.10153961,-0.91016781,0
-2.2266586,2.1381886,-1.7096949,-0.63098365,0.60591328,-0.48448807,0
1.5397696,0.92367786,-3.1317267,0.42653415,0.25586954,-0.86752486,0
0.62713158,-0.18498427,3.4171469,0.18025485,-0.05316956,0.98218191,0
-1.4733694,0.057027429,3.1264563,-0.42623541,0.016497634,0.9044618,0
0.62628865,-2.8925891,-1.7755228,0.18146214,-0.83810461,-0.51444358,0
2.8544421,1.9880167,0.73466331,0.80288154,0.55917823,0.206642,0
1.9394693,-2.8613758,0.63390696,0.55186707,-0.81419128,0.18037531,0
-2.9290574,1.1224337,-1.3764912,-0.85507756,0.32767123,-0.40183806,0
-0.9079262,1.6657106,-2.9905586,-0.25636625,0.47033778,-0.844428,0
-2.4988201,1.2308464,-2.2922938,-0.69268322,0.3411957,-0.63543326,0
-1.8100865,-1.7097975,-2.3513319,-0.52853841,-0.49925441,-0.68658,0
0.95954919,1.7235706,-2.8952248,0.27389145,0.49197191,-0.82640612,0
1.8729562,-2.5244796,1.495141,0.53807229,-0.72524524,0.42953166,0
1.7094991,0.60724884,-3.0964568,0.47634843,0.16920865,-0.86282134,0
-0.20960972,-3.4014511,-0.13146169,-0.061461229,-0.99736488,-0.038546864,0
0.80899012,-3.3255136,-0.44651651,0.23438768,-0.9634968,-0.12936866,0
-3.006268,1.6382641,-0.032160226,-0.87804323,0.47848916,-0.0093930643,0
-0.061617702,-3.4784224,-0.18040487,-0.017687723,-0.99850154,-0.051786274,0
-0.26434809,3.4527559,1.0186869,-0.073234975,0.95655119,0.28221694,0
-2.4753728,2.0966165,1.2960976,-0.708606,0.60018235,0.37102392,0
-0.38795355,1.9565862,-2.7812788,-0.11335025,0.57166523,-0.81261963,0
2.2063522,0.69485784,2.8010886,0.60734946,0.19127569,0.7710644,0
1.3395784,-0.2498924,-3.2742736,0.3777166,-0.070461355,-0.92323637,0
-2.7722473,-1.0824416,1.9543818,-0.77862769,-0.30402011,0.54891777,0
1.6928465,2.5859737,1.7472001,0.4767977,0.72835094,0.49210662,0
-2.5505383,0.37979749,-2.282995,-0.74056125,0.11027605,-0.66287875,0
3.4390395,0.6100781,0.77460957,0.96127051,0.17052728,0.21651666,0
0.10430163,-1.9239931,2.8904018,0.030025519,-0.55386376,0.83206576,0
-1.883873,-1.4097725,2.6045465,-0.53671598,-0.40164462,0.7420361,0
-2.7096813,1.5549288,1.4528599,-0.78645694,0.45130199,0.42167756,0
-0.55224615,-3.4873066,0.45869926,-0.15510643,-0.97946119,0.12883241,0
-0.44674116,-1.383112,-3.1395025,-0.12912968,-0.39978588,-0.90746719,0
2.9397707,1.3050467,-1.2721175,0.84992582,0.37730592,-0.36778566,0
-0.66933274,-3.3029597,-0.72276992,-0.19419357,-0.95828801,-0.20969731,0
3.2911749,0.28772622,-1.2481757,0.93190825,0.081470735,-0.35342553,0
0.70658916,2.662066,-2.0659864,0.2052256,0.7731849,-0.60005635,0
2.6070929,-1.8680477,-1.0775365,0.77054662,-0.55211604,-0.31847429,0
-0.17684336,-3.1982729,1.40695,-0.050547864,-0.91417551,0.4021543,0
-0.69136977,-1.2906499,-3.2446401,-0.19422139,-0.36257273,-0.91149276,0
0.077889711,3.191067,-1.2350967,0.022757227,0.93234181,-0.36086121,0
-1.3502953,-1.9047095,2.5745358,-0.38851264,-0.54803103,0.74075627,0
-0.65384597,-1.6434841,2.9657388,-0.18934835,-0.47593933,0.85885328,0
-0.54906058,3.226763,1.2533356,-0.15665518,0.92064363,0.35759535,0
3.095113,1.4602276,-0.81633592,0.87971979,0.41503853,-0.23202606,0
3.1878812,-0.59439212,-1.4253938,0.89995581,-0.16780005,-0.40239623,0
1.9850738,2.3667855,-1.7525582,0.55892849,0.66640538,-0.49346009,0
3.1410184,0.17530809,-1.5301421,0.89787138,0.050112449,-0.43739662,0
-3.3937156,-0.73186547,-0.56313944,-0.96491617,-0.20808721,-0.16011427,0
1.4375637,1.1097711,-2.8652582,0.42376912,0.32714149,-0.84462899,0
-2.5865583,1.18374,-2.1894016,-0.72057635,0.3297722,-0.60993445,0
0.77108294,-2.8090057,1.9574308,0.21971281,-0.80039966,0.55775142,0
-1.4223366,-2.9034901,-1.1662592,-0.41382229,-0.84475714,-0.33931777,0
-1.5763071,-0.48745766,3.1841941,-0.43953741,-0.13592267,0.88788056,0
2.627104,-0.059660491,2.3847106,0.74033546,-0.016812725,0.67202735,0
2.2103562,1.573428,2.3571219,0.61500001,0.43778387,0.65583551,0
0.9204241,-0.61386025,3.43962,0.25474149,-0.16989525,0.9519676,0
-1.6443843,-1.3526037,-2.7002108,-0.47819903,-0.39334708,-0.78524119,0
-1.2869411,-2.0780382,2.5371869,-0.36529326,-0.58984315,0.72017074,0
0.055463314,3.4931839,-0.38836429,0.015778391,0.99375272,-0.11048318,0
-0.15726744,-2.9863744,-1.6515933,-0.046034791,-0.87416136,-0.48344877,0
-0.3676447,3.0690463,-1.8161329,-0.10254954,0.85606915,-0.50658584,0
1.1594993,-1.909947,2.6873422,0.3317714,-0.54649955,0.76893818,0
1.3523964,-0.94767326,-3.1666267,0.37867865,-0.26535389,-0.88667339,0
-2.0454595,-0.59870034,-2.6869507,-0.59641612,-0.17456935,-0.78346246,0
1.0378107,3.0469768,1.3080879,0.29869276,0.87695175,0.37648138,0
2.8483875,0.23785828,1.9559237,0.82241201,0.068676576,0.56473184,0
1.4926575,1.6457647,2.6861758,0.42818788,0.47210863,0.77056384,0
-0.99333376,-3.3139205,-0.16790605,-0.28678691,-0.95676708,-0.048476413,0
-2.3093352,0.90515119,-2.4370408,-0.66412061,0.26030415,-0.70084631,0
-1.359502,0.0064061643,-3.1632268,-0.39485902,0.0018606312,-0.91873986,0
0.5662123,-1.1958753,-3.2380755,0.16186848,-0.34187621,-0.92569935,0
3.3448842,0.70832342,-0.85898548,0.94881922,0.20092501,-0.24366222,0
-2.0849099,-2.306704,-1.4702017,-0.6061905,-0.67067748,-0.42746323,0
2.7105577,-0.027005488,2.051754,0.79730749,-0.0079436339,0.60352111,0
-1.6042171,-2.87573,-0.8682946,-0.47106975,-0.84444278,-0.25497007,0
-2.1243396,-2.6191728,0.88232005,-0.60941237,-0.7513659,0.25311244,0
0.32537842,2.4536633,-2.5650644,0.091282219,0.68835491,-0.71960759,0
0.32748359,2.4812429,2.2913396,0.096510716,0.73123211,0.67526686,0
3.2538974,0.60362917,-1.0414366,0.93788201,0.17398611,-0.30017683,0
3.3552146,-0.31696364,-0.47824636,0.98569232,-0.093117326,-0.14049883,0
0.72422433,3.3003049,-1.0321724,0.20499009,0.93414402,-0.29215413,0
1.0956188,-2.3443136,-2.5087078,0.30398926,-0.65045083,-0.69606346,0
-2.4003606,-2.170346,-1.4013746,-0.68066972,-0.61544454,-0.39738747,0
-0.016294844,-3.4440973,-0.77650619,-0.0046153376,-0.97550315,-0.21993694,0
-2.0282557,0.60233718,2.8269074,-0.57441223,0.17058493,0.80059439,0
0.78405267,3.2991247,0.79710615,0.22508013,0.94708866,0.22882742,0
-0.095286615,1.8421673,-3.0286622,-0.026870146,0.51947802,-0.85406119,0
-1.9708967,2.5153553,-1.4063549,-0.5645141,0.72046071,-0.40281522,0
1.0181011,-1.6442082,-2.9629169,0.28774586,-0.46470249,-0.83740908,0
-2.429338,-0.73901021,-2.3519785,-0.7018857,-0.21351525,-0.67953497,0
1.5040579,3.2381663,0.43941483,0.41810051,0.90015084,0.12214926,0
-0.15531094,3.5147898,0.34431916,-0.043934852,0.99427491,0.097402096,0
-0.14289844,-2.1319401,2.8719811,-0.039919715,-0.59557289,0.80230874,0
3.4087763,0.94016725,0.17368878,0.96284515,0.26556027,0.049060248,0
2.0575049,2.8052938,-0.84781283,0.57460129,0.78343701,-0.23676948,0
-2.6498818,-0.98486769,2.0111818,-0.76378822,-0.28387317,0.5796926,0
1.3208923,2.6304977,1.8057908,0.38250348,0.76173848,0.52292019,0
1.8298614,0.89010972,-2.9094093,0.51539564,0.25070679,-0.81945926,0
-2.9736021,-0.23076239,-1.9721918,-0.83163118,-0.064537622,-0.55156547,0
-0.84834445,1.6777946,2.9993217,-0.23965475,0.4739719,0.84729934,0
-0.44604009,0.54343235,3.3568747,-0.13005202,0.1584487,0.97876471,0
-0.21198706,0.35527664,-3.4037809,-0.061824873,0.1036145,-0.9926942,0
0.32858393,0.74843425,-3.3979948,0.094017491,0.21414897,-0.9722659,0
-3.1041248,-1.3610682,0.77168298,-0.89297879,-0.39154518,0.22199382,0
-0.50582212,-3.2900875,0.82314777,-0.14751261,-0.95948631,0.24005412,0
1.5266883,3.0843468,0.42251384,0.44030455,0.88954103,0.12185511,0
3.0492239,1.198385,1.3528492,0.86024809,0.33808878,0.3816663,0
-1.0716021,2.7685237,1.9552898,-0.30145681,0.77882481,0.55005062,0
-0.24977627,3.371135,1.0626497,-0.07048922,0.95136607,0.29988977,0
1.1612086,2.6003261,-2.0425107,0.33134207,0.74198329,-0.58281493,0
0.37318689,-2.8532503,-2.0668356,0.10533383,-0.80534393,-0.58337456,0
1.8029785,-3.0273309,0.095276222,0.51150554,-0.85885471,0.027029894,0
2.2331765,2.4633543,0.91543019,0.64755046,0.71429473,0.26544577,0
-3.3050499,-0.92752832,-0.80629939,-0.9372952,-0.26304227,-0.22866237,0
-0.51556826,-3.3311958,0.82725352,-0.14854097,-0.95975471,0.23834097,0
3.2664108,0.084248789,-1.2678093,0.93197244,0.024037866,-0.36173138,0
-1.8144294,-1.2278137,2.784534,-0.51210725,-0.34653997,0.78591102,0
-0.20885719,-3.2361674,1.3627619,-0.059374887,-0.91999263,0.38741222,0
0.48372322,0.3206186,3.3598166,0.1418723,0.094034977,0.98540843,0
0.59398961,0.91308916,-3.3595488,0.16818655,0.25853872,-0.9512471,0
0.35663235,3.4640644,0.62705171,0.10078977,0.97899771,0.17721443,0
-2.788806,-1.8317902,0.77409625,-0.81419808,-0.53479522,0.22599912,0
-0.28834414,-1.9075956,-2.9546139,-0.081713714,-0.54059267,-0.83730668,0
-1.8838511,0.43314558,-3.0489128,-0.52183682,0.11998364,-0.84456515,0
2.5131223,-2.0848098,-1.2399217,0.71951598,-0.59688854,-0.35499406,0
-3.1224909,1.6146823,-0.57806402,-0.87649214,0.45324594,-0.16226423,0
1.1399665,-0.77754265,-3.2769203,0.32061142,-0.21868104,-0.92162192,0
-0.82411915,1.9650557,-2.6434231,-0.24272101,0.57875162,-0.77854556,0
0.33559331,-1.6499075,3.122752,0.094593778,-0.46505985,0.88021094,0
-2.4386687,2.5935299,0.12834074,-0.68457723,0.72804946,0.036027502,0
-2.8017077,0.41371801,2.1778808,-0.78420794,0.11580114,0.60959655,0
0.30910987,-2.9688478,-1.8047893,0.088618301,-0.85113508,-0.51741266,0
-2.8994124,-2.0269504,0.14084563,-0.81893337,-0.57250816,0.03978157,0
-0.19889362,1.912402,2.7878265,-0.058730207,0.56470269,0.82320201,0
1.2985179,-2.8433509,-1.636772,0.36801583,-0.80584031,-0.46388113,0
-1.9976544,2.0117736,2.1464548,-0.56177038,0.56574088,0.60361522,0
-2.8266373,-1.9600065,0.15422118,-0.82094496,-0.56924796,0.044790711,0
2.5778792,0.8408916,-2.1175039,0.74929541,0.24441651,-0.61548108,0
-0.91632074,3.2670906,0.055842917,-0.27001294,0.9627161,0.016455276,0
-2.4033985,2.3393602,1.1133149,-0.68009937,0.66197819,0.31503922,0
-3.095727,-1.6622502,-0.088894807,-0.88074464,-0.47291571,-0.025290869,0
0.79628897,3.4610319,0.11161909,0.22410433,0.97405875,0.031413626,0
-2.3611279,1.8453902,-1.7962745,-0.67579532,0.52818233,-0.51412457,0
1.1552118,-1.1469113,3.0359716,0.33534384,-0.33293429,0.8813054,0
3.2685454,1.0691367,-0.42577019,0.94324428,0.30853394,-0.12286974,0
-2.8570607,0.14449735,2.0135093,-0.81670666,0.041305371,0.57557279,0
-2.3242912,-2.2925169,0.99660319,-0.68093485,-0.67162609,0.29196936,0
-3.2050416,0.77365756,1.4035932,-0.89440817,0.21589911,0.39169076,0
-2.2756252,0.82528305,-2.5812595,-0.64306647,0.23321584,-0.72943532,0
-2.694674,0.59740633,-2.1391315,-0.77167124,0.17107868,-0.61258107,0
-0.090218924,-2.3892484,2.6729636,-0.02515671,-0.66621971,0.74533111,0
-2.9912598,-1.5884109,0.72188896,-0.86379725,-0.4586913,0.20846257,0
1.9857432,2.4782035,-1.5279993,0.56347138,0.70321119,-0.43358269,0
-1.6206045,-1.9705184,2.4343922,-0.45956215,-0.55878878,0.69033164,0
3.3680608,-0.16864353,0.75558174,0.97458553,-0.048798867,0.2186359,0
-0.38463628,2.610673,-2.3572223,-0.1087044,0.73781818,-0.66618896,0
0.74502391,-3.4392593,-0.3044447,0.21092504,-0.9736948,-0.086191878,0
-2.7287283,0.42920372,2.1425877,-0.78056574,0.12277577,0.6128974,0
1.0538948,0.11520457,-3.3015244,0.30392906,0.03322345,-0.95211524,0
-1.2541335,2.0629303,-2.5371332,-0.35809624,0.58903426,-0.72443473,0
3.1114559,1.4730363,-0.02364343,0.9038077,0.42788377,-0.0068678828,0
0.82620406,3.1168649,1.1893647,0.24039461,0.90689158,0.34606081,0
2.1058919,-2.6777341,0.66772181,0.6066336,-0.77136129,0.19234723,0
2.6219671,1.1855379,2.0077703,0.7472645,0.33788005,0.57221752,0
-0.76803356,2.6987143,-1.9488541,-0.22481579,0.78995711,-0.57046098,0
-1.7307124,-2.9033272,-1.1484698,-0.48481703,-0.81329662,-0.32171592,0
-2.5415592,1.2544787,-2.143425,-0.71522284,0.35302415,-0.60318345,0
2.9654901,1.445614,1.2247168,0.84269112,0.41079417,0.34802273,0
3.381947,0.91178685,0.61294609,0.95107299,0.25641319,0.17237303,0
2.5144236,-0.87618738,2.4253483,0.69811857,-0.24326955,0.67338723,0
1.2398129,2.3848863,2.3125956,0.34965369,0.67258883,0.65220129,0
0.20215806,-2.9159138,-1.8557957,0.058388669,-0.84219408,-0.53600359,0
-2.8961513,-1.7251575,0.75928855,-0.83813149,-0.49925184,0.21973425,0
-1.0814731,-3.2108502,1.0928394,-0.30378649,-0.90192986,0.30697927,0
-1.0984514,3.353925,0.28796843,-0.31021366,0.947182,0.081325166,0
1.4221102,-2.0043025,-2.5428364,0.40214273,-0.56677443,-0.71906048,0
0.31196034,-3.409353,0.57470918,0.089863323,-0.98209852,0.16555077,0
3.2686975,-0.9616136,-0.21756113,0.95739728,-0.28165537,-0.06372337,0
-2.2721753,-0.4387235,-2.6319077,-0.64834148,-0.12518518,-0.75098735,0
2.3298676,-2.559875,-0.5783869,0.6638965,-0.72943717,-0.16481154,0
0.05557109,-3.1113565,1.46736,0.016152222,-0.90434289,0.42650098,0
2.0605946,2.1473353,-1.8097697,0.59158862,0.61649156,-0.5195778,0
-2.7658834,-2.1739402,0.38715115,-0.78149724,-0.61424434,0.10938912,0
2.3062983,-1.1160483,2.400979,0.65682048,-0.31784415,0.68378502,0
-2.974936,-1.0409606,-1.6664404,-0.83443028,-0.29197571,-0.46741453,0
2.2665629,1.1155424,2.4690189,0.64165092,0.31580365,0.69896507,0
-1.4515824,2.8928335,-1.3625963,-0.41335255,0.82376313,-0.38801286,0
0.65006036,3.0908794,-1.3710849,0.18879253,0.8976627,-0.3981947,0
2.8739359,1.1712009,-1.6409719,0.81865531,0.33362255,-0.46743923,0
1.1593817,3.1772633,0.52029717,0.33880538,0.92848963,0.15204611,0
-0.47865015,-2.6758497,-2.1530058,-0.13803235,-0.77165711,-0.62088031,0
-2.5532317,-0.92998356,-2.3123686,-0.7155838,-0.26064268,-0.64807808,0
2.8839812,-0.48587528,1.9469731,0.82084703,-0.13829122,0.55415308,0
-2.3970528,-1.8677089,1.7019242,-0.6882304,-0.53624773,0.48864841,0
-1.677714,-2.9740026,-0.62749022,-0.48324513,-0.85662532,-0.18074094,0
2.9968989,1.0369118,-1.5129937,0.85293031,0.29510957,-0.43060452,0
3.3822167,-0.51263708,0.70442176,0.96838945,-0.14677721,0.20168862,0
-3.5495088,0.27022031,0.45416114,-0.98909748,0.075298935,0.12655543,0
-2.1759968,-2.7735023,-0.0030234957,-0.61726278,-0.78675658,-0.00085767196,0
2.4997218,-0.63047987,-2.3623071,0.71488911,-0.18030934,-0.67559022,0
1.9458998,-1.0967524,2.5778687,0.57048082,-0.32153568,0.75575554,0
2.4388971,1.2705481,2.0941353,0.7055819,0.36757421,0.60584104,0
1.344875,2.8210585,1.7083603,0.37759581,0.79205871,0.47965032,0
-3.09447,0.68976086,1.6293352,-0.86811572,0.19350398,0.45709005,0
-3.1202228,-1.4048841,0.52372384,-0.90134025,-0.40582955,0.15128836,0
-3.4029069,0.46296597,0.63704592,-0.97425181,0.1325471,0.18238616,0
2.4491978,2.3327322,-1.238729,0.67994833,0.64761502,-0.34389696,0
0.99719214,3.1068037,-1.4474524,0.27936018,0.87036103,-0.40549913,0
0.21838887,1.2572601,-3.3152637,0.061476856,0.35392097,-0.93325269,0
-0.44231609,2.005794,2.9417067,-0.12328249,0.55905563,0.81991351,0
2.0632942,-2.2407322,-1.8128523,0.58208793,-0.632146,-0.51143432,0
-0.058959953,-2.4643805,2.4768138,-0.016872404,-0.70522487,0.70878285,0
-1.5716196,-2.2672522,-2.066772,-0.45593536,-0.65774214,-0.59958172,0
-0.68102419,-1.4528506,3.1938767,-0.1905351,-0.40647459,0.89357412,0
2.8440006,1.7166252,0.72025716,0.83669108,0.50502276,0.21189615,0
2.783376,-1.1695772,-1.8061647,0.79114944,-0.33244175,-0.51338595,0
2.1270819,2.5810058,0.73070246,0.6213274,0.75392002,0.21344051,0
2.1838911,2.4284945,-1.1462933,0.63093597,0.701603,-0.33116928,0
-1.1906075,3.1323805,-1.2332063,-0.33343482,0.87723678,-0.34536478,0
-1.9410254,-2.7579501,-0.82637012,-0.55900538,-0.79427552,-0.23799036,0
-2.9452751,-1.4095649,-0.96302396,-0.86517531,-0.41406006,-0.28288853,0
-0.23521751,-2.2138751,-2.6412303,-0.068092749,-0.64089125,-0.76460564,0
0.93727148,1.0749972,-3.1270187,0.27270767,0.31278023,-0.90983462,0
0.14036001,-2.7166841,-2.1418121,0.040539678,-0.78465015,-0.61861193,0
2.6221738,1.0910885,2.1271226,0.73898005,0.30749017,0.59946495,0
2.7620797,2.0857973,-0.21750823,0.79645008,0.60144299,-0.062718846,0
-2.5568171,2.2856531,-1.0890697,-0.71056706,0.63520771,-0.30266425,0
1.2879145,-1.2521223,-2.9222438,0.37546703,-0.36503249,-0.85192472,0
3.3008964,-0.98344541,-0.3086237,0.95454544,-0.28439042,-0.089247078,0
3.1224053,-1.5553535,0.53025198,0.88493162,-0.44080809,0.15028054,0
2.1782997,1.4648291,-2.2662644,0.6281234,0.42239064,-0.65348846,0
-2.3367889,-2.4292984,-0.58611566,-0.68300289,-0.71004182,-0.17131145,0
-0.12370533,-3.2433083,-1.1497288,-0.035926517,-0.94192207,-0.33390439,0
0.95640606,0.23921566,-3.3237665,0.27586821,0.068999976,-0.95871568,0
-1.7561098,-2.6436944,-1.4841803,-0.50121742,-0.75454605,-0.42360508,0
3.1843927,-0.18047434,1.3243755,0.92206782,-0.052257869,0.38348413,0
0.92651367,3.0161011,-1.4708542,0.26614833,0.86639869,-0.42251438,0
0.56204504,3.0067582,-1.6515825,0.16168208,0.8649466,-0.4751066,0
-1.0035738,-3.2240343,1.2015768,-0.28001186,-0.89955306,0.33525765,0
-2.1742821,2.1846204,1.492746,-0.63488817,0.63790697,0.43588033,0
0.35480627,-2.8121805,2.0480299,0.10146157,-0.80418044,0.58566141,0
1.2102751,2.8576555,-1.4337075,0.3540318,0.83592641,-0.41939065,0
-2.8450329,0.054432284,2.1319904,-0.80014706,0.015308727,0.59960848,0
-1.5314686,0.62252659,-3.0523684,-0.4411808,0.17933555,-0.87931693,0
0.33220091,0.90578038,-3.4163437,0.093578838,0.25515243,-0.96236181,0
3.371882,-0.39178628,-0.59011668,0.97863972,-0.11371027,-0.17127278,0
-2.0782585,2.8099318,-0.75623202,-0.58119154,0.7858063,-0.21148267,0
-1.8519738,-2.8442929,0.82693291,-0.53013974,-0.81419766,0.23671502,0
-1.2152086,-3.0847747,0.88706774,-0.35406926,-0.89879537,0.25846049,0
2.9780467,1.0332144,1.3988994,0.86353886,0.29959935,0.40563637,0
-3.5514653,-0.49424526,-0.029563412,-0.99042106,-0.13783351,-0.008244548,0
-1.8748786,2.6133637,1.4656545,-0.53044468,0.73937845,0.41466612,0
0.202113,3.1353648,-1.6063503,0.057276905,0.88853258,-0.45522439,0
1.4731549,-2.818032,-1.4216549,0.42293301,-0.80903834,-0.40814772,0
0.91759157,-3.3883488,0.16820589,0.26109302,-0.96412641,0.047861584,0
1.5623215,1.6787512,2.5832052,0.4522866,0.48599261,0.74782884,0
2.8439329,2.0279067,0.12271247,0.81370163,0.58022147,0.035110299,0
1.2686198,2.6647539,1.8112515,0.3663573,0.7695387,0.52306074,0
-0.42408225,-2.5109196,2.4200442,-0.12071794,-0.71475053,0.68888223,0
0.80661017,-0.72047359,3.2367063,0.23636103,-0.21112043,0.94845223,0
-0.35007018,2.3340225,2.7366426,-0.096870854,0.64586693,0.75727928,0
-3.3748646,0.36995301,0.56162977,-0.98071712,0.10750631,0.16320653,0
1.8740526,1.7419517,-2.3316288,0.54137689,0.50321549,-0.67356157,0
-2.9142609,-0.76697224,-1.7664952,-0.83429343,-0.21956849,-0.50571156,0
-2.3704622,-2.1856401,-1.3191322,-0.68044221,-0.62738895,-0.37865746,0
-1.4633309,-1.9881321,2.5202944,-0.41479123,-0.56354976,0.71439481,0
-0.075223476,2.6760273,-2.1060746,-0.022084154,0.78562975,-0.61830264,0
-0.46393347,3.3720565,0.86186749,-0.13212806,0.96036023,0.2454595,0
1.0092375,-0.39972106,3.2209046,0.29693007,-0.11760285,0.94762975,0
-2.0129328,2.066865,1.821509,-0.58995736,0.60576397,0.53385419,0
0.15138955,2.6635096,-2.1147487,0.044469897,0.78239214,-0.62119645,0
-0.43947285,1.0001944,3.2644277,-0.12766524,0.29055277,0.94830412,0
3.0831387,1.5263344,0.42247206,0.88950956,0.44035938,0.12188648,0
3.2161179,0.63691825,-1.1752056,0.92341775,0.18287316,-0.33742723,0
3.1991699,0.90116227,-0.85799503,0.93198848,0.26252836,-0.24995281,0
-1.0774626,-2.5652754,-2.1083272,-0.30864611,-0.73483968,-0.60394394,0
-3.374449,-0.44993603,0.4437902,-0.98291093,-0.13105756,0.12926739,0
-2.4659729,2.4333982,-0.34305525,-0.70832825,0.69897145,-0.098539494,0
-3.3365393,-0.72076291,-0.63048154,-0.96119547,-0.2076385,-0.1816301,0
-2.7543998,1.7335224,1.2458229,-0.79040194,0.49745122,0.35750106,0
0.23614444,0.66376573,3.4244676,0.067543417,0.18985416,0.97948629,0
-0.66541338,0.30330652,3.3687282,-0.19303082,0.08798667,0.97723967,0
0.79581833,-1.7889327,2.9212458,0.22629593,-0.50869423,0.83067459,0
0.015969355,3.4334977,0.81918037,0.0045240205,0.97268885,0.23206878,0
1.529276,0.865237,-3.0796826,0.43130821,0.24402647,-0.86857599,0
0.83713877,-1.8885708,2.6987848,0.24631381,-0.55567974,0.79407144,0
-1.9788682,-0.25279135,-2.8822546,-0.56453407,-0.072116636,-0.82225329,0
-1.0494858,0.031668153,3.2933137,-0.30361471,0.0091615506,0.95275086,0
0.50834566,1.1637192,-3.3112926,0.14333925,0.32813624,-0.93369186,0
2.2802966,2.7230821,-0.0023972346,0.6420204,0.76668721,-0.00067494443,0
1.5491885,-2.3342505,-2.0793195,0.44403613,-0.66905451,-0.59598488,0
-2.3519387,0.84768087,-2.3936486,-0.67952031,0.2449113,-0.69157112,0
0.89714611,-2.8128793,1.8801522,0.25630516,-0.80360985,0.53713959,0
2.4024026,1.9254633,-1.6967186,0.68340033,0.54772758,-0.48265764,0
-2.8491981,-0.81506813,1.7767934,-0.82458216,-0.23588765,0.51421911,0
-2.5503268,-0.37761608,-2.3766501,-0.72732341,-0.1076917,-0.67779285,0
1.2901044,-1.6490296,2.859231,0.3640404,-0.46532157,0.80681503,0
-0.95389313,2.6630697,2.0517919,-0.2729679,0.76206923,0.58714479,0
1.6060205,1.7804878,-2.4990861,0.46371731,0.51409245,-0.7215783,0
-2.912473,1.1584969,-1.3872371,-0.84969038,0.33798206,-0.40471515,0
-0.98956567,1.5462625,3.0490053,-0.27804467,0.43446338,0.85669875,0
-0.050416812,0.045869399,3.4784479,-0.014491272,0.013184212,0.99980807,0
-1.5488923,-1.2928387,-2.9205816,-0.43634585,-0.36421177,-0.82277101,0
2.3337343,2.5352781,0.64960599,0.6655345,0.72301078,0.18525468,0
-1.9776425,-0.71897054,-2.8865798,-0.55362648,-0.20127051,-0.80807674,0
-0.74302912,0.58020461,3.3763039,-0.21196416,0.16551515,0.96315932,0
1.7788811,3.0032089,0.45956135,0.50527263,0.8530302,0.13053361,0
-2.3400018,0.56196612,-2.3635452,-0.69372571,0.16660258,-0.70070547,0
1.6639836,-1.16782,3.0033486,0.45881835,-0.32200873,0.82812804,0
-0.027727928,1.859851,-2.8634677,-0.0081204837,0.54468149,-0.83860368,0
-0.35974997,-3.5249457,0.014715493,-0.10153002,-0.99482375,0.0041530631,0
-1.8729135,2.6364453,1.164592,-0.54488176,0.76701403,0.33881167,0
-2.2978094,2.0072877,-1.5144948,-0.67457789,0.58928818,-0.44461682,0
-0.5176208,-1.8242749,-3.0017672,-0.14578545,-0.51379836,-0.84543347,0
1.6965233,-0.93792021,2.8502626,0.49217233,-0.27209669,0.82687956,0
1.957175,0.81918699,-2.8034492,0.55667806,0.23300084,-0.79738331,0
-2.7445855,-1.5730885,-1.344923,-0.79843271,-0.45763022,-0.39125416,0
0.43284366,1.6168447,-2.9705632,0.12694626,0.47419518,-0.87121964,0
-1.3812159,-2.3384964,-2.1872411,-0.3960852,-0.6706003,-0.62722546,0
1.4215543,0.40050912,3.1569567,0.40786669,0.11491248,0.90578139,0
-0.26169923,1.1833574,-3.2126894,-0.07621526,0.34463185,-0.93563884,0
-0.96080029,-1.9338145,-2.7168915,-0.27684888,-0.55721712,-0.78285611,0
2.3574207,-2.3940442,-0.5120073,0.69362819,-0.704404,-0.15064883,0
-1.7909163,-2.4593296,-1.8871014,-0.50024748,-0.68695194,-0.52711433,0
1.4323529,-2.807339,1.2025416,0.42461959,-0.83223283,0.35649225,0
-1.903622,-0.6631214,-2.7255938,-0.56153387,-0.19560875,-0.80400056,0
2.8104026,1.7697984,1.0211086,0.80882978,0.50934541,0.29387358,0
0.62407464,-2.6236422,-2.1644545,0.18047221,-0.7587145,-0.62592494,0
-1.4490106,-3.0531633,0.89686054,-0.41441262,-0.87319541,0.25649938,0
-1.0078936,-2.9984355,-1.5126127,-0.28744841,-0.85514534,-0.43139288,0
0.47391844,-2.4576209,-2.2683861,0.14030056,-0.72756308,-0.67154133,0
-2.7159858,1.7224175,1.2693254,-0.7855286,0.49816468,0.36711952,0
0.013143296,-3.3466089,-1.297773,0.0036616425,-0.93234491,-0.36155167,0
1.4335539,-1.8079374,2.6616297,0.40697092,-0.51325446,0.75560874,0
1.1077441,-1.1416237,3.1886828,0.31086373,-0.3203713,0.89483291,0
-2.8819494,0.9308399,1.8133885,-0.81643021,0.26369852,0.51371658,0
0.15627837,-3.3409164,1.2296157,0.043856051,-0.93755388,0.34506428,0
-2.2657745,-2.5119922,0.83501512,-0.65026122,-0.72092402,0.23964342,0
3.1007383,-1.4733765,0.66935313,0.88652432,-0.42124939,0.19137307,0
1.8454303,-2.2578375,2.0483801,0.51785439,-0.63358182,0.57480508,0
2.6077716,0.38454583,-2.3182764,0.74287486,0.10954542,-0.66040647,0
2.0960598,2.367378,1.283447,0.61422932,0.69373637,0.37610129,0
-1.9621878,2.8127084,0.72985899,-0.55961633,0.80218494,0.20815593,0
2.5508413,-0.43565369,-2.2977545,0.73709387,-0.12588696,-0.66396165,0
1.3669305,2.1371458,-2.3811753,0.39286932,0.61423683,-0.68437332,0
2.5342462,0.69196004,2.4694393,0.70289117,0.19192003,0.68491656,0
1.8838916,-1.8475767,-2.4668229,0.52153951,-0.51148605,-0.68291914,0
1.8715004,-2.7000608,-1.0514884,0.54255575,-0.78275883,-0.30483085,0
1.6628349,3.1732986,0.54236835,0.45891598,0.87577999,0.14968504,0
0.98940253,-0.42696306,-3.3829584,0.2786704,-0.12025639,-0.95282799,0
0.012586248,-2.0965579,2.8822241,0.0035313792,-0.5882405,0.80867833,0
-0.65528679,3.3344703,-1.1052763,-0.18337519,0.93311685,-0.30930009,0
-1.4227746,0.89213425,-3.1104498,-0.40250048,0.25238326,-0.87994093,0
1.6496916,2.0964386,2.2281902,0.47461852,0.60314828,0.64105338,0
2.7808075,0.73788488,-2.0337741,0.78926349,0.2094304,-0.57723653,0
-0.29719988,-0.72845453,-3.4570391,-0.083826117,-0.2054628,-0.97506827,0
-0.97468382,2.9112768,-1.6218266,-0.28071436,0.8384639,-0.46709508,0
-0.18504952,0.070013478,3.5586441,-0.051919825,0.019643864,0.99845803,0
2.2531164,2.5405262,0.51299149,0.65607524,0.73976487,0.14937578,0
0.75472862,-0.66026652,3.2986984,0.21890469,-0.19150651,0.95676851,0
0.58505541,-3.3855307,-0.93439609,0.16431804,-0.95085657,-0.2624335,0
1.6501105,3.0000119,-0.83952641,0.46807662,0.85099477,-0.23814325,0
0.16347075,0.61301607,-3.4538019,0.046551783,0.17456941,-0.98354381,0
1.5357741,-1.6702414,2.7365577,0.43202055,-0.46984681,0.76980668,0
-2.7675862,-2.2094932,-0.68365449,-0.76733136,-0.61259639,-0.18954767,0
3.014303,1.7370784,-0.17604186,0.86532003,0.49866545,-0.050536573,0
-1.8574324,0.46374103,-2.8913026,-0.53564262,0.13373271,-0.83378804,0
3.1212971,-1.3724023,0.35079685,0.91061306,-0.40038723,0.10234213,0
0.52083403,0.60409433,-3.4019001,0.14905864,0.17288709,-0.97359723,0
-0.026955713,0.5525189,3.4054635,-0.0078130253,0.1601458,0.98706245,0
-2.4140778,2.5498147,-0.093433402,-0.68727076,0.72591412,-0.026599824,0
2.3763354,-0.69216776,-2.4297328,0.68514252,-0.19956508,-0.70053798,0
-0.11471711,-2.152652,-2.7064431,-0.033154812,-0.62214583,-0.78219903,0
2.8027737,-2.131948,0.26372722,0.79368776,-0.60372376,0.074682117,0
-0.3756476,-2.32761,-2.6478469,-0.10595305,-0.65651256,-0.74683678,0
0.70369065,-0.34354645,3.323663,0.20607895,-0.10060911,0.97334951,0
3.0248883,0.017306754,-1.7393786,0.86688721,0.0049598538,-0.49847957,0
2.0534704,-0.96737051,2.6754186,0.58526444,-0.27571258,0.76252741,0
2.7954557,1.4135407,-1.4970777,0.80517191,0.40714049,-0.43120158,0
-2.1905007,-2.7353511,-0.14581305,-0.62454081,-0.77988487,-0.041573234,0
-0.37254143,-1.6666347,3.0944932,-0.1054029,-0.47153986,0.87552291,0
1.5538335,1.5674793,2.6694064,0.44860691,0.45254657,0.77068371,0
-0.91852188,1.0002798,3.2115238,-0.26342452,0.286872,0.92103857,0
-2.7965105,-2.1065273,-0.14416744,-0.79806823,-0.60116082,-0.041142508,0
2.5720711,-1.4455456,1.9974504,0.72188377,-0.40571037,0.56060934,0
0.60841858,-2.4007983,2.5320373,0.17177634,-0.67782342,0.71487641,0
1.9834881,1.6766193,2.2220113,0.58030945,0.49052879,0.65009421,0
1.7480333,-2.9280145,0.80894309,0.49876109,-0.83544159,0.23081331,0
1.3363172,-2.566057,1.9099998,0.38546467,-0.74018675,0.5509451,0
-0.33999303,1.4574764,3.2580886,-0.094827525,0.40650502,0.90871412,0
0.35679907,-1.2340345,-3.3135931,0.10039712,-0.3472361,-0.93238807,0
3.4151449,-0.0890451,-0.4559269,0.99087518,-0.025835676,-0.1322833,0
-2.5189912,-2.2388318,0.95304388,-0.71924293,-0.6392495,0.27212086,0
-0.47121596,-1.8434038,3.0057359,-0.1324632,-0.51819801,0.84494042,0
0.43815365,-3.3512616,-0.73993337,0.12664017,-0.96861988,-0.213864,0
2.833955,1.955171,-0.17118905,0.82209957,0.5671739,-0.049660087,0
-0.54217148,-3.4005554,-0.22099982,-0.15712431,-0.98549986,-0.064046979,0
0.47038767,-3.1942291,1.389235,0.13382776,-0.90877491,0.39524466,0
-1.3805507,3.2165892,0.35509261,-0.39239106,0.91424447,0.10092723,0
-1.7234426,-1.4406958,-2.6518068,-0.49590722,-0.41454902,-0.76303685,0
0.295019,-2.4194927,-2.5166233,0.084207416,-0.69059694,-0.71832097,0
-1.391699,2.4984682,-1.974506,-0.40045214,0.71891761,-0.568151,0
-3.2939439,-0.51204711,0.73978245,-0.96466285,-0.14995788,0.21665233,0
0.60171402,2.9824915,-1.7097155,0.17240846,0.85457009,-0.48988292,0
-1.6664441,-2.9822471,0.52506077,-0.48213649,-0.86282533,0.15191086,0
-3.2779965,0.65187609,0.90102547,-0.94698459,0.18832131,0.2602984,0
-1.1510921,0.70388949,3.3110878,-0.32194412,0.1968679,0.92606425,0
2.8262827,-1.7900907,1.0799711,0.8039524,-0.50920159,0.30720398,0
-0.42766747,3.1995397,1.1485109,-0.1248217,0.93383765,0.33521158,0
-1.8869141,-1.7039164,2.4728818,-0.53202307,-0.4804261,0.69723898,0
-0.64379513,1.0121728,3.2773089,-0.1844714,0.29002538,0.93907166,0
3.4082332,-0.01223049,-0.98991901,0.96030796,-0.0034460779,-0.2789208,0
2.6616261,1.4551435,-1.6462488,0.77118361,0.42161548,-0.47698662,0
-2.5069659,-2.2668149,0.8113724,-0.72124904,-0.65215808,0.23343021,0
0.084416099,-3.4326093,-0.77787822,0.023977369,-0.97499102,-0.22094688,0
0.61456901,3.3783119,-0.41657758,0.17767584,0.97669166,-0.12043525,0
0.12392804,-2.7384739,2.345505,0.034350336,-0.7590493,0.65012634,0
-0.32269093,0.64327872,-3.4122167,-0.092533559,0.18446404,-0.9784736,0
0.52748579,-2.0739353,-2.6451845,0.15503262,-0.60954744,-0.77744251,0
1.7125413,-3.0786927,-0.65243047,0.47798303,-0.85928601,-0.18209819,0
0.86923814,-2.4526274,2.2089748,0.25466308,-0.71855301,0.64716947,0
-1.770955,2.6812413,-1.3133734,-0.51016289,0.77239102,-0.37834635,0
-0.74844068,3.3112824,-0.45223039,-0.21853547,0.96685374,-0.13204572,0
3.1327209,1.3033278,-0.14431933,0.92244911,0.38377297,-0.04249572,0
-2.6715875,-2.1967878,0.52395707,-0.76369148,-0.62796676,0.1497767,0
0.18503347,1.7270322,-2.941808,0.05416194,0.50552696,-0.8611092,0
-2.5824273,-0.83931237,2.3523905,-0.71880895,-0.23361945,0.65477908,0
-2.2082274,0.10163141,-2.769799,-0.62312752,0.028678806,-0.78159428,0
-3.2112715,-1.2425594,-0.33694401,-0.92818493,-0.35914898,-0.09739019,0
2.304518,-1.333038,2.2032752,0.66686463,-0.38574481,0.6375677,0
1.0525876,-0.77654892,3.2024176,0.30428156,-0.22448441,0.92575341,0
1.9195144,-1.3535914,2.6793194,0.53872424,-0.37989426,0.75196844,0
0.54225105,-1.4020927,3.0435901,0.15973909,-0.41303563,0.89659631,0
-2.1700191,-1.8101693,-1.8930844,-0.63797981,-0.53218496,-0.55656177,0
3.1850266,1.1055959,-0.96136796,0.90848988,0.31535771,-0.27421844,0
-1.6215889,-2.6754217,-1.447965,-0.4703908,-0.77608681,-0.42002594,0
-3.426537,-0.28294975,-0.75465506,-0.97343546,-0.080382414,-0.21438786,0
2.8921835,-1.9135374,-0.069458611,0.83381903,-0.55167449,-0.020024978,0
-2.8077209,2.1181519,0.22418609,-0.79669297,0.60102725,0.063612975,0
-0.47982571,-2.2758763,2.55634,-0.13883391,-0.65850741,0.73965746,0
-2.4795232,-0.2211528,2.2949703,-0.73232394,-0.065317191,0.67781651,0
2.0819528,-2.8157539,0.51520121,0.58819669,-0.79551136,0.14555548,0
-1.276001,-3.1749532,1.0141226,-0.35753477,-0.88962013,0.28415659,0
-0.57862633,-1.4410861,3.1455553,-0.16494486,-0.41080004,0.89668083,0
0.076637223,0.1998257,3.5361314,0.021633033,0.056406479,0.99817348,0
-1.4301282,-1.5305254,2.872658,-0.40225595,-0.43049493,0.80800015,0
-2.8378167,1.4525629,1.574284,-0.79815054,0.40854079,0.44277546,0
2.983542,0.82868415,1.7700205,0.83650374,0.23234043,0.49626544,0
-3.4779317,-0.35039267,0.19167982,-0.99347079,-0.10008962,0.054753318,0
-2.8920617,-1.0949312,-1.474257,-0.84419239,-0.31961027,-0.4303354,0
-2.3742917,2.1518033,-1.4606869,-0.67422295,0.61104333,-0.4147884,0
1.8764064,-2.830384,1.0259866,0.5289405,-0.79785734,0.28921551,0
1.255275,-2.6577122,-1.921912,0.35744265,-0.7567901,-0.54726917,0
-3.2266955,1.3670878,-0.61394227,-0.90695435,0.38425884,-0.17256589,0
3.3583784,0.25436914,0.90981919,0.96263862,0.072911844,0.26078868,0
2.6737549,-1.7653629,1.5515394,0.7510801,-0.49590516,0.43584037,0
-3.4304554,0.61966276,-0.53965175,-0.97249013,0.17566645,-0.15298435,0
-0.11334235,-2.9755509,-1.7249051,-0.032936603,-0.86467713,-0.50124705,0
-0.27364632,2.4875965,-2.557785,-0.076470688,0.69516093,-0.71477515,0
1.5838124,-0.88976169,3.0909436,0.44175696,-0.24817234,0.86212599,0
-0.79678911,-2.9915006,1.5981507,-0.22870159,-0.85864747,0.45871565,0
2.8978608,-1.4015362,1.5596597,0.81015271,-0.39182642,0.43603286,0
1.7048789,2.9046373,1.0146408,0.48468053,0.82576025,0.28845254,0
-2.5249484,-0.49585906,2.2873571,-0.73338819,-0.14402559,0.66437823,0
3.0910926,-1.5479894,-0.83322394,0.8692525,-0.43531328,-0.23431262,0
2.3599825,2.3983493,0.52755696,0.69291735,0.70418227,0.15489663,0
-0.18808401,-2.9122672,1.8767289,-0.054207638,-0.83934373,0.54089153,0
0.66074455,-3.099714,-1.6827474,0.18413465,-0.86382061,-0.46894386,0
1.1866138,-1.6349206,-2.8802345,0.33729181,-0.4647218,-0.81869894,0
1.037798,-3.083585,0.97110653,0.3056505,-0.90817219,0.28600866,0
-1.3336638,2.9539969,-1.422406,-0.37679538,0.83458239,-0.40186739,0
0.46621639,2.5583696,2.2462769,0.13567272,0.74450612,0.65368462,0
-2.4085438,-2.1518493,-1.1576781,-0.70199478,-0.62717855,-0.33741716,0
0.80758518,-3.0290632,-1.3873948,0.23557393,-0.88358277,-0.40470535,0
-1.1390164,-2.834393,1.6872982,-0.32639229,-0.81221312,0.4835059,0
-0.85067695,1.538823,-2.9574904,-0.2472399,0.44724199,-0.8595621,0
1.8598677,-1.4673351,-2.728837,0.51467317,-0.40604934,-0.75513935,0
0.80437469,3.433265,-0.31069696,0.22723119,0.96987748,-0.08777009,0
-0.3815299,-3.3923504,0.84199786,-0.10851112,-0.96482021,0.23947306,0
-0.30800742,-2.490998,2.5473042,-0.086128719,-0.69656271,0.71230769,0
-0.76589477,3.3889737,0.1989935,-0.2200762,0.97380537,0.057179831,0
3.1310809,-1.0507621,1.203566,0.89073676,-0.29892311,0.3423931,0
1.9750606,2.7531171,0.19024982,0.58199084,0.81126064,0.056060888,0
2.9288547,1.6461462,0.93710083,0.83969456,0.47194555,0.26866421,0
2.3294752,-1.1961639,-2.4080114,0.65480745,-0.33623755,-0.6768837,0
1.8873367,-1.1395669,2.7428153,0.53632051,-0.32382831,0.77942002,0
2.5154212,1.9681193,-1.408242,0.72063619,0.56384116,-0.40344343,0
-2.4399357,0.79850376,-2.4402165,-0.68886399,0.22544058,-0.68894333,0
-0.644265,-2.7177255,2.1491566,-0.18281172,-0.77116102,0.60982823,0
0.064801134,-3.4185617,-0.14567538,0.01893509,-0.99891418,-0.042566791,0
-1.557212,3.1265297,0.42058793,-0.44262934,0.88869965,0.11954992,0
2.8584907,-0.92589194,1.9294165,0.80050951,-0.25929254,0.54032582,0
-2.2352641,-1.024437,2.4672632,-0.64171177,-0.29410094,0.70831537,0
-0.40006536,1.3036201,-3.1571312,-0.11633074,0.37906578,-0.91802847,0
-3.4545038,0.57224733,-0.18847473,-0.98512965,0.16318923,-0.053747822,0
0.38698846,3.1852131,1.6444401,0.10733325,0.88343531,0.45609394,0
0.67499125,-3.4401221,0.16535266,0.19232631,-0.9801994,0.04711419,0
2.8254876,-2.0648203,-0.29828441,0.80446863,-0.58789253,-0.084927097,0
-0.32220528,3.4988909,-0.32348192,-0.091313682,0.99159336,-0.091675483,0
3.2901115,0.86585015,-0.012240913,0.96706599,0.25450027,-0.0035979846,0
-3.204401,-1.2815917,0.027057763,-0.92846501,-0.37133712,0.0078399004,0
-3.4077139,0.5268271,-0.15187012,-0.9873026,0.1526354,-0.044000689,0
-2.1869142,1.9857404,-1.8429043,-0.62812144,0.57034069,-0.52931553,0
-0.020768896,-1.154377,-3.2613027,-0.006003195,-0.33366963,-0.942671,0
-3.2980866,-0.20528594,1.2409667,-0.93435407,-0.058157887,0.35156816,0
-2.1281495,2.6919301,-0.7011193,-0.60761935,0.76858735,-0.20018034,0
-3.2372987,-0.83813745,-0.57132989,-0.95425415,-0.24705663,-0.16841014,0
-2.2184601,-2.3840873,1.5220797,-0.61714041,-0.66321528,0.42341846,0
0.2368754,-2.4936676,-2.5187731,0.066682599,-0.70199037,-0.70905775,0
-1.9259185,2.4246387,1.9405755,-0.5270288,0.66350394,0.53103971,0
-2.9244137,-0.65388197,1.8122705,-0.83506697,-0.18671614,0.5174942,0
2.4270201,-0.83305472,2.3946548,0.69149584,-0.23735027,0.68227446,0
3.4095531,-0.82398307,0.074873179,0.97179657,-0.23485304,0.02134048,0
0.49918833,-3.323385,-0.86258984,0.14387481,-0.95785767,-0.24861348,0
1.5123215,-3.1567483,0.53338557,0.42712295,-0.89155626,0.15064338,0
1.6160632,1.7914083,2.5564864,0.4597396,0.50962198,0.72727227,0
2.0429673,-2.8205853,-0.46104243,0.58152592,-0.80287302,-0.13123466,0
-1.5860362,3.1720126,0.04824188,-0.44717896,0.89434105,0.013601678,0
0.10768992,-3.4289231,0.13470201,0.031366691,-0.99873757,0.039234463,0
-1.0232999,3.2395339,0.76773071,-0.29380032,0.93010473,0.22042367,0
1.8542608,2.3628883,1.7378329,0.53435385,0.68092823,0.5008021,0
0.84871626,-3.2942305,1.0845035,0.2377028,-0.92262614,0.30374053,0
-1.8465384,-2.7562461,1.3391311,-0.51612586,-0.77039814,0.37430045,0
1.1797739,-0.61867076,-3.2825174,0.33303115,-0.17464077,-0.92660177,0
-2.7314532,-0.42415774,-2.124711,-0.78345436,-0.12165987,-0.60942435,0
2.9833329,1.689412,-0.78602368,0.84816021,0.48029909,-0.22346617,0
1.3616401,2.9798651,-1.3472626,0.38438076,0.8411935,-0.3803221,0
