-0.59611529,-2.2591634,2.9061553,-0.15986232,-0.60584778,0.77935392,0
3.740263,0.52922571,-0.20289433,0.98871243,0.13989712,-0.053633701,0
2.8067281,2.3909845,-0.17780855,0.76035047,0.64772439,-0.048168834,0
2.627228,-0.95502484,2.4587142,0.70570183,-0.25652999,0.66043723,0
1.8418373,1.5802525,-2.7449646,0.50269425,0.43129972,-0.74918562,0
-2.3958342,-2.4389069,-1.2488372,-0.65823889,-0.67007279,-0.3431094,0
1.8493314,3.1930861,0.031809919,0.50116026,0.86531156,0.0086203404,0
-2.543458,-0.94333017,2.6469524,-0.67106652,-0.24888845,0.69837254,0
0.0011115551,-1.8839886,3.2761192,0.00029412427,-0.49851486,0.86688113,0
2.8547561,1.3972839,1.843637,0.77693653,0.38027799,0.50175524,0
2.0394437,3.0370023,-0.59255904,0.55032057,0.81950033,-0.15989529,0
3.7100804,-0.29744741,-0.41622078,0.99062669,-0.079421282,-0.1111349,0
-3.507812,1.0128045,-0.32139963,-0.95705444,0.27632865,-0.087689117,0
-1.438468,-3.3085511,0.82113427,-0.38877568,-0.89420426,0.22192849,0
1.4117362,-3.2417402,-1.4104136,0.37085333,-0.85158271,-0.3705059,0
1.4263121,0.075076655,-3.3860073,0.38812041,0.020429458,-0.92138219,0
-2.3267486,0.5542084,-2.7575316,-0.63740826,0.15182431,-0.75542045,0
-2.3905976,-2.3990524,1.4511362,-0.64880961,-0.65110421,0.39383924,0
0.52456206,-0.11677837,3.7331195,0.13908203,-0.030962538,0.98979676,0
-0.82276809,3.6856945,-0.070308134,-0.21783254,0.97580862,-0.018614478,0
1.9779335,-2.6334939,-1.5865167,0.5410465,-0.72036928,-0.43397784,0
-3.0405967,-1.9125326,0.6161322,-0.83428955,-0.52476734,0.1690565,0
-3.2230186,1.3821657,-1.0327816,-0.88161802,0.37807482,-0.28250501,0
0.046884418,-3.6899173,0.62981749,0.012523967,-0.98566657,0.16823955,0
2.7926962,2.2651587,0.48691124,0.76962179,0.62424099,0.13418484,0
1.0464853,-2.9710622,-2.080009,0.27723262,-0.78708732,-0.55103147,0
-2.0073612,-1.6407716,2.7645676,-0.52964002,-0.43291578,0.72942811,0
-0.56715101,2.1443298,3.0593054,-0.15008849,0.5674665,0.8096019,0
1.7921034,-0.94677746,3.1508021,0.47835237,-0.25271603,0.84101939,0
-1.3944467,-2.0587697,-2.7851226,-0.37348378,-0.55141371,-0.74595761,0
-0.48964086,-3.1079113,1.9581871,-0.1321263,-0.83864903,0.52840364,0
3.5209413,-0.70697492,-0.25852641,0.97790056,-0.19635408,-0.071802706,0
-0.67461741,2.0463252,-2.8601978,-0.18839002,0.5714457,-0.79872334,0
3.6530933,-0.40621966,0.62324351,0.97988749,-0.10896233,0.16717573,0
-2.334157,1.1657546,-2.615526,-0.63181746,0.31555036,-0.70797932,0
-0.42333543,-3.2467191,1.6020198,-0.11613774,-0.8907041,0.43949768,0
-3.1317444,0.85743558,-1.8197699,-0.84137505,0.23035881,-0.48889971,0
-0.29986587,-1.6618094,3.2068641,-0.082737736,-0.45851949,0.88482451,0
0.50239211,2.3426509,-2.6544976,0.14049551,0.65512955,-0.74233842,0
0.5166887,3.1276615,-1.8655308,0.14047177,0.85031497,-0.50718051,0
2.6205263,1.7187644,1.7146823,0.73356503,0.48113444,0.47999173,0
1.716799,-2.6737156,2.0758967,0.45232987,-0.70445138,0.54694235,0
0.31856576,3.6475556,-0.0015469476,0.087005571,0.99620771,-0.00042249696,0
0.30320624,-3.633971,-0.12003507,0.083102681,-0.99599779,-0.032899182,0
-3.736053,-0.15841758,-0.59391826,-0.98673409,-0.041839886,-0.15686058,0
-2.8636577,0.29348093,-2.4423254,-0.75855833,0.07774058,-0.64695102,0
-1.055658,3.6467061,-0.081466697,-0.27800199,0.96034092,-0.021453828,0
-3.231451,-1.2703224,1.4360853,-0.86001462,-0.33808213,0.38219807,0
1.6741675,0.63429147,3.1915874,0.45749465,0.1733309,0.87215537,0
-0.95727581,-1.6712182,-3.1721199,-0.25795472,-0.45033896,-0.85478318,0
-2.9365714,0.42475617,2.1830804,-0.79717797,0.11530667,0.5926311,0
-1.2826678,1.8312122,2.8835533,-0.3515352,0.50187236,0.79028296,0
-0.85083103,-3.3413482,1.4602497,-0.22722502,-0.89234865,0.38997787,0
-0.84756976,-2.8460002,2.1508195,-0.23115821,-0.77619135,0.58659428,0
0.57207441,-3.5922585,-0.64149874,0.15488018,-0.97254765,-0.17367572,0
-1.5251176,1.1276412,-3.1665232,-0.41318467,0.30550042,-0.8578741,0
0.83617765,1.4559261,-3.3830752,0.22139928,0.3854934,-0.89575511,0
3.5547183,0.32711753,-0.58491588,0.98268825,0.090430386,-0.16169775,0
-2.0571377,-2.6760654,-1.4505212,-0.55994099,-0.72840959,-0.39482349,0
3.5523193,-0.68145764,-0.14689459,0.98128366,-0.18824413,-0.040577788,0
-3.43221,0.20372343,-1.5601072,-0.90903914,0.053957239,-0.41320273,0
-1.2976023,3.3481646,1.3219796,-0.33911517,0.87500882,0.34548596,0
0.99161631,-1.0831679,-3.4315763,0.26566401,-0.29019159,-0.91935384,0
-0.76158541,3.5422089,-0.27330017,-0.20960401,0.97488898,-0.075217843,0
2.3906083,-1.7442963,2.1076896,0.65799493,-0.48010296,0.5801239,0
1.6579702,-0.86130011,3.2387478,0.443425,-0.23035516,0.8662048,0
-0.88888687,-3.4647398,0.61308312,-0.24493273,-0.95470881,0.16893502,0
-1.5906876,-2.1538618,-2.4958954,-0.43456057,-0.58841431,-0.68185461,0
0.64508641,0.38770768,3.6537714,0.17292306,0.10392964,0.9794367,0
0.67217493,-2.3446069,-2.8401136,0.17954858,-0.62628162,-0.75863934,0
-2.3747368,-2.6886771,0.75256944,-0.64788985,-0.73354089,0.20532048,0
-2.4661384,-1.2585169,-2.2958453,-0.6856575,-0.34990394,-0.63831109,0
-0.32716626,-2.1734776,2.9691799,-0.08856228,-0.58834958,0.80374223,0
-2.2649496,-1.6012685,-2.4180076,-0.61551136,-0.43515274,-0.65710568,0
-2.6872773,-2.4084067,-0.81482244,-0.72640216,-0.65102017,-0.22025593,0
3.4531236,0.0067192386,-1.58556,0.90877628,0.0017683365,-0.41727996,0
-3.0426476,0.43431446,-1.8572158,-0.84728813,0.12094384,-0.51718014,0
-3.5091743,-0.43191189,-0.83612388,-0.96587002,-0.11888003,-0.2301359,0
2.9246707,-0.16181105,-2.3046947,0.78469777,-0.04341438,-0.61835635,0
3.2618122,-1.4650985,-1.2084566,0.86418736,-0.38816446,-0.32016954,0
-2.4100313,1.6403143,2.1510201,-0.66521233,0.45275652,0.59372056,0
-0.75458044,-3.4814386,1.130702,-0.20189886,-0.93150908,0.30253562,0
2.2496312,1.5179183,-2.4975727,0.60995442,0.41156125,-0.67718011,0
3.4925804,1.4939297,-0.20144536,0.91813022,0.39272454,-0.052955996,0
-1.4947709,-2.7906587,-1.9475557,-0.40215898,-0.75080973,-0.52397799,0
0.89644164,2.3827224,2.7937951,0.23717161,0.63039696,0.73915446,0
1.8064156,0.49785483,3.2611508,0.48028529,0.1323684,0.86706668,0
-2.7078297,0.56212527,-2.4130976,-0.73776072,0.15315363,-0.65745962,0
-1.4216872,2.2813871,2.5684364,-0.38238975,0.61362231,0.69082969,0
-1.6700566,2.3068423,2.2861824,-0.45729682,0.63166225,0.62600511,0
0.58004487,2.7167833,2.4476135,0.15666492,0.73377883,0.66107845,0
2.8774097,2.1393797,-0.4325633,0.79671669,0.59236592,-0.11977106,0
-0.92325479,3.51455,0.13480002,-0.25389996,0.96651983,0.037070718,0
-1.6102228,0.049072418,3.2955389,-0.4389663,0.013377737,0.89840394,0
2.6782835,-2.0640976,1.5905997,0.71673095,-0.55236971,0.42565772,0
2.1774549,-2.6344991,-1.4305398,0.58767903,-0.71103185,-0.38609216,0
-0.39755216,3.0860403,2.0964525,-0.10596003,0.8225258,0.55876988,0
-0.059708185,3.2746449,1.6154418,-0.016349809,0.89669138,0.44235414,0
-2.3961949,2.7481754,0.54865187,-0.64987338,0.74533421,0.14880019,0
0.49971214,3.5298042,0.81322384,0.13666114,0.96532995,0.22240023,0
2.5060728,-2.3317194,-1.3893151,0.67837048,-0.63117462,-0.37607461,0
0.28564918,-2.8113503,2.2935085,0.078487284,-0.77246946,0.63018304,0
-1.2521871,-2.4652293,-2.3997941,-0.34201607,-0.67334026,-0.65546763,0
0.63631535,-1.2315992,-3.3780973,0.17426252,-0.33728808,-0.9251321,0
1.8968002,0.58601665,3.0487761,0.52136064,0.16107444,0.83799648,0
-1.8204201,-1.2095689,-2.957165,-0.49505585,-0.32893732,-0.80418903,0
-0.64511955,-0.15876403,-3.596488,-0.17639053,-0.043409739,-0.98336256,0
0.09921477,3.7399199,0.50799966,0.026278108,0.99055839,0.13454923,0
-0.13202181,-3.5516496,0.90976936,-0.03598604,-0.96809614,0.24798173,0
0.94281423,-0.39230576,3.5916219,0.2524963,-0.10506391,0.96187687,0
0.29192036,-3.3853168,1.2554412,0.080587745,-0.93455303,0.346578,0
-1.769454,-3.2752955,0.78872782,-0.46499223,-0.86071014,0.20726863,0
-2.4068098,0.72111398,-2.7024546,-0.65225434,0.19542456,-0.7323752,0
-0.23647499,-3.1251004,-1.7549608,-0.065834828,-0.87003046,-0.48858249,0
-0.66937113,3.5363555,-0.78625643,-0.18169542,0.95991534,-0.213423,0
-3.634367,0.60187376,0.064590506,-0.98641139,0.16335586,0.01753065,0
2.0734034,2.2367837,-1.895864,0.57736152,0.62285656,-0.52792376,0
2.8085155,-2.5197246,0.02776666,0.74431938,-0.66778332,0.0073587853,0
1.0776237,-0.01833353,3.5710452,0.28889602,-0.0049149659,0.95734787,0
2.8695354,2.246443,0.83143616,0.76768297,0.60098785,0.22243299,0
-0.74515796,2.5214822,-2.5847571,-0.20210314,0.68388116,-0.70104265,0
-1.6962959,-3.2606468,-0.36055169,-0.45931074,-0.8828944,-0.09762758,0
2.4238446,-2.4726877,1.3606808,0.65151793,-0.66464674,0.36574456,0
-2.2519464,-1.6713684,2.2751837,-0.62359029,-0.46282142,0.63002497,0
3.3241651,1.3922259,-0.32485533,0.91864586,0.384747,-0.089775026,0
2.0766106,-2.5049326,1.5737971,0.57453924,-0.69304377,0.43542501,0
3.4028375,1.4053724,-0.44076431,0.91772217,0.37901938,-0.11887114,0
2.6266418,-1.3545049,-2.1716087,0.71621382,-0.36933666,-0.59213865,0
1.0067223,-1.1214879,-3.3089752,0.27687585,-0.30843946,-0.9100576,0
1.9774706,-2.2917798,2.0816641,0.53827965,-0.62383658,0.56664175,0
2.9884341,-1.4152702,1.4981514,0.82321995,-0.3898626,0.41269377,0
-2.7818742,0.29677948,-2.3553145,-0.76067686,0.081151508,-0.6440382,0
0.54550046,1.1084393,-3.482897,0.14761175,0.29994231,-0.94246769,0
-0.39916876,3.0141292,1.9895562,-0.10985658,0.82952869,0.54755247,0
-0.8525598,-2.5854993,-2.6459551,-0.2245699,-0.68103766,-0.69696212,0
3.1923985,0.46797198,1.9051157,0.85199201,0.12489305,0.50844008,0
3.1688042,-1.6669824,-0.92529303,0.85686183,-0.45076108,-0.25020427,0
-2.5560572,-0.36837667,2.5473039,-0.70465654,-0.10155447,0.70224345,0
-1.4915205,-1.0044038,3.2430072,-0.40222505,-0.2708621,0.8745563,0
-1.9348736,-3.1606159,0.74370581,-0.51190847,-0.83620244,0.19676185,0
2.0054932,-0.94831687,2.9232202,0.54650408,-0.25841975,0.796588,0
2.0684993,2.6955979,-1.3139449,0.56780237,0.7399407,-0.36067745,0
2.0548644,-2.7310975,-1.2238183,0.56603128,-0.75230587,-0.33711198,0
2.5105395,-0.62570477,-2.7106106,0.66997224,-0.16697799,-0.723364,0
-0.39089993,-2.0162024,-3.103148,-0.10504647,-0.54181373,-0.83390838,0
-3.071542,0.16933429,-2.0531745,-0.83049327,0.045785144,-0.55514383,0
3.3872545,-0.16925615,-1.2219998,0.93962079,-0.046951476,-0.33898142,0
3.1657403,-1.8394376,0.033383328,0.86460286,-0.50237316,0.0091174003,0
-0.41105199,-1.4048107,3.3390536,-0.11274724,-0.38532481,0.91586733,0
-2.6351414,-2.5155311,0.24921787,-0.72164577,-0.68888992,0.068249479,0
1.3645461,3.2100496,-1.1430081,0.37175611,0.87454396,-0.31140044,0
-3.2134645,0.73393077,1.7917497,-0.85653186,0.19562533,0.47758132,0
-3.0081289,1.2430791,-1.4765643,-0.84164202,0.34780014,-0.41312677,0
1.6646874,-0.66995448,-3.170336,0.4569619,-0.1839046,-0.87026715,0
-1.1251931,-3.5743225,-0.39918578,-0.29858273,-0.94848692,-0.10592847,0
-1.8129641,-2.89452,1.460153,-0.48808423,-0.77925956,0.3931008,0
0.82310456,-3.4758756,0.94173414,0.22281843,-0.94093651,0.25493205,0
0.19397591,-2.1707671,2.9733827,0.052616786,-0.58882976,0.80654263,0
1.1817085,-0.61850709,-3.4312882,0.32099408,-0.16800854,-0.93206,0
-0.65765834,-2.778573,-2.410989,-0.17598134,-0.74351221,-0.64515126,0
-2.0006051,-1.6968491,2.6238682,-0.53920156,-0.45733348,0.707183,0
-1.5224085,-2.9517622,-1.5345495,-0.41611597,-0.8067975,-0.41943443,0
0.66708648,-1.0918933,3.563657,0.17617923,-0.2883718,0.94117087,0
-3.291702,0.89616495,-1.4009427,-0.89255345,0.24299742,-0.37986922,0
-0.83961707,3.6230729,0.41254815,-0.22438259,0.96824437,0.110251,0
1.3606054,2.8968315,1.9253892,0.36428812,0.77559692,0.51550323,0
-0.64228487,2.3416729,2.7141421,-0.17636585,0.64300305,0.74527991,0
-1.1670759,-2.0425622,-2.8928621,-0.31300285,-0.5478031,-0.77584851,0
3.665674,-0.16908236,0.74088496,0.97917986,-0.045165513,0.19790621,0
1.6944191,2.2806804,-2.4911976,0.44841245,0.6035611,-0.65927255,0
-2.5363801,-0.64710855,2.5746403,-0.69080806,-0.17624637,0.70122856,0
0.60516882,3.6698358,-0.12669942,0.16261178,0.98610264,-0.034044746,0
-1.8901063,-2.3074365,2.2291028,-0.50759327,-0.61966848,0.59863174,0
0.23579694,3.2710361,-1.8261952,0.062817194,0.87141639,-0.4865053,0
-1.313349,0.31192622,-3.5145133,-0.34884632,0.08285255,-0.93351042,0
2.1686006,2.4179502,1.9915074,0.56919998,0.63464761,0.52271771,0
-0.50642872,-1.1108068,3.5512052,-0.13486116,-0.29580608,0.94568026,0
-0.45885614,-0.36844134,3.6720481,-0.12338483,-0.099072605,0.98740107,0
1.4923868,2.5196633,-2.2837267,0.40186331,0.67848378,-0.61495179,0
-3.1686988,-1.4438593,1.4593195,-0.83926177,-0.38242066,0.38651544,0
0.45311427,-0.59244621,-3.5289059,0.12562549,-0.16425513,-0.97838569,0
0.38148347,2.0482352,-3.0682907,0.10285898,0.55226344,-0.82729989,0
0.49337706,-3.3630767,1.3823688,0.1344564,-0.91651434,0.37672672,0
3.4197025,1.2593766,-0.99894255,0.90500373,0.33328646,-0.26436415,0
3.5344098,-1.1350459,0.53346443,0.94242662,-0.30265236,0.14224471,0
-2.5636694,-2.4300961,1.2656528,-0.68322885,-0.64763099,0.33730185,0
-0.25659606,2.6721439,-2.6462693,-0.06807211,0.70889038,-0.70202613,0
-0.60433209,-1.9130383,3.0610263,-0.1651229,-0.52270335,0.83637047,0
0.20398252,3.3263152,1.5183283,0.055700295,0.90829712,0.41460088,0
2.4620385,2.1658335,1.7796355,0.65990579,0.58051324,0.47699976,0
-0.79597116,0.99578279,3.4246314,-0.21782303,0.27250287,0.93717414,0
2.3240182,0.60721946,-2.8607755,0.62214708,0.16255459,-0.76583874,0
-1.3369722,0.72328752,-3.3680956,-0.36181054,0.19573557,-0.91147178,0
-1.9956402,3.1562445,-0.55638307,-0.52858341,0.83599168,-0.14736868,0
0.28451133,0.75738287,-3.5114944,0.078954294,0.21018015,-0.97446936,0
-0.86581337,-1.8179423,-3.0119901,-0.23897235,-0.50176859,-0.83133662,0
-3.4078426,1.2906289,-0.28937981,-0.93224466,0.35306263,-0.079162329,0
0.14698924,2.6083302,-2.6035664,0.03985285,0.70719051,-0.70589894,0
-0.049664609,-3.1633375,1.8961029,-0.013465041,-0.85764229,0.51407039,0
0.95599282,2.1248808,-2.9003434,0.25696287,0.57115018,-0.77958804,0
0.064349249,3.454128,-0.99379665,0.017900519,0.96086097,-0.27645195,0
0.29400989,2.1711292,-2.9060025,0.080785684,0.59656549,-0.79848808,0
0.32139274,-2.8291581,-2.4661119,0.085321419,-0.75106794,-0.6546886,0
-0.50977272,1.6079034,-3.2406616,-0.13953494,0.44011515,-0.88703358,0
-0.73804134,3.4469681,1.0278009,-0.20099847,0.93874866,0.2799117,0
2.6582718,0.5324505,2.5212507,0.71801615,0.14381827,0.6810059,0
-2.9823444,-1.4979844,-1.4127365,-0.82291818,-0.41333878,-0.38981634,0
-3.5174713,1.0866996,0.58218205,-0.94371539,0.29155466,0.15619577,0
3.3019917,1.7286958,-0.087692574,0.88568777,0.46368518,-0.023521634,0
1.2548485,0.14477471,-3.3977289,0.34617114,0.039938547,-0.93732089,0
2.6426728,-2.1556509,-1.7293637,0.69111633,-0.56374955,-0.45226619,0
0.58694518,-3.2807395,-1.6618187,0.15760455,-0.88093317,-0.44622597,0
0.71309972,-3.6232073,-0.73341024,0.18941027,-0.96237969,-0.19480506,0
-2.1299922,2.607091,1.7565496,-0.56092733,0.68656987,0.46258226,0
0.067303158,-1.4515616,-3.3703113,0.018337607,-0.39549652,-0.91828442,0
2.7300076,0.076666176,2.325536,0.76107293,0.021373035,0.64831412,0
-0.65039021,-2.8038726,-2.2633548,-0.17762348,-0.76574582,-0.61812884,0
2.2077291,0.35356969,3.0687413,0.58145964,0.09312126,0.80822837,0
-3.1075735,-0.062024467,1.9087687,-0.85197347,-0.01700465,0.52330869,0
-1.2404069,2.5694015,2.2680569,-0.340323,0.70495135,0.62227321,0
-3.4909775,1.0891013,0.41356346,-0.94857562,0.29593286,0.11237432,0
-2.1158609,-1.8168684,-2.4763327,-0.567312,-0.48714507,-0.6639629,0
3.5073731,-1.3792131,-0.20842789,0.92921263,-0.36539662,-0.055219058,0
1.7510045,-2.536567,1.96916,0.47873506,-0.69351256,0.53838009,0
3.4003198,-0.36602607,-1.5442686,0.90615886,-0.097543105,-0.41153559,0
-1.5264777,-2.7263172,2.0277586,-0.40980566,-0.73192042,0.54438198,0
-2.7406602,-2.4084837,0.18575661,-0.7501899,-0.65926456,0.050846409,0
-3.1425681,1.1189297,1.5372319,-0.85558969,0.3046377,0.41852388,0
0.86117804,2.7780068,2.2894249,0.23266234,0.7505272,0.61852825,0
0.12572093,-1.9750104,-3.1024196,0.034164459,-0.53670585,-0.84307748,0
2.1182096,2.4897497,1.9327784,0.55778491,0.65562201,0.5089556,0
-1.1093845,2.7070937,-2.2097945,-0.30258375,0.73835766,-0.60271972,0
-1.8057159,2.1934187,2.2684698,-0.49667498,0.60331541,0.62395877,0
-1.8065207,2.6597786,2.0229747,-0.47555888,0.70017534,0.53253949,0
2.8657265,1.0945195,2.1702743,0.76262397,0.29127231,0.57755101,0
-3.3033955,-1.7412027,0.38531852,-0.87996179,-0.46382329,0.10264153,0
3.4335124,-1.2481089,-0.95173848,0.90947706,-0.33060208,-0.25209877,0
-2.2523558,2.8967237,-0.48821405,-0.60846782,0.78254205,-0.1318897,0
2.0978522,0.71999067,2.9966612,0.56270099,0.19312106,0.80378598,0
3.5582235,-0.63836837,-0.87298232,0.95678252,-0.17165299,-0.23473912,0
-0.08705125,-3.7193065,0.39226261,-0.02326984,-0.99421507,0.10485648,0
1.5908651,2.9690993,-1.7925915,0.41692299,0.77812111,-0.46979004,0
-1.8325728,0.49041668,-3.0731015,-0.50742996,0.13579383,-0.85092592,0
0.12223397,-2.2951891,-2.950542,0.032681789,-0.61366647,-0.78888863,0
2.5888624,0.026152492,-2.4842484,0.72151566,0.0072886962,-0.69235975,0
-1.3750859,-0.56219697,3.472996,-0.36403131,-0.14883237,0.91941833,0
-3.0336437,2.2186179,0.149277,-0.80653656,0.58985054,0.039687376,0
0.12982409,-2.9834869,-2.2504599,0.034718506,-0.79786587,-0.60183442,0
-0.53751278,3.6527426,-0.82197648,-0.14210622,0.96570253,-0.21731199,0
3.4234385,0.57210368,-1.5093956,0.9044978,0.15115403,-0.39879349,0
0.73503089,3.1561968,1.7050558,0.20072725,0.86191577,0.4656283,0
1.2059809,1.3816361,-3.2333584,0.32442862,0.37168276,-0.86982644,0
-0.94713086,-3.3346305,1.1155269,-0.26008677,-0.91570586,0.30632916,0
1.8501474,-2.9968281,-1.094687,0.50164807,-0.81255847,-0.29681289,0
1.7150042,3.1641943,1.0594977,0.45711672,0.84338343,0.28239822,0
-1.7865169,3.260062,0.62281412,-0.47396645,0.86490089,0.16523382,0
-3.3513632,-1.4645617,-0.86636239,-0.89164931,-0.38965499,-0.23050065,0
1.8446076,-2.124095,-2.460161,0.49357864,-0.56836361,-0.65828788,0
-1.4503282,-1.173606,-3.2394793,-0.38796267,-0.31393951,-0.8665604,0
3.2036536,1.3138338,-1.1374584,0.87900519,0.3604843,-0.31209114,0
2.027154,-0.088711143,3.0948277,0.5477758,-0.02397145,0.83628166,0
3.5780067,0.75566506,0.68370312,0.96175289,0.20311953,0.18377647,0
0.83244103,3.2570219,1.4908701,0.22636195,0.88566732,0.40540561,0
-2.4108503,-2.7805297,-0.44560745,-0.65034455,-0.75006831,-0.12020589,0
0.71119952,3.3719528,-1.4047601,0.19110796,0.90608472,-0.37747613,0
-3.2316465,1.3557501,-1.2572525,-0.86797357,0.36413488,-0.33767983,0
-1.061903,2.2873797,2.7940869,-0.28213114,0.60772127,0.74234551,0
1.0429662,3.2938011,1.1908569,0.2853958,0.90131104,0.3258644,0
-3.3522048,-1.3864141,-0.58751857,-0.9121992,-0.37726983,-0.15987507,0
3.3334775,-1.385558,0.71966136,0.90559036,-0.37640813,0.19550706,0
-0.28051379,-2.9013302,2.203428,-0.076769583,-0.79402125,0.60302293,0
1.4187599,0.41831714,-3.3278656,0.38957873,0.11486613,-0.91380203,0
-2.6884806,2.4500735,0.37995467,-0.73511875,0.66993046,0.10389207,0
0.487178,3.0453153,-2.018487,0.13217479,0.82621527,-0.54762959,0
2.1568096,2.2283723,-1.9580669,0.58806658,0.60757858,-0.53387827,0
-2.4287384,-2.1003458,2.0621738,-0.63644153,-0.55038756,0.54038471,0
-0.82235271,-1.4512129,-3.1988144,-0.2279508,-0.40226671,-0.88669044,0
3.3898671,-1.2560136,-0.26437268,0.93520564,-0.34651241,-0.072935842,0
-2.0772355,2.5782084,-1.4276797,-0.57611406,0.71505713,-0.395962,0
-3.6340384,-0.48864567,-0.73613656,-0.97169214,-0.13065717,-0.19683284,0
-2.3479199,-1.2710558,-2.5567889,-0.63514197,-0.34383667,-0.69164371,0
-3.6347561,0.63211167,-0.37705305,-0.98010731,0.17044809,-0.10167187,0
-1.9041363,-2.6903601,-1.6611793,-0.51588994,-0.72890246,-0.45006528,0
1.4895927,-0.57615954,-3.3397155,0.40237892,-0.15563613,-0.9021467,0
-2.8927357,-2.278162,0.51848674,-0.77794409,-0.61266667,0.13943677,0
0.1104886,2.9903367,-2.2656667,0.029437402,0.79671335,-0.60364002,0
-3.5825164,0.94370008,-0.25026271,-0.96481371,0.2541495,-0.067398682,0
-2.5627098,0.57708091,-2.5772462,-0.69638073,0.15681371,-0.70033079,0
2.8523059,-0.39844218,2.3710001,0.76460683,-0.10680888,0.63558495,0
2.6897609,-2.2130592,-0.87893492,0.74874711,-0.61604792,-0.24466857,0
2.6460476,-1.4410748,2.2225423,0.70673281,-0.38489667,0.59361881,0
1.9204971,0.35231629,3.1886404,0.51364398,0.094228283,0.85281354,0
-1.7616385,-3.2256234,-0.3545073,-0.4771007,-0.8735885,-0.096010432,0
0.70145315,2.4148407,-2.6389296,0.19243231,0.66247243,-0.72394758,0
-0.22411847,1.1378397,-3.5184577,-0.060496483,0.307138,-0.94974017,0
-3.2860599,-0.45099348,1.5743887,-0.895006,-0.1228346,0.42880756,0
-3.1242046,1.954442,-0.41122437,-0.84254748,0.52708143,-0.11090057,0
0.47499767,3.2915528,1.6043409,0.12864181,0.89143878,0.43449757,0
3.5568404,-0.66829854,0.71382117,0.96422583,-0.18116942,0.19351017,0
-3.5230067,-0.39378116,-1.2854708,-0.93428159,-0.10442855,-0.34089965,0
-1.9957429,-2.1998968,-2.3029048,-0.53100234,-0.58532107,-0.61272812,0
-0.19835193,-3.6103082,1.0601729,-0.052641522,-0.95815611,0.28136411,0
-2.7507031,1.4013362,1.8180205,-0.76778662,0.39114624,0.50745273,0
2.1713929,2.3663344,-1.8855076,0.58305037,0.63539499,-0.50628603,0
2.3198168,1.0185101,-2.6369123,0.63438362,0.27852461,-0.72109741,0
-1.2658542,-1.8285452,2.8825927,-0.3476873,-0.50223947,0.79175061,0
2.9214158,-1.2664858,-1.9900957,0.77803135,-0.33729047,-0.53000224,0
3.1849298,1.0943747,1.5687973,0.85727483,0.29456845,0.4222669,0
3.0212083,2.2907238,0.075508669,0.79668915,0.60406125,0.01991155,0
-2.6626618,-2.3586922,0.96257579,-0.72255373,-0.64006698,0.26120958,0
0.94768167,1.369521,3.2597489,0.25889027,0.3741295,0.8905071,0
-2.5869155,-2.3849223,-0.72142351,-0.72024459,-0.66400599,-0.20085751,0
-1.5209048,1.0889664,3.1103625,-0.41903841,0.3000311,0.85696447,0
-3.218399,0.85169083,1.4887892,-0.88249993,0.23353757,0.4082329,0
-0.46433902,3.1848772,-1.7979137,-0.12595074,0.86388958,-0.48767939,0
-1.8582461,-2.9792774,-1.2044944,-0.50058627,-0.8025769,-0.32447445,0
-3.2728841,-0.25205219,1.741199,-0.88080508,-0.067832783,0.46859494,0
2.1687875,2.9617028,0.15619639,0.59027529,0.80608177,0.042511713,0
-2.8899517,-1.8391274,1.2433751,-0.79302776,-0.50467247,0.34119287,0
-1.5737556,-3.2597561,-0.78740364,-0.42483196,-0.87996417,-0.21255793,0
-3.4456568,0.56910568,-1.050053,-0.9448477,0.15605681,-0.28793937,0
1.8067845,2.7596207,-1.6711197,0.48863047,0.74631739,-0.45194098,0
1.6126624,0.72392344,-3.173681,0.44392124,0.19927604,-0.87362635,0
2.5454173,2.089417,1.6450589,0.69146913,0.56759548,0.44688448,0
-0.66104823,2.0257878,2.9525242,-0.18154775,0.55635458,0.81086987,0
1.6891658,3.304003,0.52706754,0.45068437,0.8815372,0.14062628,0
-0.61728686,-2.1683629,2.8150175,-0.17115742,-0.60123003,0.78053033,0
2.5807509,-0.3826386,-2.6187723,0.69814682,-0.1035117,-0.70843238,0
-0.4143689,-0.73645562,-3.6157165,-0.11159501,-0.19833723,-0.97376019,0
0.43280229,3.7350063,-0.1799939,0.11497537,0.99221689,-0.047815979,0
-2.3318934,-2.4708915,1.6200069,-0.61953068,-0.65645927,0.43039873,0
2.7006049,-1.9216697,1.7332898,0.72201526,-0.51376444,0.46340051,0
3.6960328,0.60686314,-0.17399909,0.98572379,0.16184907,-0.046405174,0
2.6154687,-2.724668,-0.066610448,0.69239485,-0.72130328,-0.017633831,0
2.6937032,-0.79205382,-2.5121324,0.71498072,-0.21023223,-0.66678703,0
1.2694383,-2.4352181,2.4771643,0.34324059,-0.65845323,0.66979498,0
-2.1622608,-3.0258527,0.14421023,-0.5809685,-0.81300324,0.038747225,0
2.0811784,-2.9344323,1.0846829,0.55387461,-0.78095537,0.28867218,0
0.51590848,-0.89869648,3.6328533,0.13656479,-0.23789161,0.96164316,0
-0.82090133,3.5613439,0.64883482,-0.22115529,0.95944542,0.17479964,0
-0.93575716,3.4564693,1.1974167,-0.2478305,0.91542822,0.31712967,0
-0.72226334,-2.8055086,2.1032341,-0.2017516,-0.78366965,0.58750159,0
0.40172401,-0.25394139,-3.7676284,0.10578685,-0.066870935,-0.99213779,0
0.46711913,3.3274403,-1.6630508,0.1245948,0.88752896,-0.44358593,0
0.44031093,-1.8068928,3.1819756,0.11946766,-0.4902564,0.8633517,0
-1.7900126,0.62182879,3.2159002,-0.47955281,0.16659085,0.8615548,0
3.0676138,-0.02244761,-2.0863428,0.82686555,-0.0060506817,-0.56236708,0
-0.89520562,2.1952267,2.8112164,-0.24343367,0.59694898,0.76445532,0
-0.93681246,-0.61680657,3.5040903,-0.25462204,-0.16764566,0.9523983,0
0.46885237,-1.709394,-3.3288553,0.12431931,-0.45325711,-0.88266796,0
2.3799307,-2.0889599,-1.9822214,0.63704175,-0.55915689,-0.53058594,0
-1.9026723,3.069458,-0.61895913,-0.51928931,0.83773577,-0.16893022,0
1.8018688,-1.0925682,3.1970272,0.47058183,-0.28533861,0.83494586,0
-3.6391969,-0.13535051,0.9321844,-0.96809608,-0.036005829,0.2479789,0
1.5566126,3.4111717,0.23093222,0.41436121,0.90803403,0.061472811,0
-0.73254848,-3.6149399,-0.45175299,-0.19713473,-0.97280961,-0.12157039,0
1.7417655,1.7255079,-2.8610198,0.46227258,0.45795774,-0.75932789,0
-0.026856845,-3.2644036,-1.838397,-0.0071683899,-0.87130553,-0.49068856,0
2.7726283,-2.0735514,-1.3079014,0.74914867,-0.56026202,-0.35338765,0
-1.9285409,-0.73370206,-3.075572,-0.52071911,-0.19810453,-0.83042532,0
-0.86287773,3.4834518,-0.48358312,-0.23828723,0.96196955,-0.13354346,0
-3.6433604,0.60952324,0.83892101,-0.96180171,0.16090652,0.22146468,0
3.3620079,1.4098097,-0.38558275,0.91708553,0.38456663,-0.10517892,0
1.935595,0.10632678,-3.229687,0.5138579,0.028227421,-0.85741079,0
-1.8733912,2.9968946,1.2718014,-0.4987568,0.79786944,0.33859429,0
1.240072,-3.3673954,-0.70172358,0.33914745,-0.9209494,-0.19191447,0
0.23068081,1.4613922,-3.4462068,0.061508931,0.38966689,-0.91889954,0
-1.5564331,3.3095615,-0.83110344,-0.41499108,0.88242692,-0.22159675,0
1.4214203,2.4659965,-2.5219836,0.37377366,0.64845318,-0.66317546,0
2.5524092,2.4881566,0.91081953,0.69377112,0.67630661,0.24757013,0
1.6812338,-2.7563813,1.663147,0.46291548,-0.75894952,0.45793542,0
1.6851852,-0.043550681,3.2570271,0.4595015,-0.011875018,0.88809758,0
2.1750929,2.770596,1.0412714,0.59217227,0.75429887,0.28348768,0
2.0354924,2.3010509,-2.0174,0.55382746,0.626082,-0.54890478,0
2.5958226,2.5803444,0.17205742,0.70843571,0.70421153,0.046956841,0
1.0615342,-1.7859741,3.1513288,0.28123263,-0.47315878,0.83488268,0
2.6401203,-2.5550258,0.46997228,0.71278453,-0.68981057,0.12688398,0
-1.0559859,1.5026972,-3.1785369,-0.28765556,0.40934181,-0.86584842,0
-1.3179618,-0.19519126,-3.4520335,-0.3561843,-0.052751198,-0.93292552,0
-0.83217722,-2.8033667,2.2675917,-0.2248852,-0.75757378,0.61278749,0
-0.41344532,-2.7525897,-2.3823118,-0.11284744,-0.75130302,-0.65023786,0
-2.2912591,-1.4946754,2.4235001,-0.62692451,-0.40896669,0.66310775,0
0.66272318,-2.2487328,-2.9240427,0.17682979,-0.60001361,-0.78020179,0
-0.026249193,0.014366911,-3.6004503,-0.0072902786,0.0039901715,-0.99996543,0
2.4512243,-2.3586819,-1.5396394,0.65646976,-0.63168573,-0.41233546,0
-2.7313774,2.3618305,-0.37198985,-0.75244147,0.65063846,-0.10247599,0
0.40273288,-1.3683226,3.359364,0.11034884,-0.37492052,0.92046601,0
-3.0441566,-2.1923933,-0.18907039,-0.81042981,-0.58366936,-0.050335217,0
0.28351226,3.3668678,1.6880181,0.075063206,0.8914178,0.44692263,0
1.1175889,2.4781756,2.481811,0.3036103,0.67323476,0.67422235,0
1.8043013,2.1506963,2.4273813,0.48617429,0.57951146,0.65406501,0
3.1848533,0.97324646,-1.7869725,0.84269035,0.25751433,-0.47282067,0
1.7057335,-1.8951223,-2.7052851,0.45884261,-0.50978822,-0.72772211,0
2.2327344,1.9969184,-2.1790061,0.60276288,0.53910053,-0.58825803,0
-2.0825486,1.4277121,2.6975093,-0.56363529,0.38640583,0.7300725,0
3.3654466,0.14519294,-1.6179087,0.90058178,0.038853124,-0.43294674,0
0.33774894,1.6542175,-3.3237066,0.090599358,0.44373503,-0.89156657,0
0.58378172,3.5536454,-0.49650186,0.16058509,0.97752714,-0.13657638,0
3.5565612,-0.68262917,0.041660067,0.98200923,-0.18848211,0.011502844,0
0.057781946,-2.6897607,-2.664268,0.015260577,-0.71038282,-0.70365006,0
3.5945306,-0.9869616,0.33035356,0.96054572,-0.26374006,0.08827848,0
-1.9000766,-0.71411031,-3.0844951,-0.51458108,-0.19339624,-0.83534676,0
2.9150329,1.621518,1.8978009,0.75956666,0.42251703,0.49450773,0
-1.9550003,2.5696914,1.7293096,-0.53374976,0.70157135,0.47213221,0
1.2115484,1.3486115,-3.2880397,0.32267475,0.35917911,-0.87571192,0
3.5416415,-1.3562552,-0.3389048,0.93016052,-0.35620067,-0.089008406,0
-2.3979847,1.1277646,2.6596024,-0.63870978,0.30038318,0.70839238,0
-2.1269226,2.6404421,1.6672608,-0.56293225,0.69884539,0.44127363,0
-2.4404647,1.1909209,2.5617697,-0.65371823,0.31900758,0.68621176,0
0.90512282,1.3500742,3.3379714,0.24379224,0.36363861,0.89907306,0
-1.7699472,-0.33638707,3.1051848,-0.49302262,-0.093701348,0.86495596,0
-3.5153093,0.63668907,-0.8124699,-0.95949054,0.1737819,-0.22176062,0
1.3763025,-3.1273451,-1.187524,0.38048002,-0.86455727,-0.32829204,0
2.3000925,-2.7463777,-0.27593318,0.64017159,-0.76438361,-0.076798901,0
-3.7294915,-0.3915064,-0.13892314,-0.99385339,-0.10433057,-0.037020925,0
1.627377,-3.026979,1.1800203,0.44786301,-0.83304107,0.32474801,0
1.1457266,-3.307673,-1.455698,0.30221474,-0.87248349,-0.38397765,0
-2.2597728,-0.37360132,-3.0130184,-0.59707117,-0.098711945,-0.79609174,0
-2.3817194,-2.7697551,0.49447677,-0.64610428,-0.75136924,0.13413988,0
-3.3089671,-1.7050717,-0.18728885,-0.88780212,-0.45747393,-0.050249949,0
3.0800149,-2.0442455,0.20471951,0.83190972,-0.55214918,0.055294588,0
2.9636593,-2.1344154,-0.1244103,0.81098855,-0.58407068,-0.034044173,0
2.6351304,2.134845,-1.4249049,0.71634763,0.58034748,-0.38735363,0
-3.0901902,0.72280616,1.9789151,-0.82624733,0.1932621,0.52911735,0
0.87651551,3.0301466,2.0375717,0.23341182,0.80691332,0.54259545,0
2.6311827,-1.132181,2.4136622,0.70244288,-0.30225667,0.64437175,0
1.9341539,-0.21080829,3.014843,0.53904247,-0.058751591,0.84022701,0
-1.1273209,-3.4635632,0.40052456,-0.30764461,-0.94520253,0.1093027,0
-3.6213737,0.19528869,0.36068243,-0.9936471,0.053584099,0.098965496,0
1.7513772,-1.5414119,3.0054646,0.46031389,-0.40512875,0.78992522,0
0.75288981,-3.1655905,-1.8559463,0.20098624,-0.8450641,-0.49545056,0
-2.0729549,2.8768444,-1.0183338,-0.56189448,0.77979648,-0.2760292,0
-0.84313816,2.8929093,-2.1291299,-0.22851874,0.7840755,-0.57706565,0
-3.6314013,0.48009947,-0.97689885,-0.95789325,0.12664093,-0.25768697,0
1.6697268,-1.8600115,2.7286522,0.45122525,-0.50264758,0.73738813,0
1.2385337,-2.4533582,2.4050462,0.33913752,-0.67178291,0.65855402,0
-0.63257074,3.5851121,-0.7093972,-0.17055184,0.96660727,-0.19126557,0
-0.34220639,3.7234855,-0.54665256,-0.090556532,0.98532909,-0.14465819,0
2.2600393,0.99747652,-2.7013628,0.61739343,0.27248883,-0.73795336,0
0.46855485,-1.7591169,3.2034402,0.12716672,-0.47742784,0.86942005,0
2.425741,0.58944595,2.6985285,0.65986782,0.16034539,0.73407346,0
3.4204071,0.69772303,-1.1538273,0.93032032,0.18977447,-0.31383076,0
3.6057539,-0.1243644,0.44165766,0.9920007,-0.034214638,0.1215071,0
-2.6579502,-0.037618417,-2.5411332,-0.72277439,-0.010229548,-0.69100839,0
2.9098108,0.83871108,2.1660559,0.78153449,0.22526607,0.58177233,0
1.8320065,-2.939167,-1.2858967,0.49588943,-0.79557681,-0.34806785,0
-2.0102139,-0.060979504,-3.1552312,-0.53724915,-0.016297363,-0.84326613,0
1.9309839,2.7417426,1.5899266,0.52029908,0.73875612,0.42840198,0
3.65346,0.72566593,0.56944424,0.96957445,0.19258104,0.15112211,0
-2.2675312,-2.927917,-0.42090341,-0.60838407,-0.78556722,-0.1129294,0
-0.73438072,-3.6424503,0.45464221,-0.19617723,-0.97301823,0.12144988,0
-3.3202674,1.7032208,0.74756682,-0.87242663,0.4475348,0.19642912,0
-3.2357328,-1.8476806,-0.33020091,-0.86500466,-0.49393827,-0.088272221,0
-1.7655003,3.0320501,1.4817011,-0.46355107,0.79609734,0.38903657,0
1.0409147,-2.2142336,-2.8091979,0.27941701,-0.59437585,-0.75408453,0
0.51494837,3.731416,-0.15697925,0.13658926,0.98975229,-0.041638501,0
2.7307625,0.43157795,2.4455237,0.73983186,0.11692526,0.66255355,0
-3.6845686,-0.13704087,-0.67219287,-0.98310518,-0.03656482,-0.17935242,0
2.4323127,1.0876321,2.5900104,0.65458483,0.2927039,0.69702446,0
-2.1227202,1.9383632,-2.3483779,-0.57187158,0.52220488,-0.63266492,0
1.6314678,-2.777353,-2.0060606,0.42993465,-0.73190552,-0.52864969,0
1.8207051,2.9644158,1.240834,0.49294022,0.80259007,0.33594513,0
2.3400009,-2.8735178,-0.41688696,0.62749034,-0.77055728,-0.11179164,0
-1.706071,2.1325378,-2.5121143,-0.45977369,0.5747034,-0.67699647,0
2.1691406,2.3568683,1.9498168,0.57845217,0.62851417,0.5199644,0
-0.59705764,-2.8831992,-2.2003553,-0.16243307,-0.78439146,-0.5986197,0
1.988052,2.5816152,-1.7256116,0.53918892,0.70017195,-0.4680112,0
-1.9982593,-2.720937,1.3117102,-0.55173755,-0.75127548,0.36217514,0
0.6735512,3.527715,0.50115472,0.18574381,0.97283059,0.1382024,0
3.6790633,-0.2981582,-0.38704783,0.99129725,-0.080336593,-0.10428727,0
2.4693186,-2.2842629,-1.4175574,0.67646569,-0.62577003,-0.38833746,0
-1.6549273,-0.53052211,-3.3251894,-0.44108468,-0.14139907,-0.88625652,0
-3.1879575,1.1678891,1.6026785,-0.84912276,0.31107104,0.4268786,0
-1.915347,0.1880901,-3.0960662,-0.52540255,0.05159536,-0.84928793,0
1.3807403,3.3656235,0.88058591,0.36889592,0.89920223,0.23526838,0
2.4851036,2.6813607,0.080508359,0.67959112,0.73326069,0.022016291,0
2.930011,0.79089576,2.0151935,0.80428416,0.21709983,0.55316794,0
-0.36584198,2.8348486,2.4290016,-0.097530968,0.75575125,0.64755517,0
1.2863958,0.52093208,3.3360283,0.35602599,0.14417441,0.92328721,0
-1.7665445,1.9974091,2.6328726,-0.47141653,0.53302461,0.70260316,0
2.4109654,-2.4422987,1.2814708,0.6581409,-0.66669416,0.34981352,0
0.23884438,-2.5802929,-2.7243447,0.063523762,-0.68626237,-0.72457486,0
-0.7397725,2.9581401,-2.077774,-0.20048845,0.80169636,-0.56310511,0
-2.98172,-2.3619874,-0.4538379,-0.77833909,-0.61656594,-0.11846846,0
1.9406552,3.16587,0.064097479,0.52253968,0.8524403,0.017258849,0
-2.9326472,-2.3309746,-0.58274066,-0.77353388,-0.61483282,-0.15370743,0
-0.83847958,-1.578383,3.2068405,-0.22838999,-0.42992923,0.87349808,0
0.62130505,0.97405308,3.4675174,0.1699912,0.26650426,0.94872469,0
0.13641943,3.1683025,-2.0196075,0.036284376,0.84269428,-0.53716832,0
-0.068268731,-1.8961483,3.158839,-0.018526744,-0.51457608,0.85724461,0
-0.047934767,3.5857067,1.2409697,-0.012632098,0.94492996,0.32702881,0
0.72666818,-2.7859683,2.3392558,0.19588393,-0.75099808,0.63058025,0
0.47876889,-1.5132599,-3.3214064,0.13005936,-0.41108268,-0.9022724,0
-3.4713733,0.86305404,-0.30137891,-0.96703047,0.24042346,-0.083955996,0
-0.52784306,-1.2489464,3.4068339,-0.1439542,-0.34061468,0.9291172,0
1.910499,-2.8946517,1.475701,0.50687408,-0.76797944,0.39151791,0
-2.5878499,-0.73190689,2.4747241,-0.70808601,-0.20026395,0.67713261,0
-0.080122784,0.016585944,-3.7255909,-0.021500876,0.0044508232,-0.9997589,0
1.8629216,-2.796761,1.3491575,0.51445878,-0.77234501,0.37257922,0
0.2353756,3.742624,-0.034519754,0.062763862,0.99798596,-0.0092048328,0
-3.7280581,0.062568873,0.52277362,-0.99017411,0.016618324,0.13884895,0
1.7609982,-2.6813717,-1.8515737,0.4754388,-0.72392356,-0.49989259,0
1.1058131,-2.9517524,1.9950721,0.29643187,-0.79126704,0.53481275,0
0.83118576,0.58297515,3.5966623,0.22240834,0.15599224,0.9623934,0
1.1368935,-3.4880617,-0.42006528,0.30788136,-0.94459957,-0.11375759,0
2.3175485,-2.7628262,-0.24904892,0.64114034,-0.76432461,-0.068898365,0
2.2769747,-1.865402,2.2860386,0.61094517,-0.50051427,0.61337715,0
1.4887092,-3.423162,0.36891666,0.39687777,-0.91258717,0.098350182,0
-0.92248613,-0.66263497,-3.5592277,-0.24691397,-0.17736183,-0.95266801,0
-0.78902227,2.01774,2.9170797,-0.21714504,0.55529767,0.80280292,0
2.0407538,2.5577636,1.9812756,0.53350019,0.66865849,0.51795119,0
-0.67564464,-0.81526339,-3.505013,-0.18452892,-0.22266093,-0.95727277,0
-3.0416317,2.1272902,0.55210352,-0.81054848,0.56689042,0.14712717,0
-0.81619889,-0.22359872,-3.5557718,-0.22330466,-0.061174598,-0.97282714,0
-0.8254683,-0.3984257,3.6640165,-0.21855569,-0.10548946,0.97010589,0
3.3389809,0.91483128,1.4503851,0.88954687,0.24372265,0.38640097,0
1.7771147,0.49937886,3.0707002,0.49600783,0.13938089,0.85705853,0
-2.7271533,-0.67776686,-2.3849773,-0.73991549,-0.18388779,-0.64707828,0
2.8729954,-1.736822,-1.5105647,0.78041548,-0.47178733,-0.41032717,0
3.114995,2.011595,-0.59326947,0.82951069,0.5356797,-0.15798528,0
1.9889711,-1.7190146,2.6492178,0.53292084,-0.46058923,0.70982599,0
1.2882327,-1.8735282,-3.0405762,0.33930531,-0.49346527,-0.800852,0
1.0653291,2.3685148,2.6598558,0.28657329,0.63712996,0.71550065,0
0.7352981,3.3609118,-1.2288275,0.20127101,0.91997266,-0.33636338,0
0.7778191,3.2352982,1.8419133,0.20451368,0.85066402,0.48429832,0
1.1807817,2.1678236,2.6300471,0.32735333,0.6009953,0.72913957,0
1.2531469,0.44084701,3.5783615,0.32830784,0.11549605,0.93748313,0
0.55879331,-2.4064062,-2.5699062,0.15675515,-0.67505562,-0.7209214,0
-2.2547307,-1.8178978,2.373575,-0.60212016,-0.48546505,0.63385725,0
2.0044005,-3.0361099,-0.46665236,0.54647374,-0.82775587,-0.1272267,0
-1.1414982,-3.3641431,1.2218233,-0.30385089,-0.8954879,0.3252323,0
-2.2384307,-1.0389739,2.5905857,-0.62563175,-0.29038873,0.72405756,0
-2.5529385,2.3698072,1.5463182,-0.66986692,0.62181503,0.40573928,0
-0.72104454,0.13058108,3.5489726,-0.19897291,0.036033969,0.97934228,0
3.4338722,0.97016913,1.0459837,0.92347145,0.26090765,0.28129646,0
0.13176009,0.68541688,3.6624906,0.035339545,0.18383655,0.98232132,0
-3.3911059,0.67243099,1.3922638,-0.90988755,0.1804239,0.37356645,0
1.1076646,2.894213,1.9685478,0.30170768,0.78833097,0.53619665,0
3.223048,1.7141622,-0.47485861,0.87552184,0.46564198,-0.12899251,0
-1.5164732,-3.079438,-1.3002502,-0.4131408,-0.83894753,-0.35423401,0
-2.0470755,-2.4161749,-2.0546346,-0.54228467,-0.64006168,-0.54428709,0
-1.8413609,-2.9341757,-1.1819798,-0.50307643,-0.80164325,-0.32292753,0
-0.1731202,-2.0538661,-3.0917997,-0.046589628,-0.5527308,-0.83205658,0
1.9277451,0.70474154,3.0614154,0.52301937,0.19120447,0.83059716,0
-1.4812679,2.7697568,2.0550976,-0.39463127,0.73790342,0.54750782,0
-0.94036037,0.11052492,3.5008602,-0.25929248,0.030475847,0.9653179,0
-2.2412968,-2.2890337,-1.9711795,-0.59585702,-0.6085481,-0.52404535,0
-3.2801378,1.8145105,0.1980793,-0.87381881,0.48338011,0.052767728,0
-1.3677747,0.5241074,3.4238145,-0.36728874,0.14073864,0.91939741,0
0.66162229,2.5998282,-2.6104107,0.17675596,0.69455814,-0.69738531,0
0.74519056,3.5730803,0.94107646,0.1976985,0.94793552,0.24966688,0
1.5485613,-3.2975583,-0.55721897,0.42018422,-0.89475435,-0.15119493,0
-0.67950988,0.31664428,3.6476779,-0.18247186,0.085029922,0.97952741,0
1.5348618,3.3697648,-0.40726134,0.41202337,0.90459073,-0.10932657,0
-1.2613668,-3.0903862,-1.5625539,-0.34224871,-0.83851951,-0.42397028,0
1.4075598,-0.31237921,-3.4962492,0.37218589,-0.082599074,-0.92447555,0
-3.1295004,-0.16588151,-1.7704142,-0.86945134,-0.04608592,-0.49186414,0
-1.463022,-2.9778662,-1.7074848,-0.39208001,-0.79804802,-0.45759439,0
1.6790242,-3.1092048,-0.84349084,0.46217555,-0.85585332,-0.23218298,0
-3.5166113,-1.1213391,0.028501537,-0.95270795,-0.30378923,0.0077215359,0
0.68836713,-0.023035569,3.632587,0.18618076,-0.0062303669,0.98249578,0
2.564467,0.41543585,2.6157522,0.69561285,0.11268717,0.70952404,0
3.3689771,-1.7339004,-0.13464764,0.88858908,-0.45732725,-0.035514168,0
1.3327332,-0.84831357,-3.3170047,0.36274642,-0.23089595,-0.90283006,0
2.9229341,-0.6983698,2.1169381,0.79514819,-0.18998291,0.57588696,0
1.0490427,-3.5278363,-0.48636535,0.28257027,-0.95025843,-0.13100743,0
3.5051808,1.1992666,-0.046086852,0.94608039,0.32369301,-0.012439263,0
3.3121939,1.7889003,0.53490865,0.87111974,0.47048768,0.14068304,0
-2.4059134,2.7736418,0.034178201,-0.65522718,0.75537449,0.0093081025,0
1.1816788,3.522289,0.40433025,0.31619695,0.94250411,0.10819184,0
0.83574992,3.2647865,1.5987462,0.22405843,0.87526536,0.42861214,0
1.7868515,-2.2301128,-2.3226206,0.48522782,-0.6055975,-0.63071841,0
3.3302307,-1.0504358,-1.4832963,0.87777513,-0.27687162,-0.39096409,0
-3.3962777,-1.1992379,-1.172372,-0.89663905,-0.31660649,-0.30951372,0
-3.6167653,-0.51503891,-0.70992905,-0.97183251,-0.13839205,-0.19075945,0
-3.0660655,0.21526188,2.1501071,-0.81739789,0.057387751,0.57320791,0
2.3855176,2.0945303,-2.0654876,0.62986523,0.55303377,-0.54536545,0
2.2076647,-3.0314052,-0.18280581,0.58799773,-0.80739588,-0.048689187,0
-1.7598695,-1.2661351,-2.9866526,-0.47685528,-0.34307271,-0.8092652,0
1.3329101,3.117686,1.5515252,0.35746485,0.83611286,0.41609392,0
-3.6488881,-0.10773639,0.80137962,-0.9763158,-0.02882652,0.21442138,0
-3.6650968,0.88077188,-0.3786909,-0.96744817,0.23249076,-0.0999602,0
1.7546118,-3.2784424,-0.71143973,0.46346036,-0.86596251,-0.18791854,0
2.690459,0.59034359,2.5089743,0.72210431,0.15844496,0.67339486,0
-2.0049605,2.3957117,1.814847,-0.55494654,0.66310126,0.50232565,0
2.81758,1.0174677,2.1837745,0.76004195,0.27446184,0.58907294,0
1.5855114,3.0628266,1.6406223,0.41514078,0.80195212,0.42957067,0
1.6626093,-3.2218626,-0.23618685,0.45761034,-0.88677329,-0.06500718,0
-2.4127133,2.4799151,-1.1844008,-0.65974414,0.67812014,-0.32386836,0
3.4198875,1.1022812,-0.22956294,0.94984585,0.3061496,-0.06375923,0
-0.84116822,2.8791573,2.1592178,-0.22759783,0.77902365,0.58422714,0
0.78217143,-3.5613465,-0.26811612,0.21393761,-0.97409075,-0.073334463,0
-1.040854,-2.3962531,2.6420381,-0.28012988,-0.64491481,0.71106404,0
-1.0305922,-3.5148497,0.32902378,-0.28023702,-0.95575249,0.089467637,0
-3.3761094,-0.69061834,1.0800201,-0.93487281,-0.19123797,0.29906657,0
-0.91102999,2.0362208,2.9765279,-0.24492276,0.54742086,0.80021453,0
-2.940778,-1.5683831,-1.8262109,-0.77380729,-0.41268885,-0.4805311,0
1.4813854,3.2406466,-0.81971663,0.40516424,0.88632858,-0.22419547,0
3.1676621,1.7994184,0.052491311,0.86941224,0.49387729,0.014407026,0
1.3750479,-2.6334121,2.3300829,0.36419645,-0.69748795,0.61714786,0
0.58042717,-1.3487958,3.4194026,0.15597212,-0.3624478,0.91886032,0
3.3430772,-0.11583608,-1.7392222,0.88670868,-0.030724049,-0.46130657,0
0.35437191,-0.70982897,-3.5387659,0.097714365,-0.19572796,-0.97577786,0
-1.448633,-1.8649653,-2.7958076,-0.39583722,-0.50959951,-0.76395106,0
1.1144422,3.4388413,0.35004398,0.30685472,0.94686353,0.096382432,0
-1.8374114,1.7960571,2.6287231,-0.49985632,0.48860615,0.71512777,0
1.1960709,-2.8157759,2.2215016,0.31635612,-0.74476182,0.58757859,0
1.419546,-0.51837045,-3.4998558,0.37237,-0.135977,-0.91806906,0
-0.95117909,-2.0829718,2.9133415,-0.25669065,-0.56212276,0.78621113,0
2.7593768,-2.3075397,0.70620161,0.75274837,-0.62948877,0.19264933,0
-1.479305,1.0756587,3.1471667,-0.40639567,0.29550567,0.86459178,0
1.2017131,-1.4859788,3.2883162,0.31596392,-0.39070532,0.86459017,0
2.5219665,-1.8815203,-2.0261743,0.67388391,-0.50275302,-0.54140544,0
2.6205857,-1.9596219,-1.711053,0.70968592,-0.530689,-0.4633736,0
2.6267157,-2.4999597,0.40039727,0.7199927,-0.68524843,0.1097504,0
2.6721606,-0.13647895,-2.5909414,0.71745104,-0.036643367,-0.69564444,0
-0.30487534,0.15811881,3.6142232,-0.083976038,0.043552853,0.99551553,0
3.4457133,-1.1773303,0.9211911,0.91738564,-0.31345206,0.24525765,0
2.4686339,0.45016485,2.6377027,0.67807645,0.12364984,0.72451574,0
-2.0526509,2.2902319,-2.060535,-0.55448014,0.61865759,-0.55660987,0
-0.69223434,-2.5754185,-2.3740201,-0.19388005,-0.72131974,-0.66491234,0
-3.5851009,-0.10400035,1.0876687,-0.95656145,-0.027748933,0.29020715,0
0.39633036,3.2211936,-1.6204119,0.10925657,0.88798785,-0.44669965,0
0.48091742,0.40163156,-3.6878405,0.12856385,0.10736833,-0.98587191,0
0.97742909,-2.9895654,1.949033,0.26415461,-0.80794346,0.52673495,0
-1.2256194,-1.6485862,3.0864718,-0.3305696,-0.44465065,0.83247191,0
2.0751121,3.1451306,-0.12172037,0.55043048,0.83425647,-0.032286737,0
-1.4409995,3.0011647,1.7662767,-0.38235843,0.79633659,0.46866831,0
-1.1615528,1.2333277,3.316896,-0.31186587,0.33113676,0.89055496,0
-0.34062555,3.6287949,1.017221,-0.090016507,0.95897514,0.26881915,0
-1.9792998,2.3847582,-2.041281,-0.53336006,0.6426186,-0.55006212,0
-0.81256127,3.3370092,1.4656678,-0.21760124,0.8936401,0.39250106,0
1.4015785,-2.8722191,1.7988772,0.3821694,-0.78316998,0.49050111,0
-1.5555888,-2.7333074,1.904489,-0.42309719,-0.74341923,0.51799285,0
-1.8933725,-2.8964241,-1.24612,-0.51479721,-0.78752118,-0.33881292,0
-0.29019809,3.4048355,1.6126328,-0.076800734,0.90108746,0.42678219,0
3.6682286,0.29825288,-0.10040957,0.99634016,0.081009485,-0.027272588,0
0.61981815,-2.185421,2.8767765,0.16909391,-0.59620935,0.78481954,0
2.8409481,-2.4043262,-0.69006395,0.75053531,-0.63518643,-0.18230441,0
0.81497335,-3.5117669,1.1217145,0.21585436,-0.93012881,0.29709801,0
-0.71802503,2.4988952,-2.6227777,-0.1944233,0.6766386,-0.71018291,0
2.0643451,-2.4836242,1.6610433,0.56842971,-0.68388075,0.45737818,0
-1.3235677,3.3478277,-0.68132317,-0.36124802,0.9137395,-0.18595697,0
2.3549604,-1.1418605,2.6823568,0.6283868,-0.30468878,0.71574771,0
-3.7008152,0.18036075,0.075191937,-0.99860889,0.048667617,0.020289404,0
3.0803573,-2.153451,-0.62974,0.80831391,-0.56508517,-0.16524953,0
3.1422112,0.87128347,-1.9631717,0.82556468,0.22891551,-0.5157913,0
-0.040518094,-0.1038181,-3.6241415,-0.011174771,-0.028632725,-0.99952757,0
-2.012135,-3.1967018,0.27880344,-0.5312537,-0.8440088,0.073611043,0
0.99095124,2.9930465,2.0507107,0.26347515,0.79579431,0.54524511,0
3.4371805,-1.4267128,0.70107388,0.9076308,-0.37674147,0.18512739,0
2.3424175,2.8045666,-0.2624571,0.6393894,0.76553828,-0.07164064,0
-0.72816581,3.5039763,0.89410651,-0.19739723,0.94988698,0.24238181,0
1.005107,2.9700537,-2.1449213,0.26457381,0.78180569,-0.56460655,0
2.7794189,-2.2284243,-0.67806464,0.76643908,-0.61449951,-0.18697982,0
-0.56563264,-3.053375,-1.9177256,-0.15497826,-0.83659732,-0.52543956,0
3.3466949,-0.27020541,-1.6110928,0.89865625,-0.072555691,-0.43261147,0
2.4531274,2.690589,0.66106862,0.66290778,0.72707695,0.17864035,0
-1.3777909,-0.64450282,3.2910609,-0.38002026,-0.17776582,0.90773559,0
-1.2231106,-1.6097013,3.1804972,-0.32454899,-0.42712978,0.84393609,0
0.44551942,3.5017376,1.0145764,0.12129988,0.95340478,0.27623487,0
1.7613564,-2.0113542,2.6154397,0.47093663,-0.53777897,0.69929421,0
0.72398716,3.0017059,-1.9720341,0.1976064,0.81929117,-0.53825063,0
-3.2227075,-1.4642911,-1.1384338,-0.86670691,-0.39380279,-0.30616754,0
2.8399436,1.3610399,1.9618847,0.76541114,0.36682245,0.52875996,0
-0.65675265,-1.9586594,2.9934664,-0.1805703,-0.53852195,0.82303613,0
1.0040195,0.99881953,3.3336143,0.27720246,0.27576679,0.92038661,0
3.6778202,-0.25962013,0.57741773,0.98550534,-0.069567569,0.15472433,0
3.4454706,1.508248,0.26556385,0.91379887,0.40001366,0.070432164,0
-0.7381978,3.6472051,-0.078080975,-0.19833469,0.97990984,-0.020978341,0
0.3335661,3.3258655,1.629795,0.089699164,0.89435756,0.43826771,0
-1.4456788,3.2689836,-0.67413884,-0.39744803,0.89871347,-0.18533519,0
-1.3153634,-3.1983986,1.0023524,-0.36531326,-0.88828486,0.27838132,0
3.5260632,-0.093160406,1.2351751,0.94347715,-0.024927152,0.33049875,0
3.4538851,-1.3299488,-0.35909864,0.92884511,-0.35765997,-0.09657155,0
2.4937079,-0.85138464,-2.6485524,0.66746712,-0.22788204,-0.70891285,0
2.3039277,-0.58518684,-2.7831929,0.62946284,-0.15988061,-0.76040429,0
0.68878192,-2.887646,2.20979,0.18611588,-0.78027129,0.59710771,0
-2.1643548,-2.9106321,1.0056856,-0.5750162,-0.77328384,0.26718611,0
3.2771528,0.60675156,-1.3355935,0.91272891,0.16898806,-0.37197983,0
-2.1403413,2.4785459,-1.8460615,-0.56934857,0.65931386,-0.49106771,0
-3.1128306,1.3732084,1.233344,-0.86015552,0.37945297,0.34080482,0
0.54692829,1.7695124,3.204952,0.1477536,0.47803676,0.86582321,0
-2.4056633,-0.66760844,-2.7082367,-0.65310878,-0.1812477,-0.73525381,0
2.7182109,1.6088207,-1.9513135,0.73212641,0.43332183,-0.52556926,0
-3.1737185,1.5396349,-1.0687743,-0.86106253,0.41771883,-0.2899695,0
2.2427063,2.9330468,-0.34911609,0.60471666,0.79085803,-0.094134621,0
-1.9457525,-2.4271138,-2.1121061,-0.51748323,-0.64550382,-0.56172585,0
-2.5367594,-2.6099064,-0.31678969,-0.69436139,-0.71438318,-0.086711623,0
3.0319293,-1.9925878,0.35599929,0.83168888,-0.54658699,0.097654209,0
-2.0775549,-2.4989066,-1.6430874,-0.57052213,-0.68623048,-0.45121199,0
-3.4155741,-0.99100852,-1.1228064,-0.91583395,-0.26572376,-0.30106336,0
-2.0366597,-2.3945839,2.1534498,-0.53449631,-0.62842911,0.56514645,0
-2.0445092,3.1168435,-0.27450216,-0.54700285,0.83390296,-0.073442303,0
-1.2005372,0.011739564,3.5503209,-0.32032889,0.0031323656,0.94730121,0
3.200465,1.6790563,-0.72748154,0.86812127,0.45544147,-0.19732827,0
-1.658425,-1.0906949,3.1455855,-0.44587284,-0.29323679,0.84570068,0
2.8008478,-1.5747613,-1.6572351,0.77470124,-0.43557152,-0.45838341,0
0.059165645,-2.1033146,3.0885608,0.015831556,-0.56280541,0.82643783,0
-0.021944514,3.0454967,-2.0040133,-0.0060191797,0.83535194,-0.54968256,0
