1.7215852,0.44909996,3.4399588,0.44452822,0.11596151,0.88822722,0
-2.272697,-3.0499618,-1.1381596,-0.57243276,-0.7682054,-0.28667256,0
-1.3805681,2.1798234,-2.8873751,-0.35652614,0.56293058,-0.74565297,0
0.30580246,-3.4182673,1.9140446,0.077820562,-0.86988014,0.48708579,0
-3.1592736,1.8059161,-1.266914,-0.81990176,0.46867537,-0.32879236,0
1.4601841,-0.35980543,3.6477962,0.37007609,-0.091190822,0.92451501,0
2.5968311,1.7668459,2.2726948,0.66982007,0.4557358,0.58621317,0
1.0870284,3.5439303,-0.77789497,0.2869938,0.93565732,-0.20537739,0
-1.3289843,-1.4455189,-3.4335129,-0.33599725,-0.36545983,-0.86806971,0
-0.51561975,-3.814281,0.15533713,-0.13385394,-0.99018031,0.040325232,0
2.4993081,0.59322017,-2.8443522,0.65211886,0.15478286,-0.74214774,0
-3.1190653,1.5520383,-1.5813736,-0.81523275,0.40565756,-0.41332495,0
2.1209676,1.8059758,-2.7016418,0.5465591,0.46538779,-0.69619489,0
2.3267438,0.26413569,-3.1760011,0.58965427,0.066938497,-0.80487704,0
-1.9847585,3.1317871,-1.1961858,-0.50944501,0.80386263,-0.30703527,0
-3.8826563,-0.35685474,-0.39469376,-0.99073958,-0.09105882,-0.10071423,0
0.85388267,3.8164947,-0.6001358,0.21581067,0.9645825,-0.15167858,0
0.73247641,0.37405658,-3.7307177,0.19173267,0.09791287,-0.97655088,0
-0.60514617,2.7774119,2.7740145,-0.15235981,0.69927895,0.6984235,0
2.8589807,2.3987937,0.85468853,0.74673557,0.62653959,0.22323562,0
0.21386607,-2.5177383,3.0246923,0.054263413,-0.63881606,0.76744354,0
-1.1590617,0.61748582,3.5962744,-0.30274057,0.16128393,0.93932724,0
-2.9792311,-2.4407151,0.32740074,-0.77077472,-0.63145202,0.084703803,0
1.170035,0.50333744,-3.7270494,0.29706246,0.12779333,-0.94626778,0
-3.487009,1.471824,0.020687591,-0.92128015,0.38886115,0.0054657352,0
-1.2329031,-0.91732001,3.6862621,-0.30870798,-0.22968878,0.92300725,0
-3.786042,0.40152672,-0.92222881,-0.9664737,0.10249887,-0.23541996,0
-3.6221256,0.085736893,1.6240276,-0.91226685,0.021593653,0.4090268,0
2.7188892,-1.3101896,-2.2535393,0.72183871,-0.34784263,-0.59829283,0
-1.7453231,2.3732708,-2.5485544,-0.44805378,0.60925853,-0.65425676,0
1.0935264,1.6723746,3.4612529,0.27361333,0.41844806,0.86604679,0
-3.1918778,-1.8394024,-1.4376681,-0.80714291,-0.46513706,-0.36354887,0
-2.5617599,-1.091934,-2.7112625,-0.65912145,-0.28094634,-0.69758731,0
-1.5726185,-2.7166839,2.4217639,-0.39666021,-0.68522686,0.61083943,0
-0.71441084,-0.071342312,3.8965151,-0.18031077,-0.018006148,0.98344487,0
-3.4148755,1.7696329,0.57314783,-0.8781684,0.4550783,0.14739053,0
0.38283458,3.732744,0.72684014,0.10016414,0.9766283,0.19016913,0
-1.0668383,-1.4328476,-3.3643992,-0.28006524,-0.37614965,-0.88321853,0
0.10936434,2.4268856,3.1828616,0.027313493,0.60610914,0.7949124,0
0.67174697,1.0069894,3.8086629,0.16808817,0.25197434,0.95302427,0
3.508142,1.3369302,-0.9965387,0.90316701,0.34419107,-0.2565577,0
0.67639327,0.22009516,3.8514225,0.17270106,0.056196105,0.98336989,0
-3.1185029,2.252614,0.29993388,-0.80818194,0.58378077,0.077729978,0
3.8904004,-0.36804417,-0.20605698,0.99417377,-0.094051979,-0.052656904,0
3.8676379,0.65654564,-0.64018804,0.97302485,0.16517451,-0.16105925,0
1.1127478,2.6480756,2.6384976,0.28529948,0.67894506,0.67648929,0
-3.6515594,-0.78156042,-0.86438054,-0.95266396,-0.20390315,-0.22551028,0
-3.319592,0.60875505,1.9398361,-0.85277015,0.15638311,0.4983246,0
-3.349654,-1.8941764,0.5358547,-0.86214465,-0.48752916,0.13791999,0
3.16521,-1.4676138,-1.7637751,0.80964249,-0.37540716,-0.45116353,0
2.9566975,2.4086239,0.86569208,0.75606865,0.61591864,0.22136949,0
2.9589727,0.69401073,2.5407407,0.74695498,0.17519417,0.64137763,0
3.7114456,1.0958694,-0.031118253,0.95903546,0.28317204,-0.0080409395,0
0.48487321,-1.4234921,3.5742099,0.12504207,-0.36709884,0.9217391,0
0.27083907,-0.35011321,-3.8273573,0.070295431,-0.09087079,-0.99337864,0
-1.4880544,0.37182674,-3.5753391,-0.38248891,0.095574193,-0.91900373,0
-1.1660725,-3.1920519,-2.0155454,-0.29512459,-0.80788547,-0.51012009,0
-3.6372092,-1.0152041,0.89644074,-0.9371407,-0.26157117,0.23097135,0
0.0066194935,2.0054367,-3.2727659,0.0017245741,0.52247566,-0.85265249,0
-2.595866,1.5725636,-2.5627265,-0.65349448,0.39588395,-0.64515185,0
3.8465958,0.51593,-0.640957,0.97787863,0.13115934,-0.1629436,0
-0.3953346,-0.18550703,-3.9448574,-0.09960673,-0.046739515,-0.99392849,0
2.0810025,-3.2403979,-0.61296654,0.53365213,-0.83096749,-0.1571891,0
1.521101,0.095923044,3.665843,0.38314334,0.024161628,0.92337281,0
3.8724446,-0.76429355,0.56576318,0.97114891,-0.19167294,0.14188461,0
0.73883623,-2.7218544,-2.510324,0.19568065,-0.72088265,-0.66485888,0
-0.46715179,3.7066083,-1.1529039,-0.11948295,0.94803554,-0.29487708,0
-2.5097573,3.048496,-0.56079924,-0.62927663,0.76435572,-0.14061035,0
-0.30288407,-0.73815519,-3.8748713,-0.076560028,-0.18658353,-0.97945148,0
-1.8982211,-1.0908997,-3.1893694,-0.49068514,-0.28199467,-0.82444352,0
2.6419449,-0.69139868,2.8721347,0.6666168,-0.17445405,0.72469842,0
3.1873531,-2.0759425,-0.9314518,0.81389624,-0.53009558,-0.23784785,0
0.14188471,-2.0568967,3.41541,0.03556468,-0.51557964,0.85610324,0
0.9638676,-1.6396769,-3.4293818,0.24578992,-0.41812387,-0.87450546,0
-3.2620428,-1.6296444,-1.308876,-0.84198028,-0.42063472,-0.33783978,0
-1.1747952,2.0011992,-3.1311333,-0.3014383,0.51348364,-0.80341113,0
-0.93458337,1.1507427,3.6987877,-0.23453668,0.28878254,0.9282226,0
0.20306775,-2.948091,-2.5044537,0.052423541,-0.76107293,-0.64654446,0
1.9020944,0.5341444,-3.3297145,0.49127799,0.13796024,-0.86000752,0
-1.4159428,2.1793652,2.7967165,-0.37087223,0.57083237,0.73253274,0
-3.6229253,0.86935788,-1.0140204,-0.93826663,0.22514665,-0.26261142,0
-1.980225,-2.9083092,1.964252,-0.49141729,-0.72173285,0.48745337,0
3.0615199,-1.8200942,-1.6957544,0.77609545,-0.46139398,-0.42987382,0
0.3611404,0.58879316,3.8501713,0.09232457,0.15052339,0.98428595,0
-3.1484668,1.4101504,-1.765604,-0.81242371,0.36387223,-0.45559272,0
-1.8892918,-1.9309886,-2.7115016,-0.49359933,-0.50449312,-0.70841116,0
-0.056359313,-3.1433396,2.4215171,-0.014202337,-0.79210985,0.61021328,0
-0.065411478,0.41178799,3.9412379,-0.016504582,0.10390208,0.99445057,0
1.816578,-2.9906363,1.713553,0.46624735,-0.76758403,0.4398047,0
-0.6671021,-3.7690215,-0.7057088,-0.17139827,-0.96837318,-0.18131748,0
-2.2989235,-1.4376093,-2.7235198,-0.59819686,-0.37407655,-0.70867991,0
-3.8787167,-0.33819005,0.060584866,-0.99609977,-0.086851157,0.015558902,0
-2.6917596,1.7303039,-2.3145003,-0.68159068,0.43813682,-0.58606344,0
1.9805186,-1.6716914,-2.9290853,0.50638664,-0.42742452,-0.74891984,0
0.53958595,0.37796611,3.8381217,0.13855962,0.097057462,0.98558664,0
2.3085606,-1.9302622,2.525286,0.58765721,-0.4913592,0.6428259,0
1.0725106,-3.612232,-1.2435855,0.27029017,-0.91034132,-0.31340382,0
-0.58804154,3.4416299,1.9677184,-0.14672399,0.85873127,0.49097124,0
0.9938302,-3.1554437,1.8981793,0.26056519,-0.82730305,0.49766997,0
-3.0126343,-1.9221938,1.34158,-0.78923661,-0.50356781,0.3514612,0
-1.2538624,-2.6425943,2.5492961,-0.32316056,-0.68108135,0.65703541,0
-2.6416786,2.3174841,-1.7558815,-0.6724568,0.58993095,-0.4469713,0
3.4162455,-1.5443578,1.132561,0.87228429,-0.39432737,0.28918156,0
3.649528,-0.67049479,0.95565754,0.95245743,-0.17498639,0.24940845,0
-1.7873422,3.3211441,0.7533651,-0.46472076,0.86351937,0.19587989,0
3.0508034,-2.2227271,-0.96802384,0.78290129,-0.57039922,-0.24841559,0
-1.9424223,3.2867684,-0.62502146,-0.50209224,0.84958911,-0.16156034,0
-2.1438768,0.41191715,-3.3333111,-0.53804392,0.10337792,-0.83655351,0
-0.30501428,0.74400479,-3.7585647,-0.079356074,0.19356896,-0.97787201,0
2.3927791,-1.9388133,-2.272665,0.62516224,-0.50655448,-0.59378004,0
0.76740062,3.8301127,0.28186452,0.19594589,0.97797006,0.071970485,0
3.0444472,2.2802241,-0.58075571,0.79122317,0.59260875,-0.15093294,0
0.52324563,-0.75344539,-3.7704823,0.13484098,-0.19416372,-0.97165751,0
-2.6689749,1.4825444,-2.4128416,-0.68586099,0.38097751,-0.62004101,0
-3.8533194,-0.7840054,0.44159496,-0.97380149,-0.19813195,0.1115988,0
-0.58304095,-0.023286426,3.8311024,-0.15045117,-0.0060089603,0.98859918,0
0.34743902,-2.581567,-2.7924557,0.090981901,-0.67602038,-0.73124462,0
2.1828196,2.152514,2.4148622,0.5593375,0.55157185,0.61879736,0
3.6562073,0.49607643,1.2986708,0.93471271,0.12682238,0.33200634,0
-0.52022994,3.8884678,0.094803721,-0.13256769,0.99087954,0.024158375,0
-2.1822393,2.8671525,1.3999014,-0.56453568,0.74171966,0.36214831,0
-2.5402334,-2.9613652,-0.49160454,-0.64596748,-0.75305903,-0.12501235,0
-2.8547978,2.477706,0.38593912,-0.75131857,0.65207648,0.1015705,0
2.7130609,-0.89664978,-2.778775,0.68068874,-0.2249634,-0.69717592,0
2.2715743,3.1382954,-0.90637112,0.57092649,0.788764,-0.22780295,0
0.78471494,1.0994164,-3.5873785,0.20471288,0.28681079,-0.93585908,0
1.2786795,1.866081,3.1691902,0.32839546,0.47925419,0.81392378,0
-1.1937829,1.8903323,-3.112942,-0.31148058,0.49322355,-0.81222558,0
2.5763686,2.5059628,1.3401127,0.67166245,0.65330762,0.34936902,0
-2.8090699,1.9949577,1.8445954,-0.71878111,0.51046717,0.47199264,0
1.017828,3.4972358,-1.6360883,0.25490811,0.87585902,-0.40974721,0
3.06462,-2.469234,-0.37298259,0.77521676,-0.62460977,-0.09434852,0
-2.4134629,0.0073403954,3.1517804,-0.60797,0.0018491024,0.79395789,0
-1.4184936,-2.1542006,-2.7900517,-0.37332538,-0.56695193,-0.73429805,0
0.9754141,3.4092157,-1.626388,0.25002956,0.8738901,-0.41689479,0
-2.3601696,-1.6996108,-2.6009045,-0.60489774,-0.43560034,-0.66659665,0
2.9272211,-2.7066314,0.31853935,0.73189807,-0.67674363,0.079644933,0
3.0604095,-1.529151,1.7339885,0.79791492,-0.39868271,0.4520883,0
1.839867,2.0438666,2.7486396,0.47320151,0.52566886,0.70693177,0
2.563235,2.8116412,0.5852682,0.66587555,0.73040634,0.1520406,0
0.79984391,3.7801738,0.78263342,0.202886,0.95886749,0.19852044,0
-1.3537812,-0.20530942,-3.5719597,-0.35389167,-0.053669896,-0.93374527,0
-0.259812,1.5245719,-3.5374734,-0.067295395,0.3948881,-0.91626132,0
1.4396164,2.9189336,2.1503584,0.36905101,0.74827945,0.55125237,0
-1.7962745,-3.3078561,0.95073408,-0.46268067,-0.85203075,0.24488811,0
3.8078125,0.88356525,-0.66201138,0.96044308,0.22286132,-0.16697888,0
-3.425024,1.8695867,-0.89315343,-0.85561812,0.46704847,-0.22312202,0
-0.92560059,3.7162426,0.23739089,-0.24122225,0.96849591,0.06186682,0
1.9482915,0.67251176,3.2759409,0.50338411,0.17375825,0.84641159,0
-1.3347774,2.926801,-2.1566076,-0.34465238,0.75572824,-0.55685687,0
-3.2131226,-2.3690147,-0.51158243,-0.79835343,-0.5886209,-0.12711112,0
1.7312493,3.1449397,-1.524788,0.44386852,0.8063193,-0.39093468,0
-2.9167867,-1.1779938,2.3406971,-0.74389005,-0.30043262,0.59696555,0
-2.9220238,-1.6917783,1.9865294,-0.74589407,-0.43185389,0.50709391,0
0.19516231,-3.3206377,-1.8593524,0.051213451,-0.87138397,-0.4879213,0
-2.5319493,-1.995437,2.1378529,-0.65455532,-0.5158571,0.55267417,0
-0.85424858,-3.6904027,1.031314,-0.21759497,-0.94002271,0.26269722,0
2.5543616,0.62983477,2.8115926,0.66338086,0.16357134,0.73018509,0
-3.3080611,-1.679024,-1.428302,-0.83216894,-0.42237177,-0.35930067,0
-0.55106235,3.8460526,-0.080226056,-0.14180131,0.98967981,-0.020644052,0
-2.3263588,-1.5526789,2.7052934,-0.59785259,-0.39902407,0.69523525,0
2.6953998,2.1434784,-1.7636319,0.69664443,0.55399656,-0.45582268,0
-3.3208551,1.8588985,0.73786533,-0.85664117,0.47951776,0.19033827,0
-2.014879,-1.2569478,-3.0287056,-0.52351809,-0.3265878,-0.78693664,0
0.58494055,1.8905731,-3.4655423,0.14657262,0.47373405,-0.86838502,0
-3.2105365,2.1632547,0.067702495,-0.8291837,0.55870271,0.01748549,0
1.41768,3.6051466,-0.48935002,0.36307397,0.92329359,-0.12532465,0
-0.59835732,1.6447996,-3.5698409,-0.15049902,0.41370052,-0.89788753,0
-3.0420051,-0.45983177,-2.2913067,-0.79300326,-0.11987097,-0.59730792,0
-3.5773437,-0.94019783,-1.2869588,-0.91344339,-0.24007128,-0.32861367,0
-0.13113107,-3.5856304,-1.3923709,-0.034071356,-0.93164259,-0.36177516,0
-2.2408431,-1.0289524,-2.9088027,-0.58763885,-0.26983255,-0.76280469,0
-3.6318443,-1.3439705,-0.65533465,-0.92469895,-0.34218651,-0.16685387,0
2.1062794,-1.1508324,-2.9728992,0.55125821,-0.30119735,-0.77807105,0
-2.2929087,3.0449307,-0.27316523,-0.60000658,0.79679513,-0.071481667,0
1.202484,3.5800712,0.66319686,0.31360331,0.93366915,0.17295925,0
2.0521407,-2.9955692,-1.3293165,0.53071386,-0.77469838,-0.34378085,0
-0.69108582,1.7526232,3.3375885,-0.18031798,0.45729411,0.87084299,0
3.0884542,2.1691227,1.0997659,0.78565699,0.55179268,0.27976415,0
-3.1936255,-1.4957108,-1.475559,-0.835419,-0.39126232,-0.3859908,0
2.8551984,1.9196399,1.7527045,0.73945183,0.49715677,0.45392311,0
3.5123506,-1.0277233,-1.24774,0.90841007,-0.26580325,-0.32270685,0
-2.1689229,2.9413314,1.1595386,-0.56569546,0.76715392,0.30242923,0
1.6036038,-2.7830107,2.1993489,0.41194183,-0.71491379,0.56497985,0
-1.4271376,0.75012785,-3.6490004,-0.35774019,0.18803436,-0.91469395,0
0.34921327,-2.9014442,-2.5429137,0.090146236,-0.74898148,-0.65643007,0
-0.067500189,0.94556612,3.6903186,-0.017715974,0.24817151,0.96855414,0
-2.2197309,3.2141559,-0.4444311,-0.56462288,0.81757027,-0.11304793,0
-3.3830245,-2.1282229,0.29150203,-0.84419686,-0.53107482,0.072741151,0
-2.479672,-2.893306,0.44939533,-0.6462664,-0.75407004,0.117124,0
-2.1799388,-1.4260353,-2.8633018,-0.56315428,-0.3683947,-0.73969084,0
3.8372827,-0.3524799,0.28638726,0.99306887,-0.091219977,0.074115545,0
0.27168491,2.8973389,2.6080885,0.069524638,0.74143404,0.66741437,0
2.0202315,2.5072877,-2.3078396,0.50995868,0.63290429,-0.58255845,0
-0.9449299,1.2094148,-3.5678434,-0.24329081,0.31138769,-0.91861159,0
0.74784636,0.51730096,-3.7335718,0.19461423,0.13461873,-0.97159821,0
1.229646,-2.6564291,2.4606674,0.32155406,-0.69465977,0.64346784,0
2.3195965,1.0843861,-2.8116696,0.60995764,0.28514853,-0.73935241,0
2.858254,1.2933879,-2.1476352,0.75178677,0.34019089,-0.56487763,0
-2.9369595,1.8511642,1.702974,-0.7595191,0.47872457,0.44040146,0
-0.42933261,3.3753417,2.1641681,-0.10646867,0.83703899,0.53668439,0
1.7578146,0.65972567,3.4377267,0.44876224,0.16842502,0.87763631,0
-2.5376189,-3.0418439,0.5589363,-0.6343109,-0.7603485,0.13971341,0
0.44318786,-3.3685772,2.019675,0.11212648,-0.85224974,0.51097757,0
0.61708421,-3.5092273,-1.6015592,0.15796492,-0.89831299,-0.40997669,0
3.8919981,-0.85356122,0.28271228,0.97433579,-0.21368337,0.070775136,0
-3.0048165,-1.3454338,2.2026734,-0.75856751,-0.33965549,0.5560661,0
3.2187593,2.1398807,-0.77447516,0.81653088,0.54284227,-0.19646789,0
1.8843039,-3.5145733,0.34832224,0.47072077,-0.87798083,0.087014899,0
2.5458965,0.074325107,2.9570963,0.65233243,0.019044245,0.75769371,0
-2.8016932,-2.3394403,-1.3121985,-0.72232747,-0.60315031,-0.33830866,0
-3.1604118,1.7910091,-1.238796,-0.82344472,0.46664709,-0.32276809,0
-3.9340172,0.51282805,0.14114317,-0.99098331,0.12918197,0.035554122,0
-2.8861022,2.529907,0.30932969,-0.74955606,0.65704781,0.080336705,0
-0.74833846,-2.5230649,-3.0300994,-0.18646003,-0.62866044,-0.75499588,0
0.7294721,-1.3490472,3.590143,0.18685268,-0.34555548,0.91960722,0
-3.3960683,1.2254738,1.5941201,-0.86048734,0.31050748,0.40391418,0
2.205724,3.0266521,-1.1553665,0.56278884,0.77224803,-0.29479092,0
-1.6265815,-2.5307629,-2.404736,-0.42233512,-0.65710205,-0.62437969,0
1.3911476,-3.1927321,-1.7622788,0.3564181,-0.81799191,-0.45150352,0
2.4929624,-2.0000494,-2.1014001,0.65174782,-0.52288306,-0.54937971,0
-1.1244671,-3.0590327,-2.2127848,-0.28544441,-0.77653116,-0.56171232,0
2.8950584,2.6395299,0.24234538,0.73755652,0.6724571,0.061740864,0
2.1817648,0.6235522,-3.2434747,0.55117142,0.15752575,-0.81938738,0
-3.2043922,1.9133489,0.81551844,-0.83879715,0.5008474,0.21347404,0
0.84914011,-1.6104506,3.5198774,0.21427546,-0.40638766,0.88822019,0
2.9220879,-0.28143996,-2.5434809,0.75229883,-0.072457418,-0.65482551,0
-2.674017,2.6881478,0.38679257,-0.70159978,0.70530736,0.10148536,0
-0.54636651,-3.713428,0.69154328,-0.14315598,-0.97297221,0.18119441,0
2.6843529,0.81920654,2.895071,0.66573626,0.20316833,0.7179957,0
3.7745423,0.64269412,0.36297703,0.98141158,0.16710567,0.094376966,0
-0.24089442,-2.3418081,3.1845376,-0.060828481,-0.5913322,0.80413067,0
-2.6467352,2.2652719,1.4395112,-0.70215166,0.60095334,0.38188753,0
3.7189872,1.2755027,0.24358776,0.94410282,0.32379934,0.061837237,0
2.3295927,-0.053918269,3.1096745,0.59950358,-0.01387547,0.80025184,0
1.7376775,3.1102717,-1.4735453,0.45070446,0.80671662,-0.38219604,0
-0.14268839,-2.0297923,-3.3763702,-0.036195874,-0.51489896,-0.85648638,0
-2.0540709,1.0954431,3.0421243,-0.53622282,0.28596947,0.7941578,0
-2.0319583,-0.4194974,3.3751838,-0.51287395,-0.10588273,0.8519091,0
-0.47809884,-2.8720903,-2.5425124,-0.12368456,-0.74301213,-0.65775007,0
-3.2051086,-1.6129739,-1.3063942,-0.83935952,-0.42240846,-0.34212083,0
3.2657423,-0.88291353,-2.0635417,0.82412517,-0.22280732,-0.52074426,0
1.4552813,3.4170978,-1.201365,0.37280998,0.87538278,-0.30776238,0
-3.2895656,-0.22727428,2.0886648,-0.84277451,-0.058226828,0.53510815,0
3.1051643,-0.81444609,-2.0047562,0.82043868,-0.21519089,-0.52969164,0
3.2676983,-1.6374835,1.4772853,0.82888526,-0.41536453,0.37472859,0
2.5474248,-1.9616234,2.1637948,0.65731847,-0.5061627,0.55832946,0
-0.71936363,1.6830248,-3.3672585,-0.18769813,0.43913895,-0.87859339,0
0.89937943,-3.2448487,-1.8188533,0.23500718,-0.84787661,-0.47526503,0
-3.2731631,-1.948313,-0.90743566,-0.8359006,-0.49756029,-0.23174098,0
0.29095164,3.1662753,2.3544898,0.073538378,0.80027992,0.59510016,0
-2.4897807,1.2622737,-2.652946,-0.64652258,0.32777524,-0.68889183,0
-1.8050591,3.4179876,-0.83522952,-0.45645088,0.86431712,-0.21120708,0
3.0339043,-0.42278185,-2.5685792,0.75892878,-0.10575855,-0.64252806,0
1.6564395,-3.4090538,1.0497535,0.42117891,-0.86681193,0.2669183,0
-3.7409549,0.41672853,0.72321689,-0.97600079,0.10872287,0.18868451,0
0.31663024,-3.7155662,1.2510815,0.080499783,-0.94464213,0.31807381,0
3.3070707,2.1281908,-0.138096,0.84040403,0.54082304,-0.035093423,0
-1.6604682,3.5282052,-0.77375811,-0.41768208,0.88750154,-0.19463481,0
-2.6507421,-0.54565537,2.9064658,-0.6674642,-0.13739754,0.73185617,0
1.2144995,-3.313035,1.7339213,0.30890504,-0.84266251,0.44101873,0
-0.22802292,-1.63448,3.6083853,-0.057467386,-0.41192919,0.90940189,0
3.1506112,-0.32822913,2.2859402,0.80653483,-0.084024407,0.58518499,0
2.5254173,-0.73131388,-2.8640709,0.64956492,-0.18810192,-0.73667032,0
-1.7201623,1.1886264,-3.2566962,-0.44447213,0.30712876,-0.84149659,0
-2.6328967,-2.4873307,1.5869942,-0.66580957,-0.6289987,0.40132067,0
1.0107983,1.6233581,3.3381062,0.26274487,0.42197245,0.86770058,0
0.34805125,-3.7835581,-0.3686851,0.091175459,-0.99114037,-0.096580699,0
-3.4180877,-1.8741342,-0.91737044,-0.85352838,-0.46798876,-0.22907595,0
0.74067861,-1.8209785,-3.44766,0.18662797,-0.45882994,-0.86870307,0
-2.0182066,-2.4175646,2.3958158,-0.51003677,-0.61096168,0.60546541,0
3.2872672,1.8265374,-0.94431615,0.84780568,0.47107482,-0.24354473,0
1.9426363,1.6741809,-3.0082798,0.49142939,0.42351815,-0.76100564,0
3.4601834,-1.5465147,-0.28618667,0.91037035,-0.40688628,-0.075295389,0
0.16048124,2.4893465,-3.046921,0.040753957,0.63216561,-0.7737608,0
-3.8908169,0.71178144,-0.37844291,-0.97920358,0.17913434,-0.095242895,0
-2.9706364,2.5143883,-0.46832463,-0.75782138,0.64143068,-0.11947151,0
-3.2587986,-2.0703907,0.076219872,-0.84389454,-0.53614587,0.019737806,0
3.7917078,-0.78549975,0.71317321,0.96301168,-0.19949993,0.18113056,0
-0.17924948,3.7820616,0.53462124,-0.046876527,0.98906791,0.13981177,0
1.5142884,0.1155196,-3.6418178,0.38377327,0.029276678,-0.92296314,0
-1.0733259,-3.8051438,0.49561256,-0.26937073,-0.9549703,0.12438302,0
-3.3160443,-0.24728735,-2.1711538,-0.8350026,-0.062268641,-0.54671133,0
-2.2774105,-3.1643522,-0.66512525,-0.57582909,-0.80008674,-0.16817278,0
-3.0943897,2.3347659,-0.7681613,-0.78303981,0.5908159,-0.19438434,0
3.7168534,-0.93454242,-0.36832866,0.96536648,-0.24272573,-0.095664829,0
2.9782584,2.3461154,0.63009006,0.77491331,0.61043596,0.16394319,0
1.7847853,2.3962915,2.389503,0.46650258,0.62633651,0.62456214,0
-1.8949715,0.41852012,3.4400365,-0.47977918,0.1059632,0.87096715,0
-1.0430157,2.195318,3.0694623,-0.26640069,0.56071466,0.78398329,0
0.00010945797,-3.5221019,1.4564425,2.8718914e-05,-0.92410755,0.38213247,0
1.9841089,-0.081930526,-3.3635149,0.50796777,-0.020975696,-0.86112064,0
-1.8870741,-2.0505655,2.804626,-0.47729242,-0.51864386,0.70936626,0
0.91563892,3.2540174,-1.7909243,0.23935157,0.85061276,-0.46815458,0
-1.4541159,-2.5888202,-2.5113986,-0.37391415,-0.66569424,-0.64578587,0
3.8671052,-0.85335582,0.10409094,0.97616976,-0.21541181,0.026275577,0
-3.5987716,1.5678109,0.56090933,-0.90756017,0.39538011,0.14145353,0
-0.092660449,-3.131566,2.1610401,-0.024346098,-0.82280427,0.56780314,0
-3.8879175,0.26182425,-0.91278034,-0.97144461,0.065420046,-0.22806953,0
-2.6571333,1.3567773,-2.458077,-0.68736821,0.35098186,-0.63587475,0
-2.6973829,1.607542,2.1582592,-0.70792454,0.42189726,0.56643224,0
3.0416684,-2.1934624,0.95495391,0.7860117,-0.56682283,0.24677409,0
2.0139501,1.5266225,-2.9847596,0.51495445,0.39034784,-0.76318437,0
-0.14059056,1.4298161,3.6246073,-0.036058445,0.36671695,0.9296335,0
2.1564977,3.1500094,0.71166015,0.55533558,0.81118208,0.18326484,0
0.73970419,-0.40383956,3.8319604,0.18852977,-0.10292733,0.97665888,0
-3.2520125,-1.1413246,1.8364487,-0.83273458,-0.29225609,0.47025475,0
1.6690934,-1.9819553,2.9964404,0.42133945,-0.5003171,0.75640982,0
3.2462277,-1.0461822,1.9847535,0.82264119,-0.26511773,0.50296533,0
-2.9096231,0.47225657,2.6922951,-0.72883326,0.11829584,0.67439467,0
1.206888,2.4869933,-2.6725016,0.31388551,0.64681327,-0.69506001,0
3.8460455,0.090462469,0.29421008,0.99681276,0.023445938,0.07625296,0
3.1572256,-1.6513441,-1.5883405,0.80933654,-0.42331252,-0.40716192,0
0.19930823,3.934371,-0.33104277,0.05041565,0.9952116,-0.08373832,0
-0.18861642,-2.9171436,2.5912979,-0.048283685,-0.74675596,0.66334313,0
2.033828,-1.1971408,-3.0048006,0.53230578,-0.31332293,-0.78643453,0
-3.2387033,1.9756829,-0.88262105,-0.83148861,0.507227,-0.22659975,0
-0.086204506,1.568966,-3.5081289,-0.022425944,0.40816364,-0.9126333,0
2.5412843,-2.9980819,-0.096917532,0.64640468,-0.76259637,-0.024652081,0
3.9280112,-0.10537472,-0.2764627,0.99717534,-0.026750706,-0.070183553,0
2.5605617,-2.9015052,-0.97366315,0.64168173,-0.72712284,-0.24400188,0
-3.8084133,0.25797096,0.23211037,-0.99587429,0.067457661,0.060695287,0
-1.7358789,0.53882122,3.3853333,-0.45176873,0.14023015,0.8810451,0
-1.7423922,3.3861763,-1.082051,-0.44011936,0.85533082,-0.27332056,0
-2.2386935,-2.9938004,-1.1981267,-0.57028502,-0.76264101,-0.30521092,0
0.14479564,-3.3448622,-2.178766,0.036248684,-0.83736533,-0.54544044,0
-3.1926348,2.3083448,-0.15163913,-0.80977196,0.58548284,-0.038461372,0
-0.11536478,3.3987868,-1.9568228,-0.029403191,0.86625379,-0.49873829,0
0.56780368,-0.73318654,-3.8558514,0.14317514,-0.18487744,-0.97227633,0
3.0212631,2.4434187,-0.30158105,0.77521116,0.6269449,-0.077381209,0
1.4119418,3.41715,1.4292156,0.35619283,0.86204994,0.36055049,0
-3.7192729,-1.0513004,0.18517311,-0.9611932,-0.27169365,0.047855359,0
3.0212319,-0.95943445,-2.3229146,0.76877648,-0.24413572,-0.59108412,0
3.1716526,-0.88471341,-2.0850601,0.81379086,-0.22700207,-0.53499013,0
-3.4154379,1.2502278,1.3598862,-0.87959069,0.32197592,0.35021663,0
-2.4904828,2.4643321,1.642321,-0.64362681,0.6368686,0.42443252,0
3.3693645,1.1659778,-1.497265,0.87130541,0.30151764,-0.38718727,0
-0.037142124,-2.174541,-3.3128264,-0.0093723862,-0.5487203,-0.83595347,0
-2.4096355,-0.64919877,-2.9099121,-0.62858033,-0.16935074,-0.75908309,0
0.090159476,0.78852999,3.8198428,0.023109378,0.20211339,0.97908944,0
2.2758133,1.9913167,2.369328,0.59240299,0.51834744,0.61674523,0
2.9872019,-2.5998256,-0.60987288,0.74553382,-0.64885402,-0.15220962,0
-3.810966,-0.13198267,-0.21073431,-0.99787819,-0.034558855,-0.055179492,0
2.7587557,2.7392933,0.44428223,0.70501673,0.70004302,0.11353902,0
-2.667536,0.034251332,2.9236882,-0.6739797,0.0086539425,0.73869914,0
3.0395725,-0.74792314,-2.4185722,0.76839536,-0.18907286,-0.61140823,0
1.7187166,1.3268324,3.272892,0.43759614,0.33781993,0.83329904,0
1.3848926,3.1916218,-1.7804472,0.35435164,0.81663835,-0.45556197,0
-2.6200843,2.7268002,0.39008775,-0.68919885,0.7172699,0.10261045,0
-2.41587,-2.9268634,0.27174884,-0.63494658,-0.76924753,0.071421891,0
-2.1615882,1.1392366,-3.1299775,-0.54437393,0.28690508,-0.78825283,0
2.7985423,-1.4213139,-2.3197515,0.71702784,-0.36416161,-0.59435463,0
3.6097848,0.85677147,-0.80979019,0.9505899,0.22561963,-0.21324772,0
-3.2511234,-0.47434816,2.0871539,-0.83524233,-0.12186424,0.53620827,0
0.44140026,-3.5325189,-1.698485,0.11190525,-0.89557588,-0.43060553,0
2.7353389,-1.0427045,2.5029423,0.71020144,-0.27072704,0.64986211,0
-2.7190366,-2.6789877,-0.60656542,-0.70350629,-0.69314432,-0.1569389,0
-3.2933905,0.65191692,-1.8848689,-0.85537857,0.16931966,-0.48954913,0
0.49597231,3.4108043,1.7359861,0.12851775,0.88381726,0.44983363,0
3.1205168,2.0720963,-0.47787833,0.8263675,0.54872739,-0.12655056,0
1.233214,-1.8237983,3.2771523,0.31236345,-0.46195379,0.83007693,0
3.1399875,0.32718772,-2.2770617,0.80667555,0.084055856,-0.58498645,0
1.2446878,0.045417763,-3.6325791,0.3241227,0.011827004,-0.94594109,0
3.5305943,1.5951426,0.755705,0.89444739,0.40411642,0.19145171,0
2.9902534,-1.0647972,2.23894,0.7698186,-0.27412415,0.57639855,0
3.3222764,-0.96957779,1.7198083,0.85966283,-0.25088522,0.44501275,0
-1.589348,-3.481039,0.61106515,-0.4101347,-0.89828974,0.1576867,0
2.7705228,0.52544415,2.6134295,0.72060382,0.13666628,0.67974442,0
2.8848312,-2.6286366,-0.20428328,0.7381559,-0.67260212,-0.052270964,0
-3.1720262,-1.9338126,-1.2796212,-0.80729043,-0.49216127,-0.32566756,0
-0.54454947,-3.0089662,-2.2677407,-0.14303993,-0.79038244,-0.59568048,0
-0.35466605,2.2237673,-3.1975007,-0.090687148,0.56861126,-0.81759226,0
3.3381193,1.9745171,-0.09393996,0.86044914,0.50896072,-0.0242144,0
2.905848,-2.5405552,0.34233707,0.74989772,-0.65562838,0.088345222,0
0.19319426,-3.7840993,0.97680813,0.049373515,-0.96707994,0.2496371,0
-2.9413598,-0.52176958,-2.5444157,-0.74957919,-0.13296831,-0.64842153,0
-1.5107169,-0.98085994,3.397063,-0.39289945,-0.25509697,0.88349056,0
0.2611877,1.3531578,-3.6067927,0.067645669,0.35045779,-0.9341324,0
3.254575,-1.8308553,1.4292173,0.81397569,-0.45790055,0.3574501,0
-0.3993569,-3.2783501,-2.1267509,-0.10166614,-0.83458477,-0.54141682,0
-1.555227,2.6263161,2.5411735,-0.39158425,0.66126937,0.63983166,0
1.1128798,2.7223499,-2.6971231,0.27888164,0.68220615,-0.67588449,0
-2.6206012,-0.39565143,-2.8240743,-0.6766479,-0.10215851,-0.72918534,0
1.4136513,0.32702973,3.6025138,0.36399195,0.084204771,0.92758799,0
-0.98282945,-2.2854483,-2.9690855,-0.25372577,-0.5900079,-0.76649463,0
-1.7051456,1.9436318,2.9034495,-0.4385851,0.49992678,0.74680412,0
-0.40631756,-2.0103579,3.4055324,-0.10220642,-0.50569189,0.85663855,0
3.1262755,-0.38577047,-2.0943341,0.82647145,-0.10198343,-0.55366439,0
2.4716573,-0.64247972,2.8864045,0.64132506,-0.1667053,0.74894023,0
1.0888065,2.2772648,3.0295417,0.27611607,0.57750332,0.76827711,0
-0.74236029,1.5661684,3.5082653,-0.18971431,0.40024307,0.89655674,0
-0.89647692,3.2066023,-2.0747097,-0.22851479,0.81737304,-0.52885002,0
-1.3783971,3.5256162,-1.047253,-0.35094416,0.89763278,-0.26663384,0
-1.9126995,-3.1937199,1.0612146,-0.49411318,-0.8250429,0.27414665,0
2.2947958,-1.1966596,-2.771225,0.6051991,-0.31559119,-0.73084629,0
-0.88100362,-3.4470978,-1.4827194,-0.22856544,-0.89430666,-0.38467312,0
-2.1461098,1.0681491,-3.0664327,-0.55137789,0.27442855,-0.78782701,0
-0.10722417,-3.8678761,0.042372927,-0.02770941,-0.99955601,0.010950225,0
3.4978588,-0.5444656,-1.4799868,0.91163611,-0.14190239,-0.38572437,0
-1.8676742,-3.2684348,0.44020763,-0.49278051,-0.86236715,0.11614752,0
0.025466204,2.8263109,2.6231351,0.0066041322,0.73294514,0.68025571,0
1.8021984,-3.1217642,1.251847,0.47229701,-0.81811184,0.32806799,0
1.629431,3.3896418,1.2709211,0.41044828,0.85383958,0.32014084,0
-1.3694839,-3.6279142,0.56490207,-0.34947231,-0.92579073,0.14415476,0
3.7434621,-0.097268835,-1.1216074,0.95763046,-0.024882741,-0.28692302,0
0.98349005,3.4421749,-1.4662703,0.25422627,0.88978153,-0.37902209,0
3.5143211,-1.1726874,0.94876921,0.91892797,-0.30663541,0.24808505,0
3.7513778,0.41975287,-1.1790868,0.94859868,0.10614154,-0.29815185,0
2.7480156,-2.4286067,1.1928873,0.71256471,-0.62974149,0.3093175,0
0.30384803,3.0249898,-2.5346353,0.076764397,0.76423573,-0.64035219,0
1.3385925,-3.5684097,-1.1236678,0.33688739,-0.89807177,-0.28279668,0
0.34211138,3.8297842,-0.90735292,0.086596385,0.96940792,-0.22967224,0
-1.4274304,-2.6508029,-2.3886971,-0.37141714,-0.68973845,-0.62153858,0
3.2810206,-1.9276822,0.11749435,0.86179096,-0.50632387,0.030860998,0
-0.20434274,-1.29179,-3.6431177,-0.052791372,-0.33373031,-0.94118917,0
-0.92576861,-3.4594364,1.5191407,-0.23798336,-0.88930243,0.39051896,0
3.6943746,0.054424178,-1.0426213,0.96231091,0.014176412,-0.27158204,0
-0.19221526,1.732129,3.4445598,-0.049792342,0.44869879,0.89229488,0
1.0533642,2.8333778,-2.6041534,0.26400834,0.71013933,-0.65268803,0
0.78118432,3.7317972,0.72483331,0.20128575,0.96156251,0.18676592,0
0.26728737,1.8723408,-3.3809695,0.068994775,0.48330653,-0.87272823,0
-0.66443789,3.6876085,-1.1286657,-0.16979019,0.94233006,-0.2884188,0
-3.1998911,1.9849204,-1.1629128,-0.81194645,0.50365746,-0.29507974,0
1.0451763,2.7875741,2.5317843,0.26744154,0.71328932,0.6478374,0
-1.7578425,0.19372727,-3.526335,-0.44559386,0.049107745,-0.89388734,0
2.85976,1.0429156,2.2760627,0.75240272,0.27439103,0.59883195,0
-2.2258155,1.1564859,-2.9709556,-0.57245034,0.29743287,-0.76409048,0
1.4817015,2.8061283,-2.3189995,0.37699088,0.71396619,-0.59002554,0
0.72356534,-3.7402091,-0.94793236,0.184314,-0.95274448,-0.24146706,0
-1.4702554,1.2973708,3.4107144,-0.37371302,0.32976881,0.86694354,0
-2.8294933,0.090324514,2.5509305,-0.74251264,0.023702864,0.66941249,0
-0.72680241,1.4225801,-3.5165265,-0.18817504,0.36831754,-0.91045725,0
-0.69579881,0.20741519,-3.9083343,-0.17503482,0.052177265,-0.98317868,0
2.9418104,-0.33345097,2.6283712,0.74306691,-0.084225811,0.66389585,0
-2.947228,2.2429824,-1.3886136,-0.74511069,0.56706512,-0.35106578,0
1.4024334,1.8229792,2.993525,0.37149718,0.48289755,0.79296899,0
-1.4968113,-0.22650333,3.5326757,-0.38945213,-0.058933415,0.91915935,0
-2.7331619,2.5786476,-0.63206071,-0.71729124,0.67674047,-0.16587806,0
-2.6417918,-0.52687091,-2.8522341,-0.6733681,-0.13429448,-0.72700787,0
-3.6869693,1.0612354,0.26306674,-0.95873296,0.27595603,0.068405986,0
-3.1426227,0.72290611,2.3495579,-0.78764963,0.1811852,0.58888024,0
1.2601874,2.3472238,2.9876683,0.31481382,0.5863719,0.74636465,0
3.065382,-2.3313465,-0.68035698,0.78381783,-0.59612501,-0.1739672,0
1.5829238,3.4546845,-0.55951393,0.41210866,0.89941502,-0.14566749,0
3.1791954,0.21551834,-2.1441171,0.82776475,0.05611435,-0.55826217,0
2.310529,2.8333554,-1.0793372,0.60611838,0.74327081,-0.28314129,0
-2.23718,1.9709421,-2.5091205,-0.57410276,0.50578105,-0.64388782,0
0.3521623,-3.3066239,2.0277703,0.090418093,-0.84897965,0.52063245,0
1.0410084,1.8805315,-3.2575214,0.26673639,0.48184645,-0.83467102,0
0.68875372,-3.4174333,-1.8667198,0.1741707,-0.86419392,-0.47205248,0
3.1801186,1.2642784,-1.8475192,0.81770629,0.32508487,-0.475054,0
-0.59613907,0.13296667,-3.8281252,-0.15378101,0.034300297,-0.98750943,0
0.95119238,1.943414,-3.2178345,0.24530195,0.50118488,-0.82984376,0
3.2098472,-1.8245201,1.5618039,0.80068171,-0.45511818,0.38958484,0
-1.4208324,0.067549005,-3.5784245,-0.36897334,0.017541677,-0.92927438,0
-2.5179722,-1.4677585,2.6104617,-0.64354271,-0.37512937,0.66718113,0
2.9049845,1.6634859,1.943229,0.75050771,0.42976445,0.50203657,0
0.10525511,-1.4973238,3.5871482,0.027068077,-0.38506132,0.92249393,0
-2.8544033,-0.86116987,2.4198842,-0.74334753,-0.22426702,0.63018948,0
3.424278,-1.5297859,1.289088,0.86344922,-0.38574332,0.32505015,0
2.8135111,-2.5381076,1.0996822,0.71308988,-0.64328831,0.27871659,0
-0.62305069,-1.6070303,-3.5808456,-0.15677918,-0.40437946,-0.90105361,0
3.2490847,1.7023166,1.1016486,0.84834921,0.44448179,0.28764492,0
2.9866824,2.2224128,0.85701054,0.78181499,0.58175439,0.2243371,0
0.071196444,-1.2776893,3.6333241,0.018482545,-0.33168724,0.94320834,0
-2.4181077,2.6920385,1.2277167,-0.63281292,0.70449996,0.32129049,0
1.8559667,-3.399647,-0.8473711,0.46810195,-0.85744071,-0.21371938,0
0.63238555,-3.220854,2.1766472,0.16056599,-0.81779164,0.55266207,0
-2.9820044,1.0575571,2.1005704,-0.78519565,0.27846679,0.55310404,0
-1.276124,3.4798224,-0.99288303,-0.33257356,0.90688443,-0.2587575,0
-1.9648938,-3.2177365,-0.97833037,-0.50445336,-0.82609957,-0.25116983,0
-1.0452089,-1.3380048,3.4190953,-0.27379763,-0.35049695,0.89564884,0
3.6923399,0.97397166,-0.7487281,0.94885886,0.25029159,-0.19240841,0
1.8872205,-3.382688,-0.39888608,0.48464745,-0.86869079,-0.10243589,0
1.4293222,1.4160647,3.2983091,0.36995018,0.36651877,0.85369837,0
2.1276019,1.8522539,-2.6433978,0.55035275,0.47912773,-0.68377519,0
-1.0350984,1.3423997,3.4714832,-0.26793498,0.34747982,0.89859259,0
0.74755025,-3.6661918,-1.060547,0.19222023,-0.94270086,-0.27270219,0
1.4969603,-3.2770762,-1.4158663,0.38670951,-0.84656656,-0.36576051,0
-3.7681339,-0.6066854,0.16889118,-0.98632026,-0.1588017,0.044207767,0
-0.41465399,-3.401582,2.0091317,-0.1043859,-0.85632175,0.5057832,0
-2.7320697,-2.4459565,1.220881,-0.70689261,-0.63286394,0.31588933,0
-2.1467366,2.9129372,-1.4171696,-0.55240911,0.74957168,-0.36467323,0
-2.4350486,-0.90848941,3.0421891,-0.60857713,-0.22705333,0.76031613,0
-2.5719202,1.7083926,2.5016034,-0.64721292,0.42990986,0.62951797,0
-2.6446946,1.4932212,2.5414479,-0.66782069,0.3770583,0.64174956,0
-1.9292992,2.6956275,-2.1667717,-0.48716724,0.68067271,-0.54713136,0
-2.9148226,2.1620226,-1.450573,-0.74580598,0.55318952,-0.3711533,0
2.3609061,-0.39904436,3.039881,0.61011249,-0.10312226,0.78557527,0
2.8857522,-0.52857274,2.474658,0.7518732,-0.13771787,0.64476395,0
3.4993541,-1.6778858,0.89063972,0.87885696,-0.42139822,0.22368269,0
-3.0984619,2.2105427,0.28045648,-0.81186098,0.57920778,0.073485389,0
-2.7471917,-0.66366643,-2.702137,-0.70258451,-0.16973034,-0.69106197,0
3.4705858,1.6761569,0.52899545,0.89211649,0.43085727,0.13597864,0
0.098372661,-0.099017963,3.964366,0.024798857,-0.024961531,0.99938077,0
-2.0292475,2.8069997,-1.7085015,-0.5254215,0.72680038,-0.44237253,0
0.75637645,-0.84496617,3.7125628,0.19484666,-0.21766785,0.95637619,0
1.7063878,1.0321828,3.4622207,0.42707589,0.25833541,0.86652696,0
1.325942,0.21343344,-3.689224,0.33772731,0.054363087,-0.93967277,0
2.4117396,-0.75035214,-3.0110035,0.61365914,-0.19092461,-0.76613986,0
2.5307956,2.3320894,1.9832449,0.6371581,0.58713144,0.49930567,0
-1.9023837,2.4330451,2.4398665,-0.48333502,0.61815917,0.6198923,0
0.67254186,1.2790972,3.6322749,0.17204091,0.32720199,0.92916131,0
0.16663107,1.3426802,3.7307377,0.04198847,0.3383348,0.94008857,0
-0.18937153,0.4346998,-3.8349462,-0.049007323,0.11249565,-0.99244297,0
2.1376166,1.9840636,-2.61041,0.5461328,0.50690204,-0.66692525,0
2.8164265,2.0443256,-1.9650575,0.70470196,0.51151353,-0.49167976,0
3.5901072,-1.1322409,-1.1992611,0.90869671,-0.28658295,-0.30354652,0
3.460237,1.4628109,0.82393509,0.89969128,0.38034335,0.21423018,0
2.9782953,2.4739282,0.54393947,0.76175386,0.63275272,0.13912253,0
-1.688743,3.4057941,-0.50161654,-0.44041488,0.88821232,-0.13081883,0
-0.6288318,3.8051302,-0.77932376,-0.15981734,0.96707225,-0.1980648,0
2.265841,-0.40306252,-3.0728517,0.59019661,-0.10498801,-0.8004033,0
-2.2720139,-1.4223394,2.9048195,-0.57481456,-0.35984877,0.73491299,0
3.3657765,-1.8022434,-0.74154711,0.86540049,-0.46338853,-0.19066483,0
2.7754862,0.52894914,2.6646833,0.71463764,0.13619485,0.68610787,0
2.9958575,2.2192559,-1.2783977,0.76010168,0.56306422,-0.32435194,0
-0.59076202,-2.4537642,-3.064642,-0.14880142,-0.61805528,-0.77192348,0
3.2609849,-0.60654867,2.2621143,0.81222916,-0.15107599,0.56343567,0
3.0296137,0.96126527,-2.4909713,0.75022787,0.23803958,-0.61684304,0
1.6548848,-2.9557474,-1.9334359,0.42428395,-0.75780272,-0.49569967,0
-2.0940011,-3.0694466,0.82849538,-0.55004919,-0.80627781,0.21762799,0
2.0673573,1.4328849,-2.9804642,0.53008652,0.36740285,-0.76421422,0
2.9219069,-2.5352812,0.7671966,0.74088085,-0.64284778,0.19453093,0
2.5735621,-2.666328,-0.99588621,0.67068267,-0.6948579,-0.25953275,0
-2.4725046,2.2882602,2.0753131,-0.6248734,0.57830948,0.52449161,0
-3.0515494,0.88119334,-2.1573551,-0.79475421,0.22950049,-0.56186765,0
2.671514,0.68602782,2.7922847,0.68066591,0.17479068,0.71143669,0
0.94916815,-2.9229529,-2.4966595,0.23971733,-0.73820692,-0.6305443,0
2.3280807,-2.9831681,0.96203244,0.59626287,-0.76404244,0.24639362,0
3.0357003,-1.4849483,-1.840402,0.78888947,-0.38589451,-0.47826651,0
-1.195768,3.4591048,-1.7036693,-0.29619861,0.85684019,-0.42200869,0
-3.3090482,-1.1921564,-1.4792976,-0.86722541,-0.31243676,-0.38768986,0
-0.82351834,2.2156107,-3.1105714,-0.21079321,0.5671224,-0.79620248,0
2.3834436,2.4878707,2.0586407,0.59385437,0.61987323,0.51292706,0
3.6034372,0.31738773,-1.4707282,0.92279005,0.08127857,-0.37663299,0
-0.26599392,1.1931859,3.76843,-0.067140408,0.30117601,0.95120192,0
-0.53438538,-1.8040564,3.435184,-0.13643704,-0.46060416,0.87705684,0
-0.75902331,2.5091662,2.8062611,-0.19765206,0.65339476,0.7307592,0
0.43505034,2.0356123,3.2602389,0.11247153,0.52625734,0.84285432,0
-1.149546,-0.087045223,-3.7259998,-0.29473498,-0.022317741,-0.95531839,0
3.4788377,-1.6714073,-0.53176248,0.89292932,-0.42900783,-0.13648993,0
2.9548519,-2.3782425,-0.92707914,0.75674284,-0.60907215,-0.23742662,0
-2.6305585,-1.5055254,2.4408004,-0.67597151,-0.38687307,0.6272096,0
0.74092138,3.8888962,0.00031434651,0.1871558,0.9823302,7.940353e-05,0
0.79168361,-3.7386198,0.41621435,0.20594653,-0.97255486,0.10827293,0
-1.9157513,-0.93163204,3.2734277,-0.49051943,-0.23854016,0.83814633,0
-3.5765128,-0.90019608,1.164686,-0.92473823,-0.23275346,0.30113959,0
0.36493036,1.9380778,-3.3200216,0.094502658,0.50188619,-0.85975546,0
1.3200538,3.6497848,-0.0086074937,0.34011677,0.94038057,-0.0022177526,0
-3.1738575,0.12615021,-2.0993936,-0.83358955,0.033132393,-0.55138981,0
-3.3686998,0.3057875,1.9765832,-0.85986245,0.078052424,0.50452393,0
-0.26459193,3.6150622,-1.6481988,-0.066449262,0.90788186,-0.41392642,0
-0.55797797,2.7582097,-2.6554453,-0.14421141,0.71286923,-0.6863094,0
-2.9495523,-2.37833,1.030315,-0.75117999,-0.60570341,0.26239645,0
-1.2923906,2.7439351,-2.4528298,-0.33131874,0.70343834,-0.62881029,0
2.7796211,1.4578589,-2.2160368,0.72344607,0.37943384,-0.57676321,0
-1.1568282,-3.677618,0.42378923,-0.29826728,-0.9482075,0.10926642,0
-3.156826,1.1191963,1.9911057,-0.81017125,0.28723174,0.5109995,0
3.0393095,-1.0906537,-2.0832603,0.79091579,-0.28381947,-0.54212427,0
0.95649111,-2.4538565,-2.8843722,0.24488498,-0.6282469,-0.73846942,0
3.7528429,0.47675645,-0.94777715,0.96228617,0.12224763,-0.24302451,0
2.8180792,2.72369,-0.19087899,0.7181949,0.69413954,-0.04864601,0
0.62999469,3.3591228,-2.1085861,0.15687859,0.83647442,-0.52507108,0
1.741557,1.2220283,-3.3127496,0.44234616,0.31038862,-0.84142065,0
2.1287496,-2.6303191,-1.8614975,0.55119872,-0.68107051,-0.48199895,0
-1.1601901,3.2071719,1.9722713,-0.29448113,0.81404895,0.50060475,0
-1.0330901,-1.97708,3.2368348,-0.26280203,-0.50293833,0.82340032,0
-3.4132247,1.9977559,-0.25717452,-0.86122084,0.50407141,-0.064889967,0
3.6294503,-0.73560733,-1.0014441,0.94608992,-0.19175099,-0.26104674,0
0.78651029,-3.6501319,-1.369188,0.19776341,-0.91780436,-0.34427431,0
-2.8663244,-2.6789975,0.20538157,-0.7295779,-0.68189681,0.052276656,0
-3.9232128,-0.26625866,0.47772083,-0.99042267,-0.067217514,0.12060155,0
0.0099395048,-3.8828247,-0.69030273,0.0025203361,-0.9845584,-0.17503838,0
-2.8538067,1.4626412,2.4231563,-0.71001601,0.36389947,0.60287189,0
3.8318484,-0.39890802,0.39767984,0.98936784,-0.10299645,0.10267933,0
-3.4412293,0.9301728,-1.4897996,-0.89069802,0.24075788,-0.38560686,0
2.4031224,0.40539587,3.0316217,0.61781061,0.10422186,0.77938938,0
3.486819,-1.434708,-0.69226784,0.90957135,-0.37425783,-0.18058494,0
-3.4767084,-0.26619658,-1.6794721,-0.89831167,-0.068779849,-0.43394187,0
1.7980579,0.81169945,3.3821998,0.45921534,0.20730413,0.86379761,0
-3.8452046,-1.0370234,0.086067423,-0.96527833,-0.26032847,0.021605877,0
-3.8706775,-0.65877128,-0.51472825,-0.97746032,-0.1663592,-0.12998408,0
0.4227868,-3.7017438,1.1259372,0.10862351,-0.95106184,0.28927878,0
1.8397926,2.1788161,2.7028086,0.46825659,0.5545435,0.68790793,0
3.4829578,-0.71897018,-1.4893656,0.90333611,-0.18647131,-0.38628021,0
-2.9067051,2.036658,1.3742956,-0.76371747,0.5351184,0.36108705,0
0.60969526,-1.8129349,-3.4445937,0.15474455,-0.46013448,-0.87425989,0
-2.4316428,-2.0965281,-2.1269448,-0.63138872,-0.54437447,-0.55227232,0
-2.3466086,-1.8469387,-2.408895,-0.61161613,-0.48138303,-0.62785035,0
2.6427865,-1.847448,2.2290115,0.67419171,-0.47129577,0.56863505,0
0.0061070919,-3.8918705,0.20950219,0.0015669214,-0.99855304,0.053752828,0
0.50191659,-3.8582351,0.47468501,0.12805317,-0.98434538,0.12110563,0
0.29509321,-3.6004159,1.2061934,0.077481978,-0.94535327,0.31670755,0
1.5196515,-1.8382186,3.0598774,0.3917039,-0.47381744,0.78871107,0
-3.7495975,0.68676323,0.72293288,-0.96641177,0.17700461,0.18632689,0
-3.0039818,-0.92122686,-2.2455862,-0.77782595,-0.23853479,-0.58145332,0
0.70495754,-1.5124441,3.5341582,0.18037497,-0.38698366,0.90427238,0
-0.74856734,1.1623647,-3.703382,-0.18936524,0.29404366,-0.9368453,0
-3.3402061,-0.60852027,2.148926,-0.83128923,-0.15144464,0.53481102,0
-0.60275865,-0.74590105,-3.6927562,-0.15798667,-0.19550514,-0.9678936,0
-3.7512686,0.62140584,-0.41772223,-0.98065585,0.16244778,-0.10920086,0
2.5447242,-0.41538644,2.95204,0.64924234,-0.10597866,0.75316191,0
0.43808731,-0.67062694,-3.9155982,0.1096124,-0.16779539,-0.97970909,0
-0.51663232,-1.2845681,-3.5562036,-0.13537769,-0.33660659,-0.93186313,0
0.94165111,3.7174611,-0.72023302,0.24133036,0.95272672,-0.18458438,0
-3.0443866,0.82272261,2.1993127,-0.79182857,0.21398573,0.57202941,0
1.4333771,0.010488926,-3.6546898,0.36512274,0.0026718338,-0.93095553,0
-2.1506553,0.49129996,-3.0573637,-0.57044017,0.13031249,-0.81093568,0
-2.3474283,3.1570811,0.5157398,-0.59161717,0.79567212,0.12998076,0
-3.5148573,-1.2428955,-1.2053975,-0.89706784,-0.31721389,-0.30764359,0
-2.0984232,-2.3222051,-2.3615437,-0.53519881,-0.59227389,-0.60230714,0
1.7128218,3.4437208,-0.94402337,0.43249559,0.86955571,-0.23837034,0
-2.4613614,-1.9800429,-2.1195526,-0.64702421,-0.52049881,-0.55717206,0
3.3093998,1.4808085,-1.5185581,0.84192187,0.37672243,-0.38632604,0
-2.7822063,2.619802,0.59369832,-0.71940619,0.67741263,0.15351494,0
3.4862261,1.2568512,-1.0366007,0.90595686,0.32661477,-0.26937884,0
2.081234,-3.0567164,1.2168448,0.53460377,-0.78517467,0.31256929,0
-3.7643273,-1.0321759,0.012057177,-0.96439797,-0.26443726,0.003088976,0
-3.0928271,-1.9420162,-1.2393587,-0.80196631,-0.50356245,-0.32136419,0
-2.9186504,-0.17981541,-2.5492561,-0.75235045,-0.04635163,-0.65713042,0
-1.3376207,2.6528254,2.4929643,-0.34489447,0.68400913,0.64279026,0
-0.26767749,3.3252099,-1.8934608,-0.069782808,0.86687338,-0.49362019,0
2.8687475,2.7297168,0.36540911,0.7213788,0.68641794,0.091886222,0
-1.9750923,0.17591849,-3.3265939,-0.50999784,0.045424741,-0.85897541,0
-3.900456,-0.19962099,0.30648842,-0.99563193,-0.050955333,0.078234352,0
2.5291367,-2.1818388,-1.926623,0.6558944,-0.56582779,-0.49964133,0
0.15592985,1.3816684,-3.7112346,0.039344896,0.34862855,-0.93643475,0
-1.4165913,-3.2109306,-1.6845818,-0.36389157,-0.82481843,-0.43273252,0
-1.4852908,-0.40988356,3.6453009,-0.37530431,-0.10356966,0.92109716,0
0.34641576,-1.6070098,3.4110231,0.091487117,-0.42440534,0.90083861,0
-2.7727749,-0.49535346,2.5540495,-0.72925287,-0.1302803,0.67172706,0
2.6372666,-0.40782878,-2.884788,0.6710906,-0.10377793,-0.73407602,0
3.4922194,1.748528,-0.91541827,0.87058431,0.43589503,-0.22820696,0
-1.2448995,2.1542952,-3.1223495,-0.31181175,0.53958941,-0.78205931,0
-1.4597572,2.445437,2.691911,-0.37249568,0.62401795,0.68691236,0
2.6279597,2.8069367,-0.84008557,0.66770041,0.7131741,-0.21344523,0
2.9778683,0.94494152,2.4687293,0.74785793,0.23731136,0.61999339,0
-1.7265456,-2.9700363,1.7379128,-0.44845465,-0.77144015,0.45140719,0
-1.5013057,3.5780671,0.59690279,-0.38240954,0.91139799,0.15204187,0
-0.65017593,1.980863,-3.1484358,-0.17218027,0.52457422,-0.83377206,0
-1.4525056,-0.40964594,-3.6387043,-0.36872572,-0.10399064,-0.92370307,0
-2.5140758,3.018558,0.88103157,-0.62446362,0.74977046,0.21883675,0
-0.35500759,-0.21572994,3.8725135,-0.091150731,-0.055390198,0.99429542,0
0.37047645,-1.7552601,3.5183792,0.093807489,-0.44444537,0.8908807,0
2.3573034,2.7034841,1.2443196,0.62090147,0.71208364,0.32774729,0
-1.2384077,-3.3092494,-1.5468711,-0.3210682,-0.85795224,-0.40104005,0
-2.0900176,-3.3115253,0.13930523,-0.53338683,-0.84512401,0.035551652,0
-2.6403966,2.6601565,0.90910816,-0.68461508,0.68973851,0.23571804,0
-3.079396,-0.32295388,2.3995392,-0.78611374,-0.082444251,0.61255872,0
3.740844,0.71624273,1.1254802,0.94189799,0.18034101,0.28338191,0
0.29693258,2.7631452,2.7350016,0.076153152,0.70865315,0.70143527,0
-0.37701839,-3.4583318,1.7191762,-0.097158819,-0.89122295,0.44303709,0
0.87837756,0.7862286,-3.6171362,0.2308853,0.20666355,-0.95077974,0
3.2792687,0.3426303,2.0250216,0.84750313,0.088550307,0.52335209,0
-1.8847526,0.23000647,-3.5019522,-0.47313103,0.057738718,-0.879098,0
2.7736681,-0.66464967,2.561408,0.72353208,-0.17337884,0.66816247,0
-3.0313952,1.2651488,2.0243936,-0.78563809,0.327885,0.5246563,0
-0.33120316,3.3058171,1.8424616,-0.087180503,0.87016922,0.48497945,0
0.64896315,3.8036537,0.98915601,0.16291746,0.95487952,0.2483204,0
2.6631982,0.5242061,-2.8152785,0.68101108,0.13404566,-0.71989977,0
0.59705329,3.0656626,-2.4643555,0.15007305,0.77057338,-0.61943108,0
0.54365838,-1.719822,-3.3655291,0.14237878,-0.45040447,-0.88139898,0
-3.2334313,2.3853383,-0.10922767,-0.80442458,0.59343302,-0.02717405,0
3.3745418,1.8712064,0.049098257,0.87447554,0.48490265,0.012723276,0
-2.0813599,-2.2962403,-2.3902009,-0.53180015,-0.58670342,-0.61071086,0
-0.81323224,2.5390172,-2.8259842,-0.20931983,0.6535238,-0.72738695,0
2.8093019,2.4253032,-1.2763942,0.71579611,0.61795515,-0.32521889,0
0.68376738,3.5315397,-1.5037271,0.17537972,0.90580577,-0.38569146,0
-1.3522511,2.2405076,2.7307749,-0.35752338,0.59237069,0.72199303,0
-1.7547246,-3.2406287,-1.0203103,-0.4588905,-0.84747982,-0.26682857,0
-2.9003153,0.024048304,2.6017683,-0.74436569,0.0061719953,0.66774362,0
-1.5339921,1.3351791,-3.2976165,-0.39594164,0.34462565,-0.85115415,0
-1.6548133,2.1974669,-2.7398071,-0.42622358,0.56599265,-0.70568103,0
-1.5421096,3.4695802,-0.37673607,-0.40417004,0.90933895,-0.098738395,0
-3.6447153,-0.6210497,1.2866048,-0.9310292,-0.15864487,0.32865849,0
-1.8750091,-1.8558661,-2.9134061,-0.47705624,-0.4721857,-0.74125433,0
1.5660319,2.5899572,2.3610599,0.40796831,0.674712,0.61508173,0
3.4460015,1.0778941,-1.6551074,0.86759049,0.27137849,-0.41670191,0
2.9836597,-1.2303965,2.1695249,0.76723993,-0.31639308,0.55788738,0
-0.96072727,1.4617853,3.5252044,-0.24412832,0.37145108,0.89578205,0
-2.2196457,-0.59981447,-3.1453223,-0.56970847,-0.15395223,-0.80729854,0
2.0955148,2.7263958,-1.9418389,0.530635,0.69038934,-0.49172053,0
-3.5004816,0.82279772,1.2940873,-0.91596019,0.21529892,0.3386198,0
3.4620521,-0.34952754,1.8457785,0.87894052,-0.088737518,0.46860343,0
2.6340244,2.1931462,1.7552181,0.6840176,0.56952798,0.4558045,0
-3.6017823,-1.6247611,-0.35076925,-0.90797544,-0.409587,-0.088425629,0
-0.73224652,3.2889879,-2.081635,-0.1848799,0.830414,-0.52557772,0
0.19284318,2.5021746,-3.0615742,0.04871377,0.63206983,-0.77337873,0
3.2733207,0.18552791,2.1543653,0.8343811,0.047291722,0.54915541,0
-0.064223483,1.4054219,3.5862501,-0.016671291,0.36482289,0.93092763,0
-0.21992064,0.319244,3.8453774,-0.056902487,0.08260151,0.99495685,0
-1.465549,-3.3662829,-1.2354239,-0.37832788,-0.86899769,-0.31892166,0
0.23572543,-2.218797,3.2261355,0.060094599,-0.56564844,0.82245398,0
0.21167891,-3.8102117,1.0500776,0.053482272,-0.96267867,0.26530999,0
1.2702302,3.6146162,0.58637297,0.32772341,0.93258238,0.15128608,0
-2.1961696,-3.2031865,0.24237938,-0.56437761,-0.82316357,0.062287312,0
-3.46714,0.34570101,-1.7342913,-0.89081788,0.088821515,-0.44559425,0
-1.5313092,3.5028515,0.5495674,-0.39648214,0.90694809,0.1422924,0
2.0775006,2.8169618,-1.6434639,0.53726405,0.72849673,-0.42501751,0
0.36939141,1.1601362,3.7246521,0.094266251,0.29605913,0.95050663,0
