2.8880892,1.3558742,-2.0755405,0.75878119,0.35622576,-0.54530209,0
1.7599661,1.7840601,2.8173635,0.46675262,0.47314247,0.74718016,0
-2.1940279,2.3334126,-1.9714718,-0.58335972,0.6204201,-0.52418536,0
1.9601111,-3.2143471,-0.03309859,0.52061504,-0.85374624,-0.0087911468,0
-1.872918,-2.2266171,2.3866839,-0.49768886,-0.59167701,0.63421142,0
3.1678317,1.9073701,-0.56306523,0.84693325,0.50994349,-0.15053788,0
1.7936236,2.9368069,-1.443594,0.48064002,0.78698057,-0.38684207,0
-1.4711275,3.481272,0.65800673,-0.38348544,0.90747887,0.17152558,0
3.1893268,2.1066811,-0.21821745,0.8330453,0.5502606,-0.056997929,0
0.11098792,1.070699,3.6389902,0.029246908,0.28214452,0.95892602,0
-2.5928593,-0.7986663,-2.5564671,-0.69555134,-0.21424742,-0.68578887,0
3.1611366,0.38526818,-2.1061447,0.82795793,0.10090859,-0.55163676,0
0.63424647,2.1578739,-3.018311,0.16849622,0.57326859,-0.80185544,0
-2.7815456,2.4516902,0.75328636,-0.73516893,0.64798737,0.19909532,0
0.82373095,-3.7124701,-0.32396469,0.21583229,-0.9727338,-0.084884562,0
-3.3301432,1.1047233,-1.3585225,-0.88510525,0.29361993,-0.36107621,0
1.6787032,3.4981296,0.015057714,0.43264422,0.90155637,0.0038807534,0
-3.5879474,1.0072596,-0.98990345,-0.93051207,0.26122659,-0.25672537,0
-2.4383898,1.4547468,-2.4195395,-0.65364617,0.38996625,-0.64859307,0
-0.086198486,-1.85445,3.4353988,-0.022074342,-0.4749012,0.87976223,0
-2.5986669,1.2068361,-2.3924062,-0.69618756,0.32331359,-0.64092994,0
3.2850356,-1.9323251,-0.79705358,0.84368712,-0.49627399,-0.20470518,0
-0.52534795,-0.93621629,-3.5214159,-0.14270249,-0.2543084,-0.95653713,0
-3.0685654,1.8784016,-1.2377713,-0.8064968,0.49369159,-0.32531768,0
2.5695918,1.9669603,1.9555854,0.67960429,0.52022064,0.51721221,0
-1.5814011,-2.0037167,2.7532578,-0.42120349,-0.53368652,0.73332548,0
2.5883365,-0.22142678,-2.6133313,0.70242923,-0.060091354,-0.70921242,0
0.67345667,-0.59720296,-3.6106298,0.18098153,-0.16048948,-0.97030348,0
-2.4163153,-1.5999293,-2.4333203,-0.6385445,-0.42280331,-0.64303833,0
-3.1977563,-1.2208087,1.698415,-0.83687294,-0.31949332,0.4444859,0
2.0810964,3.1527984,-0.38953504,0.54798269,0.83017725,-0.10257019,0
-0.44336984,-1.9571753,3.2744589,-0.11544684,-0.509619,0.85261983,0
-0.81758296,-3.3951154,1.4262925,-0.21673852,-0.90003377,0.3781054,0
-1.3341728,-0.99144465,3.4407027,-0.34915209,-0.25946036,0.90042943,0
-0.41309521,-2.4177129,-2.8490577,-0.10988319,-0.64311081,-0.75784838,0
-2.7943122,-1.5151305,-2.1327643,-0.729994,-0.39581695,-0.55716938,0
2.8866484,2.2738271,0.58991832,0.77562684,0.61096501,0.15850785,0
-0.37961885,0.89564884,-3.7049863,-0.099102601,0.23381644,-0.96721691,0
0.47805452,-3.0190277,2.2201686,0.12654115,-0.79913735,0.58767915,0
1.9584671,-2.6744926,-2.0004551,0.5058372,-0.69077384,-0.51668197,0
-3.2493579,-1.8286438,0.45883343,-0.86495012,-0.48676869,0.12213737,0
-0.040338933,-0.65851939,3.7228189,-0.01066934,-0.17417336,0.98465723,0
3.440762,-0.13797563,-1.651183,0.90097356,-0.036129322,-0.43236709,0
-3.0487759,-2.073828,-1.163188,-0.78853738,-0.53637624,-0.30084768,0
3.7027669,0.39869359,-1.2089764,0.94567138,0.10182469,-0.30876759,0
-2.5514669,1.5300909,-2.410193,-0.66637719,0.39962021,-0.62948006,0
1.2095498,2.8814256,2.158833,0.31845495,0.7586329,0.5683859,0
-0.96643853,1.2529656,3.4978878,-0.25173181,0.32636455,0.91110772,0
1.5336289,-2.3182614,-2.5800552,0.40438494,-0.61127561,-0.68030506,0
-2.4337037,1.9592928,2.1453686,-0.64213264,0.51695937,0.56605542,0
3.1931431,-1.8415412,1.0364825,0.83392262,-0.48093766,0.27068821,0
-2.3187153,1.7867103,2.4011869,-0.61243016,0.47191444,0.63421297,0
2.3122425,-2.6054726,1.5271838,0.60791171,-0.68500483,0.40151188,0
0.61968195,0.42597252,-3.6663265,0.16557316,0.11381584,-0.97960782,0
-0.51652843,3.1956666,2.0967069,-0.13392507,0.82856977,0.54363245,0
-2.4834499,0.54512012,2.6977191,-0.66992259,0.14704879,0.72772276,0
-1.9899322,2.7111347,-1.6926837,-0.52853382,0.72008801,-0.44958344,0
1.7315583,3.1563959,-1.1379929,0.45860192,0.83596909,-0.30139655,0
-2.8807151,-2.0173943,1.1800445,-0.77656323,-0.54383522,0.31810823,0
-3.2858493,1.6044184,-1.0443357,-0.86405116,0.42189991,-0.27461985,0
1.7373679,-2.9931107,1.6891108,0.45114642,-0.77722812,0.43861538,0
-2.2160075,0.33451083,3.0167549,-0.58965999,0.089010373,0.80273175,0
0.51097631,0.23714054,3.8392379,0.1316832,0.061113257,0.98940623,0
2.0067801,-3.0900307,0.53686523,0.53896499,-0.82989573,0.14418697,0
1.1380477,-2.0501893,2.9126077,0.30435491,-0.54829437,0.77893609,0
0.91535139,3.6654403,0.0062960465,0.242284,0.97020394,0.001666498,0
-1.7270275,-1.1438084,3.2447927,-0.44862247,-0.29712215,0.84288573,0
-1.7508831,2.7382605,-1.9297181,-0.46321157,0.72443098,-0.51052397,0
-0.63069868,2.6155663,2.6745646,-0.16624837,0.68944746,0.70499909,0
3.3129034,0.68093079,-1.7221097,0.87288558,0.17941201,-0.45374238,0
-2.0577059,2.7989032,1.434127,-0.5475114,0.74472815,0.38159043,0
-3.2112999,2.0339785,-0.45629966,-0.83877909,0.53126729,-0.1191837,0
0.74161416,3.4318936,-1.4316275,0.19558574,0.9050926,-0.37756282,0
1.4197303,2.2516289,-2.7604549,0.37022421,0.58715904,-0.71984601,0
2.7962229,-2.5669727,-0.30380532,0.73431122,-0.67410827,-0.079781786,0
-3.087451,2.1484339,-0.24724576,-0.81905764,0.56994951,-0.065590844,0
-3.5223811,-1.5047883,0.28959444,-0.9169814,-0.39174151,0.075390115,0
1.9925482,-3.1944385,0.21400571,0.52838641,-0.84710521,0.056750301,0
-3.245657,0.33876741,2.1026011,-0.83607692,0.087266035,0.54162723,0
2.7501829,2.6297574,-0.40883908,0.71861774,0.68715078,-0.1068289,0
1.8017737,-2.3701138,-2.4507296,0.46724662,-0.61463195,-0.63553774,0
1.9773301,0.92881769,3.076566,0.524032,0.24615526,0.81535149,0
-0.20920381,3.5020542,1.3241893,-0.055789415,0.93391007,0.35312811,0
-3.2002563,-0.83587652,-1.858808,-0.84347349,-0.22030725,-0.48991552,0
0.77144182,0.4578369,-3.6870646,0.20329854,0.12065404,-0.97165442,0
2.0871902,-0.58125287,-3.0946474,0.55250204,-0.153864,-0.81918699,0
-1.5856662,0.30492723,-3.4767089,-0.41364673,0.079545215,-0.9069559,0
-1.4916345,-3.1744659,1.7268705,-0.38153976,-0.81198508,0.44170994,0
-3.4460413,1.2850176,0.73301995,-0.91890222,0.34265566,0.19546303,0
-1.6511811,-2.5720291,-2.0157161,-0.45098677,-0.70249784,-0.55055213,0
-0.93107015,-3.6170309,0.11898408,-0.24915987,-0.96793884,0.031840842,0
-0.75798804,3.6020238,0.95184857,-0.19936606,0.94740456,0.25035527,0
2.9682372,1.5048612,-1.7853718,0.78595805,0.39847147,-0.47274771,0
-0.18581723,-2.0625374,-3.1855249,-0.048905775,-0.54284525,-0.83840758,0
-1.0231229,-2.8402905,-2.308682,-0.26920518,-0.74734026,-0.60746288,0
2.6854708,-1.1570317,-2.585624,0.68799615,-0.29642224,-0.66241616,0
-2.9233658,2.3122592,-1.2183566,-0.74549943,0.58965862,-0.31069809,0
-0.70348787,0.8119989,-3.6387961,-0.18541706,0.21401711,-0.95907104,0
0.82375181,-3.6154859,0.47470444,0.22034864,-0.96712065,0.12698057,0
-0.99726593,1.1176137,-3.5981965,-0.25587228,0.28675038,-0.92320287,0
-1.5063994,1.4008012,3.3358815,-0.38437077,0.35742646,0.85117888,0
-2.9557819,-1.9826857,1.3424855,-0.77703178,-0.52121902,0.35291979,0
-1.5064282,-1.279546,-3.2382381,-0.39707869,-0.33727491,-0.85356557,0
-2.8338928,-2.4003892,1.030707,-0.73526615,-0.62279171,0.26742154,0
0.98662186,0.64978504,-3.6149621,0.25942546,0.17085654,-0.95052958,0
2.3272839,-0.80018085,2.8624933,0.61650372,-0.21197005,0.75828212,0
1.3929718,3.3564246,1.0398513,0.36852592,0.88797885,0.27510405,0
-1.0979016,3.5869706,-0.30894661,-0.29168996,0.95298463,-0.082080789,0
0.23908427,-3.3669488,-1.8131896,0.062398016,-0.87873173,-0.4732199,0
-2.4017274,-0.72107303,-2.8019617,-0.63872051,-0.19176368,-0.74515963,0
0.11370801,-2.4035943,-2.9096768,0.030115211,-0.63658446,-0.7706188,0
2.1976252,-3.1609409,0.68945211,0.56189913,-0.80820417,0.17628235,0
-2.4016585,0.9006592,-2.8066099,-0.63166094,0.23688266,-0.73816735,0
-0.49836254,3.6589518,0.66510576,-0.13282038,0.97516036,0.17725973,0
1.6007203,-2.8184967,2.0352767,0.41823241,-0.73641014,0.53177226,0
0.37352055,-1.2765082,-3.6678734,0.09573584,-0.32717767,-0.94010073,0
0.41969651,0.7164939,-3.6032276,0.11350299,0.19376907,-0.97445911,0
1.0491152,2.6206853,2.49523,0.27845719,0.69558489,0.6622864,0
-1.3985239,-3.4714985,-0.90647399,-0.36317497,-0.90149432,-0.23539725,0
1.3719468,3.492712,-0.87939197,0.35596454,0.90621704,-0.22816654,0
3.5232422,1.2399093,-0.11500423,0.94284463,0.33180854,-0.030775949,0
1.1097831,-3.4014933,1.1532003,0.29521725,-0.90484303,0.30676681,0
1.6982471,-3.2352641,1.4430627,0.43228483,-0.82352889,0.36732823,0
-1.5296377,1.1776568,-3.1973913,-0.40954518,0.3153058,-0.85606951,0
0.50332481,2.9135635,2.4646797,0.1307587,0.75691444,0.6402989,0
-0.87636524,0.89947718,3.6261892,-0.22836944,0.23439211,0.944938,0
-1.8658273,-0.78794378,-3.3098722,-0.48083511,-0.20305793,-0.8529743,0
-2.0118399,2.9517403,-1.4120294,-0.52376574,0.76846099,-0.3676101,0
1.6238046,3.3044441,-0.93731189,0.42739624,0.86975181,-0.24670677,0
3.0406342,2.2555833,0.56246436,0.79442537,0.58931541,0.14695485,0
-0.055204917,-2.2152989,3.1505647,-0.014332098,-0.57512778,0.81793803,0
0.31967694,-1.4957979,-3.582612,0.08206369,-0.38398358,-0.9196859,0
-3.4356697,-0.51486957,-1.5979815,-0.89846498,-0.134644,-0.41788954,0
1.4006317,2.2033968,-2.7489407,0.36944023,0.58118308,-0.72507948,0
1.9820222,-0.071640342,-3.2317305,0.52271491,-0.018893572,-0.85229814,0
3.5656648,1.3359236,0.49740377,0.92854381,0.34789124,0.12953018,0
-3.1225719,-2.1608818,0.066371366,-0.82217741,-0.56896305,0.01747567,0
2.2695239,-2.5409169,1.5870953,0.60384732,-0.67605633,0.42227504,0
-0.97359633,0.48307952,3.6199191,-0.25759518,0.12781371,0.95776218,0
-1.491088,1.9369608,2.786392,-0.40227541,0.52256584,0.75173092,0
-2.1994736,1.3035001,2.7239666,-0.58874327,0.34891388,0.72913677,0
0.2872059,-3.6409423,0.56536418,0.077712432,-0.98516947,0.15297675,0
2.7561417,-1.8728197,1.6708535,0.73937386,-0.50241029,0.44823003,0
-0.8010999,-0.98868352,3.6266968,-0.20843196,-0.25723788,0.94360203,0
-1.4470724,-2.1310337,-2.7518816,-0.38390264,-0.56535488,-0.73006338,0
-0.082575135,-3.525243,1.4980041,-0.021553276,-0.92013818,0.39100021,0
-2.0914502,0.36223754,3.2760494,-0.53577846,0.092796415,0.83924389,0
-0.68171304,-3.6954262,-0.68455893,-0.17847647,-0.96748424,-0.17922154,0
3.8445728,-0.16226493,0.32287753,0.99561179,-0.042021021,0.083614148,0
1.1575563,1.9105276,3.0313301,0.30741078,0.50737643,0.80502659,0
2.7785752,-1.1556529,2.1262538,0.75408578,-0.31363606,0.57705033,0
-1.4153638,3.1894865,1.3876511,-0.37690601,0.84934819,0.36952621,0
-1.5417367,0.32252067,3.3215082,-0.41939968,0.087735511,0.90355206,0
-0.18674299,0.67737699,3.654845,-0.050175797,0.18200378,0.9820168,0
-3.2195134,-1.9719719,0.84911728,-0.8319701,-0.50958681,0.21942452,0
-2.0986595,-0.42185304,3.2041082,-0.5446263,-0.10947572,0.83150297,0
3.2967968,1.9738473,0.14448319,0.8573724,0.51332319,0.037574623,0
1.6599559,-3.0636375,-1.4636362,0.43921617,-0.81062347,-0.38727096,0
-2.1210976,0.034863602,3.2368202,-0.54808033,0.0090085696,0.83637714,0
2.7974992,-1.9444556,1.6866392,0.73588693,-0.51149237,0.44367331,0
3.5550425,1.0771304,-1.2805785,0.90478081,0.27413651,-0.32591534,0
3.8222394,0.50041258,-0.12115066,0.99104911,0.12974945,-0.031412542,0
2.8617094,-1.4168177,-1.9533384,0.7644887,-0.37849444,-0.52182275,0
-1.7359272,-2.4775488,-2.381037,-0.45091256,-0.64355111,-0.61848187,0
-1.4228524,-2.9927931,-1.7065077,-0.38172817,-0.80291772,-0.45782825,0
-0.16480196,3.8320079,0.45414984,-0.042668905,0.99214584,0.11758402,0
-1.0057356,-3.535675,0.66255581,-0.26926112,-0.9465906,0.17738312,0
3.4484298,-0.77215892,-1.2141123,0.92288607,-0.20664904,-0.32492682,0
1.1933634,3.5067182,-1.1032604,0.30876005,0.90729648,-0.2854476,0
-3.8312407,-0.32168183,-0.46473068,-0.98929268,-0.083063819,-0.12000151,0
-2.9865203,-2.1920638,-0.78187126,-0.78877831,-0.57895219,-0.20650223,0
2.4388208,2.4909258,-1.5498544,0.63926309,0.65292084,-0.40624747,0
-0.67392796,2.087065,-3.2250438,-0.17279677,0.53512853,-0.82690912,0
1.2508807,-3.5907953,0.072416671,0.32890868,-0.94416976,0.019041361,0
0.67654681,-1.2045265,3.5174589,0.17902628,-0.31873906,0.93078196,0
2.6925662,-1.0405972,2.5961754,0.69353479,-0.26803067,0.66870701,0
-2.8232093,-2.1983089,1.3594556,-0.73757571,-0.57431775,0.35516369,0
-1.0441914,3.5455046,0.71863472,-0.27732062,0.94162971,0.19085796,0
-0.63400811,-3.1565259,2.1806164,-0.16304547,-0.81175178,0.56078082,0
-1.6118317,-0.53093278,3.3404002,-0.43019417,-0.14170474,0.89154512,0
-2.2222173,2.9129059,0.85981154,-0.59049451,0.77402639,0.2284718,0
-2.9691288,0.15742065,-2.3108535,-0.78846514,0.04180374,-0.61365724,0
-0.061307486,-0.019050967,-3.8855944,-0.015775995,-0.0049023046,-0.99986356,0
1.5321743,-0.76185501,3.4167745,0.40095639,-0.19937067,0.89413947,0
-0.74679244,2.0715785,-3.0719771,-0.19757949,0.54807925,-0.81275553,0
3.4093332,1.1681366,-1.2138786,0.89652276,0.30717474,-0.31920311,0
0.49356121,-3.3848026,-1.6854982,0.1294309,-0.88762659,-0.44200304,0
-0.86300147,3.5791361,-1.1486642,-0.2237647,0.92802197,-0.29783323,0
-2.0220132,3.2452562,0.16725291,-0.5283137,0.84792387,0.043700013,0
-3.4396808,1.2569404,-0.41664287,-0.93323284,0.34102526,-0.11304096,0
3.4188125,-1.5126787,0.71605355,0.89815843,-0.3973968,0.1881149,0
0.31024277,0.034000147,3.6996317,0.083560944,0.0091576166,0.99646062,0
0.45797229,0.82508707,3.7438278,0.11861719,0.21370183,0.96967077,0
1.3242847,-1.8848518,-3.0816133,0.3441996,-0.48989862,-0.80095321,0
-0.95362836,-3.3538375,1.5271795,-0.25052226,-0.88106745,0.4011966,0
-3.173363,-1.9198525,0.56806725,-0.84574115,-0.51166481,0.15139706,0
-3.4246314,-1.4687183,0.55138135,-0.90914685,-0.38990492,0.14637682,0
3.5987558,0.36341688,-0.83276922,0.96957421,0.097911514,-0.22436409,0
2.4458439,-2.7658153,0.05122995,0.66238266,-0.74903721,0.013874078,0
-1.1720723,-3.5041547,-0.60411495,-0.31305045,-0.93592966,-0.16135392,0
-1.2641472,3.4141531,-1.1066164,-0.33222073,0.89724714,-0.29082128,0
-3.1891248,1.9376559,0.75458878,-0.83766603,0.50895113,0.19820277,0
0.48788509,2.3178058,-2.854059,0.13154456,0.62493145,-0.76951712,0
-1.9732955,2.7270634,-1.8883677,-0.51126617,0.7065618,-0.48926198,0
-3.0538898,-2.0718081,1.0010096,-0.79867482,-0.54183388,0.26179108,0
1.8116167,2.6125035,-2.0671773,0.47772896,0.68892533,-0.54512107,0
-0.6216746,-3.6501577,0.80290979,-0.16408339,-0.96341443,0.21191821,0
3.1035051,1.8601366,1.1479753,0.81757009,0.49002403,0.30241624,0
1.4032713,-1.3399532,-3.2665129,0.36934906,-0.35268337,-0.85976493,0
-1.905853,3.1109707,-0.86590397,-0.50826895,0.82965994,-0.23092657,0
3.1044483,2.0835364,1.0845028,0.79745895,0.53521097,0.27858299,0
2.4073126,2.4573603,-1.4233052,0.64663261,0.66007596,-0.38231656,0
-0.22914711,-3.203773,-2.1714506,-0.059102781,-0.82633334,-0.56007153,0
3.0943143,-1.2330402,-1.9577366,0.80087554,-0.31913751,-0.50670463,0
-1.1299697,0.11521862,3.65905,-0.29493222,0.030073093,0.95504481,0
0.93319911,0.96280092,3.5895808,0.24353863,0.25126386,0.93677926,0
-0.068154432,0.28805888,3.7883074,-0.017936062,0.075807862,0.99696112,0
3.0023439,-0.21503413,2.2907598,0.79372972,-0.056848578,0.60560822,0
-2.6391478,2.7625804,-0.013526051,-0.69076437,0.72307128,-0.003540277,0
3.524884,-0.86476076,-1.443458,0.90244716,-0.22139762,-0.36955673,0
-1.0037707,3.6628458,-0.68066049,-0.26015168,0.94931591,-0.17640978,0
3.3255827,0.81812501,-1.7243047,0.86731875,0.21336865,-0.44970214,0
1.2166024,3.3705497,-1.2738171,0.31990016,0.88627088,-0.33494449,0
2.8310227,-2.3974085,0.51072407,0.75599933,-0.64020652,0.13638429,0
0.99232668,-2.0524173,2.875896,0.27039871,-0.55926239,0.78365177,0
-2.8674438,-0.73963624,2.2585962,-0.76992434,-0.19859637,0.60644543,0
-0.28531846,-2.8729227,-2.4754248,-0.075024545,-0.75543559,-0.65091348,0
-2.8566129,0.55573267,-2.311579,-0.76862705,0.14953063,-0.62197512,0
-2.6404817,2.1654842,-1.4663603,-0.71049321,0.58268225,-0.39456403,0
2.5363092,-1.0315881,2.7124736,0.6580705,-0.26765573,0.70377809,0
1.2703246,0.26109603,3.6619835,0.32699493,0.067208871,0.94263315,0
-0.42131791,3.6615455,0.92815447,-0.11085051,0.963368,0.24420133,0
2.7746854,0.11825597,-2.6141372,0.72750056,0.031005781,-0.68540609,0
0.49967191,3.5988641,1.1695505,0.13090762,0.94285619,0.30640724,0
-2.3206468,-2.8330035,1.1711336,-0.60357291,-0.73683089,0.30459806,0
1.2401948,-3.4713082,0.82702541,0.32828191,-0.91886187,0.21891519,0
-3.4860451,1.2724379,-1.1595242,-0.89662957,0.3272779,-0.29823586,0
2.5888059,2.5819547,1.4131603,0.66043055,0.65868276,0.36051148,0
-3.5396528,1.085098,-0.86983192,-0.93074059,0.28532311,-0.22871958,0
0.28219017,3.093024,-2.0997097,0.075270221,0.82502025,-0.56006777,0
1.3339025,-2.8633337,1.9259638,0.3605496,-0.77394998,0.52058184,0
1.8447608,-3.1447177,-0.75222254,0.49554852,-0.84474921,-0.20206563,0
-3.3777702,-0.40450203,1.8756444,-0.86950314,-0.10412662,0.48282704,0
2.1782961,-3.0624609,-0.94021237,0.56229043,-0.79052269,-0.2427,0
0.21504748,2.463836,-3.0390368,0.05488392,0.62881452,-0.77561593,0
-1.6490344,1.020532,-3.3358202,-0.42737025,0.26448509,-0.8645243,0
-0.55480307,3.0702312,2.2245977,-0.14478782,0.80124301,0.58055669,0
2.560822,-2.8653767,-0.21417664,0.66533792,-0.74446553,-0.055646133,0
-3.1404595,-1.3512322,1.5586208,-0.83581966,-0.35962456,0.41482013,0
1.7844222,3.3676488,0.60702604,0.46237704,0.87262058,0.15729177,0
3.1330369,-0.75078756,-2.1264496,0.8116188,-0.19449286,-0.55086058,0
-1.5375451,-3.3639855,0.64857781,-0.4094505,-0.89583427,0.17271721,0
-1.8504976,-1.7194045,2.8545518,-0.48547658,-0.45108441,0.74888939,0
3.1714272,1.8776155,-1.1688055,0.82024097,0.48561642,-0.3022936,0
3.4989114,1.4016795,-0.75598323,0.91015708,0.36461297,-0.19665073,0
-2.9308653,-0.86591536,2.3207355,-0.76376444,-0.22565192,0.60476857,0
-2.3424182,-2.9799576,0.81938899,-0.60403574,-0.76843703,0.21129456,0
-1.4086455,2.9934411,2.1185017,-0.35857189,0.76198292,0.53926635,0
2.4564428,2.8451953,-0.071094863,0.65338546,0.75678915,-0.018910414,0
-3.667022,-0.68455344,-0.22185342,-0.98128438,-0.1831845,-0.059367325,0
-2.3633537,-2.3050494,2.0068729,-0.61172134,-0.59663004,0.5194512,0
3.7160208,-0.58589476,0.25557095,0.98552591,-0.15538515,0.067779973,0
-1.1007466,1.546855,3.3784919,-0.28403541,0.3991487,0.87178218,0
-2.1462657,-2.8540239,1.3008653,-0.56472546,-0.75095075,0.34228367,0
-1.6727108,-0.4408851,-3.3231571,-0.44648165,-0.11768149,-0.88702041,0
-2.1017139,2.5353343,1.9779811,-0.54710001,0.65997636,0.51489097,0
1.4428711,3.2061033,-1.3856667,0.38181016,0.84839374,-0.36667284,0
1.9799864,2.3565361,2.1915555,0.52402377,0.62368149,0.58001769,0
-3.5688493,-0.90626901,1.0386428,-0.93283606,-0.23688319,0.27148342,0
-3.3678167,0.75600439,-1.5925878,-0.88595873,0.1988792,-0.41895601,0
3.2558537,-1.2346594,-1.675411,0.84257066,-0.31951308,-0.4335736,0
-1.6073451,3.4734123,-0.20056961,-0.41939399,0.90629458,-0.05233331,0
-1.5696157,3.4925804,0.40906286,-0.40760106,0.90696049,0.10622629,0
-1.307619,3.0701032,-1.7876662,-0.34541458,0.81098425,-0.47222164,0
-3.1183746,1.0233116,-2.0012169,-0.81123275,0.26621047,-0.5206086,0
-0.17037046,3.3448272,1.8641659,-0.044448152,0.8726359,0.48634446,0
0.98448884,-3.1972349,1.6276741,0.26462409,-0.85939562,0.43750805,0
0.77644575,-3.6159306,-1.0165981,0.20243503,-0.94274586,-0.26504758,0
3.3407621,1.4180574,0.85231805,0.89612585,0.38037968,0.22862576,0
1.2522357,3.0216916,-1.8238313,0.33437476,0.80685884,-0.48700351,0
3.5076084,0.87422723,0.8426367,0.94498277,0.23552506,0.22701427,0
3.7304537,0.075732768,-0.75818676,0.97977096,0.019890547,-0.1991311,0
1.4651806,-2.8418813,2.0433176,0.38613328,-0.74894857,0.5384953,0
-3.6320691,0.77181399,0.99395102,-0.94489187,0.20078933,0.25857884,0
-1.9384073,-1.4028102,-2.9787891,-0.50733072,-0.36715126,-0.77962524,0
-1.3713138,2.2634203,-2.6768625,-0.36430466,0.60130262,-0.71113807,0
-2.9353127,-1.2812268,2.0305996,-0.77403533,-0.33785659,0.53546453,0
1.7176129,-3.1200118,-1.4905428,0.44487613,-0.80810922,-0.38606307,0
2.2231216,-0.62814963,-2.9886391,0.58853114,-0.16629122,-0.79118794,0
-0.46731302,-3.4447591,1.6048949,-0.12204907,-0.89967459,0.41915357,0
3.5951788,-1.2061387,-0.0084577277,0.94806641,-0.31806475,-0.0022303446,0
-3.7624226,0.18539059,-0.64202976,-0.98459023,0.048514955,-0.16801308,0
0.054044791,2.9284141,2.5013473,0.014031566,0.76029962,0.64942098,0
-2.1117918,-1.9302588,-2.3896978,-0.5665037,-0.51780611,-0.64105403,0
-3.2628069,-1.7525934,-0.31921148,-0.87770176,-0.47145122,-0.085868545,0
0.72498387,-1.7327696,-3.2514586,0.19307126,-0.46145579,-0.86589956,0
1.3098961,-0.18640694,-3.6171179,0.34009951,-0.048398424,-0.93914318,0
2.7007625,0.24053407,2.6251724,0.71561253,0.063733555,0.6955837,0
-2.6580172,-2.7222443,0.77271956,-0.6846385,-0.70118177,0.19903316,0
3.4686835,0.85596913,1.4664671,0.89815938,0.22163935,0.37971792,0
0.93127388,2.0133932,3.037509,0.24759269,0.53528982,0.80756587,0
-3.4931085,-0.23364937,1.4747111,-0.9195202,-0.061505482,0.38820055,0
-1.4934599,-1.8221885,3.0797818,-0.38514972,-0.46992582,0.79424769,0
0.36912411,-3.756108,0.40023199,0.097256586,-0.98965693,0.10545287,0
-3.5957096,-1.1333797,-0.15075803,-0.95298141,-0.30038294,-0.03995584,0
-2.1154873,2.5882425,-1.8591459,-0.55306697,0.67666274,-0.4860498,0
-0.24180907,0.68055993,-3.7751379,-0.062912047,0.17706291,-0.98218673,0
-2.6680305,2.4423423,-1.1804478,-0.70121843,0.64190251,-0.31024823,0
-2.1819413,3.0750124,0.15952104,-0.57817239,0.81481898,0.042270001,0
1.9715265,-3.3016009,-0.6417712,0.50569659,-0.84686071,-0.16461432,0
-1.291893,2.7654364,2.2765622,-0.33927521,0.72625518,0.59786767,0
-3.7813232,-0.21239629,-0.92035806,-0.97018969,-0.054495394,-0.23614007,0
1.7576677,0.1785824,3.4392426,0.45459101,0.046187319,0.88950193,0
-2.8128335,0.38070673,2.370666,-0.76058573,0.1029425,0.64102435,0
1.3755522,3.1262345,1.8419197,0.35447955,0.80563009,0.47466236,0
-0.6016798,3.4971547,-1.3894719,-0.15788509,0.91767842,-0.36460736,0
2.1219146,-0.9485594,-3.1158178,0.54586715,-0.24401897,-0.80155092,0
-1.9202613,-3.228308,-0.50064862,-0.50673711,-0.85191715,-0.132116,0
3.2690783,1.9178833,-0.39386237,0.85790241,0.50330901,-0.10336108,0
-0.82351005,3.2692263,-1.9016187,-0.21275592,0.84461296,-0.49128804,0
-2.6156075,2.0544446,1.6453414,-0.70488256,0.55365419,0.44340461,0
-1.6376687,-2.743922,-2.2634027,-0.41821298,-0.70071793,-0.57800722,0
2.34835,2.3510799,-1.8699054,0.61588198,0.61659795,-0.49040434,0
2.7475421,-1.2858223,2.1922104,0.73409885,-0.34355092,0.58572322,0
-2.8575599,2.0085878,1.1439738,-0.77747738,0.54649132,0.31124941,0
-0.87166488,-2.4956524,2.7767899,-0.22735836,-0.6509468,0.72427654,0
-2.1134512,2.8233593,1.4838223,-0.55236381,0.73790276,0.38780633,0
-3.5822377,0.0069644633,-1.2917932,-0.94070262,0.0018288816,-0.33922741,0
-2.5148187,-2.7501206,-0.79585004,-0.6599493,-0.72169828,-0.20885032,0
3.6391318,0.48937359,0.72402281,0.97235668,0.13075802,0.19345504,0
1.4200901,0.43963307,-3.4874489,0.37458792,0.11596534,-0.91991085,0
0.68844235,0.82178187,-3.7434547,0.17679861,0.21104148,-0.96135515,0
0.5756892,2.5780227,-2.7269065,0.15163563,0.67904717,-0.71826291,0
0.058551848,3.8828621,-0.18003248,0.015061667,0.99881351,-0.046310909,0
2.5571928,-2.3589756,-1.4940771,0.6753757,-0.62302488,-0.39459807,0
1.6296594,-1.1056439,-3.2972386,0.4243269,-0.28788495,-0.85852724,0
1.0924778,3.478456,-0.73259097,0.29376757,0.93535769,-0.1969939,0
-0.42488161,-3.2835958,1.630083,-0.11512887,-0.88974589,0.44169858,0
-3.5915399,0.032525968,1.2067956,-0.94788426,0.0085842991,0.31849918,0
-3.2055345,2.0904484,-0.58143288,-0.8281213,0.54004872,-0.15020801,0
-1.1015626,2.2433293,2.97208,-0.28367409,0.57770151,0.76536918,0
-0.73181635,0.80932069,-3.7692864,-0.18649572,0.2062469,-0.96056312,0
-0.30582926,-0.63113409,-3.6349697,-0.08261171,-0.17048423,-0.98189121,0
-3.0947821,-2.1675222,0.12084982,-0.81866717,-0.57337779,0.031968579,0
2.1674066,-3.149935,-0.15102154,0.5664115,-0.82317704,-0.039466675,0
0.50750434,-0.072361544,3.6718073,0.1368888,-0.019518031,0.99039412,0
2.9135981,-2.424696,0.023773137,0.76863444,-0.6396575,0.006271576,0
0.34913823,-2.2889867,-3.1111629,0.090025075,-0.59021378,-0.8022114,0
0.22570273,3.1886084,-2.1679876,0.058435485,0.82554549,-0.56130201,0
-1.4377807,3.427937,-0.67044365,-0.38064429,0.90752685,-0.17749615,0
-0.71287417,-3.401221,1.5136746,-0.18806985,-0.89730722,0.39933634,0
-0.28223845,-0.80742377,3.7846353,-0.072740287,-0.20809437,0.97540021,0
-3.3070991,1.5893501,-0.85484296,-0.87780792,0.42186341,-0.22690216,0
-3.2479439,0.087763123,2.1432595,-0.8344425,0.022547582,0.55063355,0
2.7764037,-2.6304648,-0.16572163,0.72524768,-0.6871258,-0.043289535,0
-0.83517331,0.30223873,3.6360888,-0.22312975,0.08074785,0.97143859,0
-3.104984,0.44692406,-2.2802546,-0.80063057,0.11524086,-0.58797127,0
-1.2602999,-3.0728714,-1.7675493,-0.33497858,-0.81674695,-0.46980178,0
-2.2630033,-0.19540696,-3.0360205,-0.59683496,-0.051535808,-0.80070722,0
-3.5171068,0.47735384,1.6257265,-0.90090781,0.12227431,0.41643026,0
-2.4926074,0.93588793,2.6988037,-0.65748739,0.2468638,0.71187681,0
-0.1803209,-1.4891229,3.5085649,-0.047256868,-0.39025581,0.9194929,0
-0.69863188,-3.6673853,-0.048254445,-0.18711776,-0.98225248,-0.012924207,0
1.5364848,-2.9886801,1.8518028,0.40044457,-0.77892125,0.48262393,0
-3.5962052,-0.4570002,1.2310398,-0.93933809,-0.11936963,0.32155076,0
3.4599032,-1.1700741,0.70388556,0.93018037,-0.31456947,0.18923666,0
0.5412668,-1.3836384,3.4954934,0.14250824,-0.36429328,0.92031616,0
-3.5486226,-1.2384686,0.85788232,-0.92047936,-0.32124713,0.22252661,0
-1.3052021,2.567209,-2.3594279,-0.35057443,0.68954676,-0.63373721,0
0.51263672,3.8164368,-0.37391654,0.13250454,0.98645914,-0.096648626,0
-1.7173244,3.2250926,0.71378547,-0.46128789,0.86628723,0.19172883,0
0.59209687,-1.6742628,3.3592703,0.15582342,-0.44061938,0.88406652,0
-0.82738477,-3.294395,1.6486751,-0.21913551,-0.87253106,0.43665686,0
-2.3223779,1.8669351,-2.3393335,-0.61303639,0.4928135,-0.61751217,0
3.8232915,0.30679402,-0.6046505,0.98463637,0.079010598,-0.15571946,0
2.1207721,1.8501055,2.6430292,0.54930174,0.47919634,0.68457168,0
-2.0817111,-2.9748106,1.2643993,-0.54144943,-0.77374309,0.32886806,0
3.0734062,-2.191402,0.064189419,0.81410271,-0.58047199,0.017002888,0
0.14602189,-3.5399222,-1.3563077,0.038490918,-0.9331125,-0.35751852,0
-0.87700248,3.7383771,-0.32843548,-0.22756295,0.97002703,-0.08522182,0
-2.1500645,0.43527398,3.0689838,-0.56994802,0.11538424,0.81353903,0
0.46645701,2.8706453,2.339781,0.12496633,0.76906127,0.62683988,0
1.8369646,-0.49375349,3.3682342,0.47488457,-0.12764314,0.87074208,0
3.1452782,-1.4459472,-1.7518272,0.8106916,-0.37269109,-0.45153132,0
1.9011216,-1.4610702,-2.9228477,0.50287837,-0.38647744,-0.77314198,0
-1.4881279,-0.19751927,-3.440311,-0.39645684,-0.05262173,-0.91654402,0
-1.4214909,2.511435,2.3629735,-0.38111475,0.67333877,0.63353485,0
-0.73622906,-1.8493794,3.1429284,-0.19789791,-0.49711204,0.84481716,0
1.479104,3.0760117,1.5598217,0.39414561,0.81968302,0.41565493,0
-1.1706032,-3.6643243,-0.24160112,-0.30371022,-0.95070022,-0.062682837,0
3.2210162,-1.086406,1.6761479,0.84985477,-0.28664473,0.44224626,0
3.4219539,-1.4675989,0.20704286,0.91762561,-0.39354894,0.055520277,0
2.6241255,-2.1874619,-1.6098723,0.69483799,-0.57921451,-0.42627552,0
0.60228062,2.609987,2.6544857,0.15971024,0.69210541,0.7039054,0
2.1864824,-3.0628207,0.75201041,0.56975406,-0.79811049,0.19595905,0
-2.2908862,2.9178405,-0.13327093,-0.61713964,0.78603423,-0.035901729,0
-1.9321941,3.1299784,0.16659769,-0.52475262,0.85005146,0.045245238,0
-0.70924824,-3.7053139,-0.4428831,-0.18671845,-0.97547013,-0.1165945,0
-0.39514124,-3.3774965,1.6763775,-0.1042235,-0.8908574,0.44216576,0
0.53785324,-3.5039802,-1.406994,0.14101981,-0.91870904,-0.36889994,0
-2.3896441,1.9255741,2.4156671,-0.61185127,0.49302948,0.6185143,0
-3.613445,0.78267509,0.54809755,-0.96677101,0.20940337,0.14664255,0
1.475703,2.2806585,-2.62938,0.3903383,0.60325712,-0.69549751,0
2.548816,-1.8472133,-2.2256858,0.66114223,-0.4791522,-0.57732493,0
-3.3083022,-0.3927978,1.6926278,-0.88531542,-0.10511433,0.45295423,0
3.2852135,-1.3373331,-1.5168196,0.85159957,-0.34666613,-0.39319298,0
2.3993442,1.2965355,2.578263,0.63930714,0.34546289,0.68698019,0
-3.3245804,0.47632706,-1.8413552,-0.8679949,0.1243614,-0.48074847,0
-2.9058232,1.3818295,1.9565637,-0.77163088,0.36693984,0.51955843,0
0.34595001,3.7468059,-0.2928493,0.091663703,0.99276227,-0.077594019,0
-0.067239359,3.5937197,1.3254485,-0.017551627,0.93807602,0.34598455,0
-0.061808158,-3.6727598,0.63007766,-0.016584218,-0.98546612,0.16906093,0
0.95481199,2.7056026,2.5311542,0.24955525,0.70715213,0.66155726,0
-1.6107731,-2.0807712,-2.6623576,-0.43030751,-0.55586445,-0.71123147,0
-1.9906121,-1.8959883,2.7525461,-0.51169646,-0.48737293,0.70755523,0
-0.21468137,3.7881916,-0.41963014,-0.05623753,0.99234754,-0.10992552,0
2.4879034,2.8223374,0.54984754,0.65431315,0.74226856,0.14460871,0
-1.3643552,-1.6723564,-3.1563735,-0.35681236,-0.43736222,-0.82546908,0
0.25058255,-3.8268809,-0.016109033,0.065339081,-0.99785429,-0.0042004096,0
-1.4520357,-3.3664434,-0.47666633,-0.39274973,-0.91056287,-0.12892973,0
2.6350484,-2.708858,0.039599344,0.69723547,-0.71676552,0.010478011,0
-3.267005,1.6510153,-1.2075459,-0.84757721,0.42833203,-0.31328031,0
0.93560874,3.1610649,-1.8170751,0.24855223,0.83976316,-0.48272112,0
-2.617471,2.7829416,-0.40701848,-0.68126398,0.72433197,-0.105937,0
2.9170003,1.249071,-2.2446303,0.75048339,0.32135996,-0.57749665,0
0.100021,-1.1341369,-3.5495937,0.026831694,-0.30424425,-0.95221609,0
-1.115388,0.83911866,-3.5551724,-0.29203582,0.21970175,-0.93083096,0
-3.3049452,-1.6752225,-1.18797,-0.84937006,-0.43053174,-0.30530798,0
-0.25111675,3.8581645,0.21138567,-0.064852819,0.99640042,0.054591961,0
-3.1578345,-2.0148916,-0.85781318,-0.82174134,-0.52432126,-0.22322276,0
-0.64768183,1.3447382,3.5486577,-0.16823879,0.34930289,0.92178261,0
0.87893516,3.4641495,-1.3059423,0.23099224,0.91041034,-0.34321365,0
1.3292563,0.75488698,3.3806098,0.35827449,0.20346472,0.91117585,0
1.1753398,-0.26399237,-3.5494838,0.31356391,-0.0704294,-0.94695163,0
-1.8154515,-3.2705913,-0.61966908,-0.47880232,-0.86257696,-0.16342986,0
-2.6969278,-1.7474577,-2.1898015,-0.69352317,-0.44936407,-0.56311411,0
3.2868214,-1.9132737,0.012332964,0.86423624,-0.50307584,0.0032428273,0
-2.322,-1.5122516,-2.6078937,-0.61021441,-0.39741504,-0.68534636,0
0.76508373,-3.6390643,0.95078081,0.19933164,-0.94810629,0.24771237,0
3.2636242,-0.75922102,1.9255954,0.84447956,-0.19645235,0.49825773,0
-0.15017132,-3.6379941,0.58818191,-0.040715665,-0.98636234,0.15947263,0
3.5166228,0.24775456,-1.441152,0.9233532,0.065052457,-0.37840062,0
3.389219,-1.229156,-1.3511803,0.88029236,-0.31925249,-0.35094625,0
-2.7749891,1.46734,-2.1997914,-0.72395235,0.38280663,-0.57389206,0
-0.75892705,-2.1272092,-3.0530169,-0.19984291,-0.56014305,-0.80392945,0
2.3101499,2.8142676,0.99517429,0.61203235,0.7455892,0.2636534,0
3.6331408,0.028274918,0.89639789,0.97085762,0.0075556994,0.23953785,0
1.0445895,3.5068829,-1.1800568,0.27169403,0.91212779,-0.3069286,0
-3.3720646,1.0622026,1.5218904,-0.87607539,0.27596432,0.39539298,0
-1.2853948,-3.4395058,0.8874594,-0.3402704,-0.91050786,0.23492873,0
3.4932365,-1.5542693,-0.0044161775,0.91364396,-0.40651378,-0.0011550359,0
3.510551,-1.1049063,0.38471735,0.94870079,-0.29859287,0.10396706,0
2.5125964,2.1381586,1.8016574,0.66840369,0.56879532,0.47927895,0
0.48262227,2.5776408,2.6448417,0.12957835,0.69206595,0.71010858,0
-0.50945318,-1.6523687,-3.3265517,-0.13588651,-0.44073647,-0.88729149,0
-2.9260144,-0.3331587,2.421695,-0.76742625,-0.087379865,0.6351549,0
2.8026729,-1.7837725,-1.8843936,0.73380071,-0.46703044,-0.49337521,0
-0.52910918,3.6993198,-0.063461833,-0.14156745,0.98978299,-0.016979728,0
1.1631137,3.6355603,-0.6718483,0.30009955,0.93802524,-0.17334622,0
-3.2499907,-1.413591,-1.2469112,-0.86503667,-0.3762497,-0.33188522,0
1.7040757,1.539616,-3.0503509,0.44629911,0.40322694,-0.79888994,0
1.6586051,0.91238356,-3.3178658,0.434201,0.23885001,-0.86857361,0
-2.6434021,0.75745183,-2.6577046,-0.69122547,0.19806673,-0.69496542,0
3.3119564,-0.20829563,-1.795361,0.87779731,-0.055206444,-0.47584051,0
0.16979189,2.4487431,-3.0003161,0.043800574,0.63169307,-0.77398026,0
1.6057311,-2.2524438,2.5800176,0.42450011,-0.5954687,0.68206793,0
2.1837735,2.6443219,-1.4743229,0.58499902,0.70837277,-0.39494821,0
3.6132693,0.30968922,0.77368701,0.97441864,0.083516322,0.20864624,0
-1.7612811,2.5900667,-2.3076484,-0.4527162,0.66574556,-0.59315336,0
2.0839581,1.5437479,2.8841572,0.53728104,0.39800534,0.74358642,0
-2.3564,-1.7752225,2.3217516,-0.62765813,-0.47285384,0.61842906,0
3.6178114,-0.87459797,1.056582,0.9350552,-0.22604755,0.27308291,0
2.0918784,-3.2996349,0.16739033,0.53494662,-0.84380078,0.042805977,0
-0.90854841,3.5954621,1.0715077,-0.23536468,0.93142503,0.2775802,0
0.10499913,0.037981424,-3.704854,0.0283281,0.010247148,-0.99954611,0
2.9791229,2.2654133,-0.5659517,0.78704965,0.59849584,-0.14951786,0
-1.2253292,3.5459185,0.3536036,-0.32516855,0.9409889,0.093836635,0
-1.2883403,3.5084336,-0.86161184,-0.33589616,0.91471905,-0.22463949,0
3.7189291,0.50237054,0.70114809,0.97414207,0.13159172,0.18365982,0
-2.9943025,-1.1781809,-1.882425,-0.80320722,-0.31604135,-0.50495142,0
-1.9218143,2.4065068,2.1454637,-0.51202601,0.64116186,0.57161254,0
0.62794954,1.9212557,-3.3039811,0.16212596,0.49603575,-0.85303205,0
0.58133024,2.9337626,-2.3755734,0.15220231,0.76810974,-0.62196618,0
1.9536705,1.7667398,-2.8952351,0.49912998,0.45137236,-0.73968393,0
-1.0377474,-3.5375381,-1.1333052,-0.2690644,-0.91720349,-0.29384038,0
-0.069639586,-2.5893078,2.6254649,-0.018881997,-0.70206195,0.71186554,0
-1.3684814,-3.3831377,-1.2077512,-0.35599625,-0.88008815,-0.31418392,0
-0.012351772,1.9729756,-3.2362092,-0.003258846,0.52054262,-0.8538295,0
0.9458825,-1.7531917,3.1345577,0.25467998,-0.47204891,0.84398335,0
0.19023944,-3.148699,-2.1943939,0.049507521,-0.81941092,-0.57106453,0
-2.8872895,2.4598141,-0.12313487,-0.76080716,0.64816642,-0.03244631,0
-3.8072402,0.17446589,-0.19724235,-0.99761659,0.045715548,-0.051683694,0
0.77554351,-0.8510465,3.7275825,0.19878793,-0.21814092,0.95545691,0
-1.9737387,-1.3396043,-2.9724503,-0.51787144,-0.35148662,-0.77991432,0
1.4766836,-3.4525716,0.28764173,0.39209789,-0.91674751,0.076376356,0
-1.9882941,3.0705428,0.88237214,-0.52838081,0.81598389,0.2344867,0
-1.2353407,-1.9607553,2.9868212,-0.32677165,-0.51865792,0.79007232,0
0.0285946,-3.848469,-0.34933889,0.0073994976,-0.99587816,-0.090399317,0
-2.4344952,2.8241878,0.56979001,-0.64542407,0.74873787,0.15106055,0
2.6071229,1.785953,-2.128583,0.68424928,0.46873012,-0.55865467,0
3.4941568,0.74100286,-1.004861,0.94168913,0.19970322,-0.27081403,0
2.8891833,-2.3700309,-0.44204712,0.76779634,-0.62983233,-0.11747339,0
-0.99673384,3.3958402,-1.4033787,-0.26180315,0.89195496,-0.36861292,0
3.6944387,-0.95467269,0.49638233,0.96010721,-0.24809942,0.12899937,0
3.0262361,2.05057,-0.90405393,0.80363858,0.5445435,-0.24007797,0
-1.4024101,-3.4261017,-0.24477132,-0.37799796,-0.92345273,-0.065974325,0
2.7594824,-2.5302391,-0.0006520676,0.73705918,-0.67582816,-0.0001741676,0
-0.49756604,-2.6433098,-2.6468112,-0.13185349,-0.70046914,-0.70139694,0
1.5444976,-2.5174656,2.3589609,0.40860581,-0.66601014,0.62407678,0
1.0013214,-3.572788,-0.81843644,0.26353031,-0.9402954,-0.21539818,0
-2.4594812,-2.9016972,-0.55827945,-0.63973176,-0.75475585,-0.14521319,0
-3.3065138,1.516095,1.1117865,-0.86930341,0.39859098,0.29229569,0
-0.29670662,1.8314446,3.3832004,-0.076896243,0.47464803,0.87681025,0
2.8750226,-0.36318204,2.5074997,0.75024164,-0.09477292,0.65433598,0
-1.1805674,2.8000333,-2.3466644,-0.3074899,0.72929502,-0.61121082,0
0.94922614,2.0649276,3.0186846,0.25121462,0.54648727,0.79890102,0
2.6414769,-2.7198036,-0.1715516,0.69598973,-0.71662766,-0.045201287,0
3.6014817,-1.3389076,0.44106376,0.93120688,-0.34619084,0.11404239,0
2.5746355,-2.5013285,1.4508902,0.66497922,-0.64604539,0.37473723,0
-3.2530212,-0.59319377,-1.9956713,-0.84226763,-0.15358888,-0.51671636,0
-2.8414605,2.6010389,0.37322536,-0.73418587,0.67206496,0.096435189,0
1.3690112,1.2744033,3.4183488,0.35133579,0.32705614,0.877267,0
-3.6020389,-1.2842886,-0.39635798,-0.93690127,-0.33404738,-0.10309391,0
-2.3315294,0.14663859,-2.8654287,-0.6306451,0.039663624,-0.7750572,0
-3.2727554,0.80161095,1.5388863,-0.88350683,0.21640137,0.41543484,0
-1.0633404,-3.4935067,-0.79790312,-0.284475,-0.93461633,-0.21346268,0
0.77135044,-2.8016284,-2.450721,0.20291576,-0.73701203,-0.64470035,0
3.714669,0.32291144,-0.64190245,0.98180062,0.085346676,-0.16965717,0
1.5260905,-0.56646669,3.3158875,0.41313729,-0.15335165,0.89766413,0
-2.6486332,2.3864753,-1.3077104,-0.69747674,0.62844151,-0.34436539,0
-3.2489655,-0.91495192,-1.5504541,-0.8746928,-0.24632514,-0.41741627,0
2.0911417,-0.12746684,-3.3009601,0.53486508,-0.032603033,-0.84430826,0
-3.3314769,0.22653419,1.9402092,-0.86264664,0.058658354,0.50239426,0
-2.0091085,-3.3074062,0.094223209,-0.51902074,-0.854415,0.024341045,0
1.2461958,2.6628916,2.3797309,0.32946572,0.70400774,0.62914658,0
-1.8632377,3.3517003,0.042550623,-0.48584855,0.87397259,0.011095287,0
0.22375685,-2.7879884,2.481626,0.059841268,-0.74561632,0.66368312,0
0.53171283,-2.1042714,3.2481692,0.13610737,-0.5386495,0.83146346,0
2.1930077,-2.4935839,-1.6960531,0.58812928,-0.66873896,-0.45485407,0
1.9766741,-3.1763701,1.0197757,0.50975507,-0.81913894,0.26298511,0
-1.9330454,-3.275526,-0.41456896,-0.50525087,-0.85614252,-0.1083582,0
-3.3821983,0.32709572,1.8001059,-0.87955773,0.085062891,0.46812662,0
0.01662907,-2.4301462,-2.8304198,0.0044575129,-0.65141392,-0.75870943,0
2.7310207,2.5632129,-0.5496611,0.72142613,0.67709804,-0.14519842,0
-0.99539781,1.3050867,3.3753197,-0.26520988,0.3477222,0.89930695,0
-2.3504961,1.4013778,2.5905974,-0.62375939,0.37188855,0.68747592,0
-3.4560912,1.520287,-0.30559149,-0.91236997,0.40133899,-0.080672786,0
-0.80647594,1.2599449,-3.4560275,-0.21415234,0.33456689,-0.91771656,0
-2.1117263,-1.7672962,-2.7938526,-0.53832161,-0.45051941,-0.71220934,0
-1.81906,-1.3376404,-3.0297406,-0.48141494,-0.35400707,-0.80182207,0
2.3063357,-1.0182866,-2.799768,0.61215019,-0.27027476,-0.74311757,0
-3.2318666,-1.4429821,1.4045483,-0.84873223,-0.37894678,0.36885354,0
-2.0773084,-1.6349819,2.6759355,-0.55225289,-0.43466029,0.71139807,0
-1.8088772,1.3022038,-3.0032558,-0.48366192,0.34818634,-0.80301774,0
3.174473,-2.0444262,0.25514027,0.8388204,-0.54021764,0.067418076,0
-2.6120708,-1.3894241,2.3664911,-0.6894505,-0.36673552,0.62463027,0
-3.228245,1.3110204,-1.4291687,-0.85720468,0.34811878,-0.37949103,0
1.8619651,2.3470464,-2.2391086,0.49782407,0.62751776,-0.59865898,0
-1.246418,0.28255939,-3.6227047,-0.32445836,0.073553778,-0.94303584,0
0.65727532,-3.8087845,-0.37642387,0.16925395,-0.98079419,-0.096932322,0
3.4416587,-0.93017656,1.1685145,0.91734624,-0.24793102,0.31145805,0
-2.1878941,2.6236892,1.685454,-0.5743438,0.68874431,0.44244832,0
0.54376858,2.6600523,-2.6218112,0.14407079,0.70477742,-0.69464546,0
-2.9679325,1.0454913,-1.9784933,-0.79847461,0.28127268,-0.53228188,0
-0.89200252,-1.4089954,-3.5346272,-0.22823499,-0.36051697,-0.90439832,0
-0.36522225,3.2562048,-1.8972038,-0.09646032,0.86000937,-0.50107813,0
1.9080988,0.57786459,3.2566833,0.49970174,0.15133385,0.85287529,0
-2.5003779,2.6131129,0.6294927,-0.68110949,0.71181881,0.17147546,0
0.59226912,1.100276,-3.5817835,0.15612778,0.29004323,-0.94419223,0
1.8844677,0.46901697,3.3566418,0.48594847,0.1209456,0.86557859,0
-1.4786618,-1.1905036,-3.2549412,-0.39241844,-0.31594485,-0.86382091,0
-0.9500429,-3.6580834,-0.87957692,-0.24482869,-0.94269824,-0.2266694,0
-3.0145655,1.3435005,1.8550462,-0.79624027,0.35486016,0.48997524,0
2.0689282,0.68083608,3.1096222,0.54495031,0.17933045,0.81906641,0
-3.7002835,-0.09754727,0.24642637,-0.99744475,-0.026294746,0.066426449,0
-3.0579195,-0.19394733,-2.0663199,-0.82742739,-0.052479252,-0.55911535,0
3.1560512,-2.1451099,-0.53691369,0.81898224,-0.55664718,-0.13932689,0
-1.495224,0.24402702,-3.5449853,-0.38785127,0.063299008,-0.91954589,0
-3.1287863,2.2022176,0.035512298,-0.81771231,0.57555234,0.0092811845,0
-0.28416473,-0.32078263,3.8192227,-0.0739398,-0.083467796,0.99376357,0
0.42494085,3.6821227,-0.49016726,0.11365604,0.98483229,-0.1311017,0
-3.1706641,1.0886946,-1.7485825,-0.83857971,0.2879388,-0.46246648,0
0.35647109,-2.8511889,2.4291704,0.094740428,-0.75776929,0.64560813,0
-2.3128183,-2.3870871,-1.8116845,-0.61097831,-0.63059789,-0.47859353,0
2.2523522,-2.1468446,2.2379887,0.58764648,-0.56011921,0.58389902,0
0.59325552,-2.9154224,2.2320428,0.15950464,-0.78385007,0.60011441,0
2.7185481,0.37084341,2.6673138,0.71044105,0.096912906,0.69705194,0
1.2327501,-0.68187833,-3.6189513,0.31743413,-0.17558423,-0.93188292,0
2.0067074,3.1247149,0.93636662,0.52396947,0.81589139,0.24449381,0
1.3209153,0.42928338,3.5822599,0.34380087,0.11173161,0.93237168,0
-0.074693762,-3.7245271,0.67537802,-0.019728923,-0.98376238,0.17838815,0
-1.474631,-3.2841446,1.3478709,-0.38361159,-0.85433984,0.35063615,0
3.5930316,0.57695258,-1.2441503,0.93425894,0.15001902,-0.32350355,0
0.62952065,-2.8046584,-2.4605839,0.16637413,-0.74123484,-0.65030038,0
3.8130066,-0.66895628,-0.23156203,0.9831993,-0.1724931,-0.059709214,0
-2.5921111,-1.6603985,-2.4272273,-0.6612314,-0.42355734,-0.61917061,0
1.8967928,3.1572788,-0.6170007,0.50790292,0.84542239,-0.16521385,0
-1.9940321,2.762584,1.4880581,-0.53634125,0.74306107,0.40024775,0
-3.1221657,-1.2505484,1.8095409,-0.8174938,-0.32743794,0.47380203,0
3.1492414,-1.5179366,-1.6685864,0.81296718,-0.39185074,-0.43074054,0
3.6056998,1.4390676,0.034060955,0.92872602,0.37066299,0.008773136,0
-0.32325613,-0.72507185,-3.7270064,-0.084830396,-0.19027677,-0.97805858,0
1.4078852,3.135736,1.6263835,0.37023845,0.82461983,0.42769802,0
-0.41274941,-1.4398563,-3.4479675,-0.10979541,-0.38301599,-0.91719341,0
-1.3966051,-2.2830012,2.7522147,-0.36380184,-0.59469926,0.71692473,0
-1.4026155,3.3105223,-1.1946896,-0.37021121,0.87379074,-0.31533054,0
-2.7754216,-2.1223927,-1.5156972,-0.72873944,-0.55727434,-0.397975,0
3.0353587,-0.0079687415,-2.4222267,0.78162783,-0.0020520112,-0.62374175,0
0.37792236,-3.2657804,-1.7744972,0.10115951,-0.87416041,-0.47498453,0
0.521842,2.21488,3.0080659,0.13835359,0.58722097,0.79751474,0
3.3541045,-1.4660618,0.52077574,0.90715903,-0.39651453,0.14085023,0
0.81077349,1.2341856,3.5230429,0.21224438,0.32308525,0.92226255,0
-0.23815432,-1.9699539,3.3631122,-0.060989153,-0.50448728,0.86126238,0
-3.0433302,-1.2389969,1.8611583,-0.8058902,-0.32809302,0.4928447,0
-1.5677207,-1.2192769,3.2046535,-0.41582218,-0.32340097,0.85000217,0
2.2610674,2.6563151,-1.5063004,0.59507179,0.69909382,-0.39643088,0
-3.5893838,0.29954475,1.4574012,-0.9237799,0.077092178,0.3750833,0
-1.9075145,3.0863464,-0.98085195,-0.50752205,0.82116753,-0.26096997,0
-0.17826629,-1.8450574,-3.4102178,-0.045927837,-0.47535345,-0.87859535,0
-2.95105,0.83466405,-2.3511121,-0.76366299,0.2159916,-0.60841304,0
1.7254627,-1.4716924,-3.036449,0.45528269,-0.38832256,-0.80120116,0
2.0738237,-3.0216336,-0.74039656,0.55466485,-0.80816609,-0.19802645,0
-1.6904414,0.78504229,3.2758617,-0.44851518,0.2082908,0.86916578,0
-0.74421316,3.7239232,0.80221337,-0.19174001,0.95943618,0.20668325,0
1.7514793,2.1021495,2.6035936,0.4637275,0.55657214,0.68933612,0
-2.2884524,-2.6275578,1.382426,-0.6104781,-0.70093942,0.36878234,0
3.4254103,-0.1578901,-1.5779173,0.907471,-0.041828766,-0.41802707,0
2.6524537,-1.5975714,2.2456312,0.69345242,-0.41766602,0.58709353,0
1.010664,2.5818167,2.504106,0.27051967,0.69106269,0.67026228,0
-3.169903,2.1007917,-0.6952036,-0.81997234,0.54342073,-0.17983128,0
-0.7303412,3.0204401,-2.1681936,-0.19274631,0.79713249,-0.57221383,0
3.1230109,-1.1834811,1.6225587,0.84109712,-0.3187381,0.43699157,0
-1.44923,2.3972259,2.5686078,-0.38131419,0.63074613,0.6758393,0
-3.7702684,0.95498717,-0.0025626374,-0.96938622,0.24553992,-0.0006588882,0
-0.22892642,-3.0745959,2.2002678,-0.060439315,-0.81173015,0.58089703,0
2.6318159,-0.70030099,2.7163222,0.68421704,-0.18206359,0.70618689,0
-1.7039379,-2.2860782,-2.6516871,-0.43761256,-0.58712035,-0.68101758,0
-3.80163,-0.74816161,0.096603394,-0.98087496,-0.19303641,0.024925059,0
-3.4915106,-1.6001856,0.73244148,-0.89298081,-0.40925986,0.18732756,0
0.36167136,-1.1081769,3.5418015,0.096996583,-0.29720178,0.94987518,0
3.0563338,-0.20640136,-2.1939723,0.81114411,-0.054778457,-0.58227533,0
1.1951673,3.3607345,1.1896201,0.31785738,0.89379472,0.31638211,0
3.2745342,1.2875787,-1.312762,0.87193036,0.34285152,-0.34955722,0
2.5083008,-2.3178155,1.4381907,0.67687583,-0.62547255,0.38810199,0
0.69295257,2.242142,3.0445232,0.18026759,0.58328021,0.79201502,0
-1.328831,1.7594588,3.0915177,-0.3499473,0.46335304,0.81415039,0
2.2826183,0.83324951,-2.9206474,0.60079652,0.21931544,-0.76872897,0
-3.1859934,1.8953779,-0.26516053,-0.85722697,0.50997251,-0.071344391,0
-3.59812,0.54988849,1.1184832,-0.9449175,0.14440854,0.2937296,0
2.9055161,2.3973012,-0.4084264,0.76684618,0.63271415,-0.10779504,0
-1.155377,-3.5237312,-0.5583387,-0.30809155,-0.93963426,-0.14888598,0
1.543205,-0.28762013,3.3744078,0.41465381,-0.077282526,0.90669161,0
1.5230086,-0.072952464,3.5399413,0.39513955,-0.018927276,0.9184261,0
-0.7970953,2.238008,-3.0593178,-0.20578535,0.57778442,-0.78982121,0
-2.2626762,2.7072563,-1.4560248,-0.5928002,0.70927602,-0.38146499,0
-1.5660352,-0.75659114,-3.4139712,-0.40873054,-0.19746804,-0.89103633,0
0.88551337,0.75697041,-3.6850858,0.22912025,0.19586068,-0.9534896,0
2.5944469,0.30414453,2.8291335,0.67376518,0.078984849,0.73471212,0
0.26861098,3.1319878,2.0577464,0.071494184,0.83361787,0.54769504,0
-3.2761281,-1.0032563,1.7579126,-0.85073298,-0.26052195,0.45648834,0
-1.165862,3.4057162,1.0359638,-0.31124136,0.90919828,0.27656341,0
2.8270347,-0.79800177,-2.2463346,0.76448375,-0.21579479,-0.60745138,0
-2.2713153,0.91390127,-2.8689699,-0.60221297,0.24231035,-0.76067418,0
2.4676642,1.6399485,-2.3030233,0.65757132,0.43700561,-0.6136986,0
2.3598776,-2.0448725,-2.2041128,0.61742556,-0.53500932,-0.57667208,0
-3.6710024,-0.74060315,0.044964142,-0.98017991,-0.19774553,0.012005699,0
-0.77793676,-2.2607157,-3.0063162,-0.20253031,-0.5885613,-0.78267306,0
-1.2650461,-1.2694943,3.2775807,-0.33864862,-0.3398394,0.87739742,0
2.2699063,-1.6098287,2.517539,0.60488856,-0.42898992,0.67087811,0
3.2146719,0.19117635,-2.0352378,0.84384018,0.050183129,-0.53424281,0
-0.53798622,-2.428328,-2.9164374,-0.14035679,-0.6335336,-0.76087785,0
-0.21974213,-1.3161477,-3.6033497,-0.057187568,-0.34252551,-0.93776643,0
-3.64835,-0.81945014,-0.8478179,-0.95153934,-0.21372375,-0.22112244,0
-1.4176011,-0.65209323,3.4129982,-0.3777467,-0.1737626,0.9094581,0
2.3084533,2.9898784,0.44444638,0.60694444,0.78610647,0.11685497,0
3.8550262,-0.13095355,0.15167151,0.9986518,-0.033923764,0.03929079,0
-2.994508,-2.3226244,0.30323493,-0.7876572,-0.61092901,0.079761073,0
-2.8249478,-1.3389093,2.1211677,-0.74776053,-0.35440779,0.56147069,0
1.5230309,-2.6760838,2.3018684,0.39616555,-0.69609368,0.59875411,0
2.0725474,-2.7325263,-1.6099367,0.54703772,-0.72123557,-0.42493409,0
2.7025936,2.4995553,0.68820244,0.72164387,0.66742879,0.18376313,0
2.6438773,-2.6730795,-1.0257616,0.67841637,-0.68590963,-0.26320943,0
-2.2816665,-3.0185101,0.27295345,-0.60144091,-0.79567087,0.071949765,0
0.67826867,0.46254018,-3.6755011,0.18009976,0.12281766,-0.97595078,0
1.8905561,-2.6409044,1.9231899,0.5008691,-0.69966048,0.50951481,0
1.7784818,3.0996335,-0.86477649,0.48370898,0.84303397,-0.23520069,0
-2.9213572,-1.4157106,1.9011137,-0.77653944,-0.37631658,0.50534379,0
0.74895698,3.6074619,-0.065412603,0.20324649,0.97896671,-0.017751195,0
-1.4774464,1.6743273,3.2117465,-0.37769762,0.42802864,0.82105786,0
0.38583231,-2.3561068,3.0562942,0.099485472,-0.60751361,0.78805447,0
-1.2057221,-3.5544465,-0.21631874,-0.32070425,-0.94543016,-0.057537585,0
-0.13674353,-1.5776982,3.4907324,-0.035673928,-0.41159308,0.91066927,0
3.08622,2.2726803,-0.15398303,0.80457824,0.59248829,-0.040143412,0
-3.81517,-0.21304807,0.51539522,-0.98948425,-0.05525513,0.13367043,0
0.98572135,3.0505683,-2.2556481,0.25146636,0.77822739,-0.57543612,0
-3.5095363,-0.095348939,1.6525948,-0.90444136,-0.024572343,0.42588964,0
-0.79161739,-2.786109,2.3390195,-0.21263392,-0.7483682,0.62827688,0
-0.13780823,-3.7220664,0.35138345,-0.036835745,-0.99489772,0.093923792,0
3.7363932,-0.022103321,1.0822192,0.96050537,-0.0056820461,0.27820343,0
