2.3528574,-2.6531413,-0.30274233,0.66109371,-0.74546593,-0.085062973,0
-0.44303861,3.5271366,0.21947108,-0.12439241,0.99031776,0.061621122,0
-1.0910943,-0.77873111,-3.2873979,-0.3073335,-0.21934876,-0.9259764,0
-2.6148946,1.5959821,1.9495736,-0.72011709,0.43951824,0.53689402,0
0.80291659,3.4457004,-0.6397292,0.22331879,0.95836806,-0.17793074,0
1.2985272,3.1986334,1.094667,0.35855427,0.88321882,0.30226362,0
-0.90534157,-2.860755,1.8974249,-0.25501281,-0.80580539,0.53445864,0
2.0564332,1.297968,2.7523649,0.55991524,0.35340419,0.74940002,0
-0.16357142,2.8271849,2.1475723,-0.046022993,0.79546607,0.60424799,0
1.061734,-1.7278582,3.065418,0.28886512,-0.47009701,0.83400583,0
0.23172498,1.4577649,-3.3562405,0.063200824,0.39759174,-0.91538322,0
-2.1983671,-2.705971,0.11556884,-0.63020599,-0.77572083,0.033130124,0
-2.8987546,0.74724936,-2.048342,-0.79916281,0.20601051,-0.56471103,0
-0.85035092,-3.2265761,1.3913033,-0.23521596,-0.89250475,0.38484907,0
-3.6595302,0.46844876,-0.016751926,-0.99189609,0.12697053,-0.0045405198,0
2.6465182,1.3776377,2.0512891,0.73093373,0.3804855,0.56653923,0
1.1224388,3.2382138,1.1239873,0.31119788,0.89779973,0.31162721,0
2.010668,0.01379606,-2.956974,0.56229162,0.0038581255,-0.82693005,0
0.0079873921,1.0806272,3.4205642,0.0022266305,0.30124444,0.95354432,0
2.3862648,2.4921162,1.1459938,0.65634531,0.68545991,0.31520712,0
0.56902689,3.3959205,1.1173651,0.15718871,0.93809342,0.30866238,0
-1.3577394,-2.3265171,-2.418011,-0.37508741,-0.6427207,-0.6679967,0
-0.12385552,-1.2939413,-3.3059666,-0.034866005,-0.36425155,-0.93064767,0
-2.7162762,2.3278589,0.40987757,-0.75437325,0.64650071,0.11383256,0
-0.99333298,2.0984161,2.7723081,-0.2747018,0.5803076,0.76666945,0
1.106151,2.6456077,-2.2874289,0.3015576,0.72124255,-0.62359625,0
2.8045833,1.4259492,-1.5343447,0.80120379,0.40736032,-0.43832636,0
-0.86948174,1.5732092,3.1394398,-0.24034733,0.43487585,0.86782265,0
1.6105709,-1.9031397,-2.601469,0.44697538,-0.52817088,-0.72197545,0
1.8198959,-1.8206171,2.5730057,0.50001997,-0.50021815,0.70693839,0
3.1808858,-1.4535704,0.9344123,0.87871021,-0.40154448,0.25812861,0
1.4990684,-3.2088599,0.0076571731,0.4232555,-0.90600777,0.0021619699,0
-0.20862994,-1.8902535,3.0556376,-0.057967283,-0.52520204,0.84900093,0
-0.38283476,0.51820719,3.4589908,-0.10880678,0.14728145,0.98309165,0
-3.3325002,1.3879272,-0.20767573,-0.92161357,0.3838357,-0.057433385,0
2.2334352,-1.8248948,2.0206938,0.63421011,-0.51820028,0.57379967,0
-0.065025948,3.0242758,1.7559335,-0.018591158,0.86465162,0.50202787,0
-3.3846784,1.5230544,-0.0061845141,-0.91192538,0.41035271,-0.0016662781,0
1.9013915,2.0938857,-2.3333182,0.51856953,0.57106876,-0.63636959,0
1.4205896,-0.74939871,-3.1877263,0.3979809,-0.20994548,-0.89304763,0
0.89258701,1.8864844,-3.0720453,0.24033733,0.50795341,-0.82717669,0
-0.5937745,-3.4668586,-0.20452331,-0.16852887,-0.98398596,-0.058049113,0
-1.58289,2.08215,2.4776573,-0.43935829,0.57793647,0.68771631,0
2.7882731,-2.3881905,0.047720987,0.75942904,-0.65046036,0.012997544,0
1.3585262,-0.42539123,3.2766542,0.38026944,-0.11907262,0.91717881,0
0.87615091,2.0932941,2.8526781,0.24035914,0.57426453,0.78259039,0
1.2959113,-2.2238028,-2.6010838,0.35414392,-0.60771614,-0.71081865,0
-1.3951321,-3.3545523,0.5964542,-0.37893331,-0.91113353,0.16200356,0
2.7140999,1.6059815,1.6425742,0.76329261,0.4516539,0.46194497,0
-1.3185196,-2.5140169,-2.0625939,-0.37575385,-0.71644861,-0.5878014,0
-1.2964902,1.9219501,2.5918515,-0.37283069,0.55269372,0.74533677,0
1.6695569,0.5762403,-3.1490216,0.46241531,0.15960063,-0.872181,0
-0.30755097,3.2526779,-1.6230571,-0.084303848,0.89160269,-0.44490173,0
-1.9340767,-2.4739792,-1.6543645,-0.54490441,-0.69701594,-0.46609864,0
0.81755924,-3.0961397,-1.6692971,0.22639309,-0.85736251,-0.46225071,0
-1.4608315,0.35958815,3.2006309,-0.41306379,0.10167692,0.90500838,0
-2.0935006,0.60130966,2.7501915,-0.59673512,0.17139837,0.78391945,0
-1.6892848,-0.96209079,3.0279608,-0.46946591,-0.26737282,0.8414948,0
-3.2272093,-1.1575185,-1.1372592,-0.89341599,-0.32044575,-0.31483722,0
-0.64362848,-3.5132542,0.81012154,-0.17573734,-0.95926446,0.22119687,0
1.5717423,3.1896844,0.55791312,0.43666708,0.88616955,0.15500142,0
-0.70677525,1.2182891,3.3186612,-0.19604476,0.33792809,0.92052764,0
-0.47673047,2.6115007,2.5158,-0.1303474,0.71403515,0.68786871,0
0.32185629,3.4091165,-1.2569131,0.088236131,0.93460113,-0.3445797,0
-0.63118696,1.916012,3.0034077,-0.17445721,0.52957702,0.83012825,0
-3.0383818,2.0745885,-0.30048847,-0.8231113,0.56201535,-0.08140368,0
0.71593118,-0.50870633,3.5725245,0.19460492,-0.13827692,0.9710862,0
1.372946,2.4117966,-2.2585905,0.3837055,0.6740393,-0.63122189,0
2.5177579,-0.86052561,2.426373,0.69919121,-0.23897132,0.67381328,0
-2.729178,-2.3486035,0.064407066,-0.75785649,-0.65217602,0.017884988,0
1.3884832,-1.570989,2.8964901,0.38831213,-0.4393529,0.81005102,0
-1.6297795,2.8814166,1.2917479,-0.45864075,0.81086743,0.36351436,0
1.9944403,-2.8811619,-0.32424715,0.56674826,-0.81872267,-0.092139386,0
-0.88374084,3.1069968,-1.7725585,-0.23984616,0.84323502,-0.48107013,0
0.79599261,3.2371421,1.4643905,0.21861716,0.88907206,0.40219077,0
1.1727843,1.7451335,2.9239101,0.32564574,0.48456931,0.81187892,0
-0.62547207,-3.5328553,0.14329751,-0.17419434,-0.98390228,0.039908439,0
-1.5488321,-2.8946474,-1.3398389,-0.4368017,-0.81634861,-0.37786141,0
3.1966267,-1.348882,-0.62243545,0.90685523,-0.38266608,-0.17657954,0
-1.2866554,2.3746123,2.3670566,-0.35827306,0.66121793,0.659114,0
-1.6633168,-2.3941586,2.0800898,-0.46445075,-0.66852492,0.58082694,0
2.845067,0.94138759,-1.8846028,0.80366737,0.26592082,-0.53235787,0
-1.2029239,-3.3232136,-1.0091592,-0.3272832,-0.90415692,-0.27456504,0
-1.7908415,2.7957425,1.2152961,-0.5065217,0.790748,0.34373444,0
0.41805622,3.3483109,-1.0825541,0.11797134,0.94486034,-0.30548608,0
2.4488161,-2.1353266,-1.4483165,0.68840379,-0.60027659,-0.40714636,0
2.7918341,-2.2072856,-0.3433761,0.7808187,-0.61733246,-0.096035242,0
2.3498096,-1.5619251,-2.1966934,0.65713382,-0.43679869,-0.61431426,0
0.19530459,-2.0188262,3.0855851,0.052892078,-0.54673535,0.83563328,0
2.789643,1.605425,-1.4595674,0.78935122,0.4542675,-0.41299596,0
0.37663224,-1.2299271,-3.2328591,0.10824755,-0.35349226,-0.9291532,0
-1.8154399,2.9575663,-0.42569166,-0.51924348,0.84590906,-0.1217543,0
-2.4283583,0.95747066,2.4428101,-0.67925125,0.26782009,0.68329364,0
3.575187,-0.62217975,0.39034829,0.9795422,-0.17046697,0.10694899,0
0.094900846,2.960851,1.8556463,0.027148826,0.84702748,0.5308553,0
0.77881896,-0.21209411,3.5719929,0.21267243,-0.057916626,0.97540557,0
3.2781782,-0.3142814,1.4295063,0.91311979,-0.087541483,0.39818168,0
-3.1405249,1.5718896,-0.52150387,-0.88454264,0.44272962,-0.14688386,0
2.6343131,1.1558596,2.2200429,0.72495526,0.31808919,0.61094934,0
2.3839734,1.7572752,2.0188379,0.66511947,0.49027309,0.5632481,0
1.0579463,3.0396118,1.7562339,0.28854793,0.82903427,0.47900131,0
-3.4658644,-1.0086095,-0.35829893,-0.95547318,-0.27805454,-0.098776229,0
-0.62686592,-3.5098145,-0.31907988,-0.17512155,-0.98050332,-0.089138292,0
0.48227718,-2.5723934,-2.4256673,0.13515125,-0.72087628,-0.67975837,0
-0.81396705,-0.59790242,-3.3791049,-0.23079421,-0.16953072,-0.95811969,0
1.9389547,-2.5448978,1.7431484,0.53217769,-0.69848865,0.47843549,0
1.9274902,-2.4349911,-1.9200083,0.52791446,-0.66691232,-0.52586526,0
-2.8785129,-1.9970832,-0.54074818,-0.81200653,-0.56336194,-0.15254094,0
1.2802753,2.8453896,-1.8672802,0.35208982,0.78251344,-0.51352262,0
-2.3897212,-0.93916547,-2.5137377,-0.66505247,-0.26136705,-0.69956595,0
-3.1093934,1.9578867,-0.053727508,-0.84612757,0.53277981,-0.01462032,0
-2.7171116,2.3308125,0.39519486,-0.75441676,0.64715928,0.10972742,0
-0.35312763,-3.4543877,-0.75458789,-0.099376433,-0.97212648,-0.21235453,0
-1.041693,1.3787055,-3.2449789,-0.28334671,0.37501615,-0.88265365,0
2.885401,-0.36001906,1.9731413,0.82110775,-0.10245177,0.56150311,0
-0.64411181,0.25422326,3.4223335,-0.18447012,0.072808154,0.98013765,0
-3.3379972,-0.23168647,-1.4228642,-0.91804272,-0.063720271,-0.3913275,0
1.953491,2.3877239,1.8284444,0.54473019,0.66581589,0.50986099,0
-3.5815256,-0.20618495,0.59656346,-0.98482329,-0.056695323,0.16403893,0
-2.2283359,-2.7106256,0.58848798,-0.62629074,-0.76184195,0.16539901,0
-1.8721063,2.9249158,-0.88719666,-0.52231091,0.81604093,-0.24752466,0
-1.3187503,-0.99287766,3.1169715,-0.37389103,-0.28149989,0.88372129,0
-1.6350627,-3.1402955,0.10580962,-0.46161547,-0.88657701,0.029872468,0
1.2595562,-3.3876705,-0.64124846,0.34313843,-0.9228965,-0.17469408,0
1.3653322,0.043320034,3.2188118,0.39046553,0.012388911,0.92053419,0
-1.8000737,-3.0245657,-0.53145081,-0.50569648,-0.84969419,-0.14930099,0
0.7542029,0.97215205,3.3310034,0.21239267,0.2737698,0.93805093,0
-0.68972814,2.3709052,2.5052063,-0.19608343,0.67402673,0.71220732,0
1.4355501,-1.0574219,3.107568,0.40068656,-0.29514453,0.86737537,0
-1.4797539,-3.1669986,-0.92047858,-0.40935898,-0.87611824,-0.25464112,0
3.3082352,-1.3847489,0.17448035,0.92136055,-0.38565972,0.048593678,0
3.0650756,-1.8883412,-0.75315845,0.83335131,-0.51341361,-0.20477328,0
-0.84487391,-3.0595927,1.6966596,-0.23474541,-0.85009766,0.47141123,0
-3.2333195,1.2202704,0.62032568,-0.9208703,0.34754089,0.17667276,0
-2.4357862,-2.5098219,-0.59870768,-0.68645811,-0.70732296,-0.16872898,0
2.6516585,2.2879755,1.2477086,0.71321094,0.61539191,0.33559352,0
-0.7468996,3.1542411,-1.7604661,-0.20248443,0.85511452,-0.47726223,0
-2.6501439,2.3965499,0.23002563,-0.74017048,0.66934311,0.064244889,0
-3.2101867,-0.53116137,-1.6289893,-0.88220453,-0.14597063,-0.44766921,0
3.0317307,1.319483,1.3368593,0.85006779,0.3699702,0.37484235,0
-1.883183,-0.69216758,-2.976546,-0.52462047,-0.19282529,-0.82921153,0
3.1888216,-1.1439799,-1.3210821,0.87694615,-0.31460172,-0.36330596,0
3.6812572,-0.27531949,0.039177306,0.99715883,-0.074577034,0.010612134,0
-2.3713202,1.5719079,-2.156703,-0.66422176,0.4403013,-0.60410613,0
3.5860822,0.034834351,0.19587435,0.99846464,0.0096988482,0.054536846,0
-0.46274459,2.1010988,-2.8367403,-0.12997293,0.59014404,-0.79676664,0
2.5779564,-1.1443745,2.3655884,0.70029736,-0.31086734,0.64260799,0
-0.75322527,2.9746656,-2.0989795,-0.20260221,0.80012423,-0.56458259,0
-0.31125137,-3.4081824,-0.90917408,-0.087897532,-0.96247226,-0.25675118,0
-0.59997427,2.7573006,2.0836339,-0.1710432,0.7860629,0.59401119,0
1.3066716,-1.4839333,2.9979715,0.3638458,-0.41320473,0.83479226,0
-1.9585317,0.13779838,-2.9456639,-0.55325377,0.038925834,-0.83210278,0
-3.4310231,1.0850042,-0.27900118,-0.95060807,0.30061406,-0.077300787,0
-3.6913469,-0.18416446,-0.13050123,-0.99813581,-0.049797852,-0.035287376,0
1.6503196,-3.0292597,0.73163164,0.46799448,-0.85903168,0.20747471,0
-1.6565605,-2.0338898,2.5833035,-0.44995373,-0.55244362,0.70167494,0
-2.8674908,0.43611699,-2.218894,-0.78521055,0.11942276,-0.60760403,0
1.0271146,-1.4186159,-3.1910872,0.28216505,-0.3897168,-0.87664342,0
-1.826089,2.6508911,1.7790724,-0.49650365,0.72076285,0.48372009,0
3.1841087,-0.80967659,1.5242896,0.87914592,-0.22355515,0.42086282,0
-0.16614404,-2.611083,2.5251403,-0.045692116,-0.7180872,0.69445163,0
-2.1288893,0.18842268,2.8557363,-0.59684289,0.052825071,0.8006174,0
1.3035387,1.8654554,2.8700962,0.3558794,0.50928843,0.78356564,0
-2.6839159,-2.1859403,1.0585589,-0.74147302,-0.6038996,0.29244319,0
-0.48608238,-3.4703391,-0.90883029,-0.13427125,-0.95861691,-0.25104752,0
1.0526357,3.0287783,1.6834177,0.29066098,0.83632702,0.46483684,0
1.9451151,1.6787777,2.5527961,0.53703505,0.46350083,0.70481229,0
-2.2549977,-2.7528005,-0.10031715,-0.63344163,-0.77327722,-0.028179655,0
-1.4886739,1.6236739,-2.7935326,-0.41845265,0.45639992,-0.78523654,0
-0.23568894,3.0278246,2.1502182,-0.063338228,0.81368709,0.57784218,0
-2.6540935,-0.98342222,2.147275,-0.74705064,-0.27680495,0.60439587,0
-3.1329465,0.3456479,1.7951455,-0.86371088,0.095290437,0.49489728,0
0.27918044,2.4502034,-2.5982604,0.077934742,0.68398768,-0.72531855,0
2.7415032,2.1018507,-0.47149318,0.78631186,0.60284811,-0.13523263,0
2.4385648,0.45485479,2.5267301,0.68868822,0.12845799,0.71358746,0
-1.3543199,-3.3615012,0.68601376,-0.36718097,-0.91136461,0.18599091,0
-0.27046758,1.0655416,3.4482336,-0.074730635,0.29441091,0.95275259,0
2.34971,-2.5334752,0.48874307,0.6733135,-0.7259717,0.14005017,0
2.9191165,-0.43068743,2.2275162,0.78956884,-0.11649325,0.60250336,0
-3.3209641,1.3349516,-0.28813428,-0.92485082,0.37176889,-0.080242127,0
-0.64273149,0.63151836,-3.4545779,-0.18002887,0.17688808,-0.96762604,0
1.3972167,-2.3346233,-2.3474786,0.38881636,-0.64967716,-0.65325451,0
-0.55533648,-0.38766009,-3.4504507,-0.15793255,-0.11024693,-0.98127621,0
2.0078855,2.1348183,2.1132295,0.55571735,0.59084827,0.58487314,0
0.035625316,2.8417063,2.2170675,0.0098837446,0.78839159,0.6150943,0
-1.6850935,-3.137861,-0.94537121,-0.45728093,-0.85151595,-0.25654376,0
-2.580806,-1.4136031,-2.0777228,-0.71645492,-0.3924289,-0.57679451,0
-3.2486162,1.62576,-0.56418151,-0.88367373,0.44223177,-0.15346608,0
-0.86124223,-2.5643966,2.5303159,-0.23251045,-0.69231278,0.68311197,0
-1.5850744,2.949585,1.2751987,-0.4423745,0.82319236,0.35589206,0
2.5314348,-1.3530775,2.1084003,0.71077633,-0.37991714,0.59199667,0
2.6442881,-2.0039017,-1.2483815,0.74594086,-0.56529099,-0.35216239,0
-1.8387867,-0.73182714,2.9144847,-0.52195036,-0.20773341,0.82729352,0
-1.5164171,-3.0527866,1.0711128,-0.42441037,-0.85440493,0.29977989,0
1.2829891,-2.1997082,-2.6408489,0.34971869,-0.59959906,-0.71984565,0
0.038972437,-1.4664844,-3.2843463,0.010834448,-0.40768683,-0.91305757,0
-2.4561801,2.4926095,-0.76784182,-0.6855731,0.6957413,-0.21432129,0
-0.58131778,-2.5025437,2.5673094,-0.16005258,-0.68901831,0.70685005,0
1.3452893,3.1282954,0.67994016,0.38741076,0.90087336,0.19580631,0
1.0078896,-2.5560498,2.1653171,0.28811163,-0.730663,0.61896956,0
-2.0315881,2.807791,-0.64801359,-0.5762133,0.79636544,-0.18379419,0
0.72866368,-3.5937238,0.2116708,0.19838618,-0.97842824,0.057629552,0
1.8417397,3.1706419,-0.55592459,0.49660754,0.85493332,-0.14989977,0
0.60826677,3.416122,-1.162763,0.16621609,0.93349576,-0.31773874,0
2.5078044,2.138551,-1.4067115,0.69982398,0.59678066,-0.3925547,0
0.87764549,1.3175892,3.2263823,0.24420679,0.36662206,0.89774793,0
-2.7936525,-1.7142483,-1.4847621,-0.77638429,-0.47640696,-0.41263041,0
-0.11338796,3.4682803,0.80571014,-0.031828716,0.9735682,0.22616793,0
-0.55863351,-2.6622102,2.4886236,-0.15152155,-0.72208738,0.67500442,0
-3.2304108,0.20707606,-1.5245966,-0.90282744,0.057873119,-0.4260906,0
1.9216043,-0.33554807,3.0491121,0.53087366,-0.092700481,0.84236556,0
0.11566487,-1.1665068,-3.4444492,0.031789564,-0.32060507,-0.94667935,0
-1.521153,-3.2103963,-0.46503448,-0.4245652,-0.89604563,-0.12979461,0
-1.9305853,2.2393835,1.9009207,-0.54923582,0.63708645,0.54079652,0
-3.4414253,-0.14034218,-1.0371696,-0.95673341,-0.039015826,-0.2883383,0
1.937018,2.7583551,-1.0116497,0.55043143,0.78382617,-0.28747478,0
-2.6687055,-2.2726772,-1.1409143,-0.72395426,-0.61652148,-0.30950204,0
2.7115903,2.2683887,0.88310492,0.74414015,0.62251258,0.24234997,0
1.5714195,0.44086945,-3.2421155,0.4329285,0.12146022,-0.89320785,0
-0.65683556,-1.8011235,-3.0008087,-0.18445539,-0.50579929,-0.84270006,0
0.79497373,-0.01090318,3.4912682,0.22201939,-0.0030450281,0.97503752,0
0.67298472,-0.68203938,-3.5375028,0.1836262,-0.1860968,-0.96521986,0
-1.0560286,3.0190747,-1.5776598,-0.29610714,0.84653914,-0.44237092,0
-2.5574083,-2.2725556,1.2193303,-0.70412719,-0.62569916,0.33571631,0
2.4668031,2.5673609,-0.28073528,0.69070023,0.71885628,-0.078605354,0
3.5095708,1.1964617,-0.049677476,0.94642383,0.32264909,-0.013396495,0
0.084491685,2.6450977,-2.5919166,0.022809187,0.71406472,-0.69970804,0
0.23319772,0.92382115,3.4795046,0.064640678,0.25607637,0.96449286,0
2.7921748,1.2372719,-1.9329232,0.77253217,0.34232539,-0.53479654,0
-0.54687917,-3.3712008,-1.4203513,-0.14785126,-0.91141933,-0.38399836,0
-1.863336,1.7871617,-2.4485555,-0.52366126,0.50225365,-0.68812799,0
1.3915523,2.9788067,1.4991369,0.38510206,0.82436329,0.41487533,0
1.4180202,-0.10967688,-3.3046222,0.39414796,-0.030485401,-0.91854125,0
3.0311856,-0.26175761,-1.829529,0.85381174,-0.073730797,-0.51533413,0
0.29389879,2.8629951,-2.0043011,0.083799079,0.81632304,-0.57148445,0
2.5098119,-2.4677088,1.0171106,0.68503416,-0.67354244,0.27761266,0
-0.31006709,-1.6371682,-3.1357706,-0.087318532,-0.46104577,-0.88306975,0
0.3468194,-1.3699772,-3.3625364,0.095085867,-0.37560031,-0.92189103,0
-0.069658965,2.5873256,-2.4028003,-0.019724196,0.73261088,-0.68036187,0
-2.3177352,1.1447542,2.6247234,-0.62914306,0.31074047,0.71247417,0
0.69650394,-0.62942451,-3.3930469,0.19784123,-0.17878738,-0.96379149,0
3.2704566,-0.91969621,0.78258413,0.93809283,-0.26380429,0.22447526,0
-1.1054808,1.4167305,-3.0799944,-0.31001529,0.39730057,-0.8637377,0
3.2865629,-1.4516152,-0.31327462,0.91128945,-0.4025,-0.086863957,0
1.3819883,-2.4254959,-2.209389,0.38818792,-0.68129969,-0.62059724,0
1.3406074,1.5585372,3.0947549,0.36083004,0.41948673,0.83296609,0
-1.5059454,3.0419791,-1.27195,-0.41545314,0.83920687,-0.35089958,0
1.8632631,2.4889863,-1.8434068,0.51549006,0.68860257,-0.50999665,0
-2.3827024,-2.6872671,-0.4186441,-0.65897143,-0.74320328,-0.11578219,0
0.7878775,3.3784292,-0.28667587,0.22634254,0.97055984,-0.082356639,0
-3.3862567,-0.30107769,-0.77697372,-0.97103292,-0.086336151,-0.22280268,0
0.18283206,-3.493705,-0.45007315,0.051833175,-0.99047083,-0.12759644,0
0.04939789,-3.0512822,-2.0500209,0.013436766,-0.82998216,-0.55762815,0
-0.6994285,-1.3696306,-3.3606343,-0.18924947,-0.37059093,-0.90931129,0
2.1666381,0.6921913,2.7417006,0.60820389,0.19430724,0.76963156,0
2.6893079,1.0538733,-2.2187529,0.73836708,0.28934783,-0.60917312,0
1.432886,0.98229092,-3.0670245,0.40650767,0.27867451,-0.87011039,0
3.3815565,0.38144431,1.2210004,0.93531483,0.10550483,0.33772016,0
2.0993114,0.037213363,2.7795854,0.60264885,0.010682832,0.79793495,0
-0.36469796,-0.80159014,3.4874163,-0.10139255,-0.22285639,0.96956408,0
3.2698796,-0.21503358,-1.5784227,0.89899158,-0.059119418,-0.43395749,0
3.0505538,-1.4541625,1.2318746,0.84809679,-0.40427756,0.34247842,0
0.49395558,1.0141138,-3.5138316,0.13384692,0.27479398,-0.9521414,0
-2.0328891,1.6929057,2.4000304,-0.56912839,0.47394648,0.67191339,0
1.5078633,1.8597977,2.790725,0.41007498,0.50578624,0.75895905,0
1.5162555,-1.1830856,-3.0829461,0.41728377,-0.32559314,-0.84844756,0
-3.0546341,1.7079651,-0.34503886,-0.86861485,0.48567647,-0.098115154,0
1.4705328,3.312063,-0.75089377,0.39735323,0.89495385,-0.20289929,0
3.4497976,-0.77124488,-0.81921566,0.9507134,-0.21254373,-0.22576375,0
-0.48799771,-2.8389423,-2.1629796,-0.1354702,-0.78810221,-0.60045213,0
-3.3647182,-1.3771688,-0.3695268,-0.92073643,-0.37685457,-0.10111895,0
-1.0235214,-1.098389,3.2418208,-0.2864922,-0.30744827,0.90741271,0
1.0952209,-1.3853068,3.157589,0.3027257,-0.38290721,0.87277675,0
-1.1603807,3.3285847,0.95846915,-0.31764892,0.91118479,0.26237655,0
2.284785,-1.561604,2.3348429,0.63101304,-0.43128458,0.64483809,0
3.1240931,-0.91022193,-1.4200099,0.87994277,-0.25637624,-0.39996484,0
3.042388,-1.0011299,-1.477543,0.86253732,-0.28382701,-0.41889334,0
-1.2633789,0.42767489,-3.3088105,-0.3541328,0.11987988,-0.92747974,0
1.0588901,-3.4138632,0.45895654,0.29383758,-0.94733274,0.12735853,0
-2.0352111,2.8764329,0.67568868,-0.56725442,0.80171996,0.18832809,0
-2.6526473,-2.2402229,0.73806107,-0.74730253,-0.63111454,0.20792621,0
3.5183072,0.98235911,-0.3858957,0.95783049,0.26743928,-0.10505696,0
1.5606385,-0.61846507,-3.1397388,0.43833923,-0.17370935,-0.88186383,0
2.623713,-1.4903445,2.0658212,0.71747732,-0.40754777,0.56491691,0
0.19180885,-1.4374795,3.3918302,0.051996853,-0.38968176,0.9194805,0
-0.23183888,3.6539667,-0.11702193,-0.063288897,0.99748379,-0.031945415,0
-0.98998404,-1.8272389,-2.9195774,-0.27624744,-0.50987703,-0.8146857,0
-0.67250204,3.4565036,-0.42794538,-0.18958533,0.97442436,-0.12064226,0
2.7406569,1.5712287,1.6261945,0.77134401,0.4422144,0.45768422,0
1.3838935,2.9317446,1.5288136,0.38609338,0.81792939,0.42652473,0
-2.4196968,0.65951753,-2.6565351,-0.66232002,0.18052331,-0.72714752,0
-2.5365889,-2.313858,0.50427479,-0.73095644,-0.66677314,0.1453144,0
2.5763485,-2.2636292,-0.99143034,0.72167695,-0.63407916,-0.27771568,0
-1.5605634,2.0270875,2.3774233,-0.4468506,0.58043474,0.68074965,0
2.3897288,-0.82555366,2.6455541,0.65303624,-0.22559732,0.72294503,0
-2.5990644,0.62578857,-2.4833891,-0.71230054,0.17150384,-0.68059856,0
0.9183712,-2.8469732,2.1180525,0.25055468,-0.77672565,0.57785779,0
-2.1979101,-2.7437463,-0.16435038,-0.6245181,-0.77961296,-0.046698809,0
-0.55158275,3.3162107,1.3009217,-0.15301748,0.91996747,0.36089551,0
1.1133331,3.5476992,0.0058367029,0.29942036,0.95411998,0.0015697258,0
2.010772,-2.0359957,2.1602712,0.56081867,-0.56785375,0.6025151,0
-3.5347571,0.48125127,-0.90128213,-0.96067297,0.13079402,-0.24494961,0
1.0730543,2.7952852,2.1595294,0.29066688,0.75718147,0.58496916,0
-0.47718397,1.2227132,3.3092511,-0.13403898,0.34345505,0.92955482,0
-0.57342017,-1.337971,-3.2897747,-0.15939662,-0.37192282,-0.91447592,0
-1.6402831,1.7925216,2.7688541,-0.44527206,0.48659879,0.75163448,0
2.1697707,-0.30084354,2.7875862,0.61201578,-0.084857352,0.78627974,0
-1.0205023,-2.7280149,-1.9308625,-0.29202873,-0.78065348,-0.55253899,0
-1.4366871,3.1782024,0.73146218,-0.4031429,0.89182234,0.2052526,0
-0.64279985,-0.20381744,-3.531487,-0.17878927,-0.056690075,-0.98225284,0
-0.31711552,-3.4923105,-0.54914868,-0.089342989,-0.9839111,-0.15471518,0
2.1674538,0.28856251,-2.9381025,0.59180367,0.078789383,-0.80222231,0
-0.11824985,-0.28028437,-3.5956404,-0.032769933,-0.077673674,-0.99644011,0
-0.54390496,-3.4335897,-0.7681911,-0.15277091,-0.9644196,-0.21576793,0
-0.70869112,-1.8014469,-3.0555513,-0.19592473,-0.49802798,-0.84473765,0
-3.070137,0.77457625,-1.8283256,-0.8396855,0.21184736,-0.50004888,0
3.4234776,-0.58828336,0.75858706,0.96286237,-0.1654563,0.21335468,0
1.0142913,-0.31373143,-3.3730707,0.28682959,-0.088719547,-0.95386457,0
-0.42507753,3.4758816,0.62859243,-0.11947938,0.97698921,0.17668267,0
2.7554817,-2.2325659,0.23595601,0.77526355,-0.6281395,0.066386975,0
-1.0735017,-0.54983503,-3.3591542,-0.30077463,-0.15405324,-0.94117069,0
-2.4416137,2.2204359,-1.6101894,-0.66490436,0.60467285,-0.4384895,0
-3.1933858,-0.25038236,1.5502012,-0.89737511,-0.070360087,0.4356229,0
3.4634919,-0.65142375,-0.18958607,0.98134929,-0.18457507,-0.053717509,0
0.67884636,2.5516019,-2.552876,0.18483607,0.69474941,-0.69509631,0
3.5038173,0.4398784,0.42125356,0.98522621,0.12368789,0.11845083,0
1.4536,1.6371025,-2.8490622,0.40455559,0.45562667,-0.79293066,0
-0.45361048,-1.7155057,3.1961606,-0.12408297,-0.46926835,0.87429434,0
2.5371308,0.88301843,2.2517664,0.72379619,0.25190872,0.64238703,0
-2.8897786,-2.0327895,0.20666033,-0.81651187,-0.57436812,0.058392227,0
1.2514485,1.969136,2.6242893,0.35638744,0.56077045,0.74734497,0
-1.4537152,3.061795,-1.1264601,-0.40701333,0.85724592,-0.31538796,0
1.4395337,0.50045127,-3.2306342,0.40299672,0.14010108,-0.90441442,0
3.3356013,1.3552221,-0.26180363,0.92401397,0.3754178,-0.072523721,0
-2.9143858,-2.0511708,-0.69241101,-0.80275518,-0.56498629,-0.19072166,0
1.9044856,-3.0013368,-0.39633334,0.5324828,-0.83915591,-0.11081244,0
-0.73391253,2.3330626,-2.4466197,-0.2121475,0.67440385,-0.70722908,0
-2.6322954,-0.20922729,2.4284737,-0.73373848,-0.05832101,0.67692429,0
2.9057989,1.9431782,-1.0052228,0.79888505,0.53423381,-0.27636376,0
-0.90202469,-3.2930112,1.0656297,-0.25219119,-0.92067146,0.29793245,0
-2.9377391,1.8821386,0.71969658,-0.82465082,0.5283339,0.20202556,0
0.80243218,3.4285016,-0.2688168,0.22722781,0.97086203,-0.076121889,0
-1.6257054,2.8810198,1.2266756,-0.46077967,0.81657809,0.34768119,0
0.052700359,-2.8039598,2.229033,0.014710928,-0.78270531,0.62221861,0
-3.4189143,-0.36184138,-1.1423445,-0.94371521,-0.099878259,-0.31531876,0
2.9961114,1.6391191,1.2696064,0.82231051,0.44987142,0.34845522,0
-1.5878453,-1.4447613,2.8950632,-0.44055891,-0.40085921,0.80325574,0
-2.675797,0.74251133,2.3407209,-0.73676276,0.20444553,0.64450181,0
0.67645633,-0.36202705,-3.5724709,0.18513116,-0.099078812,-0.97770637,0
-1.3927456,-3.3110666,-0.65837938,-0.38137573,-0.90666986,-0.18028413,0
0.67278624,-1.4740635,3.220233,0.18663032,-0.40890393,0.8932898,0
-0.61762184,-3.6174777,-0.31281787,-0.16768934,-0.98217452,-0.084932588,0
3.3443804,-0.23863536,1.4600025,0.91452205,-0.065254927,0.39923823,0
-2.4895411,0.43657801,-2.6281445,-0.68275678,0.11973154,-0.72076875,0
0.17687605,3.5025654,-1.0559056,0.048293296,0.95632184,-0.28829885,0
-2.1366448,-2.4631343,-1.5731221,-0.59017491,-0.68035644,-0.43452111,0
-1.2278626,-0.51691145,-3.3246014,-0.34282568,-0.14432439,-0.9282462,0
2.7381709,-1.5731863,-1.6819943,0.76529419,-0.43969145,-0.47010231,0
2.2132595,0.92035967,-2.6697936,0.61685926,0.25651416,-0.74410027,0
-2.3961592,1.3805991,2.1915965,-0.67907584,0.39126429,0.62110239,0
-1.3927232,-2.8546014,1.6830856,-0.38744792,-0.79413438,0.46822512,0
1.942415,3.0871325,0.027529357,0.53253597,0.84637374,0.0075474973,0
-1.6383847,2.3871629,2.1765623,-0.45231858,0.65903825,0.60089648,0
-1.0054673,3.4260044,0.4481498,-0.27941173,0.9520607,0.12453743,0
-3.460664,-0.9486118,0.67410713,-0.94784331,-0.25981584,0.1846316,0
1.1078466,3.1716323,-0.989802,0.31631744,0.90557897,-0.2826128,0
-0.71759909,-1.8188659,-3.0702198,-0.19714357,-0.49969086,-0.84347111,0
-2.8181605,-1.2905941,1.7710811,-0.78941649,-0.36151817,0.49611107,0
2.5318935,-1.2220432,-2.2173593,0.70711815,-0.34129751,-0.61927372,0
-2.5620732,-0.20605695,2.541801,-0.70875549,-0.057002272,0.70314753,0
-1.2235428,2.8402269,-2.0259237,-0.33094949,0.76823765,-0.54798114,0
-2.2286656,2.5498784,0.91837084,-0.63515025,0.72669309,0.26172766,0
0.97360742,-3.2837517,-1.3463725,0.26455498,-0.89228249,-0.36584514,0
-0.9063617,3.5489337,0.37540293,-0.24615811,0.96385229,0.10195541,0
-0.41644591,0.70111412,-3.6104264,-0.11251118,0.18941998,-0.97542882,0
-3.4746635,-0.38538802,1.0365506,-0.9529019,-0.10568994,0.28426668,0
-2.9867413,-0.85185313,1.8426563,-0.8270489,-0.23588389,0.51024401,0
1.4811273,-2.498857,2.1242781,0.4115738,-0.69437927,0.59029174,0
-3.4407339,-0.097823679,1.1246662,-0.95016384,-0.027014157,0.31057829,0
-3.2527413,-0.70246094,-1.3596605,-0.9048509,-0.19541129,-0.37823173,0
-3.4116988,1.1274877,-0.34311146,-0.9451943,0.31236488,-0.095057331,0
2.9861245,-0.045064557,-2.0850053,0.81984991,-0.012372616,-0.5724448,0
1.5501723,2.2016339,-2.4538174,0.42552087,0.60434645,-0.67357057,0
-3.0192306,1.6859518,0.88349837,-0.84592676,0.47236928,0.24753821,0
1.4803659,-1.644781,-2.9648459,0.4001413,-0.44458252,-0.80139464,0
-3.4101503,-0.61941391,-1.1904845,-0.93053919,-0.16902156,-0.32485151,0
1.2235354,2.6923149,-1.9611585,0.34480509,0.75872248,-0.55267501,0
-2.0737338,-1.0913261,2.6455832,-0.5867641,-0.30879131,0.74856919,0
3.5315056,0.16011761,-0.22729675,0.99691522,0.045199893,-0.06416402,0
3.6016471,-0.7199443,-0.1275484,0.98001009,-0.19589722,-0.034705985,0
3.5009041,0.71940523,-0.66902596,0.96280944,0.19784895,-0.18399376,0
-1.0287513,2.4496474,2.4748604,-0.28332582,0.67465132,0.68159521,0
3.2622888,-0.93207473,-1.1028036,0.91443199,-0.26126412,-0.30912006,0
1.7527544,-1.1404912,-2.8272078,0.4984332,-0.32432306,-0.80397695,0
-2.2729106,2.345726,-1.5252227,-0.63051671,0.65071607,-0.42310435,0
-2.0760291,-2.8615379,-0.33981556,-0.5845356,-0.8057068,-0.095679916,0
0.039300848,-0.53503007,3.5760961,0.010868262,-0.14795728,0.98893404,0
-0.3857376,2.4054682,-2.5464053,-0.10945718,0.68257743,-0.72256982,0
-3.343044,-1.3336595,0.42633206,-0.92236906,-0.36796594,0.11762798,0
0.91659093,-2.8495336,-2.004092,0.254448,-0.7910378,-0.55634105,0
-0.19413017,-2.236196,2.7907474,-0.054204889,-0.62438905,0.77923054,0
-2.3591089,-2.5585277,-0.532875,-0.67006582,-0.72670746,-0.15135433,0
2.1100926,1.7117869,2.4706495,0.57457513,0.46611705,0.67275423,0
-3.0000916,0.56608492,2.1088078,-0.80853337,0.15256153,0.56832981,0
2.4918048,0.83943731,-2.4902363,0.68806505,0.23179483,-0.68763196,0
0.33334249,-0.46301389,3.4747243,0.09466593,-0.1314913,0.9867869,0
-3.1056199,1.9170592,-0.60013467,-0.8396588,0.51831055,-0.16225693,0
-2.4170644,1.4648522,-2.2158036,-0.67302436,0.4078837,-0.61698389,0
0.32543424,-3.4882731,0.60106766,0.091552779,-0.98133832,0.16909534,0
-2.9870543,1.9705827,0.37400582,-0.83019966,0.54768908,0.10394839,0
-1.5818379,-1.2192984,3.0691023,-0.43199161,-0.33298397,0.83815569,0
1.862237,2.9251969,-0.40816706,0.53334701,0.83778006,-0.11689956,0
-0.7390241,-2.7143698,-2.1619477,-0.20829585,-0.76505214,-0.60935056,0
-1.2120342,1.9386986,-2.7864521,-0.33626264,0.53786594,-0.77306378,0
2.2641566,-2.7982635,-0.29915398,0.62685174,-0.77472395,-0.082823418,0
-0.46386766,1.9298519,2.9073868,-0.13176996,0.54820913,0.82589555,0
-3.1483915,0.88911247,1.2917013,-0.89511663,0.25278285,0.36724254,0
-3.0961249,1.2691311,-1.3844496,-0.85499012,0.35046858,-0.38231361,0
1.6218349,-0.37680253,-3.2615738,0.4428831,-0.10289548,-0.8906554,0
3.2151151,-1.4084983,0.84967375,0.89024895,-0.39000601,0.23527032,0
-0.075233124,3.3403029,-1.3186162,-0.020944985,0.92994398,-0.36710417,0
-2.5202265,-2.5760317,0.62590533,-0.68900734,-0.70426399,0.17111692,0
1.7676854,-3.1504939,-0.41392529,0.48614076,-0.8664344,-0.11383584,0
0.19798923,-2.7455416,2.2852569,0.055340543,-0.76741427,0.63875878,0
2.1913526,-2.7788765,-0.70812935,0.60717368,-0.76996315,-0.19620644,0
-1.967061,3.07143,0.46528196,-0.53498,0.8353343,0.12654236,0
-1.7747512,-2.9257035,1.0478718,-0.4959124,-0.81751889,0.29280308,0
-1.0449715,1.0206635,3.214834,-0.29593122,0.2890473,0.9104265,0
2.2198024,0.37589458,2.6553705,0.63762653,0.10797373,0.76274115,0
2.2801359,0.18607819,-2.8219056,0.6276629,0.051222552,-0.77679825,0
1.891488,0.1026838,3.0499134,0.52683306,0.028600354,0.84948742,0
0.58063447,2.1448922,2.8145051,0.16191866,0.59813547,0.78486711,0
1.3172255,-1.8717728,2.7954307,0.36458948,-0.51808041,0.77373588,0
-3.3449593,0.94908029,1.1174593,-0.91588694,0.25986871,0.30597275,0
-1.3763497,0.37132579,-3.4055367,-0.37280563,0.10057934,-0.92244232,0
-2.8373544,1.3361925,-1.9211416,-0.77146542,0.36330542,-0.52235079,0
-0.91340709,3.3810861,-0.93100911,-0.25204909,0.93299001,-0.25690627,0
3.1557178,-1.7634374,-0.07408534,0.87276632,-0.48770797,-0.020489534,0
-1.5214391,-2.9497125,1.4068618,-0.42205504,-0.81826544,0.39027071,0
3.4601431,0.22854207,1.094028,0.95159048,0.06285245,0.30087388,0
-0.76417965,-0.76667005,-3.4150212,-0.21331057,-0.21400572,-0.95325762,0
1.2349849,2.6364493,2.1314075,0.34227377,0.73068708,0.59071565,0
-0.94968563,-3.2038095,1.2021941,-0.26742086,-0.90215701,0.33852443,0
-0.28509566,2.7717423,2.2256751,-0.079944819,0.77723545,0.62411052,0
1.620077,0.29418334,-3.2277105,0.44711035,0.081188992,-0.89078653,0
0.77211136,-3.5695057,-0.26954687,0.21084465,-0.97474438,-0.073606633,0
-2.2880323,-2.5128922,-1.3464459,-0.62591606,-0.68742889,-0.36833489,0
2.6614842,2.4394863,-0.62419748,0.72640604,0.66581553,-0.1703639,0
-1.2418687,-2.3176048,2.6322079,-0.3337917,-0.62292993,0.70748955,0
-1.7448658,3.1537457,0.19642258,-0.48339516,0.87370926,0.054416634,0
1.3573922,-1.1683911,3.0445931,0.38427913,-0.33077273,0.86192745,0
-2.4593964,2.706022,0.36084384,-0.66932833,0.73644787,0.098204181,0
-2.0747118,-3.0023665,0.34464785,-0.56597847,-0.81904137,0.09401945,0
2.1936677,-2.7821629,-0.41613668,0.61493421,-0.77990264,-0.11665244,0
-0.51612633,-2.8405886,-2.0989132,-0.14459665,-0.79581213,-0.58802623,0
2.9002037,-1.5382884,-1.2885072,0.82235128,-0.43618086,-0.36535555,0
-2.5022452,-1.3094134,-2.141089,-0.70604771,-0.36947155,-0.60414183,0
-1.5273834,-3.1960242,0.3554334,-0.42903686,-0.8977524,0.099840045,0
2.1897714,2.7704561,-0.62904614,0.61048251,0.77237058,-0.17537066,0
-3.3016887,-0.47894061,-1.5365161,-0.89889175,-0.1303926,-0.41831976,0
-0.93774194,-1.1378456,-3.3143265,-0.25850859,-0.31367144,-0.91366488,0
-1.0428464,2.0080576,2.7716169,-0.29146525,0.56123221,0.77463949,0
-3.125082,1.7812524,-0.50801069,-0.86024594,0.49032795,-0.13984086,0
2.9144082,1.810995,0.96924317,0.81738728,0.50791931,0.27183804,0
2.90623,2.051111,0.49374869,0.80925494,0.57114255,0.1374869,0
3.1076157,1.8278534,0.27254912,0.85950065,0.5055455,0.075381309,0
1.7318105,2.8081138,-1.4507812,0.48051307,0.77914727,-0.40253788,0
-2.2147768,-2.3529449,-1.5113603,-0.62085116,-0.65958273,-0.42366788,0
1.0698594,3.0404456,1.6695186,0.29473493,0.83761054,0.45993468,0
-0.60054618,-2.8737912,2.1875162,-0.16402882,-0.78492641,0.59748226,0
-1.5496445,-2.7111084,1.8908954,-0.42448857,-0.74264425,0.51796621,0
1.1456226,3.2933528,1.1147358,0.31294554,0.89963317,0.30450833,0
-0.86466873,3.3036366,1.275654,-0.23719431,0.90624744,0.34993502,0
2.468791,-2.613035,0.58934504,0.67771244,-0.71730912,0.16178221,0
-3.0363646,1.5897777,1.3769393,-0.82205546,0.43041125,0.37278807,0
2.9252653,-1.4762483,1.3842168,0.82238728,-0.41502142,0.38914838,0
-2.9320898,1.9562706,0.17971642,-0.83076894,0.55428344,0.050920274,0
-0.64099413,-2.8857925,-2.0371711,-0.17854548,-0.80382204,-0.56744307,0
-0.31437466,-1.9787568,2.8864398,-0.089471996,-0.5631603,0.82148963,0
-0.93833941,-0.77726305,3.4522307,-0.25631073,-0.21231215,0.94298905,0
-1.0864235,-0.39402062,3.4004643,-0.30250028,-0.10970983,0.94681436,0
2.8581452,2.2701287,-0.27370918,0.78086168,0.6202122,-0.074778922,0
2.5860379,-1.6898108,1.7674526,0.72660607,-0.47479069,0.49660593,0
3.1550529,-0.81291544,1.6456609,0.86436915,-0.22270912,0.45085093,0
-0.13743132,-3.4696014,1.0679896,-0.037830133,-0.95506233,0.29398093,0
2.9805357,-1.4010583,1.3148057,0.84049594,-0.39509133,0.37076855,0
2.3845999,-1.95393,-2.0609469,0.64303994,-0.52690393,-0.55576247,0
1.5615954,3.257201,0.95519131,0.41794652,0.87175953,0.25564808,0
-2.8530445,-1.7584482,1.3963594,-0.78581589,-0.48433056,0.38460019,0
2.1746495,2.7636955,-0.087021559,0.61819029,0.78563911,-0.024737725,0
-0.73501188,-3.3178158,0.89989328,-0.20908415,-0.94379795,0.25598693,0
0.83949459,-2.4196231,2.6591983,0.22738375,-0.65537405,0.72026485,0
-0.48544455,-1.8532549,3.0811231,-0.13379918,-0.51079774,0.84922522,0
0.46258906,3.3844011,-1.0407573,0.12954406,0.94777226,-0.29145509,0
0.015394414,3.6186185,0.04066756,0.0042539169,0.99992782,0.01123761,0
-2.5032418,2.0323629,-1.5167341,-0.70250398,0.57035762,-0.42565277,0
1.9732364,-2.4933279,-1.5859137,0.55533546,-0.70170677,-0.44632971,0
-1.2731491,-3.2658241,-0.72813547,-0.35562414,-0.91223079,-0.20338744,0
-3.1383309,-1.3979139,-1.2724314,-0.85661209,-0.38156268,-0.34731203,0
0.21848769,3.5358262,-1.1272863,0.058771107,0.95110351,-0.30322927,0
0.40102798,-0.56022888,-3.6349478,0.10839574,-0.1514269,-0.98250711,0
1.5647846,2.674191,1.7364339,0.44056508,0.75291842,0.48889291,0
-3.1671426,-1.663856,0.50729191,-0.87650287,-0.46047011,0.14039242,0
3.1892223,-0.87378871,1.4803157,0.88027614,-0.2411796,0.4085907,0
-3.4335232,-0.59122759,1.0232985,-0.94555593,-0.16281782,0.28180557,0
0.76361316,3.2536223,1.3042212,0.21285385,0.90693307,0.36354598,0
0.17100051,-1.2297384,-3.4129834,0.047084264,-0.33860323,-0.93975043,0
2.7627361,-2.1537204,-0.74097264,0.77159774,-0.60150725,-0.20694441,0
-2.2298822,-2.0732641,-1.9172499,-0.61973113,-0.57620364,-0.53284401,0
-1.2755979,-2.4712803,-2.2404737,-0.35718146,-0.69198573,-0.6273573,0
2.0600255,-2.5533891,1.3432796,0.58108705,-0.72025388,0.37890911,0
3.3852205,0.36667576,1.157239,0.94130659,0.10195918,0.32178602,0
2.076997,2.4510179,-1.6754341,0.57322955,0.67645538,-0.46240237,0
1.6245587,-1.4339629,-2.8835967,0.45038843,-0.39754817,-0.79944086,0
-3.5785758,0.47707242,-0.16582474,-0.99018651,0.13200521,-0.045883454,0
-3.495574,0.30890054,-0.52270764,-0.98524821,0.087065443,-0.14732824,0
-2.0658798,2.5699046,1.4642503,-0.57261312,0.71231693,0.40585563,0
-2.7134898,-0.42346951,2.3243153,-0.75418973,-0.11769949,0.6460222,0
-1.1692263,-2.4139924,2.2424297,-0.33443424,-0.69047517,0.64140302,0
0.48306474,-3.1785736,-1.5354235,0.13558216,-0.89213276,-0.43094853,0
0.049699269,0.63600111,3.5310416,0.013850729,0.17724766,0.98406881,0
2.6732237,2.11046,-1.1948961,0.7406233,0.58470821,-0.33104894,0
1.6740153,0.21433096,3.1673985,0.46643385,0.059719414,0.88253784,0
1.2084738,1.5335139,-3.0533261,0.33344504,0.4231309,-0.8424812,0
-1.0354601,-2.1403167,-2.7182031,-0.28672481,-0.59266585,-0.7526859,0
3.4014072,-0.19391668,0.96640384,0.96048504,-0.054757945,0.27289188,0
2.6296027,1.9407848,1.3451201,0.74403769,0.5491389,0.38059744,0
-2.5202091,-1.1869043,-2.3572209,-0.69061893,-0.32525024,-0.64595491,0
-0.80139863,2.9056623,2.0422902,-0.22011079,0.79806429,0.56093198,0
0.97834557,-3.5696056,0.12706046,0.26417288,-0.96386492,0.034308866,0
0.92103451,-1.7555869,2.9954071,0.25640887,-0.48874176,0.83389813,0
-0.65305102,-3.4552374,-1.2482396,-0.17501566,-0.92599297,-0.33452436,0
-2.3965137,-2.4750431,-1.2413937,-0.65442926,-0.6758737,-0.33899423,0
0.27047959,-3.3735309,-0.96966261,0.076829277,-0.95824581,-0.27543104,0
3.6596797,-0.21662201,-0.1888572,0.99693084,-0.059009854,-0.05144646,0
-0.21465625,-0.64497894,-3.513999,-0.059974205,-0.18020487,-0.98179907,0
1.193149,-2.4763727,2.33318,0.33092308,-0.68682867,0.6471138,0
0.78969204,3.519949,0.75393856,0.21427655,0.95510972,0.20457514,0
-2.5750375,-1.9133887,-1.7280463,-0.7066704,-0.52509344,-0.47422969,0
-3.5014253,-0.046315134,0.64027894,-0.98360538,-0.013010649,0.17986442,0
-1.6063173,0.5246886,3.231096,-0.44053295,0.143896,0.88612902,0
-0.28432506,-0.91376263,-3.5284896,-0.077770293,-0.24993782,-0.96513355,0
2.575995,2.2452509,1.3715544,0.6995942,0.60977,0.37248966,0
-3.2290616,-1.6543189,0.81849051,-0.86817986,-0.44478756,0.220063,0
1.4777108,-1.42978,2.9290035,0.41292048,-0.39952704,0.81845886,0
-1.5301586,-1.0147569,3.1416876,-0.42050469,-0.27886656,0.8633709,0
2.5602119,0.019494601,-2.421252,0.72653806,0.005532186,-0.68710393,0
-3.2602739,-0.99354154,0.85740954,-0.92766547,-0.28269839,0.24396391,0
0.74450111,3.3079374,-1.3014805,0.20499031,0.91080469,-0.35834855,0
-3.3994849,1.1269308,-0.012068874,-0.94919854,0.31465974,-0.003369851,0
-3.5414395,-0.67742485,-0.6925832,-0.96455926,-0.18450588,-0.18863446,0
2.0931952,2.6140046,1.1436232,0.5915162,0.73869175,0.32317659,0
3.3119144,-1.3196459,0.83079565,0.90473044,-0.36049354,0.22695215,0
-0.36236677,-1.8914765,3.0427809,-0.10062829,-0.525258,0.84497213,0
-1.6869491,-2.6235526,-1.7120544,-0.4741174,-0.73734999,-0.48117325,0
-3.2049057,0.16657878,-1.7648395,-0.87506211,0.045482393,-0.48186883,0
-2.7080803,-0.97858864,-2.1001484,-0.7598471,-0.27457744,-0.58927047,0
-1.7934222,2.0446436,2.5245697,-0.48329192,0.55099112,0.68032175,0
-2.9355118,1.3773502,-1.445335,-0.82687795,0.3879734,-0.40712342,0
0.27336857,2.8475401,-2.2988307,0.074490286,0.77592707,-0.62640911,0
-3.3701167,1.3502886,-0.23876549,-0.92626268,0.37112126,-0.065623716,0
3.0625813,-0.19687082,1.8875943,0.85002285,-0.054641716,0.52390391,0
2.0404675,-1.4507744,2.4616456,0.58114457,-0.41319439,0.70110011,0
1.9764916,-1.4353746,2.7141335,0.54128438,-0.39309341,0.74329585,0
-2.4041789,0.36217299,-2.6523731,-0.66817999,0.10065672,-0.73715919,0
-1.1524351,-3.0786653,1.1689808,-0.3303096,-0.88240343,0.33505192,0
1.4605893,-2.7175145,1.8780646,0.4043901,-0.75239217,0.5199756,0
-3.4654181,-0.82449055,-0.82505405,-0.94775498,-0.22548939,-0.2256435,0
-1.8936566,-1.9366226,2.4426866,-0.51918697,-0.53096706,0.66971546,0
1.5870887,-0.92274511,-3.1921644,0.43099061,-0.25058112,-0.86686575,0
2.9511042,-2.1347966,0.35438511,0.80642217,-0.58335704,0.096839689,0
-3.320086,1.2328553,-0.090451777,-0.93714911,0.34799376,-0.025531508,0
0.12254331,-1.3173045,-3.3461566,0.034056798,-0.36610058,-0.92995191,0
-3.4340332,0.68597919,1.0479621,-0.93946129,0.18766589,0.28669491,0
2.7800748,-2.191916,-0.13278748,0.78472644,-0.61870795,-0.037481669,0
-2.6783295,0.95362753,2.2460573,-0.7392152,0.26319987,0.61990863,0
1.8253878,-0.8881982,2.9195371,0.51333636,-0.24977948,0.82103348,0
-2.3300455,2.1883087,-1.7000036,-0.64357501,0.60442632,-0.46955302,0
0.511702,-3.1029732,-1.6745132,0.14361942,-0.8709116,-0.46998566,0
1.4578762,3.2003262,1.0085405,0.3984898,0.87476385,0.27567026,0
3.0630403,0.10586701,-1.7140898,0.87225664,0.030147564,-0.48811835,0
0.80450612,-0.97210658,-3.3246872,0.22623342,-0.27336398,-0.93492812,0
-0.31835064,3.2857389,-1.3175976,-0.089566179,0.92442429,-0.37069875,0
1.3257494,3.2401772,-1.1003202,0.36126423,0.8829422,-0.29983521,0
2.3308709,2.6297016,0.078922994,0.66314012,0.7481584,0.022453841,0
0.87377638,2.4463148,-2.4734764,0.24360044,0.68200904,-0.68958145,0
1.1523697,-3.0558491,1.5218214,0.31983,-0.84812379,0.42236802,0
2.3930225,0.54239237,-2.6829088,0.65819055,0.14918269,-0.73792255,0
0.4474535,-1.1646943,3.4104121,0.12321523,-0.32072178,0.93912488,0
1.5977043,1.088732,3.0067065,0.4469513,0.30456838,0.84111392,0
-2.1719584,0.00026962758,2.8660922,-0.6039772,7.4977914e-05,0.7970016,0
-2.8667679,1.6934987,1.3755437,-0.7957592,0.47008243,0.38182428,0
-2.8926644,-0.14620045,-1.9525976,-0.82811588,-0.04185446,-0.55899227,0
-1.4198434,-2.8165705,1.8072346,-0.39057541,-0.7747919,0.49714029,0
-0.29014453,3.5558393,0.45665306,-0.080668226,0.98862189,0.12696221,0
-2.0155106,0.77538276,-2.8235765,-0.56699449,0.21812722,-0.79431593,0
-1.7567811,-0.61872035,-3.2418501,-0.4698773,-0.16548599,-0.86708117,0
0.82444948,2.6219406,-2.1942649,0.2344203,0.74551094,-0.62390751,0
3.4828928,0.21680953,0.79161179,0.97333854,0.060590174,0.22122596,0
0.9053216,1.5555394,-3.1708705,0.24830157,0.4266361,-0.86967123,0
1.3870823,-3.1653676,0.75222695,0.39217877,-0.89496487,0.21268199,0
-0.89475882,-2.2793202,-2.6932271,-0.24581502,-0.62619239,-0.73990405,0
0.68280369,-3.3968909,0.53585005,0.19475143,-0.96887195,0.15283684,0
-1.0263108,2.2466662,2.5554674,-0.28877261,0.63214344,0.71903068,0
1.1336471,0.36519805,-3.3226333,0.3211785,0.10346585,-0.94134969,0
-2.6553617,-2.0457306,-1.0682048,-0.75477171,-0.58148748,-0.30363125,0
-1.8550515,2.9995079,-0.24974416,-0.52467448,0.84836739,-0.070636518,0
-1.5708265,0.94038928,2.9709628,-0.45012408,0.26947078,0.85133648,0
1.4533491,0.64972365,3.218776,0.40472615,0.18093391,0.89635915,0
-1.1006718,-3.4786975,0.3391948,-0.30036843,-0.94932109,0.092564754,0
0.30164844,-3.0148673,1.78231,0.085811153,-0.85765153,0.50702095,0
-2.3217816,2.6250825,0.78841609,-0.64635414,0.73078918,0.21948488,0
-1.4493499,3.1854317,0.49477407,-0.41006288,0.90125048,0.13998586,0
-1.0876715,3.2856064,0.90184861,-0.3041136,0.91865748,0.25215739,0
-1.8116297,-2.4167585,-2.0345781,-0.49746338,-0.66362834,-0.55868375,0
-0.21318544,-2.5157282,2.5018983,-0.059977725,-0.70777655,0.70388561,0
-0.38747793,-3.5595856,0.20912066,-0.10803144,-0.99243635,0.058304243,0
-2.2043803,-2.7072885,-0.79856229,-0.6155085,-0.75593084,-0.22297508,0
-2.7906709,1.6269255,1.5839858,-0.77567303,0.45220748,0.4402723,0
-0.14915784,2.3294699,2.6785004,-0.041982088,0.65565455,0.75389296,0
2.2000308,-2.79726,-0.63121581,0.60870016,-0.77394038,-0.17464355,0
-0.67822856,-3.4938149,0.6814307,-0.18716548,-0.96416104,0.18804915,0
3.1984484,-0.89469248,-1.2118757,0.90468717,-0.25306547,-0.34278134,0
1.2743387,-1.9727134,-2.7943008,0.34911877,-0.54044598,-0.76552868,0
-1.6241491,-1.0547627,-3.0054052,-0.45426798,-0.29501289,-0.84059978,0
-1.2225279,-3.1041393,-1.4507241,-0.33604634,-0.85326046,-0.39877254,0
2.6367033,-0.73875523,-2.1893742,0.75207639,-0.21071781,-0.62448311,0
-0.29067025,3.4110789,0.89485246,-0.082145944,0.96400058,0.25289309,0
2.0511048,-2.930757,0.05716712,0.57330936,-0.81918311,0.015978923,0
-2.977319,-1.7546422,0.52854174,-0.8516171,-0.50188887,0.15118137,0
2.0829659,1.9487205,-2.2222693,0.57605726,0.53893083,-0.61458248,0
-2.8030074,-1.9946674,0.94974548,-0.78538215,-0.55889124,0.26611173,0
-3.1255279,0.68551987,-1.7663809,-0.85513955,0.18755716,-0.48327905,0
-2.1919978,-1.7629429,2.4713228,-0.58541262,-0.47082579,0.66001141,0
-3.077358,-1.7390419,0.99603045,-0.83797061,-0.47354451,0.27122104,0
2.8079994,0.9008894,1.9997857,0.78808004,0.25283942,0.56125051,0
0.63155854,-3.5626526,0.45081824,0.17321122,-0.97709298,0.12364139,0
0.39210474,2.5224366,-2.6376963,0.10682081,0.68718553,-0.71858567,0
2.5326416,1.7278378,1.9670694,0.6952703,0.47433251,0.54000729,0
-0.59525675,1.4955903,-3.2747335,-0.16312996,0.40986615,-0.8974399,0
0.18238063,2.0352232,2.9109278,0.051280517,0.57224989,0.81847441,0
-3.3040731,-1.2511195,-0.04909724,-0.93510884,-0.3540881,-0.013895353,0
3.4987743,-0.27419332,-0.87163842,0.96754801,-0.075825185,-0.24104214,0
-1.7739197,-2.1961906,-2.4313869,-0.47611606,-0.58945262,-0.65257877,0
2.3915169,2.5485137,0.47164226,0.67814177,0.72266001,0.13373952,0
3.1798177,-1.3675212,1.0879313,0.87638032,-0.37689853,0.29984158,0
1.1804783,-2.9267938,-1.766294,0.32640991,-0.80927747,-0.48839176,0
1.1075499,-2.4004087,2.4663882,0.30633545,-0.66392523,0.68217438,0
1.6847304,-2.7618763,-1.546609,0.46982813,-0.77021652,-0.43130961,0
1.0942079,2.5594289,2.3116865,0.30241209,0.70736307,0.63889313,0
-3.2014356,-1.1715972,1.3098054,-0.87661487,-0.32080597,0.35865,0
3.2262347,-1.4666444,-0.46032208,0.90276444,-0.41039619,-0.12880725,0
-0.76492029,0.53739637,-3.4915769,-0.21162227,0.14867567,-0.96597701,0
-1.5180883,-2.8755031,-1.5516382,-0.42135498,-0.798114,-0.43066698,0
-1.782161,-2.157315,-2.3558991,-0.48720634,-0.58976579,-0.64405459,0
-2.755903,-1.1862649,2.0077267,-0.76337606,-0.32859147,0.55613369,0
3.1950462,-1.7171707,-0.18727531,0.87967187,-0.47277775,-0.051561326,0
-0.64622235,-2.1562738,-2.7772973,-0.18076238,-0.60315645,-0.77687013,0
-0.031223584,2.2133632,-2.7083268,-0.0089264959,0.63277739,-0.77428228,0
-1.9899265,1.4962707,2.5770812,-0.55533475,0.41756874,0.71919382,0
0.4553614,-2.2849667,2.626816,0.12968792,-0.65076351,0.74812293,0
3.1200964,-0.79999059,1.7939194,0.84626859,-0.21698268,0.48656756,0
3.0916359,-1.3689004,-1.3571987,0.84856671,-0.37572449,-0.3725127,0
2.7336862,-2.0788925,-1.231958,0.74923486,-0.5697723,-0.33764881,0
1.310061,-3.3564758,0.2575236,0.36266956,-0.92918694,0.071291313,0
0.56427675,3.538589,0.31261924,0.15687826,0.98378623,0.08691331,0
2.5256844,1.8192692,1.7397677,0.70828891,0.51018572,0.48789078,0
-2.2432122,1.212592,-2.6053841,-0.61532027,0.33261785,-0.71466517,0
-1.4072232,2.0547841,-2.5328307,-0.39616293,0.57846493,-0.71304506,0
3.4122255,1.1645105,-0.04720296,0.94632304,0.32295728,-0.013090942,0
-1.8818592,-2.7993495,-1.4128184,-0.51458794,-0.76547247,-0.38633034,0
-3.2411213,1.5045263,0.54849815,-0.89653832,0.41617247,0.15172206,0
0.07533586,-3.0963972,-2.0076139,0.020410404,-0.83889288,-0.54391372,0
0.85771626,2.8179264,1.8607664,0.24618132,0.80879992,0.53407633,0
-0.76668668,-2.7833829,-2.2327263,-0.2100701,-0.76263946,-0.61176103,0
-1.6396495,-3.3258526,-0.30821669,-0.44066501,-0.89384156,-0.082834966,0
1.628497,1.1562549,-2.9750721,0.45446953,0.32267949,-0.83026224,0
3.3623612,1.0162449,0.69689941,0.93893254,0.28378433,0.19460775,0
3.3687334,0.85240024,0.58615071,0.95594227,0.2418848,0.16633143,0
-1.5894506,-1.1653633,3.0843375,-0.4342443,-0.31838197,0.84265345,0
-0.24301706,-0.56924689,-3.473778,-0.068872847,-0.16132881,-0.98449451,0
-1.4539366,2.5518794,-2.2539961,-0.39271897,0.6892814,-0.60882092,0
-0.56393528,-0.99021614,3.4697266,-0.15441561,-0.27113897,0.95007342,0
-1.9731888,-2.6068699,1.5062077,-0.54815227,-0.72418904,0.41842481,0
-3.027539,1.9618325,0.31333247,-0.8360638,0.54176581,0.086527683,0
-1.318736,-0.74079877,3.1198502,-0.38034868,-0.21366054,0.89982444,0
-0.59312147,1.5018249,-3.3004534,-0.16142565,0.40874097,-0.89826089,0
0.63327986,-1.5688478,3.1186371,0.17848982,-0.44217947,0.87898731,0
3.2993531,0.075120352,-1.5412967,0.9058221,0.020623945,-0.42315587,0
3.1122596,-1.8177125,-0.052674849,0.86341757,-0.5042783,-0.014613301,0
3.1163619,0.88466489,1.4034078,0.88271594,0.25058317,0.39751816,0
3.4165032,1.2353019,-0.050743196,0.94032454,0.33999225,-0.013966056,0
-2.6391406,0.076057576,-2.5934691,-0.71310079,0.020550901,-0.70076025,0
-2.2465985,1.7467736,2.200664,-0.62450475,0.4855645,0.611736,0
1.2723286,-2.8218808,-1.7171071,0.35943368,-0.79718322,-0.48508388,0
2.6979728,-2.1940298,-0.74633211,0.75856906,-0.61687917,-0.20984069,0
-1.8554655,0.61238182,2.8838794,-0.53264946,0.17579678,0.82787681,0
3.5011501,-0.25426599,0.50952911,0.98702991,-0.071681626,0.14364436,0
-0.47581738,2.7947009,-2.1378129,-0.13400914,0.78709918,-0.60209334,0
