2.9239609,-2.3019669,-1.0300692,0.75724769,-0.59616363,-0.26676744,0
-0.28291899,-3.810034,0.72234446,-0.072763279,-0.97989386,0.1857781,0
-3.5994346,-1.4557167,0.36332625,-0.92302161,-0.37329695,0.093169622,0
-1.3148425,-3.5499611,0.27011123,-0.34644336,-0.93536717,0.071170688,0
-3.4977069,0.0093570473,1.8361652,-0.88540906,0.0023686416,0.46480662,0
-1.3868995,-2.9684384,1.8927729,-0.36652893,-0.78449702,0.50022084,0
-3.8074827,1.0170397,-0.42475334,-0.96056378,0.25658199,-0.10715812,0
2.8940849,2.5162406,-0.29312736,0.75245649,0.65421772,-0.076212548,0
0.77373976,2.9690328,2.4852273,0.19596085,0.75195074,0.62941998,0
-0.50077617,-3.565295,-1.196982,-0.13198961,-0.93970507,-0.31548864,0
-3.5010784,0.32132193,1.515633,-0.91446137,0.083927423,0.39587456,0
-2.2486613,-2.5337603,1.6873578,-0.59415263,-0.66948295,0.44584221,0
-0.017687233,-2.3764405,-2.9039159,-0.0047135781,-0.63331205,-0.77388215,0
0.086971454,-2.9421554,-2.3920681,0.022930274,-0.77570772,-0.63067561,0
1.1830227,-1.5877612,-3.1827214,0.31561029,-0.42358762,-0.84909582,0
-2.5207562,-2.8960414,0.49370977,-0.65118176,-0.74812835,0.12753902,0
-3.4539063,1.4023052,1.1958091,-0.88226229,0.35820341,0.30545628,0
-0.16416511,3.8037927,0.45691976,-0.042810939,0.99195224,0.11915544,0
-0.096736021,-2.3939147,2.9240451,-0.025589906,-0.63327032,0.77350748,0
-0.43566716,0.51503062,-3.7855954,-0.11330067,0.13394013,-0.98449123,0
2.5345173,0.90870523,-2.773607,0.65566927,0.23507832,-0.71752077,0
-2.7396526,1.7419029,-2.2207928,-0.69650537,0.44284621,-0.56459498,0
0.30006319,3.8956382,0.11951795,0.076762043,0.99658054,0.030575033,0
3.5153742,0.20679098,-1.4026344,0.9274134,0.054554857,-0.37003797,0
2.8952112,-2.1633873,1.1503205,0.7633335,-0.57038534,0.3032864,0
-1.7635232,1.6188594,-3.103251,-0.4499591,0.41304845,-0.79178768,0
3.5245247,-0.91528887,-1.3760197,0.90540874,-0.2351269,-0.3534832,0
-0.5172171,-2.2963343,-3.1333342,-0.13197729,-0.58595121,-0.79952681,0
-3.7778215,1.0060898,-0.032597601,-0.96628594,0.25733626,-0.0083377697,0
3.268683,1.1102638,1.7653935,0.843027,0.28634846,0.45531315,0
-2.9795096,1.7426108,-1.7034656,-0.77406925,0.45272601,-0.44255617,0
1.087806,-3.6887228,0.7308054,0.27788448,-0.94229931,0.18668723,0
3.1485329,0.25809106,2.2078533,0.81691974,0.066964425,0.57285058,0
-3.7239499,-0.68253589,0.18355836,-0.98246133,-0.18006825,0.048426803,0
-1.4284744,-0.38327941,-3.6449006,-0.36315233,-0.097438782,-0.92662078,0
-3.7665582,-0.45455009,0.049288556,-0.99271291,-0.11980108,0.012990477,0
1.797586,-2.0218196,-2.5931756,0.47967821,-0.53951401,-0.69197798,0
-1.8584926,0.87931854,-3.294399,-0.47858205,0.2264341,-0.84834361,0
-1.9971447,2.9304059,1.6510754,-0.51054806,0.74912602,0.42207924,0
0.26966444,2.4055681,3.0929017,0.068659998,0.61248827,0.78749216,0
2.9958341,0.76793998,2.2854178,0.7790488,0.19969822,0.59430927,0
-3.1216354,0.46358764,2.3214378,-0.79679734,0.11833073,0.59254694,0
0.39982572,-0.24643137,3.9007349,0.10176509,-0.062722601,0.99282914,0
-0.42111406,3.8249028,0.73550797,-0.10749076,0.97631913,0.18774085,0
1.9992832,3.0318396,-0.95762283,0.53231525,0.80723655,-0.25496998,0
-3.5082865,1.1579922,0.73164582,-0.93151683,0.30746898,0.19426589,0
2.1719394,1.2006768,2.9530635,0.56305796,0.31126589,0.76555818,0
-1.1996139,2.8145325,-2.1832612,-0.31916258,0.74881881,-0.58086628,0
3.0367684,-0.10005288,2.4436903,0.7788226,-0.025659988,0.62671924,0
-0.40433675,1.9712045,-3.2811041,-0.10504989,0.51213455,-0.85245687,0
1.2073429,3.6350806,0.75626242,0.30923554,0.93104964,0.19370075,0
-1.1779872,-0.74420911,3.5320046,-0.31024858,-0.19600368,0.93023032,0
-0.45942035,-1.046008,-3.5762014,-0.12237331,-0.27861947,-0.95257336,0
0.096347742,3.075829,-2.482327,0.024368843,0.77795696,-0.62784487,0
1.5522435,0.31113607,-3.42818,0.4110741,0.082396857,-0.90787047,0
0.16318201,-1.5878432,3.4378026,0.04305255,-0.41892302,0.90700054,0
1.2801192,0.097821623,-3.6472266,0.33107167,0.025299182,-0.94326645,0
-1.0357438,2.7348156,2.5670424,-0.26617375,0.70281482,0.65969908,0
3.1928635,1.2240611,1.7870184,0.82754064,0.31725764,0.46316743,0
0.21268143,-1.467376,3.5951142,0.054689843,-0.37732756,0.92446357,0
3.4771304,-0.023840304,-1.6275647,0.90567559,-0.0062095979,-0.42392588,0
2.9062889,-2.3380768,0.18117771,0.77824229,-0.62608719,0.048515532,0
2.8968737,-2.4547515,0.064590044,0.76281464,-0.64639348,0.01700807,0
-3.7380893,-0.59083396,0.33002117,-0.98400384,-0.15552942,0.086873822,0
-0.050332636,-2.3973436,-2.8933835,-0.013393988,-0.63795573,-0.76995659,0
3.7482748,0.74595487,0.97710067,0.95020282,0.18910258,0.24769898,0
-0.49586019,-3.7911131,-0.16369693,-0.12957206,-0.99064696,-0.042775262,0
-2.9688425,-1.2763995,2.1714435,-0.76253653,-0.3278386,0.55772746,0
-3.4569547,0.73002809,1.3004513,-0.91820043,0.19390249,0.34541237,0
0.54810125,-3.0040629,2.3879211,0.14139205,-0.77494919,0.61600488,0
-0.6908105,-0.52305597,3.6965697,-0.18194707,-0.13776354,0.97361004,0
-0.46874151,3.3320668,-1.9894328,-0.11991361,0.85241044,-0.50893736,0
-1.3298494,2.7055068,-2.3527627,-0.34775463,0.70748806,-0.61524576,0
3.5471156,1.5074875,0.42482096,0.91479409,0.38877803,0.10956048,0
-3.2289476,0.66678089,2.0484927,-0.83185434,0.17177875,0.52774084,0
3.2445624,-1.7757109,0.73712295,0.8603003,-0.47083226,0.19544919,0
-0.51513773,-1.6999102,-3.3466713,-0.13596204,-0.44866303,-0.88329822,0
-3.2039371,1.9799128,-0.84685296,-0.82995677,0.51288211,-0.21937115,0
3.3478515,-1.8285526,-0.19893883,0.87643427,-0.47869688,-0.05208021,0
-0.98476386,1.2803404,3.540283,-0.2530646,0.32902184,0.90978181,0
2.1266394,2.1948206,2.3573227,0.55099458,0.56865978,0.61076266,0
3.2935174,1.7546585,1.0715387,0.84828484,0.45193329,0.27598763,0
3.351737,1.8787528,-0.41083574,0.86736453,0.48618478,-0.10631632,0
-1.9974369,-2.0595231,-2.5177162,-0.52328593,-0.5395512,-0.65958804,0
3.4430761,0.96037585,1.5296711,0.88555181,0.24700661,0.39342812,0
3.6368353,-0.092144653,1.4922246,0.92489767,-0.023433663,0.37949342,0
1.1449413,3.5608153,0.59579551,0.30229354,0.94014555,0.15730512,0
-1.3697542,-0.049541172,-3.6635532,-0.35018101,-0.012665322,-0.93659639,0
-3.7009513,-1.0715461,-0.53181773,-0.95152771,-0.2754983,-0.13673222,0
-2.0291834,-2.7921607,1.7934103,-0.521676,-0.71782732,0.46106189,0
-1.4835886,2.2942741,-2.5850482,-0.39443749,0.60997218,-0.68727946,0
0.68804687,-3.572809,0.886868,0.1837249,-0.95402509,0.23681487,0
-3.8478372,-0.27645451,0.59653455,-0.98571378,-0.070820309,0.15281633,0
-0.42929456,3.4826522,-1.7923869,-0.10895026,0.88385898,-0.45488816,0
1.975356,-3.0893745,-1.144151,0.51424569,-0.80425882,-0.29785755,0
-3.2483933,-0.87632233,1.8392056,-0.84716964,-0.22854181,0.47965842,0
-1.0058328,-3.351366,-1.5535924,-0.2627261,-0.87538534,-0.40580231,0
1.0995291,-3.4131229,-1.4859604,0.28327045,-0.87931895,-0.38282627,0
2.2602046,-2.7277777,-1.291658,0.59942305,-0.72342694,-0.34255731,0
3.0028126,0.84792376,-2.2479844,0.78082645,0.22048706,-0.58454722,0
2.1417005,-0.81553799,3.0923176,0.55643767,-0.21188587,0.80341858,0
-1.4678622,3.5486386,0.54098481,-0.37849456,0.91503167,0.13949525,0
-1.3947662,0.5148201,-3.5684645,-0.36079696,0.13317324,-0.92308742,0
3.3127484,1.0681044,-1.9290158,0.83245784,0.26840308,-0.48474079,0
-2.5208197,0.90748245,-2.6674087,-0.66677326,0.24003503,-0.70554698,0
-1.0728689,-1.1026437,-3.5504148,-0.27726954,-0.28496447,-0.91756028,0
-3.680774,-1.375741,-0.42973024,-0.93115753,-0.34803322,-0.10871261,0
-3.0782435,2.136796,0.24049126,-0.81979251,0.56906784,0.064047217,0
-0.93463522,-3.0695834,2.1130505,-0.24326868,-0.79895717,0.54998893,0
-1.5731876,-3.5594108,-0.52136612,-0.40067533,-0.90654671,-0.1327868,0
-1.9731061,1.6136632,-2.7829182,-0.52284104,0.42759451,-0.73742813,0
-1.390999,3.2332301,-1.5981985,-0.35984001,0.83641011,-0.41344085,0
2.9387791,2.5109291,0.40315104,0.75617969,0.64608926,0.10373513,0
-3.590719,-1.2700866,0.27807114,-0.94025892,-0.3325825,0.072815187,0
0.39651838,-3.8968256,0.044167679,0.10122505,-0.99479967,0.01127533,0
-2.6901786,-1.5058224,2.2402077,-0.7059136,-0.39513382,0.58783942,0
0.63915169,-3.5407798,1.2074618,0.16841021,-0.93296081,0.31815436,0
1.637781,3.4045184,-0.93760544,0.42074439,0.87461752,-0.24086995,0
-1.899042,2.1165345,2.4812186,-0.50320053,0.56083077,0.65746331,0
2.7057559,-0.33269772,2.6121011,0.71664971,-0.08811871,0.69184417,0
-3.7183318,0.088063829,1.0234072,-0.96389669,0.022828633,0.26529607,0
0.44640929,-3.7719066,0.33639354,0.11707257,-0.98919719,0.088220514,0
0.81069225,3.6952713,-0.81076652,0.20953232,0.95508343,-0.20955151,0
1.9570389,1.1009713,3.2071645,0.49986887,0.28121123,0.81917721,0
2.6564958,0.25568372,-2.7393806,0.69460541,0.066854723,-0.71627766,0
-1.73724,-2.4432437,-2.3956208,-0.45270041,-0.63667512,-0.62426525,0
-2.0914428,-2.3930578,-2.0350096,-0.55418992,-0.63411176,-0.53923625,0
3.6899576,-0.84407389,-0.87129468,0.94997931,-0.21730675,-0.22431473,0
1.4132484,-0.50871569,-3.631408,0.35962516,-0.12945138,-0.92407364,0
-0.57929981,-1.9856988,3.3406003,-0.14743653,-0.50537652,0.85021001,0
3.0223987,2.2989957,-0.59972525,0.78616792,0.59800076,-0.15599687,0
1.9128352,-3.3029037,-0.70135587,0.49290693,-0.85110521,-0.18072815,0
-2.7872229,2.2498922,-1.680457,-0.70445174,0.56864506,-0.42472413,0
-3.8475375,-0.095606312,0.69326878,-0.98385739,-0.024447579,0.1772764,0
2.3151212,3.1780202,-0.36890984,0.58623451,0.80473769,-0.093415275,0
-1.7065791,3.0973413,1.4223959,-0.4477199,0.81258541,0.37316462,0
3.2883034,-0.92265314,-1.7128297,0.86064684,-0.24148579,-0.44829851,0
-0.4828065,3.0245907,-2.3124418,-0.12580323,0.78810728,-0.60254508,0
-0.84195387,1.6102712,3.3954015,-0.21862951,0.41813788,0.88168126,0
-1.166786,3.4150221,1.2684293,-0.30502066,0.8927536,0.33159223,0
1.0200448,-1.0314403,3.6451917,0.26000085,-0.26290545,0.92912877,0
-0.35272014,-1.3868616,-3.6086257,-0.090860263,-0.35725379,-0.92957741,0
0.51328385,-0.22645295,3.7543757,0.13521487,-0.05965472,0.98901886,0
0.72103697,0.3253884,-3.7106428,0.19004528,0.085763328,-0.97802222,0
-1.5246123,-1.9218169,3.0665281,-0.38823733,-0.48938411,0.78088093,0
3.4412227,1.1737981,-0.91722912,0.91770422,0.31302813,-0.24460639,0
3.2897103,-1.3440763,-1.2180574,0.87570375,-0.35778612,-0.32424054,0
-3.3091478,1.0771357,1.4851792,-0.8745783,0.28467736,0.39251962,0
3.2759624,1.6500275,0.99462712,0.86198187,0.43416059,0.26170951,0
2.0639424,3.0178123,0.75356621,0.55289859,0.80842566,0.20186885,0
-0.24879986,1.3850607,-3.6486747,-0.06362123,0.3541773,-0.93301165,0
-1.9816792,-0.84105039,-3.2401893,-0.50940984,-0.21620014,-0.83292204,0
0.28807724,-3.8222833,-0.13592853,0.075107485,-0.99654549,-0.035439279,0
-2.1659753,1.1211677,-3.0156965,-0.55845457,0.28907126,-0.7775386,0
2.967274,-1.3605604,-2.0384398,0.77101773,-0.35352859,-0.52966905,0
-1.1070117,3.6521287,-0.96365708,-0.28125244,0.92787653,-0.24483113,0
2.5319526,2.8336179,0.21219042,0.66526294,0.7445246,0.055752397,0
-2.9398477,2.4331701,-0.11800998,-0.77000141,0.63729304,-0.030909035,0
3.0266547,0.91279376,-2.3431149,0.76916772,0.23196946,-0.59545881,0
2.8770127,-1.440015,-2.1768796,0.74063152,-0.37070411,-0.56039578,0
-3.7888563,-0.1866724,-0.39088377,-0.99352795,-0.048949931,-0.10249899,0
2.2925642,3.0952764,0.28500673,0.59356582,0.80139536,0.073790848,0
-3.6940873,-0.83855295,0.25064555,-0.97306281,-0.22088398,0.066022769,0
1.0946087,1.9206632,-3.0511985,0.29051039,0.50974625,-0.80979156,0
-1.3596721,-3.3530712,-1.108017,-0.35931084,-0.88609219,-0.29280773,0
-1.9911022,3.1908138,0.86052108,-0.51606035,0.82700557,0.22303267,0
1.7660043,-3.4004011,0.5811165,0.45568889,-0.87741858,0.14994772,0
2.7043495,-2.3023503,1.3993539,0.70842779,-0.60312063,0.36657286,0
2.1591992,-3.1512747,-0.75331837,0.55455011,-0.8093462,-0.1934758,0
1.7667097,0.22335143,3.4376762,0.45633337,0.057690699,0.88793671,0
2.2803071,-0.93418258,2.8630104,0.60365891,-0.24730338,0.75791621,0
-0.48476824,-2.5301003,2.8473361,-0.12624973,-0.65892208,0.74154079,0
2.5976593,-1.0585419,2.4886174,0.69273227,-0.28228727,0.66365349,0
3.1004755,0.63766968,-2.3472562,0.78678125,0.161816,-0.59564322,0
2.6939478,-0.90473211,-2.588753,0.70079041,-0.23535259,-0.67342556,0
2.3706789,3.1379142,-0.20524615,0.60198313,0.7968061,-0.052117866,0
-1.4287016,0.67858034,-3.5965717,-0.36363047,0.172711,-0.9153927,0
-0.87956971,-1.2571923,3.4918811,-0.23060963,-0.32961643,0.91551745,0
-2.6149676,-2.463382,-1.3962904,-0.67844766,-0.63911909,-0.36226451,0
3.2591462,1.0643311,-1.5454072,0.86662513,0.28301156,-0.41093236,0
-0.44654435,-1.7831165,3.4381537,-0.11453693,-0.45736262,0.88187343,0
2.1537778,-3.1267211,-0.4320232,0.56363493,-0.81825024,-0.11305872,0
2.7098181,0.56030196,-2.6178935,0.71137756,0.14708966,-0.68724561,0
-1.4216111,0.53402698,-3.5841269,-0.3652111,0.13719124,-0.92076021,0
-3.0475597,-1.3452646,2.007365,-0.78356981,-0.34588614,0.51612133,0
3.066035,2.1602397,0.76176679,0.80111605,0.56444323,0.19904,0
2.4905789,0.071207888,-2.9050379,0.65076101,0.018605843,-0.7590546,0
1.2274771,3.6299336,-0.94781584,0.3109633,0.91959041,-0.24011523,0
-3.2524543,0.82061094,-2.0362997,-0.8288458,0.20912205,-0.51892453,0
3.9161615,-0.41657457,0.24783078,0.99242681,-0.1055676,0.062804841,0
3.3661659,-1.5322311,0.9725619,0.88022214,-0.40066469,0.25431621,0
-2.2235129,-2.0083992,2.2996249,-0.58869356,-0.53174043,0.60884482,0
1.2903005,1.9072359,3.0839384,0.3352493,0.49554309,0.8012771,0
-0.77811873,3.7268412,-0.66033173,-0.20137408,0.9644919,-0.17089127,0
-2.7542963,-2.6490664,-0.56247693,-0.71305835,-0.68581545,-0.14561936,0
-2.3920569,-2.9610543,0.31702596,-0.62623829,-0.77520132,0.082997106,0
-3.2612572,0.36521369,1.9680309,-0.85227555,0.095442548,0.51431227,0
-1.7782779,3.2838664,0.9511171,-0.46145201,0.85214281,0.24680895,0
-3.54795,1.4420439,0.47417566,-0.91938382,0.3736783,0.12287361,0
-2.3654549,0.93081826,-2.8641267,-0.61769396,0.24306563,-0.74791265,0
0.079556905,3.724596,0.8329764,0.020840419,0.97568083,0.21820329,0
0.91476107,-2.6027205,2.6543145,0.23894343,-0.6798529,0.69332969,0
-1.9523613,-1.654493,-2.9003973,-0.50474793,-0.42773944,-0.74984562,0
2.173269,-0.056956783,3.1075335,0.57304293,-0.015018241,0.81938773,0
3.7115858,-0.81886053,0.17935678,0.97543126,-0.21520239,0.047136243,0
-0.22958744,1.3044214,3.6660297,-0.058899563,0.3346431,0.94050246,0
-2.4894223,-0.67827982,-2.8434989,-0.64834917,-0.1766523,-0.74056548,0
-1.8870846,-0.052498225,3.2448111,-0.50268412,-0.013984547,0.86435705,0
2.5253828,-2.8330021,-0.089788876,0.66523075,-0.74626315,-0.023651987,0
0.089923725,1.3092816,3.6115406,0.023401827,0.34072855,0.93987042,0
-3.5569067,1.4515077,0.67533594,-0.91189134,0.37212595,0.17313723,0
-1.325369,2.0783079,2.8682101,-0.35045266,0.54954398,0.75840908,0
-3.5782735,0.28409103,-1.6968758,-0.90123576,0.071552105,-0.42738074,0
-3.2357755,-1.0609916,-2.0077357,-0.8185426,-0.26839527,-0.50788975,0
-3.7043769,0.23764472,-1.106225,-0.95638257,0.06135425,-0.28560114,0
-1.1035264,3.2655938,1.9213321,-0.27963474,0.82750493,0.48686761,0
2.0103092,-0.94980222,3.1868892,0.51734263,-0.24442667,0.82012939,0
1.0909468,3.0513401,-2.2424443,0.27683836,0.77430725,-0.56904203,0
-3.4535935,-1.6414697,-0.33224311,-0.8997848,-0.42766166,-0.086561225,0
0.76743209,3.0496323,-2.1746123,0.20072146,0.79762971,-0.56876868,0
0.73667443,3.8357615,0.14944328,0.1884695,0.98133457,0.03823331,0
-0.41416055,3.2780108,-1.8682824,-0.109113,0.86361098,-0.49220982,0
-3.4233973,1.5637012,-1.0870191,-0.8738839,0.39916292,-0.27748123,0
0.074402466,-3.8574383,-0.58695668,0.019065097,-0.98844081,-0.15040343,0
3.7896826,0.0070498814,-0.11410539,0.99954528,0.0018594369,-0.030095793,0
-2.0267723,0.8847056,-3.1574974,-0.52576441,0.22950122,-0.81908548,0
0.93614346,2.2012813,-2.9799862,0.24498047,0.57605588,-0.77983606,0
0.58675569,-3.7080417,1.2806848,0.14792365,-0.93481332,0.32286617,0
0.060045358,-3.8597088,-0.0071287807,0.015555058,-0.99987733,-0.0018467471,0
-3.4672422,-0.7123819,-1.5359998,-0.89858252,-0.18462336,-0.39807501,0
2.2407584,0.41521889,-3.1656239,0.57446694,0.10645036,-0.81157625,0
-3.470778,0.92638224,1.1589302,-0.91950887,0.24542528,0.30703393,0
-2.1181901,0.41515139,-3.1679139,-0.5525654,0.1082992,-0.8264035,0
3.2589047,1.6888913,1.4382864,0.82665718,0.42840594,0.36483726,0
0.11167376,3.8540213,-0.36146504,0.028837301,0.99521655,-0.093340427,0
1.611246,0.91636139,-3.4229054,0.41392842,0.23541285,-0.87934291,0
-1.9054968,-1.8570167,-2.7962484,-0.49367136,-0.48111123,-0.72444504,0
-2.4525697,2.5022426,-1.4834061,-0.64459205,0.65764719,-0.38987342,0
-3.5567272,1.5564572,0.29953447,-0.91340601,0.39971504,0.076923698,0
-3.3132005,1.1339252,1.6968033,-0.85143769,0.29140002,0.43605039,0
-3.2730873,-2.0580807,0.36219782,-0.84286332,-0.52998304,0.093270734,0
-1.8645425,-2.8991094,-1.4878281,-0.496638,-0.7722044,-0.39629668,0
3.7076409,-0.14704138,-0.50749213,0.98999798,-0.039262343,-0.13550831,0
-1.305753,-1.3648666,3.4380395,-0.33286673,-0.34793618,0.87643605,0
-1.4855068,2.2287903,-2.8158586,-0.38224232,0.57349986,-0.72456104,0
1.4901385,-0.08842656,-3.5736356,0.38476235,-0.022832246,-0.92273325,0
-0.69646472,1.5136704,3.431762,-0.18256566,0.39678138,0.89957446,0
3.1406548,-2.1864302,0.089723028,0.82048041,-0.57119399,0.023439692,0
-0.048022341,-3.6770296,1.2311808,-0.012383368,-0.94818389,0.31748065,0
0.40963143,-2.520956,-2.905473,0.10589074,-0.65167332,-0.75107193,0
-2.8171427,2.0053027,1.7959614,-0.7229861,0.51463699,0.46091208,0
-0.29516041,1.4817443,3.4572289,-0.078230768,0.39272881,0.91632092,0
1.2931733,3.0502295,-1.9548447,0.33617148,0.79293329,-0.50817859,0
3.3583026,-1.704388,0.70455611,0.87652373,-0.44484872,0.18389057,0
-3.209873,0.99764764,1.9274594,-0.82840782,0.25747409,0.49744099,0
-3.1339645,-0.71620303,1.9818161,-0.82985014,-0.18964516,0.52476996,0
-3.0375764,1.6581753,1.6125666,-0.7956028,0.43430972,0.42236385,0
-3.5616276,0.0055545806,1.4036448,-0.93035579,0.001450948,0.36665514,0
1.7223184,3.2263613,1.0481071,0.45270407,0.84803534,0.27549052,0
1.325635,2.3335342,2.7900951,0.34242225,0.60277081,0.72070414,0
-3.4114769,-1.0643973,1.2385659,-0.90197819,-0.28142157,0.32747093,0
2.597924,2.6413403,-1.1200212,0.6712212,0.68243861,-0.28937799,0
-0.93746251,0.56049854,3.7235084,-0.2415891,0.14444347,0.95956802,0
-3.4482167,1.8213251,0.36704352,-0.88034219,0.46499088,0.093707539,0
-0.31644478,-0.43709418,-3.8121021,-0.082191207,-0.11352785,-0.99012929,0
-0.19873263,-3.2988119,-1.8418448,-0.052527647,-0.87191939,-0.4868238,0
0.94034088,2.406029,2.8290443,0.24545449,0.62803888,0.73845738,0
-3.18801,0.64698136,-2.0432472,-0.82989436,0.16842048,-0.53189272,0
1.7108979,-2.3947012,2.4982159,0.4431895,-0.62032133,0.64713567,0
-0.16311145,3.7688706,0.13540208,-0.043210302,0.99842191,0.03586974,0
2.5131729,2.9389591,-0.077787496,0.64977473,0.75986075,-0.020111768,0
-3.2598536,-0.38870963,-1.9943128,-0.84864908,-0.10119414,-0.51918644,0
1.4094405,-1.7682278,-3.1241846,0.36545804,-0.45848906,-0.8100791,0
2.6657162,-0.37876728,-2.7885931,0.68769473,-0.097713433,-0.71939421,0
-3.2311945,1.3693361,1.4012479,-0.85508883,0.36237499,0.37081996,0
-2.3183858,3.0378926,0.3825506,-0.60365528,0.79099852,0.099607527,0
-2.053937,-1.7436976,-2.704582,-0.53802097,-0.45675495,-0.70845491,0
0.57571328,-0.8646785,3.6083093,0.15332463,-0.23028219,0.96096915,0
-2.456408,-0.27625299,2.933383,-0.64035451,-0.072015658,0.76469588,0
3.4316163,-1.88969,0.22607552,0.87451279,-0.48156843,0.057613064,0
3.5048919,0.40255353,-1.6116496,0.90364289,0.10378769,-0.41552088,0
-1.8502514,0.74556905,-3.1732659,-0.49363878,0.19891448,-0.84661311,0
3.8249013,0.54536659,0.30244318,0.9869681,0.14072505,0.078041688,0
-1.2539345,-2.2924585,-2.9027734,-0.32105961,-0.58696514,-0.74323124,0
-1.2180446,-1.9209311,3.2014194,-0.31015807,-0.48913828,0.81519675,0
0.82412791,1.1294268,-3.6421623,0.21124446,0.28950018,-0.9335767,0
-2.6413481,1.6641105,2.2188313,-0.6896401,0.43448925,0.57932347,0
-3.1188235,2.2721801,0.10121322,-0.8079716,0.58863765,0.026220595,0
2.4497252,-2.1312349,2.1196117,0.6317572,-0.54962206,0.54662454,0
0.70569521,-2.451925,2.8586915,0.18417203,-0.63990235,0.74606007,0
1.3915203,1.2866613,3.2427137,0.37048608,0.34256786,0.86335814,0
2.3413055,-0.88805908,-3.099642,0.58756816,-0.22286507,-0.7778784,0
3.3435404,0.6841355,1.6798134,0.87899452,0.17985468,0.44161177,0
3.8609023,-0.60711056,-0.31700519,0.98462802,-0.15482859,-0.080844365,0
1.8899049,-2.9626498,1.8335654,0.47680202,-0.74744368,0.46258819,0
3.136812,1.7890124,1.5433229,0.79876339,0.45555732,0.39299449,0
1.8524601,-3.0364001,1.6619626,0.47184449,-0.77340859,0.42332241,0
-1.0296241,3.6144671,-1.0352899,-0.26412496,0.92720336,-0.26557836,0
-0.32539883,0.55041039,3.8577645,-0.083213821,0.14075573,0.98654109,0
-2.7830424,-1.9312699,1.6960409,-0.73462957,-0.5097903,0.44769773,0
-0.92299443,3.3269353,1.7532512,-0.23836137,0.85917401,0.45277342,0
1.9722304,3.1771183,0.76021576,0.51683462,0.83258259,0.19921902,0
2.5995619,-2.8229036,0.5321458,0.67098737,-0.72863537,0.1373551,0
-2.0392187,2.0660546,2.5119281,-0.53120548,0.53819609,0.65434372,0
-0.13206381,-3.6367569,1.4433442,-0.033733368,-0.92894536,0.36867681,0
-1.5665663,0.033335924,-3.6395934,-0.39534199,0.0084127244,-0.91849548,0
2.4718931,-1.5332416,-2.514616,0.64287734,-0.39875767,-0.65398854,0
3.0507195,2.4148831,-0.42498845,0.77944368,0.61699063,-0.10858244,0
3.5995739,-0.20643006,-1.3022739,0.93898678,-0.053849455,-0.33971184,0
-0.078366823,-2.9630046,2.4291093,-0.02044932,-0.77317703,0.63386047,0
3.7454343,-0.28569692,0.84177119,0.97297204,-0.074217059,0.21867153,0
0.36984685,2.137954,-3.1382022,0.096939705,0.5603742,-0.82254696,0
2.9070506,1.3094009,2.1921146,0.75132787,0.33841497,0.56655252,0
-3.9179749,0.0071928729,-0.1754754,-0.99899685,0.0018340234,-0.044742342,0
3.327589,-0.0070246756,2.106462,0.84493375,-0.0017836895,0.534868,0
-3.6235518,-0.77998841,-0.93695027,-0.94779515,-0.20401785,-0.2450736,0
2.4567432,-2.9828961,0.27904305,0.63409334,-0.76989514,0.072021917,0
2.2096083,-2.595855,-1.6424454,0.58393854,-0.68601292,-0.43405306,0
-0.84400296,3.1305404,1.9991716,-0.2215749,0.82185632,0.5248397,0
0.70953995,3.1999059,1.8930068,0.18746039,0.84541488,0.50013226,0
-0.35037529,-0.86619705,-3.8171265,-0.089158013,-0.22041625,-0.97132254,0
-2.1501157,-0.81550705,-3.2674356,-0.53813154,-0.20410533,-0.81777465,0
-1.2699513,-2.963249,2.3253901,-0.31948021,-0.74546117,0.58499575,0
-3.3896654,0.30123881,-1.8934969,-0.87040752,0.077352926,-0.48621729,0
-0.62987053,-3.7147191,0.18645349,-0.16697024,-0.98472226,0.049426325,0
1.9475837,2.8673022,1.6878033,0.50517309,0.74373382,0.43779007,0
0.46216273,0.44220996,-3.7920883,0.12017784,0.11498944,-0.98607033,0
-3.7623918,-0.26545331,0.59444946,-0.9853574,-0.0695213,0.15568426,0
-0.071139157,-2.5020201,2.9016843,-0.018564047,-0.65291214,0.75720614,0
-1.9701868,-1.3551857,-3.0915465,-0.50408655,-0.34673405,-0.79099452,0
0.49522293,-2.3757293,-2.9377358,0.12996398,-0.62347525,-0.77096558,0
2.7894621,-0.48662221,-2.5674746,0.72979009,-0.12731202,-0.67171282,0
-2.1645999,-2.9692786,-1.0323223,-0.56712747,-0.77795416,-0.27046955,0
-1.4114209,-3.3779132,-0.81391996,-0.37634715,-0.90070087,-0.21702701,0
1.8209673,2.9106655,1.6365631,0.47876722,0.76526976,0.43028378,0
-3.1674893,0.65705818,-2.0910661,-0.82231486,0.17057948,-0.54286361,0
0.019978113,3.4032829,-1.8547002,0.0051544369,0.87806123,-0.47852042,0
2.1662524,-1.3736875,-2.8522329,0.5647164,-0.35810411,-0.74354345,0
0.51064306,-2.8810465,-2.5902894,0.13067327,-0.7372582,-0.6628536,0
1.5092325,1.6533298,-3.1405675,0.39132333,0.42868578,-0.81430614,0
2.0167146,1.4765931,-2.7978208,0.53754658,0.39357954,-0.74574709,0
1.2911296,3.5891299,0.40490213,0.33660609,0.93571007,0.10556068,0
-3.7269018,0.97175622,0.38210538,-0.96292049,0.25107288,0.098724656,0
1.7253985,-1.5136493,3.0788975,0.44928989,-0.39415088,0.80173796,0
-0.92401588,3.544848,1.0888461,-0.2417818,0.92755955,0.28491196,0
2.5906277,1.8845098,-2.1744273,0.669101,0.48672661,-0.56160581,0
-0.60202229,3.0073059,-2.3412662,-0.15602587,0.77940226,-0.606785,0
-1.8084028,-3.2638986,0.5707022,-0.47907346,-0.86465651,0.15118772,0
3.3625641,-1.9482343,-0.50714469,0.85798544,-0.49710774,-0.12940207,0
-1.2320999,3.0790949,1.7321831,-0.32930017,0.82294172,0.4629561,0
-3.0749471,2.1107333,-0.20948607,-0.82315648,0.56503856,-0.056078952,0
-3.2759533,1.5285956,-1.3950934,-0.84543163,0.39448765,-0.3600345,0
-0.50370532,-0.023374964,3.7599144,-0.13277848,-0.0061617219,0.99112654,0
2.6715784,2.6483948,-0.88757026,0.69120294,0.6852048,-0.22963624,0
3.5680509,0.96761817,-1.1881765,0.91884923,0.24918231,-0.3059808,0
-0.64336556,-3.6046619,1.3033814,-0.16553073,-0.92743897,0.33534539,0
-1.0234325,1.9683689,3.0922408,-0.2689164,0.51720721,0.81251502,0
-2.3567541,-2.9064617,-1.1264983,-0.6030916,-0.74376136,-0.28827009,0
-2.8794565,2.4146457,-0.60252637,-0.75657845,0.63444918,-0.15831406,0
-0.46957895,3.2775276,1.8951422,-0.12308741,0.85911512,0.49676022,0
-0.027133847,3.1733689,-2.0777025,-0.0071534137,0.83660901,-0.54775375,0
1.4241405,-3.5133998,0.58702433,0.37123322,-0.91584414,0.15302068,0
-0.93927759,3.622391,-1.1030968,-0.2407551,0.92848921,-0.28274515,0
1.8917068,-2.1878755,-2.5255539,0.49266243,-0.56979448,-0.65773702,0
2.2547567,-1.9336274,-2.3915675,0.59126353,-0.50705397,-0.62713933,0
-3.7912807,-0.4972527,-0.73788899,-0.97354686,-0.12768741,-0.18947938,0
-3.2854867,1.9704394,-0.15961562,-0.85684776,0.51388627,-0.041627403,0
-1.0660001,-2.2998209,2.9365873,-0.27479088,-0.59284216,0.75698626,0
-3.4123347,-1.191416,1.2671065,-0.89094418,-0.31107301,0.33083543,0
-2.1626649,2.0881674,2.5606637,-0.54764944,0.52878451,0.64843428,0
0.35414276,3.726908,0.80444312,0.092486002,0.97329903,0.21008399,0
3.245708,0.35709327,-2.0949368,0.83662003,0.092045061,-0.53999501,0
0.54752028,0.74855739,-3.6848564,0.14409284,0.19700049,-0.96975666,0
-0.35086733,-2.4797168,-2.7927947,-0.09353368,-0.66103911,-0.74449897,0
1.3195578,0.23660809,-3.6255445,0.34137139,0.06121083,-0.93793327,0
-1.6091747,-3.0796409,-1.6664166,-0.4175722,-0.79915023,-0.43242615,0
3.3367336,0.78572667,1.5655127,0.8854152,0.20849563,0.41541487,0
2.0918396,-1.5951734,2.8611078,0.53820682,-0.41042018,0.73613089,0
1.7230129,-3.5560825,0.027648907,0.43602756,-0.89990616,0.0069968631,0
1.7387462,-3.3847203,-0.79499078,0.44728184,-0.87069863,-0.20450652,0
2.6396165,2.7633746,-0.66489911,0.68050557,0.71241099,-0.17141412,0
-0.6531983,-3.7015936,0.49519071,-0.1722904,-0.97634834,0.13061364,0
1.026656,2.3658321,2.9156609,0.2637462,0.60777825,0.74902838,0
1.4063696,3.6755412,-0.48447743,0.35468504,0.92696786,-0.12218473,0
2.8440888,2.5700393,-0.2371344,0.74053323,0.66917723,-0.061744172,0
0.048338249,3.5581949,1.2886457,0.012772132,0.94016093,0.34049129,0
-0.51885849,-2.7118163,-2.6390967,-0.13584734,-0.71000677,-0.69096738,0
-3.4331677,1.2384369,-0.94561678,-0.9106015,0.32847872,-0.25081211,0
2.9731016,0.77324367,2.2898962,0.77595037,0.20180902,0.59764045,0
-3.0507874,2.2612166,0.24522428,-0.80171418,0.59422344,0.064442307,0
-2.5478191,-1.4506027,2.4844575,-0.66298759,-0.37747246,0.64649981,0
-2.8242481,0.87007082,2.3057981,-0.75346494,0.2321212,0.61515063,0
3.1638684,-2.1163568,-0.15069053,0.83053648,-0.55555773,-0.039557263,0
2.47751,2.8226268,-1.0898175,0.63353318,0.72178423,-0.27868122,0
-2.7668545,-1.5615612,2.1452551,-0.72174805,-0.40734118,0.55960071,0
-1.5313932,-1.7924058,3.0477891,-0.39743745,-0.46517721,0.79098272,0
-3.6859195,-0.71095401,0.60624027,-0.96934175,-0.18697028,0.15943213,0
-1.3072996,3.3561933,-1.2521487,-0.34283003,0.88013786,-0.32836711,0
1.7483654,-0.28678104,3.3105407,0.46563175,-0.076376691,0.88167661,0
2.3462546,2.8111243,-1.0206656,0.6172412,0.73953688,-0.26851174,0
-3.0000918,-1.5926795,-1.5205443,-0.80616081,-0.42797217,-0.40858856,0
-3.4750869,-1.6430348,-0.49276084,-0.89670765,-0.42396691,-0.12715147,0
1.1658343,1.1112226,-3.4554703,0.30580205,0.2914772,-0.90638083,0
-1.0077019,2.9752812,-2.3465853,-0.25700137,0.75880718,-0.59846634,0
3.7496378,1.0395938,-0.15152758,0.96291864,0.26697093,-0.038912755,0
-0.32968432,3.3534827,1.8191663,-0.086094119,0.87573206,0.47505903,0
-1.4817692,2.2397184,2.7307694,-0.38688254,0.58477926,0.71299022,0
-2.6603823,2.0732179,-1.6650063,-0.70728558,0.55118287,-0.44265628,0
2.9631143,-2.2226038,-1.3227742,0.75336742,-0.5650937,-0.33631337,0
-1.4926316,2.0968015,2.7647588,-0.39515248,0.5550977,0.73192966,0
0.45407549,-1.1480215,-3.654881,0.11770452,-0.29758775,-0.94741076,0
-0.97469258,-1.9653859,3.2166238,-0.25033763,-0.50478488,0.8261497,0
1.040132,2.8604362,-2.388375,0.26884514,0.73934299,-0.61732835,0
1.6494566,-2.5662811,2.4072256,0.42445788,-0.66038609,0.61945605,0
-3.2587919,-1.1536273,1.7451931,-0.84152085,-0.29790223,0.45066282,0
-3.8408432,-0.61681515,0.34971458,-0.98338324,-0.15792513,0.08953853,0
3.3039608,-0.74995148,1.853786,0.85550332,-0.19418693,0.48000571,0
2.9479101,2.4422941,0.01717053,0.77004719,0.63797116,0.0044852514,0
3.8489883,-0.13323207,-0.87571335,0.97452623,-0.033733059,-0.22172207,0
1.9339458,1.0782963,-3.1545796,0.50178659,0.27977756,-0.81849545,0
-2.0358853,1.6922283,2.715981,-0.53678221,0.44617346,0.71609646,0
3.3959074,0.022180777,-1.8262948,0.88070226,0.0057524126,-0.47363538,0
-2.7614558,-2.5316138,-0.87773865,-0.71768183,-0.6579476,-0.22811775,0
-0.41661406,0.36732638,3.7427373,-0.11010684,0.097080611,0.98916721,0
-1.1953237,-3.3197033,-1.4631876,-0.31293613,-0.86909938,-0.38306299,0
0.44446263,-0.65292394,-3.6564617,0.11881492,-0.17454135,-0.97745502,0
0.37349111,2.1006343,-3.2966187,0.095113054,0.53494644,-0.83951521,0
-2.3452568,2.3422546,1.9760116,-0.60775471,0.60697675,0.51206779,0
0.034452423,-3.4044743,1.8022487,0.0089434842,-0.88376546,0.46784469,0
0.47834295,3.5549927,-1.3666264,0.12461559,0.92612952,-0.35602689,0
1.1183381,3.355041,1.6288218,0.28722546,0.86168325,0.41833422,0
-3.2173417,1.8807842,0.93062508,-0.83759099,0.48963648,0.24227554,0
-0.69211346,-3.7086046,0.16485506,-0.18328138,-0.98209065,0.043655939,0
3.1209307,-0.83501685,-2.2502513,0.79268926,-0.21208702,-0.57154429,0
-0.40273884,-3.385778,1.9846495,-0.10208351,-0.85820407,0.50305551,0
1.9701446,-2.0984759,-2.7004116,0.49917418,-0.53168935,-0.68420136,0
-2.2197547,-2.8519645,-1.6025399,-0.56148398,-0.72140056,-0.40536031,0
2.0982721,3.0483601,0.94865781,0.54923326,0.79792356,0.24831595,0
1.8756902,1.0783608,-3.1567252,0.49011922,0.28177646,-0.82485461,0
1.8409841,-3.3772264,-0.66532224,0.47162053,-0.86517274,-0.17044124,0
-3.0442352,-2.0393715,-1.1302871,-0.79389155,-0.53183794,-0.29476213,0
2.6610892,-2.8869951,-0.32693216,0.67541599,-0.73275357,-0.082979254,0
3.0442629,-0.44229934,2.1921766,0.80591339,-0.11709073,0.58033901,0
1.1177148,3.168433,-2.1142912,0.28156185,0.79815519,-0.53260791,0
3.4276109,1.5287011,0.5681234,0.90299743,0.40273336,0.14967102,0
2.915318,-1.790267,1.6402036,0.76840311,-0.47186849,0.43231562,0
0.64900702,-3.541549,1.1571909,0.17160811,-0.93644369,0.30598027,0
-2.1018939,2.5470188,1.9460329,-0.54836005,0.66448802,0.5076977,0
2.3378727,-2.3870959,1.9315057,0.60576838,-0.61852264,0.50047421,0
-1.1920297,2.0631588,-3.119431,-0.3036744,0.52559805,-0.79468769,0
-3.7764082,-0.38187227,0.86918533,-0.96982318,-0.098068997,0.22321635,0
-3.3679981,-1.4296274,1.3622783,-0.8626526,-0.36617354,0.34892327,0
3.8100078,0.97676331,0.082613029,0.9684602,0.248282,0.020999283,0
-0.716304,3.7015612,-0.76530826,-0.1861922,0.96216387,-0.1989301,0
-3.3463111,-1.9997344,0.58197629,-0.84899408,-0.50735348,0.14765346,0
3.150327,1.6985136,1.3866612,0.82076681,0.44252029,0.36127219,0
-3.0460186,-1.763052,1.4611117,-0.79933327,-0.46265841,0.38342351,0
0.24005698,2.0597825,3.1861978,0.063146248,0.54181939,0.83811945,0
2.3489611,-1.892399,-2.4358113,0.60585386,-0.48809546,-0.62825465,0
-1.7013601,-3.0800657,1.7176383,-0.43451113,-0.78661937,0.4386684,0
-2.2861884,1.1637608,-2.8843558,-0.59225881,0.30148327,-0.74721974,0
-1.1907785,-1.6176105,-3.3168912,-0.30708548,-0.41715959,-0.85538083,0
1.5469759,3.0452833,1.6256801,0.40894789,0.80503011,0.4297536,0
-3.9212701,0.2821165,0.26893172,-0.99509645,0.071592398,0.068246506,0
-2.5009384,2.1144512,-2.1129327,-0.64168656,0.54252231,-0.54213274,0
2.309315,1.0132449,-3.0151696,0.58749884,0.25777349,-0.76707101,0
-2.1129785,-0.21679741,3.056334,-0.56770849,-0.058248457,0.82116634,0
-1.2833002,3.6660037,-0.28613129,-0.32950318,0.94129175,-0.073467746,0
2.5203373,2.6951408,-0.90348279,0.66342664,0.70944005,-0.23782316,0
2.9090247,2.3706036,0.88263172,0.75460571,0.61493844,0.2289561,0
-2.9734969,-2.2093039,0.73909861,-0.7871747,-0.58486962,0.19566178,0
2.6553967,2.8660843,0.59139293,0.67197639,0.72529316,0.14965828,0
-2.2885187,-2.6756308,1.6221977,-0.59034532,-0.69020462,0.41846147,0
-2.3360832,-2.7044225,-1.3530809,-0.61133873,-0.70773089,-0.35409304,0
3.5406485,1.1054536,0.52537686,0.94512308,0.29508427,0.14024147,0
1.3320365,-0.15746208,-3.5805283,0.34837973,-0.041182499,-0.9364484,0
-3.0233562,2.3956332,0.091655537,-0.78355426,0.62086916,0.023754094,0
2.9563923,-2.3119109,1.2794757,0.74559808,-0.58306074,0.32268202,0
-2.8975475,-2.6046455,-0.22868371,-0.74241793,-0.66736972,-0.058593996,0
-0.82792729,0.6760112,-3.6044791,-0.22021583,0.1798085,-0.95873559,0
-3.7579639,-0.92368937,-0.63521081,-0.95827186,-0.2355386,-0.16197725,0
-2.8703351,2.5604837,-0.2647393,-0.74447536,0.66410959,-0.068665117,0
-3.347198,-1.4656065,1.1807723,-0.87165552,-0.38166368,0.30748904,0
1.2379817,-3.5639744,0.53592288,0.32486665,-0.93524516,0.14063492,0
0.33380103,3.6687591,-0.90630692,0.087986879,0.96705115,-0.23889416,0
-0.37838617,2.2744524,3.1243329,-0.097446613,0.58574468,0.80461627,0
3.5863526,-0.017285319,-1.3739992,0.93380362,-0.0045006988,-0.35775775,0
3.044138,-2.3094003,-1.1557417,0.7625649,-0.57851106,-0.28951645,0
0.72118491,-1.1395265,3.6125014,0.18702891,-0.29551977,0.93685019,0
-2.1338677,3.0333614,-0.766954,-0.56344193,0.80095077,-0.2025121,0
-3.861058,-0.39672807,0.63356775,-0.98176903,-0.10087787,0.16110019,0
3.4396834,-0.4697912,1.7704887,0.88264477,-0.12055143,0.45431873,0
-1.9004186,3.3257544,-0.79134482,-0.48587599,0.85028857,-0.20232144,0
-2.3200321,-3.0436442,0.58419973,-0.59927732,-0.78619039,0.15090206,0
-0.52018291,-2.9860127,-2.3274004,-0.13612105,-0.78137743,-0.60903233,0
-0.25731623,-3.279196,2.0027828,-0.06681741,-0.85151011,0.5200634,0
-2.4647858,-2.846216,-0.8638972,-0.63805681,-0.73679733,-0.22363627,0
-3.764852,0.65730923,-0.51048613,-0.97642684,0.17047532,-0.13239627,0
-3.1053469,2.1757505,0.98318708,-0.79276544,0.55544835,0.25099829,0
1.4534211,-3.0843041,1.8095306,0.3765319,-0.79903811,0.46878773,0
-1.2245158,1.213604,3.5345836,-0.3113735,0.30859882,0.89878434,0
1.7247961,1.8382976,-2.9180613,0.44729277,0.47672725,-0.75674325,0
2.2935362,2.5009277,2.047142,0.57873058,0.63106191,0.51655763,0
-2.0577979,0.71924472,3.1018045,-0.54278576,0.18971533,0.81816363,0
-2.4896722,1.7351295,2.3676634,-0.64683241,0.45079747,0.61513376,0
3.2561157,1.936285,-0.10179231,0.85920072,0.51093316,-0.026860232,0
1.7996985,-2.4938223,2.3192382,0.46722677,-0.64743096,0.60210651,0
-0.14726821,-1.9479645,-3.4366415,-0.03725414,-0.49277267,-0.86936027,0
0.046485722,-1.977239,-3.2789423,0.012139665,-0.51635253,-0.8562901,0
-2.1802154,0.44546875,3.1426401,-0.5661853,0.11568483,0.81611961,0
0.65372396,-2.2513533,2.9730389,0.17266208,-0.59462917,0.78524137,0
-2.8972504,-2.5268028,0.66451776,-0.74263149,-0.6476773,0.17033108,0
-0.33916318,1.6096047,3.3835981,-0.090148807,0.4278293,0.89935273,0
3.5112472,0.36042857,-1.734579,0.8927933,0.091644995,-0.4410457,0
-1.2957907,3.0323684,-1.921409,-0.3395178,0.79452878,-0.50343978,0
-2.020417,2.1524906,-2.5217259,-0.52038044,0.55439746,-0.64949805,0
1.034079,3.3479135,1.7078853,0.26528177,0.85887098,0.4381395,0
0.36856392,1.4681004,3.416363,0.098634355,0.39289016,0.91428035,0
-2.2834184,-2.5384073,-1.7760785,-0.59330654,-0.65956098,-0.46148309,0
-2.4699082,2.6413088,0.93693572,-0.66117877,0.70706159,0.25081176,0
1.9119055,0.56614166,-3.2502949,0.50139445,0.14846982,-0.8523851,0
-2.3674698,2.50458,-1.9628617,-0.59691292,0.63148266,-0.49489859,0
1.3309016,-1.1390141,-3.3760607,0.34991708,-0.29946655,-0.88762486,0
-2.2482181,-1.7823272,-2.608217,-0.57983118,-0.45967466,-0.67267746,0
0.46136087,-3.8185191,0.30674565,0.11956996,-0.98963779,0.079498641,0
3.4346631,-0.27943173,1.6077195,0.90324104,-0.073484413,0.42279497,0
-3.5773184,-0.1764839,-1.2619575,-0.9420231,-0.046473891,-0.33231404,0
1.0586773,3.5058002,1.1070938,0.27671725,0.91634667,0.28937235,0
0.61654168,1.4454964,-3.4409208,0.16298586,0.38212416,-0.90962452,0
3.7856953,-1.1273159,-0.25822154,0.95636773,-0.2847901,-0.065233655,0
-3.0348499,-1.3612703,-1.9603671,-0.78605092,-0.35258013,-0.50775111,0
-2.60234,-1.9327441,-2.0269582,-0.68068522,-0.50554132,-0.53018457,0
-3.4365971,0.15394257,-1.5698769,-0.90883428,0.040711287,-0.41516593,0
0.57080662,-3.5929079,0.99169475,0.15137902,-0.95284611,0.26299936,0
3.3279104,-1.1296457,1.7707868,0.84565097,-0.28705281,0.44997233,0
-1.5924309,0.4513824,3.5318305,-0.40826988,0.11572611,0.90549606,0
-1.1718968,-0.56837618,-3.535316,-0.3110455,-0.15085872,-0.93834549,0
0.82132524,-2.0589721,-3.1824727,0.21176848,-0.53088027,-0.82056093,0
-1.4702121,-2.4681652,2.4887128,-0.38680345,-0.64935857,0.65476447,0
-2.8577921,-1.6080214,-1.9382409,-0.7502476,-0.42214903,-0.50884056,0
-0.073371738,3.5666344,-1.3749605,-0.019191235,0.93289489,-0.35963699,0
-3.180599,1.0217887,-1.8374867,-0.8342135,0.26799667,-0.48193946,0
0.41984856,-1.6203073,3.5310526,0.10744177,-0.41464636,0.90361756,0
0.86809844,3.4662294,1.5843209,0.22209042,0.88678461,0.40532556,0
2.579211,-2.6580122,0.79566747,0.68085432,-0.7016561,0.21003851,0
-0.18325497,-1.9828868,-3.2186894,-0.048417527,-0.52389562,-0.85040522,0
0.72044122,-1.4979414,-3.4791222,0.18684636,-0.38849095,-0.90230995,0
-2.1503582,-2.7335286,1.6449404,-0.55892032,-0.7104978,0.42755231,0
-3.4460428,0.10560903,-1.6279955,-0.90383101,0.027699225,-0.42699203,0
-3.3178964,0.038230304,2.0685821,-0.84854382,0.0097773056,0.52903473,0
-3.4354258,-0.75401485,1.4243723,-0.90532911,-0.19870363,0.37536126,0
2.9954989,2.2781863,-0.82519811,0.77748543,0.59130603,-0.21418118,0
1.9933064,2.9132125,1.5726477,0.51581764,0.75386626,0.40696171,0
-3.2398264,0.36789551,-2.1749508,-0.82659841,0.093863621,-0.55490959,0
2.7108757,1.8105998,-2.0510576,0.70385158,0.47010401,-0.53253645,0
0.246647,0.10530467,3.9339848,0.062551297,0.026705956,0.99768442,0
-2.0585899,0.049144913,-3.2908213,-0.53029478,0.012659778,-0.84771878,0
-2.6278863,2.4872115,-1.2473946,-0.68662155,0.64986563,-0.32592276,0
3.5380986,1.5613228,-0.47202069,0.90814042,0.40075207,-0.12115578,0
0.46272001,2.6422992,2.7758322,0.11986962,0.68449903,0.71909136,0
2.1383457,-1.0297023,-3.1414559,0.54311311,-0.26153153,-0.7978906,0
3.5787041,-0.87796098,-1.2988255,0.91596526,-0.22471312,-0.33243293,0
2.7672343,-2.0011606,1.6281165,0.73144341,-0.5289526,0.43034846,0
-3.5852668,0.5850116,1.4368666,-0.91776294,0.1497523,0.36781165,0
1.7668458,2.7404456,-1.8512045,0.4712218,0.73088306,-0.49372044,0
-2.9978302,-2.2804506,-0.63713241,-0.78474599,-0.59695661,-0.166783,0
-3.0486736,0.6446541,-2.155869,-0.80457693,0.17013097,-0.56895643,0
-3.3970919,-1.291925,-1.4761609,-0.86598665,-0.32933751,-0.37630293,0
-1.5410017,-3.1196504,1.8348761,-0.39174762,-0.79306573,0.46645525,0
0.70523143,-2.7704353,-2.7291698,0.17843367,-0.70095986,-0.69051909,0
3.2461457,2.0393639,-0.30614489,0.84407514,0.53028315,-0.079604961,0
0.88687396,-2.3575659,2.7837505,0.23623587,-0.62798285,0.74150532,0
0.7359913,2.0163152,3.2979953,0.18703863,0.51240939,0.83812475,0
3.4070611,-0.19811094,-1.918063,0.87028515,-0.050604612,-0.48994184,0
0.66156596,-1.9806594,-3.3353639,0.16811748,-0.50332618,-0.84758437,0
-1.0759753,1.6564587,3.2905591,-0.28035635,0.43160725,0.85738879,0
3.6280129,0.65673566,0.91464043,0.95505953,0.17288297,0.24077535,0
3.7978647,0.16894035,0.44615048,0.9922027,0.044136137,0.11655805,0
3.1061473,0.16886476,2.2932932,0.80372399,0.043694209,0.59339577,0
1.0343525,1.4138361,3.3083351,0.27630523,0.37767616,0.88375115,0
-2.9848845,-1.9950438,1.314356,-0.78071845,-0.52181834,0.34377944,0
-3.1722322,-2.2586346,-0.64500308,-0.80366313,-0.57220948,-0.16340707,0
0.04395524,-3.429863,1.5826364,0.011635608,-0.90793592,0.41894746,0
3.3368664,-0.22364362,1.8781958,0.8699581,-0.058306374,0.48966649,0
-0.056959245,1.4851229,-3.55585,-0.01477946,0.38535121,-0.92265165,0
0.49642867,2.4158967,3.0010674,0.12779705,0.62193114,0.77257335,0
-1.742651,-2.1089466,2.582149,-0.46323547,-0.56060499,0.68639272,0
0.38380003,-2.7567456,-2.6466031,0.099928081,-0.71775997,-0.68908268,0
-0.072382741,-3.4343829,-1.7595115,-0.018754205,-0.88984084,-0.45588544,0
-1.234816,-3.3057516,-1.5589662,-0.32007736,-0.85688579,-0.40410051,0
2.407547,-2.423537,-1.8462298,0.62000823,-0.62412608,-0.47545391,0
-0.058774229,-2.0614367,-3.2241535,-0.015356621,-0.53861535,-0.84241182,0
-3.3367455,-1.3274295,1.3248088,-0.8717432,-0.3467983,0.34611365,0
0.098624438,3.8624065,0.072665595,0.025521619,0.99949741,0.018804099,0
0.81861573,-3.4723556,-1.6328077,0.208647,-0.88502645,-0.41616648,0
1.4371998,-0.96884191,3.5393901,0.36467898,-0.24583657,0.89809442,0
-1.2651273,-0.99501067,3.5024354,-0.3282156,-0.25813848,0.90864682,0
-2.1942406,-3.1457527,-0.77566433,-0.56074673,-0.80390936,-0.19822405,0
1.6332381,3.146641,-1.5820296,0.42069691,0.81052613,-0.40750641,0
1.8211843,0.71133775,-3.2764149,0.47731918,0.18643646,-0.85872459,0
2.1307201,-3.0343826,-1.1439431,0.54912454,-0.78201449,-0.29481453,0
-0.62786627,2.486249,-2.8336358,-0.16429119,0.65056652,-0.74146581,0
3.5488017,-1.3747061,-0.77525568,0.91371655,-0.35394815,-0.19960651,0
-0.1408717,-2.0409844,3.3396132,-0.035969354,-0.52113295,0.85271722,0
-2.5023789,-2.0386424,-2.0660374,-0.65297163,-0.53196406,-0.53911251,0
-1.9283404,-0.4978205,-3.2051761,-0.51101857,-0.1319246,-0.84938556,0
2.893574,1.0076694,-2.4089379,0.74240226,0.25853705,-0.61805952,0
2.6985464,2.3431406,-1.3649564,0.70538324,0.61248237,-0.35679108,0
-1.954459,2.8597722,-1.7220099,-0.50525379,0.7392894,-0.44516262,0
-2.0147285,3.1617072,0.8052662,-0.52541095,0.82452577,0.21000133,0
-3.0470762,2.0870287,-0.96287537,-0.79834557,0.54680949,-0.25227702,0
0.080806367,2.0006497,-3.2168078,0.021326225,0.52800673,-0.84897232,0
-3.5014124,-1.3307762,0.68941218,-0.91932118,-0.34940493,0.18101016,0
2.9481139,2.5255702,0.36336401,0.75612766,0.64775431,0.093195036,0
3.4974997,0.89176357,1.0979279,0.92705721,0.23637338,0.29101989,0
-3.6941481,-0.55063778,0.57839513,-0.97742218,-0.14569139,0.15303561,0
-3.611568,0.14512129,1.1651087,-0.95100683,0.038213689,0.30679923,0
-3.3682249,0.28035229,-1.8067937,-0.87885892,0.073151328,-0.47144023,0
2.0744269,2.6219485,1.837359,0.54376429,0.68728477,0.48162228,0
1.8833681,2.0734074,-2.5748281,0.49500936,0.54495776,-0.6767472,0
0.15383515,-3.5767424,1.1485956,0.040915884,-0.95131433,0.30549458,0
3.592941,-0.53431344,1.3931409,0.92352968,-0.13733995,0.35809299,0
3.305671,-0.010608427,-1.7784048,0.88064235,-0.0028261223,-0.4737733,0
-1.1270186,0.39763558,3.7029865,-0.28964263,0.10219194,0.95166379,0
-1.4035856,-0.42828995,-3.620815,-0.35925907,-0.10962427,-0.92677689,0
-0.084019899,3.5370507,-1.6668116,-0.021482881,0.90438151,-0.42618376,0
3.5245609,-0.89642608,1.4623119,0.89917928,-0.22869451,0.37306222,0
-1.142313,3.4830742,-1.1919596,-0.29635549,0.90362984,-0.30923551,0
0.88837355,3.1676071,2.1133471,0.2271975,0.81010109,0.54047889,0
-0.96650279,-1.8279707,3.3559673,-0.24519062,-0.46373513,0.85137028,0
2.2715499,-3.0872025,-0.66121173,0.58402592,-0.79373395,-0.17000057,0
3.2347651,-1.2178125,1.7679062,0.83320808,-0.31368315,0.45537579,0
-2.2606626,-3.0835395,-0.3020404,-0.58942538,-0.80397511,-0.07875137,0
1.0881038,2.3283863,-3.0271406,0.27401173,0.58634585,-0.76230967,0
-2.8588207,0.51898676,2.5695512,-0.73704457,0.13380216,0.66246682,0
2.6674762,2.0328243,1.7237933,0.70739496,0.53908998,0.45713723,0
-1.6862952,0.82425541,3.2906942,-0.44512561,0.21757591,0.86863339,0
3.3507195,-0.34050462,1.6751866,0.89077353,-0.090521604,0.44534075,0
-1.365798,1.8253719,3.146286,-0.3515186,0.46980017,0.80976695,0
-1.7642306,2.9387603,-1.5910517,-0.46686056,0.77767116,-0.42103299,0
0.80569834,-2.6529255,-2.7170932,0.20754836,-0.68339515,-0.69992483,0
-1.7097903,3.3486106,-0.23907088,-0.45383143,0.88882524,-0.063456833,0
-1.0388749,3.0725286,-2.0717525,-0.26993459,0.79834622,-0.53831095,0
-3.80301,-0.60992283,0.51476121,-0.97868031,-0.15695974,0.1324705,0
-1.5518683,1.0751978,3.2961316,-0.40854445,0.28305629,0.86773878,0
-1.3021384,-0.091870405,3.590029,-0.34087497,-0.024049917,0.93980098,0
3.6977317,0.74855697,-0.72430682,0.96254057,0.19485362,-0.18854117,0
3.2235956,1.6546094,1.2469354,0.84123272,0.43178853,0.32540148,0
1.595593,3.3638484,-1.009869,0.41362113,0.87200111,-0.26178554,0
-2.7498698,2.4815862,0.9286592,-0.72010642,0.6498512,0.24318732,0
-2.3625836,1.7240924,2.4937584,-0.61468267,0.44856387,0.64881092,0
-3.1276345,1.8485343,-1.3648716,-0.80588657,0.47630534,-0.35168168,0
-1.630476,-3.3214848,0.97728115,-0.42604747,-0.86791229,0.25536603,0
0.41910529,-3.4408345,-1.4331046,0.11173646,-0.91735107,-0.38207594,0
0.91700208,-2.3451779,2.9469266,0.23657085,-0.60501581,0.76025665,0
1.4673047,3.2191825,1.5448095,0.38009307,0.83390242,0.40017003,0
-1.5723488,-0.21532483,3.4423356,-0.41480684,-0.056805596,0.90813458,0
-0.14927946,3.3908951,1.8976723,-0.038388483,0.87199754,0.4880026,0
-2.7622335,0.44716248,2.5218771,-0.73328531,0.11870745,0.6694783,0
-3.0098736,0.04418854,2.4917145,-0.77024645,0.011308137,0.63764608,0
-3.2332041,-1.9273266,-0.63417548,-0.84702802,-0.50491697,-0.16613996,0
-2.6909032,-2.3120673,-1.6765903,-0.68575972,-0.58921576,-0.42726848,0
-0.69616598,-1.4704888,3.4152188,-0.18402731,-0.38871491,0.90279269,0
-2.6526148,-2.594233,-1.0563172,-0.68760717,-0.67247349,-0.27381709,0
-3.1057334,1.0916331,1.7412475,-0.83394742,0.29312387,0.46755749,0
0.17294954,3.3427525,1.7701217,0.045675855,0.88281864,0.4674879,0
0.86701703,1.3975017,3.4019294,0.22945428,0.36984596,0.90031362,0
-3.0794203,0.24475591,2.3560057,-0.79263645,0.062999666,0.60643101,0
-0.064357683,-3.5553331,-1.3372999,-0.016940394,-0.93584388,-0.35200751,0
2.8939455,-2.5661447,0.049762234,0.74814939,-0.6634056,0.012864647,0
-1.071123,2.241643,3.099951,-0.26962417,0.56426865,0.78032285,0
0.77075052,3.5886357,-0.70986497,0.20616654,0.95991707,-0.18988039,0
-1.4267993,-2.252732,-2.7608981,-0.37171972,-0.58689743,-0.71928841,0
-1.519172,0.75847906,-3.3742833,-0.40217099,0.20079246,-0.89327538,0
-1.8361123,-0.53402817,-3.4393649,-0.46658787,-0.1357058,-0.8740021,0
0.65467513,-1.8348576,3.3030221,0.17072201,-0.47848248,0.86134112,0
3.0918272,-1.6155777,1.3809355,0.82407802,-0.4306069,0.36806673,0
2.5332859,-1.0336968,2.7279196,0.65567565,-0.2675457,0.70605153,0
0.43066913,-3.5179362,1.5724548,0.11107261,-0.90730059,0.4055472,0
-1.4669101,2.4026005,2.5873394,-0.38366309,0.62838829,0.67670584,0
0.74758887,-1.1348002,3.5557141,0.1963958,-0.29811838,0.93410605,0
-0.17059034,3.5957823,1.4815627,-0.043822177,0.92370421,0.38059193,0
-3.4456463,1.6803381,-0.054148331,-0.89872658,0.43828195,-0.014123488,0
2.2485819,2.879123,-1.100336,0.5893653,0.75463349,-0.28840393,0
0.62124938,-0.0854766,3.7518156,0.16332063,-0.022470996,0.9863171,0
-1.0742457,2.5412874,-2.5401592,-0.2864446,0.67762715,-0.67732632,0
-3.5188353,0.81965482,1.2437198,-0.92089373,0.21450704,0.3254866,0
3.1276011,0.30888748,-2.1042495,0.82692271,0.081668362,-0.55635345,0
-3.8720841,-0.66727394,-0.11402266,-0.98505932,-0.16975468,-0.029007399,0
0.14008579,1.4620024,-3.5919774,0.036098618,0.37674248,-0.92561442,0
3.4836094,0.6993978,1.2421048,0.92551315,0.18581356,0.32999805,0
2.9635904,-0.64505076,2.2853718,0.78038192,-0.1698568,0.60179126,0
0.83042574,-0.08619567,-3.8336725,0.21165276,-0.021968912,-0.97709799,0
-0.090067759,2.0087297,3.2362058,-0.023639802,0.52722502,0.84939682,0
-0.22135916,3.4846067,1.5565516,-0.057903916,0.91151583,0.4071683,0
1.8488358,-1.4284046,-2.9891074,0.48732448,-0.37650532,-0.78788239,0
-3.300524,0.90282977,1.921276,-0.84105521,0.23006336,0.48958868,0
1.812131,3.3560865,0.51601237,0.47082788,0.87197834,0.13407034,0
-2.8894875,1.6713617,1.9707533,-0.74540538,0.43116367,0.50839818,0
