0.91496861,-4.2834134,-0.26395887,0.20851648,-0.97616714,-0.060154822,0
-2.5772033,2.096215,-2.8054888,-0.59270549,0.48208773,-0.64520663,0
-0.035617303,-1.478748,4.0195503,-0.0083158212,-0.34525362,0.93847251,0
-1.5976957,-2.3104341,3.2462628,-0.37217197,-0.53819937,0.75619411,0
-1.6092628,1.337254,-3.7036026,-0.37831357,0.31436837,-0.87066144,0
-3.3768306,1.6248586,2.1608841,-0.78062516,0.37562013,0.49953365,0
-4.0928369,-0.20671546,1.4250696,-0.94331878,-0.04764387,0.32845065,0
-3.4933627,2.4744849,-1.1367809,-0.78868943,0.55865943,-0.25664872,0
-3.8089476,1.3328729,-1.5042379,-0.88443089,0.30949074,-0.34928137,0
-1.4119112,2.8569181,-3.1128619,-0.31694043,0.64131004,-0.69876331,0
0.28404871,2.4617238,3.4631259,0.066703081,0.5780859,0.81324488,0
-2.6344573,-0.90859765,3.3521557,-0.60434043,-0.2084309,0.76897937,0
-2.0006025,3.7011602,0.87647253,-0.4655183,0.86121947,0.20394556,0
2.9042931,3.0561373,1.1307592,0.66535425,0.70014077,0.25904945,0
-4.4213767,0.46930659,0.062903263,-0.99431431,0.10554139,0.014146185,0
-1.1154007,4.0278935,1.0629457,-0.25864196,0.93399823,0.24647856,0
-2.1224024,-3.6714721,-0.76626581,-0.49249822,-0.85195601,-0.17781009,0
4.422123,0.43117478,0.34783009,0.99224424,0.096747808,0.078046769,0
2.2579265,-3.6928942,0.97114003,0.50899124,-0.83246773,0.21891846,0
2.6563628,1.8774154,2.8331714,0.61580008,0.43522388,0.65678799,0
2.5414667,-0.74081182,-3.5734539,0.57147801,-0.16658005,-0.80353218,0
-4.3566928,0.48264423,-0.41215822,-0.98955476,0.1096251,-0.093615301,0
-4.0596623,-1.0104091,-1.1568201,-0.93529642,-0.23278587,-0.26651713,0
-1.7950408,3.4756212,-1.8585653,-0.41447642,0.80252385,-0.42914429,0
0.17930099,-2.3085942,3.6496048,0.041483782,-0.53412539,0.84438688,0
1.5764605,2.4623792,3.3063536,0.35717651,0.55789793,0.74911606,0
-3.7443919,-0.50889629,-2.1443641,-0.86179954,-0.11712626,-0.4935413,0
-2.0334814,-2.8155408,-2.7062678,-0.46184242,-0.63946307,-0.61464506,0
1.871045,3.3614914,2.0777078,0.42792818,0.76880938,0.47519422,0
0.68447495,3.9604783,-1.7702405,0.15585399,0.90179539,-0.4030813,0
-2.2058771,1.0467771,3.5765302,-0.50938201,0.24172218,0.82589376,0
2.6489515,-1.693566,2.9384487,0.61554295,-0.39353779,0.68281406,0
4.0293193,-1.4993227,-0.19965991,0.93620974,-0.34836665,-0.04639085,0
1.8332012,2.2800841,3.29005,0.41638038,0.51788223,0.74727869,0
-1.0233474,4.1197543,-0.45541695,-0.23969845,0.96496928,-0.10667223,0
3.1176059,-0.99464351,-3.072243,0.69456208,-0.22159365,-0.68445581,0
-1.809864,-3.862947,1.0285507,-0.41244328,-0.8803128,0.23439266,0
3.0558317,-3.1200716,-0.62832016,0.69258273,-0.70714229,-0.14240433,0
3.5857725,-0.91474044,2.3063946,0.82233036,-0.20977874,0.52892876,0
-2.3725495,1.6032577,-3.3229876,-0.5408712,0.36549538,-0.75754303,0
2.2920074,-0.61305588,-3.5966709,0.53194469,-0.14228219,-0.83473986,0
-3.0880654,-1.4754514,-2.6944757,-0.70894903,-0.33872983,-0.61858988,0
-0.58205014,1.6340202,4.0071483,-0.13329999,0.37422013,0.91770929,0
2.3335888,3.4527433,1.1993731,0.53812242,0.79619795,0.27657384,0
2.002094,2.5740328,-2.8265066,0.46393564,0.59646827,-0.65497279,0
2.7024815,1.8940164,-2.7550631,0.62863582,0.44057527,-0.64086699,0
-1.1747898,-2.6576974,3.2213778,-0.27079558,-0.61261404,0.74254549,0
-2.8049664,1.7564409,-2.8922834,-0.63818127,0.3996225,-0.6580475,0
-0.20969903,4.0750327,-1.4219875,-0.048529074,0.9430542,-0.3290799,0
3.546402,0.59317839,-2.2937,0.8315205,0.13908181,-0.53780103,0
3.9287987,-1.5942034,0.20186038,0.92557198,-0.3755728,0.047555584,0
-3.8980978,-1.3668616,-1.5845352,-0.88106996,-0.30894572,-0.35814556,0
-4.1298399,1.2429879,-0.31056389,-0.95509535,0.28746197,-0.071823157,0
3.9750185,-1.7445761,0.59269762,0.90727341,-0.39818874,0.13527958,0
-3.204006,2.2181373,-1.8614117,-0.74190181,0.51361954,-0.43101814,0
-0.74533433,4.2708654,0.75359875,-0.16937786,0.97055781,0.17125596,0
-3.6562722,-0.46776953,2.3333235,-0.83811116,-0.10722475,0.53485745,0
-3.5748971,-0.44197002,-2.4971702,-0.81561947,-0.10083629,-0.5697341,0
0.11501765,-4.1657186,0.90333742,0.026973553,-0.97693038,0.21184766,0
3.3359005,-2.7917321,0.99848413,0.7474457,-0.62551868,0.22372149,0
-0.69185281,-4.2368865,-0.52000898,-0.15998884,-0.97976696,-0.12025048,0
3.9865606,-0.70591998,-1.3321458,0.93534857,-0.16562679,-0.31255531,0
3.4455111,-2.2944999,-1.3381463,0.79197919,-0.52740973,-0.30758399,0
-0.92440289,-3.3620205,-2.5273006,-0.21465868,-0.78070599,-0.58687288,0
-2.4367661,-2.2191534,2.9459417,-0.55123907,-0.5020113,0.6664235,0
-0.59631771,-4.2853079,-0.85545665,-0.13520843,-0.97164607,-0.19396532,0
-1.3805497,-2.0244358,-3.5469425,-0.32023594,-0.46959347,-0.82275814,0
-1.7903137,3.1406724,2.6063557,-0.40171325,0.70470876,0.58481795,0
-3.4616241,-0.45929521,-2.4642258,-0.80994552,-0.10746519,-0.57657576,0
-4.0127721,-1.3297536,1.2688617,-0.90916646,-0.30127987,0.28748366,0
0.36164549,-3.6337483,2.4042635,0.082716353,-0.83111888,0.54990846,0
-3.9549298,-1.6061174,-0.10113655,-0.92625344,-0.37615627,-0.023686407,0
0.29864672,1.5730838,-4.0976062,0.06788449,0.35757297,-0.9314146,0
3.2983301,-0.23272598,2.8113441,0.75995976,-0.053621791,0.64775455,0
-1.9284247,1.1575152,-3.736083,-0.44221345,0.26543361,-0.85673356,0
1.3399439,-1.0782851,-3.9921458,0.30825406,-0.24805947,-0.91839308,0
-2.5603867,3.0720592,-1.3650789,-0.6059078,0.72699356,-0.32304183,0
-2.8216038,2.0447986,-2.5972342,-0.64923197,0.47049436,-0.59760606,0
-3.541213,-1.3413675,-2.2156777,-0.80714488,-0.30573645,-0.50501704,0
-0.24339673,-2.1915739,3.814338,-0.055244133,-0.49742493,0.8657462,0
0.16103961,-2.8586414,3.3883331,0.036302455,-0.64441103,0.76381713,0
2.0903416,-1.1983142,3.6373296,0.47910795,-0.27465457,0.83367884,0
1.4186556,-0.92641979,3.9296944,0.33150741,-0.21648315,0.91827983,0
1.5580786,0.57304251,-4.0010452,0.35968524,0.13228789,-0.92364842,0
-2.4948978,3.3867066,1.1964568,-0.57048327,0.77440423,0.27358177,0
-3.1841929,0.58685064,-2.9056094,-0.73192984,0.13489556,-0.66789365,0
-1.4564644,3.4990153,-2.2024667,-0.33225903,0.79822028,-0.50244236,0
-2.9524186,-2.4711535,-1.9579833,-0.68352777,-0.57210791,-0.45330155,0
3.5860083,-2.3370571,-0.98312443,0.81652528,-0.53214216,-0.22385502,0
-4.1295123,-1.2347815,-0.52233911,-0.95112699,-0.28440017,-0.12030739,0
-1.8814393,-3.1009934,-2.5220284,-0.42588085,-0.70193797,-0.57088399,0
-2.5822425,0.14200258,3.410399,-0.60331845,0.033177666,0.79680997,0
0.48169184,0.97214729,-4.1831155,0.11146346,0.22495483,-0.9679727,0
1.6563028,2.2656198,-3.4092817,0.37508285,0.51306748,-0.77205873,0
3.7689865,-0.14877813,1.9753309,0.88518441,-0.034942042,0.46392637,0
3.3702102,1.5406549,-2.407845,0.76262271,0.34862468,-0.54485542,0
-0.75266391,0.044228625,4.205616,-0.17615795,0.010351531,0.98430747,0
3.7163839,1.2711327,-2.0981107,0.83457667,0.28545427,-0.47116613,0
4.2121816,1.0036707,-0.36087531,0.96940535,0.23098809,-0.08305303,0
3.0661118,-0.26382649,-3.0535822,0.70723981,-0.060855117,-0.70434964,0
3.9738328,1.3260442,-1.3141958,0.90508956,0.30202296,-0.29932433,0
0.38686851,-0.98612905,-4.2676964,0.087980688,-0.22426304,-0.97054899,0
3.9043317,-0.81384706,-1.5958414,0.90889734,-0.18945712,-0.37149918,0
-3.5138142,-0.71767443,2.633209,-0.789756,-0.1613027,0.59183341,0
1.5615385,-1.9566772,3.5603201,0.35878131,-0.44956893,0.81802422,0
-3.8241003,0.45917892,-1.7854309,-0.90078998,0.10816237,-0.42056906,0
-0.35491705,-3.8832123,1.8928989,-0.081880845,-0.89587331,0.43669969,0
1.9972667,3.3730841,-1.7591597,0.46484008,0.78504527,-0.40942353,0
-0.9066999,-3.1918156,-2.6128902,-0.21468554,-0.75574803,-0.61867195,0
0.95846087,4.2563529,-0.34127611,0.21901366,0.9726004,-0.077983499,0
-4.3070436,0.69832414,0.40257224,-0.98293489,0.15936853,0.091873303,0
1.61405,2.31161,-3.246299,0.37538934,0.53762507,-0.75501132,0
-1.9312977,3.8898592,0.65319407,-0.43975461,0.88571715,0.14873165,0
2.5848024,-1.1138151,3.2991977,0.59603733,-0.25683796,0.76077187,0
-2.2411268,3.5298529,-1.3713226,-0.50930709,0.80217642,-0.31163982,0
-1.706226,1.5555785,3.7298307,-0.38895905,0.35461676,0.8502692,0
-1.1145056,-1.5258846,-3.778177,-0.26382938,-0.36121234,-0.8943823,0
-3.0304093,-0.050722599,3.060127,-0.70359939,-0.011776756,0.71049923,0
3.6255231,2.0575755,0.81545579,0.85352504,0.48439693,0.19197559,0
-0.16490951,3.7403965,-2.0919676,-0.038450904,0.87212449,-0.4877708,0
-1.4215796,4.123827,-0.63691467,-0.32248303,0.93548346,-0.14448306,0
-3.9780552,0.38167995,1.7339102,-0.91318017,0.087616317,0.39802673,0
-1.4441482,-3.9986169,-1.2117612,-0.32667628,-0.90451479,-0.27410877,0
3.1556258,-2.0756743,-2.07623,0.73214346,-0.4815816,-0.48171055,0
3.8190632,-0.053356644,1.9272189,0.89269781,-0.012472001,0.45048326,0
2.4029288,-3.2521379,-1.5298308,0.55581003,-0.75223649,-0.35385787,0
-1.1736327,3.983633,-1.1172115,-0.27290165,0.92630339,-0.25978217,0
-2.9429004,-3.1990559,0.34262201,-0.67493433,-0.73368186,0.07857804,0
2.9000978,-1.0409358,-3.1013005,0.66337264,-0.23810516,-0.709396,0
-3.0844851,0.2339623,3.0731518,-0.70738655,0.053656209,0.70478743,0
2.5123591,-3.6195185,0.64567631,0.56418687,-0.81281567,0.14499603,0
1.1534715,0.99931246,4.0287008,0.26774609,0.23196238,0.93515003,0
3.5923491,1.6640843,-1.7113715,0.83289015,0.38581979,-0.39678341,0
3.6689975,-1.2840767,1.8843912,0.84932941,-0.29724851,0.43621421,0
-2.1024206,0.24349152,3.7663195,-0.48664245,0.05636042,0.87178135,0
-0.90181673,3.441901,2.4839933,-0.20782177,0.79317886,0.57243103,0
-1.2544423,-3.8777866,-1.3911233,-0.29128939,-0.90044641,-0.32302758,0
-4.0826607,-1.1448865,1.2321638,-0.92460912,-0.25928494,0.27905083,0
-3.2421522,1.3075445,-2.63184,-0.74092436,0.29881126,-0.60145062,0
4.2363815,0.57294804,-0.76531565,0.97546971,0.13192707,-0.17622167,0
0.0027540326,2.0597878,3.8777711,0.00062721636,0.46910575,0.88314182,0
1.4408702,4.0227146,-1.2429464,0.32378489,0.90396363,-0.27930847,0
-2.3311081,2.8585529,2.1862912,-0.54366016,0.66667068,0.50988603,0
-0.93464655,3.5852616,2.2972116,-0.21439528,0.82241058,0.52694935,0
-2.87796,-0.77237993,3.1839364,-0.65995979,-0.17711841,0.73012477,0
-0.033309706,0.60268706,4.2140489,-0.007824582,0.14157359,0.98989683,0
-0.71382588,4.2278485,1.1623162,-0.16068347,0.95169616,0.26163942,0
-1.9585556,-0.099590763,3.8388197,-0.45434424,-0.023102989,0.89052653,0
-2.0328324,0.86324638,-3.7115831,-0.47067592,0.19987348,-0.85936886,0
3.8290954,-2.0537329,0.36157903,0.87821144,-0.47102815,0.082928948,0
2.8087084,-2.8184171,1.7211761,0.64787054,-0.65010995,0.39701498,0
2.2565324,-3.6762643,0.12579829,0.52290219,-0.85189408,0.029151009,0
2.3850231,-3.7789226,0.24855725,0.53290296,-0.84435195,0.055536941,0
-2.7452369,-0.56968421,3.2368712,-0.64106411,-0.13303192,0.75586993,0
2.1860576,2.8182583,-2.4695415,0.5039078,0.64963627,-0.56925362,0
-4.1284986,-0.87116498,-0.84981114,-0.95919275,-0.2024017,-0.19744046,0
-2.9048944,2.9797266,1.2040085,-0.67055595,0.68782997,0.27792925,0
1.9293175,-0.98206216,3.8662918,0.43540064,-0.22162786,0.87252927,0
1.9188877,1.1893474,3.7800434,0.43582499,0.27012905,0.85853767,0
-2.7118225,3.3979099,0.99575537,-0.60803652,0.76186889,0.2232652,0
0.26231706,4.0727258,1.6948553,0.059359848,0.921619,0.38352957,0
4.2260594,-0.85422456,-0.98756731,0.95543349,-0.19312429,-0.22327061,0
-2.2960241,-2.8894355,-2.2820506,-0.52914011,-0.66589731,-0.5259198,0
-2.8076367,2.5844612,-1.9074737,-0.65810722,0.60579509,-0.44710988,0
-1.6550437,-4.00737,0.80928528,-0.37524489,-0.90858328,0.1834877,0
-2.4431014,-0.57401282,3.448447,-0.57282889,-0.13458759,0.80855012,0
-0.44590715,1.750316,-3.9734282,-0.10216224,0.40101671,-0.91035622,0
3.5367725,1.5777488,2.1226954,0.80084145,0.35725415,0.48064798,0
3.7805393,1.049576,-1.7864252,0.87693572,0.24346018,-0.41438007,0
-2.8151262,-0.76201105,3.206336,-0.64949912,-0.17580935,0.73975807,0
-2.1741643,1.2730705,-3.4657149,-0.50742197,0.29711828,-0.80885333,0
0.36657417,-3.6346216,2.3011162,0.084906131,-0.84185326,0.53298593,0
-1.8449476,3.7273159,-1.3465747,-0.42204031,0.85264075,-0.30803519,0
-3.8285131,-0.66876858,1.9914849,-0.87668979,-0.15314107,0.45602939,0
1.3815476,2.2341762,3.3568797,0.32411715,0.52414757,0.78753877,0
0.42601573,-1.951275,3.9207275,0.096819088,-0.44345936,0.89104986,0
-3.5222721,-1.0762013,2.1495678,-0.82596797,-0.25236773,0.5040707,0
-0.47432667,-4.040915,1.5651183,-0.10880776,-0.92696226,0.35902897,0
2.4156294,1.5228215,-3.2145674,0.5618093,0.35416663,-0.74762046,0
-4.1118441,-0.42501247,1.4293565,-0.9400875,-0.097170249,0.32679257,0
3.7553079,2.3259993,0.56860894,0.84317815,0.5222559,0.12766959,0
-1.7609239,3.9294915,0.55572808,-0.40558144,0.90505272,0.12799701,0
-3.754982,1.9893798,-0.67982042,-0.87255162,0.46227559,-0.15797104,0
-1.6418074,1.4563702,-3.7720206,-0.3762143,0.33372203,-0.86434501,0
3.0875723,1.4566958,2.7198448,0.70735884,0.33372712,0.62311298,0
-1.3881948,2.7770479,3.0673804,-0.318073,0.63629687,0.70281988,0
2.7733619,-1.0707018,-3.2622516,0.62836152,-0.24258927,-0.73912942,0
2.5909379,-0.31603202,-3.3483047,0.61028355,-0.074439891,-0.78867781,0
3.8380351,-1.7783309,0.95125467,0.88522714,-0.41016477,0.21940301,0
-3.0729947,1.0493236,2.9704559,-0.69826394,0.23843348,0.67496449,0
2.9892454,-3.1637247,-0.46108955,0.68295783,-0.72282141,-0.10534589,0
-2.2872753,-3.0337043,-2.0272546,-0.53113872,-0.7044704,-0.47075808,0
3.4760394,-1.8065491,1.8373826,0.80334747,-0.41751155,0.4246375,0
-1.3053718,-4.2139101,0.51096624,-0.29393914,-0.94887382,0.11505762,0
-2.084537,-0.91911411,3.8226261,-0.46843487,-0.20654231,0.8590163,0
3.6192458,-0.3441976,-2.4544985,0.82507467,-0.078466274,-0.5595488,0
2.7262013,0.62935078,-3.2850883,0.63178217,0.14584859,-0.76130116,0
1.1129464,2.2676759,3.5532174,0.2552847,0.52015352,0.81502759,0
2.5927718,1.0755823,-3.3936379,0.58871734,0.24422279,-0.77056283,0
-1.3997833,0.99467963,4.0662823,-0.3171232,0.22534633,0.92122298,0
3.2180758,0.051674545,-2.9735253,0.73441172,0.011792882,-0.67860174,0
-0.96198827,-1.9843583,-3.8581111,-0.21647458,-0.44653675,-0.86818415,0
0.41447914,2.3179352,-3.6648111,0.095149502,0.53211457,-0.84130883,0
1.8276168,-1.1562815,-3.7286165,0.42399937,-0.2682524,-0.86502326,0
0.65132177,4.3401732,0.21854313,0.14822271,0.98770267,0.049734335,0
-3.8332493,-0.19496222,1.8980732,-0.89522588,-0.045531925,0.4432804,0
4.1381059,1.373125,0.58430231,0.94070214,0.31214803,0.13282755,0
1.5210676,-2.2384369,3.2937586,0.35680762,-0.52508605,0.77264029,0
3.4494188,1.8327668,1.978941,0.78775764,0.4185563,0.45193869,0
-0.86278737,-2.100704,3.7159507,-0.19811618,-0.48237082,0.85326928,0
1.4987429,-4.0707221,-1.101864,0.33486873,-0.90953398,-0.24619286,0
-1.1651595,-1.3922246,-3.8856387,-0.27167296,-0.32461631,-0.90599012,0
-3.3301427,2.612963,-0.70071346,-0.77616584,0.60901076,-0.16331728,0
-0.26372406,0.76983869,4.2623949,-0.060774606,0.17740756,0.98225909,0
-2.2781796,-3.0564721,1.9920927,-0.52965802,-0.71060461,0.46314517,0
0.097189583,4.4267149,0.16465594,0.021934789,0.99906856,0.03716132,0
-0.28749594,-1.4441681,-4.028861,-0.067022845,-0.33667347,-0.93923318,0
3.8355038,-0.6647352,-2.1089559,0.86633754,-0.15014586,-0.4763566,0
-0.65580851,1.5513062,4.0236859,-0.15034725,0.3556444,0.92244929,0
-2.3935506,-1.8514853,3.0389936,-0.55811214,-0.43171698,0.70861226,0
-3.2294672,2.5870097,1.6024107,-0.72779697,0.58301193,0.36112139,0
4.0151877,-0.81331265,1.6772724,0.90702051,-0.18372522,0.3788915,0
3.3921406,-0.87054271,-2.4382219,0.79492497,-0.20400573,-0.57138067,0
2.6563103,1.1951978,3.3196859,0.60146183,0.27062571,0.75166833,0
-3.0414538,2.8352358,1.0360171,-0.70976943,0.66164529,0.2417703,0
-3.3165414,-1.1754131,2.6607237,-0.75181067,-0.26644871,0.60314655,0
-1.2377639,-3.5085721,-2.2121327,-0.28595865,-0.8105799,-0.51106554,0
2.6431596,1.2314526,3.3194251,0.59823036,0.27871656,0.75129056,0
-2.5139501,2.5575776,2.4624295,-0.57788587,0.58791459,0.56604278,0
-4.2622433,0.59642911,0.3768504,-0.9865759,0.13805467,0.087229073,0
1.9092457,3.0623014,-2.2747304,0.44756722,0.71786767,-0.53324449,0
-4.1585774,-1.0160094,-0.16980131,-0.97066438,-0.2371494,-0.039633766,0
0.5274868,0.68070859,4.3591223,0.11871319,0.15319641,0.98103929,0
-3.644177,1.5685674,-1.7548641,-0.8400206,0.36157104,-0.40451437,0
0.83892351,-1.4228275,-4.1306796,0.18857811,-0.31983146,-0.92851824,0
2.8164473,2.6099627,-2.1290681,0.64147466,0.59444571,-0.48491704,0
-2.15674,1.6886263,-3.3792267,-0.49580675,0.38819346,-0.77684075,0
-0.28808999,1.3729541,4.1165633,-0.066242307,0.3156918,0.94654673,0
-2.5286725,3.627537,-0.41539022,-0.5693453,0.81676102,-0.093527518,0
-0.48326641,3.8030987,-2.2971809,-0.10813157,0.85094893,-0.51399761,0
0.62965387,-1.7928416,3.9548514,0.1435055,-0.4086096,0.901357,0
3.9781024,-1.4182428,-1.3315785,0.89833683,-0.32026821,-0.30069765,0
-0.26534942,-3.058197,-3.102083,-0.060801938,-0.70075262,-0.71080863,0
-2.6053462,-2.4056146,-2.3343642,-0.61367583,-0.56663013,-0.54984742,0
1.1166399,0.66557652,-4.151269,0.25669605,0.15300444,-0.9543044,0
1.058225,-3.0805814,2.7339475,0.24884406,-0.72440583,0.64289409,0
-3.223094,2.1317327,2.0180733,-0.73932654,0.4889856,0.46291396,0
2.7541752,3.3846447,-0.37357986,0.62886506,0.77282119,-0.085300066,0
0.68576795,-3.4332459,2.5456605,0.15842269,-0.79313135,0.58808577,0
0.93863332,3.5122507,2.3236072,0.21754634,0.81403172,0.53854072,0
2.6484585,-2.2348683,-2.5073724,0.61917931,-0.52248669,-0.58619499,0
-0.87256461,4.1624198,0.78879505,-0.20172919,0.96231449,0.18236241,0
-0.03113476,2.3216741,3.7460554,-0.0070644021,0.52678227,0.84997094,0
2.7249537,1.6537985,2.9801052,0.62446648,0.37899423,0.68293852,0
-0.12328783,3.1327038,2.9472082,-0.028652171,0.72804236,0.68493307,0
-0.85797691,-2.1557927,-3.6223478,-0.19944879,-0.50114435,-0.84206569,0
3.0623507,-1.5343081,-2.5269027,0.71946192,-0.36046696,-0.59366494,0
-3.1748605,-0.83243871,-2.8392925,-0.73156035,-0.19181289,-0.65423787,0
-0.067778222,-4.3818398,0.3804085,-0.015408192,-0.99613452,0.086479209,0
-2.5699911,1.6545397,3.0765371,-0.59260702,0.38151565,0.70941007,0
1.6934497,0.057690755,-3.9238966,0.39621055,0.013497706,-0.91806048,0
1.6980674,3.5705588,-1.6791314,0.3953079,0.83122146,-0.3908996,0
3.4001818,-2.2543976,-1.5537925,0.77887106,-0.51640922,-0.35592332,0
-2.1078069,2.8748641,2.7033789,-0.47113213,0.64258295,0.60425299,0
-2.4443288,-1.603106,-3.2203093,-0.56202483,-0.36860237,-0.74044609,0
-0.50786626,3.231576,2.686794,-0.11997255,0.76339078,0.63469768,0
1.3418598,3.8243282,-1.5649024,0.30886149,0.8802616,-0.36020014,0
1.6273643,3.2266357,2.3882277,0.37569222,0.74489897,0.55134463,0
-1.4745841,1.6450655,-3.7374866,-0.33964112,0.37890813,-0.8608557,0
2.2085953,-3.7691572,0.25259468,0.50472134,-0.86135024,0.057724439,0
-3.377871,2.7464216,-0.30784559,-0.77396762,0.62928438,-0.070536301,0
-3.6731348,0.28757069,-2.4347186,-0.83174855,0.065117814,-0.55132025,0
-1.9375092,0.48318741,-3.8927019,-0.44286022,0.11044308,-0.88976234,0
2.8416901,-0.51986182,-3.3326278,0.64431179,-0.11787108,-0.75562471,0
-3.7293901,1.6986791,-1.7396573,-0.83768952,0.38155451,-0.39075896,0
3.0380142,1.7199925,-2.6506398,0.69307977,0.39239186,-0.60470581,0
-2.0487158,-1.1301042,-3.6348298,-0.47393566,-0.26143044,-0.84085619,0
-3.6509006,-0.1656251,-2.4773512,-0.82689822,-0.037512686,-0.56109917,0
2.3251367,0.78700393,-3.6775148,0.52586937,0.17799437,-0.83173275,0
4.1391726,-0.44316494,-1.6173726,0.92682153,-0.099231139,-0.36215347,0
-0.56094629,2.7840507,-3.2527459,-0.12990592,0.64474034,-0.75328243,0
-4.0116377,1.3755996,-1.0510327,-0.91815645,0.3148379,-0.24055323,0
-2.6015899,-2.9643085,1.5972209,-0.61139441,-0.69663614,0.37535965,0
0.58132219,-4.0064068,1.3672187,0.13604549,-0.93761009,0.31996703,0
-2.5908992,-0.54259259,3.3543141,-0.606341,-0.12698144,0.78500086,0
0.2897298,-3.8051195,2.0098257,0.067175373,-0.8822369,0.46598864,0
1.0318867,-3.7390239,-1.9363319,0.23802193,-0.86246842,-0.44664735,0
-3.0501428,-2.9182427,-0.72266883,-0.71219623,-0.68139803,-0.1687403,0
0.44277912,-3.3415644,-2.8724484,0.099980287,-0.75453103,-0.6486038,0
1.1019347,1.779228,3.800225,0.25399625,0.41011256,0.87595296,0
-0.74126506,2.3646803,3.5226021,-0.17210861,0.54903686,0.81788576,0
-1.2288973,-1.7842058,-3.7569935,-0.28335938,-0.41140252,-0.8662883,0
0.96935481,1.8663015,-3.8560331,0.22069743,0.42490938,-0.87792063,0
2.9875183,2.3290443,2.340127,0.67095602,0.52307171,0.52556074,0
-3.944932,0.29702511,1.8855712,-0.90016067,0.067775652,0.43025255,0
-1.6211085,3.8932712,-0.60556698,-0.38049299,0.91379595,-0.14213361,0
3.1850138,1.0258257,-2.6786284,0.74308217,0.2393311,-0.62493956,0
-4.1474128,0.79103446,1.2004173,-0.94484711,0.18021032,0.27347431,0
0.019886304,0.95014119,4.3521223,0.004464142,0.2132908,0.9769786,0
3.8516786,-1.426288,-1.1710179,0.90183192,-0.33395106,-0.27418211,0
2.8359418,-3.3737891,-0.52124339,0.63899934,-0.76018804,-0.11744747,0
-4.2206116,0.75775576,-0.36043268,-0.98080403,0.17609057,-0.083758913,0
-3.0199726,0.27415943,-3.0607195,-0.70092934,0.063631833,-0.71038657,0
-3.5512371,2.4484422,-0.56224555,-0.81638122,0.56286365,-0.12925261,0
-1.076568,-4.2001758,-0.353365,-0.24746832,-0.96548516,-0.081227235,0
3.6332638,-1.1511388,2.1005127,0.83489382,-0.26452214,0.48268035,0
-0.39558521,0.57768834,4.2751737,-0.091314323,0.13334982,0.98685336,0
1.2504866,-1.3416802,-3.9407949,0.2876873,-0.30866733,-0.90662038,0
-0.13466991,-2.6724222,-3.3795218,-0.03124168,-0.6199674,-0.7840054,0
-3.6122141,-0.072197616,2.4552355,-0.82692742,-0.016527865,0.56206566,0
0.70548242,2.9461372,-3.0908411,0.16300797,0.68073112,-0.71416622,0
2.6340437,-1.4458541,3.0858483,0.61155802,-0.33569056,0.71645558,0
-3.9635856,0.52179456,1.8285631,-0.90160877,0.11869419,0.41594878,0
-3.0538962,-2.5016034,-1.5943466,-0.71729922,-0.58757669,-0.37448019,0
-2.0021169,2.5498953,2.9272709,-0.45836094,0.58376831,0.67016399,0
-0.81820112,1.9489324,-3.8987877,-0.18449146,0.43945354,-0.87911516,0
1.4722854,-4.159225,0.30390358,0.33290258,-0.94045407,0.068716496,0
1.3179429,3.9828212,-1.1642808,0.30271244,0.91479653,-0.26741847,0
0.94277048,-3.8670683,1.5599656,0.22052567,-0.90455508,0.36489522,0
-2.4665475,-2.0610571,3.0338643,-0.5580461,-0.46630558,0.68639916,0
1.6099406,-0.41215035,3.9675238,0.374273,-0.095815182,0.92235518,0
-2.8901324,-3.2366433,0.53199542,-0.66110069,-0.740363,0.1216908,0
1.6846428,-2.7907043,2.7861495,0.39285526,-0.65078652,0.64972436,0
-4.1179581,-0.44468063,-1.08398,-0.96182656,-0.10386353,-0.2531839,0
3.869324,1.2495643,1.7148113,0.87682182,0.28316191,0.38859087,0
-4.1409307,0.73056936,0.73498064,-0.97008336,0.17114829,0.1721817,0
1.2343831,-2.1541908,3.5292714,0.286062,-0.49922276,0.8178907,0
2.3139544,0.32644144,3.6934736,0.52942866,0.074689224,0.84506023,0
-0.8902306,1.7302247,-3.8705478,-0.20549501,0.39939377,-0.89345193,0
-1.3314617,3.3304112,2.6034336,-0.30042255,0.75145286,0.58742225,0
1.7280451,2.4829929,2.9740055,0.40734825,0.5853104,0.70105571,0
0.94459647,2.6668766,3.3641832,0.21489079,0.60670054,0.76533419,0
-1.9886488,0.57509011,3.7375758,-0.46544468,0.13460025,0.87478226,0
-2.5167599,-3.5224187,-1.0253844,-0.56570077,-0.7917462,-0.2304792,0
-3.7852948,-1.9847388,0.34452164,-0.88277912,-0.46286649,0.080346853,0
0.020866359,-2.1253312,3.8546476,0.0047404231,-0.48283312,0.87569952,0
-2.535579,-1.5204682,-3.2400041,-0.5780831,-0.34664944,-0.738684,0
4.1989908,-0.64975083,-0.76971275,0.97241193,-0.15047078,-0.17825183,0
2.2504416,3.6028576,0.36630005,0.52781266,0.84500474,0.08591105,0
-0.71733648,4.2253823,0.60140014,-0.1657497,0.97632819,0.13896114,0
0.18038754,-0.28298497,-4.2791276,0.04202617,-0.065929025,-0.99693888,0
3.0989392,1.8966089,-2.3663609,0.71471298,0.43741775,-0.54575735,0
0.062678576,-4.3823357,0.34564221,0.014256822,-0.99680281,0.078619517,0
-2.7898197,3.3521297,-0.025772393,-0.63968301,0.76861614,-0.0059094005,0
-2.5498514,-0.74028629,3.2919748,-0.60290343,-0.1750381,0.77837586,0
-1.7599565,-3.7465148,1.1412469,-0.40988827,-0.87255138,0.26579279,0
4.3216438,-0.51038176,-0.55741966,0.98505002,-0.11633341,-0.12705496,0
0.079494752,4.1944704,-1.2297003,0.018183801,0.95945221,-0.2812843,0
-2.0479181,3.0131679,-2.4307594,-0.46759361,0.68798554,-0.55500638,0
2.5418859,3.2962062,-1.4167907,0.57809776,0.74965185,-0.32221887,0
-4.0806165,-0.21934338,1.701001,-0.92188317,-0.049553536,0.38428614,0
0.50658417,2.1195011,-3.7398956,0.11703514,0.48966414,-0.86402065,0
-3.8604739,-0.66256601,2.0368443,-0.87442732,-0.15007634,0.46136102,0
-0.79369211,-4.1832609,0.86153913,-0.18270256,-0.9629584,0.19832048,0
4.1001649,-0.51424307,-1.5901622,0.92602861,-0.11614259,-0.35914057,0
-2.3124969,2.666878,-2.5307722,-0.53242242,0.61401409,-0.58267748,0
-2.5871935,3.2229378,1.4688138,-0.58985525,0.73479885,0.3348754,0
1.3935429,1.321673,-3.9184797,0.31933731,0.30286798,-0.89793915,0
-4.0092845,-0.88319737,-1.3198681,-0.92971927,-0.20480603,-0.30606627,0
-4.2258368,0.76988,-0.62288231,-0.97362286,0.17737855,-0.14351062,0
3.7314618,-0.0081992801,-2.0083015,0.88056278,-0.0019348934,-0.47392568,0
-1.4536737,-0.42518699,-4.0123868,-0.33895209,-0.099140555,-0.93556541,0
3.6835101,0.16818054,-2.3123198,0.84631765,0.038640905,-0.53127509,0
0.5945124,-0.81847411,4.1911445,0.13788991,-0.1898351,0.97208488,0
3.1253304,0.18170492,2.9135389,0.73079574,0.042488046,0.68127257,0
-0.96879977,-3.5753233,2.3741865,-0.2201916,-0.81260973,0.53961194,0
-0.4629916,3.5927744,2.4704683,-0.10559252,0.81938875,0.56342918,0
-1.4770136,-3.0190532,-2.917485,-0.33186734,-0.67834526,-0.65552408,0
2.2294362,3.0827127,2.2235658,0.50593603,0.69957387,0.5046038,0
-2.2031229,-3.57654,-1.174772,-0.5050925,-0.81996495,-0.26933065,0
3.6424375,2.2901194,0.21659319,0.8455044,0.53159624,0.050276909,0
-0.15158947,-2.741411,-3.2800815,-0.035438567,-0.64088672,-0.76681703,0
-2.6970272,3.2581725,0.67375576,-0.62971371,0.76073235,0.15731144,0
2.2697775,-3.6120267,0.66053396,0.52579856,-0.83673328,0.15301403,0
1.8612971,1.1393678,3.6914892,0.43403891,0.26569104,0.86082441,0
2.4946642,2.4020979,2.6670585,0.57071608,0.54953927,0.61015552,0
-1.3151324,0.37537906,-4.105557,-0.30391073,0.086745434,-0.94874316,0
-0.55092913,-4.3557124,0.12471379,-0.12543389,-0.99169552,0.028394461,0
1.2445862,-3.9585717,1.5620617,0.28069893,-0.89280015,0.35230103,0
-0.51874429,0.87697446,4.1856804,-0.12041666,0.203573,0.9716264,0
-3.7814012,-1.8287288,0.95273483,-0.87794983,-0.42458656,0.22120197,0
1.1951895,3.6095386,2.0252657,0.27743426,0.8378669,0.47011635,0
0.7292459,-4.0511417,-1.3767967,0.16801332,-0.93335557,-0.31720462,0
-1.4262311,-0.66260856,-4.0017223,-0.33170888,-0.15410766,-0.93070942,0
-2.0825558,-3.1764436,-1.9165788,-0.4895038,-0.74662161,-0.45049098,0
1.2393627,-1.2301533,-3.9780805,0.28527361,-0.28315383,-0.91566533,0
-1.7524343,3.108639,-2.4283934,-0.4059895,0.72018385,-0.56259012,0
2.4815707,-3.5142939,0.39821589,0.57436639,-0.813393,0.092168167,0
0.61832279,3.3914714,-2.7330165,0.14055049,0.77091283,-0.62123996,0
-1.965881,3.6562471,-1.2281252,-0.45410827,0.84457403,-0.28369051,0
-1.6331164,-0.5274632,-3.9517934,-0.37905762,-0.12242786,-0.91723865,0
2.9260385,-3.2471228,-0.9453463,0.65429544,-0.72609347,-0.21139015,0
-0.39074793,-0.73989266,-4.1742368,-0.091783606,-0.17379496,-0.98049527,0
-2.7753725,-0.85654604,3.2311721,-0.63878793,-0.19714516,0.74369609,0
1.4117521,3.7721736,-1.4032446,0.33099771,0.88441932,-0.32900307,0
3.6953189,0.22189611,2.2402928,0.85400033,0.051280919,0.517739,0
-0.82308531,2.7276373,-3.2113543,-0.19172511,0.63536125,-0.74803573,0
-1.1199385,-0.99550891,4.1978617,-0.25126055,-0.2233445,0.94179904,0
-0.60607862,-3.9820857,1.2960629,-0.14323612,-0.94109648,0.30630186,0
-0.32245958,1.8744551,3.8891582,-0.07448253,0.43296638,0.89832759,0
3.7312133,0.77468526,-2.0873156,0.8587383,0.17829372,-0.48039544,0
-0.59996712,3.6979642,2.2111461,-0.13791777,0.85007149,0.50828838,0
3.5400441,0.7104007,2.2259431,0.83459568,0.16748305,0.5247851,0
2.0938835,-3.7725351,0.36545041,0.48356268,-0.87123144,0.084397331,0
3.4127316,-0.47814953,2.5737004,0.793459,-0.11116961,0.5983845,0
1.6996019,0.46560624,4.0689192,0.38329965,0.10500501,0.91763568,0
-4.2869992,0.74669349,-0.86179286,-0.9663986,0.1683237,-0.19427001,0
4.1970263,0.20276462,-1.2697314,0.95613521,0.046192322,-0.28926075,0
-2.1318405,-0.85755974,-3.6700494,-0.49233514,-0.19804803,-0.84757483,0
3.1528287,-0.25858569,3.0452235,0.71802622,-0.058890387,0.69352019,0
0.2411114,-2.1046505,-3.8659189,0.054695003,-0.47743019,-0.87696576,0
-3.3121388,-2.6844766,0.71760386,-0.76609898,-0.62092048,0.16598205,0
4.2292466,-0.24389686,1.0745455,0.96769565,-0.055806141,0.24586719,0
3.5883105,1.7617596,1.828837,0.81627572,0.40076843,0.41602734,0
-3.9237487,1.2548656,-1.603088,-0.88763547,0.28387731,-0.36265263,0
-2.2847357,3.5229323,-1.157202,-0.52456599,0.80885094,-0.26568887,0
1.0237001,3.1930497,2.920846,0.23020564,0.71804041,0.65682828,0
-0.80656558,-3.6274216,-2.2025008,-0.18671829,-0.83974069,-0.5098744,0
-1.7564102,2.697593,2.8677061,-0.40741426,0.62572956,0.66518879,0
2.4922528,2.1289434,-2.7912893,0.57888937,0.4945015,-0.64834827,0
4.2011843,0.90380681,1.0483644,0.94977772,0.20432705,0.23700774,0
-4.1052513,1.1267719,1.0029025,-0.93864006,0.25762936,0.22930738,0
4.1889148,-0.31406963,1.451395,0.94252712,-0.070667259,0.32657126,0
-3.7192845,-1.625771,-1.4894372,-0.86020297,-0.37601131,-0.34447977,0
3.9804871,1.6704094,0.54556763,0.91482025,0.38390386,0.12538575,0
0.541668,-4.1808839,-1.3103952,0.12269408,-0.94701862,-0.29681969,0
1.0435137,2.5896852,3.3100779,0.24097627,0.59803021,0.76438886,0
1.2947835,2.7912042,3.0708647,0.29784822,0.64208049,0.70641279,0
3.6989968,0.33608964,2.1292543,0.86399561,0.078502357,0.49734196,0
-2.3560517,1.6177528,3.1567993,-0.55327898,0.37990192,0.74132103,0
-2.9206712,-2.1071186,-2.5202646,-0.66444129,-0.47936124,-0.57335037,0
-0.27814454,2.6347122,-3.355535,-0.065057598,0.61625534,-0.78485471,0
0.52550572,0.45167819,-4.2939534,0.12081962,0.10384585,-0.98722774,0
-4.2827363,-0.86488521,0.23569253,-0.97878891,-0.19766335,0.05386585,0
-2.8735166,-2.2663794,-2.4030635,-0.65632963,-0.51765561,-0.54887515,0
0.60883385,-1.2711624,4.115665,0.13995171,-0.29220018,0.94606167,0
-0.62586874,-4.269176,-0.86069554,-0.14224887,-0.97030807,-0.19562085,0
3.9088666,1.3533177,1.4039053,0.8948347,0.30980736,0.32138807,0
2.3618796,-1.5365024,3.2304201,0.55099154,-0.35844326,0.75360918,0
-2.2296252,-1.7242957,-3.2942076,-0.51427633,-0.39771906,-0.75982857,0
-0.87516409,-4.3044958,-0.037893377,-0.19923034,-0.97991472,-0.008626394,0
3.7409647,-1.2387412,1.7033359,0.87139142,-0.28854281,0.39676192,0
-4.361773,0.40163931,-0.74175251,-0.98180938,0.090406641,-0.16696411,0
-0.66130751,-3.5849464,-2.2353172,-0.15464872,-0.83835036,-0.52273554,0
-0.49746519,-4.363204,0.19492118,-0.11316842,-0.99258578,0.044342641,0
1.4228216,2.5994136,-3.1853933,0.32703701,0.59747785,-0.73216593,0
2.5245976,-3.5266585,0.35581538,0.58013707,-0.81040454,0.081764199,0
-1.8379654,1.390237,-3.7026045,-0.4214347,0.31877321,-0.84898555,0
-2.2448106,3.7332628,-0.61975026,-0.51017743,0.84845746,-0.14085045,0
-2.481086,0.32319188,3.4803507,-0.57882971,0.075399674,0.81195509,0
2.3337278,3.7542405,-0.19363634,0.52743006,0.84847057,-0.043762445,0
0.075563483,-1.6260164,4.1222,0.017049719,-0.36688516,0.93010998,0
-1.3329051,0.52766532,-4.0775542,-0.30838495,0.12208225,-0.94339532,0
-3.8881278,1.4425548,-1.589664,-0.87543952,0.32480145,-0.3579241,0
1.7130288,1.2545598,3.8480749,0.38976723,0.28545129,0.87555647,0
2.1381924,3.6756318,0.055311769,0.50278831,0.8643117,0.013006365,0
2.072149,-1.0751804,-3.6029105,0.4826687,-0.25044334,-0.83923119,0
-1.896265,3.953733,-0.054497581,-0.43241468,0.90158921,-0.012427352,0
2.9506562,0.23653974,3.1265755,0.68531388,0.054938275,0.72617257,0
1.0271491,-4.1496811,0.80406034,0.23613308,-0.95397741,0.18484683,0
-3.7530174,-0.97748369,2.0179129,-0.85846162,-0.22358868,0.46157545,0
0.67379057,3.6862559,-2.1960084,0.15513055,0.8487072,-0.50559926,0
3.5234852,-1.2055444,2.2397969,0.81080097,-0.27741185,0.51540715,0
-1.3172632,2.616425,-3.1689291,-0.30524465,0.60629469,-0.73432446,0
0.31194419,-3.9763508,1.6898311,0.072013147,-0.91795123,0.39010203,0
3.9131846,0.61026824,1.8907876,0.89165395,0.13905504,0.43083277,0
-1.2848705,2.8913507,3.0851963,-0.290748,0.65427172,0.69813621,0
-1.6959502,3.5768151,1.7536662,-0.39171305,0.82613581,0.40504369,0
-1.5152831,-3.4901676,2.101368,-0.34861186,-0.80296135,0.48344877,0
-3.9384377,0.81803542,-1.6930865,-0.90242374,0.18743843,-0.38794097,0
-2.5835135,2.9157097,2.0890625,-0.58445013,0.65960056,0.47259393,0
4.0965891,0.34407425,-1.5159135,0.93495268,0.078527071,-0.34597257,0
-4.245368,0.64208537,-0.86989278,-0.96906668,0.14656527,-0.19856562,0
4.0124445,0.90163398,-1.5054711,0.91620988,0.20588097,-0.3437624,0
2.1289527,0.079596065,3.7704082,0.49159831,0.018379595,0.87062818,0
3.1458509,-1.7749498,2.2893004,0.73562819,-0.4150556,0.53533179,0
2.4274557,3.5675831,0.42598861,0.55982625,0.82276541,0.098242618,0
-1.1015013,-2.7970974,-3.1082449,-0.25473264,-0.64685535,-0.71881115,0
0.14443034,3.3759811,-2.664156,0.033565011,0.78456402,-0.61913878,0
-1.4104046,-3.4340274,2.136049,-0.32929936,-0.80177212,0.49872187,0
1.1267749,-4.0899663,0.69617742,0.26209661,-0.95135802,0.16193628,0
3.5730729,2.3983679,-0.81311452,0.81585991,0.54763287,-0.18566303,0
3.1920342,-1.9504471,-2.0525951,0.74809134,-0.45711058,-0.48105019,0
0.11502919,-4.0255904,1.8135945,0.026043816,-0.91143596,0.41061684,0
1.4821324,3.9636161,-0.90658289,0.34247693,0.91587436,-0.20948447,0
4.2218142,-0.30124694,-0.52115405,0.98998749,-0.070640415,-0.12220718,0
0.45419586,2.726126,-3.2826545,0.10584504,0.63529181,-0.76498431,0
-1.8262157,3.4713111,2.0038199,-0.41461709,0.7881133,0.45493966,0
-2.7250805,3.1645436,-1.2631301,-0.62458658,0.72531122,-0.28950855,0
2.3525147,-1.0643551,-3.5024736,0.5406366,-0.2446018,-0.8049112,0
-2.5976446,1.8271375,3.0775719,-0.58738321,0.41315499,0.69590509,0
3.364702,2.5864005,1.0375638,0.77014977,0.59200358,0.23748894,0
-0.13317208,4.4243822,-0.43110105,-0.02994428,0.9948402,-0.09693481,0
-4.3147793,0.17278942,-0.88493639,-0.97885638,0.039199229,-0.2007578,0
-0.60543174,-3.9351313,-1.6219555,-0.14082646,-0.9153313,-0.37727499,0
3.5139813,-1.5797735,1.8658944,0.82086879,-0.36903635,0.4358744,0
-1.4700847,-4.1479988,0.11625653,-0.33393288,-0.94222683,0.02640792,0
3.7914279,0.8013981,2.0144579,0.86809689,0.18349054,0.46123642,0
0.22073799,-3.3722582,-2.81916,0.050156701,-0.76625389,-0.64057738,0
0.17957577,4.2655816,0.40024197,0.041877899,0.99475336,0.093338273,0
-0.5944947,-2.1081388,-3.8805416,-0.13341329,-0.47309715,-0.87085021,0
3.7100098,-0.64578712,2.2049367,0.85017407,-0.14798652,0.50527626,0
-4.0574718,-0.94679391,-1.0551956,-0.94403386,-0.22028631,-0.24550764,0
3.4601998,0.61291754,-2.5824227,0.79345781,0.14054801,-0.59217489,0
3.9432437,0.30636233,1.5359023,0.92937917,0.072206229,0.36199528,0
0.26568955,-0.27684811,4.349925,0.060842853,-0.06339816,0.99613196,0
-1.280903,-4.1831918,0.17614992,-0.29254705,-0.9554044,0.040231101,0
2.0718172,-0.83323383,3.7755542,0.47231507,-0.18995349,0.86071837,0
3.9320273,1.3475993,-0.99549943,0.91996741,0.31529471,-0.23291472,0
-1.2335378,-3.2905023,-2.4415975,-0.28827256,-0.76897651,-0.57059103,0
-2.4531186,-3.5036891,-0.065060996,-0.57348013,-0.81907827,-0.015209696,0
3.4440253,-2.547226,-1.0315148,0.78164983,-0.57811385,-0.23411074,0
-2.9355555,-2.0378551,-2.3691423,-0.684668,-0.4752948,-0.55256182,0
-1.0089667,-2.5514133,3.3256879,-0.23402454,-0.59178698,0.77137589,0
-0.040689111,1.6833674,-3.9151444,-0.0095471907,0.39498109,-0.9186396,0
4.2184544,0.13687807,-0.89394176,0.97778308,0.031726565,-0.20720412,0
-0.78264195,0.84373218,-4.2208843,-0.17889121,0.19285481,-0.9647823,0
-1.8877647,-3.8302855,-0.63373506,-0.43728769,-0.8872593,-0.14680037,0
4.0629859,1.2973135,1.1114395,0.92183173,0.29434133,0.25216925,0
-1.4168259,-0.76988155,-4.1647272,-0.31724787,-0.17238766,-0.93254286,0
-2.5640197,3.571878,-0.4584533,-0.58000159,0.80798709,-0.10370577,0
2.0459528,0.58055872,-3.8328471,0.46675634,0.13244659,-0.874412,0
3.2435338,0.86883438,2.9324293,0.72756207,0.19488958,0.65777773,0
1.38737,0.10105398,-4.1271253,0.31855145,0.023202818,-0.94762158,0
0.5050686,-3.3470416,-2.8938842,0.11341312,-0.75157797,-0.64982152,0
3.6871352,1.6596218,1.8461021,0.8295148,0.3733741,0.41532761,0
-2.229666,3.4994795,-1.173009,-0.51707876,0.8115595,-0.27203092,0
-3.1663723,1.6764158,-2.3094862,-0.7428214,0.39328209,-0.54179847,0
-1.0784599,2.4063175,3.5128891,-0.24552447,0.54782736,0.79975182,0
3.9838431,0.71538085,1.5954117,0.91569018,0.16443099,0.36670691,0
2.4271743,3.5368559,1.123252,0.54737467,0.7976293,0.253315,0
-3.5909309,-1.2378559,2.217042,-0.81649297,-0.28145924,0.50410306,0
1.6084768,0.0066053034,-4.0283141,0.37082398,0.0015228102,-0.92870188,0
1.1934203,-3.910464,-1.4714828,0.27464905,-0.89993882,-0.33864126,0
2.0794253,-3.4549093,-1.5177766,0.48262179,-0.80186313,-0.35226658,0
-1.0374892,1.4354824,-3.9282038,-0.2407707,0.33313319,-0.91162044,0
-1.1329771,-3.8413224,1.7555623,-0.25909638,-0.87845796,0.4014731,0
-2.0235267,3.2974625,1.817142,-0.47341344,0.7714566,0.42512879,0
-3.8968885,1.4609919,-0.99006158,-0.91093415,0.34152052,-0.23143616,0
-1.7715487,3.2190142,-2.4755504,-0.39985856,0.72656786,-0.55875969,0
2.412956,2.4335577,-2.6490381,0.55707061,0.56182688,-0.61157405,0
-2.9552593,3.0445569,1.1718067,-0.67137218,0.69165868,0.2662096,0
-3.8969169,-2.0042305,-0.04906771,-0.88922262,-0.45733771,-0.011196573,0
3.4562705,-2.7601824,-0.13705952,0.78102678,-0.62372905,-0.03097187,0
-4.2473631,0.46626741,0.91558129,-0.97196496,0.10670046,0.20952128,0
1.7601002,2.8030193,2.9155376,0.39904258,0.63548881,0.66099852,0
-3.3189008,1.5003209,2.3990011,-0.76098222,0.34400472,0.55006081,0
3.4338148,-0.22612442,2.7230461,0.78249276,-0.051528908,0.62052381,0
-2.303051,1.0603867,-3.5506456,-0.52786255,0.24304213,-0.81381303,0
3.645925,1.9868077,1.5073591,0.82537907,0.44978145,0.34124199,0
-3.7503154,1.8459719,-1.3698587,-0.85258687,0.41965839,-0.31142008,0
2.7013059,2.893503,1.6222517,0.63144428,0.67637134,0.37920976,0
-2.4525783,-0.29474875,-3.4921966,-0.57336026,-0.068905942,-0.81640071,0
1.3849962,-1.1533867,-3.8521855,0.32565302,-0.27119488,-0.90576124,0
2.4446423,-3.1837327,1.9383874,0.54842699,-0.71423328,0.4348546,0
2.09164,1.0024595,-3.6262434,0.48590884,0.23288134,-0.84241247,0
-1.2186598,2.8148353,3.0327668,-0.2825236,0.65256721,0.70309061,0
2.3533852,-3.5353291,-0.68686599,0.54702145,-0.82175279,-0.1596553,0
-0.22808394,-1.0320646,-4.1431293,-0.053342644,-0.2413719,-0.96896553,0
-2.3796132,1.3906792,3.3087115,-0.55259031,0.32294151,0.76834416,0
-0.16121134,-4.2463284,-0.91078079,-0.037095074,-0.97708923,-0.2095726,0
-4.1757188,-1.0418442,0.087168045,-0.97005743,-0.24202989,0.020249929,0
-2.1998172,3.5902405,1.3184046,-0.4985798,0.81371373,0.29881114,0
-2.7269812,3.0935943,1.3358465,-0.62907791,0.71365064,0.30816185,0
-3.7520738,2.2248967,-0.39188454,-0.85669601,0.50800174,-0.089477435,0
2.90607,-2.3403323,2.2860146,0.66411209,-0.5348264,0.52241343,0
-3.2401538,-2.3742988,-1.5383952,-0.75326848,-0.55197519,-0.35764495,0
-1.9170107,3.1141372,-2.5091956,-0.43225011,0.70217979,-0.56577677,0
-0.91334295,-4.0243969,1.0310403,-0.21472296,-0.94611824,0.24239311,0
0.53535962,1.6477721,-4.0424614,0.12172528,0.37465569,-0.91913873,0
-4.2574425,0.96341485,-0.4145276,-0.97097123,0.21972068,-0.094539009,0
2.002506,-1.3817617,3.7053092,0.45176014,-0.31172183,0.83590806,0
-2.8003085,3.0858839,-1.292423,-0.64184785,0.70730352,-0.29623127,0
-1.4280645,-3.0300901,2.7341583,-0.33026946,-0.70077103,0.63233066,0
-3.1397984,0.61004156,-2.9530373,-0.72125143,0.14013426,-0.67835003,0
-1.7647972,1.4713252,-3.6285179,-0.41091329,0.3425816,-0.84485984,0
-2.3986838,0.69962382,3.6609221,-0.54117954,0.15784578,0.82595968,0
0.99400777,3.9407961,1.4039214,0.23117135,0.91649103,0.32650289,0
2.4695432,3.4515219,-1.38034,0.55335629,0.77339053,-0.30929598,0
-3.2943933,-1.2847445,2.525938,-0.75810426,-0.29564479,0.58126765,0
-0.065139666,-4.1192803,1.5304513,-0.014821707,-0.93729019,0.34823483,0
-1.9937315,-3.5361776,-1.7813826,-0.44973218,-0.79766655,-0.40183198,0
0.58983243,-1.0741696,4.1658607,0.13583206,-0.24736971,0.95935291,0
3.1704724,3.0121686,0.53220338,0.71966481,0.6837315,0.12080473,0
-3.978219,1.6940689,-0.64440191,-0.91000336,0.38751221,-0.14740463,0
4.0154905,-1.5627731,-0.67877442,0.92055899,-0.35826877,-0.15561035,0
0.55870694,4.1208797,1.3637947,0.12766072,0.94159287,0.31161779,0
0.54737204,4.1956878,-0.42541894,0.12871544,0.98662287,-0.10003796,0
0.26037958,-4.396193,-0.47371271,0.058785696,-0.9925251,-0.10694975,0
4.0533142,-1.4238161,-0.75504178,0.92924148,-0.32641658,-0.17309691,0
-2.0760028,-3.1941056,-2.0754013,-0.47854766,-0.73628598,-0.47840899,0
0.8902775,-2.5829926,-3.4493899,0.2023215,-0.58700228,-0.78389686,0
-1.0823299,4.2435441,0.35879734,-0.24631611,0.96574366,0.081654921,0
-1.4413512,-0.74353796,4.0402598,-0.33106929,-0.17078599,0.92802227,0
-0.24114338,2.1002698,-3.7438648,-0.056086216,0.48849022,-0.87076497,0
1.2468705,4.1578474,0.95917052,0.28047982,0.93529546,0.21576257,0
4.0461807,-1.4857212,0.68461382,0.92709595,-0.34042129,0.15686464,0
4.3615146,0.035659421,0.37881446,0.99621642,0.0081449915,0.086525261,0
2.2114828,-1.1043752,3.6678903,0.49998599,-0.24968413,0.82925981,0
-4.3397989,0.080909014,0.51679432,-0.99281406,0.018509522,0.11822683,0
4.3748593,0.28053731,-0.42636114,0.99326372,0.063692912,-0.09680061,0
-2.9576261,-3.1858191,0.55835009,-0.67482901,-0.72689486,0.12739637,0
-1.4842441,3.5558863,-1.7765261,-0.34980711,0.83805239,-0.41869223,0
-0.36050984,-4.3902469,0.092843138,-0.08182244,-0.99642414,0.021071969,0
-2.2639725,-0.58005494,-3.6169705,-0.52573085,-0.13469808,-0.83991873,0
3.479661,1.0916735,2.4357154,0.79344904,0.24892865,0.55540359,0
2.7907836,-1.6194555,3.015867,0.63188171,-0.36667272,0.68284446,0
-0.39230353,-3.1454022,3.0166852,-0.089652464,-0.71881348,0.68939799,0
0.31729397,-2.6790693,3.3455276,0.073827952,-0.62336576,0.77843726,0
0.35392821,-1.9689779,-3.7901688,0.082582869,-0.45942605,-0.8843686,0
-3.7379556,2.2342632,0.2938056,-0.85640693,0.5118944,0.067314111,0
-2.5602455,3.2503145,-1.281082,-0.59109676,0.75041646,-0.29576987,0
3.9601953,-1.1391432,-1.3564376,0.91284811,-0.26257917,-0.31266677,0
-1.466467,-4.1771684,0.087251812,-0.33118305,-0.94336069,0.01970472,0
-3.5929813,-2.4742675,0.17663229,-0.82292938,-0.56670135,0.040455513,0
-2.387388,-3.3188908,-1.5625323,-0.54546732,-0.75829583,-0.35700533,0
3.7559996,-2.1854098,0.71948397,0.85272932,-0.49615633,0.16334535,0
-3.778127,-1.6349149,-1.2712604,-0.87689787,-0.37946141,-0.29505771,0
-3.3237021,1.609448,-2.3604598,-0.75834835,0.36721766,-0.53857136,0
-1.9502614,-3.2388582,2.2673614,-0.44238913,-0.73468906,0.51431876,0
3.3717246,-2.5992186,1.1695274,0.76369685,-0.58872396,0.26489839,0
-3.8036628,0.62977076,2.0685785,-0.86934382,0.14393687,0.4727827,0
-0.30087683,-0.66076046,4.2521019,-0.069750078,-0.15317927,0.98573369,0
-0.93567193,-3.9203262,1.4125401,-0.21908601,-0.91793782,0.33074388,0
0.59883779,1.3967873,-4.1590948,0.13523714,0.31544021,-0.93925953,0
-1.4038888,2.2230847,3.4990008,-0.32075995,0.5079295,0.79945028,0
3.1982083,2.6936452,0.92155921,0.7469365,0.62909657,0.21522869,0
4.2047019,-1.0959183,0.072996452,0.96753478,-0.25217935,0.016797055,0
-0.0071009281,-3.994195,-1.8828856,-0.0016080888,-0.90453249,-0.42640162,0
1.4082671,1.8514141,-3.6208613,0.32722461,0.43019411,-0.84134245,0
3.2718778,0.85186172,-2.8172083,0.74346429,0.19356737,-0.64015037,0
4.062984,1.2916759,0.63062501,0.94274217,0.29971009,0.14632516,0
-1.5454565,1.2589537,3.9385462,-0.35010675,0.28520259,0.89223576,0
2.0579107,3.6243744,-1.2355804,0.47339267,0.83373505,-0.28422746,0
-1.4828075,3.9961836,-0.9031179,-0.34032428,0.91717798,-0.20727772,0
-4.0256758,-1.4374135,-1.0479183,-0.91468173,-0.32659754,-0.23809959,0
-4.1763344,-0.20588867,1.123636,-0.9645676,-0.04755212,0.25951535,0
0.39898634,1.7475877,3.9751947,0.091496609,0.40076146,0.9116022,0
-0.91917735,4.1972151,-0.26748049,-0.21351378,0.97496223,-0.062132481,0
3.4945316,-0.40299922,-2.5386927,0.80554414,-0.092897616,-0.5852083,0
1.4332616,-4.0167952,-0.66038156,0.33210659,-0.93074709,-0.15301956,0
4.1112504,-1.3070556,0.16683568,0.95228553,-0.3027522,0.038644012,0
0.60061777,-2.9584255,-3.0971394,0.13887237,-0.684035,-0.71610785,0
0.26584986,-0.44246438,4.3301091,0.060964003,-0.10146479,0.99296939,0
3.8680007,0.64883095,-2.043498,0.8746233,0.14671214,-0.462071,0
-2.9642832,-2.227711,-2.2064395,-0.68699354,-0.51628774,-0.5113579,0
0.38668874,-3.2935734,-2.8410101,0.088553019,-0.75423932,-0.65060085,0
-2.9579866,-0.85669166,-2.9562645,-0.69292307,-0.20068428,-0.69251966,0
-1.3016212,-3.0454223,2.8421199,-0.29824796,-0.69781518,0.65123129,0
1.962338,3.6093283,-1.2152531,0.45803457,0.84246296,-0.28365549,0
2.740443,-3.2260287,-0.86516672,0.63430405,-0.74669784,-0.20025183,0
3.2120056,1.8635371,2.3901916,0.72732449,0.42197815,0.54123342,0
-3.3405263,-2.1169906,1.9689747,-0.75613856,-0.47918743,0.4456836,0
-0.069164887,-4.42273,-0.17036793,-0.015625009,-0.99913692,-0.03848774,0
2.9403479,-2.6290522,-1.8921874,0.67212677,-0.60096848,-0.43253037,0
3.0321062,-1.1035378,-2.9094934,0.69788253,-0.253995,-0.66966146,0
-2.9923787,2.0327349,-2.5630193,-0.67495608,0.45850039,-0.57811046,0
2.0165107,-3.3923662,-1.7816963,0.46570683,-0.78345633,-0.41147718,0
1.2715422,3.9099135,-1.2310523,0.296271,0.91101497,-0.28683677,0
-1.8347141,1.8019772,-3.4689219,-0.42488089,0.41729972,-0.80332881,0
1.0001165,-0.72941726,-4.1250463,0.23221949,-0.16936518,-0.95780462,0
-1.1441989,1.7608827,-3.6927414,-0.26934454,0.41451198,-0.8692717,0
-3.6058238,-2.3671842,-0.60091168,-0.82796031,-0.54354697,-0.13797985,0
-4.2088985,0.22987394,1.0087063,-0.97109348,0.053037412,0.23273267,0
1.2905415,2.723134,-3.2011592,0.29354471,0.61940014,-0.72813106,0
-1.6631511,-1.5005714,-3.7960632,-0.37732795,-0.34044263,-0.86123306,0
1.2609215,-3.5407529,-2.1718261,0.2904726,-0.81566674,-0.50031346,0
-4.3471193,0.19887652,0.59796983,-0.98965549,0.045275785,0.13613248,0
2.4287627,3.5985096,0.25063515,0.55850631,0.82749557,0.057634827,0
-0.55691516,0.12072917,4.4064832,-0.12534165,0.027171811,0.99174148,0
2.6722291,-2.5716572,-2.2496049,0.61605877,-0.5928728,-0.51862651,0
0.48507372,4.0296025,1.6684546,0.11053923,0.91827106,0.38020962,0
1.7132721,1.8906269,-3.4806488,0.39699209,0.438088,-0.80652106,0
0.40070692,-1.7996248,3.9281631,0.092343301,-0.41472527,0.905249,0
3.3547304,-2.4036043,-1.661046,0.75409853,-0.5402981,-0.37338093,0
-2.36289,-3.2360888,1.4470341,-0.55464113,-0.75960702,0.33966228,0
2.5814681,-1.5318217,3.1929698,0.58905226,-0.34953874,0.72858781,0
3.9204547,1.9120284,0.35231262,0.89588588,0.43692872,0.080509007,0
-2.9035218,3.0419271,0.89669269,-0.67527753,0.70746666,0.20854551,0
-2.414536,-0.095716953,-3.7396736,-0.54229385,-0.021497596,-0.83991379,0
-0.72794479,-2.4900453,-3.3995712,-0.17022507,-0.58228058,-0.79496717,0
-4.1049051,-0.074275576,1.3449107,-0.95015484,-0.017192431,0.311304,0
-3.5230944,1.3992972,-2.2020793,-0.80362713,0.31918341,-0.50230008,0
1.6269194,-3.4574873,-2.1764295,0.36996534,-0.78624082,-0.49492523,0
-0.77291727,2.9186587,3.0602086,-0.17979272,0.67892593,0.71185267,0
-3.1222699,-2.4462149,-1.8897848,-0.71063858,-0.55676633,-0.43012106,0
2.486928,2.0276456,-2.9845946,0.5675025,0.46269694,-0.68106711,0
-0.84175014,-4.0503011,-1.2298089,-0.19504033,-0.93848759,-0.28495669,0
-0.60076451,-3.1169889,-2.8878806,-0.13999161,-0.72632831,-0.67294097,0
-0.42357343,-0.6416353,4.1951895,-0.099312454,-0.15043998,0.98361826,0
-0.87387985,-3.7926612,2.0171678,-0.19934709,-0.86517155,0.46015084,0
2.6311722,2.0939043,-2.7369246,0.60686272,0.48294538,-0.63125384,0
3.3554585,0.98652172,2.4785557,0.78276521,0.23013692,0.57820028,0
1.0058768,-3.0291839,2.9922037,0.22991228,-0.69237763,0.68392509,0
3.3038037,-2.6953452,-0.16737944,0.77425295,-0.63165951,-0.039225705,0
-0.97817183,-4.1798091,0.68317008,-0.22503456,-0.9615913,0.15716755,0
-0.76424599,-0.61725235,4.16152,-0.17873336,-0.14435613,0.97325009,0
2.2947569,-2.4833987,-2.7970703,0.52293158,-0.56591946,-0.63739926,0
1.7821876,3.0259168,2.5348456,0.41149291,0.69866014,0.58527565,0
0.25208184,-3.8885765,1.7602346,0.058954623,-0.90942514,0.41166776,0
-0.04063439,-2.6829505,3.2456152,-0.0096492087,-0.63710439,0.77071708,0
