-2.433888,-2.2273114,-2.3691156,-0.59922832,-0.54836875,-0.58328122,0
0.98146993,3.7057676,1.5444624,0.23747383,0.89663762,0.373694,0
-1.3216511,3.8640182,-0.090156354,-0.32355407,0.94595224,-0.022071222,0
2.9902797,-1.9894278,-2.0251784,0.72522926,-0.48249373,-0.4911643,0
-0.38365683,4.0905576,0.2897003,-0.093149737,0.99316448,0.070337616,0
-2.3505871,-3.2364328,0.74453539,-0.57772839,-0.79545194,0.18299225,0
2.3027849,0.62208337,3.3500345,0.5599497,0.15126701,0.81460094,0
1.8768284,-3.6224041,-0.04587144,0.46000698,-0.88784415,-0.011243001,0
-4.076334,-0.55432665,-0.080221429,-0.99069172,-0.13472077,-0.019496614,0
-1.2159072,2.2247093,-3.3081169,-0.2917313,0.53377211,-0.79371291,0
1.6118722,-3.6924767,0.37574333,0.398343,-0.9125241,0.092857689,0
-1.6716243,-2.4660571,-2.7009854,-0.41568953,-0.6132443,-0.67166489,0
-0.91314554,-3.3959143,-2.1570897,-0.22134598,-0.82316774,-0.52287734,0
-1.6938123,3.4577785,-1.25283,-0.41832325,0.85397249,-0.30941322,0
3.1635408,-0.4360036,-2.5659304,0.7722367,-0.10643073,-0.6263569,0
2.8842964,2.8735232,0.41330296,0.70480633,0.70217383,0.10099466,0
1.8725561,-1.1699486,-3.42486,0.45953283,-0.28711012,-0.84047449,0
-3.8138504,0.92926317,1.1936623,-0.92954916,0.22648917,0.29093114,0
-1.97164,-1.7386888,2.94996,-0.49898681,-0.44003105,0.74658209,0
-3.962327,-0.58077896,-0.049868189,-0.98935115,-0.14501436,-0.012451559,0
-0.68083638,2.027009,-3.5292721,-0.16499093,0.49121657,-0.85526848,0
-4.0972824,-0.078269668,-0.099730976,-0.99952167,-0.019093687,-0.024329118,0
-1.6430497,1.5701447,3.3676703,-0.40441528,0.38647065,0.82890821,0
3.8688679,-1.4436429,0.24710274,0.93522692,-0.34897384,0.059732493,0
2.6327441,2.7060754,1.4298905,0.65212554,0.67028958,0.35418108,0
3.9433401,1.1081626,-0.77841514,0.94578147,0.26578477,-0.18669721,0
2.2918637,-3.1901591,1.0586759,0.56335557,-0.7841627,0.26022968,0
-0.39527214,-2.7464101,2.7710426,-0.10079772,-0.70035768,0.70663917,0
0.78305882,2.4682198,3.196476,0.19035266,0.59999603,0.77702683,0
2.7663529,2.5031538,1.5027568,0.68779927,0.62235999,0.37363097,0
-0.41643673,3.4326358,-1.9825931,-0.10447851,0.86120325,-0.49740654,0
1.8333018,-3.5958953,0.78410488,0.44587177,-0.87454677,0.19069977,0
2.9429691,-2.7599201,-0.37625828,0.72627616,-0.68110269,-0.092854328,0
-2.8451498,2.867229,0.4076328,-0.70080888,0.70624739,0.10040691,0
-0.053332575,3.819772,1.4595478,-0.013041432,0.93405008,0.3569037,0
3.9689765,0.56618869,0.78352928,0.97159666,0.13860174,0.19180623,0
-3.4442005,-0.2260827,2.1899781,-0.84256798,-0.055307478,0.53574276,0
0.2261022,3.5736227,2.1107519,0.054396186,0.85975033,0.50780952,0
4.1074452,-0.55366725,0.17019308,0.99020249,-0.13347535,0.041029301,0
-0.25532079,-4.0312815,0.94072187,-0.061560843,-0.97198939,0.22681911,0
-1.4085295,-0.62077695,3.6501329,-0.35556242,-0.15670596,0.921422,0
-3.4918826,-1.3294414,-1.6899859,-0.85150874,-0.32418931,-0.41210943,0
-3.7948687,1.2274026,0.94624227,-0.92577273,0.29942957,0.23083942,0
0.28432018,0.20237806,-4.0724745,0.069560148,0.049512658,-0.99634832,0
0.64175791,-3.9922547,0.1824646,0.15855183,-0.98632097,0.045079455,0
2.1134977,1.7229617,-2.9885151,0.52242184,0.42588773,-0.73871171,0
3.6794045,-1.1638809,-1.448912,0.8925972,-0.28234917,-0.35149568,0
3.4939046,-0.81679934,1.9388814,0.85667366,-0.20027179,0.4753961,0
-2.0600286,-1.4630663,3.1639025,-0.50877213,-0.36133841,0.78139961,0
-2.9251997,-1.1173927,2.6160653,-0.7169013,-0.27384806,0.64113933,0
0.76246494,-0.94235677,3.775315,0.19229171,-0.23765996,0.95212477,0
1.8390365,2.4047096,-2.7878914,0.44686034,0.58431107,-0.67741895,0
2.7788677,-2.8053813,-0.77956176,0.69041556,-0.69700289,-0.19368377,0
1.9997387,1.2752396,3.3291652,0.4892199,0.31197706,0.81445336,0
-3.9839008,-0.30798432,0.55443347,-0.98756373,-0.076345816,0.13743776,0
-2.9404204,0.24035642,2.7802374,-0.72534323,0.05929115,0.68582928,0
-3.3064935,1.0696827,2.1289918,-0.81130922,0.2624664,0.52238744,0
1.5729947,3.2527258,-1.8590063,0.38712204,0.80051249,-0.45751095,0
-2.8212593,-0.62844467,-2.6766398,-0.7161653,-0.15952815,-0.67945421,0
-0.9011957,-0.81552595,3.8887057,-0.22119465,-0.20016737,0.95446628,0
-3.4259398,-0.16176826,-2.1907361,-0.8418138,-0.039749313,-0.53830248,0
-2.0227001,-2.9374213,-1.7880523,-0.50699347,-0.73627001,-0.44817859,0
4.0768094,-0.35705754,-0.44873405,0.99025142,-0.086728789,-0.10899688,0
1.8174709,1.9050272,-2.9347548,0.46096769,0.48317471,-0.74434596,0
-1.444898,-2.3760817,-2.8732719,-0.36134663,-0.59422129,-0.71856087,0
-1.470281,-0.70990783,-3.7382586,-0.36042935,-0.17402905,-0.91640854,0
3.2315173,-1.9520457,-1.0501982,0.82464302,-0.49813777,-0.2679975,0
-1.0973859,-3.2518046,-2.1109612,-0.27235663,-0.80705482,-0.52391261,0
0.8890751,0.44339338,3.8476043,0.22373407,0.11157911,0.96824235,0
2.1051064,-2.5866525,2.1905806,0.52758253,-0.64826781,0.54900414,0
-1.4799109,0.44421485,3.6639552,-0.3721703,0.11171185,0.92141724,0
1.6237218,3.4663064,-1.2912821,0.40194139,0.85806078,-0.31964815,0
1.2851318,-2.5506613,-2.8647606,0.31768674,-0.63052773,-0.70817363,0
0.97977412,-0.38776982,-3.8581281,0.24497817,-0.096956171,-0.96466845,0
-1.624629,-1.4881142,-3.4617317,-0.39592737,-0.36265826,-0.84363526,0
2.763793,1.3345203,2.6589437,0.68061584,0.328641,0.65479553,0
2.2041547,-2.1491463,2.6363766,0.54381967,-0.53024769,0.65045953,0
2.1063731,2.2442176,2.6485095,0.51874304,0.55269045,0.65225667,0
-2.035207,-1.5035436,-3.1236165,-0.5062815,-0.37402403,-0.77703607,0
-2.8687835,2.1145,-1.9014231,-0.71020722,0.52347392,-0.47072375,0
-3.7220883,-0.97475821,0.93843007,-0.93982702,-0.24612637,0.23695353,0
3.4993556,0.39273521,1.9782979,0.86639494,0.097236134,0.48980084,0
3.0025132,2.7083797,0.027417185,0.74252433,0.66978484,0.0067802956,0
2.1654193,-3.4637487,-0.080456041,0.52999759,-0.84777045,-0.019692034,0
1.7323416,-3.3826592,-1.5935533,0.42036721,-0.82083058,-0.38668907,0
-0.093442485,0.20853205,4.0375113,-0.023106607,0.051566139,0.9984023,0
-1.8067576,-3.4494991,-1.1746891,-0.44421032,-0.8480956,-0.28880966,0
-0.61066312,3.3379009,-2.2020211,-0.15096112,0.82515746,-0.54435831,0
-2.009516,0.62670159,-3.4746201,-0.49465027,0.15426506,-0.85529143,0
0.34475365,3.1834438,2.3631015,0.086629674,0.79993552,0.59379995,0
-3.1534615,-2.2749827,-1.1671045,-0.77675241,-0.56036782,-0.28747815,0
1.37146,3.0269582,-2.1110754,0.34835097,0.7688477,-0.5362134,0
-0.39212704,2.1089315,3.4040923,-0.097457238,0.52414298,0.8460356,0
3.226836,-1.5094275,-1.9768473,0.79202509,-0.37048817,-0.48521608,0
-2.1636717,0.95390654,3.2331023,-0.54016954,0.23814669,0.80715728,0
-2.389957,-3.2549782,-0.67839479,-0.5836634,-0.79491454,-0.16567419,0
-1.4511455,3.1493869,-2.0432949,-0.3605454,0.78248316,-0.50766826,0
-2.0911424,1.7104387,2.9027321,-0.52734828,0.43134168,0.7320165,0
-0.91746145,-3.8375657,-1.1368955,-0.22343123,-0.93457007,-0.27687046,0
-3.2311468,-1.6754227,-1.7759863,-0.79783887,-0.41369751,-0.43852881,0
1.0931243,3.7050369,1.2176198,0.26988819,0.91475934,0.30062565,0
2.0028667,-2.1054237,-2.8109887,0.49538985,-0.52075636,-0.69527107,0
-0.0190991,2.5498796,-3.0878356,-0.004769267,0.63673455,-0.77106839,0
1.8698978,3.4781849,-0.24564581,0.47260299,0.87908578,-0.062085181,0
3.76372,0.91757506,1.0959188,0.93485653,0.2279131,0.27221122,0
3.2715983,-1.5742713,1.9936614,0.78985482,-0.38007286,0.4813253,0
0.36494163,4.0270166,-0.34541327,0.089925967,0.99230492,-0.08511395,0
2.6025813,2.2909534,-1.9339627,0.65553689,0.57704425,-0.48712558,0
2.4474757,1.4726,-2.6557829,0.62751925,0.37756652,-0.68092811,0
3.9226112,-0.81739992,0.92346501,0.9539631,-0.19878834,0.22458294,0
2.3447402,-3.0172973,1.5736103,0.56738061,-0.73012608,0.38078246,0
1.1408641,-0.6998809,-3.775624,0.28480035,-0.17471521,-0.94253027,0
1.7416105,-3.4952414,0.69099778,0.43915981,-0.8813507,0.17424014,0
2.0316832,0.71048766,-3.3808866,0.50692499,0.17727368,-0.84356451,0
3.0046575,-1.6016428,-2.1816654,0.74301517,-0.39606676,-0.53949928,0
-0.97837251,2.5083079,3.0056088,-0.24246196,0.6216132,0.74485517,0
1.1994097,-3.6297519,1.0086749,0.30337006,-0.91808325,0.25512695,0
1.8299118,2.953984,-2.1941299,0.44527745,0.71880102,-0.53390366,0
3.8538616,0.1826347,1.5799438,0.92437547,0.043806199,0.37896049,0
-0.41038805,-3.2960556,-2.2226515,-0.10268504,-0.82472086,-0.55613959,0
-3.7154937,-0.78312701,-1.4178377,-0.91668117,-0.19321196,-0.34980685,0
3.3967626,1.2124894,-1.9278611,0.83058685,0.29648164,-0.47140655,0
-3.1082201,-2.049314,-1.3554221,-0.78449672,-0.51723498,-0.34210068,0
-4.0209651,0.62602931,-0.011766165,-0.98809189,0.15383732,-0.0028913587,0
0.56487775,-1.6389248,3.6256413,0.14056018,-0.40781847,0.90217894,0
1.5268755,2.197346,-3.138485,0.37021539,0.53278172,-0.7609759,0
3.2125552,-2.4828594,0.82932198,0.77522737,-0.59914321,0.20012516,0
0.22304752,-3.2263367,-2.5310249,0.054312918,-0.78562522,-0.61631417,0
-1.3303944,-1.0329031,-3.7285514,-0.32517451,-0.25246179,-0.91133118,0
-2.120666,3.0406384,-1.7644463,-0.51652968,0.74060696,-0.4297654,0
-1.953259,0.40625891,3.498292,-0.485017,0.10087883,0.86866671,0
1.6580939,0.9952485,3.5630682,0.40899777,0.24549539,0.8788929,0
0.1624202,-4.1008277,-0.23947814,0.039508455,-0.99751979,-0.058252674,0
3.3987544,0.34118271,2.3743441,0.81701183,0.082015432,0.57075828,0
1.9568191,1.3019868,3.2924442,0.48372588,0.32185128,0.81389254,0
-0.74119276,0.86830175,3.8153262,-0.18611406,0.21803121,0.95803124,0
-1.4635419,1.5510938,-3.4835837,-0.35831538,0.37975052,-0.85287732,0
0.23795307,2.87814,-2.7820191,0.059340209,0.71774417,-0.69377381,0
2.3980279,-3.0358865,-0.94893521,0.6020025,-0.76213098,-0.23822132,0
3.0746508,2.1286225,-1.3156188,0.77559245,0.53695321,-0.33186987,0
2.321929,-0.52583694,-3.1946561,0.58278722,-0.13198124,-0.80183542,0
-2.785068,0.23685494,-2.8855186,-0.69326383,0.058958329,-0.71826816,0
-1.6748838,-2.7851515,2.3958802,-0.41481742,-0.68979669,0.59338611,0
3.3944526,1.1081148,-1.9242097,0.83685404,0.27318996,-0.47438657,0
1.2597914,-3.5279636,1.3838991,0.31545317,-0.88340604,0.3465299,0
-1.0738198,-2.113574,-3.3316786,-0.26260832,-0.51688576,-0.8147797,0
1.8955646,3.4215815,-1.0432124,0.46823797,0.84519112,-0.25769192,0
-0.23178278,3.8299983,1.1216906,-0.057980493,0.95807457,0.28059107,0
0.92418689,-3.8031676,0.99402678,0.22886646,-0.94181979,0.24616167,0
-3.3110106,-2.3060598,0.28208441,-0.81858784,-0.57013184,0.069740295,0
-3.1594958,-0.20327583,2.49137,-0.78424126,-0.050456561,0.61840093,0
1.8900144,0.40822047,3.5785441,0.4646593,0.10036084,0.87978369,0
0.91296446,-0.7984395,-3.7643616,0.23084244,-0.20188488,-0.95181626,0
-3.5859261,0.4298425,1.9483917,-0.87384027,0.10474664,0.47479594,0
2.483758,0.28624853,-3.0998983,0.62366694,0.071876466,-0.77837861,0
3.6932356,-1.7147369,-0.12350241,0.90659016,-0.42092189,-0.030316526,0
0.58652109,-3.8993759,-1.0303608,0.1439092,-0.95675343,-0.25281,0
-2.2632871,-0.87367606,-3.182658,-0.5655551,-0.21831608,-0.79528952,0
0.8133117,-3.8063393,-0.80294412,0.20464694,-0.95775789,-0.20203824,0
-1.8698108,2.7768106,-2.3588667,-0.45657974,0.67805547,-0.57599986,0
-2.7845454,2.9547789,0.20657717,-0.6849457,0.72681993,0.050814092,0
3.2678983,1.4226496,-1.941476,0.80517417,0.3505252,-0.47835833,0
2.2766135,-2.2766266,2.4946268,0.55895531,-0.55895853,0.61248201,0
3.4137952,1.9126562,1.0769898,0.84112817,0.47126114,0.2653605,0
2.0465167,-1.0831649,3.3413374,0.50342089,-0.26644683,0.82193279,0
2.9759719,-2.1140029,-1.8068,0.73064494,-0.51901889,-0.44359604,0
-3.9585702,-1.1695564,0.45629191,-0.9532128,-0.28162596,0.10987383,0
-3.0095003,1.3546977,2.3697028,-0.74071294,0.33342484,0.58324289,0
2.3996267,0.89092225,3.077261,0.59950423,0.22258115,0.76879919,0
-2.3440926,1.8331087,2.7318952,-0.58027941,0.45378551,0.67627984,0
-3.8512342,1.0197796,-0.16803233,-0.96582574,0.25574383,-0.042139724,0
1.2449524,-0.11716437,3.7836089,0.31241843,-0.029402174,0.94948941,0
-2.6675456,-2.5134714,-1.8479803,-0.64987963,-0.61234337,-0.4502134,0
-2.5251582,1.7941329,2.5401859,-0.63034707,0.44786364,0.63409841,0
-1.2018712,1.1347067,-3.7443128,-0.29364693,0.277237,-0.91482854,0
-0.59846264,-3.3535752,2.1517103,-0.14853126,-0.83231717,0.53402871,0
-1.6486713,2.5687959,-2.7206068,-0.40321344,0.6282472,-0.66537535,0
2.4053819,3.0023522,1.1867552,0.59746766,0.7457478,0.29477558,0
1.4544003,1.0877547,3.5436029,0.36525187,0.27317408,0.88992524,0
-3.8906844,-1.0570518,0.75534451,-0.948515,-0.25770003,0.18414642,0
2.5513029,-2.2626238,-2.2666061,0.62308282,-0.55258119,-0.55355376,0
3.8469875,-0.77872211,-1.1502372,0.94056493,-0.19039281,-0.28122598,0
-1.892011,3.5285745,0.79459763,-0.46351206,0.8644436,0.19466355,0
0.093264811,4.0007162,-0.068309769,0.023302302,0.99958277,-0.017067261,0
0.1775814,3.5497234,-2.0211499,0.043432694,0.86818802,-0.49433094,0
2.4579773,1.9723675,-2.5658128,0.60483211,0.4853386,-0.63136715,0
0.96286643,2.7050638,2.8049533,0.23987667,0.67390627,0.6987915,0
-0.88683921,2.076484,-3.3005118,-0.22176769,0.51925653,-0.82534343,0
-3.7837932,-1.1273851,0.42213836,-0.95293367,-0.28392759,0.10631391,0
3.0926178,-1.7998356,2.0263081,0.75207186,-0.4376893,0.49276355,0
-2.7440817,2.8743792,-0.26910594,-0.68894482,0.72165799,-0.067563273,0
-2.3718355,-3.2852278,0.61616915,-0.57870322,-0.80156147,0.15033887,0
3.8469026,1.2083106,-0.41620716,0.94900227,0.29808125,-0.10267521,0
0.076517932,3.4766326,2.0966971,0.018843714,0.85617411,0.51634383,0
2.199178,3.2011461,1.1907607,0.54137343,0.78802872,0.29313052,0
-3.6832926,0.21566372,-1.685183,-0.90805823,0.053168517,-0.41545555,0
-2.9764051,1.5050331,-2.3567228,-0.72881407,0.36852822,-0.57707626,0
2.9881566,-2.0752907,1.8153243,0.73493624,-0.51041716,0.44647849,0
1.9179324,2.0119805,-3.0229497,0.46702841,0.48992971,-0.73610693,0
-1.3232416,-0.056194417,3.8288224,-0.32661179,-0.013870301,0.94505686,0
2.7842047,0.42964852,2.7913651,0.70204163,0.10833655,0.70384711,0
-2.3787849,1.0997512,-3.1656721,-0.57882351,0.26759958,-0.77029467,0
1.3202418,2.4074328,-2.9160895,0.32962453,0.60106331,-0.72805953,0
4.0702124,-0.40593365,-0.42587376,0.98971367,-0.098706909,-0.10355555,0
-0.83771336,1.1160699,-3.7538159,-0.20917676,0.27868229,-0.93732667,0
2.5252535,-2.7297139,1.6519916,0.62059748,-0.67084491,0.40598768,0
0.73710805,3.9813073,0.91099489,0.17760842,0.95930803,0.21950698,0
-2.2127404,-3.0802145,-1.4224578,-0.54627532,-0.76043493,-0.35117251,0
3.9510517,0.58782232,-0.24597158,0.98724335,0.14687827,-0.061460547,0
0.50587875,2.5007918,2.9899919,0.12870139,0.63623029,0.76068842,0
-2.6006668,-3.0710006,-0.44999662,-0.64224744,-0.75839871,-0.11112887,0
0.35929707,-3.063977,2.7175505,0.087394275,-0.74527198,0.6610083,0
0.41021365,-0.4097732,4.0584798,0.10005971,-0.099952273,0.98994833,0
1.3262656,-1.2262282,3.6899626,0.3228229,-0.29847306,0.89816433,0
-2.1310616,-3.3063262,1.0470939,-0.52352774,-0.81224942,0.25723457,0
2.8764336,-2.7207258,-0.91404164,0.70787829,-0.66955924,-0.22494182,0
-1.702868,-3.5750525,-1.0468905,-0.41574514,-0.87282789,-0.25559211,0
-0.7055313,-2.390012,-3.1607873,-0.17528792,-0.59379399,-0.78529167,0
-3.2244787,-0.57642961,2.3736081,-0.79711461,-0.14249758,0.58677322,0
0.70026553,0.90126228,3.9180946,0.17159396,0.22084646,0.96009493,0
-0.23453309,-3.7343929,-1.3946246,-0.058733068,-0.93518722,-0.34924957,0
-3.0856092,0.81526995,-2.3124681,-0.78290856,0.20685764,-0.58674026,0
-3.8754818,-0.25247085,-1.4756329,-0.93281996,-0.060769178,-0.35518157,0
-2.1168857,1.7829037,-2.7845099,-0.53919709,0.45412773,-0.70924926,0
2.8515935,-1.4465395,2.3933125,0.71396995,-0.36217847,0.59922749,0
-2.8180957,0.12019508,2.9857533,-0.68610013,0.029262973,0.7269184,0
1.9427067,-1.1520849,-3.4878516,0.46752501,-0.27725673,-0.83937418,0
-3.1369886,-2.4241858,-0.79406244,-0.77585727,-0.59956294,-0.19639188,0
2.8178618,2.2198637,-1.889302,0.69502503,0.54752892,-0.46599597,0
-2.163192,-1.0199597,3.3788626,-0.52255851,-0.24638987,0.81622589,0
-2.0726132,3.3862596,-0.36641786,-0.51983345,0.84930992,-0.091901496,0
1.3838747,3.7386446,-0.21431147,0.34663549,0.93646258,-0.053681131,0
2.1780441,-0.46908227,-3.4473586,0.53062779,-0.11428055,-0.83986557,0
-1.8997225,-3.1590891,1.6131109,-0.47212222,-0.78510213,0.40089303,0
-2.1998663,0.99025971,3.194211,-0.54957151,0.2473871,0.79797912,0
-3.2216737,-2.1266365,-1.2109205,-0.7963106,-0.52564704,-0.29930678,0
0.53972626,-2.9974065,-2.6787577,0.13306716,-0.73899752,-0.66043603,0
0.50024933,-3.2494903,-2.4011004,0.12287497,-0.79816401,-0.58977616,0
1.217896,-2.6071291,2.9131465,0.29743007,-0.63670349,0.71143794,0
-1.3316265,3.8609259,0.2715576,-0.32533202,0.94326955,0.066344708,0
0.34564632,1.2869332,3.7892315,0.086052142,0.32039502,0.94336748,0
-1.7475106,1.6765965,3.3625197,-0.42171407,0.40460092,0.81145257,0
2.882441,-2.5167098,-1.192158,0.71918374,-0.62793195,-0.2974495,0
-0.61318761,1.6707057,3.6169615,-0.15211469,0.41445532,0.89726692,0
-3.2389209,-1.7948194,-1.6509888,-0.79887563,-0.44268987,-0.40721425,0
-3.5554962,-1.2798947,-1.5763185,-0.86837119,-0.31259313,-0.38498974,0
2.311142,-2.9449735,-1.707014,0.5617227,-0.71577537,-0.41488948,0
-3.5834339,1.60824,0.38276777,-0.90802974,0.40752247,0.096992031,0
-0.82752192,1.0281533,3.8341336,-0.2040779,0.25355625,0.9455483,0
0.89651096,-0.80268562,3.7531681,0.22746243,-0.20365709,0.95225239,0
1.4903591,-0.90115845,3.7058051,0.36397621,-0.22008134,0.90503347,0
2.2783451,3.3572266,-0.54920495,0.55646485,0.81997174,-0.13413826,0
-3.9532504,-0.84283441,0.84899026,-0.95713496,-0.20406152,0.20555192,0
1.4343575,-2.6325145,2.7768133,0.35101244,-0.6442225,0.67953491,0
2.7581625,2.0415418,1.9762443,0.69652134,0.51555246,0.49906284,0
-2.605988,2.9015117,0.66570419,-0.65867651,0.73337156,0.16826005,0
1.7990719,-3.2390094,1.568158,0.44716302,-0.80506241,0.3897689,0
2.4250035,2.2821755,2.5169487,0.5809496,0.54673284,0.60297662,0
0.9319635,2.925936,-2.5497973,0.23349398,0.73306352,-0.63882583,0
-1.6164964,2.0627391,-3.0461142,-0.40228328,0.51333576,-0.75805968,0
-3.0828972,1.0926005,2.4279552,-0.75682706,0.26822484,0.59604394,0
-3.2732456,1.6155629,-1.8186669,-0.80261981,0.39614591,-0.44594824,0
3.6838646,1.4778196,0.92441064,0.90391469,0.36261451,0.22682385,0
-3.5529809,-0.93241602,-1.5705533,-0.88936573,-0.23339805,-0.39313361,0
0.0096257096,-3.9624894,-1.1153303,0.0023383372,-0.9625926,-0.27094299,0
1.3484885,3.7675309,-0.48619527,0.33452812,0.9346354,-0.12061355,0
-3.1639252,1.4340886,2.1034977,-0.7790997,0.35313666,0.51797509,0
1.9218981,-0.54520541,3.5039327,0.4764933,-0.13517195,0.86872476,0
1.3530973,-2.9194782,2.4798436,0.3330707,-0.71864206,0.6104241,0
0.16408372,-4.0747185,0.069203995,0.040230323,-0.99904633,0.016967552,0
2.8297815,2.106266,-2.06654,0.69215733,0.51518726,-0.5054704,0
-1.3037494,-1.872437,3.3558698,-0.3212761,-0.46141475,0.82696927,0
-3.246547,-0.19413412,2.4532092,-0.79692984,-0.0476541,0.60218924,0
-2.5206673,1.4774517,2.7900317,-0.62394089,0.36571369,0.69061667,0
3.2445672,1.1521302,-2.1855707,0.79559702,0.28251269,-0.53592157,0
-0.80651683,3.8201609,-0.71286625,-0.20320845,0.96252048,-0.17961243,0
-2.0385761,0.70705003,3.5187559,-0.49388501,0.17129673,0.85248756,0
-3.4143972,-1.1967074,-1.8958372,-0.83590811,-0.29297626,-0.4641363,0
3.5354934,0.87947142,1.5426373,0.89361906,0.22229216,0.38991168,0
3.2105298,2.275768,1.2808901,0.77576864,0.54989976,0.30950481,0
2.8925662,-0.47252715,2.8517632,0.70734155,-0.1155507,0.69736367,0
-0.86933357,-0.93737626,3.8922691,-0.21219563,-0.22880417,0.950064,0
2.0089419,3.4603961,0.64631033,0.4956513,0.8537578,0.15945935,0
0.65775555,-3.2335813,-2.3664258,0.16198389,-0.7963264,-0.58277404,0
-2.4708841,-2.9649978,-1.460068,-0.59877962,-0.71852022,-0.35382435,0
-0.70203573,-3.0692618,-2.4900532,-0.17488925,-0.76460624,-0.62031537,0
1.2198223,-0.30923194,-3.8956084,0.29796684,-0.075536296,-0.95158291,0
1.5195891,0.039752457,-3.7893219,0.372188,0.0097364401,-0.92810631,0
2.6048632,1.6333574,-2.6809132,0.63856077,0.40040413,-0.65720379,0
-0.95920873,3.3669293,2.0467489,-0.236532,0.8302536,0.50470936,0
-0.16534898,4.0352511,0.23649128,-0.040871762,0.99745291,0.058457058,0
3.4079318,-1.8529687,1.1131804,0.84445179,-0.4591473,0.2758351,0
3.530349,1.1342392,-1.6418402,0.87055069,0.27969268,-0.40486228,0
-0.22745152,-1.8052455,3.5913768,-0.05649573,-0.44839737,0.89204705,0
2.2973289,0.54477745,-3.2691884,0.56968516,0.13509238,-0.81068414,0
2.62306,2.3202102,2.0820575,0.64382833,0.56949407,0.51103961,0
-0.46424055,3.9288545,-0.25884458,-0.11709508,0.99097234,-0.065288201,0
1.3256425,-1.9434586,3.3144228,0.32615536,-0.4781602,0.81546634,0
-0.087666288,2.5650339,-3.0108759,-0.02215855,0.6483385,-0.76102966,0
1.6930002,-3.6795201,-0.89347488,0.40817809,-0.88712305,-0.21541454,0
-1.2165987,2.3619897,-3.035753,-0.30157,0.58548903,-0.75250119,0
-0.31600603,3.8812599,1.2402129,-0.077323049,0.94969982,0.30346587,0
-3.1931329,1.0504667,2.1187019,-0.80361289,0.26436999,0.53321183,0
1.4855702,-0.19651401,3.7925427,0.36430168,-0.048190512,0.93003327,0
-2.7441633,-1.8117193,-2.3212457,-0.68177307,-0.45011222,-0.5767014,0
0.14526843,-2.1413593,-3.442826,0.035806503,-0.5278132,-0.84860533,0
-4.0056896,-0.71767813,0.15675271,-0.98359686,-0.17622583,0.03849062,0
-3.0877998,-2.7006509,-0.54169983,-0.74624032,-0.65267658,-0.13091466,0
-0.070378326,-4.026504,0.66578287,-0.017242054,-0.98645711,0.16311078,0
-3.744132,-0.44692641,1.4870929,-0.92371112,-0.11026078,0.36687922,0
-3.4815292,1.1923102,1.7184892,-0.85720098,0.2935634,0.42311597,0
-3.0721107,-1.0782397,2.4322734,-0.75592536,-0.26531228,0.5984866,0
2.0976579,-2.8574085,-1.7415297,0.53113133,-0.72350174,-0.44095892,0
-1.9041369,-2.8515475,1.9065998,-0.48534223,-0.72682607,0.48596996,0
-3.4624128,1.8468422,0.95309615,-0.85740274,0.45733646,0.23601671,0
1.5475823,2.4796188,2.7536747,0.38537818,0.61747348,0.68571877,0
3.6511133,-1.4370079,0.13081738,0.93000537,-0.36603221,0.033321582,0
0.2325718,2.8852909,-2.9818618,0.055963475,0.69428408,-0.71752185,0
1.4767393,-0.89233494,3.6082227,0.36922762,-0.22310959,0.90216023,0
-3.2914889,2.1569247,0.92767972,-0.81409639,0.53348035,0.22944653,0
3.0445685,2.537838,-1.0817602,0.74103147,0.61769605,-0.26329458,0
0.12055961,-3.9171031,-1.1849687,0.02944652,-0.95674706,-0.28942698,0
-0.061995026,-3.4364064,2.1982343,-0.015195513,-0.84229273,0.53880608,0
-0.88807315,-1.1274713,-3.7200544,-0.22272468,-0.28276464,-0.93297255,0
0.30721056,-1.0596545,-3.8778911,0.07619717,-0.26282516,-0.96182996,0
3.2698004,2.44172,0.43688944,0.79669601,0.5949319,0.10644934,0
3.7035086,-1.4621068,-0.9561817,0.90442491,-0.3570576,-0.23350683,0
-2.5808363,-3.1545835,0.2575388,-0.63195008,-0.77243924,0.063061602,0
-3.4278343,-1.3544806,1.4741894,-0.86351651,-0.34121147,0.37136769,0
0.25380713,0.13812408,-4.0664144,0.062258478,0.033881612,-0.99748486,0
2.2112222,2.6710021,2.1240697,0.54378182,0.65685052,0.52234936,0
-2.5818489,0.21725051,-3.1453907,-0.63356346,0.0533114,-0.77185178,0
3.5236704,1.3432157,1.5030375,0.86800432,0.33088142,0.37025115,0
2.2360425,-2.1425476,2.7521329,0.53971291,-0.51714605,0.66428149,0
-1.5960222,-1.3658522,-3.5447731,-0.38734007,-0.33147991,-0.86028415,0
-0.92653883,2.7891121,-2.9386992,-0.22293206,0.67108089,-0.70707268,0
-3.9666212,-1.0515263,-0.33816531,-0.96334702,-0.25537723,-0.082127973,0
-0.51820648,-4.112494,-0.0056354613,-0.12501912,-0.99215347,-0.0013595746,0
3.4376984,0.035848536,2.282321,0.83307749,0.0086873844,0.55308813,0
-3.5691483,1.5149552,-1.2693512,-0.87482381,0.37132636,-0.31112707,0
2.4179728,-3.250881,0.72443259,0.58748877,-0.7898584,0.17601356,0
2.3563666,2.5289609,-2.0563402,0.58586651,0.62877882,-0.51127052,0
-3.5759373,1.7574582,0.49082342,-0.89073646,0.43776834,0.12226006,0
0.15729263,3.3038843,2.3534834,0.038747113,0.81387138,0.57975179,0
-2.4991741,0.090533867,3.2963431,-0.60401165,0.021880632,0.79667503,0
1.6581728,1.8293595,-3.3609278,0.39760873,0.4386571,-0.80590767,0
-3.623925,-1.4954791,1.0150816,-0.89487314,-0.36928582,0.25065899,0
1.1107117,0.084462121,3.9383974,0.27137557,0.020636279,0.96225226,0
3.6419241,1.7079737,-0.27810293,0.90322435,0.42359021,-0.068971597,0
-2.8180344,2.7242343,1.1266469,-0.69099152,0.6679914,0.2762576,0
0.93121064,-2.9860556,-2.5417483,0.23104641,-0.74088228,-0.63064337,0
-1.2667488,3.5842075,1.4408946,-0.31159362,0.8816399,0.35442984,0
-2.1529839,-3.3807487,0.52910501,-0.53253919,-0.83622605,0.13087378,0
2.2890966,-1.874263,-2.7886088,0.56303924,-0.46100441,-0.68590212,0
1.9918201,2.8610208,-2.0201488,0.49435639,0.71008623,-0.50138742,0
0.26792681,1.9984775,3.4298656,0.067341097,0.50230008,0.86206716,0
-3.9366176,-0.60448462,0.033364139,-0.98838031,-0.15177007,0.0083768507,0
-1.5479362,0.34859872,-3.6954391,-0.38489807,0.086679906,-0.91887981,0
2.7133377,-2.5675914,-1.8609354,0.65014029,-0.61521816,-0.44589701,0
-1.6336616,-3.1785045,1.773291,-0.40948784,-0.7967127,0.44448686,0
-0.40022266,-1.349897,3.698422,-0.10113367,-0.3411102,0.93456721,0
-0.96696359,2.4636991,-2.9757597,-0.24280567,0.61863768,-0.7472167,0
0.4153558,-3.0436072,-2.4949696,0.104957,-0.76909453,-0.6304583,0
-3.7938385,-0.77889532,1.3419604,-0.92558128,-0.19002679,0.32739756,0
2.8817163,2.9996507,-0.20636187,0.69193745,0.72025508,-0.049550164,0
2.235086,3.3610954,0.0019818228,0.55373162,0.83269495,0.00049098692,0
-2.7561913,-2.8889024,-0.77870673,-0.67752761,-0.71015072,-0.19142188,0
0.74015278,0.14055352,3.9963989,0.18199924,0.034561288,0.98269111,0
-2.7302964,-0.94260871,2.7770274,-0.68140584,-0.23524885,0.69306862,0
2.7483487,2.9852116,-0.18364966,0.6766246,0.73493862,-0.045213286,0
2.5274425,1.5581193,-2.650912,0.63498294,0.3914547,-0.66600287,0
0.14373936,1.7428608,3.5851073,0.036034953,0.43692908,0.89877385,0
-0.48617893,-2.8905776,2.7257779,-0.12146249,-0.72215539,0.68098336,0
3.7639589,0.57790107,1.4160534,0.92643839,0.14224112,0.34853894,0
-0.86619294,0.26552239,3.8745217,-0.21768926,0.066730365,0.97373426,0
-2.6154954,-2.5408297,1.6700258,-0.65213138,-0.6335147,0.41639388,0
-2.2940445,1.0913897,-3.1065009,-0.57165414,0.27196395,-0.77411056,0
2.6083634,-1.1256526,-2.8315179,0.65030205,-0.28064117,-0.70593762,0
2.9239776,-0.92126316,-2.6584513,0.72058213,-0.22703516,-0.65514606,0
-2.3379524,2.1603529,2.4188027,-0.58478504,0.54036266,0.60500795,0
0.40232101,-3.2211888,-2.3659174,0.10015709,-0.80190909,-0.58899087,0
1.4539257,3.0402896,-2.2440846,0.35909608,0.7509023,-0.55425251,0
3.7677937,-1.6054118,0.37499303,0.91613811,-0.39035547,0.09117946,0
0.23460233,-0.83277625,4.0395222,0.056788806,-0.20158525,0.97782338,0
-3.3412132,1.7721297,1.4559728,-0.82445061,0.4372763,0.35926402,0
-0.11410487,3.9355066,1.1976942,-0.027726978,0.95631069,0.2910344,0
3.1833918,0.90226853,2.3763692,0.78144574,0.22148511,0.58334118,0
-1.5557513,1.8285252,-3.3546062,-0.37713382,0.44325766,-0.81319904,0
-2.5455098,3.0981061,0.45053038,-0.63086456,0.76781684,0.11165687,0
-2.8537896,-2.5773952,-0.82998896,-0.72542602,-0.65516728,-0.21098107,0
-0.39301282,4.030086,-0.90017563,-0.094746269,0.97156018,-0.21701145,0
-3.3512135,-1.839025,1.2224742,-0.83501363,-0.45822534,0.30460089,0
-2.4161677,1.4265375,2.928977,-0.59569037,0.35170349,0.72212017,0
-3.6490843,1.4661607,-0.56195408,-0.91857237,0.36907196,-0.14145891,0
3.1102586,-2.1667438,-1.5204151,0.76154673,-0.53052717,-0.37227359,0
0.31929475,1.9559029,3.667623,0.076591372,0.46917555,0.87977731,0
0.2338492,3.4155371,2.2362852,0.057187043,0.83525825,0.54687607,0
3.1784236,-1.457559,-2.1610067,0.77323139,-0.35458785,-0.52571917,0
-1.7464025,1.2305558,-3.5144458,-0.42462122,0.29919797,-0.85450423,0
-1.0472084,2.861794,2.5034485,-0.26553109,0.72563899,0.63477659,0
3.110244,2.1129253,1.5268203,0.76640356,0.52065158,0.37622789,0
-3.6080236,-0.20630546,1.9124525,-0.88242722,-0.050456859,0.46773532,0
-3.4972067,0.22501966,2.0848937,-0.85763592,0.055182599,0.51128799,0
2.1584847,1.7625691,2.7615225,0.55018091,0.44926509,0.7038905,0
3.122524,-2.3020422,0.87628913,0.78512305,-0.57882226,0.22033291,0
1.1026217,2.5796952,2.9689715,0.26993445,0.63153899,0.72683829,0
-2.5344267,-1.4362464,2.881417,-0.61854506,-0.35052627,0.70323056,0
0.32927716,3.7916861,1.3248354,0.081707515,0.94087678,0.32874739,0
2.9595273,2.5962327,0.46218184,0.74661207,0.6549623,0.11659651,0
3.0531619,-2.6028535,-0.94046569,0.74091208,-0.63163561,-0.2282232,0
-0.68552923,-1.9475572,-3.5317292,-0.16757129,-0.47606239,-0.86329865,0
-1.5062975,-2.5252771,2.7146544,-0.37639439,-0.63101757,0.67833924,0
1.7677675,0.74955374,-3.463273,0.44641316,0.18928431,-0.87457806,0
-1.4949801,0.22344983,-3.7548769,-0.36933929,0.055203948,-0.92765355,0
3.0320246,2.4981654,-1.1592095,0.74022818,0.60989362,-0.28300548,0
0.78967577,-1.3831092,-3.6434758,0.19859228,-0.34783238,-0.91628259,0
2.9010227,-0.9685213,-2.5938132,0.72340804,-0.24151349,-0.64680135,0
-3.9395702,-0.47685316,0.70787013,-0.97732675,-0.11829751,0.17560808,0
-1.0339299,-3.2156522,2.2171552,-0.25589499,-0.7958656,0.54874021,0
-2.5668395,1.9769567,2.3993943,-0.63667393,0.49036053,0.59514111,0
-2.2036061,0.90650278,3.1116879,-0.56225735,0.23129715,0.79395735,0
0.24540922,1.2270523,3.850852,0.06060883,0.30304569,0.95104676,0
0.36793613,2.6930575,-2.8751833,0.092993207,0.68065089,-0.72668189,0
-0.14287488,-3.7412784,-1.3001338,-0.036049269,-0.94397527,-0.3280414,0
-0.5972473,0.84903789,3.9020629,-0.14791478,0.21027344,0.96638823,0
-1.3658879,3.8053198,-0.22348613,-0.33732253,0.93976974,-0.055192601,0
-3.2204189,-2.0991027,-0.94982672,-0.81329155,-0.53011191,-0.23987129,0
-1.4407202,-0.42034218,-3.687453,-0.36188409,-0.10558271,-0.92622471,0
1.16951,-1.298002,3.7448599,0.28301147,-0.31410545,0.90622425,0
-1.3007542,-2.7852385,-2.6527469,-0.32035384,-0.68595731,-0.65332687,0
-0.12992768,2.4603837,3.2494133,-0.031861626,0.60334963,0.79684007,0
-1.7056217,-0.97410136,-3.4735296,-0.42742947,-0.24411018,-0.87046784,0
1.4269139,-3.5969791,0.93737847,0.35837832,-0.90340376,0.23542845,0
-0.82025945,-3.3968134,-1.887697,-0.20652495,-0.85524976,-0.4752844,0
-2.8189216,-2.3882709,-1.841134,-0.68288738,-0.57856172,-0.44601709,0
2.4437909,-1.0648857,-3.0132384,0.60743284,-0.26468983,-0.74897569,0
-2.5096815,0.69771922,2.9727063,-0.6349597,0.17652582,0.7521069,0
0.7443195,3.7537735,-1.3625202,0.18323165,0.92407912,-0.3354162,0
3.6141441,0.98462629,1.6761481,0.88068694,0.23993164,0.4084402,0
2.4929116,0.60542697,3.0394781,0.62677181,0.15221742,0.76419044,0
-2.9090712,-0.41901588,2.8143141,-0.71489477,-0.10297178,0.69160849,0
2.8873849,-1.5287035,-2.2332809,0.72960603,-0.38628423,-0.56432211,0
1.336454,0.63048333,3.7740955,0.32973832,0.1555568,0.9311685,0
-0.32753757,-2.129739,3.4046886,-0.081289664,-0.52856767,0.84499013,0
0.26435459,3.9364538,-0.98733521,0.065000102,0.96790421,-0.24276821,0
4.0009332,-0.39305437,-0.64766014,0.98254043,-0.096525431,-0.15905096,0
-1.624886,-3.0188551,2.2254531,-0.39754078,-0.73858601,0.54447412,0
-3.4667485,-2.0045707,-0.98266226,-0.84075385,-0.48614731,-0.23831469,0
-3.6494982,-1.3535066,1.3011329,-0.88922894,-0.3297925,0.31703126,0
-3.6900809,-1.8500715,0.11713864,-0.89357942,-0.44800803,0.028365957,0
0.73365235,3.8009012,-0.79150021,0.18568082,0.96197391,-0.20032158,0
3.3104291,-0.64706695,2.2629094,0.81501096,-0.15930463,0.55711693,0
1.6762053,2.3359487,-2.7654371,0.42018256,0.58556366,-0.69322562,0
2.903403,2.1121793,1.7364676,0.72798389,0.52959669,0.43539271,0
-1.8979371,-3.1033564,-1.9020189,-0.46235263,-0.75600243,-0.46334699,0
3.1767373,-2.5630901,0.16750517,0.77761424,-0.62740326,0.041002575,0
-2.0958893,-3.3242919,-0.38098329,-0.53083771,-0.84196216,-0.096493788,0
3.371001,-0.36103925,2.3212729,0.82043284,-0.087869585,0.56495041,0
-2.6806402,-2.4107523,-1.7230904,-0.67086065,-0.60331815,-0.43122295,0
-1.0898432,3.2028797,-2.2249038,-0.26914719,0.79098177,-0.54946131,0
1.2446761,-3.2101469,2.2431614,0.30289531,-0.78119791,0.54587936,0
3.752907,-1.295012,0.80152649,0.92660671,-0.31974328,0.19789986,0
-1.537541,-0.22648624,3.6362772,-0.38881081,-0.057273462,0.9195357,0
3.3491828,2.2923455,-0.036407832,0.82518232,0.56479537,-0.0089702774,0
-0.69059706,-3.9689333,0.74061215,-0.16859955,-0.96895921,0.18081003,0
-3.2801569,1.8011936,-1.7372651,-0.7950449,0.43657357,-0.42107856,0
3.0101857,1.6201825,-2.2527187,0.73526508,0.39574423,-0.55024689,0
-1.3916942,-2.5205498,2.8156717,-0.34557736,-0.62588817,0.69917113,0
-4.0685616,-0.34037167,0.51451868,-0.98869872,-0.082713515,0.12503289,0
0.79664606,-3.6806481,-1.6755024,0.19327688,-0.89297396,-0.40649906,0
-1.4382738,0.57012171,3.7639158,-0.35342869,0.14009666,0.92491138,0
2.6759672,0.9432494,-2.948029,0.65401083,0.23053172,-0.72050321,0
-0.87924331,-0.90492368,3.9235678,-0.21333356,-0.21956447,0.95198756,0
1.1940833,-1.7757206,3.3664482,0.29934523,-0.44515613,0.84393626,0
-0.43445703,3.9836431,0.21869668,-0.10825627,0.99262828,0.054493967,0
1.0016836,-3.9316354,-0.23598368,0.2464719,-0.96740896,-0.05806559,0
0.1137532,-0.63283229,-3.9249964,0.02860052,-0.15911053,-0.98684639,0
-3.7941425,0.93399531,-1.1308466,-0.93273485,0.22960919,-0.27800223,0
1.1240394,3.8652918,-0.31947395,0.27836055,0.95721263,-0.079115503,0
2.1310072,-0.11737062,-3.5234358,0.51730841,-0.028492071,-0.85532469,0
0.61832535,-0.39403617,-4.0332851,0.15083359,-0.096120737,-0.98387504,0
3.4487877,1.952185,-0.37280706,0.86642706,0.49044073,-0.093659036,0
1.4748855,-3.7719862,-0.45954573,0.36184004,-0.92539775,-0.11274235,0
-0.2748889,-0.72030747,-4.0399938,-0.066835769,-0.17513366,-0.98227346,0
-1.226717,-2.2074213,3.2069988,-0.3005217,-0.54077506,0.78565204,0
3.8631382,-0.99674809,-0.22961919,0.96668917,-0.24942043,-0.057458568,0
-0.77052158,3.4599106,-1.9162581,-0.19122095,0.85864878,-0.47555932,0
3.5261018,-1.263193,1.5940183,0.86623222,-0.3103196,0.39159107,0
0.47253877,-1.7808948,-3.7488542,0.11312402,-0.42633957,-0.89746171,0
2.3463392,2.0394733,2.5797036,0.5808121,0.50485057,0.63857901,0
-3.8188405,-0.9037559,-1.2111784,-0.92984188,-0.22005373,-0.29490742,0
2.2020917,2.7527189,2.2378652,0.52738529,0.65925658,0.53595281,0
-0.23900971,-3.8578663,0.91398752,-0.06017584,-0.9713009,0.23011604,0
-2.6842635,1.1199163,-2.7776141,-0.66743362,0.27846363,-0.69064492,0
-2.2292764,-2.3486385,-2.6747155,-0.53078192,-0.5592016,-0.63683921,0
-1.5045671,0.76704788,-3.6411915,-0.37485123,0.19110402,-0.90717459,0
-1.1504068,2.5951521,-2.8173752,-0.28763899,0.64887214,-0.70443505,0
-3.8379333,1.0535365,0.28332764,-0.96189272,0.26404551,0.071009777,0
3.7612677,1.3712114,-0.6286397,0.92814118,0.33836406,-0.15512493,0
-0.45291352,1.8872343,-3.5917566,-0.11093793,0.46226457,-0.87977511,0
0.25350389,3.5703411,-1.9545071,0.06216076,0.87547028,-0.47925752,0
0.23989192,1.9790716,3.6016507,0.05827469,0.48075727,0.87491512,0
1.1771715,3.6230276,-1.2256557,0.2941615,0.90535259,-0.30627716,0
-3.3302739,-0.19573884,2.1599209,-0.83797258,-0.049252339,0.54348516,0
0.69086111,-2.6757593,3.0297365,0.16847125,-0.65250236,0.73882216,0
-2.3787303,3.0507443,1.4846305,-0.57407159,0.73625225,0.35829371,0
-2.6794524,3.0299914,-0.10101841,-0.66223913,0.74887651,-0.024967169,0
0.22057435,2.6296833,3.0282104,0.054914206,0.65468615,0.75390345,0
1.5453991,0.62806976,-3.7656968,0.37522063,0.15249442,-0.91430569,0
-3.502377,1.7148684,-1.3943826,-0.84568578,0.41407302,-0.33668834,0
-2.340749,-2.800154,-1.7806957,-0.5764125,-0.68954158,-0.43849865,0
2.1866546,-2.4104614,-2.3756831,0.54268187,-0.59822607,-0.58959478,0
0.72992158,-3.2291737,-2.4520712,0.17717274,-0.78381234,-0.59518743,0
0.9183585,-3.1011927,2.3902655,0.22835028,-0.7711131,0.59434068,0
2.842747,2.8455224,0.85653305,0.69126177,0.69193667,0.20828043,0
-2.0079076,-3.0041339,-1.7266717,-0.5013833,-0.75014532,-0.43115744,0
-2.5728269,0.064995058,3.1474006,-0.63281512,0.015986251,0.77413785,0
1.2522882,-3.9191647,-0.50786871,0.30207637,-0.94537908,-0.12250786,0
-2.2365048,-2.4673834,2.0881279,-0.56898737,-0.62772501,0.53123891,0
-0.91021979,-1.2017603,-3.8669512,-0.21930754,-0.28955105,-0.93169975,0
-4.0028925,-0.54544443,-0.17582734,-0.98990643,-0.1348872,-0.043481711,0
0.98911107,2.2817698,3.1866517,0.24469486,0.56448394,0.78834146,0
-0.37592804,0.78768069,-3.9468236,-0.093001418,0.19486554,-0.97641081,0
3.5419338,0.27058503,2.0677452,0.86173385,0.065831915,0.50307155,0
-3.5322862,0.4967705,-2.1300135,-0.85020882,0.1195709,-0.51268673,0
-3.76893,-1.409199,0.64497024,-0.92486191,-0.34580493,0.15826997,0
3.7880614,-0.50651968,-0.97620213,0.96034431,-0.1284122,-0.24748547,0
3.7449236,0.63121808,-1.6032475,0.90845662,0.15312308,-0.38892138,0
0.084353417,3.6744604,-1.6192361,0.021002745,0.91488594,-0.40316567,0
-3.488194,-0.39524773,2.0880694,-0.85399199,-0.096765943,0.51120853,0
1.2377102,3.1517971,2.3071053,0.30207393,0.76922339,0.56306905,0
1.3441308,0.20966144,-3.8091021,0.33231592,0.051835608,-0.94174266,0
2.5599909,2.9499876,1.0146606,0.6343627,0.7310034,0.25143167,0
1.4326692,-2.4525754,3.0492575,0.34379575,-0.58854133,0.73172635,0
0.82728249,-0.38447756,-3.8698368,0.20807378,-0.096701786,-0.97332114,0
-0.58819646,3.2123065,-2.3830242,-0.14549474,0.79458779,-0.5894587,0
3.92501,0.053578328,-1.0992568,0.9628647,0.013143579,-0.26966441,0
-2.0808291,3.2572291,1.1054118,-0.51760435,0.81023276,0.27497017,0
1.1196144,3.8929083,0.77000624,0.27153692,0.94413614,0.18674745,0
2.7258141,-2.5869565,1.3566902,0.68224251,-0.64748794,0.33956522,0
-0.17323637,0.79446596,4.0343847,-0.042093508,0.19304179,0.98028725,0
-1.986084,2.8296032,2.1083853,-0.49048123,0.69879586,0.52068466,0
-3.3025315,-2.2519612,0.034322158,-0.82616949,-0.56335622,0.0085861161,0
1.3435664,3.7893965,-0.99086463,0.32446757,0.91512877,-0.23929106,0
0.17817442,-3.5768561,-2.0578964,0.04313685,-0.86597335,-0.4982262,0
2.3515501,0.75090063,-3.1731398,0.58492553,0.18677932,-0.7892881,0
3.6339447,-1.6899375,0.22814636,0.90528113,-0.42099389,0.056835368,0
-2.175725,-0.69736707,3.3427181,-0.53735751,-0.17223473,0.82557982,0
2.8492787,2.4139693,-1.5489879,0.70476198,0.59708929,-0.3831383,0
-1.8876967,-1.9116216,3.2144992,-0.45059356,-0.4563044,0.76730156,0
2.9925168,-2.0564067,2.0734644,0.71569157,-0.4918111,0.49589062,0
0.36327595,4.0469732,0.2135783,0.089282118,0.99462229,0.052491017,0
0.75022835,-2.5450418,-2.9800053,0.18802473,-0.63784683,-0.74685884,0
3.5921276,-1.4449694,1.1977806,0.88631046,-0.3565273,0.2955367,0
-0.25188971,-1.5682088,-3.6863096,-0.062753938,-0.39069197,-0.91837996,0
-0.56007391,0.87719351,4.0012584,-0.13546696,0.21216975,0.96779788,0
1.2893395,-3.7094727,0.65568179,0.32383096,-0.93167245,0.16468127,0
0.50950456,2.2209244,-3.3701704,0.12524118,0.54592484,-0.82842064,0
-2.1491139,-1.6513833,-2.8751428,-0.54391032,-0.41794178,-0.72765803,0
3.2747161,-2.3981199,0.46929631,0.80145782,-0.58691865,0.11485612,0
-0.010997809,-3.1975269,2.408617,-0.0027472435,-0.79873961,0.60167056,0
-0.7408877,-4.0015149,0.40446204,-0.18116495,-0.97846711,0.098900743,0
1.0148329,-2.8798034,-2.6050715,0.2528441,-0.71749872,-0.6490497,0
1.5959837,1.5662485,3.317956,0.39888215,0.39145046,0.82925242,0
-0.34557337,-2.5279491,3.183656,-0.084701359,-0.61961001,0.78032625,0
2.6917396,2.9931986,-0.87572408,0.65338886,0.72656459,-0.21257196,0
-2.9255848,0.10506188,-2.7474041,-0.7287069,0.026168894,-0.68432552,0
-1.4709591,3.4648821,1.5772909,-0.36041471,0.84896618,0.38646814,0
3.7057023,-0.89398354,-1.5482582,0.90065986,-0.21728003,-0.37629953,0
-3.2536397,-0.48890319,-2.3331547,-0.80666196,-0.12121183,-0.57844979,0
1.5203316,2.5663936,2.8202441,0.37035504,0.62517726,0.68701565,0
-2.2930007,-3.0884018,-1.5892413,-0.55094481,-0.7420578,-0.38185084,0
-2.7027402,-2.5032964,-1.6805772,-0.66748297,-0.61822724,-0.41504419,0
-2.856019,-0.66923207,2.741852,-0.71128774,-0.16667137,0.68285465,0
1.3141272,2.7824624,2.6685317,0.32263616,0.68313247,0.6551609,0
-3.4106185,-1.8966881,1.3615344,-0.82517195,-0.45888856,0.32941237,0
-3.7196224,1.5837739,0.79107624,-0.90294516,0.384464,0.19203521,0
-3.643012,1.3946943,-1.0222396,-0.90339541,0.34585679,-0.25349534,0
-0.88133842,-1.7761949,-3.5905585,-0.21487281,-0.43304136,-0.87538832,0
-0.27615908,0.045385089,-4.1009603,-0.067183845,0.011041261,-0.99767953,0
-1.6004553,1.2159723,-3.5893953,-0.38904023,0.29557973,-0.87251371,0
-2.6885695,3.0937605,0.0021717087,-0.6559484,0.75480556,0.00052984641,0
3.5962396,-1.6434232,-0.60108447,0.89919811,-0.41091898,-0.15029421,0
-2.2445168,-2.9307094,-1.5903356,-0.55841219,-0.72912967,-0.39565876,0
3.8379939,0.062615268,-1.0987364,0.96126223,0.015682591,-0.27518901,0
4.0538788,0.2080806,0.56518888,0.98914325,0.050771505,0.13790564,0
2.7818584,0.6252237,-2.7834368,0.6981498,0.15690942,-0.69854587,0
0.27178678,-2.9379759,2.8931189,0.065771692,-0.7109825,0.70012718,0
3.0592623,0.39023247,-2.6363075,0.7540189,0.096180923,-0.64977288,0
-2.7264748,0.98219228,2.7609355,-0.68116897,0.24538606,0.68977851,0
3.0459197,-1.9446192,-1.8754122,0.7481249,-0.47762847,-0.46063018,0
0.71361774,4.0587959,0.37896812,0.17243639,0.98075491,0.091572687,0
-2.425621,0.91751331,-3.017549,-0.60963207,0.2305989,-0.75840151,0
0.50557691,2.4848871,3.0674777,0.12703221,0.62435746,0.77074027,0
3.2639277,2.3704519,0.4865776,0.80330378,0.58340538,0.11975438,0
-2.5608916,1.2738192,-2.7767327,-0.64241439,0.31954485,-0.69655931,0
0.40859443,3.4120984,2.1692557,0.10054319,0.83961809,0.53379071,0
-2.8674631,0.89437819,-2.6763365,-0.71275628,0.22231276,-0.66524851,0
-1.2812725,-3.8205447,0.40997198,-0.31632698,-0.94323516,0.10121593,0
0.11087755,-3.9497085,-0.33874759,0.027958725,-0.99595284,-0.085418105,0
2.9731607,-1.4234966,2.4136734,0.72772318,-0.34842095,0.59078074,0
-0.37062022,3.9876502,-0.18469732,-0.092444912,0.9946515,-0.046069603,0
0.97179151,3.4666438,-1.5909418,0.24689031,0.88072467,-0.40418968,0
3.3084111,-0.49772376,-2.3569849,0.8084051,-0.12161803,-0.57592559,0
-0.43446824,-3.9963255,-0.50414336,-0.10724002,-0.98641509,-0.12443797,0
-0.45139176,-2.4487946,3.2752931,-0.1097115,-0.59518349,0.79606533,0
-2.6531849,2.5005314,1.6144763,-0.66540849,0.62712359,0.4049044,0
2.7602992,0.74296993,2.885587,0.6795826,0.18291838,0.71042836,0
2.3402448,-3.2362192,-0.5418691,0.58065975,-0.80296826,-0.13444816,0
-0.02352461,3.1154776,-2.5203235,-0.0058703786,0.77744251,-0.62892658,0
-3.1393821,2.3496442,0.51892805,-0.79367888,0.59402227,0.13119213,0
-2.2582769,2.6233888,-1.9812102,-0.56621408,0.65775794,-0.49674559,0
-0.083404072,-2.4777336,3.1234291,-0.020915216,-0.62134057,0.78326142,0
-2.7013519,2.4126215,1.7929083,-0.66842699,0.59698308,0.44364023,0
0.30863041,-3.8086784,-1.1242735,0.077484511,-0.95620388,-0.28225926,0
-2.4025474,-0.74337262,3.2043242,-0.58981478,-0.1824947,0.7866475,0
-3.2773199,1.8039278,-1.4218464,-0.81890452,0.45074779,-0.35527703,0
1.5219724,0.49240741,-3.7155726,0.37623352,0.12172374,-0.91849428,0
2.4337437,3.0872791,0.881522,0.60408181,0.76629639,0.21880339,0
-0.67422831,-3.224185,2.4376173,-0.16453438,-0.78680956,0.59486061,0
-0.41036865,2.9451594,-2.6735094,-0.10262418,0.73651963,-0.6685859,0
2.8290665,-1.9221455,-2.1977763,0.69586766,-0.47279161,-0.54058874,0
-0.63926488,-2.2499762,3.3540292,-0.15633471,-0.5502404,0.82024086,0
-0.38343912,-2.9568696,-2.7172408,-0.095050834,-0.73297924,-0.67357761,0
1.1614519,-1.9311312,-3.3908639,0.28527176,-0.4743177,-0.83285213,0
-2.937269,-2.4462206,-1.1491926,-0.73587835,-0.61285526,-0.28790891,0
-3.6404285,1.323567,1.1740317,-0.8994087,0.32700208,0.29005772,0
-0.079945408,-0.28072056,-4.0433459,-0.019720776,-0.069247596,-0.99740458,0
-3.4720793,-1.9063795,-0.26527727,-0.8746044,-0.48021021,-0.066822402,0
3.8102345,1.4318204,0.77505952,0.91956586,0.34555697,0.18705365,0
2.3325274,1.1431403,3.0107191,0.58659041,0.28748006,0.75714391,0
2.5512102,2.707489,1.643787,0.62728173,0.66570699,0.40416804,0
2.206634,-2.7136841,1.9168887,0.55325526,-0.6803847,0.48060927,0
4.0108085,0.22120076,-0.72756064,0.98249668,0.054185838,-0.17822489,0
-0.57213849,-3.4760604,-2.181644,-0.13807568,-0.83888674,-0.52650183,0
1.5085043,-0.54207456,-3.6480293,0.3785775,-0.13604021,-0.91551739,0
1.7295588,3.5743315,-0.84349465,0.42606303,0.88050807,-0.20778818,0
-3.1312065,1.0387167,2.3971014,-0.76784289,0.2547169,0.58782363,0
2.9605877,2.7576733,0.19996005,0.73084617,0.68075496,0.049361832,0
3.2552183,0.83951926,2.4347649,0.78423476,0.20225377,0.58657426,0
-3.2359521,2.3848524,1.0514449,-0.77879977,0.57396477,0.25305226,0
-0.30364093,-3.9058962,-1.1288856,-0.074475043,-0.9580124,-0.2768856,0
1.1554796,1.5589616,-3.5403552,0.28620264,0.38614178,-0.87691647,0
2.6717503,2.7278941,-1.3177019,0.66143793,0.67533731,-0.32621986,0
-1.6639168,-3.4305243,1.3165197,-0.41250888,-0.85047626,0.32638416,0
1.2182992,-3.4392703,-1.4284878,0.31092203,-0.87773591,-0.36456427,0
0.42546055,2.3145189,-3.1664889,0.10784236,0.58666587,-0.80261642,0
-1.3134106,0.84172696,-3.7950239,-0.32009891,0.20514216,-0.92490727,0
1.4633715,3.3714609,-1.4955314,0.36879563,0.84966809,-0.37690049,0
-3.2789183,1.2292749,-2.0186689,-0.81121975,0.30412835,-0.49942812,0
-0.37363192,4.0282273,-0.17526037,-0.092270456,0.99479288,-0.04328151,0
1.7356858,-3.4775155,1.2385764,0.42549768,-0.85250151,0.30363294,0
-2.9975338,0.072207905,2.831017,-0.72690016,0.017510373,0.68651992,0
-0.81122226,1.0227062,3.8705456,-0.19859807,0.25037214,0.94756138,0
2.2457047,-2.4328747,2.3169661,0.55571771,-0.60203439,0.57335192,0
3.3131554,-2.1739888,-0.23854987,0.83456832,-0.54761761,-0.060089596,0
2.8670449,2.6071978,1.4863294,0.69077194,0.62816566,0.35810903,0
3.9588859,-0.5775795,0.38846841,0.98489249,-0.14369035,0.096643254,0
2.593178,-0.80073309,3.0049641,0.64042652,-0.19775376,0.7421236,0
2.0977001,-0.48449883,3.4405458,0.51684994,-0.11937511,0.8477121,0
3.5567188,-1.2463228,1.4235635,0.88285398,-0.30936408,0.35335901,0
-0.52525783,-0.95635825,3.8506579,-0.13124031,-0.23895457,0.96212095,0
3.386692,-1.3734626,-1.5165343,0.85592532,-0.3471179,-0.3832767,0
-0.52044487,4.0702877,0.1654854,-0.12672877,0.99111861,0.040295839,0
1.6907479,0.99124783,-3.477237,0.42358303,0.2483373,-0.8711521,0
-3.3854856,1.4828316,1.838508,-0.82012659,0.35921276,0.44537461,0
-2.975158,-2.3904204,1.4633569,-0.72787976,-0.5848223,0.35801387,0
3.3117166,0.15824105,-2.2445023,0.82714635,0.039522856,-0.56059504,0
1.5976195,-3.4307265,-1.1493771,0.40393233,-0.86740386,-0.29060146,0
2.9255993,-2.4715703,-1.6450373,0.70188457,-0.59295785,-0.39466318,0
0.092335694,-4.1115561,-0.35239398,0.022369971,-0.99609786,-0.085373737,0
3.531455,-1.7138009,0.73788214,0.88417006,-0.42908415,0.18474348,0
-1.4008648,-1.1262031,3.7102611,-0.33979166,-0.27317011,0.89995533,0
-1.257346,-1.6693202,3.4717627,-0.31028384,-0.41194952,0.85675049,0
3.5621791,1.6662982,-1.4054012,0.85296714,0.39899665,-0.33652464,0
-3.6663392,-1.5264207,-0.920663,-0.8993361,-0.37442398,-0.2258344,0
3.9308789,-0.22087656,-1.2297503,0.95301723,-0.053550154,-0.29814532,0
2.2289376,-0.102139,3.4057729,0.547436,-0.025085749,0.8364715,0
-3.4841473,1.5284591,-1.3609318,-0.86225414,0.37826189,-0.33680236,0
1.4439522,1.9742433,3.2613819,0.35419884,0.48427829,0.80001104,0
-1.8259802,2.5016344,-2.8459945,-0.43411702,0.59475017,-0.67661995,0
-3.2767985,2.2597709,-0.67836738,-0.81152254,0.55964839,-0.16800253,0
-0.38902384,0.74506116,3.9962072,-0.095263958,0.18245019,0.97858912,0
-3.2470758,2.3439572,-0.085206643,-0.81063241,0.5851689,-0.021271838,0
-1.6073568,3.5301409,-1.3468201,-0.39146328,0.85974723,-0.32801095,0
-1.3410507,3.8540201,-0.069350444,-0.32858729,0.94432074,-0.016992403,0
3.8760879,0.65783781,-1.3787973,0.93034738,0.15789571,-0.33094203,0
-3.2509441,-2.0832536,1.1132697,-0.80900419,-0.51842195,0.27703947,0
3.1022062,2.4264603,-0.80009145,0.77190477,0.60376269,-0.19908231,0
-2.7187524,-1.6441498,2.4813635,-0.67439783,-0.40783817,0.61551255,0
1.1590812,-3.4229121,-1.7961673,0.28721455,-0.84818059,-0.44508132,0
0.12298334,0.37815008,4.0623875,0.030129664,0.092642903,0.99524343,0
2.8879454,-0.45310202,2.7259972,0.72251511,-0.11335847,0.68199843,0
0.94775784,1.9938767,-3.4270947,0.23248665,0.48910141,-0.84067225,0
-2.2596602,3.1993604,-1.1020958,-0.55533844,0.78628093,-0.27085319,0
2.0651889,-2.7308388,-2.2649715,0.50306779,-0.66521621,-0.55173367,0
2.7313259,-2.3248975,1.8611094,0.67591721,-0.57533896,0.46056598,0
-4.0022807,0.53771746,-0.75378942,-0.97426724,0.1308955,-0.18349345,0
-0.69276339,-3.5928833,1.5845139,-0.17373781,-0.90105754,0.39737952,0
3.777519,-1.2883639,-0.91387314,0.92259014,-0.31465939,-0.22319685,0
4.1302161,0.045274079,-0.29072213,0.99747229,0.010933965,-0.070211157,0
