1.8480133,-3.9772041,0.50559515,0.41861141,-0.90091509,0.11452726,0
3.0415461,-2.9684029,-0.78862351,0.70364797,-0.68672663,-0.1824445,0
-3.2684989,1.1715063,-2.564698,-0.75718981,0.27139452,-0.5941453,0
-4.2246718,0.97395718,0.78575945,-0.95881981,0.22104663,0.17833379,0
-2.3841081,3.689924,0.22990878,-0.54194957,0.8387844,0.052262295,0
-1.7224762,-3.3677051,-2.2431102,-0.39167517,-0.76578504,-0.51006252,0
-0.57011288,4.3813281,0.081281781,-0.12901364,0.99147218,0.018393653,0
-4.3202853,0.70584434,0.17926843,-0.98608857,0.16110626,0.040917333,0
3.0071063,-3.128401,0.21965571,0.69210619,-0.72002304,0.050555274,0
0.35896885,-1.2191588,-4.1391592,0.082905069,-0.28156883,-0.95595276,0
-1.6361057,0.82853174,-4.0231409,-0.37004066,0.18739036,-0.90992022,0
3.1043236,-2.8633792,1.3951946,0.69795632,-0.64378393,0.31368667,0
0.66759592,-2.230583,-3.6982932,0.15276131,-0.5104087,-0.84625465,0
-4.0434217,-1.3367413,1.1705322,-0.91550726,-0.30266356,0.26503065,0
-2.0486865,-3.8400195,-0.35677922,-0.46913558,-0.87933892,-0.081700064,0
3.1309147,2.9940379,1.1594534,0.69815522,0.66763341,0.25854376,0
-2.3090589,3.8366637,-0.42209688,-0.51337898,0.85301524,-0.093845874,0
2.3773751,-3.6332977,0.080019534,0.54743993,-0.83664209,0.018426156,0
-2.8082478,2.3974216,2.2650869,-0.64828634,0.55344677,0.52289718,0
4.0183983,1.3720531,1.2749436,0.90638047,0.30947709,0.28757328,0
3.2257669,2.0493011,2.1512845,0.73554093,0.46728262,0.4905369,0
-2.676893,0.23729108,-3.4315391,-0.61416137,0.054441854,-0.78730035,0
-1.3888857,-1.1011089,4.0475297,-0.31432778,-0.24919912,0.91602278,0
2.4720421,-3.0773132,1.7689278,0.57150429,-0.7114352,0.40895334,0
-3.6398549,2.4742658,0.26983684,-0.82546479,0.56112659,0.061194971,0
-0.13368686,-2.1660359,3.7493131,-0.030859726,-0.49999884,0.86547607,0
-0.97085899,-0.7730028,-4.2480869,-0.21937114,-0.17466441,-0.95987958,0
2.0427554,1.0104457,-3.7340667,0.46695846,0.23098026,-0.85357946,0
-3.3916397,1.7119702,-2.4264674,-0.75236499,0.37976512,-0.53826153,0
-4.0020142,-1.0488143,-1.3254651,-0.92120928,-0.2414228,-0.30510405,0
-0.88488603,3.8589678,-1.8731146,-0.20203501,0.88107008,-0.42766494,0
-3.1393359,-0.63492429,-2.9202299,-0.72429776,-0.14648774,-0.67374629,0
-0.48975304,0.90749252,-4.3245111,-0.11016178,0.20412531,-0.9727267,0
-0.56026459,-4.2656879,-0.0035907649,-0.13022368,-0.99148428,-0.00083461031,0
-4.2186503,-0.90235597,-0.90213579,-0.95717609,-0.20473695,-0.20468698,0
2.2793829,-3.6469381,-0.4305678,0.52737033,-0.84377527,-0.099618495,0
-1.6826258,0.039012723,-3.9658473,-0.39056236,0.009055431,-0.92053187,0
2.1579959,-0.36083308,3.786376,0.49347329,-0.082512431,0.86583823,0
4.1982021,-0.77872616,1.1370476,0.9501164,-0.17623746,0.25733101,0
-3.1189432,3.0735097,0.70638621,-0.70318466,0.69294143,0.15925905,0
3.5799756,-2.6607184,-0.10267831,0.80239087,-0.59635496,-0.023013603,0
-2.2424603,3.3401494,1.7892767,-0.5092985,0.75860125,0.40637329,0
1.473586,1.1024588,4.0060482,0.33425653,0.25007302,0.90870017,0
1.9214042,-3.5044949,-1.4743488,0.45104152,-0.82266533,-0.34609714,0
-4.1876812,-1.1818402,0.94206488,-0.94061488,-0.2654587,0.21160164,0
1.4916446,-3.8617613,1.4708495,0.3395226,-0.87899977,0.33478931,0
-2.8214712,1.9863868,2.6622345,-0.64739341,0.45578125,0.61085618,0
-0.26072916,-3.8575952,2.2280111,-0.058427952,-0.86446553,0.49928486,0
4.1044011,0.91306132,1.5266114,0.91753501,0.204114,0.34127256,0
1.3447763,3.5808549,-2.1281984,0.30722058,0.8180635,-0.48619714,0
3.5237336,-1.8937619,-1.7374054,0.80794054,-0.43421188,-0.39836165,0
-2.4602838,-3.0409639,1.9361055,-0.56370199,-0.69674784,0.44360188,0
-1.6240565,2.666744,-3.0765188,-0.37050295,0.60837573,-0.70185941,0
3.3497019,-1.3048348,2.4066679,0.77430046,-0.30161914,0.5563134,0
1.1004684,-3.876703,1.5650672,0.25455472,-0.89673907,0.36202332,0
2.4508216,-3.5582292,-0.71656096,0.55959821,-0.81245351,-0.16361298,0
-0.63097101,-0.18804841,4.2789083,-0.1457455,-0.043436561,0.98836815,0
3.8377862,-1.8438469,-0.78289467,0.88650447,-0.42591706,-0.18084376,0
-2.6661794,-1.7010213,3.1478107,-0.59751129,-0.38121197,0.70544857,0
-0.28238863,1.627748,4.0123768,-0.065078817,0.37512812,0.92468572,0
-1.9620239,3.8513031,-0.75165129,-0.44722095,0.87786061,-0.17133033,0
4.1152,1.3612938,-0.84638739,0.93180501,0.30823785,-0.19164754,0
2.6233339,3.4925129,0.64019579,0.59423,0.79111391,0.1450153,0
-0.40457493,-1.831198,4.0548501,-0.090559088,-0.40989098,0.90762794,0
2.5758529,-3.5787673,-0.0082754865,0.58417529,-0.81162536,-0.00187679,0
-4.3016729,-1.1424234,0.64969498,-0.95636135,-0.25398713,0.14444222,0
-0.85570902,1.4795358,4.1580062,-0.19034433,0.32910866,0.92490894,0
-2.8266013,-2.2427564,-2.5082941,-0.64322102,-0.51036137,-0.57078707,0
3.1376066,-0.87131262,-3.0541339,0.70279479,-0.19516595,-0.68409771,0
-3.4645026,1.1221164,2.3410742,-0.80025154,0.25919318,0.54075533,0
-0.32616121,4.2103643,1.3791832,-0.073418595,0.94774926,0.31045291,0
-3.3258033,-2.5703669,-0.93277282,-0.77244443,-0.59698826,-0.21664394,0
-2.2897422,-3.6372943,1.09014,-0.51639402,-0.82030064,0.24585377,0
0.043630306,4.035852,-1.8708028,0.0098076817,0.9072215,-0.42053884,0
-3.7429812,-2.0905199,-0.25438252,-0.87152445,-0.48676154,-0.059231021,0
0.32375011,4.1536837,1.6507488,0.072243206,0.92687356,0.36835629,0
-1.8937603,2.3812122,3.0579081,-0.43901899,0.55202204,0.70889634,0
2.6638052,3.2834291,-1.3284597,0.60105526,0.74086583,-0.29975078,0
-2.5504575,-3.4045963,1.0048811,-0.58349133,-0.77890044,0.22989579,0
0.05574831,2.12568,3.9024007,0.012544237,0.47831106,0.87810087,0
-1.3624561,-1.9497221,3.6350935,-0.31363034,-0.44881594,0.83677971,0
0.096497588,1.4694093,4.137012,0.021974817,0.33461979,0.94209695,0
3.3444016,-1.0777818,-2.4864497,0.7769475,-0.25038257,-0.57763422,0
3.5574012,-0.88170987,-2.5375915,0.79801911,-0.19779083,-0.56924886,0
-2.9228942,-2.5132551,2.3040628,-0.65084362,-0.5596289,0.51304787,0
-3.4475493,2.491225,1.2896917,-0.77565902,0.56049705,0.29016584,0
-1.329825,3.6570275,2.0976691,-0.30081844,0.82725263,0.47451168,0
2.4724245,1.8217613,3.1665742,0.56048506,0.41298327,0.71784496,0
2.7110429,-0.22333309,-3.5492508,0.60625589,-0.049942773,-0.7936998,0
0.10473041,-2.7727125,-3.3705425,0.023989297,-0.63511086,-0.77204841,0
-2.327157,0.36904466,-3.6781964,-0.53275228,0.084484793,-0.84204358,0
1.4571748,4.1606627,-0.25171357,0.33000344,0.94225693,-0.057005066,0
1.6664257,1.5168129,3.6962237,0.38494959,0.35038859,0.85383934,0
2.8160284,-0.42430329,3.2978404,0.64628279,-0.097378246,0.75685936,0
0.92118961,-0.099999227,-4.3095961,0.20897731,-0.022685416,-0.97765732,0
2.6697929,1.5714202,3.1425574,0.60501075,0.35610482,0.71214551,0
-3.4106462,-2.7800534,-0.059318025,-0.77505237,-0.63175327,-0.013479725,0
-1.8486031,-1.4033785,-3.7327204,-0.42057171,-0.31927961,-0.84922314,0
1.6720793,3.4774311,-2.0517988,0.3826133,0.7957226,-0.46950254,0
-3.6546311,1.8477048,-1.6685777,-0.82645702,0.41783932,-0.37733158,0
-2.6648917,-2.0774984,2.889683,-0.59937567,-0.46726176,0.64993471,0
-3.8174775,-1.5206321,1.4723747,-0.87456256,-0.34836826,0.33731273,0
1.5329877,-3.2132761,-2.6580534,0.34503269,-0.72321862,-0.59825349,0
-1.0123132,2.5272734,3.4700201,-0.22952101,0.57300675,0.78675497,0
1.8843118,-3.8229606,1.202281,0.42550179,-0.86327356,0.27149048,0
-3.0982182,3.1458507,0.096669398,-0.70152414,0.71230948,0.021888683,0
-1.7760161,-1.4303743,3.821764,-0.39906862,-0.32140332,0.85874563,0
-1.4476489,-2.485378,-3.3406296,-0.32839599,-0.56380254,-0.75781453,0
1.7237842,0.098449372,-3.994231,0.39614135,0.022624565,-0.91791075,0
0.28557578,-4.3175955,-0.27373922,0.065866441,-0.99582905,-0.063136406,0
-1.5362735,-2.2207706,3.4307323,-0.35187274,-0.50865203,0.78578538,0
1.6882761,3.3370345,2.3075089,0.38418886,0.75938493,0.52510321,0
-3.342818,-2.1702805,2.1039672,-0.74172801,-0.4815571,0.46684304,0
2.2156529,3.2965393,-1.9867249,0.49889737,0.74227995,-0.44734976,0
3.7735181,2.0408666,-0.80226725,0.86460829,0.46761405,-0.18381968,0
2.2004502,-3.5734365,1.1328305,0.50622213,-0.822083,0.26061207,0
-2.1766167,2.9828222,-2.3545194,-0.49701893,0.68111169,-0.53764206,0
4.1127396,-0.90131658,-1.4461517,0.92384142,-0.20246203,-0.32484791,0
-0.53006172,4.1871324,-1.4354329,-0.118902,0.93924606,-0.3219924,0
3.6893308,-1.4237345,2.1779742,0.81719714,-0.3153612,0.48242739,0
-1.2663108,-4.1533689,-0.66959232,-0.2882272,-0.94535553,-0.15240708,0
0.86929184,2.8301039,-3.3788984,0.19350061,0.62996888,-0.75212818,0
-2.8885138,1.3728614,2.9698951,-0.66182572,0.31455448,0.68047208,0
-1.2873021,0.38114214,-4.2364364,-0.28966701,0.085764103,-0.95327729,0
-1.1937923,0.9539513,4.0897255,-0.27343604,0.21850087,0.93674445,0
-3.3068318,2.1574759,-1.7812203,-0.76342392,0.49808058,-0.41121721,0
-2.3384953,3.5133903,1.4487031,-0.524068,0.78736758,0.32466128,0
2.844768,-1.7255846,-2.9002931,0.64450985,-0.39094797,-0.65708959,0
3.1067095,-1.5535814,2.7044861,0.70571494,-0.35290894,0.61434656,0
1.8902899,2.4327545,-3.1409106,0.42964673,0.5529443,-0.71390212,0
1.4620736,2.3786891,3.4925723,0.32697961,0.53197241,0.78108239,0
-4.177865,1.2629101,-0.90853506,-0.93713367,0.2832824,-0.2037928,0
-2.514936,3.4902132,1.1045817,-0.56624043,0.78582513,0.24869771,0
4.0803218,-0.47346255,-1.2358384,0.95121735,-0.11037506,-0.28810251,0
-3.08987,2.4562776,1.827545,-0.71035218,0.56469113,0.42014733,0
1.0869051,1.8790698,-3.849946,0.24591902,0.4251512,-0.87107414,0
0.1465494,3.1597407,-3.0595551,0.033301249,0.71800578,-0.69524002,0
-3.8186686,-0.67321908,-1.8965716,-0.8846615,-0.155963,-0.43937406,0
1.2681786,-3.9560971,1.1735322,0.29376647,-0.9164077,0.27184218,0
2.3238494,1.0153474,-3.4891291,0.53875399,0.23539495,-0.80890876,0
2.1726432,-0.20543367,3.8264432,0.4932192,-0.046636205,0.86865407,0
0.11120177,-2.745692,-3.3680136,0.02558242,-0.63165766,-0.77482527,0
-0.83118111,-1.6485369,4.0149422,-0.18808904,-0.37304953,0.90854645,0
2.2531948,-3.309422,-1.7776515,0.51436365,-0.75548118,-0.40580571,0
0.88019663,-3.8654163,-1.7616026,0.20289737,-0.89103138,-0.40607351,0
-0.45895311,-4.417201,-0.022677299,-0.10334367,-0.99463266,-0.0051063062,0
-3.2465067,2.5297701,-1.5695822,-0.73702186,0.57430834,-0.35632652,0
-2.0891323,1.8013084,3.4629703,-0.47187066,0.40686011,0.78217834,0
-0.40169945,-4.1620307,-1.6701159,-0.089215562,-0.92436749,-0.37092492,0
2.1133738,2.8451796,-2.5414422,0.4845821,0.65238017,-0.58273524,0
-1.4396818,-1.5907105,3.9042516,-0.32316741,-0.35706905,0.87639284,0
4.0557442,-1.4193554,0.91618884,0.92311919,-0.3230564,0.20853177,0
-3.9204185,-1.9463117,0.39905301,-0.89199418,-0.44283503,0.09079463,0
2.38924,-0.027489873,-3.7546988,0.53684711,-0.0061768,-0.84365702,0
1.6275731,-3.0982466,-2.664819,0.37000442,-0.70434004,-0.60580677,0
0.72775954,-0.19033541,4.2722125,0.16776642,-0.04387698,0.98484981,0
2.9746516,-2.6317205,2.0677681,0.66431957,-0.58773386,0.46178815,0
3.9246387,0.80344987,-2.0522354,0.87192684,0.17850038,-0.45593983,0
2.5635207,3.2698779,-1.5893575,0.57625687,0.73503977,-0.35727358,0
-3.3756661,-2.7943888,0.27545831,-0.76879478,-0.63641113,0.062734552,0
-0.34010622,3.8153667,-2.134711,-0.077558331,0.87006199,-0.48680273,0
1.22071,-1.3307587,-3.953578,0.28085071,-0.30616978,-0.90960598,0
-3.7010684,2.1767809,-0.69166791,-0.85099602,0.50051272,-0.15903695,0
-3.5474291,0.46436977,-2.5013638,-0.81262416,0.1063751,-0.57299769,0
4.2295117,-0.89343292,0.81187433,0.96159714,-0.2031257,0.18458302,0
3.6570394,-0.24205966,-2.5018013,0.82411873,-0.054548468,-0.56378424,0
1.9563779,-3.9519887,-0.38612387,0.44196025,-0.89278352,-0.087228239,0
2.2700901,3.771353,0.18531939,0.51525456,0.8560043,0.042062942,0
0.030205144,4.1891537,0.99616951,0.0070145433,0.97284752,0.23134054,0
-1.4861642,-0.99401051,3.9814503,-0.34051347,-0.22775005,0.91223931,0
3.4581397,0.28721386,-2.7643273,0.77947086,0.064738519,-0.62308431,0
-1.4450756,-0.57065117,-4.2326083,-0.32050446,-0.12656517,-0.93875349,0
-1.6325771,-0.19545907,-4.0886664,-0.37045991,-0.044353034,-0.92778897,0
-1.9824686,-3.3825409,1.8759402,-0.4561207,-0.77824533,0.43161097,0
-1.9370689,2.9989555,2.4788826,-0.44567633,0.68999273,0.57033551,0
-0.5088138,1.4911834,4.0049949,-0.11822493,0.34648243,0.93057662,0
1.3091838,-3.7676194,1.6503117,0.30329531,-0.87283486,0.38232356,0
1.5313065,-4.0723667,-0.53736556,0.34930912,-0.92895502,-0.12257944,0
1.4291624,2.6752484,-3.1281586,0.32800326,0.61398911,-0.71793532,0
-4.3229814,-0.50022447,-1.0221735,-0.96705353,-0.11190052,-0.22866084,0
-4.2357068,-0.33819076,1.235531,-0.95718533,-0.076424375,0.27920538,0
0.92888647,-1.634481,3.8656011,0.21609475,-0.38024318,0.89928758,0
-3.7334738,-1.4975022,-1.7599607,-0.85030174,-0.34105739,-0.4008325,0
3.4646108,2.4272656,-0.98272455,0.79776192,0.55890262,-0.22628234,0
-3.9444675,-1.3155941,1.2417043,-0.9089638,-0.30316573,0.28613856,0
0.92987448,-3.4759333,2.573446,0.21020137,-0.78574687,0.58173645,0
0.85961992,-0.64693421,4.2611661,0.19559558,-0.14720166,0.96957415,0
0.66389263,-2.1166358,3.8418796,0.1496494,-0.47711518,0.8660059,0
3.5474217,2.4231069,0.52402204,0.81967384,0.55988759,0.1210815,0
-4.3070822,-0.84779477,-0.7138958,-0.96844965,-0.1906271,-0.16051984,0
2.1953893,-3.0005555,-2.2836556,0.50315189,-0.68768454,-0.52338129,0
-2.7390456,3.5379598,0.12543276,-0.61192995,0.79041529,0.028022923,0
-1.2221735,-1.0856543,4.1858101,-0.27197474,-0.24159463,0.93148369,0
-1.5856193,-2.67869,-3.1612768,-0.35739678,-0.60377365,-0.7125482,0
3.9406431,1.6212455,1.2710435,0.88620573,0.36459965,0.28584322,0
3.5875654,0.51438367,-2.588331,0.80554032,0.11549804,-0.58117545,0
4.0871224,-1.3682988,-0.056779206,0.94818789,-0.31743711,-0.013172436,0
1.5783908,-4.0142236,-0.68264276,0.36143008,-0.91920269,-0.15631592,0
-3.8355851,1.0386779,2.0591784,-0.85700369,0.23207693,0.46009237,0
-1.7015697,-1.9263816,3.5422454,-0.38879657,-0.44016448,0.80937785,0
-2.1657097,-1.3495244,-3.5758202,-0.49299672,-0.30720234,-0.81399071,0
0.16558287,1.0175098,4.2650504,0.037736509,0.23189154,0.97200942,0
-0.50633872,-3.5500095,-2.5400417,-0.11522362,-0.80784839,-0.57801777,0
3.8864195,-2.2503452,-0.43430969,0.86137742,-0.49876153,-0.096259438,0
-3.4621785,-0.092625387,-2.7449994,-0.78342098,-0.020959252,-0.62113786,0
1.3541427,4.1622896,-0.49074218,0.30744871,0.94501907,-0.11141962,0
1.2815043,2.6750009,-3.1948457,0.29395917,0.61360782,-0.73285294,0
-4.3373795,0.085949428,0.76706213,-0.9845323,0.019509474,0.17411375,0
2.9684851,-1.4974819,-2.7438161,0.68861794,-0.34738019,-0.63650006,0
3.7035096,-0.77909005,2.1388962,0.85193682,-0.17921798,0.49202099,0
-3.6339636,-1.0477366,2.1678574,-0.83362156,-0.240348,0.49730071,0
-1.010558,4.0694613,-1.6509991,-0.22425005,0.90304261,-0.3663685,0
2.1093206,3.3213871,1.8810688,0.48366618,0.76159245,0.43132815,0
-3.6684766,-2.1829891,-0.95678473,-0.83855337,-0.49899536,-0.21870524,0
-2.6722324,1.4364791,-3.1403434,-0.61198926,0.32897955,-0.71919513,0
4.1046867,-1.4024113,0.43631759,0.94154137,-0.32168797,0.10008341,0
-2.9874616,-2.8866735,1.2495008,-0.68865758,-0.66542435,0.28802988,0
4.2796221,-0.26848048,-0.6430527,0.98700118,-0.061919149,-0.14830603,0
-2.3559999,-3.5622039,1.2411069,-0.52973419,-0.80094278,0.27905634,0
3.7810469,2.1106753,0.30979609,0.87093991,0.48618054,0.071359545,0
0.38211995,-4.3022809,1.2420096,0.085024305,-0.95728695,0.27635565,0
-2.4746518,3.5442932,0.90869564,-0.56023103,0.80238479,0.20571762,0
-3.575047,-1.5493007,-2.1905093,-0.79981238,-0.34661078,-0.49006248,0
-4.3565912,-0.34484741,1.0834705,-0.96758878,-0.076589808,0.24063627,0
1.1292284,-4.1981616,-0.34574756,0.25893158,-0.96263659,-0.079279765,0
2.0868547,-1.1319917,-3.7448184,0.47065216,-0.25530016,-0.84457576,0
-1.5778706,-3.1156254,-2.8169944,-0.3516618,-0.69438297,-0.62782675,0
3.1330543,-2.1251676,2.2016695,0.71539658,-0.48525736,0.50272566,0
-0.82962948,-0.65544063,-4.2858686,-0.18793887,-0.14847925,-0.97089285,0
-0.96963578,-3.2515924,-2.6538289,-0.2250962,-0.75484127,-0.61607337,0
-2.5094624,-1.6278033,-3.266125,-0.56661707,-0.36754531,-0.73746562,0
-0.006782928,-3.996645,-1.7160255,-0.0015594808,-0.91887915,-0.39453593,0
3.7493048,-0.22821882,2.2522285,0.85606134,-0.052108146,0.51424086,0
-0.21000685,-1.412415,-4.1504827,-0.04784571,-0.3217895,-0.94560152,0
-2.5437615,-3.2776432,1.4880358,-0.57711619,-0.74361575,0.33759832,0
-3.839623,-1.8063128,-1.0620627,-0.87779266,-0.41294891,-0.24280271,0
-2.3483551,1.1712394,3.5852113,-0.52855086,0.26361412,0.80693352,0
-3.5053926,0.58409649,-2.5942774,-0.79669619,0.13275188,-0.58962035,0
1.5449696,-2.5353043,3.2048221,0.35364476,-0.58033317,0.73358631,0
-2.8935714,-0.84763956,3.3302181,-0.6441046,-0.18868329,0.74130154,0
0.83734828,-0.37584102,-4.3524446,0.18824571,-0.084493473,-0.97848064,0
3.8814993,1.7511642,1.2532308,0.87444228,0.39451045,0.2823337,0
3.2406945,-2.8194423,-0.5922417,0.74736857,-0.65021944,-0.1365827,0
-1.8603489,0.60536492,3.8333354,-0.43226743,0.14066154,0.89070714,0
0.26798967,3.0820055,3.0333076,0.061854057,0.71135038,0.7001105,0
-0.78318959,-0.23464283,-4.4108629,-0.17458548,-0.052305635,-0.98325181,0
-3.3817239,-1.0851157,-2.770092,-0.75080967,-0.24091718,-0.61501527,0
4.1100755,0.95270252,-1.4804367,0.91922337,0.21307307,-0.33110148,0
-0.86749536,3.469821,-2.527889,-0.19806847,0.79223728,-0.57717323,0
0.66462624,0.8411966,-4.337328,0.14875725,0.18827739,-0.97078466,0
-3.7582331,1.5313634,1.6463182,-0.85814804,0.34966871,0.37591729,0
-4.2354422,-0.036233474,1.348967,-0.9528079,-0.0081511065,0.3034645,0
-2.24755,3.4248679,1.5054437,-0.51497918,0.78473699,0.34494099,0
0.7102403,-4.3135715,0.18402298,0.16232121,-0.98584121,0.042057361,0
2.9966457,3.237395,0.26375672,0.67808211,0.73255897,0.059682969,0
-4.0769072,0.45822111,-1.2946872,-0.94767338,0.10651308,-0.30094886,0
2.8393579,-2.5468132,2.4377842,0.62724686,-0.5626204,0.53853464,0
3.1337214,2.0453224,2.1105511,0.72940427,0.47606876,0.49125138,0
-2.8577108,3.4225917,-0.084785514,-0.64080304,0.76746994,-0.019012006,0
-3.1095948,-2.5286217,-1.5374162,-0.72439367,-0.58905345,-0.3581478,0
-3.8796716,0.22662644,-2.2203047,-0.86680686,0.050633501,-0.49606657,0
2.3575625,-3.3405888,1.5276783,0.54013133,-0.76534837,0.34999999,0
-3.178412,3.0926616,-0.40044153,-0.7138046,0.69454688,-0.089930758,0
1.4017409,-0.80943948,4.1799636,0.31271908,-0.18058057,0.93252206,0
1.7623577,-2.8463876,-2.91239,0.39716679,-0.64146489,-0.65633929,0
-0.59179407,4.0959077,-1.4396609,-0.13506036,0.93477571,-0.32856211,0
2.0266502,-0.40621153,3.7834802,0.47008201,-0.094220869,0.87757915,0
-3.8765647,-1.0006948,1.638512,-0.89611816,-0.23132357,0.37876329,0
-1.1599872,2.6373994,-3.3968468,-0.26042473,0.59211344,-0.76261431,0
0.44254336,1.8445412,-4.0255833,0.099445447,0.41449323,-0.90460271,0
-0.75444317,-1.1887668,-4.0945024,-0.17424373,-0.27455369,-0.9456529,0
3.7027509,1.6906856,1.4143559,0.85926688,0.39234346,0.32821789,0
-0.41883847,3.8828342,-2.1797698,-0.093647577,0.8681581,-0.48737204,0
1.8027675,3.4681737,-1.8789282,0.41568258,0.79969233,-0.43324372,0
1.3292961,4.1658535,-0.62705421,0.30091399,0.94302809,-0.14194684,0
-3.9679637,-1.3840878,1.4635129,-0.89168167,-0.3110325,0.32888094,0
0.45704487,1.2929851,-4.2843781,0.10159916,0.28742516,-0.95239931,0
-1.420647,-1.6021087,3.8839865,-0.32031718,-0.36123186,0.87573308,0
-4.4243937,0.62190145,-0.29213041,-0.98815519,0.13889703,-0.065245137,0
1.0069883,-2.7989211,-3.3830485,0.22353795,-0.62132311,-0.75099158,0
3.5793912,2.4681008,-0.77485514,0.81049007,0.55885798,-0.17545229,0
1.5798358,-4.0257735,0.98472142,0.35619119,-0.90765446,0.22201617,0
3.6235063,-2.4216278,0.054021671,0.83135509,-0.55560344,0.012394401,0
-4.4578943,0.17480107,-0.22695529,-0.99794167,0.039130867,-0.050806083,0
3.1135836,-1.1745305,3.0180464,0.69306302,-0.26144269,0.6717971,0
2.5942748,0.30738541,3.5564363,0.58789486,0.069657356,0.80593264,0
-3.7374461,-2.1156816,-1.0025496,-0.84745818,-0.47972646,-0.22732607,0
0.9354226,-3.3853552,2.7498484,0.20970589,-0.75893927,0.61646938,0
-2.781903,-2.6823893,2.0603633,-0.63522226,-0.61249918,0.47046521,0
1.2870384,0.4834913,-4.1494493,0.29443002,0.11060613,-0.94925088,0
2.3707941,3.3894279,-1.2781051,0.54762191,0.78291273,-0.29522529,0
-0.15501213,0.27028853,4.4009938,-0.035134133,0.061261997,0.99750322,0
2.692395,2.8236473,-2.0803165,0.60893208,0.63861704,-0.47049984,0
3.3730283,0.57284588,2.7135453,0.77242851,0.13118257,0.62140596,0
2.3879235,0.53257,-3.6268225,0.545825,0.12173339,-0.82900912,0
0.6660586,-3.8603337,1.9992268,0.15144457,-0.87774044,0.45457268,0
2.5360065,-1.2905282,3.189487,0.59331542,-0.30192757,0.74620152,0
3.803112,-1.0962057,1.778596,0.87645292,-0.25262803,0.40988949,0
-3.541204,-0.50442582,2.4283457,-0.81908625,-0.11667452,0.56168032,0
-2.0513434,-1.6024249,-3.5172997,-0.46879834,-0.3662059,-0.80381674,0
2.7124944,2.3909233,-2.5420299,0.61369193,0.54093766,-0.57512498,0
-0.26835948,2.0170891,-3.8240826,-0.061951395,0.4656496,-0.88279814,0
-2.4000666,-2.429105,-2.7618005,-0.54648095,-0.55309284,-0.62884563,0
-2.349201,1.8861897,3.274194,-0.52798629,0.42392382,0.73587978,0
1.6880988,2.3173778,-3.2461772,0.3897709,0.53506726,-0.74952096,0
-2.066977,2.0112965,-3.2540255,-0.47536954,0.46256396,-0.74837047,0
-4.2390981,1.3466188,0.71535861,-0.94097513,0.29891613,0.15879196,0
2.2300892,3.622375,-1.0376239,0.50932324,0.82730311,-0.23697974,0
2.1348367,0.089768194,3.8045993,0.48924318,0.020572288,0.87190473,0
-3.1820114,-2.8004415,-1.3740139,-0.71410227,-0.62847096,-0.30835417,0
-1.6891322,-0.1204685,-4.1099615,-0.37999341,-0.02710104,-0.92459208,0
-1.3554862,-3.1370709,2.7649784,-0.30835456,-0.71364069,0.62899476,0
-1.4398777,2.2607076,-3.5960891,-0.32103756,0.50405121,-0.80179012,0
0.54447651,0.019180572,4.2909789,0.12587808,0.004434376,0.99203581,0
2.8288419,-1.2667234,3.2226307,0.6326704,-0.28330263,0.72074121,0
1.3293902,2.167326,-3.6255376,0.3002089,0.48943537,-0.8187353,0
-0.31751752,0.27282125,4.3227425,-0.073110759,0.062819116,0.99534345,0
-1.6446085,-3.8134499,-1.5458744,-0.37113035,-0.86056161,-0.34884951,0
-0.83149052,4.1090546,1.5104108,-0.18659498,0.9221139,0.33895165,0
0.88464057,2.0148759,3.861027,0.19906048,0.45338431,0.86880243,0
1.4823402,3.7517667,1.7427129,0.33733022,0.85377455,0.39658219,0
-3.9326372,1.125519,-1.5080401,-0.90205193,0.25816685,-0.34590793,0
0.95723975,4.2084179,0.046521574,0.2217803,0.97503704,0.010778459,0
-0.65964407,4.3904581,0.68895763,-0.14682008,0.97720486,0.15334454,0
0.83743227,4.321094,0.15043083,0.1901499,0.98116064,0.03415728,0
0.035741903,-4.3356614,0.35729444,0.0082155745,-0.99658799,0.082127109,0
0.95657349,0.34460461,4.3879204,0.21237466,0.076507755,0.97418875,0
0.49939924,-4.2684212,0.67902243,0.11478202,-0.98105472,0.15606664,0
-3.7331359,-0.0085969269,-2.4609797,-0.83490491,-0.0019226775,-0.5503909,0
-1.2538384,1.1361061,4.1039658,-0.28245491,0.25593311,0.92450935,0
-0.082558177,1.372875,4.2111287,-0.018636012,0.30990162,0.95058596,0
3.149307,2.693258,1.3609871,0.72204351,0.61748493,0.31203434,0
-1.2976276,2.9626718,-2.8652642,-0.30030757,0.6856457,-0.66310281,0
0.67910004,3.1140952,3.1637478,0.15121734,0.69342542,0.70448172,0
-4.2480478,-0.77953237,-0.093375221,-0.98334706,-0.1804478,-0.021614693,0
-2.2285888,1.7929363,-3.4479604,-0.49746203,0.40021637,-0.76964819,0
-1.770298,1.9265293,-3.5778389,-0.39939708,0.43464443,-0.80719656,0
3.6026561,0.37784222,2.5880017,0.80923533,0.084871627,0.58132178,0
3.3923151,-1.8482742,1.9423478,0.78453892,-0.42744941,0.44920573,0
0.36274418,-4.1394053,-1.2919503,0.083361067,-0.95126337,-0.29689893,0
-0.8743282,-1.8690698,3.950083,-0.19618854,-0.4193964,0.88635027,0
3.0855949,-0.91744548,3.0396926,0.69692338,-0.20721748,0.68655574,0
2.2757382,3.7064657,0.42999071,0.52069759,0.84805351,0.098383516,0
-0.60244066,-0.94233429,4.3027258,-0.13551043,-0.21196465,0.96783674,0
-0.83413017,-0.14255163,4.334527,-0.18887286,-0.032278098,0.98147094,0
-0.67274964,-2.5125458,3.4871826,-0.15464111,-0.57754451,0.8015787,0
4.3298965,-1.0350659,0.030576004,0.9725734,-0.23249461,0.0068679261,0
2.4355388,-3.2982745,1.7340385,0.54710692,-0.74090743,0.3895255,0
4.1012139,1.1791214,0.6709708,0.94940376,0.27295876,0.15532528,0
2.2209942,1.9153209,-3.2921071,0.50374156,0.43441212,-0.74667966,0
2.6019776,-3.4810174,0.55567485,0.59387082,-0.79450136,0.12682626,0
3.8172431,-0.75231123,1.8478293,0.88625133,-0.1746645,0.42901149,0
-0.15384591,4.0873785,-1.8954177,-0.034126572,0.90667486,-0.42044738,0
3.694279,1.3207319,1.8758138,0.84952432,0.30371118,0.43135601,0
-0.95119447,-4.2954011,-0.13947088,-0.21609856,-0.97585726,-0.031685904,0
-0.49245775,0.96454245,4.2929296,-0.11122891,0.21785626,0.96962202,0
-1.5358657,3.277822,2.4108245,-0.35314187,0.75367022,0.55432129,0
2.2168787,-3.2748353,-2.2188308,0.48888418,-0.72219342,-0.48931468,0
-0.42411503,-3.8472197,2.0558574,-0.096771613,-0.87783176,0.46909121,0
-2.1535838,-2.4867754,2.8359165,-0.49583855,-0.5725522,0.65293801,0
1.8754661,-1.7568327,3.4971869,0.43215171,-0.40481576,0.80583447,0
-4.364511,-0.84521574,0.42452285,-0.97731417,-0.18926321,0.095060408,0
0.97359699,1.9518452,-3.7812402,0.22303374,0.44713297,-0.86621481,0
-3.0122232,-2.9276316,-1.3580964,-0.68232775,-0.66316611,-0.30763552,0
-2.0380085,-1.6012565,-3.6321127,-0.45674428,-0.35886249,-0.81400388,0
4.123138,1.5136904,0.70325398,0.92693198,0.34029615,0.15810013,0
-0.74637175,-3.0203156,-3.1406813,-0.16883276,-0.68320948,-0.71043676,0
-4.2730117,-0.64852345,0.52330011,-0.98150945,-0.14896564,0.12020188,0
-1.3212689,-4.1174231,0.21708854,-0.30516613,-0.95097828,0.050139733,0
2.7898071,3.2354538,-0.35674524,0.65075827,0.75471109,-0.083215401,0
3.9729722,-1.3784921,-1.024397,0.917907,-0.31848389,-0.2366745,0
-2.4458039,-0.44237509,-3.5497148,-0.56441104,-0.10208561,-0.81915736,0
-1.4000629,-3.7756376,-1.9813994,-0.3119615,-0.84128618,-0.44149467,0
-0.46233854,-2.4753296,-3.5969434,-0.1052974,-0.56375527,-0.8192023,0
2.4577639,1.8709401,-3.2438073,0.54870504,0.41769439,-0.72419214,0
-2.9447315,1.1817651,3.0300372,-0.67118162,0.2693553,0.69062501,0
-4.3076224,1.0966237,0.36712718,-0.96580118,0.24587123,0.082312658,0
-2.8961849,-1.0122141,3.0441785,-0.67010647,-0.23420162,0.70434856,0
0.70301527,-0.87916845,4.305624,0.15796873,-0.19755065,0.96748102,0
2.8813338,-1.5375205,2.9462206,0.65508091,-0.34956047,0.66983318,0
-0.75688654,2.1974671,-3.7714171,-0.1708529,0.49603686,-0.85132647,0
-0.60218966,4.3820844,-0.21925774,-0.13597441,0.98947453,-0.049508393,0
-3.0178294,2.4391651,-1.9685564,-0.6935792,0.56058639,-0.45242774,0
2.9637203,1.4368193,-2.8685546,0.67855597,0.32896569,-0.65676743,0
1.3690518,-1.7723676,-3.826144,0.30880457,-0.39977682,-0.86302847,0
0.73785985,-0.47080895,4.2483678,0.17010808,-0.10854149,0.97942942,0
-2.3264532,-1.1340134,3.4645114,-0.53797174,-0.26223058,0.80113763,0
-3.642689,-2.3819582,-0.93140823,-0.81841791,-0.53516436,-0.20926332,0
-4.09481,-0.63925523,-1.6108278,-0.92091751,-0.14376768,-0.3622731,0
-2.1976187,-0.64257878,3.7874708,-0.49655148,-0.14519054,0.85577822,0
-2.7773349,3.3384953,-0.42443112,-0.63650674,0.76511288,-0.097270682,0
2.9232886,-2.9855902,1.1289855,0.67539328,-0.68978739,0.26083952,0
1.25516,3.5615964,-2.3867412,0.280965,0.79725605,-0.53426713,0
-3.7866738,-0.67156368,-2.0744805,-0.86659592,-0.15369013,-0.47475344,0
0.82949984,3.2534347,-2.8092186,0.18948126,0.74317664,-0.6417051,0
1.2938704,-3.5917814,2.1946888,0.29382136,-0.81564742,0.49838567,0
3.1458237,2.7834666,1.1337817,0.72304696,0.63976151,0.26059228,0
-3.277118,-2.7630193,-0.31764543,-0.76243645,-0.64282906,-0.073901661,0
3.5062964,0.23190729,-2.6785681,0.79355955,0.052486222,-0.60622466,0
-1.1778826,-4.281477,0.73961836,-0.26165164,-0.95107573,0.16429682,0
3.0382841,2.7239788,1.9456526,0.67208159,0.60255593,0.43038678,0
0.50772995,2.8242483,3.3892567,0.11433148,0.63596892,0.76319849,0
-1.7580334,-2.668736,-2.9106998,-0.40670592,-0.61738914,-0.67336541,0
2.5039427,3.0427415,-1.7269539,0.58199167,0.70722473,-0.40139607,0
2.4713788,-3.0834243,2.0382111,0.55582899,-0.69348198,0.45840681,0
2.727556,0.89858967,-3.2962601,0.62390226,0.20554377,-0.75398791,0
-4.1826425,0.05202527,1.2251447,-0.95960981,0.011935986,0.2810809,0
-3.8257461,-1.6415836,-1.1195347,-0.88744384,-0.38079193,-0.25969422,0
-1.7458198,-3.6338878,-1.7600303,-0.39687222,-0.82608134,-0.40010265,0
4.3374162,0.53309196,0.50372618,0.98600292,0.1211851,0.11450953,0
3.3706679,2.6600738,-0.0548831,0.78492963,0.61945307,-0.012780663,0
0.53292495,-0.80997837,-4.3023915,0.12083675,-0.18365653,-0.97553509,0
0.84161848,-0.76519066,4.165976,0.19488806,-0.17719017,0.96468765,0
0.592704,-2.3021116,-3.6170697,0.1369368,-0.53187388,-0.8356784,0
-2.7127206,-1.6776874,2.8886633,-0.63039047,-0.3898662,0.67127651,0
4.0243578,-1.2242727,1.2850865,0.91496366,-0.2783463,0.2921727,0
-3.7737658,-1.6167879,1.7165563,-0.84805053,-0.36332881,0.38574904,0
-0.076260746,-4.3099613,-0.47840402,-0.017583342,-0.99374223,-0.110305,0
1.7144568,-0.30395105,3.9344437,0.39847827,-0.070645049,0.91445309,0
3.9043286,0.086865902,-2.0293336,0.88712925,0.019737396,-0.46109879,0
-1.3451933,-0.41567948,-4.1446857,-0.30731121,-0.094962537,-0.946859,0
3.5687661,2.217355,1.6570646,0.79016489,0.49094731,0.3668927,0
3.5947752,2.4180143,0.13538982,0.82934809,0.55785841,0.031235691,0
-3.624855,-0.576343,2.425637,-0.82392728,-0.1310024,0.55134577,0
-2.0859017,-1.4729757,-3.4869776,-0.48262456,-0.34080908,-0.80679786,0
-2.0797942,-2.4970033,-2.9024358,-0.4773297,-0.57308257,-0.66613263,0
-1.7421219,-3.7514277,-1.5063678,-0.39575958,-0.85221553,-0.34220308,0
2.1095793,3.8565381,0.87301922,0.47071269,0.86051345,0.19479771,0
-2.8799407,0.21374641,3.3235424,-0.65409827,0.048546541,0.75485003,0
0.7393024,3.1342654,3.105267,0.16525988,0.70061767,0.69413555,0
-1.9992601,-1.4355505,-3.710566,-0.44900391,-0.32240316,-0.8333376,0
-1.4149843,0.74799407,4.2004566,-0.31478694,0.16640379,0.93446183,0
-0.83255094,-0.44728562,-4.3135304,-0.18853687,-0.1012909,-0.97682858,0
3.0197992,3.2974439,0.57754296,0.66981268,0.73139626,0.12810309,0
-3.3031056,2.7427948,0.71376145,-0.75892591,0.63018817,0.16399477,0
0.60929173,-1.9707142,3.8181567,0.14039847,-0.4541097,0.87981403,0
-3.7359693,0.82490683,1.9742225,-0.86776322,0.19160324,0.45855778,0
2.8414631,-0.90707922,-3.2765272,0.64129233,-0.20471951,-0.73948234,0
1.9021028,0.16727298,4.0475698,0.42501727,0.037376478,0.90441328,0
-3.5900683,2.3842704,0.89927483,-0.81546074,0.54157156,0.20426445,0
3.7856805,2.1310761,-0.62583601,0.8625111,0.48553407,-0.14258745,0
2.2092204,-3.8427901,0.099062696,0.4982816,-0.86672723,0.02234323,0
-2.5032265,-3.0495951,-1.899479,-0.57166499,-0.69643986,-0.43378642,0
4.3110194,-1.0092787,0.58849734,0.96518391,-0.22596499,0.13175727,0
-2.4305973,3.5972159,0.9378913,-0.5472402,0.80990022,0.21116285,0
-3.093591,-3.0356145,-1.0969951,-0.69194418,-0.6789766,-0.24536516,0
-4.204401,-0.61971748,0.77184016,-0.97338772,-0.14347474,0.17869364,0
-1.9858,-2.5760078,-2.8518803,-0.45906094,-0.59550029,-0.65927422,0
-2.2023313,-3.2841198,2.0921195,-0.49230033,-0.73411906,0.46766403,0
-2.5068376,-2.9417958,-1.912212,-0.58133793,-0.68220514,-0.44344369,0
4.0416498,-1.4197551,-0.98793823,0.91934872,-0.32294983,-0.22472499,0
2.3202572,-3.6178193,-0.91436988,0.52803689,-0.82333207,-0.20808946,0
1.0047812,1.1468498,-4.1987162,0.22493435,0.25673839,-0.93994147,0
-0.21768665,-4.2541304,1.1406275,-0.049364664,-0.96470648,0.25865936,0
1.0539845,-0.67560375,-4.2630086,0.23722172,-0.15205905,-0.95948106,0
-0.65096289,3.6598277,2.3545501,-0.14793848,0.83173609,0.53509742,0
-3.0336537,-2.7069938,-1.7720325,-0.68399531,-0.61034358,-0.39953864,0
1.6424969,-3.2278647,-2.6542227,0.36579674,-0.7188704,-0.59111589,0
2.7620423,-3.3739822,0.77959406,0.62355733,-0.76170862,0.17600079,0
-0.64501506,-3.9629574,-2.0034351,-0.14374603,-0.88317227,-0.44647929,0
2.4829867,-3.3528037,1.3128327,0.56769675,-0.76656699,0.30015901,0
-3.618228,1.0083901,-2.1738613,-0.83372629,0.2323572,-0.50090963,0
0.54300028,3.7857013,2.1891608,0.12322214,0.85908288,0.4967826,0
0.56896973,-4.0493894,1.7104555,0.12836355,-0.91357058,0.38589075,0
-1.4983683,-4.2376118,-0.34973916,-0.33235762,-0.93995756,-0.077576704,0
2.4416049,-0.044940718,3.7056839,0.55016291,-0.01012642,0.83499587,0
0.47977194,-4.3326836,0.56593019,0.10914454,-0.98565316,0.1287449,0
-0.15906425,-3.0805304,3.1289518,-0.036202136,-0.70111156,0.71213198,0
-2.1916082,-3.2852361,2.1959758,-0.48501351,-0.72703868,0.48598009,0
-0.33996913,-3.9999118,2.0113993,-0.075716019,-0.89083791,0.44796756,0
2.6484976,-0.11707354,3.5794003,0.59460002,-0.026283555,0.80359197,0
2.0141315,-3.3149033,1.9236166,0.46519819,-0.7656337,0.44429222,0
-0.41467696,-3.0201864,-3.1219049,-0.095034011,-0.69215423,-0.71546566,0
3.2770107,2.5819604,1.433633,0.7428472,0.58529019,0.32498226,0
0.21045147,2.3536286,3.6201384,0.0486806,0.54442978,0.83739263,0
-1.9300746,-2.9895902,-2.6268947,-0.43636689,-0.67591071,-0.59390962,0
4.4417691,-0.47750008,0.25885677,0.99260628,-0.10670739,0.057846963,0
1.4835325,-3.5779614,-2.3275342,0.32829797,-0.79178411,-0.51507109,0
4.0855122,1.0086536,-1.247766,0.93079489,0.22979975,-0.28427628,0
2.2379816,1.5189313,-3.5485437,0.50158441,0.34042829,-0.79531229,0
1.5695579,-4.019824,-0.89851516,0.35607615,-0.91195327,-0.20384073,0
-1.4288588,-3.5775764,-2.0590808,-0.32711044,-0.81901908,-0.47138795,0
-1.4980237,-4.1185465,-0.28420445,-0.34110123,-0.93779635,-0.064713582,0
-3.4213238,-2.8309491,0.43641871,-0.76675469,-0.63444549,0.097806029,0
1.8125614,-0.44974706,3.9569564,0.4142507,-0.10278716,0.90434015,0
-2.0750806,0.4720076,-3.9472384,-0.46273777,0.10525651,-0.88022423,0
-4.2014642,1.0831242,-0.76242685,-0.9537273,0.24586788,-0.17306998,0
-2.231797,2.9489601,-2.5473635,-0.49698249,0.65668225,-0.56725365,0
0.19045544,-2.316025,-3.7881119,0.042855781,-0.52114588,-0.852391,0
-0.32819387,3.114197,-3.0958357,-0.07453154,0.70722187,-0.7030521,0
0.44571373,1.4264541,4.2060823,0.099853121,0.3195681,0.94228745,0
3.5502808,-1.3853782,-2.0470903,0.82068294,-0.32024404,-0.47320542,0
-3.6323481,0.50154346,-2.5085006,-0.81758904,0.11289018,-0.56462723,0
-2.3352511,3.5794735,0.90138537,-0.53463966,0.81949586,0.20636599,0
4.15169,0.970819,-1.2155145,0.93642259,0.2189703,-0.27416191,0
1.9921448,3.9095576,0.35688701,0.45251891,0.8880623,0.081067458,0
-0.23458359,2.2803192,-3.7126946,-0.053762037,0.52260524,-0.85087806,0
-4.0227122,1.5931325,0.92834651,-0.90905297,0.36001626,0.20978786,0
2.9700234,0.39100939,-3.296972,0.66672355,0.087775454,-0.74011832,0
4.2228661,1.0105553,-0.78153819,0.95715952,0.22905357,-0.17714432,0
2.3540628,-3.3794484,-1.221957,0.54796851,-0.78665334,-0.28444183,0
-2.050118,-3.8376198,0.096363604,-0.47107875,-0.88181323,0.022142554,0
2.2594688,1.8946806,-3.3411226,0.5070343,0.4251743,-0.749762,0
-0.034780037,-2.3749635,-3.6920688,-0.0079223681,-0.54098088,-0.84099764,0
2.8050973,-2.2021866,-2.4797838,0.64578873,-0.5069868,-0.57089514,0
-0.52662808,2.2330327,-3.7108874,-0.12070736,0.51182896,-0.85056502,0
-0.95083112,4.0355678,-1.667428,-0.21277085,0.90305334,-0.3731263,0
1.6634836,-3.1353164,2.6494563,0.37557977,-0.70788878,0.59819174,0
2.0492611,-0.96290171,-3.8616476,0.45778292,-0.2151019,-0.86265057,0
-3.636843,0.60386205,-2.4060442,-0.82612169,0.13716939,-0.54654145,0
2.7365215,0.20833074,3.3972647,0.62659258,0.047702346,0.77788574,0
-0.13947017,-1.7313071,-4.117135,-0.031211711,-0.38744527,-0.92136425,0
-3.5010569,-0.29742014,-2.6675739,-0.79361081,-0.067418456,-0.60467899,0
0.34286565,4.259223,-1.2713954,0.076907836,0.95538193,-0.2851854,0
-2.2497265,3.5161958,1.2311981,-0.51692927,0.8079313,0.28289762,0
-1.8556948,-1.2492293,-3.7011018,-0.42910016,-0.28886458,-0.85582143,0
-3.9861038,-1.058973,1.4560851,-0.91134745,-0.24211419,0.3329064,0
-2.0174191,0.62090778,-3.8399858,-0.46039888,0.14169849,-0.87633014,0
-1.4030999,3.9852989,1.2781699,-0.31786174,0.90283948,0.28955978,0
-1.4585471,-3.2194915,2.4362612,-0.3397685,-0.74998039,0.56752694,0
-4.0238609,1.7778038,0.29743436,-0.91261816,0.40320876,0.067458592,0
-0.30642077,-0.23941645,-4.3610969,-0.06998466,-0.054681271,-0.99604821,0
0.3735446,3.656781,2.5221808,0.083793625,0.82029009,0.56577629,0
0.90727431,0.62674189,-4.3314981,0.20298524,0.14022149,-0.96908975,0
1.2499161,-3.848933,1.7580237,0.28328845,-0.87234515,0.398449,0
-3.3257322,-1.6471741,-2.2190542,-0.76911473,-0.3809284,-0.5131824,0
-2.2349746,-2.5191822,-2.8750594,-0.50473458,-0.56891847,-0.64928788,0
2.9850371,-1.3960961,-2.8418181,0.6859805,-0.32083178,-0.65306789,0
-1.2279346,-2.2180538,-3.5948617,-0.27914372,-0.50422537,-0.8172121,0
2.3318863,3.7181785,-0.8554436,0.52149957,0.83152789,-0.19131014,0
-4.2807789,0.27590165,0.46191782,-0.99219358,0.06394814,0.10706273,0
-3.8295074,1.5370026,-1.4494227,-0.87559718,0.35142776,-0.33140308,0
-2.2002819,-1.1767588,3.6405153,-0.4985297,-0.26662457,0.82485116,0
2.882736,-3.328985,-0.74338579,0.64548862,-0.74541062,-0.16645543,0
3.061657,2.7393014,1.3102112,0.71001601,0.63525993,0.30384558,0
1.6268439,-1.6646293,-3.7935839,0.36552393,-0.37401366,-0.85235327,0
-0.0091661196,-1.74511,-4.0811625,-0.0020650816,-0.39316469,-0.91946578,0
-0.90039653,-4.1902161,-1.0502104,-0.20404848,-0.94958967,-0.23799941,0
-0.44099608,2.3711329,-3.758034,-0.09875904,0.53100425,-0.84159434,0
-0.7951656,4.2051063,-1.0402209,-0.18054576,0.95478743,-0.23618661,0
1.2602463,2.0476556,-3.6703796,0.28721589,0.4666701,-0.83649635,0
-2.4188347,2.8548994,2.4097266,-0.54348296,0.64146143,0.54143649,0
4.2521124,0.43461239,-0.55623114,0.98649883,0.10083097,-0.12904677,0
2.441987,0.63524169,3.5540984,0.56025314,0.14574039,0.81539941,0
-4.2089424,-1.5564593,0.30941263,-0.93570185,-0.34602085,0.068786398,0
2.6293428,0.43933192,3.5560772,0.59161627,0.098852046,0.80013651,0
-3.669807,-1.9271109,-1.4181947,-0.83767837,-0.43988666,-0.32372028,0
0.86212713,3.4527421,-2.6306362,0.19480953,0.78019476,-0.5944286,0
-4.151855,-0.18112679,-1.4702111,-0.9418481,-0.041088603,-0.33351731,0
-0.89222091,-3.2090387,-2.7775569,-0.2057272,-0.73993623,-0.64044565,0
-3.984524,-1.8898022,-0.8396188,-0.88758379,-0.4209682,-0.18703164,0
-0.37000355,2.4136603,3.647238,-0.08429879,0.54991001,0.83095896,0
-1.6914557,3.6506639,1.6788014,-0.38797769,0.83737111,0.38507512,0
1.6793485,-2.2082496,-3.4815516,0.37723619,-0.49604452,-0.7820695,0
-0.97194201,-2.7326453,-3.4068935,-0.21722998,-0.61074883,-0.76144397,0
0.65058613,2.8648255,3.2000103,0.14976574,0.65948641,0.73664635,0
1.5580037,-2.430666,3.2110167,0.36080623,-0.56289941,0.74361491,0
-3.839623,-1.2444062,2.049058,-0.84824002,-0.27491114,0.45267281,0
-1.0631387,-1.6607709,3.9352121,-0.24153315,-0.37730846,0.89403588,0
-1.0045736,-0.49409771,-4.2470407,-0.22872217,-0.11249659,-0.96696991,0
3.8815503,1.99362,0.69889688,0.87833589,0.45112595,0.15814975,0
-3.3168609,2.2323806,-1.4496236,-0.77991992,0.52491742,-0.34086153,0
-2.463531,3.6710746,-0.21888106,-0.55654466,0.82934493,-0.049448162,0
-2.2904689,2.4429762,2.9877591,-0.51036745,0.54434949,0.66573924,0
-0.09930601,-2.272258,-3.7152009,-0.022796921,-0.52162492,-0.85287029,0
-1.0258276,2.4146297,-3.6518917,-0.22813599,0.53699464,-0.81215197,0
4.3248153,-0.62078857,0.087127954,0.98965776,-0.14205652,0.019937698,0
2.118083,1.5328784,-3.5033579,0.48452726,0.35065734,-0.8014192,0
-1.025303,2.163264,3.6934152,-0.23294958,0.49149516,0.83914661,0
-0.25285938,0.43508375,4.3951364,-0.057158206,0.098349549,0.99350911,0
-2.7445655,-0.21330255,-3.4910312,-0.61733425,-0.047978077,-0.78523654,0
-4.4033599,0.80963427,0.25027233,-0.98198026,0.18055415,0.055812493,0
-0.060632836,3.9930062,-1.7496599,-0.013906802,0.91583949,-0.40130356,0
-1.7198535,2.2446785,3.2073014,-0.40222093,0.52496135,0.75008929,0
3.678216,2.1880374,1.207957,0.82712024,0.49202386,0.27163324,0
3.0006604,2.4677126,-1.9774996,0.68832499,0.56607145,-0.45362091,0
-0.45744115,-0.53495282,-4.3481154,-0.10385256,-0.12144998,-0.98714972,0
2.4855721,-1.3389295,-3.3291223,0.5694229,-0.3067371,-0.7626729,0
-0.46953249,2.2873433,3.7239184,-0.10682242,0.52038902,0.84722143,0
3.64045,0.43211055,-2.4457731,0.82606608,0.098051578,-0.55497813,0
-4.099402,1.1786609,-1.1235296,-0.92936516,0.26721126,-0.25471258,0
-4.3491559,-0.71134597,0.19232219,-0.9859482,-0.16126125,0.0435992,0
0.090930119,-0.43967021,4.2787752,0.021135401,-0.10219502,0.99453986,0
3.8505745,1.5195786,1.6452608,0.86441576,0.34113032,0.36934474,0
-0.78024769,-2.3699181,-3.7283425,-0.1739224,-0.52827054,-0.83107239,0
0.75084478,4.2390332,1.1972411,0.16803455,0.94867015,0.26793537,0
-0.49081039,3.3128836,-2.9740391,-0.10958155,0.73965615,-0.66400349,0
1.856144,-4.0004277,-0.49121574,0.41830108,-0.90153742,-0.1107005,0
1.2043347,-1.0488275,-4.1015368,0.27362013,-0.23828951,-0.93185306,0
-4.0388303,-1.0212034,-0.99267024,-0.94308579,-0.23845577,-0.23179315,0
2.7993143,2.6384578,-1.8589545,0.65521008,0.61755991,-0.43510863,0
-1.3620498,3.3478296,2.5383427,-0.30839351,0.7580111,0.57472819,0
0.60679996,-1.7162794,3.9152977,0.14053459,-0.39748955,0.9067812,0
-4.1048126,-0.81657577,-1.478554,-0.92476994,-0.1839657,-0.33310226,0
-3.027591,1.0416303,2.9968085,-0.69037199,0.23751964,0.68335271,0
-1.268454,0.3912001,-4.1899076,-0.28860316,0.089007236,-0.95330268,0
3.9804001,1.4334645,0.7887904,0.92490959,0.3330884,0.18328805,0
2.5509894,-2.4608846,2.670696,0.5748021,-0.55449921,0.60177499,0
2.2659743,3.6647217,0.32782063,0.52439213,0.84809053,0.075864308,0
-1.3027216,-0.41362584,-4.2393098,-0.29247025,-0.092861935,-0.95175511,0
1.5731156,3.5040231,1.969313,0.36445326,0.81179833,0.45624271,0
-4.3005576,-1.0217752,0.54379815,-0.96563667,-0.22942691,0.1221031,0
2.7792733,0.13258806,-3.3978231,0.63284498,0.030190513,-0.77368975,0
-4.2877469,-1.02299,0.13184491,-0.97226405,-0.23196714,0.029896369,0
-4.093852,-1.4073558,0.40468302,-0.94157475,-0.32368797,0.093075983,0
1.2959832,0.89946657,4.2091851,0.28831074,0.20009971,0.93639576,0
-0.43056679,-3.9381685,1.9156734,-0.097845055,-0.8949374,0.43533123,0
-0.82457167,0.44527742,-4.2153773,-0.19094881,0.10311438,-0.97616899,0
-1.1852443,-2.3680878,-3.5938861,-0.26550263,-0.53046745,-0.80505449,0
-1.0272822,4.1588078,0.10480282,-0.23973425,0.97053039,0.024457568,0
0.83710617,-0.26048312,-4.2144942,0.19446269,-0.060511135,-0.9790417,0
-3.8591189,0.54590058,-1.9063164,-0.88945174,0.12581946,-0.43936881,0
-0.52437067,0.67242843,4.2812896,-0.1201202,0.15403654,0.98073637,0
-1.7378743,-0.6390124,-4.0881262,-0.38723481,-0.14238535,-0.91092014,0
-0.8625958,2.6223824,-3.34497,-0.19889115,0.60465008,-0.77125913,0
3.2641685,-2.359458,-1.6030455,0.75299269,-0.54429013,-0.36979756,0
0.47200865,2.3265233,3.6622427,0.10815103,0.5330748,0.8391273,0
3.7422273,1.4011017,1.605042,0.86902881,0.32536712,0.37272662,0
3.3661356,1.8758845,-2.0070457,0.77473485,0.43174526,-0.46193275,0
-1.7319148,3.9008253,-1.1421082,-0.39199668,0.88290179,-0.25850156,0
-4.0097346,1.3126096,0.87073457,-0.93075895,0.30468929,0.20211911,0
2.6252587,-3.5387151,-0.024851788,0.59580237,-0.80311126,-0.0056401123,0
-2.1681008,-3.8436852,0.49175322,-0.48827633,-0.86563337,0.11074737,0
-2.9654565,-1.1243987,-3.1347544,-0.66501272,-0.25214988,-0.70297831,0
-1.3069237,-0.98062825,-4.1114249,-0.29540378,-0.22165126,-0.92930478,0
3.7823164,-1.9412636,0.99745452,0.86614394,-0.44454601,0.22841537,0
-1.9650983,-3.6312094,1.501002,-0.44730347,-0.8265503,0.34166402,0
-3.5236895,2.3307912,-1.3468002,-0.79464734,0.52563006,-0.30372462,0
-2.8721731,3.4570618,0.17376228,-0.63856274,0.76859951,0.038632113,0
-0.84277582,3.356108,-2.8329229,-0.18845424,0.75046384,-0.63347369,0
-3.9205182,-0.30570751,-1.9380678,-0.89426547,-0.069731519,-0.44207093,0
-0.36369461,-4.2555451,1.0458755,-0.082709588,-0.96777457,0.23784773,0
-3.3809185,-0.35105875,-2.8430517,-0.76295584,-0.07922177,-0.64157802,0
2.7992516,2.2103927,-2.5406678,0.63922787,0.504758,-0.58017856,0
-1.1256689,-2.0187473,3.6931965,-0.25836739,-0.46334982,0.84767514,0
-1.4700835,-3.8809662,1.5327249,-0.332293,-0.87724125,0.34645227,0
3.1896725,-0.83374286,-2.7979245,0.73765635,-0.19281469,-0.6470592,0
1.6466731,-0.7437312,-3.9717226,0.37738314,-0.17044769,-0.91023606,0
-0.41398695,2.9127898,3.314491,-0.093411088,0.65723538,0.74787432,0
-2.1407843,-3.1829813,-2.2591629,-0.48088521,-0.71499431,-0.50747663,0
-3.4086552,2.904748,-0.0040568416,-0.76112396,0.64860576,-0.00090585853,0
3.8109977,-2.1027644,0.14834374,0.87505549,-0.48282251,0.034061685,0
-2.540463,1.3383483,3.2954197,-0.58121961,0.30619392,0.75394237,0
-3.7553954,0.61067724,2.2349784,-0.85106152,0.13839392,0.50649905,0
-3.9335744,0.23215047,2.0755429,-0.88322967,0.052126173,0.46603444,0
-3.9987147,-1.0966712,1.7563058,-0.8880111,-0.24354231,0.39003009,0
1.5046973,4.1833138,0.56647491,0.33574682,0.93343312,0.12639895,0
-3.9147005,-0.21915132,1.9667321,-0.89245307,-0.049960978,0.44836536,0
3.0951407,-0.4343361,-3.1389811,0.69873351,-0.098052144,-0.70863056,0
-3.6212204,0.76086998,-2.3680186,-0.82428986,0.17319505,-0.5390265,0
-4.0643377,-1.1310437,0.98197645,-0.93830889,-0.26111716,0.22670291,0
-4.1709976,-1.309368,0.048114184,-0.9540351,-0.29949263,0.01100519,0
-2.3571429,-2.4519548,-2.9032328,-0.5271132,-0.54831541,-0.64923185,0
-2.2497723,-2.7962115,2.4405119,-0.51837009,-0.64427519,0.56231844,0
1.3553585,-1.3283733,-4.0861869,0.30083075,-0.29484123,-0.90695614,0
4.3869786,-0.41152647,0.024017897,0.99561417,-0.093394935,0.0054508033,0
-3.3028762,2.6735544,-0.84469819,-0.76235199,0.61709535,-0.19496866,0
2.0905252,-3.6719842,-1.244747,0.47459066,-0.83361322,-0.28258225,0
1.9489219,-1.5914705,-3.595263,0.44411987,-0.36266392,-0.81928772,0
-1.296129,-1.0770813,3.9766495,-0.30009905,-0.24938187,0.92073298,0
-2.3607173,3.7109451,-0.15837049,-0.53639948,0.84319669,-0.035984762,0
1.3317063,3.9757226,1.3047583,0.30327043,0.9053942,0.29713356,0
2.1485472,-2.7840271,-2.521575,0.49651152,-0.64336568,-0.58271515,0
-2.48803,-3.4766073,-0.54860312,-0.57723874,-0.80659497,-0.1272794,0
-4.1222301,-0.93098414,1.0552664,-0.94637465,-0.21373378,0.24226628,0
2.3668668,1.6440059,3.4373262,0.52766657,0.36651278,0.76631349,0
-3.481303,1.6928556,-2.1378875,-0.78723449,0.38280907,-0.48344508,0
2.7142818,-0.099700905,3.5357862,0.60877544,-0.022361519,0.79302734,0
-1.4904118,1.7848543,3.7362721,-0.33867082,0.4055779,0.84900451,0
0.68978328,-2.4290574,3.5057266,0.15965563,-0.56222391,0.8114273,0
1.7801027,-3.4802673,2.0987062,0.40120915,-0.78440142,0.47301772,0
-4.3480444,-0.50218683,0.4449487,-0.98830265,-0.11414616,0.10113604,0
-3.0299864,1.3390112,2.8927975,-0.6889528,0.30446193,0.65775907,0
-2.2073345,3.4724636,-1.6293811,-0.49877426,0.78464568,-0.36817861,0
-4.2376289,-0.23500745,1.1484386,-0.96380377,-0.053449951,0.26120016,0
2.4281967,2.3698151,-2.8007538,0.55191445,0.53864467,-0.63659441,0
4.0315385,0.25803515,1.8187886,0.90998483,0.058242794,0.41053063,0
-0.85970074,-3.1122441,2.9601684,-0.19626158,-0.71049607,0.67577857,0
-0.81053215,-0.67220026,-4.2859464,-0.1836523,-0.15230873,-0.97111994,0
4.2925758,-1.1304374,0.45905101,0.96189964,-0.25331348,0.10286621,0
1.8680257,-0.80102432,3.8961918,0.42508441,-0.18227959,0.88661009,0
-0.062153015,3.1263347,-2.9658902,-0.014421338,0.72540212,-0.68817425,0
-2.0815165,2.5655842,2.9906502,-0.46709156,0.5757162,0.67110085,0
2.4112728,-0.47862336,-3.6758509,0.54527456,-0.10823377,-0.83124065,0
2.2635059,-3.5807695,1.3879559,0.50776541,-0.80326313,0.31135592,0
-2.0278058,-1.6498396,3.5751722,-0.45784986,-0.37251043,0.80722326,0
-2.2720735,-2.7119777,-2.6790617,-0.51197618,-0.61110169,-0.6036846,0
-0.96595567,1.5295569,-3.9045587,-0.22446978,0.35544002,-0.90734541,0
4.454308,0.051577713,0.30122632,0.99765456,0.011552129,0.067467228,0
2.829262,1.9299948,2.8075984,0.63886613,0.43580562,0.63397431,0
-2.1465943,2.14224,3.2832596,-0.48027107,0.47929686,0.73458439,0
0.21732663,-1.6927779,4.1003146,0.048932914,-0.38114312,0.92322022,0
3.8425958,0.86904204,1.9927708,0.8703571,0.19684009,0.45136732,0
-4.3412447,-0.36387193,-1.0992419,-0.96622193,-0.080986224,-0.244656,0
-3.7242982,1.4592415,1.7505841,-0.85296994,0.33420768,0.40093341,0
0.65987551,-4.4016314,-0.4254187,0.14758669,-0.98446172,-0.095148459,0
-0.78719783,-2.4122272,3.6088815,-0.17843667,-0.54678726,0.81803674,0
2.8731606,-3.0426843,-1.5919702,0.64169914,-0.67956096,-0.35555473,0
-3.3219306,1.0278951,-2.5721815,-0.76802957,0.2376491,-0.59468776,0
-0.069923334,4.4670186,0.10149583,-0.01564729,0.9996196,0.022712514,0
