-0.13629633,1.7989423,-4.4260097,-0.028516416,0.37638128,-0.92602587,0
2.6516864,2.3130162,-3.0803659,0.56701744,0.49459863,-0.65868318,0
-1.1614079,4.1562309,1.6827492,-0.25073957,0.89730012,0.36329335,0
2.2858422,-3.0525396,-2.7307699,0.48734125,-0.650801,-0.58219975,0
-3.6329606,2.8690863,-0.14365205,-0.7844044,0.61947381,-0.031016385,0
2.7228954,-1.1561553,-3.6478963,0.57975948,-0.24616885,-0.77671087,0
-3.0921268,0.22374351,3.5826006,-0.65265632,0.047225624,0.75618076,0
4.3070145,1.7121971,0.29042754,0.92744482,0.36869353,0.062538803,0
1.6603192,2.5586033,3.6822038,0.34724581,0.53511655,0.77011085,0
0.81048435,0.55948478,-4.5354733,0.17462943,0.12054831,-0.97722697,0
3.5852177,-2.5524473,1.3844172,0.77709621,-0.55324316,0.30007255,0
-1.9071802,1.1057844,-4.2276568,-0.40000153,0.23192117,-0.88668555,0
0.27917352,-1.867534,-4.3598757,0.058758222,-0.39306369,-0.91763192,0
0.56412393,-1.4037415,4.4873066,0.11912742,-0.29643148,0.94759536,0
4.0368772,-0.55941069,2.4040971,0.85315543,-0.11822611,0.50808299,0
1.5159215,4.300355,0.87097126,0.3265551,0.92636913,0.18762192,0
-3.3973179,1.7759306,2.6049368,-0.73300165,0.3831729,0.56203836,0
-3.8731439,-2.5170014,0.61883336,-0.83107221,-0.54008061,0.13278495,0
2.9100811,-3.5518441,1.1674169,0.61422241,-0.74967748,0.24640331,0
-1.6940066,-3.2793903,2.7522776,-0.3679226,-0.71225333,0.59776932,0
-0.3323409,-1.9899951,4.226625,-0.070960402,-0.42489761,0.90245593,0
-3.5901117,2.4731352,1.6621879,-0.76947945,0.53007448,0.35626173,0
3.1312728,2.3212769,2.5344319,0.6734848,0.49926814,0.54511422,0
-0.34254912,-2.3028274,4.0320044,-0.073573112,-0.49460402,0.86599874,0
-0.44610852,-3.3101234,3.3350813,-0.094513878,-0.70129263,0.70658028,0
2.2860672,-3.8133657,-1.360271,0.49167627,-0.82016021,-0.29256049,0
-2.4368868,0.57158774,4.0850801,-0.50864589,0.11930622,0.8526696,0
4.0952058,-1.9061147,1.3521097,0.86852968,-0.40425739,0.28676149,0
1.9740784,-4.182673,-0.42436537,0.42503133,-0.90055543,-0.091368496,0
1.0593995,3.2744401,-3.1552482,0.2268991,0.70131004,-0.67578185,0
-4.6166878,-0.36419758,-0.9731549,-0.97559541,-0.076961994,-0.20564646,0
-2.2388203,2.0105507,3.5522358,-0.48090538,0.43187237,0.76303101,0
2.1851509,3.1715646,-2.7976239,0.45903686,0.66625381,-0.58769971,0
0.67086822,-4.6001067,-0.071036607,0.14429411,-0.98941684,-0.015278953,0
-0.35930899,-4.206284,2.2355468,-0.075216673,-0.88053095,0.46798268,0
-2.6577792,1.2625104,-3.628897,-0.56888658,0.27023509,-0.77675027,0
0.049019255,3.7613382,2.6841385,0.010607678,0.81394678,0.58084267,0
2.9011495,-1.4533864,3.4415331,0.61334741,-0.30726811,0.72759277,0
-2.9628685,1.4680464,-3.5065763,-0.61473703,0.30459082,-0.72754574,0
2.3375857,3.7842202,-1.3246424,0.50367647,0.81538087,-0.28541893,0
4.427897,1.7825598,0.5269568,0.92204893,0.37119365,0.10973154,0
-3.8239872,2.7011578,0.69585961,-0.8079043,0.57068104,0.14701617,0
-0.49590883,-4.7529922,0.28496397,-0.10358882,-0.99283743,0.059525214,0
-1.6118652,4.0090384,-2.000109,-0.33852753,0.84198719,-0.42006734,0
-2.1361547,-1.9327236,-3.7745545,-0.44988292,-0.40703952,-0.79493666,0
-0.62459987,-3.430023,-3.0788229,-0.13428581,-0.73743755,-0.66193134,0
4.1460724,-1.7249889,-1.0922866,0.89712006,-0.37325016,-0.23634711,0
-2.0434785,2.2027187,3.6321023,-0.4335095,0.46729118,0.7705248,0
-3.3323448,2.9658253,-0.95020956,-0.7306028,0.65024495,-0.20832951,0
3.9173226,2.3962338,-0.66676921,0.84420478,0.51640171,-0.14369246,0
4.6238303,-0.78415543,0.55135202,0.97917914,-0.166059,0.1167587,0
1.5741631,-3.2545352,3.0170991,0.3343018,-0.69115895,0.64073515,0
0.13692087,2.6017156,3.9479704,0.028946526,0.55003035,0.83464289,0
-0.89843702,-0.59204698,-4.587337,-0.19067675,-0.12565109,-0.97357804,0
-1.8529834,0.95769399,-4.179122,-0.39672181,0.20504129,-0.89474565,0
-1.536432,3.56109,-2.5625126,-0.33052287,0.76607466,-0.55125707,0
-3.4194317,2.2991431,-2.2499809,-0.72834718,0.489723,-0.47925135,0
-1.3516946,3.8383255,-2.3802531,-0.28671706,0.8141731,-0.50489151,0
-3.4898584,1.4079129,-2.6534059,-0.75791496,0.30576548,-0.57625723,0
-3.3877718,-3.2539713,-0.099294439,-0.7210443,-0.69256657,-0.021133563,0
-2.8536155,0.3285284,3.6478498,-0.61460006,0.070757106,0.78565902,0
3.2812982,0.64182556,-3.1685469,0.71234089,0.13933466,-0.68786359,0
-3.1810415,2.0156078,-2.8130941,-0.67673773,0.42880228,-0.59846026,0
-1.8025949,-4.0421343,1.7708082,-0.37814307,-0.84794706,0.37147495,0
-3.4996881,-3.0639553,-0.43200758,-0.74916834,-0.65589225,-0.09247864,0
-1.6705714,4.250967,1.2693974,-0.35239968,0.89672273,0.26777378,0
-2.7906842,3.7955337,-0.22417873,-0.59170032,0.80475551,-0.047531936,0
2.1545322,2.673238,3.0550466,0.46880302,0.58166784,0.66474521,0
0.61730313,4.3945813,-1.4406484,0.13230629,0.94188851,-0.30877349,0
-0.54210502,-0.80238926,4.6913476,-0.11316854,-0.16750485,0.97935438,0
3.5718038,-1.0743819,-2.7243519,0.77330297,-0.23260593,-0.58982784,0
-0.85699719,-3.4695415,-2.9430332,-0.18511081,-0.74941856,-0.63569313,0
1.3789262,1.4457628,-4.19981,0.29649135,0.3108623,-0.90302688,0
-1.3211325,2.421123,-3.758806,-0.28337273,0.5193122,-0.8062349,0
-0.28610274,-0.67195421,4.54988,-0.062086627,-0.14581954,0.98736107,0
1.1758668,-4.0267873,-2.0644255,0.25149983,-0.86126786,-0.44154885,0
4.3061318,-1.58483,-0.21366736,0.93744314,-0.34501687,-0.046515297,0
3.718627,2.6709008,-0.95392728,0.79513264,0.57110339,-0.2039728,0
4.2732921,-2.0171027,0.28086233,0.90272421,-0.42610881,0.059331592,0
4.2366128,-1.6756892,0.87253791,0.91330612,-0.36123604,0.18809702,0
0.1133305,4.2665725,1.6740814,0.024719542,0.93062079,0.36514908,0
-0.23741265,0.39471516,4.7229505,-0.050030496,0.083179206,0.99527788,0
4.2332244,2.0807323,-0.63371724,0.88945782,0.43719006,-0.13315257,0
0.91417003,-0.49171376,-4.5099974,0.19753402,-0.1062496,-0.9745211,0
-3.512651,1.8818876,-2.3552794,-0.75883728,0.40654379,-0.50881052,0
-3.3459322,3.0617974,-1.1583486,-0.71479207,0.65409225,-0.24745819,0
1.0258,0.83267361,-4.4866433,0.21932237,0.17803076,-0.95927203,0
-2.5414238,-3.2236626,-2.2178879,-0.54468977,-0.6909104,-0.47534806,0
-1.5108097,-3.0363674,3.2461216,-0.32181782,-0.64677715,0.69145691,0
2.2561834,-0.45042068,4.0893841,0.48084179,-0.09599445,0.87153673,0
4.4539514,0.61990017,-1.3946565,0.94600135,0.13166431,-0.29621944,0
1.4115139,2.5614212,-3.7485902,0.29688019,0.5387373,-0.78843153,0
0.18463758,4.6110244,0.91112953,0.039252803,0.98027509,0.19370048,0
1.7840681,-4.3221979,-0.56776166,0.37876129,-0.91761142,-0.12053695,0
0.46999976,-2.5130053,-4.0225959,0.098609462,-0.52724731,-0.84397066,0
0.23332757,4.1296787,2.0886104,0.050354712,0.89123112,0.45074561,0
-0.57948577,-2.2699122,4.0253448,-0.12442164,-0.48737386,0.86428356,0
-0.93645304,2.8105087,3.7277887,-0.19667,0.59025139,0.78289473,0
-1.9824215,0.67478472,-4.1812096,-0.42392889,0.14429864,-0.89412647,0
4.6639299,-0.096295752,0.92260039,0.98078936,-0.020250272,0.19401592,0
0.91458708,-3.6464133,2.7488449,0.19638388,-0.78297281,0.59024322,0
-4.5110974,-1.0050099,0.47385117,-0.97098029,-0.21632093,0.10199295,0
-3.2284682,-2.0596485,-2.9606638,-0.66696644,-0.42550102,-0.61164099,0
3.2974346,-2.8496227,-1.8195298,0.69820625,-0.60338551,-0.38527134,0
-2.092135,1.1458874,4.0112619,-0.44828859,0.24553303,0.85950619,0
3.7459612,-0.063460998,-2.8515785,0.795614,-0.01347864,-0.60565388,0
-2.9299405,3.374697,-1.4383651,-0.62406963,0.71880162,-0.30636799,0
-3.762449,1.8419594,1.9856625,-0.81158745,0.39732394,0.42832175,0
1.5322485,0.53578091,-4.5215549,0.31894651,0.11152594,-0.94118816,0
-1.8008692,4.1467228,0.92672539,-0.3902297,0.89855188,0.20081179,0
4.6844554,-0.86342806,-0.35117847,0.98077261,-0.18077376,-0.073525354,0
-1.8442322,4.2699394,0.82672942,-0.39038861,0.90386432,0.17500277,0
3.1483176,-0.73937041,-3.3580763,0.67529917,-0.15859143,-0.72029144,0
-4.0548553,1.3860784,-2.1291516,-0.84740734,0.28967074,-0.44496253,0
2.2831087,4.0324559,-0.089983098,0.49260119,0.87003857,-0.019414661,0
2.4484994,-4.0917554,-0.32591432,0.51228958,-0.85610139,-0.068189733,0
3.9861915,-2.0780168,1.1913648,0.85715175,-0.44683647,0.25617948,0
-0.29744774,-3.2712994,-3.3796346,-0.063112989,-0.6941101,-0.71709687,0
0.60642856,-1.2447242,-4.4247971,0.13079815,-0.26846957,-0.95436674,0
-3.7135415,-0.21121465,-3.0022473,-0.77688992,-0.044187073,-0.62808394,0
-2.8620675,-3.307514,1.732563,-0.60836077,-0.70304477,0.36827341,0
-4.3465466,1.8716513,-0.74716955,-0.90722913,0.39065877,-0.1559523,0
-2.3568902,-2.3473437,3.4937077,-0.4885762,-0.48659724,0.72423506,0
1.4971019,-3.7207136,-2.2112629,0.32689133,-0.81241566,-0.48282796,0
-4.1683297,-1.3983399,1.5093387,-0.89670676,-0.30081612,0.3246946,0
0.42021841,4.3334684,-1.6003354,0.090591654,0.93421918,-0.34500399,0
-2.4550395,2.4753296,3.1473851,-0.52269787,0.52701777,0.67010385,0
0.19178155,4.7212014,-0.41886714,0.040429331,0.99527305,-0.088301077,0
-0.1456797,-4.2413044,-1.9616808,-0.031159684,-0.90717995,-0.41958731,0
2.6081448,-3.502995,-1.8149762,0.55147099,-0.74067974,-0.38376194,0
3.445745,-0.012211407,3.1797607,0.73489946,-0.0026044168,0.67817104,0
3.3721602,3.4124053,0.031322923,0.70288497,0.71127355,0.0065288749,0
-2.5244286,-1.6602861,3.75686,-0.52361768,-0.34437701,0.77924895,0
4.6357622,-0.99127668,-0.16489984,0.97730207,-0.20897895,-0.034763854,0
0.51695096,2.569977,-3.9164891,0.10968979,0.5453133,-0.83102441,0
-0.14880486,-1.5404896,4.543139,-0.031004131,-0.32096761,0.9465825,0
2.8764031,3.6663318,0.17917921,0.61679691,0.78618401,0.038422007,0
-4.1394377,-1.7667475,-1.353346,-0.88077354,-0.3759217,-0.28795972,0
3.3849585,-2.5199208,-2.2209718,0.70982587,-0.52842742,-0.46573782,0
-1.4189187,3.8325551,2.4299273,-0.29842982,0.80607063,0.51106715,0
-2.163512,-1.7904524,3.8292933,-0.45560253,-0.37704188,0.80639058,0
-3.827126,-2.6789651,0.16744559,-0.81870854,-0.57309103,0.035820384,0
2.1289432,-4.1267958,-0.74579215,0.45266911,-0.87746489,-0.15857495,0
-0.070360079,3.789969,2.8394427,-0.014855921,0.80021912,0.59952372,0
0.26007447,-3.161293,3.412637,0.055820379,-0.67851561,0.73246211,0
2.3895509,4.0930905,-0.27470851,0.50332767,0.86215603,-0.057863757,0
0.48137599,0.47798872,4.5636578,0.10433391,0.10359975,0.98913169,0
-1.8537751,2.9182425,-3.2230413,-0.39220169,0.61741018,-0.68189621,0
1.4401021,1.9594357,4.0596304,0.30431867,0.41406292,0.85787064,0
1.5655794,-2.3048732,-3.7281556,0.33637178,-0.49521238,-0.80101103,0
-2.2075298,3.9381137,-1.6711239,-0.45856467,0.81805456,-0.3471384,0
-3.6871514,-2.4197922,1.642298,-0.78347909,-0.51417917,0.34897023,0
3.7355077,2.5535574,1.472676,0.7850157,0.5366292,0.30948237,0
2.3964796,-3.2977118,2.5551653,0.49811247,-0.68543518,0.53109556,0
-2.8417866,-1.3588393,-3.3963664,-0.61348212,-0.29334489,-0.73320425,0
0.51628959,-2.2868149,4.0336199,0.11066299,-0.49016246,0.86457765,0
-1.2975923,-3.0427673,3.4517658,-0.27141255,-0.63644433,0.72199303,0
-1.7567619,-2.1796455,-3.8785679,-0.36726668,-0.45567426,-0.81084907,0
-2.0010738,-2.3144701,-3.482403,-0.43168116,-0.49928847,-0.75124055,0
4.3511353,0.75679708,-1.5771725,0.92782134,0.16137685,-0.33631092,0
1.1846875,-4.5633459,-0.52805507,0.24971823,-0.96189982,-0.11130782,0
2.83095,3.6713755,0.14767915,0.61032426,0.79151154,0.031838134,0
-2.5887985,-2.4515026,-3.0350258,-0.55290055,-0.52357769,-0.64820319,0
1.0312287,-2.195529,4.1229587,0.21557708,-0.45897263,0.86189944,0
3.3218653,-3.1741569,0.22191033,0.72215647,-0.69004542,0.048242167,0
3.9165945,2.2940047,0.97624624,0.84359169,0.49410358,0.21027279,0
3.8816886,1.9981424,1.4434804,0.84417027,0.43454602,0.31392092,0
4.5790539,0.92043358,-0.37690985,0.97721314,0.19642918,-0.080436103,0
3.8341019,1.2647009,2.3489254,0.8208496,0.27076203,0.50288552,0
-1.6598778,-4.4216189,-0.80727077,-0.34642795,-0.92282236,-0.16848297,0
4.3909039,-0.59749138,-1.4740932,0.94021302,-0.1279393,-0.31564382,0
2.3118734,-1.0302035,-3.8836336,0.49872267,-0.22223787,-0.83778644,0
-2.19489,-2.6941164,-3.1046994,-0.47101334,-0.57814503,-0.66625428,0
3.5027382,-2.4088376,-2.0610499,0.74142033,-0.50987571,-0.43625993,0
-3.4612422,-3.1425724,1.0587806,-0.72208041,-0.65559989,0.2208816,0
-1.6185029,3.3116403,-2.8750961,-0.34622708,0.70841986,-0.61503512,0
0.069837414,-4.6062427,0.78870976,0.014942318,-0.9855454,0.16875127,0
-3.1572075,1.5698079,-3.2048423,-0.66261142,0.3294597,-0.67260867,0
4.5542121,-1.3543384,-0.53653377,0.95246083,-0.28324422,-0.11220983,0
2.3262904,-0.36762145,3.9834225,0.50270206,-0.079441532,0.86080176,0
1.7360855,-3.9188378,2.0726235,0.36464781,-0.82311362,0.43533432,0
2.2630615,-3.8555939,-1.6038018,0.4764685,-0.81176275,-0.33766693,0
-0.72909862,2.5906003,3.7944882,-0.15672861,0.55688101,0.81567132,0
2.8092022,1.4876374,3.5913646,0.58572626,0.31017643,0.74880928,0
0.81798464,-2.8799274,-3.602154,0.17463879,-0.61486125,-0.76905578,0
4.4695253,1.1193271,1.2215447,0.93765002,0.23482071,0.25626469,0
4.5213838,0.504816,0.95568019,0.9725976,0.10859127,0.20557694,0
1.5615991,-0.98214924,4.254509,0.33675137,-0.21179578,0.91746444,0
3.1443357,-1.4034094,3.2682617,0.66232598,-0.29561552,0.68842989,0
2.1174557,-4.0233674,-1.085677,0.45299208,-0.86072809,-0.23226133,0
0.57253873,-3.2092741,3.4083433,0.12139422,-0.6804558,0.72266406,0
0.53407168,-3.0676184,-3.4563437,0.11480283,-0.65940827,-0.74296772,0
-2.3486226,0.4210825,4.0667539,-0.49811047,0.089305796,0.86250246,0
1.7968889,-2.5683773,3.6246235,0.37497681,-0.53597182,0.75639051,0
4.0103002,0.85576761,-2.1017318,0.87032241,0.18572019,-0.45612153,0
2.8366556,-3.6810246,-0.74182945,0.60276836,-0.7821905,-0.15763327,0
-3.4514065,-3.2042799,0.50685984,-0.72864896,-0.67647642,0.10700649,0
0.64179802,1.6784337,4.3690758,0.13585389,0.35528579,0.92483288,0
1.9827113,-0.27871397,4.3062472,0.41750461,-0.058689516,0.90677756,0
-1.0872157,4.4994769,-0.69462627,-0.23227163,0.96126354,-0.14839923,0
-2.3726988,2.4043968,-3.2285373,-0.50777721,0.51456082,-0.69093376,0
-1.1773827,-0.80336636,-4.4758992,-0.2506471,-0.17102465,-0.95285177,0
2.5754311,3.2103136,-2.1860571,0.5526396,0.68887353,-0.46908718,0
-0.20858803,1.0310584,-4.6792741,-0.043491535,0.21498027,-0.97564948,0
-4.2685823,1.1192759,-1.4274065,-0.92034942,0.24132718,-0.30776325,0
3.8057995,-1.243084,2.5828815,0.79877931,-0.26090437,0.54210746,0
-4.6790247,-0.923253,0.51981103,-0.97530764,-0.19244517,0.10835072,0
-2.1151726,0.70413685,4.1154313,-0.45191726,0.15044238,0.87928253,0
2.4610457,-0.066233873,-3.9312282,0.53056926,-0.014279156,-0.84752131,0
4.6737623,-0.14585321,0.61365259,0.99101609,-0.030926449,0.13011777,0
1.7613329,-0.77988052,-4.2241364,0.3793841,-0.16798317,-0.90986222,0
-0.10080273,-3.3552182,-3.1830394,-0.021790721,-0.72530401,-0.68808377,0
-0.68445814,-3.8641264,-2.4533651,-0.14789304,-0.83493406,-0.53010637,0
3.3663945,-2.6732657,-1.8640976,0.71847212,-0.57054126,-0.3978447,0
0.88168991,-1.4225721,4.3740559,0.18826185,-0.30375314,0.93396544,0
1.8097353,2.6870584,3.2364838,0.39519662,0.58677995,0.70675939,0
-1.1700165,-0.025363922,4.5107121,-0.2510736,-0.0054428387,0.96795273,0
2.6201351,3.3831964,1.833199,0.56282938,0.72674203,0.39378819,0
-4.1253252,1.7826332,-1.3183136,-0.88084376,0.38062969,-0.2814877,0
-1.9404225,-4.3515005,-0.052430116,-0.40723908,-0.91325527,-0.011003579,0
-1.4723084,2.560914,-3.5644727,-0.3180337,0.55318362,-0.76996261,0
-1.3863975,-2.4481168,-3.717706,-0.29736567,-0.52509177,-0.79740345,0
1.1459155,0.75970083,-4.4974771,0.24365981,0.16153771,-0.95631343,0
-3.4457803,1.3774842,2.9833419,-0.72368634,0.28930065,0.62656456,0
-2.7493708,-3.6642251,-1.146898,-0.5821991,-0.77592611,-0.24286394,0
-1.9079971,3.7712286,2.2672052,-0.39782035,0.78630704,0.47271582,0
-1.8512201,-1.3396693,-4.188045,-0.38802356,-0.28080034,-0.87783188,0
3.0607862,-3.0484073,1.9006816,0.64853877,-0.64591587,0.40272847,0
0.79664266,4.1497378,1.9110488,0.17178012,0.89480829,0.4120796,0
-0.77661246,4.5427518,-0.58908212,-0.16715172,0.97774476,-0.12678923,0
-0.65889698,1.3716502,4.4328651,-0.14058642,0.29266396,0.94582415,0
1.7586054,-0.75854874,-4.253828,0.37697071,-0.16260082,-0.91184103,0
2.2043364,-3.9390781,1.0941837,0.47459799,-0.8480913,0.23557992,0
-3.1112063,-0.21281734,3.3960681,-0.67478567,-0.046157688,0.73656899,0
1.0405389,-4.4323654,-1.3295771,0.2193826,-0.93450022,-0.28032213,0
-1.1958698,4.4557533,1.0090077,-0.25322852,0.94351727,0.21365999,0
2.7281091,1.523186,-3.5156879,0.58001912,0.32384226,-0.74746507,0
2.4881303,3.7819571,-1.0643814,0.53502733,0.81324136,-0.22887594,0
-0.98055041,-4.5601487,-0.038863387,-0.21021369,-0.97762001,-0.008331663,0
-3.2622027,3.2362404,1.4457086,-0.67720073,0.67181122,0.30011469,0
-1.3982226,0.33321017,4.5017791,-0.29587743,0.070510499,0.95262003,0
2.029211,0.45044714,-4.2229319,0.43112534,0.095701814,-0.89720231,0
4.1753354,-1.4206812,1.5117993,0.89554739,-0.30471501,0.32425848,0
-2.9156361,2.605808,2.6011508,-0.62080979,0.55483985,0.55384821,0
0.91875994,1.4173477,4.4609871,0.19261003,0.29713461,0.93520713,0
4.3056812,-0.90998954,1.8292565,0.90344805,-0.19094035,0.38382736,0
-0.70350742,1.532681,4.3420582,-0.15103021,0.32903865,0.93216068,0
0.70752895,-4.5616522,-0.2172064,0.15310159,-0.98709208,-0.047001112,0
-0.36850053,-4.3496609,1.6672511,-0.078860737,-0.93084657,0.3567991,0
-2.3934371,3.346884,-2.2706795,-0.50928622,0.71216494,-0.48316532,0
1.6402923,4.3756609,0.40746495,0.3496877,0.93283057,0.086865909,0
-1.7743781,-1.7625519,3.9222965,-0.38143748,-0.37889522,0.84317482,0
1.0250545,-3.9048753,-2.3822379,0.21867236,-0.83301753,-0.50819701,0
4.3620567,1.4119501,-0.93836832,0.93207884,0.30170372,-0.20050937,0
-2.972755,2.4953606,-2.563658,-0.63909614,0.5364638,-0.55114663,0
-2.8817194,-0.95400357,3.6584249,-0.60619432,-0.20068282,0.76958096,0
-3.0192413,-3.0502028,-1.5641354,-0.66096348,-0.66774148,-0.34241596,0
-1.2638305,4.4040556,-1.1925027,-0.26694334,0.93021441,-0.25187767,0
2.2607691,-4.0211263,-0.6789099,0.48485506,-0.86238945,-0.14560217,0
3.1374986,-3.3670979,-0.34579068,0.67980671,-0.7295543,-0.074923001,0
4.7423711,-0.56177926,-0.04536736,0.99301183,-0.11763176,-0.0094995359,0
-4.6731329,-0.66030592,0.80345154,-0.97612083,-0.13792425,0.16782442,0
-2.9218683,-1.3539793,-3.4431272,-0.61977339,-0.28719991,-0.73034042,0
-4.1466532,-0.3696613,-1.9724302,-0.90013146,-0.080243938,-0.42816374,0
0.93011212,4.4122157,-0.98851442,0.20148578,0.95579737,-0.2141372,0
1.1458846,-2.6812775,-3.5990515,0.24738415,-0.57885891,-0.77699643,0
4.5352402,-0.87413239,-0.026947435,0.98191053,-0.18925565,-0.0058343043,0
3.7183657,2.1393182,-1.9242226,0.79086316,0.45501387,-0.40926495,0
-3.8890357,-0.98032302,2.4066689,-0.8314597,-0.209589,0.51453584,0
3.6954048,-2.9633141,0.26767665,0.77890575,-0.62459797,0.056420039,0
1.4062371,1.9628741,-4.0460029,0.29845375,0.41659197,-0.8587063,0
1.329452,-1.3765553,-4.3335648,0.28063422,-0.29057726,-0.91477275,0
3.9857657,0.31855905,-2.374372,0.85709542,0.06850265,-0.5105828,0
3.8346651,0.13641571,2.7532344,0.81197059,0.028885324,0.58298326,0
-2.4466558,-3.1334443,-2.52073,-0.51975769,-0.66565627,-0.53549373,0
2.7947297,2.8922734,-2.3034823,0.60298228,0.62402803,-0.49699229,0
-3.7104688,2.2336204,-1.5793968,-0.80489224,0.48452738,-0.34261015,0
3.4091337,3.2775052,0.85892689,0.7092827,0.68189687,0.17870286,0
-0.048986636,-2.5245566,-3.9541709,-0.010441316,-0.53809971,-0.84281659,0
-3.9355209,2.4540036,-0.53600466,-0.84293932,0.52561682,-0.11480549,0
-0.32637194,2.1936207,-4.0049834,-0.071290873,0.47916234,-0.87482637,0
-2.5358579,3.814105,-1.0042946,-0.54081172,0.81341809,-0.21418168,0
3.6915326,-1.2534571,2.6186774,0.78603691,-0.26689821,0.55759418,0
3.8427217,2.1093326,-1.9275483,0.80246329,0.44048518,-0.40252376,0
3.6936784,0.072311305,-2.9742675,0.77878654,0.015246338,-0.62710375,0
-1.3288233,1.9671777,-3.9768348,-0.28691006,0.424739,-0.85864979,0
-2.9049268,-3.5961299,1.2276777,-0.60733277,-0.75184256,0.25667048,0
2.9033334,-0.42159399,3.6193182,0.62316275,-0.090489671,0.77683961,0
2.9866507,3.6056468,0.43240258,0.63520253,0.76685101,0.091963626,0
-2.7001173,-1.670945,3.4898648,-0.57227135,-0.35414535,0.73965293,0
-1.379451,4.5658717,0.018784491,-0.28920886,0.95725799,0.0039382633,0
1.1936651,0.93009031,4.5271883,0.25006607,0.19484864,0.94842029,0
1.566945,-2.1806707,3.8208275,0.3355307,-0.46694809,0.81815565,0
0.055935502,-2.3815818,-3.9551682,0.012114628,-0.51580793,-0.85661858,0
0.47947815,3.4834228,2.9877982,0.10391305,0.75493127,0.64751899,0
-4.4662061,0.53278673,-1.3337168,-0.95198935,0.11356559,-0.28428698,0
-3.279983,3.2798216,0.33902666,-0.70524293,0.70520824,0.072895549,0
-1.8842455,3.9901848,1.3206831,-0.40907612,0.8662827,0.28672481,0
1.3987623,4.2328134,-1.3268861,0.30073002,0.91004312,-0.28527683,0
3.0257041,-1.3822758,3.3449326,0.64138824,-0.29301459,0.70905823,0
0.71625638,2.7538757,-3.7633848,0.15181221,0.5836904,-0.79765821,0
-0.9310919,3.2677987,-3.1440442,-0.20113,0.70589417,-0.67916131,0
0.089285024,4.6505647,-1.0025691,0.018764287,0.97737032,-0.21070157,0
0.9845885,-1.5634104,4.3233738,0.20941475,-0.33252591,0.91954988,0
-0.91876471,-0.43568996,-4.5566659,-0.19679061,-0.093320616,-0.97599423,0
0.94682378,-4.0110946,-2.373405,0.19908482,-0.84339666,-0.4990463,0
1.6208671,-4.2643795,-1.2046132,0.343521,-0.9037779,-0.25530156,0
-2.7299302,-3.8126824,0.4227058,-0.57981682,-0.80978531,0.089779556,0
-0.9262501,4.1292734,1.741136,-0.20241182,0.90236288,0.38048738,0
1.0263489,-0.73999649,4.6239886,0.21409114,-0.15435947,0.96454036,0
3.5778055,-2.696871,-1.6099868,0.75150275,-0.56646621,-0.33817086,0
2.0513234,3.3755794,-2.6148918,0.43303353,0.71258342,-0.55200261,0
-4.5346413,-1.281268,0.24542013,-0.96102136,-0.27153766,0.052011609,0
-2.4173841,3.8467376,1.3459084,-0.51016694,0.81181896,0.2840417,0
3.2062454,-3.0082655,1.7083212,0.67975271,-0.63777918,0.36217937,0
-1.1438946,2.8053923,3.6990454,-0.2392391,0.58673197,0.77363449,0
4.1920166,0.39493802,2.1639419,0.88549542,0.08342424,0.45709756,0
3.793123,-0.2401235,2.6706073,0.81657392,-0.051693179,0.57492161,0
-2.7657714,-0.48493677,3.8077242,-0.58459222,-0.10249954,0.8048265,0
-0.85620916,0.63798648,-4.4946618,-0.18533663,0.13809974,-0.97292286,0
-0.25750899,-2.8276205,3.8113649,-0.054181509,-0.59494913,0.80193508,0
2.887701,-3.7564616,-0.68179065,0.60324752,-0.78473359,-0.14242767,0
1.8611085,1.691206,-4.0938764,0.38736355,0.35200071,-0.85208273,0
1.9017535,4.3426881,0.16055214,0.40091252,0.91549093,0.033846322,0
4.3044705,1.9688945,0.16868462,0.90880674,0.41569445,0.035614535,0
1.8336515,4.2409763,-0.93319374,0.38900435,0.89971197,-0.19797459,0
2.7972391,-3.1704204,-2.0410497,0.59580499,-0.67529166,-0.43473852,0
0.425594,-3.7523742,2.6200933,0.092594132,-0.8163833,0.57003921,0
0.28849649,4.5577445,0.84915555,0.062107161,0.9811855,0.18280514,0
2.9153395,0.44824788,3.5873122,0.62773269,0.096517012,0.77242231,0
1.7142948,-4.021347,-1.7519902,0.36400682,-0.85387754,-0.37201092,0
-4.168611,-0.19774012,-2.3135738,-0.87361282,-0.041440256,-0.48485398,0
-2.0835955,3.3794696,2.5977347,-0.43915889,0.71228993,0.54752386,0
-2.6853633,-3.3463681,1.855436,-0.57445693,-0.71586007,0.39691764,0
4.5846033,-0.76851821,0.1729759,0.98555726,-0.16520922,0.037184823,0
-0.44332701,1.8998371,4.3729243,-0.092584319,0.39676157,0.91324055,0
-2.6201952,3.9004972,-0.055477291,-0.55758452,0.83003622,-0.011805716,0
3.32528,-0.35551322,-3.4093351,0.6962896,-0.074441902,-0.71389014,0
4.4241595,1.1883312,-0.8463223,0.94969708,0.25508907,-0.18167289,0
-2.4140379,3.9032736,-0.66955012,-0.52048659,0.84157813,-0.14436056,0
3.4105957,2.4410138,2.2461514,0.71685493,0.51306367,0.47210661,0
-3.8713686,-2.4875329,1.4485202,-0.80247861,-0.51562947,0.30025724,0
2.9994586,-2.2637501,2.8437579,0.63648105,-0.48036471,0.6034416,0
-4.0298738,2.3341134,-0.36145064,-0.86273587,0.49969885,-0.077381194,0
-4.5944324,1.2838575,0.11048012,-0.96284628,0.26905552,0.023153106,0
0.13416828,4.6496658,-0.78993666,0.028436339,0.98547488,-0.16742337,0
2.290163,3.4446394,-1.9860374,0.49910459,0.75070435,-0.43282524,0
4.163547,-1.7871923,-0.96770483,0.89865214,-0.38574424,-0.20886759,0
1.3472443,4.4530902,0.5081442,0.28786686,0.95149565,0.10857561,0
2.0909488,-1.591549,-3.8044853,0.45221779,-0.34421062,-0.82281113,0
0.44690853,-2.5171168,4.0289316,0.09366066,-0.52752364,0.84436154,0
-1.4283371,2.2643287,3.8789349,-0.30305576,0.48043129,0.82300848,0
-1.8348137,0.94597864,-4.2536478,-0.3880657,0.20007582,-0.89965254,0
1.0268446,-4.5318384,-0.076931804,0.22095259,-0.97514409,-0.016553899,0
-0.90696198,3.7738237,-2.503288,-0.19637479,0.81710577,-0.54201025,0
2.8668795,-2.0249979,3.1587493,0.60713208,-0.42884299,0.66894269,0
-0.14999194,0.17406592,-4.725059,-0.03170646,0.036795404,-0.99881965,0
-2.2429876,-3.3881395,-2.4310403,-0.47370157,-0.71554875,-0.51341683,0
1.2323511,1.9552662,-4.1843948,0.25779983,0.40902901,-0.87534827,0
-2.2234612,-3.7872097,1.5851711,-0.47621846,-0.81114042,0.3395102,0
0.46935293,4.7404599,0.13020988,0.098491453,0.99476266,0.027323915,0
-1.4068651,-4.2982054,1.1449683,-0.30156103,-0.92131877,0.24542353,0
4.5460067,0.96120101,0.44139001,0.97398478,0.20593792,0.094568089,0
4.3170786,1.0033897,1.4948436,0.92295599,0.21451649,0.31958532,0
0.91641003,-4.5246253,1.2206448,0.19191249,-0.94753665,0.25562462,0
-1.7640301,4.387877,-0.22273272,-0.3725957,0.92680055,-0.047045257,0
-3.7797461,1.9892472,2.161598,-0.78957307,0.4155454,0.45154876,0
0.53420913,4.3259168,1.9551725,0.11182475,0.90553409,0.40927172,0
4.6080995,0.42279041,0.29638252,0.99378121,0.091178834,0.063917756,0
-3.5675902,2.9674921,0.61890715,-0.76205593,0.63387185,0.13220181,0
-0.58469117,4.6730213,0.33314583,-0.12384307,0.98978972,0.070563413,0
1.9629419,-0.049162563,4.263505,0.41818678,-0.010473633,0.90830064,0
-1.0132543,-3.8323874,2.5298972,-0.21546774,-0.81495422,0.53798068,0
-1.1824967,-1.7198483,4.2363944,-0.25038958,-0.36417189,0.8970418,0
1.5270355,-2.1776111,3.8445263,0.32664919,-0.46581426,0.82238519,0
-4.3497429,0.38061482,-2.021503,-0.90400958,0.079103395,-0.4201301,0
-3.1491358,3.3119287,-1.3197267,-0.66202152,0.69624436,-0.27743721,0
-3.2843356,3.1235797,-1.498238,-0.68800455,0.6543293,-0.31385177,0
3.1996169,3.1259081,1.5283577,0.67687804,0.66128498,0.32332364,0
2.8445923,0.45254782,-3.6537387,0.6114037,0.097268566,-0.78531796,0
-4.6908879,-0.081581183,0.56906831,-0.9925738,-0.017262263,0.12041266,0
2.4980655,-0.62576246,-3.8624837,0.5381127,-0.13479659,-0.83202446,0
3.8510613,0.38446775,2.6428576,0.82173687,0.082037471,0.56393117,0
-1.3711599,-3.5984004,-2.5824058,-0.29572994,-0.77609819,-0.55696988,0
0.23894134,-4.7444162,0.39733997,0.050123863,-0.99525875,0.083351895,0
3.4405444,-0.067131199,-3.206449,0.73148179,-0.014272523,-0.68171161,0
4.4555831,0.86200058,-1.4598861,0.93462622,0.18081771,-0.30623329,0
4.3628016,-0.19633736,1.459416,0.94748449,-0.042639256,0.31694636,0
-3.947598,-0.032435883,-2.5109704,-0.84375131,-0.0069327774,-0.53668952,0
1.402249,1.9279009,-4.1276441,0.29418173,0.40445974,-0.86594999,0
4.13871,-0.083936304,2.2247155,0.88066983,-0.017860679,0.47339383,0
2.7553165,-3.0968263,1.9360846,0.60225636,-0.67690349,0.42318889,0
-3.8253026,-2.5722594,-1.1792614,-0.80394524,-0.54059929,-0.24783964,0
3.462419,3.2422364,0.46630681,0.72643316,0.68023771,0.097833544,0
-0.17984174,-2.4174705,-3.9849374,-0.038556594,-0.51828581,-0.85433787,0
0.15725952,-4.0460038,2.2469671,0.033959925,-0.87372762,0.48522869,0
0.14394277,1.5675503,4.3276343,0.031257689,0.34039915,0.93976128,0
-3.8263352,-0.16726859,-2.5942385,-0.82715589,-0.036159195,-0.56080806,0
-2.2458224,-2.0374763,3.5274436,-0.48280081,-0.43801111,0.75832027,0
-0.22944616,4.3925776,1.7370518,-0.048517559,0.92883295,0.36730847,0
3.4136004,0.82515436,3.1095767,0.72773218,0.17591144,0.66291857,0
0.38460907,-4.251164,-1.9738353,0.081782967,-0.9039641,-0.41971478,0
3.793992,-0.56509238,2.7542679,0.80342793,-0.11966577,0.58325261,0
-1.8182013,-3.5501127,-2.3260298,-0.39377919,-0.76887,-0.50376278,0
-2.2445071,-4.1185169,0.38447213,-0.47693101,-0.87513578,0.08169575,0
-1.4284986,2.4731882,-3.8619151,-0.29739964,0.51489389,-0.80401349,0
4.4825625,-0.23963515,-1.3793561,0.95452744,-0.051028475,-0.29372334,0
-3.3482168,-0.80114156,3.1607308,-0.71640956,-0.17141826,0.67629367,0
3.9415586,1.5035532,2.1771207,0.83028197,0.31672066,0.45860642,0
-4.2767348,-1.8991195,-0.80647868,-0.90066421,-0.3999474,-0.16984136,0
0.027399873,-2.703599,3.8877485,0.0057860794,-0.57092375,0.82098269,0
3.3889158,-3.2115092,-0.23755538,0.72491252,-0.68696404,-0.05081474,0
-0.17512099,-4.7441292,-0.4520376,-0.036721982,-0.99481982,-0.094789989,0
-0.29143992,2.4476209,-3.9655561,-0.062417541,0.52420574,-0.84930116,0
-3.4825304,-0.74457502,-2.918046,-0.75640363,-0.16172127,-0.63379794,0
4.2368674,1.027385,1.5174086,0.91783023,0.22256185,0.32871538,0
-2.4694629,-1.7373178,3.5672879,-0.52839136,-0.37173414,0.76329315,0
-0.30088127,2.3994663,-3.9667869,-0.064764284,0.51648188,-0.85384548,0
-4.0272965,-0.27907202,2.5530124,-0.84314948,-0.058426149,0.53449529,0
0.014281634,-2.4852085,-3.8885989,0.0030946524,-0.53851378,-0.84261101,0
4.4363914,-0.91824466,1.4472907,0.93280184,-0.19307141,0.30430937,0
-2.6917682,2.0567052,-3.1589804,-0.58113271,0.44402733,-0.68200034,0
-2.6589775,-1.915323,3.415566,-0.56175244,-0.40464327,0.7215941,0
3.3950117,2.3851769,-2.0504405,0.73356193,0.51536644,-0.44303977,0
0.19121221,4.6796246,-0.66773629,0.040417809,0.9891637,-0.14114392,0
-3.15904,2.0754144,2.672668,-0.68240738,0.44832548,0.57734263,0
4.2209373,-0.40773281,2.045593,0.89651048,-0.086600848,0.4344759,0
4.3971515,1.487142,-0.74667639,0.93526661,0.31631255,-0.1588168,0
-1.3588363,-1.7519033,-4.115613,-0.29067183,-0.37475371,-0.88038039,0
-3.1983654,3.4250576,0.48455137,-0.67888635,0.72700417,0.10285108,0
0.4912889,-1.2505652,-4.5312343,0.10394916,-0.26460034,-0.95873934,0
3.0854058,3.1478262,-1.4992697,0.66270345,0.67611051,-0.32202286,0
1.3174036,3.9807818,-1.8654382,0.28705734,0.86739761,-0.40647206,0
1.7663124,-2.2935536,-3.550951,0.38553736,-0.50061959,-0.77507484,0
3.3172901,-3.2276466,0.20335856,0.71603376,-0.6966843,0.043894742,0
-4.4205699,0.97484511,-1.2901195,-0.93914127,0.20710389,-0.27408332,0
-3.5568473,-0.39262766,2.9275496,-0.76931351,-0.08492177,0.6332022,0
1.5429891,1.2218519,-4.2003779,0.33263877,0.26340777,-0.90552068,0
-0.17153475,-2.9778674,-3.5717778,-0.03686174,-0.639925,-0.76755267,0
3.588366,-1.4415815,2.8170369,0.75001806,-0.30131045,0.5887996,0
-2.9734352,2.0985746,2.8877578,-0.64001137,0.4517037,0.62156993,0
1.6496581,-3.5505483,2.4510248,0.3571451,-0.76868105,0.5306381,0
3.106715,2.2496033,2.7699764,0.65663087,0.47547296,0.58545828,0
-3.1709504,-3.1154983,-1.1707088,-0.68979663,-0.67773378,-0.25467157,0
0.38931492,4.1492953,2.1423645,0.08308167,0.88547951,0.45719087,0
4.656395,-0.16428705,-0.84257871,0.98342723,-0.034697305,-0.17795201,0
-1.9322296,0.65996009,-4.2391386,-0.41065422,0.14026044,-0.90093851,0
-2.7211356,-3.810106,-0.68704653,-0.575028,-0.8051483,-0.14518608,0
-4.0817604,-1.4857603,-1.7830411,-0.86929655,-0.31642386,-0.37973604,0
-0.98618978,-4.465282,-0.87520605,-0.2118156,-0.95906121,-0.18797831,0
-1.2153231,-4.0834856,1.9841841,-0.25858611,-0.86884934,0.42217782,0
-3.5495143,-3.1709402,0.11346608,-0.74554515,-0.66602892,0.02383258,0
2.2150028,4.0464287,0.87599343,0.47173455,0.86177778,0.18656246,0
0.98587239,-4.5140986,-0.3791014,0.21265456,-0.97369975,-0.081772901,0
0.51224613,1.2646258,-4.4643874,0.10973012,0.27090013,-0.9563328,0
3.3825815,0.066495217,3.1950734,0.72689456,0.014289387,0.68660033,0
2.0491376,-3.8906121,-1.7376362,0.43339288,-0.82286501,-0.36751029,0
1.6656805,4.4342737,0.50900906,0.34963393,0.93077427,0.10684332,0
0.60056585,1.8100269,-4.3535719,0.12635665,0.38082239,-0.91597402,0
4.0773315,2.1102407,-0.89214247,0.87179679,0.45120221,-0.19075391,0
2.7082667,-3.8254106,-0.82302785,0.56911117,-0.80386615,-0.17294985,0
-1.6275383,-4.4212685,0.58159077,-0.3428506,-0.93136638,0.12251554,0
-0.68279779,0.97811157,4.6422224,-0.14245638,0.20406954,0.9685359,0
1.854007,-2.8460138,3.1423783,0.40066925,-0.61505175,0.67909902,0
-2.2185097,0.049485493,4.0795755,-0.47771046,0.010655683,0.87845272,0
4.1161833,0.72811246,1.9807235,0.88986593,0.15740857,0.42820698,0
-2.097424,-3.678529,-1.8359983,-0.45444319,-0.79701692,-0.39780077,0
3.200253,-1.1340914,3.280647,0.67783678,-0.24020876,0.69486481,0
-0.070890702,-3.4192572,-3.261965,-0.014999583,-0.72347194,-0.69019085,0
-2.1640646,3.9572475,-1.0898896,-0.46637979,0.85283047,-0.23488323,0
1.3754551,-0.93338633,-4.3631115,0.29459128,-0.19991016,-0.93447948,0
3.3989835,-2.4716926,-2.2256031,0.7147339,-0.51974434,-0.46799698,0
-2.6944299,1.9747535,3.4892666,-0.55778503,0.40880185,0.72232747,0
0.090702914,3.2109377,3.3919241,0.019415969,0.68733698,0.72607911,0
0.72252429,-3.0815279,-3.5143549,0.1527684,-0.65154922,-0.74306488,0
-2.4525306,0.70966583,-3.9602811,-0.52049297,0.15061018,-0.84047818,0
2.9085023,-3.5957508,-0.36378673,0.62695539,-0.77509838,-0.078417696,0
3.9806063,-2.6688502,-0.16052958,0.8301264,-0.55656928,-0.033477273,0
4.3609676,0.35690543,-1.7336926,0.92658466,0.075832501,-0.36836159,0
1.1687058,4.5070643,0.38243559,0.25016153,0.9647373,0.081860349,0
1.6283962,1.8242692,4.0260553,0.34569541,0.38727766,0.85469919,0
-1.8157587,-4.1849651,1.3638791,-0.38134852,-0.87893301,0.28644404,0
1.9440649,4.0097103,1.3939884,0.41636944,0.85877836,0.29855698,0
-2.3929069,-2.9507995,-2.8824215,-0.50178254,-0.61877024,-0.60443169,0
2.3691046,2.4842367,-3.2877374,0.49841872,0.52264053,-0.69168323,0
0.78521442,-4.5128474,1.231271,0.16554368,-0.95142597,0.25958404,0
-4.0541458,2.4834032,0.71982342,-0.84312314,0.51646262,0.14969856,0
3.0107136,2.7655647,-2.2504854,0.64515805,0.59262574,-0.48225075,0
2.020628,-1.5317479,-3.8532226,0.43806255,-0.33207569,-0.83536041,0
4.1860037,0.31739777,1.8684027,0.91098517,0.069074154,0.40661389,0
2.515661,-1.6756922,3.6860948,0.52772993,-0.3515231,0.77326101,0
3.5410149,-0.39472145,3.0653818,0.75338769,-0.083981082,0.65219176,0
-3.4652743,-1.2902641,3.051656,-0.72278738,-0.26912346,0.63651478,0
1.8058423,-4.252739,-0.67615825,0.38673303,-0.91075206,-0.14480375,0
2.8462949,-2.5022016,-2.8609407,0.59942073,-0.52695572,-0.60250509,0
0.049068537,2.5769413,-4.0435381,0.010233003,0.53740847,-0.84326005,0
-2.5812101,3.3696606,-2.0559547,-0.54728669,0.7144596,-0.43591824,0
2.1433868,-0.34198105,-4.2056956,0.4528839,-0.072258405,-0.88863653,0
-1.1015887,1.6694615,4.1700492,-0.23818533,0.36097068,0.90164733,0
-0.16585471,-0.73148638,-4.608829,-0.035519011,-0.15665321,-0.98701477,0
-1.6137722,0.44106549,-4.3709764,-0.3448087,0.094240822,-0.93393028,0
3.9126074,2.3250377,0.9381023,0.84196955,0.50033408,0.20187396,0
1.7456064,2.2353077,3.677624,0.37586749,0.48131096,0.7918734,0
2.7224054,-3.9182603,0.46880037,0.56785798,-0.81729758,0.097785592,0
-0.010629047,0.04600789,-4.774662,-0.002226027,0.0096353712,-0.99995106,0
0.85616922,0.34716374,-4.6124053,0.18200788,0.073801458,-0.98052359,0
3.2265477,-0.89305943,3.1731327,0.69949329,-0.19360913,0.6879133,0
4.0369072,0.50879502,-2.3049378,0.86326063,0.10880178,-0.49289268,0
-0.54281557,-4.573576,1.1702108,-0.11422852,-0.96244997,0.24625576,0
4.2590003,-1.9358709,-0.52437133,0.90470427,-0.41122109,-0.11138788,0
1.7185081,-3.8297377,-2.2565897,0.36059564,-0.80359626,-0.47350162,0
-3.4742179,-2.4322915,-2.1641786,-0.72967964,-0.51084697,-0.45453599,0
1.8034182,3.1701005,3.0470028,0.37946874,0.66704112,0.64113933,0
2.1982219,3.3084395,-2.6522579,0.46024156,0.69268775,-0.55530304,0
4.2438111,1.8034735,0.64842445,0.91137546,0.38730317,0.13925175,0
0.20525955,1.0676991,4.4987965,0.044348672,0.2306886,0.97201645,0
-3.5544212,2.6562002,-1.3904444,-0.76438916,0.57122397,-0.29901931,0
-0.067592077,0.026452627,-4.6266313,-0.014607552,0.0057167667,-0.99987698,0
4.0891705,-0.69344538,-2.0697091,0.88218302,-0.14960143,-0.44651163,0
-0.61269206,-4.6516485,0.4454717,-0.13000248,-0.98699802,0.094521262,0
2.997714,1.7917815,3.0600085,0.6455971,0.38588369,0.65901303,0
-0.69294292,3.3946328,-3.0829372,-0.1494154,0.73196572,-0.66475654,0
-2.9733119,3.0225892,-2.1654437,-0.6245327,0.63488322,-0.4548431,0
2.7967763,-1.7468493,-3.4614635,0.58501303,-0.36539555,-0.72404832,0
2.9858184,1.0614719,-3.4639947,0.63598496,0.22609553,-0.73783737,0
1.8710878,-2.5669761,-3.4161136,0.40110958,-0.5502888,-0.73232049,0
0.27847546,4.6996746,0.87169802,0.058161881,0.98156554,0.18206127,0
-2.9120874,-2.5749984,2.5290952,-0.62793189,-0.55524558,0.54534751,0
-2.4252386,-3.8952508,0.50398445,-0.52538222,-0.84383267,0.10917873,0
-3.9229887,-0.59807217,-2.5336525,-0.83322889,-0.12702841,-0.53813881,0
-4.1890154,-1.9804686,-0.63565445,-0.89566624,-0.42345008,-0.13591124,0
-2.4548359,0.57882065,3.869226,-0.53150219,0.12532179,0.837735,0
-3.9990265,-2.479794,0.53963512,-0.84433061,-0.52356893,0.11393534,0
-4.4710264,-0.75928384,1.164332,-0.95491469,-0.16216663,0.24867618,0
-2.6209266,-3.6463621,-1.2452772,-0.56242639,-0.78247523,-0.26722485,0
-3.9541216,-2.2837889,1.3879374,-0.82851511,-0.47852692,0.29081735,0
-3.2697859,0.88585758,3.2304435,-0.69851899,0.1892443,0.69011432,0
1.6517693,4.3445868,0.12159742,0.35525155,0.93440485,0.026152365,0
2.883682,3.3874741,-1.5158536,0.61357135,0.72076499,-0.32253361,0
-1.5594651,1.8825585,-4.0312872,-0.3307752,0.39930594,-0.85506874,0
2.0865788,3.8363743,1.7053325,0.44506511,0.81829464,0.36374566,0
-0.53029054,-2.0159752,-4.3095155,-0.11077258,-0.42111778,-0.90021622,0
-3.8068266,0.81418854,-2.6525984,-0.80811578,0.17283651,-0.56309545,0
3.6115165,0.46332109,-2.9978726,0.76572675,0.098235011,-0.63561976,0
1.2759088,-4.4152269,-0.72686517,0.27421147,-0.94889688,-0.15621395,0
-1.0410892,-1.3810881,4.3925614,-0.22053279,-0.29255441,0.93047154,0
1.6817205,0.15882172,-4.3786612,0.35833165,0.03384085,-0.93298078,0
2.4369817,-0.37379873,3.9806912,0.52046001,-0.07983125,0.85014611,0
3.6229022,-2.5734849,-1.5034883,0.77225232,-0.54856014,-0.32048127,0
-4.3604074,-0.78811014,-1.7470806,-0.91546708,-0.16546364,-0.36679938,0
3.3642077,0.083640151,3.3242745,0.71120459,0.017681804,0.7027626,0
1.61277,-4.12114,1.5993799,0.34273288,-0.87579149,0.33988732,0
-4.16681,-2.0596988,0.27132398,-0.89493448,-0.44237572,0.05827412,0
-4.3112259,-0.88917446,-1.6257344,-0.9187324,-0.18948518,-0.34644783,0
-2.610285,3.2352259,2.2780335,-0.55066717,0.68250501,0.48057517,0
0.08224909,3.5293999,2.9621792,0.0178474,0.7658518,0.6427694,0
-1.1026366,-1.8139343,-4.0624681,-0.24055883,-0.39574048,-0.88629615,0
-3.1451123,2.2441428,2.5252235,-0.68139482,0.48619798,0.5470947,0
3.6727748,1.8576952,2.3524749,0.77472907,0.39185917,0.49622717,0
-0.29513863,1.114814,-4.5786381,-0.062507704,0.23610759,-0.96971434,0
-0.84682834,-3.8548124,2.4677508,-0.18192865,-0.82814986,0.53016007,0
-1.4075429,-2.7728927,3.5649245,-0.29753858,-0.58615804,0.7535845,0
2.9842396,-1.857715,2.9665823,0.64878756,-0.40387589,0.64494878,0
-3.967818,-2.473423,0.62381375,-0.84116548,-0.52435821,0.13224663,0
2.619297,3.7625983,1.2499429,0.55121452,0.7918151,0.2630426,0
-2.8529871,1.4891214,3.4478977,-0.60489982,0.31572849,0.73103476,0
-1.2449803,-0.0055561545,4.5063176,-0.26629815,-0.0011884475,0.96388996,0
3.365268,-0.48790058,3.0799687,0.73350149,-0.10634392,0.67131698,0
-2.6738763,3.1426742,-2.3807914,-0.56128579,0.6596933,-0.49976298,0
1.8416221,2.0052137,-3.6857815,0.4018994,0.4376002,-0.80435246,0
3.6460156,1.7939386,2.3072312,0.78026533,0.3839117,0.49375886,0
1.3601745,2.3157237,-3.7002947,0.29748926,0.50648129,-0.80930638,0
-2.8501661,-1.830693,3.2677059,-0.60555834,-0.38895679,0.69427061,0
4.0283561,1.4897841,1.7217871,0.87056798,0.32195723,0.37209538,0
2.2870941,-3.1214895,-2.6890454,0.48534903,-0.66241783,-0.57064795,0
-4.4653225,1.2755941,-0.91672498,-0.94333196,0.26947856,-0.19366483,0
-4.3687048,1.1889671,1.5420688,-0.91337943,0.24858126,0.3224054,0
1.8592017,1.6061361,-3.9901021,0.39676911,0.3427628,-0.85152096,0
0.16553649,-4.0436406,-2.2878044,0.035607498,-0.8698017,-0.49211499,0
4.5645709,0.8503142,-0.035969187,0.98305821,0.18312967,-0.0077465777,0
-3.0874174,2.6847005,-2.2898445,-0.65849185,0.57259941,-0.48838356,0
1.3413932,-2.3005371,-3.9437649,0.28188315,-0.48343962,-0.82875091,0
2.2681265,-2.4650431,-3.2447593,0.4863452,-0.52856922,-0.69576067,0
-1.459218,-1.2505072,-4.1768656,-0.31737664,-0.27198252,-0.90845883,0
-1.2517585,0.45891225,4.5169897,-0.26578653,0.097441077,0.95909476,0
0.22365765,-4.4434342,1.8228617,0.046517722,-0.9241733,0.37913021,0
3.1252549,-3.0340028,-1.5449848,0.67622501,-0.65648043,-0.33429509,0
-1.1623386,-1.3933599,4.2702966,-0.25051379,-0.30030483,0.92035848,0
2.4893942,3.1681778,2.4144905,0.52996796,0.67447442,0.51402169,0
3.4120333,-0.62497294,3.1195204,0.73138189,-0.13396525,0.66868073,0
2.5659301,-3.0551689,-2.5664067,0.54089147,-0.64402175,-0.54099196,0
-1.5088108,-4.1160755,-1.8160504,-0.31796777,-0.86742449,-0.38271567,0
1.3449743,3.8418281,-2.3453016,0.2863006,0.81779832,-0.49923727,0
3.6332307,0.92490512,2.8243396,0.77403224,0.19704401,0.60170412,0
0.50113261,4.4046245,-1.4351424,0.10754938,0.945288,-0.30799967,0
-0.52031171,-4.5978966,0.64643556,-0.11136383,-0.98410118,0.13835849,0
-1.9295646,2.2857499,3.5995173,-0.41228133,0.48838583,0.76909256,0
-0.75070542,3.4546847,-3.1908686,-0.15763316,0.72541487,-0.67001873,0
3.8379064,-0.3488121,2.7166724,0.81397289,-0.073978774,0.57617289,0
1.4784099,0.70634526,4.4857159,0.30957633,0.14790741,0.93930072,0
4.4895949,-1.1000237,-0.19242841,0.97043025,-0.2377712,-0.041593585,0
-4.7797914,0.48506194,0.018386636,-0.99488282,0.10096253,0.0038270601,0
1.1133059,-4.4019446,-1.2745903,0.23606735,-0.9333961,-0.27026635,0
1.484464,2.953872,3.3142891,0.3171128,0.63100928,0.70800197,0
2.4868748,3.7401249,-1.6571611,0.51946175,0.78124231,-0.34615004,0
0.63046378,-2.1387732,-4.1880317,0.13287964,-0.45077837,-0.88269013,0
-3.4425938,3.3196132,-0.57224369,-0.71474892,0.68921578,-0.11880884,0
0.84145653,-2.0924482,-4.0375934,0.18194538,-0.45244321,-0.87303555,0
3.2972004,-3.1448042,-1.1525359,0.70153737,-0.66911238,-0.24522229,0
-1.0788636,-2.8927486,-3.4782202,-0.23197369,-0.62198925,-0.74787539,0
-4.5229731,-0.20295556,1.1449054,-0.96850818,-0.04345905,0.24515961,0
-2.3679867,-3.1167257,-2.6823027,-0.49903706,-0.6568287,-0.56527704,0
2.5327752,-3.2621448,2.2028987,0.54110599,-0.69692963,0.47063071,0
-0.64282054,-2.6897261,-3.7217867,-0.13863572,-0.58008742,-0.80266976,0
-0.92498088,4.4450526,-1.259655,-0.19631267,0.94339257,-0.267342,0
-0.89218515,0.26650089,-4.5474806,-0.19220541,0.057412878,-0.9796738,0
-4.3490739,1.5149845,0.55615658,-0.93753272,0.32658622,0.11989104,0
0.53740501,1.9198838,4.2712388,0.11401104,0.40730539,0.90614784,0
-3.9188519,1.5082297,2.0882132,-0.83563894,0.32160836,0.44528151,0
-4.7728682,-0.3144969,0.42566678,-0.99390823,-0.065491244,0.088641398,0
-2.3744161,-3.9602652,-1.2430179,-0.49654156,-0.8281768,-0.25994182,0
-4.4451213,-1.0383931,-0.43854284,-0.96932024,-0.22643599,-0.095630333,0
-1.4974169,3.3773644,-2.8285758,-0.32182285,0.72585869,-0.60791379,0
2.967571,-1.9270687,3.0987885,0.63093328,-0.40971276,0.6588313,0
1.5530657,-3.8432415,2.2067819,0.33072105,-0.81840771,0.46992812,0
-2.4494071,-4.0153217,0.35179323,-0.51931804,-0.85131991,0.074586451,0
0.81373483,2.4761281,3.96226,0.17157751,0.52209628,0.83544999,0
-2.2760708,-3.7114952,1.9172841,-0.47843999,-0.78017241,0.40302145,0
3.500227,-3.1173837,-0.30509046,0.74518889,-0.66368264,-0.06495294,0
-3.1167741,3.1521981,-1.3211578,-0.67381102,0.68146926,-0.28561926,0
-0.61492223,4.5866432,0.093747772,-0.1328519,0.99092895,0.020253893,0
-3.6341066,2.2024171,-1.9597749,-0.77659488,0.47064826,-0.41879651,0
-3.4102056,-2.4436653,-2.0900078,-0.72756886,-0.52135706,-0.44590408,0
-0.17649888,-3.3915811,3.357796,-0.036956515,-0.71015197,0.70307779,0
0.27050227,1.3429618,4.5686216,0.056713909,0.28156736,0.95786399,0
0.24412917,-2.60308,3.8980036,0.052012995,-0.55459982,0.83049005,0
-4.430357,0.92971706,-1.396634,-0.93518609,0.19625022,-0.29480982,0
1.3908548,-2.3892908,3.8273571,0.29458374,-0.50605297,0.81063604,0
-3.4865696,-1.8847629,-2.5513141,-0.73968834,-0.39985925,-0.54127049,0
-3.8166807,-1.4074068,-2.5568182,-0.79436362,-0.29292279,-0.53214914,0
-4.521327,-0.14747036,-0.93403649,-0.97882175,-0.031925846,-0.20220949,0
3.8838763,-1.8680574,-1.7994634,0.83160222,-0.39998201,-0.38529491,0
4.3867073,1.2337615,-1.3993121,0.92024106,0.25881782,-0.29354694,0
4.3278723,-1.1885625,-1.1667105,0.93327802,-0.2563059,-0.25159365,0
-1.3403437,-4.3028588,-1.5039324,-0.28211242,-0.90565574,-0.31654418,0
-0.98880571,1.3842646,4.4794817,-0.2063612,0.28889245,0.9348563,0
-4.5245919,0.21035112,1.6033818,-0.94166315,0.043778513,0.33369759,0
3.4787478,3.0908163,-0.86152446,0.7350679,0.65309703,-0.18204223,0
0.60655791,0.3665885,4.6480708,0.12900564,0.0779678,0.98857397,0
-1.7408165,2.6450961,-3.4788558,-0.37005648,0.56228501,-0.73952264,0
-4.5571008,-0.6487332,0.82796019,-0.97438163,-0.13870962,0.17703125,0
-1.8232177,4.3790903,0.064294405,-0.38432801,0.92309707,0.013553038,0
3.4992282,1.9920551,-2.290566,0.75537348,0.43002212,-0.49446127,0
2.3498044,3.986897,0.58318722,0.50376946,0.85474217,0.12502824,0
4.7067862,0.17412525,-0.81500614,0.98468357,0.036427885,-0.17050342,0
-4.0329113,-1.5871259,1.4401313,-0.88305843,-0.34752187,0.31533548,0
-1.027766,4.1620564,-1.6440244,-0.22384122,0.90647078,-0.35805857,0
-3.5049727,-3.0268066,-0.79664516,-0.74589026,-0.64413214,-0.16953337,0
4.7560282,-0.49538878,0.32134357,0.99238074,-0.10336656,0.067050733,0
-4.588716,-0.56412637,-0.56184387,-0.9852789,-0.12112796,-0.12063787,0
4.7070308,0.10844504,0.025176443,0.99972039,0.023032507,0.0053471932,0
1.3323114,2.8800461,3.4775755,0.28300169,0.61176234,0.73868597,0
1.4456487,0.90575498,4.4481363,0.30344927,0.19012274,0.93368727,0
4.6248183,-0.38341144,0.04875673,0.99652618,-0.082615033,0.010505787,0
3.4629552,-2.3601375,2.2016902,0.73152369,-0.49856159,0.46509078,0
0.31352326,3.6579099,2.7886162,0.068004772,0.79341906,0.6048649,0
-2.6630375,3.1658213,2.175842,-0.56972682,0.67729175,0.46549684,0
-0.87256014,-0.98167008,-4.4702945,-0.18727499,-0.21069293,-0.95944601,0
1.2105421,-3.2560279,-3.1487544,0.25819534,-0.69447505,-0.67159474,0
2.7607839,1.3047223,3.5687878,0.58779377,0.2777862,0.75982451,0
-3.8353934,-0.98007256,2.560302,-0.81354195,-0.20788744,0.54307675,0
0.98278731,-4.5121727,0.14052956,0.21271995,-0.97663969,0.030416997,0
4.3745213,1.5454111,-0.74877787,0.93084615,0.32884511,-0.15933104,0
2.9793673,3.2287893,-1.5407228,0.63993979,0.69351327,-0.33093265,0
-1.7292688,-4.2723656,-0.68578571,-0.37110326,-0.91685504,-0.14717048,0
-1.7004932,-1.0370895,-4.3222847,-0.35731131,-0.21791549,-0.90820783,0
-0.73202747,-2.6852911,-3.7460115,-0.15685771,-0.57539999,-0.80268955,0
3.6292365,-1.5153779,-2.5012534,0.77865565,-0.32512555,-0.53664595,0
3.1887915,-3.3416827,-0.63494986,0.68393117,-0.7167232,-0.13618389,0
-1.5414112,4.3114204,-1.2123441,-0.32543513,0.91026181,-0.25595984,0
2.4927101,1.9427714,-3.3366666,0.54238963,0.4227283,-0.72602642,0
3.8695114,2.5023427,0.11903667,0.8394345,0.54284704,0.025823284,0
4.0153403,0.86472756,-2.37395,0.84638864,0.18227486,-0.50040197,0
-4.6409945,0.64051527,-0.82444453,-0.97561914,0.13464764,-0.17331281,0
1.2951273,2.9460695,-3.4391263,0.27497289,0.62549007,-0.73017263,0
4.5088768,-1.0414808,0.44443518,0.96988255,-0.22402786,0.095600285,0
1.201932,-4.098093,-1.9511107,0.25598621,-0.87280756,-0.41554552,0
-1.6805055,-2.0636201,-3.7763741,-0.36375237,-0.44667909,-0.81741178,0
1.5982474,-3.8526397,-2.3399947,0.33418298,-0.80556154,-0.48927742,0
-2.4159513,-2.9668148,-2.6800508,-0.51718515,-0.63510901,-0.57372117,0
4.6368709,-0.18381622,1.0484451,0.97464889,-0.038637321,0.22037832,0
2.1211498,4.0362248,1.4475808,0.44339168,0.84370679,0.30259308,0
-2.7489455,-3.5278046,1.1872299,-0.59407508,-0.76239449,0.25657246,0
-1.8148077,-2.3881221,3.6916742,-0.38153577,-0.50206643,0.77611846,0
-1.0293431,-4.4246964,-0.80035663,-0.22314861,-0.95921838,-0.17350723,0
-0.81804574,-3.2841468,-3.2651377,-0.17395017,-0.69834465,-0.69430256,0
-1.4466552,-3.2901278,3.0814235,-0.30557358,-0.69496596,0.65088189,0
-2.0271258,-0.45858935,-4.2970157,-0.42468485,-0.096074916,-0.90022904,0
-0.60804015,-3.3539226,3.2114511,-0.12983562,-0.71616751,0.68574542,0
-3.5887277,-2.5129414,-1.2987471,-0.78536075,-0.54993463,-0.28421912,0
-2.7586408,-1.1199689,3.5027099,-0.60008174,-0.24362464,0.76193762,0
