-1.3076181,3.6338973,2.0703123,-0.29841179,0.82929242,0.47246638,0
-2.9243591,1.482299,-3.0634415,-0.65173084,0.3303493,-0.6827271,0
3.1131566,0.4107596,-3.2911057,0.68438637,0.090300076,-0.72350615,0
1.5967298,3.7690015,-2.0548217,0.3486242,0.82291019,-0.44864234,0
-2.0643053,-0.86484605,-3.8965421,-0.45938885,-0.19246215,-0.86713338,0
1.8868401,3.3741672,2.4645565,0.4115541,0.73596716,0.53756452,0
-1.225801,3.0715888,-3.1229846,-0.26948637,0.67527378,-0.68657291,0
-4.3719254,-1.0928417,0.31018138,-0.9678598,-0.24193405,0.068668164,0
-1.4558589,-3.9723885,-1.42803,-0.32604027,-0.88961822,-0.31980798,0
-2.1021836,-2.6425028,2.9723074,-0.46730646,-0.58741713,0.66073126,0
2.0585783,0.79781163,3.8484616,0.46398154,0.17981821,0.86740214,0
3.2325048,2.0784669,-2.5763772,0.69865531,0.44922808,-0.55684358,0
0.29549304,-3.8868058,2.305788,0.065245621,-0.85821664,0.50912392,0
3.5923407,-2.6636937,0.27728984,0.80172867,-0.59447575,0.061884776,0
-3.3773568,1.2898771,2.5915196,-0.75926733,0.28997868,0.58260238,0
1.8630987,0.86129433,4.0692425,0.4087896,0.18897988,0.89284801,0
-0.86224294,4.2313619,-1.0694695,-0.19381554,0.95112836,-0.24039607,0
-1.763139,-1.2044878,-4.0164595,-0.38760704,-0.26479363,-0.88297522,0
-2.3719032,3.8027487,-0.42207381,-0.52689493,0.84474313,-0.093759537,0
3.0756674,-1.6015977,2.813436,0.68876946,-0.35866413,0.630045,0
4.4939446,0.37760761,-0.42610261,0.99207008,0.083359554,-0.094065167,0
-4.4224067,0.044526607,-1.0617892,-0.97232014,0.0097897183,-0.23344731,0
-0.26599213,3.4048584,-2.8887415,-0.059464809,0.76118511,-0.6458028,0
-3.2328856,2.0323162,-2.3436491,-0.72155166,0.45359513,-0.5230819,0
0.4936628,-4.4049339,-0.23664843,0.1112148,-0.99236536,-0.05331333,0
-1.2888792,3.0309284,-2.9733906,-0.29047096,0.68307155,-0.67010444,0
0.58371598,1.8313438,4.1595058,0.1273893,0.39966974,0.90776432,0
-4.140193,-0.01627906,-1.5870292,-0.93374324,-0.0036714382,-0.35792482,0
-1.5848526,3.5372245,2.2853291,-0.35222042,0.78611892,0.50789553,0
-1.6571019,-3.7521801,-1.921018,-0.36585739,-0.82841188,-0.42412519,0
-0.9612143,4.0601783,-1.6119821,-0.21489395,0.90771407,-0.36038291,0
2.1613317,2.4598258,-3.2368879,0.46941635,0.53424585,-0.70301479,0
-3.5146441,-1.4474545,-2.2732091,-0.793567,-0.32681888,-0.51326495,0
-2.850667,3.3839626,-0.38065577,-0.64189881,0.76198363,-0.085714139,0
1.5954984,-2.4404955,-3.3508832,0.35919666,-0.54943198,-0.75438875,0
-0.099795535,-4.2079535,1.6599346,-0.022056099,-0.93001199,0.36686695,0
-2.7868407,0.84313667,-3.4412332,-0.61823875,0.18704326,-0.76341057,0
-1.7727077,3.9616895,1.1667751,-0.39443362,0.88148969,0.25961152,0
1.6443169,-0.50424433,4.1480374,0.36617982,-0.11229228,0.92374384,0
0.91821539,1.6572896,-4.0575776,0.2050443,0.37008506,-0.90608716,0
3.6038206,-2.5198715,-0.46519443,0.81498361,-0.56985468,-0.10520109,0
0.040053874,4.331039,-1.1960082,0.0089140907,0.96388364,-0.26617464,0
1.86458,-0.3137427,4.1090012,0.41222942,-0.069363594,0.90843576,0
1.0926596,-4.2198367,-0.72711563,0.24725094,-0.95487982,-0.16453435,0
-2.6715541,-1.8916249,3.0241928,-0.59946162,-0.42445576,0.67858911,0
0.47809124,-1.7054516,-4.1415477,0.10613889,-0.37861967,-0.91944641,0
1.1461259,3.7747641,-2.3208737,0.25040999,0.82472497,-0.50707346,0
-2.4911995,-1.6477184,3.2813907,-0.56143743,-0.37134352,0.7395215,0
-2.5053248,-3.1815205,2.0177393,-0.55373901,-0.70319504,0.44597051,0
-4.1524725,-0.16972223,-1.5081179,-0.93923658,-0.038389016,-0.34111714,0
-4.4288244,0.69946551,0.19567032,-0.98681766,0.15585285,0.043598685,0
-3.4493763,-2.9948509,0.35375082,-0.75285065,-0.6536473,0.077208608,0
-4.1706152,0.61918092,1.8244151,-0.90781653,0.13477692,0.39711988,0
2.5699363,-2.9725711,2.1674535,0.57267421,-0.66239572,0.4829866,0
0.486265,-4.447011,0.76347452,0.10714933,-0.9799065,0.16823292,0
-3.0073674,1.7222346,2.8465242,-0.67057526,0.38401955,0.63471085,0
4.4080868,-0.98391593,-0.23326692,0.97468406,-0.21755633,-0.051578283,0
-2.295712,2.5591044,-2.8467603,-0.51432329,0.57333285,-0.63777822,0
3.9098015,2.2297966,0.17654411,0.86799419,0.49502528,0.039193619,0
-0.66349375,3.8200059,2.2785604,-0.14753595,0.84942502,0.50666577,0
-3.2472987,0.24332832,-3.2543201,-0.70535541,0.052854069,-0.70688057,0
-3.9665844,-0.87124527,2.232172,-0.8559444,-0.18800494,0.48167765,0
-2.6567261,3.2193937,-1.8207119,-0.58340037,0.70695859,-0.39981687,0
-1.5923295,2.7856836,3.2644315,-0.34787208,0.60858107,0.71317184,0
-4.2041888,-1.7054789,0.6110298,-0.91836512,-0.37254566,0.13347365,0
-0.030135542,-1.6143118,-4.2523522,-0.0066252905,-0.35490599,-0.93487847,0
0.86661261,-4.2176847,1.4273062,0.19104385,-0.92978424,0.31464818,0
-2.4119236,0.0094869137,3.8546717,-0.53043324,0.0020863737,0.8477242,0
-3.2316558,1.7979593,-2.5382328,-0.72048205,0.40084633,-0.56588674,0
1.2243954,-3.1869264,2.8401175,0.27570662,-0.71762496,0.63953131,0
-0.26337835,4.2818899,-1.5667688,-0.05766819,0.93754423,-0.34305295,0
-4.1378489,-1.4010906,-1.2858676,-0.90863198,-0.30766609,-0.28236419,0
2.4498293,0.26824614,3.8036823,0.54052842,0.059185617,0.83924145,0
1.5129415,-0.47836965,4.2568641,0.33302799,-0.10529851,0.93701899,0
3.8928006,-0.96138281,-2.0378094,0.86547673,-0.21374187,-0.45306113,0
-2.0648952,-2.7782462,-2.7524772,-0.46690595,-0.62820607,-0.6223793,0
-0.58294791,-1.7800771,-4.0002275,-0.13197678,-0.40300146,-0.90563351,0
-3.2136097,2.6686709,1.7923282,-0.70698768,0.58710223,0.39430863,0
3.4536846,2.7378058,1.0315862,0.76302046,0.6048618,0.22790772,0
2.8948486,-2.4178236,2.2779241,0.65698832,-0.5487271,0.51697677,0
0.0913219,2.960686,-3.5018387,0.019910598,0.64550811,-0.76349378,0
1.1106403,2.2638974,3.7475593,0.24588208,0.50119901,0.82966352,0
0.049584042,-3.8528962,-2.1430964,0.011245851,-0.87385172,-0.48606253,0
-3.8188481,-2.2929199,-0.5692175,-0.85041773,-0.51060939,-0.12675881,0
-1.5908191,4.1309738,0.51203215,-0.35698909,0.92701465,0.114903,0
-2.053689,-3.9011931,0.59584171,-0.46162584,-0.87690568,0.13393261,0
3.1971517,2.9559813,-1.2821242,0.70435774,0.65122598,-0.28246206,0
-2.7632713,2.6510348,2.3239071,-0.61689699,0.59184033,0.51880944,0
-3.3749666,-2.9309413,0.7798726,-0.7437923,-0.64593571,0.17187229,0
4.5256643,-0.055010714,0.50409925,0.99378109,-0.012079687,0.1106941,0
3.951431,-1.288512,1.6743563,0.881859,-0.28756315,0.3736738,0
1.6307317,-3.0396109,2.8426239,0.36483401,-0.68003422,0.6359635,0
-2.572274,-1.0956478,3.5565,-0.56859577,-0.24219066,0.78615689,0
-3.0055683,0.73756981,3.1753292,-0.67784905,0.16634493,0.71613544,0
-2.5929132,1.3476242,3.313329,-0.58691686,0.30504042,0.74998599,0
0.045490913,4.2922211,1.3419664,0.010115062,0.95439023,0.29839087,0
3.1445191,3.1795576,0.92172843,0.68870091,0.69637489,0.20187354,0
-1.2597561,-3.1297851,-2.939564,-0.28152415,-0.69942909,-0.65691942,0
2.5604553,-3.6407521,0.47755414,0.5719769,-0.81330299,0.10668021,0
-3.3443451,0.85845155,2.8707411,-0.74479431,0.19117938,0.63932151,0
-3.460036,1.372528,-2.5277791,-0.76898521,0.30504125,-0.56179321,0
-2.2510419,3.1925035,2.2492545,-0.49938866,0.70824981,0.49899215,0
-3.1929157,-1.8257724,2.6153331,-0.70747638,-0.40454897,0.5794974,0
-1.4642122,3.6627626,2.1189404,-0.32700211,0.81800383,0.4732224,0
0.55521971,-1.306893,-4.3114414,0.12231538,-0.28790966,-0.9498142,0
2.8693991,-3.0846977,1.5102626,0.64114118,-0.68924773,0.33745447,0
2.2522404,1.9185225,3.2252004,0.51460147,0.43835217,0.73690748,0
-3.779835,0.073658437,-2.3767231,-0.84643793,0.016494714,-0.53223181,0
4.4686108,-0.8354671,0.755054,0.96968371,-0.18129545,0.1638459,0
-1.8980919,-2.4910674,-3.1404049,-0.42796832,-0.56166822,-0.70807624,0
-2.0832036,1.5988743,-3.7143903,-0.4579539,0.35148305,-0.81654024,0
2.8598006,3.4200187,-0.38020667,0.63915867,0.76436609,-0.084975287,0
1.171965,-2.0864663,3.7496397,0.26346844,-0.4690567,0.84295326,0
-1.8211266,4.1429453,0.11510438,-0.40228096,0.91516316,0.025426185,0
-4.3853846,0.69322896,0.002676094,-0.98773509,0.15613832,0.00060274574,0
0.15150258,-0.1928342,-4.5734386,0.033079103,-0.042103458,-0.99856555,0
-3.2790201,-0.59037066,-3.0625858,-0.72456896,-0.1304549,-0.67674321,0
-0.91807592,-4.4584079,0.1776187,-0.20153505,-0.97870499,0.038990669,0
2.4704697,1.1126108,3.4209721,0.56610692,0.25495422,0.78391409,0
-1.1765257,3.2613165,-2.8960462,-0.26043943,0.72193521,-0.64107782,0
0.4014588,-1.6143935,-4.1808891,0.089219078,-0.3587783,-0.92914909,0
3.3386104,2.8927543,-1.2135824,0.72876793,0.63144428,-0.26490659,0
1.2618916,-1.8323333,3.916183,0.28016931,-0.40682065,0.86948383,0
-2.9632807,-3.3612354,0.28434834,-0.65997851,-0.7486105,0.063329741,0
3.3661683,2.0608749,2.1680257,0.74750912,0.45764881,0.48144329,0
1.2714708,-3.4233315,2.6405282,0.28214371,-0.75964898,0.58594227,0
-0.96248937,4.0158777,1.7432872,-0.21472208,0.89590353,0.38891053,0
3.9821928,-1.9046311,-0.50583267,0.89625978,-0.42866942,-0.11384619,0
-2.8953876,-3.3582456,-1.2424777,-0.6287663,-0.72928119,-0.26981813,0
-0.76839638,-4.0885844,1.628937,-0.17198905,-0.91514194,0.36460263,0
4.0976543,-0.7207852,-1.6888762,0.91256124,-0.16052125,-0.37611833,0
-1.6086692,-1.967062,-3.5941632,-0.36546355,-0.4468846,-0.81653565,0
4.567493,-0.26000255,0.14178626,0.99790454,-0.056805283,0.030977422,0
4.0064521,2.1125498,-0.80749857,0.87083244,0.45917857,-0.17551588,0
0.12973066,2.9263675,3.3483934,0.029160544,0.65778184,0.75264382,0
-3.0321774,-1.709048,3.071039,-0.6532343,-0.36818716,0.66160643,0
-1.9982828,0.95506203,-3.8671229,-0.44840273,0.21431021,-0.86775929,0
-3.717278,1.711501,1.8016379,-0.83134806,0.38276744,0.40292606,0
0.71065634,-4.3791862,-1.1552942,0.15501516,-0.95523,-0.25200382,0
0.57319921,-1.2718779,-4.3834753,0.12460532,-0.2764881,-0.95290494,0
-2.3660991,-1.6364841,3.5186548,-0.5205887,-0.36005893,0.77417374,0
3.9682639,1.5202495,1.2795641,0.8941623,0.34255528,0.28832206,0
-1.4895191,2.1681991,3.6004257,-0.33404663,0.48625064,0.80744863,0
3.4670177,-1.2489029,-2.5989237,0.7688483,-0.2769576,-0.57633919,0
-4.4465885,0.64547688,-0.59056646,-0.98118865,0.14243157,-0.13031499,0
1.2711722,1.2786542,-4.11026,0.28321743,0.28488442,-0.91576678,0
-0.81594419,2.9282525,3.1546662,-0.18625006,0.66841239,0.72009432,0
-4.0249476,0.21864682,1.9863598,-0.89568019,0.048655946,0.44202891,0
0.55973315,-3.9698825,2.1457794,0.12309221,-0.87302607,0.4718833,0
0.47011971,-2.6001043,3.6697094,0.1039632,-0.57499218,0.81152672,0
2.6300471,0.46291065,3.5602846,0.59095377,0.10401289,0.79997182,0
-2.0079882,1.2462704,3.9334357,-0.43758419,0.27158937,0.85718095,0
-2.6147089,-2.7276421,-2.4042361,-0.58383405,-0.60905075,-0.53683794,0
-3.6008282,-2.4004042,-1.1309646,-0.80502915,-0.53665304,-0.25284725,0
2.5000877,3.4658883,-1.5366285,0.55051386,0.76318109,-0.33836225,0
-2.392633,-3.7702496,0.073422872,-0.53574795,-0.84421784,0.016440529,0
3.667799,-2.6447113,-0.20315441,0.81030822,-0.58428264,-0.044881877,0
2.8245616,2.9146228,1.8497075,0.63326216,0.65345377,0.41470146,0
3.4453506,-1.6696945,2.2521863,0.77564424,-0.37589467,0.50702977,0
-1.5322195,2.2488372,-3.6313541,-0.33765635,0.49557793,-0.80024421,0
3.1467297,-0.098477237,-3.0536196,0.71746349,-0.022453096,-0.69623417,0
-0.59304702,-3.402231,2.7699134,-0.13395806,-0.76849937,0.62567085,0
-2.8168914,2.8566747,1.8202943,-0.639395,0.64842522,0.41318136,0
-0.99373382,2.7871716,-3.4137328,-0.21996567,0.61694801,-0.75563902,0
1.9234037,2.6292546,-3.1472137,0.4246285,0.5804587,-0.69480813,0
-3.8705285,-1.9154103,-1.1771073,-0.86471224,-0.42792055,-0.26297677,0
1.6470089,-0.056309868,-4.1497808,0.36886853,-0.012611308,-0.92939597,0
-3.7277565,1.4654993,2.0463545,-0.82877058,0.32581601,0.45495421,0
-3.2117348,-3.0978544,0.36636865,-0.7173382,-0.69190311,0.081828125,0
-1.5005983,4.2073469,1.0336277,-0.32728639,0.9176389,0.22543828,0
-3.1969278,-0.24888386,-3.2119842,-0.70438218,-0.054836821,-0.7076996,0
-4.3096147,0.94305712,-1.0004458,-0.95269418,0.20847456,-0.22116105,0
-0.87366736,0.54603487,4.4181466,-0.19257857,0.12036001,0.97387218,0
-1.8326178,-1.6108925,3.932152,-0.3960135,-0.34810051,0.8497054,0
-2.7539203,-2.8209581,2.3552642,-0.59968311,-0.614281,0.51287329,0
-3.7481034,1.4912093,1.9832935,-0.83382988,0.33174509,0.44121766,0
-1.1558512,2.8842151,-3.2636433,-0.25650105,0.64005142,-0.72425228,0
0.97694665,-1.7447686,-3.9932649,0.21875396,-0.39068156,-0.8941558,0
1.4058233,-1.9868083,3.8253152,0.3100653,-0.43820608,0.84370309,0
0.41095757,-4.4648175,-0.68788421,0.090596095,-0.98427445,-0.15164492,0
-0.18475419,-4.2285705,1.6501876,-0.040668659,-0.93080586,0.36324435,0
1.415593,1.8402349,3.8706841,0.31362855,0.40770912,0.85756075,0
3.7196162,-2.5852304,-0.48157692,0.81654459,-0.56751978,-0.10571764,0
-4.1435766,-1.3438122,-1.326219,-0.90998596,-0.29511949,-0.29125577,0
-1.4724982,-3.9697425,1.5464128,-0.32666978,-0.88067675,0.34306753,0
-2.8734875,-1.4474117,2.9523342,-0.65804315,-0.33146459,0.67609942,0
0.95547628,0.1062785,4.3715415,0.21346641,0.023744063,0.97666186,0
1.7532493,-3.4240355,-2.2950711,0.39140049,-0.76439166,-0.51235837,0
-3.9966269,1.1582851,1.9836414,-0.86700058,0.25127035,0.43031743,0
2.0549634,-3.3941169,2.0887368,0.45829406,-0.75694954,0.46582615,0
1.6197747,4.2490082,0.19660464,0.35587505,0.93353474,0.043195318,0
0.9193387,-4.4932585,-0.086426347,0.20041572,-0.97952974,-0.018840933,0
2.573997,2.6274278,2.4530649,0.58220381,0.59428912,0.55485058,0
4.0716515,1.7260263,-1.1233659,0.89235121,0.37827933,-0.24619909,0
3.839623,0.89492661,2.1045434,0.85915232,0.20024838,0.47091171,0
-3.961267,-1.6426998,-1.0495163,-0.89724398,-0.37207857,-0.23771994,0
0.31386611,0.80182683,-4.4045663,0.069935389,0.17866239,-0.98142183,0
-3.1208966,-0.43330368,-3.2103822,-0.69380158,-0.096327059,-0.71369499,0
-3.7622614,0.48316529,2.4013546,-0.83803523,0.10762398,0.53489631,0
3.7556987,0.83033663,-2.4478593,0.82375389,0.18212138,-0.53689975,0
-2.9998906,-1.9060329,2.6824396,-0.67370272,-0.42804879,0.60241091,0
2.2291467,3.782712,-0.64221328,0.50235522,0.85246301,-0.14472766,0
1.8900923,-3.835053,-1.3923841,0.42034432,-0.85289103,-0.30965722,0
2.2056887,-3.4947095,-1.9829746,0.48120335,-0.76242214,-0.43261501,0
-3.0292633,0.49935502,-3.2583425,-0.67664385,0.11154048,-0.72781307,0
2.2359221,-1.4736589,-3.7474267,0.48544842,-0.31995094,-0.81361616,0
3.9655941,-0.52401882,2.1281431,0.87522316,-0.11565314,0.46969005,0
0.56814599,3.2067521,-3.0729883,0.126885,0.71616936,-0.68629569,0
1.6935076,-2.727962,3.036272,0.3832221,-0.61730778,0.68707496,0
3.6617544,-0.8683852,2.4081869,0.81957412,-0.19436204,0.53900057,0
2.3667734,0.77288389,-3.8169465,0.5193485,0.16959633,-0.83756453,0
0.82886076,0.78821903,4.3006544,0.18625413,0.17712149,0.96640432,0
2.2430704,-3.8889809,-0.19547267,0.49915388,-0.86542082,-0.043498833,0
-3.9291701,-1.7546167,-1.2698251,-0.87575811,-0.39108002,-0.28302661,0
-0.069192961,-4.5654755,-0.26595384,-0.015128315,-0.99819338,-0.058148019,0
3.6462078,-2.6145976,0.11279472,0.81240404,-0.58255309,0.025131557,0
0.27282926,1.2905401,4.2649765,0.061113589,0.2890802,0.95535213,0
3.8619494,2.047847,0.99221331,0.86156124,0.45685363,0.22135259,0
0.75309575,-3.6958847,-2.3669446,0.16912127,-0.82997775,-0.53154022,0
-2.7993755,-0.15400352,3.39485,-0.63580757,-0.034978017,0.77105463,0
1.3660744,1.6142988,4.0023785,0.30178049,0.3566159,0.88416827,0
-3.9508882,-0.46891457,2.1454108,-0.87405211,-0.10373763,0.47462767,0
3.7579317,-1.4524606,2.0867131,0.82825154,-0.32012364,0.45991343,0
-1.0534737,-2.618969,3.475673,-0.23527521,-0.58490163,0.77623171,0
-3.1029649,3.2759461,-0.46306181,-0.68408602,0.72222185,-0.10208756,0
4.1558599,0.98679793,1.2008501,0.93663698,0.22240198,0.27064452,0
-0.41447189,-3.5212982,2.6383278,-0.093782239,-0.79676145,0.59697241,0
-2.1040783,-2.6963272,2.8753169,-0.47090107,-0.60344875,0.64350736,0
-1.8738889,-2.2348955,-3.5005972,-0.41126901,-0.49050042,-0.76828849,0
-2.5941443,-2.1073122,-2.9335232,-0.58334559,-0.47387159,-0.65966177,0
1.2199755,-4.257185,-0.70131773,0.27208957,-0.94947451,-0.156414,0
1.33732,-0.48932993,-4.2691817,0.29715449,-0.10872983,-0.94861847,0
-3.4317145,-2.249948,2.0077281,-0.75119197,-0.49250683,0.43948564,0
0.64739496,-4.4421687,-0.30507001,0.14388312,-0.98726922,-0.067801617,0
2.0328407,-4.0659704,-0.38012266,0.44563287,-0.89132911,-0.083329283,0
-3.5483661,-1.9840802,1.7698933,-0.80027032,-0.44747368,0.39916769,0
-0.23572138,-4.2891116,-1.5989399,-0.051428031,-0.93576819,-0.34884545,0
-1.0584553,1.8640046,-3.8273911,-0.24128343,0.4249149,-0.87248468,0
3.9012411,-1.6158881,-1.6647595,0.85950017,-0.35600367,-0.36677074,0
-3.9301238,1.8563284,0.77590048,-0.89013815,0.4204419,0.17573458,0
-3.4629941,0.081382655,-2.8291597,-0.77428907,0.018196305,-0.63257039,0
-3.5235736,-1.1366038,2.6077507,-0.77807921,-0.25098604,0.5758462,0
-3.886255,-0.6991418,2.1605253,-0.86340654,-0.15532784,0.4800024,0
-1.6756028,2.3516862,-3.4055696,-0.37527734,0.52669674,-0.7627303,0
-2.4127185,0.009357377,-3.8827107,-0.52779758,0.002046986,-0.84936774,0
-3.5234225,-0.14921829,2.9080746,-0.77082777,-0.032644849,0.63620657,0
1.8460785,3.1687095,-2.4735992,0.41733363,0.7163341,-0.55919403,0
1.8975712,0.39345598,-4.0523124,0.42244652,0.087593086,-0.90214545,0
1.1709762,-3.4577296,-2.634254,0.26011181,-0.76807392,-0.58515328,0
3.3002546,0.16313554,-3.1501496,0.72290373,0.035734002,-0.69002402,0
2.7168269,-1.7458882,3.0733542,0.60941172,-0.39162034,0.6893844,0
-3.099745,2.7942581,1.6490574,-0.69078469,0.62270629,0.36749592,0
3.1054208,-1.3708316,2.925437,0.69299138,-0.30590844,0.65282702,0
2.9427118,3.1969869,-1.0171348,0.65941572,0.71639478,-0.227924,0
3.6968915,2.4737203,-0.82335836,0.81722027,0.54683089,-0.18200836,0
-0.43564701,3.6734965,2.6590672,-0.095625415,0.80634004,0.58367068,0
2.0613649,3.7430172,-0.87950927,0.47250015,0.85796368,-0.20159858,0
-3.341974,1.3585854,-2.6825116,-0.74338788,0.30220339,-0.59669721,0
-0.92652905,-2.3426774,3.6906254,-0.20734772,-0.5242672,0.82592422,0
2.0178046,-0.59542054,-4.0327311,0.44361839,-0.13090441,-0.88660401,0
-0.068413854,-0.87398458,4.4645405,-0.015036683,-0.19209309,0.98126143,0
-0.15956464,4.532505,0.10980231,-0.03517241,0.99908811,0.024203431,0
1.3199834,1.1584023,4.2868094,0.28493357,0.25005445,0.92535704,0
-0.21200897,1.5369596,-4.1915994,-0.047434285,0.34387499,-0.93781656,0
1.2032688,2.9675081,-3.1550467,0.26766896,0.66012663,-0.70184487,0
1.7972399,-3.8532634,-1.4958811,0.39874357,-0.85490197,-0.33188277,0
2.7442627,0.87892699,-3.4349036,0.61207616,0.19603454,-0.76611567,0
-3.2917571,2.6385241,1.5672528,-0.73143375,0.58628434,0.3482461,0
-4.2360549,-1.6070266,-0.48602638,-0.92964554,-0.35267842,-0.10666346,0
-2.9244888,3.4473352,-0.12204837,-0.64667451,0.76228839,-0.026987819,0
-4.188591,1.687114,0.42537484,-0.92349386,0.3719722,0.093785964,0
-1.4472591,1.7827328,3.9950645,-0.31407848,0.38688168,0.86699325,0
-1.9316584,3.1247098,2.6229832,-0.427937,0.69224399,0.58109218,0
-2.5248568,-2.0712514,-3.1224852,-0.55880868,-0.45841542,-0.69107753,0
0.66312629,4.4699903,-0.54553813,0.14568695,0.9820441,-0.11985317,0
-3.90623,2.0616353,0.58028424,-0.87684852,0.46278426,0.13025893,0
-3.2480996,2.963084,-1.2995636,-0.70847493,0.64630741,-0.28346062,0
-1.9981147,0.26139495,4.0636344,-0.44051626,0.057628687,0.89589304,0
-3.8662429,1.8797041,-1.264575,-0.8627885,0.41947368,-0.28220183,0
3.6315134,0.26050597,2.5477564,0.81722021,0.05862315,0.57333618,0
-0.49959955,4.5275722,0.2499415,-0.10951554,0.9924739,0.054788839,0
1.3365296,0.41820601,4.2334619,0.29973206,0.093787484,0.94940227,0
-3.7324529,2.2475762,-1.5882568,-0.80486107,0.48466429,-0.34248954,0
0.18433683,4.3859544,0.97847682,0.040986016,0.97518653,0.21755753,0
-4.209322,0.047405645,-1.645215,-0.93133497,0.010488752,-0.36401263,0
3.3754542,2.7076666,-0.77374572,0.76786631,0.61595446,-0.17601579,0
-2.387429,0.01029241,-3.8988571,-0.52221197,0.0022513005,-0.85281277,0
4.5336885,0.37796789,-0.37591028,0.99315828,0.082798354,-0.082347609,0
-0.42427063,-0.58746123,-4.4386635,-0.094336301,-0.13062163,-0.98693395,0
1.8793417,-2.9490864,2.8353589,0.41744298,-0.65505672,0.62979531,0
0.35071015,-4.0665703,1.6365296,0.079751723,-0.92474079,0.37214792,0
-0.99447203,2.3555794,3.7237082,-0.22015968,0.52148634,0.82436746,0
4.4462967,0.32660556,0.059751447,0.9972235,0.073251687,0.013401163,0
-4.2600341,1.0787477,-0.45318308,-0.96428847,0.24418209,-0.10258116,0
0.26862288,-3.7529683,2.654912,0.058333613,-0.81498718,0.57653546,0
-4.0316906,-1.3068242,-1.2720735,-0.91111964,-0.2953285,-0.28747523,0
-2.5034502,0.65755713,3.551625,-0.56964773,0.14962387,0.80815476,0
0.088056594,0.075436704,-4.5102873,0.019517053,0.016719952,-0.99966973,0
-0.2161459,-1.74988,4.0810719,-0.048619468,-0.39361483,0.9179889,0
1.9904675,-1.8543972,-3.6152997,0.4399305,-0.40985641,-0.79904872,0
-2.0341411,0.74984139,-4.0518956,-0.44264567,0.1631716,-0.88172549,0
-3.9699476,2.1447873,0.81319481,-0.86586255,0.4677873,0.17736126,0
-0.88455755,0.030882968,4.4775448,-0.19380397,0.0067663677,0.98101693,0
4.2592845,-1.2084175,-0.88322455,0.94344097,-0.26766717,-0.1956362,0
3.5791616,-1.8657004,1.9386573,0.79933375,-0.41666663,0.43296009,0
-0.486779,-3.7878969,2.422039,-0.10763919,-0.83760011,0.53557432,0
-0.81163675,-3.9362853,2.1135509,-0.17873736,-0.86684245,0.46544281,0
-2.3020673,-3.6079082,-1.0064192,-0.52361119,-0.82062805,-0.22891265,0
-0.65656602,3.9235113,-2.0950367,-0.14603271,0.87266314,-0.46597582,0
3.653614,-2.4596181,-1.0101228,0.80854797,-0.54431564,-0.22354105,0
2.9365895,3.4928184,0.18456177,0.64300323,0.7647965,0.040412124,0
3.2171745,-2.0342124,-2.3687143,0.7176075,-0.45374164,-0.52835405,0
2.561991,3.4516191,1.2683791,0.57164717,0.77014649,0.28300855,0
2.5062139,0.43911529,3.8492153,0.54315817,0.095167086,0.83421963,0
-0.60907561,-4.4743338,-0.067235529,-0.13486762,-0.9907518,-0.014887964,0
1.5441195,3.8970017,-1.6255779,0.34344792,0.86678338,-0.36156616,0
-3.1336668,3.1518614,-0.52990323,-0.70009869,0.70416361,-0.11838673,0
1.4036469,3.752023,1.9758962,0.3142418,0.83998507,0.44235426,0
4.3280158,-0.49297878,1.3011167,0.95201379,-0.10843828,0.28620067,0
2.6880383,-0.73029923,3.5731399,0.5933091,-0.16119309,0.78867048,0
-2.249218,3.8944311,-0.0028852106,-0.50012779,0.86595136,-0.00064154476,0
-0.082150355,-4.1691747,1.9015554,-0.017924681,-0.90968722,0.41490722,0
2.6642709,3.0395,-2.0064621,0.59041822,0.67357123,-0.44464391,0
-0.73954368,1.5078287,4.2939529,-0.16039746,0.32702854,0.93130285,0
2.0544157,0.74339622,-3.9869339,0.45188674,0.16351652,-0.87696105,0
1.2779976,-1.7249293,3.9249539,0.28566954,-0.38557172,0.87734103,0
-4.5231571,-0.73309666,0.14437084,-0.98662931,-0.15990925,0.031491388,0
-3.5288346,1.4514076,2.4736063,-0.77602768,0.31917971,0.54397196,0
-2.061882,0.47461751,-3.9219062,-0.46269673,0.10650656,-0.88009554,0
-0.97259539,0.98148239,4.3069978,-0.215023,0.21698774,0.95219815,0
-0.21774554,-0.83822703,-4.3496861,-0.04909635,-0.18899991,-0.98074895,0
-2.9287312,3.3238473,-0.27337986,-0.65984905,0.74886954,-0.061593037,0
0.48465073,-0.9900797,4.3453183,0.10810952,-0.22085398,0.96929651,0
-4.1583972,-1.7130094,0.29163796,-0.92268318,-0.38008994,0.064709894,0
3.3642738,2.6290019,-1.4827212,0.74434388,0.58166534,-0.3280513,0
4.3456888,-0.63447076,1.2861676,0.94962412,-0.13864516,0.28105459,0
-2.6753798,-0.68225718,3.4309185,-0.6075024,-0.15492114,0.7790637,0
4.3104005,-0.46688238,-1.0040355,0.96855307,-0.10490913,-0.22560818,0
-1.5924697,-3.8820975,1.5932754,-0.35480174,-0.86493009,0.35498127,0
1.0940405,-3.7188423,-2.1679099,0.24632464,-0.83730221,-0.48810774,0
3.6362345,2.0563042,1.7703569,0.80145484,0.45322573,0.39020067,0
3.6301303,-0.54464245,-2.6471076,0.80212057,-0.12034524,-0.58490998,0
-3.5915921,-0.58159387,-2.692755,-0.79346842,-0.12848796,-0.59489381,0
0.26659778,1.1062671,4.2650824,0.060394455,0.25061125,0.96620208,0
-4.2414742,1.4447187,-0.36780885,-0.94342142,0.32134551,-0.081810884,0
-3.5093892,2.0760534,1.6570276,-0.79735065,0.47168964,0.3764849,0
-1.4899038,3.2358582,-2.7992802,-0.32885173,0.71421897,-0.6178574,0
-0.4202424,-1.5552248,-4.2028017,-0.09336675,-0.34552982,-0.9337514,0
-1.0247667,-4.2733855,-0.35969537,-0.23241371,-0.96918976,-0.081577726,0
1.7901285,2.4112141,-3.3536222,0.3976562,0.53562313,-0.74496812,0
1.4128095,-3.5335143,-2.5252125,0.30934462,-0.77368796,-0.55291313,0
1.1897597,4.075551,1.1746992,0.27008229,0.92517352,0.26666346,0
1.3204167,-4.257091,-0.94534558,0.2897993,-0.93432772,-0.20748033,0
-4.3728023,0.98331809,0.080677345,-0.97547853,0.21935721,0.017997388,0
0.91543996,2.883894,3.4255927,0.20029274,0.63097858,0.74949902,0
-4.2726855,0.43459034,1.3159047,-0.95121783,0.096751817,0.29295674,0
2.1117387,2.6753383,-2.9352472,0.46947759,0.59477592,-0.65255839,0
3.4698994,-0.23190032,-2.7240059,0.78549176,-0.052495986,-0.61664158,0
-0.97720373,-4.2586474,-1.0010589,-0.21800245,-0.95005327,-0.22332427,0
3.2648332,2.5850577,-1.6351099,0.72976089,0.57781637,-0.36548245,0
2.828629,2.9104292,-1.9583321,0.62770444,0.64585686,-0.4345758,0
-2.0984948,-3.2859087,-2.2415533,-0.46661523,-0.73064518,-0.49842533,0
-4.3609247,-0.12551209,-0.78369969,-0.98383844,-0.028315926,-0.17680514,0
1.0089655,2.3608711,-3.6343057,0.2267487,0.53056765,-0.81675154,0
2.0581901,-3.4904833,-1.8668257,0.46132618,-0.78236276,-0.41843343,0
-0.51868951,-0.030157853,4.4107571,-0.11678901,-0.0067903935,0.99313354,0
-1.8542323,2.7644575,-3.1679556,-0.40351042,0.60158992,-0.68939751,0
3.0105436,-0.077470168,3.3501148,0.66830641,-0.017197495,0.74368733,0
-2.2669969,-2.6546259,-3.0258245,-0.49072039,-0.57462764,-0.65497833,0
2.2728558,1.9611694,3.1904712,0.51882535,0.44767666,0.72828966,0
2.5083644,3.3201044,-1.6554722,0.56010967,0.74136859,-0.3696616,0
0.33146346,-0.85139233,-4.4998107,0.072188675,-0.18542281,-0.9800036,0
3.3977194,-1.5058572,2.6205158,0.747172,-0.33114398,0.57626182,0
-1.4851623,2.2828548,-3.5404274,-0.3324936,0.5110786,-0.79262012,0
-2.9547107,-3.2596998,-0.68416518,-0.6636191,-0.73211873,-0.15366143,0
-4.409399,-0.69495654,0.020380402,-0.98779631,-0.15568459,0.0045656301,0
-2.8658788,-1.9290973,-2.8173499,-0.64288831,-0.43274477,-0.63200206,0
-3.0837405,-0.7222088,3.0851204,-0.6974538,-0.16334295,0.69776589,0
1.0608653,3.0273948,-3.1227038,0.23696899,0.67623919,-0.69752872,0
-3.5365295,-2.5810921,-0.9718982,-0.78855443,-0.57551664,-0.21670811,0
0.84219646,-1.8089427,-3.9705834,0.18952292,-0.4070738,-0.89351666,0
-3.0762029,-0.99766046,3.1475537,-0.68166035,-0.22107306,0.69747108,0
3.146028,-2.5154073,1.9488765,0.70307112,-0.56214064,0.43553293,0
0.19418274,2.0621448,3.8848085,0.044107515,0.46840459,0.88241243,0
3.4433753,0.57594907,-2.9861028,0.74952823,0.12536828,-0.64999253,0
4.1408849,-0.89068043,-1.7253881,0.90540177,-0.19474669,-0.37725496,0
1.1697441,3.8064296,-1.9187917,0.26463062,0.8611266,-0.43408722,0
-3.7406013,1.4328524,1.8134662,-0.85071194,0.32586864,0.41243029,0
-4.3019009,1.076474,-0.060960837,-0.96999782,0.24272464,-0.013745523,0
-1.1503886,2.2984226,-3.7884674,-0.25128302,0.50205171,-0.82752699,0
1.3629143,-4.1143508,-1.0296808,0.30593964,-0.9235673,-0.2311372,0
3.6259556,2.1100006,-1.6441753,0.80471611,0.46827695,-0.36489534,0
1.9759297,3.7247355,-1.1248232,0.45279515,0.85354358,-0.25775942,0
-3.236696,3.1036699,-0.68480951,-0.71351159,0.68418676,-0.15096244,0
-1.643245,3.6306345,2.0880272,-0.36524114,0.80697465,0.46410209,0
-0.66299164,0.70288241,4.4285989,-0.14626601,0.15506653,0.97701615,0
2.8001897,2.4383011,2.3940716,0.63382638,0.55191243,0.54190105,0
0.60218978,-1.7905678,-4.0658698,0.13431814,-0.39938527,-0.90689033,0
1.000487,2.6600714,3.5130711,0.22141051,0.5886811,0.77745229,0
0.91160005,-1.6140674,4.1805201,0.19934089,-0.35295045,0.91416031,0
3.0294878,2.0987341,-2.4999437,0.68027383,0.47127238,-0.56136429,0
-2.1605015,3.6993723,-1.4450072,-0.47786114,0.81822956,-0.31960765,0
0.1312779,0.38698974,4.4642825,0.02928384,0.086324856,0.99583662,0
3.2428749,1.1985979,-3.0345123,0.70495379,0.26055774,-0.65965879,0
-3.0224416,3.323631,0.76098019,-0.66334009,0.7294426,0.16701353,0
1.1297976,4.373713,0.35874489,0.24932081,0.96517968,0.079166897,0
-0.94405192,-2.7957501,3.5488005,-0.20454621,-0.60575068,0.76891291,0
-0.87157798,0.63561517,4.2592797,-0.19836725,0.14466317,0.96939307,0
-1.2131051,0.14937198,-4.4134688,-0.26489383,0.032616891,-0.96372581,0
3.4909015,-1.0564955,2.72299,0.76695794,-0.23211415,0.59824628,0
-0.57118249,-4.4469476,-0.21488434,-0.12725106,-0.99071455,-0.047873072,0
3.2771876,2.6975245,-1.5130957,0.72725803,0.5986219,-0.33577907,0
-4.3170581,-0.48677608,-0.69686216,-0.9811607,-0.11063218,-0.15837957,0
-2.0246756,3.1207974,2.4332826,-0.45547748,0.70206451,0.54739898,0
2.7025526,-0.58098912,-3.5970891,0.59572709,-0.12806816,-0.79291087,0
-3.4654045,-0.30565691,-2.8081172,-0.77512103,-0.068367518,-0.62810296,0
-1.4148508,1.1815735,-4.1390872,-0.31226015,0.26077542,-0.91350412,0
2.1030211,-2.3150287,-3.2097023,0.46926254,-0.51656932,-0.7162044,0
-4.4403629,-1.0012914,-0.46545604,-0.97044528,-0.21883312,-0.10172583,0
3.9563653,1.3971844,1.7298785,0.87174577,0.3078557,0.38116154,0
1.7181364,2.3775139,3.3948078,0.38295126,0.52991825,0.75666046,0
1.6418927,-0.77501529,-4.1660309,0.36129406,-0.17054002,-0.91672385,0
2.3681407,0.59106797,-3.896277,0.51507586,0.12855859,-0.84744889,0
1.4283657,4.2058148,0.8925066,0.31527582,0.92832792,0.1969984,0
4.1709938,-1.4902482,-0.087244004,0.9415158,-0.33639279,-0.019693533,0
-1.6453136,3.352999,-2.4262254,-0.36941892,0.75284201,-0.54475546,0
-1.0720018,1.962785,3.982048,-0.23472255,0.42976597,0.87189823,0
-2.6986804,3.6690295,-0.18924822,-0.59200287,0.8048659,-0.041514914,0
-1.8388759,-0.62946784,-4.1361876,-0.40237173,-0.13773635,-0.90505558,0
-0.64770931,-1.7895436,4.0999489,-0.14329439,-0.39590535,0.90704221,0
1.6250142,-1.6895548,-3.8775115,0.35864007,-0.37288418,-0.85576546,0
2.8837721,-1.4104831,3.1607025,0.64011723,-0.31308803,0.70158803,0
-2.0067077,3.9370015,-0.81832135,-0.44652522,0.87604707,-0.18208985,0
-2.1457951,-3.6280861,1.487685,-0.48004663,-0.81165743,0.33281749,0
2.3327065,-3.8081756,-0.84228057,0.51329482,-0.8379609,-0.18533762,0
3.5991461,-1.5464697,2.1461573,0.80577284,-0.34622192,0.48047933,0
-4.3496561,0.64305979,0.28289995,-0.9872061,0.14595005,0.064207502,0
-3.2367754,-1.7930427,2.4718442,-0.72737938,-0.40293875,0.55548137,0
-2.4773221,-1.0341283,3.7311122,-0.53895921,-0.22498204,0.81173027,0
0.93769068,3.6385627,-2.6365087,0.20428273,0.7926873,-0.5743826,0
3.5086081,-1.518352,2.4957554,0.76849121,-0.33256498,0.54664588,0
3.2865686,1.615412,2.4867976,0.74245012,0.36492857,0.56177837,0
-0.62714118,3.4773431,2.9426632,-0.13638505,0.75622141,0.63994402,0
-1.7232372,-2.4614978,-3.4799306,-0.3748078,-0.53538108,-0.75689244,0
1.469982,2.4002905,3.5646329,0.3236492,0.52847725,0.78483313,0
-1.1386427,-3.5656314,-2.5284908,-0.25207809,-0.78937632,-0.55976921,0
4.0602508,1.4339653,-1.4736526,0.89212483,0.31507316,-0.32379332,0
-4.2197795,1.35202,1.0128678,-0.92836857,0.29744986,0.222835,0
0.6739766,3.1066477,3.1800723,0.14988969,0.69090605,0.70723534,0
-4.0277371,1.8603001,0.91936892,-0.88895792,0.41058502,0.20291302,0
2.33464,0.67271435,-3.731823,0.52427971,0.15106846,-0.83803886,0
3.8811285,1.8210819,1.4097674,0.8599934,0.40352139,0.31238097,0
-1.7111783,-1.9330446,3.6398335,-0.38346431,-0.43318316,0.81566381,0
2.2974188,-3.1461818,-2.4298711,0.50037539,-0.68523508,-0.52922332,0
0.16946992,2.8803999,3.4968238,0.037381172,0.63535005,0.77131903,0
-1.1246605,1.447488,-4.1920362,-0.24581201,0.31637096,-0.91623461,0
2.6869948,3.3184226,1.5748473,0.59041268,0.72915608,0.34604079,0
1.1972677,1.3313602,4.2069802,0.26186037,0.29118842,0.92012954,0
-1.3248831,-3.7826076,2.0963964,-0.2929157,-0.83628899,0.46348801,0
-4.1628823,-0.99254763,-1.5961841,-0.91140306,-0.21730399,-0.3494615,0
-0.11221911,2.1204376,3.8973787,-0.025284316,0.47776014,0.87812638,0
0.69521141,-0.38827294,4.475697,0.15292881,-0.085410163,0.98453945,0
-0.95600754,-1.3996401,-4.2214112,-0.21015847,-0.30768192,-0.9279899,0
0.44412258,-3.8813407,2.2841375,0.098139748,-0.85767722,0.50473607,0
-1.1584667,1.1574144,4.1636391,-0.25892749,0.25869232,0.93060994,0
1.9677178,-3.9923356,0.006026045,0.4420923,-0.89696848,0.0013538874,0
-0.52335709,0.63239199,-4.3637609,-0.11786535,0.14242113,-0.98276347,0
2.0259295,-1.1591569,3.7304139,0.46039072,-0.26341739,0.84773332,0
-1.8636062,3.8322613,-1.2373998,-0.4199782,0.86363,-0.27885771,0
-1.8548559,-0.43057618,4.1362596,-0.40734565,-0.094559006,0.90836567,0
2.2646186,3.7259555,0.93247062,0.50790066,0.83564413,0.20913121,0
-2.2687917,2.2380939,3.1294339,-0.50795466,0.50108176,0.70064187,0
3.42506,1.7930243,2.2550557,0.7652691,0.40061957,0.50385231,0
0.77533627,-2.3089209,-3.7514501,0.17334603,-0.51621765,-0.83873153,0
0.35641554,4.0534182,1.7769154,0.080271617,0.91290748,0.40019542,0
3.433362,0.071472339,-2.8559878,0.76868939,0.016001817,-0.63942212,0
0.40506944,-3.829668,2.1962183,0.091370508,-0.86384875,0.49539551,0
-3.5000901,2.8404493,-0.094253488,-0.7763105,0.63000399,-0.020905169,0
2.9476309,-2.3489983,2.5272436,0.64954662,-0.51763058,0.55690914,0
-1.3569151,4.0946836,0.8691147,-0.30836579,0.93053752,0.19751069,0
-2.7534156,0.53080785,-3.5279069,-0.61097801,0.11778531,-0.7828362,0
-2.3088596,-3.6946378,0.99217063,-0.51672149,-0.82685786,0.22204722,0
-1.8041061,3.292666,2.5955174,-0.39526153,0.72139001,0.5686518,0
1.8384795,-2.8983662,-2.756942,0.41760698,-0.65835816,-0.62623394,0
2.5346267,3.4606574,1.3734032,0.56274045,0.76833868,0.3049244,0
-2.940109,1.5163682,-3.0349972,-0.65489841,0.3377654,-0.67603439,0
1.1801865,2.7019734,3.4658298,0.259363,0.59379762,0.76166606,0
3.1169622,2.6129069,1.9004282,0.6942997,0.58202195,0.42331818,0
-3.981868,-1.0016196,1.8700037,-0.88256502,-0.22200495,0.41447881,0
0.21986759,-0.46068144,4.540925,0.048116058,-0.10081602,0.99374092,0
4.0255389,1.9784566,0.14575392,0.89699268,0.44085059,0.032477688,0
-1.5274732,3.2324076,-2.7200775,-0.34002286,0.71954942,-0.60550231,0
-2.1870825,-0.33544168,-4.0041757,-0.47806624,-0.073322952,-0.87525785,0
3.1083722,2.5572045,1.7791531,0.70632678,0.58108294,0.40428349,0
-0.29786563,-2.3569865,-3.7858052,-0.066644058,-0.52734905,-0.847031,0
4.0414495,1.2710948,1.6420729,0.88945818,0.27974758,0.3613939,0
-2.2614746,3.1756353,2.3221772,-0.49836603,0.69982159,0.51174319,0
1.7544491,3.5701663,-2.3691258,0.37893039,0.77109361,-0.51168984,0
1.5720716,-3.8112497,-1.5979372,0.3555446,-0.86196411,-0.36139446,0
0.56799459,3.2287998,3.18908,0.12418929,0.70596159,0.69727701,0
3.0386713,3.1693935,-0.91955101,0.67736834,0.70650846,-0.20498261,0
-2.0467579,-1.8830413,-3.5792301,-0.45154744,-0.41542894,-0.78963524,0
-2.2675445,2.8987205,2.5432851,-0.5068782,0.64796889,0.56851625,0
-2.3421037,3.6727922,1.1707855,-0.51924336,0.81425643,0.25956264,0
-4.0781755,-2.0462468,0.020320747,-0.89378983,-0.44846389,0.004453579,0
2.5119367,-0.010879368,3.6205497,0.57003665,-0.0024688675,0.82161552,0
3.7368641,1.1434256,1.9657719,0.85424727,0.26138711,0.44937551,0
0.24610521,-4.4187231,-1.0380327,0.054140478,-0.97207117,-0.22835593,0
3.4890614,0.63635254,-2.6041946,0.79296184,0.14462437,-0.59185749,0
3.244482,3.0316467,-0.54703963,0.72518373,0.6776123,-0.12227044,0
-0.15176256,-3.8246872,2.2132628,-0.034323655,-0.86501735,0.5005666,0
4.3735828,0.045870911,-1.2360331,0.96225917,0.010092345,-0.27194732,0
2.6272206,1.9690557,-3.121304,0.57994473,0.43465838,-0.68901098,0
1.2301303,-3.3885994,-2.7365701,0.27179217,-0.74869692,-0.60463375,0
-2.4375906,-3.7342646,-0.11942086,-0.54641807,-0.83708465,-0.026769761,0
-0.75017017,0.30891916,-4.3490124,-0.16956693,0.069827452,-0.98304182,0
0.92126769,-4.2343593,0.83634073,0.20874384,-0.95943493,0.18950081,0
3.4398415,-2.2850177,1.7043707,0.76996744,-0.51147395,0.38150305,0
-4.0606632,-0.34299824,2.0569465,-0.88955432,-0.075139344,0.4506076,0
-1.1868411,3.3447485,-2.6810696,-0.26683009,0.75197893,-0.60276818,0
0.91405314,-0.098468639,4.3259411,0.20668009,-0.022265123,0.97815526,0
-4.1552453,-0.3110598,-1.5568788,-0.93413591,-0.069928996,-0.35000011,0
0.38433626,-0.71648687,4.4889288,0.084247909,-0.15705654,0.9839896,0
4.0635796,1.3300022,-1.1285473,0.91891974,0.30076075,-0.25520465,0
-2.7146556,-1.6449193,3.1401854,-0.60799086,-0.36840618,0.70329511,0
3.0434079,2.3061907,2.1846964,0.69179541,0.52421898,0.49660215,0
-1.195644,3.5673327,2.368386,-0.26894102,0.80241448,0.53273058,0
0.61518842,-2.4372294,-3.7680182,0.13581774,-0.53807735,-0.83188123,0
1.6906892,-3.5293128,-2.3153472,0.37182426,-0.77618301,-0.509202,0
-1.0332687,-1.9874723,3.8754013,-0.23083578,-0.44400814,0.86577797,0
-3.762996,-1.9583437,1.2041159,-0.85335195,-0.44410264,0.27306291,0
2.0329957,-2.4357297,3.1525266,0.45454308,-0.54458755,0.70485109,0
4.020072,0.55292612,2.0434046,0.88482165,0.12169956,0.44975528,0
3.6499851,-0.99456412,-2.2286332,0.8312968,-0.22651544,-0.50757897,0
-2.7200856,3.6753447,-0.13007784,-0.59464914,0.80348229,-0.028436853,0
-0.69960082,-0.91482884,4.4280605,-0.15290561,-0.19994611,0.96780235,0
-4.1240416,-1.0822235,1.4446095,-0.91609585,-0.24040022,0.32089901,0
1.5476787,-0.096740514,4.1215415,0.35145691,-0.021968462,0.93594635,0
0.22099344,-3.9099936,2.2778332,0.048779063,-0.86303836,0.50277764,0
1.4849175,2.680707,-3.2783432,0.33089224,0.5973565,-0.73053104,0
3.2358439,-1.3068997,2.7738097,0.72587055,-0.29316619,0.62222618,0
0.57180625,1.4937625,4.2840343,0.1250429,0.32665679,0.93683487,0
-4.4456563,0.86699718,0.38146168,-0.97804677,0.19073984,0.083921775,0
3.4087203,-2.446429,1.7750084,0.74822038,-0.53699565,0.38961762,0
-0.19085373,-0.85659677,4.4657235,-0.041935373,-0.1882159,0.98123199,0
1.4562159,1.3219357,3.9489934,0.33008441,0.29964676,0.89512908,0
1.5000987,2.9569831,-3.0675294,0.33209667,0.65462637,-0.6790995,0
2.2035503,-3.3093746,2.3005111,0.47971392,-0.72045237,0.50082231,0
-2.7103546,0.23039326,-3.4100592,-0.62134677,0.052817483,-0.78175354,0
-0.7109471,2.0541723,-3.9567659,-0.15747944,0.45501262,-0.87644953,0
1.7031064,3.8039012,-1.7024295,0.37829533,0.84492552,-0.37814498,0
-1.3734273,0.65643156,-4.2881646,-0.30182984,0.14426,-0.94238412,0
-2.737577,-1.7914716,-3.0636303,-0.61077529,-0.39969164,-0.68352044,0
0.27998433,-0.83776194,4.4510989,0.061699122,-0.18461454,0.98087239,0
2.6259601,1.5140511,3.3663385,0.57969129,0.33423287,0.74313277,0
3.9049184,2.2072694,0.24260704,0.86927879,0.49136299,0.054007057,0
-2.5037472,3.4102433,-1.599084,-0.55358535,0.75401413,-0.35356185,0
2.4483922,3.8011355,0.7707954,0.53380811,0.82873857,0.16805185,0
-1.0714809,0.49848896,4.2918372,-0.24069758,0.11198062,0.96411878,0
-0.92948985,0.43002433,-4.2939329,-0.21055965,0.097414486,-0.97271532,0
-0.48858157,4.4781895,0.28444353,-0.1082433,0.99212509,0.063017331,0
4.2458024,1.3644863,-0.66307575,0.94169205,0.30263442,-0.147066,0
4.5225053,-0.35909015,0.40812746,0.99285316,-0.078833252,0.089598715,0
0.29834849,1.2517122,-4.2193599,0.067634128,0.28375697,-0.9565081,0
-1.1082194,-3.9135809,-2.1667671,-0.24046795,-0.84919178,-0.47015786,0
3.8876679,0.94842422,-1.8340938,0.88316482,0.21545434,-0.41665265,0
4.0333052,-2.0619087,0.30986109,0.88831925,-0.4541271,0.068245657,0
-0.69441855,1.4751755,4.138751,-0.15610778,0.33162475,0.93040609,0
-2.9373603,3.1813951,-1.4165154,-0.64474308,0.69830811,-0.31092152,0
-0.16188087,-4.3164186,1.2693032,-0.035956834,-0.95875907,0.2819365,0
-0.39253533,-2.3274343,3.7258356,-0.088999331,-0.52769798,0.84475678,0
2.6261394,3.4418936,-1.3192348,0.58024907,0.76049101,-0.29148671,0
4.402338,0.41638899,1.1767981,0.96207148,0.090996191,0.25717333,0
-0.71036369,1.2511233,-4.2623887,-0.15790585,0.27811062,-0.94748104,0
2.0985863,3.8493021,1.2868488,0.45929426,0.84245396,0.28163829,0
-3.0446653,-1.328566,3.0935166,-0.67073983,-0.29268309,0.68150175,0
-1.0902863,4.1181068,-1.6354386,-0.23893367,0.90247339,-0.35840252,0
1.6254048,-3.693059,-1.9751244,0.3618114,-0.82206649,-0.43965816,0
-0.37118807,-1.1929972,-4.3206,-0.082529843,-0.26525062,-0.96064091,0
-2.8691583,-2.2142363,-2.6910174,-0.63560879,-0.49052295,-0.59614497,0
1.4860948,-1.6946721,-3.8697183,0.331844,-0.37841919,-0.86410558,0
3.996701,-1.6831077,-1.1372681,0.89146698,-0.37541837,-0.25366846,0
2.8484037,-1.3129029,-3.114423,0.64442945,-0.2970342,-0.70461428,0
0.44144341,-1.9314638,4.1174121,0.096610717,-0.42270449,0.90110332,0
3.0558825,-2.7653565,1.8216927,0.67817837,-0.61370325,0.40428016,0
-1.5451217,4.1363382,-0.24063477,-0.34941229,0.93538749,-0.05441691,0
-0.44083172,3.9895382,-1.9648746,-0.098643333,0.89272463,-0.43967295,0
1.3497583,-1.9364659,-3.9678609,0.29235229,-0.41943085,-0.85942298,0
-4.2987947,-0.67717463,-1.4639367,-0.93626302,-0.14748636,-0.31884047,0
3.5729156,-1.9053851,2.1229773,0.78147638,-0.41675025,0.4643425,0
-2.6636753,-3.4709101,1.299692,-0.58360654,-0.76047027,0.28476024,0
-3.7008512,2.0376298,-1.3558573,-0.83409679,0.45924044,-0.30558273,0
3.8584697,1.9371682,-1.0079467,0.87028903,0.4369339,-0.2273453,0
2.4000301,-3.7875309,-0.17341268,0.53485286,-0.84406096,-0.038645461,0
1.4608725,2.4198887,3.6130288,0.31845516,0.52751082,0.78760302,0
3.3266242,-2.9791546,0.38208702,0.74222875,-0.66470212,0.085250378,0
1.5143906,-0.79682201,4.0842748,0.34198219,-0.17993967,0.92231768,0
-0.95450091,-4.36341,-0.41025344,-0.2128022,-0.97280502,-0.091464378,0
-3.2698386,2.8333311,-1.3652431,-0.72072029,0.62450767,-0.30091956,0
-3.1443698,-3.272733,0.50152493,-0.68863189,-0.71674407,0.10983634,0
-1.2394648,0.97552723,4.1473536,-0.27933684,0.21985352,0.93468463,0
-3.384969,-0.76357555,-2.8082268,-0.75828344,-0.17105228,-0.62908459,0
-4.1982346,1.4798069,-0.0018060383,-0.94312572,0.33243591,-0.0004057232,0
-3.0456254,1.6721997,-2.619633,-0.69992065,0.38429123,-0.60202259,0
3.6116824,-1.7192008,1.9001071,0.81558144,-0.38822579,0.42907763,0
-1.9827211,-4.0870476,0.60044974,-0.43270972,-0.89195865,0.13104236,0
-2.9808667,-3.1267829,1.3633417,-0.6580258,-0.69023675,0.30095744,0
-0.50673127,2.1848478,3.8746417,-0.11318643,0.48802024,0.86546236,0
-4.1281657,0.4849211,-2.0060127,-0.89445245,0.10506818,-0.43464413,0
2.0532799,-1.3269477,-3.7260098,0.46074393,-0.29775926,-0.83609468,0
3.4762704,2.2549572,1.4960111,0.78909731,0.5118649,0.33958763,0
3.0215645,2.4458055,2.1963367,0.67673087,0.54777986,0.49190706,0
1.5470804,4.0640178,1.0726265,0.34541801,0.90737689,0.23948626,0
2.2277176,3.9735501,0.5580883,0.48539698,0.86579609,0.12160176,0
1.7164961,-1.6328534,3.7739971,0.38521311,-0.36644214,0.84695393,0
-1.7116506,-2.5300829,3.4065402,-0.37408698,-0.55295807,0.74451077,0
-1.0959873,-2.0913293,3.8669822,-0.24189562,-0.46157777,0.85348254,0
-2.4365361,-2.6361253,2.7205634,-0.54095405,-0.58526641,0.60401314,0
-2.7067263,-3.4431677,-0.87203759,-0.60611856,-0.77103019,-0.1952758,0
1.573494,-2.080327,3.7720859,0.34310097,-0.45361614,0.82250482,0
3.4638186,2.7470365,1.1784436,0.7570762,0.60041136,0.25756881,0
-3.348165,-0.68729776,-2.9228458,-0.74448508,-0.15282488,-0.64991271,0
3.4466937,-0.28667936,2.969979,0.75605279,-0.062884822,0.65148258,0
-1.5576707,-3.8050373,-1.7412634,-0.34885874,-0.85218304,-0.3899765,0
0.50406587,-1.5833277,-4.2472205,0.11052404,-0.34716845,-0.93126708,0
-1.4651949,-2.458168,3.5109308,-0.32348105,-0.54270649,0.77513206,0
-3.0265536,1.9513433,-2.671344,-0.67500782,0.43520522,-0.59578592,0
-2.9906909,-2.9524541,-1.5663328,-0.66683084,-0.65830523,-0.34924337,0
-1.6596811,-0.79245365,4.1259475,-0.36740586,-0.17542654,0.91336656,0
-0.22634147,3.0883529,-3.0934522,-0.051710919,0.70557803,-0.706743,0
-1.9424883,3.443722,1.9156108,-0.44213688,0.78383821,0.43601921,0
-0.92974615,-1.675892,4.1818419,-0.20211472,-0.36431709,0.909078,0
-2.8816924,0.47532436,3.3388703,-0.64961439,0.10715146,0.75267512,0
4.4500833,-0.023349673,-0.079622462,0.99982625,-0.0052461075,-0.017889244,0
-2.0628395,-3.6696641,-1.5284402,-0.46059904,-0.81937724,-0.34127623,0
-3.6931021,1.056874,2.3124866,-0.82367259,0.23571461,0.51575392,0
-3.5987513,1.5312274,2.2408843,-0.79839826,0.33970928,0.49714971,0
-2.421109,2.4295394,-2.7939191,-0.54728597,0.54919165,-0.63155884,0
-1.2714595,-1.4371973,-4.0775137,-0.28214094,-0.3189187,-0.90481341,0
-3.2749717,0.13778341,-3.068337,-0.72941017,0.030687476,-0.68338794,0
-3.5047941,2.8139358,-0.39296913,-0.77680802,0.62368512,-0.087098286,0
-3.4240766,-1.3367711,2.5011787,-0.77014303,-0.30066645,0.56256491,0
-3.4303491,-1.3758076,2.6747649,-0.75189161,-0.30156061,0.58627653,0
-0.79016149,-0.45107672,-4.3494549,-0.17782012,-0.10151155,-0.97881329,0
2.9892919,-2.6890135,-1.7450892,0.68199641,-0.61348891,-0.39813593,0
-0.38931465,1.8905854,-3.971173,-0.088171236,0.42817616,-0.89938366,0
2.4181828,-3.440254,1.4496646,0.54365927,-0.77344269,0.32591563,0
2.9149609,3.3392804,0.70943367,0.64935696,0.74388134,0.15803838,0
2.460633,-3.4393682,1.4798619,0.54919976,-0.76764804,0.33029702,0
0.0016967654,-4.4540668,-0.73164237,0.00037590967,-0.9867757,-0.16209161,0
-2.9665806,2.6833179,2.1229279,-0.65508634,0.59253567,0.46878922,0
-3.0691714,0.44425872,3.1272285,-0.69687808,0.10087223,0.71006036,0
0.71248299,-3.3307509,2.75596,0.16261458,-0.76019877,0.6290105,0
0.12920348,-3.1947403,-3.0713618,0.029142251,-0.72058368,-0.69275528,0
-1.5610813,2.1268792,3.6316743,-0.34776974,0.47381532,0.80904591,0
-4.3728828,-0.90931821,0.55150139,-0.97167701,-0.20205517,0.12254643,0
-0.43444279,4.3916183,-1.090467,-0.095570445,0.96608561,-0.23988524,0
-3.4554546,2.5560446,-1.3348228,-0.76777864,0.56793582,-0.2965886,0
2.8123441,-2.7356076,2.3501203,0.61493647,-0.59815758,0.51386839,0
-4.4672465,0.62138605,0.47903565,-0.98492438,0.13700123,0.10561626,0
-0.59102929,-2.0820451,-3.9181566,-0.13203879,-0.46513891,-0.8753351,0
3.5268953,0.86269891,2.6206036,0.78763801,0.19266081,0.58524191,0
2.5123534,-0.83487529,-3.5064888,0.57181108,-0.19001743,-0.79807609,0
-4.3080554,-1.5104402,0.044227242,-0.94363493,-0.33084631,0.0096875196,0
0.91736901,2.8303766,-3.2267141,0.20901027,0.64486349,-0.73516369,0
-1.2118876,4.009944,-1.4739113,-0.27289826,0.90297711,-0.33190194,0
0.39956254,-1.6096979,-4.2409792,0.087743536,-0.35348806,-0.93131477,0
-3.7498724,1.8253316,-1.6118279,-0.83867794,0.40824464,-0.36049345,0
0.98523605,3.3388131,-2.9143651,0.21701084,0.73541629,-0.64192617,0
2.7425098,1.6751114,3.0155294,0.62232167,0.38011098,0.68427438,0
-0.55474174,-3.859369,2.1279898,-0.12488734,-0.86884815,0.47906792,0
-0.81890541,-0.84063625,-4.3820462,-0.18051581,-0.18530606,-0.96595848,0
-3.9746962,-1.4438081,1.3861266,-0.89315325,-0.32443786,0.31147626,0
-2.7678826,3.3663898,-1.2192078,-0.6116181,0.74387002,-0.26940793,0
-0.54516554,3.9040508,-2.3099577,-0.11932132,0.85448635,-0.50558442,0
-3.4020159,2.1937628,-2.0198195,-0.75200391,0.48492369,-0.44647413,0
0.45562968,-3.7205071,-2.4771914,0.1014108,-0.82808387,-0.5513556,0
-2.9233,1.0275314,3.3019679,-0.64557815,0.22691883,0.72920275,0
-1.3270627,-3.6695654,2.3751018,-0.29050386,-0.80329508,0.51992738,0
2.6157327,-3.6976829,0.62417364,0.57210189,-0.80874139,0.13651659,0
-2.1238766,-3.9675338,0.2337866,-0.47131163,-0.88043952,0.051879823,0
3.7074056,-0.74004108,-2.4556024,0.82239699,-0.16415997,-0.54471517,0
-3.4213257,0.67969686,-2.8546612,-0.7590484,0.15079618,-0.63332933,0
0.69001251,-4.257957,-1.0378568,0.15552714,-0.95973319,-0.23393041,0
-3.4377229,-2.5236237,-1.4073155,-0.76550597,-0.56195599,-0.31337848,0
0.17959233,-4.4851222,0.59802866,0.039659303,-0.99044776,0.13206244,0
-3.7248042,2.3633673,0.32999393,-0.84202296,0.53425884,0.074597873,0
-0.3728697,4.441205,1.084506,-0.081290446,0.9682405,0.23643643,0
-3.6125143,0.39832315,2.7452717,-0.79313707,0.087452903,0.6027317,0
3.2063634,-0.9036991,2.986696,0.71664596,-0.20198344,0.66754866,0
0.83269209,4.2775693,-0.83253503,0.18768379,0.96413839,-0.18764839,0
-2.6820383,-1.3458612,-3.3698585,-0.59438723,-0.29826671,-0.74682039,0
2.0560262,0.34299484,-3.8844624,0.46638897,0.077804945,-0.88115138,0
-0.80888742,0.63046783,4.2942872,-0.18321127,0.14279962,0.97264683,0
1.7655225,0.18596299,-4.2296286,0.3848893,0.040540501,-0.92207199,0
-2.3836586,2.0981274,-3.0473273,-0.54159838,0.47672194,-0.69239253,0
-4.2715287,0.9851591,0.4950588,-0.96826512,0.2233147,0.11221935,0
0.26709884,4.2293739,-1.5019611,0.059406906,0.94067806,-0.33405933,0
-2.7617929,-3.610193,-0.31441283,-0.60614848,-0.79235232,-0.069006205,0
2.4253979,1.9827285,3.1636066,0.54476267,0.44533581,0.71056998,0
-4.2008786,-0.30463403,-1.6791455,-0.92647058,-0.067184627,-0.37032226,0
