0.59314656,-1.3551027,-4.3913598,0.12800415,-0.2924383,-0.94767857,0
4.0981398,-1.4033498,1.3056786,0.90581417,-0.3101832,0.2885949,0
2.4889815,-3.2325666,2.0353191,0.54591542,-0.7090081,0.44641235,0
2.9596214,1.8774685,2.9640934,0.64476711,0.40901515,0.6457414,0
0.19462062,3.6678519,2.7161314,0.042603415,0.80291092,0.59457457,0
-2.4519625,3.4344146,1.6512475,-0.54110014,0.75790811,0.36439803,0
-0.042656522,0.01504699,4.5783191,-0.0093166158,0.0032864148,0.99995118,0
-2.3225915,-0.99321878,3.8875151,-0.5009765,-0.21423453,0.83852619,0
0.78173983,-4.4051151,-0.8116625,0.17192538,-0.96880198,-0.17850617,0
-3.9453461,-2.1446888,0.88722318,-0.86191821,-0.46853843,0.19382679,0
4.0329905,-0.70047468,-2.0086498,0.88449681,-0.15362488,-0.4405278,0
0.41187468,-2.8008401,3.5742004,0.090332836,-0.6142835,0.78389776,0
0.42492923,-3.125936,3.4088457,0.091488965,-0.6730265,0.7339381,0
-0.17435324,-1.3305174,-4.2742076,-0.038918983,-0.29699698,-0.95408499,0
-2.7796321,-2.4155865,2.6253495,-0.6146099,-0.53411502,0.58049613,0
-3.2823906,-3.060931,0.085606247,-0.73121494,-0.68188059,0.01907042,0
-2.4726167,3.4732459,1.4680892,-0.54835373,0.77026391,0.32557908,0
-3.8744042,2.483783,0.24280573,-0.84069109,0.53894591,0.052685421,0
-3.0578129,3.3000135,0.61059439,-0.67350197,0.72684813,0.13448714,0
3.2836661,1.8126051,-2.5291052,0.72587156,0.40068585,-0.5590719,0
0.052796151,3.8629594,-2.5986676,0.011339385,0.82967383,-0.55813336,0
1.4005511,2.541059,3.5211248,0.30696687,0.55693859,0.77174526,0
-3.2916641,3.0342762,-0.29308563,-0.73369831,0.67632759,-0.065327577,0
-2.1703815,3.9109743,-1.001309,-0.47351581,0.85326385,-0.21845728,0
-0.57910436,1.1292033,4.4011698,-0.12642887,0.24652533,0.96085429,0
-3.2100935,1.0363717,-3.0427575,-0.70663142,0.22813441,-0.66979605,0
2.1429589,1.971544,3.5398011,0.46752676,0.43012941,0.7722742,0
-0.68147659,-3.7947671,2.5418465,-0.14757058,-0.82173914,0.55042505,0
3.9780736,2.0168667,1.1733996,0.86256588,0.43731728,0.25442827,0
1.63095,3.6598036,2.1874237,0.3572748,0.80171412,0.47917557,0
-1.2524853,0.34451288,4.3574061,-0.27545851,0.07576856,0.95832235,0
0.28283891,-4.4692788,0.48113278,0.06279739,-0.99229288,0.10682364,0
1.6745675,1.6369828,-3.8218417,0.37360165,0.36521637,-0.85266572,0
-1.8513566,3.4596229,-2.2186725,-0.41071326,0.76749825,-0.49220026,0
-1.3199735,3.8342242,2.147743,-0.28765577,0.83557487,0.46804777,0
-3.4319398,-1.0007573,-2.7909892,-0.75670993,-0.22065742,-0.61538643,0
2.8931746,3.4216638,-0.81553632,0.63523626,0.75127333,-0.17906222,0
-1.5872034,-1.7810032,-3.8512685,-0.35035422,-0.39313298,-0.85011673,0
2.883368,2.7635953,2.0128763,0.64469332,0.61791331,0.45005974,0
-2.5644007,-3.6484046,0.98437166,-0.56152672,-0.79889101,0.21554783,0
3.3156841,2.923377,0.99839783,0.73165762,0.64508897,0.22031212,0
2.5707793,1.8280898,-3.34179,0.55941552,0.39780226,-0.72719163,0
2.9706976,0.042315193,-3.5414839,0.6426388,0.0091538709,-0.76611459,0
3.552356,-2.8613331,-0.14960329,0.77836609,-0.62695426,-0.032779973,0
-1.3908857,4.1717763,-0.96270031,-0.30897078,0.92671663,-0.21385384,0
2.038177,-3.2620063,-2.5987196,0.43907273,-0.70271522,-0.55982721,0
-4.402472,-0.44837013,0.47812158,-0.98909748,-0.10073471,0.10741893,0
-4.5210838,0.41132203,-0.55042911,-0.98864651,0.089945711,-0.1203649,0
3.0071616,-1.6396699,-2.9433551,0.66588038,-0.3630746,-0.65175158,0
3.7455699,-1.9122446,1.756079,0.82186764,-0.4195922,0.38532573,0
-0.41596305,2.0554123,-3.9830406,-0.092408046,0.45661899,-0.8848502,0
-0.89395577,1.6345531,4.1119757,-0.19802579,0.36208019,0.91086978,0
1.8277069,0.69312453,-4.1951652,0.39490563,0.14976075,-0.90643322,0
-0.17597871,-4.4108205,-1.2078755,-0.038451843,-0.96377671,-0.26392418,0
-4.0451355,-0.84676027,1.982489,-0.88250273,-0.18473257,0.43250763,0
0.042768765,-2.7875087,3.6272655,0.0093487073,-0.60931391,0.79287404,0
-3.004931,0.51957035,-3.4934661,-0.64800173,0.11204334,-0.75335246,0
2.9529603,-1.0615861,3.4073925,0.63748568,-0.22917545,0.73558867,0
-3.9119992,0.73856723,-2.1096158,-0.86826837,0.16392502,-0.46822932,0
-2.2212546,2.8201835,2.9694548,-0.47677973,0.60533643,0.63737667,0
1.7961725,-3.2148879,-2.7130525,0.39268321,-0.70284593,-0.59313357,0
-2.5943015,3.0892434,-2.3294885,-0.55691278,0.6631608,-0.50006598,0
2.0294633,2.1618536,3.4285724,0.4477157,0.47692207,0.75637031,0
3.7588849,-2.6434648,-0.069651313,0.81788415,-0.57518333,-0.015155214,0
0.77897674,-2.4834018,3.7129502,0.17179559,-0.54768962,0.81885433,0
2.1688182,-0.35531896,3.9388847,0.48083496,-0.078775518,0.87326521,0
-2.9629457,-2.553813,2.3676124,-0.64801043,-0.55853117,0.5178082,0
-4.1865673,-1.6890162,0.033917483,-0.92734736,-0.37412626,0.0075129066,0
3.0114872,3.0338016,1.6602874,0.65669829,0.66156429,0.36204967,0
0.5550825,-1.9128548,-4.1560249,0.12044357,-0.41505733,-0.90178752,0
-4.3451581,-1.2590405,0.18522291,-0.95968747,-0.27807626,0.040909007,0
-3.7653158,-1.9962393,-1.677906,-0.82209116,-0.43584409,-0.36634156,0
4.2760863,1.30387,0.78273886,0.94218761,0.28729311,0.17246772,0
0.14865039,-4.443799,-0.52648497,0.033200558,-0.99250728,-0.11758862,0
-0.42445123,-3.7934775,2.4354002,-0.093741462,-0.83780211,0.53786623,0
1.5047311,1.6756047,4.050539,0.32467929,0.36154908,0.87399411,0
-4.3464432,1.1858748,0.81078905,-0.94948393,0.25905529,0.1771175,0
1.6694945,0.04568807,4.1978397,0.36953124,0.010112744,0.92916328,0
-3.4764028,-0.68910682,-2.9382241,-0.75514388,-0.14968772,-0.63824075,0
1.9123764,3.3682144,2.3510542,0.42206964,0.74337929,0.5188877,0
3.439151,-1.8927443,2.3041332,0.7555514,-0.41581935,0.50619787,0
1.288419,-2.172302,3.6207595,0.29185313,-0.49207065,0.82017577,0
0.39949673,-4.1846747,-1.9766364,0.086001441,-0.90085351,-0.42551932,0
-4.1458187,1.0883964,-1.7010008,-0.89901966,0.23601848,-0.36886156,0
-4.2089524,1.2515785,1.2371647,-0.92260092,0.27434558,0.27118608,0
2.7863405,-2.6686482,-2.3621686,0.61592239,-0.58990645,-0.52215892,0
3.5363955,-0.52607816,-2.6823809,0.79119694,-0.11769935,-0.60012847,0
2.6850963,3.4413979,1.4671413,0.58309054,0.74732757,0.31860167,0
-1.7849452,0.057367869,-4.2308397,-0.38868123,0.012492156,-0.92128766,0
2.9118109,1.8625506,2.97082,0.63886374,0.40865156,0.65181059,0
4.0818167,-1.8943201,-0.65396768,0.89764798,-0.4165872,-0.14381655,0
0.074221544,4.1925654,1.7011312,0.016402017,0.9265036,0.37592834,0
-3.4633069,-0.24867107,2.9428675,-0.7609036,-0.054634113,0.64656079,0
0.0036557566,0.066316873,-4.5815296,0.00079784979,0.014473311,-0.99989492,0
0.17981631,3.9070263,2.2033005,0.040056497,0.87034261,0.49081478,0
-0.53632277,-4.1124358,1.6084059,-0.12056996,-0.92451084,0.36158344,0
-0.9162361,4.3802714,-0.17153783,-0.20459196,0.97809762,-0.038303733,0
-1.1689613,-3.3051512,2.882081,-0.25757241,-0.72826689,0.6350463,0
1.0814074,-4.1040473,-1.7778169,0.23501483,-0.89190435,-0.3863607,0
-1.7315699,-3.0138218,-2.9978614,-0.37724358,-0.65659779,-0.65312064,0
-2.9601319,3.0786014,-1.2950606,-0.66327751,0.68982303,-0.29018459,0
-4.1899242,-0.066018358,-1.5452166,-0.93812728,-0.014781561,-0.34597519,0
2.5492454,-2.4739387,2.8586252,0.55908316,-0.54256743,0.62693423,0
-3.8354218,-1.162104,-2.1153781,-0.84636486,-0.25644222,-0.46680179,0
-2.3668954,3.0818396,-2.367378,-0.52017283,0.67729616,-0.52027887,0
-1.9116942,3.8762619,-1.6670381,-0.41268027,0.83677441,-0.35986599,0
-0.55503738,-4.5266948,0.82019943,-0.11978114,-0.9768939,0.17700505,0
0.91316229,-4.4580503,-0.70100379,0.1983286,-0.96823847,-0.15225016,0
-1.8660783,-4.0632443,1.1282281,-0.40466547,-0.88112849,0.24466012,0
-0.93281269,3.2254107,3.2294168,-0.20023458,0.69235629,0.69321626,0
2.9402423,3.0268388,-1.6406028,0.64941692,0.66854364,-0.36236307,0
2.6399124,0.7913999,3.6157231,0.58067185,0.17407535,0.79531002,0
-2.1459942,-0.67151111,3.8974545,-0.47693035,-0.14923806,0.86617863,0
3.4767523,2.9131007,0.5219354,0.76147985,0.63802868,0.11431453,0
2.5745108,-3.3347924,1.4744083,0.57679206,-0.74712515,0.33032566,0
-2.1568377,-2.1336167,3.3675041,-0.47585127,-0.47072813,0.74295396,0
1.5250908,-0.080005877,-4.2448125,0.33806923,-0.017735027,-0.94095415,0
3.4295805,3.0128727,-0.78784317,0.74032927,0.65037632,-0.17006843,0
-2.9456019,3.2851312,-1.2376225,-0.64277738,0.7168681,-0.270069,0
0.07482893,-4.1060548,2.1764002,0.016099876,-0.88344133,0.46826503,0
-3.3404291,2.9192774,0.42613202,-0.74952853,0.65503013,0.095615894,0
-4.1116023,0.75202703,1.6091313,-0.91800344,0.16790618,0.35927311,0
-1.0190107,-3.905988,2.1413143,-0.22300255,-0.85479504,0.46860996,0
-2.3322217,3.0554011,-2.4021337,-0.51453745,0.67408609,-0.52996147,0
-3.0861309,-2.8247066,-1.5142655,-0.69362342,-0.63486695,-0.34033877,0
-3.8135355,-0.527372,2.3209932,-0.84832871,-0.11731497,0.51630962,0
-2.4901946,1.715608,3.309916,-0.55543858,0.38266686,0.73827773,0
0.18118748,4.1041036,-1.8562335,0.040192399,0.91040379,-0.41176397,0
-2.4222507,2.2861071,-3.0632694,-0.53528339,0.50519753,-0.67693949,0
2.8164308,3.6516809,0.3625178,0.60884631,0.78940779,0.078367844,0
-2.5571165,3.5130107,1.4872406,-0.55679059,0.76492852,0.32383412,0
2.2809923,-0.23550901,-3.9818277,0.49641547,-0.051254146,-0.86657059,0
-4.0366955,-1.7377105,-0.68283266,-0.90761977,-0.39071077,-0.15352964,0
3.7916386,2.217948,1.2188221,0.83174491,0.48653552,0.26736438,0
-3.5899718,2.6718247,1.1590929,-0.77658385,0.57796997,0.25073534,0
0.41588405,-4.028646,2.1628356,0.090579234,-0.8774361,0.47106397,0
-1.775993,4.0428848,0.36945176,-0.40079248,0.91236722,0.083375044,0
-4.0957465,1.6120424,-1.1311283,-0.90123624,0.35471702,-0.24889572,0
-0.90795916,0.57636315,-4.4116802,-0.19995266,0.1269279,-0.97154939,0
-3.2329593,2.5598435,1.969394,-0.70745736,0.56016177,0.43095574,0
4.1193891,-0.38915664,1.7763168,0.91483021,-0.086423554,0.39448282,0
4.5753627,-0.8176592,-0.27535272,0.98268116,-0.17561412,-0.059139341,0
3.3903136,2.5163333,1.7989479,0.73873085,0.54829532,0.39198095,0
-2.745126,3.326314,-1.0321087,-0.61902994,0.75008869,-0.23274203,0
-3.8611903,-1.6659402,1.7648543,-0.84664524,-0.36529157,0.38698053,0
-2.1942952,3.6556127,-1.7709503,-0.47528645,0.79180926,-0.38358954,0
-4.1265731,1.6387049,-0.88980055,-0.91128081,0.36187905,-0.19649674,0
-4.1869097,1.5353707,1.015541,-0.91542792,0.33569419,0.22203836,0
-0.42137817,4.5044584,0.53351253,-0.092499308,0.9888013,0.11711461,0
2.2503893,3.0374694,-2.703692,0.48420197,0.65355295,-0.58173621,0
1.1626199,0.5356437,4.3236127,0.25783703,0.11879099,0.95885801,0
-4.4525652,-0.4991861,1.0292388,-0.96854746,-0.10858582,0.22388592,0
3.6803379,-1.9064007,1.9154915,0.80603099,-0.41752091,0.41951188,0
-2.1503413,-3.3603909,-2.0232608,-0.48071343,-0.75122267,-0.45230433,0
1.8732723,0.76494795,3.9608634,0.42117035,0.17198429,0.89052629,0
-1.508649,2.3618288,3.6192436,-0.3295818,0.5159688,0.79066557,0
-4.5321665,-0.64366663,-0.049589418,-0.99000686,-0.14060259,-0.010832317,0
4.1881924,-0.7857511,-1.4830365,0.92824292,-0.17414862,-0.32869029,0
-3.3731573,-2.6172159,1.6145655,-0.73899519,-0.57338268,0.35372087,0
-3.3077917,2.6298494,1.6462562,-0.72936463,0.57987911,0.3629978,0
0.5935564,2.9783373,3.2812736,0.13275792,0.66615039,0.73390669,0
-4.6451406,0.062354278,-0.14032345,-0.99945408,0.013416222,-0.030192163,0
-1.2345914,-0.62247819,4.3364611,-0.27124646,-0.13676186,0.95274425,0
-4.3405638,-0.3866998,1.4040403,-0.94806129,-0.084462553,0.306669,0
-1.4290459,-1.6317699,-3.9492357,-0.31716421,-0.36215702,-0.87649822,0
3.7341816,1.5592798,-2.1557488,0.81442481,0.34007883,-0.47016871,0
3.2600529,2.6266165,-1.8789546,0.71042937,0.57239121,-0.40946102,0
0.71372271,0.7225107,-4.3991666,0.15808253,0.16002898,-0.97437197,0
2.463372,1.4584605,3.6772833,0.52859473,0.31295905,0.789078,0
-1.8263243,-4.1148639,0.59923249,-0.40212736,-0.90602708,0.13194139,0
2.6511581,3.344414,-1.8514347,0.56989044,0.71891212,-0.39798266,0
-1.3477799,-3.631572,2.4853661,-0.29284433,-0.78906453,0.54001802,0
-0.5230695,0.11983044,4.5858026,-0.1132898,0.025953656,0.99322301,0
4.0153947,1.2766974,1.6875336,0.88467312,0.2812824,0.37179798,0
-1.9305978,2.638062,3.1244085,-0.42693424,0.58338356,0.69093466,0
2.2251694,3.9843259,-0.23090628,0.48697034,0.87195545,-0.050533012,0
-2.3672299,2.2774322,-3.0883698,-0.52503437,0.50511789,-0.68497795,0
-2.3143618,0.27312145,3.8972974,-0.50967002,0.060146958,0.85826498,0
-0.7203511,-4.5398488,-0.28606373,-0.15640981,-0.98573726,-0.062113009,0
4.211442,-1.3273239,0.79374695,0.9387064,-0.29585293,0.17692167,0
3.7997139,2.1781366,-1.1276698,0.84016478,0.48161355,-0.24934205,0
4.1707544,-0.38790044,1.5913733,0.93079275,-0.086568251,0.35514888,0
2.8522935,2.0263205,-2.9701235,0.6214872,0.44151565,-0.64716119,0
-3.2103622,0.27963394,-3.2379405,-0.70275587,0.061212528,-0.70879281,0
-2.5954809,-3.706984,-0.9685322,-0.56084847,-0.80102932,-0.20928676,0
-3.4106152,1.6716113,-2.533982,-0.74697179,0.36610594,-0.55497706,0
-0.76910639,2.7181549,3.6506853,-0.16661774,0.58885586,0.79087746,0
3.4216235,-0.075476512,2.9941504,0.75244796,-0.016598012,0.65844256,0
-4.0444112,0.64160401,-2.1423144,-0.87512612,0.13882971,-0.46355209,0
-1.6402307,-3.9875216,-1.6090542,-0.35640568,-0.86644846,-0.34963134,0
0.76698685,3.2747777,-2.8407602,0.17421463,0.74383831,-0.64525485,0
1.6766577,-0.72593611,-4.2059956,0.36562815,-0.15830463,-0.91719997,0
4.1986952,-1.5905055,-0.7320146,0.92296636,-0.34962839,-0.16091305,0
-1.5404346,-0.18273619,-4.1854072,-0.34510827,-0.040938947,-0.93766958,0
0.98670042,1.6254036,4.075696,0.21939242,0.36140779,0.90622926,0
-0.60204566,-4.3428216,-0.87149602,-0.13468191,-0.97152019,-0.19495988,0
-3.4798236,-0.078000285,-2.860635,-0.77236998,-0.017312681,-0.63493693,0
-1.3430988,-2.8708529,3.1783252,-0.29922491,-0.63958865,0.70808947,0
1.9742125,3.8602335,1.1061442,0.44119951,0.86268985,0.2472025,0
-4.1617188,-0.083398454,1.8598356,-0.91282785,-0.018292546,0.40793476,0
4.2667136,1.2991278,-1.1778749,0.92492819,0.2816219,-0.25533697,0
-2.8154948,-3.5228329,0.45887631,-0.62111312,-0.77715564,0.10123055,0
0.79508978,3.4350028,-2.9141736,0.17381836,0.75094235,-0.63708138,0
2.9544127,1.1659636,3.2999792,0.6450454,0.25456819,0.72049391,0
0.28682685,4.4841528,0.055562455,0.063829221,0.99788421,0.012364632,0
-0.33992586,0.28690284,4.440093,-0.076176956,0.064294562,0.9950192,0
2.8428104,2.5132923,2.7510319,0.60655278,0.53624558,0.58697057,0
2.8415072,2.3764989,2.559417,0.63109517,0.52781743,0.5684433,0
-0.73987907,4.3702016,0.680197,-0.16499402,0.97456074,0.15168484,0
2.5758061,-2.5833266,-2.6859274,0.5685876,-0.57024771,-0.59289598,0
2.2934883,0.17803647,-3.9175327,0.50484008,0.039189186,-0.86232287,0
-0.086651981,0.076622754,-4.5481296,-0.019046064,0.016841646,-0.99967676,0
-4.2268834,-1.1012646,-1.348972,-0.92460662,-0.24089533,-0.29507992,0
-3.6310449,2.5417295,0.18787724,-0.81849712,0.57294756,0.042350616,0
-3.4987934,-2.2083037,-1.7801176,-0.77680069,-0.49028668,-0.39522099,0
3.1072032,2.0005331,-2.6081719,0.68694687,0.44228196,-0.57661998,0
-0.63822663,-2.7676883,-3.4470253,-0.14289263,-0.61965805,-0.77175486,0
-1.032656,0.70879978,4.3346667,-0.22886898,0.15709227,0.96069819,0
-3.1962087,2.2333169,-2.220644,-0.71229911,0.49771145,-0.4948872,0
2.1512876,2.8742714,-2.9152124,0.46517247,0.62150311,-0.63035578,0
3.2271771,1.3067505,-2.9182954,0.71036482,0.28764138,-0.64237392,0
-1.3808662,1.9648616,-3.8419611,-0.30477321,0.43366781,-0.84796548,0
4.0986843,-0.6034534,-1.6687099,0.91768831,-0.13511217,-0.37362123,0
-2.0775585,-3.9474094,-1.05487,-0.45324129,-0.86116898,-0.23013102,0
-2.3973014,3.7832148,1.2026148,-0.51694256,0.81579429,0.2593261,0
-1.1842989,-3.5703688,2.3824613,-0.26597533,-0.80184996,0.53506422,0
2.2629769,-1.3332621,3.7107863,0.49776542,-0.29326493,0.81622624,0
3.719372,-2.2109511,1.4344857,0.81592292,-0.48501888,0.31468478,0
-0.62087911,-4.2038932,-1.8066174,-0.13445975,-0.91040981,-0.39124739,0
-0.25428554,-2.2087781,-3.9310558,-0.056304511,-0.48907292,-0.87042373,0
3.9135542,0.29409584,-2.3103144,0.85934484,0.064578064,-0.50730276,0
-1.2803797,-0.96322376,-4.2269869,-0.2832408,-0.21308075,-0.9350782,0
-4.6356735,-0.18609461,0.11564811,-0.99888486,-0.040099263,0.024919605,0
-1.4354174,4.2232184,0.62605333,-0.31868324,0.93761498,0.13899282,0
2.3652229,-3.2267563,-2.0708818,0.52502483,-0.71626532,-0.45968792,0
2.9585772,-3.0524306,-1.747757,0.64369905,-0.66411877,-0.38026032,0
-3.660414,-0.69059753,2.6470025,-0.80101806,-0.15112528,0.57925057,0
-0.90549254,4.3490415,0.60762709,-0.20195347,0.96997374,0.13552006,0
-1.7693416,-4.0161314,1.1792766,-0.38935488,-0.88377529,0.25950733,0
0.60323966,2.4773545,3.7294991,0.13352564,0.54835647,0.82551563,0
-1.4396685,3.2883928,-2.810416,-0.31578505,0.7212947,-0.61645257,0
3.2745132,-2.7304881,-1.9025503,0.70136064,-0.58483714,-0.40750301,0
3.0605679,0.47915682,-3.2862453,0.67768627,0.10609731,-0.72765696,0
-3.8098588,1.9758039,-1.6108162,-0.83111113,0.43101665,-0.35139552,0
3.2242846,-3.0949383,-0.72254324,0.71218222,-0.68361211,-0.15959585,0
-3.1059804,-3.1813409,-0.91472173,-0.68425024,-0.70085222,-0.20151401,0
-0.92078245,-2.9174814,3.3134773,-0.20417181,-0.64691442,0.73472148,0
-2.9668002,-3.1415451,-1.2278442,-0.66045088,-0.69935149,-0.27333516,0
2.6239748,-3.4611471,-1.4246365,0.57404375,-0.75719088,-0.31166598,0
-4.3310194,1.3058699,0.84400386,-0.94118422,0.28378174,0.18341251,0
-3.5146921,2.623035,-1.432135,-0.76182765,0.56855637,-0.31042266,0
3.9636135,-0.53969562,-2.2195034,0.86642414,-0.1179745,-0.48517126,0
3.0272946,1.8304032,-2.901468,0.66165978,0.40006155,-0.63415849,0
-2.8752928,-3.1125729,1.5329468,-0.63808262,-0.69073963,0.34019029,0
-2.8499458,-3.2831206,1.3166523,-0.62739074,-0.72275043,0.28984955,0
3.9427466,0.95291805,-2.0134895,0.87064904,0.2104262,-0.44462472,0
4.1985269,-0.30979216,-2.0263693,0.89861226,-0.06630493,-0.43370458,0
-3.0664322,-0.46697995,-3.2805655,-0.67919946,-0.10343373,-0.7266289,0
3.0058296,-3.3834374,0.58843422,0.65861416,-0.74135262,0.12893316,0
0.55318123,-1.6761563,-4.1138654,0.12357343,-0.37443131,-0.91898352,0
3.819699,-2.4211268,0.053321425,0.84456199,-0.53532797,0.011789737,0
-3.6613958,2.3184295,-1.6945,-0.78685558,0.4982442,-0.36415806,0
4.0333543,0.91340715,-1.8460984,0.89059436,0.20168702,-0.40763214,0
-3.8620768,-0.55005556,-2.321595,-0.85075194,-0.12116819,-0.51140916,0
-3.1476505,-3.0333867,1.3507643,-0.68796045,-0.66298658,0.29522732,0
2.0190544,0.26127341,-4.0517759,0.44526458,0.05761895,-0.89354318,0
-3.8665822,-1.7373027,-1.6720957,-0.84852695,-0.38125354,-0.36694378,0
-4.2769966,1.5481219,-0.27162299,-0.9386251,0.33974919,-0.059610091,0
-2.8010409,-1.4697486,3.2367818,-0.61890692,-0.32474986,0.71518654,0
2.7586656,2.2582796,-2.7919986,0.60920829,0.49870583,-0.6165694,0
0.66633105,-4.352622,0.64345604,0.14973409,-0.97809631,0.14459376,0
4.1334295,-1.4339383,-1.6637121,0.88307118,-0.30634841,-0.35543761,0
-0.96756077,4.3983541,0.15455133,-0.21471904,0.97607344,0.034297705,0
-3.6210573,1.8723515,-2.0561781,-0.79309994,0.41009071,-0.45035321,0
-2.4969549,-1.9867041,-3.265162,-0.54692775,-0.43516347,-0.71519417,0
4.3244433,-0.48251313,1.5034269,0.93934369,-0.10481018,0.32657027,0
-2.8206761,2.4859099,2.4405146,-0.62927556,0.5545913,0.54446387,0
-4.4177213,0.14113344,-0.64936709,-0.98887485,0.031591699,-0.14535612,0
0.7035833,3.0476646,-3.382112,0.15272941,0.66156775,-0.73416746,0
-2.6958196,-1.7941351,3.209018,-0.59132278,-0.39354002,0.70389181,0
-4.1412206,-1.9768791,0.5058434,-0.8970148,-0.42820463,0.10956891,0
3.1878996,0.15824607,-3.2056634,0.70470786,0.034981418,-0.70863467,0
1.3307627,-1.0536916,4.2342477,0.29171857,-0.23098138,0.92819601,0
1.9582274,-4.0577354,1.1051412,0.42211401,-0.87468243,0.2382234,0
-1.8887199,-2.2847514,3.2977901,-0.42593685,-0.51524836,0.74370492,0
1.3320382,-1.4711667,4.1196337,0.29129916,-0.32172474,0.90090954,0
-4.0404143,1.4499632,1.7966729,-0.86824656,0.31158328,0.38608789,0
3.4777286,2.4880133,1.6328015,0.75979233,0.54356551,0.35672423,0
4.1101856,-2.0239663,-0.026028115,0.8971138,-0.44176304,-0.0056810528,0
-1.6395555,4.3178291,-0.55222499,-0.35247651,0.92825973,-0.11871897,0
1.8464967,-0.13541976,4.2136102,0.40120003,-0.029423507,0.91551775,0
-1.0895737,-4.1948514,-1.0186453,-0.24473011,-0.94220924,-0.22879881,0
-1.4089309,-4.2695341,0.31676158,-0.31259948,-0.94728148,0.070279889,0
-1.8596774,-1.1767613,-3.9678249,-0.4098672,-0.25935459,-0.87449646,0
0.09991473,-0.78296655,4.4604063,0.022057658,-0.17285149,0.98470086,0
-3.5778003,2.2439387,1.8880972,-0.77339399,0.48506024,0.40813988,0
4.3343525,-1.2428691,0.98029006,0.93931854,-0.2693482,0.21244341,0
-2.7299473,1.8055797,-3.1978042,-0.59659499,0.39458627,-0.69883907,0
2.190203,-3.8445039,1.165072,0.47868749,-0.84024906,0.25463641,0
4.15661,-1.7707386,0.48030558,0.91484261,-0.38972795,0.10571211,0
-3.8513768,-2.2882986,0.83788097,-0.84505022,-0.5020873,0.18384373,0
-3.4544818,2.3451843,1.903499,-0.75281513,0.5110724,0.41481847,0
3.9148083,2.327214,0.44355422,0.85553712,0.50858635,0.09693376,0
3.4099486,-2.8246865,-0.99810135,0.75125021,-0.62231034,-0.21989299,0
-2.6151476,3.4238071,1.4959576,-0.57341814,0.75073129,0.3280156,0
1.5721058,2.9772515,3.0766528,0.34469593,0.65278459,0.67457908,0
-3.2682788,1.9620317,-2.6913352,-0.70039815,0.42046699,-0.57675809,0
-0.4224472,-3.6671894,2.8352704,-0.090758666,-0.78785992,0.6091302,0
4.4550753,-0.64700335,-0.57856125,0.98154557,-0.14254826,-0.12746905,0
-3.4020402,-1.9749885,-2.2802064,-0.74821997,-0.43436459,-0.50149202,0
-0.38897917,1.5959789,4.309875,-0.08433485,0.34602532,0.93442708,0
2.1250513,2.3372841,-3.1294107,0.4779084,0.52563798,-0.70378143,0
0.5558275,3.5547707,2.9340022,0.11972339,0.7656858,0.63197434,0
-2.4338353,-2.4338355,3.0685146,-0.5278129,-0.52781296,0.66545248,0
2.6539364,-1.2362717,3.5031734,0.58129996,-0.27078444,0.76731098,0
-0.31559354,2.8729899,3.5047472,-0.069471329,0.63242877,0.77149695,0
-2.4236567,-3.2811925,2.2011104,-0.52287894,-0.70788348,0.47486687,0
1.6014819,3.4527946,-2.5510514,0.34951863,0.75356203,-0.5567593,0
2.6928582,-2.1888869,-2.9698603,0.58955914,-0.47922254,-0.65020442,0
3.3061473,0.097004317,3.0698757,0.73263723,0.021496009,0.68027979,0
1.0189327,3.6047301,-2.529315,0.22543125,0.79751962,-0.55959207,0
-1.1089453,2.3937919,-3.7259755,-0.24290201,0.52433324,-0.81613314,0
3.8530219,-2.1947775,0.9450146,0.84983271,-0.48408595,0.20843492,0
-1.9315671,-1.1397694,3.8869109,-0.430428,-0.25398481,0.86615437,0
-0.4755784,-4.4346204,-1.0382062,-0.10385416,-0.96840769,-0.22671768,0
3.5713613,-2.392715,1.5587131,0.7810235,-0.52326453,0.34087607,0
2.5161412,-0.38082299,-3.8204687,0.54812849,-0.082960337,-0.83226955,0
-1.8129636,-0.86065632,-4.1867185,-0.39048395,-0.18537189,-0.90175354,0
-0.47255036,3.773428,-2.6694326,-0.10170506,0.81213927,-0.57453096,0
0.025425069,0.025902702,-4.5703435,0.0055628791,0.0056673829,-0.99996847,0
-2.3078444,-1.3059276,3.7027273,-0.50673801,-0.28674516,0.81301528,0
4.3664827,0.69485861,-1.1884549,0.95372099,0.15177004,-0.25958064,0
-4.3902469,-0.094615623,1.1796169,-0.96553761,-0.020808611,0.25943062,0
3.5663531,2.7882435,0.40424886,0.78468436,0.61348134,0.088944577,0
-1.4714199,4.1836991,-1.2305565,-0.31970257,0.90901268,-0.267369,0
-0.38310918,4.5354214,0.54975957,-0.083563372,0.98926133,0.11991298,0
-2.3841758,-0.6756531,-3.8019803,-0.52534956,-0.14887914,-0.83776063,0
3.9094918,2.1393921,0.59107685,0.86962456,0.47588485,0.13147871,0
-0.5001992,4.034708,-1.8872061,-0.11159542,0.90015131,-0.42103937,0
-2.9525294,-2.043375,-2.8868532,-0.64084452,-0.44351315,-0.62658954,0
-1.4343075,4.2442565,0.81097424,-0.31503364,0.93221545,0.17812371,0
3.213346,-1.8247445,-2.6646845,0.70532203,-0.40052718,-0.58489209,0
1.8755769,3.9407997,1.5285143,0.40559253,0.85219592,0.33054042,0
-2.5202348,-1.4590944,-3.5281482,-0.5509007,-0.31894493,-0.77122152,0
0.34567627,-2.5480623,-3.7731359,0.07570602,-0.55804712,-0.82634854,0
1.2788196,2.3371201,-3.6617026,0.28240559,0.51611328,-0.80862486,0
-2.5170505,1.7111965,-3.3105137,-0.55971456,0.38051742,-0.73615634,0
2.1691313,3.126148,2.3668101,0.48406866,0.69763887,0.52818316,0
3.1514122,3.2026401,-0.0092525184,0.70138168,0.71278298,-0.0020592504,0
2.2352796,-3.2281721,-2.2400541,0.49447021,-0.71410972,-0.4955264,0
-1.5482337,3.7025225,2.2659512,-0.33593625,0.80337447,0.49166679,0
-2.4553459,-1.5545604,-3.4357336,-0.54563713,-0.34546086,-0.76350296,0
3.5937805,-2.8381429,-0.37837905,0.78211677,-0.61766684,-0.082346879,0
2.6981814,-0.26423192,-3.5529039,0.60373741,-0.059123788,-0.79498774,0
-1.5203481,4.2917619,-0.5875572,-0.33116919,0.93485129,-0.1279844,0
2.8508639,1.1440777,3.3840694,0.62377113,0.25032505,0.74043691,0
1.4855345,-4.3876743,-0.032663919,0.32068029,-0.9471612,-0.0070511154,0
-1.9098495,-3.555922,-1.9060954,-0.42785504,-0.79661733,-0.42701402,0
1.8058259,-1.2754725,-4.017849,0.39377347,-0.27812606,-0.87612116,0
-1.5094172,2.5983286,-3.3730307,-0.33413336,0.57518113,-0.7466737,0
1.1113167,2.3933849,3.6919239,0.24489026,0.52740741,0.81355405,0
0.96113163,2.9105284,-3.317843,0.21278231,0.64435393,-0.73452818,0
-2.6008308,-1.5191445,3.4370203,-0.56910509,-0.33241412,0.75207728,0
0.30682534,1.499148,-4.3538027,0.066485986,0.32485041,-0.9434256,0
3.8266714,0.54927427,-2.2576649,0.85476917,0.1226922,-0.50429791,0
4.2366018,-1.6122669,-0.81986237,0.9196893,-0.34999385,-0.17797722,0
4.4421344,0.66607493,0.97872895,0.96627235,0.14488751,0.21289738,0
-1.1443974,-2.0157146,3.7911451,-0.25753868,-0.45362255,0.85317081,0
-1.6728406,-4.0428762,1.2031373,-0.3686533,-0.8909514,0.26514214,0
-3.3214896,-1.8529224,2.6526458,-0.71629512,-0.39959159,0.57205576,0
-0.22598502,2.2996576,3.9863107,-0.049045924,0.49909872,0.86515599,0
-3.2991464,2.4572456,1.9265921,-0.72628653,0.54094732,0.42412722,0
-3.8845255,0.71074134,2.2289734,-0.85663259,0.15673579,0.49154297,0
-2.0888512,-0.54208207,3.8976824,-0.46885365,-0.12167317,0.87485534,0
-2.9205503,-1.9283489,-2.9668198,-0.63655651,-0.42029855,-0.64664131,0
1.8236258,-2.9956059,-2.7071464,0.41162214,-0.67615724,-0.61104721,0
-0.39409679,3.1529615,3.2734942,-0.086386018,0.69112921,0.71754998,0
0.31101134,2.6444588,-3.6632955,0.068674795,0.5839262,-0.80889678,0
-4.2784104,1.2700436,-0.88883191,-0.94018894,0.27909455,-0.19532253,0
-4.2264175,-0.25780395,1.8676126,-0.91325623,-0.055707004,0.403559,0
2.3156285,3.5265434,1.6162324,0.51255244,0.78058225,0.35774472,0
-2.1175301,-4.1671991,-0.200801,-0.45259386,-0.89068329,-0.042918537,0
3.5532978,-0.48198962,2.850687,0.77567661,-0.1052172,0.6222983,0
-4.4910345,-0.49109298,0.81941497,-0.97811615,-0.10695664,0.17846289,0
-2.7523661,0.59468424,3.5496187,-0.60746706,0.1312511,0.78342646,0
-1.1542733,-3.5408618,-2.6551597,-0.2523647,-0.77415681,-0.58051121,0
4.2146082,1.232175,0.95136613,0.93805677,0.27424854,0.21174814,0
1.5785733,-4.3074846,-0.21694337,0.34370959,-0.93788719,-0.047236014,0
-3.8381944,-2.3750114,-0.63154787,-0.84216172,-0.52111578,-0.13857178,0
-3.0319149,-3.3458192,0.94698524,-0.65719235,-0.72523367,0.20526679,0
-0.14902006,-3.65608,2.604409,-0.033179473,-0.81403005,0.5798744,0
2.0978577,3.1580973,2.5425928,0.45955107,0.69180429,0.55697352,0
2.2430928,2.017946,-3.3617983,0.49656507,0.44672316,-0.74421871,0
1.5088799,-2.5974329,-3.4025836,0.33243829,-0.57226962,-0.74966145,0
2.9507644,2.2388685,-2.7232113,0.64184338,0.48699346,-0.59234655,0
3.8426237,2.3512151,-0.80378002,0.83972907,0.51381135,-0.17565016,0
4.1495996,-0.4941794,-1.5827682,0.92860919,-0.11058887,-0.35419637,0
-3.687984,-1.9202369,1.9747747,-0.80120063,-0.41716424,0.42901239,0
-0.99693394,0.99155009,-4.4564886,-0.21333717,0.21218507,-0.95365864,0
-1.1857332,-3.794389,-2.2473891,-0.25965169,-0.83089477,-0.49213296,0
-0.36111632,1.4420636,-4.2388687,-0.080391191,0.32103011,-0.94365078,0
3.940604,-0.70835298,2.0647166,0.87475765,-0.15724422,0.45833752,0
-3.4425516,-1.5842392,-2.6352422,-0.74582136,-0.34322202,-0.57091957,0
3.9955623,0.12277657,-2.2240214,0.87344629,0.026839461,-0.48618022,0
1.8209815,-3.9863236,-1.2951924,0.39847019,-0.87229395,-0.28341615,0
4.2195683,-1.6636977,-0.0048039001,0.93029934,-0.36679983,-0.0010591286,0
3.0704834,3.4436333,-0.26920426,0.66438037,0.74512124,-0.05824947,0
3.8082352,2.6108623,-0.5990324,0.81792444,0.56075531,-0.12865888,0
4.166388,0.79547572,-1.782546,0.90554309,0.17289257,-0.38742724,0
-1.6101288,-2.470614,3.4618948,-0.35405695,-0.54327214,0.76124841,0
-4.1777353,1.6827432,0.46158415,-0.9227488,0.37167248,0.10195147,0
-0.35592455,3.6683552,2.5360589,-0.079557113,0.81995958,0.56686598,0
4.1961932,-1.7071816,1.016757,0.90379167,-0.36769912,0.2189929,0
4.5421195,-0.82325387,0.22025052,0.98285019,-0.17814046,0.047659088,0
3.3634071,-2.4714158,-1.9906557,0.72735089,-0.53445399,-0.43048763,0
-2.3994424,3.8239532,-0.34215987,-0.5299868,0.84463149,-0.075575978,0
-3.3545182,1.9924699,-2.2662978,-0.74345332,0.44158605,-0.5022738,0
-2.7743428,0.14542277,3.6501739,-0.60480827,0.031702243,0.79573995,0
-2.1716542,-3.0472696,2.6851549,-0.47151986,-0.6616376,0.58301353,0
0.063606881,4.4726753,-0.21560833,0.014203289,0.99873942,-0.048144907,0
4.0776291,1.2396921,-1.7978188,0.88153785,0.26800758,-0.38866833,0
-0.17217024,3.9138911,-2.1715033,-0.038437355,0.87378418,-0.48479256,0
0.096894436,4.0313325,2.1067603,0.021297039,0.88607204,0.46305814,0
2.4464111,-0.61882502,-3.8125911,0.5350787,-0.13534932,-0.83388937,0
2.8498571,-1.5365045,3.2799335,0.61835909,-0.33338919,0.7116766,0
-4.4399624,0.18996927,0.58759558,-0.99046552,0.042378288,0.13108064,0
4.147089,-0.47957602,1.8207868,0.91054463,-0.10529684,0.39977625,0
2.2866914,-3.7226446,1.1654505,0.50572062,-0.82329351,0.25774896,0
1.5786079,3.8505087,1.9944699,0.34207544,0.83438355,0.43219039,0
1.8757527,-3.8396702,1.7730945,0.40542832,-0.82991272,0.38323963,0
-2.2647398,-2.0661874,-3.4245291,-0.49273568,-0.44953698,-0.74506915,0
3.458302,-1.3840657,2.7920642,0.74288625,-0.29731452,0.59977007,0
-1.1293449,-4.0640659,-1.7799962,-0.24667573,-0.88768846,-0.38879341,0
-3.9533045,-2.4128857,0.051316474,-0.85351968,-0.52094275,0.011079242,0
3.1701179,-0.11235633,-3.2345443,0.69974309,-0.024800517,-0.71396399,0
1.8103927,-0.58258224,4.0673971,0.40320009,-0.12974931,0.90586692,0
-2.3520086,-1.1568966,-3.7475269,-0.5143007,-0.25297216,-0.81945091,0
-2.9405923,-0.54364115,-3.4657173,-0.64239651,-0.11876287,-0.75711435,0
-2.8714495,-1.7795776,2.9787233,-0.63755059,-0.39512125,0.66136867,0
0.80116969,0.4172588,4.4137526,0.17783062,0.09261632,0.979693,0
3.6267772,-1.0600348,2.395154,0.81068939,-0.23694836,0.53538603,0
1.9771636,3.6573412,-1.5360775,0.4460856,0.82516557,-0.34656823,0
3.1799834,0.29503247,3.2558548,0.69725871,0.064690262,0.71389467,0
2.970253,-0.12214889,-3.4976976,0.64706618,-0.026609994,-0.76196939,0
-4.3704948,-0.28034547,1.4600393,-0.9467237,-0.060727611,0.3162694,0
-1.5567415,-0.89778763,-4.0579295,-0.35077175,-0.20229341,-0.91435027,0
0.44953665,0.28161016,-4.4993014,0.099225305,0.062159237,-0.99312162,0
-3.5703604,1.3343168,-2.2895746,-0.80298686,0.30009264,-0.51493359,0
-0.0012128309,2.4748847,-3.8284025,-0.00026604769,0.54289299,-0.83980191,0
1.9957112,-1.132308,-3.9768815,0.43466684,-0.24661723,-0.86616671,0
-1.4914241,3.4630198,-2.5483584,-0.32771838,0.76094741,-0.55996406,0
-1.2310263,-0.48605812,-4.3365207,-0.27151042,-0.10720311,-0.95644629,0
-2.7688549,2.097311,-2.9384508,-0.60857975,0.46097794,-0.64585602,0
3.9229379,1.328837,-1.9669285,0.85556531,0.28981006,-0.42897335,0
-2.9252872,2.3358045,-2.4701824,-0.65224016,0.52080542,-0.55076718,0
2.411375,0.6846844,3.7815406,0.53150141,0.15091419,0.83350539,0
-2.4515493,-0.99493301,-3.636766,-0.54511118,-0.22122708,-0.80864853,0
-3.9920754,-0.88936633,-1.7886981,-0.89428693,-0.19923188,-0.40069619,0
-3.8770862,2.0301068,1.4684436,-0.83988392,0.4397772,0.31810543,0
1.2440047,3.3600245,-2.7282271,0.27623728,0.74610972,-0.60581607,0
-3.4481328,-1.6256201,-2.3916309,-0.76621091,-0.36122966,-0.53144521,0
-4.0971303,-0.66433269,1.8025534,-0.90541244,-0.14680886,0.39834082,0
-2.0465207,2.509465,-3.2297027,-0.44747642,0.54870027,-0.70618188,0
3.7456868,-0.81217068,-2.3975885,0.82853323,-0.1796494,-0.53033847,0
0.95834911,-1.9840326,4.0280628,0.20873117,-0.43212795,0.87732357,0
-1.608026,0.99860853,-4.2153826,-0.34799221,0.21610844,-0.91224915,0
0.81575638,4.047585,1.769588,0.18159404,0.90102553,0.39392474,0
-2.8940122,1.7506428,2.9103661,-0.64857709,0.39233658,0.65224218,0
0.28489172,4.231782,-1.7858543,0.061906047,0.91955245,-0.38806033,0
2.2799447,3.0620475,-2.6278486,0.49193582,0.66068745,-0.56700188,0
2.3245206,-3.0177834,-2.5931516,0.50443918,-0.65488267,-0.56273419,0
-3.8367212,0.18175079,-2.5713422,-0.83005357,0.039320786,-0.55629581,0
-1.511331,0.05630194,4.2121096,-0.3376978,0.01258033,0.94117051,0
-0.63005,3.8184826,-2.4889245,-0.1369269,0.8298595,-0.5409106,0
-4.23351,-1.1188204,1.16524,-0.93429363,-0.24691257,0.25715691,0
-1.8474622,-0.01021055,-4.2256131,-0.40059152,-0.0022139885,-0.9162541,0
-1.4396563,-1.3232645,4.0640373,-0.31921473,-0.2934072,0.90111828,0
-1.3629138,-2.9798613,3.2135375,-0.2969605,-0.64927149,0.70018637,0
3.6393881,1.0355365,2.5251741,0.80003005,0.22763726,0.55509752,0
1.1253978,-1.9490381,4.0151076,0.24449946,-0.42344028,0.87230635,0
4.2962599,1.0933006,0.72324789,0.95646787,0.24339935,0.16101524,0
1.0473168,0.68290359,4.3900862,0.22944045,0.14960679,0.96175611,0
-0.38374332,1.2800945,-4.4429097,-0.082711473,0.27590969,-0.95761824,0
0.81707203,0.58118111,4.5116897,0.17678784,0.12574871,0.97618306,0
3.6562698,-0.3671599,-2.5736222,0.8149904,-0.081840739,-0.57366598,0
-0.39526579,-1.3109522,-4.4128699,-0.085547648,-0.2837303,-0.95508051,0
-2.6583745,3.6712332,-0.42532563,-0.58392948,0.80641055,-0.093425579,0
3.5062366,0.41433984,2.7404323,0.78450215,0.092706375,0.61315739,0
3.7873971,-0.3044076,2.3753135,0.84521681,-0.067933306,0.53008831,0
-0.32083476,-4.4685316,-1.0455422,-0.06974031,-0.97133112,-0.22727102,0
2.0360844,2.258152,3.3168173,0.45250604,0.50185907,0.73714024,0
3.9339812,1.7725875,-1.3746896,0.86870062,0.39142227,-0.30355856,0
-4.4348078,0.023734361,-0.66276878,-0.98900265,0.0052929791,-0.14780349,0
-0.033937793,-2.0614188,3.9484041,-0.0076191644,-0.46279642,0.88643181,0
-2.7918823,0.95331109,3.4699852,-0.61298341,0.20930821,0.76186711,0
-1.2065638,-3.3899035,2.6737902,-0.26914802,-0.75618529,0.59644198,0
3.2241404,-0.3391847,-3.2114506,0.70653981,-0.074329115,-0.70375896,0
1.888782,3.1938539,2.5898054,0.41741377,0.70582974,0.57233733,0
-1.435007,1.5717372,4.0204964,-0.31545097,0.34550774,0.88380718,0
-0.2625294,0.85472602,-4.3567672,-0.059027575,0.19217812,-0.9795832,0
3.3468375,-2.7267654,1.5389003,0.73025662,-0.59496117,0.33577731,0
0.52004665,-0.70487922,4.453527,0.11457662,-0.1552989,0.98120052,0
-0.96354467,2.4007695,-3.7640295,-0.21096693,0.52564555,-0.82412964,0
-3.9255352,-0.4552089,-2.3672721,-0.85214937,-0.098816074,-0.51388395,0
2.1009314,-2.9927704,2.8073511,0.45573664,-0.64919549,0.6089741,0
2.8813708,-2.0550601,2.6941249,0.64780366,-0.46202853,0.60570616,0
-2.8427083,2.9659607,1.6940541,-0.639696,0.66743159,0.38121381,0
3.4294701,-0.63713545,-2.8629568,0.75997341,-0.14118974,-0.63443357,0
2.4668777,-0.21907645,3.8807719,0.53584909,-0.047587246,0.84297168,0
1.050648,4.2999249,-1.0620139,0.23080806,0.94461447,-0.23330493,0
2.0675974,2.6708648,-3.120553,0.44962299,0.58081049,-0.67860037,0
-1.5639067,-0.66371572,4.223671,-0.34352317,-0.14578986,0.92775923,0
-1.9902351,-3.4357333,2.0939405,-0.4433718,-0.76539063,0.46647462,0
-2.9064674,-1.6976229,3.0895512,-0.63614225,-0.3715609,0.67621404,0
-1.7121913,-3.2174103,2.8230917,-0.37139872,-0.6979022,0.61236888,0
3.9166744,-0.56342542,2.4569054,0.8409031,-0.12096645,0.52749324,0
-0.036943704,3.002203,-3.5668254,-0.0079239616,0.64393491,-0.76503932,0
1.6579022,1.6060965,3.9962478,0.35924244,0.34801692,0.86592668,0
1.0766112,-3.875627,-1.9943609,0.23979789,-0.8632338,-0.44421193,0
-2.8929055,2.7871161,-2.2256527,-0.62992859,0.606893,-0.48463467,0
2.2633209,1.3221475,-3.6880472,0.50022095,0.29221037,-0.81510246,0
-3.8240442,-2.0033071,-1.787498,-0.81842548,-0.42874962,-0.38256195,0
-3.8253157,-2.2716503,1.322433,-0.82417911,-0.48943588,0.28492332,0
-2.8756976,1.6886289,-3.1166685,-0.63001269,0.36994767,-0.682805,0
-4.2442374,-1.2794253,-0.68742216,-0.94613475,-0.28521231,-0.15324166,0
2.56937,3.7157707,-0.95075166,0.55655622,0.80488026,-0.20594415,0
-1.7042407,4.2134485,-0.18325371,-0.37466097,0.92628628,-0.040286571,0
-0.8538965,2.9427531,-3.251569,-0.19112046,0.65865165,-0.72777128,0
0.40287769,4.5202813,-0.79308802,0.087449461,0.98118156,-0.17214932,0
-1.8243761,3.1981113,2.6470056,-0.4023205,0.70526344,0.58373088,0
1.8606497,3.7370739,-1.9800677,0.40270022,0.80881453,-0.42854586,0
4.4606552,-1.230124,-0.0066430569,0.96401387,-0.26584807,-0.0014356633,0
1.9933889,-3.6848633,-1.8217517,0.43633959,-0.80659211,-0.39876935,0
2.832747,-2.3678586,2.5262733,0.63321149,-0.52929378,0.5647046,0
-0.59976941,-4.0882745,-2.1468112,-0.12880406,-0.87798131,-0.4610405,0
1.0622839,4.2643232,1.2607538,0.23234992,0.93272161,0.27576059,0
1.9272379,-0.52407497,-4.1121669,0.42157465,-0.11463905,-0.89951807,0
4.3650589,0.72135973,-0.79792589,0.97095364,0.1604576,-0.1774888,0
0.41225985,-4.0278602,2.0929158,0.090450689,-0.88372111,0.45919019,0
3.9886026,-0.36173099,2.1667669,0.87593544,-0.079439595,0.4758428,0
3.682811,0.35236216,-2.4622569,0.82869798,0.079287753,-0.55405158,0
-2.0872414,-1.8408184,3.5474367,-0.46292365,-0.40827015,0.78677642,0
2.5663514,-3.4678226,1.5982385,0.55781919,-0.75376189,0.34739125,0
-3.0857668,-2.6699107,1.7141191,-0.6972068,-0.60324711,0.38729286,0
4.3614464,1.1652634,0.67781913,0.95540386,0.25525871,0.14848079,0
2.338114,3.0739458,2.3687818,0.51606268,0.67847365,0.52283162,0
-0.0097979559,4.234848,-1.9310957,-0.0021051087,0.90986484,-0.41489947,0
-1.6045475,-4.0245013,1.0606196,-0.35972336,-0.90225261,0.23778021,0
0.646128,-4.1399479,-1.6314032,0.14369713,-0.92071331,-0.3628197,0
1.8039975,-4.2335448,-0.21503086,0.39158583,-0.918957,-0.046675805,0
-2.1075037,-4.0138268,-0.18766311,-0.4644784,-0.8846181,-0.041359577,0
0.63959944,2.5248411,3.7294228,0.14060526,0.55504411,0.81985128,0
1.470343,-3.2620034,2.8127291,0.32306245,-0.71672446,0.61801028,0
-2.5467725,-3.6502542,0.099657789,-0.57205081,-0.81991261,0.022384929,0
-1.949536,0.13086069,4.1409264,-0.4257777,0.028579909,0.90437627,0
0.73873425,-3.3016441,-3.1008441,0.16096829,-0.71941972,-0.67566597,0
-1.1572913,3.14679,-3.0294466,-0.25610837,0.69638407,-0.670416,0
2.9244149,3.3588574,-0.93802214,0.64254993,0.73800528,-0.20610142,0
-1.1320716,-0.14898111,4.4149508,-0.24824953,-0.032669745,0.96814501,0
0.034713067,4.549037,-0.0031668425,0.0076306364,0.99997067,-0.00069613627,0
-2.2506571,-3.9324539,0.37676871,-0.49501941,-0.86492121,0.082868166,0
3.4889023,-2.4153767,1.5832316,0.77032346,-0.533297,0.34956565,0
0.10644557,-3.2922015,3.2065034,0.023155892,-0.71617699,0.69753444,0
-1.5487036,-3.9687338,-1.6187373,-0.33982381,-0.87083822,-0.35519096,0
3.4681447,1.3203127,2.7847924,0.74750191,0.28457183,0.60021651,0
-3.4673431,-1.5372404,-2.5816736,-0.75572616,-0.33504984,-0.56268972,0
-0.46749157,4.4256916,1.2307853,-0.10124623,0.95848703,0.26655534,0
-4.3450141,-1.1714588,-0.71765846,-0.95347553,-0.25706646,-0.15748391,0
4.0411768,0.83093101,-2.1198971,0.87122822,0.17913854,-0.45702383,0
1.5117906,2.4577498,3.4483998,0.33622336,0.54660541,0.76692665,0
3.9239054,0.70897514,2.2577648,0.85632378,0.15472144,0.49271774,0
-3.4411879,-2.1484137,-1.8735516,-0.77009606,-0.48078889,-0.41927809,0
-0.83282351,-2.9594545,-3.2915275,-0.18490705,-0.65707082,-0.73079908,0
-1.920858,-4.0081916,-1.1868155,-0.4175401,-0.87126726,-0.25798005,0
4.1699219,-1.0405887,1.5599017,0.91203064,-0.2275939,0.34117621,0
-2.4767783,3.3229711,1.6597357,-0.55477822,0.74431854,0.37176731,0
-0.68419468,4.2688255,1.3608898,-0.15095504,0.94183826,0.30025545,0
-1.4938908,-2.4352088,3.5126183,-0.32994175,-0.53784192,0.77579933,0
-3.3473313,1.9834496,-2.4348278,-0.72928363,0.43213448,-0.53047633,0
1.0910141,3.9082563,-2.0093014,0.24095255,0.86314583,-0.44375804,0
-0.059115011,-3.9160988,-2.1031778,-0.013297648,-0.88090831,-0.47310013,0
2.6645763,-2.4980114,-2.6926241,0.58721524,-0.55050796,-0.59339643,0
0.1919762,4.4351315,-0.69311297,0.042727206,0.98710555,-0.15426277,0
-4.4400716,0.21047646,-1.0140936,-0.97385633,0.046164535,-0.22242469,0
-1.5755755,-3.8051114,-1.9553744,-0.34559408,-0.83463091,-0.42890096,0
-2.8689406,-0.56719613,-3.5293648,-0.62592083,-0.12374599,-0.77000654,0
0.57352191,3.2262425,3.2415349,0.12442867,0.6999507,0.70326847,0
3.7531867,-2.1399274,-1.6429465,0.81198686,-0.46296471,-0.35544488,0
3.2242775,3.1687455,0.42973733,0.71002126,0.69779247,0.094632871,0
1.9619766,3.7239161,-1.472993,0.43996024,0.83506346,-0.33030891,0
-3.2075975,-1.1791899,3.0314488,-0.70215112,-0.2581276,0.66359168,0
-2.279263,3.3154767,-2.0903604,-0.50270623,0.73124987,-0.46104252,0
0.52672565,-4.2666903,1.6322575,0.11454253,-0.92784071,0.35495308,0
4.2980695,-0.39352101,-1.5122151,0.93981838,-0.08604753,-0.33066183,0
2.1497946,-2.7334075,-2.9516265,0.47131434,-0.59926385,-0.64710552,0
0.94854552,2.5792661,3.6033123,0.20931387,0.56916213,0.79513657,0
-2.1744497,0.92169416,-3.8089802,-0.48517871,0.20565496,-0.84988683,0
3.4691489,-2.7656815,-0.48226064,0.77734846,-0.61971921,-0.1080624,0
2.9522536,1.8896874,2.8705084,0.65162206,0.41709223,0.63357925,0
-0.61710805,-1.6328375,4.1859617,-0.13606672,-0.36002585,0.92296654,0
-1.480855,2.9253163,-3.26494,-0.32003817,0.63221103,-0.70560956,0
1.7973309,4.2215486,0.15078063,0.3915149,0.91958535,0.032844741,0
-0.94800466,-2.1728649,3.8883078,-0.20816928,-0.47713238,0.85382092,0
1.4591368,1.215909,4.1860366,0.31742564,0.26451302,0.91064477,0
0.51440597,4.3163013,1.4923587,0.11192739,0.93916547,0.32471591,0
-2.7849398,-1.7381827,3.3412156,-0.59455043,-0.37108067,0.71330851,0
-4.4506955,-0.60554039,0.047677662,-0.99081528,-0.1348056,0.010614016,0
-0.74669528,-3.1957779,-3.1405458,-0.16438271,-0.70354086,-0.69138169,0
2.7388344,-2.0640042,-3.1653862,0.58684969,-0.44225392,-0.67824692,0
-2.7826636,-3.32479,1.3104432,-0.61436725,-0.73405999,0.2893247,0
-2.3517387,0.44999292,3.8910701,-0.51474303,0.09849339,0.85166824,0
-1.7364273,-3.6793773,-1.9441732,-0.38508618,-0.81597275,-0.43115783,0
-0.99357432,-0.27709609,4.4306469,-0.21840963,-0.060911857,0.97395426,0
-1.7266625,-4.2785826,-0.68887013,-0.37013173,-0.91716772,-0.14766793,0
-3.5400817,-2.8127546,-0.70553881,-0.77358639,-0.6146493,-0.15417589,0
-3.1485391,2.7240934,-1.8444951,-0.69142503,0.59821594,-0.40505454,0
1.3895791,-2.2663448,-3.5908134,0.31102124,-0.50726247,-0.80371046,0
-2.6496992,2.6631079,2.5439548,-0.58401459,0.58696997,0.56070775,0
-4.4070582,0.53957003,-0.87477994,-0.97386622,0.11923351,-0.19330777,0
0.35118815,-3.7598374,-2.6459324,0.076164283,-0.81541854,-0.57383925,0
-1.9853085,3.6740417,1.7140388,-0.43979234,0.81388628,0.37969974,0
0.84337175,2.642477,-3.6127679,0.18516177,0.5801543,-0.79318106,0
4.3419671,0.4498724,1.4179708,0.94601613,0.098016992,0.30894366,0
-3.8588858,2.3174233,0.63501137,-0.84888232,0.50978953,0.13969056,0
2.4273479,2.8428795,2.582536,0.53424519,0.62570131,0.56840122,0
3.0136371,-1.95332,2.866945,0.65580767,-0.4250685,0.62388551,0
-2.9526935,-0.84108758,-3.4484022,-0.63951713,-0.18216924,-0.7468816,0
0.14967655,1.3346674,4.4072199,0.032486737,0.28968462,0.95657068,0
1.4667764,1.9853698,3.6379025,0.33363876,0.45160007,0.8274917,0
-2.2667599,3.3344109,-2.2756436,-0.48960209,0.7202062,-0.49152088,0
-2.8488958,-3.4712858,0.24510604,-0.63346177,-0.77185231,0.05450017,0
-1.4658149,3.9973547,-1.823558,-0.31647319,0.86303914,-0.39371082,0
-1.4504972,4.2553458,0.20213002,-0.32231069,0.94556779,0.044914711,0
-3.6221616,-2.4134803,1.3271867,-0.79600513,-0.53038567,0.29166213,0
3.1917603,-0.10906582,-3.1898396,0.70711309,-0.024162801,-0.70668757,0
1.3011881,-2.5452733,-3.4648788,0.28967631,-0.56664008,-0.77136678,0
-0.57386309,-1.8452343,4.1844535,-0.12450638,-0.40034539,0.9078666,0
-4.4807982,-0.45455113,-0.37769806,-0.99141377,-0.1005732,-0.083568826,0
3.1021197,2.1320982,-2.4698954,0.68903041,0.47357312,-0.5486033,0
0.53336495,2.4827185,3.766876,0.11740688,0.54650807,0.82918304,0
3.8520694,-2.1242335,-1.3833243,0.83534837,-0.46065497,-0.29998359,0
1.0383636,-1.1525043,4.3868227,0.22315863,-0.24768905,0.9427886,0
-0.40101326,-1.9159316,-4.1564159,-0.087285355,-0.41702554,-0.9046939,0
-3.2485182,2.1479349,-2.4903686,-0.70274699,0.46465948,-0.53873765,0
4.0954819,-1.6689731,0.68145847,0.91525537,-0.37298092,0.15229185,0
3.3188152,-2.4458988,1.9639781,0.7267527,-0.53560185,0.43007106,0
-0.41501775,-0.974424,-4.4996653,-0.089779526,-0.21079418,-0.97339886,0
-2.0043952,-2.9923735,2.8073354,-0.43893352,-0.65528643,0.61476576,0
3.64186,-0.1145423,-2.9036746,0.78165919,-0.024584426,-0.6232211,0
-3.6266942,2.7626321,-0.44585353,-0.79171437,0.6030879,-0.097330689,0
-0.11968952,-3.6605449,-2.7910724,-0.025992451,-0.79494452,-0.606125,0
-2.7479887,-1.5050081,3.3934138,-0.59497911,-0.32585594,0.73472297,0
0.29109257,-4.0436044,-1.9629543,0.064625576,-0.89772224,-0.43579626,0
-1.1963689,-2.0550907,-3.782831,-0.26775393,-0.45994055,-0.84661829,0
1.9715912,-2.6865408,3.1712227,0.42859334,-0.58401227,0.68937463,0
0.3616887,1.3699346,-4.2624474,0.080522537,0.3049877,-0.94894606,0
-1.2576835,-3.1301334,3.0394952,-0.27697957,-0.68934911,0.66938788,0
1.2660359,-2.7011576,-3.4312956,0.27844885,-0.59408605,-0.7546708,0
-2.1512675,-3.0229921,-2.7134354,-0.46800795,-0.65765154,-0.59030753,0
1.2413448,4.01895,1.7372398,0.27276772,0.88310659,0.38173354,0
-0.043889444,2.4169965,-3.8899443,-0.0095830616,0.52774024,-0.84935176,0
-3.6750193,-0.56705302,2.6429212,-0.8055622,-0.12429772,0.57932687,0
-2.5697703,-3.7105286,-0.15518883,-0.56901491,-0.8216089,-0.034362901,0
0.19968826,-4.4774966,0.50631309,0.044272307,-0.99269289,0.11225321,0
-3.1933646,-1.8499129,2.6219554,-0.70539248,-0.40863317,0.57917207,0
-0.55631596,-4.502923,0.091779917,-0.12258822,-0.99225152,0.020224364,0
0.58762294,-4.4373465,-0.17157365,0.13118419,-0.99061775,-0.038303051,0
-3.7623656,1.889728,-1.5573829,-0.83811367,0.42096037,-0.34692639,0
3.9099112,-0.13062371,-2.2886236,0.86266607,-0.028820258,-0.50495213,0
2.5122752,3.1975965,1.9383895,0.55768466,0.70981491,0.43029127,0
1.3164008,2.8072686,3.4420912,0.28415576,0.60597163,0.74300325,0
2.6002898,-3.5472534,0.69227046,0.58402145,-0.79670817,0.15548298,0
-0.16753912,-0.07805942,-4.5924516,-0.036451902,-0.016983582,-0.99919111,0
-3.958288,-2.0427392,0.75939673,-0.87600386,-0.45207608,0.16806115,0
3.701787,-1.8200073,2.0018761,0.80735105,-0.39693934,0.43660447,0
-0.011855036,-0.038945924,-4.6474171,-0.0025507892,-0.0083798012,-0.99996161,0
-2.6760309,2.4399426,-2.6497819,-0.59635741,0.5437448,-0.59050781,0
3.8042648,2.2262492,-0.83933318,0.84784305,0.49615628,-0.18705921,0
-0.38724306,-4.1550088,1.9495738,-0.084074296,-0.90209347,0.42327172,0
4.1527519,1.8977181,0.23530041,0.90832555,0.4150852,0.051466927,0
-2.8108535,-2.5219045,2.5231411,-0.61889744,-0.55527627,0.55554855,0
1.8922662,-0.27277258,-4.0722623,0.42062411,-0.060633503,-0.90520656,0
-1.0938437,-4.3075643,-1.0354971,-0.23970367,-0.94395477,-0.22691765,0
1.9501133,2.2049801,-3.4875007,0.42730781,0.48315409,-0.76417935,0
-0.83374512,-4.3813529,-0.33775774,-0.18640561,-0.97956645,-0.075514607,0
-3.6994586,2.0963695,-1.7039669,-0.80759072,0.45763683,-0.37197545,0
2.0004258,-0.76407051,4.0171762,0.43943429,-0.16784365,0.88245457,0
-3.1698656,3.2087545,0.79707634,-0.69205952,0.70054996,0.17402135,0
3.4405627,-3.0436387,0.8467921,0.73657912,-0.65160292,0.18128702,0
4.1397657,1.7334663,-0.1175397,0.92208189,0.38610828,-0.026180521,0
-3.1631992,-0.33840844,-3.2768526,-0.69261044,-0.074097522,-0.71749592,0
-4.250267,-1.6008747,-0.57967103,-0.92828947,-0.34964275,-0.12660441,0
1.5583233,-0.98238701,4.0994349,0.3467325,-0.21858461,0.91213888,0
-3.5394683,-2.6902282,-1.2252958,-0.76752031,-0.5833658,-0.26570076,0
1.4089077,-3.7078149,-2.3887932,0.30428305,-0.80078018,-0.51590985,0
-2.3485789,3.0987718,-2.2137432,-0.52491069,0.69257981,-0.4947747,0
0.1425813,2.8203237,-3.5442965,0.031462874,0.6223501,-0.78210646,0
-3.0292299,3.0465066,-1.5951123,-0.66100353,0.66477346,-0.34806699,0
0.22848152,4.5300026,0.16602793,0.050339643,0.99806201,0.036579706,0
-2.0706089,-4.0231652,-0.40589216,-0.45578915,-0.88559216,-0.089346297,0
