-4.6363769,2.9171007,0.42371255,-0.84388477,0.53095269,0.077121548,0
3.394913,-2.6469238,3.3004816,0.62585217,-0.48796037,0.60844374,0
4.0883441,-2.472214,2.504425,0.75789982,-0.45830059,0.4642719,0
0.69729596,4.4493136,3.122143,0.12724382,0.81191868,0.56973422,0
-4.0615525,3.6513298,0.00073407637,-0.74366438,0.66855317,0.00013440831,0
-4.2604756,-2.647105,-1.906286,-0.79399276,-0.49332103,-0.35526016,0
3.6920004,-0.73391998,3.9121957,0.6800431,-0.13518342,0.72060168,0
3.4426706,-4.0108585,-1.0400053,0.63906121,-0.74453366,-0.19305566,0
-3.6002877,2.7244062,-3.0792372,-0.65879071,0.49851948,-0.56344748,0
-4.6254478,1.2343448,2.7726223,-0.8360877,0.22311798,0.50117427,0
-0.62125772,2.2052331,-4.995255,-0.11304645,0.40127271,-0.90895587,0
-4.7246633,2.0247891,1.9513718,-0.85931283,0.36826482,0.35491183,0
5.2702703,-1.2220346,-0.50799471,0.96988881,-0.22489125,-0.093486361,0
1.7501397,-5.1433268,-0.25318989,0.3217859,-0.94566739,-0.046552248,0
-5.1264191,-2.0157766,0.68666548,-0.92349118,-0.36312911,0.12369834,0
0.76029146,-4.0749149,-3.6672645,0.1373706,-0.73626179,-0.66260689,0
-0.027749097,-5.0853839,-1.9637868,-0.005090219,-0.93284899,-0.36023173,0
3.9651608,1.9121053,3.1730137,0.73070616,0.35236582,0.584728,0
-1.2032982,-0.48646474,-5.2820649,-0.22122748,-0.089436993,-0.97111249,0
-0.041810047,4.2550683,3.3662629,-0.0077058142,0.78423172,0.62042016,0
-5.1572027,1.081113,-1.068979,-0.95918685,0.20107594,-0.19881915,0
-4.3777761,-3.0740943,0.26608816,-0.81737286,-0.57396293,0.049681216,0
-2.2697637,4.444941,-1.9973761,-0.4222216,0.82684827,-0.37155205,0
5.1407566,-0.69276708,1.6515298,0.94433403,-0.12725823,0.30337864,0
-0.39820373,-4.2431273,3.339443,-0.073546752,-0.78368992,0.61678272,0
0.23000441,4.4902701,-3.0231321,0.042451881,0.82876849,-0.55797905,0
4.5996728,0.0094237328,2.8885403,0.84685779,0.001735028,0.53181666,0
1.3177457,-5.3516688,0.019073274,0.23908806,-0.97099173,0.003460601,0
-1.6645528,0.2411112,5.2457738,-0.30216181,0.043768272,0.95225132,0
-3.8341901,-0.81586814,-3.7687514,-0.70509392,-0.15003525,-0.69305992,0
-1.691929,4.403616,-2.8746319,-0.30626991,0.79713458,-0.52036065,0
-3.9370048,3.560096,-0.6291129,-0.73656362,0.66604877,-0.11769904,0
4.8941979,-2.576019,-0.17933363,0.88444406,-0.46551955,-0.032407876,0
4.3186045,3.1101146,1.3347461,0.78709334,0.56683832,0.24326605,0
0.079508103,-5.1192012,-1.79167,0.014657864,-0.94375986,-0.33030665,0
-3.6209219,1.975244,3.6747525,-0.65546876,0.35756385,0.66521335,0
5.4564586,-0.062972687,0.71354622,0.99149263,-0.011442762,0.12965843,0
-4.2126594,0.72099644,3.4046724,-0.77094793,0.1319477,0.62308031,0
-0.12776721,-3.0414219,4.5360203,-0.023388645,-0.55675268,0.83034891,0
1.7362841,-0.75379717,-5.037499,0.32264644,-0.14007498,-0.93609738,0
3.017971,4.4930091,-0.71603203,0.5527755,0.82294536,-0.13114935,0
5.3349967,-1.067541,0.12450992,0.9803049,-0.19616051,0.022878679,0
1.2949984,-5.2255988,1.2151623,0.23463918,-0.9468199,0.22017378,0
5.200448,-1.6729802,-0.83263862,0.94108522,-0.30274639,-0.15067622,0
-1.9190212,4.2693672,-2.5965512,-0.35850951,0.7975986,-0.48508492,0
4.3769398,-2.6976819,1.9520482,0.79586536,-0.49052343,0.35494375,0
0.73688161,-1.0039055,-5.3385806,0.13442077,-0.18313085,-0.97385532,0
-2.329298,-2.757206,4.0078397,-0.43186578,-0.51120245,0.7430774,0
5.0176873,-0.942994,2.115581,0.90793365,-0.17063159,0.38280728,0
-0.99430639,-4.5223522,-2.9788542,-0.18059237,-0.82137895,-0.54103881,0
2.9217098,1.217274,-4.3624897,0.54208583,0.22584958,-0.80940402,0
-2.1567965,-4.9757729,-0.52960312,-0.39582199,-0.91316932,-0.097194411,0
-1.1385045,3.5389996,4.0793605,-0.20627961,0.64121264,0.73911774,0
4.0532761,3.135613,1.9361434,0.73990315,0.57238883,0.3534323,0
2.7809193,4.5274491,-0.82798022,0.51714557,0.84193391,-0.15397294,0
3.4279244,4.1557999,-0.73130089,0.63053238,0.76441777,-0.13451548,0
-0.45750555,-0.98382032,-5.2930832,-0.084673986,-0.18208301,-0.97963059,0
2.0054636,-0.12614913,5.1364403,0.36360461,-0.022871722,0.93127257,0
3.5808966,-1.785956,-3.6101959,0.66442937,-0.33138114,-0.66986579,0
2.3495836,-1.3575575,4.7475033,0.42967358,-0.24825957,0.86818647,0
3.8762534,1.951124,3.2273905,0.71674067,0.36077359,0.5967623,0
5.1770716,1.4585519,1.1518669,0.94118863,0.2651639,0.20940875,0
2.6722383,-3.830951,-2.8308444,0.48926404,-0.70141441,-0.51830345,0
4.8764734,1.3660536,2.1442878,0.88671845,0.24839774,0.38990876,0
0.27986887,-1.052348,-5.2428102,0.052266013,-0.19652787,-0.97910422,0
1.1177435,3.2307956,-4.1896272,0.20670488,0.59747273,-0.77478993,0
-5.0794969,1.6504219,1.4074672,-0.91965944,0.29881424,0.25482652,0
1.9888488,-4.6717072,2.021281,0.36392647,-0.85484523,0.36986101,0
2.987411,-1.4683925,4.2563787,0.55286831,-0.27174959,0.78771108,0
2.7556236,-2.0906858,-4.2208056,0.50496382,-0.38311499,-0.77345622,0
0.38513225,-3.1193392,-4.4294772,0.070909955,-0.57432789,-0.81554848,0
2.8235335,4.3244171,-1.6644013,0.52035624,0.79695791,-0.30673677,0
-3.3814704,-1.4929422,4.0268502,-0.61862069,-0.27312526,0.73668921,0
2.3796725,-1.2769632,-4.6834064,0.44016889,-0.23620035,-0.8662914,0
2.649492,-4.7680173,0.25660419,0.48518953,-0.87314552,0.046990767,0
1.1752579,5.3105941,0.51440752,0.2151165,0.97203887,0.094155967,0
-3.7455907,-3.5753932,-1.6089214,-0.69077313,-0.65938479,-0.29672214,0
-2.6296847,-2.925905,-3.8026843,-0.48062089,-0.53476036,-0.69500709,0
-0.61225057,-0.92380315,5.2514858,-0.11407355,-0.17212154,0.97844851,0
2.4860766,1.378677,4.6757102,0.45432073,0.25194779,0.85446763,0
3.1254334,4.1959777,1.3031077,0.57965279,0.77819932,0.24167849,0
-2.9120045,-0.96647793,4.5788455,-0.52832419,-0.17534782,0.83073866,0
-1.8068988,4.7294469,2.1470308,-0.32856894,0.86000901,0.39041901,0
-4.2238293,-0.46255067,3.4547813,-0.77128822,-0.084463611,0.63085693,0
-2.7043684,4.6575541,0.59306628,-0.49911603,0.8595944,0.10945583,0
-4.5840225,-2.7565424,-1.2695404,-0.83382362,-0.50140899,-0.23092662,0
-3.5654182,-2.4737327,-3.1460629,-0.66519374,-0.46151993,-0.58695537,0
-2.3024738,1.6522895,-4.6915984,-0.42007452,0.30145174,-0.8559581,0
-1.0502073,0.96182698,5.3516932,-0.18963897,0.17367989,0.96637076,0
3.0146804,-4.3016429,1.3956323,0.55466968,-0.7914573,0.25678176,0
0.58121359,5.4361172,1.0258163,0.10448771,0.97727829,0.18441619,0
-3.9907961,3.8084259,0.67653316,-0.71806347,0.68524963,0.12172853,0
0.086212881,-5.3149791,0.7791124,0.016047154,-0.98929864,0.14501935,0
0.13401222,-3.5735953,4.2619328,0.024087721,-0.64232773,0.76605141,0
-2.65996,1.240742,-4.4766502,-0.49690482,0.23178193,-0.83627915,0
5.2943683,-1.1551546,0.032495525,0.97699744,-0.21316671,0.0059965691,0
1.3211598,4.0556149,-3.3726156,0.24296533,0.74583995,-0.62023425,0
3.5478206,3.8318784,-1.6462379,0.6479519,0.69983047,-0.30065864,0
1.9581449,0.73012388,-4.9960446,0.3615801,0.1348206,-0.92254174,0
1.4975792,4.1821613,2.995434,0.2795147,0.78057677,0.55908084,0
-0.19207321,-4.9524345,2.2397516,-0.035315696,-0.91058344,0.41181377,0
2.4212584,3.5677261,-3.2080016,0.45053056,0.6638571,-0.59692216,0
-1.4652464,-5.1884265,0.25489238,-0.27147374,-0.96128649,0.047225222,0
3.6059842,-2.4106445,3.4465787,0.65088236,-0.43512282,0.62210959,0
-1.2362469,2.3117003,-4.7414141,-0.22817968,0.42668095,-0.87514418,0
2.7070618,-2.4326715,-3.9966698,0.50079751,-0.45003626,-0.73937076,0
0.59200662,2.5259492,4.811801,0.10829412,0.46206486,0.88020933,0
-1.6094255,-5.2732821,-0.031199016,-0.29190612,-0.95643026,-0.005658655,0
-2.8739119,4.2920756,-1.329757,-0.53881025,0.80469215,-0.24930711,0
-1.6637188,3.897402,3.4627826,-0.30401284,0.71217573,0.63275737,0
-1.0826073,-2.7643576,4.6331692,-0.19674025,-0.50236171,0.84197742,0
3.671911,-2.8793206,2.8689673,0.67034709,-0.52565116,0.52376103,0
-0.12537602,-5.1307545,1.600207,-0.023321575,-0.95438725,0.29765937,0
1.740913,4.553298,2.4032495,0.32031691,0.83777779,0.4421826,0
-1.7961531,-0.15571611,-5.1653152,-0.32830954,-0.028462542,-0.94414127,0
-0.2407109,-5.4137383,-0.11599237,-0.044408917,-0.99878424,-0.021399511,0
2.9301484,4.5304027,0.36390495,0.54185182,0.83777565,0.067294396,0
-2.7527804,4.6576662,-1.063653,-0.49924448,0.8447147,-0.19290419,0
0.91716915,4.141541,-3.4353161,0.16802661,0.75873584,-0.62935448,0
4.9471269,-0.81537998,2.1359012,0.90775293,-0.14961483,0.39191851,0
2.8672872,-3.9469378,2.3684316,0.52872539,-0.72781205,0.43673682,0
4.7354031,2.617521,-1.066412,0.85867637,0.47463825,-0.19337377,0
-1.145605,5.11063,1.7008883,-0.20803761,0.92807144,0.30887499,0
-2.4207175,-4.7701192,0.83721042,-0.44709563,-0.88101953,0.15462899,0
1.0442429,5.3768172,-0.82657719,0.18851532,0.97066736,-0.14922053,0
-2.0529168,-2.8054843,4.089499,-0.38247731,-0.52268755,0.76191133,0
3.2716022,4.44204,-0.50441974,0.59056175,0.80183917,-0.091053553,0
-2.5941277,4.6261859,0.97479641,-0.4810434,0.85785919,0.18076187,0
4.4181423,-1.2135531,3.0391643,0.80357474,-0.22072187,0.55276531,0
5.0126424,-1.6924914,-1.6331257,0.90530163,-0.30567017,-0.29494849,0
3.0165172,1.4086341,-4.2972636,0.55491483,0.2591306,-0.79051936,0
4.7318606,2.7893758,-0.29467762,0.86022514,0.50709254,-0.053570703,0
-2.0283492,-3.4855955,3.6872635,-0.37119451,-0.63787532,0.6747812,0
-2.8535476,4.60818,-0.38687161,-0.52513397,0.84803623,-0.071195386,0
2.2568779,3.8831737,-2.9207721,0.42125109,0.72480267,-0.54516834,0
2.0097377,2.1846232,4.6758385,0.36286613,0.39444241,0.84424126,0
-0.64619207,-5.087502,-2.0285518,-0.11716983,-0.92248386,-0.3678242,0
4.2444081,-3.2534769,0.67154467,0.7874735,-0.60362405,0.12459302,0
2.6021612,-1.0667524,-4.5887861,0.48349136,-0.19820663,-0.85261381,0
-0.14130561,4.5417027,-2.957047,-0.026064599,0.83774209,-0.54544359,0
-1.6372032,4.8912215,1.6149482,-0.30291301,0.90496689,0.29879543,0
-1.7140948,4.8110895,1.5596716,-0.3209821,0.90092659,0.29206476,0
-2.3566701,-4.8674102,-0.71989179,-0.43197089,-0.89218235,-0.1319541,0
-0.5410102,-5.1469831,-2.0453641,-0.09721905,-0.92490828,-0.3675501,0
-2.6440108,1.4503936,4.4481206,-0.49199766,0.26988932,0.82770652,0
-4.7068319,-2.5223668,-1.4939548,-0.84882218,-0.4548794,-0.26941729,0
3.0700781,-1.7490591,-4.1692615,0.56176054,-0.32004151,-0.76288831,0
-5.2121263,-0.039912622,1.5596927,-0.95799983,-0.0073360247,0.28667483,0
3.1851165,-4.3364038,0.55889773,0.58881021,-0.80164063,0.10331951,0
-3.7903647,-2.9826956,2.4006608,-0.70353156,-0.55361968,0.44558787,0
-1.0139583,-4.297658,3.1319716,-0.18729785,-0.79386115,0.57853615,0
4.592732,-2.522296,-1.3762025,0.84776163,-0.4655847,-0.25402999,0
2.9352286,-3.988543,2.1367018,0.54421878,-0.7395131,0.39616448,0
0.072510771,-4.4734116,-2.9989927,0.013462446,-0.83053952,-0.55679697,0
1.0882902,0.81552851,5.1782675,0.20327172,0.15232506,0.96720093,0
-4.5753684,1.4971167,2.7525287,-0.82507044,0.26997316,0.49636003,0
5.2310348,0.78119999,0.90180212,0.9749617,0.14560027,0.16807812,0
-4.8050413,2.4981964,-1.2554554,-0.86432821,0.4493742,-0.22583063,0
1.2621957,-4.0720558,-3.4934986,0.22900121,-0.73879641,-0.63382834,0
-1.54136,2.0666075,-4.9041939,-0.27819583,0.3729963,-0.88514447,0
5.3127017,0.89424312,0.038627226,0.98610264,0.1659825,0.0071696872,0
-1.8007196,3.6839662,3.5121973,-0.33352536,0.68233615,0.65052146,0
3.7662027,-1.4354209,-3.686847,0.6894806,-0.2627832,-0.67495292,0
-2.7835662,2.8303754,3.8292005,-0.5046699,0.51315653,0.69424689,0
1.1019255,-5.2640924,-0.51078886,0.20397002,-0.97440076,-0.094548687,0
2.0090437,-3.7592943,3.5310113,0.36296868,-0.67918187,0.63793862,0
-0.56319845,-2.8055789,4.6233974,-0.10358047,-0.51598716,0.85031068,0
0.060419142,3.9290931,3.690568,0.011207634,0.72883916,0.6845932,0
0.64528906,-3.2081106,4.2043085,0.12111922,-0.60215467,0.78913867,0
-0.038378578,-5.1451635,-1.5286394,-0.0071500703,-0.95856291,-0.28479117,0
0.78428108,-3.1924253,-4.4364548,0.142037,-0.57816333,-0.80346292,0
-0.78979564,-3.3127911,4.1659064,-0.14678,-0.61566746,0.77421516,0
-1.9584261,4.3965473,2.6083252,-0.35774636,0.80311882,0.47646368,0
-2.6866844,-4.7079124,0.069085807,-0.49560472,-0.86845469,0.012744055,0
0.058933701,-0.09776105,5.5155129,0.010682793,-0.017720949,0.9997859,0
-3.092839,-1.6467876,-4.1499987,-0.56943733,-0.30319792,-0.76407599,0
-3.8965976,-0.068925507,-3.7034156,-0.72478676,-0.012820491,-0.68885392,0
-2.757488,-4.4672446,-1.2353722,-0.51129371,-0.82831699,-0.22906284,0
0.21867278,-4.9166341,2.5805357,0.039350856,-0.88476378,0.4643755,0
1.9488444,4.8263955,-1.4401751,0.3608588,0.89368206,-0.26667076,0
-0.079712346,5.4248791,-0.79212981,-0.014538127,0.98940235,-0.14447051,0
0.24276249,-1.9067855,-5.0430489,0.044981394,-0.35330775,-0.93442512,0
3.1464462,-4.1095567,1.6793956,0.57824093,-0.7552374,0.3086324,0
1.6859711,0.95853722,-5.1727786,0.30518663,0.17350993,-0.93635219,0
2.9556558,2.8511114,3.5325663,0.54562712,0.52632779,0.65212739,0
-1.6408536,-4.2557993,3.026824,-0.29974797,-0.77744114,0.55293435,0
-4.2046623,-0.75202245,-3.2374072,-0.78450751,-0.14031264,-0.60403669,0
-0.40993249,4.5109925,3.0164208,-0.075326875,0.8289144,0.5542804,0
-3.3851533,3.659524,-2.3524487,-0.61410964,0.66388392,-0.42676395,0
3.4615343,-4.1461687,-0.23801999,0.64026135,-0.76689452,-0.044025276,0
-4.7197576,-0.5299027,-2.7646139,-0.85884786,-0.096425675,-0.50307304,0
-3.248379,-4.3444734,0.56731749,-0.5955742,-0.7965377,0.10401485,0
-4.6701789,1.6689657,2.2839532,-0.85533178,0.30566695,0.41830042,0
3.3723876,-3.1878626,-3.0249853,0.60878974,-0.57547891,-0.546076,0
-3.3006206,-0.33822495,4.3965402,-0.59924126,-0.061406132,0.79820997,0
5.3041143,1.4178082,-0.30022752,0.96464044,0.25785172,-0.054601312,0
-3.0667052,-0.5648948,4.5043674,-0.55977887,-0.10311268,0.82220149,0
-3.6508925,0.85557973,4.0116882,-0.66484702,0.15580563,0.73054981,0
5.2141852,1.4308077,0.96206242,0.94943917,0.26053253,0.17517976,0
0.0051657786,0.072169207,-5.4037538,0.00095587544,0.013354187,-0.99991035,0
3.2727077,4.1093059,-1.4622586,0.60016644,0.75358623,-0.26815671,0
-1.1239959,3.549686,-4.0326118,-0.20478441,0.64672863,-0.73471445,0
0.097094253,-5.4999256,0.13388331,0.017645763,-0.99954814,0.02433175,0
2.6417522,-0.68663555,-4.6598296,0.48917699,-0.12714528,-0.86286724,0
-1.0472653,0.30265999,-5.2957225,-0.19369556,0.055978078,-0.97946334,0
4.1336122,-0.44638866,3.4219475,0.76764894,-0.082898386,0.63548642,0
5.1228361,-0.42778844,-1.9469606,0.93193156,-0.077822037,-0.35418546,0
2.0622234,2.9108884,-4.1299219,0.37788239,0.53339201,-0.75676805,0
-4.5689406,-2.8064375,0.71954197,-0.84452242,-0.51874155,0.13300005,0
1.9486775,-3.7129521,3.4314148,0.35964745,-0.68526155,0.63330108,0
-1.1548615,3.2094545,4.2676926,-0.21138583,0.58745855,0.78115845,0
-4.563818,0.060628485,2.8678365,-0.84665394,0.011247457,0.53202498,0
-4.3692961,0.66379732,-3.2677448,-0.79494941,0.12077124,-0.59453326,0
3.0649023,4.5037255,0.85582781,0.5557906,0.81670737,0.15519616,0
0.071808457,3.3089049,4.3846793,0.013071341,0.60232216,0.79814607,0
-3.4565361,2.9649396,-2.8980124,-0.64035201,0.54927969,-0.53688085,0
2.8606191,4.4368572,1.4232396,0.52319634,0.81148434,0.26030511,0
3.1365883,3.4336967,-2.9268365,0.57080954,0.62487859,-0.53263801,0
-4.1850548,3.4153638,-1.0107809,-0.76153517,0.62147802,-0.18392716,0
0.69004709,5.3480172,0.94043338,0.12606493,0.97703105,0.17180808,0
-0.17796721,-5.2082348,1.3379203,-0.033077683,-0.968023,0.24867113,0
2.9906507,0.64902383,4.6496582,0.53727067,0.11659719,0.83531153,0
3.2387407,2.8672643,-3.3292596,0.59334499,0.5252896,-0.60992825,0
-4.9277134,-0.60903245,2.4361477,-0.89098257,-0.11011949,0.44048122,0
1.8374548,2.602658,4.3577337,0.34038669,0.48213983,0.80726588,0
0.72885817,-5.0277028,-2.0676646,0.13288419,-0.91664225,-0.37697309,0
1.1996547,0.44132766,-5.238842,0.22246593,0.081840523,-0.97149938,0
-1.450079,5.175211,0.27713013,-0.26944792,0.9616372,0.051495224,0
-1.871689,-3.3709207,-3.7395236,-0.3484641,-0.62758547,-0.69621062,0
-3.3271849,-1.4097688,4.023747,-0.6152162,-0.26067463,0.74401468,0
4.3936601,-0.96712995,-2.9178247,0.81937498,-0.18036035,-0.544146,0
-5.205821,-1.7163473,0.91227633,-0.93682814,-0.30887011,0.16417125,0
0.86933696,-0.96274769,5.3230686,0.15867171,-0.17572106,0.97156847,0
2.7205992,4.3897157,-1.7341487,0.499394,0.80577755,-0.31832087,0
-4.2888298,-0.49013627,3.2918468,-0.79003203,-0.090286478,0.60638088,0
3.9126229,0.042388011,3.9393706,0.70467341,0.007634189,0.70949072,0
2.7814083,-1.1443415,4.6882386,0.49935168,-0.20544587,0.84168869,0
4.212667,-0.43452552,-3.5787787,0.75977284,-0.078368574,-0.64544833,0
-2.8265426,0.77601665,4.4735713,-0.52849299,0.14509577,0.83644629,0
-5.3722525,0.18089589,0.9267683,-0.9849022,0.033163887,0.16990566,0
0.38229778,1.0443685,5.3688507,0.06972637,0.19047986,0.97921175,0
5.4237165,0.99152899,0.54935652,0.97885036,0.17894714,0.099145636,0
4.2783084,1.7173464,2.7992787,0.79324341,0.31841412,0.51901573,0
4.6091747,2.6249132,1.3364687,0.84262919,0.47987518,0.24432737,0
-3.2766325,4.2679148,-0.044361193,-0.60894501,0.79316962,-0.0082442956,0
0.73690718,3.3630865,-4.2352419,0.13501212,0.61616635,-0.77595794,0
4.8773127,-0.089270681,2.4704645,0.89196903,-0.016325934,0.45180163,0
-4.3739562,1.1507834,2.9088728,-0.81338334,0.21400033,0.54093564,0
-3.9654779,2.7455971,-2.6265619,-0.7220453,0.49992597,-0.47825173,0
-4.0592952,-0.81745845,3.3601651,-0.7612198,-0.15329398,0.63011533,0
-4.0364361,1.6968703,-3.3494396,-0.73219389,0.30780572,-0.60757536,0
3.7524896,-3.7855489,-1.4819366,0.67827249,-0.68424803,-0.26786399,0
1.5553584,-5.0974236,0.80185187,0.28859484,-0.94582069,0.14878263,0
3.1499245,-4.3118844,0.85215205,0.58251554,-0.79739678,0.15758847,0
2.8874769,2.5616395,-3.8756807,0.52787936,0.46831077,-0.70853961,0
-0.42177978,-4.2024393,-3.370717,-0.078053683,-0.77769458,-0.62377781,0
-0.79510009,1.4137083,-5.2744927,-0.14408568,0.25618804,-0.95582789,0
-4.9164705,-1.8870683,-1.0535856,-0.91545099,-0.3513737,-0.19617854,0
2.3853672,4.6300755,-1.7363005,0.43447715,0.84333432,-0.31625441,0
-3.7298303,-0.96303499,-3.9228718,-0.67839777,-0.17516099,-0.71350896,0
-4.7236118,2.7609558,0.49487069,-0.8598299,0.5025714,0.090080351,0
-0.17226465,2.3956916,4.8201814,-0.031986997,0.44484451,0.8950364,0
-3.121326,0.2252766,4.5298982,-0.56692004,0.040916529,0.82275611,0
-3.7608051,3.7284465,-0.94404584,-0.69913352,0.6931181,-0.17549808,0
3.205791,-1.1926498,-4.2792244,0.58518475,-0.21770619,-0.78112918,0
-0.87421077,3.7186024,-3.8554344,-0.16107371,0.68515408,-0.71036541,0
5.3295965,1.2490888,-0.47278586,0.97000653,0.22733884,-0.086048797,0
0.97890645,5.2700472,-0.13376486,0.18256842,0.98287654,-0.02494747,0
-4.2659297,-3.3353608,-1.2430437,-0.76782072,-0.60032851,-0.22373427,0
5.0663414,0.9925065,-1.8848317,0.92183167,0.18058868,-0.34294915,0
-3.1434755,-3.860971,-2.2614748,-0.57484949,-0.70605832,-0.41355741,0
1.5313289,-4.4384432,-2.8128343,0.27978271,-0.81092948,-0.5139212,0
4.0857773,-2.652667,-2.5665143,0.74204469,-0.48176816,-0.46612141,0
-2.9197347,3.020154,-3.5219839,-0.53261966,0.55093819,-0.64248228,0
-0.46743119,4.7568059,2.5473287,-0.086303368,0.87826484,0.47032174,0
0.64575541,5.0919323,-2.0690727,0.11668743,0.92010766,-0.37387961,0
5.1454425,-2.0034385,-0.033279937,0.93183887,-0.36282241,-0.0060269916,0
3.4253056,-2.532557,3.3653002,0.63095146,-0.46650451,0.61989826,0
3.6904392,-0.43541977,4.102108,0.66674602,-0.078666627,0.74112159,0
-2.463306,0.35762116,-4.8054104,-0.45517188,0.066081561,-0.88794804,0
3.0831757,-2.8454471,-3.4604971,0.56691366,-0.52320176,-0.63629299,0
0.61061227,-1.0537478,-5.2912493,0.11245991,-0.19407469,-0.97451931,0
-5.1518192,-1.4816388,0.8961848,-0.9478901,-0.2726087,0.16489024,0
2.1664822,0.44501573,-4.9194789,0.40166241,0.082505219,-0.91206366,0
-0.95874995,-4.0423689,-3.6141438,-0.17411113,-0.7341032,-0.65633661,0
2.2934978,-0.66214341,-4.9749022,0.41564006,-0.11999721,-0.90157866,0
-5.2458954,-1.0784974,-0.72694969,-0.97061312,-0.1995472,-0.13450266,0
1.65969,5.0854316,0.91548318,0.30581069,0.93703002,0.16868484,0
-2.5493081,-4.7756171,0.33043024,-0.47004592,-0.88053674,0.060925312,0
3.2317529,-4.2112617,-1.0695249,0.59680873,-0.77769494,-0.19750947,0
1.0100003,-4.4046874,-2.9431462,0.18728298,-0.81675518,-0.54574358,0
5.1226602,0.64629453,-1.9425116,0.92859286,0.11715485,-0.35212222,0
3.5121429,2.4085217,-3.515069,0.63603407,0.43617299,-0.63656402,0
2.5912173,-2.537889,-4.1195626,0.47209835,-0.46238241,-0.75055027,0
-3.4495668,-0.0026770474,-4.1740894,-0.63703573,-0.00049437361,-0.77083415,0
0.85699546,-5.2734275,-0.75857222,0.1588148,-0.97724944,-0.14057542,0
2.1711116,4.9396634,1.412306,0.38926187,0.88563973,0.25321448,0
1.2334085,-2.3123853,-4.832171,0.22437367,-0.42065415,-0.8790372,0
-4.9491467,1.4442158,1.8320489,-0.90454853,0.26395726,0.33484098,0
5.2027397,1.6272134,0.74701375,0.94557214,0.29573795,0.13576604,0
1.9782851,3.4536722,3.7012987,0.36397851,0.63543034,0.6809904,0
-5.1465502,0.50485831,1.6448619,-0.94840205,0.093034878,0.30311382,0
3.0569553,2.4186344,3.8403094,0.55865449,0.44200221,0.70181137,0
-0.16157559,-5.1471739,-1.8709244,-0.029489769,-0.93943012,-0.34146947,0
0.8391729,4.8284864,2.4317245,0.15338582,0.88256109,0.44447583,0
2.9382119,4.4637485,-1.0673294,0.53916836,0.81910765,-0.1958573,0
1.3556468,5.1378431,-1.2621585,0.24821764,0.94073415,-0.23110002,0
1.6296233,-3.9902697,3.4978552,0.29357618,-0.71884602,0.63013768,0
-0.79407012,-5.3196545,-0.26872328,-0.14745136,-0.98780978,-0.049899384,0
-4.1599422,2.3079638,2.4714928,-0.77596694,0.43051168,0.46101522,0
4.8679557,-0.53470427,-2.439744,0.88972372,-0.097728722,-0.44591576,0
-5.1868773,-1.8434029,0.045020282,-0.94223022,-0.3348662,0.0081782294,0
4.4577112,1.2553575,2.8121679,0.82275009,0.23169862,0.51903576,0
3.8947935,-3.6779151,-0.97626078,0.71527874,-0.67544901,-0.17929026,0
2.3146431,1.9658883,4.4848928,0.42734587,0.36295626,0.82803279,0
-0.93382239,1.7497652,-5.1664667,-0.16874021,0.31617975,-0.93357223,0
2.2117069,-1.6438401,4.6673112,0.40805531,-0.30328506,0.8611092,0
-5.0400734,-2.0620458,-0.19550011,-0.92493838,-0.37842014,-0.035877563,0
1.8707383,1.9700621,4.8325286,0.3374446,0.35536069,0.87169367,0
2.1935947,1.2902972,4.7908659,0.40435958,0.23784886,0.8831315,0
-5.28901,-0.7318688,-1.0087575,-0.97334278,-0.13468668,-0.18564282,0
-4.0493674,0.99834639,3.3811595,-0.75421059,0.18594594,0.62975425,0
4.9539208,-1.7225072,-1.2324677,0.9194867,-0.31971091,-0.2287557,0
3.5069411,-2.2874043,3.3754778,0.65206969,-0.42531282,0.62762582,0
3.9214265,2.9070024,2.3428357,0.72424144,0.5368892,0.43269426,0
-2.516896,4.441648,1.8921678,-0.46227667,0.81579465,0.34753326,0
3.8203452,1.7077715,3.3542087,0.71234643,0.31843325,0.62543005,0
5.3401513,-0.6821745,0.044061124,0.99190605,-0.12671046,0.0081841303,0
3.6572378,-1.496136,-3.6506267,0.67982525,-0.27810907,-0.67859632,0
1.996002,-2.5178258,-4.5174899,0.36005706,-0.45418841,-0.81490606,0
-3.9550478,-3.7365973,-0.20801754,-0.72636557,-0.68624598,-0.038203526,0
-3.3648872,-3.5535183,2.2063603,-0.62681407,-0.66195238,0.41100267,0
1.6990396,-3.8456435,3.5252116,0.30967051,-0.70091504,0.64251244,0
3.9344165,3.6824133,-0.66423082,0.72461814,0.67820567,-0.1223342,0
-0.40826136,-1.137845,-5.3942227,-0.073853083,-0.20583227,-0.97579646,0
-0.11131561,-4.0901971,3.7005081,-0.020177308,-0.74139798,0.67076212,0
1.9496175,-2.0515106,4.6696892,0.35704827,-0.3757087,0.85519564,0
1.8241407,-1.664856,4.8591213,0.3346608,-0.30543807,0.89146495,0
4.2246246,2.3763087,2.4758334,0.77618623,0.43659693,0.4548825,0
-2.8059924,-2.5745995,-3.7899048,-0.52227193,-0.4792034,-0.70540494,0
-1.8456253,-4.6794696,2.044915,-0.33989102,-0.86177278,0.37659225,0
3.9321907,-3.7386737,-0.15294063,0.72442704,-0.68877542,-0.028176235,0
-2.9387567,0.48396289,4.4878511,-0.54560697,0.089852117,0.83321047,0
1.0592993,-1.1700948,-5.3043265,0.19141045,-0.21143067,-0.95846707,0
2.0374227,2.5263867,4.4060583,0.37230936,0.46166044,0.80514312,0
-2.715131,-1.3960577,-4.6235585,-0.4900431,-0.25196886,-0.8344875,0
-0.21120182,-4.3868008,3.0430074,-0.039528091,-0.82102448,0.56952292,0
4.2665582,1.9756663,-2.7787127,0.78120577,0.36174402,-0.50878167,0
1.1065047,4.3672667,-3.0958967,0.20241785,0.79892361,-0.56634623,0
1.6764261,5.2013836,-0.56475741,0.30513906,0.94674343,-0.10279579,0
-4.6526737,-2.5669541,-0.80131882,-0.86579186,-0.47767115,-0.14911325,0
0.9481039,5.0468554,-1.7962803,0.17427593,0.9276889,-0.33018366,0
0.30035284,-0.7317397,5.313498,0.055910289,-0.13621239,0.98910075,0
-1.3899202,5.2859402,0.90924829,-0.25085473,0.95401382,0.16410239,0
3.1045794,4.5111856,0.40025541,0.56540984,0.82158267,0.072895005,0
0.65628576,3.6235473,-3.9680955,0.12123007,0.66934699,-0.73299241,0
-4.7947679,2.655726,-0.16666485,-0.87437469,0.48429865,-0.03039303,0
1.8063763,2.2647362,4.5329261,0.33578643,0.42099071,0.84262341,0
-3.2069278,-4.1479011,1.452661,-0.58944809,-0.76240337,0.2670058,0
3.2026742,-4.2756886,1.1670256,0.58569694,-0.78192705,0.21342267,0
-4.4070511,-2.0430152,2.4688408,-0.80878729,-0.37493661,0.45308465,0
3.0650947,-2.6551375,3.7277415,0.5564571,-0.48203084,0.67675829,0
-1.5099529,-1.7434255,-4.9470258,-0.27663651,-0.31941074,-0.90633821,0
-1.3907001,5.1852732,-0.1887137,-0.25888687,0.96526861,-0.035130147,0
1.0892732,-5.3531804,-0.81686974,0.19720292,-0.96914423,-0.14788678,0
5.3428617,0.3751421,0.31846517,0.99578536,0.069917776,0.059354514,0
1.1063623,-5.3660617,0.15310338,0.20185164,-0.97901767,0.027933134,0
0.2601479,5.3561149,0.40655893,0.048374243,0.99596423,0.075599231,0
-0.92502815,2.0971215,-4.9673352,-0.16908926,0.38334045,-0.90799725,0
3.5350311,0.05720631,4.170403,0.6465705,0.01046325,0.76278245,0
-3.073297,-4.1759515,1.7361974,-0.56206,-0.76371902,0.31752452,0
3.3586493,-3.5497329,-2.319021,0.62091911,-0.65624505,-0.42872128,0
-1.4595102,-0.26353416,5.2540431,-0.26734102,-0.048272006,0.96239215,0
0.72577125,-5.4531226,0.38782215,0.13160281,-0.988805,0.070323095,0
0.38524476,2.6420109,-4.7973628,0.070168339,0.48121488,-0.87378985,0
1.1336596,-4.9997921,2.0704048,0.20503935,-0.90428746,0.37446377,0
-2.1358941,-2.9227593,4.1915975,-0.38565069,-0.52772474,0.75682241,0
1.7128489,-5.2015438,-0.51361614,0.31140798,-0.94567728,-0.093379028,0
0.38839915,-2.7183299,-4.6627445,0.071776561,-0.50235015,-0.86167997,0
-1.5024428,4.787045,2.0160093,-0.27786151,0.88531518,0.37284037,0
-3.9486651,3.67805,1.1117359,-0.71668494,0.66756815,0.20178069,0
1.3105326,-1.6596582,4.9200492,0.24471861,-0.30991161,0.91873151,0
1.9928118,-4.1313782,-2.7782674,0.37160733,-0.77039409,-0.51807427,0
-3.1015561,-4.1937938,1.8524625,-0.56032646,-0.75764984,0.33466548,0
5.0632014,-0.1237095,-1.8289019,0.9402746,-0.022973785,-0.33964086,0
-5.1415076,1.4275255,-0.53662759,-0.95871443,0.26618442,-0.10006259,0
-2.2355437,-4.9192419,0.086606979,-0.41367692,-0.91028273,0.016026217,0
0.55943841,-3.202811,-4.4251685,0.1018794,-0.58326429,-0.80586803,0
1.5222847,2.4139876,-4.6386514,0.27950999,0.44323748,-0.85171282,0
4.4834991,-2.6996834,-0.97893757,0.84207934,-0.50704765,-0.18386155,0
1.5366853,3.1342084,-4.2001162,0.28137794,0.57389569,-0.76907098,0
3.5556259,-0.054436304,-4.2630067,0.64048529,-0.0098057706,-0.76790786,0
-3.0440588,3.9481208,2.1796699,-0.55946273,0.72561884,0.40059805,0
-0.73008072,4.7270279,-2.3601444,-0.13688135,0.88626087,-0.44249868,0
3.9595106,-3.0844016,-1.9891148,0.7333957,-0.57130468,-0.36843145,0
-4.617239,1.4816129,-2.2041788,-0.86682963,0.27815452,-0.41380736,0
-1.489918,1.6834406,4.9291716,-0.2750136,0.31073457,0.90984148,0
1.1347626,-0.95246577,-5.2689042,0.20732968,-0.17402266,-0.96266842,0
2.7268007,4.2223067,2.0478566,0.50241071,0.77795643,0.37731582,0
0.8735072,-0.60114616,-5.3064003,0.16142249,-0.11109068,-0.98061287,0
3.7753596,3.8856258,-0.29768321,0.69580752,0.71612978,-0.054863703,0
2.465153,-1.8933136,4.4407001,0.45478633,-0.34928995,0.81924719,0
0.99747425,1.2881492,-5.2920489,0.18014207,0.23263745,-0.95573461,0
0.044090617,4.2639585,-3.4275429,0.0080590369,0.77938116,-0.62649822,0
2.9312952,-0.80193233,4.5213189,0.53807509,-0.14720449,0.82994336,0
4.9034839,2.4560127,-0.067222178,0.89404833,0.44780284,-0.012256566,0
-3.5442677,-2.9573715,-3.0276423,-0.64203435,-0.53571969,-0.54844904,0
-3.1527817,0.82623839,-4.4557743,-0.57109773,0.14966558,-0.80712301,0
2.6540158,-4.1547303,-2.546499,0.47829625,-0.74874908,-0.45892,0
-2.4570637,-4.8751655,-0.32796687,-0.44925606,-0.89138824,-0.059966337,0
-4.4785991,-1.7906004,-2.4664631,-0.82671601,-0.33053148,-0.4552907,0
-3.7102435,-0.5720855,-3.8620355,-0.68887389,-0.10621804,-0.71705687,0
1.5528749,2.7921131,-4.4051957,0.28536111,0.51308739,-0.80951244,0
-1.8483632,3.4382179,3.8765469,-0.3359805,0.62497145,0.70464736,0
-0.82790214,-4.6864982,-2.4283915,-0.15495589,-0.87715745,-0.45451456,0
-2.2081912,-4.3685098,2.2525425,-0.40981111,-0.81073767,0.41804212,0
-5.0622869,1.8993787,-0.22893961,-0.93542892,0.35097453,-0.042304344,0
3.9662471,-2.884562,-2.3268449,0.73066622,-0.53139704,-0.42865381,0
3.2009158,-4.3024907,0.033535015,0.59688658,-0.80230129,0.0062533976,0
1.0003784,4.9742346,-2.1530774,0.18149887,0.90247649,-0.39063331,0
-0.65166855,-4.9704342,-2.4007258,-0.11724494,-0.89425558,-0.43192655,0
2.3319068,-4.2137418,2.4983339,0.42981201,-0.77666777,0.46048751,0
5.0429549,1.1276164,1.5302259,0.93573546,0.20923261,0.28393802,0
1.3707346,2.0443785,4.8481965,0.25210193,0.37599674,0.8916676,0
-1.4933033,-4.9168491,1.9712462,-0.27132511,-0.89336479,0.35816473,0
-0.99652797,-4.6160746,2.6247351,-0.18444596,-0.85438275,0.48580852,0
-2.9717617,1.7169958,-4.300786,-0.54008645,0.31204596,-0.78162265,0
-5.1690741,1.4597535,-0.31417131,-0.96071959,0.27130851,-0.058391605,0
1.834047,-4.5581689,-2.2155447,0.34028503,-0.8457126,-0.41106728,0
1.1923032,-2.9542425,-4.4289289,0.21854308,-0.54149753,-0.8118,0
2.8626473,-3.8604236,2.8119016,0.51411003,-0.69330323,0.50499648,0
-0.38967213,-5.4790478,0.024469189,-0.070940517,-0.99747056,0.0044546602,0
-4.2578011,-3.3661633,-0.58335215,-0.77996588,-0.61663109,-0.10686144,0
-5.2808614,0.42777747,-0.94541383,-0.98123556,0.079485223,-0.17566711,0
-4.0062027,-0.034095358,-3.8171942,-0.72396505,-0.0061614076,-0.68980914,0
-4.394228,3.1560349,-0.12468916,-0.8120026,0.58319885,-0.023041118,0
-4.051827,3.586267,0.30138925,-0.74765801,0.66175115,0.055613451,0
-4.2760334,-2.6385384,2.2432599,-0.77709383,-0.47950792,0.40767303,0
-4.040606,2.7884202,-2.4157469,-0.73847854,0.50962365,-0.44151229,0
5.1051836,0.19432573,2.070668,0.92610019,0.035251442,0.37562722,0
-0.9332298,-2.4605484,-4.8552103,-0.16898607,-0.4455477,-0.87916487,0
-5.1871285,-1.6033198,-0.12083182,-0.95516479,-0.29523745,-0.022250134,0
-4.0167327,0.33720428,3.6280448,-0.74066412,0.062178675,0.66899216,0
4.5214076,2.3743894,2.0496361,0.8216415,0.43147999,0.37246501,0
-4.1135607,3.0073075,1.8676436,-0.75796711,0.55412829,0.34413311,0
1.5065377,-2.8633025,4.3758097,0.27683294,-0.52614444,0.80407435,0
-0.89944559,-2.3096585,4.8434138,-0.1653153,-0.42450804,0.89020437,0
-2.5727415,-0.40877673,4.7636194,-0.4738555,-0.075289764,0.87737817,0
-2.839998,2.5002089,3.9416413,-0.51978391,0.45759481,0.72140956,0
-3.4416451,-4.0995097,0.94245213,-0.63323855,-0.75428104,0.17340457,0
1.7514945,-5.2139783,0.14601119,0.31832403,-0.9476105,0.026536692,0
-0.093095347,4.1792679,-3.3675556,-0.017342664,0.77855277,-0.62733948,0
-3.8134677,-2.3607843,2.9883399,-0.70758206,-0.43803927,0.55448109,0
-2.0139678,-5.0829339,-0.2424902,-0.36799866,-0.92877001,-0.044308592,0
-0.77279925,-4.87568,-1.9966174,-0.14512578,-0.91561538,-0.37494946,0
-4.809226,-1.213626,-2.2184982,-0.88510114,-0.22335856,-0.40829757,0
3.0012314,-3.460624,-2.9860568,0.54886436,-0.63287795,-0.54608923,0
-5.183125,-0.97352785,1.4558692,-0.94737756,-0.17794254,0.26610544,0
-4.5085802,-2.671082,1.8220564,-0.81262904,-0.48143736,0.32840848,0
0.75542551,-3.9205399,-3.8299317,0.13654074,-0.70862502,-0.69224793,0
0.70574945,5.414916,0.035392612,0.12923853,0.99159235,0.0064811795,0
-5.2618499,0.45191696,1.574773,-0.9547891,0.08200261,0.28575048,0
-1.8811873,2.5716145,4.5046201,-0.34094438,0.46607667,0.81641257,0
2.0988178,2.6294434,4.2263126,0.38853189,0.486761,0.78237247,0
-0.94358075,3.9557564,3.5330708,-0.17515531,0.73430043,0.65583801,0
-1.3342935,-0.24260837,-5.3854961,-0.24025625,-0.043684676,-0.96972603,0
2.2947338,-4.7558675,-1.1949111,0.42384824,-0.87843132,-0.22070576,0
4.9406915,2.144125,0.047533873,0.91730583,0.39808562,0.0088253031,0
2.3719716,-4.5946469,-1.8092709,0.43298507,-0.83871728,-0.33026841,0
-2.1761193,0.90972495,4.9054518,-0.39979941,0.16713582,0.90123582,0
-4.5526953,-2.5257239,-1.2402384,-0.85064411,-0.47191653,-0.23173119,0
3.5966096,1.4371372,-3.9209135,0.65258718,0.2607615,-0.71143049,0
-3.3960009,2.0240517,-3.9184315,-0.61010009,0.36362597,-0.70395607,0
-4.7408495,-2.7128336,0.30295676,-0.86661315,-0.49589792,0.055379592,0
-5.0282016,-1.0443646,-1.9281044,-0.9166292,-0.19038518,-0.35148883,0
-0.92989123,5.3751726,0.78421593,-0.16873074,0.97533649,0.14229764,0
2.3816955,-2.9178112,3.9562168,0.4360168,-0.53416348,0.72426432,0
1.1973336,5.0768795,-1.2942275,0.22278784,0.94465488,-0.24081689,0
-3.0292675,-4.3669548,-0.43528518,-0.5680697,-0.81892234,-0.081627764,0
-1.3355849,-4.148869,-3.3104949,-0.24402121,-0.75802898,-0.60485184,0
-0.93815047,-4.7619834,-2.5390539,-0.17127232,-0.86936587,-0.46353936,0
-1.581625,-4.8724451,1.7695265,-0.29182723,-0.89901978,0.32649714,0
-0.22385302,4.6205645,2.745198,-0.041614525,0.85896802,0.51033533,0
4.0975242,-2.2263434,2.8064854,0.75285167,-0.40905344,0.51564485,0
3.2741036,2.5231218,3.634021,0.59487867,0.45843121,0.66027278,0
5.2122021,0.75709593,1.7030082,0.94161516,0.13677385,0.30765849,0
1.6876986,4.9257569,1.8814304,0.30483949,0.88971174,0.33983216,0
-0.3377887,-3.9044287,-3.7437809,-0.062324591,-0.72039688,-0.69075608,0
-0.21159069,-5.5197997,-0.2535736,-0.03826461,-0.9982149,-0.045856908,0
-4.1727386,-1.8749992,-2.9927342,-0.76331377,-0.3429912,-0.54745704,0
-0.067002609,-5.3270955,1.2602098,-0.012238952,-0.97306764,0.23019473,0
1.8370553,5.1460385,0.12861973,0.33611092,0.94152838,0.023532495,0
-0.66015375,4.8165932,2.3644061,-0.12211301,0.89095718,0.43735987,0
-3.6621594,-3.7753854,-1.6276884,-0.66514045,-0.68570518,-0.29562923,0
3.9067843,3.5734622,1.1216561,0.72186255,0.66027415,0.20725012,0
1.2840945,4.1776476,3.3116708,0.23417412,0.76185745,0.60393345,0
3.20786,2.9652379,3.3968782,0.57969582,0.5358513,0.61385351,0
-4.6875091,-2.4088101,-1.5217404,-0.85452592,-0.4391225,-0.27741101,0
-4.7480512,2.6999416,0.22745065,-0.86853194,0.49388379,0.041606154,0
0.88418633,-1.7529577,5.0397005,0.16347709,-0.32410413,0.93178958,0
-0.17276202,3.6032779,3.940372,-0.032338612,0.67448276,0.73758203,0
4.1040988,-3.3703032,1.6123813,0.73947912,-0.60726339,0.29051989,0
-1.8233411,2.0576065,-4.7585311,-0.33178025,0.37440783,-0.86587566,0
-2.7109609,2.8816485,3.8944335,-0.48832417,0.51907009,0.70150256,0
5.4103956,0.63875777,0.69435406,0.98513377,0.11630607,0.12642914,0
3.6572599,2.3168111,-3.35131,0.66800582,0.42317018,-0.61212349,0
2.6508355,-4.2953634,-2.0914042,0.48518011,-0.78617662,-0.38278788,0
-2.9021006,-2.8423154,3.702389,-0.52801585,-0.51713836,0.67362243,0
-0.54515481,3.6409652,3.9808033,-0.10054064,0.67148811,0.73416299,0
-4.6643534,0.508995,-2.6483533,-0.86571527,0.094470702,-0.49154079,0
1.9844108,-3.7776682,-3.5167747,0.35887122,-0.6831733,-0.63599193,0
-0.027147753,-2.7914689,4.7744312,-0.0049085896,-0.50472593,0.86326569,0
4.752583,0.80482072,2.5206473,0.87371272,0.14795788,0.46339464,0
-0.67726868,0.70423335,5.3635597,-0.12422785,0.12917383,0.98380965,0
-2.2587464,5.0839906,0.16541249,-0.40583825,0.91346151,0.029720342,0
-0.065335333,4.6382065,-3.0344732,-0.011786921,0.83676279,-0.5474388,0
3.3309851,0.44955274,4.3985381,0.60172081,0.08120878,0.79456735,0
-4.5040894,-0.19820565,-2.9764814,-0.83372545,-0.036688682,-0.55095893,0
-4.5520649,0.88125414,-2.8819468,-0.83382452,0.16142373,-0.52790064,0
-1.1088839,-5.2753601,0.4997451,-0.20482695,-0.97443557,0.092310175,0
-1.5914867,-1.6103288,-5.0105171,-0.28945082,-0.29287773,-0.91128522,0
-5.2069588,1.6562345,0.88369638,-0.94072986,0.29922825,0.15965548,0
0.67244446,-1.9645152,-4.9695592,0.12485254,-0.36475086,-0.92269635,0
-2.098789,-4.8822331,-1.4027258,-0.38185841,-0.8882845,-0.25521511,0
3.7602241,-2.8374009,-2.9068511,0.67931306,-0.51259804,-0.52514476,0
0.11727282,-3.8661575,3.9668944,0.021166457,-0.69779897,0.71598083,0
-1.3635701,4.226028,-3.0419762,-0.25332984,0.78512937,-0.56515121,0
3.5421259,-2.7929957,-3.0756543,0.6487897,-0.51157606,-0.56334889,0
5.1062989,0.96760184,1.7472988,0.93129182,0.17647217,0.31867406,0
1.1281005,-3.9307823,3.5748394,0.20768911,-0.72367722,0.65814632,0
-0.42579973,2.3682077,-4.7823963,-0.079535224,0.44235802,-0.89330482,0
-4.4260073,-2.9810817,1.2531136,-0.80744672,-0.54384559,0.2286084,0
1.5690615,3.4548671,4.0070281,0.28432524,0.62604678,0.72610229,0
4.2267289,0.23078987,-3.4007516,0.77842009,0.042503666,-0.62630308,0
0.25489831,4.2215605,3.5974913,0.045908261,0.76032084,0.64792335,0
-5.4001851,-0.38084713,-0.97988129,-0.98157263,-0.069225244,-0.17810957,0
1.8236202,-5.0995317,-1.1648828,0.32919389,-0.92055058,-0.21028079,0
-3.7472365,-0.068218015,4.0427184,-0.67974448,-0.012374671,0.73334455,0
3.1044865,2.3406389,3.6209817,0.58431929,0.44054964,0.6815328,0
4.2751222,-3.4098556,0.63339341,0.77658963,-0.61941117,0.11505794,0
-2.9588783,3.5581951,2.8952076,-0.54204333,0.65183347,0.53037935,0
4.5043292,2.4005926,1.5582225,0.8440361,0.44983098,0.29198489,0
2.40308,3.4389493,3.4757812,0.44108272,0.63121539,0.63797587,0
-1.3959242,3.0193217,-4.3013387,-0.25672162,0.55527741,-0.79105055,0
-1.9344872,-4.6048908,2.2122138,-0.35412621,-0.84296888,0.40496668,0
-2.715209,-1.323426,4.4993987,-0.50102925,-0.24420777,0.83026034,0
-3.8848236,2.5653422,2.911833,-0.70748311,0.46718627,0.53028733,0
3.7359252,3.8909373,0.88502675,0.68345398,0.71181208,0.1619077,0
2.7786303,1.6509624,-4.4185472,0.50755984,0.30157381,-0.80711603,0
-1.8605597,5.1299877,-0.91449094,-0.33626238,0.9271521,-0.16527763,0
5.0417023,-2.2883155,-0.32903746,0.90899169,-0.41257092,-0.059323676,0
-5.1449003,-1.7553849,0.54910761,-0.94163746,-0.32127663,0.10049958,0
-5.2813392,1.2531881,-0.95993358,-0.95811588,0.22734754,-0.17414667,0
4.2676702,3.0093427,1.3190659,0.79236233,0.5587334,0.24490604,0
0.38094628,3.3132265,-4.2601719,0.070410937,0.61238915,-0.78741467,0
2.2567794,-1.3918948,-4.7539864,0.4145886,-0.25570232,-0.87334567,0
-1.9659673,4.4048858,-2.5742073,-0.35956714,0.80563504,-0.47081167,0
4.6710205,-2.8966002,-0.30151093,0.84858054,-0.52622306,-0.054775249,0
0.51455206,-1.9676783,-4.9634323,0.095927455,-0.36683241,-0.92532802,0
1.1665752,-4.4602532,2.9134734,0.21390441,-0.81783658,0.53421742,0
3.398133,-3.9398327,1.320673,0.63305342,-0.73396909,0.24603409,0
0.83205122,2.5368698,-4.6636448,0.15483513,0.4720822,-0.86785048,0
-2.6809552,-0.74595308,4.5824661,-0.50006193,-0.139138,0.85473895,0
1.2898726,4.651063,2.5008347,0.23728247,0.85560048,0.46004868,0
-2.1088734,-1.9472528,-4.6762733,-0.38434315,-0.35488769,-0.85225296,0
-1.2258666,-2.3501897,-4.7470179,-0.22546993,-0.43226328,-0.87310469,0
2.438678,-0.74719423,-4.7214313,0.45444164,-0.13923781,-0.87982708,0
5.3495736,-0.24177726,0.96277976,0.98321575,-0.044437036,0.17695245,0
4.6569824,2.7358754,0.73083359,0.854433,0.50196069,0.13408862,0
3.1947234,3.0804868,3.2278249,0.58216399,0.56134707,0.58819598,0
-1.6738154,4.3131638,2.7822347,-0.31004092,0.79892761,0.5153535,0
-1.2608482,5.1111698,-1.1753728,-0.23374987,0.94756478,-0.21790352,0
-1.9452558,0.073107332,-5.0552034,-0.35909864,0.01349578,-0.93320209,0
1.9641809,-4.6802616,-1.6067568,0.36893252,-0.87909448,-0.30179745,0
5.3040357,-0.88204736,-1.0677047,0.96756119,-0.16090292,-0.19477049,0
3.4361,-4.177011,1.2415026,0.61918718,-0.75269973,0.22371948,0
4.389956,-3.0012267,-0.66385049,0.81916177,-0.56002617,-0.12387389,0
0.57204276,-5.4940691,-0.33982044,0.1033648,-0.99274641,-0.06140358,0
-3.2938013,4.148737,1.3706417,-0.60196733,0.75821334,0.25049523,0
1.412321,-2.7093761,-4.5530872,0.2575703,-0.49411911,-0.83036363,0
5.1517973,0.28027281,1.4357103,0.96197301,0.052334141,0.26808405,0
1.639713,2.0979524,-4.8356476,0.29703408,0.38004416,-0.87597781,0
2.586586,-3.4218628,3.2488058,0.48069578,-0.63592511,0.60376388,0
0.81111157,-5.0436883,-2.1286869,0.14656197,-0.91135782,-0.38463825,0
-0.79170001,0.57342499,5.2553172,-0.14810695,0.10727324,0.98313624,0
-0.94566536,0.41715178,-5.2585015,-0.17645918,0.07783965,-0.98122537,0
5.1963692,-1.5739821,-0.33311078,0.95526278,-0.28934947,-0.061236668,0
3.2665977,0.67838734,-4.236063,0.60580808,0.12581056,-0.7856006,0
5.1508927,-1.7106436,0.76663387,0.93970418,-0.31208163,0.139861,0
0.82514161,-4.6511354,-2.8590388,0.14943896,-0.84235346,-0.51779211,0
3.0867772,-2.0421045,4.0357103,0.5637036,-0.37292668,0.73699659,0
-2.4482381,-4.8969827,-0.35865563,-0.44622016,-0.89253265,-0.065369204,0
-1.3942187,2.5850537,4.5776224,-0.25634488,0.4752951,0.84165424,0
-0.80524951,0.59369212,-5.3709421,-0.14739186,0.10866866,-0.98309046,0
-4.9661293,1.4659368,-1.8260691,-0.90448964,0.26699358,-0.3325851,0
-1.5231508,-1.631018,-5.0635586,-0.27525896,-0.29475239,-0.91507018,0
3.2918682,-2.6468058,3.4538019,0.60332006,-0.48509565,0.63299859,0
4.8633623,2.1470606,-1.6987672,0.87140834,0.38470641,-0.304382,0
3.7942743,-3.8578606,0.3507036,0.69973868,-0.71146524,0.064676628,0
1.7493442,-0.7201488,-5.0793166,0.32274693,-0.13286453,-0.93711334,0
-0.65741366,-1.7485231,-5.194139,-0.11910018,-0.31677076,-0.94099492,0
3.0852628,3.469981,-2.872467,0.56507516,0.63553745,-0.52610099,0
5.3393564,-0.24741125,0.49495977,0.99467266,-0.046090424,0.092206426,0
2.8073311,-3.6477277,-3.1620655,0.5027082,-0.65319788,-0.56623048,0
0.49561834,-5.4843969,0.035546016,0.090000167,-0.99592084,0.0064548608,0
0.08173728,5.1522985,1.7230829,0.015043477,0.94826353,0.31712773,0
-5.3601742,0.55727476,1.2425559,-0.96920985,0.10076467,0.22467504,0
2.7767544,-4.7401977,-0.77648544,0.50047642,-0.85436338,-0.13995212,0
-3.1465652,1.4730973,-4.2674556,-0.57179976,0.26769403,-0.77549011,0
-1.5131314,-2.8212767,4.3936362,-0.27833915,-0.51897132,0.80820543,0
-4.1590338,-0.87865889,-3.3829346,-0.76556051,-0.16173626,-0.6227026,0
1.1189247,5.1042862,1.5620999,0.2051575,0.93588299,0.28641474,0
-2.6236427,3.4393117,-3.2166395,-0.48670223,0.63801396,-0.59670687,0
-3.7654812,1.1085535,-3.8104014,-0.68831879,0.2026403,-0.6965301,0
-3.9102681,-3.6612635,-0.84270906,-0.72109824,-0.67517895,-0.15540521,0
-4.5245881,2.4048705,1.9693881,-0.82423717,0.43809149,0.35876036,0
4.0935235,-0.63763511,-3.6088946,0.74504542,-0.11605335,-0.65684009,0
-0.68943644,-4.4335151,-3.0600202,-0.12694608,-0.81634408,-0.56344217,0
-4.4707069,1.7005748,-2.6640606,-0.81655705,0.31060329,-0.48658019,0
2.9249372,3.3675506,-3.2493145,0.53002524,0.6102308,-0.58880532,0
1.7024183,-1.0365608,-5.0502024,0.31356165,-0.19092001,-0.93017668,0
-0.68460655,5.0933275,2.0282154,-0.12391332,0.92188877,0.3671056,0
1.4881184,-3.5204248,-3.8175094,0.27547705,-0.65169299,-0.70668858,0
0.65759689,0.68885684,-5.3757796,0.12045038,0.12617619,-0.98466814,0
-4.8954201,-2.0065989,1.1596661,-0.90382957,-0.3704735,0.21410634,0
-1.7657511,2.5501199,-4.4496412,-0.3255412,0.47015068,-0.82035434,0
-3.3313339,0.35773018,4.2675028,-0.61400074,0.065933526,0.78654677,0
-0.90326655,-4.530108,-2.7965848,-0.16727543,-0.83892822,-0.51789802,0
-4.406219,-1.8610599,-2.4108095,-0.82261848,-0.34745032,-0.45008576,0
-4.7434063,2.4752769,0.70307535,-0.87899333,0.45868978,0.13028581,0
-5.1930537,1.1528752,-1.2818526,-0.94906598,0.2106958,-0.23426729,0
4.0219827,0.11328681,-3.8249445,0.72448307,0.020406447,-0.68899047,0
4.6556673,-1.290863,-2.4858491,0.85687268,-0.23758255,-0.45751899,0
5.2392879,1.2430258,-0.23935351,0.97203118,0.23061527,-0.044406623,0
-4.6041279,0.69695497,-2.8639402,-0.84219807,0.12748867,-0.52387881,0
-4.6256967,-0.66741788,2.8412638,-0.84572762,-0.12202567,0.51947528,0
-5.1351933,-1.8838315,-0.18217948,-0.93830121,-0.34421322,-0.03328779,0
3.5027463,-0.35424468,4.0861516,0.64942151,-0.065678217,0.75758696,0
3.9923971,-2.0411086,3.2436056,0.72141671,-0.3688235,0.58611184,0
0.43066511,-4.505043,3.1091421,0.078435555,-0.82048798,0.56625736,0
-3.1367035,4.0899014,-1.8341606,-0.57334709,0.7475788,-0.3352598,0
0.48665625,-2.0014508,4.9835811,0.090247393,-0.37115666,0.92417425,0
2.2608604,4.7248144,-1.6278381,0.41218975,0.86140656,-0.29678002,0
-4.3245025,0.71809286,-3.2452331,-0.79287273,0.13165821,-0.59499484,0
2.3089473,4.0364428,-2.8129156,0.42484817,0.74270874,-0.51757872,0
2.9890604,2.276016,3.8849859,0.55307615,0.42113906,0.71885234,0
-0.55067807,4.743556,-2.7965729,-0.099507764,0.85716259,-0.50534189,0
2.9753239,1.6811699,-4.2483654,0.54570144,0.30834183,-0.77918881,0
-5.1491718,1.6355932,0.75198591,-0.94397432,0.29984587,0.13785817,0
-2.5555847,4.7231255,0.4546034,-0.47418755,0.87637377,0.08435145,0
2.8624418,2.3719192,3.981499,0.52548933,0.43543881,0.73092675,0
3.7184165,3.6615546,1.2250544,0.69367695,0.68306929,0.22853599,0
-4.7863297,1.8352457,-1.8966233,-0.87569737,0.3357729,-0.34700242,0
-2.3346441,-3.5202806,-3.6019711,-0.42055669,-0.63413417,-0.64884973,0
-1.0232147,-1.5842685,5.040854,-0.19011413,-0.29435837,0.93659478,0
4.6917281,0.33314347,-2.7004733,0.86505181,0.061424352,-0.49790809,0
3.0407648,-2.0944543,4.1239119,0.54933971,-0.37838078,0.74501938,0
1.3513083,2.6956422,4.537076,0.24805056,0.49482086,0.83284044,0
-3.5803432,3.6736856,-1.6768159,-0.66340727,0.68070281,-0.31069979,0
-0.57522964,0.23144035,5.3413553,-0.10697521,0.043040864,0.99332958,0
4.510962,-2.9370778,-0.63883573,0.83218282,-0.54183251,-0.11785249,0
-3.9118466,-2.2267439,3.0337112,-0.7206651,-0.41022483,0.55888945,0
-1.5281342,0.085839391,5.2874856,-0.27761295,0.015594263,0.96056646,0
4.0461612,-2.6322234,2.436146,0.74832952,-0.48682454,0.45056042,0
-3.0082767,0.17501546,4.5997753,-0.54706526,0.031827152,0.83648467,0
5.0799699,0.13721117,1.992681,0.93064564,0.025136955,0.36505726,0
-3.1981254,1.4214568,4.1200438,-0.59160358,0.26294747,0.76214421,0
4.5671377,2.5432472,-1.5404111,0.83804619,0.46667272,-0.28265747,0
2.3681304,0.93982762,4.772439,0.43773663,0.17372225,0.8821606,0
0.090384386,5.009881,-2.2034039,0.016512299,0.91525382,-0.40253925,0
-3.200413,-0.66030318,4.4724512,-0.57778734,-0.11920799,0.80743504,0
-0.22105245,1.6669908,5.264782,-0.039996374,0.30161887,0.95258927,0
4.8405871,1.6427042,-1.9217365,0.88638747,0.30080491,-0.3519001,0
1.5446777,-0.261132,-5.1695719,0.28595978,-0.048342288,-0.95702142,0
4.538198,0.57469785,3.1602728,0.81623268,0.10336419,0.5684014,0
-1.3028507,4.9798722,1.5947738,-0.24176724,0.92410433,0.29593879,0
4.6375155,1.66435,-2.3868852,0.84706014,0.30399996,-0.43597379,0
5.2598467,-0.31114647,-1.4451936,0.96269971,-0.056948546,-0.26451105,0
-5.0143723,-1.8992777,0.74635237,-0.92623633,-0.35082754,0.13786346,0
0.66159993,-5.4447236,0.65877074,0.11976409,-0.98561436,0.11925194,0
-0.56545675,3.5109365,4.1882586,-0.10291596,0.63900805,0.76228404,0
0.62197345,-5.406826,-0.59779674,0.113598,-0.98750937,-0.10918234,0
-1.8076218,-2.8546867,4.2553492,-0.33267075,-0.5253703,0.78314513,0
-2.0398688,1.5287344,-4.8989964,-0.36937264,0.27681813,-0.8870939,0
-3.0499907,2.8818171,-3.5800261,-0.55295658,0.52246714,-0.64905089,0
4.4037094,2.0463259,-2.3904102,0.81363207,0.37808043,-0.44165367,0
5.0495768,-0.40717372,-1.9935168,0.92753351,-0.074791871,-0.36617994,0
-1.4753493,-0.16035263,5.1430502,-0.27561781,-0.029956324,0.96080041,0
-3.164964,1.9727886,-3.916245,-0.5852434,0.36479452,-0.72416514,0
1.7571907,5.0547833,-0.85889542,0.32420573,0.93261915,-0.15846817,0
-1.4288535,-3.0389168,-4.4350739,-0.25685132,-0.54627699,-0.79725075,0
-2.355006,-3.441082,3.4567604,-0.43479985,-0.63531983,0.63821447,0
3.1734684,4.1921449,-1.4807208,0.58096886,0.76745856,-0.27107647,0
3.0463765,3.8432112,2.4961293,0.55359989,0.69840395,0.45360675,0
-3.909467,-1.614738,-3.4783661,-0.71388268,-0.29485697,-0.63516212,0
4.294385,1.8153279,-2.7922649,0.79020643,0.33403707,-0.51380253,0
-2.0419855,1.904135,-4.6482735,-0.37658682,0.35116416,-0.85724336,0
3.902169,-3.557791,-1.629058,0.70612448,-0.64380693,-0.29478934,0
2.7728696,-1.871007,4.3224592,0.50732833,-0.3423222,0.79084349,0
-0.038855791,-4.0334449,3.6197848,-0.0071693761,-0.74422067,0.66789526,0
3.1828415,-2.5290375,-3.6268327,0.5842247,-0.46421608,-0.6657213,0
-4.6465659,-2.1881642,1.4426506,-0.87099481,-0.41016951,0.27042362,0
