0.40217254,-1.0203918,-4.8450928,0.080957778,-0.20540601,-0.9753226,0
-1.5754248,2.0932004,-4.3110876,-0.3122935,0.41493118,-0.85457879,0
3.2306094,3.7195711,-0.70289761,0.64916563,0.7474187,-0.14124177,0
3.7836306,2.3116791,-2.2059445,0.76400489,0.46678293,-0.4454326,0
3.1778665,-1.612479,3.4365196,0.64191341,-0.32571283,0.6941601,0
0.56953275,-4.8201923,-0.82613617,0.11567576,-0.97901201,-0.16779356,0
-0.31148243,-3.0990565,-3.9923317,-0.061514217,-0.61202824,-0.78843987,0
0.78348976,-4.4755702,-1.8470012,0.15974294,-0.91250807,-0.37657848,0
-1.1333507,-1.4947307,-4.5483041,-0.23035882,-0.30381098,-0.92446405,0
-2.4448013,0.34429032,-4.3535252,-0.48848403,0.068790995,-0.86985695,0
3.1421349,3.1712682,2.3091326,0.62515908,0.63095546,0.45942497,0
2.4629221,-2.9440787,3.2110851,0.49214512,-0.58829063,0.64164424,0
-4.1526814,-0.79233521,2.7304206,-0.82514501,-0.15743838,0.5425393,0
-0.28427967,-1.3339635,-4.7538142,-0.057481259,-0.26972699,-0.96121973,0
-0.011809594,0.858733,4.9881358,-0.0023332075,0.16965885,0.98550004,0
-0.16839886,-0.55111015,4.8836575,-0.034244537,-0.11207031,0.99311006,0
-2.6570029,2.4577713,-3.4444852,-0.53177524,0.49190083,-0.68938273,0
-1.2726502,-3.1355982,3.6653631,-0.25510982,-0.62854809,0.7347424,0
2.199573,4.2782083,-1.268663,0.44212461,0.85994011,-0.2550073,0
-4.2654295,0.96034032,2.5233037,-0.84495926,0.19023839,0.49985325,0
4.2750602,-1.2766304,2.2448497,0.8559494,-0.255606,0.44946215,0
-0.073675267,0.091331877,-5.0340729,-0.014631345,0.018137813,-0.99972838,0
1.3573822,4.4159555,-1.5605583,0.27836204,0.90559196,-0.32002792,0
2.3874817,1.3467945,-4.201376,0.47592381,0.26847181,-0.8375079,0
1.0448666,-1.4121612,4.6982727,0.20830898,-0.28153437,0.93666732,0
-4.2356887,1.7782238,2.0123284,-0.84456396,0.35456422,0.40124291,0
3.9127586,-1.9472246,2.6253245,0.76744819,-0.3819285,0.51493096,0
2.7448449,-1.227741,3.8944228,0.55787629,-0.24953234,0.79152232,0
-4.2540741,-2.5641673,0.30313757,-0.85485947,-0.51527137,0.060915727,0
-1.2859173,-2.746769,3.9166629,-0.25959027,-0.5544948,0.79066324,0
1.9692131,4.5977316,-0.76277721,0.3892093,0.90872842,-0.15076073,0
-3.7153604,2.0267963,2.816709,-0.73081452,0.39867255,0.55404902,0
3.637311,-1.2851255,3.2511768,0.72097766,-0.25473401,0.64443922,0
2.3876104,1.8922936,3.9628298,0.47766083,0.37856868,0.79279625,0
1.1930627,2.3195488,4.1949105,0.24152362,0.4695695,0.84921771,0
4.7138977,-1.0826285,1.0052168,0.9542346,-0.21915656,0.20348611,0
0.9439522,-0.87538737,4.8539572,0.18797173,-0.17431822,0.96658146,0
1.8872303,-1.3204505,-4.4756413,0.3749305,-0.26233003,-0.88916254,0
4.5412354,-2.0524542,-0.55507356,0.90565169,-0.40931782,-0.11069748,0
1.0954894,4.7317519,-0.74046659,0.22297633,0.96310258,-0.15071484,0
4.4390659,0.62230176,-2.1489265,0.89299959,0.12518743,-0.43229601,0
3.3449965,-2.8766775,-2.5072753,0.65917557,-0.56688714,-0.4940916,0
0.026706373,3.8520813,3.2364023,0.0053080921,0.76563007,0.64325923,0
-3.0216124,-3.1090655,-2.3758643,-0.61119223,-0.62888169,-0.48057446,0
3.5660946,-2.1917117,2.5493805,0.72762328,-0.44719523,0.52017373,0
-2.011138,1.6490926,4.2875724,-0.40104657,0.32885009,0.85499662,0
-1.6043179,-4.6928158,-0.56345397,-0.32141793,-0.94018471,-0.11288549,0
-3.8361647,0.15711443,-3.0891368,-0.77846777,0.03188302,-0.62687439,0
4.1958079,-1.6847206,2.2916975,0.82773548,-0.33235627,0.4520987,0
4.2217679,2.0419466,1.5739275,0.85344648,0.41278732,0.31817546,0
3.6386998,-1.0020587,3.2699897,0.72865731,-0.20066437,0.65482235,0
-1.5348675,-3.3637762,3.4147575,-0.30495903,-0.66834038,0.67846972,0
-1.0454626,-2.8975182,-3.9072313,-0.21012442,-0.58236355,-0.78530276,0
-2.4155796,-3.1945891,2.8221762,-0.49302569,-0.65202343,0.57601309,0
3.1772444,-2.8136058,-2.7937095,0.62532461,-0.55375564,-0.54983974,0
4.9233975,0.41036293,-0.56356984,0.99012321,0.082526319,-0.1133371,0
-4.1821651,2.2832279,1.2405158,-0.84940016,0.46372491,0.25194949,0
3.944346,-1.2872826,-2.7432892,0.79299402,-0.25880271,-0.55152667,0
1.600248,2.3391721,-4.0323262,0.32467893,0.47460139,-0.81813031,0
2.0082269,-3.0115678,3.572932,0.39484653,-0.59211791,0.70249027,0
-4.2201333,2.6834719,-0.11937868,-0.84360838,0.53642839,-0.023863904,0
-0.14649911,3.192071,-3.7539833,-0.029716903,0.64750195,-0.76148421,0
-2.7905436,2.8976688,-2.9062414,-0.56228673,0.5838722,-0.58559954,0
-3.2432418,0.070424117,-3.7747161,-0.65162581,0.014149476,-0.75840861,0
1.0643344,0.2924825,-4.9267578,0.21080559,0.057930052,-0.97580999,0
-3.086247,3.9995654,0.017066028,-0.61090767,0.79169464,0.0033781377,0
2.7473056,-1.0024357,3.9638903,0.55772084,-0.20350094,0.80469543,0
1.9608474,4.0188274,2.2115083,0.39306143,0.80559361,0.44330764,0
3.0227067,3.7519276,1.3960558,0.60258383,0.7479558,0.27830708,0
-3.8569353,-3.0268116,-0.50766057,-0.78249508,-0.61407959,-0.10299418,0
1.900835,3.369626,3.1759372,0.37975609,0.67319679,0.63450086,0
3.1397753,2.8563159,-2.8140085,0.61652726,0.56086707,-0.55255961,0
-1.1975085,-2.4337413,4.1475067,-0.24164279,-0.49109969,0.83691692,0
-0.35467851,0.27984664,5.0509191,-0.069941357,0.055184778,0.99602354,0
1.3651017,3.1794691,3.6947901,0.26967552,0.62810338,0.72990495,0
3.1241217,2.137747,-3.2488909,0.62626147,0.42853281,-0.65127271,0
3.8827739,0.26099476,3.2652712,0.7643308,0.051377274,0.64277434,0
2.7376766,3.5852416,2.2733417,0.54196107,0.70974827,0.45003951,0
2.2010055,-3.0158296,3.3262112,0.44017175,-0.60312569,0.66519791,0
-3.2150476,1.3897917,-3.4349082,-0.65535951,0.28329697,-0.70017618,0
-1.5609714,3.3540685,-3.3120875,-0.3143625,0.67547256,-0.66701806,0
0.91278642,1.4875165,4.6125345,0.18508671,0.30162537,0.93528873,0
-3.7373788,-0.44612965,-3.2303498,-0.75349474,-0.089944415,-0.65127236,0
-4.0934238,-1.0726794,2.6101964,-0.8233102,-0.21574797,0.52498871,0
-0.64048362,1.8066822,-4.5533843,-0.12964186,0.36569497,-0.92166162,0
-4.5546427,-2.1616712,-0.23387617,-0.90244412,-0.42830744,-0.046339568,0
-3.3782227,3.4469147,1.19526,-0.67942923,0.69324458,0.24039109,0
4.8442931,-0.574121,-0.77644622,0.98070538,-0.11622822,-0.15718804,0
-2.5647545,-3.9075217,1.628479,-0.5181731,-0.78946054,0.32901159,0
-3.615936,3.4505124,-0.85716981,-0.71305168,0.68043059,-0.16903129,0
-0.82036668,-0.19324644,-5.0034757,-0.16168159,-0.038085885,-0.98610771,0
-4.0637102,-2.7892823,-0.79248726,-0.81401497,-0.55873019,-0.15874569,0
0.55992043,-2.9734576,3.8741648,0.1139045,-0.60488987,0.78812051,0
3.9489551,2.7952197,-1.0744292,0.79680353,0.56400764,-0.21679379,0
-3.9520514,1.4799024,2.8770292,-0.77378064,0.28975326,0.56329972,0
4.8050632,0.25122437,1.7134383,0.94076657,0.049186345,0.33546811,0
3.7653356,-2.8462636,1.5899901,0.75599033,-0.57146245,0.31923243,0
3.7300229,-2.1044114,2.3941331,0.76022464,-0.42890498,0.48795384,0
3.8550887,0.81155652,3.0968699,0.76931274,0.16195238,0.61800432,0
1.872203,-1.0704416,4.5413213,0.37240106,-0.2129222,0.90331697,0
-3.2371511,-3.5727317,1.3389792,-0.64695913,-0.71402639,0.26760098,0
-3.675142,-1.6530293,3.0628812,-0.72607428,-0.32657841,0.6051138,0
-3.4639988,-2.8244576,2.3453224,-0.68627834,-0.55957413,0.46464911,0
-1.9819063,-2.1866024,4.029686,-0.39679772,-0.43777993,0.80678391,0
-2.0166047,0.26228076,4.6182098,-0.39963454,0.051976699,0.91519976,0
2.8543119,4.1632833,-0.30351093,0.56444013,0.82328922,-0.060019281,0
-4.9623761,-1.042895,0.50616664,-0.97378254,-0.20465054,0.099326655,0
-4.2354074,-0.10494164,-2.8370361,-0.83065629,-0.020581357,-0.55640501,0
-2.4232049,4.3209643,-0.56512386,-0.48598397,0.86658764,-0.11333798,0
0.45554432,3.8337398,-3.2708058,0.090029135,0.75766122,-0.64640874,0
3.6920466,1.0517907,-3.2703986,0.73209685,0.20855984,-0.64848816,0
-1.2266308,-0.49111325,4.9159427,-0.24096881,-0.096478075,0.96572566,0
-2.533123,4.1759658,-0.22721067,-0.51807606,0.85407138,-0.046469282,0
-1.4039345,-4.3663607,-1.9823869,-0.28097805,-0.87386668,-0.39674732,0
-2.1292911,3.966615,-2.4072115,-0.41708666,0.77698267,-0.47152588,0
-2.946239,2.7297597,2.9115946,-0.59390688,0.55026871,0.58692324,0
-0.55412287,1.1383175,-4.8598809,-0.11033738,0.22666267,-0.96770328,0
4.7486839,1.4881872,-0.74241453,0.943793,0.29577473,-0.14755365,0
-3.7891622,-3.053617,-1.3105007,-0.75184542,-0.60589856,-0.26002952,0
2.9289978,-0.85685527,4.0811472,0.57476658,-0.16814345,0.80085653,0
-0.070230529,3.1504483,-3.7877831,-0.014253563,0.63939595,-0.76874554,0
-0.56422108,-2.6185989,4.1256623,-0.11470255,-0.53234446,0.83872086,0
-0.42327434,-1.5330564,4.7389264,-0.084677145,-0.30669197,0.9480347,0
-4.3551588,-2.2263286,0.74063021,-0.88036954,-0.45003915,0.14971401,0
-2.5405607,4.3445444,-0.54242462,-0.50188977,0.85826808,-0.1071564,0
-4.126554,2.9292994,-0.00099307683,-0.81543463,0.57884908,-0.0001962386,0
3.4699764,-3.5235598,-0.55955112,0.69721961,-0.70798606,-0.11243016,0
-4.1426072,-2.3137932,1.5262862,-0.83111215,-0.46420565,0.30621177,0
-0.081375822,-5.0152965,0.28720108,-0.016196862,-0.99823338,0.057163861,0
-0.20134734,1.8464472,-4.6937199,-0.039887644,0.36578795,-0.92984307,0
1.8718852,3.0529351,-3.420433,0.37799492,0.61648756,-0.69069743,0
-4.5870485,0.17751555,-2.0753133,-0.91052574,0.035236705,-0.41194814,0
-1.7391226,0.24677634,-4.6793251,-0.34795308,0.049373511,-0.93621093,0
-2.8482327,1.1390108,-3.8723378,-0.5765515,0.23056345,-0.7838552,0
-1.5204129,4.4367023,1.7639381,-0.30343115,0.88543952,0.35203183,0
-0.035259157,4.5404744,1.8289665,-0.0072029093,0.92754984,0.37363002,0
3.9851403,3.0524743,0.42767975,0.79100996,0.60588521,0.084890097,0
-3.5925682,2.5630832,2.2988698,-0.72197664,0.51508731,0.46198994,0
3.2737048,-3.2502675,1.9935745,0.65141779,-0.64675415,0.39669123,0
1.8593035,0.071601093,-4.6940064,0.36822703,0.014180288,-0.92962778,0
2.3800008,-3.52654,-2.5953007,0.4775646,-0.7076261,-0.52076608,0
3.4234087,-3.6052327,1.0139997,0.6746943,-0.71052861,0.19984169,0
-1.7125236,4.0415177,-2.3685024,-0.34335452,0.81030905,-0.47487578,0
-4.9933515,-0.7341342,-0.54837489,-0.98357552,-0.14460757,-0.10801726,0
4.8320274,-0.42403641,-1.1494812,0.96932554,-0.085063532,-0.23059088,0
0.5670011,-3.7825606,-3.2664504,0.11272821,-0.752029,-0.64941871,0
3.4424238,2.4900253,-2.5636859,0.69373548,0.5018031,-0.51664758,0
4.1805372,1.7332952,-2.1703856,0.83291882,0.345337,-0.43242171,0
0.81877756,4.9220476,0.24598993,0.16389501,0.98524815,0.049239896,0
-3.7661006,3.1008942,0.81259471,-0.76149893,0.62699533,0.16430523,0
-0.22457871,1.2204798,-4.8463106,-0.044891745,0.24396557,-0.96874428,0
-3.77033,-1.7117881,-2.6415236,-0.76764673,-0.3485235,-0.5378195,0
-0.59773403,4.5686636,-2.2167215,-0.1169024,0.89352065,-0.43353739,0
2.305232,-1.9865665,-4.0865855,0.45243505,-0.38989237,-0.80205137,0
0.13780078,4.4933524,-1.9873617,0.028035861,0.91418201,-0.40433294,0
-2.4750633,2.621237,-3.4543848,-0.49571115,0.52498716,-0.69185179,0
-0.2069158,-3.7957761,3.2099938,-0.041587617,-0.7629059,0.64517063,0
1.5080117,-3.9204664,2.8069196,0.29849648,-0.77601886,0.55560291,0
4.0499525,-2.4472003,1.6856971,0.80625039,-0.48718008,0.3355827,0
-1.7012601,-0.31078649,4.7542329,-0.33628306,-0.061432242,0.93975514,0
-0.26555717,1.2297678,4.9215055,-0.052277401,0.24209124,0.96884412,0
-4.7181401,-0.35550565,-1.6964442,-0.93866336,-0.07072705,-0.33750376,0
3.2763915,-0.47208107,3.7337689,0.65661085,-0.09460821,0.74827236,0
3.2371957,-3.5809102,-0.99012285,0.65693212,-0.72668296,-0.20092808,0
-1.73833,4.6549177,-0.23125264,-0.34946319,0.93579602,-0.046489611,0
3.3027771,-0.58396441,3.7456567,0.65689623,-0.1161459,0.74498147,0
-0.97361213,-0.95763022,4.891881,-0.19169651,-0.1885498,0.96317261,0
4.2360563,-0.28446203,-2.764941,0.83608204,-0.05614505,-0.54572397,0
-4.1196418,1.0388302,-2.4442816,-0.84047842,0.21193939,-0.49867588,0
-3.7192562,-2.1369739,2.5754058,-0.74337208,-0.42711946,0.51474935,0
1.1208547,2.0969059,4.4403944,0.22252837,0.41630822,0.88157159,0
2.380254,4.0104365,1.5810215,0.48336792,0.81441575,0.3210645,0
-0.44485474,-4.7334104,-1.4645619,-0.089422762,-0.95148951,-0.29439986,0
-1.1206838,-0.40689826,4.9345069,-0.22075912,-0.080153301,0.97202927,0
0.131487,-1.0894595,-4.951097,0.025927929,-0.21483059,-0.97630715,0
-0.24200311,-0.30015811,4.9992943,-0.048264127,-0.059862323,0.99703908,0
2.8842711,-2.8980479,2.6067111,0.59481972,-0.5976609,0.53757888,0
0.069359161,2.9480174,3.9534757,0.014062813,0.5977208,0.80158103,0
-2.0423069,3.2081006,3.1773963,-0.41211429,0.64735818,0.6411624,0
1.7009034,-0.31443474,4.6408687,0.34342697,-0.063487068,0.93703115,0
-0.35903469,4.1038985,-2.8345933,-0.0717986,0.82068437,-0.56685281,0
1.8581046,4.5196486,-0.59981889,0.37740514,0.91799927,-0.121831,0
3.2796524,-3.6639941,0.18559211,0.6664719,-0.74457562,0.037714951,0
4.0896883,-0.7969045,2.7798083,0.81650287,-0.15910132,0.55498642,0
-4.1720643,-0.12792189,-2.8429573,-0.82611263,-0.02532988,-0.56293547,0
-4.245223,0.096720174,2.4966164,-0.86181891,0.019635076,0.50683582,0
3.2295389,1.0360514,3.6703362,0.64623499,0.20731524,0.73443907,0
-3.5105317,0.75653613,3.5783327,-0.69246989,0.14923052,0.70584399,0
-4.6697836,-1.8339362,0.30705795,-0.92905521,-0.36486229,0.061089292,0
-2.1643009,-1.0590409,-4.3665433,-0.43396851,-0.21235052,-0.87554473,0
1.9217048,2.0437124,4.0572386,0.38958985,0.41432461,0.82252955,0
2.3443973,2.3276768,3.7500482,0.46909398,0.46574834,0.75035274,0
4.6918311,-0.39689082,-1.7369289,0.93486285,-0.079081811,-0.34608883,0
1.5388907,-4.0838346,2.4186337,0.30842233,-0.81847644,0.48473918,0
-2.3535051,3.3733826,-2.9052172,-0.46735752,0.66988409,-0.5769161,0
-2.1732829,-1.9633859,4.0621204,-0.43397263,-0.3920593,0.81114566,0
0.38829374,-4.8535514,-0.79570389,0.07870318,-0.9837653,-0.16128105,0
-2.7237053,3.2920182,2.5945675,-0.54487473,0.65856516,0.51904082,0
-3.478507,-3.5555029,-0.26734847,-0.69831681,-0.71377385,-0.053670704,0
-0.18493079,-3.7873058,-3.097878,-0.037768725,-0.77348787,-0.63268483,0
-3.6015282,-3.4977746,0.21927255,-0.71668106,-0.69603479,0.043633837,0
-1.7826923,-2.9806864,3.6358807,-0.35454366,-0.59280193,0.72310764,0
-4.0827932,-1.5019912,-2.3706708,-0.82408798,-0.30316815,-0.47850606,0
-4.8087373,-1.5948366,-0.027667549,-0.94914621,-0.31478807,-0.0054610074,0
0.63907313,-2.9898844,-3.9484465,0.12797327,-0.59871912,-0.7906695,0
3.4858174,2.7567124,-2.2278183,0.70119208,0.55452842,-0.44813836,0
4.5224819,0.24766284,2.0579422,0.90906584,0.049782801,0.41366774,0
-0.79245031,-0.65258974,-4.8732872,-0.15911894,-0.13103583,-0.9785248,0
3.4025505,-0.92617601,3.6891921,0.66671467,-0.18148008,0.72288078,0
3.406513,-2.0061276,-3.070081,0.68056422,-0.40079069,-0.61335075,0
-4.7935905,1.2331332,-0.18457313,-0.96779609,0.24896191,-0.037264165,0
0.075704597,-4.2457547,-2.7394602,0.014980935,-0.84017855,-0.54210287,0
1.549395,-3.8061988,-2.8651652,0.30927992,-0.75976807,-0.57192522,0
0.94630051,-4.0437799,2.845886,0.18796125,-0.80320561,0.56527102,0
4.7478671,-0.042741895,-1.6527314,0.94438243,-0.008501648,-0.32873932,0
-2.4633226,-2.8090894,3.4066145,-0.48719993,-0.55558622,0.67376572,0
2.1021094,1.4511534,4.2354116,0.42500761,0.29339635,0.85632187,0
-0.81394947,-3.8121915,3.1758621,-0.16188133,-0.75818294,0.63162738,0
1.3570735,4.1811075,2.3884506,0.27126282,0.83575356,0.4774228,0
-2.0066175,2.2001879,4.0279689,-0.4005881,0.43923125,0.80411756,0
4.9034691,0.21034737,-0.41671833,0.99549931,0.042704597,-0.084601901,0
-4.1378102,2.7749009,-0.43559936,-0.82737511,0.55485481,-0.087100193,0
4.3626823,-0.64951301,-2.6011543,0.85198128,-0.12684236,-0.50797528,0
-3.7970233,2.5991731,-2.1042848,-0.75043648,0.51369566,-0.41588685,0
4.7241235,-1.7900237,0.23378296,0.93412149,-0.35394919,0.046226922,0
-0.34190357,-4.3599606,-2.4917819,-0.067926943,-0.86620557,-0.49504933,0
4.8314152,-0.25647214,0.83050525,0.98419935,-0.052245501,0.16918081,0
-4.5733733,1.8621696,-0.76193047,-0.9153347,0.37270266,-0.15249605,0
3.5468004,2.0989969,-2.6284101,0.72558987,0.4294042,-0.53770936,0
-4.5668631,1.0901346,-1.8329874,-0.90607238,0.21628432,-0.3636674,0
-1.2149816,0.74874949,4.8776617,-0.23906776,0.14732888,0.95976084,0
-1.5731748,-4.7442913,-0.78718317,-0.31090876,-0.93762094,-0.15557212,0
-1.0915555,-4.4314122,2.083643,-0.21757054,-0.88327599,0.41531497,0
2.7691226,3.5808322,-2.1218395,0.55390644,0.71627241,-0.4244307,0
3.5680366,-3.5455596,0.011551416,0.70933563,-0.70486718,0.0022964538,0
1.9821268,-1.8030583,-4.2103109,0.39716825,-0.36128742,-0.84364015,0
0.12915206,-4.7862325,1.302176,0.026028797,-0.96459842,0.26243541,0
-3.0739462,3.4516368,-1.9531235,-0.61261672,0.68788791,-0.38924429,0
4.7527704,-0.74475431,1.5086023,0.94268036,-0.14771706,0.29922122,0
3.5944383,-2.2054336,2.758364,0.71331,-0.43766445,0.54739255,0
-0.61989623,1.6147344,-4.7360563,-0.12294625,0.32025608,-0.93931907,0
4.9788275,0.053631365,-0.40922138,0.99658179,0.010735067,-0.08191137,0
-0.22455692,4.9554682,0.66885358,-0.04486255,0.99001598,0.13362527,0
-0.38641414,1.99621,4.5011182,-0.078236498,0.40416864,0.91133237,0
1.3653669,4.797349,-0.54956549,0.27209124,0.95601887,-0.10951778,0
-1.2653487,4.8057961,0.11268244,-0.25455311,0.96679306,0.022668585,0
0.34202203,4.6882257,1.6355621,0.068719171,0.94195968,0.3286176,0
-1.7655085,-1.8204222,-4.1671076,-0.36192635,-0.37318355,-0.85425019,0
-4.40976,1.0614984,-2.0393343,-0.886724,0.21344838,-0.4100737,0
-4.1443129,-0.74466646,-2.6531107,-0.83272105,-0.1496266,-0.53309232,0
-0.79244328,0.65590793,-4.8885031,-0.15862943,0.13129811,-0.97856909,0
-4.2409124,0.90744954,2.517086,-0.84574145,0.18096758,0.50196838,0
-4.3093824,0.82489455,-2.4093871,-0.86090636,0.16479321,-0.48133501,0
4.9020514,0.40133378,0.60635865,0.98917669,0.080984466,0.12235609,0
-4.8760128,-0.59270805,-0.29470745,-0.99091101,-0.12045106,-0.059890915,0
4.7312346,-0.47310841,-1.810791,0.92988759,-0.092985801,-0.35589698,0
1.4586078,4.5284843,-1.302478,0.29570398,0.91806096,-0.26405174,0
-1.9766915,-2.7631061,3.6653011,-0.39552426,-0.55288118,0.73340505,0
-0.098230846,-3.9744661,2.9770999,-0.019777471,-0.80020577,0.59939939,0
-2.7936332,1.3924853,-3.9139764,-0.55802828,0.27814895,-0.78181684,0
1.7968588,-3.8412869,-2.6723101,0.35847363,-0.76633739,-0.53312635,0
0.19487922,1.0065535,4.9711347,0.03839412,0.19830608,0.97938782,0
-1.623108,-4.3358011,-2.0411148,-0.32079613,-0.85694128,-0.40341228,0
-4.7768788,0.69019538,-1.5356174,-0.94313663,0.13627069,-0.30318898,0
0.75352019,-0.24221574,4.9685307,0.14977011,-0.048142944,0.98754805,0
1.8506833,1.0474983,4.5125556,0.37098765,0.20998134,0.90458614,0
2.2331991,0.84547192,4.3252244,0.45200935,0.17112724,0.87544453,0
4.5277128,0.88502795,2.0105276,0.89970124,0.17586379,0.39951169,0
1.6829349,-3.9922018,2.432194,0.3387242,-0.80351019,0.48952752,0
2.4898298,4.200016,1.1798906,0.49567598,0.83614033,0.23489295,0
1.6699674,0.69388837,4.6996808,0.33163223,0.13779655,0.93329102,0
-0.65659302,0.87011498,-4.841383,-0.1323088,0.1753352,-0.97557777,0
-1.907864,2.7573528,-3.8288035,-0.37486517,0.54177636,-0.75229949,0
-0.36860797,5.0193787,-0.28048164,-0.073126279,0.9957692,-0.055643339,0
-2.0840285,2.0397341,3.9671235,-0.42327398,0.41427764,0.80573767,0
3.9543729,-0.97261614,-2.8788562,0.79292524,-0.1950276,-0.57726413,0
-4.9069133,1.2872384,-0.30152681,-0.96556681,0.25329867,-0.059333492,0
4.3079271,-2.342694,1.2461861,0.85143834,-0.46302071,0.2463019,0
-4.4327292,0.4051446,2.3034573,-0.88444078,0.08083652,0.45959756,0
-0.75828069,-1.5512291,-4.7128453,-0.15107647,-0.30905998,-0.93896633,0
-4.900466,-0.69945616,0.8836531,-0.97456074,-0.13910158,0.17573301,0
-4.4288096,-2.1176174,0.62068766,-0.89504862,-0.42796385,0.12543903,0
3.241174,1.7325345,3.3446274,0.65224648,0.34865129,0.67306519,0
2.5928824,-3.2903101,-2.8649786,0.51089633,-0.64831609,-0.56450963,0
-4.3873343,-1.8046819,-1.8409932,-0.86217248,-0.35464519,-0.36178085,0
1.5439698,1.9126903,4.3446412,0.30930081,0.38316596,0.87035447,0
2.7066538,-2.145009,3.5109191,0.54959738,-0.43555307,0.71290684,0
1.5571831,-0.91580921,-4.7507358,0.30637416,-0.1801845,-0.93470228,0
-0.26556191,0.63422054,4.8833323,-0.053850129,0.12860601,0.99023265,0
2.578172,1.7061828,3.8358922,0.52330899,0.34631547,0.77859694,0
-1.4269745,1.6745459,4.4451771,-0.28770608,0.33762133,0.89623493,0
0.75840992,-4.5651102,1.8137628,0.15258443,-0.91845417,0.36491078,0
-2.6298375,-3.1342497,-2.7716966,-0.53215665,-0.63422614,-0.5608623,0
4.1608005,2.7795041,-0.27748695,0.83025432,0.55462772,-0.055370294,0
-0.12352511,-3.7222409,3.2552564,-0.024972649,-0.75251275,0.65810406,0
4.69348,-0.16516264,1.7616181,0.93571895,-0.032927766,0.35120624,0
3.5844028,-0.064695105,3.5218151,0.71324784,-0.012873454,0.70079374,0
-3.3422425,1.4302316,-3.3932443,-0.67208415,0.2876021,-0.68233997,0
1.9176099,-2.2762733,3.984973,0.38554248,-0.45765305,0.80119336,0
4.7020154,0.70499027,1.3200487,0.9529016,0.14287201,0.26751858,0
3.8774724,1.9226884,2.5267274,0.77370346,0.38364959,0.5041784,0
4.4862823,0.41052365,-2.0631626,0.90540749,0.082850598,-0.41638103,0
0.5048824,4.9861903,0.89142013,0.099184282,0.97953844,0.17511973,0
2.1723461,-2.2270253,3.9432728,0.43250036,-0.44338664,0.78508067,0
1.2365049,-2.7489834,4.0058651,0.24664672,-0.54834211,0.79905343,0
-1.7977729,4.5885978,0.27886552,-0.36420992,0.92960173,0.056495227,0
-1.0330013,-4.074019,-2.6290939,-0.20837119,-0.82178813,-0.53032601,0
-0.39574376,1.0396316,4.903337,-0.078708962,0.20677097,0.9752183,0
-2.2481134,4.2475252,-0.97794408,-0.45839927,0.86608726,-0.19940668,0
-3.1979504,-2.9571743,2.4643199,-0.63901985,-0.59090757,0.49242458,0
0.85704434,-4.7318053,0.94857973,0.1748549,-0.96538687,0.19353002,0
-3.764926,2.9893436,-0.93201762,-0.76884073,0.61045796,-0.1903286,0
-4.0470204,-0.55886948,-2.8138196,-0.81582063,-0.11265998,-0.56722522,0
1.5034949,0.58042282,-4.6509867,0.30544543,0.11791693,-0.94488025,0
-1.6551558,1.844234,4.2861724,-0.33431002,0.37250024,0.8657254,0
-3.2363038,3.2480721,1.916913,-0.65120345,0.65357149,0.38571793,0
1.4108928,-4.6029811,-1.6910318,0.27649876,-0.90206611,-0.33139881,0
0.57308531,1.9655842,4.6112456,0.11358688,0.3895835,0.91395992,0
1.4249892,1.317028,4.6412411,0.28326797,0.26180679,0.92261392,0
2.9435906,-2.1117165,-3.465328,0.58716339,-0.42122793,-0.6912353,0
1.3009305,-3.332849,-3.5293498,0.25886095,-0.66317493,-0.70227492,0
3.2411268,0.91860557,-3.7342553,0.64445472,0.18265243,-0.74250674,0
1.6030474,-2.3986864,4.0322566,0.32332024,-0.48379347,0.81326985,0
0.27551103,-1.7324023,4.6491399,0.05544522,-0.34863734,0.93561625,0
0.64362043,4.5263634,1.7129734,0.13182831,0.92710358,0.35085645,0
1.9134949,-2.7206388,3.8790123,0.37447539,-0.5324353,0.75913167,0
-2.9831419,4.0192552,-0.61809111,-0.59149772,0.79693836,-0.12255517,0
4.3366809,-2.2341871,-0.5803597,0.88273823,-0.45477232,-0.11813314,0
0.53197354,-4.4138923,2.3466344,0.10582032,-0.87801266,0.46679315,0
-1.8602285,3.7475338,2.8845799,-0.36605296,0.73743403,0.56762326,0
-4.4542251,-0.79692286,2.181402,-0.88670981,-0.15864472,0.43425521,0
-2.5646505,-0.64731938,-4.185184,-0.51800847,-0.13074566,-0.8453241,0
-2.4207702,1.013628,4.132544,-0.49449328,0.20705485,0.84415913,0
3.8796303,-0.17769051,-3.1416149,0.77665883,-0.035571661,-0.62891632,0
1.6675531,-2.7271945,3.9105608,0.33015475,-0.53995055,0.77424234,0
-3.0549018,-3.2707846,2.1613486,-0.61465615,-0.65809244,0.43487033,0
1.8780659,1.0341487,-4.526155,0.37499365,0.20648859,-0.9037379,0
4.6165814,1.5599948,-0.66666454,0.93863112,0.31717402,-0.13554446,0
4.0982485,-2.0535045,-1.8729873,0.82762337,-0.41469625,-0.3782416,0
-1.9394079,4.0178571,2.4984229,-0.37928143,0.78575456,0.48860553,0
-1.8167874,-3.0438771,-3.4241512,-0.3686243,-0.61759955,-0.69475675,0
1.8749363,-3.4879706,2.9586091,0.37930021,-0.70561755,0.59852755,0
4.5045938,-1.9920858,-1.1559148,0.89036959,-0.39375195,-0.22847596,0
2.1521928,-4.4119868,-0.86073679,0.43183628,-0.88526267,-0.17270635,0
-4.8288279,-1.3087189,0.23405667,-0.96412587,-0.2612994,0.046731856,0
3.7894638,-1.8526963,-2.9204881,0.73861855,-0.36111596,-0.56924325,0
3.4328606,2.9803085,2.1932936,0.68011039,0.59045184,0.43453026,0
0.14192115,-1.5973887,-4.7044845,0.028553791,-0.32138625,-0.94651765,0
1.4225535,-4.7000518,0.5895437,0.28762406,-0.95029676,0.119199,0
-1.2164304,-4.5560045,-1.7323298,-0.24213699,-0.90689707,-0.34482953,0
-3.4989393,1.941902,-2.9520941,-0.70362008,0.39050728,-0.59365213,0
0.59213835,-3.4151254,-3.64694,0.11769116,-0.67877728,-0.72485185,0
-2.5055289,-2.0173388,-3.85799,-0.49880248,-0.40161324,-0.76805139,0
-1.3741982,-2.2728696,4.2845688,-0.27260318,-0.45087489,0.84994078,0
-1.2640435,-3.8641913,-2.7791901,-0.25666887,-0.78463888,-0.56432521,0
4.1504273,-0.6578396,-2.6673148,0.83387369,-0.13216835,-0.53589749,0
-0.069882743,4.4561086,-2.36357,-0.013852909,0.8833378,-0.46853226,0
-2.994643,3.5259256,-1.8202592,-0.60239166,0.70926255,-0.36615682,0
4.6451197,0.4504514,-1.8432436,0.92574173,0.089771993,-0.36734632,0
3.7554774,-1.56335,2.8607929,0.75515693,-0.31436071,0.57525241,0
-0.15647915,-3.9425044,-3.2047477,-0.030784002,-0.77560532,-0.63046712,0
2.002208,0.80533367,4.5100718,0.40045646,0.16107272,0.90204781,0
-4.9646049,-0.24955428,0.29258004,-0.99701351,-0.050116573,0.058757193,0
-4.3520298,-2.2298205,-1.4372932,-0.85386336,-0.43748829,-0.28199533,0
4.3907094,-1.8897998,-1.8637596,0.85578519,-0.36833745,-0.363262,0
-3.6480236,-2.5035725,-2.2621036,-0.73412526,-0.50381684,-0.45522383,0
3.0552654,-3.7673347,-0.90357977,0.61923248,-0.76355267,-0.18313497,0
-3.0821342,-3.9988201,-0.65545034,-0.6053915,-0.78544652,-0.12874328,0
0.55660027,4.2292714,2.3843937,0.11389619,0.86542881,0.48791453,0
-4.4710865,1.1082336,-2.0554483,-0.88638675,0.21970578,-0.40748978,0
1.8257484,3.7595901,-2.6361551,0.36948183,0.76083881,-0.53348613,0
2.2615085,4.2696614,1.3447522,0.45092589,0.85133481,0.26813233,0
-4.3700099,0.73880994,2.144635,-0.88755578,0.15005344,0.43557867,0
3.7497864,0.12460305,3.3872025,0.74184769,0.024651134,0.67011505,0
2.1485465,4.0476809,1.8965371,0.43321675,0.81614393,0.38240346,0
-4.1000576,-2.740288,0.70196682,-0.82310551,-0.55012548,0.14092308,0
4.3180432,-1.0817163,2.1590879,0.87278146,-0.21864115,0.43640414,0
3.1282625,-0.92176831,3.6750937,0.63667321,-0.18760101,0.74796593,0
-1.9921478,-0.77853316,-4.5420966,-0.39680278,-0.15507089,-0.90471023,0
3.3818195,-2.0441341,2.9070549,0.68936157,-0.41668323,0.59258389,0
4.7582903,-1.3735276,0.250559,0.95954561,-0.27698234,0.050527137,0
-1.7825403,-2.8816047,3.7225003,-0.35412154,-0.57246292,0.7395162,0
2.8827736,-3.7585471,1.3922706,0.58389395,-0.76127827,0.28199866,0
-3.9937987,-3.1394048,-0.51669407,-0.78214723,-0.61482233,-0.10118958,0
-4.6387296,1.56615,1.051396,-0.92633766,0.31275451,0.20996001,0
2.2598951,4.4834318,-0.80897039,0.44437659,0.88160384,-0.15907265,0
-1.6642556,-4.753221,-0.28856984,-0.32992041,-0.94227391,-0.057205804,0
-0.9921928,4.7974296,1.1818578,-0.19688317,0.95196533,0.23451886,0
-2.5596316,1.0516294,-4.2383962,-0.50567794,0.20775872,-0.83733273,0
-4.474237,2.2189415,0.19695276,-0.89518249,0.44395447,0.039405301,0
-2.3712742,0.51550621,-4.3734074,-0.47410902,0.10306954,-0.87441254,0
4.9616556,0.60788059,-0.32476357,0.9904902,0.12135057,-0.064832218,0
-1.4247307,4.418025,-2.1204994,-0.27916947,0.86569178,-0.41550216,0
-2.3972929,-1.4445845,4.1398787,-0.47972316,-0.28907633,0.82843262,0
3.6804426,2.1908102,-2.4257731,0.74769795,0.44507262,-0.49280638,0
-4.2332764,2.0747302,1.543759,-0.85336649,0.41823518,0.31119919,0
4.2516923,-2.2828283,1.3852222,0.84683925,-0.45468685,0.27590439,0
1.6592218,3.49632,3.0946288,0.33484462,0.70558614,0.62452155,0
2.2080159,2.4328451,-3.8390625,0.43697417,0.48146868,-0.75976408,0
4.392581,1.5436445,-1.5413617,0.89563602,0.31474516,-0.31427971,0
-2.5774446,-2.485611,-3.4620407,-0.51748812,-0.4990502,-0.69509351,0
-2.2129912,-2.0284986,-4.0683928,-0.43768901,-0.40119976,-0.80465335,0
-0.40326372,-4.4274864,2.3113155,-0.080480002,-0.88360071,0.46127301,0
-1.0298634,4.8578205,0.74666446,-0.20508638,0.9673835,0.14869031,0
4.8114462,0.072289348,-1.4544158,0.95712388,0.014380263,-0.28932175,0
0.48078847,-3.531997,-3.6329451,0.094464108,-0.69395792,-0.71379191,0
3.3241761,3.3917747,1.44368,0.66969478,0.68331331,0.29084653,0
3.11448,-1.6624999,3.4360228,0.63219255,-0.33746246,0.69746089,0
-4.2072129,-2.2005093,-1.2673168,-0.85614067,-0.44778946,-0.25789079,0
3.0880077,-1.1312702,-3.7630951,0.61789262,-0.22636068,-0.75297379,0
-2.2688336,1.4309806,-4.190248,-0.45602056,0.28761765,-0.84221214,0
3.7766278,1.7449659,2.6154673,0.76852709,0.35509285,0.53223604,0
4.4506164,2.3171546,0.81719875,0.87545097,0.45579201,0.16074571,0
-0.66712624,-1.3779308,4.7513947,-0.13364057,-0.2760309,0.95181257,0
-0.46695662,1.5210563,-4.739706,-0.093397908,0.30423269,-0.948008,0
4.8574057,-0.9714064,-0.71793306,0.97044432,-0.19407393,-0.14343336,0
2.9953299,2.0964863,-3.4164095,0.59859794,0.41896966,-0.68274802,0
2.529923,-0.30880991,4.2266231,0.512586,-0.06256777,0.85635322,0
-4.3350182,-2.4886222,0.78492212,-0.8567543,-0.49184054,0.15512863,0
-0.4987877,0.95556629,4.9381003,-0.098684296,0.18905717,0.97699475,0
0.97783691,-3.3334582,-3.5599923,0.19658576,-0.67016333,-0.71570605,0
-0.84394979,-2.7656193,-4.1547794,-0.16672504,-0.54635715,-0.82079023,0
-2.485527,1.5448319,-3.9800894,-0.50312394,0.31270707,-0.80565542,0
-0.41133276,0.073417425,5.0276055,-0.08153376,0.014552691,0.99656439,0
3.7511117,-3.0742857,-1.2902205,0.74743599,-0.6125735,-0.25708571,0
1.8398205,4.6886177,-0.32265162,0.36453766,0.92899156,-0.063929424,0
-0.022340983,-4.1959782,-2.8437781,-0.0044074566,-0.82778776,-0.56102407,0
4.3248534,2.3051507,-0.66155863,0.87454265,0.46613201,-0.13377592,0
-2.8327415,-1.1797069,4.0115428,-0.56087172,-0.23357736,0.7942698,0
-0.30794075,2.6691856,-4.3465462,-0.060262673,0.52234811,-0.8506003,0
4.3135085,2.1002626,-1.0516346,0.87823641,0.42761645,-0.21411428,0
1.0533164,-3.9338429,-2.9599743,0.20922026,-0.78137934,-0.5879398,0
0.09815257,-3.1083629,-3.8736467,0.019758692,-0.62573183,-0.77978796,0
-3.0211873,3.9644735,0.68321228,-0.60050905,0.78800213,0.1357993,0
-0.95654124,4.4310331,1.8738396,-0.19500834,0.90334672,0.3820163,0
-4.0131445,0.80590451,2.8698139,-0.8027792,0.16121109,0.57407027,0
-1.3526051,2.6310453,-3.9359305,-0.27470937,0.53435612,-0.79937375,0
2.7248046,-4.0310345,0.85856402,0.55149704,-0.81587631,0.17377228,0
4.6079493,2.0306628,0.42875785,0.91178399,0.40181124,0.084839158,0
-4.1157408,1.9649503,-2.1189499,-0.81841016,0.39072803,-0.42135066,0
4.9357004,-1.0099474,-0.47837231,0.97531348,-0.19956951,-0.094528213,0
-2.6705592,-2.974236,2.8502877,-0.54396969,-0.60582602,0.58057886,0
-4.5083704,-1.8221641,-1.0658131,-0.9056378,-0.36603484,-0.21409966,0
2.2119319,-4.2845654,-1.25393,0.44396541,-0.8599717,-0.25168112,0
-4.4236794,-2.3306763,-0.91857201,-0.87015647,-0.45845389,-0.18068701,0
0.86458993,4.8756967,-0.26496375,0.17435309,0.98323238,-0.053432558,0
-1.2611266,2.2741604,4.3036904,-0.25080481,0.45227048,0.85589045,0
-4.0616503,-1.8558515,-2.0360751,-0.82758588,-0.37814102,-0.41486266,0
2.4399076,4.2193675,1.4496641,0.47981972,0.82975918,0.28508353,0
1.2555954,3.4609451,3.3542938,0.25209939,0.69489121,0.67347765,0
-4.7861166,0.037276831,1.6067444,-0.94797951,0.0073833708,0.31824565,0
-2.1333406,-4.0032716,2.2605493,-0.42092049,-0.78986871,0.4460195,0
3.1097333,-1.7239312,-3.4548917,0.62725496,-0.34772897,-0.69687581,0
4.7713456,0.46581894,1.1992369,0.9655174,0.094261937,0.24267453,0
3.3403468,1.0719081,-3.4300399,0.68082392,0.21847452,-0.69910496,0
-4.3388696,0.39646524,-2.5337825,-0.86086261,0.078661531,-0.50272048,0
-4.6634412,-1.4984057,1.0290117,-0.93172407,-0.29937133,0.20558959,0
-1.0348119,-1.0306644,4.7122536,-0.20975631,-0.20891564,0.95517361,0
-0.34386155,-3.0435064,-3.9738538,-0.068536013,-0.60660982,-0.79203993,0
-1.8547555,-4.4178147,-1.0318366,-0.37842783,-0.90137166,-0.21052678,0
-0.64319348,-1.3258295,4.7376232,-0.1296366,-0.26722291,0.95487493,0
2.3523552,1.6328417,4.0429168,0.47481242,0.32958183,0.81604475,0
0.91837704,-2.7111709,-4.0696511,0.18457864,-0.54490066,-0.81793278,0
-0.51024562,-3.7238486,3.1186073,-0.10447365,-0.76246428,0.63854009,0
1.0293565,-4.5121088,-1.6294543,0.2097941,-0.91961712,-0.3321006,0
-1.5711175,-4.3703604,1.9591581,-0.31169799,-0.86704689,0.38868234,0
-3.5449612,3.6958592,0.26154175,-0.69131947,0.72074682,0.051004481,0
3.7294462,-0.2338995,3.3289809,0.74521005,-0.046737302,0.66518992,0
2.5925524,1.65932,-3.9427731,0.51830184,0.33173046,-0.78823733,0
4.2284513,-1.8985854,1.8914155,0.84464556,-0.37924802,0.37781581,0
-0.32662314,-3.4039302,3.6295323,-0.065499179,-0.68260515,0.72784615,0
-1.6854606,4.2879949,2.0626128,-0.33388847,0.84944856,0.40860206,0
3.9696867,-2.6486766,-1.5068699,0.79323077,-0.52926391,-0.30110577,0
4.6730189,-0.99085337,1.4499078,0.93608159,-0.19848402,0.29044008,0
-3.2048438,3.5825634,-1.2341125,-0.64578074,0.72189182,-0.2486755,0
-0.20750989,-4.8851423,-0.41949072,-0.042284157,-0.99544227,-0.085479356,0
3.2909527,1.4905051,3.4688437,0.65707636,0.2975964,0.69259435,0
-3.411263,2.2160306,-2.9979579,-0.67506421,0.43853638,-0.59327412,0
2.0264621,-2.4488142,-3.8009949,0.40898338,-0.49422306,-0.76712203,0
-0.43678966,4.9562287,0.42100498,-0.087476566,0.99259192,0.084315345,0
-2.7238576,4.095274,0.21478134,-0.55328226,0.83185059,0.043627359,0
4.395164,0.3151443,-2.4523363,0.87155664,0.062492803,-0.48629585,0
1.6680228,4.7490563,0.68155092,0.32838944,0.93496323,0.13417929,0
1.1001278,-0.84173411,4.7050738,0.22429872,-0.17161632,0.95929039,0
3.57005,-1.7417595,-2.987772,0.7182492,-0.35042012,-0.60110217,0
-2.3672423,1.7859577,-4.0916715,-0.46846008,0.35342807,-0.80971211,0
-3.9958196,-2.8222411,-1.3952796,-0.78548336,-0.55478567,-0.27427888,0
-4.4221549,2.4365561,-0.30731824,-0.87423217,0.48169181,-0.06075488,0
-4.3968115,-1.8996955,-1.1083105,-0.89434934,-0.38641444,-0.22543989,0
-1.0072578,-0.25297713,-4.9439974,-0.19938204,-0.050075658,-0.97864145,0
-4.384552,0.56083107,-2.2491138,-0.88405883,0.11308058,-0.45348963,0
3.7108748,0.70098674,3.1485636,0.75472581,0.14256822,0.64036173,0
1.0903403,-4.4273319,1.9823252,0.21930082,-0.89047205,0.39870632,0
3.9639623,0.54080373,-2.9477382,0.79767925,0.10882745,-0.59318161,0
3.0026717,2.0887818,3.1810112,0.61943179,0.43090221,0.65622211,0
-3.2458065,-3.1216676,-2.195786,-0.64784694,-0.62306941,-0.43826804,0
-0.61885858,3.398361,3.6499686,-0.12314743,0.67624402,0.72631174,0
-4.8464198,-1.6280279,-0.20312761,-0.94719666,-0.31818593,-0.039699778,0
-3.2327676,2.2962685,-2.8022041,-0.66579354,0.47292006,-0.57711834,0
-4.0718327,0.98799914,2.6731279,-0.81927103,0.19878986,0.53784531,0
-2.6853325,-3.3105948,2.5943868,-0.53812343,-0.66342199,0.51989847,0
-0.79319364,3.4344273,-3.4156151,-0.16160432,0.69972605,-0.69589329,0
-4.4976649,-1.5541793,1.4951241,-0.90170223,-0.31158546,0.29974592,0
1.8462358,0.050636198,-4.5736489,0.37430128,0.010265858,-0.92725033,0
-4.9424438,0.033522215,0.28484806,-0.99832046,0.0067711263,0.057536241,0
-2.7946432,2.4562259,3.3259833,-0.55999088,0.49217883,0.66646093,0
-3.5035515,-1.7767603,-3.0850015,-0.70142633,-0.35571519,-0.61763078,0
-0.7531687,4.5670514,-1.835627,-0.15125594,0.9171831,-0.36864179,0
3.7534809,3.2031882,-0.12477447,0.76042175,0.64893734,-0.025278196,0
2.7407811,1.5235757,-3.7850018,0.55761087,0.30997089,-0.7700572,0
3.4357193,2.7940834,-2.2020085,0.69468874,0.56495249,-0.44523734,0
-0.38055804,4.5544581,-1.6887388,-0.078105718,0.93475682,-0.34659669,0
2.6508062,3.8363798,1.7820486,0.53100854,0.76850224,0.35697934,0
2.2167084,1.6020758,-4.1444898,0.4464125,0.32263452,-0.83463931,0
-2.5378098,2.2931392,3.7387037,-0.50082737,0.45254251,0.73781931,0
0.57399905,1.9591994,4.5965629,0.11412544,0.38953808,0.91391224,0
-1.5964984,-3.55723,-3.102684,-0.32039511,-0.7138868,-0.6226657,0
-3.2622535,-3.6327176,1.1570683,-0.65014362,-0.72397447,0.23059538,0
-4.7869987,-0.87851495,1.2916144,-0.95066595,-0.17446721,0.256506,0
-1.1683866,-4.7728481,0.35470662,-0.23716058,-0.9687987,0.071998797,0
-1.2047874,4.4324555,-2.1445038,-0.23766685,0.87438476,-0.42304349,0
-3.2999856,2.8584006,2.3349967,-0.66652685,0.57733607,0.47161961,0
1.157288,2.5122414,-4.1079435,0.23368412,0.50728166,-0.82949209,0
-0.83124328,-4.4387226,2.144057,-0.16628122,-0.88791847,0.42889541,0
-2.4675956,-4.2931809,-0.87690628,-0.49068722,-0.85370922,-0.17437489,0
-2.4427743,3.7595356,-2.233031,-0.48770037,0.75059199,-0.44582507,0
4.6124582,-2.124414,-0.33794507,0.90628517,-0.41741836,-0.066401601,0
-0.048335809,-5.0390792,0.64439392,-0.0095142787,-0.9918775,0.12684061,0
-1.4878173,2.2726073,-4.2899361,-0.29301655,0.4475762,-0.84487683,0
-0.85817653,2.9098158,-4.0820618,-0.1687353,0.57213008,-0.80261797,0
-2.6354654,-3.9678898,-1.770264,-0.51861894,-0.78081954,-0.34836066,0
3.1787705,2.3713233,-3.1191757,0.63002157,0.46998829,-0.61821008,0
4.4718771,1.8422323,0.99779487,0.90554446,0.37304765,0.20205109,0
-2.6393716,-3.488487,-2.3505208,-0.53149259,-0.70247966,-0.47332644,0
3.7048662,-2.967999,1.6111763,0.73904037,-0.59205139,0.32139468,0
-4.9887309,-0.40617618,-0.5475235,-0.9907915,-0.080668993,-0.10874141,0
4.7414699,-1.5851451,-0.15099017,0.94797134,-0.31692114,-0.03018776,0
-2.6561131,-2.6289654,-3.2442768,-0.53670651,-0.53122091,-0.65555358,0
2.5324519,0.46576777,4.3554888,0.50051451,0.092054479,0.86082006,0
-3.1642315,3.6223049,-1.0394578,-0.64303654,0.73612636,-0.21123907,0
-1.6227157,2.4458303,-4.1267295,-0.32043466,0.48297358,-0.8148976,0
-0.53065115,1.1530875,4.8659368,-0.10552302,0.22929806,0.96761942,0
-2.7109709,2.1755636,-3.5875261,-0.54270691,0.4355242,-0.71818376,0
3.5687442,-1.4036038,-3.196449,0.7148459,-0.28115222,-0.64027238,0
4.6050925,0.97371846,1.6555854,0.92294085,0.19515015,0.33180818,0
-3.9953825,2.5390768,-1.6340607,-0.79779869,0.50700331,-0.32628953,0
4.8645444,0.21475318,-0.83196366,0.98475635,0.043473665,-0.16841896,0
3.239054,1.7705423,-3.3871925,0.64652729,0.35340685,-0.67609626,0
-1.3303001,-4.6134996,-1.2220629,-0.26850095,-0.93116516,-0.24665493,0
-4.405829,0.054846667,-2.4003875,-0.87807697,0.010930882,-0.47839466,0
0.59798586,-3.1977818,-3.7998562,0.11954387,-0.63927126,-0.75963247,0
-3.3384221,-3.7616189,-0.28614205,-0.66271001,-0.74671876,-0.056802046,0
-1.8175757,-1.8318664,-4.1912689,-0.36927611,-0.37217954,-0.85153836,0
-0.11026009,3.8413191,3.3309994,-0.021680793,0.75533074,0.65498501,0
1.0417908,2.5819457,4.1187339,0.20955293,0.51935017,0.82847023,0
-3.2175353,-0.92501014,3.6963544,-0.64517105,-0.1854804,0.74118245,0
-0.88505274,-2.8591018,3.9760411,-0.17784236,-0.57450747,0.79894513,0
4.2059908,-2.2426639,-1.6091983,0.83604038,-0.4457826,-0.3198663,0
3.2775457,2.5812354,2.8899689,0.64580452,0.50860423,0.56943679,0
0.5821932,3.5504529,3.4730418,0.11642307,0.70999569,0.69451547,0
1.8208143,4.423986,-1.281251,0.36764535,0.89325857,-0.25870073,0
1.0420871,4.6538019,1.6475835,0.20653273,0.92234367,0.32653695,0
-1.0845993,2.128839,-4.3030362,-0.22036494,0.43252981,-0.87427533,0
2.0402589,-1.6133729,4.2990165,0.40604943,-0.3210912,0.8555842,0
3.973197,1.4043534,2.690856,0.79465199,0.28087512,0.5381797,0
0.61280251,4.26788,2.5378034,0.12248515,0.85305119,0.50724864,0
-0.61119783,-3.4545612,-3.7172291,-0.11957785,-0.67586792,-0.72725761,0
0.05406414,0.0081897406,-4.9245229,0.010977876,0.00166295,-0.99993831,0
-3.8580728,2.5374165,1.6983868,-0.78413969,0.51572096,0.34519112,0
-1.5962265,-3.1778193,3.5265298,-0.31871739,-0.6345129,0.70413965,0
2.6812465,3.5796275,-2.2659292,0.53478336,0.71396834,-0.45194694,0
-3.1224999,0.80612212,3.7025721,-0.63593674,0.164177,0.75407583,0
2.6345694,-2.7602684,3.2321792,0.52683991,-0.5519762,0.64634508,0
-2.3481183,-3.9058836,1.8425236,-0.47767359,-0.79456705,0.37482134,0
0.26796347,-4.3729596,2.4342799,0.053464215,-0.87249523,0.48568884,0
-1.5157254,2.7229581,3.9522614,-0.30115026,0.541008,0.78525084,0
-2.7664254,2.6392515,-3.1551487,-0.55806333,0.53240889,-0.63647938,0
-3.4823079,0.088153064,3.6200559,-0.69315559,0.017546922,0.72057438,0
-4.2223649,2.5949101,-0.5271619,-0.84719133,0.52065259,-0.10577177,0
-0.29136032,-4.7302427,1.7157261,-0.057807084,-0.93849957,0.3404071,0
3.3247871,-0.43505856,3.6066899,0.67513835,-0.088343918,0.73238218,0
2.6788359,-4.2533846,0.40581968,0.53119594,-0.84341884,0.080471434,0
0.71845955,4.8892035,-0.52031296,0.14458759,0.98393595,-0.10471126,0
4.2357149,1.2380973,-2.1220717,0.86501992,0.25284487,-0.43337059,0
1.0988038,-3.9744048,2.7574353,0.22150999,-0.80120802,0.55587679,0
4.4026675,2.1602943,0.64899731,0.88999003,0.43669897,0.13119346,0
3.7137206,3.3714392,0.79860187,0.73119348,0.66380179,0.15723652,0
-0.80054229,-3.9382608,-3.0460515,-0.15875155,-0.78097683,-0.60404724,0
1.9290074,4.2000341,1.7894585,0.38921416,0.8474372,0.36105749,0
4.8097668,0.70680088,-0.80969143,0.97593075,0.14341417,-0.16429128,0
-0.7928986,-1.9585165,4.4773598,-0.16015302,-0.39558944,0.90435606,0
-0.47615221,-4.8845439,-0.8476426,-0.095605984,-0.98076123,-0.17019705,0
0.33185253,2.452991,-4.4299273,0.065394834,0.48338625,-0.87296116,0
0.95680094,0.63610715,-4.9119716,0.18966992,0.12609769,-0.97371691,0
-1.7960792,-0.62979352,-4.6091547,-0.36017627,-0.12629548,-0.92429566,0
2.3022435,4.2362247,-1.1221639,0.4650743,0.85575622,-0.2266874,0
-2.413748,3.8036406,-2.094265,-0.48587111,0.76564705,-0.42156133,0
-3.6268053,-2.6606658,-2.1916537,-0.72483641,-0.53174824,-0.4380137,0
-3.2596824,-2.4778528,2.8197832,-0.65566522,-0.49840498,0.56718218,0
-3.1505041,1.2779328,3.5959563,-0.63663191,0.25823572,0.72664577,0
-3.800663,-1.6637603,2.714818,-0.76654673,-0.33555987,0.54754519,0
-3.2289023,-3.2615056,-1.7147954,-0.6590454,-0.66570002,-0.35000378,0
0.94306439,-0.62900478,-4.7950873,0.19139737,-0.12765816,-0.97317541,0
2.3831465,-0.35126299,4.4218826,0.47327322,-0.069757931,0.87814939,0
-2.0099618,-4.435678,1.1085182,-0.40244338,-0.8881309,0.22195238,0
-4.3345261,2.2795634,-1.2497067,-0.85758597,0.45101163,-0.24725448,0
0.75870109,-2.4336202,4.1828032,0.15488866,-0.49682301,0.85391831,0
-4.7162251,0.36848113,-1.6839401,-0.93922973,0.073382504,-0.33535433,0
4.3796911,1.0779812,2.4309077,0.85477853,0.21038817,0.47443703,0
1.7820485,-3.746572,2.7977021,0.3561275,-0.74872112,0.55909741,0
-2.211252,-4.146698,-1.5619899,-0.44651666,-0.83734006,-0.3154116,0
1.8899629,-4.0137162,-1.974712,0.3891964,-0.82653677,-0.40664861,0
3.9283392,1.5394561,-2.6542854,0.78808302,0.30883771,-0.53248894,0
-0.74685991,0.62430334,4.8892756,-0.14981438,0.12523046,0.98075122,0
-3.0501387,1.4469212,3.6960814,-0.60932201,0.28904945,0.73836106,0
3.2448456,-0.096200541,3.9074171,0.6387518,-0.018937193,0.76917976,0
-1.7114193,-3.4739902,-3.21611,-0.33997357,-0.69010842,-0.63888049,0
-1.4743668,2.6655591,4.0243635,-0.29211441,0.52812386,0.79734206,0
4.7130446,1.4269683,1.0645837,0.93548214,0.28323588,0.21130693,0
2.386656,0.83865184,-4.4127798,0.46921736,0.16487922,-0.86755395,0
-3.1489496,3.8899179,-0.12643924,-0.62899375,0.77700001,-0.025255879,0
3.9711738,2.1747034,1.9648788,0.80459535,0.44061437,0.39810205,0
3.1069229,1.7857387,-3.5645645,0.61468476,0.35329694,-0.70522618,0
2.6771867,4.1810598,-0.29146376,0.53831381,0.8407042,-0.058605909,0
1.1745667,-4.6062684,1.0686874,0.24106978,-0.9453972,0.21933895,0
2.4888251,-3.5000591,-2.705869,0.49030641,-0.68952268,-0.53306472,0
3.7822721,-3.2077687,0.37996191,0.76042306,-0.64491957,0.076391064,0
-3.0329185,-2.8893578,-2.7880321,-0.60273719,-0.57420713,-0.55407047,0
-2.2340565,-3.0607388,3.2787919,-0.44583502,-0.61081022,0.6543256,0
3.6920822,-2.8542149,1.6757959,0.74460292,-0.57562554,0.33796716,0
-4.1621051,-0.83157474,-2.8185129,-0.81690586,-0.16321507,-0.55319595,0
1.1646585,4.5639524,1.7679138,0.23149346,0.90715444,0.35139954,0
-3.2243779,-1.7034062,-3.2540543,-0.65972728,-0.34852725,-0.66579926,0
4.5798249,-1.4853941,-1.1076825,0.92700362,-0.30065903,-0.22420631,0
2.793761,-2.89674,3.1734507,0.54510993,-0.56520283,0.61919379,0
-2.2082264,-2.1625073,-4.0604925,-0.4327336,-0.42377427,-0.7957117,0
-3.3239884,3.1302738,2.0132883,-0.66611999,0.62730002,0.40345854,0
4.7577639,-0.76507765,-1.3617388,0.95010984,-0.1527835,-0.27193478,0
2.8978999,1.4504215,3.7395711,0.58563232,0.29311353,0.75572437,0
-0.45461538,-1.1028086,4.9300361,-0.089627266,-0.21741833,0.97195488,0
-3.7190008,-2.9976077,-1.3749388,-0.74819642,-0.60306501,-0.27661309,0
1.1055895,-4.2589793,-2.4563274,0.21939245,-0.84514904,-0.487432,0
3.5936401,1.2355192,-3.2821813,0.71567899,0.24605556,-0.65365148,0
0.27751392,4.1251302,-2.7348967,0.055982511,0.83215702,-0.55170703,0
-3.8494663,-0.5469647,-3.2229357,-0.76223505,-0.1083048,-0.63817537,0
2.68151,-4.016202,-1.5354573,0.52917439,-0.79256511,-0.30301011,0
-4.8829789,-0.86640501,1.099484,-0.96127951,-0.17056337,0.21644808,0
-2.95855,-2.5152977,-2.9606085,-0.60587186,-0.51509964,-0.60629344,0
-2.9667356,1.3341528,-3.8329546,-0.59013343,0.26538536,-0.76243895,0
4.4914093,1.4822549,1.7933619,0.88793582,0.29303658,0.35454133,0
-1.5348854,-4.1566811,-2.3856447,-0.30499995,-0.82598186,-0.47405592,0
1.6566099,-4.6757312,-0.54820251,0.33193767,-0.93688399,-0.10984425,0
1.0371261,2.8856018,-3.9054911,0.20887063,0.58114195,-0.78654122,0
4.9229913,0.89319575,-0.98053133,0.96556932,0.17518666,-0.1923162,0
-3.0752578,2.7552116,2.8095112,-0.61576927,0.55168533,0.56255794,0
4.4145198,2.0110717,1.3675985,0.8758775,0.39901337,0.27134293,0
-0.62093019,-2.1875985,4.4949989,-0.12326219,-0.43426487,0.89231187,0
2.6601532,-2.939929,-3.0437958,0.53219789,-0.58817065,-0.6089505,0
2.0229726,2.2645426,-4.0046391,0.40252519,0.45059207,-0.79683143,0
-1.5161991,-1.649358,4.4602132,-0.30377039,-0.33044878,0.89360344,0
-0.45239535,-1.9927986,4.6369524,-0.089277908,-0.39326862,0.91507888,0
1.5976238,-1.1552268,4.6913428,0.31395048,-0.22701465,0.92189991,0
-1.021238,1.9047447,-4.5169506,-0.20394671,0.38038775,-0.90205926,0
-3.1352341,-3.674809,1.1089563,-0.63259113,-0.74146026,0.22375233,0
-0.83833033,-1.5590463,4.75003,-0.16537911,-0.30755618,0.93704796,0
1.0709273,4.8379259,0.48189914,0.215114,0.97177988,0.09679766,0
4.9298906,-0.085623838,1.2336971,0.96994811,-0.016846353,0.24272792,0
0.50193918,4.5516996,2.0818763,0.09978275,0.90485287,0.41386557,0
0.086686157,4.010313,2.8380048,0.017641746,0.81615019,0.57757044,0
3.6275983,-2.8349421,-1.9422272,0.72597551,-0.56734467,-0.38868952,0
1.9288133,2.3540256,3.9655178,0.38586232,0.47092673,0.79330844,0
4.9165301,0.63823205,0.10950445,0.99143738,0.12870197,0.022081997,0
-5.0525637,-0.081293121,0.1415744,-0.9994784,-0.016081087,0.028005693,0
0.61132848,4.8632345,0.21335188,0.12460456,0.99125302,0.043486632,0
1.2887964,4.6353803,1.1139508,0.26097003,0.93862402,0.22556531,0
0.18900746,-4.0661416,2.8982432,0.037824918,-0.81373227,0.58000785,0
-1.5319663,3.1808667,-3.4461849,-0.31051299,0.64472729,-0.69850439,0
-0.082812734,-0.5404278,4.9655008,-0.016577434,-0.10818271,0.99399287,0
-0.24999258,-0.93120337,-4.8057995,-0.051002599,-0.1899808,-0.98046213,0
-4.3059139,1.288687,-1.8973486,-0.88259774,0.26414654,-0.38890597,0
-3.8367882,0.74008334,-3.0384967,-0.77513039,0.14951597,-0.61385489,0
-1.5352476,-0.96940905,4.5737267,-0.31198215,-0.19699645,0.92944044,0
4.7462687,-1.62563,0.47960609,0.94175404,-0.3225573,0.095163383,0
1.1000065,2.184902,-4.3015647,0.22229262,0.44153157,-0.86927313,0
2.4481139,0.52761298,-4.3700662,0.4860478,0.10475212,-0.86763161,0
-3.6674075,-1.2840923,-3.1345131,-0.73459977,-0.25720999,-0.6278584,0
3.849396,0.75895232,3.2193139,0.75846905,0.14954083,0.63432026,0
-2.3224409,0.26965669,4.4540887,-0.46167722,0.05360496,0.88542676,0
-1.4630861,4.6993957,0.84414643,-0.29298353,0.94105572,0.16904064,0
-4.8056831,-1.0524256,0.41830996,-0.97333753,-0.21315707,0.084724016,0
1.3398503,-3.5852683,3.1463931,0.2704196,-0.72360831,0.63503093,0
1.9051003,0.38161275,-4.702692,0.37441126,0.074998736,-0.92422473,0
1.3952589,3.1648254,-3.4428737,0.28590262,0.64850461,-0.7054795,0
0.41775939,-4.1090002,-2.940449,0.082398713,-0.81045771,-0.5799731,0
-4.9079256,-0.0035641373,-0.52856737,-0.99425042,-0.000722025,-0.10707748,0
1.9876884,-2.5100782,3.7757349,0.40151164,-0.507034,0.76269579,0
0.40419641,1.3043631,4.7083492,0.082449079,0.26606753,0.96042186,0
2.9738095,3.6961842,-1.8578904,0.58369404,0.7254805,-0.36466342,0
-2.3786886,-1.7794161,4.1705146,-0.46455863,-0.34752053,0.81450284,0
-3.4256325,0.33461872,3.4505911,-0.70287305,0.068657242,0.7079941,0
1.1502615,-2.6911113,4.1036234,0.22821164,-0.53391594,0.81415802,0
-1.6923287,-3.6577404,3.0471702,-0.33494529,-0.72393906,0.60309517,0
