-3.5406568,1.5747509,3.2378173,-0.70116073,0.31184989,0.64118904,0
0.25161463,4.7384868,1.8378984,0.049446169,0.93118596,0.36117548,0
-4.040853,-3.019275,0.19586073,-0.80047697,-0.59810638,0.038799234,0
4.2753849,-1.398972,2.4693389,0.83314288,-0.27261722,0.48119926,0
-2.1080825,3.0839872,-3.4399676,-0.41512194,0.60729635,-0.6773957,0
-0.43994358,-3.0840883,4.0848274,-0.08563856,-0.60034263,0.79514456,0
0.56552935,-4.8233891,1.586161,0.11069503,-0.94411588,0.31047046,0
2.2929752,-0.98750788,4.3281322,0.45891055,-0.19763745,0.86622196,0
-1.8478824,-2.3379366,4.151453,-0.36159948,-0.45749485,0.81236947,0
-1.5049765,3.3895123,3.4297009,-0.29793283,0.67100513,0.6789611,0
0.63389242,-1.6144532,-4.7384753,0.12562445,-0.31995144,-0.93906844,0
4.4466786,-0.5967344,2.4431648,0.87042493,-0.11680909,0.4782427,0
-0.03422397,-4.7820568,1.6037097,-0.0067851935,-0.94808346,0.31794912,0
-3.7985475,2.2967677,2.4337504,-0.75035471,0.4536972,0.4807564,0
2.2496071,0.94271952,4.3919964,0.44778535,0.18764877,0.87422895,0
-3.8796134,-3.1196728,-0.86422181,-0.76781684,-0.6174165,-0.1710387,0
-0.87833476,0.82523715,-4.8049898,-0.17730424,0.16658574,-0.96995485,0
4.3181005,1.7828354,-1.7221596,0.86726457,0.35807177,-0.34588543,0
2.5527616,2.6997869,3.2966452,0.5139212,0.54352033,0.66367966,0
0.26776597,-4.6401691,1.8672094,0.053457763,-0.9263801,0.37277642,0
0.47415829,-5.1044021,-0.51130056,0.092037179,-0.99079734,-0.099246733,0
1.8589032,-4.5933514,0.15236564,0.3749617,-0.92653066,0.030733865,0
3.1450415,2.683286,2.7462044,0.63367736,0.54064071,0.55331784,0
-3.1984179,2.8878469,2.6871202,-0.62980813,0.56865287,0.52912724,0
0.5707593,4.9547472,-0.33575106,0.11417923,0.9911871,-0.067166314,0
2.0554934,0.88328254,4.5782838,0.40337986,0.17333959,0.89846432,0
-1.1927819,1.9617392,4.5563931,-0.23378056,0.38449317,0.89303511,0
1.1686913,4.3474107,2.1798451,0.23365627,0.86917716,0.43581611,0
1.5830922,4.8027034,-0.42051983,0.31197962,0.94646764,-0.082871743,0
4.5510659,1.7784523,1.2506832,0.90231991,0.35260594,0.24796748,0
2.5594954,-1.9189537,3.9965165,0.49998593,-0.37485898,0.78070152,0
-2.3570685,2.2358868,3.7574732,-0.47452188,0.45012575,0.75644946,0
-0.69949591,-3.7725525,3.3711288,-0.13695623,-0.7386384,0.66004258,0
3.874218,0.0018398964,-3.2074654,0.77027553,0.00036580989,-0.63771117,0
-2.544476,3.0126536,3.1578009,-0.50366271,0.59633541,0.6250664,0
2.7827466,2.9394934,-2.8824396,0.56000102,0.59154487,-0.58006328,0
0.65479636,-5.033226,0.84151524,0.1272703,-0.97828919,0.16356215,0
3.6526153,-3.323653,-1.1303786,0.72098237,-0.65604919,-0.22312315,0
-0.31576112,-0.45939788,-4.9395361,-0.063522026,-0.092417598,-0.9936921,0
-0.021688925,-1.8387179,-4.7025671,-0.0042954269,-0.36415261,-0.93132943,0
4.8808093,-1.0386163,0.26577511,0.97671562,-0.2078411,0.053185176,0
-3.8498664,-3.2087495,1.0409958,-0.75211614,-0.62686652,0.20337065,0
2.1700702,-2.7114184,-3.6036062,0.43360689,-0.54177493,-0.72004515,0
4.562778,-0.089694798,-2.0767279,0.91001493,-0.017889015,-0.41418922,0
3.9907641,1.5288841,2.6408188,0.79438674,0.30433398,0.5256716,0
4.6156335,-0.61245435,2.1300702,0.90145701,-0.1196155,0.41601369,0
1.5230705,-4.8194437,-0.20183258,0.30109665,-0.95275849,-0.039900392,0
2.2447345,-2.1695874,4.0211935,0.44094202,-0.42618057,0.78989881,0
3.362375,1.8492001,-3.230166,0.67034566,0.36866894,-0.64398754,0
0.57035899,3.109771,3.9026775,0.11355769,0.61915112,0.77701771,0
3.2126937,2.291352,-3.256742,0.62791455,0.44784018,-0.63652372,0
-2.0081098,-4.5227427,-1.0236574,-0.39738786,-0.89501232,-0.20257311,0
1.1915901,3.5116925,-3.4031515,0.23674504,0.69770288,-0.67613792,0
-3.3647845,2.4211013,-3.0146315,-0.65646976,0.47235709,-0.58815491,0
-2.6891451,2.9531312,3.1249497,-0.5302704,0.58232558,0.61620635,0
1.4910269,4.2503185,-2.2300823,0.29665709,0.8456502,-0.44370076,0
4.0447984,-2.7021983,1.7476195,0.78254181,-0.52279073,0.33810964,0
-3.369925,-3.1057818,1.8930397,-0.67963761,-0.6263659,0.38178328,0
-0.71559364,-2.08652,-4.4390483,-0.14436334,-0.42093304,-0.8955304,0
4.0854497,2.0893195,2.1029294,0.80938143,0.41392171,0.41661802,0
1.1226602,-4.2822576,2.6532791,0.21751921,-0.8297019,0.51408184,0
-3.9343784,-1.9915745,-2.4412031,-0.78057569,-0.39512587,-0.48433161,0
1.602535,-4.7005901,0.45348758,0.32134798,-0.94258481,0.090935498,0
-3.2468066,-3.6578376,1.3901983,-0.63854432,-0.71938115,0.27340811,0
-3.4633214,0.27738613,3.7872682,-0.67385739,0.053970937,0.73688763,0
1.8879187,1.9000357,-4.1907859,0.37958518,0.38202143,-0.84259993,0
-0.99334544,-3.6449492,3.2773633,-0.19861546,-0.72879308,0.65529573,0
2.5956442,1.8968706,3.7553363,0.52506369,0.38371128,0.75965375,0
1.0939435,-3.6052711,3.220439,0.22071323,-0.72739685,0.64975339,0
1.1058706,4.6449285,-1.371084,0.22261158,0.93502337,-0.27599898,0
-2.5138652,-4.2243466,-0.9026677,-0.50297999,-0.84521705,-0.18060784,0
-2.4919155,3.7859008,-2.3749456,-0.48699346,0.73987621,-0.46413413,0
-3.8472793,-1.3448768,-2.9538651,-0.76434314,-0.2671881,-0.58684754,0
-4.9814463,0.97269922,0.69811344,-0.97231001,0.18985756,0.13626218,0
-0.4179979,4.1451764,-2.860976,-0.082707196,0.82018572,-0.56608731,0
3.1628156,-3.7557514,-0.96377927,0.63208365,-0.75058091,-0.19260974,0
-3.6723909,2.8525591,-1.6234047,-0.74561143,0.57915962,-0.32960248,0
-2.7762253,4.1854539,-0.82951117,-0.54537016,0.82220328,-0.16295169,0
-1.0757067,-4.1310897,-2.5829866,-0.21559514,-0.82796067,-0.51768696,0
-4.1406045,-0.76163566,2.831738,-0.81607586,-0.15011153,0.55811006,0
1.1729406,-1.9770597,4.543622,0.23034705,-0.38826337,0.89229578,0
-2.4527214,3.1561751,-3.0713184,-0.48656791,0.62611824,-0.60928446,0
2.8873959,2.4744177,-3.309166,0.57279706,0.4908711,-0.65646714,0
-1.6672875,-3.7166224,-2.9346938,-0.332095,-0.7402873,-0.58454055,0
-0.71459043,-4.9234719,0.82033664,-0.14172088,-0.97644573,0.16269295,0
-0.99497867,3.2639577,-3.8195443,-0.19426538,0.63727397,-0.74574989,0
1.4006381,-1.1701859,-4.7501721,0.27524269,-0.229956,-0.93346751,0
-4.3944836,-2.4939079,0.45563111,-0.86619335,-0.49157232,0.089809105,0
2.93643,2.5081296,-3.3471413,0.57459337,0.49078462,-0.65496033,0
-1.4202223,4.8186517,0.19080374,-0.28250703,0.95851403,0.0379542,0
4.9491882,1.3099048,0.37614381,0.96411496,0.25517294,0.073273808,0
4.6651611,-1.9223956,0.13754323,0.92423379,-0.3808535,0.027249243,0
3.1605988,3.9063549,0.41664129,0.62684405,0.77475047,0.082632802,0
-1.8274785,-3.0646541,3.5012231,-0.36556631,-0.61304921,0.70037985,0
-2.2867801,4.4448733,0.46170348,-0.45554262,0.88544995,0.091974571,0
-4.459516,1.0255516,2.1256201,-0.88385612,0.20325972,0.4212884,0
2.9965558,-3.69468,-1.6052905,0.59684575,-0.73589617,-0.31973734,0
3.3143542,3.4247782,-1.8532383,0.64814949,0.66974384,-0.36241615,0
4.0306993,-1.1628157,2.9654543,0.78458381,-0.22634444,0.57723171,0
2.9516993,-2.6501448,3.1630685,0.58178306,-0.52234638,0.6234442,0
-3.6756008,-2.9779651,-1.8445137,-0.7239061,-0.58650744,-0.36327523,0
0.94357145,0.33672118,4.9281483,0.18762787,0.066956535,0.97995538,0
3.8700292,-3.2896011,-0.41965795,0.75934452,-0.6454578,-0.082341745,0
-4.8395262,1.6623378,-0.25635201,-0.9445771,0.32445452,-0.050034698,0
-3.0443122,3.1005454,2.5971229,-0.60137659,0.61248499,0.51303834,0
1.7440692,3.3102808,3.4367731,0.34328914,0.65157014,0.6764679,0
-0.10059547,-1.878044,-4.7835507,-0.019571131,-0.36537874,-0.93065321,0
3.9344428,-3.081569,-1.1428809,0.76745576,-0.60109347,-0.22293131,0
-3.5175159,3.703474,-0.59862608,-0.68398714,0.72014701,-0.11640389,0
4.5294175,1.6975701,-0.98753613,0.91746908,0.34385616,-0.2000332,0
2.527801,3.6413248,-2.5035903,0.49653584,0.71526527,-0.49178013,0
2.7002754,1.6185164,-3.978847,0.5322116,0.319002,-0.78421205,0
-3.5141416,1.8195745,-3.1012049,-0.69895959,0.36191174,-0.61682689,0
-2.6864862,-0.53957111,-4.3014822,-0.52675092,-0.10579603,-0.84341013,0
3.9822459,2.6739969,1.3156217,0.80063295,0.53760868,0.26450655,0
4.7411737,-0.43266177,-1.8388312,0.92897737,-0.084775001,-0.36029741,0
-4.6901307,-0.78058672,1.8796884,-0.91734612,-0.15267552,0.36764961,0
-1.0438198,2.2645781,-4.3719325,-0.20739277,0.44994083,-0.8686434,0
0.090847813,-3.7303042,-3.4783587,0.01780905,-0.73125786,-0.68186855,0
-1.9409829,-4.2815394,-1.6000814,-0.39086944,-0.86220384,-0.3222197,0
-1.0187168,3.5490401,3.5203698,-0.19968516,0.69566995,0.69005007,0
4.0204701,-2.7811677,-1.2287837,0.79759645,-0.5517388,-0.24377087,0
-2.2930081,2.0641048,-4.0898905,-0.44758672,0.40290561,-0.7983315,0
-1.823682,4.5749073,-0.59112781,-0.36765221,0.92229617,-0.1191707,0
3.5245996,-1.7696791,3.0606449,0.70602059,-0.35448846,0.61308473,0
-1.1966977,1.7225796,4.5570679,-0.23854776,0.34337619,0.90839845,0
4.0240197,0.19218509,-3.0701609,0.79445511,0.037942763,-0.60613644,0
-1.0181695,-2.4911323,-4.150888,-0.20581777,-0.50356966,-0.83908081,0
4.3898182,2.2519531,-0.85198611,0.87677771,0.44978225,-0.17016706,0
0.29716486,2.5429652,4.4315333,0.058063202,0.49687132,0.86587965,0
4.2378459,2.5416141,-1.3162796,0.82869542,0.49700344,-0.25739372,0
5.0350561,0.75889015,0.26450589,0.98750007,0.14883728,0.051876202,0
-1.6454842,-4.3117743,1.9129169,-0.32937187,-0.86307555,0.38290313,0
-4.4715447,0.1329869,2.3269053,-0.88676995,0.026373167,0.46145791,0
-3.9551933,-1.8583773,2.397125,-0.79352903,-0.37284559,0.48093435,0
0.44500896,-4.0011706,3.167357,0.08687415,-0.78110403,0.61832786,0
-4.0684681,3.1876576,0.41389602,-0.78465128,0.61477673,0.079824649,0
-3.3567111,-0.8552708,3.6570244,-0.66639167,-0.16979279,0.7260114,0
-4.5276322,-2.2107265,0.59207535,-0.89246154,-0.43576604,0.11670658,0
-2.319617,2.4632785,3.711015,-0.46189553,0.49050224,0.73895872,0
4.2379661,2.5436914,1.338446,0.82760531,0.49674124,0.26137656,0
-4.6136951,0.46154374,-2.0713997,-0.90849817,0.090884127,-0.40788627,0
5.0310955,-0.32792673,-0.23251729,0.99682301,-0.064972907,-0.046069209,0
1.5269637,-3.1558468,3.5618675,0.3055279,-0.63144869,0.71268874,0
-2.8344316,3.808419,-1.325748,-0.57504469,0.77264559,-0.26896548,0
3.196774,-3.9477162,-0.26598042,0.62845665,-0.77608508,-0.052289329,0
0.44074708,0.88900918,-4.8898444,0.088334806,0.17817578,-0.98002571,0
-4.4859996,-0.43563065,2.3822289,-0.87996334,-0.085452303,0.46729255,0
2.9126999,-3.5928781,-1.9465383,0.58043557,-0.71597975,-0.38790131,0
-1.3137882,-0.39108992,4.9123912,-0.25760266,-0.076683447,0.96320325,0
0.26824591,1.8854344,4.8002877,0.051942758,0.36509284,0.92952096,0
3.9260585,1.1263065,3.0464733,0.77050442,0.22104208,0.59788233,0
-0.59762061,-2.0089042,4.6692252,-0.11676708,-0.39251304,0.91230422,0
-4.326859,-2.4860609,-0.62576091,-0.86033154,-0.49431622,-0.12442325,0
3.9220538,0.13949554,3.1864285,0.77584165,0.027594332,0.63032383,0
0.37036115,4.6850562,2.0531738,0.072214998,0.9135173,0.4003388,0
2.269089,-1.4429381,-4.2390137,0.45201269,-0.28743973,-0.84443051,0
-2.1065681,-2.9423699,-3.4552422,-0.42102852,-0.58807582,-0.69058084,0
-3.5766048,2.2526305,-2.5973222,-0.72092956,0.45405853,-0.5235374,0
1.9889148,-0.87394547,4.6712332,0.38606983,-0.16964224,0.90673673,0
0.65197325,-4.1539378,2.5699689,0.13230024,-0.84292871,0.5215053,0
4.1319036,-2.6611984,0.66799396,0.8330583,-0.53654045,0.13467833,0
-3.6406341,-0.22663541,-3.5375111,-0.71647751,-0.044601895,-0.69618291,0
-3.0395985,-4.0871048,0.45514002,-0.59439379,-0.79923373,0.089002676,0
3.7196889,-0.99334198,3.426367,0.72172153,-0.19273555,0.66480905,0
-4.4716358,1.554994,1.8018262,-0.8827489,0.3069725,0.35569984,0
-2.520107,-1.0450947,-4.2290606,-0.50074607,-0.20766065,-0.84031564,0
-1.6259819,-2.4649525,4.1966538,-0.31686637,-0.48036239,0.81783104,0
-1.1230667,4.4069166,2.0981114,-0.22423574,0.87990165,0.41891685,0
-4.8585534,-0.84582698,-0.98346591,-0.96615833,-0.16819878,-0.19556928,0
4.1092277,-2.7979231,0.99461573,0.81052238,-0.55187482,0.19618244,0
-2.1245883,0.05479623,4.5952377,-0.41963753,0.010823064,0.90762722,0
-2.6833851,0.83601135,4.1005239,-0.53977597,0.16816774,0.82484031,0
-0.52667397,4.9341726,-1.0845175,-0.1036896,0.97142142,-0.21351573,0
4.8263168,1.0856767,0.66359997,0.96695912,0.21751679,0.13295315,0
4.8339338,0.77214772,-1.3111628,0.95385844,0.15236443,-0.25872588,0
-2.5381866,4.0396614,1.8268646,-0.49683726,0.79074341,0.35759959,0
1.177202,-4.3109474,2.4262433,0.23150703,-0.84778535,0.47714189,0
-1.7125638,4.0075474,2.5303447,-0.33983216,0.79523665,0.50210828,0
0.87196499,3.9261227,3.0764275,0.17220554,0.77537519,0.60756779,0
-3.5407119,-1.3735133,-3.3962491,-0.69495648,-0.26958758,-0.6666019,0
2.2427552,1.8281428,-4.1853538,0.44078034,0.35929438,-0.82256931,0
4.7971487,0.69529855,-1.19286,0.96098799,0.13928556,-0.23895948,0
2.311414,-1.1137607,-4.4534922,0.44971618,-0.21669689,-0.86648583,0
2.9146116,1.6996747,3.7161753,0.58067584,0.33862489,0.74037075,0
-1.7754273,4.1671162,-2.0957232,-0.3557331,0.83494329,-0.41990909,0
-0.92046094,-4.6736555,-1.6930776,-0.18207569,-0.92449236,-0.33490643,0
2.1231961,-3.0313754,3.3614893,0.42466632,-0.60631377,0.67234075,0
2.1361089,3.6346467,2.7272253,0.42542708,0.72387558,0.5431537,0
-1.7011156,4.2491751,-2.0910006,-0.33805591,0.84442163,-0.4155362,0
3.7664378,-2.4230042,-2.3629777,0.74381703,-0.47850832,-0.46665397,0
-3.4462976,3.3979552,-1.797681,-0.66752219,0.6581586,-0.3481974,0
1.4442852,4.734376,0.60340118,0.28964379,0.94945425,0.12100894,0
4.8107324,0.26572356,-1.4835874,0.95426273,0.052709248,-0.29428619,0
0.39452773,2.9595826,4.1982832,0.076581545,0.5744828,0.81492627,0
-0.065967597,-4.8342791,-1.1102151,-0.01329841,-0.9745425,-0.22380829,0
1.3091037,1.3447403,4.6142755,0.26280221,0.26995623,0.92631447,0
0.86765915,1.4114349,-4.86516,0.16882074,0.27462339,-0.94661587,0
4.4039936,-1.1657394,2.1214123,0.87634945,-0.23197015,0.42213923,0
-4.4304538,-0.61347795,2.5085599,-0.86394405,-0.11962897,0.48917237,0
1.7377918,2.309366,-4.1197,0.34532091,0.45889983,-0.81863576,0
0.83282447,-2.6467669,-4.2729659,0.16346489,-0.51950133,-0.83868796,0
4.3144507,2.2552533,1.6217508,0.84080267,0.43950507,0.31604773,0
-1.3713895,4.7638164,0.1802319,-0.27645868,0.96033871,0.036332987,0
0.87679952,3.0573726,3.9699049,0.17236456,0.60102987,0.78041887,0
-4.2366514,2.7225623,-0.8817367,-0.82866329,0.53251666,-0.17246234,0
-3.0202985,1.9408344,-3.7168324,-0.58447057,0.37557897,-0.71925974,0
1.2139827,4.7312894,1.5139982,0.23739304,0.92519867,0.29606074,0
-0.71313584,2.3417871,-4.5068898,-0.13904537,0.45659557,-0.87874168,0
2.4017327,-0.58215809,-4.380197,0.47755289,-0.11575446,-0.87094444,0
-3.4303939,-1.2528974,3.330025,-0.69408727,-0.25350446,0.67377913,0
2.8503106,1.6732011,-3.8767784,0.55949473,0.32843691,-0.76098275,0
1.3670772,4.762805,-0.032108914,0.27588609,0.96116853,-0.0064798114,0
-2.9450779,-1.0802701,3.9547095,-0.58343893,-0.21400848,0.78345352,0
-3.3988636,-0.53216738,-3.7804933,-0.66494226,-0.10411144,-0.73960298,0
-0.56287998,4.9338036,1.0087513,-0.11108235,0.97366852,0.19907346,0
4.4393563,-1.2321141,-1.9674699,0.88615501,-0.24594648,-0.39273337,0
-0.049573075,-4.0073943,-3.1789916,-0.0096908864,-0.78339303,-0.62145114,0
3.3010864,2.3794451,-2.8475068,0.66465575,0.47908828,-0.57332993,0
-2.0544648,-2.4922612,-3.8392997,-0.40948337,-0.49674225,-0.76522571,0
-3.4286017,1.5371871,3.2789733,-0.68751127,0.30824038,0.65750748,0
-2.1742561,2.6598742,3.7573771,-0.42706254,0.52244657,0.73801565,0
0.88532108,-1.9293085,4.6474514,0.17327678,-0.37760806,0.9096083,0
4.4433737,1.9854511,0.93178904,0.89671278,0.40068188,0.1880434,0
0.40758705,-3.1892118,3.9094117,0.080523916,-0.63006866,0.77235311,0
-0.19045934,4.2873921,2.6637692,-0.037706465,0.84880263,0.52736354,0
-1.4885876,-0.27078077,-4.9000082,-0.29027012,-0.052801438,-0.95548689,0
-3.8758953,-0.04335507,-3.146775,-0.77631897,-0.0086837653,-0.63028049,0
-3.589762,-2.166599,-2.8251457,-0.71001631,-0.42852998,-0.55878341,0
-3.5129831,2.6662729,2.2649326,-0.70857412,0.53779131,0.4568404,0
4.1297584,1.4735482,2.4911442,0.81890583,0.29219559,0.49397868,0
4.0702682,0.84601146,-2.679081,0.82298547,0.17105879,-0.54169524,0
4.8059306,-1.114223,1.0591831,0.95245719,-0.22082086,0.20991285,0
0.71583062,-3.691972,-3.3250523,0.14259958,-0.73547238,-0.66237879,0
-0.25548354,4.4682364,2.2453504,-0.051023282,0.89236307,0.44842476,0
2.5820036,2.6653769,3.3546991,0.5161429,0.5328092,0.67060483,0
3.8119783,-3.1809793,-0.939816,0.75439525,-0.62951976,-0.18599077,0
4.8174205,0.26302442,1.648309,0.94488937,0.051589638,0.3232995,0
4.7728043,0.84916407,1.0342284,0.9628703,0.17131121,0.20864628,0
0.82904428,2.8552821,4.1672931,0.1619478,0.55775869,0.81405056,0
-0.33098578,3.6271315,-3.6264496,-0.064397573,0.7057054,-0.70557272,0
-4.257833,-2.4633515,1.4388496,-0.83076656,-0.48063651,0.28074095,0
-1.5363448,1.0895364,4.7501073,-0.30066109,0.21322115,0.92959106,0
-0.77523273,4.8730097,1.0633088,-0.15358572,0.96541935,0.2106581,0
4.0006595,1.7720277,-2.65311,0.78182703,0.34629771,-0.5184828,0
2.0729682,-3.9610131,-2.3200557,0.41156352,-0.78641266,-0.46061984,0
-4.0874734,-2.7744823,0.96994102,-0.81189609,-0.55109626,0.19265968,0
-1.8270435,-4.062571,2.3454711,-0.36292174,-0.80698425,0.46590158,0
1.0082239,4.8652296,1.0573201,0.19847503,0.95775014,0.20813993,0
0.54698306,3.4632118,3.5591116,0.10948358,0.69319296,0.71238816,0
-3.5502357,3.4619195,0.6825186,-0.70926893,0.69162506,0.13635412,0
4.5357823,0.93738538,2.0496612,0.89553398,0.18507512,0.40468019,0
2.2205317,-4.3811479,-1.551466,0.43109185,-0.85055172,-0.30120009,0
4.2371831,1.2466444,-2.5160325,0.83357674,0.24525107,-0.49497649,0
1.1577997,2.0330131,-4.4516678,0.23022397,0.40425676,-0.88519681,0
4.3053055,0.50742644,2.6832788,0.84445161,0.099527679,0.52630389,0
1.8520833,2.1659718,4.1725678,0.36653745,0.42865768,0.82577407,0
4.3813004,0.11112769,-2.3725986,0.87912422,0.022298183,-0.47607073,0
-2.5386717,1.0897813,-4.1452112,-0.50962085,0.21876608,-0.83212256,0
-1.8043387,-2.6794233,3.9001014,-0.35629559,-0.52909505,0.77013755,0
-0.58123755,2.4783673,-4.3961854,-0.11441643,0.48786581,-0.86538768,0
2.8198228,3.4406555,2.4308412,0.55624729,0.67871475,0.47951555,0
1.7822806,3.6549606,-3.0053391,0.35247916,0.72283649,-0.59436172,0
0.087049797,0.92488772,-4.8854017,0.01750469,0.18598403,-0.98239678,0
-4.8046026,1.3020003,0.68840027,-0.95608908,0.25909078,0.13698781,0
-4.4578757,-1.6283857,-1.5442704,-0.89320099,-0.32627103,-0.30941731,0
4.6492348,0.088344693,-1.8263012,0.93061846,0.017683599,-0.3655633,0
-1.7606417,-1.2983404,-4.6477814,-0.34274611,-0.25274941,-0.90478885,0
-1.918491,3.149457,-3.334341,-0.38588449,0.63348049,-0.67066801,0
4.6326385,-0.90264976,-1.9947097,0.9041127,-0.17616248,-0.38929054,0
0.46979979,0.38016441,4.9821301,0.093610771,0.075750321,0.99272293,0
-3.0682662,1.9996781,-3.4106975,-0.61309159,0.39956957,-0.68151516,0
4.4487538,-2.043741,1.1379565,0.88510323,-0.40661314,0.22640249,0
3.8146358,-0.43277866,-3.3192606,0.75164348,-0.085275576,-0.65403378,0
-3.4449265,1.4677331,-3.4091971,-0.68027395,0.2898351,-0.67321843,0
-0.0957691,-3.5983205,-3.568634,-0.018894026,-0.70990288,-0.70404613,0
-0.73016369,-0.79570383,4.9647918,-0.14370784,-0.15660718,0.97715008,0
4.1610484,-2.9505084,0.62861812,0.80961317,-0.57407898,0.12230992,0
-2.3561664,4.5415301,-0.5562889,-0.45781907,0.88245004,-0.1080907,0
-3.432435,-1.8488891,3.1322079,-0.6863398,-0.36969852,0.62630725,0
-3.4837706,1.0453143,3.5399823,-0.68638808,0.20595251,0.69746315,0
-1.3147497,-4.4877896,-1.9596553,-0.25929844,-0.88509381,-0.38648844,0
-1.0517268,1.4224765,4.7162623,-0.20879476,0.2823981,0.93629909,0
-0.48739952,2.5601008,-4.2795749,-0.097273059,0.5109337,-0.8540988,0
-0.90320688,2.0535564,4.6043839,-0.17634428,0.40094125,0.8989709,0
-3.1877174,2.2704833,3.2764497,-0.62454146,0.44483584,0.64192599,0
0.7605235,3.2829366,3.6884108,0.15222518,0.65710741,0.73826647,0
0.18303315,-4.7963967,-1.7383442,0.035853885,-0.93955356,-0.34051967,0
0.88482189,4.0386295,-2.8675127,0.17585622,0.80266792,-0.56991124,0
0.56276137,4.0366063,-2.9235985,0.11219757,0.80477703,-0.58287698,0
3.9558311,2.6850686,1.3700505,0.79538929,0.53988022,0.27547273,0
0.55960816,2.637275,4.2158365,0.1118285,0.5270161,0.84246564,0
-4.2819142,-1.0251509,-2.5384657,-0.84251899,-0.20171097,-0.49947417,0
0.96305454,-0.64359051,-4.9518061,0.18937354,-0.12655462,-0.97371536,0
-0.070329212,3.8818691,-3.1417527,-0.014081491,0.77723759,-0.6290496,0
-1.8997809,-2.5762517,-3.834058,-0.38036534,-0.51580524,-0.76763737,0
1.3799645,4.5218592,1.4851024,0.27847093,0.91249186,0.29968733,0
-0.35259831,-3.4765673,-3.5547702,-0.07073611,-0.6974476,-0.7131362,0
4.3772082,-0.57967019,2.2870133,0.88027173,-0.11657368,0.45992631,0
4.681448,-1.2666979,-1.3347842,0.93068284,-0.2518225,-0.26535821,0
3.9053702,0.34426066,-3.0773866,0.78357393,0.0690725,-0.6174472,0
1.1188606,2.435529,-4.177681,0.22541612,0.49068448,-0.84167475,0
2.4339333,4.3199201,-0.81805539,0.48432332,0.85961193,-0.16278315,0
4.6092229,-1.0197561,-1.8306625,0.91033489,-0.20140478,-0.36156115,0
-4.0939212,-2.945895,-0.83253872,-0.80085963,-0.57628083,-0.1628626,0
2.9386992,-3.7240098,1.7247746,0.58218837,-0.73776698,0.34169668,0
-1.5100207,4.3979888,-1.749674,-0.30393216,0.88521314,-0.3521688,0
2.796577,-1.7842339,3.7786615,0.55618054,-0.35484672,0.75149655,0
-0.49499485,4.63661,-1.8694506,-0.098531038,0.92293888,-0.37212285,0
-4.5747094,-0.9960258,-2.0986085,-0.89163274,-0.19413018,-0.40902883,0
-3.9608519,2.0777695,2.3909438,-0.78097212,0.40967956,0.47142899,0
4.3925886,1.393037,2.1232305,0.86573857,0.2745547,0.41846907,0
1.1208271,-1.8364615,4.6127644,0.22020884,-0.3608095,0.90626955,0
-1.2792581,1.4565897,-4.5633707,-0.25801507,0.29378128,-0.92039162,0
3.8247967,-3.1235685,0.60162574,0.76884878,-0.62789005,0.12093694,0
-0.19201224,4.9708638,0.28264222,-0.038536601,0.9976458,0.056725916,0
-2.1241128,-4.1915946,1.7231143,-0.42439464,-0.83747447,0.34427571,0
0.76978111,-0.35097009,4.979785,0.15239754,-0.069483362,0.98587382,0
1.4731489,-0.63355243,4.805244,0.2908051,-0.12506562,0.94857311,0
3.3366954,3.4964328,1.3261573,0.66577935,0.69765216,0.26461157,0
0.017239997,-3.6944034,-3.5748124,0.0033535394,-0.7186386,-0.69537568,0
0.67947406,1.701627,4.6331587,0.13637741,0.34153399,0.92992246,0
4.3312392,1.7419771,-2.2090712,0.83862382,0.33728534,-0.42772508,0
0.58577365,-1.5959985,-4.7625575,0.11583638,-0.31560773,-0.94179285,0
-1.4454936,3.3033993,3.573261,-0.28474635,0.65073341,0.70389318,0
3.5694406,-3.4200768,-0.57098246,0.71728384,-0.68726897,-0.11473969,0
-3.6729879,-3.2676766,-0.20950621,-0.74644905,-0.66407901,-0.042577248,0
-1.3566636,-1.4317544,4.7140789,-0.26548734,-0.28018194,0.92250448,0
-3.8841624,2.7646601,1.8090917,-0.7617048,0.5421645,0.35477245,0
-0.70374614,-3.077745,-3.9173903,-0.13987434,-0.61172277,-0.77860796,0
-3.614434,-3.3814073,0.85500705,-0.71959734,-0.67320406,0.17022328,0
1.6009326,-2.905129,-3.8886476,0.31322065,-0.56838518,-0.76080948,0
-4.3875661,2.5691943,0.16101395,-0.86250806,0.50505239,0.031652134,0
4.9313564,-0.3326923,1.1847024,0.9702493,-0.065457545,0.23309138,0
-3.8771837,2.8080435,-1.5473502,-0.77064353,0.55813724,-0.30755711,0
2.770067,-1.5299311,3.9182703,0.54999334,-0.30376589,0.77796763,0
1.7860688,3.436888,3.2202392,0.3545841,0.68231744,0.63930666,0
3.1944051,-3.2712905,-2.0415337,0.63794488,-0.65329945,-0.40770847,0
-3.1371481,-0.66453755,3.9642158,-0.61526531,-0.13033077,0.7774719,0
2.7344706,-4.1577158,-1.1945528,0.53431594,-0.81241828,-0.23341578,0
-2.7499347,-2.3393633,-3.5074604,-0.54631662,-0.46475035,-0.69681072,0
-3.9351678,2.2776852,2.1402516,-0.78306454,0.45323974,0.42589167,0
-0.18862551,5.0513916,-0.16507128,-0.037295409,0.99877113,-0.032638218,0
4.4172239,-2.1512821,1.4459543,0.86247152,-0.42004198,0.28232539,0
2.5813999,4.1530952,0.97607774,0.51768428,0.83287835,0.19574654,0
-3.1047459,1.9171145,-3.4500494,-0.61826414,0.38176495,-0.68702626,0
-3.440994,3.6949029,-0.23446582,-0.68078166,0.7310161,-0.046387766,0
-2.8518655,-0.66389436,4.0904517,-0.5669176,-0.13197446,0.81313413,0
1.1671118,1.0934676,4.7927155,0.23099604,0.21642031,0.94857955,0
-0.75867796,-4.419373,-2.2893648,-0.15069148,-0.87779254,-0.45472229,0
-3.5056672,-2.922209,2.0925827,-0.69823605,-0.5820266,0.41678703,0
1.9769807,-4.4903803,1.1047918,0.39310291,-0.89286739,0.21967684,0
4.2913408,1.9947227,-1.8622949,0.84383273,0.39223459,-0.36619449,0
1.732857,-4.1482167,-2.213953,0.34579712,-0.82778984,-0.44180134,0
2.33549,4.4984522,-0.29225877,0.46001312,0.88604409,-0.057565168,0
4.2917008,1.4938823,-2.4003603,0.83507967,0.29067978,-0.46706238,0
-2.5445259,2.8523135,-3.2077153,-0.5099287,0.57161003,-0.64283335,0
4.2720509,0.073146239,-2.6720109,0.84773242,0.014514912,-0.53022552,0
-3.8262825,-2.9872124,-1.3230479,-0.76049054,-0.59372163,-0.2629616,0
4.7821369,-0.70155072,-1.256538,0.95757926,-0.14047912,-0.25161025,0
-1.0810629,5.032577,0.11862238,-0.2099662,0.97743714,0.023039076,0
0.71337938,3.3078339,3.7280667,0.14168987,0.65699476,0.74046052,0
1.8523566,-2.7628713,3.8155913,0.36593676,-0.54581076,0.75377768,0
-4.1575699,-2.9714749,0.59983987,-0.80802119,-0.57750434,0.11657851,0
-3.5035043,-3.6027172,-0.34458068,-0.69553345,-0.71522969,-0.068407908,0
-3.9324429,-3.1718829,0.27815548,-0.77718204,-0.62686998,0.054972813,0
1.7306139,-3.0847418,3.7601905,0.3352387,-0.59754795,0.72838968,0
2.759841,0.7056548,4.2726588,0.53743589,0.13741525,0.83203351,0
2.6593285,-2.7913649,-3.2306466,0.52869433,-0.55494416,-0.64227664,0
1.6468692,3.5893807,-3.1663256,0.32535484,0.7091167,-0.62553805,0
-4.4579921,-2.2296698,0.92722398,-0.87928903,-0.4397774,0.18288454,0
3.0346041,2.3515828,-3.2324085,0.60466087,0.46856526,-0.64407444,0
-2.3554978,-3.6192243,2.5033321,-0.47191364,-0.72509563,0.5015316,0
4.9045773,-1.0541468,-0.45129588,0.97374064,-0.20928727,-0.089598984,0
2.4595618,4.4102349,0.8572461,0.48019925,0.86104423,0.16736677,0
-0.74637318,-1.555864,-4.696815,-0.14916174,-0.31093746,-0.93865258,0
-2.5264666,0.62154496,-4.2092729,-0.51055539,0.12560353,-0.85062152,0
-2.4758847,4.3046851,1.083811,-0.48710933,0.84691036,0.21323064,0
-4.800395,1.6759971,0.106861,-0.94390357,0.32955196,0.02101212,0
2.3934877,-3.6874683,2.512794,0.47268227,-0.72822636,0.49624369,0
-2.9096301,2.9209666,-2.9200761,-0.57591218,0.57815605,-0.5779798,0
-3.9489844,-1.841779,-2.6075678,-0.77766603,-0.36269805,-0.51350337,0
-0.96172631,2.4356561,4.3832722,-0.18835516,0.47702596,0.85846877,0
-3.8892744,-2.043191,-2.6232102,-0.76008922,-0.39930519,-0.51265961,0
-2.3229761,-1.4673841,-4.3079886,-0.45462811,-0.28718078,-0.8431136,0
0.88145828,4.9998665,-0.044583369,0.17361225,0.98477495,-0.0087811518,0
1.6798151,4.3364143,-1.6356467,0.34075636,0.87965679,-0.33179665,0
-3.1600699,-2.4191616,-3.0253384,-0.63212711,-0.48391888,-0.60517597,0
-4.6513953,-1.5217124,-0.75265306,-0.9393869,-0.30732214,-0.15200438,0
-4.2491107,2.3963614,0.92012233,-0.85593629,0.48272043,0.18534845,0
1.8214589,-4.7162323,0.75336701,0.35634059,-0.92265874,0.14738473,0
-0.14029834,-0.83498901,5.0139713,-0.027590854,-0.16420765,0.98603988,0
-2.7011938,-3.5346925,2.183707,-0.54506683,-0.71325636,0.4406445,0
-0.45277381,-2.5430536,4.4401288,-0.088142909,-0.49506429,0.86437386,0
-1.4362905,4.7453718,-0.65954655,-0.28716344,0.94876158,-0.13186583,0
-0.81269479,4.9983811,0.79957169,-0.15852036,0.97496033,0.15596063,0
2.347152,-0.46483162,4.3852053,0.46985143,-0.093049705,0.87782764,0
-3.8099356,-1.5047818,-2.8101089,-0.76696259,-0.3029215,-0.56569159,0
-4.5226917,0.12609293,2.070121,-0.9089843,0.025342539,0.4160592,0
4.9489174,-0.94407809,-0.050068796,0.98223799,-0.1873762,-0.0099374205,0
2.0697963,2.7769136,3.5695014,0.41615698,0.55833125,0.71769041,0
-2.0330982,-3.2825322,-3.0837412,-0.41143724,-0.66428471,-0.62405545,0
1.310481,4.855721,-0.20562205,0.26034391,0.96465147,-0.040849466,0
2.7049134,0.097234391,-4.1825371,0.54294485,0.019517412,-0.83954149,0
-3.7568555,3.4052885,-0.40552694,-0.73856598,0.66945088,-0.079723164,0
-1.2380959,-4.8460951,-1.2326517,-0.24034151,-0.94073313,-0.23928468,0
0.64731079,4.5823536,2.0393248,0.12799649,0.90609515,0.40324742,0
-3.5770018,-3.6583219,-0.11903078,-0.69892609,-0.71481556,-0.023257947,0
-0.80616647,2.7263794,-4.0961862,-0.16168083,0.54678941,-0.82151121,0
4.8174009,0.47383189,1.7003756,0.9389531,0.092353933,0.33141792,0
-2.5062191,4.0703788,1.8985019,-0.48727942,0.79139602,0.36912212,0
-3.9559839,3.0262089,-1.15615,-0.77368629,0.59184682,-0.2261125,0
2.3407323,-1.8629675,3.9996722,0.46864301,-0.3729887,0.80078292,0
-5.0504208,0.41127935,0.63652599,-0.98892844,0.080533065,0.12463886,0
1.7621906,3.458576,3.1937978,0.35056823,0.6880452,0.63537055,0
-4.223568,-0.57349294,2.6124189,-0.84484619,-0.1147166,0.52256578,0
-4.43082,0.61951435,2.4605632,-0.86778235,0.12133276,0.48190477,0
-2.1704469,-0.39916998,-4.5793653,-0.42696914,-0.0785245,-0.90085024,0
1.0958844,-3.3069949,3.6447096,0.21735404,-0.65589827,0.72287947,0
1.6724906,0.23617145,4.8048048,0.3283869,0.04637133,0.94340438,0
0.24245279,0.24901487,5.134768,0.047110073,0.048385128,0.99771714,0
-0.75532395,-3.5790689,-3.4724984,-0.14975715,-0.70961756,-0.68848801,0
1.3148558,-2.6086476,-4.0012207,0.26540464,-0.52655751,-0.80764943,0
-4.0249152,-1.145234,2.8557189,-0.79446048,-0.22605275,0.56367791,0
-4.6306171,1.8997792,-0.68696815,-0.91657299,0.37603763,-0.13597679,0
0.45148689,-0.95039976,-5.046371,0.087584078,-0.18436834,-0.97894704,0
-4.1180449,-2.8580699,-1.0842745,-0.80295736,-0.55728102,-0.21141736,0
0.94567603,3.3811908,-3.8079865,0.18257955,0.65279895,-0.73519939,0
-4.4455242,1.952248,1.3122845,-0.88388681,0.38815808,0.26091656,0
0.13710013,3.0615766,3.9510417,0.027418502,0.61228126,0.79016441,0
1.3274249,-0.83353066,-4.8021965,0.26277697,-0.1650057,-0.95064265,0
-4.4304018,-2.0900419,-0.96277148,-0.88743627,-0.41864803,-0.19284895,0
1.0514388,2.4698639,4.1816835,0.21159424,0.49704176,0.84153271,0
2.7655118,2.3214867,3.5885239,0.54325169,0.45602828,0.70492256,0
0.81260842,4.9831204,0.048794083,0.16093874,0.98691702,0.0096637663,0
3.5469646,0.95453882,-3.3624094,0.71227783,0.19168413,-0.67521667,0
2.9629171,-2.7821295,3.0352957,0.58409238,-0.54845297,0.59836072,0
2.6446605,2.525178,3.4181802,0.52835429,0.50448388,0.68288922,0
-4.4376855,-0.1129466,-2.5014732,-0.87091869,-0.022166353,-0.49092701,0
-4.9799356,1.1801234,-0.17362092,-0.97249174,0.23045684,-0.03390504,0
-2.0815823,4.0581264,-2.0234573,-0.41718718,0.81332278,-0.40553787,0
4.6572266,-0.29046893,1.9510355,0.92081285,-0.057430647,0.38575289,0
5.1311083,-0.099048957,-0.10697968,0.99959654,-0.01929583,-0.020840824,0
4.7108755,1.5609605,-0.064671516,0.94916528,0.31450832,-0.013030265,0
-2.4635181,2.3597496,3.7650363,-0.48488402,0.46445969,0.74105644,0
-2.3761339,3.6985228,-2.5700669,-0.46662381,0.72631377,-0.50470829,0
4.1074839,-0.26306787,-2.8641922,0.81913733,-0.052462462,-0.57119322,0
1.3095856,-4.2535768,-2.3267767,0.26076284,-0.84696621,-0.46330449,0
4.347712,-2.477247,-0.7030257,0.8604086,-0.49024513,-0.13912821,0
0.30225626,-4.971024,0.46277776,0.06043119,-0.99387485,0.092524834,0
-1.1588517,-4.0808301,-2.6932156,-0.23062229,-0.81212318,-0.53597498,0
1.5519875,3.3264856,-3.4358988,0.30867633,0.66160804,-0.68336934,0
-4.6503744,1.5373787,-0.97978675,-0.93101579,0.30778679,-0.19615559,0
-3.9039063,0.9628492,-2.8802991,-0.78929335,0.19466923,-0.58234,0
-1.1910841,-3.8587887,3.1020062,-0.23389971,-0.75777143,0.60915792,0
3.3339562,1.1112647,-3.661679,0.65690607,0.21895804,-0.72147888,0
3.7730882,0.63114512,3.3218071,0.74471992,0.12457338,0.65564752,0
-1.3794733,-4.4873266,1.9376392,-0.2716178,-0.88355297,0.38152045,0
2.6774027,-1.7745934,-3.8812685,0.53143668,-0.35223839,-0.77039158,0
2.9433248,-3.8433342,-1.4707936,0.58175278,-0.75964105,-0.29070467,0
0.27423158,3.6043568,-3.5350168,0.054239053,0.71288979,-0.69917536,0
-1.5071967,4.4076128,1.8943708,-0.29972187,0.87650001,0.37671548,0
3.3542578,2.994812,2.1362922,0.67377275,0.60157055,0.42911893,0
-1.5700474,4.2738128,-2.2496235,-0.30915472,0.84154749,-0.44296864,0
4.7442837,1.5662199,0.371122,0.94698352,0.31262559,0.074077867,0
3.1784971,-0.66700798,3.8905923,0.62717199,-0.13161212,0.76768059,0
3.8101914,-3.2927339,0.84669888,0.74614239,-0.64480966,0.1658074,0
1.1034672,-1.3771093,-4.6745915,0.22084422,-0.27561003,-0.93555707,0
-1.1260359,-4.8146214,1.0232373,-0.22300778,-0.9535203,0.20264886,0
4.5959277,2.0826335,0.19310781,0.9101792,0.41244549,0.038243141,0
0.40392268,2.7334335,4.2440686,0.079759151,0.53974771,0.83803988,0
-0.5485515,-2.8106782,-4.2807369,-0.10650877,-0.5457316,-0.83116353,0
-4.6584706,-1.0125797,-1.7283151,-0.9186725,-0.19968551,-0.34083194,0
-0.43776467,-0.65775865,5.0625467,-0.085436955,-0.12837239,0.98803902,0
3.8729923,1.5342767,2.7937984,0.77214104,0.30588186,0.55698705,0
-1.6014946,-1.0624628,4.6222768,-0.31992128,-0.21224204,0.92336547,0
1.5707506,-4.3369827,2.0040488,0.31232592,-0.86235976,0.39848235,0
4.4267011,0.089095831,2.428627,0.8765856,0.017642964,0.48092234,0
0.86998183,-3.1955657,3.8218064,0.17203024,-0.63189131,0.75572419,0
4.4475636,2.3113225,-1.1550295,0.86467087,0.44935462,-0.22455449,0
-4.7017188,0.39688233,1.8548667,-0.92737323,0.078281596,0.36585638,0
0.29325923,-1.6042043,4.7368479,0.058538157,-0.32021895,0.94553322,0
-4.9429255,0.35838684,-0.21670151,-0.99642974,0.072246149,-0.043684218,0
-0.72832084,-2.3277133,-4.3754754,-0.14539258,-0.46467465,-0.87346351,0
-1.9084923,-3.0762897,3.5233128,-0.37779236,-0.6089617,0.69745141,0
4.4460487,0.081371248,-2.4543948,0.87534851,0.016020562,-0.48322701,0
-0.071872599,-0.044442426,5.0153117,-0.014328601,-0.0088600907,0.99985808,0
2.9380648,-2.8844774,2.9567196,0.57961583,-0.56904423,0.583296,0
5.0090246,0.40418297,0.37962434,0.99392831,0.080201022,0.07532791,0
3.7743061,-0.32289073,3.3590631,0.7454831,-0.063775852,0.66346627,0
-3.8497081,3.2944005,-0.53886449,-0.75551742,0.64653653,-0.10575387,0
1.859533,-0.3858968,4.6209469,0.37220502,-0.077241287,0.92493093,0
3.6459351,-1.7465923,-2.9770749,0.72619539,-0.34788531,-0.59297216,0
-4.8075852,-0.44139135,-1.824077,-0.93153888,-0.08552593,-0.35344118,0
2.6213434,-3.9849427,-1.5759859,0.52182251,-0.79326987,-0.31372648,0
-3.2192292,3.113353,-2.4957159,-0.62791073,0.60725957,-0.48678941,0
4.5680418,-1.2340429,1.6408678,0.91210794,-0.24640325,0.3276346,0
2.6333768,-1.606886,3.9900141,0.52213204,-0.31860486,0.79111886,0
0.19292565,-4.2822313,2.8012321,0.037675597,-0.83625805,0.54704028,0
-2.4281099,-1.316372,-4.2635465,-0.47797456,-0.25912845,-0.83928114,0
0.046436001,2.486619,4.4265747,0.0091456259,0.48974258,0.87181914,0
2.7788842,-2.3948958,3.4752738,0.5499211,-0.47393256,0.68773156,0
3.5334268,-0.68584144,3.5940089,0.69466895,-0.1348359,0.70657933,0
0.62801605,0.85099453,4.9755745,0.12346137,0.16729659,0.97814572,0
4.4871259,-0.1412624,2.2482457,0.89369971,-0.028135195,0.44778252,0
-3.8776731,-0.4541932,3.1384931,-0.77409959,-0.090670548,0.62653708,0
-0.31547865,-0.97199309,-5.0038795,-0.061771806,-0.1903196,-0.97977686,0
2.9835076,-4.1055098,0.24212623,0.58720505,-0.80803418,0.047654562,0
3.5187097,-2.9432671,-2.1020164,0.69731975,-0.58328152,-0.41656679,0
-0.87941039,4.8102074,-1.545079,-0.17148425,0.9379862,-0.30128905,0
2.2865732,-1.2402049,4.4086618,0.44669497,-0.24228103,0.86125696,0
-0.33854854,5.0595608,-0.25491846,-0.066679142,0.99651045,-0.050207701,0
-3.4876378,-1.5954704,-3.2868586,-0.69048488,-0.31587231,-0.65073442,0
-1.0564885,4.4535313,2.1222937,-0.20940387,0.88272303,0.42065439,0
-1.9697298,-4.5767059,0.10540602,-0.39523509,-0.91833651,0.02115019,0
2.4900804,1.2663819,-4.136775,0.49884352,0.25369719,-0.82872963,0
-3.1046753,3.0781324,-2.7812328,-0.59917104,0.5940485,-0.5367499,0
0.99335903,-0.79142779,-4.9558978,0.19416495,-0.15469486,-0.96869475,0
0.71507204,1.0965118,4.836834,0.14270471,0.21882747,0.96527195,0
-4.9749422,-0.35919154,-0.48108292,-0.9927966,-0.071680054,-0.096004628,0
4.2937961,-2.5240374,0.15484805,0.86166918,-0.50651807,0.031074554,0
4.2136736,-1.4894774,-2.5949736,0.81535071,-0.28821561,-0.50213039,0
-3.6656237,3.4901409,-0.079283156,-0.72414076,0.68947434,-0.015662318,0
4.055542,0.02223183,-3.0952322,0.79492354,0.0043576434,-0.60669398,0
5.0611262,0.34993881,0.087912194,0.99746847,0.068967439,0.017326113,0
-0.65333855,-0.54285038,-4.8827786,-0.13182476,-0.10953146,-0.98520309,0
-1.5811918,-4.7677693,-0.29187003,-0.31425241,-0.94756562,-0.058007419,0
-4.3583326,-2.4172034,-0.22062619,-0.87365001,-0.48454076,-0.044225644,0
0.86226302,-4.2837605,-2.440762,0.17227553,-0.85587239,-0.48765117,0
-2.7917981,-2.943939,-3.0441828,-0.55040365,-0.58039826,-0.60016137,0
1.0305134,-3.4435515,-3.5301924,0.20454483,-0.68350458,-0.70070177,0
-3.1805077,-3.8330753,-0.98272628,-0.62647951,-0.75501877,-0.19357219,0
-0.85566783,-2.3534548,4.3114462,-0.17161654,-0.47201937,0.86472285,0
4.7738953,-0.38354588,1.3021092,0.96187162,-0.077279009,0.2623564,0
4.7007856,1.578536,1.268087,0.91842347,0.30840898,0.24775451,0
4.8178806,0.42181656,1.4643452,0.95344317,0.083476149,0.28978923,0
4.4246254,0.42056736,2.5493643,0.86354178,0.082080953,0.49755231,0
-2.0595245,3.9971097,2.0771546,-0.41580603,0.80699319,0.41936544,0
-4.5909171,-1.0869939,1.6581255,-0.91804647,-0.21736637,0.33157566,0
-4.3531156,-1.6504691,-2.1031592,-0.85212904,-0.32308185,-0.41169664,0
-2.7029793,3.7942045,-1.8939548,-0.53749645,0.7544902,-0.37661922,0
3.4357669,2.0864444,-2.8275037,0.69910502,0.42454678,-0.57533652,0
2.3224912,-0.73027974,-4.3361855,0.46702912,-0.14685176,-0.87196237,0
-4.2511706,1.213963,2.3433087,-0.84960133,0.2426119,0.46831292,0
-2.2518442,4.4940605,-0.58416027,-0.44498485,0.88806713,-0.11543537,0
2.9054799,0.89900649,-4.0766954,0.57124722,0.17675392,-0.80152023,0
-4.3104978,-1.6047885,1.9172359,-0.86501902,-0.32204464,0.38474572,0
1.6517364,4.8270855,0.22374491,0.32344082,0.94523346,0.043813433,0
-4.4888492,-0.14504907,2.2524066,-0.89341801,-0.028869191,0.44829768,0
1.5755364,-4.7286968,0.75642633,0.31252357,-0.93798482,0.15004481,0
-2.1269765,-2.2989309,-4.0429783,-0.41589826,-0.44952136,-0.79054362,0
1.3282534,4.1432619,2.7371385,0.2583994,0.80603319,0.53248495,0
3.9648445,2.8386285,0.92211246,0.79893368,0.57199621,0.18580973,0
-1.458715,-0.83466816,-4.7604194,-0.28894731,-0.16533396,-0.94296032,0
-1.5356444,-4.3740292,2.2862256,-0.29709512,-0.84622627,0.44230708,0
0.81752467,-2.0867491,4.489717,0.16291811,-0.41585189,0.89472061,0
-4.8320751,0.61972868,-1.2625023,-0.96015739,0.12314317,-0.25086549,0
1.8484312,1.7890965,4.3547592,0.36546043,0.35372913,0.86099613,0
-2.6745284,-4.1670027,0.60840076,-0.5361169,-0.83528769,0.12195568,0
2.7883892,-3.4085753,-2.3876381,0.55662882,-0.68043274,-0.47662938,0
-4.1668258,-0.95908839,-2.9045665,-0.80611485,-0.1855454,-0.56191796,0
0.49123248,2.9135745,-4.08953,0.097365469,0.57748938,-0.81057143,0
1.9381461,4.6562653,0.77906936,0.37977931,0.91239417,0.15265848,0
0.10710695,4.8169494,-1.35181,0.021403477,0.96258426,-0.27013591,0
1.352659,4.349256,-1.9989835,0.27194056,0.87438089,-0.40187863,0
2.1537039,-2.7371335,-3.711195,0.42316365,-0.53779697,-0.7291823,0
2.3984497,-3.0401103,-3.3255928,0.46988338,-0.59559196,-0.65152115,0
2.7082913,3.0797563,-2.9984343,0.53308743,0.60620487,-0.59019786,0
4.6196508,-1.660763,0.97821045,0.92289335,-0.33177987,0.19542255,0
-4.6700101,1.8419889,1.1690638,-0.90601051,0.35735711,0.22680552,0
2.8227999,4.1816964,-0.5763582,0.55587858,0.82347864,-0.11349908,0
1.5031874,0.5670746,-4.7586255,0.29928973,0.11290649,-0.94745857,0
0.84013104,-1.5031474,4.6955338,0.16798149,-0.30054948,0.93885684,0
4.2659898,1.1208068,2.3353453,0.85475999,0.22457175,0.46792415,0
-4.7674961,-0.061639383,-1.8113387,-0.93473542,-0.012085279,-0.35513872,0
1.1134405,2.3357942,-4.4198813,0.21739988,0.45606512,-0.86298424,0
-1.1768724,4.8197393,-1.4298451,-0.22793153,0.9334662,-0.27692619,0
-1.2094309,-0.44471794,4.8513069,-0.24094509,-0.088597536,0.96648639,0
2.3032784,3.5556138,2.705852,0.4581961,0.70732588,0.53828096,0
1.7096833,0.19033857,-4.686162,0.34248948,0.038129259,-0.93874764,0
3.9787891,-2.2963448,-2.0607457,0.79023546,-0.45608175,-0.40928894,0
0.62602311,4.0556121,-3.1147008,0.12151492,0.78721917,-0.60458255,0
-2.2353842,-2.4074292,3.851326,-0.44158784,-0.47557437,0.76080823,0
0.71084309,4.3513794,-2.6566319,0.13809291,0.84532666,-0.51609421,0
4.424037,-0.49646127,2.4868553,0.86757457,-0.097358406,0.48768407,0
-0.36271054,0.97471428,-4.945714,-0.071768709,0.19286451,-0.97859722,0
-3.9639509,3.213892,0.61799705,-0.77113354,0.62521964,0.12022305,0
-2.3864512,-4.1490335,-1.5886048,-0.47320712,-0.82270783,-0.31500292,0
2.2013896,1.9525822,4.1744447,0.43102667,0.38231081,0.81734598,0
1.2659911,-4.912334,0.56893438,0.24800745,-0.96232539,0.11145415,0
3.9708531,1.9674461,-2.5874999,0.77379888,0.38339558,-0.50422525,0
3.8871098,-3.1383402,0.87735808,0.76633573,-0.61871731,0.17296934,0
-3.4371717,3.4406161,1.4036185,-0.67903721,0.67971772,0.27729461,0
-2.4322333,1.1563351,-4.1197271,-0.49416631,0.2349371,-0.83702099,0
-3.6348963,3.478348,0.063622475,-0.72243607,0.69132209,0.012644975,0
-2.4064271,-0.66182029,4.4459357,-0.47198236,-0.12980551,0.8719995,0
0.61460829,4.4678907,-2.2366436,0.12208852,0.88752168,-0.44429681,0
-2.9586866,3.8157954,-1.1197035,-0.59691888,0.76984173,-0.22590165,0
-2.7065067,4.0271916,-1.4633137,-0.53403723,0.79462957,-0.2887353,0
4.0085845,-2.733464,1.5530317,0.78686744,-0.53656691,0.30485326,0
-3.2261522,-3.4888041,-1.7659404,-0.63640296,-0.68821466,-0.34835607,0
-2.327213,-4.4267864,1.0020283,-0.45626,-0.86789024,0.1964519,0
-2.0141506,2.9974632,-3.4509459,-0.40322858,0.60008568,-0.69087189,0
-3.9350395,-2.8842082,-1.1355537,-0.78555328,-0.57577544,-0.22669096,0
1.9733975,4.35607,1.6881787,0.38911909,0.85893995,0.33287898,0
3.5142546,-3.5909193,-0.58653957,0.69471872,-0.70987421,-0.11595062,0
1.1462467,4.8869476,-0.83375889,0.22526889,0.96041912,-0.16385648,0
2.985656,-4.0489984,0.8088358,0.58595526,-0.7946434,0.15873952,0
1.9038419,-0.63305062,-4.677516,0.37406155,-0.12438002,-0.9190253,0
4.83707,-1.4405921,-0.30710077,0.95662928,-0.28490648,-0.060735442,0
1.8447535,2.2111773,4.1249843,0.36669937,0.43953696,0.81996274,0
1.6725732,-3.3660905,-3.3908417,0.33040437,-0.66494608,-0.66983551,0
-3.4630322,-0.88418072,3.6075811,-0.68192905,-0.17411,0.71039319,0
0.97075629,-4.8627367,0.43288955,0.19502705,-0.97693443,0.086968459,0
0.56007773,-1.4145998,4.8522501,0.11013909,-0.27818057,0.95419335,0
-1.6807698,3.2335606,3.5466208,-0.33052084,0.63587475,0.69743758,0
-4.2141652,0.085920423,2.8542807,-0.8278442,0.016878484,0.56070411,0
0.98145473,1.8599628,-4.5904489,0.1943763,0.3683641,-0.90913463,0
-0.24129112,-4.9829364,0.097140007,-0.048357639,-0.9986403,0.019468024,0
-2.1491854,-3.2950814,-3.1574943,-0.42605072,-0.65321112,-0.62593609,0
-1.484843,-4.7773962,0.9219799,-0.2918855,-0.93912458,0.18123974,0
-3.3871803,1.567661,-3.3897252,-0.67180586,0.31092644,-0.67231059,0
0.89606166,2.226074,-4.4466023,0.17734025,0.44056401,-0.88003051,0
4.916481,0.11784244,-1.3398528,0.96455604,0.023119306,-0.26286343,0
-3.4481421,0.49845549,-3.7507546,-0.67356926,0.097369626,-0.73268241,0
4.5220113,-0.85927856,-2.0172956,0.89979941,-0.17098108,-0.40140575,0
-1.7923452,3.5179908,-3.0989969,-0.35709652,0.70090425,-0.61742628,0
-2.1782763,-1.9036847,4.2113056,-0.42634332,-0.37259886,0.82425815,0
-5.0381713,0.67611372,-0.23399553,-0.99006683,0.13286522,-0.045983195,0
-0.18810813,1.3088255,-4.8403478,-0.037488867,0.2608414,-0.96465343,0
0.19802733,-4.5499277,-2.1094749,0.039455082,-0.90653026,-0.420293,0
2.0201979,3.9675553,-2.2241652,0.40591431,0.79719293,-0.44689706,0
1.3327368,4.6166549,-1.3068795,0.26763284,0.92709106,-0.26244029,0
1.4723603,-1.5993679,4.4943929,0.29491246,-0.32035196,0.90022296,0
-1.7344751,-2.1891901,-4.1219673,-0.3483502,-0.43967468,-0.82785165,0
0.73544562,-3.2213902,-4.0008965,0.1417325,-0.62081504,-0.77103871,0
-0.67770469,-4.0832515,-3.0043111,-0.13250653,-0.79836768,-0.58741051,0
3.88293,-1.322461,2.8661993,0.77594769,-0.26427481,0.57276869,0
-0.8603704,-2.6151905,-4.3106298,-0.16821255,-0.51130056,-0.84277892,0
3.0076234,2.1931808,3.3721507,0.59880936,0.43665612,0.67138571,0
-4.5904784,0.59608024,1.7604122,-0.92690885,0.12036045,0.35546222,0
0.10085677,2.6394396,-4.2557154,0.020135975,0.52696204,-0.84965026,0
-4.652257,1.4196326,-1.7404701,-0.90054405,0.27480033,-0.3369053,0
-3.6697695,-0.71231163,3.4038658,-0.72585642,-0.14089058,0.67326236,0
2.1433372,0.38152856,-4.4660182,0.4313958,0.076791376,-0.89888865,0
2.5402985,-2.5552409,-3.4645896,0.50820452,-0.51119387,-0.69311541,0
4.9541869,0.66939002,-0.05499715,0.99093503,0.1338912,-0.011000514,0
-1.9856098,4.1460161,-2.1450548,-0.39142242,0.81730241,-0.42285377,0
-3.2007647,-3.8149753,0.98427546,-0.63054442,-0.75154269,0.19390035,0
-0.36713195,3.0418289,-4.0631151,-0.072144359,0.59774363,-0.79843456,0
0.69166642,4.8152285,-0.92228037,0.13969374,0.97251689,-0.18627013,0
-4.9307084,-1.2911285,-0.25965944,-0.96613127,-0.25298589,-0.050878108,0
4.9943347,0.16566922,0.17166771,0.99886101,0.033133648,0.034333341,0
-2.8922968,3.9673891,-1.1379848,-0.57388008,0.7871964,-0.22579522,0
-2.821861,-4.2235031,-0.36686775,-0.55410051,-0.82932687,-0.072038136,0
-3.7670498,-2.8499968,1.989457,-0.7349577,-0.55603915,0.3881464,0
-0.32708099,1.0343173,4.922699,-0.0648866,0.20518872,0.97656912,0
-2.1424513,-4.3629913,1.0075229,-0.43160132,-0.87893379,0.20296761,0
-2.913022,3.8405097,1.539786,-0.57566738,0.75895619,0.30429035,0
-3.139734,3.3170125,2.1658463,-0.6211344,0.65620542,0.42846993,0
-4.4747791,2.0432358,-1.2649508,-0.88099587,0.40227288,-0.24904388,0
-0.82854056,4.3205338,2.4513774,-0.16451885,0.85790515,0.48675683,0
4.9395013,-0.16685547,0.5836221,0.99253374,-0.033527613,0.11727189,0
-4.1300445,0.45639735,2.8374009,-0.82083088,0.090707265,0.56392282,0
-4.7537684,1.550971,0.286704,-0.94912213,0.3096619,0.057242401,0
0.63228518,5.0063214,0.56782848,0.12451609,0.98589623,0.11182261,0
3.9493446,1.493728,2.6632864,0.79110974,0.2992149,0.53349406,0
3.0067081,0.80325317,-4.0485044,0.5888052,0.15730149,-0.79282069,0
2.6055672,4.3266516,-0.63921499,0.51180649,0.84987575,-0.12555976,0
-0.10527367,2.0018308,-4.6022406,-0.020971423,0.39878196,-0.91680598,0
-1.2874972,4.2420592,2.3090534,-0.25757959,0.84867597,0.46195444,0
5.0902205,-0.37719229,0.64238238,0.98946035,-0.073320359,0.12486923,0
2.2757654,-1.5500242,4.1309261,0.458408,-0.31222177,0.83209348,0
-1.1158968,-4.1275797,-2.6368384,-0.2221375,-0.82166219,-0.5249058,0
4.4507632,-1.4622173,-2.1532655,0.86322683,-0.2835975,-0.41762647,0
2.5773633,3.0706758,3.1183269,0.50745904,0.60458773,0.6139698,0
-0.42780513,-5.0112691,0.67378551,-0.084306076,-0.98755348,0.13278058,0
-3.1995163,0.35395125,3.8609219,-0.63648933,0.070412584,0.76806474,0
3.6190634,2.634779,2.3186426,0.71786773,0.52262771,0.45991972,0
-2.9318764,-0.894759,-4.1010485,-0.57262456,-0.17475531,-0.80097544,0
1.8778466,-1.8664948,-4.3736639,0.36729518,-0.36507484,-0.8554616,0
0.24781035,3.4273701,3.7703085,0.048577659,0.67185897,0.73908436,0
4.0719652,-2.8413804,0.87043834,0.80776417,-0.56365049,0.17267065,0
-4.1636066,2.3775403,-1.7220999,-0.81727457,0.46668753,-0.33803108,0
3.3744805,0.31903654,3.7150323,0.67101055,0.06343995,0.73872876,0
3.8733761,-1.9864091,-2.477397,0.7733407,-0.39659742,-0.49462584,0
-2.4258368,2.0519104,3.9665325,-0.47732353,0.40374732,0.78048086,0
2.2808547,-0.12131797,4.5107512,0.4511117,-0.023994494,0.8921448,0
2.5669665,2.5350962,-3.4435153,0.51469374,0.50830352,-0.69044757,0
-4.8030267,-1.2079569,0.44886443,-0.96584076,-0.24290809,0.09026216,0
-1.4120014,-2.5136747,-4.2239275,-0.27610046,-0.49151987,-0.82593989,0
-2.6455693,4.0423775,1.0607874,-0.53486651,0.81726545,0.21446413,0
0.44641384,-4.7897105,-1.8625399,0.086540207,-0.92851633,-0.36106539,0
-0.71132207,-3.0905395,3.9731438,-0.13992406,-0.6079396,0.78155661,0
1.9592558,4.1678839,2.1767488,0.3846252,0.81820518,0.42732164,0
2.3204284,4.2490902,-0.97903723,0.46977943,0.86024427,-0.19820976,0
-4.4521704,-2.3934667,-0.54127866,-0.87578237,-0.47081667,-0.10647443,0
-2.5000219,4.3850985,0.41713586,-0.4935976,0.86578202,0.082358181,0
1.805366,4.5846629,-0.63016635,0.36343896,0.92294037,-0.12685905,0
-3.7072611,2.8845353,1.5802855,-0.74803954,0.5820325,0.31886509,0
-3.683634,3.4013991,-0.17335504,-0.73425323,0.67799574,-0.034554601,0
2.9172981,2.8541682,-3.0693281,0.57127649,0.55891412,-0.60104758,0
-2.0643744,-4.6478791,-0.10416362,-0.40583172,-0.91371834,-0.020477343,0
