-0.26495335,-4.2797303,3.0262153,-0.050483998,-0.81545639,0.57661265,0
-1.1138879,1.9530246,-4.7512031,-0.21191372,0.37155688,-0.90390164,0
-2.9817588,-3.0632787,3.1583769,-0.56100148,-0.57633901,0.59423125,0
5.3232536,0.89883953,-0.42386132,0.98301721,0.16598396,-0.078272238,0
-2.2185669,4.468451,2.1377928,-0.40875369,0.82327735,0.39387169,0
2.7693231,2.2942057,-4.0517831,0.51117951,0.42347929,-0.74790424,0
-3.1429305,-3.5836632,2.4997063,-0.58393782,-0.66582334,0.4644306,0
5.149209,0.93101692,0.77184397,0.97351086,0.17601831,0.14592503,0
1.9887486,4.7696238,-1.549986,0.36862263,0.88406914,-0.28729621,0
1.0450078,2.5614455,4.6015797,0.19463255,0.47706881,0.8570435,0
0.28296065,-0.66362864,5.3509221,0.052406557,-0.12290929,0.9910332,0
-4.9600186,1.4449555,-1.3874211,-0.92723399,0.27012235,-0.25936678,0
-2.1957076,4.8010163,-1.1566255,-0.4062736,0.888336,-0.21401137,0
-0.97241724,-1.4506718,5.0361543,-0.18242943,-0.27215195,0.94480306,0
2.876967,4.3636065,0.8403852,0.54346037,0.8242873,0.15874915,0
1.4187757,-3.2940991,3.915417,0.26719695,-0.62037522,0.73738754,0
-2.1592166,4.6033983,1.7781653,-0.4008503,0.85460329,0.3301096,0
-4.7822886,1.6591794,-1.9221447,-0.88322246,0.30642745,-0.35499349,0
2.0132504,4.9643116,-0.35400525,0.37499806,0.92467749,-0.065938786,0
1.8575274,4.9600406,0.34162667,0.34998432,0.93454152,0.064367279,0
1.8107367,-3.9778638,3.0507135,0.33972472,-0.74631429,0.57236528,0
-2.8968043,2.3285437,-3.8858769,-0.53872591,0.43304506,-0.7226662,0
-3.1063173,-4.2348199,-0.92222655,-0.58254749,-0.79418278,-0.17295103,0
-3.2008843,3.777025,-1.8868926,-0.60413468,0.71287543,-0.35613197,0
5.1287827,0.47138944,-1.1064585,0.97358978,0.089483209,-0.2100375,0
-3.507524,-0.1497982,3.8856616,-0.66979045,-0.028605195,0.74199891,0
1.6176182,-0.64012533,5.0988789,0.30025467,-0.11881705,0.94642991,0
4.4336381,3.0536723,0.69258976,0.81682879,0.56259161,0.12759888,0
-2.9080424,4.4505949,-0.58533102,-0.54370546,0.83211052,-0.10943708,0
-2.0902913,0.87786204,-4.8310328,-0.39169291,0.16449971,-0.90527153,0
-4.3399944,0.8860026,2.8853147,-0.82097983,0.16760166,0.54580373,0
4.4513121,-1.3800232,2.7001901,0.82645011,-0.25622118,0.50132912,0
3.8315947,-1.0451119,-3.4794343,0.72566211,-0.19793275,-0.65896678,0
-3.6624863,2.9335878,-2.6608293,-0.67893988,0.54381901,-0.49325594,0
-1.1365764,4.7422709,-2.2213645,-0.21210027,0.88497078,-0.41453615,0
3.0483971,1.6279666,-4.1343327,0.56572491,0.30211988,-0.76725405,0
-4.6970763,0.016161589,-2.5135064,-0.88169336,0.0030337097,-0.47181305,0
-2.9867322,-2.4390004,-3.7157934,-0.55774266,-0.45545918,-0.69388765,0
2.3554957,-0.053741604,4.8612146,0.43603355,-0.0099482853,0.89987546,0
3.5600142,-3.7720749,1.284744,0.66623467,-0.70592052,0.2404319,0
-2.2764921,-4.5513773,1.6989602,-0.42431775,-0.84833598,0.31667095,0
-1.2417451,5.256093,-0.12971354,-0.22985321,0.97292906,-0.024010623,0
-4.1281028,-3.3180614,-0.45302284,-0.77659613,-0.62420774,-0.085224569,0
-4.5137734,1.9250093,-1.9119943,-0.85708022,0.36552286,-0.36305156,0
-0.10660097,3.8750136,-3.6441939,-0.020036062,0.7283237,-0.68494028,0
1.5090925,-3.9983718,-3.0801566,0.28646466,-0.7589941,-0.58469313,0
-0.92710972,2.5874178,-4.5688615,-0.17388102,0.48527467,-0.85689783,0
-4.1236997,3.3426039,0.7345624,-0.76950926,0.6237517,0.13707413,0
0.39592859,-1.2120593,-5.2868652,0.072801672,-0.22286832,-0.97212636,0
-3.6880074,2.3957324,3.1338882,-0.68293869,0.44363749,0.58032787,0
3.4059267,-4.1420979,0.49192849,0.63247228,-0.7691775,0.091349922,0
-4.4665585,-2.4889164,1.8871095,-0.81950331,-0.45665476,0.34623805,0
4.0267782,2.3111978,2.7417557,0.7468043,0.4286336,0.50848466,0
-4.8715348,-1.7454731,1.6406339,-0.89737552,-0.32153004,0.30221784,0
-4.9925041,0.58927256,-1.9069207,-0.92854774,0.10959785,-0.3546651,0
1.9258965,2.1575615,4.5414081,0.35770071,0.40072832,0.843485,0
-4.838191,-2.2308125,-0.071870968,-0.90803367,-0.41867983,-0.013488773,0
-5.1482258,0.84921229,-1.388894,-0.95346642,0.15727659,-0.25722721,0
3.3878396,3.8531785,-1.4407061,0.6357159,0.7230351,-0.27034333,0
-5.0753155,1.4915169,0.91162348,-0.94549108,0.27785781,0.16982824,0
3.4706161,-1.4547225,3.8481107,0.64481813,-0.27027807,0.71495414,0
-0.87619877,1.4005818,5.1613083,-0.16168214,0.25844488,0.95239967,0
2.7667298,-2.2608433,4.0870214,0.50965589,-0.41646716,0.7528652,0
0.60202324,3.9093232,-3.5334263,0.11350781,0.73707908,-0.666206,0
2.6455948,-4.3640227,1.6987933,0.49187061,-0.81136179,0.31584069,0
-5.131988,1.5844054,-0.046180904,-0.95546418,0.29498172,-0.0085978769,0
-0.84753925,-0.48058325,-5.2765565,-0.15795338,-0.089564882,-0.9833762,0
4.3643556,2.9963202,0.77304709,0.81575835,0.56005365,0.14449318,0
3.8037527,1.3444057,3.3342664,0.72675854,0.25686693,0.63705683,0
-4.3186302,-0.52683634,-2.9684324,-0.81996447,-0.10002872,-0.56360674,0
-0.46486548,1.5766718,5.0805054,-0.087056622,0.29526761,0.95144004,0
-2.8962483,0.17546868,4.4776382,-0.54281908,0.032886595,0.8392055,0
1.6464396,-0.42996457,-4.9691949,0.31345955,-0.081859365,-0.94606668,0
3.7241042,-3.87255,-0.089523822,0.6930607,-0.72068667,-0.016660502,0
-4.1951447,-0.036243312,-3.3043299,-0.78555876,-0.0067867152,-0.61874992,0
4.5255847,-2.8827965,0.2430758,0.84255427,-0.53670692,0.04525483,0
-3.0588937,-2.9662781,3.2360723,-0.5717029,-0.55439317,0.60481733,0
1.1533866,3.2360585,-4.0412412,0.21744986,0.61009938,-0.7619018,0
-2.8492334,2.321574,3.9061544,-0.53123808,0.43285626,0.72830045,0
-1.0982578,-0.94033521,-5.2029667,-0.20337667,-0.17413238,-0.9634915,0
-2.6805248,-4.5882425,-0.066903509,-0.5043996,-0.86337858,-0.012589364,0
-5.3539305,0.50570637,-0.57079089,-0.99000788,0.09351135,-0.10554629,0
2.5990834,1.8097633,-4.2888799,0.48749506,0.33944684,-0.80444044,0
-2.8575523,3.8908441,-2.3072553,-0.53407341,0.72719455,-0.43122351,0
-0.95054412,-5.1114779,-1.4880123,-0.17577092,-0.94519466,-0.27515745,0
4.1001854,1.0349994,3.4185979,0.75401694,0.19033457,0.62867421,0
4.3725114,-2.6454284,-1.4886543,0.82145327,-0.49699029,-0.27966991,0
3.0173926,1.0218502,4.374176,0.55760878,0.1888361,0.80833989,0
2.3476937,-2.9963298,3.674562,0.4437353,-0.56633341,0.69452542,0
-0.71314812,5.0176959,2.0069683,-0.13082804,0.9205035,0.3681812,0
-0.71390992,1.7365446,4.995842,-0.13376586,0.32537773,0.93607485,0
2.8838742,-4.511827,0.91513574,0.53086722,-0.83054286,0.16845936,0
3.437562,-4.0456171,-0.85959566,0.63919109,-0.75225478,-0.15983592,0
3.4489353,0.18112887,-4.0610027,0.64695674,0.033976443,-0.76176935,0
-2.8201716,-0.11793065,-4.5063715,-0.53036743,-0.022178287,-0.84747773,0
-4.4859676,1.3637995,-2.538455,-0.84136796,0.25578812,-0.47610125,0
-1.4916513,-0.22432174,-5.137085,-0.27860662,-0.041898213,-0.95949095,0
3.5422325,-1.2639033,3.779489,0.66434431,-0.23704457,0.70884168,0
-3.0863729,-0.69646525,-4.2629728,-0.5813657,-0.13118991,-0.80299634,0
-2.427995,-4.6815672,0.17112088,-0.46015203,-0.88724756,0.03243072,0
3.0357234,-3.033613,3.2264762,0.56539327,-0.56500018,0.60092032,0
-4.5111904,-1.3204577,2.7155406,-0.83101976,-0.24324542,0.50023776,0
2.8046825,-2.9941325,-3.3970063,0.52656078,-0.56212878,-0.63776571,0
1.9505013,-3.5092945,3.5759914,0.36277917,-0.65270346,0.66510862,0
-2.6820157,-3.164685,3.3394516,-0.50362271,-0.59425724,0.62707454,0
1.4887916,-4.8362556,1.9176501,0.27512133,-0.89371616,0.35437229,0
4.1089878,-3.0059826,-1.5742388,0.77106577,-0.56408304,-0.29541135,0
2.2883713,-4.7133403,0.73982465,0.43246493,-0.89074457,0.13981482,0
3.3724678,-4.0107226,-0.10904202,0.64343989,-0.76521385,-0.020804346,0
-3.1317563,4.2835636,-0.38878992,-0.58861804,0.80510187,-0.073073618,0
-1.0841311,-3.6489811,-3.6011944,-0.20688997,-0.69635266,-0.68723327,0
2.579632,3.8966029,2.6662686,0.47946396,0.72424304,0.49556667,0
-4.9924355,0.82111424,1.7115287,-0.93471026,0.15373336,0.32044148,0
0.15276232,-4.0904884,3.4341552,0.02859051,-0.76556277,0.64272553,0
-4.6934023,-2.7505553,0.50756961,-0.85902703,-0.50343037,0.092899777,0
4.0451145,-0.65261829,3.3760505,0.76192045,-0.12292439,0.63589841,0
3.895741,3.3497348,1.5272918,0.72681046,0.62494463,0.2849398,0
4.9021411,-2.3235905,0.60069537,0.89813995,-0.4257139,0.11005569,0
-0.83660001,4.081708,-3.4158602,-0.15527686,0.75758404,-0.63399959,0
-2.8591363,3.9371681,-2.1611581,-0.53701288,0.73949254,-0.40591618,0
-3.6766226,-3.595402,-1.5526239,-0.68444359,-0.6693235,-0.28903794,0
4.9278145,0.32026708,-2.1910226,0.91214371,0.059281781,-0.40556064,0
0.2253556,1.6124645,-5.0161533,0.042731423,0.30575192,-0.95115179,0
1.3766685,5.1432443,-0.55763918,0.25715667,0.96073937,-0.10416497,0
1.3506935,4.8968258,-1.3107451,0.2574673,0.93342614,-0.2498524,0
-2.0694394,4.5091491,-1.804987,-0.39197737,0.85408849,-0.34188679,0
3.9157269,3.3041775,-1.6651531,0.72684103,0.61332464,-0.30908734,0
-5.0416255,0.12248478,1.5265374,-0.95683044,0.023245908,0.28971559,0
-3.9928148,-3.0422392,-1.9859408,-0.73964167,-0.56355405,-0.36788198,0
-4.0114512,-0.6446473,3.6819336,-0.73160815,-0.11757072,0.67151076,0
-0.30102825,-4.7341771,-2.5073125,-0.056103367,-0.88232005,-0.46729392,0
-3.5369859,3.549571,-1.787084,-0.66483533,0.66720092,-0.33591217,0
-4.499197,-2.8564129,-0.31693512,-0.84274256,-0.5350334,-0.059364974,0
-4.0914803,-1.2722039,3.0894401,-0.77455503,-0.24083996,0.58485955,0
1.724998,4.2173686,-2.798574,0.32259113,0.78868824,-0.52336007,0
-0.16252981,-5.4023147,-0.46669546,-0.029960126,-0.99584204,-0.086028859,0
4.6607304,-0.0044927779,-2.5110822,0.88035578,-0.00084863155,-0.47431314,0
1.0665705,3.8099632,3.4831989,0.20233734,0.72278184,0.66079193,0
-1.5040056,4.8917603,-1.460119,-0.2826035,0.91916454,-0.2743572,0
-3.0248644,4.3993816,0.61210668,-0.56287837,0.81865382,0.11390316,0
-3.3495359,1.5877599,-3.934123,-0.6196717,0.29373914,-0.72782159,0
1.1288999,-2.0302086,-4.7616701,0.21307713,-0.38319695,-0.89875364,0
-1.2788351,-4.4148598,2.8380315,-0.23673676,-0.81727475,0.52537376,0
-0.31041926,-1.8257322,5.0328112,-0.057884585,-0.34044844,0.93847972,0
1.5062096,-3.1237495,-3.9908555,0.28488401,-0.59082496,-0.75482911,0
4.6945267,2.548316,0.17921966,0.87837029,0.47680312,0.033532929,0
-2.4593601,0.53389907,-4.7936473,-0.4542504,0.098612584,-0.88539946,0
-0.21772532,-2.6941314,4.6044335,-0.040778998,-0.50459898,0.86239022,0
1.1495191,3.8097754,3.5554931,0.21541041,0.71392053,0.66627014,0
2.0337586,3.6889644,3.264595,0.38161314,0.69219482,0.61256647,0
-3.4311407,-2.4586186,-3.3993528,-0.63308704,-0.45364493,-0.62722176,0
-2.4433606,-4.7332625,-0.28239834,-0.4580569,-0.88734496,-0.052941229,0
3.6910436,3.1773486,2.3062878,0.68495733,0.58962953,0.4279843,0
0.23674954,5.3111587,0.08459612,0.044526018,0.99888152,0.015910182,0
5.0412254,-1.5747209,0.75309384,0.94495726,-0.29517505,0.14116439,0
-4.2977171,0.50609171,3.1910729,-0.79931498,0.094125941,0.59349471,0
3.865443,-0.91144359,3.5519979,0.7254771,-0.17106226,0.66664886,0
3.5351937,-3.9859643,-0.080347292,0.66346121,-0.7480588,-0.015079035,0
-4.9118075,-2.1031291,-1.0909318,-0.90069377,-0.38565749,-0.20004763,0
-4.6205683,2.7724013,-0.35253727,-0.85565865,0.5134064,-0.06528452,0
2.1266568,-4.0732203,2.6313131,0.40163076,-0.76924992,0.49693787,0
-4.1238589,3.2058241,-0.89734823,-0.77810383,0.60488588,-0.16931474,0
5.1435609,-0.69776899,1.3724692,0.95800084,-0.12996119,0.25562575,0
4.0330148,1.1366999,3.305959,0.75562978,0.21297327,0.61940789,0
4.87043,-0.13039224,-2.2203057,0.90964043,-0.024353096,-0.41468203,0
-2.7698002,-4.0865626,-1.8160515,-0.52655679,-0.77688175,-0.34524304,0
-2.3388569,-1.3039923,-4.7606039,-0.42820126,-0.23873676,-0.87157816,0
-4.2029366,-0.35209939,-3.3426144,-0.78098136,-0.065426409,-0.62111801,0
-2.0059462,4.8179021,-1.4642226,-0.37007841,0.88885814,-0.27013546,0
-0.88751644,-3.8320773,3.7190614,-0.1639508,-0.70789915,0.68702173,0
-2.1683431,1.8022062,4.5546689,-0.40478778,0.33643708,0.85026872,0
1.4469602,-4.6357446,2.2613232,0.27010664,-0.8653627,0.42212522,0
4.6329165,2.5071371,-0.59199697,0.8739779,0.47295961,-0.11167745,0
-2.4236803,1.9360535,4.3880105,-0.45102233,0.36027995,0.81656426,0
-4.443748,0.29603422,3.0773122,-0.82088649,0.054685932,0.56846702,0
2.2490845,3.8393514,-2.8253057,0.42670631,0.72841883,-0.53602958,0
4.6388235,-2.2245021,1.4896597,0.86610693,-0.41533303,0.27813184,0
0.34312674,-0.46133026,5.2840242,0.064555608,-0.086794332,0.9941324,0
2.6929598,4.6047268,-0.4525007,0.50302494,0.86012888,-0.084523782,0
4.3828793,1.0256926,-2.9118207,0.81754804,0.19132467,-0.54314828,0
-0.022995597,1.3895656,5.1451521,-0.0043147421,0.26072893,0.96540242,0
4.0727425,-2.9038706,-1.8266715,0.7648235,-0.54532009,-0.34303206,0
-5.2340612,0.8490603,0.28299937,-0.98569387,0.15989755,0.053295277,0
2.5444636,3.3224592,-3.399122,0.4719497,0.61625308,-0.6304726,0
-0.51159066,5.3811879,0.46080989,-0.094301417,0.99191344,0.084941007,0
-4.4795494,1.3583812,2.7649004,-0.82396686,0.2498602,0.5085749,0
-2.0060742,4.8536406,-0.50737119,-0.38020304,0.91989064,-0.096159987,0
-2.1540852,2.9523425,-3.9030521,-0.40285993,0.55215108,-0.72995406,0
2.2539654,4.4770846,-1.5067385,0.43063796,0.85538256,-0.28787434,0
2.8035314,-3.9871371,-2.2380347,0.52271724,-0.74340004,-0.41728061,0
-2.2817914,2.2750285,-4.2470455,-0.42802194,0.42675334,-0.79666734,0
-3.0142231,2.1473515,-3.9591312,-0.5561772,0.39622417,-0.73052943,0
2.4202955,4.6506076,0.93536568,0.45447341,0.87327248,0.17563923,0
2.1128888,0.77493221,4.880899,0.39311349,0.14418,0.90811557,0
4.1938381,1.4717442,3.0628088,0.77696842,0.27266163,0.56742907,0
4.4828987,-1.7476755,2.5640793,0.82223535,-0.32055166,0.47029316,0
0.16408499,1.5959206,-5.0580177,0.03092234,0.30075634,-0.95319963,0
-3.8089664,-1.7883451,3.2702081,-0.71473145,-0.33557305,0.61363643,0
-3.6384313,1.6712546,3.7694852,-0.66163915,0.30391324,0.68547094,0
4.6665192,0.38002807,2.3425407,0.8913573,0.072589606,0.44745147,0
-4.7434387,1.1326652,-2.2527714,-0.8829971,0.21084705,-0.41935623,0
1.2058102,-5.0754046,1.3032506,0.22425316,-0.94390941,0.24237485,0
-4.262218,-2.1001449,2.4019876,-0.80054313,-0.39445579,0.45114884,0
1.0458858,-4.7620077,-2.2169404,0.19527817,-0.88911819,-0.41392669,0
-2.4342003,-0.12730968,4.7260332,-0.45776248,-0.023941167,0.8887521,0
3.813293,3.2286391,1.7176615,0.7217322,0.6110763,0.32509741,0
-2.4132822,0.7607038,-4.731864,-0.44974214,0.14176567,-0.88183582,0
-3.8110242,-0.74453938,-3.5758553,-0.72195864,-0.14104518,-0.67740834,0
3.9686365,-2.9846325,1.9934936,0.74167657,-0.55778146,0.37255299,0
2.4092522,-4.5677891,1.103183,0.45623389,-0.86499047,0.20890693,0
-4.8341599,-2.192203,-0.021973426,-0.91072321,-0.41299632,-0.004139646,0
0.58565861,-2.7282877,-4.4400339,0.1116798,-0.5202598,-0.84667432,0
-4.5275135,2.7884085,0.65624809,-0.84505808,0.520455,0.12248837,0
-5.3243933,0.64017111,-0.0083810734,-0.99284816,0.11937374,-0.0015628323,0
-0.49334952,-3.6561239,4.0250745,-0.090356663,-0.66961682,0.73718989,0
0.092402332,-5.3585873,-0.24220681,0.017223641,-0.99883181,-0.04514695,0
1.4680681,4.5276241,2.3780458,0.27591702,0.85094732,0.4469434,0
-1.4729553,-2.2598774,-4.6246357,-0.27511987,-0.42210186,-0.86379343,0
4.3219666,-0.6939162,3.112468,0.80467546,-0.1291952,0.57948774,0
2.3221765,0.37270337,4.8476119,0.43098888,0.069172606,0.89970201,0
1.1261624,-1.0127041,5.1546488,0.20961441,-0.18849625,0.95944303,0
-3.5237126,3.2049239,-2.5503485,-0.65217751,0.59317529,-0.47202486,0
-2.0743592,-3.8168707,3.0324874,-0.39154574,-0.72045356,0.57239723,0
0.10699547,4.7868137,2.1414521,0.020399213,0.91262954,0.40827835,0
-0.49222949,2.8175626,4.5418963,-0.091705993,0.52493274,0.84618884,0
1.2879149,0.67115813,5.200829,0.23851174,0.12429323,0.96315277,0
3.146435,-0.50412357,4.1972499,0.59706587,-0.095662221,0.7964679,0
-5.1932907,-0.74714726,0.56333804,-0.98415256,-0.14158785,0.10675515,0
-0.68737501,0.339394,5.3119011,-0.12807594,0.06323798,0.98974615,0
-0.91079611,1.2302656,-5.1680598,-0.16897932,0.22825027,-0.9588263,0
-1.464932,1.2118165,4.912323,-0.27811322,0.23005998,0.93259078,0
3.4249656,2.1415319,3.6512065,0.62901294,0.3933036,0.67056328,0
4.4788456,-1.1973767,-2.7432857,0.83142292,-0.22227301,-0.50924522,0
-0.25503245,2.7908242,-4.5946507,-0.047387302,0.51855999,-0.85372704,0
5.3143687,0.48346204,0.16316767,0.99542224,0.090556167,0.030562563,0
4.1340442,2.8690829,1.9195436,0.76758534,0.53271466,0.35640973,0
0.59311569,2.4596796,4.7300005,0.11056913,0.45853558,0.88177073,0
-1.8427283,4.1936493,-2.6956456,-0.34670568,0.7890268,-0.50718039,0
0.010173536,5.3095298,-0.26918185,0.0019136287,0.99871552,-0.050632749,0
1.947419,-2.4937963,-4.3310752,0.36307132,-0.46493635,-0.80747342,0
-2.7201452,2.2936599,3.9929514,-0.50860518,0.42886215,0.74659097,0
2.4827077,-1.9098439,4.4299221,0.45760366,-0.3520155,0.81650716,0
5.0144272,1.3542185,1.3072317,0.9362179,0.25283918,0.24406649,0
-3.2009945,-3.8526654,1.5213375,-0.61147547,-0.73596203,0.2906161,0
-1.5610554,5.1769066,-0.20691821,-0.28849101,0.95671874,-0.038239539,0
0.27073148,-3.2029219,-4.2913051,0.050494052,-0.59737605,-0.8003701,0
-5.2320604,-1.3903143,-0.035439204,-0.96643931,-0.25681171,-0.0065461476,0
-0.15828277,-4.7501416,-2.5686378,-0.029298164,-0.8792519,-0.47545522,0
-1.1775445,4.647552,2.3788817,-0.22001366,0.86835361,0.44447279,0
3.1131604,-1.7929436,-3.908159,0.58644879,-0.3377499,-0.7362085,0
1.7307553,4.0128422,-3.1207852,0.32229623,0.7472598,-0.58114356,0
-2.2863138,4.509481,-1.7092226,-0.42838538,0.84493899,-0.32025611,0
-4.7228036,0.6384204,-2.3750639,-0.88694656,0.1198959,-0.44603902,0
1.7093306,-3.4111731,-3.69139,0.32197538,-0.64254028,-0.69532287,0
-0.55167264,3.1606119,-4.2262988,-0.1039682,0.59564877,-0.79648805,0
-0.55719012,0.25082174,-5.2981763,-0.10447388,0.047029406,-0.99341506,0
-2.4807239,1.2071309,4.5003972,-0.46994928,0.22867934,0.85255694,0
4.2568359,2.2067347,-2.5954726,0.78075141,0.40473986,-0.47603875,0
0.99871427,-5.0171542,-1.7072116,0.18518908,-0.93031836,-0.31656396,0
3.3280001,-3.8654175,1.6529504,0.62068301,-0.72091311,0.30828071,0
3.2414608,1.8752011,3.8791614,0.60118514,0.34778857,0.71945775,0
2.5036936,-1.3505269,4.5644326,0.4655149,-0.25110519,0.84867072,0
1.0334189,4.6891341,-2.2908552,0.19424635,0.88139206,-0.43060008,0
2.8415256,-3.6324689,2.9194956,0.52059227,-0.66549999,0.53487706,0
-4.7028017,0.39617807,-2.5925438,-0.87336987,0.073575288,-0.48146826,0
-5.1482978,-0.9068619,-0.67205954,-0.97679877,-0.17206107,-0.12751146,0
2.1187508,-2.4753027,-4.3220611,0.39144653,-0.45732072,-0.79851574,0
1.6943419,-3.7384918,-3.3410041,0.32014665,-0.70638967,-0.63128418,0
4.4741998,-2.827364,-0.68133509,0.83843768,-0.52983075,-0.12767804,0
-3.1956758,2.4526291,3.6111526,-0.59069741,0.4533506,0.66749525,0
-1.0265843,-0.98029637,-5.0890808,-0.19430621,-0.18554509,-0.96323311,0
-3.7816765,-2.2360549,3.0789263,-0.70490873,-0.41680312,0.5739153,0
0.6554774,-5.2447786,-0.65293354,0.12307687,-0.98479515,-0.12259922,0
3.8104239,1.7621959,-3.4295895,0.70290643,0.32507116,-0.63265413,0
3.5937355,1.3859195,3.7042742,0.67249197,0.25934565,0.69317698,0
-3.736223,3.9445503,-0.24110201,-0.68699872,0.72530496,-0.044332679,0
-4.2710061,1.2615516,2.9863591,-0.7965281,0.23527509,0.5569458,0
0.79434544,1.7083362,-4.9368539,0.15032691,0.32329625,-0.93428117,0
-0.70277125,0.61958718,5.3012552,-0.13054393,0.11509199,0.9847396,0
4.2789488,3.0459821,1.0507704,0.79884082,0.56865716,0.19616929,0
3.3500183,2.5197654,-3.3352289,0.62537366,0.47038394,-0.62261277,0
4.5223904,1.0312688,2.8140836,0.8335641,0.19008282,0.51869011,0
-3.5556636,-3.8831909,-0.35904953,-0.67375439,-0.73581672,-0.068035454,0
1.2052422,4.5034132,2.4215064,0.22942626,0.85725611,0.46095064,0
0.14344753,0.23962404,5.427496,0.026394861,0.044091683,0.99867874,0
2.8651619,-1.847473,-4.2262678,0.52766532,-0.34024164,-0.77833468,0
1.7118691,3.5908086,-3.55529,0.32086241,0.6730395,-0.66638213,0
-5.2069745,-0.46688598,-0.55540627,-0.99043041,-0.088807441,-0.10564508,0
1.1779109,-5.2671118,0.45187056,0.21748327,-0.9724918,0.083430998,0
-4.4932933,-2.0066919,1.8708041,-0.85348588,-0.38116434,0.35535291,0
4.4040203,2.9253087,-0.12819619,0.83273888,0.5531351,-0.024240114,0
1.4962679,4.8379674,-1.7901304,0.27857468,0.90073115,-0.33328587,0
0.97738945,-5.1947436,-0.63056564,0.18360354,-0.97583753,-0.11845236,0
3.1594553,2.1406841,-3.7663176,0.58924311,0.39924079,-0.70242387,0
-2.0801446,1.7402143,-4.5610175,-0.39200434,0.32794431,-0.8595261,0
-4.4478002,-1.7116016,2.2903607,-0.84118241,-0.32370368,0.43316045,0
0.071335696,-3.0154374,4.4126139,0.013346227,-0.56415951,0.82555789,0
4.7252841,1.5883932,1.9659886,0.88178521,0.29641005,0.36687312,0
-1.2831407,-4.56214,2.4359665,-0.2408046,-0.85616821,0.45715326,0
1.8453203,4.5564494,2.3276236,0.33926681,0.83771473,0.42793947,0
0.63918024,4.3019071,-3.1229286,0.11937884,0.80346149,-0.58326524,0
1.9755549,-3.3344455,-3.6822174,0.36953661,-0.62372333,-0.68877566,0
-0.37975922,2.633965,-4.5642738,-0.071877465,0.49853361,-0.86388534,0
-0.43682587,-3.7047415,3.7316275,-0.082787767,-0.70212704,0.70722252,0
-5.0374184,1.2559402,-1.2087473,-0.94502115,0.23561475,-0.22676134,0
0.81443781,-3.3838778,4.0617051,0.15226093,-0.63262331,0.75934464,0
3.5527587,3.3445709,2.1864219,0.66445965,0.62552303,0.40891859,0
1.0521424,-3.34197,4.0776215,0.19570631,-0.62163126,0.75846791,0
-3.321007,-3.662488,1.8236412,-0.63022119,-0.69502342,0.34606892,0
0.78179669,5.2268066,-0.94541168,0.14561725,0.97354364,-0.17609213,0
-0.20746365,3.5489306,4.0219893,-0.038648941,0.66113949,0.7492668,0
-3.2995527,-4.0663881,0.90640795,-0.62085605,-0.76514661,0.17055307,0
-1.1368321,-5.229311,0.19793338,-0.21228902,-0.97650772,0.036961555,0
0.64513415,4.1978827,-3.1931641,0.12141108,0.79002088,-0.60093778,0
-2.1670611,-1.7823657,-4.4951682,-0.40895575,-0.33635816,-0.8483032,0
-2.0187895,-3.5729251,-3.3536875,-0.38091367,-0.67415452,-0.63278782,0
-3.1775663,-4.0948153,-1.6959409,-0.58266556,-0.75086015,-0.31098214,0
2.6612864,0.61351681,4.6576734,0.49289191,0.11362831,0.86263901,0
-0.91692781,-3.8343918,3.5054274,-0.17380734,-0.72682434,0.66446781,0
3.1386933,4.3758569,0.22425672,0.58234084,0.81187928,0.041607711,0
2.6242659,1.9133445,4.2888169,0.48780528,0.35565737,0.7972163,0
-3.0741062,-2.6468508,-3.531976,-0.57152951,-0.49209532,-0.65665537,0
-0.83351225,-5.1794906,-0.61550492,-0.15779904,-0.98057181,-0.11652628,0
2.3471477,1.863853,-4.4980459,0.43424419,0.34483016,-0.83218038,0
-0.95008355,-3.1310916,4.2172513,-0.17799319,-0.58659363,0.79008001,0
4.8240695,-1.7427872,1.3635062,0.90893906,-0.32837158,0.25690842,0
0.72629029,-2.9848311,-4.4272213,0.13478276,-0.55391592,-0.82159036,0
4.065207,-3.2812953,0.2371196,0.77734119,-0.62744308,0.045341559,0
4.0725307,0.98012733,3.2657647,0.7667473,0.18453145,0.61485511,0
-2.3912487,-4.238585,2.2047715,-0.44757113,-0.79333788,0.41266811,0
1.2760458,-4.1269779,-3.360846,0.23314591,-0.75403875,-0.61405909,0
-1.9318926,0.49832126,-4.9653759,-0.36101952,0.093123034,-0.9278971,0
-4.052506,3.3696477,-1.1214635,-0.75207764,0.62535053,-0.20812497,0
0.25212932,5.3537245,-0.86075491,0.046446886,0.98625517,-0.15856698,0
1.6839842,4.9748855,1.0386841,0.3145346,0.92920929,0.19400546,0
-1.8181523,-4.7258754,1.7631617,-0.33909711,-0.88140619,0.328841,0
2.424931,-3.6880476,2.9764209,0.45550308,-0.69276899,0.55909586,0
0.49987867,4.1262884,3.46399,0.09238755,0.76262045,0.64021444,0
-2.3593235,1.2599888,-4.6452765,-0.44014955,0.23506038,-0.86661124,0
-5.2148266,-0.99693429,-1.0853691,-0.96231019,-0.18396777,-0.20028695,0
3.3225992,-3.9432902,1.2128576,0.62723798,-0.74441159,0.22896242,0
0.17050008,-2.8606312,4.496438,0.031976752,-0.53650236,0.84329277,0
1.0173441,-4.3463311,2.9264619,0.19060025,-0.81428868,0.54827505,0
1.4626707,0.44238588,-5.1917577,0.27026567,0.081742063,-0.95930952,0
-0.0036442161,-4.5712628,2.9230425,-0.00067163073,-0.84248585,0.5387181,0
5.1093907,-0.82803494,1.7403045,0.93565124,-0.15163293,0.31869125,0
3.922935,-1.1348997,-3.5138211,0.72816503,-0.21065713,-0.65222633,0
-0.13969891,-4.2186728,-3.3222411,-0.026006984,-0.78536731,-0.61848348,0
1.3884438,1.6603804,-4.8605022,0.26095471,0.31206453,-0.9135198,0
-1.0473862,-4.3360291,-3.0023797,-0.19478898,-0.80639851,-0.55837137,0
-2.5693448,-4.6081834,-0.80625796,-0.48139271,-0.86338973,-0.15106058,0
-2.0591764,-0.12564647,-4.9769306,-0.38220927,-0.02332158,-0.92378145,0
4.8480864,1.9229294,-1.2568389,0.90368187,0.35843349,-0.2342744,0
-4.7570577,1.4853377,-2.1888876,-0.87396526,0.2728858,-0.40214178,0
-0.78077292,-5.129353,1.4175948,-0.1451626,-0.95365781,0.26356158,0
-5.1011772,0.59602582,-1.476941,-0.954557,0.11153124,-0.27637237,0
-0.25756544,-3.3239915,-4.1862569,-0.048128355,-0.62111688,-0.78223872,0
-4.0833683,-3.0998919,1.601733,-0.76024723,-0.57714224,0.29821289,0
4.9963541,-0.27024174,1.8255349,0.93805856,-0.050737511,0.34274164,0
-1.2254106,1.9141102,-4.8273563,-0.2296661,0.35874197,-0.90474176,0
0.58843327,-5.1884632,1.5081329,0.10826438,-0.95461249,0.27747765,0
-0.94946659,2.9592581,-4.264925,-0.17992043,0.56076854,-0.80818766,0
-3.2003789,4.3539858,0.49883184,-0.58975303,0.80233514,0.091922738,0
-1.1123443,0.37037292,-5.2454672,-0.20695212,0.068908036,-0.97592139,0
1.6625925,-4.6152005,-2.3912902,0.30465257,-0.84568685,-0.43817872,0
-3.1835639,1.1079845,4.1112146,-0.59881222,0.20840627,0.77329862,0
-0.73559135,-3.3261716,-4.2030592,-0.1359639,-0.61479688,-0.77687746,0
4.315742,0.011517989,3.1615736,0.80669749,0.00215294,0.59096062,0
4.067337,-1.9613479,-2.9376338,0.75502777,-0.36408886,-0.54531872,0
-2.3541253,-3.1044855,3.6944342,-0.43844786,-0.57819992,0.68807584,0
-4.0950918,2.2745876,2.3338289,-0.78246588,0.43461472,0.44593421,0
4.7943826,1.2212341,1.7710899,0.91235924,0.23239784,0.33703405,0
2.2582271,2.348495,-4.2111273,0.42413267,0.4410865,-0.79091984,0
2.3299086,-2.9278171,3.7582548,0.43933126,-0.55207384,0.70866251,0
-4.3986597,1.8851357,-2.3312006,-0.82631898,0.3541359,-0.43793231,0
1.0074544,-1.1489655,-5.1041059,0.18908878,-0.21564895,-0.95798796,0
4.1297774,2.81286,2.0481424,0.76474571,0.520881,0.37927181,0
-4.5391574,0.58776027,2.889915,-0.83855951,0.10858226,0.53388005,0
5.1456475,-1.3349497,0.3863045,0.96541041,-0.25045913,0.072477251,0
0.76886964,-5.0310273,-1.686268,0.14340517,-0.93835843,-0.31451306,0
-3.8556738,3.7884867,-0.38688111,-0.71147424,0.69907647,-0.071389847,0
1.2357574,4.4864602,-2.7947989,0.22765136,0.82649618,-0.51485819,0
-3.5405591,2.5853899,-3.0689332,-0.66160589,0.48311839,-0.57347566,0
1.7979022,-2.2906175,4.4022021,0.34063178,-0.43398193,0.83404422,0
-0.36917001,2.4205048,-4.8680539,-0.06774836,0.44419977,-0.89336258,0
-0.64773417,4.7545295,2.1771581,-0.12292691,0.90231407,0.41318083,0
3.080893,-2.8798239,3.3226163,0.57384086,-0.53639013,0.61886376,0
-0.064671136,2.5924516,4.5410876,-0.012366872,0.49574694,0.86837894,0
4.4945779,2.5072086,-1.3931711,0.84297335,0.4702355,-0.26129398,0
-0.21472476,-2.9085317,-4.5451322,-0.039761193,-0.53858107,-0.84163499,0
-3.7912226,1.3415393,3.3453085,-0.72474968,0.25645557,0.63950646,0
-1.4697069,-1.7338759,-4.9265671,-0.27088243,-0.31957152,-0.90801805,0
-1.8249289,-3.1059954,3.8705904,-0.34513167,-0.58740777,0.7320084,0
-0.20288499,4.8611946,-2.2651069,-0.037803363,0.90578163,-0.42205516,0
-5.1147933,-1.5955604,-0.6750648,-0.94714111,-0.29546079,-0.12500635,0
3.3415055,-3.6607041,-2.085104,0.62142336,-0.68078506,-0.38776901,0
4.3054781,2.907069,1.2703416,0.80505115,0.54357243,0.23753227,0
3.9957483,-2.4874895,-2.5892689,0.74381614,-0.4630509,-0.48199734,0
3.753849,2.1603951,-3.1721928,0.69922757,0.40241572,-0.59088278,0
-2.5245965,0.44691184,4.6287165,-0.47711807,0.084460914,0.87477124,0
-2.0130384,3.2448385,3.7275522,-0.37723589,0.60807061,0.69852936,0
-1.5763931,3.4284589,3.8180106,-0.29365915,0.63867211,0.71123993,0
-5.2379904,0.128286,-0.85015774,-0.98679465,0.024168037,-0.16016278,0
5.0083432,1.2180684,-1.6260791,0.92665577,0.22536996,-0.30086109,0
3.8252177,3.5721688,0.90551364,0.72016883,0.67252767,0.17047989,0
1.4552863,2.7118208,4.4004045,0.27101013,0.5050078,0.81946367,0
-2.915468,-3.9774735,2.1138678,-0.54337209,-0.74130404,0.39397338,0
-0.9711082,-1.0290949,-5.2094593,-0.17989485,-0.19063671,-0.96503651,0
3.6193054,-0.64773452,-3.8461437,0.68020815,-0.1217345,-0.72283989,0
2.1182673,4.9588237,-0.20683177,0.3925426,0.91893482,-0.038328629,0
2.2296646,-4.4381685,1.7971451,0.42213297,-0.84025973,0.3402459,0
-0.28486311,4.4513841,-2.8900936,-0.053596657,0.83752263,-0.54376769,0
-0.95641732,4.8682013,1.9469414,-0.17945366,0.9134261,0.36530679,0
3.0607886,4.3727612,-0.55193114,0.57040274,0.8148995,-0.10285684,0
-2.8041432,-3.4253657,2.9420598,-0.52756393,-0.64443904,0.5535112,0
3.2465906,-3.7822392,1.7441237,0.61478257,-0.71621436,0.33027166,0
-4.1524758,-2.8832948,-1.6453184,-0.78107733,-0.5423454,-0.30948305,0
1.4885222,4.4031644,-2.4860044,0.28239676,0.83535159,-0.47163528,0
-0.21269754,1.7567445,-5.0994639,-0.039404701,0.32545742,-0.94473523,0
1.0187778,-1.2158631,-5.0685797,0.19182408,-0.22893295,-0.95435488,0
1.2904905,4.8330102,1.8392198,0.24213029,0.9068011,0.34508649,0
4.0130968,-2.0250173,-2.7899907,0.75854367,-0.38276276,-0.52735579,0
1.0251664,3.4520042,-4.0988665,0.18789685,0.63269794,-0.7512576,0
1.0429932,-4.439455,-2.6855524,0.19707628,-0.83884656,-0.50744212,0
4.0385704,-3.2910848,1.2626253,0.75338715,-0.61394519,0.2355402,0
-5.0118113,-0.023232032,-1.8000017,-0.94113255,-0.004362579,-0.3380096,0
1.7696635,0.95704526,4.8776474,0.33540007,0.1813865,0.92444885,0
3.2302475,-4.3393722,0.55337209,0.59402364,-0.7979852,0.10176189,0
2.4460425,2.6489491,-3.9301364,0.45862022,0.49666414,-0.73688006,0
2.3414032,3.6877081,-3.1419289,0.43513983,0.68534487,-0.5839141,0
3.3543658,-4.0708175,0.10135505,0.63580763,-0.77160841,0.019211475,0
5.1831675,1.357456,-0.5195744,0.96285748,0.25216949,-0.096519381,0
-1.9226969,-4.7487426,1.4431062,-0.36123389,-0.89218783,0.27112898,0
3.7501712,3.2068274,2.0581172,0.70144618,0.5998171,0.384958,0
-2.6070209,2.8408015,3.7381849,-0.48544642,0.52897811,0.69607747,0
-3.3113434,-2.4698637,-3.3413785,-0.62323028,-0.46485475,-0.62888318,0
-3.5534623,-2.0601635,3.2573719,-0.6778425,-0.39298755,0.62136167,0
-0.53786647,4.7464261,2.4455783,-0.10022774,0.88446409,0.45571682,0
3.6151154,-3.9707439,-0.023999596,0.67321116,-0.73943675,-0.004469234,0
4.2281442,0.15915839,-3.2849386,0.7893309,0.029712478,-0.61324865,0
-2.8420568,1.7266015,4.0966811,-0.53862751,0.32722604,0.77640426,0
-1.5974964,-4.010148,3.2846789,-0.29451054,-0.73930115,0.60555542,0
0.064302616,5.2689524,-0.23175102,0.012191367,0.9989599,-0.043938521,0
0.00157925,-3.4197333,-4.070013,0.0002970763,-0.6432938,-0.7656194,0
-3.0206017,4.2247543,-1.3818433,-0.56205559,0.78611714,-0.25712517,0
-3.722275,-3.7658818,0.069832362,-0.70291591,-0.71115065,0.013187172,0
2.3661444,4.4323068,-1.8381692,0.44226727,0.82846349,-0.34358093,0
-3.5928781,-4.0208879,0.070493951,-0.66624767,-0.74561596,0.013072091,0
1.1152933,3.5640569,3.7627652,0.21037734,0.67228669,0.70976895,0
-2.9753702,-4.4463048,0.89818686,-0.54846865,-0.8196153,0.16556843,0
-3.5930059,-2.8867607,-2.6608412,-0.67512953,-0.54242533,-0.49997482,0
2.9942563,2.3056662,-3.7354743,0.56349713,0.43390954,-0.70298898,0
-2.2658465,-2.6783609,4.0527005,-0.42271444,-0.4996728,0.75606847,0
4.8920555,0.062529035,-2.2605028,0.9077124,0.011602154,-0.41943237,0
-2.2049513,-4.7748256,-1.0612978,-0.41096032,-0.8899352,-0.19780539,0
-4.1992016,-3.2754729,-1.2822864,-0.76658565,-0.59795427,-0.23408791,0
3.5675805,-3.9422932,0.2466595,0.67026937,-0.74066961,0.046341859,0
4.137517,-3.0170221,-1.5029693,0.77529478,-0.56533456,-0.28162885,0
2.5812595,1.1224349,4.531311,0.48389179,0.2104155,0.84945518,0
5.3310003,0.87336445,-0.014909107,0.98684078,0.16167165,-0.0027598788,0
-4.2813706,0.87083656,2.9852147,-0.80910301,0.16457264,0.56415254,0
1.9294124,0.33183908,-5.0386357,0.3569279,0.061387926,-0.93211263,0
-2.1834784,1.2144943,4.7543092,-0.40654242,0.22612703,0.8852061,0
3.2337351,-0.32707697,-4.144074,0.61400479,-0.062103674,-0.78685522,0
-2.6739092,0.86968625,-4.47785,-0.5057072,0.16448076,-0.84688032,0
-2.5437829,-4.7803798,0.0036415781,-0.46976081,-0.88279349,0.0006724908,0
-3.0240784,-2.5879591,3.6694562,-0.55860358,-0.47804421,0.67781687,0
-1.2067444,-5.237236,0.17389831,-0.22441551,-0.97395682,0.032339472,0
-3.0329556,-2.3044727,-3.8984818,-0.55645806,-0.4228029,-0.71525663,0
1.9025654,-1.2401783,4.8262429,0.35669357,-0.23250903,0.90482557,0
-5.1314106,1.3488022,0.15459353,-0.96673703,0.25410888,0.029124795,0
0.77778029,-2.1152754,-4.7795448,0.14718817,-0.40029752,-0.90448743,0
4.6400781,-0.038292322,-2.5361738,0.87745708,-0.0072412295,-0.47960049,0
4.8603773,-0.8413319,2.1465552,0.90350318,-0.15639651,0.39902654,0
-0.3020243,3.286715,4.2084041,-0.05647102,0.61453384,0.78686672,0
1.5107138,-4.6143508,-2.0566924,0.28650016,-0.87509114,-0.39004257,0
-4.9990745,-1.393671,0.974168,-0.9467321,-0.26393548,0.18448938,0
0.64357954,5.1695361,-0.54406005,0.12287267,0.98697156,-0.10387234,0
4.8247218,1.8408587,-1.0061852,0.91705674,0.34990036,-0.19125018,0
1.5572007,-3.45591,-3.8210003,0.28932342,-0.64209813,-0.7099309,0
4.0426993,0.52546501,-3.5878959,0.74441558,0.096758209,-0.66066885,0
-2.6253107,-1.369397,-4.5002704,-0.48734045,-0.25420326,-0.83539206,0
0.93536788,5.2966022,0.48390478,0.17320715,0.98080063,0.089607276,0
4.028059,3.2658987,-1.2236849,0.75600141,0.61295629,-0.22966585,0
-3.9516339,-3.473424,-0.32284725,-0.74968159,-0.65895832,-0.061248753,0
-2.0520828,-0.79862964,4.7621794,-0.39112341,-0.15221743,0.90766317,0
-5.0660787,1.8527035,-0.68541038,-0.93167621,0.34072107,-0.12605026,0
-0.98996937,4.3831258,-2.9246311,-0.18464534,0.81752408,-0.54549116,0
1.6827861,3.1461132,3.9216154,0.31740025,0.59340703,0.7396791,0
4.2804213,-2.2515914,2.4827282,0.78734767,-0.41416141,0.45667708,0
-1.7798092,0.10465687,-5.0641837,-0.33150616,0.019493323,-0.94325167,0
-3.7016909,2.3944237,-3.0034828,-0.69391769,0.44885784,-0.56303185,0
-2.1547227,0.32578442,4.9797211,-0.39640373,0.059934467,0.91611791,0
4.7276826,1.9909061,-1.5015736,0.88449961,0.37247756,-0.28092858,0
4.2853932,-0.94361609,3.165303,0.79204255,-0.1744027,0.58502328,0
2.7649715,4.3908381,-1.1788924,0.51962209,0.82517183,-0.22154967,0
0.99393398,-5.1393609,0.7852782,0.18777686,-0.97094285,0.14835702,0
5.1305404,0.84318358,0.8759672,0.97304982,0.1599168,0.16613449,0
-1.1728828,-4.3763032,-2.7816353,-0.2206118,-0.82315481,-0.5232079,0
2.5523288,1.5659385,4.4134493,0.47855631,0.29361019,0.82751244,0
-2.5772345,-2.8995421,-3.6195431,-0.48574722,-0.54649448,-0.68219751,0
-1.6264058,-1.5876324,-4.8524122,-0.30352861,-0.29629251,-0.90558332,0
4.0754514,3.4829922,-0.53876764,0.75639063,0.6464321,-0.099993534,0
-4.380785,2.1579089,1.9658924,-0.83217263,0.40991575,0.37344036,0
2.9772549,-0.33984649,4.444067,0.55546117,-0.063404553,0.82912165,0
3.0632288,-1.04249,-4.2672853,0.57199305,-0.19466291,-0.79682511,0
3.7265928,-1.416752,-3.6468732,0.68970346,-0.262207,-0.67494929,0
-1.7709156,1.9907205,-4.5981736,-0.33323279,0.37459344,-0.8652373,0
-5.2409096,0.54089451,-1.3160111,-0.96506733,0.099600963,-0.24233185,0
-5.2517648,-0.023342514,-0.78128976,-0.98910499,-0.0043962738,-0.14714627,0
-5.2494011,-0.6484279,-0.68219835,-0.98430383,-0.12158532,-0.12791754,0
3.1392815,1.8200339,-3.9794459,0.58291376,0.33795083,-0.73891872,0
-1.6903785,-5.0637999,0.078380235,-0.31660587,-0.94844359,0.014680523,0
2.7011628,-4.1193671,-2.1844134,0.50127256,-0.76445806,-0.40537599,0
-2.5511315,-4.6517482,0.99081278,-0.47268516,-0.86189687,0.18358226,0
1.1907241,4.9377995,-1.525192,0.2245215,0.9310655,-0.28758836,0
-1.1341362,5.0499487,-1.177151,-0.21366897,0.95140016,-0.22177286,0
-4.3293839,-2.2669718,2.1740549,-0.80941814,-0.42383122,0.40645957,0
4.5819411,-2.3013849,-1.3033946,0.86606956,-0.43500328,-0.24636509,0
-3.6590347,0.75730085,3.9830096,-0.66998655,0.13866536,0.72930783,0
-0.08719632,5.3001943,-0.50371814,-0.01637554,0.99538082,-0.094598681,0
-1.5078719,4.4027672,-2.6897473,-0.28052384,0.81908894,-0.50039947,0
-4.5809965,0.85329968,2.4865482,-0.86733031,0.16155714,0.47078374,0
1.9296831,2.7654521,-4.1490359,0.36091924,0.51723772,-0.77601701,0
3.2995758,3.9515145,-1.1960896,0.62431645,0.74767053,-0.22631347,0
-2.0809698,-4.590385,1.9217334,-0.38579416,-0.85101843,0.35627306,0
-3.6989987,-2.0004802,-3.4041986,-0.68367541,-0.36974305,-0.62918836,0
3.7167268,-0.77010745,-3.8048038,0.69156748,-0.1432931,-0.7079559,0
5.1751614,1.4151255,0.60041231,0.95860368,0.26212603,0.11121536,0
-3.8657312,-3.266638,1.8634806,-0.71676946,-0.60568786,0.3455196,0
2.7921107,-3.1144361,3.3527544,0.5208531,-0.58098114,0.62543815,0
-1.7683158,2.5839882,-4.2140999,-0.33682159,0.49218756,-0.80268461,0
1.6438946,-5.0636654,0.075094193,0.30875009,-0.9510386,0.014103909,0
4.2734609,0.57236886,-3.1109307,0.80377126,0.10765365,-0.58511746,0
0.15955427,3.5170164,-4.041574,0.029767804,0.65616453,-0.75403047,0
1.1887125,4.3466759,2.913811,0.22151533,0.80999851,0.54298562,0
4.4156084,0.95571846,2.9763639,0.81617093,0.1766528,0.55014426,0
-1.7859217,-5.103837,-0.0062214923,-0.33028081,-0.94388199,-0.0011505764,0
-4.6382489,-1.426622,2.1321709,-0.87506717,-0.26915118,0.40226233,0
-4.0149059,-1.3998889,3.2135189,-0.75330597,-0.26265737,0.6029439,0
3.1369147,3.0953243,3.1173358,0.58111894,0.57341421,0.57749188,0
2.3967819,-2.2022507,-4.2157907,0.45000675,-0.41348261,-0.79153395,0
-1.5367213,-0.27938721,-5.0966063,-0.28828469,-0.052412268,-0.95610929,0
1.4969295,-1.5464922,-4.9755392,0.27612975,-0.2852723,-0.91780835,0
-4.6125717,2.3205392,1.7397739,-0.84655678,0.42589435,0.31930503,0
5.3825479,-0.088150755,0.42075676,0.99682575,-0.016325157,0.077922426,0
1.6034596,-2.2954187,-4.5748425,0.29894686,-0.42795482,-0.85292751,0
5.1842165,-1.2846653,-0.10357687,0.9704597,-0.240483,-0.019389078,0
-4.4208679,-3.1501651,0.21907936,-0.8137325,-0.57983899,0.040325113,0
0.1263054,5.2761388,0.67090952,0.023741066,0.99173242,0.12610789,0
1.4784414,-3.5073013,-3.7720034,0.2758989,-0.65451401,-0.7039113,0
1.8234987,5.0891128,-0.50213647,0.33586794,0.93735725,-0.092487887,0
-3.4154177,2.5229163,-3.2525718,-0.63854188,0.47168103,-0.60809642,0
0.69914299,-2.1085045,4.8846488,0.1302903,-0.39293492,0.91028929,0
2.9631236,-1.9876152,-4.0593948,0.54826236,-0.36776549,-0.75110376,0
4.5604868,0.52164179,2.8863356,0.84106499,0.096203469,0.53231066,0
3.6344571,3.5609498,1.651695,0.6793943,0.66565347,0.30875373,0
-4.5197568,-0.79417545,2.6661775,-0.85161155,-0.14963835,0.50236058,0
5.2020273,-0.90719807,-1.1279346,0.96339893,-0.16801021,-0.2088899,0
0.82903111,-1.691314,-4.980166,0.15570234,-0.31764978,-0.93533701,0
1.6471821,3.6507478,3.5799682,0.30662915,0.67960048,0.66642457,0
-1.3488531,1.2120022,5.0422034,-0.25172809,0.22618844,0.9409951,0
-0.94492614,2.6476278,4.563386,-0.17629921,0.49398008,0.85141188,0
4.2798495,0.053042211,3.3459289,0.78778172,0.0097633535,0.61587715,0
3.0946229,-2.5818598,3.6284246,0.57065529,-0.47610062,0.6690895,0
-0.038065095,4.8517938,-2.2652481,-0.0071087396,0.90608311,-0.42304003,0
1.4181949,-5.1644511,0.62030673,0.2630457,-0.9578985,0.11505402,0
2.9401109,4.2340894,1.1040467,0.55771726,0.80317539,0.20942949,0
-3.7498744,3.1139956,-2.1328237,-0.70480055,0.58528513,-0.40087083,0
-3.4864225,0.402495,4.0942101,-0.64652455,0.074638948,0.75923312,0
-4.7567019,1.1529983,-1.8662829,-0.90808129,0.22011389,-0.35628396,0
-0.61088145,5.0347576,1.3408396,-0.11644858,0.95974493,0.25559601,0
4.7611136,-1.9841942,-1.4864997,0.88695157,-0.36963707,-0.27692118,0
-1.4318039,5.1221681,0.15420148,-0.26909783,0.96267676,0.028981121,0
-0.76231796,-3.7650685,-3.806721,-0.14095747,-0.69618529,-0.70388705,0
-1.4447236,-2.8561735,-4.373044,-0.26659018,-0.52704042,-0.80694366,0
-4.1774321,0.67378086,-3.2449145,-0.78340697,0.12635624,-0.60852903,0
-4.0480294,1.9717132,2.691293,-0.77168691,0.37587306,0.51304853,0
-1.6319277,-1.5383706,-4.9168181,-0.30197659,-0.28466451,-0.90982211,0
-1.2217199,5.2388248,0.31569579,-0.22672096,0.97219616,0.058585323,0
2.3100746,1.9071034,-4.4015136,0.43388429,0.35819718,-0.82670385,0
-2.675709,-3.5140126,3.0299892,-0.49955657,-0.65606838,0.56570089,0
1.3343376,-4.6274633,2.2790966,0.25043622,-0.86850917,0.42775407,0
3.8311558,-0.36925843,-3.7751544,0.71062088,-0.068491794,-0.70023346,0
-1.8899081,-4.1261296,-2.9005516,-0.35088724,-0.76607233,-0.53852701,0
-3.2598944,-2.2344806,3.6267619,-0.60772812,-0.41656464,0.67612165,0
-0.81818932,-0.074390583,-5.2646618,-0.15355313,-0.013961202,-0.98804182,0
-3.1473267,-3.5231013,-2.7070072,-0.57804316,-0.64705855,-0.49717337,0
2.0121818,3.7400537,3.316658,0.37341401,0.69406676,0.61549437,0
2.7043457,-3.0769296,-3.4090719,0.50743681,-0.57734758,-0.63966995,0
2.6733191,3.5276208,3.2217855,0.48831806,0.64436787,0.58850288,0
0.61174023,5.1221294,1.2520465,0.1152422,0.96492833,0.23586579,0
5.158031,1.1612614,0.21697453,0.97476071,0.21945429,0.041003678,0
-3.0548346,-3.4587238,2.6347587,-0.5748843,-0.65089154,0.49583089,0
1.6905003,0.47154665,-5.0723033,0.31496015,0.087854713,-0.94503003,0
-5.2633352,0.86123294,-0.66575968,-0.97927547,0.16023761,-0.12386863,0
-4.5774555,2.5052948,0.70730734,-0.86926079,0.47575659,0.13431798,0
4.5673742,0.65845853,-2.7431054,0.85079783,0.12265584,-0.5109781,0
-0.22752106,-3.2385013,4.1787386,-0.042996276,-0.61200267,0.78968602,0
2.9830265,4.3560286,1.461876,0.54452825,0.79515904,0.26685408,0
-1.1430346,-2.401289,-4.5385365,-0.21729349,-0.45649055,-0.86278617,0
0.55551547,2.2089918,4.7272763,0.10586455,0.42096746,0.90087682,0
-3.20295,-3.60829,-2.4166276,-0.59355903,-0.66867512,-0.44784063,0
3.8942468,0.93328494,3.465472,0.73534393,0.17623059,0.65437913,0
-2.465445,-2.8272002,-3.6517465,-0.47094119,-0.54004246,-0.69754457,0
5.0942898,1.7223598,0.205009,0.9466334,0.3200531,0.038095273,0
4.6783757,0.11767562,2.3685322,0.89195305,0.022435378,0.45157114,0
-2.259846,3.8379922,2.9220912,-0.42423403,0.72049463,0.54855531,0
0.33587283,1.0533867,5.3227773,0.061782271,0.19376566,0.97910053,0
-4.8522658,-0.96098071,1.9337237,-0.91361696,-0.18093985,0.36409441,0
3.1074736,3.7174561,-2.0735264,0.58962709,0.7053681,-0.39344093,0
-0.01503971,-2.8646724,-4.4884267,-0.0028245118,-0.53799582,-0.84294271,0
2.7011449,-1.8392678,-4.3721132,0.4948574,-0.33695909,-0.80098355,0
2.8685727,4.1302481,-1.8841392,0.53417802,0.76912385,-0.3508594,0
0.80121881,4.9673615,-1.7591416,0.15031636,0.93192482,-0.3300319,0
5.4015656,0.11924646,0.65324378,0.99252814,0.021911327,0.12003239,0
2.321137,2.2231872,-4.2100325,0.43822649,0.41973376,-0.79484659,0
3.3498521,3.4842181,-2.2892385,0.62636608,0.65149027,-0.42804915,0
-4.8405662,-0.4787893,-2.3665335,-0.89485586,-0.08851184,-0.43749145,0
5.2409186,-0.56760699,0.87921184,0.98064077,-0.10620629,0.16451143,0
3.06972,-0.098200001,4.3458276,0.57684547,-0.018453224,0.81664485,0
-0.82186884,-1.7928721,4.9068179,-0.15541099,-0.33902249,0.92785293,0
5.2023411,0.8364495,1.1827825,0.96334738,0.15489016,0.21902263,0
0.25350761,0.73817599,5.3476272,0.046908639,0.1365909,0.98951632,0
4.3372951,-2.1194274,-2.2998703,0.81112027,-0.39635548,-0.4301002,0
-4.6653457,-1.2080501,2.4590151,-0.86230451,-0.22328615,0.45450434,0
-4.6222787,1.1086682,-2.6839418,-0.8467623,0.20309861,-0.49167538,0
-4.7095041,-0.60054874,-2.232003,-0.89770943,-0.11447453,-0.4254567,0
-4.4894228,-2.1011884,-2.0002594,-0.83990115,-0.39309967,-0.37421739,0
1.0955377,1.6978234,-4.9224157,0.20588963,0.31908005,-0.92509311,0
1.7562728,-4.155632,-2.7923229,0.33101395,-0.78323376,-0.52628374,0
1.02352,-2.3980389,-4.5523276,0.19510004,-0.45710635,-0.86774987,0
0.95733339,1.6259674,-4.9521737,0.18064733,0.30681753,-0.93446755,0
-4.2627888,2.094552,2.4353497,-0.79864138,0.39241821,0.45626727,0
-1.364961,1.9059252,-4.861095,-0.25291842,0.35315558,-0.90072936,0
4.6309457,1.0180168,2.2999215,0.87875706,0.1931764,0.43642753,0
-2.9996021,0.88362581,-4.2766571,-0.56618237,0.16678658,-0.8072297,0
1.0621492,-4.8296709,-1.8083746,0.20172364,-0.9172523,-0.34344697,0
-1.1723027,4.1073828,-3.3040204,-0.21708775,0.76060766,-0.61184055,0
-3.3695142,-2.0957623,3.6256506,-0.62688023,-0.38990545,0.67453307,0
2.7917907,-4.4609981,-1.2263113,0.51665789,-0.82556683,-0.22694516,0
-1.4005601,5.1019635,0.30135927,-0.2642923,0.96276462,0.056867916,0
-3.6618598,-2.8759623,-2.6422827,-0.68398756,-0.53719217,-0.49354389,0
1.7783083,-4.9430523,0.40632093,0.33751076,-0.9381575,0.077116936,0
4.6245251,-1.8308346,-2.1890719,0.8510083,-0.33691144,-0.4028345,0
-0.61217225,-5.1293578,1.4628267,-0.11402223,-0.95538604,0.27246377,0
5.1516352,0.092139557,-1.5337318,0.95828545,0.017139412,-0.28529832,0
-4.4919434,2.8543727,0.049895335,-0.84397632,0.53629863,0.0093746688,0
1.0717862,3.3026659,-4.014842,0.20191751,0.62220067,-0.75637001,0
-1.154541,-4.3109627,2.9260154,-0.21634533,-0.80781597,0.54829562,0
-0.78780603,1.0342567,5.1086273,-0.14944713,0.19619891,0.96910864,0
-0.88585865,-5.1940784,0.66012329,-0.16681992,-0.97811961,0.12431069,0
-4.906733,2.2049861,0.61505312,-0.90622908,0.40724093,0.11359473,0
2.303719,-1.9719319,-4.2704978,0.43983981,-0.37649304,-0.81534898,0
-1.8996603,2.8257344,4.2357497,-0.34954816,0.51995099,0.77940172,0
3.7295396,0.89038348,3.7055998,0.69942057,0.16697839,0.69493097,0
-3.7906983,-3.7271523,-0.18067192,-0.71264678,-0.70070022,-0.033966105,0
1.9187973,2.9960487,-4.0928116,0.35382417,0.55246818,-0.75471014,0
1.4961388,5.2239351,-0.37272847,0.27468577,0.9590959,-0.068431623,0
3.6903934,3.1667442,-2.1492193,0.6941244,0.59563142,-0.40424564,0
-0.7711035,0.64279163,-5.2666545,-0.14382298,0.11989079,-0.98231423,0
3.4498997,3.6147892,1.8857433,0.64594746,0.67682081,0.35308012,0
3.1073074,-3.8180385,2.225965,0.57515419,-0.70670861,0.41202012,0
4.3004017,3.0208659,-0.84796453,0.80783641,0.56747383,-0.15929131,0
-2.7929809,-2.4853559,3.8046782,-0.52360231,-0.46593159,0.71326602,0
-1.1176901,-2.0779951,4.7920547,-0.20924847,-0.38903207,0.89714503,0
4.1471066,-2.7231417,-1.8698988,0.78218734,-0.51361281,-0.35268232,0
-5.2091098,-1.457033,0.36616844,-0.96083778,-0.26875463,0.067540996,0
-2.758307,1.4385359,4.3974829,-0.51206791,0.26705804,0.81637394,0
-0.5204944,3.5915835,-3.8165977,-0.098829783,0.6819582,-0.72468317,0
-4.5551248,2.8532233,-0.21599932,-0.84679008,0.53040946,-0.040153913,0
-1.2727858,-0.93482137,-5.065496,-0.23987889,-0.17618355,-0.95468193,0
-0.3768658,-2.9994111,4.4597974,-0.069948114,-0.55670518,0.82775998,0
0.88991696,5.1901884,0.45230103,0.1683753,0.98200119,0.085576884,0
-3.6388969,-2.0049324,3.4490912,-0.67389804,-0.37129936,0.63874739,0
-3.5009811,-1.7684112,-3.5203407,-0.66427439,-0.33553746,-0.66794771,0
-4.8390131,1.9164634,-1.272754,-0.90312827,0.35767877,-0.23754019,0
0.32258537,2.9971189,4.3792224,0.060677126,0.56374705,0.82371569,0
-4.8224635,-1.2328619,-1.8989235,-0.90520591,-0.23141572,-0.35643956,0
2.8791325,-0.96601343,-4.4530048,0.53416431,-0.17922409,-0.82616419,0
4.2232256,-0.40461811,3.168102,0.79759884,-0.076416224,0.59832811,0
0.28011379,4.0870185,-3.3071702,0.053203642,0.77627116,-0.62815005,0
0.88187927,5.0873876,1.3190809,0.16548404,0.9546448,0.24752463,0
-3.2809179,-3.6746912,2.204253,-0.60792655,-0.68088949,0.40842959,0
3.381614,-3.643805,1.8796811,0.63627791,-0.68561131,0.35367715,0
0.54219621,-1.5896617,4.9725466,0.1033041,-0.30287665,0.94741434,0
4.7064476,0.20453016,-2.4993749,0.8825379,0.038352836,-0.46867472,0
4.8312416,-0.98985875,2.1284509,0.89945239,-0.18428613,0.39626256,0
5.2743387,0.43536061,0.0042452277,0.99661034,0.082263373,0.00080215512,0
-5.3422508,-0.68645817,-0.18832365,-0.99123949,-0.12737037,-0.034942918,0
1.4515532,4.7577038,1.9277446,0.27209687,0.89184213,0.36135998,0
4.3261204,1.8035765,-2.5186901,0.81304252,0.33896062,-0.47335765,0
-2.4527483,-3.3131907,-3.3338265,-0.46263775,-0.62493449,-0.62882686,0
-1.8846862,-4.9975438,0.66247648,-0.35018063,-0.9285593,0.12309021,0
-3.036803,4.2710686,-1.2345774,-0.56403321,0.79327649,-0.22930121,0
-4.0383201,-1.9429965,2.8207636,-0.76262665,-0.36693001,0.53269416,0
-2.6268492,-0.55445749,-4.5512228,-0.49712616,-0.10493001,-0.86131018,0
2.4957774,1.6708386,4.4776645,0.46289518,0.30989268,0.83047849,0
2.8983788,0.49533013,-4.3662124,0.55060327,0.094097562,-0.82944667,0
-1.5684938,4.9116826,-1.505881,-0.29200566,0.91440535,-0.28034908,0
0.56503385,-4.9343443,1.9244677,0.10608165,-0.92639297,0.36130705,0
-2.3450432,-0.86003864,4.8102126,-0.43266007,-0.15867698,0.88748342,0
3.2175214,2.9494274,-3.2090335,0.59391099,0.54442447,-0.59234428,0
