-6.8563242,0.33956215,0.87918866,-0.99068391,0.04906401,0.12703572,0
4.2731657,2.8176591,-4.5128627,0.62620938,0.41291273,-0.66133565,0
-4.754571,3.1639915,3.7306755,-0.69698393,0.46381706,0.54688859,0
5.413219,-2.22153,-3.520184,0.79272705,-0.32532713,-0.51550567,0
-5.2071071,-3.488471,3.0698984,-0.74610138,-0.49984628,0.43987101,0
4.5621629,5.1909719,-0.40288886,0.65902829,0.74986303,-0.058199402,0
3.6815813,3.7829597,-4.4458652,0.53344744,0.54813677,-0.64418936,0
3.4622569,-3.6377277,4.7649612,0.50012386,-0.52547067,0.68829983,0
0.032773223,-6.6168742,2.1662791,0.0047070831,-0.95035446,0.31113377,0
5.5912633,1.1607629,-3.7199779,0.82040298,0.1703181,-0.54583031,0
1.2699182,-3.1011465,-6.1492753,0.18133663,-0.4428249,-0.87807924,0
5.8047099,-2.7360795,2.5624442,0.84005535,-0.39596435,0.37083593,0
-3.28162,-6.0479875,-0.087738432,-0.4768765,-0.87887782,-0.012749921,0
2.6138933,-1.8581533,-6.1910725,0.37489074,-0.26650074,-0.8879382,0
-4.4614344,4.6110263,2.7224193,-0.64011323,0.66157621,0.39060456,0
-2.9049649,-0.012528658,6.2216434,-0.4230679,-0.0018246254,0.90609616,0
2.6741087,1.8567153,6.0453758,0.38945928,0.27041349,0.88045329,0
-5.2023721,-4.3897548,-1.265698,-0.75139397,-0.63402528,-0.1828085,0
0.052859213,-6.861537,0.14765126,0.0077016875,-0.99973893,0.021513067,0
2.3627801,1.3648487,6.3251314,0.34299853,0.19813147,0.91820258,0
-2.4749379,2.6443231,5.9344807,-0.35598341,0.38034698,0.85358775,0
-1.0245756,6.822228,-0.84202564,-0.14742239,0.98162514,-0.12115595,0
-1.0291103,5.0270996,4.6927428,-0.14799665,0.72294861,0.67486465,0
4.0783157,-1.6994102,-5.3324723,0.58892465,-0.24540144,-0.77002972,0
3.9261808,-4.6618199,-3.1070642,0.57390672,-0.68143821,-0.45417291,0
4.2187729,-5.3603406,0.46461713,0.61703318,-0.78399765,0.067954399,0
4.0225091,-2.6351564,-4.8630919,0.58815724,-0.38530335,-0.71106428,0
5.7510042,0.083656006,-3.8053999,0.83389831,0.012130161,-0.55178481,0
-0.71254742,0.90251237,-6.7226768,-0.10447434,0.13232717,-0.98568481,0
-2.7424042,1.3819849,-6.2311754,-0.39477155,0.19893798,-0.89698333,0
-5.7032633,2.8080778,2.5710514,-0.83170462,0.40950087,0.37493539,0
3.4045219,3.1144423,-5.2288556,0.48819971,0.44660303,-0.74980444,0
1.0858037,4.3126893,5.3124552,0.15672155,0.62248021,0.76678336,0
-3.9377236,5.6704988,0.10929137,-0.57031238,0.82127541,0.015828999,0
3.7302186,5.4344444,-2.0116529,0.54126853,0.78855801,-0.29189828,0
0.33951208,1.9933132,-6.5713015,0.049380992,0.28992131,-0.95577568,0
0.16301551,-6.8023252,0.22245413,0.023945002,-0.99917912,0.032675814,0
6.236733,2.8639586,0.45734519,0.90675229,0.41638803,0.066492952,0
-5.8667488,1.9156858,-3.2353277,-0.84193063,0.27491793,-0.46429831,0
-1.3129077,-4.6991353,4.9078956,-0.18971339,-0.67901874,0.70918429,0
-0.15626539,-4.9945149,-4.7775636,-0.022603353,-0.72244269,-0.69106126,0
0.49520242,-5.604712,3.997853,0.071745224,-0.8120141,0.57921135,0
-4.813931,-3.6367564,-3.1725461,-0.70621508,-0.53352076,-0.46542004,0
5.2542214,3.355185,-3.0056968,0.75918609,0.48479298,-0.43429521,0
0.089541577,5.3819032,-4.3430896,0.01294644,0.77814674,-0.62794906,0
-4.7342262,-1.021742,-4.8628283,-0.68979543,-0.14887184,-0.70853329,0
-2.881911,-6.1262426,1.7170477,-0.41260985,-0.87710828,0.24583368,0
5.6934009,-1.8458332,3.3937135,0.82748717,-0.2682761,0.49324727,0
-1.7327591,0.040997397,6.7787881,-0.24764797,0.005859396,0.96883237,0
-3.4074595,1.0073917,-5.7910757,-0.5015192,0.14827067,-0.85234636,0
5.0529552,-3.4147606,-2.9459436,0.74606013,-0.50418353,-0.43496349,0
-0.82192421,4.1234593,5.5296249,-0.11832038,0.59359401,0.79601908,0
3.8656266,2.1627314,5.3722076,0.55517989,0.31061068,0.77155447,0
-0.75545913,-1.0453156,6.698204,-0.11075097,-0.15324418,0.98196256,0
2.2359059,-2.6511004,-6.0180454,0.32190648,-0.3816826,-0.86642635,0
-4.5543361,2.9277632,4.2204819,-0.66342777,0.42648575,0.61479545,0
5.9000878,3.5198622,1.4859937,0.83937693,0.50075376,0.21140513,0
2.7168872,-2.3818355,-5.9595275,0.38983873,-0.34176305,-0.85511631,0
-4.6554866,-4.0038581,-3.156244,-0.67430955,-0.57992643,-0.45715639,0
0.033303764,-2.368433,6.4151459,0.0048700604,-0.34633958,0.93809658,0
-4.5851173,1.4317362,-4.8367,-0.67263418,0.21003491,-0.7095412,0
0.71968359,-6.7656732,1.6252358,0.1028816,-0.96717954,0.23233384,0
2.1695406,-6.4226003,-0.579611,0.31886861,-0.94396281,-0.085188426,0
-4.818285,-4.2259135,-2.4189138,-0.70337784,-0.61690289,-0.35311535,0
-2.399564,-5.6650081,-3.1763277,-0.3465665,-0.81819111,-0.45875365,0
-4.299304,-3.4463716,4.2320676,-0.618801,-0.49603802,0.60912365,0
2.0558949,-0.82018918,-6.4912257,0.29977015,-0.11959182,-0.94648594,0
-3.1628578,-2.8951888,5.4740958,-0.45485675,-0.41636276,0.78724039,0
2.2947834,4.296217,4.7621422,0.33688033,0.63069612,0.69909519,0
-6.9368105,-0.23658925,0.92381763,-0.99068224,-0.033788551,0.13193524,0
5.2437673,1.4171628,4.2655745,0.75924444,0.20519084,0.617612,0
0.89861804,6.8845205,0.82620251,0.12852262,0.98464149,0.11816557,0
5.3121734,1.9270278,3.8489065,0.77695656,0.2818464,0.56293964,0
-2.3939335,5.8198361,2.8498535,-0.34653562,0.84245467,0.41253266,0
-3.1183128,-6.0730481,0.9412241,-0.45249194,-0.88124746,0.13657908,0
-4.2431288,-4.0414038,-3.6350696,-0.61532879,-0.58607507,-0.52714944,0
-5.9257269,-2.938915,2.1511154,-0.85195035,-0.42253208,0.30926898,0
3.5744958,2.7015409,-5.3214741,0.51383251,0.38834557,-0.76496005,0
-2.3770664,1.2791824,6.2768254,-0.34789747,0.18721578,0.91864985,0
6.1179161,-2.4505937,-1.8954359,0.89213371,-0.35735327,-0.27639842,0
-6.6320295,-1.8724356,0.45651558,-0.96027422,-0.27111635,0.066100456,0
-0.12082905,-6.7731147,-0.74764127,-0.017729023,-0.9938066,-0.10970002,0
0.41873035,4.9142146,-4.8135452,0.060758945,0.71306628,-0.69845885,0
-4.4680028,4.8145337,-2.0975935,-0.64799494,0.69825232,-0.30421421,0
0.84958273,0.19021876,6.8357201,0.12328983,0.027604185,0.99198669,0
0.51807725,5.1936975,-4.5087228,0.075114049,0.75301445,-0.65370256,0
-1.5448741,5.4180846,-4.1290913,-0.22116695,0.77566272,-0.59112811,0
1.0613931,3.7396269,5.8028989,0.15196134,0.53540832,0.83081025,0
-1.9302603,6.164814,2.0391426,-0.28494555,0.91005152,0.30101877,0
6.5047603,1.5529653,-1.8511488,0.93741423,0.22380099,-0.26677281,0
-1.8621726,5.1506267,-4.2185802,-0.26936275,0.74503666,-0.61021644,0
-2.2937026,-5.0389681,-4.151103,-0.33146846,-0.7281934,-0.59988588,0
-6.0059295,3.0349166,-1.6220002,-0.86766976,0.43845093,-0.23432852,0
-3.8906176,4.9762421,2.7253149,-0.5655396,0.72334576,0.39615133,0
2.2194922,6.0532417,2.3886147,0.3228088,0.88039947,0.34740642,0
-4.2729697,0.29667044,-5.3233218,-0.6253823,0.043420024,-0.77910954,0
-1.4763933,-4.9195971,-4.6617908,-0.21284539,-0.70923752,-0.67207068,0
3.1522393,-1.3740745,5.9157801,0.46067873,-0.2008118,0.86455178,0
-2.6484523,2.1719215,5.9295115,-0.38676664,0.31717649,0.86591607,0
-1.7969877,-5.7902331,-3.095444,-0.26398405,-0.85060638,-0.45473203,0
-2.1400986,-3.273164,-5.6206532,-0.31254685,-0.47802335,-0.82085818,0
-6.5828319,-2.2713947,-0.31618276,-0.94433576,-0.32584143,-0.045357786,0
-2.027926,-6.5402417,-1.2896214,-0.29104209,-0.93863666,-0.18508275,0
4.8664713,-1.1982546,4.6880312,0.70912397,-0.17460518,0.68312234,0
-4.7486482,4.7668777,-1.797905,-0.68182927,0.68444675,-0.25815016,0
-3.2749543,4.2623782,-4.2078061,-0.47975308,0.62440234,-0.61640799,0
-5.2384849,-1.1770566,-4.1410027,-0.7725817,-0.17359453,-0.6107229,0
5.8338208,-3.1633403,1.7703781,0.84937555,-0.46056676,0.25775832,0
2.5796306,5.8484011,2.7651451,0.37039688,0.83974403,0.39703402,0
4.9083686,-2.2316179,-4.2968163,0.71192002,-0.32367852,-0.62321919,0
-3.2422855,-5.6640439,-2.103498,-0.47284284,-0.82602304,-0.3067663,0
3.735857,-5.6975274,0.71329272,0.54535306,-0.83171386,0.10412507,0
-3.6818364,-0.76454914,-5.7571096,-0.53543144,-0.11118463,-0.83722824,0
-2.117871,6.3320298,-1.5272369,-0.30921143,0.92448312,-0.22297822,0
-5.5161171,-3.3714926,-2.3423686,-0.80221218,-0.49031815,-0.34065205,0
1.9531387,4.6888032,4.5504546,0.28640288,0.68755317,0.66726613,0
-5.3627501,-2.1453848,3.7368164,-0.77954227,-0.3118583,0.54319263,0
5.1270671,4.1465907,-1.9499835,0.74561447,0.60302669,-0.28358045,0
-6.1792784,-1.7019987,-2.6696556,-0.88998193,-0.24513349,-0.38450205,0
-3.4343095,-5.0553794,2.9668915,-0.50551701,-0.74413216,0.43671489,0
-1.7869925,-4.7565031,4.6627693,-0.25912303,-0.68971717,0.67612529,0
-5.0119405,-0.38463852,-4.8314118,-0.71885771,-0.055168327,-0.69296467,0
-4.9928255,0.043455936,-4.686903,-0.72907579,0.0063456395,-0.68440354,0
-3.9380982,0.5874601,-5.7413149,-0.56364226,0.084080525,-0.82172859,0
-6.5452209,1.5320032,-1.5958081,-0.94735426,0.2217419,-0.23097703,0
-4.0367861,5.6333871,0.35259247,-0.58172137,0.81179965,0.050810363,0
-4.5524049,2.9095945,4.3186655,-0.65817404,0.42066109,0.62438065,0
-5.0637007,4.5321259,1.3659362,-0.73052454,0.65383589,0.19705942,0
-4.3040018,-3.6039138,-4.0676546,-0.62085134,-0.51986378,-0.58675832,0
6.0280614,3.2926638,0.063447736,0.87757456,0.47935113,0.00923682,0
5.9844193,1.568377,-2.9119656,0.87522358,0.22937573,-0.42587605,0
2.2061906,6.3409238,-1.6865475,0.31870508,0.91600639,-0.24363774,0
1.5518631,-0.45230493,6.6067147,0.22816204,-0.066499949,0.97134954,0
4.6309929,-4.0573039,3.0558002,0.6737408,-0.59027755,0.44457361,0
0.54058796,5.4562039,4.1517553,0.078602843,0.79334569,0.6036756,0
-3.2126222,-6.1355953,-0.37702951,-0.46317828,-0.88459653,-0.05435805,0
-1.8231565,-2.0769563,-6.250886,-0.26675546,-0.30389023,-0.91459948,0
-4.8690434,-0.29820222,-4.8884053,-0.70504403,-0.043180082,-0.70784771,0
1.4205078,-2.677104,6.1922183,0.20604756,-0.38831943,0.89819396,0
6.6741047,0.55715847,-1.595718,0.9693976,0.080925919,-0.23177418,0
5.5295367,-0.32788745,4.2574596,0.79147589,-0.046932504,0.60939586,0
1.3714713,-5.5004978,-4.0302095,0.19717792,-0.79081255,-0.5794276,0
3.0911007,-6.0970502,-0.50656551,0.45095277,-0.88948309,-0.073901549,0
5.3555036,-0.38732567,-4.3785057,0.77297819,-0.055904042,-0.63196474,0
-1.4184754,0.70675552,-6.6870413,-0.20640565,0.10284164,-0.9730469,0
-0.17239313,4.9266529,-4.7516971,-0.025178216,0.7195434,-0.69399089,0
2.1283839,1.8734759,6.2418318,0.31045538,0.27327341,0.91046095,0
1.8282034,0.34147874,6.6188731,0.26591265,0.049668167,0.96271676,0
1.6845809,1.2467963,-6.5594029,0.24463573,0.1810604,-0.95255995,0
2.007189,3.1569834,-5.8043895,0.29066417,0.45716769,-0.84054267,0
5.5624886,-0.72476125,-4.0750952,0.8022666,-0.10453086,-0.58774281,0
6.4972305,0.8472892,-2.0287166,0.94723898,0.1235273,-0.29576901,0
5.0243945,-0.77588928,4.6260614,0.73096514,-0.11287888,0.67301434,0
-3.7440779,-4.6621346,-3.5088577,-0.54004163,-0.67246109,-0.50611371,0
4.4758115,-4.3855133,-2.7740211,0.65313655,-0.63995975,-0.4048014,0
-5.9281859,0.52628845,3.492626,-0.85907793,0.076266639,0.50613087,0
-5.4702392,2.4885931,-3.3189855,-0.79679596,0.3624889,-0.48344398,0
-5.6579256,3.5874248,-1.4784381,-0.82470113,0.52290422,-0.21549763,0
-1.5561655,5.1112299,4.5437865,-0.22187437,0.72874701,0.64784229,0
-0.0026702257,-2.7357755,-6.4016628,-0.00038355746,-0.39297318,-0.91954982,0
6.1307707,2.258111,-2.2520413,0.88714796,0.32675803,-0.32587972,0
-0.43662089,3.3722084,5.8677425,-0.064381257,0.49724376,0.86521888,0
0.058536556,4.4870496,-5.2831416,0.0084447479,0.647322,-0.76216984,0
-0.83862257,-6.7605033,-0.26522523,-0.12301064,-0.99164253,-0.038903706,0
-1.4685013,-6.7439127,-0.52515602,-0.21215305,-0.97428691,-0.075868815,0
-5.0201621,-3.5985947,-3.3069141,-0.71652585,-0.5136261,-0.47199464,0
1.931801,-5.7601357,3.2980983,0.27944788,-0.833242,0.47709191,0
4.9190359,1.3647879,-4.4865394,0.72379005,0.20081575,-0.66015226,0
4.3032827,-4.6547689,-2.7309377,0.62344724,-0.67436951,-0.39565042,0
0.52833802,2.9210365,6.2975926,0.075887397,0.4195607,0.9045496,0
4.796248,-4.8105354,-0.018650068,0.70605171,-0.70815498,-0.0027454612,0
-4.9954944,4.8232403,0.36539096,-0.71840727,0.69363523,0.052547254,0
4.8612652,4.6261482,-1.8455815,0.69847411,0.6646921,-0.265176,0
0.91351283,-2.1986485,-6.4535022,0.1328035,-0.31963229,-0.93818897,0
1.3152704,-5.3903184,-4.0300627,0.19179708,-0.78603405,-0.58767706,0
4.8925099,1.3432498,-4.669106,0.70956987,0.19481403,-0.6771692,0
1.6841537,-2.9665594,6.118753,0.24040705,-0.423466,0.87343061,0
0.45740432,-4.9274936,-4.8861465,0.065771826,-0.70854211,-0.70259672,0
4.6110339,0.74122494,-5.0410295,0.67099828,0.10786316,-0.73357129,0
-5.4229188,-4.1228194,0.22752139,-0.79561949,-0.60487634,0.033380631,0
-4.6890702,5.0947337,0.46462455,-0.67568678,0.73414218,0.06695158,0
-3.6623833,4.9558673,-2.9050868,-0.53757989,0.72744286,-0.42642075,0
6.6615295,-0.15812433,-1.8477323,0.96336627,-0.022867369,-0.26721236,0
-0.26166776,6.1147156,-3.2988975,-0.037635066,0.87946528,-0.47447276,0
-5.904634,-2.8700025,-2.0633173,-0.8580097,-0.41704363,-0.29982319,0
-1.4880749,2.0925548,-6.4481287,-0.21440239,0.30149609,-0.92904884,0
3.6713243,-4.1348696,-4.1457868,0.53122133,-0.5982939,-0.59987354,0
3.1890898,-3.9492123,4.6335592,0.46401089,-0.57460833,0.67418045,0
0.24437779,-4.6679993,5.1721449,0.035054117,-0.66958869,0.7419045,0
0.22018801,-5.9984088,-3.3877742,0.031946082,-0.87028193,-0.49151683,0
-1.4998326,5.7069907,3.5462892,-0.21785858,0.82897043,0.51511717,0
1.4089484,-1.0100107,-6.7665586,0.2017078,-0.1445951,-0.9687137,0
-6.4713736,2.6108584,0.35588214,-0.92616659,0.37365943,0.050932948,0
-5.8579845,3.6295557,-0.48455951,-0.84796458,0.5253914,-0.070141755,0
-5.8450675,-0.85155141,-3.6261942,-0.84331816,-0.12286065,-0.52318227,0
6.6574306,1.3631867,-0.53931981,0.97660255,0.19997078,-0.079114772,0
-2.1414008,-5.421524,-3.7131326,-0.30984116,-0.78444505,-0.53725642,0
-3.3443108,-5.5448647,-2.2109997,-0.48876271,-0.81036818,-0.32313213,0
-3.5829923,-3.3913994,-4.7794847,-0.5216192,-0.49372673,-0.69580698,0
1.1746979,-1.7684367,-6.6177092,0.16902328,-0.25445431,-0.95219964,0
6.706563,1.6304312,-1.0437405,0.96077353,0.23357345,-0.14952491,0
-1.8817525,-6.2387452,-2.3110418,-0.27216423,-0.90233088,-0.33425382,0
-0.50608516,2.1473718,6.5038233,-0.073689267,0.31267121,0.94699872,0
0.73510182,-5.8185816,-3.5785875,0.10699531,-0.8469044,-0.52086949,0
0.82051414,-6.3032513,2.5831518,0.1195865,-0.9186725,0.37648356,0
0.026538873,4.1453452,5.4080644,0.0038947084,0.6083495,0.79365963,0
6.562716,-1.9157835,-0.86879134,0.95227641,-0.27798787,-0.12606511,0
6.1835837,0.6450181,-2.8522346,0.90400958,0.094298474,-0.41698268,0
-6.0712194,-3.29509,-0.99674809,-0.86988765,-0.47212231,-0.14281462,0
0.72429311,-3.7996054,5.6810203,0.10538521,-0.55284554,0.82659286,0
6.7465348,-0.93323052,-0.46698967,0.98824763,-0.1367017,-0.068405695,0
-5.3443809,-4.0731664,2.0275903,-0.76143289,-0.58031845,0.28887796,0
-2.3788242,6.565866,-0.27497202,-0.34037074,0.93946779,-0.03934399,0
5.6653223,-0.38837808,-3.7640555,0.83156508,-0.057006758,-0.55249411,0
-2.2703927,-6.0049973,2.304651,-0.33285314,-0.88036853,0.33787563,0
-6.3012452,-1.425724,-2.4709203,-0.91098964,-0.20612113,-0.35722825,0
5.8800898,3.1934378,-1.5199453,0.85693628,0.4653964,-0.22150958,0
2.8444133,5.2352481,-3.4606569,0.41282102,0.75981236,-0.5022589,0
-0.50122815,-6.8344421,0.031839818,-0.073141336,-0.99731082,0.0046462012,0
-2.448766,6.4344053,0.81846595,-0.35319915,0.92807013,0.1180519,0
2.1561015,4.9607778,4.2376056,0.31378156,0.72195143,0.61670679,0
4.0570235,3.6533632,4.1572199,0.59121829,0.53239405,0.60581964,0
-3.4346797,2.0934038,5.5347862,-0.50199801,0.30596286,0.80894047,0
6.4229898,-2.305443,0.55781782,0.93807745,-0.33670986,0.081469268,0
2.3828347,1.1569655,6.4074497,0.34367535,0.16686869,0.92414403,0
4.5959463,5.1719923,0.79739267,0.65988463,0.74259311,0.11448941,0
-3.3123503,4.9072375,-3.4375257,-0.48382953,0.71679205,-0.5021137,0
3.9357705,1.6007905,5.517148,0.56519186,0.22987969,0.79228377,0
4.668107,1.9752232,-4.6501751,0.6786297,0.28714961,-0.67602283,0
-2.4724154,-6.0165453,-2.228725,-0.35957369,-0.87501127,-0.32413277,0
-4.125711,-5.5228701,-1.3849834,-0.5867483,-0.78544873,-0.19696887,0
2.2078676,-5.9935422,-2.7958479,0.31665939,-0.85961288,-0.40098941,0
2.1754451,-1.2898946,6.4004259,0.3161068,-0.18743037,0.93002492,0
3.4621096,6.0761452,-0.61734658,0.49314567,0.86549103,-0.087935343,0
-0.55049902,-4.233068,-5.4298368,-0.079702951,-0.61287671,-0.78614855,0
-0.067971922,5.3971248,-4.2205019,-0.0099204015,0.78770238,-0.61597604,0
3.1926103,5.084476,3.4595828,0.46074942,0.73377872,0.49927822,0
-6.3781691,-2.3195987,-1.6396674,-0.91349953,-0.33221954,-0.23483783,0
3.740907,2.409337,5.4230456,0.53328073,0.34346032,0.77307612,0
2.4593997,0.84404916,6.4527788,0.35351595,0.12132426,0.92752731,0
0.26674128,6.8344975,-0.60408449,0.038847748,0.99536461,-0.087977841,0
4.2407918,-4.5669875,3.0906875,0.60960847,-0.65649873,0.44428244,0
-2.5853066,3.3733277,5.41855,-0.37541682,0.48984671,0.78683698,0
-2.7861419,5.1231523,-3.4587531,-0.41091818,0.75559551,-0.5101192,0
3.2013731,5.2706981,2.8918805,0.47001818,0.77383167,0.4245792,0
0.79183167,3.6724699,-5.827354,0.11420534,0.52967781,-0.84047526,0
-0.017679108,-2.0984118,6.6011295,-0.0025523298,-0.30294734,0.95300388,0
1.1417971,2.1400924,-6.5051422,0.16446096,0.30825236,-0.93698084,0
2.4785192,0.50888366,6.4822822,0.35618114,0.073130265,0.93155086,0
-3.6707206,-5.1912928,-2.6498585,-0.53291017,-0.75366473,-0.3847028,0
-2.6997378,1.6029561,6.136477,-0.39165974,0.23254605,0.8902387,0
5.9512558,-0.5055353,3.500669,0.8596375,-0.073022753,0.50565904,0
-3.221976,-6.0752773,-0.84961653,-0.46499419,-0.8767814,-0.12261629,0
-5.6263909,-1.9323634,3.6756446,-0.80458605,-0.27633214,0.52562511,0
-1.9657435,-2.3595312,6.2368493,-0.28276083,-0.33940491,0.89713472,0
-6.2543573,-1.2977521,-2.7255847,-0.90058404,-0.1868673,-0.39246526,0
-3.3611813,-3.4089203,5.084971,-0.48127398,-0.48810953,0.72809649,0
-0.7852574,6.766345,-1.1048322,-0.11379262,0.98051947,-0.16010261,0
-0.44565263,2.9364517,6.2364297,-0.064516634,0.42510682,0.90284097,0
-3.3441596,5.8982186,-0.56606793,-0.49150753,0.86689013,-0.08319778,0
-1.1249914,-6.6911912,-0.82205296,-0.16459945,-0.97899979,-0.120276,0
1.6705894,-6.4341002,-2.1313941,0.23931254,-0.92168719,-0.305323,0
2.2940748,-5.8284745,2.947154,0.33139881,-0.84197319,0.4257417,0
-3.1435196,4.5706306,3.9796467,-0.46044394,0.6694786,0.58291483,0
-4.4657831,4.5137448,2.5319557,-0.65329516,0.66031146,0.37039739,0
3.0830677,-3.5173192,-5.2486377,0.43854034,-0.50030893,-0.7465744,0
3.2797668,-5.4248285,2.8632693,0.47151154,-0.77989364,0.41163433,0
1.6412981,-6.1536942,-2.4896963,0.2400205,-0.89990526,-0.36408874,0
-6.0614753,-3.4191275,-0.2024285,-0.87062043,-0.49109533,-0.029075164,0
2.8012269,0.79447168,-6.3079004,0.40319964,0.11435371,-0.90793902,0
4.371798,0.43927193,-5.371995,0.62994009,0.063295469,-0.77406025,0
-3.8257339,0.76661301,-5.7044163,-0.55355793,0.11092374,-0.82539058,0
4.4676733,3.197648,4.1654229,0.64799398,0.46378878,0.60415542,0
-1.7796105,-4.7168388,4.6649289,-0.25909504,-0.68672872,0.67917109,0
-2.9835188,6.1498237,1.2756914,-0.42907634,0.88444012,0.18346423,0
-6.8858666,-0.31312737,-0.71018755,-0.99370736,-0.045187771,-0.10248798,0
-2.1658556,-1.6518383,6.4293633,-0.31018052,-0.23656613,0.92077386,0
0.57350785,5.9897213,3.3493421,0.083280124,0.86977839,0.4863641,0
-2.292676,3.8198647,5.2050629,-0.33463338,0.55753809,0.75971824,0
0.9294551,-5.4737635,4.1333222,0.13428077,-0.79080874,0.59715176,0
6.5759578,1.3571694,-1.8563128,0.94395065,0.19481587,-0.26646575,0
-2.8674362,-2.3572457,5.7783546,-0.41751224,-0.34322608,0.84135568,0
-2.3731816,6.4184341,-0.35112596,-0.34634256,0.9367075,-0.051243387,0
-0.86608118,6.1477327,3.0236125,-0.12541769,0.89025658,0.43785101,0
-5.3788857,0.078416005,4.2851348,-0.78209126,0.011401705,0.62305963,0
-6.0478892,1.4352119,-2.9954216,-0.87651169,0.20800315,-0.43412206,0
-0.24811254,6.1863756,-2.9116111,-0.0362642,0.9042024,-0.4255619,0
-2.7216876,6.3743925,0.18142387,-0.39254183,0.91936183,0.026166286,0
2.7524552,-5.4907336,2.9088783,0.40501052,-0.807935,0.42802742,0
-0.57305753,3.7494829,5.7202654,-0.083492756,0.54628837,0.83342546,0
4.8059411,3.7159319,-3.2918644,0.69555259,0.53779811,-0.47642383,0
6.6544614,1.5874496,-0.25549635,0.9720279,0.23188131,-0.037320763,0
-2.7688749,-3.3468981,5.3242626,-0.40295631,-0.48707643,0.77484369,0
-1.4471014,-2.6900518,-6.1688004,-0.21022311,-0.39078882,-0.89615309,0
-2.7126439,5.6357765,2.9006186,-0.39345095,0.81743187,0.42071542,0
2.8278704,-6.2234945,0.60861123,0.4120529,-0.90683401,0.088681586,0
6.0281439,3.1526353,-0.74099588,0.88092071,0.46070927,-0.10828518,0
5.226542,-4.0196376,-1.6565819,0.76878798,-0.59126073,-0.24367167,0
-2.4029155,1.4358093,6.3295512,-0.34719729,0.20746009,0.91455692,0
-5.1005168,4.6221051,0.83053887,-0.73566818,0.66666496,0.11979198,0
6.2768278,-2.6734762,-0.81098461,0.91359144,-0.3891241,-0.1180387,0
-3.6635287,-1.0053028,-5.762465,-0.53078967,-0.14565311,-0.8348937,0
5.9749222,-3.1359427,1.7260345,0.85783362,-0.45023465,0.24781084,0
-2.7300153,-2.6796715,5.7697015,-0.39435986,-0.38708755,0.83345276,0
-0.37164009,-6.3223286,2.6047904,-0.054269996,-0.92323935,0.3803733,0
-1.7765696,5.1869869,-4.1785154,-0.25771478,0.75244069,-0.6061486,0
3.6609995,-4.8344326,3.5137639,0.52235436,-0.68978071,0.50134665,0
-1.1303315,-2.124927,-6.4138131,-0.16499877,-0.31018364,-0.9362486,0
-3.5817361,-5.9065046,-0.35352138,-0.51783961,-0.85394955,-0.051111348,0
3.7070162,5.7940302,-1.0482643,0.5327822,0.83273339,-0.15065932,0
3.5540133,4.2217069,4.3075881,0.50766885,0.60304481,0.6153124,0
-5.7596946,-3.6938236,0.0014621068,-0.8417654,-0.53984338,0.00021368338,0
-2.1759217,6.4958715,0.98344147,-0.314401,0.9385947,0.1420984,0
5.7799907,0.48144451,-3.7749958,0.83522147,0.069569796,-0.54549527,0
-1.099611,-5.9602251,3.3069437,-0.15926476,-0.86326325,0.47896898,0
4.4286609,3.0582271,4.2892456,0.64350349,0.44437355,0.62324584,0
-2.2790122,4.8070397,-4.283813,-0.33366358,0.70378482,-0.6271807,0
-1.2710686,-5.0490332,-4.6682611,-0.1817649,-0.72202009,-0.66756904,0
2.9293499,-1.5540836,6.0246735,0.42596412,-0.22598319,0.87606287,0
6.3758183,1.7327526,1.8196982,0.93035716,0.25284266,0.26552972,0
-3.2976065,-5.897408,-1.4298975,-0.47747171,-0.85390586,-0.20703976,0
1.5510842,-0.57162726,-6.7110858,0.224415,-0.082704559,-0.97097778,0
-2.0482664,-2.0860295,-6.1675296,-0.30009714,-0.30562991,-0.90362167,0
1.9851489,6.4045997,-1.355365,0.29019195,0.9362337,-0.19812922,0
-0.15214054,-4.9698234,-4.7563295,-0.022110986,-0.72227746,-0.69124985,0
-6.6293449,-1.0604807,1.51652,-0.96317834,-0.15407737,0.22033538,0
-4.7548499,-4.050283,2.6253977,-0.70178097,-0.59779203,0.38748944,0
-6.6422591,1.5594687,-1.5376205,-0.94971019,0.22297284,-0.21984899,0
-6.5056729,1.8010315,1.6310921,-0.93679118,0.25934142,0.23487082,0
-4.0439177,-4.9418874,-2.4706125,-0.59062397,-0.72177464,-0.36083895,0
-2.2577691,3.3390875,5.4557972,-0.33284378,0.49225336,0.80430198,0
-3.1460888,-2.5979137,-5.5266757,-0.45797375,-0.37817633,-0.80451399,0
-0.89736712,5.3561077,-4.1801763,-0.13094038,0.78154278,-0.60995537,0
-3.9665375,-3.9290617,-3.9671798,-0.57913703,-0.57366538,-0.57923084,0
6.6738377,1.4707114,-0.58511788,0.97300875,0.21442162,-0.085306965,0
-5.297256,-1.2176138,-4.2493205,-0.76779705,-0.17648388,-0.61590677,0
-1.9188114,-5.9794531,-2.7806804,-0.27938887,-0.87063932,-0.40488148,0
1.8987885,-6.1908474,2.425113,0.27460146,-0.89531606,0.35071814,0
-4.7989254,-2.2176878,-4.3094268,-0.70360494,-0.32515115,-0.63183606,0
-1.0994948,3.9703281,-5.6196327,-0.15779261,0.56979662,-0.80649447,0
-6.6810975,0.95702535,1.0989561,-0.97702903,0.13995329,0.16070892,0
-2.6999648,0.081386924,-6.408658,-0.38822371,0.011702498,-0.92149091,0
-2.5859773,-5.3249173,3.4972687,-0.37611318,-0.77447373,0.50865442,0
-0.70176601,6.1167383,3.1272135,-0.10162368,0.88577312,0.452856,0
-4.039145,-5.3606572,1.9358324,-0.5782091,-0.76738536,0.27711704,0
1.5097977,-3.1430602,-5.9677114,0.21844018,-0.45474344,-0.86341894,0
3.7213683,-5.1351099,2.8331921,0.53576815,-0.73930562,0.40789679,0
5.4181952,-4.1375108,-1.0703305,0.7851513,-0.59956717,-0.15510172,0
-0.087103397,-0.52860785,6.834239,-0.012706169,-0.077110432,0.99694157,0
2.85814,5.3078003,3.4586818,0.41123599,0.76369894,0.49764338,0
4.7100925,4.9240794,0.70496613,0.68756074,0.71879768,0.10290817,0
-0.92779922,1.239573,-6.6468072,-0.13594599,0.1816287,-0.97392488,0
-0.81999308,-5.5908194,-4.0680509,-0.11777002,-0.80297136,-0.58426648,0
1.6152139,4.6496124,4.9335847,0.23176861,0.66717744,0.70792484,0
-0.99936211,5.7796669,-3.6580765,-0.14456995,0.83609945,-0.52918547,0
-1.1782762,-1.2699437,-6.741869,-0.16927108,-0.18244004,-0.9685365,0
-4.8935037,4.7255774,1.3635064,-0.70531344,0.68110979,0.19652575,0
6.6016059,-0.66736221,2.2801728,0.94092149,-0.09511859,0.32499117,0
-0.7702238,5.4811234,-3.9438221,-0.11332987,0.80648637,-0.5802896,0
-3.1787236,-1.5249799,6.0037117,-0.45655861,-0.21903217,0.86231035,0
0.26358539,-6.1922135,-2.8340781,0.038676921,-0.9086079,-0.41585544,0
5.1771898,1.4300992,4.275866,0.75411648,0.20831019,0.62282842,0
-5.6457143,-3.5327666,-1.4507723,-0.82829052,-0.51829708,-0.2128448,0
-5.8725333,2.7073917,-2.3116295,-0.85514045,0.39424214,-0.33661246,0
-4.4501772,-0.059981033,-5.3691378,-0.63811868,-0.0086007854,-0.76989001,0
2.91149,-0.70594513,-6.1630297,0.42487404,-0.10301864,-0.89937156,0
-4.7356982,-1.9662988,-4.5682011,-0.68958789,-0.28632227,-0.66519779,0
1.4835912,-4.7392917,-4.8778052,0.21313038,-0.68083918,-0.70073783,0
-2.4973435,-0.8440693,-6.3451986,-0.36346111,-0.12284508,-0.92347449,0
-4.0375485,2.980557,-4.7425237,-0.5847404,0.43166095,-0.68683881,0
6.8465028,-0.40577376,-0.62354279,0.99414819,-0.05892048,-0.090541691,0
-6.2961874,2.4242752,-1.3611094,-0.91478312,0.35222682,-0.19775775,0
-0.85876274,1.5587032,6.6296921,-0.12510401,0.2270709,0.96580935,0
-4.5995131,-2.1737559,-4.6472449,-0.66752481,-0.315476,-0.67445207,0
1.5812684,-6.2809734,-2.461585,0.22821163,-0.90648186,-0.35526058,0
4.4144158,-0.34687978,5.3177309,0.63792634,-0.050127525,0.76846421,0
-4.634057,-1.7357458,-4.756846,-0.67512208,-0.25287569,-0.69301087,0
3.4011056,-5.7559361,-1.653921,0.49382862,-0.83574176,-0.24014354,0
-0.29509392,6.7192841,1.2636887,-0.043120656,0.98185664,0.18465674,0
1.5202816,4.169559,5.383307,0.21790364,0.59762752,0.77159536,0
2.1950758,-4.5938449,-4.6710634,0.31769148,-0.66486335,-0.6760391,0
3.9760063,3.0868213,4.5979095,0.58320868,0.45278123,0.67443067,0
-1.6021154,-1.8048259,6.4642191,-0.23218991,-0.26156816,0.93684042,0
1.9687172,4.0908608,5.0715656,0.28923038,0.60100114,0.74507952,0
0.85675859,-4.2201643,-5.4030805,0.1240025,-0.61080325,-0.78201199,0
4.6623039,4.9751201,0.51132977,0.68188024,0.72763085,0.074783988,0
-6.8546185,-0.16748866,0.49255157,-0.99713218,-0.024364352,0.071650818,0
-4.8251519,-0.44210052,4.9041176,-0.69990098,-0.064127848,0.71135521,0
-3.8461695,-3.340812,4.7184725,-0.55389023,-0.48111326,0.67951137,0
-1.4295635,2.5246739,6.2924223,-0.20631349,0.36435896,0.90811741,0
-0.47763968,-6.5269842,2.2305412,-0.069081828,-0.94400871,0.32260692,0
0.85215575,-5.1307096,-4.685544,0.12173073,-0.73292357,-0.66933149,0
-2.5768471,2.1927197,-6.0221014,-0.37304941,0.31743941,-0.87181789,0
-3.5575106,0.086247645,6.0360627,-0.50771159,0.012308868,0.86143917,0
5.0713625,-2.5934293,3.8631961,0.73684829,-0.37681472,0.56130666,0
-2.5871432,-2.1486664,-5.9010248,-0.38090664,-0.31634942,-0.86881137,0
-6.1510434,2.5171146,-1.8722438,-0.89083368,0.36454472,-0.27115038,0
-0.4567022,5.634058,-3.9443264,-0.066259116,0.81739855,-0.57224947,0
5.8051381,-2.9531054,-2.2983651,0.84050435,-0.42756915,-0.33277175,0
0.87597191,-6.250916,-2.6342554,0.12807295,-0.91392565,-0.38514572,0
-0.63725972,5.1909537,-4.4890771,-0.092459552,0.75315171,-0.65131694,0
-1.4191526,6.0631318,-2.7749414,-0.20816867,0.88937163,-0.4070428,0
4.797287,-4.7227449,1.0627633,0.70390391,-0.69296634,0.15593882,0
-3.2568641,-5.9636216,0.90904182,-0.47507104,-0.86989933,0.13259977,0
-3.4111471,5.3631411,-2.8393247,-0.49000937,0.77041221,-0.4078674,0
-2.5438616,-4.9798055,4.0936193,-0.36706999,-0.71856785,0.59069437,0
-6.6782093,1.1914271,-0.89112914,-0.97607011,0.17413595,-0.13024516,0
3.5957234,2.2069447,-5.3923864,0.52517408,0.32233575,-0.78758609,0
-2.4882782,4.5074258,-4.5403376,-0.36247835,0.65661639,-0.66141081,0
4.1795759,-0.088325351,5.5801506,0.5994435,-0.012667806,0.80031681,0
0.55258876,-5.4154105,-4.284286,0.079770006,-0.78175193,-0.61846632,0
0.063909188,3.6630194,5.7267261,0.0094007291,0.53881228,0.84237343,0
4.003202,1.7821002,5.3114996,0.58137494,0.25880992,0.77137572,0
-6.2387967,-1.344256,-2.7765343,-0.89640516,-0.19314592,-0.39893907,0
-1.697477,-5.9625711,3.1206932,-0.24457085,-0.85908151,0.44962648,0
-2.9617071,4.8175769,-3.9971473,-0.42767298,0.69566214,-0.57719141,0
-3.467464,-5.3738046,-2.7853014,-0.49708474,-0.77037174,-0.39929205,0
-4.5302014,2.8977351,-4.2542872,-0.66066742,0.42259473,-0.62042916,0
6.4158564,-0.76781023,-2.4312799,0.92930865,-0.11121394,-0.35216022,0
4.3479366,-0.3411153,-5.2529459,0.63682979,-0.049962178,-0.76938391,0
3.0103679,2.4365401,5.864162,0.42836237,0.34670916,0.83444494,0
-1.2195771,2.7357826,-6.221705,-0.17661776,0.39619291,-0.90102023,0
-0.78928971,-2.0210185,-6.6230178,-0.11325153,-0.28998661,-0.95030618,0
-0.43823916,6.7586284,-1.1650877,-0.063768901,0.98345912,-0.16953382,0
-3.3395772,-4.8245583,-3.7363284,-0.48008358,-0.69355822,-0.53711885,0
6.2200608,2.7279932,-1.3027583,0.89939862,0.39445812,-0.18837422,0
-2.1036212,-4.5312324,-4.8199048,-0.30303627,-0.65274477,-0.69432932,0
-4.5514178,-4.9565792,-1.8045328,-0.65328008,-0.71143425,-0.25901055,0
-1.6882942,-6.6521411,1.2231463,-0.24218185,-0.95423406,0.17545748,0
-4.3027797,-4.4381118,3.0340986,-0.62486231,-0.64451563,0.44062072,0
-3.0349739,-5.9379921,-1.7234858,-0.440633,-0.86210805,-0.25022447,0
-3.3572307,-5.5595403,2.1276989,-0.49123818,-0.8134855,0.31133008,0
-4.5925355,-3.6994255,3.7151139,-0.65891188,-0.53077334,0.53302419,0
5.3617358,1.0184789,-4.1412535,0.78262681,0.14866246,-0.60447884,0
4.7636003,4.6201935,1.7076672,0.69518131,0.67425311,0.24921031,0
2.7479155,-5.287199,-3.3713953,0.40137237,-0.77227104,-0.49244052,0
5.7782269,-1.0484016,-3.7075832,0.83199638,-0.15095744,-0.53384817,0
5.5508671,0.039476562,4.3204021,0.78912884,0.005612113,0.61420208,0
2.5733101,2.2965896,5.9573412,0.37382329,0.33362424,0.86541951,0
3.7063818,0.21902172,-5.8959174,0.53194731,0.031434435,-0.84619385,0
1.836372,-2.3835497,6.1369667,0.26867554,-0.34873191,0.8978861,0
6.9675288,-0.21305312,0.50781459,0.99689108,-0.030482939,0.072656438,0
-5.3605094,0.6100449,-4.4107342,-0.76923442,0.087541595,-0.63294148,0
-3.7602232,2.6543641,-5.0111451,-0.55263644,0.39010939,-0.73648328,0
2.3926258,-5.7129493,-2.9689796,0.34834397,-0.83175206,-0.43225572,0
-3.6717331,5.7616558,-0.88744354,-0.53294259,0.83628953,-0.12881015,0
-4.2207751,-5.4934306,-0.40237454,-0.6082375,-0.79163438,-0.057984442,0
-1.0453005,-4.7403212,-5.0256839,-0.14960246,-0.6784305,-0.7192713,0
3.361304,-5.9786391,0.80600834,0.48672584,-0.86572295,0.11671217,0
-6.0335307,0.3377845,-3.3073022,-0.87584388,0.049033727,-0.48009709,0
3.7172158,-4.6734023,3.756161,0.52692217,-0.66246337,0.53244275,0
1.1717091,-6.2330818,-2.7830603,0.16917515,-0.89995253,-0.40182728,0
2.2115157,-1.3632749,6.367487,0.32157779,-0.1982346,0.92589998,0
-5.3319569,-1.2199214,4.1374259,-0.77744597,-0.17787521,0.60327291,0
2.9921741,5.9500723,1.7476885,0.43455809,0.86413825,0.25381953,0
6.4644866,-1.6817605,-1.6303352,0.9401868,-0.24459313,-0.23711389,0
-1.1381866,-5.2548223,-4.3997197,-0.16382951,-0.75637412,-0.63329148,0
3.8986864,-1.0358005,5.4934659,0.57203382,-0.15197757,0.80602741,0
-0.24339977,-2.5331881,-6.5128274,-0.034809347,-0.36227903,-0.93141943,0
-5.7513075,-3.1981583,2.4641924,-0.81846452,-0.45512766,0.35067749,0
-4.4705319,-0.33670813,5.2199144,-0.64970332,-0.048933864,0.75861126,0
2.9659357,-5.5269732,2.7918878,0.43198857,-0.8050037,0.40663847,0
5.1070995,3.175231,3.60267,0.72851753,0.45294034,0.51391369,0
-4.2815952,3.5258269,-4.1966586,-0.61559212,0.50693053,-0.60338026,0
-6.0913835,-2.2268755,-2.23576,-0.8879289,-0.32460725,-0.32590231,0
2.2300713,-6.0704226,-2.2111974,0.32628831,-0.88818145,-0.32352683,0
5.73562,-0.17785162,-3.8571119,0.82954109,-0.025722628,-0.55785298,0
-4.3464718,4.4344478,-2.9680977,-0.63154554,0.64432847,-0.43126675,0
6.2416482,-1.2465123,2.7884209,0.89822066,-0.17938259,0.40127498,0
2.3906164,3.6551356,5.3179326,0.34739599,0.53115147,0.77278334,0
2.44047,4.7136121,4.4187427,0.35336,0.68249232,0.63979763,0
-0.095970653,-6.2286377,-2.8451147,-0.014013702,-0.90951008,-0.41544566,0
-1.9094766,6.498292,1.4045175,-0.27605078,0.93945032,0.20304942,0
0.030456135,0.073631845,-6.9103866,0.0044070054,0.010654534,-0.99993354,0
0.72133386,-6.826232,-0.019275039,0.10508537,-0.99445921,-0.0028080265,0
0.49077633,5.1237993,4.6813569,0.070537373,0.73642379,0.67283326,0
1.6969882,-5.2844477,4.2866879,0.24198075,-0.75353181,0.61125702,0
-2.6700225,-4.4810176,4.474843,-0.388502,-0.6520111,0.65111268,0
3.2117097,-0.30208108,6.0760441,0.46686637,-0.043911658,0.88323694,0
-5.6407585,3.0843523,-2.3686302,-0.82329917,0.45017788,-0.34571436,0
3.9385757,5.1127863,2.2681873,0.57574111,0.74738723,0.33156368,0
-1.3090094,-2.2027075,6.3231702,-0.19186364,-0.32285443,0.92679733,0
-1.5432123,-3.6806059,5.7126102,-0.22145022,-0.52816522,0.81975687,0
0.28786683,-2.4731269,6.3563261,0.042168569,-0.36227939,0.93111521,0
-0.52044201,5.4829254,4.143127,-0.075514592,0.79555619,0.60115546,0
1.6184647,-1.975413,6.3833122,0.23540623,-0.28732449,0.92845494,0
5.4997411,4.1245742,0.95931,0.79233879,0.59422076,0.13820624,0
0.64521194,6.9452262,0.16954964,0.092474438,0.99541849,0.024300555,0
-0.28045854,-4.2118168,5.4249892,-0.040801331,-0.61273849,0.78923178,0
3.8616219,-5.4862866,1.3267285,0.56464869,-0.80220813,0.19399503,0
-0.83196688,-1.3216263,-6.729651,-0.12042695,-0.191305,-0.97411489,0
-6.0408931,-2.6479857,-1.9859616,-0.87698263,-0.38441956,-0.28831065,0
-0.064067833,3.6449316,-5.7543941,-0.0094052106,0.53507894,-0.84474975,0
-3.493295,-2.0750177,-5.5893574,-0.50553334,-0.30028689,-0.80886573,0
0.88400584,-6.7660146,1.1935648,0.12761517,-0.97674257,0.17230314,0
0.73258638,0.98789442,-6.8234105,0.10566102,0.14248413,-0.98414129,0
-4.9508643,4.602375,-0.50507754,-0.73037791,0.67896694,-0.074511737,0
-5.8550339,-2.2880762,-2.9474275,-0.84331083,-0.32955563,-0.42452317,0
-6.5674391,-1.8648952,0.50048792,-0.95939374,-0.27243021,0.073112972,0
6.9489937,-0.02584427,0.083943963,0.99992013,-0.0037188416,0.012079053,0
3.8104169,2.136445,5.4020276,0.54847109,0.3075197,0.77756739,0
5.1726069,2.1317101,-4.0628328,0.7481097,0.30830738,-0.58760399,0
5.1214991,4.0993252,-2.2806315,0.737418,0.59024048,-0.32837626,0
6.7984333,0.26425546,-0.75140226,0.99320644,0.038605988,-0.10977493,0
0.050469007,6.8041673,-0.66892111,0.0073815798,0.99517518,-0.097836174,0
-5.7655344,-1.1641984,3.5809867,-0.83725518,-0.16906171,0.52002114,0
1.8640735,-6.5948367,-0.88819504,0.26974362,-0.95431602,-0.12852763,0
5.0631909,2.4021375,-3.8629367,0.7438758,0.35291815,-0.56753641,0
-2.1741195,5.1026626,4.109642,-0.31494719,0.73918164,0.59533077,0
5.2668233,-1.6507515,4.2548661,0.75573987,-0.23686738,0.61053348,0
4.813684,4.8138366,-1.698668,0.68606055,0.6860823,-0.24209921,0
-1.8985225,-1.818625,6.4295816,-0.27331358,-0.26181144,0.9256103,0
6.2903466,2.7756281,1.0321088,0.90475512,0.39922503,0.1484506,0
-0.20461194,-2.4853196,-6.4736242,-0.029494353,-0.35825327,-0.93315846,0
-6.789844,0.83310825,0.0028186403,-0.99255633,0.12178584,0.00041203585,0
-6.3510351,1.3030422,-2.2834284,-0.92396301,0.18956953,-0.33219835,0
5.4924226,-3.8602574,1.3089049,0.80302072,-0.56438971,0.1913687,0
-1.3741196,3.1127682,-5.9778008,-0.19977473,0.45254606,-0.86907542,0
-2.8919721,-5.7595758,2.5673463,-0.41686699,-0.83022141,0.37007341,0
3.5666113,-5.8396482,-0.80992717,0.51761723,-0.84749979,-0.11754357,0
-2.4997542,3.5624571,5.3109679,-0.36406061,0.51883113,0.77348179,0
-2.9755664,-6.1390924,-0.82406086,-0.43301168,-0.89337575,-0.11991934,0
3.6155963,0.28638983,-5.8941488,0.52243513,0.041381862,-0.85167426,0
-6.2480159,-1.6311854,-2.5053275,-0.90205711,-0.23550235,-0.36170658,0
-3.420598,5.3756299,2.4603362,-0.50080758,0.78704256,0.36021626,0
6.7260671,0.55379933,-1.4668438,0.97388959,0.080186442,-0.21238919,0
5.4678149,0.44338387,4.1683002,0.79361874,0.06435436,0.6050024,0
-4.2900538,-2.3233547,4.92378,-0.61891848,-0.33518627,0.71034503,0
1.9970181,6.5525942,1.4594119,0.2851299,0.93556517,0.20837165,0
-4.2286263,0.45739546,-5.4364691,-0.61261481,0.066264369,-0.78759897,0
6.2442832,-0.15269299,2.8986242,0.9068141,-0.022174548,0.42094716,0
4.8709731,3.6690488,3.0860431,0.71269166,0.53683329,0.45153138,0
-0.5876922,-6.6368823,-1.6254182,-0.085691296,-0.96772259,-0.23700193,0
-0.7424109,-3.4681671,5.9244728,-0.1075182,-0.50227052,0.85800016,0
-0.3323181,5.7533345,3.708076,-0.048493639,0.83955741,0.54110235,0
0.58396256,5.5988817,-3.9577041,0.084862582,0.81364048,-0.57514131,0
-5.7704086,-2.0946529,-3.2558882,-0.8304165,-0.30144042,-0.46855319,0
-3.6186857,-0.22893499,5.7716274,-0.53090405,-0.033587474,0.84676605,0
0.4652971,-1.3171792,-6.8172436,0.066863611,-0.18927982,-0.979644,0
1.7351162,6.6394114,-0.72466648,0.25144616,0.96215719,-0.10501579,0
4.8877845,3.4066298,-3.498893,0.70742559,0.49305305,-0.50640661,0
-1.689414,5.9470358,2.9382696,-0.24680793,0.86880749,0.42925432,0
-4.9101663,-4.1999822,2.195344,-0.71952718,-0.61545807,0.32170185,0
-3.3834321,-5.0653596,3.3623371,-0.48627996,-0.7280131,0.48324808,0
4.4780979,5.0612569,0.85935807,0.65734947,0.74295259,0.12614699,0
-3.7182961,4.9168882,-3.1847961,-0.53588414,0.70862627,-0.45899564,0
-0.91917759,0.7472145,6.7740455,-0.1336628,0.10865668,0.98505223,0
-5.733408,3.1454964,2.3167005,-0.82640022,0.45338461,0.33392388,0
6.2466788,-0.22319314,2.9405532,0.90429389,-0.032310318,0.42568609,0
-0.35968778,3.3143182,6.0951314,-0.051773895,0.47706699,0.87734061,0
-4.2311893,-4.0985909,3.4415839,-0.62018561,-0.60075003,0.50444937,0
-0.068819888,0.47305554,6.8158221,-0.010072336,0.069235422,0.99754947,0
-2.8634665,5.8524642,-2.4270527,-0.41184393,0.84174258,-0.34907582,0
6.7706213,-1.2444811,1.0852774,0.97152495,-0.17857216,0.15572782,0
-5.4147768,2.7654696,-3.288204,-0.78335369,0.4000794,-0.47570321,0
-1.0143529,-6.7861638,-0.85157484,-0.14670582,-0.98148263,-0.12316324,0
-1.2917336,-3.215704,5.9626765,-0.18730056,-0.46627507,0.86458433,0
-2.0994055,-3.4187551,5.5827346,-0.30537876,-0.49729088,0.81206256,0
2.1349664,6.2486649,2.0928466,0.30820754,0.90206838,0.30212706,0
4.1495838,-0.56215322,-5.5550861,0.59649742,-0.080808811,-0.7985366,0
-0.79601604,1.4276719,-6.7602563,-0.11445124,0.20527077,-0.97199017,0
-5.8687458,1.561854,3.133774,-0.85877043,0.22854526,0.45856348,0
-4.9087019,4.6534805,-0.88986087,-0.71952146,0.68211091,-0.13043651,0
-1.7732153,6.5978775,-0.25486353,-0.25936499,0.96505964,-0.037278429,0
3.8680518,-2.3210115,5.2224731,0.56050986,-0.33633205,0.75677574,0
-6.3910036,2.725718,0.59833962,-0.91644382,0.39085683,0.085799463,0
6.3974733,2.2628281,-0.74651295,0.93711019,0.331462,-0.10935018,0
1.6113251,0.074866079,6.6977816,0.23388858,0.010867031,0.97220272,0
4.1345353,-3.0294511,4.7063375,0.59416527,-0.43535599,0.67633778,0
-6.8850017,-0.46698236,0.91663265,-0.98902088,-0.067081362,0.13167301,0
3.9904451,-2.7151318,-4.7434239,0.58967018,-0.40121648,-0.70093828,0
3.3176441,5.2489042,-2.9130497,0.48370376,0.76527637,-0.42471495,0
-5.9343181,-0.33902514,-3.2571704,-0.8755365,-0.050019037,-0.48055589,0
2.7317669,5.4185605,-3.1814535,0.39870253,0.79084122,-0.46433449,0
1.774824,-5.1332669,4.1324,0.26005715,-0.75215501,0.60550237,0
4.5550761,5.1500959,1.3128896,0.65075248,0.73575884,0.18756352,0
6.7878327,-0.45912084,-0.74685395,0.99176228,-0.067081608,-0.10912196,0
5.8160529,3.6123581,0.68906713,0.84521353,0.5249632,0.10013817,0
-5.8562527,3.1769032,-1.9366546,-0.84405565,0.45788378,-0.27912802,0
4.2385831,-5.473155,-0.92302114,0.60691941,-0.78369683,-0.13216668,0
-6.1257582,2.9900255,0.62339586,-0.89492679,0.43682003,0.091073401,0
-2.6529102,6.4532003,-0.50776517,-0.37922117,0.92245495,-0.07258267,0
-6.6253486,-1.9824716,-0.0062086666,-0.95802993,-0.28666675,-0.00089777744,0
3.2276597,1.3090636,5.9675941,0.46712175,0.18945369,0.86365765,0
3.7911551,-3.1624913,-4.8407364,0.54830992,-0.45738706,-0.70010948,0
0.68236804,-6.1504841,-2.9749932,0.099380784,-0.8957628,-0.43328106,0
-3.1614404,5.8059568,-1.8743247,-0.46008289,0.8449381,-0.27276957,0
-5.6085901,1.9693843,-3.5757947,-0.80851126,0.28389835,-0.51547188,0
-0.47313991,-3.2789485,-6.0943146,-0.068209469,-0.47270447,-0.87857729,0
-0.44454041,-5.6679344,-3.8076215,-0.064966664,-0.82833141,-0.55645889,0
1.1619958,1.3936268,6.625071,0.1691637,0.20288461,0.96447986,0
-1.698912,6.6226249,0.6057303,-0.24751607,0.96485639,0.088249408,0
2.623301,-6.3901725,0.32265198,0.37935236,-0.92407507,0.046658311,0
2.1651897,6.4140873,-0.60617596,0.31856182,0.94369709,-0.089185953,0
5.1505427,-0.84549558,4.3894262,0.7552309,-0.12397613,0.64362741,0
-2.7255845,-3.0508163,-5.5198464,-0.39670315,-0.44403997,-0.80340219,0
-3.2404094,5.6967225,-2.1498618,-0.46979824,0.8259173,-0.31168941,0
2.423501,-3.1988716,-5.5438004,0.35410774,-0.46740034,-0.81002754,0
3.7204812,-3.9624689,-4.3651652,0.53369206,-0.5684045,-0.6261701,0
1.1572084,6.7186837,-1.3544647,0.16648428,0.96659786,-0.19486296,0
-2.1756558,-5.5565815,3.4802599,-0.31494457,-0.80436212,0.50379705,0
6.4641147,1.48063,-1.491045,0.95101386,0.21783334,-0.21936561,0
3.2549765,-5.6667042,-2.1138883,0.47390601,-0.8250398,-0.30777007,0
-2.7063451,6.227591,0.18538673,-0.39841625,0.91679859,0.027291821,0
-1.1078039,-0.28733349,6.8498654,-0.15951528,-0.041373819,0.98632812,0
-0.74410385,3.6787472,-5.7749949,-0.10803711,0.53412062,-0.83847672,0
1.1211597,-1.6098526,6.6472664,0.16176687,-0.23227808,0.95910293,0
1.5233303,6.6300354,0.91638529,0.22192293,0.96588171,0.13350151,0
-6.026782,-0.73620051,3.0600524,-0.88640636,-0.10827882,0.45006606,0
-1.9595683,-6.6444287,0.75915778,-0.28119022,-0.95344901,0.10893611,0
-2.9359703,-3.5203786,-5.1667957,-0.4250623,-0.50967145,-0.74803549,0
0.43230897,6.7952633,-1.1913352,0.062540755,0.98304898,-0.17234665,0
-1.6785134,4.8108387,-4.4975982,-0.24697387,0.70785934,-0.66176963,0
2.2398608,-5.6816821,-3.1734266,0.32544181,-0.82552314,-0.46108478,0
4.8345971,-0.3349168,-4.8846979,0.70261866,-0.04867392,-0.7098999,0
-1.6030477,4.0678639,5.3626895,-0.23168014,0.5879072,0.77504158,0
0.71693015,3.4666488,5.9125519,0.10403421,0.5030477,0.85797429,0
6.8903747,0.3989031,-1.03251,0.98734146,0.057159964,-0.14795132,0
-5.6407356,0.56457645,-3.8085351,-0.82594115,0.082667746,-0.55766231,0
3.3198929,5.2214088,-3.0796943,0.4803409,0.755463,-0.44558761,0
6.764061,-0.14920028,1.1720942,0.98508382,-0.021728778,0.17069791,0
-4.4022412,-1.5075262,-4.9813523,-0.64581048,-0.22115467,-0.7307663,0
6.0124273,-2.9515626,1.5893999,0.87341237,-0.42876714,0.23088871,0
-4.9370642,2.2432106,-4.3777905,-0.70839804,0.32186863,-0.62815028,0
-4.5927062,3.1823299,-4.1543255,-0.65961975,0.45705682,-0.59665805,0
-5.024641,-3.7691922,2.7676766,-0.73203307,-0.54912847,0.40321901,0
3.6435049,5.5446877,1.8687103,0.52859533,0.80441666,0.27111027,0
5.9512849,-2.6567266,2.3156686,0.86044443,-0.38411295,0.33480233,0
3.7728314,5.7313437,-0.20182902,0.54960364,0.83490807,-0.02940125,0
5.2450151,3.5538251,2.8347912,0.75566941,0.5120132,0.40841922,0
-0.20546404,2.2151878,6.4600945,-0.030071886,0.32421672,0.94550472,0
-1.2608371,-5.718225,-3.737395,-0.18150292,-0.82316315,-0.53801411,0
5.2490587,2.8169041,-3.4410477,0.76299316,0.4094598,-0.50018412,0
-5.0502849,-2.9663928,3.5778074,-0.73583382,-0.4322077,0.52129173,0
4.4120207,-0.15379196,-5.2065344,0.64633232,-0.022529522,-0.76272339,0
-0.97593141,-3.6434386,5.6317906,-0.14398067,-0.53752208,0.83086675,0
3.2776744,6.0242758,-0.80251008,0.47468108,0.87245077,-0.11622153,0
-3.4610388,-4.9079671,-3.2300968,-0.50754887,-0.71973568,-0.47368208,0
4.9210243,-2.9999535,-3.8251891,0.71141398,-0.43369198,-0.55299318,0
6.9750819,0.25640571,0.20876944,0.9988783,0.036719009,0.029897179,0
0.87939084,6.4838619,-2.1502168,0.12767982,0.94139981,-0.31219259,0
-0.72073954,4.3580904,5.2403522,-0.10516009,0.6358707,0.76459777,0
-2.7138941,5.1046634,-3.7326891,-0.39437228,0.7417894,-0.54241955,0
-1.0546241,-5.2871065,4.3879972,-0.1517166,-0.76059502,0.6312505,0
4.9950695,1.3906168,-4.4926329,0.72807705,0.20269512,-0.65484232,0
5.7959366,-0.28383029,-3.7791283,0.83696163,-0.040986482,-0.54572463,0
-2.0933437,-0.90813249,6.5535059,-0.30166075,-0.13086618,0.94439119,0
-0.49651912,-6.5226479,2.0082979,-0.072560176,-0.95320499,0.29348812,0
-3.9170964,-0.72936243,5.5228219,-0.57519102,-0.10710043,0.81097764,0
-3.5392408,3.9913888,-4.4902368,-0.50757974,0.57242447,-0.64396667,0
-3.2087288,3.2642829,-5.1485195,-0.46577367,0.47383782,-0.74735045,0
-1.2555865,5.578485,3.7493098,-0.18362863,0.81584948,0.54833388,0
0.6496132,-6.2009463,3.097631,0.093308799,-0.89068824,0.44493586,0
-5.6102242,4.1762371,0.13749392,-0.80199701,0.59700459,0.019655135,0
-5.4065175,3.1405809,-3.0990064,-0.77475464,0.45004565,-0.44408804,0
3.8035548,-4.3428226,3.7976649,0.55043459,-0.62847519,0.54958224,0
-5.2235436,0.70225018,4.5057211,-0.7533254,0.10127663,0.64980298,0
-3.7912881,-0.56851697,5.8637419,-0.54116797,-0.08115004,0.83698976,0
-4.378983,-3.4583895,-4.1456914,-0.62993777,-0.49750593,-0.59637761,0
-1.1332678,-5.2422504,-4.3980446,-0.16338892,-0.75580168,-0.63408828,0
5.5210295,4.1528711,0.10426847,0.79906756,0.60105181,0.015090945,0
-6.8888693,0.61729157,0.10866122,-0.99588639,0.089238487,0.015708562,0
3.7731626,5.1017489,-2.9790916,0.53825712,0.72778535,-0.42497963,0
-2.0669763,6.3025751,1.743055,-0.30139342,0.9190017,0.25416127,0
-1.304224,3.765816,5.7233944,-0.18700668,0.53996301,0.82065117,0
4.3611107,1.5235796,-5.1804752,0.62830883,0.21950337,-0.74635535,0
6.8701963,-0.38389367,-0.71031636,0.99316466,-0.055496179,-0.10268427,0
-5.6508737,-0.29932916,-3.7571688,-0.83192629,-0.044067487,-0.55313349,0
-3.523972,5.8403788,0.97448343,-0.51142997,0.84760737,0.14142564,0
-1.8237603,-4.5220342,4.92559,-0.26313755,-0.65245253,0.71067876,0
-4.1471834,-5.0050998,1.9638747,-0.6107592,-0.73710525,0.2892215,0
-0.72684175,-4.4057832,5.255053,-0.1054005,-0.63888973,0.76204371,0
0.22566949,-5.0446239,-4.8527656,0.032222558,-0.72030425,-0.69290948,0
-4.6897388,-0.58140004,-4.957334,-0.6847477,-0.08489009,-0.72381926,0
-1.7935417,2.6118519,6.0101199,-0.26398429,0.38442814,0.88460577,0
-2.020447,3.0862057,5.8376369,-0.29258841,0.4469249,0.84536988,0
4.8684945,-1.0476114,4.8216786,0.70235324,-0.15113363,0.69559938,0
2.7841284,-5.5044909,2.8597205,0.40948027,-0.80958205,0.42059812,0
-5.9241567,3.6584411,-0.35196406,-0.84975135,0.52476084,-0.050485149,0
6.2245255,-0.054263141,2.9024713,0.90628356,-0.0079006497,0.4225964,0
-0.58593404,-6.5511994,1.9383914,-0.08545009,-0.95539868,0.28268665,0
1.0991361,-3.8360529,-5.4881678,0.1619824,-0.5653286,-0.80880487,0
-0.98183417,6.5125122,2.2591956,-0.14101112,0.93532765,0.3244659,0
-4.5811176,1.2434213,-5.165895,-0.65298641,0.17723562,-0.73633975,0
2.459208,6.3961439,-1.2996366,0.35258624,0.91704011,-0.18633397,0
1.0625569,3.6952901,-5.7250686,0.15407369,0.53582728,-0.83015078,0
1.5955092,-0.31678495,-6.7134442,0.23097542,-0.04585968,-0.97187823,0
4.8248081,3.5545323,3.38708,0.7008999,0.51636696,0.49204114,0
5.6090994,-1.2511951,-3.9227557,0.8061223,-0.17981786,-0.56376624,0
-4.4934993,-5.3518014,0.018131938,-0.64302093,-0.76584423,0.0025946852,0
1.469574,5.9187293,3.2089748,0.21325396,0.85888326,0.46566325,0
-4.6438336,-1.0915098,-4.9702811,-0.67408013,-0.15843914,-0.72146589,0
2.4047472,-5.3478961,-3.6779826,0.34741992,-0.77262408,-0.53136748,0
1.2778162,-1.2695231,6.6510329,0.18544266,-0.18423913,0.96522897,0
4.2379365,-2.9522583,4.4711952,0.62036467,-0.4321624,0.65450996,0
-1.0724556,-1.1916493,-6.6697106,-0.1563419,-0.17371787,-0.97230613,0
-3.8466618,-5.4181499,-1.7714255,-0.55936366,-0.78788221,-0.25759247,0
-0.99200433,3.1489198,-6.1169295,-0.14271362,0.45301589,-0.88000536,0
3.4392581,-4.4736123,-3.8593349,0.50308132,-0.65438265,-0.56452852,0
-1.8115396,-3.5904047,5.5236802,-0.2651338,-0.5254854,0.80843621,0
-0.87080961,2.9747813,6.1474528,-0.12648514,0.43208712,0.89291781,0
0.41806406,-6.7614675,-1.0583534,0.06097291,-0.98613203,-0.15435646,0
