1.490615,4.1420274,4.9093995,0.22605707,0.6281532,0.74452788,0
1.0109879,2.0916486,-6.1548519,0.15367593,0.31794253,-0.93557268,0
5.0399103,4.2065411,-0.9372744,0.76001823,0.63434619,-0.14134093,0
1.0212815,-1.8743446,6.3297887,0.15288644,-0.28059047,0.94757307,0
1.0673273,-3.0328286,5.8274112,0.16036721,-0.45568612,0.87557554,0
1.8096699,3.3076124,5.5029111,0.27128941,0.49584746,0.82494688,0
-4.1024189,-3.9970016,3.3110952,-0.62009132,-0.60415721,0.50048065,0
-4.0645132,-0.25149497,-5.0883689,-0.62365121,-0.038588911,-0.78074968,0
-1.9702747,1.1409433,-6.2833686,-0.29481241,0.17071947,-0.94018114,0
3.1980817,5.6366539,1.0104567,0.48758599,0.85937566,0.15405627,0
1.7225746,-6.4266782,0.15332949,0.25882766,-0.96564877,0.023038719,0
-0.69627535,-5.1753969,4.0942512,-0.10492881,-0.77993315,0.61700428,0
0.32042682,-5.6826625,-3.2043822,0.049057022,-0.87000984,-0.49058765,0
4.2347245,3.7649527,3.1818717,0.6516344,0.57934642,0.48962262,0
4.6523795,3.8077133,-2.7242334,0.70486742,0.5768947,-0.41274008,0
-3.9713814,-0.38092273,-5.1741571,-0.60783297,-0.058301475,-0.79192173,0
5.518074,-1.2239186,3.3744071,0.83825171,-0.18592571,0.51260686,0
-2.1249449,5.3815022,3.1771371,-0.32192382,0.81528407,0.48132831,0
4.6674519,4.5657883,-0.5197987,0.71259451,0.69707322,-0.0793593,0
-3.8480854,-2.9529636,4.4079919,-0.58711332,-0.45054203,0.67253983,0
3.3400466,3.9693146,-3.8487494,0.51708066,0.61449915,-0.5958342,0
-4.3769941,-3.2434814,3.6073434,-0.66989529,-0.4964121,0.5521009,0
0.20193247,2.2526755,-6.2740264,0.030278195,0.33777106,-0.94074118,0
-2.1817071,-5.8828006,2.1736503,-0.32856163,-0.88594043,0.32734826,0
-0.29441741,2.2925808,6.2647772,-0.044090454,0.34332523,0.9381811,0
-4.0552096,0.47419575,5.1828718,-0.61462504,0.071871154,0.78553838,0
-6.4560113,0.34759471,-1.4892814,-0.97307175,0.052390646,-0.22446951,0
-2.0151083,2.1567373,5.8651533,-0.30690101,0.32847109,0.89326286,0
-5.217205,-3.6632786,1.7854936,-0.78807563,-0.55335003,0.26970458,0
-3.3647323,0.30011636,5.7297649,-0.50586498,0.045120485,0.86143178,0
5.5337701,-1.153491,3.5241213,0.83073741,-0.1731637,0.52904606,0
5.5423899,0.88167423,-3.4591217,0.84071237,0.13373913,-0.52470618,0
-2.6198943,5.4757118,-2.347573,-0.40254477,0.84133893,-0.36070281,0
6.1656165,1.0160084,-2.123877,0.93420625,0.15394428,-0.32180712,0
3.1245651,4.7016578,-3.318774,0.47714266,0.71797562,-0.5067997,0
5.2976389,-2.5234456,-3.0736899,0.79973745,-0.38094214,-0.46400765,0
-3.9483106,-5.2124166,0.042263817,-0.6037975,-0.79711157,0.0064632166,0
2.5450313,-0.60424924,6.0831223,0.38434815,-0.091253132,0.9186672,0
3.7879169,1.5614053,-5.0647697,0.58146286,0.23968297,-0.7774657,0
-3.7271783,-3.6702471,3.9394195,-0.56917351,-0.56047964,0.60158467,0
4.4792352,-4.8040638,-0.53043872,0.67973441,-0.72902787,-0.080495313,0
-4.3033714,4.9529724,0.71866316,-0.65197045,0.75038648,0.10887908,0
2.5286365,-3.2501745,5.1219144,0.38475701,-0.49454615,0.77934986,0
2.6949396,2.026798,5.643086,0.4099507,0.30831388,0.85841888,0
-5.076612,3.8176322,1.4904599,-0.77809656,0.5851317,0.22844404,0
5.5450974,2.7575173,2.3284421,0.83811343,0.41678482,0.35193226,0
-4.5514789,-4.0776496,-2.6081967,-0.68502665,-0.61371231,-0.39255029,0
2.7580404,-1.3636683,5.7659354,0.42201093,-0.20865646,0.8822524,0
-4.7512641,1.9011393,-4.3181868,-0.7095741,0.28392428,-0.64489651,0
1.1099919,6.5357022,-0.77779728,0.16629684,0.97916621,-0.11652808,0
-3.4746859,5.687767,0.19790806,-0.52109236,0.85298413,0.029679913,0
-0.45040119,-3.2353277,5.6795878,-0.068743177,-0.49379689,0.86685586,0
3.7203012,-5.4067817,-1.0598365,0.55960399,-0.81328273,-0.15941955,0
-1.3516726,6.3856754,-1.3784869,-0.20261496,0.95720911,-0.2066344,0
-6.1407461,-1.7127625,-1.6135584,-0.93378896,-0.26045021,-0.24536481,0
-4.4757524,-1.9960103,-4.4005919,-0.67953706,-0.30304691,-0.66812569,0
-4.9596958,0.3840284,4.303122,-0.75404477,0.058385558,0.65422291,0
-1.4089669,5.6434112,-3.2538078,-0.21140189,0.84673941,-0.48820248,0
-1.745084,4.3639979,-4.7879057,-0.2601018,0.65044641,-0.71362913,0
-0.44461799,-0.34674203,6.5959978,-0.067162305,-0.052377533,0.99636632,0
2.0461938,1.9657763,-5.9795613,0.30915645,0.29700628,-0.90344322,0
6.2853656,1.3702575,1.629903,0.947124,0.20648023,0.24560547,0
-6.5684109,0.67876285,-0.23118699,-0.99409401,0.10272714,-0.034988921,0
-5.0217891,-3.8573151,-1.8223403,-0.76211888,-0.58539551,-0.27656278,0
0.44376868,4.1247101,5.0392942,0.06798736,0.63192415,0.77204251,0
-6.2051172,-2.2066817,0.50832129,-0.93940061,-0.33407235,0.076955408,0
-5.7880588,-3.1335721,1.1996367,-0.86514276,-0.46837589,0.17931002,0
6.2836261,-1.4363735,0.89479929,0.96559483,-0.22072522,0.13750239,0
-2.4263675,5.5987625,-2.2950044,-0.37218583,0.85880649,-0.35203576,0
5.9953017,-0.35974541,-2.7516096,0.90750015,-0.054454144,-0.41650715,0
6.5823579,0.65392965,0.87059808,0.98659307,0.098013885,0.13048911,0
3.6790667,0.57004839,5.3261867,0.56615263,0.08772181,0.81961942,0
-0.13041706,-5.9535942,3.0606515,-0.019478282,-0.88919181,0.45711988,0
-3.0514605,-5.0548387,2.7551599,-0.46832779,-0.77579945,0.42285258,0
2.7907345,5.9790649,-0.43380523,0.42203707,0.90420175,-0.06560348,0
6.2718458,0.091644943,2.2568893,0.94084513,0.013747739,0.33855796,0
-2.2552009,-1.7424487,5.9529853,-0.34169674,-0.26400709,0.90196651,0
2.3312798,1.1999675,6.1313772,0.34959707,0.17994629,0.91945702,0
-4.7669244,-4.5405602,0.82963055,-0.71840793,-0.68429327,0.12503096,0
-6.1939664,-1.9670551,-0.049158182,-0.95306522,-0.30267063,-0.0075639663,0
-3.8445923,-5.3046851,-0.69931656,-0.58352208,-0.80513114,-0.10614043,0
-5.3303246,-2.3161454,3.0910969,-0.80974901,-0.35185409,0.46957979,0
-6.3595462,1.6296927,-0.58602101,-0.96486259,0.24725498,-0.088910393,0
3.3773394,4.3739991,-3.6986763,0.50789356,0.65777403,-0.55621713,0
-1.7651156,1.4955487,6.0557189,-0.27228537,0.23070219,0.93415052,0
4.7230272,-4.5164075,0.77799809,0.71767086,-0.68627471,0.11821795,0
4.7310524,4.2186742,-1.8120639,0.71762025,0.63990122,-0.27485931,0
-0.28891823,0.56936026,-6.6466784,-0.043268893,0.085268378,-0.99541807,0
5.9015746,-2.6445212,-1.0018672,0.90181011,-0.40410504,-0.15309371,0
3.4452178,-1.2826678,-5.3852634,0.52837396,-0.19671564,-0.82590801,0
6.2306581,-1.5439172,-1.4719126,0.94609046,-0.23443516,-0.22350167,0
-4.7633309,-0.99024332,4.4206467,-0.72461694,-0.15063977,0.67248642,0
-6.0104346,2.4137909,-0.56718224,-0.92442626,0.37124965,-0.087234646,0
2.4810777,4.5518866,4.1575127,0.37335694,0.68497586,0.62562984,0
4.5806417,4.8441987,0.24461748,0.68660259,0.72610772,0.036666259,0
-2.9970198,-5.9532647,0.64303654,-0.44758075,-0.88907212,0.096032329,0
3.462332,-5.5626144,0.94573623,0.52300823,-0.84026986,0.14285974,0
4.5328197,3.9873431,2.4721537,0.69483781,0.61122143,0.37895745,0
-4.5204029,1.4521835,-4.473701,-0.69293463,0.22260587,-0.68577564,0
3.2100258,-2.3379364,-5.370832,0.48057699,-0.3500154,-0.80407399,0
5.2250361,-1.9644572,-3.4489937,0.7962954,-0.29938322,-0.52562654,0
0.51922679,-1.5262963,-6.3712091,0.079005629,-0.23224147,-0.96944416,0
-1.3931351,-4.0963602,-4.9064479,-0.21296129,-0.62618917,-0.75002307,0
-5.2951369,-0.45026445,3.8440354,-0.80733353,-0.068650462,0.58608848,0
0.046265688,-6.410593,1.237661,0.0070860325,-0.98184359,0.18955962,0
4.9437141,-4.3812966,-0.85928816,0.74214178,-0.65771264,-0.12899485,0
1.7198881,-4.7755547,4.3041158,0.25843453,-0.71758634,0.64674681,0
4.1022773,5.1325974,-1.2565309,0.61322963,0.7672472,-0.18783273,0
-4.9797935,-4.0749326,1.1742122,-0.76134205,-0.62300128,0.17952093,0
5.04949,-1.6091206,4.0296865,0.75844342,-0.24169311,0.60526693,0
4.638278,-1.84791,4.4084806,0.6963793,-0.27744055,0.66187811,0
-5.5812187,0.10877866,-3.5984621,-0.8403433,0.016378399,-0.54180706,0
1.0730993,5.0380068,-4.1761775,0.16182451,0.75973678,-0.62977201,0
1.4207131,-6.1764951,1.9729472,0.21403459,-0.93050706,0.29723027,0
4.8426299,1.2517277,-4.3467073,0.73078716,0.18889458,-0.65594894,0
-6.108572,1.4925659,-1.9141892,-0.9293195,0.22706953,-0.29121262,0
-1.1374942,-0.46262527,-6.4019623,-0.17449795,-0.070969291,-0.98209667,0
-6.3744612,-1.1849024,-1.7197748,-0.95029742,-0.17664391,-0.25638208,0
2.7357624,-0.24877812,5.9644833,0.41661242,-0.037884887,0.90829444,0
-1.6282723,5.086473,-3.7393682,-0.2497469,0.78017104,-0.57355005,0
3.8278069,-3.8402612,3.806289,0.57780242,-0.57968241,0.57455432,0
4.7344699,4.2373638,-1.9029864,0.71381456,0.63886607,-0.28691268,0
4.2229967,4.7694807,1.8524381,0.63654542,0.71891868,0.27922374,0
-3.970221,5.0380898,-1.5754029,-0.60108727,0.76276147,-0.23851433,0
5.027184,3.6763115,2.2058241,0.76087832,0.55642003,0.33385766,0
-1.8412089,2.3260667,5.8168879,-0.28197503,0.35622939,0.89083707,0
-2.3480079,-5.9897199,1.4240527,-0.35634083,-0.9090181,0.21611857,0
-4.3907657,0.73605436,4.8948045,-0.66359609,0.11124319,0.73977375,0
-2.6076367,-5.2882109,2.8206186,-0.39895806,-0.80907524,0.43154344,0
-0.037618216,3.0619047,5.8864059,-0.0056694555,0.46146083,0.88714248,0
1.8775976,4.3940187,4.6455145,0.28173748,0.6593318,0.69706923,0
3.1321323,5.1826367,2.4500825,0.47947297,0.79336822,0.37506345,0
-3.5748928,-3.0913944,4.4626064,-0.5499742,-0.47559109,0.68654323,0
4.9808164,3.6605103,-2.449203,0.74913079,0.55055249,-0.368368,0
-6.0706253,-0.8187415,2.3203998,-0.92676353,-0.12499203,0.3542406,0
0.055587839,5.8076267,3.0712876,0.0084609045,0.88396633,0.46747404,0
4.2537456,-3.5977483,3.6804397,0.63706398,-0.5388183,0.5512026,0
6.1677155,-1.2034351,-1.7354656,0.94607532,-0.18459675,-0.26620573,0
-2.0517256,0.77876192,6.1247497,-0.31535688,0.11969823,0.94139385,0
-2.4413321,-5.9132562,1.433242,-0.37238243,-0.90196365,0.21861595,0
1.5391661,-1.2317388,6.2502084,0.23485363,-0.18794483,0.95368791,0
3.872396,-2.1547689,4.8144274,0.59179413,-0.32929993,0.73575896,0
-1.3074172,-1.2094219,-6.3732581,-0.19757156,-0.18276292,-0.96310085,0
2.9749691,3.3032241,5.0442324,0.44247055,0.49129227,0.75023443,0
-5.8766427,2.8181355,1.1632421,-0.88765419,0.42567328,0.17570521,0
-4.1987195,-5.1441383,-0.33663726,-0.6315133,-0.77371013,-0.05063232,0
-2.5398004,3.0582216,5.277154,-0.38441402,0.46288016,0.79872888,0
0.66227818,3.6105311,5.4240599,0.10112004,0.55127448,0.8281734,0
4.149765,-2.2490253,-4.5566053,0.63252938,-0.34280849,-0.69454217,0
0.99341053,6.0872378,-2.1229668,0.15229566,0.9332093,-0.32546327,0
-4.4861455,4.4391527,-1.7715467,-0.68436992,0.67720109,-0.27025276,0
-1.6653924,-6.3474474,1.2755299,-0.24911995,-0.94949144,0.19080184,0
3.366523,-1.067217,-5.674582,0.50368327,-0.15967196,-0.84900409,0
-6.3270955,-0.33565578,2.1854017,-0.94401902,-0.050080709,0.32606757,0
4.5766129,-3.2969866,-3.3882074,0.69554144,-0.50106722,-0.51493073,0
-4.3560309,2.1895633,-4.2975044,-0.67025584,0.33690476,-0.66125047,0
-4.362432,-0.71673518,-4.9694304,-0.65587682,-0.1077587,-0.74713701,0
-3.2978468,-5.5951524,-0.6923207,-0.50491214,-0.85663784,-0.10599677,0
-0.072658256,-6.6196809,-0.16901256,-0.01097186,-0.99961406,-0.025521975,0
-5.734592,-3.4327338,0.09455467,-0.85793614,-0.51356161,0.014146058,0
-5.1200504,1.4510244,-3.9826546,-0.77028584,0.21829931,-0.59917033,0
5.7751865,-2.9109697,1.1212267,0.87985206,-0.44348744,0.17081934,0
-2.3806407,-2.5128281,-5.6026268,-0.36148745,-0.3815594,-0.85072869,0
-4.4362912,4.8831768,-0.19395329,-0.67213672,0.73984373,-0.02938561,0
2.3889208,-5.1866598,-3.1890421,0.36524948,-0.79300445,-0.4875825,0
-3.0938489,3.8958132,4.2926707,-0.4708434,0.59289187,0.65328842,0
1.4023492,-6.2404642,-1.3972262,0.21419971,-0.95319027,-0.2134172,0
-0.42118728,-5.7755547,3.3608649,-0.062905937,-0.86260128,0.50195807,0
-3.6803353,-5.1565166,-1.8433752,-0.55780226,-0.78153658,-0.2793873,0
2.5399733,-4.6679111,3.9487457,0.38364214,-0.70504969,0.59642565,0
1.1385758,6.4974089,-0.88366348,0.17107704,0.97627014,-0.13277513,0
2.5865123,-4.5200353,4.018136,0.39322421,-0.68717527,0.61087215,0
0.6917876,-5.9976869,2.6271884,0.10506631,-0.91090798,0.39900833,0
0.76888317,4.8870735,-4.3703794,0.11647755,0.74033922,-0.66206557,0
5.4581428,-2.1349437,-3.244005,0.8148036,-0.31870911,-0.48427224,0
-5.2313519,3.7260642,1.3601449,-0.79684222,0.56755602,0.20717797,0
4.0055175,-1.3097616,-5.0444026,0.60938025,-0.19926088,-0.76743126,0
-4.5632515,-3.4383097,3.3480837,-0.68907315,-0.51920146,0.50557691,0
4.7226496,-4.5384812,-0.28067395,0.72036481,-0.69227284,-0.042812329,0
-1.7776437,6.2432532,0.71803427,-0.27218604,0.95594317,0.10994267,0
0.86077803,-3.0700819,-5.778008,0.13043332,-0.46520817,-0.875539,0
-2.8912935,-5.3852587,2.6012933,-0.43524966,-0.81068629,0.39159358,0
3.9869723,0.36399519,-5.1802959,0.60897201,0.055596799,-0.79124081,0
-0.52090842,0.52098799,6.4884305,-0.079770081,0.079782262,0.99361539,0
2.0291207,-1.1943084,-6.1626854,0.30757532,-0.18103398,-0.93414354,0
0.67744929,-3.9922063,5.223659,0.10249891,-0.60402572,0.79034603,0
-4.533968,3.6013401,3.0593634,-0.69234025,0.54992723,0.46716702,0
1.5232648,6.3422661,1.1279111,0.23012021,0.95812863,0.17039397,0
-1.5151658,3.8746877,-5.1216178,-0.22962356,0.58720934,-0.77618176,0
-0.10741659,2.537595,-6.1763883,-0.0160846,0.37998044,-0.9248547,0
3.8492002,-4.6817131,-2.6027598,0.58355296,-0.70976496,-0.39458799,0
-4.2390943,-4.9908719,1.0334113,-0.6394552,-0.75285876,0.15588713,0
4.9540997,-1.720035,3.9991577,0.75118285,-0.26080635,0.60638636,0
5.9692545,-2.8666086,0.055520058,0.90141082,-0.43288356,0.0083840257,0
4.574616,-4.4038291,-1.6083481,0.69837308,-0.67230034,-0.24553472,0
-6.1998997,1.2918724,1.6904132,-0.94585884,0.19708849,0.25789002,0
3.3780622,5.0163627,2.6652415,0.51113158,0.7590214,0.40327531,0
3.5069788,-3.2341149,-4.5476441,0.5320971,-0.49069679,-0.68999231,0
0.86327505,-2.1538785,-6.1461587,0.13140441,-0.32785511,-0.93554473,0
4.8562155,2.9873548,-3.3753526,0.73293436,0.45087269,-0.50943208,0
-0.23955955,4.0935311,5.169795,-0.03630475,0.6203661,0.78347164,0
-5.7717848,-0.89680648,-2.8732488,-0.88667387,-0.13776931,-0.4413946,0
-3.7397287,-4.1493173,-3.5891287,-0.56324637,-0.62493509,-0.54056424,0
-4.3607974,-2.0684009,-4.352675,-0.67096645,-0.31825086,-0.66971666,0
2.5897877,-2.059413,-5.6362772,0.39625055,-0.31510055,-0.86237878,0
2.9558311,-3.6927207,4.6982083,0.44336548,-0.55389661,0.70471662,0
-2.0915642,-2.706938,5.6326213,-0.31738278,-0.41076222,0.85471779,0
-6.5260024,-0.99581778,0.2926321,-0.98758739,-0.15069824,0.044284351,0
6.4636064,-1.4856614,-0.58406258,0.97082973,-0.22314543,-0.087725841,0
-1.2930812,6.3881154,-0.12995617,-0.19835669,0.97992718,-0.019935079,0
-5.0221071,-0.63481826,-4.2448974,-0.76019526,-0.096092299,-0.64254916,0
-0.32882285,-1.6128721,6.4488969,-0.049405027,-0.24233106,0.96893483,0
0.70221645,0.17118143,6.5097961,0.10721193,0.026135374,0.99389267,0
-1.2034771,4.9615893,4.2213097,-0.18166819,0.74896562,0.63721836,0
-2.397891,-4.1293292,4.6358209,-0.36030179,-0.62046385,0.69656819,0
-0.46045452,-5.4736342,3.8382678,-0.068713084,-0.81682396,0.57278019,0
-6.5933414,-0.30818003,0.012601241,-0.99890763,-0.046690043,0.0019091194,0
-4.7423868,3.7994525,2.7699549,-0.71012658,0.56893128,0.41477397,0
-6.1871123,-1.656039,1.1608827,-0.95050925,-0.25441277,0.17834325,0
-5.3137088,0.15471525,4.016036,-0.79756308,0.023222044,0.60278839,0
-3.8275518,-4.8690057,-2.035569,-0.58711338,-0.74686337,-0.31223866,0
4.5774298,2.0677125,-4.1224208,0.70444804,0.31821263,-0.63442397,0
-4.2903109,-3.3391051,-3.7632234,-0.64886957,-0.50500858,-0.56915253,0
-5.9072247,-2.2082558,-1.5936881,-0.90814263,-0.33948451,-0.24500442,0
-0.22812012,-3.4103141,-5.7011309,-0.034318265,-0.51304573,-0.85767496,0
-4.7646661,1.2271794,-4.3147049,-0.72809047,0.18752576,-0.65933174,0
0.46997944,-1.0553144,6.4148064,0.072104871,-0.16190773,0.98416811,0
-5.8165092,-2.2079566,-2.1290951,-0.88454533,-0.33577487,-0.32378203,0
4.1389451,-4.0204334,3.2627218,0.6243946,-0.60651612,0.49220896,0
1.8656399,0.32615474,-6.4091473,0.27915683,0.04880273,-0.95900452,0
-3.7499146,-3.6997766,3.9448001,-0.56979549,-0.56217706,0.59940809,0
0.70492131,2.9461503,-5.845264,0.10707227,0.44749817,-0.88785183,0
-4.9463487,-4.3276439,0.16279045,-0.75237691,-0.65826726,0.024761654,0
1.2046751,-4.4122581,-4.8640013,0.18043083,-0.66084826,-0.72850829,0
1.9162505,2.1066289,-5.9169769,0.2918168,0.32080865,-0.90106869,0
-3.2072988,2.6511991,5.0141773,-0.49222279,0.40687841,0.76952368,0
4.1897745,-1.3705127,-4.9056783,0.63526517,-0.20780092,-0.7438125,0
-4.8143716,-0.090889119,-4.6758275,-0.71728736,-0.013541459,-0.69664586,0
4.8644061,2.5567446,-3.6944461,0.73460406,0.38610983,-0.55792117,0
-5.0933857,1.3587292,3.7977791,-0.78395182,0.20912971,0.58453768,0
-3.857558,4.3186488,-3.3381722,-0.5771395,0.64612454,-0.4994328,0
-3.853018,4.0144205,-3.6400416,-0.5794751,0.60374922,-0.54744446,0
3.219784,-5.4550247,2.0147889,0.48439071,-0.82066476,0.30310884,0
-3.2290747,3.1229863,4.7559457,-0.49358433,0.47736806,0.72697616,0
6.1395512,-1.3713405,1.6610116,0.94361299,-0.21076699,0.25528774,0
4.5531387,-4.4892311,1.4506617,0.69443852,-0.68469143,0.22125293,0
2.9900954,3.4837272,-4.5399308,0.46310505,0.53955859,-0.70314306,0
2.2972534,-5.4613352,-2.96683,0.34669593,-0.82421154,-0.44774681,0
1.5324404,5.3015518,-3.4252617,0.23593536,0.81622982,-0.52735513,0
-0.86969548,-2.771374,5.8710356,-0.13277261,-0.42309356,0.89630532,0
-1.0954602,0.99256909,6.4188023,-0.16631083,0.15069009,0.97449124,0
-0.54821467,6.6073866,0.035572231,-0.082684666,0.99656135,0.0053651938,0
-4.8055453,4.2727327,-1.6880877,-0.72282922,0.64268589,-0.2539148,0
-2.6604495,-5.6770434,1.8351456,-0.40725875,-0.86903572,0.28092211,0
-0.081276327,-6.5136509,0.43437067,-0.012449227,-0.99770653,0.066533267,0
-1.451713,-5.7355924,-2.8862908,-0.22052637,-0.87128061,-0.4384498,0
-3.1202435,-0.34756133,5.7351618,-0.47722867,-0.053158104,0.87716991,0
4.2533107,-4.922781,-1.046388,0.64548391,-0.74708295,-0.15880021,0
2.8988864,1.3079997,5.7354751,0.44202423,0.19944471,0.87454927,0
5.0441694,-2.5684612,-3.2396331,0.77341408,-0.39381784,-0.49672753,0
4.851172,1.2843651,-4.2568421,0.73719406,0.19517475,-0.64687848,0
3.4352508,-1.6969303,5.2339983,0.52959639,-0.26160774,0.80690086,0
2.8951845,-5.5809369,-1.9618564,0.43958446,-0.84737021,-0.29787448,0
-0.17445679,2.2095087,-6.1494641,-0.02668887,0.3380166,-0.94076163,0
-3.5265729,-1.2224946,-5.5344353,-0.5282926,-0.18313383,-0.82907712,0
0.41945091,-0.10591114,-6.6784968,0.062674828,-0.015825363,-0.99790853,0
-0.12925935,0.27817881,-6.6137152,-0.019523149,0.042015735,-0.99892616,0
4.5499158,0.9492833,-4.5516567,0.69940418,0.14592198,-0.6996718,0
5.7066607,-0.2155818,-3.2405672,0.86910903,-0.032832529,-0.49352965,0
-3.2645655,4.0318546,-3.9891071,-0.49885064,0.61609828,-0.60956615,0
-2.2794826,-0.32438707,-6.2867908,-0.34046784,-0.04845107,-0.93900698,0
-2.925755,4.3370571,-3.8912411,-0.44872773,0.6651814,-0.59680587,0
4.6654305,1.0555086,-4.577992,0.70463568,0.15941702,-0.6914295,0
4.2761545,4.7176428,-2.0428579,0.63948029,0.70550293,-0.30550051,0
5.8497353,1.9914755,2.3479297,0.88492131,0.30126134,0.35518414,0
-1.7440624,-1.9844774,5.9461269,-0.26804358,-0.30499277,0.91385555,0
4.2636371,3.3418751,-3.7601724,0.64655781,0.50677752,-0.5702101,0
2.7612915,1.9180094,-5.685565,0.41804588,0.29037714,-0.86076641,0
5.2614255,-3.5991685,1.3126068,0.80840272,-0.55300176,0.20167822,0
-0.55250025,4.6201,4.7526684,-0.083067775,0.69462669,0.71455818,0
4.7562718,0.81902474,4.47365,0.72275364,0.12445738,0.67980701,0
4.6324844,-2.6585104,3.7512288,0.70976192,-0.40732127,0.57474113,0
5.6515193,2.8364072,-1.9661705,0.85344774,0.42833176,-0.29691553,0
-1.2829394,-3.2618058,-5.6616559,-0.19266818,-0.48984867,-0.85025132,0
2.85093,-5.8875108,-0.0073320987,0.43582505,-0.90003073,-0.0011208666,0
-0.050204862,5.9417076,-2.623363,-0.0077294577,0.91477549,-0.40388864,0
2.5982101,2.2100074,-5.6043649,0.39602199,0.33685172,-0.85422331,0
0.27325115,-6.525032,1.2260576,0.041122291,-0.98196948,0.18451269,0
-1.6321126,6.3775549,0.89926982,-0.24564391,0.95986485,0.13534614,0
0.15688796,5.4180183,3.8307829,0.023637133,0.81629223,0.57715535,0
0.13340385,2.5566223,-6.0281234,0.020369401,0.39037004,-0.92043269,0
4.4186239,2.7377584,-4.0061994,0.67329234,0.41716874,-0.61044872,0
5.7323866,-1.8891413,-2.7480421,0.86437792,-0.28486076,-0.41437313,0
-6.3321614,0.55745786,1.5709704,-0.96705246,0.085135385,0.23991978,0
-5.6392093,-2.9947898,1.1801522,-0.86847341,-0.46121633,0.1817508,0
-3.4666235,4.9090385,2.7558177,-0.52433997,0.74251068,0.41682789,0
-1.4409889,-6.4431047,-0.12888238,-0.21821481,-0.97570556,-0.019517183,0
3.3168902,-1.5231421,-5.6103468,0.49556789,-0.22756869,-0.83822727,0
-1.0299811,4.0760093,5.2553763,-0.15304191,0.60564244,0.78088117,0
3.2701139,5.7647171,0.31576672,0.49284646,0.86881387,0.047589935,0
-5.0330124,1.0264434,-4.1486764,-0.76225996,0.15545693,-0.62832546,0
0.18226436,-6.0923023,-2.3163369,0.027953215,-0.93435401,-0.35524806,0
-2.6431112,3.7656686,4.6846128,-0.40254727,0.57351339,0.71346909,0
-1.9874023,0.83174163,6.2486448,-0.30068314,0.12583798,0.94538593,0
0.45742908,-3.7921352,5.3917723,0.069227435,-0.57390273,0.81599218,0
-5.4994583,-0.42421082,-3.6486888,-0.83156419,-0.064144231,-0.55171233,0
4.137846,4.5537262,-2.6369922,0.61812675,0.68025249,-0.39392367,0
5.8268027,-2.8776116,-1.0544841,0.88504374,-0.43708572,-0.16016753,0
1.3487173,-2.2468975,-5.9237409,0.20821501,-0.34687608,-0.91450727,0
2.7281392,-5.4281368,-2.5368147,0.41438863,-0.82450271,-0.38532755,0
6.078299,0.98579592,-2.5007787,0.91455841,0.1483257,-0.37627438,0
-2.2761433,-2.6129277,-5.6694398,-0.34255514,-0.39324054,-0.85323966,0
0.71802032,6.588449,0.09044791,0.10833012,0.99402136,0.013646179,0
4.0061111,-4.850636,1.9415063,0.60847574,-0.73674798,0.29488933,0
-4.7168803,-3.6361909,-2.7539761,-0.71885598,-0.55415815,-0.41970795,0
-6.0756416,1.8316684,1.6744348,-0.9257502,0.27909273,0.25513491,0
-6.5050182,-0.83558714,0.70608473,-0.98615205,-0.12667389,0.10704149,0
-2.4481816,4.1115851,4.6369505,-0.36741084,0.61704612,0.69589031,0
-0.50370997,1.0863137,6.397543,-0.077391006,0.16690341,0.98293132,0
2.577203,2.0315905,5.7946844,0.38700187,0.30507076,0.87015021,0
-2.6839881,-1.0205984,-5.9503403,-0.40623626,-0.15447316,-0.90061653,0
-5.2649317,-2.4475448,-3.216037,-0.7932418,-0.36875975,-0.48454475,0
1.883456,4.2449241,-4.6623354,0.28621387,0.64506745,-0.70849818,0
-2.0845828,-3.6650858,5.1194921,-0.31430718,-0.5526107,0.77190179,0
-4.9697723,2.5456848,-3.5789049,-0.74932605,0.38383004,-0.53961563,0
5.83284,2.4600546,-1.9645649,0.87999988,0.37114814,-0.29639366,0
-4.3451829,2.7909698,-4.1627069,-0.65507394,0.42076287,-0.62756413,0
3.9456625,-1.6738445,5.0572128,0.59520036,-0.25249824,0.76287693,0
0.36207071,6.0424051,2.7095425,0.054594528,0.91109902,0.4085561,0
4.699924,1.2199863,-4.3385406,0.72178012,0.18735661,-0.66628146,0
-3.4570518,3.1461422,4.6005359,-0.52710754,0.47970217,0.70145816,0
3.1619232,5.8078203,-0.50009841,0.47679362,0.8757745,-0.075410984,0
-1.4776559,5.1328325,3.8103456,-0.2252143,0.78231156,0.58074707,0
2.7081957,-2.11288,5.5670733,0.41400385,-0.32299751,0.85104257,0
3.1265876,5.5789738,-1.7603517,0.47135437,0.84106827,-0.265385,0
1.9411771,4.7538109,4.1702781,0.29345119,0.71864206,0.63042837,0
-0.88681251,-4.4310598,4.7746959,-0.13489543,-0.67402041,0.72629178,0
-3.3112977,-5.6342039,-1.2450987,-0.49773291,-0.84689718,-0.18715522,0
-4.2265949,-3.0785272,4.0445614,-0.63936716,-0.46569622,0.61183053,0
4.9192634,2.7994502,3.5336607,0.73723966,0.41954771,0.52958232,0
1.9773326,-6.1701026,-1.0376964,0.30134135,-0.94031072,-0.15814275,0
-1.470678,-4.0753517,-5.0135241,-0.22194822,-0.61503404,-0.75661886,0
-4.1700473,3.9809926,3.3664944,-0.62461925,0.59630132,0.50425738,0
6.1537619,-2.0424089,0.47959432,0.94650602,-0.31414157,0.073766083,0
2.8012135,-6.0544167,0.41925767,0.41907984,-0.90578026,0.062723681,0
5.799263,-0.43505707,2.9395044,0.88997048,-0.066765025,0.45110422,0
1.6033213,6.2724276,1.2016951,0.24349254,0.95257849,0.18249853,0
-4.4965649,-3.3496988,3.2790911,-0.69225436,-0.51569223,0.50482208,0
-2.7802069,-3.9814613,-4.4602528,-0.42165294,-0.60383809,-0.67645276,0
4.9787068,1.6069821,3.9555328,0.75910312,0.24501646,0.60309982,0
-4.8407402,4.2238445,1.729406,-0.72758561,0.63486338,0.2599377,0
1.6277127,-1.1815444,-6.387413,0.2430653,-0.17643927,-0.95382833,0
-3.2356794,-5.7764101,-0.09047842,-0.48866004,-0.87236726,-0.013664267,0
1.0156789,4.7867384,-4.5906367,0.1513775,0.7134189,-0.68419176,0
5.6999278,0.041748513,3.3331068,0.86322403,0.0063225925,0.50478148,0
-4.3751993,-5.0013604,0.67852139,-0.65501428,-0.7487573,0.10158193,0
-3.5636449,-3.246052,-4.5588212,-0.53712207,-0.48925364,-0.68711776,0
4.7035279,0.44739017,4.6082106,0.71266448,0.067787215,0.69822228,0
-0.80483615,-4.5890207,4.6843929,-0.12181851,-0.69458574,0.70902109,0
-4.6251292,-2.5412395,-3.9555161,-0.70129395,-0.38532022,-0.59976256,0
1.8256625,6.2452679,-0.79700512,0.27850282,0.95270878,-0.12158225,0
4.3185701,-1.7582794,-4.6150365,0.65826845,-0.26800999,-0.70345807,0
3.3306227,5.6197319,-0.14820454,0.50971782,0.86004257,-0.022681192,0
6.1972804,2.118139,0.80724126,0.93914968,0.32098752,0.12233114,0
0.55554855,-5.3578377,-3.7769997,0.084445097,-0.81440789,-0.57411563,0
6.3703623,0.089585125,-1.4056789,0.97641718,0.013731158,-0.2154554,0
-1.3337382,2.6456835,5.9099326,-0.2017442,0.40019196,0.89394951,0
4.5979056,-3.480588,-3.0804567,0.70326698,-0.53236902,-0.47116747,0
-1.3054571,-0.46178749,6.4094992,-0.19908231,-0.070422627,0.97744912,0
-6.1691647,-1.7948644,-1.2292187,-0.94308227,-0.27438152,-0.18791108,0
-0.29183573,1.0545537,6.4180832,-0.044824108,0.16197273,0.98577666,0
3.6134527,-0.31253368,5.5400295,0.54570031,-0.047198549,0.83665019,0
4.7507377,-4.4885898,0.77028996,0.72188079,-0.68204707,0.11704656,0
1.4981105,-3.0051019,5.5813894,0.22999761,-0.46135867,0.85688353,0
-5.3287835,3.594285,-0.89233655,-0.82116389,0.55387825,-0.13750879,0
-5.6482978,3.0955729,0.7726202,-0.87069362,0.47718722,0.11910057,0
-3.7509003,3.5684869,-4.2705073,-0.55889922,0.53171891,-0.63632274,0
-2.6987412,5.9601765,-1.1618931,-0.40612707,0.8969326,-0.17485049,0
0.23204656,2.2390764,-6.1762471,0.035299312,0.34061205,-0.93954104,0
-2.2743189,3.2978606,-5.2367778,-0.34494138,0.50017989,-0.79425156,0
4.7329102,-4.3039341,-1.7609283,0.71330917,-0.64865708,-0.26539406,0
-3.6695499,5.1659331,1.9884684,-0.55253738,0.77785319,0.29941085,0
1.8633307,-6.2905941,-0.94134718,0.28113231,-0.94910115,-0.14202692,0
3.9924641,4.7155528,-2.0367434,0.61368418,0.72483063,-0.31306913,0
-5.0466843,1.8885654,3.7359869,-0.7696721,0.28802598,0.56977707,0
-2.9479396,-3.2530196,-4.8788433,-0.44916195,-0.49564534,-0.7433635,0
5.8617725,2.93173,0.27423653,0.89359379,0.44692552,0.041805796,0
0.70166051,0.19166648,6.5605879,0.10629953,0.029036917,0.99391007,0
0.97429329,0.44745666,6.5226173,0.14739366,0.067692429,0.98675877,0
1.6781505,6.1492534,-1.5386982,0.2559242,0.93778402,-0.2346572,0
0.94562787,3.3306909,-5.6172056,0.14330867,0.50476187,-0.85128021,0
0.41810051,1.1913192,-6.5094438,0.06305474,0.17966571,-0.98170483,0
1.9672496,-4.154963,4.7739067,0.29683059,-0.62692612,0.72031611,0
0.21520399,6.0869479,-2.3567557,0.032952085,0.93203497,-0.36086702,0
-3.5288146,-4.9656425,2.4358644,-0.53786671,-0.75687003,0.37127778,0
-3.1064837,-4.9480472,-3.0267925,-0.47211823,-0.75199598,-0.46000689,0
-0.99945259,-2.0538328,6.206614,-0.15112169,-0.31054869,0.9384678,0
0.7425071,4.2503881,4.9635758,0.11289805,0.64627063,0.75471067,0
-6.0498829,2.3448291,0.75081134,-0.9262349,0.35899249,0.11494894,0
-1.8950076,-4.6735353,-4.3164315,-0.28547376,-0.70404553,-0.6502496,0
2.266705,-6.2026477,-1.1213961,0.33839592,-0.92599195,-0.16741298,0
-6.143899,0.30273658,2.0724444,-0.94651353,0.046638831,0.31927556,0
4.6053247,2.5487254,4.1159892,0.68923467,0.3814432,0.61600053,0
3.4699955,1.926118,5.2065806,0.53003734,0.29421204,0.79529852,0
-3.7824759,5.1705155,1.562912,-0.57360274,0.78409535,0.23701157,0
0.51258093,1.7767086,6.3084135,0.07797271,0.2702691,0.95962226,0
1.2159964,-0.47256517,6.4580793,0.18456256,-0.071725413,0.98020005,0
-6.3203712,-1.0441611,1.3906602,-0.96416938,-0.15928625,0.21214449,0
5.5576868,-3.1638622,1.8461905,0.8349514,-0.47531849,0.27735987,0
-6.208921,1.7440418,-1.0842606,-0.94941622,0.26668429,-0.16579606,0
6.3499837,-0.76621765,1.3516259,0.97134674,-0.11720707,0.20675603,0
5.8012338,-2.6531444,-1.5417032,0.88395721,-0.40427023,-0.23491548,0
-3.3117888,1.3121477,5.5337834,-0.50321817,0.19937764,0.84084487,0
6.228343,0.68099475,-2.3892756,0.92883152,0.10155661,-0.35631216,0
3.278969,5.4603114,2.1475205,0.48783335,0.81236571,0.31950048,0
-5.9316139,-1.6013905,2.4641376,-0.89605433,-0.24191272,0.3722429,0
5.7865453,-0.53419042,2.9800916,0.88604897,-0.081796452,0.45631841,0
1.3169464,-4.7291226,-4.4162307,0.19944111,-0.71618819,-0.66880322,0
1.0867022,-1.5865383,-6.3380303,0.16407159,-0.23953745,-0.95692337,0
6.2107244,1.9422822,-0.58663428,0.9505626,0.29726979,-0.089785434,0
5.800241,-3.1389737,-0.26994628,0.87873542,-0.4755539,-0.040896811,0
-5.4907694,3.5446978,0.79589134,-0.83397746,0.53839415,0.12088569,0
4.0642214,5.0322928,0.72348577,0.62441343,0.77314466,0.11115394,0
-5.7207346,3.0267699,0.53453034,-0.88090712,0.46607706,0.082309633,0
-1.479136,-5.9527693,2.4351733,-0.22412857,-0.90200335,0.36899373,0
-2.1021333,-5.7163644,-2.588182,-0.31765127,-0.86379415,-0.39109761,0
-3.6265647,-2.9453709,-4.6001759,-0.55311799,-0.44922337,-0.70161164,0
-5.4694791,3.2063973,-1.8946371,-0.82656908,0.48456332,-0.28632498,0
4.8175764,-3.746325,2.4253402,0.73359722,-0.57047224,0.36931905,0
3.2875588,-1.8775254,-5.3922029,0.49898058,-0.2849679,-0.81842017,0
5.4105573,-3.5109386,1.5181588,0.81654835,-0.52986246,0.2291169,0
6.0252299,-0.51901758,-2.7495775,0.90696836,-0.078126892,-0.41388956,0
-0.43523797,-6.512404,1.4173187,-0.065164708,-0.97505027,0.21220382,0
4.303196,4.8594031,-1.4689883,0.64660954,0.7301867,-0.22073404,0
-1.9897535,-3.4472826,-5.2306876,-0.30272096,-0.52446932,-0.79579645,0
4.5343752,4.0106854,2.8687401,0.67687929,0.59870428,0.42823777,0
2.186208,3.5501475,-5.2354274,0.32665372,0.5304476,-0.78225482,0
-5.4374318,0.30677113,-3.7151415,-0.82478112,0.046532821,-0.56353414,0
0.41378608,-2.8984609,-5.9059911,0.062771983,-0.43970099,-0.89594793,0
4.9814157,-1.5494832,-4.0071921,0.75725883,-0.23554745,-0.60916048,0
4.3828063,2.3270829,-4.4797378,0.65559506,0.34809294,-0.67009437,0
-0.53436846,6.4822416,0.060900982,-0.082153462,0.99657565,0.0093628783,0
5.9219065,0.30144635,2.7577808,0.90555805,0.046096161,0.42171058,0
-0.55852115,0.074846737,6.5192785,-0.085353963,0.011438181,0.99628502,0
-3.1118557,-3.9899516,4.1389399,-0.47602716,-0.61035138,0.63314241,0
1.2749596,-3.4638042,5.4677553,0.19326486,-0.52506107,0.82883018,0
4.0405531,-5.2458887,0.82947743,0.60547698,-0.78609657,0.12429722,0
5.347599,2.3990154,-3.1064661,0.80616051,0.36165604,-0.46830556,0
-4.777534,-0.0036225559,-4.6245837,-0.71851456,-0.0005448123,-0.6955117,0
-5.7840672,2.9667261,-0.68532091,-0.88487995,0.45386687,-0.10484435,0
-2.6251204,0.68551743,6.0916677,-0.39365664,0.10279852,0.91349161,0
4.4565372,4.5017986,-2.0331352,0.66986781,0.67667109,-0.30560315,0
-3.9847672,-5.0341969,1.7432594,-0.59895611,-0.75669742,0.26203185,0
2.8155985,3.9443736,-4.5674877,0.42280057,0.59230155,-0.68587065,0
1.7563128,-5.5351629,-3.2018919,0.26485005,-0.83469647,-0.48284176,0
3.7691438,-5.164897,1.6794149,0.57014704,-0.78127843,0.25404003,0
-3.048157,5.7353554,1.3480999,-0.45951161,0.86460847,0.20322692,0
-5.7872939,3.075587,0.88284647,-0.8751424,0.46508378,0.13350219,0
2.3696723,6.1073437,-0.057342205,0.3617155,0.9322474,-0.0087529253,0
-2.2346268,4.6466327,-4.1215882,-0.33853224,0.70393634,-0.62439531,0
3.6871243,5.1862826,1.552474,0.56291914,0.79179806,0.23701869,0
2.5800102,0.48799399,-6.1029596,0.38833073,0.073450513,-0.91858816,0
-6.3024592,-0.0028415979,-1.7494862,-0.96356499,-0.00043444379,-0.26747394,0
3.353864,5.493237,1.6518332,0.50473946,0.8267042,0.24859248,0
4.127645,-4.4631853,-2.6134443,0.62377352,-0.67448068,-0.3949461,0
5.5526042,1.1077752,-3.5163682,0.83308762,0.16620559,-0.52757996,0
1.23663,5.2922859,3.6839767,0.18834524,0.80604297,0.56108898,0
5.3713622,3.8566744,-0.78843099,0.80658817,0.57913578,-0.11839438,0
2.5222409,-2.0283682,-5.7574549,0.38187614,-0.30710208,-0.87169892,0
-3.3380654,2.712383,-5.0525742,-0.50307107,0.4087761,-0.76146019,0
0.80631095,-3.5200112,-5.6252246,0.12062231,-0.52658582,-0.84152102,0
6.2369008,0.99775988,-2.1198616,0.93612689,0.14975865,-0.31818038,0
-2.4124339,5.8760333,2.1856546,-0.35912719,0.87473625,0.32536769,0
0.45952052,-3.1480908,5.9057369,0.068501756,-0.469293,0.88038152,0
4.4057698,-4.7500701,-0.53037316,0.67776847,-0.73073447,-0.081590779,0
-6.0651174,0.53668666,-2.298636,-0.93191117,0.08246243,-0.35318765,0
-6.0899544,1.0298125,-2.1772151,-0.92991769,0.15724926,-0.33245417,0
4.9819212,-3.4270947,-2.8155627,0.74688947,-0.51378989,-0.42210907,0
-0.88520801,4.8289614,4.3293972,-0.13523512,0.73773074,0.66141129,0
-4.4632883,4.320704,-2.2529657,-0.67544007,0.65386248,-0.34094667,0
-0.52347988,-2.1089342,-6.2733974,-0.078848466,-0.31765541,-0.94492221,0
-4.5335803,-4.2335887,2.0795419,-0.6929689,-0.64711446,0.31786311,0
-3.379143,-0.084670894,5.6122084,-0.51577854,-0.012923818,0.85662448,0
2.1681395,0.48116696,6.1844826,0.32994765,0.07322403,0.94115508,0
-3.7880845,2.3386769,-4.8860726,-0.57307994,0.3538065,-0.73918897,0
-3.1231859,-0.45206332,5.7536769,-0.47593039,-0.06888821,0.87678093,0
-6.2746153,0.84854859,-2.064755,-0.94215095,0.12741193,-0.3100287,0
2.8408122,-0.97279108,5.8488379,0.43208858,-0.14796188,0.88961041,0
4.481173,3.9422121,-2.9027827,0.67519337,0.59398633,-0.437372,0
-1.3713242,-5.2500772,3.6269863,-0.21010727,-0.80438995,0.55570829,0
4.703115,4.6585398,-0.25711432,0.7099303,0.70320171,-0.03881114,0
4.6261892,3.9574306,-2.3698719,0.70813388,0.60576653,-0.36275786,0
4.1714334,-4.3465877,-2.5552607,0.63745064,-0.66421658,-0.3904779,0
4.3234038,-4.8605313,0.81213838,0.65949577,-0.74142969,0.12388429,0
2.093106,1.0268794,-6.2499356,0.31377947,0.15394045,-0.9369337,0
-0.0048112455,0.45531133,6.5550966,-0.00073220581,0.069292158,0.99759609,0
1.328038,-4.7952881,-4.4189291,0.19956306,-0.72058362,-0.66402847,0
-3.0164616,5.5778222,-1.7347422,-0.45883131,0.84843761,-0.26387009,0
5.4175634,2.1270449,-3.0426435,0.82490557,0.32387459,-0.46328828,0
-2.221067,4.7178006,4.124784,-0.33406255,0.7095871,0.62039369,0
-1.9342903,-4.8931956,4.0167475,-0.29220653,-0.73919809,0.60679615,0
2.7421865,-3.8806045,-4.6293154,0.41335678,-0.58496171,-0.69782227,0
-1.7265009,4.1774631,-4.8140326,-0.26145029,0.63260841,-0.72900647,0
-2.3644025,4.0961261,4.4823594,-0.36285275,0.62861151,0.68788481,0
-6.3678741,-0.29844567,-1.5037708,-0.97222042,-0.045565438,-0.22958945,0
4.5088544,2.3566706,-4.2753429,0.67848575,0.35462832,-0.64334732,0
-1.7147924,-3.0880466,5.6498833,-0.25735417,-0.46345064,0.84792829,0
6.2723641,-1.7340889,-1.1926777,0.94805294,-0.26210341,-0.1802704,0
-2.5269184,-3.6411686,4.8929882,-0.38275766,-0.55153549,0.74115127,0
5.6984067,-1.8803587,2.8769443,0.85630423,-0.28256303,0.43232077,0
3.6990817,0.50723755,5.3322778,0.56825835,0.077922575,0.8191523,0
0.16373384,-2.5149589,-6.1592216,0.02460346,-0.37791023,-0.92551523,0
4.131989,-2.402082,4.4997168,0.62945831,-0.36592799,0.6854772,0
-0.18235147,6.4703898,-0.94336814,-0.027876772,0.98915344,-0.14421633,0
0.61289406,6.4709935,-0.70939571,0.093735464,0.98966789,-0.10849434,0
-1.0691131,1.1710315,-6.3510203,-0.16332376,0.17889339,-0.97021776,0
-0.19393203,-5.7828903,-3.0923321,-0.029559942,-0.88145268,-0.47134638,0
0.89402026,-2.6485195,-6.002337,0.1350213,-0.39999828,-0.90651566,0
1.321293,-6.1203079,2.3125362,0.197955,-0.91693932,0.34646222,0
3.0621741,3.6782784,4.6125078,0.46068898,0.55337882,0.69392902,0
-3.804095,2.0520942,5.0285602,-0.57369334,0.30947512,0.75835425,0
2.1096306,1.5673653,6.0438209,0.32010081,0.23782121,0.91704774,0
-0.24447808,1.4730765,6.5004568,-0.036654718,0.22085908,0.97461671,0
-3.9749534,-4.738502,-1.9978951,-0.61156577,-0.7290414,-0.3073858,0
-1.1793677,-5.8249612,-2.9604177,-0.17762457,-0.87729746,-0.44586852,0
2.5952585,-5.9143209,-0.73518097,0.39924666,-0.90984112,-0.113098,0
3.3184409,-1.6530768,-5.5035357,0.50008279,-0.24911554,-0.82937247,0
-2.9005554,-1.3845325,-5.7545886,-0.4400571,-0.21005403,-0.87305611,0
-2.2628171,5.8889141,2.0335264,-0.34138525,0.8884449,0.30679274,0
1.1484759,2.5549002,-5.9852815,0.17379199,0.38661778,-0.9057169,0
0.1958106,-6.4825683,-1.5098561,0.029405601,-0.97351122,-0.22674066,0
3.7964435,-5.223587,-0.72386193,0.58425617,-0.80388737,-0.11139921,0
-3.6864133,-4.7641211,2.653548,-0.56004208,-0.72376806,0.40312856,0
2.5820043,5.813797,1.7789502,0.39089146,0.88015485,0.26931652,0
-1.8496698,-2.6143467,5.7389846,-0.28144425,-0.3977969,0.87323928,0
2.4447939,4.5075068,-4.1860533,0.36933255,0.6809445,-0.63238287,0
-2.2849746,-2.7189717,5.61485,-0.34392437,-0.40924773,0.84512269,0
1.749042,-6.2753539,0.72096491,0.26685366,-0.95743901,0.10999857,0
3.2171504,0.81103981,5.5685964,0.49631602,0.12512068,0.85907811,0
-0.50551057,1.3997334,6.4243832,-0.076656334,0.21225755,0.97420251,0
-0.5424614,6.6114535,-0.30784771,-0.081686035,0.99557948,-0.046356954,0
-0.89921618,6.1426296,-2.4311333,-0.13487265,0.92132759,-0.36464351,0
4.0770636,-5.0962501,0.0023466675,0.62470096,-0.780864,0.00035956403,0
-2.4048872,0.26511016,-6.1130018,-0.36579645,0.040324699,-0.92982084,0
-3.7597806,-3.9023874,3.7162881,-0.57219553,-0.59389865,0.56557643,0
5.1436849,-1.8951517,3.6180952,0.78313345,-0.28853959,0.55086023,0
5.1604724,4.0775428,0.22956014,0.78414744,0.61959344,0.03488227,0
0.031587638,-6.40276,1.8183376,0.00474572,-0.96194935,0.27318665,0
-0.1391049,-2.2593744,-6.1957517,-0.021088254,-0.34252036,-0.93927372,0
0.47114155,-6.1413112,2.1870704,0.072082683,-0.93959486,0.33461261,0
-0.13320015,6.26612,-1.9468353,-0.020295808,0.95477343,-0.29664075,0
-3.8249037,-4.874969,2.6099007,-0.56887734,-0.72505343,0.38817015,0
4.3697386,0.16507991,4.902102,0.66520059,0.025129935,0.74624169,0
-0.032625616,5.2193441,-4.0128245,-0.004955498,0.79276514,-0.60950708,0
4.1565275,0.21908127,-5.1125603,0.63047934,0.033231158,-0.77549434,0
-3.213568,1.1841475,-5.5683818,-0.4915753,0.18113749,-0.8517881,0
0.64835888,-6.0124903,-2.93011,0.096484587,-0.89474005,-0.43604007,0
-1.2892026,-3.5600328,-5.494534,-0.19320367,-0.53351694,-0.82342696,0
-4.467999,4.1731725,2.5724814,-0.67360646,0.62915772,0.3878336,0
-0.157276,-5.1781874,4.0459299,-0.023926592,-0.78776401,0.61551231,0
-5.723597,1.332412,-2.8405299,-0.87689263,0.20413427,-0.43518785,0
4.4496274,-4.1430745,-2.1964724,0.6883257,-0.64090419,-0.33977866,0
-2.483978,-0.13349922,-6.126298,-0.37567317,-0.020190224,-0.92653227,0
-1.2216319,6.4150085,0.6857549,-0.18604854,0.97697431,0.10443711,0
5.2923112,0.98241425,-3.8639591,0.79871887,0.14826657,-0.5831511,0
2.3166537,-6.0058975,-1.735449,0.34747842,-0.90083367,-0.26030263,0
-2.4861577,-1.1269144,-6.0494895,-0.37460133,-0.16979761,-0.9115057,0
-4.6401467,-3.7830966,-2.7416921,-0.7046749,-0.57451916,-0.41636649,0
2.3205032,5.538352,-2.8400805,0.34933659,0.83376271,-0.42755556,0
3.3950188,4.895164,-2.9846091,0.50952673,0.73466951,-0.44793215,0
4.5420618,-4.2988868,-2.0183048,0.6911782,-0.65417361,-0.30713108,0
-4.279345,-4.8882923,-1.3570129,-0.64477164,-0.73652208,-0.20446199,0
-2.0074511,1.2627,6.0747771,-0.30783048,0.1936274,0.93153036,0
5.0766358,-1.7994026,-3.7717621,0.77206147,-0.27365553,-0.5736146,0
-3.9370427,5.1644087,1.4455143,-0.59177941,0.77626556,0.21727617,0
-6.4102435,0.15640371,1.1285439,-0.98456961,0.02402254,0.17333663,0
0.29927889,3.5635607,5.5703592,0.045211885,0.53834498,0.84151089,0
6.0455022,-1.2897815,-2.3437674,0.91446567,-0.19509725,-0.35452718,0
-4.4573021,2.9809337,-3.9900689,-0.66687417,0.44598898,-0.5969696,0
4.6824598,1.9116647,4.1052094,0.71882647,0.29346865,0.63021004,0
3.810972,-5.4559903,-0.01638855,0.57263124,-0.81980938,-0.0024625205,0
1.900871,-5.5498757,-2.919369,0.2900922,-0.84696734,-0.44552532,0
-1.8048562,6.0875049,-1.5862385,-0.27577928,0.93016142,-0.24237482,0
5.5999322,2.9384139,1.7476476,0.85350752,0.44785511,0.2663658,0
6.0906577,-2.4062819,1.1719034,0.9155038,-0.36169496,0.17615208,0
-0.58247143,-6.4878383,-1.5427134,-0.087012358,-0.96918422,-0.23045789,0
-5.9203901,1.9229646,-2.2659662,-0.89371717,0.29028264,-0.34206071,0
-6.3473091,0.5609948,-1.4517217,-0.97123003,0.085840315,-0.2221344,0
4.5358901,-3.2480259,3.3668184,0.69610602,-0.49846235,0.516693,0
3.0091922,1.4483869,-5.6325121,0.45954853,0.22119027,-0.86016858,0
-1.851607,6.287961,-0.46318009,-0.28177357,0.95688838,-0.070485748,0
-4.3795629,-4.7674866,1.1917671,-0.66533041,-0.72426265,0.18104978,0
0.34911194,-2.1820107,6.1923876,0.053098045,-0.33187208,0.94182879,0
-6.2233329,-1.2196255,2.043427,-0.93404114,-0.18304989,0.30669177,0
-2.0291693,2.8125372,-5.6299267,-0.30687287,0.42534223,-0.85141826,0
5.4170499,-1.5174223,-3.4849393,0.81858999,-0.22930317,-0.52662176,0
-4.4120131,1.2181457,-4.8679533,-0.66030121,0.1823075,-0.72853714,0
2.0673881,-6.1914873,1.2433589,0.31112456,-0.93176687,0.18711507,0
-3.1026721,0.81880742,5.8102341,-0.46744889,0.12336161,0.87537044,0
-1.7607484,3.2383475,-5.4851646,-0.26643115,0.49001703,-0.82999861,0
5.3936663,-2.9331555,2.3588879,0.82005668,-0.44595897,0.35864693,0
-2.648705,-0.57014483,6.0198359,-0.40123084,-0.086366616,0.91189617,0
-0.85557985,2.4516568,-6.0189962,-0.13051879,0.37400049,-0.91819847,0
-4.9852695,2.5794339,-3.6254485,-0.7460649,0.3860223,-0.54256243,0
-0.21836154,-1.8617724,-6.3278084,-0.033086967,-0.28210279,-0.95881343,0
-3.4195271,-3.7642822,-4.2117157,-0.51786333,-0.57007402,-0.63783473,0
-2.1680036,-6.1506824,0.90194935,-0.32930037,-0.93423378,0.13699806,0
-6.2423916,0.065584622,2.0635841,-0.94941854,0.0099749044,0.31385487,0
6.1823664,1.8012866,-1.2336115,0.94293267,0.2747317,-0.18815005,0
5.1498103,-0.92339778,4.0493264,0.77839798,-0.13957232,0.61205894,0
0.92297173,6.2618594,1.8272045,0.14009942,0.95049816,0.27735442,0
3.9146199,3.6262331,3.9711962,0.58852017,0.54516441,0.59702581,0
-4.2880735,-0.47312024,5.0581899,-0.64501125,-0.071166664,0.76085204,0
4.1059899,-2.8309984,-4.2071576,0.62928343,-0.43387839,-0.64478832,0
2.9273508,5.6772637,1.3933473,0.44776148,0.86838245,0.2131235,0
-3.8806689,5.3246045,0.3710832,-0.58805639,0.80686283,0.056232017,0
6.0764003,-1.5920008,2.1793051,0.91390997,-0.23944201,0.32777444,0
-0.88386959,6.4564166,0.69123906,-0.13487615,0.985232,0.10548124,0
-4.1414094,-3.1433747,4.2592831,-0.61617768,-0.46768555,0.63371545,0
0.94074821,-5.9134679,2.7245128,0.14300276,-0.89890391,0.41415212,0
4.2207174,2.9479582,4.0934005,0.64170998,0.44820207,0.62235296,0
4.525198,-4.5474105,-1.1411127,0.69447285,-0.69788176,-0.17512423,0
-3.0127518,5.5731678,-1.7516189,-0.45834884,0.84788102,-0.26648477,0
-1.0535798,6.0637722,-2.1349244,-0.16173118,0.93082744,-0.32772443,0
1.3301392,1.6295179,6.2685761,0.20116793,0.24644546,0.94804853,0
-2.1264486,0.99880594,6.1212587,-0.32432109,0.1523356,0.93360043,0
-6.3717184,1.6515917,-0.62015373,-0.96374136,0.24980815,-0.093800098,0
-6.0654988,2.4790196,-0.87442201,-0.91753715,0.37500504,-0.13227513,0
5.8479309,2.903656,0.30668131,0.89468151,0.4442336,0.046919517,0
4.5893235,3.9060059,-2.7482483,0.69287795,0.58971334,-0.41491967,0
-2.205435,2.8785841,5.5733027,-0.33168414,0.43292174,0.83819115,0
-2.7277865,0.77224582,5.8690581,-0.41850692,0.11848076,0.90045226,0
5.1866412,2.864573,-2.9589951,0.78313863,0.43252611,-0.44678304,0
-0.25837713,-6.4531856,1.5877329,-0.038849857,-0.97030777,0.23873319,0
-0.77779555,-2.2443376,6.1432414,-0.11809011,-0.34075031,0.93270785,0
5.8412347,-0.63919777,-2.7822719,0.89844275,-0.098315276,-0.4279424,0
-6.1305313,1.9668103,-0.90844601,-0.94285709,0.30248946,-0.13971624,0
5.8524327,0.40984917,3.019217,0.88699067,0.062116459,0.45759046,0
-6.2265186,-1.7051018,0.72575688,-0.95845199,-0.26246741,0.11171623,0
-1.3358901,5.8353081,-2.8670144,-0.20126681,0.87915456,-0.43194786,0
-4.4759703,1.8524529,4.3331151,-0.68867779,0.28502047,0.66669792,0
2.8030076,-3.3182864,-4.9448771,0.42587447,-0.50416327,-0.75129902,0
5.5515842,-0.20106681,-3.5567064,0.84162575,-0.030481929,-0.53920025,0
4.2793493,-4.4420676,2.231627,0.65240538,-0.67721248,0.34022123,0
-1.9613616,6.1437016,1.3768475,-0.29742286,0.93163711,0.20878655,0
-0.47997564,5.1340227,4.012826,-0.07345973,0.78575635,0.61415851,0
3.0346632,5.0319576,2.7547569,0.46759972,0.77535522,0.42447004,0
0.078627825,0.58991778,6.5808573,0.011899401,0.089277156,0.99593574,0
4.7328172,-0.29748908,-4.5860777,0.71742159,-0.045094725,-0.69517821,0
-1.5828846,-5.4049296,-3.5093091,-0.23853658,-0.81450886,-0.52884376,0
6.4972205,-0.77470392,1.0247846,0.98100758,-0.11697163,0.15473101,0
-1.7895135,-3.4245117,-5.2247634,-0.27538216,-0.52698648,-0.80402106,0
4.7732406,0.9701224,-4.5624757,0.71520841,0.14536031,-0.68362802,0
6.5154881,-0.267196,1.1676613,0.98351711,-0.040333409,0.17625922,0
1.6287359,-6.3142633,-1.0873171,0.24636857,-0.95511866,-0.16447157,0
5.310133,2.979774,2.4677041,0.8082279,0.453536,0.37559649,0
4.1996379,-5.1202831,0.62211823,0.63139039,-0.76980388,0.09353175,0
2.2292547,1.5407618,5.8844047,0.34410545,0.23783039,0.90831059,0
-2.1137097,-4.6797023,4.0382514,-0.32356334,-0.7163614,0.61816913,0
-2.4473369,2.9913716,-5.4464946,-0.36645129,0.44791219,-0.81552935,0
-2.4121814,3.6329405,4.8775949,-0.36867905,0.55526054,0.74549413,0
-3.701699,1.0092815,5.2868371,-0.56667006,0.15450463,0.80932897,0
3.0739605,5.4918938,-1.7775333,0.47003469,0.83975726,-0.27179995,0
-1.0008838,-5.2827263,3.7510254,-0.15267035,-0.80580354,0.57216471,0
-3.3233085,-2.4951291,-5.1389847,-0.50284398,-0.37753361,-0.77757078,0
4.6988297,2.6824734,3.9301531,0.70264357,0.401126,0.58769888,0
-4.661099,-2.5385761,-3.9801998,-0.70258969,-0.38265172,-0.59995455,0
2.2645297,-6.0908227,-0.3400102,0.34801123,-0.93603301,-0.052252509,0
3.6819227,-0.65834969,-5.373898,0.56234676,-0.10055095,-0.82076526,0
4.6446061,4.4729228,1.7161636,0.6960634,0.6703341,0.25719267,0
2.1286011,1.8547572,5.9171782,0.32466879,0.28290024,0.90252846,0
-2.4924409,0.60818559,-6.037497,-0.37994561,0.0927113,-0.92035097,0
5.6219697,1.7896781,3.0509808,0.84640992,0.26944315,0.45933729,0
-6.2224493,-0.7209571,2.1704268,-0.9386093,-0.10875091,0.32739243,0
-5.4834771,-2.8751931,-2.5985131,-0.81663471,-0.42819226,-0.3869873,0
-1.0731716,-4.4659791,4.7112961,-0.16310243,-0.67874706,0.71603072,0
1.9000883,5.3961115,3.4746652,0.28387475,0.80618346,0.51911783,0
-0.66396916,5.6485567,-3.2392566,-0.10144345,0.86300564,-0.49490461,0
4.605998,-4.0287895,-2.2397859,0.70683557,-0.61825728,-0.34371713,0
1.1353904,4.3982339,-4.9494128,0.16900957,0.65470308,-0.73674935,0
4.3029532,1.6094784,4.5715079,0.66392446,0.24833457,0.70536113,0
1.4280149,5.6843643,-3.2153442,0.21361373,0.85031211,-0.48097658,0
-3.9869175,5.3554339,0.56981164,-0.59499031,0.79922175,0.085036218,0
-4.9046836,4.3513112,-0.80662787,-0.74244839,0.65868139,-0.1221036,0
-5.1560607,-0.92117715,-3.8636749,-0.79219538,-0.14153291,-0.59362864,0
-3.7780709,-3.1828554,-4.3112564,-0.57620859,-0.48542991,-0.65752679,0
0.29222101,1.9872999,6.2225718,0.044690706,0.30392691,0.95164657,0
0.38274789,-6.4666686,0.92255712,0.058494192,-0.98828119,0.14099158,0
2.4750559,-2.0420604,-5.8215394,0.37234157,-0.30720276,-0.87577868,0
5.8968682,0.52240515,2.7202024,0.90511918,0.08018475,0.41752797,0
4.7280197,-3.0081403,3.3027596,0.72686058,-0.46245545,0.50774866,0
3.1776714,1.7739935,-5.4481292,0.48500356,0.27076215,-0.83154035,0
0.80574858,6.0137143,-2.4766042,0.1229505,0.91764259,-0.37790912,0
3.3658888,0.27385995,-5.5990386,0.51477122,0.041883502,-0.85630393,0
-2.486918,-1.0382757,-5.9717698,-0.37958345,-0.15847418,-0.91148359,0
4.2833781,4.9311805,-0.60653943,0.65296793,0.75172043,-0.092462257,0
-4.6982775,3.3203554,3.0345902,-0.72232217,0.51047784,0.46654373,0
0.37762311,6.078474,-2.2382729,0.058199052,0.93681085,-0.34496132,0
6.2230968,1.1746988,-1.6105449,0.95233339,0.1797666,-0.24646503,0
-5.3421316,3.6331875,-1.3937634,-0.80829209,0.54972005,-0.2108836,0
0.72942555,-6.1788731,-2.4155974,0.10928947,-0.92577755,-0.36192778,0
4.6441488,1.2107208,4.5928783,0.6991117,0.1822571,0.69139367,0
6.3354249,-2.1683271,0.1678264,0.94582373,-0.32371235,0.025055019,0
4.9134326,1.7170103,3.9588172,0.75137216,0.26256871,0.60539043,0
