4.5436301,0.55963695,5.4056325,0.64142156,0.079003617,0.76310992,0
-4.2620773,0.49855828,5.6304088,-0.6020546,0.070425585,0.79534298,0
-6.3058348,2.5862443,1.5155785,-0.90314794,0.37041271,0.21706747,0
-4.9301486,-5.0224538,0.29454583,-0.69990587,-0.71300995,0.041815039,0
-3.7977114,5.4815359,1.973377,-0.54608542,0.78820807,0.28375837,0
6.7760949,1.842339,-0.89044809,0.95730311,0.26027924,-0.1257994,0
-3.7874646,-2.6651428,-5.2238507,-0.54252714,-0.38176256,-0.74827915,0
-2.9752848,-1.4217892,6.0868859,-0.42978582,-0.20538028,0.8792628,0
4.7275057,2.9155023,4.25703,0.67555261,0.41662037,0.60832244,0
-1.8633975,-6.7542887,0.74046814,-0.26447549,-0.95864886,0.10509603,0
4.9315963,3.4980469,-3.4231441,0.7097851,0.50345999,-0.49267957,0
3.7447138,3.4613099,-4.9262362,0.52815133,0.48818028,-0.69479227,0
-6.6199083,0.14030081,2.0292258,-0.95589358,0.020258989,0.29301372,0
5.5120683,-1.7834214,-3.9125965,0.78846967,-0.25510818,-0.55967444,0
-1.7002029,3.0302696,6.0601139,-0.24338782,0.43378979,0.86751872,0
7.0411525,0.63862705,0.095557496,0.99582112,0.0903202,0.013514574,0
-5.9693837,3.5363617,-1.2713391,-0.8462683,0.50134337,-0.18023536,0
5.657496,-3.8091414,-1.7436808,0.80365694,-0.54109502,-0.24769282,0
4.6206622,-5.3982978,-0.059330542,0.65024531,-0.75967848,-0.0083493236,0
-5.3414102,-4.411582,1.5840814,-0.75162548,-0.62078315,0.22290668,0
0.81949526,-6.9976559,-0.78866577,0.11559311,-0.98704755,-0.11124448,0
-1.9772013,-0.28696874,6.7853732,-0.27952635,-0.040570136,0.95928049,0
4.6885123,-5.183135,-0.001497773,0.67083538,-0.7416063,-0.00021430232,0
-5.2833543,0.35341686,4.4717011,-0.76230985,0.050992824,0.64520031,0
-4.9928594,1.7106818,-4.622251,-0.71166778,0.24383564,-0.65884233,0
6.6206908,0.35964322,-2.0091898,0.95561707,0.051910173,-0.29000238,0
-1.9740109,5.6326814,-3.674217,-0.28164631,0.80365509,-0.5242269,0
-5.6756392,-3.0244646,-2.8669472,-0.80605191,-0.42953321,-0.40716267,0
-3.825774,-5.7191868,-1.2373863,-0.54722768,-0.81805599,-0.17699218,0
-5.0538139,4.80656,0.80099386,-0.7198782,0.68465871,0.11409561,0
-0.19910434,5.8698845,-3.8718505,-0.028303344,0.8344236,-0.55039638,0
1.1475216,-6.3571491,-2.7520409,0.16342568,-0.90536112,-0.39193526,0
3.6673684,2.2145445,5.5094585,0.52547818,0.3173106,0.78942174,0
-2.0741551,-1.9081671,-6.4883456,-0.29320714,-0.26974273,-0.91720682,0
-5.1827798,-0.58893365,4.6652522,-0.74060398,-0.084156886,0.66665083,0
1.0572778,-4.8250751,4.957562,0.15107575,-0.68946105,0.70839226,0
-5.791605,3.7786937,0.74576735,-0.83267927,0.54327595,0.10722157,0
3.3068125,-4.5807605,4.2338567,0.46838555,-0.64883089,0.59969449,0
1.8564346,3.7939615,-5.6191697,0.26408747,0.53971076,-0.7993561,0
-7.0515161,-0.62105644,-0.25243962,-0.99551105,-0.087678812,-0.035638638,0
6.8142476,0.0063901306,-1.516295,0.97612542,0.00091537164,-0.21720579,0
-1.6407371,-6.3606672,-2.5260916,-0.23313065,-0.9037807,-0.35892975,0
-3.8383071,1.0992373,5.756494,-0.54789287,0.15690883,0.82170129,0
0.51246452,-3.9587083,5.6304092,0.07425034,-0.57357228,0.8157829,0
-4.6246676,-0.57311964,5.2543964,-0.65848869,-0.081604309,0.74815333,0
5.7072945,-3.9996219,0.41402641,0.81748611,-0.57288706,0.059303202,0
6.891922,1.0723075,0.48513755,0.98572987,0.15336876,0.069387697,0
4.4231582,-3.3738732,-4.3146844,0.62827528,-0.47923249,-0.61286741,0
6.6430807,-1.8206949,1.5280392,0.94154382,-0.25805256,0.2165736,0
-2.7415197,0.52950287,6.3466687,-0.39538929,0.07636632,0.91533351,0
3.9289353,3.3263965,4.8029509,0.55804133,0.47246048,0.682181,0
-6.6394725,-0.32966962,-2.4975212,-0.9349618,-0.046423644,-0.35169765,0
-4.7789173,4.7887192,2.0007203,-0.67738193,0.67877132,0.28358972,0
-6.8112669,0.73670441,1.2766796,-0.9773761,0.10571268,0.1831959,0
5.340724,4.2366114,1.3301792,0.76893449,0.60996914,0.19151349,0
6.3611069,0.088594183,-2.9396195,0.90768456,0.012641758,-0.41946274,0
5.799408,-1.4205054,3.5632339,0.83405787,-0.20429391,0.5124563,0
3.068552,0.013733983,6.2622437,0.4400205,0.0019694089,0.89798564,0
-2.5556862,-6.2981091,-1.5115961,-0.3670409,-0.90451777,-0.21709143,0
6.1766715,2.0172465,2.8258886,0.87171763,0.2846953,0.39881948,0
-1.8978562,-6.5737319,-1.2984145,-0.27251154,-0.94391644,-0.1864382,0
4.4665804,5.2173924,-1.1962996,0.64068586,0.74838227,-0.17159709,0
2.2806265,-0.62632245,-6.5517097,0.32741666,-0.089917578,-0.94059193,0
2.3013482,-5.9173326,2.9335063,0.32904455,-0.84605449,0.4194299,0
2.080282,-5.9419808,3.018863,0.29794955,-0.85104352,0.43237832,0
-0.57692432,1.5179743,-6.740366,-0.083211526,0.21894199,-0.97218323,0
2.015379,6.6924386,0.75978768,0.28666273,0.95191664,0.1080704,0
-1.292551,6.8321319,1.0874182,-0.18365735,0.97077113,0.15451021,0
4.1147594,1.8567369,5.258502,0.59372538,0.26791161,0.75875789,0
-2.4843318,5.1951299,-4.0141716,-0.35391337,0.74008864,-0.57185149,0
-0.25387332,-0.073404476,6.9430995,-0.036538381,-0.010564642,0.9992764,0
4.4948845,-3.5632241,4.1718025,0.63374591,-0.5023886,0.58819371,0
4.9328761,-3.6648648,3.5988586,0.69267017,-0.51461715,0.50534862,0
-4.957325,-4.5278106,2.0939064,-0.70488423,-0.64381135,0.29773349,0
-6.3433671,2.7029719,-1.5059627,-0.89877629,0.38297752,-0.21337619,0
2.2131653,4.667521,4.6662884,0.31792936,0.67050666,0.67032957,0
1.2890408,3.9065919,5.6415777,0.18461934,0.55951095,0.80799949,0
-2.0763609,1.8780955,-6.3347559,-0.29979792,0.27117112,-0.91465157,0
3.3753092,-1.3788149,-6.0135074,0.47995839,-0.19606316,-0.85510188,0
-5.8886547,3.0862901,-2.3340108,-0.8357197,0.43800724,-0.33124354,0
3.9143188,-3.1286476,5.0135183,0.55221319,-0.44137451,0.70728296,0
-1.5301669,6.5910954,1.6136068,-0.21997403,0.94752395,0.23196919,0
-2.0841136,4.6364474,-4.8979974,-0.29523888,0.65680659,-0.69385815,0
-1.1810945,-1.0053897,-6.7344494,-0.1709066,-0.14548178,-0.97448754,0
5.84553,-2.7143123,-2.9828951,0.82310694,-0.38220134,-0.42002037,0
-5.82866,3.6529942,-1.5732794,-0.82600981,0.51768488,-0.22295764,0
-5.7016044,-0.39914104,4.0890794,-0.81130767,-0.056795627,0.58185405,0
7.0077996,-0.5414744,-0.74107438,0.99153215,-0.076613106,-0.10485446,0
-0.52847427,4.710876,-5.0240664,-0.076507851,0.68199915,-0.72734016,0
4.7072659,4.0085082,-3.5110364,0.66205114,0.5637747,-0.49380803,0
-0.86979151,3.660902,5.7776666,-0.12614928,0.53095502,0.83795774,0
-1.079731,-0.2034203,6.8439817,-0.15576904,-0.02934674,0.9873575,0
0.90553874,-4.2342687,-5.5502529,0.12863708,-0.60150266,-0.78844595,0
4.66188,3.939713,-3.5495958,0.66025341,0.55797428,-0.50272268,0
-2.1178327,5.801477,3.3307366,-0.30182108,0.82679242,0.47467703,0
-0.0078223227,6.4788494,2.6861634,-0.0011153028,0.92375106,0.38299182,0
4.0272641,5.6450768,0.98919374,0.57494658,0.8059113,0.14122082,0
0.15272747,6.9864211,-0.34201586,0.021829266,0.99856591,-0.048884168,0
5.068666,-2.9364879,3.6834071,0.73250121,-0.42436826,0.53230971,0
1.4690319,-6.370985,-2.3398502,0.21154697,-0.91744947,-0.33694857,0
0.0054112314,1.9178883,6.7166405,0.00077468232,0.27456859,0.96156716,0
-6.4321041,2.2623849,1.3018587,-0.9266085,0.32591903,0.18754569,0
4.2975802,3.1110342,4.5582752,0.61440665,0.44477123,0.65167707,0
1.8524317,-5.0361271,4.4976082,0.2645722,-0.71928114,0.6423676,0
-5.4187059,-0.30138877,4.482686,-0.76981062,-0.042816918,0.63683462,0
-3.1285262,-2.325104,-5.8035746,-0.44750226,-0.33258131,-0.8301394,0
-0.42371321,6.7572107,-2.1098058,-0.059748653,0.9528479,-0.29750797,0
5.8896532,1.6407186,3.5813599,0.83121127,0.23155588,0.50544006,0
-1.4038339,6.7929583,0.31378672,-0.20217685,0.97830588,0.045190826,0
-6.4341507,-2.0412714,-1.83251,-0.91988575,-0.29183906,-0.2619926,0
4.375267,4.9668217,-2.0885646,0.63037139,0.71560025,-0.30091223,0
0.51435322,-5.8097649,-3.9652967,0.072929293,-0.82375693,-0.56223285,0
5.2502747,-4.2925248,1.7576725,0.74942338,-0.61271429,0.2508899,0
0.31692314,-3.8563788,5.9525614,0.044639241,-0.54317844,0.83842981,0
1.2131504,-0.26312795,6.9075227,0.17285827,-0.037492339,0.98423284,0
5.6821561,0.44210535,4.0953584,0.80963826,0.062994644,0.58353883,0
2.0224533,6.2832274,2.0608635,0.29247582,0.90864503,0.2980305,0
-0.75851774,-6.076426,3.4713249,-0.10775835,-0.86324364,0.49315161,0
5.1445327,-1.0000964,-4.6657724,0.73317093,-0.14252833,-0.6649406,0
3.0002582,-5.9478512,2.2784548,0.42613763,-0.84479505,0.32361725,0
2.6531866,-5.0473437,-4.0632563,0.3789295,-0.7208643,-0.58031636,0
-0.603091,-4.0640607,-5.7229218,-0.085605435,-0.57687098,-0.81233716,0
4.3251762,-2.3497155,4.9843388,0.6174292,-0.33542749,0.71152622,0
-2.8034921,4.5563331,4.4488034,-0.4029254,0.65484846,0.63939399,0
-0.066766776,-1.4328817,6.8560381,-0.0095319981,-0.20456621,0.97880632,0
-5.7183676,-3.0980551,-2.5894351,-0.81688589,-0.44256642,-0.36990854,0
-0.70343435,4.6618943,-5.1350708,-0.10090639,0.66874039,-0.73661673,0
-2.9546285,-1.6365803,-6.152267,-0.42098033,-0.23318265,-0.87658513,0
-6.6930242,-1.6089195,0.89594501,-0.96416938,-0.23177429,0.12906612,0
5.2800517,-3.9363205,-2.2526021,0.75857973,-0.5655272,-0.32362908,0
3.0453718,0.54500961,-6.295692,0.43413681,0.077694535,-0.89749032,0
4.9353447,-3.2079961,-3.9192691,0.6978966,-0.4536359,-0.55421549,0
-0.66964084,-6.416193,2.5288579,-0.096643187,-0.92599088,0.36496711,0
0.25133631,-1.5691155,6.7736149,0.036124386,-0.22552784,0.97356677,0
1.789713,6.1849465,2.6072919,0.25764042,0.89036185,0.37533605,0
-0.89453459,3.9281006,5.7786679,-0.12698571,0.55762255,0.82032412,0
-3.9585257,-5.7040749,-1.112443,-0.56295931,-0.81120151,-0.1582054,0
6.2805018,-0.072105758,-2.8580401,0.91013837,-0.0104492,-0.41417265,0
0.093527585,-2.6718671,-6.3782239,0.013523604,-0.38633814,-0.92225808,0
-3.3453226,6.1727643,-0.30793279,-0.47601736,0.8783437,-0.043816809,0
-5.9068828,3.8830199,0.23531212,-0.83515495,0.54900753,0.033270016,0
-0.16846415,5.0170832,4.9511476,-0.023893012,0.7115652,0.70221364,0
3.8327608,4.8321266,3.2346191,0.55033952,0.69383675,0.4644534,0
0.15426204,-4.3901381,-5.37286,0.022227697,-0.6325773,-0.77417821,0
3.1701872,6.1852632,-0.11038383,0.45606062,0.88980705,-0.01587973,0
-2.3206327,-4.9447274,-4.3636303,-0.33193603,-0.70727837,-0.62416005,0
0.50180101,5.782486,4.0571337,0.070859678,0.81654894,0.57291073,0
-3.0189719,2.9270308,-5.5383863,-0.43414667,0.42092499,-0.79645389,0
-0.18354873,6.9962473,-1.043247,-0.025939681,0.98873156,-0.14743493,0
2.6048548,-6.507688,-0.0042181583,0.37160945,-0.92838895,-0.0006017639,0
-1.6388744,-4.501214,5.2788944,-0.22990894,-0.63145131,0.7405479,0
4.1041956,5.1921434,-2.277756,0.58636785,0.74180329,-0.32542378,0
-1.9052861,-6.5090284,1.5343448,-0.27400213,-0.93607342,0.2206565,0
0.60114336,-4.8244205,-5.0215845,0.086006977,-0.69024104,-0.71844977,0
-5.7314091,-3.9588776,-1.1907358,-0.81103355,-0.56020826,-0.16849726,0
-1.2304333,3.5298557,-5.9003248,-0.17615825,0.50536114,-0.84473568,0
4.3392391,3.8375628,4.1558332,0.60864919,0.5382809,0.58292353,0
-0.58364761,-2.2333386,-6.7259088,-0.082076751,-0.31406823,-0.94584596,0
-3.8165543,-2.887671,-4.9578385,-0.55385196,-0.419054,-0.71947324,0
2.6338689,-5.6208105,3.0584519,0.38062283,-0.81226856,0.44197974,0
-3.3414657,-3.5290623,5.0225163,-0.47810733,-0.50494927,0.71863729,0
-4.9570856,4.3200536,2.175859,-0.71571797,0.62374151,0.31415665,0
-5.755466,-2.2641273,-3.4126916,-0.8147763,-0.32052264,-0.4831199,0
3.0990865,0.3351042,6.2796383,0.44204837,0.047798686,0.89571679,0
4.4597077,4.3371873,3.1644549,0.63896883,0.6214146,0.45339027,0
-6.6137743,1.3968586,1.8480927,-0.94377893,0.1993303,0.26372096,0
-4.4890513,-4.9140644,2.0390799,-0.64487308,-0.70592821,0.2929233,0
4.8049417,1.0236862,4.9641905,0.68797636,0.14657241,0.71077776,0
4.9296503,4.9610581,1.1428683,0.69563121,0.70006323,0.16127205,0
-3.2459719,-3.395817,-5.1396165,-0.46617338,-0.48769355,-0.73813099,0
1.6410886,4.369173,5.0927153,0.23756815,0.6324926,0.73723435,0
4.788691,0.64216095,-5.0067663,0.68824315,0.092293046,-0.71958554,0
-1.8572551,6.0259304,3.048893,-0.26516801,0.86034709,0.43530312,0
5.0879531,-4.2048688,-2.5378561,0.71948117,-0.59460533,-0.3588751,0
-1.2155493,-3.4144757,-5.9100704,-0.17533052,-0.49250308,-0.852467,0
-2.6616316,-3.6537218,5.435607,-0.37648764,-0.51681876,0.7688663,0
-6.2683167,-0.75946367,3.1844018,-0.88639414,-0.10739472,0.45030192,0
-2.3294563,-3.5126059,-5.5405259,-0.33462089,-0.50457752,-0.79588342,0
3.1802158,6.1467943,-0.28549269,0.45912811,0.88741338,-0.041216612,0
-3.531523,5.0761538,-3.3170583,-0.50326276,0.7233817,-0.47270027,0
-0.63569993,-3.8522887,5.8085055,-0.09083005,-0.55042255,0.82993066,0
-2.4551797,-3.3717115,-5.5116372,-0.35521007,-0.48781189,-0.79741168,0
-1.6760267,-3.722162,5.6830115,-0.23952974,-0.53195363,0.81218892,0
6.4762068,-1.1192154,2.1216965,0.93773913,-0.16205969,0.30721653,0
5.1063952,0.70759547,4.7462974,0.72871733,0.10097868,0.67732888,0
-3.9907327,-0.077522784,5.8056898,-0.56642908,-0.011003283,0.82403702,0
-2.6799657,2.5308437,-6.0375137,-0.37885681,0.35777599,-0.85350096,0
-3.3740225,-3.3518538,5.0398951,-0.48689935,-0.48370025,0.72729856,0
-4.3404937,-4.3444171,3.2981107,-0.62267226,-0.62323511,0.47313559,0
-5.1261926,3.4346151,3.3594704,-0.72963434,0.48886439,0.4781687,0
6.5033879,2.4207265,1.2759315,0.92172974,0.34309128,0.18083867,0
2.2947414,6.6204972,-0.25211114,0.32728502,0.94424129,-0.035957079,0
-3.3904986,-2.6943409,5.5612822,-0.48101708,-0.38225174,0.78899062,0
4.6332479,-1.9694885,4.9114175,0.65875489,-0.28002173,0.69830501,0
-3.825546,-3.7601571,4.4768276,-0.54753798,-0.5381791,0.64075381,0
0.32922295,6.0527878,3.3994832,0.047370888,0.8709172,0.48914132,0
1.5441785,-5.2334328,4.4020047,0.22025791,-0.74648428,0.62789136,0
2.9212012,-5.5120301,3.2314136,0.41579857,-0.78457254,0.45995367,0
-3.6251886,-4.5289373,4.0070968,-0.5141719,-0.64235342,0.56833917,0
-5.9480324,2.5653052,-2.5795627,-0.85308546,0.36792412,-0.36996895,0
-0.63031942,1.2823145,-6.9031396,-0.089413784,0.18190238,-0.97924298,0
5.419488,-4.0889678,2.0147433,0.76528656,-0.57740366,0.28450218,0
1.7851108,-3.7768195,-5.6919851,0.25283313,-0.53492767,-0.80618101,0
5.5081825,-3.3786888,-2.5066566,0.79471534,-0.48747402,-0.36165804,0
-2.3325059,-6.6030807,-0.8409819,-0.33069888,-0.93617398,-0.11923304,0
2.4092925,-6.4962106,0.93385905,0.34461555,-0.92919195,0.13357545,0
0.2409101,6.1302671,3.261847,0.034672167,0.88227791,0.46945027,0
-0.73139393,-6.051053,3.4442229,-0.10447115,-0.86432278,0.49196732,0
-6.1282358,2.7703459,2.2108936,-0.86564136,0.39132404,0.31229883,0
4.0127292,3.843128,4.2385001,0.57420576,0.54993647,0.60651273,0
2.5591223,3.4781201,5.4026933,0.37001199,0.50288576,0.78115112,0
4.1314988,-3.3470654,4.6792846,0.58330405,-0.47255412,0.66064292,0
1.335724,-5.3021021,4.4144115,0.1900754,-0.75449657,0.62817699,0
2.7216198,6.3833084,0.30098635,0.39183557,0.91901422,0.043333441,0
2.0253537,-5.7993598,-3.5284872,0.28590026,-0.81864142,-0.49808356,0
0.62128139,-6.110002,-3.4996643,0.087892547,-0.86438072,-0.49509677,0
5.4487629,-3.7674241,-2.0934715,0.78429818,-0.54228526,-0.30133554,0
-4.0826678,5.2359252,-2.2472425,-0.58244717,0.74697483,-0.3205992,0
-2.4597526,-4.7506857,4.4821205,-0.35244206,-0.68069506,0.64221406,0
-1.548673,5.5384331,4.0035739,-0.22101082,0.79038864,0.5713492,0
-6.0205116,2.9898057,-2.0905952,-0.85523385,0.42471194,-0.29697606,0
1.7896399,-6.6967096,0.082737871,0.25816286,-0.96602768,0.011935276,0
0.75192636,-6.8704987,1.6193358,0.10592467,-0.9678545,0.22811757,0
1.0903902,-0.73949695,6.9399395,0.15436111,-0.1046869,0.98245269,0
-2.1012609,6.7610073,0.43875381,-0.29621965,0.95311499,0.06185215,0
0.8735292,-6.5453277,2.1551414,0.12575731,-0.94229573,0.31026414,0
1.4638318,-6.3697534,2.7535892,0.20640123,-0.89813936,0.38825786,0
4.0264544,-5.7804451,0.10492016,0.57150561,-0.820463,0.014892124,0
-6.9430556,0.72182369,-0.70060658,-0.989667,0.10288915,-0.099864848,0
-0.83459371,-3.1524792,-6.2260885,-0.11874537,-0.4485324,-0.88584328,0
-5.7363572,2.7410343,2.6869473,-0.83110523,0.39713147,0.38929513,0
-1.8960321,-2.0626228,-6.4108076,-0.27100611,-0.29481748,-0.91631782,0
3.1491573,1.4044048,6.047739,0.45235732,0.20173422,0.86872101,0
1.9553363,6.6338468,-0.12766249,0.28267771,0.95903742,-0.018455824,0
4.4584694,5.1922574,-1.2297693,0.64119238,0.74672174,-0.17685862,0
-3.0883803,6.0227714,1.4144979,-0.44664168,0.87101346,0.20456474,0
0.1202877,6.4680462,-2.4672236,0.017373389,0.93419254,-0.35634592,0
-2.4659288,1.6614076,6.2814469,-0.3548277,0.23906344,0.90385067,0
6.7054992,1.4470879,1.5919014,0.95219433,0.20548938,0.22605321,0
-4.3433609,2.54548,-4.9662466,-0.61419576,0.35995695,-0.70227814,0
1.2239404,-1.334779,-6.6791115,0.17686298,-0.1928795,-0.96515125,0
-0.72102445,6.876451,0.53370231,-0.10397317,0.99159795,0.076960936,0
5.211122,0.93181294,4.6181784,0.7417891,0.13264105,0.65738517,0
5.5116677,3.1656997,-3.2232239,0.77338701,0.44420514,-0.45227683,0
0.75032824,1.3916209,6.8910027,0.10612781,0.19683342,0.97467613,0
-0.84754175,-2.4341631,6.4204707,-0.12250333,-0.35183293,0.92801219,0
3.0753298,6.2188392,-0.191707,0.44310915,0.89604199,-0.02762212,0
1.4656793,6.6277442,1.3770453,0.21161549,0.95691693,0.19881848,0
1.1373912,-5.3599505,-4.3084164,0.16317664,-0.76896912,-0.61811,0
2.6611903,6.1647387,1.8674228,0.38183659,0.88453758,0.26794416,0
2.411273,-3.0946097,-5.8520951,0.34224716,-0.43923742,-0.8306247,0
5.2810278,3.0050094,-3.5214097,0.75198364,0.42789358,-0.50142562,0
-4.9638877,4.82476,1.4088305,-0.70267963,0.68298495,0.19943169,0
-2.2803771,-6.7276053,0.2051243,-0.32088444,-0.94667846,0.028864171,0
2.2624412,5.1246896,-4.2219696,0.32252827,0.73056364,-0.60187399,0
-3.7474291,-2.8677351,5.135457,-0.53732425,-0.41118953,0.7363463,0
-6.3798919,-1.5646937,2.293241,-0.91694796,-0.22488511,0.32959536,0
4.2598977,-4.240943,-3.6899602,0.60396361,-0.60127622,-0.52315849,0
-2.3239105,3.7620835,5.439847,-0.33149451,0.53664291,0.77596766,0
-3.4215508,2.8610473,5.2897439,-0.49450785,0.41349974,0.76451296,0
-6.2952151,-3.247884,0.19519641,-0.88835591,-0.45832857,0.027545346,0
2.2240946,-3.4216137,5.7347183,0.31598812,-0.48612556,0.81475979,0
2.9953165,-4.7286305,4.0936852,0.43193141,-0.68187916,0.59031862,0
-5.0736771,2.7658234,-4.0200386,-0.72075754,0.39290795,-0.57107955,0
5.9492993,2.6720786,2.3719735,0.85727602,0.38503844,0.34179419,0
-1.647964,-3.5142229,5.8189573,-0.23560184,-0.50241232,0.8319096,0
2.1779671,5.417789,3.8125565,0.31231451,0.77689612,0.54671019,0
5.5455961,2.7118852,3.4319954,0.78515697,0.38395432,0.48590901,0
-0.56535149,-6.7630134,-1.5801717,-0.08113382,-0.97056282,-0.22677109,0
-5.0313663,-1.9498279,4.3305688,-0.7271983,-0.28181443,0.62590998,0
0.02731638,-6.1730008,-3.3997476,0.0038761278,-0.87593377,-0.48241588,0
5.3195119,-2.728574,3.6288054,0.76062483,-0.39015254,0.51887459,0
5.233088,-0.72476232,-4.6876111,0.74092901,-0.10261578,-0.66369742,0
-5.8901711,-1.035633,-3.569463,-0.84571195,-0.14869639,-0.51250422,0
4.5362201,5.3640847,-0.55238521,0.64373779,0.76122057,-0.078389324,0
-2.2694969,6.3754907,2.0950968,-0.32035705,0.89994985,0.29573911,0
-1.3516873,1.2068541,6.7536802,-0.19330393,0.17259142,0.96583939,0
-3.5465524,2.4088407,-5.655251,-0.49975038,0.33943358,-0.7968905,0
6.3089676,0.51742595,2.9943166,0.9009434,0.073890299,0.42759925,0
5.5004287,3.8079402,1.8545432,0.79231524,0.5485189,0.2671397,0
2.2686746,0.17323767,-6.5950775,0.32518676,0.024831502,-0.94532371,0
3.3901138,5.9901686,0.35625345,0.49187952,0.86912757,0.051689643,0
-5.7746534,3.8391888,0.68484211,-0.82872212,0.55096304,0.098281883,0
-2.3760448,-4.4588575,4.9946327,-0.33444411,-0.62761384,0.70302773,0
-5.0163631,-2.1987259,-4.281817,-0.72155672,-0.31626606,-0.61589915,0
0.28114727,-4.947361,-4.7888923,0.040797893,-0.71792239,-0.69492662,0
-3.9692073,-5.2826509,1.965327,-0.57577062,-0.76629788,0.28508905,0
0.66681939,-0.43942526,-7.0483842,0.094004549,-0.061947767,-0.99364263,0
6.2439785,1.3020549,2.75949,0.89846158,0.18735592,0.39706987,0
0.84310633,-4.6876202,5.0616369,0.1213074,-0.67446184,0.7282759,0
-3.3401606,5.5591331,2.5999136,-0.47804376,0.79562306,0.37209961,0
-4.1242518,-1.8635709,5.2043319,-0.59798509,-0.27020359,0.75458848,0
0.62790358,1.0364964,6.8510933,0.090249136,0.14897653,0.98471367,0
0.73898733,-1.6678672,6.8406229,0.10438132,-0.2355848,0.96623206,0
-6.2820415,-2.4251957,-1.7603642,-0.90256512,-0.34843722,-0.2529183,0
-1.7456617,5.4164743,3.91769,-0.25266609,0.78397745,0.56704426,0
3.737103,0.2456708,5.8497705,0.53802681,0.035368968,0.84218538,0
0.70785671,-3.4178264,-6.0696483,0.10109843,-0.48814523,-0.86688715,0
1.1831459,5.7689891,3.9184639,0.16726284,0.81556934,0.55395824,0
-1.7669512,4.5991759,-4.9725404,-0.2524198,0.65702045,-0.7103579,0
-4.016973,0.600456,-5.5876794,-0.58150607,0.086923368,-0.8088851,0
5.5852351,0.50773197,4.1950016,0.79747844,0.072495654,0.59897625,0
4.7844486,2.7505457,4.3211718,0.6825949,0.39241901,0.61649942,0
5.5442686,2.8934612,-3.1029453,0.79415381,0.41445562,-0.44446185,0
4.1987276,5.2684746,1.8002822,0.60211337,0.75551915,0.25816727,0
2.0370498,6.3115735,2.5003257,0.28740156,0.89048195,0.35276383,0
-6.1389885,-1.6201879,-3.1368475,-0.86686742,-0.22878169,-0.44294447,0
-4.8379159,-4.0586729,3.1570809,-0.68524474,-0.57487237,0.44717044,0
3.9218206,-4.5665145,-3.5824442,0.55987382,-0.65190947,-0.5114249,0
-5.0521274,-1.6764801,-4.4603338,-0.72747737,-0.24140351,-0.64226246,0
-5.2688112,-2.8333778,-3.481015,-0.76123422,-0.40936446,-0.50293463,0
0.71982485,3.0647187,6.1826186,0.10375151,0.44173136,0.89112794,0
-4.1127481,5.6628346,-0.12800211,-0.58754277,0.80898649,-0.018286243,0
1.4158808,-1.0246847,-6.7770572,0.20230336,-0.14640863,-0.96831703,0
-2.6300485,0.0068166489,-6.5137558,-0.37440085,0.0009703848,-0.92726642,0
4.1745896,-1.8110002,5.3222523,0.59616745,-0.25862649,0.76006359,0
-5.4731688,0.11232057,-4.3529882,-0.7825467,0.016059453,-0.62238473,0
-2.100373,4.6125603,4.7550988,-0.30222526,0.66370702,0.68421704,0
2.1384685,5.8456397,-3.3057983,0.30341938,0.82941616,-0.46904749,0
-4.2529125,-5.5019555,-0.40407026,-0.61054385,-0.78985518,-0.058007918,0
-4.3402801,4.6765604,-2.8062932,-0.62269193,0.67093742,-0.40261367,0
-2.5647824,-4.8099623,-4.4117212,-0.36573702,-0.68589884,-0.6291098,0
-3.5985825,4.5593085,3.6277337,-0.52548027,0.66576958,0.52973706,0
-0.30634025,-3.2243254,6.2256866,-0.043651991,-0.45945063,0.88712996,0
-6.6393633,-0.43028101,-2.0280871,-0.95454425,-0.061861698,-0.29157901,0
-1.6111969,-2.6815178,6.1925645,-0.23223145,-0.38650322,0.89257139,0
5.9336276,3.4228764,-1.1968025,0.85328376,0.49222586,-0.17210588,0
2.9652221,-2.3274779,5.822875,0.42747864,-0.3355388,0.83944964,0
5.3778601,2.2200692,3.9117582,0.76707739,0.31666216,0.55795825,0
6.8319254,0.99347848,-0.77890974,0.98335284,0.14299628,-0.11211234,0
-0.36757433,-0.58926594,-6.9980702,-0.05226833,-0.083792433,-0.99511153,0
-4.7233992,-3.8511827,-3.3996491,-0.67684841,-0.55186248,-0.48715916,0
-2.2991943,-2.7498538,-6.0568013,-0.32668492,-0.39071766,-0.86059088,0
-0.70265007,-6.6485362,2.1976857,-0.099843539,-0.94472826,0.31228164,0
-2.6270542,5.7360492,3.1297932,-0.37301934,0.81447017,0.44440401,0
6.5806565,2.1600268,1.007452,0.94023085,0.30862024,0.1439427,0
2.4072466,-6.0594707,2.7434959,0.34030411,-0.85660636,0.38783851,0
-3.9470167,0.75966835,-5.7378302,-0.56340706,0.10843697,-0.81903231,0
-4.2178898,-0.50237685,-5.5163436,-0.60582221,-0.072157182,-0.79232121,0
2.0785291,-1.4945041,-6.4434133,0.29978696,-0.21555282,-0.92933565,0
3.8414857,-2.8670578,-5.0200834,0.55344391,-0.41305783,-0.72324485,0
2.5988917,-5.6485023,3.1265018,0.37343007,-0.81162316,0.44924143,0
5.8915734,-2.8173041,2.632061,0.83675319,-0.40012878,0.37381956,0
1.7155823,2.0453181,-6.4578848,0.24550736,0.292694,-0.92415172,0
1.9300522,6.7152448,-0.50435513,0.2755138,0.95859724,-0.071996398,0
2.159343,1.9668392,-6.294086,0.31119901,0.28345585,-0.90708762,0
2.7978456,5.8368206,-2.5742719,0.40165079,0.83791745,-0.36955518,0
-5.6756034,-3.1365633,2.9265361,-0.79775941,-0.44087344,0.41135216,0
-1.8047626,1.059378,-6.599731,-0.26066917,0.15301025,-0.95322585,0
-2.6905971,-3.9661534,5.1321497,-0.38316616,-0.56481731,0.73086607,0
-5.7143312,-3.2700353,-2.0355837,-0.82920682,-0.47451496,-0.29538366,0
-5.9294224,-2.1775093,-3.0183718,-0.84697247,-0.31104049,-0.43115124,0
6.0747404,-0.24373317,3.5684912,0.86172158,-0.034574337,0.50620204,0
6.8992753,1.5201826,0.22373855,0.97608548,0.21507014,0.031653751,0
5.6881747,0.87405443,-4.0899568,0.80566263,0.12379947,-0.57929397,0
-0.69452721,6.5694165,2.5625026,-0.098019242,0.92714763,0.36164829,0
-5.3957467,3.13779,3.0606763,-0.77616519,0.45136356,0.44027093,0
1.5692277,5.8063555,-3.7839613,0.22083275,0.81711113,-0.53250563,0
-6.2221003,-2.5158665,2.2851021,-0.87760818,-0.35485527,0.32230666,0
5.0487256,3.6288373,3.2089446,0.72157484,0.51864135,0.45862934,0
2.0188653,6.6882381,-0.39471483,0.28851491,0.95581234,-0.056408476,0
-3.1835458,-5.3140659,3.4280858,-0.449655,-0.75057703,0.48419467,0
4.4805098,5.2397027,0.49875793,0.64820516,0.75803924,0.072156399,0
1.1604875,-3.3144672,6.1818209,0.16322675,-0.46619177,0.86949539,0
6.5203996,2.5418403,-0.37612313,0.9303658,0.3626835,-0.053667277,0
-4.6578417,-0.20070924,5.2092299,-0.66627777,-0.028710317,0.74515074,0
0.5987618,5.6729903,-3.8920622,0.086704724,0.82148707,-0.56359673,0
-4.6520147,-4.9773412,1.3650836,-0.66952014,-0.71634132,0.19646348,0
-2.9219322,-4.1339993,-4.8616333,-0.41630268,-0.58899212,-0.69266182,0
4.5128379,-5.1711893,1.8045216,0.63590622,-0.72867483,0.25427604,0
2.4312873,-1.5521591,-6.4599166,0.34366113,-0.21939684,-0.91310573,0
-5.9573159,-0.87932384,3.4006352,-0.86141694,-0.12714861,0.49172562,0
4.5879145,-2.5792048,4.6093211,0.65577048,-0.3686569,0.65883023,0
-2.9751666,0.46787962,6.2412586,-0.42932174,0.06751585,0.90062451,0
-2.0370109,-6.4413471,-1.8591657,-0.29071435,-0.91928422,-0.26533297,0
6.9284139,-0.93591964,-0.76173353,0.98516893,-0.13308081,-0.10831284,0
4.3411274,5.1315684,1.7902898,0.62409943,0.7377367,0.25737989,0
-0.074116677,5.5809255,4.3014555,-0.010518058,0.79200119,0.61042887,0
-0.99937373,3.3054104,-6.1182652,-0.14224948,0.47048753,-0.8708654,0
-1.6523508,-3.2311604,5.9197288,-0.23796679,-0.4653424,0.85254222,0
5.505281,-4.1434903,0.72505891,0.79459947,-0.59804672,0.10465068,0
-2.0141914,-6.6132789,1.514899,-0.28460121,-0.934443,0.21405219,0
4.1204648,-1.4909481,-5.3970242,0.5927099,-0.21446602,-0.77633709,0
5.2464623,4.2152133,-1.8010279,0.75306022,0.60503805,-0.25851372,0
3.6286714,-4.3611913,3.9756036,0.52379358,-0.6295318,0.57387275,0
5.6556787,-4.165072,0.18842335,0.80492061,-0.5927763,0.026816558,0
-1.7881703,-6.6764588,1.3431686,-0.25396264,-0.9482156,0.19076182,0
-4.0639224,-3.3575194,4.6248703,-0.57950974,-0.47877765,0.65950012,0
0.37825656,3.1918464,-6.216805,0.054047886,0.45607287,-0.8882997,0
0.50829512,-3.3100841,6.1180739,0.072877429,-0.47458732,0.8771863,0
-1.8078755,-5.9393063,-3.2221227,-0.25846356,-0.84911507,-0.46065193,0
-3.6209023,-5.8963585,-0.71446371,-0.52053028,-0.8476432,-0.10270921,0
4.9999995,3.1068597,-3.5942428,0.72493345,0.45045334,-0.52111739,0
6.0752687,2.7275112,2.1874552,0.86671859,0.38911605,0.3120698,0
1.2748094,-1.312422,-6.7313037,0.18275444,-0.18814653,-0.96498793,0
3.6660919,5.5698504,2.3323374,0.51896596,0.78845888,0.33016187,0
-2.0859308,3.3088188,5.817749,-0.29754838,0.47198772,0.82987505,0
-4.0255661,-5.2384167,2.1412451,-0.57964659,-0.75428653,0.30832073,0
-6.7536535,1.9981087,0.016024375,-0.95891058,0.28369942,0.0022752045,0
-5.6286368,-2.07442,-3.734333,-0.79656714,-0.29357281,-0.52848446,0
-2.8895142,3.4215083,5.3144655,-0.41577011,0.49231836,0.76469463,0
1.0664787,5.8470836,-3.6171923,0.15327995,0.84037369,-0.51988196,0
-0.9751783,6.1962137,-3.1946115,-0.13853644,0.88025069,-0.45383507,0
1.9909067,-6.5511308,1.8137053,0.28107774,-0.92489368,0.25606033,0
5.1256976,4.9126844,0.20418294,0.7216506,0.69166034,0.028747061,0
-1.2352673,4.9887795,4.7763109,-0.1760595,0.71103805,0.68075544,0
2.3827529,-3.4554746,5.6392832,0.33894604,-0.49154046,0.80218673,0
-4.5400434,-5.1956587,-0.88842046,-0.65261132,-0.74685311,-0.12770654,0
-6.1985631,2.6872683,-2.0192361,-0.87906605,0.38110223,-0.28636345,0
-0.017567452,3.7596295,-5.9345369,-0.0025006232,0.53516108,-0.84474635,0
3.7301612,-5.0066838,3.1058266,0.5349192,-0.7179774,0.4453873,0
0.43457094,-2.3131657,-6.6137505,0.061904136,-0.32950783,-0.94212127,0
-1.4977981,-5.5003977,-4.0963874,-0.21336639,-0.7835502,-0.58354419,0
-0.81668544,1.0864059,6.8030896,-0.11771996,0.15659843,0.9806217,0
3.1752868,6.2868996,-0.23936497,0.45056599,0.89209682,-0.033965345,0
6.9465852,0.14472954,-1.01353,0.98931283,0.020611968,-0.14434405,0
4.1804137,-5.4831681,-0.99699622,0.60005599,-0.78705317,-0.1431087,0
-1.678171,5.2451463,-4.3532424,-0.23906022,0.74718595,-0.62013173,0
-4.1559873,4.3627496,-3.4727173,-0.59759372,0.62732428,-0.49934563,0
-0.51256943,-2.2665644,-6.6257005,-0.073001109,-0.32280838,-0.94364482,0
0.32276443,1.9157248,6.6559744,0.046550114,0.27629191,0.9599458,0
-5.2580509,-3.8954678,2.4468355,-0.75262016,-0.55758446,0.35023201,0
2.6388361,-1.5655884,6.1679101,0.38305345,-0.2272608,0.89533383,0
1.6044459,6.8622689,-0.29956713,0.22746152,0.97286052,-0.042469487,0
-1.7434446,2.8293972,-6.24441,-0.24646729,0.39998624,-0.88275981,0
0.15237957,-2.5324385,-6.5718827,0.021630753,-0.3594875,-0.93289918,0
-0.1875459,-6.6591668,-2.4968016,-0.026361708,-0.93602163,-0.35095385,0
4.7018385,-4.4719701,2.673063,0.66997701,-0.63722247,0.38089159,0
0.32774973,-3.4245925,-6.2014236,0.046215639,-0.48289815,-0.87445617,0
5.8834906,3.3604782,-1.515618,0.8473978,0.48400891,-0.21829411,0
5.0259647,-4.2775726,-2.2395666,0.72113949,-0.61375809,-0.32133928,0
-1.9261425,-5.6337957,3.7137959,-0.27448633,-0.80284822,0.52923721,0
-0.18587399,-6.7118716,2.2856307,-0.026205994,-0.94629306,0.3222464,0
0.62543291,0.0086856848,7.0556903,0.088296063,0.0012262095,0.99609351,0
-3.1521742,4.3692951,-4.4775047,-0.44996643,0.62370795,-0.63915461,0
1.3100245,-6.554111,2.1070611,0.18693238,-0.93523103,0.30066457,0
-4.5718875,2.8545794,4.5938039,-0.64557028,0.40307897,0.64866501,0
-6.9560013,1.1582539,-0.5336346,-0.9836064,0.16378173,-0.075458065,0
2.1615083,2.0485749,-6.2793469,0.31101972,0.29476973,-0.90353608,0
-5.1153636,3.52811,3.1237955,-0.73549002,0.50727373,0.44914117,0
3.3729684,-2.8344557,5.4611998,0.48069763,-0.40395164,0.7783013,0
2.8019094,5.3583512,-3.4219787,0.40327743,0.7712248,-0.4925237,0
-4.278728,-5.4936066,-0.67464411,-0.6116066,-0.78526282,-0.096434452,0
-3.2632668,-4.4221148,-4.2492986,-0.46973881,-0.63655198,-0.61167556,0
-6.1698194,-2.4835281,2.1822686,-0.8814308,-0.35480103,0.31176257,0
-2.1097496,0.87768376,6.6153612,-0.30144086,0.12540339,0.94520235,0
2.1777935,-3.7224593,5.5471559,0.30994403,-0.52978116,0.78947234,0
-2.1229899,6.2307572,2.4602609,-0.30210802,0.88665599,0.35010272,0
5.806653,3.8596649,-0.34505153,0.83178866,0.55288744,-0.049427774,0
3.1300759,3.548317,5.161922,0.44700155,0.50672996,0.73716652,0
-4.8409657,-4.8579702,1.5601512,-0.68828118,-0.69069886,0.22181994,0
-2.8012705,-4.6509705,-4.4384274,-0.39945546,-0.66321892,-0.63291073,0
-4.3291345,1.3547355,-5.299418,-0.62060118,0.19420752,-0.75969577,0
3.5456684,-3.1426995,5.0071855,0.51435012,-0.4558937,0.7263642,0
-0.9908278,3.8326354,5.8882751,-0.13964657,0.54016894,0.82988936,0
-0.32346153,-0.36024517,6.9969759,-0.04611849,-0.051363025,0.99761462,0
-3.5982313,3.9719758,4.5099015,-0.51370251,0.56706029,0.64385742,0
6.8164549,1.0337778,-1.2509955,0.97280949,0.14753547,-0.17853567,0
-1.454247,2.0260379,-6.5555449,-0.20733778,0.28886029,-0.93465012,0
-5.0860376,4.6753716,-0.98473293,-0.72883689,0.6699878,-0.14111371,0
-1.9761864,-0.33805412,-6.7697368,-0.27989811,-0.04788046,-0.95883495,0
2.8385057,-5.5313525,-3.2434251,0.40478778,-0.78880376,-0.46253169,0
-2.9381671,4.1410565,4.9369583,-0.4148781,0.58472973,0.69711351,0
-0.091161147,-6.8280377,-1.0492063,-0.01319497,-0.98831308,-0.15186563,0
-1.0832944,-2.0325882,6.5896902,-0.15518613,-0.29117617,0.94399875,0
-2.1223712,-6.6544385,-1.0325035,-0.30059358,-0.9424749,-0.14623451,0
2.5933554,6.1922946,2.3227973,0.36506081,0.87167537,0.32697496,0
6.6214442,0.76150823,-2.0523851,0.94945663,0.10919355,-0.29429388,0
-2.4983432,-5.0100641,-4.1344867,-0.35897645,-0.7198751,-0.59406704,0
-2.1068554,1.2258421,-6.6775994,-0.29638216,0.17244551,-0.93937218,0
4.4338431,5.2454715,1.3903793,0.63271511,0.74853557,0.19840892,0
1.117835,4.3978634,5.3736167,0.15893592,0.62529659,0.76403105,0
3.3829095,-4.8790436,3.5942495,0.48742983,-0.7030018,0.51788098,0
-6.0309434,-3.6436546,-0.42211086,-0.85438633,-0.51618606,-0.059799228,0
6.7977171,-0.30273956,1.8744208,0.96313488,-0.04289367,0.26557741,0
-1.161938,6.7379947,1.4490578,-0.16624504,0.96404308,0.20732491,0
4.6409636,-4.5390668,-2.7132936,0.65961367,-0.64513123,-0.38563663,0
1.4199818,-6.8016543,-1.0558404,0.20204459,-0.9677853,-0.15023209,0
-5.7090654,2.9995837,2.8391392,-0.81021118,0.42569074,0.40292099,0
-4.0067291,4.3887448,3.7848275,-0.56868875,0.62290955,0.53719348,0
3.7769856,1.8151108,5.5843878,0.54097533,0.25997722,0.79984844,0
1.5660698,5.1217303,4.5695214,0.22244497,0.72749192,0.64905602,0
-5.9362741,-1.7326512,3.2697513,-0.84862208,-0.24769175,0.46742842,0
2.4150739,-5.0623708,-4.1627674,0.34575644,-0.72475934,-0.5959667,0
6.2734213,1.4604849,-2.799336,0.89324462,0.20795196,-0.39858502,0
-4.9030519,2.4884067,4.3965559,-0.69645488,0.35346618,0.62450957,0
0.039092876,0.038716651,-7.044323,0.005549388,0.0054959818,-0.99996948,0
-4.8471842,-4.398994,-2.4994919,-0.69179302,-0.62782705,-0.35672897,0
5.1890354,3.4723394,2.9700897,0.75050139,0.50221193,0.4295705,0
1.0202824,6.9242949,0.85757023,0.14469214,0.98197424,0.12161699,0
3.7622204,-4.5606709,3.7068272,0.53914291,-0.65356439,0.53120482,0
-0.04917841,-4.0423107,5.7705026,-0.006979953,-0.57373023,0.81901461,0
-6.2340612,-2.0467093,-2.5359561,-0.88621759,-0.29095474,-0.36050478,0
-2.6007106,1.8242749,-6.2975078,-0.36871794,0.25863811,-0.89283448,0
-3.6149931,-3.4554007,4.9502859,-0.51374376,-0.49106333,0.7035085,0
-4.0200634,-5.6104569,-1.0147285,-0.57625139,-0.80422455,-0.14545511,0
-6.5871663,-0.66449589,2.3363256,-0.93824446,-0.094647616,0.33277506,0
4.0176978,-5.5398836,-1.4111394,0.57499325,-0.79284102,-0.20195535,0
-2.7425656,4.9223666,4.078505,-0.39427489,0.70764601,0.58633131,0
-0.61384147,-4.8461261,4.8885422,-0.08882311,-0.70123637,0.70737398,0
0.079087146,6.1463137,-3.2702525,0.011358832,0.88275969,-0.46968755,0
-5.824616,-0.43939412,3.6547205,-0.8453359,-0.063769981,0.53041548,0
-0.67346227,-6.4556613,2.511384,-0.096767247,-0.9275896,0.36085129,0
5.6288629,2.2877395,3.6544681,0.79387718,0.32265562,0.51541471,0
1.4542117,-6.6243877,1.641811,0.20839885,-0.94932175,0.23528317,0
4.0104766,5.3088121,-2.301204,0.56966221,0.75408238,-0.32687113,0
-5.182951,-3.5315812,-3.1831899,-0.73691273,-0.50212073,-0.45258638,0
4.5287714,-1.593343,-5.1667438,0.64211249,-0.22591236,-0.73256749,0
0.82051587,-2.5587931,6.4982648,0.11668422,-0.36388177,0.92410761,0
-5.6607156,-2.8276536,-3.0321419,-0.80675608,-0.40299264,-0.432136,0
-2.9704437,2.6035538,5.8274732,-0.42193857,0.36982346,0.82776713,0
-4.8662033,2.3392971,4.5848484,-0.68699706,0.33025545,0.64727616,0
-1.5577556,-5.3291473,-4.100687,-0.22568573,-0.77208042,-0.59410256,0
2.8580177,-0.96386844,-6.2483096,0.41192469,-0.13892189,-0.9005658,0
4.5960217,-1.7370675,-5.0127411,0.65478373,-0.24747567,-0.71415269,0
0.17118321,-6.5274358,2.7035491,0.02422207,-0.92361867,0.3825466,0
3.4963965,5.9963965,0.68799603,0.50125349,0.85966063,0.098633088,0
6.5584588,2.1863096,-0.99922359,0.93891972,0.31299567,-0.14305049,0
1.321261,-5.5333815,-3.946852,0.19082357,-0.79916048,-0.57002538,0
-5.5275741,4.1332631,0.99226582,-0.79271263,0.59275371,0.14230143,0
-3.0866735,-2.5372236,-5.7468643,-0.44099158,-0.36249191,-0.82105178,0
-3.2240713,5.3713207,-2.8690386,-0.4679102,0.77954102,-0.41638422,0
5.5832677,4.1010165,0.73995936,0.80139041,0.58863652,0.10620955,0
-6.6872311,-0.65610182,-1.5566947,-0.96954244,-0.095124364,-0.22569606,0
-4.3406863,-5.3091588,1.2653788,-0.62245315,-0.76133186,0.18145497,0
0.97364253,-6.875607,-0.46151507,0.13990077,-0.9879424,-0.066314191,0
-0.223129,-2.5212724,6.5724902,-0.031680841,-0.35798138,0.93319112,0
4.1351938,5.4684629,-0.93350697,0.59764034,0.79033154,-0.13491543,0
1.2593259,-5.7029271,-3.8922036,0.17943096,-0.81256312,-0.55456799,0
-3.4744167,0.3719815,-6.0904231,-0.49481672,0.052976564,-0.86738104,0
1.050833,-5.702136,3.8620756,0.1508376,-0.81849021,0.55436611,0
2.823998,4.7467976,4.2941198,0.40364864,0.67848432,0.61378074,0
6.9718304,0.32518181,0.54679233,0.99586254,0.046449263,0.07810431,0
5.4997149,-3.1540062,-2.767288,0.79503793,-0.45594266,-0.40003872,0
-1.8332274,5.0005331,-4.5626984,-0.26139858,0.71302241,-0.65059191,0
2.1907976,0.27281669,-6.5529628,0.31682438,0.039453659,-0.94766331,0
-2.8472824,2.6653199,5.6807866,-0.41320422,0.3867974,0.82440889,0
-6.2646112,-0.69350535,3.2291665,-0.88459015,-0.097925954,0.45597225,0
-1.4236118,-4.6489248,-4.897089,-0.20629746,-0.67368186,-0.70964366,0
0.40796709,4.4586821,-5.5264826,0.057358809,0.62687582,-0.77700502,0
1.5389869,2.565917,-6.3066831,0.22047105,0.36758626,-0.90347815,0
-5.9938025,-0.74118853,-3.5496292,-0.85560387,-0.10580324,-0.50670278,0
-4.2757092,2.4893861,4.9197912,-0.61280054,0.35678226,0.70511127,0
2.3961856,6.5633531,0.019321077,0.34294382,0.93935186,0.0027652464,0
-2.5560074,-5.0590596,4.1983113,-0.36236992,-0.71723229,0.59520239,0
3.5600545,-5.9567728,-0.67816782,0.51057833,-0.85431248,-0.097261935,0
5.3119283,-4.6303091,0.3031688,0.75311846,-0.65647936,0.042982887,0
-6.6825294,-2.1052804,-0.9406082,-0.94530624,-0.29781157,-0.13305782,0
-2.3792324,-5.841702,2.8763866,-0.34319878,-0.84265202,0.41491213,0
-1.2371759,-5.0193563,4.6090598,-0.17863058,-0.72472352,0.66548252,0
-1.467667,4.9604917,-4.64641,-0.21107212,0.71339172,-0.66822213,0
0.52901947,6.8006711,-1.1085012,0.076550789,0.98407859,-0.16040362,0
1.6666173,-6.0468421,3.186028,0.23690017,-0.85952419,0.45287576,0
-4.5858803,-1.8132608,4.8127794,-0.66552216,-0.26314798,0.69845068,0
3.5954084,5.9158354,-1.0648879,0.51332575,0.84461915,-0.1520368,0
-0.54350293,-4.1964555,-5.4119949,-0.079113826,-0.61084795,-0.78778535,0
0.41912618,-6.7676849,-1.6204188,0.060119219,-0.97075284,-0.23243195,0
1.0200192,5.8331213,-3.7122834,0.14594537,0.83460885,-0.53115726,0
5.044909,2.4551523,-4.2667637,0.71572208,0.34831285,-0.60532647,0
5.7227964,-0.97306144,3.9192603,0.81706017,-0.13892679,0.55956411,0
-5.4045777,4.2967777,1.8496197,-0.75610429,0.60112226,0.25876313,0
6.1188512,-3.0049555,1.4854872,0.87701905,-0.4307023,0.21291588,0
5.79602,0.91543585,3.6765456,0.83702946,0.13220222,0.53094655,0
-1.2920699,1.7225026,6.6203175,-0.18559729,0.24742609,0.95096481,0
-3.0371168,-5.7158689,2.7430239,-0.4320288,-0.81308037,0.39019418,0
-0.99941212,6.8043399,-1.6960676,-0.14109221,0.96060407,-0.23944269,0
1.705451,2.0422232,-6.5366373,0.24165437,0.2893734,-0.9262107,0
-1.6443399,0.55815244,-6.8640842,-0.23224066,0.078831442,-0.96945858,0
-6.9030185,-1.1168505,0.67762011,-0.98256075,-0.15897009,0.096450984,0
-3.0793478,-2.9338033,5.5390849,-0.4409382,-0.42009738,0.79315305,0
-4.0122275,4.2637706,3.8737965,-0.57152146,0.6073525,0.55180264,0
-0.83311707,-1.9834695,6.7662053,-0.1173407,-0.27936253,0.95298886,0
5.3262529,-1.5679281,-4.361711,0.75436401,-0.22206765,-0.6177547,0
0.12834267,-2.7953269,-6.5040207,0.018126374,-0.39479575,-0.91859007,0
0.09567441,6.6347756,-2.0437415,0.013779834,0.95559627,-0.29435685,0
1.8934884,5.3459401,-4.2139421,0.26798967,0.75662291,-0.59640867,0
3.6785004,-3.6857269,4.7305589,0.52287024,-0.52389747,0.67241222,0
-1.4033958,1.6069049,6.6345177,-0.20137376,0.23057535,0.95198929,0
5.3039832,-4.4492474,1.0161377,0.75801688,-0.63586265,0.14522097,0
0.36600024,6.9842153,0.5968284,0.052142594,0.9950133,0.085027762,0
4.7337971,-4.6393385,-2.0723264,0.681656,-0.66805416,-0.2984103,0
1.3154957,5.142683,4.5541263,0.18808582,0.73528612,0.65113598,0
-1.6415726,4.7064395,5.0267415,-0.23189045,0.66483712,0.71008337,0
-0.19814821,6.3944249,-2.9365335,-0.028149016,0.90839469,-0.41716516,0
6.8587198,-0.44376692,-0.60235977,0.99410295,-0.064319581,-0.087306038,0
-4.0362568,-0.56521153,-5.6566167,-0.57892758,-0.081069313,-0.81133872,0
2.9758406,2.0059545,-6.1152587,0.41969121,0.28290543,-0.86245221,0
1.2506807,6.8848267,-0.12831672,0.1787024,0.98373234,-0.01833442,0
0.96629149,5.5313201,-4.0789676,0.13922989,0.79699045,-0.58772558,0
5.6207142,-1.5539088,3.7590766,0.81011885,-0.22396636,0.54179925,0
3.4745812,4.2972155,4.2995391,0.49624312,0.61373258,0.61406446,0
4.7263913,4.0685554,3.0745828,0.67975748,0.58514643,0.44219163,0
-0.086075068,6.1729155,3.1614773,-0.012410011,0.88999003,0.45581108,0
-1.6564609,5.0454841,-4.3600645,-0.24107929,0.73431355,-0.63455844,0
0.99244595,-6.9908285,-0.017548854,0.14055428,-0.99006987,-0.0024853407,0
-6.1631422,-3.3025539,0.87399811,-0.87462211,-0.46867111,0.12403058,0
-0.85280317,-6.9072323,-1.1971629,-0.12076127,-0.97809929,-0.16952436,0
-1.3819638,1.4785376,-6.7586899,-0.19587888,0.20956719,-0.95797342,0
2.7546027,4.9570398,-4.1832414,0.39089257,0.70342994,-0.59362388,0
6.1393056,-3.365025,0.60046762,0.87370652,-0.47888872,0.085454695,0
6.3737912,-2.2787507,1.2312663,0.92642766,-0.33121538,0.178964,0
-2.7956338,-4.2923698,-4.6895123,-0.4025453,-0.61806136,-0.67524618,0
4.1053133,3.6751604,4.208127,0.59212714,0.53008431,0.60695642,0
1.7725044,6.7662439,-0.68152136,0.25221756,0.96279895,-0.096976705,0
3.9315932,-5.5818734,1.4465828,0.56334102,-0.79980254,0.2072746,0
-4.0172319,-4.4178653,-3.4731343,-0.58154619,-0.639543,-0.50278103,0
6.8390789,-0.83069098,0.75642258,0.98677403,-0.11985595,0.10914016,0
0.69092995,-3.8984394,-5.7898798,0.098505534,-0.55579853,-0.82546026,0
-6.8433003,1.5013316,0.67953765,-0.97220755,0.21328975,0.096539915,0
-2.924572,-6.2433786,-1.5664502,-0.41365212,-0.88306487,-0.22155908,0
-2.0463836,-4.3381019,5.0560484,-0.29363039,-0.62246323,0.7254796,0
-4.898787,0.46344307,-5.0525475,-0.69459355,0.065711074,-0.71639508,0
-2.727555,2.1462448,6.0163383,-0.39269897,0.30900499,0.86620063,0
-3.6805725,4.5943432,3.6952667,-0.52953988,0.661008,0.531654,0
5.7012262,3.5727146,-1.5572201,0.82554358,0.51733285,-0.22548711,0
-2.2986407,-0.92059362,6.5759268,-0.327131,-0.13101426,0.93585283,0
0.52826113,6.0696807,-3.3629744,0.075908929,0.87218785,-0.48324543,0
6.6726151,-1.0833861,1.4386517,0.96545273,-0.15675384,0.20815679,0
-2.498759,-3.0684659,-5.7136374,-0.35952464,-0.44149479,-0.82208544,0
-6.2681594,2.10835,-2.4687421,-0.88796556,0.29867494,-0.34972912,0
5.5229759,0.70239919,4.3231201,0.78353095,0.099647634,0.61331034,0
-2.8170414,-6.138382,-1.7411253,-0.40389207,-0.88008779,-0.24963307,0
-5.1536751,2.4524066,-3.9066358,-0.7451393,0.35457894,-0.56483728,0
-5.7394514,-0.71750069,-4.0403214,-0.81347007,-0.10169358,-0.57264715,0
-5.0480766,1.8234626,-4.6393161,-0.71155202,0.25702631,-0.65393513,0
-1.906255,-5.5367255,3.8957739,-0.27103585,-0.78722477,0.55391037,0
-1.5918633,-1.5836296,6.5957117,-0.22847152,-0.22728978,0.94664681,0
-3.0041525,-6.0651288,-1.5677819,-0.43240365,-0.87298626,-0.22565919,0
-0.22167283,4.4019337,-5.5058012,-0.031431098,0.6241523,-0.78067023,0
3.2243793,-6.301702,0.17171937,0.45537013,-0.88997185,0.02425145,0
4.0674253,-5.438838,-1.3408446,0.58755511,-0.78566092,-0.19369014,0
0.65368295,-6.8403387,-1.1325014,0.093863308,-0.98221445,-0.16261756,0
0.092642628,-6.4033408,2.9801886,0.013115703,-0.90654075,0.42191449,0
-3.7549651,5.5657935,2.437531,-0.52570039,0.77921897,0.34125778,0
4.4805927,1.3845983,5.3356609,0.6307435,0.19491313,0.75111347,0
4.424849,-0.040455371,5.4089522,0.63317084,-0.0057889344,0.77399045,0
-2.3151472,-5.8285413,-2.8925776,-0.33521608,-0.84392941,-0.41882372,0
2.6870322,3.1172781,-5.668076,0.38360876,0.44503197,-0.80919152,0
5.4831095,-4.3816671,0.14565384,0.78103554,-0.62414181,0.020747503,0
-2.0042057,-6.6373286,-1.379616,-0.28351033,-0.93890125,-0.1951573,0
0.29691043,-6.9438105,-0.2899254,0.042682853,-0.99821895,-0.041678704,0
-3.3906999,-3.3318214,-5.1888413,-0.48182625,-0.47345948,-0.73734629,0
3.2052045,3.8890035,-4.9904804,0.45191902,0.5483315,-0.70363468,0
3.8551173,-4.3369637,3.7622967,0.55744916,-0.62712407,0.54402733,0
6.8654022,-0.62706208,0.82299834,0.98883355,-0.090316631,0.11853761,0
0.76138955,5.3596902,4.5553017,0.10761566,0.7575447,0.64385152,0
-4.5303354,-4.6206641,-2.7989836,-0.64256018,-0.6553719,-0.39699385,0
1.9257761,-0.37073776,-6.7524157,0.27388066,-0.052725706,-0.96031731,0
4.2154522,1.3722904,5.4265347,0.60159087,0.19584076,0.77442551,0
-3.8092093,5.7721744,0.77420712,-0.54738003,0.82945639,0.11125288,0
5.5228424,0.069128573,4.2908411,0.78963941,0.0098837959,0.61349159,0
-3.2030203,4.0931349,-4.6713777,-0.45834735,0.58572137,-0.66846704,0
-6.0790801,-3.6190321,-0.65834075,-0.85556358,-0.50933892,-0.092654213,0
1.3302418,6.4696374,2.1849504,0.19120929,0.92994732,0.31406531,0
6.0888057,2.3298881,2.2579854,0.88252425,0.33769888,0.32727712,0
2.2561977,5.0070596,4.2561388,0.32472256,0.72063953,0.61256343,0
-0.65901113,-6.9091001,0.43457499,-0.09476652,-0.99353611,0.062492359,0
1.8301048,3.4520938,5.687429,0.26522401,0.50028729,0.82423842,0
-1.536508,-5.9396415,3.2271805,-0.22164911,-0.85682362,0.46553725,0
-0.3641386,-3.3563781,6.1891956,-0.051650077,-0.47607473,0.87788671,0
-4.9155436,4.8189869,1.5758717,-0.69607824,0.68240511,0.22315539,0
-3.6594388,5.5586815,1.9990857,-0.52662367,0.79994047,0.28768504,0
-4.35886,5.0914021,1.8509227,-0.62687922,0.73223144,0.26619461,0
4.108367,-2.8405516,-4.9480047,0.58435023,-0.40402353,-0.70377541,0
-6.6767454,-1.6872303,-0.34732839,-0.96829212,-0.24468985,-0.050371151,0
4.994586,4.0396094,-2.7440171,0.71501714,0.57830417,-0.39282921,0
-6.2972126,2.0754006,2.5503848,-0.88643354,0.29214588,0.35900751,0
-0.4705694,5.2379985,4.4901738,-0.068048753,0.75746369,0.64932126,0
-3.4411771,-1.9409003,5.8175812,-0.48933977,-0.2759985,0.82726747,0
0.059843823,3.6460197,-5.876873,0.0086526256,0.52716625,-0.84971815,0
6.2385159,-2.9036822,-0.99874604,0.89720625,-0.41759962,-0.14363691,0
4.4887443,4.8715959,2.0927019,0.6461423,0.70125276,0.30123866,0
2.6823807,4.2224851,5.0785379,0.37628746,0.5923351,0.71242321,0
5.247612,3.6630931,2.8641353,0.74844593,0.52245229,0.40850016,0
1.4429518,-6.3171101,-2.8251746,0.20412627,-0.893646,-0.39966154,0
2.8789799,6.3872085,0.26046184,0.41064307,0.91103899,0.037150953,0
6.5138907,0.88313001,-2.4541276,0.92834717,0.12586199,-0.34975752,0
0.7007882,-3.8902404,-5.9227414,0.098416053,-0.54633069,-0.83176744,0
6.2039804,-2.2341781,2.4327114,0.88269627,-0.31787667,0.34612381,0
-0.69828492,-6.8526621,1.5048968,-0.09903875,-0.97192287,0.21344166,0
-3.7117438,-5.9184051,0.8029902,-0.52783442,-0.84163612,0.11419049,0
5.5311661,4.0983682,1.5698764,0.78336227,0.58043945,0.22233683,0
-4.9981728,-3.1428227,-3.6574872,-0.71965504,-0.45251501,-0.52661824,0
6.3639941,0.036591101,-2.8186462,0.91432047,0.0052570747,-0.40495732,0
-0.94320112,4.0852551,-5.491498,-0.13651602,0.59128726,-0.79482251,0
-1.9781992,-2.0483627,-6.2607679,-0.28761441,-0.29781562,-0.9102658,0
3.6380565,-0.81354845,-5.9797626,0.51628375,-0.11545227,-0.84859991,0
-3.2417355,-1.085745,6.1660309,-0.45979694,-0.15399843,0.87456924,0
5.2566733,-2.8335562,-3.5063875,0.75908023,-0.40917444,-0.50633341,0
-0.51742166,-2.6830122,6.3202229,-0.075145468,-0.38965553,0.91788983,0
3.3227084,6.0336957,-0.58274615,0.480667,0.87284166,-0.084300756,0
-1.196861,0.47968659,6.8088436,-0.17271076,0.069220267,0.98253727,0
-6.4631786,-1.5853078,-1.9860011,-0.93065166,-0.22827303,-0.28597,0
-6.1001496,-1.0515757,-3.1947322,-0.87571424,-0.15096019,-0.45862359,0
1.4866281,6.4653678,-2.421263,0.21050729,0.91549939,-0.34285209,0
-3.3085635,-0.56145746,-6.1293955,-0.47346759,-0.080346622,-0.87713903,0
-2.4526861,-4.6830249,4.5780196,-0.35072511,-0.66965538,0.65464002,0
2.9477882,1.9321609,6.0554256,0.42072263,0.27576736,0.86425972,0
-1.39064,-1.6435863,6.5799131,-0.20086704,-0.23740314,0.9504168,0
4.0918369,-3.2741566,-4.7450294,0.57879734,-0.46313506,-0.67119259,0
1.9914567,-6.6464648,0.787687,0.28518772,-0.95181084,0.11280117,0
5.1456194,3.899488,2.6183174,0.73857105,0.55970889,0.37581742,0
-3.4590302,3.6993475,-4.762785,-0.49753901,0.53210574,-0.68506813,0
-4.4453855,5.0315223,-2.1204779,-0.63136721,0.71461481,-0.3011663,0
3.9497132,5.3429079,-1.9938076,0.56936789,0.77020276,-0.2874158,0
