-6.6261244,2.7141361,-2.0220253,-0.89055145,0.36478004,-0.27176031,0
-4.5261703,-5.700542,-0.73177075,-0.61870188,-0.77923185,-0.10002892,0
4.9896259,-4.9321656,-2.1836112,0.67906004,-0.67123997,-0.2971772,0
7.1912165,-2.0138168,0.50286496,0.96077859,-0.26905492,0.067185,0
6.9414673,-2.3160319,1.4742968,0.92990762,-0.31026518,0.19750288,0
-6.0404391,4.1817436,0.55963922,-0.81982332,0.56755656,0.075955614,0
5.2132573,-1.0045556,-5.0059447,0.71443534,-0.13766633,-0.68602484,0
7.4307232,-0.18843992,0.49347624,0.99748284,-0.025295733,0.06624309,0
-1.193476,-7.303709,1.1214199,-0.15944773,-0.97577155,0.14982109,0
-4.5540552,2.8461568,-5.0323091,-0.61878854,0.38672552,-0.68377197,0
2.1594696,6.2015414,3.3013864,0.29380789,0.84375429,0.44917205,0
2.8928809,4.8560038,-4.6617274,0.39483833,0.66277754,-0.63626146,0
4.0973444,3.5071063,-5.0834317,0.55284119,0.47320232,-0.68589073,0
3.3252907,4.3685923,-4.9212613,0.45100984,0.59251302,-0.66747165,0
-0.94041795,-4.5840335,-5.6798477,-0.12778737,-0.62289488,-0.77179807,0
-1.7902267,6.3938613,3.3723323,-0.2403931,0.8585729,0.45283955,0
1.6184155,-0.51291871,-7.2304749,0.21790618,-0.069060236,-0.97352326,0
4.7194805,4.678412,-3.1615298,0.64131242,0.63573182,-0.42960837,0
4.1734018,5.7093978,2.1609643,0.56436354,0.77207428,0.29222432,0
6.9647403,0.81394756,-2.1442246,0.94982529,0.11100313,-0.29242137,0
0.84312356,1.0133212,-7.3356237,0.11312352,0.13595925,-0.98423481,0
-5.3780613,-4.5023737,2.4603343,-0.72354716,-0.60573494,0.33100551,0
2.080394,-7.0403328,-0.37545663,0.28301331,-0.95775503,-0.051076487,0
-1.425215,2.0362737,6.980886,-0.19233266,0.27479497,0.94207001,0
2.365134,6.5163422,2.4104249,0.32225189,0.88785821,0.32842284,0
6.8344898,0.61050087,-2.6384296,0.92967522,0.083044611,-0.35889772,0
-3.7473347,-1.8100394,-6.1187358,-0.50640726,-0.24460508,-0.82687366,0
-3.0155613,6.1229458,-2.6251197,-0.41237417,0.83730501,-0.35898176,0
1.3008308,-6.5199361,3.2229037,0.17606333,-0.88245267,0.4362098,0
-5.7537799,-4.3157821,-2.1376302,-0.76682019,-0.57517475,-0.28488716,0
-2.2198925,0.81496477,-7.0867777,-0.29713812,0.10908506,-0.94858283,0
-4.197372,4.4616776,-3.993356,-0.57400638,0.61015117,-0.54610646,0
-0.2937457,-1.4578551,7.286438,-0.039499719,-0.19603646,0.9798007,0
-4.3306117,-4.9882684,3.3738425,-0.58383435,-0.67249674,0.45484683,0
-0.31851134,-2.30743,-7.1107726,-0.042567138,-0.30837423,-0.95031226,0
5.1836505,-3.4955745,-4.0167947,0.69754487,-0.47038665,-0.54052532,0
6.709796,3.0540102,-1.3599224,0.89505547,0.40739068,-0.1814073,0
-1.8133941,-6.6476498,-2.8323469,-0.24341005,-0.89230734,-0.38018307,0
-1.7304686,-5.549984,-4.4563651,-0.23624055,-0.7576741,-0.60837519,0
6.4648242,-1.3422587,3.4926591,0.86548966,-0.17969723,0.46758586,0
4.2513332,-5.8784118,1.8330225,0.56816143,-0.7856093,0.24497084,0
2.6999407,-2.8326571,-6.335566,0.36256978,-0.38039201,-0.85079086,0
6.165029,2.9528823,2.7985337,0.83464611,0.39977294,0.3788766,0
-0.047926556,-5.5253091,5.0681129,-0.0063920771,-0.7369234,0.67594606,0
2.0682809,-5.3798251,4.567667,0.28123903,-0.73153353,0.62109852,0
3.9974921,5.8146429,2.0580494,0.54386097,0.7910853,0.27999875,0
-1.9528757,6.1124964,3.6366625,-0.26476988,0.82872909,0.49305683,0
-5.1302009,0.53514475,-5.1470671,-0.70403904,0.073440164,-0.70635366,0
-4.2123857,2.2796483,5.611516,-0.57096374,0.30899274,0.76060754,0
3.9823611,-5.6788335,2.2102301,0.5470531,-0.78009588,0.30361718,0
-6.3060584,-0.80048531,-3.8269067,-0.8499043,-0.10788608,-0.51577455,0
-2.6947522,6.593214,1.4912772,-0.37030619,0.9060232,0.20492762,0
6.3536429,2.9492157,-2.4893363,0.85468054,0.39672315,-0.33486101,0
-2.3477426,2.6332047,6.5038476,-0.31730396,0.35588494,0.87901312,0
-4.7637944,-5.3004632,-1.9050843,-0.64577574,-0.71852612,-0.25825155,0
-4.0891228,-5.5163593,-2.6634855,-0.5551995,-0.74898219,-0.36163402,0
-1.9383128,-7.0821962,0.43692583,-0.26351374,-0.96282506,0.059400097,0
1.9532974,-1.6224858,-6.9295716,0.26466861,-0.21984419,-0.93894571,0
-6.4433413,1.514864,-3.2291279,-0.87489593,0.20569271,-0.43846053,0
-0.90054268,6.5038986,-3.3193486,-0.12240137,0.8840071,-0.45116442,0
-0.63803142,-7.1737761,-1.7135731,-0.086183891,-0.96901804,-0.23146571,0
-2.6322222,6.7859073,-1.0650599,-0.35783088,0.92249322,-0.14478691,0
-6.3942213,3.8691452,0.16119657,-0.85536289,0.51758033,0.021563465,0
4.2143674,3.104856,5.3532548,0.56287533,0.41468781,0.71498632,0
-3.4105971,4.9531856,4.2241731,-0.46408111,0.67398167,0.57478464,0
7.1469989,1.7999213,-0.36525783,0.96853185,0.24391791,-0.049498238,0
3.2418919,0.5978207,6.7400713,0.43207633,0.079676986,0.89831042,0
-1.1076146,-1.8134004,7.1300983,-0.14887302,-0.24373674,0.95834708,0
-6.7814975,-1.4659997,2.4880886,-0.9200511,-0.19889334,0.33756095,0
-2.7282763,-6.8946848,0.937141,-0.36504304,-0.92250806,0.12538937,0
6.2099996,-1.4718387,-3.6502604,0.84464538,-0.20019032,-0.49648565,0
-5.1281452,-1.3143961,5.1473541,-0.69451135,-0.17801037,0.69711286,0
-7.0732083,1.7969257,-0.67515045,-0.96509147,0.24517836,-0.092119716,0
6.815834,3.1207955,-0.44688073,0.90761155,0.41557205,-0.059507627,0
-4.0163751,1.8690087,-5.8305135,-0.54849601,0.25524107,-0.79624373,0
5.9348927,-3.6099761,2.4108002,0.80713725,-0.49095178,0.32786551,0
4.3984094,-4.4621577,-4.0401936,0.58997869,-0.59852952,-0.54192954,0
-2.857228,-6.7611356,0.74395561,-0.38727999,-0.91643101,0.10083868,0
-2.2141488,0.67358476,-7.0130482,-0.29981485,0.091209188,-0.94962722,0
-1.2267323,-5.9932704,-4.1195469,-0.16633014,-0.81261539,-0.55856103,0
-3.8450103,-6.2722163,-0.78826517,-0.51966166,-0.84770393,-0.10653578,0
1.8092321,-2.4026077,6.7345581,0.24529819,-0.32574889,0.91308075,0
3.4063435,-2.7136402,6.0264339,0.45812613,-0.36496305,0.81050748,0
-2.7147779,-5.1039429,-4.7184305,-0.36380589,-0.68397653,-0.63231426,0
-7.3559012,0.58511066,0.11928861,-0.99672115,0.079282224,0.01616355,0
-0.9513014,-5.4940825,-5.031497,-0.1266648,-0.73153144,-0.66993868,0
-5.829524,-4.4464955,0.62832624,-0.79220212,-0.60425574,0.085386284,0
-1.1684622,-3.4197202,6.4742198,-0.15759078,-0.46121851,0.87317961,0
-6.304534,3.1395714,2.3801312,-0.84803122,0.42230794,0.32015461,0
-5.4849834,-0.22909123,5.0155392,-0.7376318,-0.030808657,0.67449999,0
4.012064,-5.2876511,3.3492944,0.53964561,-0.71121937,0.4504993,0
-3.1107128,-4.914299,-4.5429497,-0.42150247,-0.66588891,-0.61557096,0
-0.62705499,5.2059541,-5.2188311,-0.084759332,0.70369142,-0.705432,0
5.9090824,-3.8636856,-2.2273037,0.79818803,-0.52189958,-0.30086011,0
6.4215488,3.1451657,-1.6512713,0.87503731,0.42857844,-0.22501177,0
-4.560431,-0.41862106,-5.8419499,-0.61436367,-0.056395017,-0.78700501,0
3.3228846,3.9478073,5.3481216,0.44712719,0.53121674,0.719643,0
0.65914208,2.3988428,6.9350452,0.089463122,0.3255868,0.94127017,0
-0.77197289,-3.7510116,6.4219737,-0.10324427,-0.50166327,0.8588798,0
3.5506816,6.2637644,1.3348786,0.48487768,0.85537368,0.18228973,0
-2.3304081,-6.106298,-3.3607116,-0.31709296,-0.83086914,-0.45728385,0
-5.6109862,-1.6557442,4.480782,-0.76143187,-0.22469069,0.60805893,0
-2.4253643,-6.3034067,3.066118,-0.3269873,-0.84982443,0.41337362,0
4.8994498,-2.0098598,-5.3139262,0.6530745,-0.26790524,-0.70832235,0
3.9385502,-3.4113445,-5.2327442,0.53335261,-0.46195918,-0.70861042,0
-2.7941842,-4.0404449,-5.5192246,-0.37816435,-0.54683304,-0.74697077,0
-1.7014326,2.9046638,6.5575962,-0.23082288,0.39405784,0.88962871,0
-5.2629428,-2.4389477,-4.7419963,-0.70245314,-0.32553014,-0.63292158,0
-3.0090148,-6.3427062,2.6366274,-0.4012523,-0.84580022,0.35159442,0
-4.6161222,5.7580791,1.3686655,-0.61500591,0.76714879,0.18234728,0
3.3956041,4.0964804,-5.2042127,0.45622736,0.55039585,-0.69922882,0
-5.6422296,-4.7183223,-1.6632698,-0.74822611,-0.62570512,-0.22056916,0
-3.0820003,-4.9998274,4.4752464,-0.41738373,-0.67710787,0.60606587,0
-3.2909901,2.2409143,-6.3287768,-0.44014767,0.29970714,-0.84643108,0
-5.6057787,1.7617142,-4.6211214,-0.74988645,0.23566496,-0.61816859,0
4.1982741,-4.571867,-4.0754495,0.56539267,-0.61570543,-0.54885155,0
2.4643166,-6.5778804,2.4332089,0.33150011,-0.88485718,0.32731551,0
2.1161101,6.2689304,-3.2474318,0.28710812,0.85055161,-0.44060281,0
-3.3703761,4.109714,5.1720247,-0.45446545,0.55415863,0.69740182,0
0.024606645,2.9118605,6.772438,0.0033378806,0.39499259,0.91867828,0
-7.1348724,1.5469276,-1.0467869,-0.96740007,0.20974416,-0.1419313,0
7.28442,-1.1062163,-0.92318809,0.98099428,-0.14897436,-0.12432592,0
3.9826243,-0.17633727,-6.3143597,0.53332776,-0.023613969,-0.84557897,0
3.9953957,-0.077101797,-6.1706796,0.54347098,-0.010487719,-0.83936244,0
2.0481451,6.0088916,-3.6152582,0.28035283,0.82250506,-0.49486136,0
-1.3063065,4.497366,-5.8033423,-0.1751712,0.60308129,-0.7782082,0
-4.8156242,2.9509525,-4.6917744,-0.65586352,0.40190473,-0.63899583,0
-1.6406902,4.7508135,-5.4490385,-0.22132297,0.64086694,-0.73505491,0
-5.6977472,0.61329114,-4.7947373,-0.76255208,0.082079187,-0.64169872,0
-4.8507318,2.1240034,-5.0833592,-0.66082627,0.28935784,-0.69251764,0
4.2096505,-5.6905322,-2.0236979,0.57181001,-0.77296281,-0.27488521,0
-6.3698111,1.1986851,3.5652313,-0.86108238,0.16204038,0.48195431,0
6.1998096,-1.492677,3.8556967,0.83196723,-0.20030588,0.51740515,0
-1.8585154,-1.2639968,-7.0958738,-0.24968863,-0.16981599,-0.95331949,0
0.42777559,-0.13036501,-7.3296127,0.058254316,-0.017753059,-0.99814391,0
3.3049302,6.297646,-2.016922,0.44705784,0.85188246,-0.272829,0
1.9583689,7.1312218,0.13826123,0.2647686,0.96413076,0.018692717,0
-4.2403922,5.8811855,-1.4066799,-0.57413834,0.79629755,-0.19046088,0
6.880652,2.0613425,-1.820057,0.92858833,0.27819145,-0.24562842,0
0.77476525,-6.9462872,2.4383984,0.1046627,-0.93837088,0.32940218,0
3.4265451,6.2761564,2.3139248,0.45591888,0.83507383,0.30787921,0
-4.6472902,3.2537088,-4.6593804,-0.63303918,0.44320992,-0.63468605,0
-7.332891,-0.35302463,0.92921031,-0.99093711,-0.047706317,0.12556972,0
-5.073915,-5.3391871,0.8923158,-0.68386972,-0.71962345,0.12026763,0
-5.135149,-5.3033667,0.64143682,-0.69301015,-0.71571183,0.086564623,0
6.6375093,1.4988836,-3.0011921,0.89248723,0.20154163,-0.40354377,0
-0.90647173,3.4440641,-6.5787125,-0.12117271,0.46038568,-0.87941015,0
-1.9711882,7.1049285,0.84438634,-0.2656053,0.95734471,0.11377578,0
5.0156922,-4.1946154,3.3596914,0.68229979,-0.57060623,0.45702901,0
5.4820218,-2.307127,-4.5146604,0.73415691,-0.30897236,-0.60460705,0
3.5453653,5.4658852,3.6597328,0.47445121,0.73146081,0.4897562,0
0.7863608,-5.5772352,4.679769,0.1073845,-0.7616207,0.63906378,0
-4.8891253,-3.2649982,4.5403309,-0.65818316,-0.43954012,0.61122781,0
6.6672297,-2.9307189,1.365361,0.89978421,-0.39551878,0.18426397,0
0.65418154,-2.2571065,-7.0086145,0.08849737,-0.30534032,-0.94812208,0
-4.5215673,4.8064003,3.3178394,-0.61217451,0.65073806,0.44920194,0
5.3654871,-2.1340218,-4.5053921,0.73258919,-0.29137358,-0.61515409,0
-0.0033257126,-3.2451549,6.5982046,-0.0004522902,-0.44133452,0.8973425,0
3.5593247,2.4380884,-5.8478565,0.48978728,0.33549756,-0.80470484,0
1.7167271,1.6709538,7.0233426,0.23134346,0.22517511,0.94645464,0
6.4487495,-2.3784797,-2.6656423,0.87474,-0.32262865,-0.36158079,0
-2.5322106,6.2732673,3.028583,-0.3416349,0.84636211,0.40860334,0
5.9072685,1.8141683,3.9113984,0.80773032,0.24806029,0.53482503,0
6.5084004,-0.50171864,3.3758054,0.88562322,-0.068270795,0.4593589,0
4.0148578,2.8689396,-5.5411325,0.54109752,0.3866578,-0.74679935,0
-1.9837337,-6.9537234,1.9931334,-0.26446947,-0.92706382,0.26572266,0
-3.8903835,-2.260561,5.7872386,-0.53070635,-0.30837426,0.78946567,0
-3.5744131,-1.9105113,-6.1351247,-0.48611796,-0.25982833,-0.83437312,0
-3.5017903,1.1492943,-6.5351229,-0.46673429,0.15318309,-0.87103045,0
-7.0146036,-1.3617405,-1.9421487,-0.94730598,-0.18389989,-0.2622827,0
-0.847987,6.6333456,3.2463825,-0.11407389,0.89233863,0.43671364,0
-1.844094,-4.9121356,5.209908,-0.24940032,-0.66433066,0.70460218,0
-6.5644779,-2.3217688,2.1714127,-0.90002066,-0.31832537,0.29771087,0
-6.4491825,2.0207031,-3.1112394,-0.86681461,0.27159643,-0.41817203,0
3.9339941,-3.7682965,-5.2015629,0.52229667,-0.50029784,-0.69058543,0
6.3237348,-3.1700187,-2.2468097,0.85202026,-0.42710838,-0.30272099,0
-3.6795831,-0.5102458,-6.4901581,-0.4920485,-0.068232097,-0.86788976,0
-2.2415926,-2.2470715,6.6799879,-0.30309424,-0.30383506,0.90322649,0
1.4997253,2.8159513,-6.7187586,0.20163633,0.37860137,-0.90332925,0
-6.6102862,-1.8995713,-2.6960621,-0.89481103,-0.25713825,-0.36495638,0
-0.049313881,-3.8999386,-6.3091207,-0.0066484576,-0.52578658,-0.85059053,0
-4.3292527,6.0000272,-0.77077913,-0.58197683,0.80657727,-0.10361502,0
4.7791567,1.4592183,5.4846563,0.64412212,0.19666959,0.73920757,0
4.5846219,5.0242257,2.728395,0.62559485,0.68558103,0.37230331,0
-4.9290333,5.3288188,-1.2380027,-0.66936755,0.7236588,-0.16812198,0
3.2146058,3.6642699,-5.5832119,0.43372232,0.4943921,-0.75330037,0
-6.4631228,3.6223352,-0.63827407,-0.869115,0.487106,-0.085830577,0
-6.6815996,-3.0209413,0.25695464,-0.91063541,-0.41172415,0.035020355,0
-1.9944751,-0.56824267,-7.1377244,-0.26833084,-0.076449707,-0.96028852,0
2.7603958,-3.9341662,5.6300087,0.37290919,-0.53147697,0.76057279,0
0.95671767,1.3402587,-7.268198,0.12837708,0.1798425,-0.97528255,0
-6.0986285,-3.1888635,-2.8126981,-0.82030267,-0.42892158,-0.37832505,0
-6.1684079,3.9135988,-1.1768214,-0.83364159,0.52891099,-0.15904383,0
-1.2686422,-6.9835434,-2.4515221,-0.16894324,-0.92998838,-0.32646567,0
-3.8905604,-5.1141648,3.7503536,-0.52291203,-0.68737102,0.50406748,0
4.3813109,-5.7318888,-0.96586126,0.60191405,-0.78745937,-0.13269213,0
1.4926383,1.388441,-7.1907511,0.19970727,0.18576621,-0.96208525,0
7.3307381,-0.61727446,0.41859508,0.99486446,-0.083771154,0.056808107,0
1.0164728,4.4168377,-5.7751856,0.13845983,0.6016438,-0.78667247,0
-0.72278512,7.3180628,0.56890011,-0.09799622,0.99219322,0.077132277,0
-6.3196726,3.6266131,1.2552612,-0.85474169,0.49050283,0.16977526,0
6.8785238,0.53857243,2.7704518,0.92515177,0.072437234,0.37262186,0
-3.5420332,-6.260972,-1.8803352,-0.47639039,-0.84207761,-0.25289816,0
-3.0548735,1.7876158,-6.4919977,-0.41314584,0.24175994,-0.87798786,0
4.7440295,-5.3262491,2.2342739,0.63470334,-0.71259844,0.29892331,0
1.5109162,-7.1792126,0.6985541,0.20501836,-0.97415745,0.094787791,0
-4.7656884,1.7188485,5.5592756,-0.63361543,0.2285271,0.73912573,0
0.015161526,2.1018853,7.103394,0.0020466817,0.28373727,0.95889986,0
1.3134367,5.5449634,4.6855755,0.17803465,0.7516126,0.63512373,0
4.6039519,-4.1107397,3.9854934,0.62664205,-0.55951113,0.5424639,0
-1.7055216,-7.020288,-1.1894131,-0.23293923,-0.9588272,-0.1624494,0
0.29634148,-4.6610875,5.7144608,0.040153116,-0.63155919,0.77428722,0
6.5550675,2.30056,-2.7072468,0.87917674,0.30855501,-0.36310053,0
-2.6900785,6.4857192,2.2762179,-0.36444959,0.87867981,0.3083801,0
-3.5867074,-2.0525382,6.0790076,-0.48794577,-0.27923307,0.82700533,0
-3.9701669,0.15138316,-6.2999749,-0.53304124,0.020324955,-0.8458451,0
4.9517975,-3.846983,3.8700252,0.67201084,-0.52207589,0.52520299,0
-5.4712009,-4.9666848,-0.5191617,-0.73859972,-0.67049122,-0.070085652,0
3.4731619,5.7676053,-3.094161,0.46873903,0.77839786,-0.41758895,0
4.5145941,-1.4264956,5.7707725,0.60481137,-0.19110481,0.77309912,0
-5.6195521,2.3025992,-4.3270702,-0.75360763,0.30878907,-0.58027989,0
1.5422499,-4.9981508,-5.2592454,0.20791969,-0.67382979,-0.7090295,0
3.3762302,2.4484854,-6.2139382,0.45113939,0.32717207,-0.83032024,0
-7.1244907,0.96811509,-1.7945329,-0.96140093,0.13064046,-0.24215984,0
2.0367432,-6.0399299,3.621856,0.27781743,-0.82386327,0.49403122,0
2.5817175,5.700366,4.0329504,0.34678417,0.76569057,0.54171824,0
2.0174091,3.1039796,-6.30053,0.27606925,0.42475933,-0.86218637,0
-4.7600422,-5.147275,-2.3021915,-0.64506245,-0.69753873,-0.31198406,0
7.2914329,-1.6777529,0.0899124,0.97446376,-0.22422333,0.012016345,0
0.066174328,-4.4246159,5.850862,0.0090207187,-0.60315257,0.79757488,0
5.1904783,-3.2070656,4.0981536,0.70619607,-0.43634072,0.55757862,0
-3.6364872,-6.2313161,-1.7180725,-0.49032107,-0.84019148,-0.23165409,0
1.1365557,-2.9326782,-6.8004146,0.15169185,-0.39141363,-0.90762603,0
6.3615851,2.9849358,-2.0517478,0.86901325,0.40775195,-0.28027543,0
-5.5215816,-1.088479,4.7249465,-0.75140756,-0.14812629,0.64299703,0
-4.37748,1.4509143,5.7935281,-0.59116042,0.19593991,0.78239179,0
1.2676238,-4.8200917,-5.3574028,0.1732381,-0.65873134,-0.73216224,0
3.2250085,2.3468683,6.2442775,0.43525803,0.31674126,0.84274876,0
0.9836008,0.24280606,7.3705502,0.13220699,0.03263586,0.99068469,0
3.3565578,-6.4417191,-1.6882627,0.45009905,-0.86380506,-0.22638831,0
-0.62679565,0.95050848,7.3904119,-0.083823085,0.12711409,0.9883399,0
-5.9369297,-4.1711683,-1.1447408,-0.80824161,-0.5678544,-0.15584269,0
2.1475518,4.5113125,5.5679822,0.28706494,0.60303074,0.74427658,0
5.997159,4.1978922,-1.4766514,0.80306417,0.56212896,-0.19773459,0
2.8635993,-5.1505756,-4.439466,0.38811746,-0.69808245,-0.60170233,0
-4.2365928,3.5157783,4.8750443,-0.57612479,0.47810283,0.66294634,0
6.10811,-1.7033222,3.775825,0.82763612,-0.23079661,0.51161641,0
-3.4673676,-6.1142883,-2.1992633,-0.4707869,-0.83017641,-0.29860818,0
-4.875772,-4.325408,3.4928215,-0.65935719,-0.58493072,0.47233894,0
7.2120543,-1.385036,1.5855265,0.95993674,-0.18435065,0.21103628,0
1.9419887,1.232299,-7.1445351,0.2587381,0.1641836,-0.95189202,0
-3.5433602,-6.426888,-0.38600957,-0.48214877,-0.87451345,-0.052524731,0
5.1284595,-4.3887529,-2.9198649,0.69732785,-0.59674835,-0.39702043,0
-3.7214592,6.1719079,1.5424834,-0.50492811,0.83740532,0.20928437,0
3.6123326,-5.8659511,2.6466081,0.48948288,-0.79485554,0.35862404,0
-4.6191435,5.7771792,-0.27872482,-0.6240378,0.78048629,-0.037655212,0
-5.0697255,3.2673967,-4.1843662,-0.69062573,0.44510263,-0.57001728,0
-5.0247445,-2.1272774,-4.9544182,-0.68176639,-0.28863284,-0.6722244,0
-6.457406,-3.3842428,-0.710944,-0.88154882,-0.46200833,-0.097056285,0
-2.0085149,7.0910063,-0.42029372,-0.27208468,0.96058744,-0.056935344,0
-5.2647676,5.2219844,0.049034622,-0.70997018,0.70420069,0.0066124699,0
7.3389707,0.76705945,0.55290824,0.99180192,0.10366182,0.074721031,0
-1.1957396,-4.8266292,-5.3842311,-0.16314901,-0.65855455,-0.73463482,0
5.7098131,-1.1521031,-4.6275773,0.76751608,-0.15486629,-0.62204134,0
1.9609134,0.60983747,7.0491714,0.26707438,0.083059229,0.96008986,0
-6.4497323,3.2690113,1.0453784,-0.88279396,0.44743925,0.14308403,0
5.6174502,-3.0741694,-3.7261004,0.75821483,-0.41493574,-0.50293005,0
-2.8986399,-2.3159125,-6.3968663,-0.39197496,-0.31317437,-0.86503035,0
-2.996223,4.9568682,4.4648795,-0.40970013,0.67779648,0.61052251,0
-4.4954786,-4.6721816,3.4919209,-0.61044657,-0.63444126,0.47417223,0
6.0802703,2.3240986,-3.4885299,0.82330638,0.31469738,-0.47236863,0
3.275147,-3.1854813,-5.8910193,0.43931839,-0.42729089,-0.79020363,0
-5.4342055,2.1601624,4.6686563,-0.72622007,0.28868127,0.62391305,0
4.539669,-5.7790546,1.3898612,0.60697609,-0.77268803,0.18583128,0
-3.9505255,3.3831038,-5.0979447,-0.54243624,0.46452504,-0.69998533,0
5.3301601,5.0423551,0.78429484,0.7223323,0.68332958,0.10628602,0
6.5361981,3.447052,0.52026182,0.88234621,0.46533063,0.070232116,0
0.079318441,5.5829496,4.867496,0.010708141,0.75370884,0.65712124,0
-7.1183476,2.0859687,0.0056984164,-0.95964438,0.28121528,0.00076821947,0
-1.686304,-0.62864512,7.1471863,-0.22879769,-0.08529456,0.96973008,0
-5.4564428,-4.4213619,-2.732944,-0.72405732,-0.58670449,-0.36265534,0
2.7103288,-6.8437586,-1.0721753,0.36436105,-0.9200356,-0.14413708,0
-6.7706537,1.0063701,-2.8426738,-0.91349196,0.13577875,-0.3835316,0
6.2665,-3.9837275,0.42993549,0.84249717,-0.53559071,0.05780251,0
-5.994925,-3.8341796,-2.046551,-0.80961931,-0.51780897,-0.27638832,0
0.77721655,4.2700491,6.002068,0.10493138,0.57649589,0.81033438,0
-1.5295402,-0.805287,-7.2368431,-0.2055717,-0.10823136,-0.97263879,0
-4.4683194,-5.6211843,-1.624575,-0.60692245,-0.76351368,-0.22066262,0
6.8433719,-1.8860826,2.0003736,0.92791557,-0.25574023,0.27123731,0
-1.4684352,-3.2551889,6.6257906,-0.19509259,-0.43247619,0.88028586,0
-2.5192347,-2.8474748,-6.3037648,-0.34221622,-0.38680482,-0.85631192,0
3.928663,3.4010634,-5.2130952,0.53374439,0.46206522,-0.70824611,0
2.9479303,1.8433988,-6.639811,0.39331791,0.24594943,-0.88589495,0
-0.20554219,2.1308253,7.0309153,-0.027966494,0.28992447,0.95664078,0
-5.1099234,-1.8540119,4.9169302,-0.69715071,-0.25294423,0.67082047,0
4.2890525,3.2769136,5.0984783,0.57766068,0.44134322,0.68667626,0
0.83870584,3.4496686,6.4681196,0.11367102,0.4675386,0.87663364,0
-0.23613073,-3.9758978,-6.2532763,-0.031849422,-0.53627092,-0.84344476,0
-6.9866633,-2.6690691,-0.53185314,-0.93180144,-0.35596997,-0.0709325,0
-3.5587363,2.6106002,5.9589758,-0.47990689,0.35204771,0.80358678,0
2.8742094,0.87091184,6.7016401,0.39137849,0.11859128,0.91255629,0
-6.0976992,-1.6608094,-3.7308381,-0.83087432,-0.22630239,-0.50836509,0
-4.8947887,1.7039274,5.1906066,-0.66730404,0.23229554,0.70763272,0
-1.4784865,1.7681487,6.9829335,-0.20105951,0.24045068,0.9496097,0
-6.7098122,0.44538039,-3.0876758,-0.90678364,0.060190011,-0.41727754,0
4.2092552,-3.0672019,5.2806988,0.5675174,-0.41353881,0.71197593,0
2.0590134,-2.4042816,6.6931529,0.2780968,-0.3247298,0.9039982,0
5.674839,3.9690251,-2.8359771,0.7583341,0.5303846,-0.37897432,0
6.9279857,2.2106135,0.81025809,0.94681799,0.30211505,0.11073449,0
-0.52808017,7.0015044,-2.5801537,-0.070594706,0.93597376,-0.34491959,0
-1.9161845,5.6759562,-4.4344463,-0.25709006,0.76152998,-0.5949595,0
5.2106714,-5.3128572,-0.68494952,0.69726026,-0.7109341,-0.091655761,0
-4.1831851,-0.62830335,5.953577,-0.57277644,-0.086029507,0.81518471,0
3.7556336,6.002418,1.9209008,0.51191348,0.81816256,0.26182932,0
3.7257366,4.9942946,-3.8311329,0.50936425,0.68279523,-0.52377355,0
6.0774531,4.295505,0.39859411,0.8154484,0.57635373,0.053481769,0
-0.49154717,-1.7816956,7.165803,-0.066422388,-0.24075913,0.96830934,0
-2.0935214,-0.54747093,-7.1589456,-0.27992591,-0.073202647,-0.95722663,0
-4.7032981,0.26275876,-5.8064804,-0.6290369,0.035142355,-0.77658069,0
-1.7165246,-7.2962008,-0.13907523,-0.22897103,-0.97325647,-0.018551555,0
-5.7055964,2.0698829,-4.3790507,-0.76234484,0.27656433,-0.58510041,0
-3.9789648,3.4689455,4.9831495,-0.54811919,0.47786188,0.68644989,0
-0.88912898,-0.93879312,7.2624316,-0.12053309,-0.12726571,0.98451775,0
2.7354336,-5.7649956,3.8751271,0.36640769,-0.77221352,0.51906812,0
4.691412,-5.5425425,-1.6036617,0.63086677,-0.74532056,-0.2156487,0
3.8868165,4.0699811,-4.6428442,0.53275019,0.55785578,-0.63637584,0
0.53025609,4.2323256,5.9723663,0.072250485,0.57667899,0.8137697,0
1.4273496,-3.5751891,-6.3318701,0.19261813,-0.48246503,-0.85447395,0
2.1368489,5.3085518,4.7005496,0.28854737,0.71683526,0.63473427,0
1.5198898,5.8648305,4.2412319,0.20551375,0.79302019,0.57348335,0
6.3691468,-3.2199376,-1.7636802,0.86637342,-0.43799719,-0.23990744,0
-2.6689308,-0.98335594,-6.7514472,-0.36430281,-0.13422579,-0.92155677,0
4.4015031,4.232574,4.1572952,0.59582675,0.57295901,0.56276858,0
-1.9397318,-6.5764084,-2.9601138,-0.25973225,-0.88058841,-0.39636251,0
-4.2210608,-0.70033062,-6.1068759,-0.56607944,-0.093920179,-0.81898296,0
-5.2516956,-5.1647425,1.1852868,-0.70392895,-0.69227386,0.15887396,0
-2.7502728,-6.0043788,3.3627584,-0.37110081,-0.81018502,0.45374495,0
4.3207703,-0.67495978,-5.9543219,0.58485752,-0.091362253,-0.8059743,0
7.4207058,0.48732778,0.89637691,0.99067998,0.065059297,0.11966822,0
-4.878336,5.3148689,-1.5072732,-0.66191214,0.72114271,-0.20451286,0
-4.2758131,5.7603998,2.161382,-0.57068521,0.76883036,0.28847581,0
2.3142951,6.5483193,-2.8464541,0.30832952,0.87242126,-0.37922817,0
-0.11728865,3.9067757,-6.1855021,-0.016029818,0.53393835,-0.84537143,0
3.6972661,-5.5587373,3.1283164,0.50148523,-0.75396919,0.42431474,0
-1.6480305,-2.833338,6.5280032,-0.22561237,-0.38787881,0.89367169,0
-0.69470167,-6.6782966,-3.2330949,-0.093221128,-0.89615208,-0.43384486,0
0.96147013,7.3321424,0.50157136,0.12971973,0.9892388,0.067671061,0
-1.1895915,6.7290583,2.5833485,-0.16283703,0.92110592,0.35362121,0
6.1942129,4.0096078,-0.2758415,0.83888602,0.54302359,-0.037357382,0
4.3356066,-2.5339754,-5.3823032,0.58897853,-0.34423262,-0.73116904,0
-2.5867183,6.7625918,-1.3842649,-0.35090497,0.91738909,-0.18778445,0
2.6208766,6.3842664,-2.612993,0.35516107,0.86514676,-0.35409275,0
-2.3839126,0.54554182,7.0237947,-0.32053202,0.073351525,0.94439334,0
0.82417303,1.5601039,-7.2239084,0.11083158,0.20979671,-0.97144312,0
4.8864365,-3.6200702,4.1600099,0.66319454,-0.49132138,0.56460279,0
5.7371502,4.3489742,-1.3662295,0.7829411,0.59349859,-0.18644749,0
3.0782166,-6.0290642,-2.8604984,0.41886318,-0.82039487,-0.38923755,0
-2.3285789,-7.1000385,0.15751167,-0.31156573,-0.94999081,0.021075187,0
-0.84629363,-5.0561385,-5.455183,-0.11305061,-0.67541516,-0.72872078,0
6.1104679,2.936245,2.8729248,0.82989383,0.39878643,0.39018658,0
3.9617531,-2.5835876,-5.534441,0.54418635,-0.35488155,-0.76021069,0
-3.5892458,6.0890961,2.0283678,-0.48809993,0.82805347,0.27583683,0
-5.8304696,3.1675096,-3.1030319,-0.79596353,0.4324218,-0.42361945,0
2.3686318,-6.701961,-1.734038,0.32373106,-0.91598576,-0.23699841,0
-5.5640264,2.3104107,-4.3481565,-0.74887347,0.3109628,-0.58522707,0
6.8768115,1.6899281,2.2056057,0.92717564,0.22784689,0.29737386,0
6.9488411,-2.2315836,0.77369666,0.94680208,-0.30406049,0.10541867,0
4.865478,-3.2220623,4.5351801,0.65832454,-0.43596181,0.61363351,0
0.096802101,-0.4583624,-7.2918696,0.013248035,-0.062730052,-0.99794263,0
-6.6662655,0.15832001,3.4827707,-0.88613111,0.021045109,0.46295658,0
6.30161,3.0614057,-2.1784422,0.85890865,0.4172692,-0.2969214,0
0.23850834,-1.0980901,7.2367711,0.032567568,-0.14994076,0.98815846,0
7.1403656,-0.060412984,-2.0418458,0.96143019,-0.0081344387,-0.27492881,0
7.2605667,-1.3124483,0.70407099,0.97960198,-0.17707667,0.094993867,0
-3.7408569,5.6353745,2.9303977,-0.50747716,0.76448363,0.3975319,0
4.8770084,3.2488296,4.705759,0.64891785,0.43227801,0.62613201,0
2.8718634,-4.8814921,4.7597737,0.38818887,-0.65982974,0.64337713,0
-4.9888024,-5.1740584,1.9589038,-0.66967511,-0.69454306,0.26295471,0
0.98908275,-7.2546616,-0.32995614,0.13495086,-0.98982906,-0.045019355,0
-6.798739,2.2915709,-1.6850382,-0.92251718,0.31094199,-0.22864191,0
3.4977255,-2.0288122,-6.2084537,0.47208378,-0.27382633,-0.83794749,0
2.3006787,3.3247201,6.0949841,0.31455493,0.4545646,0.83332247,0
-4.7082286,5.7314911,0.26744559,-0.63434476,0.77221,0.036033235,0
1.7602172,6.0332451,4.0273128,0.23581414,0.80826646,0.53953415,0
-4.9032984,-4.7435932,-2.9574175,-0.65942246,-0.63794446,-0.39772972,0
-5.0908074,-4.2144413,3.3930531,-0.68525773,-0.56729281,0.45672831,0
4.3246431,2.1177511,5.561326,0.5878796,0.28788102,0.75599074,0
-1.0948329,1.4027874,7.1795225,-0.14801526,0.18964899,0.97063112,0
-2.1149228,6.9531732,1.1718855,-0.28729203,0.94452208,0.15918945,0
2.0478616,1.936214,6.7725205,0.27917102,0.26395085,0.92325157,0
5.5581489,-0.57238579,-4.7379751,0.75869673,-0.078131631,-0.64674163,0
-0.41797996,7.3909645,0.042365931,-0.056461684,0.99838835,0.0057228864,0
-1.2395581,-5.1806316,-5.2290649,-0.16606072,-0.6940372,-0.7005257,0
0.090752617,5.4677587,5.0537858,0.012187833,0.73430532,0.67870986,0
-7.205183,0.42526716,1.6814729,-0.97222865,0.057383262,0.22688891,0
3.7119768,-0.64473373,6.3200588,0.50449371,-0.087625578,0.85895741,0
-5.1023803,-0.090629607,5.252502,-0.69672883,-0.012375452,0.71722788,0
-3.3023765,6.031848,2.6292415,-0.44855919,0.81930119,0.35712782,0
-1.296006,7.0299535,-1.9575239,-0.17486189,0.94850713,-0.26411632,0
2.8797822,5.8328052,3.6448066,0.38621104,0.78224444,0.48880938,0
2.8738706,-6.7896209,0.76899064,0.3876909,-0.91593343,0.10373838,0
3.4757438,6.5919991,0.48691294,0.46541283,0.882689,0.065199144,0
-3.0254896,-6.0043478,-3.3553689,-0.40263245,-0.79905915,-0.44653282,0
0.22985615,-7.1543021,1.6630057,0.031278748,-0.97355503,0.22630125,0
2.5079997,0.47282401,-6.8908362,0.34130421,0.064344838,-0.93774796,0
6.8494387,-0.58573389,-2.69893,0.92744678,-0.07931117,-0.36544803,0
-2.6625679,-5.8231001,-3.5882418,-0.3627556,-0.79335523,-0.48887196,0
-6.1281853,-0.24861635,4.1880736,-0.82515174,-0.03347585,0.56391835,0
1.3358518,4.6316743,5.5483685,0.18175057,0.63016677,0.75488847,0
-3.5631361,-6.4110775,-0.96899319,-0.4816069,-0.86654538,-0.13097277,0
-3.3767965,2.0539708,-6.2841249,-0.45486519,0.27667639,-0.84649152,0
-5.6983876,4.6764355,0.99669129,-0.76604754,0.62866414,0.13398753,0
5.2958322,-4.0397058,3.3265579,0.711308,-0.54259175,0.44680554,0
6.9593883,2.7131884,-0.45167646,0.92999989,0.36256993,-0.060358617,0
-2.4184628,0.62552679,-6.8609281,-0.33122608,0.085670449,-0.93965411,0
6.5720344,2.7456734,1.9486989,0.89000183,0.37182617,0.26389784,0
-1.6602246,-6.8538799,2.1295266,-0.22537167,-0.93039846,0.28907835,0
1.462934,-0.54503942,7.213336,0.19822033,-0.073850147,0.97737139,0
4.2464399,-5.9791117,-1.2092371,0.5713225,-0.80443877,-0.16269261,0
2.8449502,0.078006111,-6.7838635,0.38671696,0.01060345,-0.92213744,0
0.039135993,-2.9267635,6.7223797,0.0053377147,-0.39917803,0.9168579,0
2.8321865,-5.0882192,4.5285349,0.38392556,-0.68974888,0.6138792,0
0.73290968,-7.249588,-0.29391557,0.1005023,-0.99412012,-0.040303998,0
0.5259465,-3.9876552,6.3008285,0.070358954,-0.53345209,0.84289885,0
-3.3493559,5.6951089,3.4508874,-0.44934091,0.76404107,0.46296212,0
-1.8516878,6.8292956,-2.2939696,-0.24893512,0.91810912,-0.3083941,0
4.0772715,5.8904877,-2.2142525,0.5437575,0.7855736,-0.29529953,0
-7.1089044,1.0181556,-1.7885509,-0.96055686,0.13757342,-0.24166942,0
-1.1512179,-6.4869971,-3.4003046,-0.15527466,-0.87495703,-0.4586283,0
5.6885748,3.2714841,3.3628645,0.77146888,0.44366971,0.45606244,0
-6.0932145,0.0059049488,-4.1054411,-0.82932013,0.00080369617,-0.55877322,0
4.9953933,2.5952709,-4.5970626,0.6873228,0.35708675,-0.63251597,0
4.5636997,-4.6703396,-3.5204947,0.61518288,-0.62955785,-0.47455975,0
6.0881042,-0.32128632,-4.16923,0.82429343,-0.043500274,-0.56448919,0
1.4454612,4.4774604,5.7993979,0.19355571,0.59955817,0.77657336,0
4.0783305,-4.6829977,-3.9858046,0.55269295,-0.63463712,-0.54015392,0
1.8585891,-6.9930758,1.6694397,0.25028354,-0.94170994,0.22481209,0
-6.8265371,-0.16489825,2.657131,-0.93165952,-0.022504678,0.36263499,0
2.8970082,-0.11748998,-6.8841219,0.38783053,-0.01572871,-0.92159653,0
-3.8234544,3.9334917,-5.1221371,-0.50944334,0.52410489,-0.68248194,0
2.8333125,-4.8435335,-4.7934728,0.38391608,-0.65630257,-0.64951932,0
3.4689417,5.8261342,2.8380089,0.47192472,0.79260391,0.38609082,0
-4.7818022,5.5902448,0.81530601,-0.64606452,0.75529236,0.11015518,0
2.3392708,-5.2488675,-4.6664786,0.31600568,-0.70905513,-0.63038182,0
-4.7517991,0.98536766,-5.6039243,-0.64099759,0.13292192,-0.75594562,0
-7.3512053,-0.72379458,0.030723669,-0.99517924,-0.097984657,0.0041592577,0
7.2424541,0.29357523,-1.6706761,0.97365141,0.039467275,-0.22460014,0
6.6178746,-0.5294615,3.3821642,0.88820028,-0.071060255,0.45392808,0
-2.7960043,0.098758154,-6.9501143,-0.37319395,0.013181648,-0.92765969,0
1.6087378,-0.52977079,-7.10043,0.22038579,-0.072574884,-0.97270906,0
-4.7722735,-5.5139041,0.76577437,-0.65084708,-0.75199133,0.10443702,0
-0.3129411,-6.2186813,-4.0075788,-0.042262096,-0.83982098,-0.54121584,0
-3.6866086,3.2924941,-5.5638323,-0.49535877,0.44240278,-0.74759585,0
-3.1299512,6.6885467,-1.0258896,-0.41981316,0.89711934,-0.13760021,0
3.1206877,2.6299279,6.2869039,0.41634947,0.35087427,0.83877313,0
-3.3208897,-3.597887,-5.6036739,-0.44627285,-0.48349673,-0.75304145,0
-6.088634,-3.6529524,2.4218779,-0.81159413,-0.48692608,0.32282805,0
2.5444036,-6.8097701,1.3861401,0.34381214,-0.92016912,0.18730196,0
-3.0889578,-1.1508964,-6.6577635,-0.41578972,-0.15491663,-0.89616948,0
0.009997881,4.3032351,6.1676931,0.0013294118,0.57219839,0.8201142,0
2.05321,-6.6472359,2.7238462,0.27481189,-0.88969928,0.36457321,0
-1.1116461,-1.406919,7.1390514,-0.15102266,-0.19113696,0.96987569,0
1.3979155,-7.1506519,1.1388521,0.1895612,-0.96964812,0.15443149,0
7.2412543,0.21824858,-1.0957311,0.98830563,0.029787146,-0.14954829,0
-6.3960543,1.8696629,-3.4859188,-0.85049117,0.24861136,-0.46352687,0
-2.5968347,0.77634013,6.9079533,-0.34994698,0.10461885,0.93090922,0
4.4003034,-5.680079,-1.6520597,0.59684533,-0.77043068,-0.22408094,0
7.0073771,0.30897814,2.1411433,0.95550239,0.042131219,0.29195911,0
-3.5507352,4.550036,-4.6497297,-0.47908366,0.61391455,-0.62736571,0
-5.1008425,3.8233142,-3.7800615,-0.68826568,0.51588655,-0.51005036,0
5.7969766,-4.1293588,1.7749774,0.79028147,-0.56294101,0.24197645,0
4.3824697,-1.0546427,5.8890209,0.59093809,-0.14220944,0.79408354,0
-3.8557644,6.2523618,-1.3992079,-0.51563168,0.83612889,-0.18711621,0
-6.5762506,2.871995,-2.3144491,-0.8721779,0.38089952,-0.30695474,0
6.5032091,-1.4740818,-3.0286405,0.88796169,-0.20127419,-0.41353688,0
3.4685817,-6.1110787,-2.1316071,0.47236383,-0.83222848,-0.29028985,0
2.7101812,5.3034606,4.4195051,0.36542812,0.71509379,0.59590536,0
-4.4522324,-4.824707,3.389148,-0.60260844,-0.65302277,0.45872027,0
-3.6806653,-2.7005267,5.8419113,-0.49644494,-0.3642447,0.78795195,0
-5.0505886,5.0738263,2.2255549,-0.67367983,0.67677939,0.29685876,0
-7.3349137,-0.60956955,-1.214862,-0.98326045,-0.081714064,-0.16285478,0
0.20422383,7.1331744,-1.6794505,0.027857339,0.97300726,-0.229087,0
-6.3204079,1.3337494,-3.4609625,-0.86245996,0.18199861,-0.4722704,0
-4.2863898,-5.2703943,2.658103,-0.5875864,-0.72247565,0.3643778,0
-4.7267003,-0.031422801,-5.611815,-0.64420652,-0.0042826436,-0.76483965,0
4.7190065,4.5380125,3.4053881,0.63946199,0.61493593,0.46145651,0
-2.5201018,-3.7455869,-5.9157572,-0.33865327,-0.50333494,-0.79496413,0
0.7965188,-0.81175405,7.3722048,0.10678041,-0.10882283,0.98830938,0
-2.9891129,3.9757533,-5.4869847,-0.40360847,0.53683078,-0.74088657,0
4.0601058,6.1018252,-0.56931406,0.55230153,0.83003932,-0.077444546,0
2.6542723,-6.5754962,2.4381223,0.35397613,-0.87691408,0.32515016,0
3.5914471,5.821857,3.1622868,0.4765667,0.77253073,0.41961932,0
-0.59702033,-3.1069419,-6.7179017,-0.080400139,-0.41840881,-0.90469325,0
4.954586,-0.76533252,-5.5852017,0.66015315,-0.10197354,-0.74417692,0
1.3827423,7.3468223,-0.21882142,0.18488295,0.9823249,-0.029258056,0
-0.89850146,4.6809235,-5.617485,-0.12196098,0.63538021,-0.76250738,0
0.88352686,-0.31867176,7.2890773,0.12021851,-0.043360587,0.99180007,0
-1.510667,7.1085339,-1.4543277,-0.20383094,0.95913869,-0.1962292,0
-6.4692731,-3.2457068,-1.8624188,-0.86561662,-0.43428954,-0.24919966,0
-5.0602074,1.1077366,-5.0874305,-0.69695115,0.15257049,-0.70070064,0
-6.1194344,-2.791918,3.2326519,-0.81999952,-0.3741149,0.43317291,0
-4.9863687,1.8189895,5.2731347,-0.6664592,0.24311927,0.70478731,0
2.3612685,-0.50265586,6.9871297,0.31941649,-0.067995898,0.94517177,0
1.5600811,-1.4571459,-7.1980047,0.20779224,-0.19408196,-0.95872545,0
-1.2309757,3.1503134,6.532589,-0.16733727,0.4282496,0.88803184,0
-4.9953814,-1.577109,5.2786684,-0.67171443,-0.21206927,0.70980722,0
-0.47316846,4.6910682,5.7047257,-0.063933566,0.63384765,0.77081102,0
5.6387239,-1.6492666,4.6722574,0.75119394,-0.21971622,0.62244076,0
5.736588,3.7117937,-2.885258,0.77344704,0.50045007,-0.38901073,0
5.3629761,2.8200276,4.3587732,0.71850151,0.37781152,0.58396405,0
-2.5068359,4.8091202,5.0176592,-0.33929253,0.65089959,0.67912471,0
3.0238857,3.7914419,5.4934402,0.41265884,0.5174045,0.74967009,0
1.1190904,7.314034,1.133208,0.14950256,0.97710311,0.15138857,0
-3.9589291,5.8798733,1.9496665,-0.53850657,0.79979968,0.26520005,0
-4.0604658,-0.10243996,-6.2122927,-0.54706341,-0.013801657,-0.83697736,0
4.9003448,5.0935321,2.4890268,0.65394515,0.67972571,0.33215764,0
-5.0144315,4.1485553,3.6074269,-0.6738916,0.55752617,0.48480368,0
2.717483,4.0754957,-5.6801267,0.3623046,0.54335976,-0.75729489,0
2.51531,-5.6689501,3.9808681,0.34130862,-0.76923382,0.54017383,0
-1.2682799,1.947945,-6.9717345,-0.17257808,0.26506183,-0.94866168,0
7.3452106,0.16212143,-0.20917162,0.99935156,0.022057408,-0.028458815,0
-1.2721543,-6.1484118,3.7773125,-0.17361826,-0.8391093,0.51551169,0
0.63929147,4.3600831,-5.8959723,0.08685071,0.59233749,-0.80099517,0
2.8346014,-5.451467,-4.2712317,0.37880009,-0.72850323,-0.57078326,0
-3.7674439,-3.7893982,-5.1197619,-0.50909019,-0.51205683,-0.6918273,0
-3.56652,4.47753,4.7734284,-0.47850576,0.60073233,0.64043188,0
2.3454096,-6.9264121,0.54919922,0.31982866,-0.944511,0.074890822,0
4.9402685,-3.2467966,-4.4963102,0.66515023,-0.43714374,-0.60537636,0
-2.00173,4.6423712,5.4311466,-0.2697762,0.62565941,0.73196387,0
-5.3262329,1.8008207,4.6549997,-0.72968435,0.24670921,0.6377266,0
1.794421,5.7879682,4.2086396,0.24321622,0.78450245,0.57043993,0
5.0735302,-4.8644629,1.9620765,0.69524258,-0.66659337,0.26886982,0
-5.7101507,1.0375078,4.6498928,-0.76783925,0.13951281,0.62526721,0
-0.65322566,-3.1276536,6.66047,-0.08842665,-0.42338803,0.90162265,0
-2.5802681,-6.2305131,3.021647,-0.34917167,-0.84313667,0.40890071,0
-1.8647693,-1.1164964,-7.050498,-0.25275061,-0.15132979,-0.95562357,0
-4.9448709,2.6110799,4.8243761,-0.66954702,0.35354629,0.65323174,0
6.9822183,-2.1496315,-0.65699929,0.95188922,-0.2930603,-0.089569032,0
0.15740241,7.4166193,0.98555481,0.021033343,0.99106675,0.13169755,0
-4.3100805,-5.0146694,3.3571079,-0.58120346,-0.67621553,0.45269752,0
1.4434234,-6.1930051,3.8667543,0.19394726,-0.83213031,0.51956093,0
5.6213098,-4.5991769,1.3059263,0.76174688,-0.62323707,0.17696682,0
-0.55177033,1.2945263,-7.2100892,-0.075110331,0.17621879,-0.98148119,0
-5.8943067,-4.072885,1.4700849,-0.80591029,-0.55687296,0.20100015,0
5.8237863,4.4901891,-1.080227,0.78353477,0.60411197,-0.14533421,0
3.9767196,-1.7274122,5.9967856,0.53739607,-0.23343474,0.81037873,0
4.4239898,0.92466354,5.8224316,0.60021198,0.12545104,0.78994149,0
1.1907809,3.4889436,6.4994397,0.15936202,0.46692476,0.86981899,0
4.1340418,5.8677449,-2.2560415,0.54944789,0.77987123,-0.29984635,0
-2.2304072,-6.1168861,-3.423315,-0.30321103,-0.83155549,-0.46538001,0
-6.7309532,-2.8304565,1.0529339,-0.91237599,-0.3836664,0.14272445,0
0.59867918,5.1937933,5.2197723,0.081035942,0.70302081,0.70653725,0
0.61507082,7.2414846,-1.5865306,0.082685083,0.97348589,-0.21328019,0
0.96388537,-5.9038477,4.4277029,0.12951303,-0.79327393,0.59493089,0
2.9331729,0.0035704614,6.7278652,0.3996442,0.00048647463,0.9166702,0
5.1138039,-5.4141726,-0.33026436,0.68597907,-0.72627133,-0.044302527,0
4.1506643,1.390348,-5.9714341,0.56059813,0.18778354,-0.8065154,0
1.8963456,-1.2504648,-7.0433893,0.25624159,-0.16896766,-0.95173013,0
-0.51694012,-3.2645702,-6.6342034,-0.069743954,-0.44044569,-0.89506614,0
6.2992859,0.78032631,3.8720686,0.84722,0.10494968,0.52077234,0
7.0932531,1.2795012,1.5751992,0.96142602,0.17342477,0.21350394,0
3.058876,6.0817471,3.1239271,0.40838304,0.81195915,0.41706786,0
0.37631696,2.0230329,-7.0604196,0.051170561,0.27508655,-0.96005678,0
-7.1782932,1.3501359,1.0734977,-0.97232252,0.18288018,0.14540866,0
7.1662531,1.6386511,1.4614685,0.95612741,0.21863018,0.19499032,0
-3.4394307,5.6670151,-3.0971642,-0.47006604,0.77450937,-0.42328855,0
-3.409528,-1.3373564,6.4668283,-0.45876881,-0.1799479,0.87014365,0
-3.8196197,-6.1759028,1.4602309,-0.51567751,-0.83379352,0.19714221,0
2.6119721,6.9099755,0.85096717,0.35125971,0.92925799,0.11443862,0
1.2703289,-4.9114218,-5.4439425,0.17071427,-0.66002578,-0.73158908,0
-4.2808027,2.7388184,-5.2730742,-0.58454025,0.3739835,-0.72003412,0
-5.7124362,-4.6428761,0.12799689,-0.77589554,-0.63062179,0.017385265,0
6.9652343,-1.609527,-1.6152154,0.95036846,-0.21961124,-0.2203874,0
-3.5696099,-0.37030736,-6.3532195,-0.48920509,-0.050749592,-0.87069106,0
-1.4292123,-4.4155755,5.7028508,-0.19437878,-0.60053653,0.77561128,0
-1.0146903,-7.3418884,-0.47920686,-0.13661906,-0.98852026,-0.064520963,0
-0.38805741,-5.8418984,-4.6905951,-0.051727172,-0.7787118,-0.62524569,0
-3.6290755,-2.5973835,-5.9203625,-0.48949006,-0.35033533,-0.79853904,0
-0.88584101,-4.3856277,5.920249,-0.11937323,-0.59099382,0.7977947,0
-6.1255918,4.090178,-0.55970126,-0.82925516,0.55370998,-0.075769849,0
2.3807611,0.2980918,6.9540057,0.32363591,0.040522002,0.94531357,0
-1.1817877,6.8488417,2.2585597,-0.16171531,0.9371925,0.30906034,0
-7.3731284,-0.70943063,-0.23123181,-0.99491829,-0.095729448,-0.031202054,0
-5.865427,-3.1740088,3.1936955,-0.79322475,-0.42924452,0.43190691,0
-0.6460458,4.2061443,5.9857459,-0.08796607,0.57271165,0.81502348,0
-6.762002,1.7071348,-2.6819873,-0.90496874,0.22846839,-0.35893431,0
2.8721635,0.61397821,-6.8872805,0.38360038,0.082001694,-0.91985136,0
3.9171958,4.4740248,-4.2998142,0.53380615,0.60968661,-0.5859465,0
4.7904754,-4.8457818,2.8404055,0.64891481,-0.65640658,0.38475955,0
4.3437104,-2.4058793,5.3965054,0.59232104,-0.3280727,0.73588318,0
4.2253308,-2.4690342,5.614028,0.56734067,-0.33152044,0.7538029,0
-3.4892006,-0.29692993,6.4990568,-0.47263512,-0.040221106,0.88033986,0
5.3454552,-1.753703,-4.9041276,0.71623862,-0.23497903,-0.65710509,0
4.7117209,5.5754733,-1.6784426,0.62904978,0.74436712,-0.22408457,0
6.8874154,0.088168003,-2.5754802,0.93658787,0.01198956,-0.35022768,0
-7.3668094,0.70396495,0.91165841,-0.98799658,0.094411962,0.12226669,0
-3.2757576,3.183569,-5.8771567,-0.44007906,0.42769408,-0.78956199,0
-4.5652719,5.5285192,1.5716822,-0.62196696,0.75319856,0.21412402,0
2.040838,0.36158308,-7.0932612,0.27616712,0.048929587,-0.95986331,0
2.2472365,-2.2248063,6.6438637,0.30541235,-0.30236396,0.90293926,0
-5.9258084,-2.2177229,-3.9131043,-0.79653513,-0.29810181,-0.5259915,0
6.636467,0.24857992,-3.033556,0.90896052,0.034046631,-0.41548955,0
4.79287,-1.7074515,-5.4257007,0.64436817,-0.22955501,-0.72944784,0
-0.42367086,3.5703459,-6.439734,-0.057443507,0.48408616,-0.87313277,0
1.4340825,-1.5002338,7.1845226,0.19176638,-0.20061217,0.96071869,0
2.3596594,-1.8197674,6.886888,0.31445703,-0.24250899,0.91777241,0
2.092196,6.6018782,2.5421524,0.28359899,0.89489037,0.34459096,0
-1.7081332,-2.3384767,6.783587,-0.23158441,-0.31704479,0.91970176,0
-5.1550007,-0.48516631,5.1626973,-0.70502198,-0.066353612,0.7060746,0
3.2760744,6.7070613,-0.55187058,0.4376983,0.89609361,-0.073732398,0
-5.632009,0.55680126,-4.7663713,-0.76116675,0.075251766,-0.64417571,0
5.9261913,1.613896,4.0853033,0.80337799,0.21878614,0.55381989,0
2.7261121,-6.7174206,1.4943874,0.36829728,-0.90752238,0.20189148,0
-4.5959754,-1.8429861,-5.5023065,-0.62087959,-0.24897271,-0.74331766,0
-3.3383262,-2.8070657,6.036881,-0.44823691,-0.37690461,0.81057173,0
-2.2282827,-6.9573288,-0.22912352,-0.3048664,-0.95187908,-0.031347934,0
-2.218112,2.4876459,6.5712714,-0.30103952,0.33762032,0.89184511,0
2.145334,6.0148711,-3.917237,0.28636065,0.80286908,-0.52287549,0
-0.53279096,2.4208694,-6.8873415,-0.072787315,0.33072743,-0.94091523,0
2.6439242,-5.6110005,3.9131992,0.36050493,-0.76507235,0.53357339,0
-5.9145761,3.5217831,2.3864291,-0.81181538,0.48338845,0.32755348,0
0.080194227,-6.9650383,2.3888967,0.010890386,-0.94585305,0.32441247,0
-6.2487655,3.4549718,-2.0288503,-0.84181738,0.4654448,-0.27332142,0
-3.5077956,-6.6063175,-0.40305442,-0.46828705,-0.88193655,-0.053807344,0
-2.9714146,-3.2941716,-5.9344535,-0.40103528,-0.44459599,-0.80094016,0
1.1963298,-1.1932385,7.2753754,0.16017248,-0.1597586,0.97407496,0
-5.3573747,-1.0395948,-4.8850975,-0.73144507,-0.14193641,-0.66696483,0
-3.3000813,6.6578579,0.20827492,-0.44393083,0.89562291,0.028017389,0
1.8748143,-6.818789,-2.3667383,0.25140446,-0.91437,-0.31736934,0
3.5324962,-6.4156461,-0.076560743,0.48230022,-0.8759436,-0.010453023,0
3.9449217,-5.0738287,3.7750683,0.52925855,-0.68071496,0.50647068,0
6.9972734,-2.2451518,-0.2522245,0.95162553,-0.30533946,-0.034302399,0
4.7223005,5.6661253,-1.0543506,0.63378447,0.76045609,-0.14150541,0
6.9647789,-2.4269497,-0.719877,0.93984473,-0.32749867,-0.097142003,0
-1.8399901,-6.9809813,-1.7863094,-0.24740669,-0.93866885,-0.24018872,0
4.5571423,0.59512842,5.9443383,0.60650462,0.079204932,0.79112494,0
3.9740646,-3.682657,4.8869085,0.54466319,-0.5047245,0.66977251,0
0.40114537,4.591598,-5.714004,0.054642864,0.62545425,-0.77834517,0
0.45474139,-6.4972878,3.6817362,0.060780011,-0.86841714,0.49209499,0
-0.71378833,-6.9975805,1.9702229,-0.097717442,-0.95796698,0.26972303,0
-2.432858,-4.6948195,5.2519383,-0.32643908,-0.62994742,0.70470124,0
2.0555046,6.4907322,-3.0185263,0.27599692,0.87152421,-0.40530387,0
5.474194,-3.8463612,3.1763792,0.73914421,-0.51934868,0.42888546,0
-0.57337844,-7.0505881,-2.1767218,-0.07747107,-0.95262843,-0.29410413,0
0.81971925,5.2382698,5.2906556,0.10943954,0.69935381,0.70634776,0
-3.2320683,4.4348969,5.1060638,-0.43118602,0.59165382,0.68119329,0
0.2546266,-1.1701037,-7.2796488,0.034514017,-0.15860471,-0.98673874,0
-0.89746737,-4.2944961,6.091682,-0.11954895,-0.57205701,0.81145477,0
-6.2231007,1.0584034,-4.00243,-0.83258873,0.14160381,-0.53548521,0
-5.9262748,4.1669011,-1.6082863,-0.79858792,0.56150568,-0.21672265,0
6.104991,-0.59951174,4.2357378,0.81895071,-0.08042118,0.56820077,0
-1.3839725,-6.8095045,-2.4124289,-0.18815276,-0.92576045,-0.32797265,0
-2.5451195,-4.5105767,-5.1199536,-0.34947756,-0.61936003,-0.7030353,0
-0.28402489,-4.1953073,6.0621476,-0.038497597,-0.5686447,0.82168192,0
5.4303608,4.6879349,-1.3427811,0.74403435,0.64231175,-0.18397954,0
3.0156853,5.3768873,-4.1000142,0.40731907,0.72623914,-0.55377597,0
-1.0816401,-6.3243713,3.5312696,-0.14768915,-0.86354142,0.48216611,0
0.06324055,4.5137677,5.8486075,0.0085597634,0.61094952,0.79162335,0
-2.5024157,-4.6489229,-5.0666366,-0.34197822,-0.63531828,-0.69240272,0
-7.0041909,-2.1951702,-0.11622755,-0.95411336,-0.29902685,-0.015832558,0
0.80867338,4.270679,5.9320917,0.10996268,0.58072311,0.80664051,0
5.4321694,4.9637618,-1.2254429,0.72818917,0.66539854,-0.16427217,0
0.31792948,-0.9796741,7.2688122,0.043306254,-0.13344474,0.99010962,0
6.122807,-2.5994878,3.4542356,0.81689835,-0.34682089,0.4608604,0
-7.1662502,0.68798828,1.3228743,-0.97903186,0.093990922,0.18072717,0
-2.9102182,1.4708197,-6.6641297,-0.39225936,0.19824725,-0.89823753,0
3.0727613,4.570962,-4.9427114,0.41521546,0.61766398,-0.6678977,0
-4.9359407,-5.2103682,1.391941,-0.67515016,-0.71268702,0.19039311,0
-2.8114927,-5.9703012,3.2967658,-0.38112468,-0.8093313,0.44690809,0
-1.2904264,-3.6072664,-6.3538103,-0.17392443,-0.48618948,-0.85637027,0
-0.18919747,-5.8735266,-4.5346308,-0.025488919,-0.79128879,-0.61091113,0
1.3931454,1.4636897,-7.1357479,0.18784805,0.19736004,-0.96216536,0
2.0503087,6.9715872,-1.3509011,0.27739382,0.94321173,-0.18276839,0
-1.3582997,7.1670227,1.2144585,-0.183678,0.96917075,0.16422686,0
4.0915966,6.1522079,-0.8164326,0.55042434,0.82762927,-0.10983106,0
5.7269368,4.5237412,-0.80151314,0.78002775,0.61614853,-0.10916874,0
5.7592969,0.19935818,4.5220585,0.78623289,0.027215466,0.61733073,0
5.7238331,-4.747715,-1.0157434,0.76260316,-0.63255209,-0.13533048,0
-6.1085124,1.3470987,3.7563741,-0.83718365,0.18462254,0.51481849,0
-7.2567348,0.9129799,-1.3774985,-0.9750362,0.12267066,-0.18508475,0
0.90597117,6.5450425,-3.2464046,0.12306222,0.88904309,-0.44097403,0
2.2390599,-2.2510488,-6.6555471,0.30363962,-0.30526543,-0.90256083,0
-4.6318016,-1.43416,5.4809475,-0.63294417,-0.19598058,0.74898148,0
6.3917551,2.6535711,-2.4314504,0.87135875,0.36174923,-0.33146852,0
-3.6478648,-0.37608358,-6.3854499,-0.49539277,-0.051073462,-0.86716634,0
2.6282737,6.4366422,-2.5061324,0.35563064,0.87093943,-0.33910376,0
-5.4205523,1.5464141,-4.9463897,-0.72280103,0.20620587,-0.65957403,0
5.6239996,-4.3384018,2.124578,0.75858182,-0.58517653,0.28656939,0
7.292758,0.59878719,0.087480791,0.99657494,0.081825875,0.011954485,0
-3.1359344,-6.3419895,2.490665,-0.41809365,-0.84553605,0.33206409,0
6.0563331,1.8459737,3.7970252,0.82034177,0.25004062,0.51431423,0
-6.3910189,2.3815508,-3.0350311,-0.85611504,0.31902292,-0.40656048,0
2.202457,-3.3964624,6.1526184,0.29904851,-0.46116999,0.83539945,0
1.9043895,4.6477256,5.4987035,0.25571194,0.62407345,0.73833853,0
-3.6587143,4.968256,4.0631976,-0.49523848,0.67249626,0.54998881,0
3.3834548,-0.81079584,-6.6223755,0.45229062,-0.10838488,-0.88526034,0
4.4594569,-5.2757373,2.7129123,0.60087591,-0.71086311,0.3655431,0
5.0565166,0.73877424,-5.3421502,0.68398345,0.099932298,-0.72262043,0
6.5366402,-0.75722826,3.4193063,0.88145876,-0.1021114,0.4610897,0
4.2085114,0.75932056,6.0837188,0.56593537,0.10210888,0.81810206,0
1.98649,0.66135436,7.0007977,0.27185497,0.090507619,0.95807266,0
1.8003783,-5.1520939,-5.0968699,0.24109527,-0.6899358,-0.6825406,0
-7.1854334,1.6279364,-1.2337228,-0.96188992,0.21792638,-0.16515434,0
3.0140622,-0.99084812,-6.6410618,0.40951762,-0.13462554,-0.90231442,0
