2.3507292,1.0869988,-7.3594546,0.30130357,0.13932554,-0.94329453,0
-4.6015115,-3.9303439,4.9509854,-0.58851826,-0.5026781,0.63321483,0
-5.4723325,-0.79214472,5.4511466,-0.70478028,-0.10202011,0.70205176,0
-4.2332816,-4.576889,4.8844686,-0.53450429,-0.57788903,0.61672473,0
6.8842874,-0.076666228,-3.6713493,0.88232476,-0.0098259281,-0.47053853,0
-4.0020776,-4.7606173,-4.6682081,-0.5146445,-0.61218846,-0.60030514,0
2.2383444,-1.5162674,7.419271,0.28346005,-0.19201747,0.93956357,0
-6.3483181,3.3937325,2.8230615,-0.82101446,0.4389042,0.36510053,0
7.199132,0.30507118,2.8173296,0.93050635,0.039431237,0.36414713,0
7.3281212,-2.6318049,1.0705217,0.93237495,-0.33485103,0.13620512,0
5.7023759,-3.1390035,-4.3608704,0.72780567,-0.40063733,-0.55658662,0
-5.2292886,1.2142416,5.5908074,-0.67466563,0.15665747,0.72130764,0
7.1008425,3.115119,1.0451463,0.90754753,0.39813846,0.13357851,0
-3.8111792,3.40347,-5.9315643,-0.48680714,0.4347299,-0.75764686,0
6.5634513,-3.9336772,-1.5204508,0.84129888,-0.50421619,-0.19489039,0
-7.2954602,2.3533478,-1.1277046,-0.94157547,0.30373061,-0.14554517,0
-0.61660111,4.9746799,5.8928046,-0.079700693,0.64301777,0.76169282,0
-6.162982,4.6285701,0.84843642,-0.79480445,0.59692013,0.10941797,0
-2.0343633,4.1747227,6.1962166,-0.26272267,0.53913391,0.80019462,0
-3.2386634,-0.90552843,-6.9422679,-0.41984862,-0.11738943,-0.89997047,0
3.0657544,0.05592661,-7.1015449,0.39633611,0.0072301081,-0.91807705,0
-3.3252456,5.2472987,4.7380571,-0.42561251,0.67162436,0.60644436,0
-4.9444051,3.4776092,-5.0441499,-0.62801933,0.44171253,-0.64068848,0
-6.6855655,-1.3860834,3.6468072,-0.86369884,-0.17906617,0.4711259,0
-1.2795676,-2.1158307,-7.4486823,-0.16303611,-0.26958859,-0.94907391,0
2.3127775,-5.1613445,-5.4258356,0.29508713,-0.6585356,-0.69228202,0
6.7520084,-3.4800918,-1.8563485,0.86346853,-0.44504529,-0.23739581,0
1.9959997,4.100781,6.1930671,0.25951746,0.53317857,0.80521506,0
7.1817107,2.8560379,-0.045967128,0.92920107,0.36952665,-0.0059474278,0
-5.6861296,5.1143003,1.5042421,-0.72952545,0.65616024,0.19299294,0
7.5661092,-0.327178,-1.7031662,0.9747209,-0.042149436,-0.21941419,0
-2.0428917,-5.2951345,-5.2462835,-0.26431978,-0.68511158,-0.67879099,0
-5.9670596,3.2107618,3.8485396,-0.76572508,0.41202214,0.49386522,0
2.8383896,-1.8281901,7.0830555,0.3617371,-0.23299274,0.90269637,0
-2.967983,4.5663524,5.6212683,-0.37920663,0.5834235,0.71820563,0
-5.559104,2.5436819,-4.8769164,-0.71084875,0.32526341,-0.6236167,0
6.5938225,4.0273728,-1.1681646,0.84381795,0.51538688,-0.14949118,0
-0.48417166,-7.4524126,-2.2289169,-0.062123884,-0.95621622,-0.28599149,0
-3.8202829,-6.6216359,1.6841562,-0.48803028,-0.84589517,0.21514617,0
-2.8872206,2.7383094,-6.7260618,-0.36944583,0.3503913,-0.86066008,0
-4.4927645,-4.4257255,4.5972309,-0.57568085,-0.56709081,0.58906668,0
2.1825325,6.66606,-3.1810338,0.28337702,0.86551201,-0.41302106,0
-7.6667948,-0.48474637,-1.8295164,-0.97085494,-0.061383981,-0.23167373,0
-5.9528766,4.8297086,0.28388256,-0.77602899,0.62961054,0.037007503,0
4.5870991,-2.4694798,-5.7082129,0.59356117,-0.3195456,-0.73863095,0
1.0088936,-4.9649014,-5.9702702,0.12884626,-0.6340698,-0.76246583,0
6.1036105,2.4425201,4.3662834,0.77338755,0.30949137,0.55325109,0
-2.8170016,7.3811951,0.5978027,-0.35554457,0.93160892,0.075450972,0
0.2215538,4.1974678,6.6602125,0.028131407,0.53296614,0.84566879,0
-7.4328289,1.291853,1.6221859,-0.96321452,0.16741022,0.21021782,0
0.17627645,-6.8093958,3.9451416,0.022393798,-0.86505169,0.50118268,0
-7.315341,-1.9710852,-1.9085006,-0.93631297,-0.25228524,-0.24427484,0
0.16424063,-7.7692876,0.51586699,0.021088591,-0.99758101,0.066237621,0
6.8125601,1.9992247,-3.0743771,0.88052803,0.25840116,-0.39736533,0
-6.3164654,1.1445062,4.4472113,-0.80883789,0.14655665,0.56947559,0
-2.1314876,6.4715772,3.8598449,-0.27218944,0.82641578,0.49289945,0
-2.9815512,-3.9291553,6.0902386,-0.38044438,-0.50135821,0.77711129,0
-3.0380259,-1.4870704,6.9668565,-0.39227915,-0.19201507,0.89958173,0
-6.5521774,-4.126008,0.95746189,-0.83980399,-0.52883762,0.12271956,0
2.3105385,4.4529729,5.9307251,0.29744506,0.5732494,0.76348644,0
5.8189011,4.8872557,1.0677241,0.75829631,0.63688797,0.1391416,0
6.6547532,-2.1480889,-3.3124301,0.8600412,-0.27761286,-0.42808896,0
3.4789276,-6.3157187,3.0737917,0.44383523,-0.80574787,0.39214873,0
-6.9658217,2.7204936,-2.0491481,-0.89836514,0.35085544,-0.26427364,0
-7.7403445,-0.47615349,-1.1639447,-0.98705745,-0.060719632,-0.14842755,0
6.3217897,-4.626523,0.20493929,0.80670422,-0.59037644,0.026151676,0
-3.2581122,-0.88541245,-7.096992,-0.4145619,-0.1126598,-0.90302062,0
-4.3618269,-1.2215912,6.3365741,-0.55999154,-0.15683354,0.8135187,0
6.3431482,1.1048229,4.3511686,0.81625628,0.14217208,0.5599221,0
-4.1985431,-6.5754118,-0.07108286,-0.53814715,-0.84280169,-0.0091110272,0
3.3625059,-2.1614738,-6.6331954,0.43417835,-0.27909693,-0.85650104,0
2.1830909,-7.1827908,-2.0858574,0.28018486,-0.92186236,-0.26770562,0
-2.8517547,0.28988633,-7.1841307,-0.36868793,0.037477836,-0.92879742,0
1.1408362,-4.7214518,6.0727081,0.14670615,-0.6071564,0.78092152,0
-2.950526,5.7772212,4.30159,-0.37906605,0.74222302,0.5526427,0
-1.7508126,6.7772279,-3.339102,-0.22575487,0.8738755,-0.43055353,0
-2.3148735,7.2817521,2.1325033,-0.29180852,0.91792375,0.26881927,0
-3.2374799,4.8118281,5.1693783,-0.41671747,0.61936224,0.66538489,0
-0.32448736,0.20781891,-7.8407001,-0.04133511,0.026473196,-0.99879456,0
6.1027074,-3.532511,-3.5174036,0.774459,-0.44829035,-0.44637316,0
-1.3842349,4.6380668,6.0469136,-0.17871448,0.5988071,0.78069913,0
2.4492457,1.0238065,-7.3811059,0.31224608,0.13052164,-0.9409923,0
6.1521473,2.7179933,3.9193265,0.7903133,0.34915715,0.5034821,0
0.9849605,1.5806777,-7.5615473,0.12647912,0.20297538,-0.97098094,0
5.4359422,1.3974649,5.3003516,0.70415115,0.18102226,0.68658727,0
3.6243231,3.0262494,6.277236,0.46141616,0.3852748,0.79916114,0
-5.9393253,-3.6475127,3.5274749,-0.76030928,-0.46692806,0.45156172,0
3.4131937,-2.470623,-6.5004854,0.44060403,-0.31892899,-0.83913785,0
-6.84407,-3.8923452,0.32773647,-0.86850423,-0.49393392,0.041589364,0
-4.4352512,5.6651249,-3.2533085,-0.56169826,0.71745449,-0.41201225,0
-0.75366789,6.5806952,4.0596619,-0.097012006,0.84706599,0.52255899,0
0.92123157,7.3505135,2.3692584,0.11844575,0.94507945,0.30462328,0
4.1765256,-4.2378607,-5.0026469,0.53726846,-0.54515862,-0.64354074,0
0.57849675,-6.9689841,3.5605128,0.07372009,-0.88808471,0.45372996,0
-1.4350538,-7.1335754,2.7666414,-0.18434282,-0.91635823,0.35539466,0
1.7617882,4.891932,-5.8244438,0.22564964,0.62655807,-0.74599409,0
-1.3847004,-7.5333714,-1.4233295,-0.1777377,-0.96697026,-0.18269606,0
-6.8952613,3.522063,-0.75383997,-0.88635778,0.45274687,-0.096903056,0
3.5394878,-6.7701445,-1.365455,0.45608285,-0.87237108,-0.17594653,0
-7.4464312,0.38215211,-2.1784399,-0.95861012,0.049196035,-0.28043965,0
-1.3357404,-6.8653154,-3.6166251,-0.16964367,-0.87191886,-0.45932391,0
-6.5900846,-0.91912591,4.2244711,-0.83613169,-0.11661615,0.53598922,0
-3.9450006,-6.0570102,3.1134236,-0.50124276,-0.76958984,0.39558449,0
-4.5330014,-5.6277356,2.8291969,-0.58411926,-0.72518593,0.36456826,0
4.53477,-5.6191993,-2.8288879,0.58474404,-0.72457772,-0.36477602,0
5.6124763,5.0269885,-2.366312,0.71066821,0.63653201,-0.29962936,0
-6.7319913,1.8993558,-3.4850206,-0.86143047,0.24304293,-0.44594577,0
-3.0454001,2.6447105,6.666995,-0.39082867,0.33940655,0.8556028,0
4.2215128,-0.91740286,6.5014124,0.54081458,-0.11752774,0.83289063,0
-5.1539521,-0.84964037,-5.6558285,-0.66943759,-0.11035826,-0.7346254,0
-4.4976592,-5.7878947,2.9317389,-0.56971771,-0.73315161,0.37136286,0
-3.0071547,-2.4352078,6.872571,-0.38127783,-0.30876055,0.87137485,0
7.6700931,0.24440341,-0.68954509,0.99548209,0.031720504,-0.089494325,0
4.3676429,-6.2551327,-1.2764881,0.5646494,-0.80866432,-0.16502453,0
-1.5588863,-6.7482877,3.7437236,-0.19800274,-0.8571372,0.47551098,0
-4.4885435,-6.2166786,1.948341,-0.56735182,-0.78578806,0.24627027,0
-4.5994105,5.3521852,-3.5666676,-0.58168411,0.67688698,-0.45107386,0
-3.4133098,4.0125527,5.6466088,-0.44200119,0.5195992,0.73119873,0
6.0422006,-1.1168442,4.7097907,0.78045028,-0.14425893,0.60834748,0
-0.042262949,-7.85151,-0.37383923,-0.0053766109,-0.99885398,-0.047559105,0
-5.4834976,-2.1989484,5.197989,-0.69683659,-0.27943984,0.66055447,0
-3.0394616,6.6418719,-2.6040471,-0.39195585,0.85650712,-0.33580667,0
7.312809,2.8600614,0.36980051,0.93027532,0.36383346,0.047042973,0
-5.2809544,-2.7845559,-4.9015222,-0.68366724,-0.36048591,-0.63454628,0
1.8791583,6.7046356,-3.5593741,0.24030133,0.85736942,-0.45516247,0
-7.7812958,-0.95502996,0.98368382,-0.9848299,-0.12087217,0.12449871,0
-3.2639909,7.0016046,-1.3755469,-0.41597822,0.89231712,-0.17530611,0
6.5225334,3.8575039,-1.843791,0.83633673,0.49461949,-0.23641583,0
6.9685693,2.3140407,2.362272,0.9034403,0.30000386,0.3062568,0
4.2253036,4.7442722,-4.5137949,0.5421707,0.60876232,-0.57918853,0
4.5621996,-5.9000034,2.2509964,0.58561641,-0.75734061,0.28894404,0
2.4431767,5.7020774,-4.6262803,0.31571475,0.73683983,-0.59782207,0
5.4900241,2.4746108,-4.8435531,0.71039444,0.32020801,-0.62674278,0
6.0868335,-2.25332,4.3531804,0.77884668,-0.28832573,0.55701542,0
1.3122507,-7.4642372,1.5631034,0.16958031,-0.96459287,0.20199767,0
-0.94662708,1.2934588,7.7275991,-0.11994646,0.16389328,0.97915876,0
5.8061337,-0.33423862,5.3752632,0.73315638,-0.042205226,0.6787492,0
7.3282547,2.1985114,-1.9728417,0.92748696,0.27825052,-0.24968904,0
-5.3696971,-3.3671622,4.6571922,-0.68271869,-0.42811066,0.59212875,0
2.0676069,-1.5143238,7.3430085,0.2658481,-0.19470823,0.94414693,0
6.3175449,-4.7175412,0.24513823,0.80086643,-0.59803617,0.031075833,0
-0.89837188,7.0112834,-3.3682451,-0.11473334,0.89542866,-0.43016708,0
-3.9428985,0.38985893,6.8377485,-0.49892825,0.049332142,0.86523807,0
1.1963029,-5.9742022,4.9250045,0.15269862,-0.76255977,0.62863797,0
-0.56592709,7.4907169,-2.2406745,-0.072192721,0.95555639,-0.28583255,0
-3.7571077,-0.90892923,-6.7994881,-0.48035961,-0.11620984,-0.86933881,0
-6.8799706,1.4990915,-3.1483314,-0.89197499,0.19435434,-0.40817514,0
7.3887515,2.4146886,-0.60303634,0.94768071,0.30970779,-0.077345394,0
-1.5520802,2.2253501,7.3293028,-0.19859362,0.28474066,0.93780774,0
3.0417745,4.8621182,5.1886477,0.39329937,0.62866855,0.6708886,0
2.9181874,4.3061457,5.8432264,0.37301847,0.55043483,0.74691278,0
-4.1290226,1.3992565,6.3836055,-0.53413647,0.18100989,0.82579267,0
-1.4741267,3.5274642,6.6582522,-0.19199897,0.45943776,0.86721009,0
-5.5089107,-0.49730855,-5.444675,-0.7097798,-0.064074293,-0.70150352,0
2.632966,6.7368064,-3.0681834,0.33511528,0.85743862,-0.39050832,0
-4.3712196,1.3965566,-6.1846914,-0.56760305,0.18134294,-0.80308247,0
-5.2745757,-4.2602549,-4.0499506,-0.66786569,-0.53943259,-0.51280391,0
6.1722531,-4.3239765,1.9423189,0.79310185,-0.55560809,0.2495777,0
-2.6588554,7.2227092,1.3699547,-0.34011441,0.92391163,0.17524132,0
-7.7005181,0.92462426,-0.82988757,-0.98723274,0.11853999,-0.10639443,0
3.4854121,6.9289927,-0.50540322,0.44841865,0.89145541,-0.06502308,0
-7.6052136,1.4085435,1.1762276,-0.97210157,0.18004061,0.15034589,0
2.7219939,-0.59906137,7.1851778,0.35319337,-0.077731438,0.93231553,0
4.985148,-2.4099414,5.6690598,0.62908018,-0.30411261,0.71538359,0
-3.3974032,6.86059,1.735285,-0.4327946,0.87396932,0.22105765,0
-2.4288747,4.4339042,5.9502239,-0.31107709,0.56787038,0.76207232,0
3.1419258,6.6730475,2.7754204,0.39869004,0.84676653,0.35218287,0
-2.7760429,5.9486189,-4.2298021,-0.35548335,0.76174432,-0.54164302,0
5.4237952,-5.3670812,1.7033279,0.69373858,-0.68648446,0.21786667,0
-7.1030126,-2.9762537,1.0952032,-0.91311979,-0.38260895,0.14079261,0
4.3635325,-5.5372548,3.2337506,0.56258589,-0.71391273,0.41692424,0
-5.6962838,3.2302277,4.1517196,-0.73466015,0.41660839,0.53545487,0
4.4051223,1.4008387,-6.1889219,0.57026827,0.18134658,-0.80119133,0
0.54719299,4.738565,-6.0568943,0.07097467,0.6146242,-0.78562057,0
0.25217545,6.0264549,4.9511523,0.032315407,0.77226925,0.63447291,0
-3.1602027,-7.0458412,0.56906992,-0.40813485,-0.90995848,0.073494419,0
-4.2099481,-3.2139697,-5.6925015,-0.54144013,-0.41334763,-0.73211086,0
-0.69093215,-5.2802253,-5.5615802,-0.089731947,-0.68574733,-0.72228712,0
-2.4139376,2.2263799,-7.1499782,-0.30680293,0.282965,-0.90873694,0
5.1852126,2.3213241,5.3358951,0.66528088,0.29783398,0.68461394,0
2.7976489,7.1979632,-0.070035301,0.36225599,0.93203455,-0.0090685822,0
3.7900553,-5.2936454,4.4182277,0.48169526,-0.67279333,0.56153256,0
-3.4308813,5.683692,-4.0910034,-0.43995923,0.72884852,-0.52461004,0
-3.7703197,6.5870571,-1.7192156,-0.48448914,0.84644216,-0.22092061,0
-5.8984833,-4.8163123,-1.7048838,-0.75587052,-0.617194,-0.21847504,0
-2.2647622,-7.3875694,0.71718323,-0.29184574,-0.95198989,0.092418924,0
0.26356158,4.9603801,6.0545216,0.033654124,0.63338995,0.77310067,0
-3.352607,-2.604866,6.629086,-0.42588428,-0.33089817,0.84209794,0
-5.8824883,5.0577164,-1.2734741,-0.74824893,0.64333844,-0.16198513,0
-0.066784583,-7.6385937,-1.7182604,-0.0085295923,-0.97558582,-0.21945277,0
-7.0844688,3.4913528,0.30061638,-0.89634025,0.4417325,0.038034547,0
2.5451806,-1.2369442,-7.3210177,0.32427216,-0.15759453,-0.93274409,0
-4.7541056,4.838099,-3.9029911,-0.60749668,0.61822969,-0.49873823,0
-5.8934484,4.8770361,-1.3180236,-0.75922674,0.62828684,-0.16979511,0
-3.5816207,1.5051714,6.8190289,-0.45636779,0.19178796,0.86887622,0
-0.48863888,-3.8445258,-6.753829,-0.062752672,-0.49372712,-0.86734974,0
-3.4176645,5.1292834,4.8738546,-0.43494117,0.65276641,0.62025982,0
-3.9321415,-6.2298374,2.2210875,-0.51103055,-0.80964458,0.28865784,0
2.6586418,7.0465684,1.7173929,0.34417138,0.91220528,0.2223231,0
0.50285846,4.7283411,-6.137598,0.064767703,0.60900593,-0.79051691,0
-1.5282247,3.9951825,6.5468822,-0.19541521,0.51086694,0.83715463,0
4.729023,-0.96358585,6.0678205,0.60995233,-0.1242839,0.78263128,0
6.7774329,3.1796649,1.8664955,0.87842721,0.41211829,0.24191761,0
5.1080804,3.7920961,-4.4995651,0.65553665,0.48665208,-0.5774439,0
6.5391264,4.2559872,-0.61058187,0.83556336,0.54382598,-0.078019574,0
4.1417217,0.63510185,6.5322003,0.53368604,0.081836738,0.84171373,0
-3.5304387,-6.2295451,-3.1316636,-0.45173559,-0.79709846,-0.40071052,0
7.1897383,2.6561027,0.53180826,0.93578601,0.34570712,0.06921792,0
0.11693789,6.1787701,-4.7454681,0.015008038,0.79299545,-0.60904264,0
-3.6428995,-4.2224855,-5.5162668,-0.46441495,-0.53830349,-0.70324117,0
-0.30382681,7.2342358,2.8515821,-0.039042745,0.92962313,0.36643767,0
-7.1042299,-3.0442581,-1.1759337,-0.90870696,-0.38939318,-0.1504145,0
3.621593,6.854197,-0.99762708,0.46335119,0.87693459,-0.12763767,0
4.2360096,-0.046665944,-6.6186185,0.53905267,-0.0059384666,-0.84225112,0
3.2262397,2.3778288,6.7405844,0.41140118,0.30321416,0.8595407,0
4.0168362,5.2529001,-4.1606283,0.51413983,0.67235136,-0.53254467,0
-6.4544039,-2.4048126,-3.6357191,-0.82870829,-0.3087641,-0.4668054,0
0.84276736,-1.0071448,7.6759796,0.10822044,-0.12932828,0.98567873,0
0.32561445,-6.0192342,-4.9044561,0.041900378,-0.77456081,-0.63111007,0
-7.2705932,2.0906708,-1.5731887,-0.94092703,0.27056509,-0.20359491,0
7.2775064,0.60831153,-2.7832439,0.9311896,0.077836186,-0.35612854,0
-3.5886991,6.1179729,3.2905993,-0.45897299,0.78245187,0.4208478,0
7.614625,1.3784053,0.44701567,0.98237002,0.17782938,0.057669919,0
4.0043187,6.6497388,-1.0760522,0.51097995,0.84855461,-0.13731201,0
1.1530499,-3.9597945,6.6416926,0.14748602,-0.50649524,0.84953547,0
1.7989564,3.86342,6.4737821,0.23210482,0.4984659,0.83525985,0
-1.2738748,2.3713682,-7.3210945,-0.16331114,0.30401015,-0.93856663,0
6.5976629,-0.99732,4.1066275,0.84206909,-0.12728937,0.5241347,0
6.0713005,-4.5373068,-1.3994621,0.78770816,-0.58868337,-0.18157028,0
-5.6312265,1.3659091,5.1336503,-0.72740793,0.17643991,0.66313404,0
2.5038247,-7.4888697,0.19572374,0.31698906,-0.94810539,0.024779005,0
2.5791667,-5.686914,4.8126082,0.32714769,-0.72134185,0.61044276,0
6.0180306,-4.6467056,-1.8343682,0.7694366,-0.59410554,-0.23453353,0
0.3339991,-2.6884551,7.1921797,0.043458387,-0.34980908,0.93581247,0
1.4322245,6.3691249,-4.2569137,0.18377215,0.81723762,-0.54621476,0
-7.7438383,-0.3232027,0.62049776,-0.99594361,-0.041567456,0.079802901,0
0.32088494,-6.5492005,4.2592883,0.041039206,-0.83760232,0.54473668,0
-4.412272,-4.7709713,-4.2606249,-0.56781137,-0.61397207,-0.54829603,0
-7.6452317,0.9697544,0.94940561,-0.9846074,0.12489188,0.12227122,0
-6.6685147,-3.8616118,-1.2055076,-0.85497725,-0.49510127,-0.15455939,0
-2.2766633,-6.9725175,2.731883,-0.29087198,-0.89082557,0.34903196,0
-2.3261664,6.5381126,-3.4502716,-0.3001509,0.84362853,-0.4451969,0
5.2650638,3.2297163,-4.7287621,0.67682862,0.41518292,-0.60788661,0
-2.7275329,-6.515749,-3.3488867,-0.34891188,-0.83350867,-0.42839682,0
6.6129708,-1.4004182,4.139955,0.8342706,-0.17667213,0.52228308,0
0.22445041,7.3487902,2.5763047,0.028810652,0.94329721,0.33069673,0
0.39085528,2.7846715,7.2760324,0.050106432,0.35698625,0.93276477,0
-1.5081412,4.9256477,5.7410793,-0.19552232,0.63858348,0.74429977,0
-7.4801917,-1.316059,2.0553086,-0.95067883,-0.16726168,0.261215,0
6.1939368,4.7615094,0.12972209,0.79270381,0.6093809,0.016601913,0
1.9648032,5.5559235,-5.1346431,0.25137511,0.71081972,-0.65692151,0
0.3971611,1.784659,7.494173,0.051485937,0.23135409,0.9715063,0
-1.7258881,-3.4798532,-6.6785154,-0.22338784,-0.45040977,-0.86442399,0
-0.3542341,1.1491884,7.6536641,-0.045722019,0.14832906,0.98788053,0
-6.7123642,-2.3834383,-2.9389465,-0.87111861,-0.30931836,-0.38141122,0
-5.8559141,-4.7081356,2.3141234,-0.74482328,-0.59883547,0.29433715,0
0.46247604,-7.469748,2.1026969,0.059491444,-0.96088457,0.27048421,0
-4.1256666,-6.638206,-0.46718034,-0.52692115,-0.84781718,-0.059667256,0
-4.2539349,5.5229402,3.5293713,-0.54441386,0.70681977,0.45168504,0
-6.3470922,3.2045918,3.2075942,-0.81370538,0.41083279,0.41121769,0
7.3988791,-2.6937034,0.17008096,0.93944359,-0.34202242,0.021595363,0
1.3042425,-6.2324543,4.4145222,0.16833134,-0.80438828,0.56975788,0
2.9304631,3.4211986,-6.368928,0.3756527,0.4385595,-0.81642556,0
-1.5657748,6.918324,-3.1095793,-0.20216703,0.89326835,-0.40149736,0
-4.7438283,-0.94787621,6.1644754,-0.60538781,-0.12096406,0.78668499,0
-2.7898028,6.2723236,3.9740362,-0.35171106,0.79075325,0.50100768,0
4.0270176,3.1264877,-5.9318128,0.51485527,0.39972231,-0.75838387,0
0.74682152,2.4697902,-7.4547706,0.094670072,0.31308043,-0.94499642,0
7.816875,-0.44603691,-0.74257094,0.99391592,-0.056713607,-0.094417922,0
3.1716325,-6.8027377,2.1837313,0.4057363,-0.87025142,0.2793574,0
-2.9776053,-6.9644661,-1.8765996,-0.38158265,-0.89250225,-0.24048783,0
5.0554452,-5.4044209,2.4892669,0.64748651,-0.6921823,0.31881797,0
-4.605288,-5.9029627,2.0406148,-0.5934642,-0.76069009,0.2629655,0
2.4035826,6.2196193,3.9096694,0.31095904,0.80465174,0.50580627,0
-1.2797273,-0.51447457,-7.7265143,-0.16305049,-0.065549381,-0.98443782,0
1.1094707,5.0667782,5.9722052,0.14025921,0.64054173,0.75500578,0
7.6983843,-0.73182619,0.027059667,0.99550587,-0.094635084,0.0034991831,0
-4.7231388,-0.57182074,-6.2431331,-0.60172635,-0.072849773,-0.79537308,0
5.159369,-0.80537933,-5.8526454,0.65778542,-0.10268054,-0.74617362,0
2.5644205,-6.243402,-3.6967442,0.3332321,-0.81129515,-0.48037124,0
-1.7327737,-4.3630795,6.0965009,-0.22519457,-0.56703413,0.79231286,0
3.1669929,3.5956004,6.1787329,0.4050442,0.45986116,0.79023224,0
-1.2654799,7.3639569,-2.0247514,-0.16346961,0.95124638,-0.26154926,0
-2.6754978,7.1708341,-1.4190512,-0.34371138,0.92121071,-0.18230028,0
0.57264167,-7.7418404,-1.2569319,0.072817296,-0.98445487,-0.15983187,0
-3.3860781,-6.9428887,-1.1206572,-0.43380928,-0.88949203,-0.14357363,0
-6.5549679,-2.1413953,3.5506887,-0.84511268,-0.27608377,0.45777982,0
-2.2757258,7.3500414,-0.6802749,-0.29461905,0.95154792,-0.088069461,0
-3.2170143,-3.4487751,6.1184163,-0.41643283,-0.44643357,0.79201061,0
-2.6005433,3.66045,6.3451772,-0.33455148,0.47090507,0.8162865,0
-7.3838234,0.47305146,-2.2819901,-0.95362818,0.06109507,-0.29472131,0
6.5522094,-2.9701369,2.7773545,0.84966993,-0.38515803,0.36015862,0
0.9862811,2.8504329,7.2184281,0.12607032,0.36435351,0.92268777,0
-0.97902876,7.1020274,-2.8377161,-0.12697546,0.92109978,-0.36803854,0
-1.35413,-0.19614257,-7.694468,-0.17326929,-0.025097651,-0.98455465,0
3.723634,4.8099351,5.0309367,0.47171944,0.60933483,0.63733184,0
3.5774779,-5.8280001,3.7461834,0.45881006,-0.74743861,0.48044649,0
-2.0442195,6.4477296,-3.8179822,-0.26318693,0.83012521,-0.4915534,0
-2.5253005,6.3893824,-3.6438046,-0.3247222,0.82159501,-0.46854791,0
-7.1737123,2.524509,-1.8842297,-0.91561025,0.32221341,-0.24049196,0
7.4729509,-2.1475842,0.86252558,0.95524031,-0.27451792,0.11025353,0
3.8899877,5.832243,-3.5082045,0.49621648,0.74397534,-0.44751525,0
4.2518387,-4.221941,-5.0766225,0.54140484,-0.53759789,-0.64642811,0
-4.453578,5.3349652,3.5694342,-0.57004905,0.68286484,0.45688042,0
-0.64640844,-7.6742821,-1.7571148,-0.081830479,-0.97150671,-0.22243759,0
4.7027974,-5.9231858,1.3839613,0.6116522,-0.77037758,0.17999989,0
-6.1420093,4.0634561,-2.3962295,-0.79307628,0.52468669,-0.30940896,0
-4.4511304,-6.3702574,0.43880937,-0.57185602,-0.81841457,0.056375742,0
-1.0844405,4.6214385,6.0471907,-0.14105998,0.60113955,0.78659606,0
-2.1549342,0.88186699,-7.3574114,-0.27924308,0.11427507,-0.95339626,0
-3.1534986,-3.7694509,5.9196806,-0.40987056,-0.48992789,0.7694003,0
1.3113859,-7.6020274,1.7238274,0.16590236,-0.96172631,0.21808,0
-3.755796,-4.6276975,-5.1498771,-0.47682193,-0.58751529,-0.65380931,0
5.8044481,-3.4058998,3.6411731,0.75857371,-0.44511142,0.4758589,0
-0.90874028,-7.6475611,-0.82526624,-0.11732563,-0.98736119,-0.10654846,0
-4.059176,-2.2720571,-6.1993508,-0.52372712,-0.29314765,-0.79985893,0
7.6188483,1.6927109,0.16777533,0.97597152,0.21683562,0.021491956,0
3.0392768,-1.8617065,6.9402528,0.38955402,-0.23862098,0.8895548,0
-0.94267035,7.6815486,1.2661481,-0.12020694,0.97953171,0.161456,0
4.0629568,-6.0427761,-2.7722676,0.5214569,-0.77555519,-0.35580444,0
3.8318884,0.30753115,6.832531,0.48877788,0.039227244,0.87152588,0
7.1152382,3.285758,-0.43628156,0.90646845,0.41859961,-0.05558148,0
-1.0792944,4.6490211,6.1492052,-0.13865511,0.59725183,0.78997791,0
-7.1681132,-0.68867242,2.928942,-0.92206436,-0.088586815,0.37676206,0
-7.0381756,0.31306121,3.1911697,-0.91000968,0.040477637,0.41260627,0
-6.8355608,2.7596447,2.5699575,-0.87559718,0.35349509,0.32919723,0
3.0680511,4.6667132,5.4069319,0.39468482,0.60034233,0.69556665,0
2.7556994,-5.9679837,-4.2435956,0.35220003,-0.76275522,-0.5423649,0
7.6446834,-0.93834919,-0.42003989,0.99107808,-0.12165021,-0.054455146,0
6.1320453,3.6795528,3.26215,0.78013879,0.46812469,0.41502136,0
-6.4728713,0.83190978,4.1386333,-0.83761185,0.10765199,0.5355534,0
4.7274818,-5.4230213,3.1163404,0.60297441,-0.69168818,0.39747876,0
1.641247,3.5444136,-6.8246632,0.20872056,0.45074993,-0.86790562,0
-1.842517,-3.2526186,-6.8521328,-0.23605312,-0.41670755,-0.87785745,0
0.90931869,7.6604776,-1.3022326,0.11623063,0.97917497,-0.16645354,0
1.9570153,-7.1320295,2.1476872,0.25411859,-0.92609459,0.27887735,0
1.2745521,7.0558467,-3.148953,0.1627562,0.9010089,-0.40211117,0
-7.7927966,-0.69287086,0.50598919,-0.99399394,-0.088377699,0.064540401,0
0.55392855,4.9248829,5.881165,0.072024219,0.64035481,0.76469481,0
3.8615453,-4.4762006,-5.1078238,0.49426723,-0.57294142,-0.65378743,0
1.5701845,2.9846401,-7.0173597,0.20167583,0.38334972,-0.90131563,0
0.20938364,-7.8061175,-0.83129257,0.026662722,-0.99402392,-0.10585605,0
7.0076704,2.9302318,1.9393404,0.89391446,0.37378705,0.24738668,0
-1.6843251,5.2565475,-5.439333,-0.21734659,0.6783089,-0.70189565,0
1.9347149,7.1264048,2.5132296,0.24802999,0.91360343,0.32219544,0
-1.0458466,6.8539295,-3.5452805,-0.13430476,0.88016284,-0.45527521,0
6.9873304,-1.0144426,3.4382992,0.88973564,-0.12917462,0.43781775,0
-5.7489543,5.29456,1.2164524,-0.72682768,0.66937959,0.15379341,0
5.5593829,5.4005899,-0.96395403,0.71179253,0.69146156,-0.12341932,0
0.8001163,-7.1642647,-2.750349,0.10370041,-0.92853647,-0.35646358,0
4.3729882,0.65793788,-6.4297113,0.56037664,0.084311463,-0.82393545,0
4.9757967,0.98607451,-5.9468298,0.63658643,0.126155,-0.76081711,0
-2.5617695,-7.224966,-1.2426805,-0.32988003,-0.93036157,-0.16002044,0
-4.2856774,-2.7680776,-5.8745236,-0.55080867,-0.35576198,-0.75501209,0
-6.9451847,0.88307327,3.4870577,-0.88796711,0.11290413,0.445833,0
-6.1785235,1.3212619,4.6522331,-0.78745228,0.16839471,0.59292668,0
-2.9507821,-1.8278271,6.9501519,-0.37982965,-0.23528099,0.89463526,0
0.87738615,-7.6305933,-1.2704393,0.11269884,-0.98013741,-0.16318588,0
3.8644705,5.9689217,-3.1289616,0.49744165,0.7683304,-0.4027656,0
2.9357073,1.4973682,-7.1021886,0.37495309,0.1912462,-0.90710253,0
-1.256072,4.7863579,6.1717219,-0.15878405,0.60505867,0.78018695,0
-1.0800538,4.7414603,6.0617166,-0.13898066,0.61012816,0.78001797,0
-3.4502518,3.8834729,5.8958669,-0.43907976,0.49421155,0.75030923,0
4.8815565,-4.2974033,-4.1459856,0.63292062,-0.55718195,-0.53754979,0
-3.5689225,5.2583375,4.5224643,-0.45755416,0.67414582,0.57980311,0
-6.6258349,-3.9365861,-0.86200958,-0.85438502,-0.50761306,-0.111154,0
-0.89494652,-1.5346805,-7.5367446,-0.11557689,-0.19819464,-0.97332466,0
0.85796857,-7.123354,-2.8600378,0.11108021,-0.92225248,-0.37028581,0
5.0472207,1.8374423,5.700211,0.64442098,0.23460166,0.72779369,0
6.3930993,-4.3631678,-0.26128033,0.82550234,-0.56338954,-0.033737551,0
-2.8873906,-6.7342696,-2.7765021,-0.36849716,-0.85944706,-0.35434526,0
3.1033623,-0.91212672,7.0268574,0.40117911,-0.11791281,0.90837872,0
5.3836298,-5.5883002,-0.29644546,0.69328994,-0.71964687,-0.038175482,0
-0.30606747,-6.0024586,5.1114674,-0.038792387,-0.76077896,0.64785069,0
-2.4868047,5.4147148,4.9918442,-0.31992242,0.69659215,0.64219069,0
7.5619617,-0.74378353,-1.8419702,0.9671852,-0.095130928,-0.2355905,0
3.8965316,2.0177531,6.4658074,0.49865067,0.25821784,0.82744849,0
-0.24909982,7.2985134,-2.6706231,-0.032035396,0.93862277,-0.34345454,0
3.2279522,-6.915123,1.0398997,0.4191086,-0.89784086,0.13501777,0
-7.7251472,-1.0932072,0.47951624,-0.98827022,-0.1398529,0.061344024,0
-0.20420037,6.4078155,-4.221458,-0.026602101,0.83477497,-0.54994833,0
-6.0654111,-0.21983834,-4.8395772,-0.78135628,-0.028319938,-0.62344235,0
4.8597727,-5.8463421,-1.734194,0.62322944,-0.7497496,-0.2223974,0
0.54931462,-4.3703618,6.3926749,0.070758305,-0.56295496,0.82345313,0
-4.0156674,-3.651521,5.5300274,-0.518246,-0.47125071,0.71368325,0
-1.5978824,-0.85361069,-7.5138583,-0.20673423,-0.11044026,-0.97214395,0
-2.1650643,-7.4041948,-0.96207958,-0.27850038,-0.95242947,-0.12375592,0
3.4307275,-7.0134354,-0.60052878,0.43811628,-0.89564103,-0.07668969,0
6.7908201,-3.692163,0.97296065,0.87166476,-0.47392339,0.12488852,0
6.4725375,-2.847542,3.1448164,0.8363533,-0.36794707,0.40635955,0
-6.3116727,-2.9711742,3.4811156,-0.80956644,-0.38109756,0.44650516,0
-2.9673126,-0.58892018,-7.2810216,-0.37634847,-0.074693583,-0.92346233,0
2.8797178,5.0347753,-5.1875787,0.37006935,0.64701343,-0.66665,0
-2.2250614,2.7164958,7.0227861,-0.28338462,0.34597385,0.8944245,0
-4.9529099,0.65844184,6.0590277,-0.63066673,0.083841093,0.77151155,0
-1.504778,5.4306154,5.4461184,-0.19201323,0.69295937,0.69493759,0
6.1866479,-1.8731481,4.4437771,0.7886973,-0.23879601,0.56650954,0
-1.4331944,6.5490813,3.9587421,-0.18408184,0.84117472,0.50846732,0
1.6485466,-0.97772616,7.5287294,0.21219888,-0.12585171,0.96908873,0
4.5351949,6.2270565,1.3455858,0.57993668,0.79628301,0.17206639,0
3.3051035,-5.8645329,3.8697135,0.42565557,-0.75527769,0.4983702,0
7.6343145,-0.82421035,1.6857536,0.97109628,-0.10484079,0.21443039,0
-2.0161235,-6.3064628,-4.3053532,-0.25528264,-0.79852772,-0.54514611,0
-0.1369496,-7.8377714,-0.26239461,-0.017460583,-0.99928772,-0.03345437,0
7.1879935,-0.20930898,-3.179033,0.91422403,-0.026621517,-0.40433374,0
3.909539,-4.5331311,4.9122739,0.50486994,-0.58539933,0.63436103,0
-7.5590491,0.70005733,2.1315186,-0.95866615,0.088783823,0.27032697,0
3.4425552,-5.6789594,3.9475186,0.44560444,-0.73508465,0.5109669,0
2.9983485,-2.4852495,-6.661098,0.38858804,-0.32209006,-0.86328292,0
5.3885827,-1.6327525,-5.2998471,0.6968773,-0.21115538,-0.68540162,0
-6.5539031,-1.8359497,3.8753533,-0.8367939,-0.23441167,0.49480009,0
3.4968901,3.0302546,6.3735042,0.44399005,0.38474271,0.8092255,0
4.998075,-4.3603163,-4.212378,0.63610548,-0.5549379,-0.53610975,0
2.550895,7.1323652,1.3309648,0.33167922,0.9273833,0.17305824,0
-5.1695671,1.1244687,5.6213837,-0.66968691,0.14566828,0.72821707,0
6.780889,0.26244709,3.9887602,0.86145484,0.033341695,0.50673842,0
3.5365078,3.0716939,-6.3079443,0.45010954,0.39095029,-0.80284452,0
3.7057748,3.9401016,5.4243736,0.48376036,0.51434994,0.70811021,0
1.6153433,-6.4090686,-3.9428916,0.20988773,-0.83275479,-0.51231498,0
6.9879675,2.9147294,1.5789952,0.90349472,0.37685388,0.20415291,0
-5.9656739,-4.3314514,2.71139,-0.75946641,-0.55141997,0.34517637,0
-3.001395,0.31513131,7.0738144,-0.39026403,0.040975749,0.91979074,0
6.3757958,-4.6369696,-0.11196909,0.80865288,-0.58811462,-0.014201228,0
-2.3870475,-2.9528711,-6.8799915,-0.30376413,-0.37576813,-0.87551451,0
6.4613528,0.76205987,4.1479702,0.83740503,0.098764576,0.53758574,0
5.8121505,0.53011549,5.2385144,0.74111336,0.067595579,0.66796839,0
4.4023719,6.2958765,-1.6599227,0.56012231,0.8010366,-0.21119519,0
-5.8547068,1.3682324,-4.982389,-0.74977911,0.17522176,-0.63806629,0
1.0748047,-6.0479231,4.6958814,0.13900726,-0.78219348,0.60733044,0
-4.6828022,-4.9863772,-3.8212068,-0.59764332,-0.63638711,-0.48768207,0
-4.4521103,1.3980163,-6.302999,-0.56769609,0.17826341,-0.80370599,0
3.4463458,6.444551,-2.8699205,0.43894133,0.82080555,-0.36552534,0
2.8903997,7.219182,1.3698415,0.36605683,0.91427869,0.17348459,0
1.1854182,-2.5464368,-7.2385831,0.15267259,-0.32796112,-0.93227279,0
7.5673828,-1.0990416,-1.4089044,0.97323591,-0.14134699,-0.18119824,0
4.6528497,6.1427107,0.99379766,0.59883904,0.79058969,0.12790544,0
0.31907994,6.1635671,4.7797813,0.040874884,0.78956729,0.61230111,0
-5.9521499,-0.65036082,-4.991837,-0.76353866,-0.083427943,-0.64035022,0
5.1609864,-3.8660977,-4.4397111,0.65921247,-0.49381641,-0.56708401,0
-4.5222983,0.27781573,6.4635158,-0.57292312,0.035196055,0.81885308,0
1.1891766,6.5572028,-4.1751881,0.15121686,0.83382034,-0.53092098,0
5.6272359,-1.2139446,5.1135278,0.73082459,-0.15765831,0.66410792,0
-6.9174457,-1.5359086,-3.2586796,-0.88693172,-0.19692907,-0.417817,0
-5.8575931,-4.8931799,-0.9944644,-0.76102442,-0.63572687,-0.12920183,0
0.26380944,2.6097958,-7.2452569,0.034236614,0.33869359,-0.94027358,0
2.8109064,5.9563828,4.1263075,0.36166459,0.76637655,0.53091031,0
2.3054841,6.6559105,3.317018,0.29611316,0.85487586,0.42603317,0
-4.2319469,-4.6279759,4.508481,-0.5479244,-0.59919965,0.58372819,0
4.8663006,-5.0340486,-3.3950467,0.62538278,-0.64694059,-0.43630755,0
-3.8215189,-2.0312829,-6.50559,-0.48908368,-0.25996661,-0.83259505,0
-4.6831765,2.4128001,5.8093185,-0.59716749,0.30766419,0.74076563,0
-1.6609788,7.3568678,-1.7367274,-0.2146129,0.9505713,-0.22440028,0
0.37198561,4.7479439,6.219533,0.047486432,0.60610652,0.79396462,0
-0.00072860357,0.023350801,-7.8713889,-9.2563125e-05,0.0029665283,-0.99999559,0
-2.1121144,6.1223373,-4.5057659,-0.2677083,0.7759999,-0.57110113,0
-1.0677434,-7.2625775,-2.4955606,-0.13771553,-0.93671358,-0.32187271,0
-5.2139382,4.6634221,-3.5090499,-0.6662339,0.59588927,-0.44838428,0
-3.7721174,-3.6616981,-5.7006292,-0.48643509,-0.47219592,-0.73512721,0
-6.0411339,1.1625446,-4.6948857,-0.78063101,0.15022318,-0.60666978,0
1.759174,-7.1713347,-2.3562658,0.2269671,-0.92523938,-0.30400336,0
5.7087474,-5.3556075,-0.64809376,0.72681713,-0.68185663,-0.08251296,0
-5.9570675,-3.4322371,-3.6854157,-0.76366889,-0.43999714,-0.47245347,0
-7.5312691,1.666613,-0.2969304,-0.97565633,0.21590537,-0.038466562,0
5.8987613,4.9422069,-1.2894329,0.75598168,0.63339025,-0.16525294,0
5.1973343,4.8145194,-3.4140081,0.66087627,0.61219877,-0.43411428,0
3.8899279,0.28082758,6.7459993,0.49920574,0.036039419,0.86573368,0
-2.9396529,-7.1062722,1.749346,-0.37273297,-0.901039,0.22180814,0
-7.3228087,2.9502411,-0.073649906,-0.9275111,0.37367919,-0.0093285386,0
0.32622522,6.905498,-3.8589888,0.041203942,0.87220031,-0.48741037,0
-1.4811573,6.7424502,-3.7706497,-0.18830124,0.85717547,-0.47936705,0
5.2450466,5.3254294,-2.0622077,0.67643732,0.68680406,-0.26595649,0
0.17090462,7.0658498,-3.2159057,0.022009198,0.90994424,-0.41414621,0
1.5643533,7.6149445,-0.13846245,0.20119779,0.97938871,-0.017808214,0
-0.80222875,-7.6190658,-1.2968141,-0.10324475,-0.98055393,-0.1668966,0
6.2327962,4.6598082,0.24781914,0.80050546,0.59847969,0.031828504,0
3.401082,6.2947607,-3.1871204,0.43422315,0.8036651,-0.40690625,0
1.4184692,1.1084679,-7.5123672,0.18361938,0.14349005,-0.97246826,0
-6.4767971,3.2582207,-2.946578,-0.82759351,0.41632959,-0.37650844,0
5.5012302,-4.8465285,2.4819987,0.71072304,-0.62613988,0.32065806,0
2.0932024,-7.1963277,-2.4896669,0.26505348,-0.91124099,-0.31525615,0
1.2771447,1.1510359,7.5367532,0.16521132,0.1488979,0.97495365,0
7.0007696,-0.87204033,3.5678384,0.88553011,-0.11030473,0.45129731,0
-2.8305244,2.9081199,-6.582624,-0.36602977,0.37606406,-0.85123318,0
-4.9390578,4.1837311,4.4688506,-0.62792712,0.53189868,0.56814736,0
-6.1211348,-2.6539204,3.8096769,-0.79673356,-0.34543717,0.49587169,0
-2.7188194,-5.6641164,-4.6722422,-0.34724486,-0.7234152,-0.59673405,0
7.4164324,-2.2327635,-0.64953309,0.954198,-0.2872673,-0.083568908,0
-6.2368431,1.1980189,4.7640572,-0.7855832,0.15090063,0.60007334,0
-5.032908,-3.4652095,4.8403211,-0.64563447,-0.44452605,0.62092894,0
-2.3722756,-7.4353385,-0.58111054,-0.30311915,-0.95005554,-0.074251801,0
3.4179478,-0.53908765,-7.0322027,0.43610728,-0.068783976,-0.89726204,0
7.740788,-0.47010633,-0.72866654,0.99378377,-0.060353551,-0.093548223,0
4.0916209,6.4627566,0.79937351,0.53201866,0.84032887,0.10393964,0
7.5030818,0.68005836,-2.3234708,0.95168632,0.086258188,-0.29470763,0
-0.56882977,-7.7864351,-0.25075591,-0.072822228,-0.99682814,-0.032102052,0
0.50913852,2.2357368,-7.3799834,0.065882362,0.28930363,-0.9549675,0
3.7849233,5.1086082,-4.4472971,0.48781115,0.6584112,-0.57317966,0
6.7648611,-3.9101996,0.71188641,0.86220461,-0.49836826,0.090732351,0
-6.0966434,-1.6228927,-4.7042103,-0.77469671,-0.20621997,-0.59776109,0
1.1503955,1.3055134,7.5776982,0.14796248,0.16791356,0.97463435,0
7.5105505,2.001035,-0.8985582,0.95989871,0.25574568,-0.11484177,0
-0.09728808,7.4327521,2.1634092,-0.012566581,0.96007943,0.2794449,0
3.4784198,-3.3087351,6.2195678,0.44272426,-0.42112723,0.79161048,0
5.226275,-2.6113081,-5.1570592,0.67065209,-0.33509129,-0.66177011,0
-1.3680823,-6.5329561,4.1245017,-0.17436264,-0.83262795,0.52566946,0
-4.5798955,-5.693017,2.8135309,-0.58495009,-0.72711939,0.35934776,0
1.011634,-6.584424,-3.9524419,0.13060156,-0.85004663,-0.51025873,0
1.6774703,-5.0155978,5.6844249,0.21605191,-0.64599025,0.73213267,0
2.7562425,1.8768736,7.1353145,0.34995219,0.23830123,0.90595031,0
-6.1044641,3.0295851,3.816684,-0.78153282,0.387867,0.48863646,0
3.4378552,2.7418771,-6.4268179,0.44147426,0.35209981,-0.82530367,0
7.0404239,-0.093167812,-3.2947993,0.90566063,-0.011984849,-0.42383388,0
7.0805893,-1.4607766,2.5861127,0.92215353,-0.19024691,0.33680713,0
-6.8567939,3.0294204,1.9436628,-0.88542348,0.39119157,0.25098678,0
6.4199147,4.1538634,1.6989415,0.81959581,0.53030127,0.21689467,0
-2.8879192,-6.5695233,-2.9510005,-0.37218693,-0.84666175,-0.38031667,0
-4.718874,5.7304854,2.8409684,-0.59368724,0.72095931,0.35742566,0
3.5279505,-3.9920499,5.7737598,0.44906825,-0.50814283,0.73493439,0
-5.9548378,0.87029982,-5.0281024,-0.75933731,0.11097719,-0.64116371,0
5.490675,4.587606,-3.0712917,0.70517123,0.58918947,-0.39444816,0
-3.9203782,6.4349146,-2.2338798,-0.49882388,0.81877023,-0.28423598,0
-0.36851683,-3.9920547,6.7760105,-0.046806734,-0.50704616,0.86064702,0
-6.0488434,-4.8395729,0.76824898,-0.7770257,-0.62168455,0.098688155,0
2.0927036,-2.9216914,-7.0139771,0.26553482,-0.37072179,-0.88997567,0
-7.4864812,1.9410343,-0.42174703,-0.96655792,0.25060132,-0.054450538,0
7.5739655,1.4144931,1.6470941,0.96128494,0.17952694,0.20904858,0
1.6127099,-5.3076,-5.5191107,0.20609474,-0.67827976,-0.70530957,0
3.8503687,-1.6882782,-6.5102978,0.49683374,-0.2178476,-0.84005868,0
-3.3094676,-5.1031752,4.7798171,-0.42781544,-0.65968829,0.61788774,0
1.3641678,7.000968,-3.0404098,0.17593952,0.90292913,-0.39212787,0
2.5208228,-6.8588743,2.5344646,0.32592005,-0.88679165,0.32768381,0
-6.2351246,-4.51086,1.2739331,-0.79932541,-0.57827955,0.16331463,0
-3.2226233,3.7935491,5.9194717,-0.41667667,0.49049586,0.76537204,0
-4.2708039,-3.2281344,-5.640883,-0.54916531,-0.41509268,-0.72533822,0
3.6852763,-0.43293864,-6.8859506,0.47113734,-0.05534824,-0.88032162,0
4.989572,-4.4613371,4.0873623,0.63621652,-0.56886172,0.52117646,0
-5.4639831,-5.292912,1.9701976,-0.69532025,-0.67355055,0.25071788,0
5.4884453,3.3567092,-4.5243907,0.69781798,0.42678243,-0.57524508,0
-1.6826876,-7.5476828,-1.2044023,-0.21500674,-0.96441114,-0.15389346,0
-3.4997764,-1.0008386,-6.958621,-0.44565055,-0.12744366,-0.88608903,0
-6.2905979,3.6879952,-2.6956377,-0.80915529,0.47438428,-0.34673804,0
-6.5830393,2.7102749,3.258157,-0.84082335,0.34617177,0.41615039,0
0.096126318,7.8446422,-0.71613359,0.012202103,0.99578482,-0.090904713,0
5.046073,-5.8158975,-0.75276494,0.65223831,-0.7517432,-0.097299851,0
-3.1357033,3.7381732,5.9575505,-0.40720335,0.48544025,0.77364922,0
6.8958259,-2.4619687,2.5616133,0.88894767,-0.3173748,0.33022007,0
6.2537341,-4.5608039,-0.18092202,0.80773836,-0.58907783,-0.023368062,0
2.639816,7.2884321,1.4267102,0.3349185,0.92469734,0.18100946,0
0.15541238,-2.8553421,-7.3148127,0.019787945,-0.36355761,-0.9313615,0
-0.55645859,7.804122,1.053883,-0.070486017,0.98853987,0.13349424,0
6.611424,3.1656566,-2.5991707,0.85008121,0.40703261,-0.3341952,0
7.571784,-0.73761916,-1.3370739,0.98026365,-0.095494173,-0.1731012,0
-1.7508322,6.4205732,-4.0642028,-0.22452672,0.82337427,-0.52119333,0
5.9513769,-4.2522178,2.7198663,0.7626341,-0.54489684,0.34853494,0
-3.6615393,6.7240067,-1.5665795,-0.46853063,0.86040395,-0.20045952,0
6.4398456,-4.1658964,-0.63567317,0.83676434,-0.54129773,-0.082596488,0
3.0723155,-0.28733861,7.0981646,0.39694652,-0.037124462,0.91709065,0
1.0035928,-3.595022,-6.9145651,0.12772183,-0.45751899,-0.87997925,0
7.647078,-0.0061064423,0.98542243,0.99179894,-0.00079198391,0.1278058,0
1.0599378,-2.5063257,-7.4005761,0.13442411,-0.31785882,-0.93856055,0
3.3103211,-5.6511955,4.2243199,0.42475244,-0.72511369,0.54202902,0
-3.9877331,5.5125194,3.5509524,-0.51960289,0.71828306,0.46269023,0
-6.6701407,2.8497775,2.830894,-0.85665435,0.36600041,0.36357519,0
-2.8185315,4.9328833,5.3502903,-0.36116308,0.63209343,0.68557942,0
4.7358518,6.2139931,0.10559571,0.60609967,0.7952739,0.013514259,0
-5.9030147,3.6623738,-3.5179124,-0.75807959,0.47033098,-0.45177892,0
-7.7364855,-0.73260087,-0.42526472,-0.99405909,-0.094131701,-0.054642156,0
-0.65734416,3.5318611,6.9242024,-0.084267467,0.45276281,0.88764006,0
-3.2920833,3.3598781,-6.2339053,-0.42154896,0.43023002,-0.79824722,0
-1.2283553,5.1413655,5.7181182,-0.15774176,0.66023898,0.73430383,0
3.3783915,1.4697444,-6.8667541,0.43353352,0.18860558,-0.88117909,0
1.7736884,0.86540598,7.6066308,0.22570372,0.11012382,0.96795177,0
-1.6892016,7.6724648,0.61965549,-0.21434896,0.9735871,0.078630351,0
5.1089134,-2.3754668,-5.5431533,0.64638525,-0.30054665,-0.70132577,0
1.8368578,-3.4716237,-6.7309103,0.23570511,-0.44547781,-0.86370862,0
-3.3170252,-7.0564647,-0.68422681,-0.42378372,-0.90153515,-0.087416939,0
3.2097015,5.1414447,5.0345354,0.40735933,0.65252656,0.63895816,0
-6.4218497,-1.1289353,-4.05932,-0.83610517,-0.14698392,-0.52851105,0
-6.0556726,0.63446045,-4.9569378,-0.77128279,0.080808274,-0.63134205,0
7.6201754,-0.56626785,-1.7949332,0.97082525,-0.072143629,-0.228678,0
0.2318075,4.7006106,6.1161604,0.03003734,0.60909951,0.79252476,0
6.4972959,-4.1428905,0.86491388,0.83791465,-0.53428209,0.1115424,0
-6.064055,1.7841575,-4.7097211,-0.76928347,0.22633748,-0.59747326,0
-5.9836497,2.1795762,4.4667811,-0.76924425,0.28020129,0.57423913,0
-1.5978874,7.6450944,-0.68779612,-0.20379862,0.97507477,-0.087723263,0
-1.2060136,6.7573285,-3.6081498,-0.1555212,0.87138975,-0.46528813,0
-4.4971266,2.0811899,-5.9357281,-0.58160317,0.26915556,-0.76765424,0
1.8057365,-3.5749395,6.6458826,0.23271534,-0.46072239,0.85649192,0
3.8282843,-0.92199302,-6.6695857,0.49427384,-0.1190395,-0.8611173,0
2.1697617,2.0451846,7.1353493,0.28057399,0.26446483,0.92267901,0
-6.1727686,3.3453982,-3.2474754,-0.79795992,0.43246296,-0.41980436,0
-6.4754758,3.6508474,2.1829777,-0.83580017,0.47122082,0.28176048,0
-1.1680455,-7.715333,0.5146876,-0.14936253,-0.98658973,0.065815106,0
0.73711371,-7.1575942,3.0985413,0.094088629,-0.9136287,0.39551225,0
2.5242283,-5.8063331,-4.4796348,0.3254635,-0.74864441,-0.57758546,0
1.1767658,7.270834,-2.389807,0.15196922,0.93896598,-0.30862311,0
-1.9073434,-6.8918262,3.288023,-0.24233778,-0.87564188,0.41776022,0
-6.8784986,1.0324775,3.4117649,-0.88786316,0.13327019,0.44038397,0
6.6918077,1.9932479,-3.5687931,0.8533802,0.25419116,-0.45511431,0
-7.2425179,-2.4356899,-1.708243,-0.92500168,-0.31108204,-0.2181738,0
4.2334375,-1.8787965,6.340487,0.53915519,-0.23927666,0.80750132,0
-6.9794836,-3.3044574,-1.030623,-0.89587516,-0.42415479,-0.13228908,0
-7.2481933,-0.8276931,-2.9395077,-0.921547,-0.10523424,-0.37373376,0
-2.0850561,-1.8469696,7.3581705,-0.26501316,-0.23475207,0.93523234,0
-5.5403762,-4.6422729,3.0498707,-0.70620638,-0.59172928,0.38875306,0
-7.0345492,-0.61417681,-3.3616159,-0.89948398,-0.078532711,-0.42983845,0
5.3698478,-2.3201277,-5.1471772,0.68916911,-0.29776642,-0.66059142,0
-0.9048965,-4.9395213,-5.9745998,-0.11594231,-0.63288951,-0.76551175,0
-4.6354184,0.58257985,-6.3032293,-0.59081227,0.074253343,-0.8033849,0
6.0975828,-1.6307633,-4.5855184,0.78156877,-0.20902604,-0.58775711,0
-7.1273403,0.97258508,2.7109737,-0.92716014,0.12651874,0.35265705,0
7.0010924,-2.0879691,-2.5410941,0.90510464,-0.26993367,-0.32851389,0
-5.044486,0.21212408,-5.9665971,-0.64539313,0.027139222,-0.76336831,0
-1.2791578,-5.3423738,-5.4916477,-0.16467893,-0.68777788,-0.70699543,0
1.1337299,-6.4367599,-4.1580973,0.14635538,-0.83093375,-0.53677678,0
2.3813026,2.3562584,-7.1380157,0.30200267,0.29882652,-0.9052608,0
-3.0860059,-7.1499667,1.0593885,-0.39265925,-0.90975219,0.13479517,0
-4.5340958,0.86557907,6.250288,-0.58353651,0.11139972,0.80440986,0
-1.2955149,-7.1996136,-2.5448217,-0.16726571,-0.92955196,-0.32856542,0
4.9914236,5.9027877,-1.400363,0.63535684,0.75136411,-0.17825179,0
4.1040263,-0.63321072,6.4981608,0.53218287,-0.082110554,0.84263831,0
5.802999,-4.00315,-3.366214,0.74280673,-0.51241899,-0.43088865,0
0.59926969,-4.6197724,-6.1219301,0.077899888,-0.60053056,-0.79579812,0
-3.520689,5.9221129,3.6277502,-0.45216167,0.76057631,0.46591154,0
7.5428996,1.7361062,-0.19044629,0.97422534,0.22423188,-0.024597649,0
-5.2741933,4.4729624,3.5661812,-0.67783988,0.57486558,0.45832598,0
-2.0473278,-5.7422662,4.9960217,-0.25974834,-0.72853214,0.63385469,0
4.6742396,5.6918225,2.7309539,0.59505373,0.72459704,0.34766388,0
-5.7086568,-4.8852386,-2.0322218,-0.73342228,-0.62763327,-0.26109061,0
-0.93644905,-3.205199,-7.1294522,-0.11894898,-0.40712857,-0.90559232,0
-3.5642586,1.8080757,6.65798,-0.45899099,0.23283675,0.85738808,0
-3.1563895,5.0238333,5.0977235,-0.40351135,0.64224446,0.65169054,0
0.23343346,-5.7660942,5.2030749,0.030042563,-0.74208832,0.6696285,0
-0.16596657,-7.7617335,-0.67931616,-0.02129641,-0.99596596,-0.087168127,0
-2.4299476,7.3121481,-1.1947339,-0.31163538,0.93776673,-0.15322196,0
-1.2984722,6.3007064,4.3442249,-0.16727386,0.81167972,0.55963874,0
0.11930026,6.1430264,-4.9059539,0.015173265,0.78130394,-0.62396628,0
0.83550614,5.00455,5.8810606,0.10756756,0.64431274,0.75715941,0
-6.6628628,-2.5534618,-3.1932268,-0.85231984,-0.32664129,-0.40848064,0
-7.7551713,0.73760152,-0.8585192,-0.98951662,0.094113842,-0.10954226,0
-3.3654625,1.2995026,-6.9525161,-0.4296636,0.16590557,-0.88761735,0
-5.2453861,4.0280709,4.2171597,-0.66873747,0.51354122,0.53764826,0
0.86498642,0.33177173,7.7311516,0.11108851,0.042608794,0.99289668,0
7.4930167,0.49139133,1.8217971,0.96972543,0.063594498,0.23577192,0
1.2482014,4.5453238,6.3789473,0.15737237,0.5730713,0.80425322,0
0.31432948,2.8482447,-7.2990255,0.040086042,0.36323306,-0.93083555,0
3.2640107,3.2275255,6.2061391,0.4228403,0.41811377,0.80398196,0
-4.6716146,6.1633248,0.75613213,-0.60119069,0.79315901,0.097306736,0
5.6569242,-0.1059901,-5.3284688,0.7278558,-0.013637359,-0.68559462,0
-7.7211885,-1.208702,0.49410236,-0.98599917,-0.15435177,0.06309709,0
-7.2436147,-0.40082049,-2.7493412,-0.9336735,-0.051664189,-0.3543793,0
-0.072301142,7.7925549,0.15901057,-0.009275903,0.99974889,0.020400323,0
-7.1244731,-0.80953187,3.1358626,-0.91035336,-0.10344064,0.40069532,0
-1.1506023,-4.1501336,6.5759616,-0.14637384,-0.52795911,0.83656073,0
7.6394916,-1.8406774,0.092048064,0.9721123,-0.23422307,0.01171296,0
-6.4313655,-4.2128468,1.2982968,-0.82483155,-0.54030347,0.16650838,0
6.2851839,-3.5442691,-3.0863781,0.80086434,-0.45161429,-0.39326936,0
5.7837391,2.9736414,-4.239778,0.74500376,0.38303491,-0.54612607,0
-6.9026232,2.2692301,2.8366137,-0.88493723,0.29092219,0.36366248,0
4.3875685,0.7983039,-6.4137325,0.56166005,0.10219223,-0.8210327,0
3.4563353,-3.746511,5.8390245,0.44592565,-0.48336321,0.75333285,0
-6.797482,1.6633354,3.4516575,-0.87114006,0.21316689,0.44235161,0
-0.79163885,-7.4947772,2.0324347,-0.10141787,-0.96016556,0.26037782,0
-5.4725657,3.0725186,4.5146675,-0.70785397,0.39741769,0.58395374,0
2.738481,-5.6006722,-4.6842875,0.35117576,-0.71821576,-0.60070097,0
-5.1944447,-1.3249205,-5.6387148,-0.6676423,-0.17029212,-0.72474438,0
0.17987117,4.0900307,-6.6708117,0.022981139,0.52256048,-0.85229248,0
-7.637301,1.1166108,-1.4315981,-0.97288752,0.14224091,-0.18236598,0
2.1837554,-7.5239439,-0.048967518,0.2787323,-0.96034849,-0.0062501635,0
-4.9491549,-5.9217119,1.6956557,-0.62634456,-0.74942738,0.21459517,0
-6.2651076,-3.8389337,2.5067041,-0.8069911,-0.4944824,0.32288158,0
-5.2454109,3.4803207,-4.7179823,-0.6667794,0.44240692,-0.59973443,0
-4.6383977,-4.4470081,4.3687897,-0.59694242,-0.5723114,0.56224501,0
4.9059768,6.0018406,-0.79847693,0.62954974,0.77017426,-0.10246297,0
0.21902914,-3.8541055,6.8059311,0.027992733,-0.49256891,0.8698231,0
-2.3719225,0.34966418,7.3822017,-0.30559015,0.0450495,0.95109683,0
0.70771956,-1.9286649,7.5210252,0.090773247,-0.24737366,0.96465874,0
-3.1943493,7.1337171,0.092047639,-0.40865213,0.91261423,0.011775627,0
7.5171971,1.2662562,2.0688202,0.9516837,0.16030914,0.26191443,0
-3.9604197,-1.5953454,-6.4499407,-0.51200622,-0.20624752,-0.83385348,0
-2.6733303,-2.3415973,6.8804283,-0.34521157,-0.30237433,0.88848114,0
-5.2823839,5.6877532,0.65601975,-0.67809594,0.73013294,0.084212802,0
-1.5948106,7.2254109,-2.1743102,-0.20679134,0.93688393,-0.28193223,0
0.48891145,-7.7462997,1.4181651,0.061964329,-0.9817611,0.17973734,0
-4.1912408,0.79615855,-6.5450191,-0.53646791,0.10190622,-0.83774537,0
-3.3063407,3.9300025,-5.8981881,-0.42276067,0.50250429,-0.75416362,0
3.0429902,-2.5988696,-6.6003971,0.39423338,-0.33669549,-0.85511178,0
6.5795603,-2.0519254,3.4067974,0.85580808,-0.26689538,0.44312456,0
-3.3600936,1.3422539,-6.7939262,-0.43652561,0.17437854,-0.882631,0
-3.4864469,2.9347594,-6.3588157,-0.44565409,0.3751348,-0.81281382,0
-4.2867417,-3.0971041,5.7010412,-0.55126071,-0.39827728,0.73313493,0
-1.9857377,6.2932196,-4.1789379,-0.25422415,0.80568963,-0.53500867,0
-2.0569546,1.2208382,7.4642849,-0.2624276,0.15575533,0.95229828,0
-5.5832729,0.030513613,-5.3312836,-0.7232337,0.0039526052,-0.69059205,0
5.9052992,-5.0604763,-0.73478234,0.75596672,-0.64781672,-0.09406314,0
-4.9674711,-0.05539548,-5.9373035,-0.64166999,-0.0071556764,-0.76694745,0
0.06547296,3.4172392,7.1017814,0.0083072325,0.43358052,0.90107656,0
-3.6398802,-4.3482714,5.3922124,-0.46515465,-0.55568272,0.6890921,0
-0.91092277,0.99992931,7.7327633,-0.11603851,0.12737668,0.98504329,0
1.865744,-3.3904812,6.7869949,0.23880641,-0.43396556,0.86870325,0
-7.1945734,-1.5499448,2.3963697,-0.92953765,-0.20025259,0.30961055,0
-7.3609695,-0.84457284,2.4791687,-0.94214004,-0.10809797,0.317312,0
-7.4004259,2.207782,0.44270301,-0.95669454,0.28541234,0.0572307,0
2.2426357,-7.2979136,-1.1315509,0.29056764,-0.94555598,-0.14660966,0
