-1.089332,6.1926312,4.2773395,-0.14324519,0.81431985,0.56246245,0
-6.153976,4.5124788,-0.26270357,-0.80595487,0.59097636,-0.034404948,0
-3.3294687,2.3489263,6.465241,-0.43567285,0.30736539,0.84599984,0
-0.52890044,-5.31248,-5.4644723,-0.069231935,-0.69539225,-0.71528769,0
2.3504019,0.3613669,7.3509688,0.30421814,0.046772581,0.95145345,0
-7.2675753,2.3807745,1.2439475,-0.93798095,0.30727181,0.1605486,0
-1.4858375,-6.8255038,2.8758757,-0.19669035,-0.90353811,0.38069913,0
-4.2571158,1.7839836,6.0366402,-0.56021154,0.2347618,0.79438651,0
1.164063,6.9760423,2.6443598,0.15416653,0.92389524,0.35021454,0
-3.0850916,6.7548847,1.4021477,-0.40822852,0.89382648,0.18553635,0
-4.7896075,-5.6702909,1.884454,-0.62544513,-0.74044812,0.24607916,0
4.4146571,-6.1264977,0.341562,0.58401966,-0.81048089,0.045185599,0
-7.1352215,1.3424444,2.610661,-0.92478937,0.17399296,0.33836532,0
-5.2880197,-3.4857163,4.1256328,-0.69959217,-0.46115181,0.54581118,0
-2.8795853,-5.9016676,-3.9260345,-0.37637478,-0.77137458,-0.51315039,0
-0.083781049,-4.0369234,6.4774718,-0.010976283,-0.52888346,0.84862345,0
5.0636787,-3.4641902,-4.5121317,0.6648891,-0.45486739,-0.5924679,0
5.8430095,-3.1404796,3.8496165,0.76183921,-0.40947056,0.50193119,0
-6.4883113,-2.2099779,-3.3783882,-0.84906566,-0.2891995,-0.44209859,0
-7.4652958,-1.3359625,-0.99578857,-0.97598469,-0.17465872,-0.13018565,0
-0.88522249,1.6732484,-7.5045695,-0.11437523,0.21619217,-0.96962839,0
1.1469501,7.3009257,1.7104156,0.15119676,0.96244496,0.22547564,0
-6.5942764,-2.7771685,2.692981,-0.86253661,-0.36325583,0.35224405,0
0.66902858,0.35243845,7.6396561,0.087147266,0.045908425,0.9951371,0
2.5625787,7.1169896,-0.80697405,0.33686209,0.93555915,-0.10608023,0
4.1004438,-5.4181166,3.2883024,0.54320014,-0.71775687,0.43561295,0
0.82345146,2.33448,7.2374654,0.10765334,0.30519658,0.94618487,0
-5.690021,-4.8957238,1.4342722,-0.74456316,-0.64062601,0.18768054,0
4.9975328,-5.1489348,2.5348902,0.65670359,-0.67659867,0.33309865,0
-4.2254028,-4.146853,-4.8849468,-0.55050606,-0.54027218,-0.63643467,0
-6.4587555,-3.8889985,-0.83993649,-0.85141993,-0.5126639,-0.11072391,0
-2.820924,-3.7573729,-5.9032955,-0.37388867,-0.49800673,-0.78242987,0
-2.068593,4.720645,-5.6603084,-0.27021933,0.61665559,-0.73940337,0
6.5511751,-0.72522557,3.7653401,0.86303109,-0.095538922,0.496034,0
-7.1662784,2.7282875,0.54062104,-0.93224841,0.35491806,0.070328429,0
2.4572699,6.7407284,2.5142956,0.32322073,0.88665193,0.33072168,0
-6.1947942,-3.6546612,2.4825599,-0.81415272,-0.48031497,0.32627121,0
0.64796066,5.3844166,5.4241972,0.084476426,0.70198131,0.70716763,0
5.5876908,3.5415523,-3.936897,0.72583306,0.46004257,-0.5113973,0
-2.9645796,3.1760638,6.2128272,-0.39104107,0.41893676,0.81949919,0
-1.8583661,-7.4034109,-1.3030728,-0.23999001,-0.95607889,-0.16827925,0
2.5787015,-6.1006703,-3.9274392,0.33488879,-0.7922771,-0.51004565,0
-6.4080949,3.0378313,3.0205705,-0.83133763,0.3941052,0.39186591,0
1.6278733,-5.0406122,5.3740325,0.2157345,-0.66800898,0.71219563,0
-3.3913813,-4.7655206,5.0413475,-0.43919331,-0.61714816,0.65286851,0
4.1830754,6.4824572,0.36899132,0.54158515,0.8392874,0.047773514,0
4.7836761,1.1952735,5.7107005,0.63403434,0.15842304,0.75690329,0
1.984787,-4.5054479,5.6865416,0.26387659,-0.59899741,0.75602329,0
-4.3051591,-4.9019294,4.0275054,-0.56151223,-0.63934767,0.52529854,0
-3.2165568,2.435102,6.486671,-0.42107567,0.31877634,0.84916246,0
5.6322808,-4.7541709,1.9256307,0.73934579,-0.62407684,0.25277627,0
3.1779089,3.4882059,6.0438504,0.41444981,0.45491746,0.78821409,0
1.6511716,7.2679529,1.7666509,0.21556689,0.94885963,0.23064318,0
2.9048924,0.022518778,7.0011692,0.38323495,0.002970844,0.92364609,0
-7.5255151,-0.49608725,1.4168571,-0.9806785,-0.064647019,0.18463604,0
-5.0797915,-3.742564,4.1648474,-0.67190999,-0.49503332,0.55088925,0
0.57579553,1.3002082,-7.4729228,0.075692713,0.17092229,-0.9823727,0
-5.85467,4.9263139,-1.1193342,-0.75710618,0.63705426,-0.14474852,0
0.23785709,-3.9132953,-6.5776052,0.031062497,-0.51104939,-0.85898989,0
-5.8284321,4.5873752,-1.762315,-0.76451766,0.60172772,-0.23116353,0
0.9917773,-2.4538071,-7.2198405,0.12897542,-0.31910473,-0.93890232,0
-2.2072501,-1.570671,-7.0934696,-0.29068878,-0.20685306,-0.93419051,0
-2.60958,-7.1512003,1.4515849,-0.33673632,-0.92278028,0.18731037,0
-2.0257065,-6.5880499,3.0788553,-0.26834613,-0.87272155,0.40785715,0
1.7339494,-3.4969277,6.569109,0.22692044,-0.45763984,0.85969353,0
3.7679584,6.4267154,1.6474097,0.49384639,0.84231555,0.21591727,0
1.0328717,-7.4906096,-0.013010307,0.1365962,-0.99062532,-0.0017205996,0
-3.6554759,-4.4260159,-4.9842882,-0.48083696,-0.5821929,-0.65562737,0
-4.1615219,-1.9399829,6.0608521,-0.54730469,-0.25513786,0.79709613,0
-7.4521093,1.1582797,-1.4244426,-0.97096747,0.15091725,-0.18559678,0
-0.6587261,-7.5179954,-0.27966464,-0.087225623,-0.99550003,-0.037031967,0
4.6464262,-0.63308793,-6.1600518,0.60016966,-0.081774712,-0.79568166,0
-0.048050012,7.1334844,2.8659267,-0.0062501552,0.92789537,0.37278837,0
-0.46737644,6.0339661,-4.8463368,-0.060280714,0.77824163,-0.62506497,0
-6.0213261,-3.590699,3.1874104,-0.7818647,-0.46624956,0.41388285,0
3.284646,-5.9641981,3.3564174,0.43269211,-0.78567415,0.44214666,0
1.8400136,7.2237473,1.8194638,0.23979616,0.94142067,0.23711805,0
3.7880228,-0.95494527,6.5793219,0.49505636,-0.12480171,0.859851,0
1.372836,-5.068737,5.4841313,0.1808047,-0.66756076,0.72226888,0
0.92538303,-1.6350243,-7.3768253,0.1215641,-0.21478702,-0.9690659,0
0.90885818,-7.3900232,1.710552,0.11896574,-0.96732318,0.2239041,0
1.1246585,7.1281872,-2.3953793,0.14791256,0.93748325,-0.31503493,0
-1.6640487,3.765667,6.4491248,-0.21748923,0.49216831,0.84289312,0
0.083495282,7.2898993,-2.1071367,0.01100246,0.96061504,-0.27766463,0
-0.58515102,5.6389556,5.2752962,-0.075562209,0.72817433,0.68121397,0
-7.1724343,0.43512353,2.4307909,-0.94552827,0.057361502,0.32044649,0
2.4966514,-0.84425974,7.1660399,0.32698697,-0.11057287,0.93853778,0
-7.5757227,-1.0478867,-0.82390624,-0.98487008,-0.13622889,-0.10711065,0
-5.2203441,-5.5092921,-1.3760728,-0.67678142,-0.7142415,-0.1783983,0
-3.1449511,-6.0039458,-3.7217221,-0.40672621,-0.7764706,-0.48131812,0
0.048784949,-5.9148688,-4.6707368,0.0064728721,-0.78479511,-0.61972153,0
5.630187,2.7670715,4.4188499,0.73372251,0.36060303,0.57586181,0
7.2244062,0.5248062,2.4546185,0.94460797,0.068619639,0.32094708,0
-2.6390913,-5.4450364,4.5853591,-0.34761393,-0.71720541,0.60397106,0
7.1344376,1.2958143,2.3056989,0.93764198,0.17030212,0.30302599,0
-7.1824646,-1.9701543,-1.8608241,-0.93561679,-0.25664023,-0.24239844,0
-4.1293263,-5.0159736,-4.2089911,-0.53341866,-0.64795405,-0.54370958,0
2.9394689,5.7637906,4.023262,0.38581023,0.75650722,0.5280599,0
-4.3663163,5.8059363,-2.4102666,-0.57046551,0.75855392,-0.31490481,0
4.2911959,6.2213554,-0.56116736,0.56622857,0.82091552,-0.074046724,0
1.2080047,-4.3737993,6.2550392,0.15632457,-0.56600136,0.80944741,0
-3.6595888,0.45125473,-6.8170505,-0.47218183,0.058223557,-0.87957621,0
-2.2857606,6.9157252,2.2747188,-0.29955125,0.90631282,0.2981042,0
-4.154335,-1.514274,-6.325346,-0.53829283,-0.19621019,-0.81959891,0
6.7056332,-1.4951189,3.2973602,0.87993556,-0.19619448,0.43269059,0
6.468832,3.8006201,-1.888083,0.8361311,0.49125046,-0.24404481,0
3.1370118,-3.1679275,6.1627679,0.41242099,-0.41648546,0.81021529,0
-7.0974083,-2.7293949,-0.55183101,-0.93091416,-0.35799441,-0.072379559,0
-7.0773468,1.5052606,-2.55988,-0.92211413,0.19612181,-0.33352917,0
0.2595281,1.4339476,7.556447,0.03372388,0.18633156,0.98190796,0
2.4397674,1.7381382,7.007987,0.32012135,0.22806074,0.9195165,0
-7.0742707,2.9650662,-0.61679399,-0.91929978,0.38530964,-0.080152236,0
-0.26032326,7.4839606,-1.2822611,-0.034264445,0.9850589,-0.16877465,0
-5.1705284,5.5280862,-0.57686865,-0.68111801,0.72821939,-0.075991392,0
2.2100174,1.7121027,-7.1495113,0.2878882,0.22302726,-0.93133199,0
1.6820122,7.3537765,-0.63854504,0.22217503,0.9713518,-0.08434467,0
-6.2607112,-2.0272627,3.6918502,-0.82971698,-0.26866823,0.48927203,0
2.9858844,-6.6079464,-2.5246105,0.38888025,-0.86061603,-0.32880417,0
2.609046,1.7584419,-7.0107012,0.3395274,0.2288343,-0.91233546,0
7.4072795,-0.42511588,1.8391168,0.9690308,-0.055614263,0.24059588,0
4.5658846,2.8325739,-5.3911505,0.59986478,0.37214288,-0.70828801,0
4.2877522,-4.7635388,4.1194429,0.56278664,-0.62523574,0.54069531,0
4.7621803,3.1693256,5.1298118,0.61978376,0.41247839,0.6676299,0
5.1752067,-0.023775339,5.7641888,0.66806507,-0.0030691477,0.74409652,0
3.0756614,-0.08736366,-6.9537253,0.40447658,-0.011489091,-0.91447616,0
-3.3512661,6.2464027,3.1546059,-0.43192706,0.80506599,0.40658054,0
-3.0401516,-0.25725374,7.0063963,-0.39782786,-0.033663683,0.91684228,0
-6.6485519,-2.7027695,2.5462301,-0.87306166,-0.35491705,0.3343609,0
0.70116806,4.4777684,-6.1724186,0.091563456,0.58473849,-0.80603784,0
-2.3546097,6.7277203,2.7678337,-0.30793735,0.87985551,0.36197907,0
-7.2286019,-1.862177,1.2828363,-0.95439202,-0.24586315,0.16937283,0
-3.4023049,-6.6162734,-1.786588,-0.44466922,-0.8647235,-0.23350072,0
1.3356662,-6.2876225,4.2694397,0.17308941,-0.81481498,0.55327809,0
-5.9585466,0.44267973,-4.9286814,-0.76929545,0.057153448,-0.63633168,0
-0.85322845,7.5380473,0.062869988,-0.11246753,0.99362081,0.0082871504,0
6.3098702,-2.0671329,3.7941251,0.82509893,-0.27030495,0.49613202,0
3.6843698,3.6073632,5.6809983,0.48022854,0.47019133,0.74047333,0
0.64816594,-4.3889074,-6.2207017,0.084831096,-0.57441437,-0.81415713,0
6.5165114,3.9026754,-1.4078895,0.8435449,0.50519085,-0.18224752,0
-7.0903225,1.4175733,-2.5659513,-0.92412913,0.18476181,-0.33443758,0
3.599803,-4.5107374,-5.0088983,0.47107837,-0.5902853,-0.65547574,0
-2.6150863,-3.7305,-6.1922283,-0.34016997,-0.48526278,-0.805484,0
5.1470232,-0.21122749,5.7115917,0.6691857,-0.027462557,0.74258757,0
-1.6111982,-3.8913062,-6.445663,-0.20925571,-0.50538665,-0.83713585,0
-0.9308989,0.5375241,7.4926047,-0.12298314,0.07101351,0.98986477,0
-0.075414009,3.5264711,6.7906122,-0.0098553794,0.46085221,0.88742214,0
-6.5987649,-0.85023129,-3.8832843,-0.85657454,-0.11036708,-0.50408256,0
3.9124427,3.6475742,5.3579726,0.51676768,0.48178303,0.70769781,0
4.7342167,-5.5279365,2.471508,0.61592901,-0.71919322,0.32154709,0
2.9128602,5.4053531,4.4926062,0.38285336,0.71045554,0.59048814,0
-7.2658882,-0.56598628,-2.1900573,-0.95480043,-0.07437548,-0.28779241,0
-7.6385479,-0.47062781,0.51196349,-0.9958815,-0.061358459,0.066747628,0
-5.9946966,3.1404119,-3.7255282,-0.77599621,0.40651727,-0.48225889,0
7.5698166,-1.4098562,0.36871698,0.98196936,-0.18288893,0.047830589,0
5.7856507,0.85471129,4.9916959,0.75245434,0.1111597,0.64919633,0
-5.2292404,-1.9200909,5.2263012,-0.68459439,-0.25137177,0.68420959,0
-4.124217,3.6237757,5.2625785,-0.54230511,0.47650066,0.69199151,0
3.3607116,-5.5719161,4.0123835,0.43961924,-0.72886992,0.52486533,0
-4.2550187,5.3239002,-3.5066915,-0.5551526,0.69460964,-0.45751831,0
-2.3087413,-6.6973224,-2.6988356,-0.30455223,-0.88346165,-0.35601059,0
3.7528691,-2.7850122,-5.9099936,0.49809283,-0.36963576,-0.78439331,0
3.3902061,6.2927108,-2.6940188,0.44382089,0.8237955,-0.35268116,0
1.2715802,-7.288373,1.6026433,0.16797499,-0.96278971,0.21170822,0
3.2010298,5.2003932,4.6344638,0.41755703,0.6783632,0.60454077,0
1.6988666,-5.0193858,5.5105376,0.22221859,-0.65655583,0.72080052,0
3.1897533,6.0377097,3.6019118,0.41316721,0.78206158,0.4665539,0
3.137583,-6.7493114,-1.4162995,0.41411969,-0.89082038,-0.18693291,0
-5.5756168,1.4494728,-5.1666307,-0.7205146,0.18730956,-0.66766298,0
-1.4116579,-5.7562351,-4.7802019,-0.18539597,-0.75597835,-0.62779385,0
2.2158465,-1.3306388,-7.109581,0.29291409,-0.17589794,-0.93981981,0
-0.88257879,3.2904129,6.796185,-0.11609473,0.43282208,0.89397264,0
2.6425941,-0.25608617,-7.2203803,0.34350479,-0.033288058,-0.93856078,0
-3.847445,-4.8029227,4.4954457,-0.50484651,-0.63022053,0.58987463,0
-7.5305085,-0.68488729,0.5193395,-0.99354911,-0.090361647,0.068519846,0
-7.3799171,1.6813397,1.5276892,-0.95574325,0.21774352,0.19784485,0
2.1704502,-7.1747537,0.68649483,0.28834641,-0.95317298,0.091201499,0
-4.1097221,-2.6438754,5.9157357,-0.53560418,-0.34456605,0.77097499,0
2.9212618,-6.7634912,-2.2983081,0.3785212,-0.87637633,-0.29780227,0
-7.043016,1.3590978,-2.4941421,-0.92741966,0.17896511,-0.32842699,0
2.2622774,0.72184354,-7.3327742,0.29350901,0.093652345,-0.95135784,0
-4.2432179,-4.0476236,-4.8681593,-0.5567438,-0.53108025,-0.63874102,0
-0.54789436,5.3937259,5.3352542,-0.072030656,0.70910317,0.70141596,0
4.6145601,5.1847777,3.141747,0.60567784,0.68052101,0.41236576,0
-3.8706644,1.2362124,6.4705601,-0.50659323,0.16179569,0.84686798,0
6.8882465,-1.4962846,2.9525445,0.90133488,-0.19579053,0.38634378,0
4.100059,3.3823869,-5.4409075,0.53904068,0.44468728,-0.71532398,0
2.0929265,3.814533,6.3914542,0.27068853,0.49335244,0.8266384,0
7.2868052,2.1970649,-0.049299743,0.95740664,0.28867033,-0.0064774482,0
-6.8457437,-0.48395362,3.530201,-0.88703465,-0.06270811,0.45742446,0
-5.0677924,-5.5851245,1.7858047,-0.65389383,-0.72064483,0.23042117,0
-6.0168386,-3.8320603,-2.8824916,-0.78202915,-0.49806604,-0.37464732,0
-4.8467836,-4.1129432,4.388474,-0.62746429,-0.53246135,0.56813157,0
-5.3928671,3.4722791,4.2378988,-0.70150006,0.45167142,0.55126268,0
3.1328466,-5.493289,-4.1636066,0.41377205,-0.72552848,-0.54991013,0
-4.3613501,-2.5485098,-5.7594242,-0.56931037,-0.33267063,-0.75180846,0
5.0083623,5.2594213,1.9922123,0.66504365,0.69838095,0.26453918,0
5.148406,3.8148193,4.270534,0.6685881,0.49540436,0.55458492,0
-1.0462847,5.5424242,5.0279098,-0.13847081,0.73351353,0.66542,0
-2.7461369,5.0147781,-5.033031,-0.36052123,0.65835536,-0.66075164,0
5.2844505,4.9247198,-2.646939,0.68690324,0.64014339,-0.34406435,0
6.8202772,2.846137,-2.192961,0.88473797,0.36920574,-0.28447464,0
4.0644913,1.3618444,-6.2492766,0.53634435,0.17970701,-0.82464546,0
-1.5821091,7.3397179,-1.5334021,-0.20645328,0.95777774,-0.20009738,0
-1.2625943,6.8892221,-2.9254041,-0.1663419,0.90762824,-0.38541061,0
-2.463495,-6.6410279,-2.7876272,-0.323632,-0.87243903,-0.36621362,0
1.5265281,0.39110288,-7.5319505,0.19837838,0.050825369,-0.97880685,0
4.1730604,-4.73455,-4.0745544,0.5555082,-0.63025236,-0.54239529,0
3.2290535,-6.6993098,1.7859176,0.42219034,-0.87591732,0.23350407,0
-2.2098851,-2.8518419,-6.6054249,-0.29361382,-0.37890667,-0.87762213,0
-3.7466695,4.8272066,-4.5631289,-0.4912779,0.63296211,-0.59833521,0
-5.7618527,0.76599497,-4.9780173,-0.75290138,0.10009257,-0.65047759,0
4.8909078,3.2553043,-4.969398,0.63559622,0.42304194,-0.64579636,0
6.3258805,-3.9260042,1.9871404,0.82092702,-0.5094884,0.25787669,0
-0.20818302,-5.6223574,5.2150555,-0.027137399,-0.7328943,0.67980105,0
-2.9186687,5.9960957,-3.9444971,-0.37670168,0.77389371,-0.50910151,0
7.3357997,1.3028618,1.2384293,0.97126609,0.17250001,0.1639691,0
-2.9627943,2.8720994,6.5226851,-0.38386497,0.37211439,0.84509087,0
-5.6841445,3.4050486,-3.7748282,-0.74538106,0.44651553,-0.49500597,0
4.087923,-5.7679238,-2.9623306,0.53330863,-0.75248075,-0.38646433,0
1.7745843,-0.53075826,-7.492291,0.22993234,-0.068770185,-0.97077382,0
6.11553,-1.3849841,4.2075515,0.80986989,-0.18341124,0.55719936,0
-0.53152007,-7.3400526,2.0383503,-0.069603994,-0.96119976,0.26692751,0
1.1792388,-3.902241,-6.4518061,0.1545171,-0.51131541,-0.84538805,0
2.7347872,-7.1938028,-0.52401996,0.35452655,-0.93257499,-0.067931794,0
2.8959281,-4.2198992,-5.5956664,0.38188568,-0.55647755,-0.73789978,0
3.2603853,-2.1464899,-6.5493803,0.42762354,-0.28152797,-0.85899949,0
-7.1683197,-0.68545705,2.7010593,-0.93204868,-0.089125395,0.35120067,0
-0.037900217,-4.0537443,6.3950529,-0.0050054947,-0.53537941,0.84459686,0
3.090786,-6.8620043,-0.30808759,0.41033965,-0.91101503,-0.040902399,0
4.7241879,4.9809518,3.5300481,0.61198932,0.64525151,0.45729592,0
-5.417696,4.7767239,-2.6432109,-0.70439881,0.62106079,-0.34366539,0
-3.3384948,-6.4871206,-2.5183702,-0.43254888,-0.84049761,-0.32629022,0
-4.5923877,-5.4535012,-2.6666596,-0.60331297,-0.71643949,-0.35032544,0
6.0582743,2.5453341,-3.9510701,0.7901116,0.33195889,-0.515293,0
-6.3109107,-4.0689335,-1.6253169,-0.82143331,-0.5296157,-0.21155258,0
-3.3801248,-3.7503874,5.7223177,-0.44293356,-0.49145299,0.74985588,0
5.1002622,-5.6605811,-0.36109138,0.66863036,-0.74208665,-0.047338087,0
4.7840028,5.1396971,3.0074639,0.6262942,0.67285967,0.39371994,0
6.7467909,-3.534024,-0.85335702,0.88032365,-0.46112069,-0.11134633,0
1.4825559,-7.348175,2.0113139,0.19101703,-0.94676131,0.25914383,0
0.49216601,-5.8748488,-4.7427373,0.065046698,-0.77644438,-0.62681985,0
2.1221471,6.2489028,-3.7563424,0.27946609,0.82291961,-0.49467367,0
-6.7951221,-2.2399824,2.6395171,-0.89102846,-0.29372364,0.34611371,0
-0.83711821,-3.465246,-6.7803531,-0.10927851,-0.45235774,-0.88511616,0
1.2156682,6.7871566,-3.3517649,0.15856557,0.8852821,-0.43718711,0
-6.3612761,3.1086709,2.9619312,-0.82885128,0.40504858,0.38592893,0
-6.3628721,-1.6057296,3.8921323,-0.83395463,-0.21045616,0.51012528,0
-0.54793799,-3.5035024,6.6860776,-0.072399572,-0.46292111,0.88343781,0
2.0254431,6.821384,-2.5221758,0.26828808,0.90355343,-0.33408478,0
0.55765188,-2.2158685,7.2594733,0.073273197,-0.29115614,0.95386541,0
3.5303447,-5.5408769,-4.044416,0.45759213,-0.71819097,-0.5242244,0
3.9382751,-2.3148015,-6.1718745,0.51289213,-0.3014628,-0.80377972,0
-3.2174616,6.9019065,-1.4551278,-0.41500688,0.890248,-0.18769084,0
6.6274877,-0.37266982,-3.7130673,0.87136418,-0.048997622,-0.48818406,0
-5.6461997,0.86645627,-4.9585681,-0.74643326,0.11454639,-0.65552771,0
-1.2320713,-5.134583,5.6042209,-0.16001029,-0.66683328,0.72782558,0
-7.0199904,-0.43700767,3.1928596,-0.908813,-0.056575324,0.4133499,0
6.064291,-0.23544094,-4.6868763,0.79085934,-0.030704441,-0.61122721,0
0.35230318,-6.0856066,4.7216921,0.045690857,-0.78925371,0.61236507,0
-1.1819774,7.262146,1.9164523,-0.15545791,0.95514357,0.25205868,0
5.0258336,-5.1601501,2.521143,0.65855008,-0.67614996,0.33035293,0
-6.8782921,2.9026759,-1.5840584,-0.90125728,0.38033536,-0.20755795,0
-4.9430742,-2.2754476,-5.4146657,-0.64391422,-0.29641333,-0.70534652,0
7.2655268,-1.4793365,-1.6263503,0.95714003,-0.19488361,-0.2142508,0
-5.7132568,-3.6045897,-3.5108528,-0.75044322,-0.47346723,-0.46115476,0
1.8326302,4.0364895,6.2516279,0.2391265,0.52669197,0.8157292,0
4.5038214,5.189518,-3.3937788,0.58767766,0.67715025,-0.44283462,0
-7.0011339,-3.0801365,0.57254297,-0.91277885,-0.40157545,0.07464578,0
6.6574774,-2.7149065,-2.6964386,0.86699796,-0.35356009,-0.35115504,0
4.8621311,4.7242351,3.457305,0.63891578,0.62079531,0.45431244,0
-2.4228702,-2.0940695,-6.9500599,-0.31661698,-0.27364981,-0.90822327,0
1.2949474,-1.4855617,7.3555503,0.17005266,-0.19508415,0.96593183,0
5.402667,3.3221464,4.4045696,0.6996671,0.43023133,0.57040948,0
-4.0367579,-2.1915734,-6.06774,-0.53043711,-0.28797659,-0.79731172,0
1.9124413,-7.4184484,0.52061218,0.24905919,-0.96611214,0.067799859,0
-6.0601349,-3.1291566,-3.4099171,-0.79474604,-0.41036791,-0.44718775,0
-2.8772023,-0.22358075,-7.10605,-0.37513906,-0.02915119,-0.9265101,0
-1.317142,1.9490814,-7.2974524,-0.17178825,0.25420895,-0.95177025,0
-4.9859934,-5.6611104,-1.325711,-0.6509673,-0.73911005,-0.17308377,0
-4.8154926,-5.8987617,-0.3049145,-0.63188404,-0.77402949,-0.040010571,0
2.5910068,-5.8602233,4.0436211,0.34197026,-0.77345312,0.53369147,0
1.0757771,5.6016364,5.038259,0.14135435,0.73604071,0.66201437,0
4.3253145,1.3641199,6.1033273,0.56882608,0.17939666,0.80265415,0
0.90108269,0.62052405,7.6220107,0.11702171,0.08058615,0.98985445,0
3.9379778,-4.0230269,5.327239,0.50808644,-0.51905966,0.68733191,0
-0.32763156,4.6719818,6.1726604,-0.042284194,0.6029669,0.79664481,0
-4.6848602,-1.7704395,5.9602127,-0.60177898,-0.22741623,0.76560038,0
-5.9923954,-4.6895828,1.0520898,-0.78009135,-0.61049092,0.13696128,0
6.3930149,3.6888902,-1.9085561,0.83856875,0.48386997,-0.2503444,0
7.5956583,-0.30079505,1.3676156,0.98342776,-0.038944643,0.17706841,0
-3.5999115,4.8826871,-4.7042313,-0.46894768,0.63605028,-0.61280352,0
4.8936458,-5.32513,2.2259159,0.64670891,-0.7037307,0.29416096,0
3.3181951,-6.7539902,1.291268,0.43459961,-0.88460183,0.16912344,0
5.7803898,0.84324646,-5.1258354,0.74378133,0.10850324,-0.65955776,0
4.445097,-6.0522408,1.2322487,0.58413863,-0.79533643,0.16193214,0
-1.5080526,5.1310258,5.5403075,-0.19583999,0.66632956,0.71948004,0
5.0073175,-3.2963889,-4.699471,0.65735453,-0.4327459,-0.6169408,0
-6.374434,1.7856553,3.8686898,-0.83137041,0.23288985,0.5045647,0
6.6226325,-3.3360338,1.9157835,0.86469865,-0.43557662,0.25013852,0
3.8316505,-2.1200874,6.286777,0.500112,-0.27671656,0.82055831,0
2.9625118,6.3751011,-3.2345302,0.38283983,0.82384229,-0.41799223,0
-3.3200603,-6.44771,-2.3591373,-0.43534037,-0.84545106,-0.30934009,0
-3.0684152,-0.06346982,6.975059,-0.40265748,-0.0083289249,0.91531283,0
0.92429477,5.4444299,5.4348335,0.11929259,0.70267642,0.70143789,0
-4.3526502,-6.2191005,1.5589311,-0.5616765,-0.80252779,0.20116824,0
-0.16895695,7.6088295,0.50494373,-0.022151208,0.99756038,0.066200964,0
-0.92849231,5.3669395,5.4174538,-0.1208641,0.69862753,0.70520312,0
-3.8167591,-1.6402801,-6.3584304,-0.50251931,-0.21596135,-0.83715892,0
-5.9754586,1.2042611,-4.6351533,-0.78031611,0.15726061,-0.60528988,0
1.8504586,2.0977504,7.2276163,0.23876747,0.2706759,0.93259025,0
3.106163,3.7197042,5.8939004,0.40707907,0.48748687,0.77242678,0
6.6302419,1.5928537,-3.250097,0.87773192,0.21086688,-0.43025789,0
1.8651015,7.2700953,-1.2584059,0.24507634,0.95529836,-0.16535589,0
6.4787421,2.3303835,3.3124554,0.84794807,0.3050043,0.43353945,0
5.3423347,5.547493,-1.0289464,0.68755317,0.71395683,-0.13242438,0
0.70856774,-7.3323903,2.0022173,0.092819802,-0.96051657,0.26228321,0
-5.3788838,0.48506734,-5.3767695,-0.70581168,0.063650042,-0.70553422,0
-7.2880688,-0.057663854,-2.0586715,-0.9623161,-0.0076139313,-0.27182683,0
3.0558319,-4.5778551,-5.3153353,0.39936933,-0.59828389,-0.69466579,0
-5.7907453,-0.79706848,4.8972363,-0.75937444,-0.10452427,0.64220333,0
1.3351479,5.6639347,5.0834737,0.1727929,0.73301822,0.6578958,0
-4.6428766,4.3667116,4.2388601,-0.6065498,0.57047135,0.55376869,0
7.5675697,0.5051012,-0.72610736,0.99323857,0.066294201,-0.095301114,0
1.5256406,3.4912627,-6.6694827,0.19862401,0.45452946,-0.86830378,0
-5.9151926,-4.2412724,2.415163,-0.77132952,-0.55305362,0.31493253,0
-1.5251417,3.01015,-6.8422666,-0.19991022,0.39455989,-0.8968603,0
-2.1556246,3.3478003,6.5908856,-0.2799412,0.43476364,0.85592848,0
6.0184813,-1.9209422,4.4241443,0.78033751,-0.24906337,0.57362074,0
2.5107224,-0.02326181,7.3487072,0.32330474,-0.0029954142,0.94629014,0
-3.0379207,-6.7523255,-1.8192253,-0.39844388,-0.8856132,-0.23860371,0
-1.4566633,-6.3857093,-3.7294583,-0.19326551,-0.84723592,-0.49481285,0
5.3483405,-5.3890204,0.50679606,0.70285869,-0.70820469,0.066601224,0
0.79910761,-3.1833816,6.7552156,0.10640078,-0.42386565,0.89945358,0
1.4572464,3.5965669,6.5906758,0.19053309,0.47024646,0.86172235,0
5.0530863,-4.3911276,3.7528574,0.65841615,-0.57216305,0.4889966,0
4.2097569,-3.3256485,-5.3949695,0.55330414,-0.43710247,-0.70908111,0
2.2168832,5.7433443,4.547646,0.28964227,0.75038475,0.5941633,0
4.2494287,-5.2565904,-3.420795,0.56092888,-0.69387519,-0.45154837,0
-3.1677516,5.9630604,3.4554448,-0.41763145,0.78616065,0.45556051,0
3.4494338,-1.8284949,6.5938206,0.45014569,-0.23861571,0.86048323,0
4.8536649,-4.3823333,-3.8136382,0.64116073,-0.57889867,-0.503775,0
-3.7070563,-6.6415648,-1.0440011,-0.48285261,-0.8650791,-0.13598354,0
-6.920588,-0.69118655,3.0728424,-0.9101733,-0.090902612,0.40413025,0
4.7981358,1.3551809,-5.8710942,0.62293297,0.17594059,-0.76223314,0
1.1160545,5.2081156,5.5220728,0.14546649,0.67882556,0.71974671,0
5.4362841,3.4810331,4.1726961,0.70725161,0.45287666,0.54286087,0
1.5696824,6.6070552,3.5827005,0.20443699,0.8605094,0.46661445,0
-2.2979002,-3.3609354,-6.4580164,-0.3009977,-0.44024271,-0.8459236,0
4.815805,5.1576047,-2.6358249,0.63932627,0.68470222,-0.34992117,0
-5.1888518,2.5773535,-5.0882688,-0.6729275,0.33424968,-0.65988314,0
3.9096665,6.4251022,-1.3689055,0.51142228,0.84046566,-0.17906612,0
3.8669147,-4.4250593,4.88727,0.50592411,-0.57894844,0.63942128,0
-5.6972852,2.4892323,-4.4017124,-0.74789417,0.32676658,-0.57782173,0
5.7448554,4.2086902,-2.9372368,0.74574685,0.54633534,-0.38128638,0
7.0091896,-1.0669695,3.1028824,0.90567499,-0.13786581,0.40093121,0
-1.5121173,-7.302249,1.8228129,-0.19697446,-0.95122027,0.23744692,0
-6.6769209,-1.2640435,3.7139153,-0.86218619,-0.16322507,0.47957534,0
-2.9104352,-4.1220455,-5.6749659,-0.38326022,-0.54281098,-0.74730706,0
3.4557774,-6.7923064,-0.7275843,0.45140904,-0.8872413,-0.095040306,0
1.6799713,-4.3624372,6.1515999,0.21743609,-0.56462348,0.79619205,0
-5.1474462,-5.1655884,-2.3612924,-0.67153496,-0.6739018,-0.30805382,0
-0.092293173,4.1030025,-6.3856292,-0.012158645,0.54052699,-0.8412388,0
0.29318005,4.1967912,6.3960881,0.038295913,0.54819536,0.83547306,0
-1.6069478,-7.3569736,-1.5446175,-0.20904177,-0.95704091,-0.20093346,0
-6.6992378,2.2077675,2.6533141,-0.88894272,0.29295555,0.3520765,0
3.6035256,6.0104046,3.0122781,0.47241661,0.78795475,0.39490497,0
-1.6878556,3.8806412,6.4016795,-0.21994571,0.5056892,0.83420759,0
-2.7701924,0.046064723,7.1302385,-0.36213556,0.006021847,0.93210602,0
1.7081686,3.461009,6.448513,0.22729212,0.46052834,0.85805124,0
-5.3113031,3.3886201,-4.307713,-0.69591558,0.4439953,-0.56441981,0
-7.09341,1.1025448,-2.8384006,-0.9189111,0.14282843,-0.36769873,0
4.1268258,-1.7478386,-6.1479831,0.54242462,-0.22973363,-0.80808288,0
6.3868227,3.4470489,-2.5869827,0.82892549,0.44738156,-0.3357563,0
-5.2579188,-2.5171511,4.9528427,-0.68736887,-0.32906774,0.64748621,0
-1.1795344,-1.3259948,-7.5486174,-0.15211104,-0.17099836,-0.97345865,0
-1.6674242,4.9367037,-5.650929,-0.21692514,0.64224517,-0.73516297,0
-3.4622188,6.0258837,2.964546,-0.45823348,0.79754102,0.39236519,0
-6.605906,-1.8102736,3.2127402,-0.87316185,-0.23928012,0.42465669,0
-0.76166993,-7.2564874,2.0074916,-0.10065039,-0.95890391,0.2652787,0
1.9574724,7.0135236,2.1775329,0.25755578,0.92280918,0.28651038,0
3.6465671,-2.0736802,-6.4366188,0.47463134,-0.26990691,-0.83778,0
-5.9397578,-4.4254737,-1.8770608,-0.7773267,-0.57915473,-0.24564797,0
0.46710247,-7.5810404,1.4256475,0.06044244,-0.98097658,0.1844769,0
-6.4793711,0.24096353,4.2123542,-0.83799124,0.031164343,0.54479301,0
-5.5129552,-4.7077022,-2.4076469,-0.72170043,-0.61628485,-0.3151848,0
-6.9681277,0.24168929,-3.0780838,-0.91426814,0.031711362,-0.40386659,0
-3.2485027,-4.2283735,-5.5134754,-0.42352849,-0.55128062,-0.71882772,0
3.621567,-6.6199136,-1.0198433,0.47562081,-0.869394,-0.13393614,0
-6.9899869,-0.035579976,-3.1808534,-0.91018069,-0.0046329424,-0.41418549,0
1.7445616,-6.9844875,2.5618989,0.22830608,-0.91404116,0.33526883,0
-5.2263412,-5.6443381,-0.71160865,-0.67652661,-0.73063445,-0.092114575,0
-2.5333986,3.4029853,6.2773962,-0.33437359,0.44914702,0.82852954,0
-0.83799201,2.6333802,7.1322517,-0.10955694,0.34428144,0.9324525,0
2.8450511,-1.1756876,-6.9325233,0.3750754,-0.15499598,-0.91394454,0
-7.4490147,-0.6375829,1.4252291,-0.97873139,-0.083772473,0.18726188,0
0.87959743,7.3843007,-1.7835928,0.11501908,0.96559572,-0.23322853,0
3.0889668,4.8009443,5.1454735,0.40192217,0.62467682,0.66950536,0
-1.9486793,4.2240043,-6.2015538,-0.25136647,0.54486805,-0.79995859,0
-4.8858161,-1.1458471,5.7757998,-0.63855135,-0.14975639,0.75486767,0
-3.1662693,2.3960123,6.6021447,-0.41098049,0.31100145,0.85695571,0
-4.8613787,2.813652,5.2535477,-0.63209778,0.36584339,0.68308932,0
-4.1478286,-3.1315351,-5.4725862,-0.54958522,-0.41492686,-0.725115,0
2.6960022,3.8212278,6.0963812,0.35088235,0.49732947,0.79343867,0
6.264472,-4.3147135,-1.6307242,0.80526042,-0.55463064,-0.20961985,0
2.537046,7.1978817,-0.314996,0.33214316,0.94232708,-0.04123842,0
-5.6825848,-3.793663,-3.3791928,-0.74550086,-0.49769238,-0.44331786,0
-6.6495137,-3.4117591,-1.885731,-0.86268526,-0.44263002,-0.24464832,0
-5.1388307,-5.6247711,0.62505352,-0.67223769,-0.73580617,0.081766568,0
4.2339959,-4.9581871,3.7838573,0.56165493,-0.65772152,0.5019424,0
3.9607978,-6.4918766,0.50145304,0.51970273,-0.85180974,0.065796472,0
-0.60375327,7.4480844,1.3132685,-0.079576932,0.98168534,0.17309369,0
-2.6628277,-6.4655061,-3.1718657,-0.34680542,-0.84206444,-0.41310227,0
4.740407,-2.4539213,5.410522,0.62370032,-0.32286501,0.71186805,0
-1.1813827,-6.1058292,4.5147147,-0.15372548,-0.79451096,0.58746982,0
5.1569958,2.7485464,-4.7959743,0.68216091,0.36357424,-0.63440543,0
-2.7550871,-0.19086395,-7.1235929,-0.36060449,-0.024981569,-0.93238419,0
7.1191082,0.56097573,-2.7100618,0.93205017,0.073444247,-0.35480759,0
3.5473576,6.274528,-2.2644253,0.46952522,0.83049113,-0.2997174,0
6.5140581,-3.3688211,-1.7531565,0.86390406,-0.44677806,-0.23250622,0
7.2823849,2.0577676,-0.82815218,0.95660853,0.2703068,-0.10878544,0
7.5143828,-0.39426768,-1.6759788,0.97474128,-0.051143121,-0.2174025,0
5.8364778,-1.3640195,4.8031945,0.75987238,-0.17758669,0.62534547,0
-2.1985803,0.20340684,7.3105679,-0.2878958,0.026635358,0.95729125,0
-3.8693705,-1.7908118,6.3481793,-0.50599068,-0.23418127,0.83014011,0
6.6555085,2.4209168,-2.8510888,0.87176937,0.31710291,-0.37344882,0
-2.3381915,4.286839,5.8316984,-0.30740982,0.56360501,0.76671278,0
7.5108452,0.25989428,1.3945482,0.98262787,0.034001414,0.18244576,0
-4.8830037,-5.7968249,-0.6254918,-0.6420663,-0.76222467,-0.082245938,0
-5.2857604,-5.2546601,-1.3484063,-0.69786137,-0.69375533,-0.1780256,0
-2.0646269,7.2378955,-0.84095281,-0.27261409,0.95569438,-0.11103972,0
1.0048827,2.2153518,7.3062491,0.13049451,0.28768656,0.94879276,0
-6.1505098,-4.3068309,-0.58725154,-0.81664574,-0.57184774,-0.077973455,0
-4.0572348,5.5547233,-3.2089584,-0.53452492,0.73181319,-0.42276779,0
-2.3833153,0.79092193,-7.1749506,-0.31352448,0.10404556,-0.94386274,0
1.8956816,2.2837563,-7.1300783,0.24545421,0.2957024,-0.92320764,0
5.4528522,-5.3409615,0.56696343,0.71243566,-0.69781673,0.074075907,0
-3.7620192,-0.8268531,6.5235896,-0.49657962,-0.10914309,0.86110187,0
7.2996469,-1.9196674,1.3515084,0.95197588,-0.25035143,0.17625557,0
-7.5137477,0.48067003,-1.6018287,-0.97611356,0.062444009,-0.20809412,0
-6.2387023,-4.3187227,1.0009575,-0.81515324,-0.56428736,0.13078581,0
-1.5106015,-6.8638268,-3.0871949,-0.19678901,-0.89416409,-0.40217492,0
0.0047257305,5.139132,5.6587782,0.00061821827,0.67229927,0.7402792,0
-6.0947328,4.3217797,-1.8776684,-0.79112899,0.56099015,-0.24373142,0
0.029833937,7.0523782,3.0921829,0.0038742588,0.91582745,0.40155333,0
7.6773081,0.90483761,-0.29561973,0.99240083,0.11696308,-0.038213037,0
-3.7290337,2.3139215,6.2106042,-0.4903588,0.30427501,0.81667924,0
-2.3664451,-6.4411721,-3.6150091,-0.30510768,-0.83046556,-0.46608606,0
-0.64470249,5.872273,-4.8097672,-0.084629446,0.77084738,-0.63137329,0
-4.3402004,2.3466544,5.836,-0.56792647,0.30706581,0.76365572,0
1.437874,3.2108786,6.6591177,0.19091876,0.42633569,0.88418776,0
-4.4086418,4.8517675,-3.8189669,-0.58108997,0.63949704,-0.50336665,0
-5.0891728,4.3426027,3.8358862,-0.65991998,0.56311119,0.49740461,0
2.7355404,-0.92057604,7.1899219,0.35308138,-0.1188205,0.92801684,0
5.0475883,2.0196178,5.3647475,0.66086072,0.26442054,0.70238513,0
6.4457746,0.052699711,-4.2774925,0.83320391,0.0068121534,-0.55292398,0
0.92830288,-7.6934338,-0.4538078,0.11958793,-0.99110091,-0.058461454,0
6.6765823,0.24141714,3.7517405,0.87135673,0.031507205,0.4896374,0
-6.3878016,-0.47367775,-4.3341441,-0.82594848,-0.061246958,-0.56040871,0
3.7763717,3.8877492,-5.2913628,0.49855927,0.5132634,-0.69856948,0
1.8178195,7.3190351,-1.1660409,0.23821463,0.95911682,-0.15280285,0
1.4214351,6.9758549,-2.9871056,0.18411225,0.90355188,-0.38690668,0
-1.1451659,-5.8693089,-4.7252917,-0.15025297,-0.77009022,-0.61998796,0
0.28383374,5.5622706,-5.3756557,0.036668122,0.71858269,-0.69447416,0
-3.4460452,-5.5529623,-3.9521508,-0.45120567,-0.72707349,-0.51747227,0
-4.2446766,2.3042989,-5.8340907,-0.56043607,0.30424276,-0.77029067,0
-0.077350058,7.3443928,2.2127972,-0.010083583,0.9574368,0.28846681,0
-6.5571175,0.84764177,3.7434375,-0.8630206,0.11156309,0.49269572,0
-1.6124505,3.4307902,-6.7199554,-0.2089899,0.44466513,-0.87097424,0
-6.6925001,-3.5072851,1.2244095,-0.87433416,-0.45820531,0.1599616,0
-5.9991698,-4.8454924,0.18199812,-0.77772403,-0.62816292,0.023593983,0
1.6086183,0.38412949,-7.5757842,0.20745106,0.04953821,-0.97699028,0
3.0239029,-6.8949127,-1.2104485,0.3965489,-0.90418577,-0.15873592,0
-5.5231524,5.1362839,0.60026795,-0.72997981,0.67884851,0.079335764,0
3.2667477,4.846715,-5.0408773,0.42324498,0.62794805,-0.65310401,0
-1.1682096,-4.3180604,6.1865215,-0.15302004,-0.56560892,0.81035268,0
-1.5878998,-6.8197393,3.2944188,-0.20519635,-0.88128078,0.42572126,0
3.6458225,3.4831285,5.80127,0.47432846,0.45316166,0.75475627,0
-6.0278406,4.7551827,-0.15783866,-0.7849474,0.61922145,-0.020553801,0
-4.3224711,-5.97751,1.774591,-0.56971586,-0.78785533,0.2338969,0
-2.0782809,-2.2977192,7.0468826,-0.26998103,-0.29848737,0.91543192,0
0.20361133,-3.9863217,-6.4821811,0.026746802,-0.52365142,-0.85151261,0
1.0053967,7.3567624,2.0433068,0.13055132,0.95527965,0.26532453,0
-0.029642051,4.6805711,5.9865541,-0.0039006935,0.61593151,0.78779006,0
6.5082488,-2.63662,3.2232678,0.84233016,-0.34124458,0.41717148,0
0.04484278,0.029744089,7.6734734,0.005843726,0.0038761268,0.99997538,0
2.05586,2.4756951,7.0161114,0.266341,0.32073152,0.90895206,0
6.5674486,2.7786825,-2.7436526,0.85953647,0.36366922,-0.35908458,0
5.7971559,4.9754853,-1.3432494,0.74737155,0.64144146,-0.17317224,0
3.4323902,-3.4275408,5.908596,0.44899178,-0.44835743,0.77290487,0
-6.6833138,-3.4237587,-0.76548451,-0.88542253,-0.45358831,-0.10141335,0
-4.6223512,-5.9737129,-1.7978803,-0.59533691,-0.76938587,-0.23155844,0
-3.2712615,0.21990345,6.9206471,-0.4271695,0.028715543,0.90371543,0
-1.1885644,5.9301944,-4.6863875,-0.15534186,0.77505887,-0.61249703,0
-0.19161534,-5.7497621,5.0371857,-0.025059059,-0.75194204,0.65875274,0
4.032743,-0.58644062,6.5249152,0.52421296,-0.076230936,0.84816837,0
4.7790318,5.509089,-2.3653715,0.62331796,0.71853763,-0.30850989,0
1.8546923,-6.5453248,3.5164554,0.24218675,-0.8546921,0.45918068,0
2.4307027,-7.2847295,0.16967815,0.31643876,-0.94835573,0.022089392,0
4.9077144,4.7596798,3.4954588,0.63915515,0.61987585,0.45523033,0
-1.2955283,-2.3609836,-7.2591858,-0.16732393,-0.30493277,-0.93755996,0
5.2965093,-4.1879382,-3.5075707,0.69609678,-0.55040216,-0.4609845,0
0.59374899,-7.1835637,-2.7997618,0.076784082,-0.92898405,-0.36206737,0
-4.6676459,3.8787849,4.6351023,-0.61122876,0.50792736,0.60696721,0
-2.7925658,3.5386512,-6.3248272,-0.35954946,0.45560974,-0.81433654,0
3.9108584,-0.60533744,6.6346898,0.50623995,-0.078357726,0.8588255,0
2.2746379,-5.2226129,5.0538588,0.29869738,-0.68581498,0.6636548,0
-3.5445421,-1.4352698,6.694304,-0.45975867,-0.18616728,0.86831087,0
-2.4632814,-7.1942205,-1.1563038,-0.32025364,-0.93532765,-0.15033218,0
-3.8733048,4.8233676,4.5206189,-0.50553381,0.62953353,0.59001958,0
5.9252815,-2.7355783,-4.0409446,0.77191907,-0.35637885,-0.52643615,0
-6.2510743,3.9173851,-2.0509837,-0.81639576,0.51161391,-0.26786026,0
1.8342127,-2.7844088,7.0164924,0.23611125,-0.35842639,0.90320653,0
3.0764019,-4.9949799,4.8601413,0.4038294,-0.65567493,0.6379751,0
-0.56064188,-6.3945522,-4.3014278,-0.072555989,-0.82755691,-0.55667329,0
-7.2855167,1.6229936,1.939098,-0.94471449,0.21045391,0.25144324,0
1.8030331,0.54172641,7.3940139,0.23631056,0.071000174,0.96908009,0
-1.8332363,-3.2759068,6.6014385,-0.24140072,-0.43137169,0.86927795,0
4.0842991,-2.5747478,5.8663383,0.53757185,-0.33888602,0.77212226,0
0.014212072,-7.3727722,1.7368442,0.0018762797,-0.9733544,0.2292984,0
4.1057105,-4.3752785,-4.9791574,0.52658123,-0.56115484,-0.63860583,0
4.3766584,4.63691,-4.1371813,0.5758146,0.61005455,-0.54430783,0
5.3986239,-3.0206506,4.4662757,0.70755112,-0.39589065,0.5853563,0
4.2224059,2.4894559,-5.8025455,0.55588949,0.32774264,-0.76391858,0
-7.1655717,1.6133211,-2.2379301,-0.93322164,0.21011388,-0.29146102,0
5.0024238,-3.9732189,-4.2141271,0.65364873,-0.51916623,-0.55064481,0
4.476778,5.2141471,-3.4340496,0.58272034,0.67870009,-0.4469935,0
-6.518466,3.5246685,1.7692275,-0.85559314,0.4626368,0.23222318,0
4.6729736,4.7596807,-3.7004135,0.61261892,0.62398612,-0.48511794,0
-1.4295021,-4.1246815,6.2035255,-0.18845129,-0.54375684,0.81781083,0
-6.8582282,2.0185854,2.8595054,-0.89070338,0.26216114,0.37137452,0
-1.7402318,-7.3324881,-1.2625955,-0.22774325,-0.95959902,-0.16523524,0
3.2318046,-6.8761597,1.3966163,0.41835293,-0.89010996,0.18079017,0
4.4717588,2.7928424,-5.5821476,0.58238584,0.36372977,-0.72699887,0
-3.4839423,3.4246011,5.8245153,-0.45829156,0.45048559,0.76617986,0
7.5809426,1.0579474,-0.95218867,0.98282707,0.13715701,-0.12344597,0
-5.5396938,5.1140089,0.0032697953,-0.73477393,0.67831194,0.00043369914,0
-3.2542579,0.54753083,6.8170795,-0.42967266,0.072292678,0.90008622,0
-3.6142309,4.0785561,-5.4237537,-0.47007731,0.53046876,-0.70542908,0
6.4300656,-4.3115072,-0.30395588,0.82992959,-0.55648696,-0.039231636,0
2.9573109,-5.151228,4.6712365,0.39135784,-0.68169141,0.61817139,0
-2.7806005,-5.6071591,-4.4036407,-0.36334831,-0.73270208,-0.57543516,0
7.6083984,0.48326674,0.91375053,0.99089682,0.062939331,0.11900435,0
7.6206203,0.36574593,0.21521883,0.99845308,0.047920004,0.028197953,0
1.1163532,-7.3347735,-1.8552811,0.14597252,-0.95908308,-0.24259354,0
-6.2433491,-1.3639125,-4.1297054,-0.82054108,-0.17925414,-0.54275244,0
7.149672,1.7039227,2.2563756,0.9299227,0.22162086,0.29347569,0
-7.0282278,0.05708022,-3.2162545,-0.90928572,0.0073848246,-0.41610691,0
2.3678601,-7.3283367,-0.16672388,0.30738711,-0.95133841,-0.021643497,0
-2.4499583,4.0219512,-6.0369954,-0.31997946,0.52529126,-0.7884683,0
-3.8894217,3.6142955,5.4092412,-0.51314211,0.47684395,0.71365607,0
-2.9559112,6.1449819,3.641089,-0.38238564,0.7949335,0.47102231,0
-6.0665088,1.8927681,-4.087141,-0.80289632,0.25050595,-0.54092902,0
5.8698058,-1.3069172,-4.8219995,0.76151443,-0.16955182,-0.62557811,0
1.114537,7.2987461,2.0680246,0.14535852,0.95190644,0.2697129,0
-7.0944147,0.74447232,2.8393044,-0.92403233,0.096965924,0.36981332,0
-3.1953304,-3.213953,6.1800518,-0.41694224,-0.4193722,0.80640316,0
-0.72710568,5.1931677,-5.5183878,-0.095514603,0.68218881,-0.72491062,0
1.7842337,2.0740721,7.1906495,0.23191294,0.26958585,0.93463355,0
3.3340664,3.7949088,-5.79142,0.43384573,0.49381289,-0.75360912,0
1.2535055,2.490268,7.2584662,0.16121268,0.32027206,0.9335075,0
5.7568564,4.3386846,2.7265384,0.74695367,0.56294549,0.35376909,0
-2.4138045,3.6318557,-6.3070822,-0.31479496,0.47364643,-0.82253462,0
-6.9982662,-2.9743686,0.16354233,-0.92011315,-0.39106196,0.021502104,0
6.4922972,2.702383,-3.189445,0.84078103,0.34997049,-0.41304716,0
4.0491934,0.75338185,-6.5014057,0.5261274,0.097889833,-0.84475291,0
3.8629861,-5.9941549,2.8399465,0.50326842,-0.78091633,0.36998722,0
2.4257622,-6.3635936,3.547226,0.31590787,-0.82873303,0.4619565,0
-0.61541748,2.7153668,7.1734948,-0.079977661,0.35288027,0.93224412,0
6.4278784,3.7661574,-1.8660799,0.83695328,0.49037918,-0.24297623,0
-4.9818873,1.7277123,-5.6599779,-0.64402062,0.22334553,-0.73167902,0
2.8057277,-3.4592462,-6.3109803,0.36322734,-0.44783133,-0.81701463,0
-0.015407825,-6.9002957,3.1214256,-0.0020344441,-0.91111284,0.41215202,0
5.182446,4.6447644,-3.0717041,0.68127036,0.61058819,-0.40379792,0
-6.3529005,3.7155995,-2.2803373,-0.8245309,0.48224062,-0.29596066,0
-7.4843659,-0.73360151,0.91425204,-0.98795646,-0.096837372,0.12068373,0
-2.6402752,-6.0182552,3.7880671,-0.34806845,-0.79338878,0.49938226,0
-5.9475775,4.2800288,1.7921811,-0.78843844,0.56738049,0.23757984,0
4.5489998,4.9381399,-3.7198102,0.59265333,0.64335132,-0.48462474,0
-6.3957458,-2.5400772,-3.2811949,-0.83890772,-0.3331731,-0.43038294,0
-7.5927463,-1.40943,0.27884477,-0.98256356,-0.18239179,0.036084797,0
-6.8161411,0.34671822,3.4372032,-0.89197594,0.045372345,0.44980031,0
-4.0264168,3.6624994,5.4166646,-0.5243451,0.47695348,0.70539182,0
5.5159845,-2.7888985,4.6858487,0.71115577,-0.35956252,0.60412937,0
5.1878128,-5.5606275,-0.074641809,0.68213737,-0.7311582,-0.0098145343,0
3.2582989,-6.8598256,-0.48175019,0.42818344,-0.90147156,-0.063308328,0
-7.3525591,-1.903216,-1.4022988,-0.95200163,-0.2464264,-0.18156818,0
0.17446566,-4.0721436,-6.5229235,0.022682505,-0.52942461,-0.84805369,0
-2.3368206,-5.0143042,5.3075199,-0.30481315,-0.65406209,0.69230896,0
3.198245,4.4675293,5.4370594,0.41375729,0.57796472,0.70339292,0
6.0524421,-4.5066309,-0.88708341,0.79658985,-0.59313852,-0.11675315,0
4.4780045,3.6844306,-5.0390477,0.58288997,0.47959256,-0.65591949,0
4.0824146,-6.4780273,-0.35374284,0.53258717,-0.84511608,-0.046148889,0
2.2135015,0.31206602,-7.275425,0.29082558,0.041001458,-0.95589715,0
0.82028586,-6.3567281,4.005826,0.1085282,-0.84102911,0.52999216,0
-1.5346326,1.3990128,-7.2967319,-0.20228527,0.18440877,-0.96180773,0
-2.1341786,2.9010279,-6.7724648,-0.27823108,0.37820458,-0.88292056,0
-4.2853913,-3.0314145,-5.7206402,-0.5519563,-0.39044467,-0.73681563,0
1.1523147,3.8697386,-6.5409799,0.14990795,0.50342548,-0.85093504,0
0.067600705,-7.3450656,-2.1004746,0.0088484911,-0.96142113,-0.2749384,0
7.2412786,0.025978638,2.481945,0.94597167,0.0033937453,0.32423139,0
6.3055243,3.4499211,2.7074254,0.82096678,0.44917291,0.35250142,0
-1.2370379,-6.5351624,3.6636412,-0.16290799,-0.8606286,0.48247224,0
-1.9027654,-1.4148377,7.2584009,-0.24918744,-0.1852881,0.9505651,0
-0.8638978,7.4050527,1.5750291,-0.11337491,0.97181308,0.20670129,0
6.0829778,-3.7677343,-2.7609742,0.79313749,-0.49126127,-0.35999346,0
1.7434696,-3.7646723,6.4521341,0.22728401,-0.49077418,0.84111989,0
-6.0663362,4.7812581,-0.15216185,-0.78523105,0.61888957,-0.019695943,0
4.0756383,5.9516568,-2.6952469,0.52927065,0.7728942,-0.35001022,0
-2.9417014,-0.044875488,-7.090014,-0.38322407,-0.0058460613,-0.92363691,0
-4.2801776,5.9635825,2.3474467,-0.55537689,0.773808,0.30459428,0
7.0365133,-2.0372083,-1.9165645,0.92927444,-0.26904312,-0.25311035,0
-4.2065582,-2.8897314,5.687397,-0.5504902,-0.37816399,0.74427986,0
4.1866736,4.0692096,-4.7926178,0.55426681,0.5387159,-0.63448673,0
6.6502934,-3.5847018,0.94778705,0.87341619,-0.47079673,0.1244776,0
-3.5096426,-0.20088322,6.6912994,-0.4643285,-0.026577011,0.88526422,0
-1.0954301,-5.6281047,5.1644888,-0.14195576,-0.72934079,0.66926122,0
-2.5915661,-5.9547844,4.0111909,-0.33951363,-0.78011918,0.52549458,0
7.2901449,2.3275094,-0.1900076,0.95233291,0.30404934,-0.024821246,0
-2.5096543,-5.2981882,-4.8557334,-0.32968351,-0.69600236,-0.63787884,0
6.5511708,3.0867488,2.1991127,0.86558557,0.4078424,0.29056183,0
4.4425058,-1.7571961,5.9965301,0.5794366,-0.2291913,0.78212821,0
-3.877013,3.0068948,-5.845396,-0.50802106,0.39400586,-0.76594645,0
-3.3488896,-2.6996539,-6.2393517,-0.44189715,-0.35622832,-0.82330328,0
4.7145524,-5.9304805,-0.80944669,0.61876941,-0.77835596,-0.1062372,0
-6.6109762,3.7110727,0.029748194,-0.87199694,0.48949564,0.0039238282,0
4.526319,-6.0895123,-0.81366295,0.59315085,-0.79799932,-0.10662635,0
6.8586369,1.1188557,3.4716854,0.882909,0.14402975,0.44690838,0
2.876339,6.8085666,1.5267011,0.38111174,0.90212756,0.20228621,0
7.1286407,1.4090028,2.257642,0.93684638,0.18517123,0.29669943,0
-4.3669748,-4.6504312,4.3997707,-0.56351596,-0.60009331,0.56774801,0
6.3002038,-4.2885041,-1.0115162,0.81947392,-0.55781007,-0.13156894,0
0.39324987,-7.4077644,2.1433835,0.050928287,-0.9593513,0.27758142,0
2.9815929,2.4586105,6.6479287,0.38774464,0.31973282,0.86453748,0
-5.6769819,-4.0542388,-2.9740746,-0.7485925,-0.53461027,-0.39217493,0
-7.4139867,-0.98152584,1.7258337,-0.96596336,-0.12788235,0.2248577,0
-2.6315529,4.7201557,5.3261919,-0.34681806,0.62207955,0.70195037,0
2.3268569,0.9761194,7.2406101,0.30346248,0.1273029,0.94430107,0
4.8207664,-3.1038074,5.1988988,0.62286741,-0.40102759,0.67172396,0
5.239203,5.5710425,0.0094262166,0.68507767,0.72846895,0.0012325712,0
-6.0706339,-4.6832294,-1.1369932,-0.78320664,-0.60420978,-0.14668989,0
-7.4080062,-0.15594937,1.7317317,-0.97354364,-0.020494519,0.22758031,0
-1.0045577,-6.0888853,4.6066546,-0.13044563,-0.79066479,0.59819156,0
4.6998973,-2.3067467,-5.4984541,0.61903423,-0.3038269,-0.72421396,0
4.6055527,4.0132871,4.5538163,0.60445309,0.52672154,0.59766293,0
-2.3743463,-2.864203,-6.5894375,-0.31376994,-0.37850451,-0.87079436,0
6.9229541,-3.2133381,0.89756501,0.90084571,-0.41813391,0.11679517,0
3.5007946,0.54530084,-6.6977987,0.46201909,0.071966343,-0.88394523,0
-6.9439754,-2.7161894,1.7085325,-0.907763,-0.35507849,0.22335081,0
-6.2495937,0.56410426,4.4483571,-0.81250268,0.073338561,0.57832593,0
2.3028533,5.7877254,-4.4823375,0.30008012,0.75418669,-0.58408421,0
7.0139098,-2.0515943,2.4041681,0.91171277,-0.26667932,0.31250912,0
5.1048908,4.8245349,3.0252869,0.66750044,0.63084191,0.39557758,0
7.0728931,-3.1252627,0.22798726,0.91428781,-0.40399164,0.029471105,0
7.1554255,-1.4019482,-2.4543526,0.93006527,-0.18222582,-0.3190178,0
1.1868829,-0.62552536,7.4632001,0.15652238,-0.082492322,0.98422343,0
5.9219151,2.59321,-4.1528835,0.77070475,0.33749205,-0.54047501,0
5.0500159,-2.345607,-5.3549786,0.65369797,-0.30362648,-0.69317377,0
-3.7403193,6.1100621,2.7402773,-0.487643,0.79659748,0.35726282,0
-0.38204545,7.0305276,-3.1998858,-0.049398668,0.90905076,-0.41374683,0
5.6892443,-2.657393,-4.2994194,0.74758726,-0.34919104,-0.56495923,0
-2.8879766,-4.7704639,5.2225442,-0.37799737,-0.62438971,0.68356091,0
-1.9225092,4.9932542,5.4353552,-0.25206497,0.65467799,0.71264297,0
3.5312164,0.84116387,6.7788572,0.45921978,0.10938981,0.88156176,0
1.3450969,7.0222039,-2.4577274,0.17791128,0.92880237,-0.32507503,0
-1.3432707,4.9763355,-5.7039909,-0.17472531,0.64729452,-0.74194396,0
-0.5235346,6.7504702,-3.7410991,-0.067679025,0.87265527,-0.48362407,0
-6.1670537,0.33408183,4.359056,-0.81580544,0.044193838,0.57663542,0
2.3263867,-1.1933205,-7.0943418,0.30769032,-0.15782982,-0.93830502,0
6.1000829,-4.6090212,0.97860539,0.79140639,-0.59796053,0.12696132,0
5.6686664,-4.322381,-2.8951216,0.73675925,-0.56178194,-0.37628034,0
2.9285712,-6.2274904,-3.0716681,0.38860393,-0.82635081,-0.40759203,0
0.97884852,-1.5233854,-7.3399696,0.12947686,-0.20150529,-0.97089201,0
-4.7516947,-3.6535356,4.8786502,-0.61483556,-0.47274157,0.63126272,0
-0.94357616,-6.667449,3.318222,-0.125692,-0.88815826,0.44201407,0
3.1540122,-2.0364373,6.6283288,0.41403642,-0.2673291,0.87012017,0
4.7398019,3.7257276,-4.6621623,0.62192422,0.48886433,-0.61173683,0
2.8504767,7.142168,-0.56621265,0.36967346,0.92625558,-0.073431149,0
-6.2143416,4.4564419,-0.83553004,-0.80783421,0.57931578,-0.10861484,0
-4.811368,-2.0274901,5.5503879,-0.63140017,-0.26606935,0.72838241,0
2.3478084,-1.5304103,-7.0302353,0.31021768,-0.20221427,-0.92891032,0
-7.0229306,-0.79425448,3.0920618,-0.9103567,-0.10295629,0.4008126,0
-0.31842873,-0.65885508,7.6827536,-0.041260473,-0.085371293,0.99549448,0
-0.95491475,-7.618259,-0.84010071,-0.12363441,-0.98634875,-0.10876925,0
3.9731908,6.0283594,2.4812834,0.52043235,0.78963065,0.32501337,0
-4.5815005,-0.09973909,6.049211,-0.60370213,-0.013142572,0.79710162,0
7.1777472,2.5877454,-0.35687327,0.93970311,0.3387849,-0.046721473,0
3.0586524,-6.9367151,0.5587548,0.40236518,-0.91252363,0.073504098,0
-3.5537546,6.8668399,0.13658473,-0.45954925,0.88797665,0.017662281,0
-0.84601146,2.7478704,7.1901169,-0.10925211,0.35485411,0.92851633,0
0.89800489,-7.616847,0.079157516,0.11708003,-0.99306881,0.010320394,0
-0.63070351,-6.0404377,4.6583076,-0.082401268,-0.78918177,0.60860676,0
3.6379025,3.7026896,5.5960402,0.47661328,0.48510125,0.73315519,0
-6.6088667,-3.8522763,-0.7328217,-0.86000633,-0.50129354,-0.095361486,0
6.6783686,-3.1399155,2.2140951,0.86679524,-0.40753421,0.28737065,0
-0.60626173,-2.5900877,-7.1556435,-0.079415053,-0.33927912,-0.9373275,0
-4.8151555,-1.2946727,-5.8549252,-0.62612659,-0.16834949,-0.76133037,0
-1.1421552,-1.5726215,7.3246784,-0.1507166,-0.20752011,0.96655053,0
0.66205221,7.4155011,-1.7103231,0.086668245,0.97075188,-0.22389579,0
0.98925328,0.82278073,-7.5907187,0.12849115,0.10686852,-0.98593569,0
4.3810658,-2.4949038,5.7746406,0.57150668,-0.32545829,0.75329745,0
6.7328978,-0.39123747,-3.7981744,0.86985797,-0.050545994,-0.49070582,0
-2.0735836,6.8158302,2.864924,-0.27004209,0.88762331,0.37309811,0
-4.2701459,-5.1630373,3.6438026,-0.55988544,-0.67695796,0.47776166,0
1.2919278,2.3355513,-7.1283398,0.16973048,0.30683932,-0.93650478,0
2.2023962,-7.3001919,1.2743793,0.28488088,-0.94428289,0.16484149,0
