4.151412,2.8594642,-5.8325977,0.53850919,0.37092146,-0.7565878,0
-3.1253326,4.2073693,5.5995851,-0.40748838,0.54856694,0.7300874,0
-2.780139,0.10643332,-7.1766915,-0.36119288,0.013827711,-0.9323886,0
7.4580002,0.84053242,-1.2742068,0.97969002,0.11041314,-0.16738102,0
-0.020035673,5.9996595,-4.6860876,-0.0026318172,0.7880947,-0.61554837,0
-3.0355952,-4.6022801,-5.2735744,-0.3978858,-0.60323656,-0.69122535,0
3.2765291,6.714818,1.6443932,0.42828268,0.87770933,0.21494243,0
6.2056189,4.5608363,-0.48745292,0.80417311,0.59102917,-0.063167997,0
-3.6099765,-4.6658139,4.9418483,-0.46909079,-0.60628939,0.64215809,0
-2.9229977,-1.478133,-6.9929471,-0.37852597,-0.1914171,-0.90558136,0
-5.1484447,5.6600337,0.0042146635,-0.67288446,0.73974741,0.00055084238,0
-0.55960321,-7.3340392,2.1323586,-0.073072284,-0.95766968,0.27844071,0
-6.650908,2.9711654,-2.416182,-0.86660671,0.38713992,-0.31482613,0
4.2495174,6.2013988,-1.5802804,0.55317897,0.80726421,-0.20571227,0
-0.9400084,0.89511842,-7.6101074,-0.12176255,0.1159478,-0.98576367,0
-4.3324699,4.3976941,-4.6128197,-0.56219345,0.57065713,-0.59857243,0
-5.1658831,-4.5130711,3.5292051,-0.66965574,-0.58503145,0.45749244,0
4.9534011,-6.0341926,0.13499564,0.63439542,-0.77281535,0.017289255,0
2.3029506,6.1452818,-4.0930085,0.29775468,0.79453999,-0.52919602,0
3.772001,2.4395306,-6.3588252,0.48449072,0.31334296,-0.81675267,0
-3.352334,-6.8932862,1.2998196,-0.43118817,-0.88663703,0.16718705,0
-6.158947,-3.0839791,-3.3749921,-0.80295616,-0.40206549,-0.44000551,0
-6.5366063,1.2511365,3.6002381,-0.86386991,0.16534868,0.47580308,0
5.3179717,3.7294071,4.0182438,0.69627249,0.48828459,0.52610147,0
-3.518317,-6.1425385,2.8996248,-0.4599317,-0.80298287,0.37905321,0
-6.6538367,-3.7884567,-0.052186631,-0.86899465,-0.49477449,-0.0068156021,0
-7.4260902,-2.1147714,0.53977883,-0.95942044,-0.27321979,0.069737218,0
-3.1313252,3.5216596,6.1266026,-0.40512246,0.45562288,0.79264343,0
5.547852,3.6213481,-3.7635105,0.72811204,0.47527352,-0.4939312,0
5.3821368,-5.0532761,-1.8805331,0.70646924,-0.66330236,-0.24684227,0
5.1803465,-4.9750261,-2.7446282,0.67373967,-0.64703637,-0.35695776,0
-6.6400905,-3.837106,-0.25640506,-0.86534715,-0.50005776,-0.033415116,0
-6.8746328,-3.1302061,-1.5039071,-0.89257985,-0.40641573,-0.19526239,0
0.065570258,2.9372704,-7.0561423,0.0085787186,0.38429031,-0.92317247,0
-0.43283206,-7.2538075,2.4781153,-0.056375679,-0.94479674,0.32277054,0
2.8028209,1.6432794,-7.0792232,0.35983443,0.21096908,-0.90885156,0
3.8902857,6.3644199,-2.1771007,0.50065112,0.81905395,-0.28017682,0
-6.1692562,-3.0554757,3.2015789,-0.81254816,-0.40243444,0.42167759,0
3.3706217,-4.7928362,-4.9934096,0.43782982,-0.62256962,-0.64862329,0
4.7021279,-4.4230714,-4.1875806,0.61108148,-0.57481569,-0.54421169,0
-6.1127257,-4.7476888,-0.062750503,-0.78974271,-0.61338472,-0.0081071444,0
5.3059487,-5.2826295,-1.307107,0.69810402,-0.69503593,-0.17197615,0
5.5767589,-4.3530931,2.974735,0.7266562,-0.56721157,0.38761038,0
-4.1173716,-1.4709233,6.3083916,-0.53643554,-0.1916406,0.82189459,0
3.3421636,4.2667327,-5.5219007,0.43195245,0.55144686,-0.713669,0
5.7799864,-0.92397213,4.8803267,0.75842941,-0.12124036,0.64037925,0
-5.8252449,-3.8411846,-3.0945959,-0.76315266,-0.50322521,-0.40541628,0
-5.46982,-4.2933764,-3.1583583,-0.716205,-0.56216431,-0.41354778,0
4.1210628,6.2871017,1.199356,0.54135889,0.82589823,0.15755208,0
-0.51345342,-3.4578135,-6.9644094,-0.065890692,-0.4437359,-0.89373195,0
-2.2948837,-3.2991374,6.5791788,-0.29766959,-0.4279314,0.85338587,0
-1.4920644,-1.5952151,-7.4889803,-0.19126548,-0.2044882,-0.96000105,0
-5.016077,-0.99029702,-5.8765945,-0.64395487,-0.12713253,-0.75442654,0
-6.4396815,3.1486735,-2.7457643,-0.83892369,0.41019058,-0.35770196,0
7.3984437,-0.64371365,-2.2697041,0.95273316,-0.082894102,-0.2922807,0
1.7177534,-4.6422696,5.9844007,0.22118227,-0.59775037,0.77056658,0
5.9285698,-2.3139973,-4.2697668,0.77358359,-0.30193967,-0.5571363,0
1.5650856,-7.1295519,-2.6450329,0.20158823,-0.91830999,-0.34068903,0
-1.8395647,0.27825415,7.515367,-0.23760131,0.035939783,0.97069764,0
-5.9030809,-0.28384644,4.9764347,-0.76404911,-0.036738887,0.64411122,0
-6.3790364,4.0917907,-0.76539564,-0.83745915,0.53718263,-0.10048345,0
-6.1788902,-2.2320969,-4.0797148,-0.79899061,-0.28863183,-0.52754682,0
4.7042656,-5.6954823,2.2454989,0.60929692,-0.73767942,0.29083723,0
5.9293447,-2.1400228,-4.5936484,0.7601822,-0.27436543,-0.58893687,0
6.3572474,3.9390495,-1.6457306,0.83018583,0.51439607,-0.21491413,0
-1.3137351,-3.494283,-6.7232118,-0.17083481,-0.45438778,-0.87426955,0
-4.8295636,6.0133123,-1.3852569,-0.61632699,0.76739162,-0.17678019,0
3.3925254,5.0227213,4.8861361,0.43575901,0.64515239,0.62760848,0
-1.2617415,7.5754042,-0.13445783,-0.16426918,0.98626018,-0.017505391,0
-1.1108488,-7.4358406,-1.9792519,-0.14288329,-0.95643741,-0.2545819,0
-4.5795636,4.9560018,-3.8389642,-0.58988357,0.63837171,-0.49448857,0
6.0812535,0.92486751,-4.4521856,0.80086559,0.12179966,-0.58632684,0
-7.2108502,-0.78956181,-2.8802412,-0.92389446,-0.10116307,-0.36903259,0
-0.533126,-3.6118591,-6.8704505,-0.068522677,-0.46423221,-0.88305891,0
-1.9304136,-6.0626564,-4.2980208,-0.25141373,-0.78958994,-0.55976683,0
-6.710515,-3.5651555,1.0608205,-0.8746233,-0.46466899,0.13826336,0
0.11696353,7.3323598,-2.1764722,0.015290433,0.95854628,-0.28452632,0
-5.5836,-4.8120494,1.9292101,-0.73281991,-0.6315577,0.25319928,0
-0.95513535,-4.0416965,6.4267631,-0.12482403,-0.5281983,0.83989614,0
-3.0835755,6.936058,-1.3848617,-0.39963889,0.89893001,-0.17948145,0
1.8330529,2.9898002,6.9021292,0.23676774,0.38617992,0.89151901,0
0.76801902,5.4189081,5.4650931,0.099298507,0.70062,0.70659137,0
6.179378,2.5774808,-3.8910136,0.79796636,0.33283982,-0.50246125,0
-4.8161254,6.0384088,0.31066775,-0.62303787,0.78115851,0.04018952,0
1.8380971,-4.4413209,6.0514369,0.23784535,-0.57469624,0.78304136,0
-6.8701568,1.6894341,-2.6973786,-0.90735894,0.22312781,-0.3562496,0
6.6438842,-4.0269179,-0.40284267,0.85403216,-0.5176366,-0.051783051,0
4.968277,-0.017996341,-5.8225336,0.64909595,-0.0023511876,-0.76070291,0
-7.5776534,1.2716436,-0.52015793,-0.98395753,0.16512281,-0.067542456,0
-4.8206987,-3.744751,-4.6459966,-0.6284138,-0.48815602,-0.60564005,0
1.4795845,5.6224146,-5.0488563,0.19215113,0.73017347,-0.65568644,0
3.1548274,-3.8109725,6.0032115,0.40554971,-0.48989645,0.77170646,0
7.6064229,0.25501171,1.3903322,0.98316777,0.032961525,0.1797073,0
3.4785879,1.1025479,-6.7141852,0.45520777,0.14427935,-0.87861782,0
5.9859352,-4.3959069,1.8537977,0.78201109,-0.57428753,0.24218276,0
2.650866,-7.0970426,0.59525579,0.34883007,-0.93390685,0.078330293,0
-5.3500195,2.6007407,4.8808236,-0.69528282,0.33798948,0.63430661,0
-0.81133139,7.5805931,-1.3280816,-0.10484081,0.97956949,-0.17161563,0
-4.181488,-3.4053106,5.5235152,-0.54168075,-0.44113275,0.71553046,0
-1.3530004,-6.9379745,3.0679071,-0.17558385,-0.90036654,0.39813361,0
-3.2829239,1.9165715,-6.6687655,-0.4276785,0.24967876,-0.86876446,0
-4.1233716,-6.492816,0.89788944,-0.53248006,-0.83846313,0.11595079,0
-4.7151856,-0.99745667,-5.9621029,-0.61504102,-0.1301066,-0.77768683,0
-4.241497,-6.3869405,-1.3977622,-0.54424238,-0.81953222,-0.1793521,0
6.600215,-3.6851563,-1.7007186,0.85183102,-0.47561032,-0.21949662,0
3.8920586,1.829428,6.3810959,0.50578934,0.23774184,0.82925022,0
0.090424076,2.5084095,7.2435184,0.01179534,0.3272087,0.94487846,0
4.625699,-4.7601151,3.8384743,0.60329103,-0.62082177,0.50061989,0
7.5687528,0.041276719,-0.76791644,0.99487782,0.0054256353,-0.1009391,0
2.1596582,2.4047225,7.0055127,0.2799232,0.31168708,0.90801662,0
-2.3042109,0.80635023,-7.2966523,-0.29947373,0.10479974,-0.94833148,0
1.3336759,6.8482718,3.471849,0.17113709,0.87876928,0.44550717,0
6.6337357,0.8637358,-3.8708475,0.8583023,0.11175399,-0.50082749,0
-4.3487811,1.2131349,6.1555314,-0.56967813,0.15891726,0.80635732,0
-1.3796042,4.3358593,6.0641608,-0.18197316,0.57191044,0.79987764,0
-4.4339857,-2.7102444,-5.7609434,-0.57150131,-0.3493264,-0.74253434,0
5.1901369,-4.8824697,-3.0191453,0.67065173,-0.63089603,-0.39012364,0
-7.0114689,3.3566389,0.075978696,-0.90192449,0.43178323,0.0097735645,0
-2.696219,-6.3960056,-3.2540641,-0.35171175,-0.83433515,-0.42448056,0
0.27382272,-4.3645353,6.3930259,0.035351858,-0.56348288,0.82537097,0
-0.57309586,-2.391351,7.2281885,-0.075061359,-0.31320775,0.94671363,0
0.76373398,-5.7239037,-4.9147282,0.10071746,-0.75484008,-0.64813,0
-5.649035,4.3855181,-2.8936725,-0.73223621,0.56845725,-0.37508205,0
1.7946553,-6.3716707,3.8539426,0.23429669,-0.83183736,0.50314176,0
-6.6847029,0.76740563,3.8744254,-0.86094671,0.098836906,0.49900106,0
-2.1435635,6.6185932,-3.2148252,-0.27969527,0.86360365,-0.41947505,0
4.1888943,-6.3871746,-0.23151346,0.54815859,-0.8358255,-0.030295845,0
3.9692523,-5.6158862,-3.4619493,0.51553845,-0.72940826,-0.44964844,0
2.5073819,4.5227313,-5.6045814,0.32880086,0.59307998,-0.73494637,0
3.8924696,0.8892222,6.6994181,0.49909922,0.11401761,0.85901099,0
0.72853595,7.1235843,2.7530019,0.094963878,0.92855155,0.35885084,0
2.9433892,3.4118929,6.1591425,0.38569012,0.447081,0.80706978,0
7.2113619,0.91615134,-2.3730798,0.94304788,0.11980741,-0.31033358,0
7.1987634,1.3351083,-2.5560372,0.92828918,0.17216381,-0.32960406,0
-5.7607489,-0.95463306,-5.1506095,-0.73985791,-0.12260433,-0.66149718,0
6.4077535,-3.8242648,-1.4262404,0.84342873,-0.50337374,-0.18773071,0
5.9797215,-0.44354802,-4.8363442,0.77623361,-0.057577413,-0.62781066,0
7.0303268,3.3051519,0.015583382,0.90497738,0.425455,0.0020059675,0
1.87148,-7.1413131,-1.862372,0.2458026,-0.9379493,-0.24460635,0
6.0562506,-1.4017738,4.6138573,0.78230971,-0.18107264,0.59599012,0
-0.5782935,-6.2594981,4.3962164,-0.075388119,-0.81600744,0.57310432,0
1.6282482,-0.33204013,-7.6282549,0.20855838,-0.042530216,-0.97708476,0
-2.6624389,0.30490747,7.2248473,-0.34550926,0.039568365,0.93758082,0
0.22470292,4.8819556,-5.970809,0.029122202,0.63271672,-0.77383554,0
-3.872745,4.6370726,4.6475091,-0.50807881,0.60835356,0.60972279,0
-5.1775675,-4.0493207,4.1693749,-0.66517031,-0.52022266,0.5356462,0
1.6092229,-0.69538409,-7.4470391,0.21033968,-0.090892851,-0.97339392,0
0.92724109,3.2130489,6.9149518,0.12071648,0.41830328,0.9002499,0
3.9993742,-2.3542564,6.0991454,0.52183813,-0.30718324,0.79581618,0
4.0349736,5.5133147,3.6037831,0.52237362,0.71376181,0.46655107,0
6.9511938,3.3884695,-0.54229307,0.89668643,0.43710399,-0.069954433,0
7.2443867,1.4690936,1.8595854,0.95043659,0.19273962,0.24397069,0
-3.5301759,-4.1849518,-5.3204026,-0.46240947,-0.548177,-0.69690704,0
-2.6407595,5.833168,-4.1385159,-0.34637037,0.76509678,-0.54282087,0
-4.0167155,3.3893569,5.5513983,-0.52543235,0.44336668,0.72618645,0
4.211926,-5.8040276,-2.5169182,0.55419153,-0.76367503,-0.33116791,0
-4.1590471,-6.1440973,1.9824337,-0.5415644,-0.80004489,0.25813979,0
2.4950228,-6.4113474,-3.517401,0.32290724,-0.82976019,-0.45522401,0
7.0028844,-0.96402901,3.1884799,0.90304452,-0.12431465,0.41116476,0
2.3833504,-7.2947359,-1.1906447,0.30689445,-0.93931383,-0.15331453,0
2.0643625,7.2729416,1.2965049,0.26912639,0.94815737,0.16902247,0
6.620832,3.6662345,1.7668582,0.85192144,0.47174492,0.22734672,0
-0.5770126,-3.9308484,6.7025828,-0.074055664,-0.50449783,0.86023116,0
6.3424487,-4.4449248,0.4832963,0.81732595,-0.57279962,0.062280457,0
0.87536669,-7.3432822,-2.2976799,0.11303819,-0.94825554,-0.29670489,0
-3.3843875,3.7636297,5.8473792,-0.43761295,0.48665029,0.75608629,0
4.7463541,5.7711635,1.7778809,0.61794847,0.75137287,0.23147005,0
5.4269257,5.2591782,1.4860326,0.70462459,0.68284446,0.19294444,0
-3.1243351,6.4889083,2.6349781,-0.40740857,0.84614378,0.34359714,0
5.7782331,1.982535,4.6508279,0.75258964,0.25821653,0.60575002,0
-0.44756851,7.6600995,0.9227156,-0.057911851,0.99115676,0.11939216,0
7.384254,-2.3867381,-0.18927379,0.95124787,-0.30746228,-0.024382461,0
-5.7700071,4.270031,-2.8217602,-0.74810046,0.55362362,-0.36585051,0
4.1209502,-4.6787658,-4.4681082,0.53724432,-0.60996622,-0.58250296,0
-7.5126595,-0.31452084,1.3612199,-0.98314464,-0.04115979,0.17813613,0
-6.9772239,1.8756423,2.9309592,-0.89488214,0.24056542,0.37591785,0
-1.2239574,-3.8914609,-6.476305,-0.15991035,-0.50842035,-0.84613091,0
4.6387615,-5.9430289,-1.6824377,0.60052377,-0.76937133,-0.21780466,0
-5.5977635,2.551501,4.7114096,-0.72241241,0.32928079,0.60802507,0
-2.929388,-0.067242242,-7.1276712,-0.38012108,-0.0087254383,-0.92489558,0
-5.9629388,-4.8487,0.83714902,-0.7713089,-0.62718159,0.10828561,0
3.6950688,4.6572995,4.9072132,0.47933483,0.6041581,0.63657767,0
-4.1492519,4.1519651,4.8721442,-0.54391974,0.5442754,0.63868266,0
-0.0081223547,-2.5037906,7.2093277,-0.0010642862,-0.32807603,0.94465071,0
-5.0270905,-5.5915308,-1.6406845,-0.65320665,-0.72654849,-0.21318613,0
7.4832268,1.8529183,-1.1882477,0.95935714,0.23754597,-0.15233454,0
6.4285517,-2.3381226,3.432086,0.83997619,-0.30550697,0.44844791,0
4.5750804,-0.0028440536,6.0519438,0.60304284,-0.00037487564,0.79770869,0
6.0387168,0.043539621,-4.8252835,0.78121537,0.005632624,-0.62423617,0
-2.416353,-7.3130298,0.58687139,-0.31282806,-0.94676602,0.07597807,0
3.4834325,-2.9499762,6.1578627,0.45444521,-0.38485101,0.80334872,0
-7.2684827,-0.93840826,-2.2435579,-0.94832742,-0.12243522,-0.2927196,0
-2.1368036,-2.0624847,7.0434341,-0.27954236,-0.26981977,0.9214409,0
6.0396433,-3.0635905,-3.7026029,0.78250957,-0.3969256,-0.47971743,0
-3.7760782,-6.6876163,0.67949474,-0.48976129,-0.86739081,0.088131174,0
3.5644333,-0.94362646,6.8413949,0.45863897,-0.1214173,0.88028866,0
3.1988108,5.7868981,3.756218,0.42064226,0.76097465,0.49394104,0
-0.79185838,-5.2451167,-5.6230779,-0.10243586,-0.67851537,-0.72740895,0
0.57154888,-4.214726,6.535203,0.073299922,-0.54052961,0.83812582,0
-2.3655882,-3.2930458,-6.5211878,-0.30806199,-0.42884144,-0.84923071,0
-6.4806814,4.0821061,-1.0181303,-0.83875597,0.5283227,-0.13177054,0
1.6765403,7.4091516,0.25026926,0.22058031,0.97481287,0.032927614,0
-0.28549713,-7.5949545,0.61094421,-0.03744306,-0.99608129,0.080125578,0
0.97897154,-5.5406499,-5.1642203,0.12818512,-0.72548473,-0.67619562,0
-7.5331945,1.416741,1.2047105,-0.97085392,0.18258503,0.15525922,0
5.4769578,4.5943575,-2.734031,0.71559006,0.60027421,-0.35721388,0
5.6485457,1.716916,5.1089821,0.72348571,0.21990867,0.65437651,0
1.3634597,5.2111411,5.5666976,0.1760173,0.67273784,0.71863878,0
2.0010879,-7.3467035,0.81342465,0.26131776,-0.95939022,0.10622338,0
-1.0026468,-6.0893826,-4.5719361,-0.13054624,-0.79284745,-0.59527349,0
-2.0665309,-2.6204677,6.8129997,-0.27239728,-0.3454138,0.89804739,0
-3.4897363,6.6149426,1.4863991,-0.45765272,0.86750001,0.19493008,0
-4.9743247,-0.96345937,-5.7916455,-0.64642346,-0.12520348,-0.7526359,0
6.3311601,-2.9516258,3.4715266,0.81163931,-0.37839124,0.44504124,0
-5.0276599,5.5067077,1.6698935,-0.6579572,0.72064894,0.21853475,0
0.76044768,1.3420042,-7.5853963,0.098240942,0.17337124,-0.97994441,0
7.2681432,-1.5552298,2.2810049,0.93483257,-0.20003451,0.2933841,0
-7.113524,-2.6447356,-1.4606521,-0.92042255,-0.34220371,-0.18899454,0
6.4497004,-4.1253166,-1.0788671,0.83417767,-0.53355145,-0.13953623,0
6.9250546,0.25115496,-3.184036,0.90807176,0.032933563,-0.41751772,0
5.9912496,-0.22593836,4.7183585,0.78527582,-0.029613845,0.61843741,0
1.6760017,0.6587742,-7.4141712,0.219667,0.086342968,-0.9717465,0
-6.1832433,3.5824513,2.8460157,-0.80385786,0.46573967,0.36999872,0
-3.5163679,-4.6065407,-5.0823951,-0.45618743,-0.59761834,-0.65935218,0
-0.64956808,2.6331334,-7.2512231,-0.083903939,0.34011874,-0.93663192,0
-1.5696414,-5.7738461,4.7897487,-0.20479684,-0.75333476,0.62493598,0
-7.6374507,-0.59086138,-1.2756579,-0.98347718,-0.076085426,-0.16426691,0
7.4936628,1.2775384,-0.079438955,0.98572338,0.16804859,-0.010449474,0
6.7008362,0.79664755,-3.9234056,0.85845417,0.10205971,-0.50263339,0
1.3888695,-6.656044,3.6896868,0.17953333,-0.86039889,0.47695032,0
7.7088995,-0.22373055,-0.6514979,0.9960314,-0.028907193,-0.08417704,0
2.3739679,2.9227283,6.658823,0.31033456,0.38207072,0.87046796,0
-4.1450009,-5.5743837,-3.2716279,-0.53982383,-0.72597933,-0.42608017,0
6.0079002,-2.7368729,4.0061784,0.77798784,-0.35440901,0.5187766,0
-6.1966739,-3.7374456,-2.6178002,-0.80523735,-0.48566872,-0.3401745,0
-7.1138663,-2.915314,0.45016497,-0.92373234,-0.3785522,0.05845372,0
7.3342333,0.28306803,-2.1786613,0.95794475,0.036972307,-0.28456107,0
3.2815118,-2.2715781,-6.6088376,0.42504233,-0.29422927,-0.85601878,0
-3.4631755,6.9641361,-0.22590947,-0.44508156,0.89501923,-0.02903351,0
-6.2652507,-0.61716413,4.349565,-0.81877387,-0.080654055,0.56842262,0
4.2405186,0.8970558,-6.3977237,0.54874164,0.11608294,-0.82789338,0
-1.4777855,6.4680586,-3.8308637,-0.19289026,0.84425348,-0.50002944,0
1.4919176,-1.0164585,-7.5047584,0.19328275,-0.1316855,-0.97226578,0
-3.9740684,5.6139669,3.6404936,-0.51065964,0.72138321,0.46779594,0
-3.8384626,-2.9150186,-6.0453863,-0.49646342,-0.37702596,-0.781905,0
-0.88959193,-7.622498,0.47986743,-0.11569337,-0.99132246,0.062407807,0
-1.6469793,-2.2231009,-7.2786527,-0.21151045,-0.28549784,-0.93474829,0
0.72202277,7.6287971,-1.3132595,0.092869364,0.9812454,-0.16891652,0
6.0862851,-1.830305,-4.2333951,0.79701036,-0.23968184,-0.55437094,0
-7.0697551,-2.5175664,1.4975721,-0.92383689,-0.32898182,0.19569452,0
3.5847113,-6.4751568,-2.2213681,0.46389782,-0.83795065,-0.28746745,0
0.7280798,-7.7299767,-0.34374696,0.093682319,-0.99461919,-0.044230059,0
7.121491,-2.9618502,-0.22318357,0.92294067,-0.38385388,-0.028924448,0
2.4720917,5.2175126,-5.0593987,0.32202676,0.67965871,-0.65906203,0
3.2188997,-3.8225834,-5.7798524,0.42128387,-0.5002929,-0.75645679,0
5.010869,-0.2101119,5.905201,0.64676917,-0.027119827,0.76220351,0
6.793201,0.94207156,-3.4577014,0.88446856,0.12265686,-0.45018959,0
4.6393657,-2.2574813,5.7603455,0.59993267,-0.29192284,0.74489051,0
-0.052719023,-5.4067197,5.3832793,-0.0069095469,-0.70862436,0.70555216,0
-4.6332374,6.1388254,-0.37267837,-0.60171431,0.79724365,-0.0483994,0
2.5562317,3.0307696,-6.7020226,0.32827014,0.3892101,-0.8606708,0
6.640347,3.8129108,-0.85273385,0.86187661,0.4948926,-0.11067966,0
7.1500635,2.6296358,1.4419252,0.92216641,0.33915249,0.18596967,0
0.43124256,-7.7021136,-0.740089,0.055647094,-0.99387276,-0.09550032,0
-0.29429451,-6.6234889,3.8618937,-0.038355693,-0.86324584,0.50332439,0
-2.9126651,2.0413513,6.7810287,-0.38038135,0.26659155,0.88557273,0
-2.3072231,-6.0715661,-4.0814028,-0.3007701,-0.79149067,-0.53205258,0
4.4129653,-6.0636587,-1.9606913,0.56930101,-0.78225112,-0.25294185,0
2.7256281,5.6354966,-4.3986907,0.35624912,0.73657906,-0.57492423,0
2.5067055,-6.8970838,2.3377998,0.32546756,-0.89550883,0.30353704,0
5.6567359,-5.258934,-0.54401869,0.73057979,-0.6792028,-0.070261203,0
1.2920648,-4.9855256,-5.5993314,0.169836,-0.65532452,-0.73600644,0
-6.0150757,1.0100644,-4.668036,-0.78314972,0.13150817,-0.60776812,0
0.20244502,-0.4953652,-7.7498226,0.026060479,-0.063767709,-0.99762446,0
-4.2211294,-5.8536596,2.6764615,-0.54839885,-0.76049322,0.34771937,0
-2.2430279,-0.86933279,-7.3067212,-0.29158503,-0.11300993,-0.94984573,0
5.5480037,-2.256645,-4.971755,0.71274173,-0.28990698,-0.63871217,0
-7.4372301,2.0464017,-0.44816953,-0.96254355,0.26485005,-0.058003139,0
0.91210163,-5.798923,-5.1346655,0.11695126,-0.74354804,-0.6583758,0
-7.6086278,1.3653871,0.70615816,-0.98019576,0.17589855,0.090972148,0
7.2942252,2.3746502,0.32124019,0.95004696,0.30928975,0.041840393,0
-0.90801734,-7.4720483,1.7638762,-0.11745255,-0.96651363,0.22815838,0
-1.2176149,6.8086758,3.4692643,-0.1573555,0.87990272,0.44834197,0
-3.5346119,-3.0059175,-6.273109,-0.45300308,-0.38524452,-0.80397445,0
-7.0389447,0.56815994,3.213877,-0.907224,0.073228069,0.41422489,0
0.90871036,-3.019537,6.9705334,0.11877634,-0.39467973,0.91110927,0
2.8526921,-4.872592,5.3355489,0.3672173,-0.62723213,0.686827,0
-2.6485887,7.263999,-0.40463406,-0.34208977,0.93821275,-0.052262239,0
5.1458488,-3.4096329,-4.6284766,0.66695392,-0.44192281,-0.59989727,0
-6.3885598,-0.27390197,-4.2644978,-0.83119392,-0.035636459,-0.55483937,0
4.6538334,6.013093,0.47558665,0.61085904,0.78927457,0.062425185,0
-2.7445743,-3.4904566,-6.3102803,-0.35570222,-0.45237005,-0.81782472,0
2.8690975,0.23865747,-7.1229434,0.37344554,0.031063976,-0.92713183,0
2.096566,6.6632848,-3.1545351,0.27353898,0.86935878,-0.41157219,0
4.5077581,-1.9095731,-5.9056892,0.58763993,-0.24893558,-0.7698769,0
-6.5348644,-3.3840241,2.4243743,-0.84341079,-0.43675312,0.31289762,0
4.4142141,6.1152644,-1.468333,0.574498,0.79588509,-0.19109955,0
-3.6526902,-6.324635,2.1544847,-0.47968391,-0.83057296,0.2829344,0
4.6033945,-3.8902931,4.7462606,0.60006088,-0.50710684,0.61868376,0
2.1153905,6.3281775,-3.8418903,0.27474731,0.82190484,-0.49898541,0
-7.0765262,2.8526785,0.38291642,-0.92631018,0.37341276,0.050123379,0
4.8765197,0.23588952,-5.9701395,0.63230908,0.030586381,-0.77411216,0
-4.7532783,3.2607496,4.9759369,-0.62421089,0.42820877,0.65345091,0
4.9528661,4.7282443,3.4087281,0.64752144,0.61815512,0.4456459,0
-0.14944158,-7.3990054,-2.0904968,-0.019432958,-0.96214563,-0.27184224,0
-6.8338909,2.2256169,-2.6598716,-0.89173687,0.29041505,-0.34707981,0
3.4077349,-6.8142238,-0.25186816,0.44703481,-0.89390618,-0.033040669,0
5.9674263,-4.2233863,-2.2829375,0.7791478,-0.55143404,-0.29807585,0
0.028232219,0.032370865,-7.605854,0.0037118474,0.0042559784,-0.99998409,0
-4.0892248,6.21381,1.9930052,-0.53099978,0.80688447,0.25879854,0
-2.0576689,-2.7011981,6.9750915,-0.26524112,-0.34819439,0.89911503,0
4.1618876,-0.083350383,6.4220095,0.54381478,-0.010891013,0.83913457,0
2.7940271,0.64351434,7.2092543,0.36012548,0.082943328,0.92920941,0
-2.6221225,7.16855,0.14908394,-0.34345621,0.93896568,0.019527618,0
-3.7337365,-5.3175426,-4.0358129,-0.48814383,-0.69520855,-0.52763689,0
-2.8894367,5.8466315,4.0025434,-0.37760803,0.76407105,0.5230751,0
-2.2349627,4.1320872,-6.1401715,-0.28908485,0.53447151,-0.79421037,0
-7.0102491,-3.1674941,-0.43936402,-0.90981102,-0.41108683,-0.057021972,0
-6.4899964,-3.2080872,2.486599,-0.84784019,-0.41909811,0.32484433,0
6.8891816,2.5590672,-2.4506438,0.88927615,0.33033204,-0.31633642,0
-5.2657866,-3.6202967,-4.1654501,-0.69032544,-0.47460771,-0.54607534,0
2.6349878,-7.0821142,1.3751541,0.34307367,-0.9220866,0.17904416,0
-2.0908759,-4.1029139,6.2135692,-0.27035004,-0.53050637,0.80341393,0
-7.21208,0.031823922,2.5038936,-0.94467765,0.0041684713,0.32797366,0
0.81938201,7.7160206,-0.33368945,0.10550106,0.99349058,-0.042964809,0
-2.7727172,-3.5620737,-6.1824541,-0.36220983,-0.46532622,-0.80763572,0
-1.2444859,-7.2210627,-2.3727801,-0.16157715,-0.9375428,-0.30806863,0
5.7631893,2.3917634,4.4345894,0.75285673,0.31244075,0.57929915,0
-7.5317559,-0.63286328,-1.2962711,-0.98214895,-0.082526043,-0.16903512,0
7.5454369,0.85168517,0.41992283,0.99217391,0.11199084,0.055217013,0
0.040072966,-0.39664239,7.7616,0.0051561804,-0.051035896,0.99868351,0
2.63043,-0.52786744,-7.269392,0.33946863,-0.068123631,-0.93814725,0
7.0169821,-0.85097009,3.0878489,0.90970969,-0.11032318,0.40032113,0
-4.142818,6.3565164,1.7326237,-0.53231198,0.81675082,0.22262536,0
-6.023921,4.4570365,-1.9527391,-0.77790534,0.57556409,-0.25216901,0
7.1886244,1.2342054,2.3731198,0.93722022,0.1609101,0.30939659,0
-1.6790489,5.2745605,-5.3695755,-0.2177234,0.68395579,-0.69627649,0
6.1343093,4.5582423,-0.46357495,0.80118817,0.59534162,-0.060546469,0
-0.61372334,-0.4250885,-7.6795897,-0.079541191,-0.055093303,-0.99530792,0
-3.2101302,4.50598,5.3057137,-0.41877815,0.58782846,0.69215786,0
3.7986267,-4.347343,-4.9840894,0.4980543,-0.56999886,-0.65348542,0
-3.6005185,1.509341,6.7567568,-0.46139413,0.19341689,0.86585528,0
-4.5963621,-5.1024585,-3.3405931,-0.60186768,-0.66813815,-0.43743184,0
0.3657611,-7.6603751,-0.67412037,0.047509629,-0.99502534,-0.087563187,0
-6.7371173,0.54719609,3.5767601,-0.88097847,0.071554042,0.46771467,0
-3.7676187,-6.419282,-1.8511195,-0.49121547,-0.83693463,-0.24134569,0
-5.0264716,-2.5207405,5.2718005,-0.65212107,-0.32703418,0.68394941,0
1.9477453,5.233294,-5.3381338,0.25213295,0.67744267,-0.69101405,0
5.2477074,3.7770503,-4.0698442,0.68688112,0.49438435,-0.53270864,0
-5.3206463,-4.1871653,3.5976994,-0.69395429,-0.54611808,0.46923602,0
-6.7239919,1.8584216,3.2674329,-0.87286359,0.24124785,0.42415628,0
7.6928773,0.81993949,0.090774581,0.99429941,0.10597665,0.011732556,0
-5.6482196,1.4597808,-5.1116419,-0.72819823,0.18820263,-0.65901977,0
-3.4398375,-3.0378246,-6.1686749,-0.4473989,-0.3951115,-0.80232233,0
0.24517865,-6.9192066,-3.2539549,0.032049153,-0.90446174,-0.42534903,0
-2.5500495,-5.1443572,-5.2091956,-0.32892808,-0.66356498,-0.67192841,0
6.4343529,-0.15751617,-4.1781445,0.83851612,-0.020527292,-0.5444901,0
3.9547229,-6.4048915,-1.1414102,0.51943606,-0.84125525,-0.14991938,0
3.1734576,-6.6761374,-2.0254085,0.41404852,-0.87105143,-0.26425985,0
2.8119931,5.6651397,4.4626532,0.36327997,0.73187649,0.57652789,0
3.2265928,-5.8909559,-3.8817716,0.41591957,-0.75936568,-0.5003745,0
-1.6670004,6.9738617,-2.6769803,-0.21780184,0.91116947,-0.34976071,0
3.3473108,1.2155998,6.8941545,0.43137619,0.15665734,0.88846666,0
-4.6197968,2.8959432,5.5253463,-0.59513277,0.37306201,0.7117877,0
5.8453608,-1.0514725,4.9033432,0.75896746,-0.13652425,0.63665497,0
1.2125062,7.5864582,-0.050393965,0.15781868,0.98744631,-0.0065592313,0
-7.0736499,0.24106811,3.3010645,-0.90574998,0.030867718,0.4226869,0
0.26724643,7.7220497,1.0654553,0.034263298,0.99003345,0.13660057,0
-2.9886446,2.1053543,6.7754025,-0.38819921,0.27346739,0.88006645,0
6.5137558,-3.0435035,2.670188,0.84930205,-0.39683002,0.34815493,0
4.6886301,-5.667717,-2.3771079,0.60652947,-0.73318589,-0.30750686,0
-3.0907795,-1.8832821,6.8224173,-0.40020347,-0.24385305,0.88338715,0
-7.6010656,-0.40198791,-0.83681983,-0.99262381,-0.052495632,-0.10928037,0
5.082181,0.84446073,5.6263261,0.6661914,0.11069509,0.73751998,0
-6.1376348,-4.6380219,-1.0240519,-0.79084766,-0.5976193,-0.13195133,0
0.95044869,6.8633494,-3.4095879,0.12307815,0.88876796,-0.44152385,0
1.1537993,4.4743843,6.1475039,0.15002996,0.58180976,0.79936755,0
-3.3816242,2.790952,-6.2345176,-0.44366962,0.36617333,-0.81796962,0
-4.726738,1.919975,-5.7371244,-0.61566657,0.25008038,-0.7472713,0
-2.6950972,-1.8954704,-7.0279374,-0.34721795,-0.24419948,-0.90543157,0
-5.9870472,2.0186934,-4.3238411,-0.78199971,0.26367217,-0.56475961,0
-4.0956392,-1.3837698,6.347733,-0.5332846,-0.18017775,0.82652497,0
1.1968583,2.1102462,7.3378601,0.15486284,0.27304712,0.94945395,0
-5.8450727,3.2035253,-3.8762734,-0.75805938,0.41547173,-0.50272179,0
-2.2384768,-6.0957093,4.1246738,-0.2909779,-0.79237664,0.53616327,0
2.9430075,2.7626781,-6.5503163,0.38249815,0.359061,-0.85133451,0
-5.0663686,-5.920382,-0.58736688,-0.64834189,-0.75762981,-0.07516519,0
-4.2894616,-6.2434111,-0.87571341,-0.56252372,-0.81876636,-0.11484182,0
-1.2259229,-1.4679289,7.4534168,-0.15931678,-0.19076705,0.96862072,0
6.6255779,3.3462708,-2.3250911,0.85180348,0.43020627,-0.29892045,0
-2.2568471,7.0410228,2.0667119,-0.29396436,0.91712445,0.26919839,0
4.2019796,-3.4088087,5.4909196,0.54508311,-0.44219255,0.71228516,0
-5.4305434,-2.7934339,-4.6970439,-0.70487142,-0.36258096,-0.60966492,0
-4.2144628,-6.2598295,1.5579412,-0.54694396,-0.81238723,0.20218627,0
-1.4896667,7.5133324,-0.15160981,-0.19444586,0.98071361,-0.019789595,0
-2.7740252,-6.5415254,3.1986411,-0.35600114,-0.8394987,0.4104937,0
-6.0616202,-4.5870667,1.6456487,-0.77935922,-0.58977181,0.21158558,0
-3.8986557,1.1386042,-6.4922309,-0.50909567,0.14868161,-0.84777081,0
6.5151596,1.5204469,3.7268929,0.85073733,0.19853711,0.48665071,0
5.2823048,-3.2107573,4.5603895,0.68764591,-0.41797364,0.59366757,0
0.048377026,-6.0041537,-4.8234611,0.0062812488,-0.7795763,-0.62627578,0
-0.33696258,-4.0484738,6.4510131,-0.044199936,-0.53104502,0.84619004,0
4.1576443,6.2227106,-1.920764,0.53810787,0.80538148,-0.24859709,0
3.8102961,1.1594681,-6.6093125,0.49377987,0.15025656,-0.85650706,0
3.3804271,-4.306459,5.4481544,0.43767041,-0.55756557,0.70538306,0
-5.8251815,3.3852251,-3.7227969,-0.75676149,0.43978167,-0.48363632,0
-2.9383163,-0.30991232,7.1721497,-0.37880039,-0.03995312,0.92461562,0
-3.5458159,-6.7009602,-1.4387059,-0.45950636,-0.86838508,-0.18644355,0
-1.5661217,2.9171455,-7.0128493,-0.20194572,0.37615535,-0.9042815,0
-2.2036188,-5.6755123,-4.7474313,-0.2854259,-0.73512632,-0.61491573,0
0.97407186,7.0800052,-2.799427,0.12690794,0.92242569,-0.36472619,0
1.2328472,2.4592483,7.2905469,0.15821359,0.31559992,0.93560946,0
2.5186095,7.1074634,1.3353498,0.32889274,0.92812836,0.17437671,0
-0.490906,7.3850799,-1.7474524,-0.06455157,0.97109932,-0.22978084,0
7.6239204,1.2580116,-0.51092052,0.98450816,0.16245221,-0.065977268,0
2.7886903,6.9793015,2.1997008,0.35610455,0.89122874,0.28089297,0
2.9855394,1.5134571,-6.926527,0.38809004,0.19673416,-0.9003787,0
-1.2015426,1.6048924,7.5391822,-0.15402031,0.2057239,0.96641368,0
0.10706531,-4.1125765,-6.5082388,0.013905533,-0.53413725,-0.84528339,0
-3.2886672,6.5459857,2.4147468,-0.42635864,0.84865308,0.31305939,0
-5.9907899,-4.5014195,1.6555631,-0.78064108,-0.58656591,0.21573125,0
-3.6846457,-5.5907803,-3.8574355,-0.47682652,-0.72349757,-0.49918708,0
4.6724834,-5.106143,-3.4973991,0.60252953,-0.65845114,-0.4509992,0
-1.9585313,2.3589845,-7.0779467,-0.25390977,0.30582571,-0.91760588,0
-5.7256913,3.1691706,-3.8434358,-0.75443143,0.41757786,-0.50642073,0
-1.4044374,5.5283761,5.0587392,-0.18421133,0.72512269,0.66352338,0
-2.5928645,4.341651,-5.7767606,-0.33772299,0.56550401,-0.75242835,0
4.6139646,4.753221,3.9648807,0.59764546,0.61568332,0.51356983,0
3.4770236,-0.55222577,-6.787755,0.45472366,-0.072219849,-0.88769966,0
-5.9786487,-4.1425815,-2.7145615,-0.77008343,-0.53358769,-0.34965071,0
-5.5721941,-3.2501092,-4.0986443,-0.72908348,-0.42525458,-0.53627956,0
7.0462232,-1.617633,-2.6535089,0.91496193,-0.21005191,-0.34456185,0
0.099029161,7.7980733,0.11290763,0.012696829,0.99981457,0.014476229,0
6.2892084,-3.8294797,-2.1619008,0.81952953,-0.49900904,-0.28171137,0
-6.0387998,2.7486899,3.8022597,-0.78967524,0.3594377,0.49720979,0
6.0439692,-4.3176918,1.7617196,0.79173267,-0.56559813,0.23077731,0
1.7163632,-4.2606382,-6.1898932,0.2226721,-0.55275321,-0.8030448,0
-2.3432508,3.0066073,-6.7376008,-0.30269966,0.38839164,-0.870359,0
3.7546618,6.79144,0.023917675,0.48383161,0.87515563,0.0030820693,0
-6.1799254,3.3762491,3.1653891,-0.80042911,0.4372946,0.40998384,0
3.046741,5.5342159,4.3912082,0.39600509,0.71931869,0.57075441,0
-4.2048774,-3.1785316,5.6534367,-0.54400271,-0.41122007,0.73140895,0
6.5099077,2.7014868,-3.2255261,0.83985913,0.34852543,-0.41613302,0
2.6994972,5.6979122,4.3909984,0.35134235,0.74158913,0.57149297,0
-2.9886427,-1.5330794,-6.9438381,-0.38745245,-0.19875087,-0.90021032,0
6.2407851,-4.3206296,-1.1495217,0.81291765,-0.56280035,-0.14973541,0
0.70647901,4.426765,-6.2451305,0.091900207,0.57584244,-0.81237906,0
-2.2822578,2.2397301,-6.9758902,-0.29740673,0.29186484,-0.90904576,0
-7.0049815,3.348875,-0.051489886,-0.90218121,0.43130624,-0.0066314535,0
-3.2200801,-5.5706382,4.0605264,-0.42322314,-0.73216283,0.53368509,0
-4.7933941,-4.8199425,-3.4261258,-0.62969226,-0.63317984,-0.45007876,0
-2.4872205,-0.62195992,7.3211203,-0.32063979,-0.080179907,0.94380152,0
-4.1803207,5.3954444,3.320657,-0.55074507,0.71083409,0.43748689,0
-1.3883625,0.71537179,-7.5024538,-0.18117039,0.093350388,-0.97901118,0
4.5090861,6.1033573,0.7161622,0.59158409,0.8007496,0.093959205,0
1.3752079,0.68966722,-7.5378785,0.1787546,0.08964549,-0.97980124,0
-0.94928664,-6.0662146,-4.5890107,-0.12383965,-0.79137093,-0.5986616,0
5.9146929,0.21362446,4.881474,0.77095562,0.02784506,0.63627982,0
0.82819813,5.8989477,-5.0129485,0.10637776,0.75768924,-0.64388722,0
-2.6934087,1.7879077,-7.0300827,-0.34808579,0.23106231,-0.90854084,0
3.9232297,3.9441347,-5.3628407,0.50772381,0.5104292,-0.69403064,0
-1.7513603,-2.0782259,7.215672,-0.22713889,-0.26953101,0.935821,0
5.2773623,-0.48740155,-5.4743843,0.6926114,-0.063967533,-0.7184689,0
-2.2032566,7.0353603,-2.634912,-0.28142211,0.89862704,-0.33655751,0
7.4818826,-1.311777,1.1409137,0.97404981,-0.17077735,0.14853305,0
0.59879696,-3.0703378,7.1483335,0.076740965,-0.39349014,0.91612029,0
-4.2742419,-6.3420486,0.043290984,-0.55886722,-0.82923782,0.0056603984,0
1.4297034,-2.7972186,7.0005937,0.18632618,-0.36454767,0.9123528,0
6.7490926,1.9781859,3.1288674,0.87677711,0.25698686,0.4064723,0
-2.1630116,-6.0977044,-3.9801209,-0.28474984,-0.80273283,-0.52396333,0
2.9516385,1.7154366,6.8676624,0.38485917,0.22367288,0.89546293,0
0.50380874,-7.2631636,2.5437613,0.065326169,-0.94177532,0.32983583,0
0.57407135,-2.8634174,-7.1579318,0.074258044,-0.37039259,-0.92590231,0
-6.2352595,-1.0386424,4.3643537,-0.81172848,-0.13521419,0.56816727,0
-5.1935458,-5.4811907,1.4077089,-0.67615348,-0.71360224,0.18327117,0
-0.7095086,-0.53152204,7.5954013,-0.092783064,-0.069507599,0.99325728,0
2.9630218,-0.5788542,7.0893483,0.38453755,-0.075123034,0.92004746,0
-1.54953,-3.3361411,6.740099,-0.20180036,-0.43447658,0.87778515,0
-0.62135404,0.90413946,7.5512443,-0.0814301,0.11848988,0.98961067,0
5.028306,-5.2595477,-2.2735729,0.6595906,-0.68992382,-0.29823709,0
1.8991836,-1.7786227,7.1808572,0.24865772,-0.23287283,0.9401806,0
3.5052161,2.1722925,-6.5745463,0.4516564,0.27990565,-0.84714776,0
0.30813938,7.6601605,0.61321729,0.040065754,0.99601072,0.079733446,0
2.5254848,-7.2103238,0.25451645,0.33038536,-0.9432587,0.033295989,0
-1.6390592,4.7819839,-5.7750139,-0.21355993,0.62306482,-0.75245094,0
6.9584742,3.1221023,-0.84692597,0.90679902,0.40685922,-0.11036783,0
-4.9650517,0.11158777,-5.9992404,-0.63751471,0.014327915,-0.77030492,0
-4.0970068,5.9860082,2.5026662,-0.53392315,0.78009838,0.32614821,0
4.0774498,6.5151534,-0.69794554,0.52833754,0.84420413,-0.09043663,0
1.9283309,-4.2577462,-6.0718656,0.2516571,-0.5556578,-0.79240966,0
0.36641198,1.4956535,-7.540988,0.047606956,0.19432639,-0.97978097,0
5.2514057,5.5175524,1.5248706,0.67600787,0.71026868,0.19629498,0
-0.4513112,6.3705559,4.3856597,-0.058253504,0.82228673,0.56608403,0
-6.7767973,-2.0413549,2.8450134,-0.88841206,-0.26761377,0.37297031,0
-6.3733916,-4.0746145,1.7279994,-0.82137483,-0.52511847,0.222697,0
-4.45398,-6.1308246,1.2354164,-0.58009875,-0.79849565,0.16090408,0
5.0669055,5.3358164,2.5416908,0.65086329,0.68540591,0.32648987,0
3.6651595,-4.5128088,5.1235275,0.47297549,-0.58236152,0.66117257,0
6.1865449,-0.83906341,-4.4606304,0.80627692,-0.10935304,-0.58134282,0
-4.7787051,-5.8798842,-1.4086713,-0.62007052,-0.76295626,-0.18278499,0
-1.5568743,-2.7525241,-6.9973259,-0.20275167,-0.35846111,-0.91126144,0
3.6373372,-2.3363378,-6.4158316,0.47016004,-0.30199364,-0.82930654,0
-0.6747303,-6.3086905,-4.3681083,-0.087593928,-0.81899834,-0.56707066,0
1.3162688,0.36139888,7.4963808,0.17274687,0.047429923,0.98382366,0
-6.5067983,3.6057911,-2.0035813,-0.84457952,0.4680301,-0.26006398,0
-3.9694686,6.5918574,0.06068391,-0.51585072,0.85664219,0.0078861536,0
-3.8628745,-5.185349,4.2279439,-0.50000858,-0.67118901,0.54726297,0
6.2333283,3.9409828,-2.1244698,0.81220502,0.51351154,-0.2768192,0
3.2230926,-4.8348699,-5.0912037,0.41719726,-0.62582582,-0.65900564,0
-1.2526497,-6.9563227,2.992533,-0.16319896,-0.90629065,0.38987619,0
-6.3186221,3.096746,3.0224175,-0.82506663,0.40436375,0.39465818,0
-2.2451873,7.1200147,-1.6575155,-0.29358804,0.93103647,-0.21674216,0
-3.7616823,3.7523813,5.5684948,-0.48874143,0.487533,0.72349387,0
0.37253574,-6.6638699,-3.7531989,0.048651803,-0.87027699,-0.49015403,0
1.124702,-2.6941886,7.1564512,0.14551598,-0.34857899,0.92591459,0
-2.6896694,7.0491548,-1.8808426,-0.34590429,0.90655482,-0.2418853,0
-2.9943817,-2.6782632,-6.4992371,-0.39190155,-0.35052827,-0.85061336,0
-0.37737167,2.3663187,-7.23594,-0.049508367,0.31044349,-0.94930172,0
7.6170163,0.49615833,0.62931365,0.99451101,0.064780608,0.082165949,0
-2.1028366,-6.3651252,3.6767342,-0.27503899,-0.83252192,0.48089579,0
-1.4480321,7.3170352,-2.0931873,-0.18691331,0.94448954,-0.27019054,0
-6.1403356,-2.528481,-3.9319384,-0.79565614,-0.32763705,-0.50949508,0
2.8158529,5.2720814,4.7869353,0.36772072,0.68847829,0.62512332,0
-0.56400973,-5.3817539,5.509285,-0.073036686,-0.69691259,0.71342731,0
1.4898955,-3.6483517,6.7542119,0.19052802,-0.46655169,0.86372948,0
-3.4871941,-6.3165207,-2.7082732,-0.45248681,-0.81961089,-0.35141662,0
0.20898007,7.6996956,0.062410161,0.027130459,0.99959904,0.0081022866,0
-6.3492117,1.6967461,4.0033603,-0.82507175,0.22048993,0.52023143,0
0.97448456,-3.8090653,6.5520997,0.12752958,-0.49848759,0.85746509,0
-5.1807904,0.82961464,5.7102771,-0.66807979,0.10698151,0.73635882,0
-6.4009881,0.22262709,4.0702152,-0.84348577,0.029336531,0.53634977,0
6.320519,3.2119453,-2.8643291,0.82658297,0.42005083,-0.37459037,0
1.8579748,2.3061945,-7.1749806,0.23936348,0.29710776,-0.92435497,0
-7.424335,-0.62707621,-2.1966996,-0.95577759,-0.080727145,-0.28279385,0
-4.9393034,-4.3995948,4.1795306,-0.63126725,-0.56228983,0.53416455,0
-0.38619348,-0.31117269,7.7448044,-0.049762916,-0.040096123,0.99795586,0
3.6730156,6.6089029,-0.6997509,0.48371759,0.87035912,-0.092153661,0
1.80242,-0.24499007,7.3965983,0.2366318,-0.032163668,0.97106689,0
2.5664117,6.5984659,2.9117446,0.33524394,0.86194104,0.3803539,0
-7.1386304,1.8681028,-2.3576677,-0.92152834,0.24115406,-0.30435216,0
0.88613766,-5.6746869,-5.0771723,0.11559575,-0.74025708,-0.66231191,0
-6.0000882,-2.366941,-4.2185144,-0.7785148,-0.30711192,-0.54735458,0
2.3337243,0.67607307,-7.2497125,0.30522066,0.088421531,-0.94816774,0
-0.95405203,0.81000364,-7.4900045,-0.12563491,0.1066658,-0.98632568,0
5.8795652,-2.6779628,4.1443563,0.76599669,-0.34888813,0.5399316,0
0.73424673,2.2905157,-7.2663984,0.095927827,0.29925117,-0.94934005,0
2.1874504,4.8930202,5.4574037,0.28597218,0.63967967,0.71346331,0
3.3850858,-6.8268828,0.29949045,0.44389147,-0.89521956,0.03927264,0
-5.1148243,2.2954633,5.3415742,-0.66052473,0.29643446,0.68980706,0
4.3763828,5.9003711,2.6340513,0.56077373,0.75605202,0.33751771,0
-5.1389441,-4.1141686,4.1248999,-0.66150862,-0.52959478,0.53097618,0
-5.9370136,4.6956773,1.4374474,-0.77056152,0.60944921,0.18656546,0
-0.82542127,-3.5844574,-6.7642341,-0.10720252,-0.46553546,-0.87851256,0
-4.4747272,-6.0198584,1.6381085,-0.58283019,-0.78408253,0.21336253,0
3.3407288,-0.31724092,7.0340252,0.42865586,-0.040705841,0.9025504,0
-1.5253124,-5.3443613,-5.329246,-0.19809313,-0.69407505,-0.69211197,0
-6.7767162,0.24690618,-3.8003185,-0.87177181,0.031762559,-0.48888141,0
0.53087068,6.0979195,4.6676154,0.068965718,0.79218429,0.60637265,0
1.5659869,-7.347815,1.073567,0.20634539,-0.96819961,0.14146072,0
2.2328129,6.0674753,4.312202,0.2873112,0.7807433,0.55488032,0
5.455811,-4.734271,2.5061021,0.71356058,-0.61919105,0.32777083,0
0.92740792,-0.65220398,7.5454102,0.12154572,-0.085477598,0.98889852,0
3.5760484,5.3197865,-4.2265925,0.46575001,0.69285715,-0.55047786,0
-6.0670938,-2.492043,4.0031114,-0.78956854,-0.32431322,0.52096289,0
-1.7235879,-4.4445949,6.153769,-0.22142081,-0.57097512,0.79054427,0
4.7761097,6.1326694,-0.19569068,0.61424732,0.78871214,-0.025167443,0
2.6109197,-3.3942494,-6.3072591,0.34247836,-0.44522893,-0.82733291,0
-5.4746752,-1.859983,-5.0018992,-0.71608382,-0.24328451,-0.65424502,0
5.7195349,-4.7206588,2.184303,0.73981506,-0.61061162,0.28253701,0
6.8515682,3.1069775,-1.8595294,0.88412744,0.40092486,-0.23995396,0
-5.2230544,-2.2489507,-5.1965232,-0.67802185,-0.2919437,-0.67457777,0
3.9136934,2.778357,-5.977139,0.51054829,0.36244166,-0.77972847,0
-4.1116872,0.11019155,-6.4458408,-0.53773057,0.014410962,-0.84299356,0
-5.0070233,-2.7544279,-5.2208672,-0.64686441,-0.35584843,-0.67449117,0
-2.1591914,4.1576195,-6.2398796,-0.27671936,0.53283548,-0.79969543,0
-5.6052284,-4.1976819,3.0559704,-0.7336154,-0.54939491,0.3999671,0
-6.9849854,2.4668267,2.3164678,-0.89995003,0.31782755,0.29845521,0
-5.7285557,3.5400138,3.692342,-0.74591178,0.46094304,0.48077762,0
-3.3437064,-5.9945912,-3.5300808,-0.43320048,-0.77664113,-0.45734659,0
-6.7457113,-2.0297217,-3.0482297,-0.87884194,-0.26443535,-0.39712819,0
-5.750267,-3.6595128,3.5726247,-0.74722123,-0.47553715,0.46424645,0
3.3363235,0.60006773,-6.936862,0.43211988,0.077720642,-0.89846081,0
-6.3084893,4.3527632,0.58040577,-0.82073593,0.5662955,0.075510927,0
3.9912415,-6.4760122,1.1547161,0.51872766,-0.84166455,0.15007441,0
-1.0193412,6.0888882,-4.5904617,-0.13249829,0.79145944,-0.59668767,0
5.5346551,-4.8718462,-2.2764621,0.7172181,-0.63132685,-0.29499936,0
3.2212393,7.0207834,0.053145643,0.41700643,0.90887749,0.0068799844,0
2.399842,4.3196878,-5.9815512,0.30930859,0.55675191,-0.7709446,0
-2.6777732,-7.1684756,-0.8170616,-0.34795326,-0.93148082,-0.10617002,0
-5.2882295,-5.6907587,0.012926454,-0.68072337,-0.7325387,0.0016639482,0
3.1779113,6.6109848,2.1408412,0.41589341,0.8651799,0.28017199,0
-2.5465219,-5.624156,-4.6176915,-0.33030242,-0.72949398,-0.59894818,0
1.2941295,6.0491319,4.5936127,0.16795826,0.78508502,0.5961808,0
-5.9363532,-4.3620343,-2.2363915,-0.77109104,-0.56659794,-0.29049173,0
-4.5700912,6.1794386,-0.11945641,-0.59454477,0.80391234,-0.015540648,0
-5.364378,2.0008528,-5.2779579,-0.68889213,0.25694904,-0.6777941,0
-7.1243591,1.7925544,-2.2783799,-0.92625153,0.23305342,-0.29621652,0
1.5092911,6.4685326,-3.75105,0.19785538,0.84797031,-0.49173117,0
-7.1875196,2.3778958,1.4901628,-0.9315182,0.30818048,0.19312836,0
-1.6744399,0.92425227,-7.4281001,-0.2182996,0.12049635,-0.96841413,0
-1.1020085,7.0957398,2.7161639,-0.14354047,0.92424506,0.3537899,0
-0.26917744,-5.9454746,-4.8273282,-0.035126105,-0.77585024,-0.62993854,0
-1.8817128,0.86672807,7.4021769,-0.24480334,0.11275787,0.96299374,0
-5.7911282,-2.4186876,-4.470376,-0.75157833,-0.31389967,-0.5801698,0
2.3017714,-5.2851048,4.9868207,0.30198014,-0.69337755,0.6542443,0
6.4071035,1.1309028,4.0463619,0.83624154,0.14760303,0.52812254,0
-0.23608407,6.7752128,-3.6900086,-0.03058674,0.87778759,-0.47807261,0
4.0238342,-6.4094682,-1.8244879,0.51689124,-0.82334358,-0.23436897,0
-5.7177439,5.2562122,0.66636401,-0.73349994,0.67429239,0.085484408,0
3.6406968,-6.5802994,-1.5646611,0.47396559,-0.85665894,-0.20369604,0
5.2583075,-2.42219,4.9592214,0.6897918,-0.3177461,0.65055728,0
0.97077167,7.1340237,-2.8409996,0.1254223,0.9217056,-0.36705306,0
-1.3738515,7.4373889,-1.5723809,-0.17784637,0.96277702,-0.2035462,0
-5.3478355,5.5320921,0.060971271,-0.69501013,0.71895629,0.007923888,0
-5.8943543,-4.5115442,2.1998935,-0.76135784,-0.582744,0.2841543,0
-5.1242375,-5.721199,0.88085961,-0.66283083,-0.74004906,0.11394104,0
-0.32542482,-4.0638342,-6.6462569,-0.041737124,-0.52120411,-0.85241085,0
-6.6503053,-1.2031547,-3.6100502,-0.86795676,-0.15702832,-0.47116145,0
1.152967,7.3179793,-2.2820444,0.14873603,0.94404024,-0.29439026,0
-2.4893417,7.3746171,0.20194513,-0.31971815,0.94715762,0.025936786,0
-5.5119176,-4.6421599,-2.3363974,-0.72758877,-0.61277825,-0.30841109,0
-2.444011,4.2923999,-5.8333077,-0.31974402,0.56156427,-0.76315749,0
1.7847841,-4.5839424,-5.9497056,0.23119241,-0.59378201,-0.77069646,0
-4.5647025,1.1534564,-6.1469402,-0.5895372,0.14897038,-0.79388523,0
-5.646359,1.5400748,-5.1377177,-0.72502911,0.19775559,-0.65971625,0
-3.5310738,-6.5620608,2.2660325,-0.45335788,-0.84250915,0.29093805,0
-3.2662778,-2.2208707,-6.6004491,-0.42463344,-0.28872499,-0.85809338,0
-7.0426331,2.0790288,-2.3928545,-0.911888,0.26919499,-0.30982947,0
7.3236432,-1.6113471,1.5728377,0.95584154,-0.21030414,0.20527811,0
-0.097254314,7.0260029,-3.1169086,-0.012651863,0.91401631,-0.40548021,0
0.83502847,7.418685,2.114748,0.10761684,0.95610565,0.27254459,0
6.8547416,-0.02262692,3.4997144,0.89063191,-0.0029399004,0.45471552,0
1.063131,6.2103624,4.3564215,0.13878798,0.81074083,0.56871539,0
2.4690061,-2.9574695,-6.7291656,0.3184177,-0.38141283,-0.8678332,0
-0.93531024,1.4477067,-7.518518,-0.12125557,0.1876837,-0.97471631,0
-2.9291208,-2.5003479,-6.6231723,-0.38231909,-0.32635415,-0.8644796,0
3.1116915,6.9207807,0.52087539,0.40911046,0.90991145,0.068482228,0
-6.8095589,1.9048852,3.2942145,-0.87294483,0.24419492,0.42229864,0
2.3217912,6.9876866,2.4526238,0.29915956,0.90035367,0.31601715,0
3.7298977,4.3967099,5.1041613,0.4843792,0.57097405,0.66284645,0
2.9513927,-5.9282889,3.8863039,0.38437319,-0.77206784,0.50613093,0
7.4549046,0.87518674,1.6146132,0.97096956,0.11398935,0.21029648,0
1.9589854,-1.4309564,-7.3231559,0.25393474,-0.18548863,-0.94926876,0
-0.71635532,-5.747817,-4.9592843,-0.093944646,-0.75378329,-0.6503731,0
2.6144223,6.069272,3.7599065,0.34385961,0.79825568,0.4945184,0
1.0435698,-6.0514965,4.5786023,0.13623901,-0.79002845,0.59774077,0
-5.4739437,-5.27211,-0.95999926,-0.71458238,-0.68823451,-0.12532072,0
5.5301738,5.3680592,0.81342572,0.71358246,0.69266409,0.10495987,0
5.835484,-4.2595139,-2.4993498,0.76332653,-0.55717742,-0.32693431,0
6.4997339,-4.0053229,0.47278064,0.84970975,-0.5236156,0.061806578,0
4.0325103,-5.1729846,4.1731024,0.5187149,-0.66541785,0.53679973,0
-6.4219728,-0.21988931,-4.3467274,-0.82780397,-0.028344132,-0.56030107,0
6.4341617,4.1290174,1.3739115,0.82833844,0.53157258,0.17687833,0
6.059176,-4.692884,-0.16755922,0.79041421,-0.61218262,-0.021857955,0
0.83909237,-6.5056891,3.9992049,0.10922043,-0.84681284,0.52055639,0
0.85718274,7.5041933,1.1967535,0.11209084,0.98129755,0.15649535,0
-3.6629176,-5.7292933,3.558315,-0.47726223,-0.74650198,0.46363297,0
2.1092932,-5.5790377,-4.7559595,0.27650189,-0.7313419,-0.62344664,0
-1.5660051,7.1231956,2.6039693,-0.20221598,0.91980797,0.33624682,0
-1.4057409,-6.6496773,3.6724508,-0.18196441,-0.86075938,0.47537592,0
6.6441469,-0.3430627,-3.8018868,0.8670783,-0.044770565,-0.49615604,0
-5.9617991,2.1023636,4.243247,-0.78303772,0.27612975,0.55731881,0
-4.9321804,-1.2093748,5.7616105,-0.64219606,-0.15746701,0.75019222,0
-5.3087502,2.4758699,-4.8565969,-0.69767898,0.32538024,-0.63825679,0
-2.0149605,3.5828853,6.4834332,-0.26247674,0.46672082,0.84455764,0
-2.6905601,0.83754683,7.0829215,-0.35295826,0.10987268,0.92916548,0
4.4844928,-0.96554881,6.19912,0.58150959,-0.12520388,0.80384737,0
3.474421,2.5504832,6.2671075,0.45679227,0.33531946,0.82395494,0
3.2179849,-3.1425529,6.2106347,0.41964698,-0.40981013,0.80990869,0
3.3201876,6.3776736,-2.999723,0.42616722,0.81861508,-0.38503355,0
6.5583425,-2.2355034,-3.3688052,0.8512435,-0.29015833,-0.43725583,0
-0.6746164,-2.3358347,-7.2316885,-0.088422649,-0.30616021,-0.94786465,0
-2.9451129,-6.9872956,-1.1435424,-0.38406053,-0.91118562,-0.14912485,0
-2.1751475,6.3786392,3.7943108,-0.28124404,0.8247506,0.49059993,0
2.7615955,6.6903138,2.4972804,0.36068296,0.87379998,0.32616162,0
6.4652734,-1.2783972,3.9621115,0.84076411,-0.16624673,0.5152452,0
-0.65895516,-5.2020316,5.7399545,-0.084758818,-0.66911691,0.73830783,0
-6.2513537,-0.85111773,-4.5313163,-0.80479163,-0.10957186,-0.58335614,0
3.5253863,-0.99130708,-6.89218,0.45170102,-0.12701428,-0.88308185,0
-5.1643686,-5.2668595,-2.3770964,-0.6663779,-0.67960268,-0.30672568,0
4.9077363,5.8152418,1.0664012,0.63871568,0.75682271,0.13878644,0
0.28426003,-7.5274329,1.3766744,0.037121471,-0.98300624,0.17977969,0
5.1244864,5.6760945,-0.91494328,0.66537446,0.73699647,-0.11879823,0
-0.55785543,-6.0010118,4.6575289,-0.073239952,-0.78786331,0.61147958,0
-2.1547024,-7.3547978,1.2169704,-0.27766967,-0.94778943,0.15682712,0
2.9599464,2.7441566,-6.6099181,0.38218254,0.3543202,-0.85345984,0
6.4274583,1.3153956,4.0666294,0.83270115,0.17041439,0.52684695,0
-1.9711585,-6.736104,-3.0602953,-0.2574403,-0.87975907,-0.39968544,0
-6.7076993,2.6475003,3.0015304,-0.8587507,0.33894524,0.38426983,0
-0.81506318,-7.5190907,-0.90235907,-0.10700892,-0.98717475,-0.11846992,0
-2.6786268,-2.9796748,-6.5423021,-0.34915614,-0.38839746,-0.85278213,0
4.5660772,6.2129683,-0.37969017,0.59148163,0.80481702,-0.049184397,0
3.5989063,6.0642447,3.1974614,0.46480682,0.78321087,0.41295934,0
6.0076046,4.5610304,1.646461,0.77814305,0.59077358,0.21326008,0
-3.8317928,0.82566482,6.5201139,-0.50367671,0.10853095,0.85704774,0
6.0635405,-2.2941349,-4.1382313,0.78837389,-0.29828054,-0.53804761,0
1.7947381,7.2962017,-1.2629603,0.23555769,0.95761967,-0.16576236,0
-1.9326826,-6.8814735,-2.8365586,-0.25132433,-0.89486074,-0.36886358,0
2.1182706,-4.0085053,-6.1013117,0.2786687,-0.52733815,-0.80265695,0
0.47589496,7.3008084,-2.2015805,0.06228691,0.95555705,-0.28815109,0
5.3705144,5.0171552,-2.3098643,0.69711828,0.65125054,-0.29983136,0
2.5736122,-6.1087699,-4.0060883,0.33228156,-0.78870916,-0.51722991,0
1.6517357,-7.0300217,-2.7799144,0.21345642,-0.90850085,-0.35925275,0
