-0.052513089,-0.051301859,-7.8335934,-0.0067032818,-0.0065486687,-0.99995613,0
-6.3925896,4.2202592,1.2565246,-0.82353407,0.54368067,0.16187349,0
-4.0680084,-5.2409077,-3.996527,-0.52522999,-0.67666572,-0.51600087,0
-2.4377229,-5.6529517,4.8656478,-0.31066304,-0.72041136,0.62007743,0
-6.6935959,-1.3754662,3.8130155,-0.85537952,-0.17577183,0.48726803,0
0.28862876,7.4908319,-1.7526137,0.037491363,0.97301978,-0.22765532,0
5.5527048,-4.8458033,2.4528873,0.71488196,-0.62387204,0.31579652,0
-2.9796512,-2.4423649,6.6963811,-0.38568512,-0.31613895,0.86677748,0
-0.25372908,-3.0126007,7.04638,-0.033091202,-0.39290169,0.91898495,0
-5.6520205,-3.6375604,-3.8198936,-0.7310828,-0.47051457,-0.49409917,0
-6.8354125,-3.3984647,-0.25216308,-0.89494503,-0.44495326,-0.033015139,0
-0.077156931,7.6318874,0.96212113,-0.010029915,0.99209726,0.12506968,0
7.5952201,-1.5014467,0.31740668,0.98019195,-0.1937674,0.040962536,0
-1.8830642,-0.95341176,7.5060501,-0.2415064,-0.12227679,0.96266454,0
-4.9406295,-5.7570043,1.4205743,-0.64012539,-0.74589777,0.18405461,0
3.9564648,-1.7411183,-6.5332885,0.50504827,-0.2222562,-0.83398348,0
1.893097,2.7804415,7.0768762,0.24160162,0.35484666,0.90316802,0
0.75142014,-1.0352507,-7.5530901,0.098088309,-0.13513876,-0.98595953,0
4.9746237,-1.1854293,5.8481474,0.64034051,-0.15259011,0.75278169,0
6.267446,-2.5913477,3.6436594,0.81407613,-0.33658916,0.47327352,0
-0.98320186,-4.5089831,6.2097597,-0.1270805,-0.58279371,0.80262196,0
-1.9312954,-4.3147912,-6.2879057,-0.24550238,-0.54848754,-0.79930592,0
3.5284438,0.26997367,6.9109397,0.45444632,0.03477129,0.89009523,0
-0.45481563,-3.9124203,-6.688386,-0.058595281,-0.504049,-0.8616851,0
2.5011878,-2.0516527,6.9698777,0.32550442,-0.26700196,0.90705943,0
-6.0229483,1.1833552,4.6168814,-0.78417534,0.15407039,0.60110837,0
4.689383,5.1929231,-2.9959047,0.61610633,0.68226308,-0.39361167,0
-6.1531615,0.33223522,-4.8006849,-0.78771311,0.042531963,-0.61457229,0
5.9715719,-4.5369525,2.1708391,0.7648564,-0.58110613,0.27804741,0
-7.6611037,-0.30051383,-0.2850554,-0.99854165,-0.039168712,-0.037153874,0
5.088551,-5.5474744,1.648052,0.66032809,-0.71988142,0.21386345,0
6.1502037,-3.4431221,3.2291527,0.79327744,-0.44410741,0.41650879,0
-2.3460407,-0.70192957,7.3111129,-0.30427295,-0.091037713,0.94822472,0
-4.3588653,-0.65750742,6.4146156,-0.56002992,-0.084476992,0.82415414,0
5.2744598,-5.5622869,0.35556349,0.68734413,-0.7248525,0.046335451,0
0.60265458,6.6508036,3.8039651,0.078414746,0.86537308,0.49495509,0
6.9613233,3.2333782,1.2326348,0.89546913,0.41592526,0.15855984,0
-7.7909622,0.097923018,0.55121869,-0.99742812,0.012536471,0.070569076,0
-1.3130125,-0.68226993,7.5799603,-0.17001247,-0.08834219,0.98147416,0
-2.7277472,-5.7849483,4.3722,-0.35208502,-0.74669445,0.56434339,0
-4.4711943,1.772521,6.057076,-0.57808888,0.22917247,0.78313041,0
1.2498728,-2.392555,7.2524819,0.16151275,-0.30917397,0.93719,0
0.62978822,-5.7244415,5.2943153,0.080507122,-0.73176712,0.6767832,0
-6.1552525,-3.3870916,-3.1929224,-0.79760784,-0.43890494,-0.41374418,0
0.67163235,2.3914168,7.4206452,0.08582788,0.30559909,0.94828409,0
0.23086828,7.0222549,3.1866131,0.02992494,0.91021842,0.41304594,0
5.5541153,4.2221293,3.5148294,0.71096492,0.5404616,0.44992232,0
2.5321176,-6.0847673,-3.9535332,0.32946819,-0.79172361,-0.51441664,0
1.0391636,4.6904202,-6.1209874,0.13354874,0.6027922,-0.78664243,0
-3.1517286,-4.4743652,5.4850173,-0.40675506,-0.57745159,0.70788413,0
-3.3173647,7.0012355,1.0395787,-0.42438713,0.895661,0.13299225,0
7.5918818,-1.2170548,0.79771388,0.98212117,-0.15744388,0.10319598,0
0.25655103,0.66675532,7.6879148,0.033227533,0.086355664,0.99571007,0
4.0946569,1.089417,6.4243889,0.5320617,0.14155936,0.83478814,0
-2.6130934,4.5322323,5.7528243,-0.33605096,0.58285749,0.73982894,0
1.7275959,7.5904164,-0.75592172,0.22088763,0.97049844,-0.096650936,0
6.1013417,3.509397,-3.1054802,0.79307628,0.45616516,-0.40366247,0
-5.416842,0.50865084,5.4189034,-0.70541954,0.066240117,0.705688,0
-4.7157364,-0.90769482,6.1188126,-0.60626829,-0.11669578,0.78665167,0
2.3673139,7.4452286,0.74825209,0.30163479,0.94864476,0.095339641,0
3.1084087,-1.8893692,-6.9510827,0.39621049,-0.24082673,-0.88601345,0
3.8063555,-4.0112033,-5.2795482,0.49786395,-0.52465767,-0.69055468,0
1.7821211,7.0533543,2.4968331,0.23169857,0.9170264,0.32462028,0
-2.6825914,-3.5983558,6.4292068,-0.34212953,-0.45892334,0.81996149,0
0.45745176,1.6311941,-7.5358949,0.059224926,0.21118587,-0.97565001,0
-0.89286685,-6.7776575,3.8326454,-0.11392555,-0.8647967,0.48902723,0
-1.2693703,-4.1624017,-6.509881,-0.16210762,-0.53156829,-0.83135808,0
5.0203948,4.4310594,-3.7607365,0.65370065,0.57696384,-0.48968175,0
3.0355868,4.8493042,5.1424537,0.39461371,0.63038945,0.66849768,0
-1.9868082,5.3290071,-5.2805157,-0.25600654,0.68665946,-0.68041122,0
-6.9590974,-2.5593004,2.2863321,-0.89687455,-0.3298375,0.29465792,0
5.640234,2.6843293,4.6036463,0.72687155,0.34593645,0.59328383,0
-2.9426386,-6.3223934,3.4976516,-0.37718278,-0.81039447,0.44832349,0
4.6200981,2.3797297,5.7318983,0.59713382,0.30757293,0.74083066,0
-2.0145998,7.1352844,-2.3810472,-0.25870699,0.91628522,-0.30576473,0
-0.78724396,-7.3696008,2.1553831,-0.1019934,-0.95478737,0.27924615,0
-5.4914765,4.6985307,-2.7666368,-0.70961642,0.60715079,-0.35750875,0
-4.5192227,5.8020034,-2.5128138,-0.58148992,0.74654579,-0.32332462,0
-1.7184181,7.3997688,1.005457,-0.22425082,0.96565801,0.13121054,0
-0.51094455,-6.3434763,-4.3158927,-0.066447452,-0.82495809,-0.56127435,0
1.5714729,7.3877859,-1.6394768,0.20332274,0.95585793,-0.21212132,0
-4.5447631,6.1903067,-1.4013456,-0.58219063,0.79298717,-0.17951438,0
-1.7735997,3.4368997,-6.6836305,-0.22968224,0.44508058,-0.86553413,0
4.9338155,-0.81348181,5.8826642,0.63903296,-0.10536302,0.76192886,0
-7.7279258,0.91871893,-0.28976968,-0.99231982,0.11796995,-0.037208457,0
4.07547,5.2976999,-3.9206722,0.52593607,0.68366385,-0.50595951,0
-1.836471,3.209281,6.7422686,-0.23882459,0.41735223,0.87680101,0
4.2832623,-4.0609212,-4.9761782,0.55482036,-0.52602005,-0.6445753,0
7.3602867,-1.7263793,1.8403927,0.94595182,-0.22187608,0.23652922,0
-2.9877324,4.3523636,-5.7777481,-0.38175225,0.55611557,-0.73824161,0
-3.9496937,-5.3083034,-3.984482,-0.51137877,-0.68728203,-0.51588291,0
6.6179023,-2.1426485,3.3877411,0.85533482,-0.27692792,0.43785068,0
-6.3981695,-3.8974719,-1.9882112,-0.82545114,-0.50282705,-0.25650635,0
-4.9900403,4.9697223,3.1854198,-0.64558184,0.64295322,0.41211072,0
1.7244362,-0.72014111,-7.4930148,0.22329922,-0.093251899,-0.9702791,0
-2.8165367,-6.7073216,2.8770502,-0.36003536,-0.85739094,0.36777073,0
-1.5966978,7.5560269,-0.73659265,-0.20581479,0.97397399,-0.094946995,0
-7.1272974,-2.766624,1.7804636,-0.90793502,-0.35243583,0.22681041,0
3.4872167,2.6223574,6.3788929,0.45122275,0.33931568,0.82538652,0
-4.6730356,-3.2683506,-5.3143768,-0.59949166,-0.41928822,-0.68176764,0
2.402004,-3.7608421,6.2836647,0.31166485,-0.48797682,0.81531811,0
-0.12907764,0.49656358,-7.7226562,-0.016677385,0.064158149,-0.99780035,0
-2.5532322,0.56409097,-7.3229632,-0.32835644,0.072544478,-0.941764,0
2.4874494,6.2983356,-3.8409462,0.3195101,0.8090142,-0.49336526,0
0.81039196,-6.112535,4.7129531,0.10441969,-0.78760529,0.60726798,0
6.030345,0.35988435,-4.8570857,0.7779578,0.046427663,-0.62659889,0
-6.5497851,-2.5870655,3.2403474,-0.84492296,-0.33373171,0.41800514,0
-5.4526982,-4.6098757,-3.0851638,-0.70101899,-0.59266263,-0.39664003,0
-6.9174562,-3.1913362,0.073099114,-0.90798432,-0.41889432,0.0095949797,0
2.642741,-4.4320798,-5.7284379,0.34277284,-0.5748564,-0.7429986,0
-5.7810516,3.9917805,-3.5119247,-0.73604572,0.50823504,-0.44713962,0
4.5142069,-5.2936831,3.4094243,0.58265865,-0.68326735,0.44006193,0
-0.06730362,0.015045907,-7.7949405,-0.0086339321,0.0019301389,-0.99996084,0
-0.77977985,-4.2892799,-6.4888668,-0.099749565,-0.54868537,-0.83005685,0
-2.6201341,0.67980528,-7.2897592,-0.33694679,0.087422326,-0.93745619,0
-5.741241,-4.3022442,2.9915116,-0.7386086,-0.55348217,0.38485688,0
-5.6892138,-0.24646533,5.1734896,-0.73946476,-0.032034729,0.67243266,0
-4.6321154,4.2004976,-4.582859,-0.59748954,0.54181582,-0.59113604,0
1.165062,7.2460213,2.3220334,0.15135266,0.94132727,0.30165428,0
-2.3731544,-2.4629409,-7.1006131,-0.30110779,-0.31249997,-0.90093166,0
2.4470396,7.3404789,-0.82209921,0.31448254,0.9433654,-0.1056525,0
7.4675031,1.995472,-0.26150227,0.96554911,0.25801477,-0.033812277,0
-2.4099,-6.7348223,2.9948401,-0.31076857,-0.86848879,0.38619953,0
0.15175781,6.4952235,-4.303648,0.019473365,0.83345866,-0.55223852,0
-4.4037356,-5.3613811,3.4014852,-0.56991118,-0.69384521,0.44020456,0
-2.4921894,2.1433775,-7.0417962,-0.32069445,0.27580941,-0.90613699,0
-6.6178713,2.5115852,-3.097682,-0.85650808,0.32505816,-0.40091285,0
3.0125582,-1.3042394,7.0962172,0.38529924,-0.1668092,0.90758979,0
-6.0128236,4.075285,-2.6768641,-0.776721,0.52643478,-0.34579039,0
0.49508056,5.0392995,5.935782,0.063454583,0.64588809,0.76079041,0
1.7226206,6.4103589,-4.1653543,0.21982092,0.81801587,-0.53153431,0
-4.3342981,5.5301213,-3.1061058,-0.56419975,0.71986121,-0.40432477,0
4.2720046,5.8922558,-2.6262729,0.55213028,0.76153773,-0.33942959,0
5.3313532,-5.2011633,-2.2298229,0.68572211,-0.66897702,-0.28680128,0
5.5686674,-3.0939012,-4.3178043,0.72359592,-0.40202335,-0.56105804,0
-5.3997717,-3.307194,4.3438997,-0.70320183,-0.43068948,0.56569767,0
-6.1827245,-0.94703639,-4.3933072,-0.80887949,-0.1238998,-0.57477188,0
-0.12886749,5.6174407,-5.3590689,-0.016596405,0.72345102,-0.69017619,0
2.5102611,3.7633126,-6.3717647,0.32123932,0.48159292,-0.8153978,0
-2.2160437,7.4827542,0.45247239,-0.28348634,0.95722783,0.057882316,0
-3.9310198,-4.869451,-4.7419014,-0.50065476,-0.62017339,-0.60392869,0
-2.4319148,2.0874076,7.0400023,-0.31439641,0.26985872,0.91012704,0
2.6792712,-7.2634268,-0.52828151,0.34527451,-0.93602926,-0.068079017,0
1.6886318,-6.8577156,-3.2833381,0.21681213,-0.88049746,-0.4215647,0
2.2314863,1.2444382,7.3620882,0.28635049,0.15968975,0.94472349,0
-1.5606232,5.5204959,-5.1111846,-0.20311451,0.71849042,-0.66521877,0
-5.1328588,3.1820526,4.9188719,-0.6589964,0.40853673,0.63152313,0
0.2649411,-7.2120266,-2.690042,0.034399278,-0.93639117,-0.34926823,0
-2.6268759,6.3423944,3.5665982,-0.33956122,0.81984508,0.46103376,0
4.3336158,1.273816,6.1897573,0.56555188,0.1662374,0.80778474,0
6.0624657,3.5657408,3.3301995,0.77904528,0.45820856,0.42794079,0
-2.0775349,0.65257508,7.4637542,-0.26720926,0.083933175,0.95997626,0
-0.81326395,2.8746941,-7.1780305,-0.10460094,0.36973935,-0.9232288,0
-1.4515148,-7.5565414,0.69380277,-0.1878764,-0.97807872,0.089802161,0
-0.89008141,3.9012256,6.5771561,-0.11561372,0.50673479,0.85431451,0
3.0313046,-7.0617585,0.11047194,0.39441019,-0.91882205,0.014373764,0
-1.7377053,-2.1679406,7.2651834,-0.22340329,-0.27871531,0.93402827,0
-3.1935928,-4.5757699,5.4525609,-0.40934372,-0.58650643,0.69889045,0
2.9795411,4.5781393,-5.6493583,0.37916034,0.58258933,-0.71890688,0
-7.6154332,0.62402493,-1.7822987,-0.97060478,0.079533435,-0.22715813,0
-6.8872981,0.79009759,-3.4404595,-0.8899188,0.10208977,-0.44454727,0
-0.94402581,7.1569228,-2.7385912,-0.12226856,0.926952,-0.3546975,0
4.3553247,-5.6337209,-3.2514908,0.5563674,-0.71967506,-0.41535905,0
-0.87468559,-5.7486768,-4.9312496,-0.11472376,-0.75399643,-0.6467827,0
-5.5994205,-3.2107346,4.0414228,-0.73526895,-0.42160672,0.53068572,0
-3.7224278,4.709826,4.9069247,-0.48009613,0.60744476,0.63286537,0
-5.5663538,-3.360317,4.3372617,-0.71218586,-0.42993498,0.55492991,0
-2.9327352,-4.8060145,-5.2144461,-0.38216874,-0.62627834,-0.67950165,0
-4.4168377,1.1938281,-6.2598,-0.56964773,0.15397023,-0.807338,0
-6.0446987,-3.2367711,3.5186329,-0.78432602,-0.41998518,0.45655796,0
6.9085531,3.1092153,-1.5315435,0.89382201,0.40226731,-0.19814964,0
6.0816464,4.719173,-0.43179628,0.78880399,0.61208797,-0.056005005,0
-7.0559373,3.1592858,0.57592922,-0.91016674,0.40752587,0.074290857,0
-3.4708107,-6.5394716,-2.6104729,-0.4421297,-0.83303154,-0.33253545,0
-0.43148607,-0.66009653,-7.6629753,-0.056012075,-0.085688457,-0.99474627,0
-0.88087118,-7.4050746,1.7675437,-0.1149378,-0.96622872,0.23063257,0
3.8414328,-4.9356322,4.4598427,0.50008118,-0.64252502,0.58058631,0
-1.8211201,-2.1346424,7.3103385,-0.2325723,-0.27261171,0.93359149,0
-1.7605158,-6.3080039,-4.0728803,-0.22827548,-0.81792086,-0.52810585,0
4.4239411,6.1642599,1.3329824,0.57426572,0.80017412,0.17303263,0
-2.3966076,-2.196698,-6.9508085,-0.31232169,-0.28626981,-0.90581721,0
0.34618044,-4.8484559,-5.9935865,0.044860076,-0.62829113,-0.77668381,0
2.3424845,0.20416121,-7.4347053,0.30040801,0.026182313,-0.95345134,0
2.3932765,4.3865561,-5.9060535,0.30935472,0.56700593,-0.76341599,0
-5.8115559,0.24531417,4.9921961,-0.75816703,0.032003324,0.65127456,0
-2.8672495,-6.9486642,-2.2321234,-0.36565566,-0.88615185,-0.28465906,0
7.2564778,-0.61181909,-2.7806449,0.93090868,-0.078488171,-0.3567194,0
-1.5078535,-4.161469,6.3024759,-0.19578774,-0.54034734,0.8183471,0
-4.0226564,5.4329729,3.9686778,-0.51316172,0.6930728,0.50627577,0
4.8469276,2.7473395,-5.5100479,0.61855465,0.35060966,-0.70318067,0
-6.0405889,4.8463864,-0.3805109,-0.77905178,0.62503606,-0.049074303,0
-2.4823458,-5.1944408,-5.1489654,-0.32139185,-0.67252952,-0.66664177,0
-3.8024135,2.6797006,6.2836914,-0.48635536,0.34275252,0.80372822,0
-6.3755388,2.1450431,3.8205218,-0.82414311,0.27728206,0.49386519,0
-6.8167348,-2.0804911,-2.9655719,-0.88305205,-0.26951054,-0.3841655,0
1.7094003,-7.1330953,2.5248168,0.22035639,-0.91951728,0.32547057,0
-2.9470885,-5.1076589,-4.9392343,-0.38312814,-0.66400713,-0.6421116,0
3.1798773,5.4260883,-4.4368916,0.41314512,0.70498377,-0.57646251,0
2.3670471,7.322372,0.7671504,0.30607313,0.94682586,0.099197067,0
-4.962399,-3.9397416,4.506597,-0.63822025,-0.50669503,0.57959902,0
-5.5148807,3.69063,-3.8610804,-0.71832585,0.48071301,-0.50291455,0
-4.7565055,-5.6583853,-2.3804431,-0.61249125,-0.7286256,-0.30652767,0
2.2524014,-6.9173512,-2.6433609,0.29100108,-0.89369363,-0.34151146,0
-2.2276154,-5.2145019,5.3388324,-0.28602356,-0.66953671,0.68550062,0
-6.8620625,-3.3013332,-1.6177173,-0.88146496,-0.42407215,-0.20780356,0
-6.4349298,3.2026894,-2.6792147,-0.83886814,0.41750792,-0.34926689,0
4.1685629,-3.6541793,5.4010592,0.53860199,-0.4721407,0.69784749,0
6.5017962,0.5611735,4.2435565,0.83523989,0.07209,0.54513973,0
-3.5136766,-5.2072573,-4.6053295,-0.45110014,-0.66852891,-0.59125102,0
6.4426951,0.34761423,-4.3903723,0.82554889,0.044542313,-0.56256998,0
0.21253166,-6.1605639,4.7856469,0.027234191,-0.78942585,0.61324149,0
0.921794,-3.1835077,-7.0244627,0.11867964,-0.409872,-0.90438938,0
-0.72286528,-6.3338189,-4.3849201,-0.093424857,-0.81859809,-0.56671768,0
2.3557956,-1.2162369,-7.3686833,0.30082473,-0.1553081,-0.94094837,0
6.676012,2.5508277,2.8816695,0.86635816,0.33102554,0.37395945,0
-0.25571832,-7.6272612,0.94552088,-0.033253804,-0.99185479,0.12295625,0
-0.57255149,5.9839902,-4.8986483,-0.073834471,0.7716769,-0.63171458,0
-1.5686944,-2.0540533,7.258616,-0.20359361,-0.26658612,0.94206238,0
3.3591576,-6.6221786,2.0133917,0.43661916,-0.86074257,0.26169816,0
4.1206684,2.5950277,-6.1174941,0.52700257,0.33188456,-0.78238159,0
-0.14308593,6.5480595,-4.2587433,-0.018315105,0.83815646,-0.54512233,0
1.8890876,-6.635891,-3.5823493,0.24299701,-0.85358751,-0.46080455,0
-2.8245676,-5.5357647,-4.6125417,-0.36495918,-0.71526992,-0.5959813,0
-2.0812461,5.8461308,-4.5650282,-0.27015889,0.75886464,-0.59256947,0
-1.9487014,3.8649123,-6.5229821,-0.24892628,0.49370223,-0.83324295,0
6.2841907,4.5833917,0.23893754,0.80755502,0.58899248,0.030704863,0
5.3170767,4.720077,3.3029809,0.6782288,0.60207748,0.4213174,0
2.0131047,-2.739805,6.9405012,0.26047814,-0.35450679,0.89804012,0
3.7978079,0.49659041,-6.6726651,0.49361992,0.064544313,-0.86727935,0
7.4334531,1.7331895,-1.6896181,0.95086044,0.22170332,-0.21612984,0
6.3824205,-1.6404192,3.91078,0.83289582,-0.21407212,0.51035058,0
-2.4585164,7.0593777,1.8901285,-0.31885332,0.91555464,0.24513717,0
-6.2743015,3.3667166,-2.932435,-0.81477004,0.43719605,-0.38080099,0
5.8100271,3.0071678,-4.1915765,0.74777669,0.38703606,-0.53947479,0
4.0560498,2.413981,-6.1750064,0.52185577,0.31058541,-0.79448301,0
-3.7223585,-5.8315759,3.4933181,-0.48028833,-0.75243634,0.45073572,0
-2.3145895,-4.0588851,6.1880765,-0.29850352,-0.52345848,0.79805189,0
-3.8220351,1.9737064,-6.4036789,-0.49544746,0.25585002,-0.83010393,0
7.1066432,-1.3461744,-2.6193116,0.92381871,-0.17499416,-0.34049395,0
6.1441813,-0.78171653,4.7805901,0.78529215,-0.099911734,0.61101055,0
4.2827654,6.3004866,0.72839457,0.5596174,0.82326764,0.09517736,0
-4.3760195,6.0729299,-1.9675413,-0.56540722,0.7846579,-0.2542178,0
-0.71891958,0.58126497,7.7593369,-0.09200146,0.074385546,0.99297661,0
7.2165375,2.477387,0.72752279,0.94154888,0.32322717,0.094920628,0
-4.1718082,-1.2759502,-6.4441786,-0.53608453,-0.1639618,-0.82808805,0
-2.1288576,-0.27244768,-7.5177269,-0.27229905,-0.034848385,-0.96158141,0
-1.8122649,-3.8797214,6.4222736,-0.23478137,-0.50262314,0.8320142,0
0.71296167,-7.4099908,-1.8213774,0.093029894,-0.96688318,-0.2376601,0
-7.2531576,-1.1697997,-2.5309823,-0.93340737,-0.15054128,-0.32571158,0
1.7386402,4.1955934,-6.2980475,0.22391464,0.54033881,-0.81110799,0
0.28523859,-6.813096,-3.7349403,0.036687002,-0.87629122,-0.48038298,0
-6.140276,4.0957112,-2.3669965,-0.79217488,0.52839965,-0.30537313,0
4.0579572,3.6785111,-5.2785296,0.53347397,0.4835906,-0.69393492,0
-3.5177336,0.69099385,6.8232226,-0.45639345,0.089650072,0.88525015,0
-5.2622709,1.2166529,-5.4912271,-0.68320835,0.15795983,-0.71293408,0
1.4502299,-7.6159463,1.1084964,0.18517579,-0.97245884,0.1415408,0
-5.4941912,5.4285412,-0.90643817,-0.70649529,0.69805342,-0.11655843,0
2.7311563,-6.8584642,-2.5880911,0.3491284,-0.87672925,-0.33084011,0
-0.096574664,7.6490436,-1.783294,-0.012295042,0.97380936,-0.22703339,0
0.54767865,-7.758502,0.6231398,0.070190638,-0.9943316,0.079861753,0
-2.4816706,-0.84586197,7.2527838,-0.32178771,-0.10967933,0.94043773,0
-4.3458815,-4.4177599,-4.4587779,-0.56925029,-0.57866538,-0.58403814,0
7.2179604,-2.6221256,1.0310524,0.93154311,-0.33840904,0.13306664,0
2.4642236,5.8084517,4.5902381,0.31582025,0.74442375,0.58829486,0
0.063581131,0.35776359,7.7585144,0.0081860404,0.046061892,0.99890506,0
-2.0623844,2.9498453,6.9010191,-0.26497704,0.37899885,0.88664931,0
-0.75745225,6.1899309,-4.409184,-0.099176712,0.81047618,-0.57731479,0
2.8922698,-3.5427217,6.2661877,0.37282786,-0.45667431,0.80774248,0
6.1840715,-4.6694365,0.78195101,0.79401934,-0.59954399,0.10040056,0
-5.4170361,-5.1106133,-2.2628691,-0.69596201,-0.65659386,-0.29072559,0
4.743978,-1.4875349,-5.9389853,0.61249787,-0.19205652,-0.76678598,0
6.6148109,-3.2841613,-2.3595316,0.85319501,-0.42359942,-0.30433834,0
6.6516256,-1.3809727,3.6655142,0.86169046,-0.17889927,0.47485214,0
-2.3796165,1.0362605,-7.1917095,-0.31123495,0.13553464,-0.94061852,0
5.389401,-0.38379756,5.5324955,0.69692278,-0.04963024,0.7154268,0
3.7496545,4.0864596,5.5180182,0.47927925,0.52232951,0.70531076,0
6.6775093,-3.0781567,2.7534306,0.85047901,-0.39204854,0.35068989,0
-7.6735387,1.464738,-0.22363235,-0.98186302,0.18741967,-0.028614743,0
5.0694346,-5.2593002,2.4483995,0.65801269,-0.68265724,0.31780231,0
7.7223639,0.23851903,0.91005617,0.9926607,0.0306601,0.11698192,0
4.1827998,-5.9452291,2.4094677,0.54619008,-0.77632815,0.31462836,0
2.9748878,-2.9669838,-6.5556951,0.38205555,-0.38104045,-0.84192741,0
3.4254227,1.8172926,-6.7792487,0.43860096,0.23269136,-0.86803448,0
3.8013992,-2.9429517,6.0807972,0.49040025,-0.37965608,0.78445446,0
3.2443297,2.4019647,6.5135422,0.42337674,0.31345025,0.85000062,0
-6.0278101,4.8754692,-0.74424875,-0.77395082,0.62599409,-0.095559075,0
3.1954803,3.6042523,6.03725,0.41374284,0.46666962,0.78168809,0
-3.710712,-0.83643997,-6.6874628,-0.48231277,-0.10871921,-0.8692264,0
0.58702636,5.7745557,5.3084755,0.0746307,0.73413932,0.67488492,0
4.3034487,2.976182,-5.8141885,0.55017948,0.38049349,-0.74332178,0
4.3354011,2.4329698,-6.0492139,0.55369496,0.31072631,-0.77257431,0
-6.119247,-4.1181159,2.5419307,-0.78435463,-0.52785307,0.32582033,0
-2.1480651,1.8115274,7.3201776,-0.273954,0.23103358,0.93358058,0
-2.9360914,7.1903267,-0.11923146,-0.37799197,0.92568159,-0.015349841,0
2.5004683,7.1092019,1.8807487,0.32192418,0.91527814,0.24213803,0
6.2402434,3.365365,3.0558908,0.80827838,0.43590474,0.39581957,0
-0.79130554,-6.1310444,4.7429171,-0.10155705,-0.78686512,0.6087113,0
-4.0034986,3.6972935,5.5701165,-0.5137583,0.47446382,0.71479821,0
-0.97783542,5.6948419,-5.2185373,-0.12559026,0.73142844,-0.67025334,0
5.4444389,-2.0155797,-5.0936217,0.70493633,-0.26097369,-0.65951312,0
-5.8564997,-5.0554423,-1.2813203,-0.7468065,-0.64465761,-0.16339083,0
0.25656819,0.37825063,7.7841105,0.032903831,0.04850911,0.99828064,0
-5.1610646,-5.793088,0.85983407,-0.66115481,-0.74211973,0.11014848,0
-6.8231936,1.071041,3.3653238,-0.88808966,0.13940398,0.43802205,0
5.1759796,5.8486524,0.22939308,0.66244417,0.74853575,0.029358717,0
4.2555223,-3.6911938,-5.5122166,0.53993434,-0.46833318,-0.69938183,0
6.9780908,1.920879,-3.0049465,0.89044201,0.24511452,-0.38344738,0
3.9240236,-1.5536612,6.5372133,0.50429583,-0.19966874,0.84012985,0
1.4855082,0.86000413,7.518538,0.19262326,0.11151523,0.97491568,0
5.5852323,-4.8494329,-2.4178951,0.71772051,-0.62316793,-0.31070739,0
-6.3035975,3.9186239,1.8794339,-0.82329148,0.5117982,0.24546649,0
2.0763898,7.2032561,2.1944945,0.26582375,0.92217582,0.28094375,0
-5.6706638,-5.1921177,-0.090466581,-0.73749113,-0.6752544,-0.011765518,0
5.1869087,0.57075065,5.7405748,0.66860276,0.073570885,0.7399714,0
-5.9278736,-3.4314642,-3.7186003,-0.76059276,-0.44028381,-0.47712561,0
-4.671164,-3.8628054,4.7925344,-0.60451025,-0.49989799,0.6202172,0
-0.89762241,-2.3480947,7.3342648,-0.11577579,-0.30285844,0.94597715,0
-2.3561072,-7.1579924,1.5249794,-0.30644402,-0.93099493,0.19834445,0
-7.2643247,-2.6799388,0.85251141,-0.93255639,-0.34403667,0.109441,0
1.1223588,6.805583,3.371505,0.14618969,0.88644207,0.43914589,0
2.2590902,-0.95247144,-7.421361,0.28904012,-0.1218643,-0.94952875,0
-5.6975298,-4.552237,-2.5510957,-0.7374382,-0.58920157,-0.33019143,0
3.4955385,5.196928,4.3933082,0.45691162,0.67930502,0.57426161,0
-4.4133477,-5.3210335,-3.4253321,-0.57203466,-0.68968403,-0.4439733,0
2.1123772,-7.5281844,-0.12417639,0.27012777,-0.96269351,-0.015879501,0
1.9705014,-5.5803757,5.0348549,0.2536031,-0.71819311,0.64798468,0
-4.1065726,6.4407463,-1.3212227,-0.52974683,0.83085459,-0.17043738,0
-1.4897091,-7.5159926,-0.07344681,-0.19441411,-0.98087269,-0.009585157,0
6.5671544,3.2133107,-2.727695,0.84157503,0.41178292,-0.34955168,0
1.5258057,3.0951164,6.9742279,0.19608776,0.39776653,0.89628756,0
5.5327182,3.5260513,-3.9566193,0.72214395,0.46022886,-0.51642764,0
3.1925309,3.8019128,-5.8638225,0.41552225,0.49483603,-0.76320285,0
-3.539501,-2.5828922,-6.4650235,-0.4532018,-0.33071649,-0.82778907,0
-6.6158566,1.4262016,3.6992636,-0.85776991,0.18491223,0.47962302,0
-7.4790387,-1.7307688,-0.18902579,-0.97395778,-0.22538935,-0.024615882,0
-2.7092857,-7.2057972,0.041089874,-0.35192823,-0.93601179,0.0053374534,0
-1.4041907,-6.3225489,-4.2198801,-0.18165337,-0.81791764,-0.54590553,0
-7.1293831,-0.061491754,3.2041435,-0.91208845,-0.0078668687,0.40991798,0
7.0832739,0.69725788,-3.1865516,0.90831327,0.08941184,-0.40862277,0
-6.2693424,-4.3993812,0.43102399,-0.8172732,-0.57350451,0.056188405,0
-4.4847288,1.232595,-6.1738348,-0.58019412,0.15946212,-0.79871559,0
-2.5045054,2.1063256,7.1129289,-0.31987584,0.26902026,0.90846443,0
5.2040353,-0.50827742,5.7155299,0.67179543,-0.065614171,0.73782492,0
-6.7237396,-2.4662797,-3.1356261,-0.86001748,-0.31545594,-0.40107045,0
5.9925342,0.51781309,-4.8057275,0.77835876,0.067257747,-0.62420672,0
-0.65532452,-5.4010558,-5.4566612,-0.08504542,-0.70092762,-0.70814389,0
-6.8278122,3.6231251,-0.9472174,-0.8767792,0.46525601,-0.12163494,0
5.717968,-5.3294859,-0.63159502,0.72914356,-0.67960513,-0.080539703,0
-2.2983611,5.07657,-5.462925,-0.29452235,0.65053457,-0.7000438,0
5.3362741,5.2751532,1.7019212,0.69355154,0.68560773,0.22119743,0
3.4320261,-4.0147123,5.5466347,0.44809762,-0.52417523,0.72418845,0
-0.16355811,4.1772776,-6.5362906,-0.021080244,0.53838992,-0.84243214,0
-2.0107977,6.1745472,-4.2986579,-0.25820488,0.79286849,-0.55198711,0
6.2435389,1.6830969,4.2169948,0.80875373,0.21801913,0.54624635,0
3.7993994,5.8735366,3.4922838,0.48594606,0.75122976,0.44666573,0
4.8933015,4.9133396,3.3294847,0.63613361,0.63873863,0.43283603,0
7.2898393,-0.60111916,2.5083094,0.94272834,-0.077737249,0.32437673,0
5.160234,5.4169431,1.9903368,0.66655713,0.69971675,0.25709555,0
-3.2227714,-3.4631021,6.017437,-0.4210386,-0.45243657,0.78614736,0
-6.0739408,3.6169486,-3.3654046,-0.77577662,0.46196437,-0.42983663,0
0.082945459,-5.5265279,5.4216728,0.01071322,-0.71380532,0.70026225,0
3.6275227,-4.4640737,5.0614495,0.47344777,-0.58263057,0.66059738,0
-1.2850543,7.4524941,-1.5140681,-0.16661859,0.96628141,-0.19631225,0
-6.7854815,2.3283288,2.7642679,-0.88260901,0.30285308,0.35955706,0
-0.2018881,-7.4211702,-2.1146748,-0.026153946,-0.96138847,-0.27394924,0
5.042304,5.9142346,-0.71592832,0.64604825,0.75776488,-0.091728747,0
7.4527831,0.46713477,2.0922227,0.96103287,0.060236812,0.26979113,0
-0.69214541,0.51507598,-7.7127028,-0.089184701,0.066368856,-0.99380141,0
-0.86955631,-6.5693011,-3.9760234,-0.11252152,-0.85007465,-0.51450169,0
-0.51647085,2.1701126,7.490314,-0.066083491,0.27767029,0.95840085,0
0.73090822,-4.3855534,-6.2943921,0.094845854,-0.56908864,-0.8167879,0
0.081729732,-7.2331595,-2.5895631,0.0106375,-0.94142896,-0.33704355,0
3.1242461,-0.51440179,7.1311479,0.40041673,-0.06592793,0.91395837,0
1.4800072,2.7517843,7.0989842,0.19081652,0.35478607,0.91526818,0
-1.1476684,7.7610183,0.061933219,-0.14628066,0.98921162,0.007893946,0
-5.8255014,4.6817188,-2.0540633,-0.7516048,0.60403425,-0.26501477,0
-5.1947784,2.220068,5.4426017,-0.66221833,0.28300914,0.69381028,0
-3.1935153,-5.8838739,-3.9214919,-0.41160721,-0.75836337,-0.50543499,0
-5.9997711,-3.6414683,3.2396607,-0.77616674,-0.47108239,0.41910213,0
-2.1770208,3.25436,6.6607304,-0.28176782,0.42120588,0.86208618,0
7.1931796,2.9845011,0.74320912,0.91947532,0.38149682,0.095001444,0
-4.294445,-3.1596081,-5.5704818,-0.55694264,-0.40976667,-0.72243071,0
2.949316,7.1925063,-1.0524578,0.37596607,0.91686964,-0.13416277,0
1.0173793,0.70554554,7.7253127,0.13003491,0.090178318,0.98740005,0
-0.66189313,-4.9197712,5.8731742,-0.086071692,-0.63976043,0.76373971,0
-2.1286771,4.3489199,5.9546266,-0.27736074,0.56665218,0.77587134,0
1.2406758,-7.4471459,-1.8770781,0.15947743,-0.95726192,-0.24128106,0
-2.6663558,-6.4853349,3.1593397,-0.34668824,-0.84324425,0.41078758,0
-4.1906538,-1.1960793,6.4855499,-0.53631854,-0.15307383,0.83001858,0
-0.54666376,-2.6859634,7.1883826,-0.071057588,-0.34913251,0.93437535,0
0.25162235,1.328174,-7.6427169,0.032419939,0.17112677,-0.98471546,0
-2.58058,-7.143064,-0.83248353,-0.33775437,-0.93490648,-0.10895804,0
3.8505664,-6.6038551,-1.5460916,0.4937104,-0.84673047,-0.19823615,0
-4.3807364,-5.7684326,2.6975131,-0.56676936,-0.74630624,0.34899789,0
5.3189435,5.6744709,-0.66450232,0.68139893,0.7269448,-0.085128024,0
-6.1698594,-1.1851878,-4.7469401,-0.78353959,-0.15051261,-0.60283637,0
-2.7011614,1.6227404,-7.0683584,-0.34903491,0.209685,-0.91334927,0
-2.2495456,7.0442042,2.0265403,-0.29339314,0.91872829,0.26430807,0
-1.6213028,5.2019868,-5.4661021,-0.21006767,0.67400688,-0.70822757,0
-3.1315248,6.109045,3.6370738,-0.40308678,0.78635025,0.46816057,0
0.55930859,-5.1710215,5.7690492,0.072006159,-0.66572446,0.74271536,0
-6.7187448,3.7953653,0.054231048,-0.87066269,0.49183041,0.0070276442,0
-2.5609434,-4.3225727,5.8286357,-0.33279762,-0.56172347,0.75743812,0
-2.6705642,-1.8055171,-7.0097032,-0.34613323,-0.23401402,-0.90853131,0
0.33301935,-7.57445,1.7173373,0.042838514,-0.97435236,0.22091262,0
4.7033873,5.6859331,-2.4805553,0.6041671,0.73037869,-0.3186363,0
-1.5220878,1.6186596,7.4048424,-0.19688088,0.20937236,0.95781058,0
-6.5728278,3.630806,-1.6252445,-0.85551912,0.47258562,-0.21154179,0
0.40222287,1.2118855,7.549674,0.052530814,0.15827376,0.9859969,0
7.078146,-2.3391206,-2.279871,0.90798128,-0.30006129,-0.29246077,0
-7.3149099,-0.46328741,2.5178652,-0.94386178,-0.059779175,0.32488668,0
1.6137879,0.92571282,-7.4457111,0.2102758,0.12061995,-0.97017264,0
-6.1146312,-0.51814097,4.7149668,-0.79013264,-0.066954181,0.60926801,0
3.4114904,6.3020296,3.0924997,0.43709263,0.80743909,0.39622238,0
-1.8880684,-6.6906934,3.5871749,-0.24135101,-0.8552686,0.45854709,0
4.9614868,5.691668,-1.3913714,0.64621896,0.74132293,-0.18122201,0
0.30326745,-7.6596885,1.0720404,0.039180379,-0.98958689,0.13850135,0
-1.4579732,-7.5810547,-0.9956578,-0.18730579,-0.97393793,-0.12791213,0
-6.3794742,3.4938877,-2.8514719,-0.81656814,0.44721514,-0.36498639,0
-4.5905252,3.1354921,5.4799228,-0.58807576,0.40167668,0.70201331,0
-5.9266095,-0.83665484,5.0510612,-0.75673151,-0.1068272,0.64493823,0
6.5456343,1.5895534,-3.7467744,0.84922111,0.20622635,-0.48610106,0
0.26031977,4.141664,-6.5314417,0.033640549,0.53521812,-0.84404379,0
4.5822487,-2.5529449,5.6963854,0.59174657,-0.3296845,0.73562497,0
4.4820657,3.3987129,5.3351989,0.57812893,0.43839031,0.68817216,0
4.7034159,6.0293145,-0.73247808,0.61227405,0.78487486,-0.095351405,0
5.3822632,5.5799165,0.047534682,0.69423145,0.71972573,0.006131263,0
3.0576308,-3.8876331,-5.9861665,0.39376512,-0.50065374,-0.77090526,0
-3.3672962,-5.2073441,4.6657143,-0.43390685,-0.67101383,0.60121989,0
-2.0799866,3.9042349,6.3845983,-0.26778418,0.50264376,0.82197374,0
1.6108931,-5.181252,-5.5022302,0.20846128,-0.6704917,-0.71202862,0
-5.4472532,-1.2297015,5.3995185,-0.70125598,-0.15830649,0.6951108,0
5.7305145,2.1556115,4.5752668,0.74975318,0.28202993,0.59860611,0
0.024060918,6.2429128,4.5320525,0.0031189073,0.8092404,0.58746934,0
4.5017014,3.987596,-5.0451908,0.5734759,0.50798357,-0.64271152,0
-1.6094193,-0.8242054,7.5889001,-0.20630029,-0.10564917,0.97276843,0
-7.7428036,0.26684675,-1.1830499,-0.98795444,0.034048703,-0.15095299,0
4.1820149,-6.2521734,1.6804961,0.54260206,-0.811198,0.21803859,0
-1.1515125,2.1158664,7.2571292,-0.15059362,0.27671084,0.94907993,0
-5.7693987,-5.0522962,-0.99379802,-0.74607509,-0.65334231,-0.1285139,0
-4.270503,5.5051484,3.3610668,-0.55205321,0.7116574,0.43448928,0
0.77540177,-6.122757,4.6414266,0.10041215,-0.79287815,0.60105044,0
-0.93673688,4.1061997,6.3867483,-0.12244257,0.53672874,0.83482337,0
4.0536971,4.6504607,4.5140715,0.53028667,0.60835266,0.59051085,0
-6.4939036,-4.0899339,-0.74618846,-0.84219205,-0.53042209,-0.096772917,0
1.0727795,-5.3602982,5.4992194,0.13835113,-0.69129139,0.70920742,0
-7.1336818,-0.68254167,2.8196335,-0.92633027,-0.08863011,0.36613798,0
-0.77188647,-2.831362,-7.1681566,-0.099654354,-0.36554283,-0.92544442,0
-3.9407651,-6.5356832,1.0613884,-0.511437,-0.84820849,0.1377482,0
5.0841136,-4.5543871,3.7740545,0.65184081,-0.58392388,0.48387644,0
1.7847339,-6.2675786,-4.0224032,0.23304971,-0.81841743,-0.52524352,0
2.1120839,-1.8240235,7.2313128,0.27248761,-0.23532389,0.93293792,0
-1.2295276,-2.1122797,7.3506622,-0.15872379,-0.27268118,0.94892132,0
-6.8221216,3.7314487,0.29608089,-0.87670326,0.47952431,0.038049027,0
-1.0805224,-6.8621159,-3.5651305,-0.13838492,-0.87884659,-0.45659426,0
6.1278419,3.4906852,3.431756,0.78131586,0.44507149,0.43755785,0
-5.4380465,-4.9428797,-2.4440913,-0.70217758,-0.6382401,-0.31558871,0
-3.2850103,4.2714834,-5.5984941,-0.4227564,0.54970813,-0.72048455,0
0.94972938,2.7613709,-7.2465849,0.12156039,0.35344103,-0.92752492,0
6.1823192,4.360157,-1.1313812,0.80821836,0.57000601,-0.14790615,0
-7.3027425,-1.4622537,2.2415144,-0.93893337,-0.18800591,0.28819758,0
7.4639807,2.0757451,-1.4042199,0.94799101,0.26363784,-0.17834824,0
-6.2781272,0.30544165,4.5556941,-0.80873537,0.039346363,0.58685511,0
-3.1155217,-7.1410794,0.24318016,-0.39968666,-0.91612077,0.0311973,0
6.5599446,3.3168321,-2.2769201,0.85245419,0.43101698,-0.29588208,0
3.9887087,-2.3313494,-6.254724,0.51294959,-0.2998125,-0.80436009,0
-6.9719839,-3.4066908,0.67959595,-0.8950516,-0.43734527,0.08724539,0
-0.63013619,6.422967,-4.4436769,-0.080418848,0.81970793,-0.56710821,0
-1.9544868,6.9338326,2.8310573,-0.25250643,0.89580411,0.36575338,0
1.5611116,7.5201344,0.34877968,0.20304826,0.97811729,0.04536454,0
-7.2816749,-1.0915521,-2.4312646,-0.93907994,-0.14077184,-0.31354761,0
7.581594,-0.7643075,-1.3792323,0.97904873,-0.098698802,-0.17810708,0
0.20233288,-7.6423755,-0.32572401,0.026441868,-0.99874365,-0.042567234,0
-1.49887,-7.4645586,-1.5753956,-0.1927847,-0.96009171,-0.20262742,0
-6.1819167,4.44063,-1.8218995,-0.78986663,0.56738156,-0.23278503,0
2.3100185,7.3957386,-0.97640139,0.29580033,0.94703215,-0.12502924,0
-4.1465425,-6.4521942,-0.043805126,-0.54062915,-0.84124166,-0.0057113431,0
5.0725145,-5.20714,2.8419166,0.64988881,-0.66713697,0.36410537,0
-0.97479898,0.76598632,-7.5635276,-0.12718433,0.099940047,-0.98683131,0
5.7829003,2.5184851,-4.432035,0.75015581,0.32669699,-0.57492203,0
6.1144819,-2.53092,-4.01721,0.78983432,-0.32692999,-0.51892054,0
-3.1844814,5.2153697,-4.6844339,-0.41358671,0.67734975,-0.60839409,0
-7.3671288,-1.9704112,1.3593071,-0.95105404,-0.25436878,0.17547874,0
-2.8709581,-7.1739359,0.27616772,-0.37130797,-0.92782253,0.035717439,0
-7.6655469,0.87040406,0.069511048,-0.9935748,0.11281799,0.0090097198,0
5.8618116,1.6531538,4.8315196,0.75401366,0.21264766,0.62148565,0
-1.8147866,-2.0669816,7.275301,-0.23332576,-0.26575029,0.9353801,0
1.4612837,-6.2160106,-4.3578653,0.18902123,-0.80405879,-0.5637024,0
6.6066046,-2.1711223,3.4734943,0.84989607,-0.27930054,0.4468421,0
-5.6510639,-3.5212002,-4.051559,-0.72504073,-0.45177576,-0.51982164,0
2.9703691,-7.2355928,0.4131346,0.37923789,-0.92379457,0.052746404,0
3.3849442,1.6792945,-6.7506204,0.43754625,0.21706975,-0.87260187,0
-1.5588562,3.9267895,6.5295672,-0.20043908,0.50490999,0.83957738,0
7.6697721,0.1683946,0.0863837,0.99969572,0.021948937,0.01125945,0
-2.1892922,6.4209261,-3.9021502,-0.27974191,0.82044876,-0.49860632,0
-0.064276688,7.5772567,1.7394968,-0.0082674967,0.97461373,0.22374028,0
-4.369452,2.3866363,-5.95437,-0.56295657,0.30749223,-0.76715606,0
1.1459366,-3.3563833,6.9531641,0.14681247,-0.4300054,0.89080948,0
-6.3467522,-0.24102362,4.3831878,-0.82244051,-0.031232918,0.56799304,0
-7.0381074,-2.1670485,2.4394207,-0.90724212,-0.27934182,0.31445175,0
5.6163902,-3.5877638,3.8989415,0.72739428,-0.46466127,0.50496274,0
-7.3143487,2.0332873,-1.3309041,-0.94899344,0.26380697,-0.17267692,0
-4.197413,5.784266,3.0924215,-0.53902066,0.74280012,0.39712057,0
-2.6995931,1.280586,7.1646667,-0.34776285,0.1649657,0.92295575,0
-4.8597288,5.740098,-1.61165,-0.63181007,0.74626631,-0.20952953,0
7.1812444,0.38349289,-2.6845527,0.93551981,0.049958639,-0.34972382,0
-2.5746505,-7.2552209,0.68586326,-0.33311555,-0.93870091,0.088738918,0
7.6506052,1.425101,0.41390556,0.98170251,0.18286465,0.053111106,0
5.9217,-4.1546893,2.9104228,0.75945115,-0.53283411,0.37325835,0
-5.1748495,5.4723778,1.9923472,-0.66423184,0.7024219,0.25573313,0
-3.7001514,-6.3272982,2.572546,-0.47632471,-0.8145203,0.33116677,0
4.2400837,4.2565179,-4.9974804,0.54257113,0.5446741,-0.63948941,0
1.9442511,0.24796598,7.5732212,0.24853835,0.031698093,0.96810329,0
-4.7595978,3.3097563,5.155436,-0.61350727,0.42662418,0.6645304,0
-3.5639579,-5.9433279,-3.2759988,-0.46494585,-0.77535301,-0.42737934,0
-0.53754771,-7.7554655,-0.82504064,-0.068760082,-0.99203557,-0.10553456,0
1.6858916,6.5051465,-3.8938348,0.21706758,0.83757252,-0.50135213,0
0.56265771,-4.7140546,-6.1796303,0.072202846,-0.60492939,-0.79299885,0
-1.2089539,7.65942,-0.88942742,-0.1548931,0.98133707,-0.11395486,0
4.1946468,3.7925944,-5.4035764,0.53628993,0.48488712,-0.69085282,0
-3.5749898,-3.0280204,6.3192716,-0.45445442,-0.38492343,0.80330884,0
-6.3342009,1.0226821,4.3519721,-0.81700933,0.13190942,0.56133389,0
-7.7631378,-0.16778368,0.51836544,-0.9975462,-0.021559834,0.066608824,0
-0.0866616,2.6605198,7.2162523,-0.011267096,0.34590098,0.93820339,0
6.5046983,1.4706904,-3.8013802,0.84738177,0.19159018,-0.4952144,0
-3.9668095,6.2981982,2.2794764,-0.50957608,0.80906612,0.29282138,0
-0.25054047,1.5958555,7.5032783,-0.032642853,0.20792361,0.97760022,0
6.4171348,-3.9288061,-1.4922957,0.83656007,-0.51217288,-0.19454089,0
5.4382949,4.9097686,-2.2897656,0.70846272,0.63960999,-0.29829451,0
-5.5908036,-5.3019528,-0.58617508,-0.72351187,-0.68613136,-0.075857542,0
5.9679737,0.5772624,5.0018597,0.76431781,0.073929943,0.64058769,0
3.8347092,4.9561586,4.6073227,0.49302548,0.63720936,0.59235978,0
-6.0518022,4.5971451,-1.1777028,-0.78691095,0.59776306,-0.15313575,0
2.0894351,6.5626469,-3.7344241,0.26669538,0.83765584,-0.47666165,0
-3.4496989,1.292944,-6.8640828,-0.44282347,0.16596982,-0.88111371,0
1.2526813,2.9989216,-7.1357708,0.15975951,0.38246462,-0.91005373,0
4.9194269,5.9056768,-1.0510559,0.63413161,0.76126271,-0.13548484,0
2.9705088,-6.2745867,3.5055172,0.3819567,-0.80680472,0.45074967,0
-6.5359135,1.8341056,3.8241472,-0.83886045,0.23540072,0.49081525,0
-6.0386043,-4.5236893,-2.1439106,-0.76985914,-0.57672328,-0.27332628,0
-2.868639,4.5855174,-5.5747862,-0.36931229,0.59034544,-0.71770519,0
-7.6413813,-1.7217417,0.094782896,-0.97547185,-0.21979149,0.012099651,0
5.1217189,5.0240049,-3.106427,0.65511137,0.64261293,-0.39733839,0
2.536061,-6.0647058,4.3148732,0.32252151,-0.77127403,0.54874051,0
-4.8085704,3.9059672,4.6646271,-0.62007278,0.50368065,0.60151106,0
-2.0308781,-1.3231883,-7.2971249,-0.26412189,-0.17208469,-0.94901341,0
-1.5881971,2.4714801,-7.2441034,-0.20316866,0.31616184,-0.92669529,0
-7.1634893,2.2973406,1.991704,-0.92051494,0.29521036,0.25593579,0
-6.9613562,1.3804466,3.0126412,-0.90291464,0.17904922,0.39075115,0
-3.0606663,-3.3851771,-6.2149234,-0.39694595,-0.43903264,-0.80602998,0
-4.7400637,4.537158,-4.1559496,-0.61028427,0.58416015,-0.53507948,0
-0.036584724,7.4693561,1.7024835,-0.004775444,0.97498322,0.22222704,0
7.1542158,3.0697629,-0.31547838,0.91822064,0.39399421,-0.040490638,0
2.4317293,-5.7871957,-4.4270253,0.31657481,-0.75340641,-0.57633257,0
6.3439369,-2.9537804,-3.1194217,0.82800996,-0.3855271,-0.4071466,0
-4.0910883,-2.2296441,-6.1215754,-0.53179473,-0.28982824,-0.79573482,0
-2.8470819,6.4925351,3.0467036,-0.3689698,0.84140515,0.39483994,0
-4.1675253,2.2453945,-6.2534003,-0.5313583,0.28628716,-0.79730678,0
-4.9539146,4.7366743,-3.7997444,-0.63213497,0.60441446,-0.48485926,0
4.7036438,5.1687384,-3.510123,0.60144627,0.66091704,-0.44883296,0
1.7669349,0.53647208,7.4805689,0.22931978,0.06962546,0.97085774,0
2.2793381,7.0762243,2.3665037,0.29215398,0.90699452,0.30332643,0
0.53267342,4.2610531,6.5834899,0.067768477,0.54210532,0.83757347,0
4.8699446,4.3187556,-4.1990952,0.62870497,0.55754703,-0.542099,0
5.5803423,5.3911109,-0.34484431,0.71848649,0.69412237,-0.044399783,0
-3.5452051,-6.4108405,2.7285655,-0.45349929,-0.82006866,0.3490355,0
-2.6966791,-4.4183698,-5.827579,-0.34597057,-0.56685495,-0.74764949,0
-4.1982732,-0.10323063,-6.524631,-0.54106236,-0.013304091,-0.84087723,0
7.1447816,-1.9410034,2.5631039,0.91192299,-0.24773966,0.32714134,0
-2.1577871,-4.1862006,-6.1266375,-0.27923071,-0.54171973,-0.79282403,0
6.3357234,-2.0977335,-3.8774693,0.82083941,-0.27177674,-0.50235456,0
6.8315992,0.25296444,-3.8345773,0.87156808,0.032272931,-0.48921123,0
-2.9192028,-5.8816099,3.9785657,-0.3802281,-0.7660836,0.51821083,0
-6.570333,-3.8647232,1.3525743,-0.84868741,-0.49920484,0.17471151,0
4.8899665,-2.5692294,5.5328808,0.62545305,-0.32861829,0.70768529,0
-1.7487717,-5.8347158,4.7305431,-0.22674988,-0.7565431,0.61337346,0
4.5195327,-0.62010944,6.3812013,0.57616717,-0.079053901,0.81349975,0
-6.1137338,3.3244979,-3.1541986,-0.80016249,0.43510869,-0.41281998,0
1.3991145,-7.499372,0.80589706,0.18238495,-0.97759873,0.10505465,0
4.8194675,3.6260543,4.8960571,0.62039959,0.46677411,0.63025886,0
-4.2037802,-6.3952012,-0.24015763,-0.54901892,-0.83522123,-0.031364884,0
5.603137,-5.3241754,-1.0569257,0.71823829,-0.68247962,-0.13548204,0
-0.9382202,-2.6423693,7.2575622,-0.1205877,-0.3396188,0.93280095,0
0.59927499,-7.7614436,0.092540689,0.076977223,-0.99696201,0.011886906,0
4.9322968,-0.4926078,5.9459991,0.63715446,-0.063635111,0.76810461,0
-5.798595,-0.82544124,4.9776754,-0.75438672,-0.10738841,0.64758658,0
4.7139888,6.1806569,0.50966543,0.60514396,0.79342306,0.065426752,0
-1.5562367,-3.3342428,6.7806158,-0.20172492,-0.43219635,0.87892741,0
7.6701021,-1.3791386,-0.090479955,0.98415005,-0.17695715,-0.011609474,0
-2.292855,6.8007269,2.9609604,-0.29533187,0.87596959,0.38138738,0
-7.1618958,2.8121333,1.2570074,-0.91863799,0.36070511,0.16123311,0
7.6053805,-0.27757829,1.3515896,0.9839381,-0.0359114,0.17486048,0
3.8895559,5.9552751,-3.0937438,0.50144964,0.76776648,-0.3988519,0
-4.9373984,-4.0634036,4.4262533,-0.63487637,-0.5224936,0.56915069,0
4.5108218,6.1963472,0.70126593,0.58609784,0.80510068,0.091116533,0
-1.6029339,7.1629348,2.7274609,-0.204705,0.91475296,0.34831434,0
-6.2925591,2.2509596,4.1083865,-0.80212426,0.28693402,0.52370369,0
4.8438082,6.0870833,0.52805561,0.62123644,0.78069109,0.0677251,0
-2.4141831,-3.5611057,6.4338627,-0.31191844,-0.46010369,0.83127099,0
6.7721992,1.1003394,3.4801738,0.88028592,0.14302789,0.45237124,0
4.460331,5.5949454,2.9215555,0.57710958,0.72391409,0.37801176,0
4.7202048,5.1860785,3.3194399,0.60839087,0.66843772,0.42784521,0
-3.1856482,5.7776294,-3.9163795,-0.41520298,0.75303006,-0.51044315,0
-6.693924,-3.9972193,-0.54621291,-0.85647452,-0.5114364,-0.069886878,0
1.4976629,3.5451603,6.7742968,0.1922258,0.45502314,0.86948448,0
2.1485789,7.2532325,1.2676504,0.28011855,0.94563198,0.16526848,0
1.2565676,-7.6594129,0.023120122,0.16189051,-0.98680425,0.0029786923,0
-1.3235804,6.7398443,3.4841108,-0.17185532,0.87510973,0.45238125,0
7.6590939,-0.93870962,-1.3318061,0.97811145,-0.11987875,-0.17007948,0
-6.8839087,-0.93781543,-3.4521689,-0.88734061,-0.12088506,-0.44498697,0
2.6288588,0.5203293,-7.3485751,0.33608657,0.066521525,-0.93947893,0
-4.741116,6.0123992,-1.4888555,-0.60781634,0.77079624,-0.19087292,0
6.7818727,-3.7106061,-0.034953397,0.87726581,-0.4799836,-0.0045213792,0
5.7442908,-3.0012796,-4.1648169,0.74563301,-0.38957864,-0.54061067,0
-4.4593201,-1.49524,6.1167116,-0.57793748,-0.19378632,0.79273903,0
-2.3863947,-7.3817778,0.28757021,-0.30739594,-0.95086044,0.03704245,0
7.6349449,0.018043054,-1.5959928,0.97883993,0.0023132141,-0.20461464,0
-5.1263576,4.901782,3.0390251,-0.66434658,0.63524288,0.39384022,0
2.9628594,2.023505,-6.9095621,0.38055763,0.25990441,-0.88748276,0
-7.7050781,-1.2988898,-0.42795539,-0.98461133,-0.16598165,-0.054687273,0
-0.30677009,-3.0629475,7.2031684,-0.039162051,-0.39101368,0.91955131,0
-6.0685425,-4.7023034,-1.0232104,-0.78353798,-0.60713649,-0.1321115,0
-5.8950624,0.55536616,-4.8752789,-0.76858938,0.072407804,-0.63563156,0
-3.5809264,-5.7227192,-3.9932969,-0.45655265,-0.72962201,-0.50912809,0
0.28770694,-5.604188,-5.399394,0.036945321,-0.71965075,-0.69335258,0
-2.0992103,-4.1136255,-6.149642,-0.27295476,-0.53488386,-0.7996217,0
-4.1776385,-3.5807214,-5.4918118,-0.53738976,-0.46060541,-0.70643818,0
-5.2087126,-5.2774186,-2.2464452,-0.67228311,-0.68115091,-0.28994632,0
6.6418285,3.24931,2.4638174,0.85220104,0.41691309,0.31612796,0
6.0629091,-4.3350253,1.8527364,0.78943098,-0.56444901,0.24123856,0
1.2769502,0.59486413,7.6749649,0.16364494,0.076233596,0.98356938,0
-0.03039583,-5.5110092,5.4832201,-0.0039098444,-0.70888638,0.70531183,0
6.6367736,3.2719984,-2.3762977,0.85396534,0.42101377,-0.30576241,0
-4.5837426,-5.2404795,3.5624824,-0.58609784,-0.67007118,0.45551497,0
5.1475444,-0.19163156,5.7462101,0.66703522,-0.024832228,0.74461222,0
6.9966764,3.1839156,0.52915698,0.9080407,0.41321403,0.0686749,0
6.3378277,4.190855,1.792704,0.81184101,0.5368256,0.22963557,0
6.4719348,-4.3744216,0.67703909,0.82540601,-0.55789709,0.086346991,0
-4.5833263,-5.3368621,2.9505124,-0.60081369,-0.69959229,0.38677329,0
-4.9490886,-5.7768784,-0.59307408,-0.64863193,-0.75712281,-0.077728815,0
-4.8926754,-1.1427163,-6.0697227,-0.62094182,-0.14502503,-0.77032387,0
3.296664,-5.3306069,-4.4519053,0.4288156,-0.69338197,-0.57908428,0
6.1880436,-3.8384242,-2.8822625,0.79014522,-0.49012461,-0.36803326,0
-7.6554661,-0.68725413,0.51634598,-0.9937548,-0.089212343,0.067026787,0
1.0790497,-5.6000981,-5.2576408,0.13910982,-0.7219581,-0.67780888,0
-4.3025484,4.6149883,-4.6764841,-0.54784185,0.58762467,-0.59545493,0
0.7028963,-6.7657638,-3.9174726,0.089545496,-0.86192465,-0.49906653,0
-0.88678586,5.2649207,5.6927147,-0.11362255,0.67458647,0.72939909,0
5.6864619,-0.31330296,5.1834831,0.73842371,-0.040684406,0.67310864,0
-2.7433639,3.2996216,6.5080824,-0.35191962,0.42327654,0.83485895,0
0.012522126,-5.7459407,5.326386,0.0015982401,-0.73337334,0.67982417,0
7.3868303,2.518518,0.68798244,0.94284284,0.32145947,0.087812945,0
-6.7722569,3.9159889,-0.25732392,-0.86522377,0.5003069,-0.032875713,0
5.0864701,-0.93595451,-5.7964082,0.65477234,-0.12048377,-0.7461614,0
-4.8276253,6.1125989,0.4302817,-0.61885017,0.78357011,0.055157535,0
-2.0936241,-2.7595735,7.0351238,-0.26698771,-0.35191235,0.89714843,0
-7.0185356,-3.2523081,-0.038206577,-0.90730864,-0.42043632,-0.0049390867,0
-2.8802619,3.8308914,-5.9779425,-0.37591136,0.49998078,-0.78019863,0
-6.6524248,-4.0125146,1.0510651,-0.84856379,-0.51182461,0.13407078,0
2.0969923,0.26145872,-7.3807106,0.27314261,0.034056168,-0.96137053,0
-1.1060129,-7.3576546,-1.9946076,-0.14358138,-0.95516258,-0.25893775,0
-4.4348707,1.7484002,6.0752473,-0.57429552,0.22640984,0.78671676,0
-7.246264,0.77393484,-2.7704449,-0.92944616,0.099269189,-0.35535267,0
1.4016204,3.9415185,6.580852,0.1797426,0.50545698,0.84392285,0
6.957972,-0.87176913,3.4765086,0.88898838,-0.11138196,0.44417766,0
-7.1215944,3.144814,-0.79593021,-0.91003478,0.40186086,-0.10170815,0
4.5736151,-4.401763,4.2793303,0.59743142,-0.57498312,0.5589903,0
1.2827822,-0.22793116,7.6172733,0.16599378,-0.029494604,0.98568565,0
-1.7328454,-5.3609262,5.328764,-0.22345254,-0.69129801,0.68715066,0
2.970737,-5.6624546,4.2798734,0.38608363,-0.73590529,0.55622196,0
6.5641599,-0.17944506,4.1445603,0.84533429,-0.023108983,0.5337376,0
0.36877403,-4.097332,6.4686465,0.048105162,-0.53448129,0.8438102,0
6.9139853,1.0064095,-3.4270427,0.88845021,0.12932408,-0.44037652,0
-3.9372528,-6.6300564,0.69764197,-0.50852472,-0.85631979,0.090105511,0
-3.8386872,-6.7231641,-0.7826072,-0.49332088,-0.86401343,-0.10057513,0
5.9614067,-3.0165024,3.9711576,0.76701248,-0.38811225,0.51094103,0
0.54388893,-7.5838447,-1.8321815,0.069542482,-0.96968216,-0.23426557,0
0.4756422,7.2079029,-2.7609701,0.061506171,0.93206722,-0.35702616,0
0.80536526,-4.1164546,-6.5565057,0.10347194,-0.52887499,-0.8423686,0
-5.288631,5.6772418,-0.22815388,-0.68132579,0.73138994,-0.029392697,0
-6.3794179,1.5433586,3.9143381,-0.83477807,0.20195602,0.51221031,0
6.4462624,-2.1749375,3.6994081,0.8324151,-0.28085279,0.47770989,0
-7.1776404,-2.7902021,-1.5142157,-0.9145413,-0.3555145,-0.19293427,0
-7.3701429,-1.9049641,0.94526285,-0.96080297,-0.24833918,0.12322846,0
4.2240262,6.249404,-1.5436685,0.54861945,0.81167686,-0.20049272,0
0.45881772,-6.0703254,-4.8563175,0.058918159,-0.77950871,-0.62361431,0
-0.92366862,5.8563542,-5.051476,-0.11858733,0.75188154,-0.64854538,0
-7.2824669,2.4882364,0.27125457,-0.94570136,0.32312247,0.035225127,0
0.1291665,-3.0236194,-7.1137938,0.016708072,-0.39111421,-0.92019051,0
-2.3532171,-4.3678889,-5.9134531,-0.30485511,-0.56585228,-0.7660774,0
-5.489336,-4.4420896,-3.1724646,-0.70908695,-0.57380849,-0.40980425,0
1.6339353,-4.1684384,-6.2110739,0.21340305,-0.54442632,-0.81120843,0
-4.8301239,-2.0977061,-5.7333202,-0.62046438,-0.26946554,-0.73648649,0
-2.1484189,7.1634564,1.6000115,-0.28091505,0.93665284,0.2092084,0
-2.9803972,4.0607424,5.9331007,-0.38293999,0.5217495,0.76232177,0
-4.6225095,-4.807054,-3.7148297,-0.60552973,-0.6297043,-0.4866274,0
1.6387287,5.3108354,-5.3705082,0.21203169,0.68715787,-0.69487882,0
-1.2865902,1.1451201,-7.6322083,-0.16443847,0.14635725,-0.97546887,0
-7.3204465,0.96526682,2.4750283,-0.94001526,0.12394948,0.31781727,0
7.3409729,-2.0381696,0.90393341,0.95684016,-0.26565996,0.11782087,0
6.1294775,-1.9646308,-4.3932981,0.78653318,-0.25210097,-0.56374705,0
1.7480102,7.197762,2.1905918,0.22630545,0.93185544,0.28360412,0
-1.7700207,4.5806441,5.8577991,-0.23156016,0.5992555,0.76633728,0
