3.6514375,6.1758261,-2.3167207,0.48432061,0.81915134,-0.30728599,0
-4.5057969,0.2983368,6.0831614,-0.59474468,0.039379101,0.80294961,0
0.57767224,-2.179991,7.2533412,0.076050974,-0.28699741,0.95490772,0
-1.7223971,4.8591075,-5.5894418,-0.22651468,0.63902754,-0.73507476,0
-6.419425,0.68557692,-3.7557771,-0.85948402,0.091790527,-0.50285351,0
7.5650759,-0.56882358,0.52272499,0.99482638,-0.074801721,0.068739645,0
7.0224929,0.92352211,-2.8186545,0.92120069,0.12114632,-0.3697471,0
-6.645833,-3.7488463,-0.56336051,-0.86861897,-0.48997906,-0.073631942,0
1.9950391,7.0822706,1.3254535,0.26684725,0.94729197,0.17728657,0
3.1301329,-6.2674718,-2.9746928,0.41126287,-0.8234725,-0.39083987,0
6.6227331,-3.3710246,0.76373297,0.88652349,-0.4512476,0.1022338,0
7.1878543,-0.99697411,-2.301748,0.94415951,-0.13095738,-0.30234575,0
5.2444086,-4.344696,-3.5136695,0.68435431,-0.56694889,-0.45850641,0
-7.0197191,0.79922986,-2.8258264,-0.92252576,0.10503414,-0.37136781,0
-2.0203304,2.1711464,6.8791156,-0.26969439,0.28982687,0.91829479,0
7.0922227,-1.3950042,-2.0052409,0.94548976,-0.18597303,-0.26732588,0
2.0758035,-6.1861467,-3.7562947,0.27570462,-0.82163328,-0.49890453,0
4.0009961,6.4601507,0.47349539,0.52551186,0.84851015,0.062191375,0
5.1948652,-4.9363527,1.9495066,0.69949192,-0.66468304,0.26250231,0
2.0806458,2.3574517,6.9328823,0.27331641,0.30967802,0.91071272,0
4.0341849,0.074731268,6.2823234,0.54030854,0.010008947,0.84140742,0
-6.9350567,2.3170586,1.5427897,-0.92802972,0.31006223,0.20645176,0
-6.7098246,2.7466114,-2.0932918,-0.88914758,0.36396524,-0.27739108,0
2.9490824,6.9798598,0.6258164,0.38787878,0.91802776,0.082310654,0
5.6893435,0.50499469,4.9131331,0.75514662,0.067027949,0.65212023,0
2.3328459,6.7481041,-2.1160388,0.31326294,0.9061597,-0.28414932,0
7.4731574,-0.1286281,0.65020293,0.99608994,-0.017144717,0.086664923,0
2.0729413,-6.9899874,2.0343599,0.27385852,-0.92345482,0.26876152,0
3.2159779,-6.2830105,2.7163062,0.42523229,-0.83077031,0.35916325,0
-6.6499963,-1.8986142,-2.885355,-0.88743591,-0.25336832,-0.385048,0
6.2180882,-4.2829294,0.72772378,0.81974858,-0.56463099,0.095937937,0
-6.1386166,4.3237267,0.030789226,-0.81755126,0.57584119,0.0041005611,0
2.665761,4.7232141,-5.3929548,0.34853548,0.61753762,-0.70510304,0
0.87855345,2.681844,6.9230995,0.11751349,0.35871792,0.92601949,0
5.1746426,2.027863,5.0203285,0.69091815,0.27076021,0.67031413,0
2.6621559,7.0120845,0.56210017,0.35394138,0.93227702,0.074732855,0
4.5308208,-5.1033773,3.2733243,0.59861439,-0.67426085,0.4324733,0
5.5169744,-3.4950449,-3.8483987,0.72779429,-0.46106318,-0.50767726,0
-4.1625171,-2.8270447,5.5889187,-0.55350494,-0.37592235,0.74317873,0
-3.855139,-0.67230093,6.5313239,-0.5063256,-0.088298544,0.8578099,0
-5.1272359,-0.25008938,5.5383401,-0.67897427,-0.033118088,0.73341477,0
7.4275236,1.2995516,0.42975119,0.98344046,0.172067,0.056901161,0
-3.6994736,6.5707126,0.42275691,-0.48983932,0.87001383,0.055976328,0
4.1748428,-3.5600245,5.0949373,0.55758089,-0.47546738,0.68046623,0
2.5609035,3.5360401,6.2756119,0.33498019,0.46253338,0.82088435,0
0.64808494,-5.5977659,5.0949621,0.085308582,-0.73684394,0.67065901,0
2.2805901,-5.6702027,-4.3715267,0.30350581,-0.75460273,-0.58177215,0
-5.3438687,4.3395333,3.0781095,-0.70866334,0.57547599,0.40819556,0
-2.3699305,2.0907836,6.9585447,-0.31009492,0.27356976,0.91049474,0
-5.8909254,3.7184954,2.6298671,-0.7911281,0.49937928,0.3531808,0
-0.56693006,-2.8818309,6.88555,-0.075734094,-0.38497317,0.91981524,0
-4.7939577,5.7385011,-0.99848509,-0.63548046,0.76068783,-0.13235782,0
4.362576,-4.2934661,-4.3651667,0.58028269,-0.57109016,-0.58062732,0
6.9814248,-2.9060521,0.39476472,0.92195642,-0.38376886,0.052132033,0
1.6716222,4.7229733,-5.6320176,0.22176138,0.62656087,-0.74715686,0
-5.394609,-4.376575,3.1470106,-0.70737255,-0.57388198,0.41265434,0
3.99459,2.8762894,5.7795343,0.52618361,0.37887651,0.76130372,0
6.3433352,-2.1160421,3.67802,0.83117872,-0.27726883,0.48193765,0
-0.53059661,2.4551268,7.0872211,-0.070565872,0.32651576,0.94255394,0
-4.8610377,-5.5904951,1.3606695,-0.64536357,-0.74220812,0.1806459,0
-5.378829,3.047904,4.4443231,-0.70643604,0.40030074,0.58370143,0
-7.4290409,1.4703246,-1.0300059,-0.97202277,0.19237867,-0.13476695,0
4.5182972,4.1175399,4.4339314,0.59831142,0.54524332,0.58713973,0
-3.2944491,5.6390224,-3.7192023,-0.43834737,0.75030774,-0.49486348,0
-3.0886729,-0.66104662,-6.7890739,-0.41248941,-0.088282168,-0.90667456,0
0.66314709,6.1618361,-4.3476906,0.087597787,0.8139419,-0.57430404,0
0.15444987,6.993113,-2.6762285,0.020622725,0.93374664,-0.35734007,0
-4.6240196,5.785038,0.89880252,-0.6198169,0.77544314,0.12047807,0
-3.7320976,2.5986388,6.127677,-0.48908007,0.34054375,0.8030135,0
-7.5396895,-0.79081774,0.039316986,-0.99453092,-0.10431367,0.0051861494,0
-6.2742257,3.4778919,-2.319896,-0.83218426,0.46129149,-0.30770028,0
1.7973658,7.1741686,-1.6962527,0.23687208,0.94547266,-0.22354655,0
-1.9451648,7.3433762,-0.28694949,-0.25587368,0.96597302,-0.037746325,0
0.26811606,2.7523179,-7.0970979,0.035200529,0.36134741,-0.93176657,0
3.5917408,-6.3206,1.8057941,0.47948956,-0.8437863,0.24106957,0
1.2077705,6.3001113,-3.9806564,0.15997909,0.83450133,-0.52727056,0
-2.21766,4.0166535,6.0322728,-0.29260945,0.52997792,0.79592907,0
-0.46358749,-5.0674257,5.5537138,-0.061545569,-0.67274809,0.73730737,0
7.0791554,-2.2073555,-0.92692006,0.94729501,-0.2953766,-0.12403552,0
-2.4185333,2.7023249,6.6534314,-0.31916881,0.35662016,0.87803948,0
-6.3655181,-3.4305289,2.2367032,-0.8409881,-0.45322844,0.29550472,0
6.809535,3.126714,-0.091568239,0.90870982,0.41724959,-0.012219477,0
-6.8149295,-0.93343651,3.0183697,-0.90724611,-0.12426492,0.40182427,0
-5.4386024,4.8690696,1.9447547,-0.71992928,0.64453799,0.25743484,0
-2.7996294,-0.13572441,-6.9166889,-0.37513271,-0.018186215,-0.92679274,0
5.9768023,-0.77217489,4.5440383,0.79187816,-0.10230695,0.60204846,0
2.9723623,2.3065763,6.5935125,0.3915424,0.30383995,0.86854815,0
4.7735653,-4.5866036,3.7278607,0.62831396,-0.60370535,0.49067453,0
7.5382657,-0.18204345,-1.0809418,0.98959225,-0.023897909,-0.14190155,0
6.5088229,1.8021439,-3.3815753,0.86175531,0.2386003,-0.44771388,0
-2.7118061,0.13779308,-7.1050692,-0.35652387,0.018115794,-0.93411058,0
-3.5015326,-6.5540628,1.4902017,-0.46202093,-0.86479682,0.19662943,0
-1.5698421,-6.3600111,-3.803427,-0.20724064,-0.83960849,-0.5021044,0
-5.7658052,2.8704424,-4.0402226,-0.75834781,0.37753507,-0.53139049,0
-5.791863,-2.8260434,-3.881772,-0.76985461,-0.37563777,-0.51596522,0
2.0746708,-2.6439495,6.7789879,0.27419764,-0.34943601,0.8959409,0
-2.2168565,-7.1472111,-1.0952051,-0.29312485,-0.94504321,-0.14481398,0
-1.1042701,-7.4494004,-0.98559207,-0.14539392,-0.98082662,-0.12976815,0
2.9927707,6.1758399,-3.200295,0.39522669,0.8155843,-0.42263243,0
-3.8513443,5.2671533,-3.8471606,-0.50844699,0.69535935,-0.50789469,0
-0.96787268,5.5984325,-5.0271196,-0.12758252,0.73797119,-0.66266221,0
-7.4043036,-1.6845646,0.16802302,-0.97484386,-0.22178824,0.022121759,0
-4.3574495,-3.0011654,5.3356004,-0.57989645,-0.39939994,0.71007031,0
6.4864178,-3.0032535,2.2616484,0.86517721,-0.40058267,0.30166522,0
2.316565,0.36109325,-7.1221843,0.30895123,0.048157595,-0.94985783,0
4.600009,3.8354576,-4.6370311,0.60730296,0.50636524,-0.61219066,0
-4.5768538,-3.8833444,-4.4695811,-0.61157995,-0.51891005,-0.59724569,0
-4.1273274,-0.76747513,-6.2469859,-0.54837042,-0.10196929,-0.82999527,0
6.7465792,-3.0811064,1.4209731,0.89338124,-0.40799975,0.18816508,0
-6.9214716,3.1121633,0.083031587,-0.91199011,0.41006631,0.010940447,0
-7.0204968,-2.0105357,-1.8527534,-0.93183231,-0.26685891,-0.24591643,0
7.3194585,1.9088817,0.55622584,0.96502924,0.25167528,0.073335238,0
3.1016703,-4.2998285,5.5489211,0.40414774,-0.56026781,0.72302461,0
-1.3326449,-7.3427315,-1.3759235,-0.17561455,-0.96761739,-0.18131775,0
5.7000604,2.9118474,3.8154583,0.76493812,0.3907648,0.5120278,0
-5.4598284,-1.4488149,-5.094048,-0.71778905,-0.19047183,-0.66970092,0
-3.3917868,5.1031213,-4.5569062,-0.44417241,0.66828072,-0.59675097,0
-2.727464,-6.7401104,-2.1105633,-0.36024335,-0.89023358,-0.27876315,0
-2.2865074,-6.9832134,-1.0632015,-0.30796623,-0.94055849,-0.14320102,0
-3.5631883,-6.5092874,-1.4465228,-0.47129664,-0.86097193,-0.19132902,0
7.3670425,1.966478,0.032748234,0.96616286,0.25789699,0.0042948206,0
-3.4159431,-3.5771995,5.6422648,-0.45525607,-0.47674733,0.75196666,0
1.5129482,-6.3785233,3.4885442,0.20373839,-0.85895216,0.46977842,0
3.6404519,-6.3045044,2.0090454,0.48203772,-0.83478892,0.26602072,0
-0.091684222,7.4440122,-1.6805186,-0.012013293,0.97538149,-0.22019668,0
-3.6258743,-6.7312522,-0.37511057,-0.47366735,-0.87933952,-0.0490027,0
3.0284929,6.249155,-2.5906382,0.40860298,0.84313333,-0.34952781,0
-2.3931534,2.3039794,6.8479557,-0.31442624,0.30271003,0.89972371,0
2.9181895,1.3085414,-6.8995013,0.38373578,0.17207043,-0.90726984,0
2.3702238,-6.6721368,-2.835794,0.31075156,-0.87475997,-0.3717908,0
-0.86944437,0.90507489,7.5309091,-0.11387961,0.11854649,0.98639661,0
-2.8687389,-0.092605077,-6.9367785,-0.3821348,-0.012335602,-0.92402428,0
5.5180845,-4.766573,1.9931921,0.72997761,-0.63056147,0.26367584,0
-3.1103938,-3.3694091,5.9985089,-0.41194713,-0.44625166,0.79445523,0
1.5081095,-1.21929,-7.2943926,0.19980791,-0.16154252,-0.96642679,0
7.2233491,0.93298078,2.0108991,0.95599365,0.12347786,0.26613787,0
2.6043429,-6.3040395,-3.2041736,0.34559011,-0.83653104,-0.42518622,0
-6.5399179,0.27874455,-3.6092236,-0.8749125,0.037290543,-0.48284319,0
5.5937395,-4.3194909,2.9030015,0.73212886,-0.56535059,0.37995535,0
-5.645402,-2.0969162,4.5203085,-0.74972194,-0.27847514,0.60030705,0
5.1938443,2.5420289,4.7950935,0.69140196,0.33839363,0.63832045,0
5.623724,-4.9649553,-0.40821847,0.74854219,-0.6608572,-0.054335661,0
4.423296,-1.0639726,-5.9876785,0.58820695,-0.14148638,-0.79623753,0
-5.5551038,4.6688914,-2.4292414,-0.72593141,0.61012268,-0.31744906,0
-1.2085732,7.2556338,2.015897,-0.15846314,0.95132875,0.26431611,0
4.2813077,-5.5625739,2.8790216,0.56430489,-0.73318434,0.37947425,0
-1.2523768,5.3232179,-5.2524042,-0.16516884,0.70204884,-0.69270962,0
1.4516956,6.7457132,-3.0732768,0.19218555,0.89304441,-0.40686172,0
4.1597662,5.68542,-2.5822399,0.5544107,0.75774878,-0.34415913,0
-1.7450814,-2.1715815,-6.8862596,-0.23491913,-0.29233366,-0.92701352,0
-1.9252353,3.6897867,6.2835608,-0.25544277,0.48956579,0.83371115,0
1.1262645,0.21162589,7.5013905,0.14841883,0.027888004,0.98853129,0
-4.2114277,-1.3772314,5.9581938,-0.56718361,-0.18548177,0.80243331,0
-4.8760424,1.6299618,-5.5759587,-0.64289993,0.21490839,-0.735183,0
1.7831081,-1.1718773,7.1737194,0.23824589,-0.15657769,0.95850003,0
1.7754602,6.7783394,2.8187368,0.23507594,0.89747119,0.37320867,0
-1.3936491,3.7141736,-6.3670192,-0.1857765,0.49510753,-0.84873772,0
0.011902821,7.2614455,-2.0302951,0.0015786343,0.96306294,-0.26927173,0
0.55560052,4.8654442,5.7290378,0.073718511,0.64555973,0.76014352,0
4.3225894,3.616936,5.0557756,0.57090139,0.47770295,0.66773617,0
3.3178844,2.8761363,-6.083334,0.44223732,0.38335717,-0.81084114,0
6.9157972,1.8540303,-2.3364553,0.91823983,0.2461675,-0.31022114,0
-2.3778694,6.1041732,-3.7553494,-0.31490722,0.80839097,-0.49733037,0
-3.3173442,-2.4419696,-6.3273458,-0.43938026,-0.32343742,-0.83805323,0
-0.68532592,2.3837621,-7.249043,-0.089449063,0.31112978,-0.94614857,0
-2.389147,6.900353,-1.6608981,-0.31903121,0.92142838,-0.22178556,0
-5.7804365,4.6675234,-1.4412442,-0.76378787,0.61673504,-0.19043629,0
2.1648421,-1.7137377,6.9727888,0.28866303,-0.22851214,0.92976123,0
2.6545124,7.0390253,0.4250758,0.35229477,0.93418729,0.05641412,0
-5.7371621,-1.8846904,4.6611819,-0.75207144,-0.24705976,0.61102366,0
7.3154769,-1.8471105,1.0616356,0.96011329,-0.24242239,0.13933343,0
-1.1587459,-2.0851057,7.0857506,-0.15498485,-0.27888754,0.94773495,0
3.9303768,5.5535421,3.2012672,0.52271467,0.73858517,0.42574784,0
-4.2627363,2.085602,-5.7081685,-0.57424539,0.2809574,-0.76896369,0
2.6302643,-2.5886724,6.6436186,0.34609583,-0.34062308,0.87418163,0
-6.9684253,-0.4187687,2.7071157,-0.93067336,-0.055928972,0.3615509,0
-1.200579,-5.1002555,5.5639286,-0.15708776,-0.66733438,0.72800291,0
2.9883516,1.9168022,-6.6774635,0.39514878,0.25345814,-0.88295889,0
0.15372671,7.0299463,-2.5377927,0.020563874,0.94038916,-0.33947808,0
-3.056299,-4.831109,-4.9745808,-0.40330875,-0.63751245,-0.65644491,0
5.1927147,-3.2890406,4.5341907,0.67984152,-0.43060836,0.59362608,0
0.96030718,0.62185162,7.4862561,0.12680385,0.082112446,0.9885233,0
5.70118,-3.6597772,-3.4243302,0.75104344,-0.4821198,-0.45110327,0
-0.4796674,-6.9908438,2.8288496,-0.063475415,-0.92511332,0.37434772,0
0.074298471,6.941864,-3.1343775,0.0097542433,0.91135967,-0.41149542,0
-0.52402794,4.8640485,5.8493381,-0.068720423,0.63786578,0.76707548,0
-5.4698939,-4.6295991,2.3775306,-0.72446972,-0.61317539,0.31489623,0
2.4271123,-6.2408342,3.5773125,0.31970009,-0.82204491,0.47120485,0
-4.7067208,1.9073131,5.4877095,-0.62949049,0.25508958,0.73394215,0
-5.3177929,4.1602259,-3.150332,-0.71374309,0.55837685,-0.422831,0
-6.699698,2.6015482,2.3517997,-0.88596034,0.34402573,0.3109993,0
-5.1881547,-5.1683779,-1.2183166,-0.69885075,-0.69618678,-0.16410872,0
5.6871824,-4.9123473,-0.5773477,0.75455409,-0.65175188,-0.076600336,0
-7.3172979,1.7481021,-0.69718093,-0.96847987,0.23136979,-0.092275277,0
3.1459222,1.2295871,6.7830977,0.41516399,0.1622673,0.89515817,0
5.2542758,-3.6520205,-4.1305938,0.68988174,-0.47950703,-0.54234326,0
3.9171495,-2.5327256,-5.9551554,0.51782882,-0.33481446,-0.78724366,0
-5.3667021,-0.84138781,5.3133354,-0.70626146,-0.11072718,0.69923836,0
5.2688217,5.3626943,0.87856019,0.69609886,0.70850098,0.11607239,0
6.2168503,2.6227789,-3.3770127,0.82393062,0.34760171,-0.44756171,0
2.0778153,5.4667931,-4.6135235,0.27893847,0.7338953,-0.61934727,0
-6.8295817,3.0872219,-1.3817426,-0.89612442,0.40508118,-0.18130149,0
-2.7761712,-4.5374842,5.3089156,-0.36940014,-0.60376221,0.70640969,0
-2.6455584,1.9055661,-6.8603201,-0.34829837,0.25087541,-0.90318865,0
2.252182,7.137682,1.1355593,0.29750526,0.94286245,0.15000336,0
4.6705575,4.1748028,-4.1910176,0.61967653,0.5539012,-0.55605251,0
5.8060317,1.7097915,-4.4374962,0.77362365,0.22782086,-0.59127337,0
-7.560441,-0.29552737,-0.22374235,-0.99880034,-0.03904175,-0.02955832,0
-1.7976514,0.91316831,7.256043,-0.23870102,0.12125499,0.96349311,0
3.4335446,-6.6430707,0.15316153,0.45906007,-0.88816923,0.020477481,0
-0.39244986,-7.5223832,-1.2426621,-0.051405281,-0.98532385,-0.16277084,0
6.7268929,3.0449486,-1.3727795,0.89566743,0.40542659,-0.18278183,0
6.7310944,2.5499196,-2.342284,0.88924915,0.3368715,-0.30944061,0
-2.0034795,-3.4630823,6.3305345,-0.26752913,-0.46243319,0.84533054,0
7.1103158,-0.068630733,-2.5855494,0.93975562,-0.0090707811,-0.34172666,0
-1.7765958,6.4479256,-3.2495105,-0.23892413,0.86714435,-0.43700793,0
-6.3480024,2.0427351,3.390897,-0.84852934,0.27304977,0.45325685,0
-5.1136236,4.8366432,-2.5363843,-0.68348616,0.646465,-0.33901274,0
4.2055526,3.0428319,-5.5109797,0.55549943,0.40191898,-0.72792959,0
2.328249,-7.0194955,1.4244217,0.30913606,-0.93202198,0.18912931,0
-3.4508097,-2.8016472,-6.1461115,-0.45495272,-0.36936751,-0.81029975,0
-6.0546279,-4.0301805,-2.0191143,-0.80211204,-0.53391492,-0.26749057,0
-5.4357142,5.0394602,-1.2917475,-0.72244251,0.66977769,-0.17168181,0
-2.8370018,-2.3671284,6.5775142,-0.37604868,-0.31376627,0.87185895,0
0.97139245,-5.9789968,-4.5094543,0.12863341,-0.7917487,-0.59714943,0
4.7405071,-2.2169559,5.4504499,0.62737453,-0.29339933,0.72133076,0
-0.50361538,-3.5522134,-6.6881485,-0.066355318,-0.4680323,-0.88121659,0
-4.3593078,-5.1125135,-3.3208199,-0.5816589,-0.68215853,-0.44309431,0
5.2671561,-3.1458483,4.2376804,0.70639825,-0.42190161,0.56833136,0
-5.3957124,0.19840793,-5.2065983,-0.7193532,0.026451631,-0.69414061,0
-1.6063411,7.3579788,-0.68658578,-0.21240841,0.97295433,-0.090788059,0
-3.1099739,2.6096454,6.2330818,-0.41808319,0.35082251,0.83793199,0
6.0193162,-4.3471365,-0.85650748,0.80534804,-0.58162051,-0.11459551,0
7.1051946,-1.1283407,2.283885,0.94132841,-0.14948769,0.30257943,0
3.4975398,6.3416109,-2.2858725,0.46054548,0.83504421,-0.30099678,0
7.0182753,-1.6327126,-2.1309268,0.93400508,-0.21728441,-0.28358769,0
4.5425634,-1.4460386,5.8475337,0.60210222,-0.19166778,0.77507186,0
3.3934815,-4.7239718,-4.8743463,0.44716588,-0.62248725,-0.64230239,0
-5.959877,1.6056533,4.3650351,-0.78835601,0.21239136,0.57739472,0
2.4097214,1.1537771,7.0899396,0.31804693,0.15228121,0.93576527,0
-4.5122232,-4.5505109,3.9626019,-0.59887058,-0.60395217,0.52592379,0
-2.6295342,-6.8394856,-1.5252705,-0.35132524,-0.9138059,-0.20378742,0
1.0448321,4.6169934,5.8096175,0.13942258,0.61609244,0.77523643,0
5.9961572,4.1901293,1.7411368,0.79741603,0.55723625,0.23155004,0
6.7095633,-1.7597347,-2.8781576,0.89342833,-0.23432179,-0.38324812,0
3.9969916,5.783824,-2.8263514,0.5274893,0.76330042,-0.37299806,0
-1.9001656,7.1885796,0.90053797,-0.25370005,0.95978111,0.12023506,0
5.802083,-3.2657743,3.4157519,0.77535802,-0.43641984,0.45646203,0
2.4090707,4.8588729,-5.2191057,0.32006964,0.64555085,-0.69341147,0
-3.5397522,-6.7484527,0.27061167,-0.46421358,-0.88501203,0.035488814,0
6.0984511,3.302511,-3.2270033,0.79725987,0.43174234,-0.4218711,0
5.8407979,-0.22816654,-4.7619047,0.77470213,-0.030263178,-0.63160169,0
-4.8370891,-0.39556313,-5.7884793,-0.64034897,-0.05236588,-0.76629698,0
-1.397691,6.3970537,3.6101675,-0.18692601,0.85553652,0.48282075,0
-7.5590982,0.17288785,0.99099129,-0.99126089,0.022671614,0.12995344,0
1.3937333,0.70385218,-7.4075279,0.18410553,0.092975527,-0.97849917,0
3.4806507,-4.8616734,4.53723,0.46372724,-0.64772093,0.60449535,0
-3.3396006,4.1252365,5.3853765,-0.44167197,0.54557467,0.71223187,0
-0.077767484,-3.0055916,6.8483925,-0.010397679,-0.40185404,0.91564471,0
-1.6603495,4.4121509,-5.9491286,-0.21873994,0.58127135,-0.78375793,0
2.1046028,-7.0217462,1.6130617,0.28039885,-0.93551594,0.21491019,0
-1.1477195,7.1248174,-2.2742455,-0.1516836,0.94162202,-0.30056626,0
-3.133729,-5.5868077,3.9488602,-0.41644037,-0.74242932,0.52476293,0
-2.7319546,-7.0571055,0.86087739,-0.35870025,-0.92658406,0.11303151,0
4.0002632,-0.18935625,-6.4692397,0.52576351,-0.024887515,-0.85026664,0
5.3017941,1.1367118,-5.1696424,0.70768422,0.15172845,-0.69004458,0
1.479283,7.4172864,0.28186738,0.19544974,0.98000634,0.037241627,0
-0.64059275,-3.2174425,6.8203764,-0.084641069,-0.42511842,0.90117157,0
4.9646978,-4.6549668,3.3275676,0.65535414,-0.61446875,0.43924832,0
-1.0988221,-7.3661757,0.49332932,-0.14721622,-0.98689353,0.06609448,0
-6.9475312,0.15854365,3.1546564,-0.91033345,0.020773938,0.41335392,0
-3.5826995,0.052505195,6.7293992,-0.46993223,0.006886953,0.88267565,0
-6.8009467,3.4172249,0.21000478,-0.89320517,0.44880265,0.027581066,0
-5.4714246,2.6179349,-4.4484181,-0.72740239,0.3480432,-0.59139806,0
-6.3816619,-4.0601687,-1.044528,-0.83578295,-0.53174543,-0.13679801,0
-5.202497,5.2914772,1.7896458,-0.68154538,0.69320208,0.23444988,0
3.0471931,5.2632608,-4.4655099,0.40386546,0.69757617,-0.59184474,0
-7.272963,1.342303,1.5745595,-0.96183521,0.17751697,0.20823243,0
-0.64016032,2.402612,7.2065439,-0.083972789,0.31516171,0.94531566,0
6.8875041,2.7529855,-1.5988296,0.90772194,0.36282304,-0.21071388,0
7.11971,-2.3769543,-1.1571211,0.9374606,-0.31297636,-0.1523595,0
6.7319107,-3.4483984,-0.09132126,0.88995993,-0.45587894,-0.012072689,0
-6.428586,-0.91918343,-3.9155602,-0.84775299,-0.12121492,-0.51635426,0
6.7054353,-3.1322863,-1.4944235,0.88809907,-0.41485459,-0.19792841,0
6.060545,1.4386647,-4.2995458,0.80073208,0.19007944,-0.56806511,0
-1.3808579,-1.3217779,-7.2267981,-0.18472214,-0.1768188,-0.96675372,0
4.2671108,6.0153956,-1.2623332,0.57028437,0.80393654,-0.1687064,0
-4.0017929,-4.8636551,-4.1317639,-0.53125894,-0.64567566,-0.54851329,0
-2.8336797,5.6628094,-4.006567,-0.37816116,0.75571513,-0.53468573,0
-3.3085515,-4.9843025,-4.4561081,-0.44352517,-0.66816658,-0.5973599,0
-3.6037056,6.3436365,-2.305531,-0.47098655,0.82908201,-0.30132154,0
-1.5308942,-2.8187895,-6.9009128,-0.20116925,-0.37040693,-0.90682399,0
6.8126163,1.6778516,-2.6641502,0.90774691,0.2235653,-0.35498464,0
5.5641818,0.54412252,5.057189,0.73808658,0.072177641,0.67083418,0
-3.7491813,3.0847614,-5.7195811,-0.4997322,0.41117099,-0.7623688,0
-1.540626,2.5957305,6.8205128,-0.20655695,0.34801838,0.91444921,0
-3.9957147,6.1108336,-2.410445,-0.51967716,0.7947666,-0.31349915,0
-4.1615558,6.3017111,-1.32342,-0.54279423,0.82193595,-0.17261447,0
7.1199856,2.2343719,0.73221397,0.94956142,0.29798844,0.097652182,0
-1.4561328,-1.5171969,-7.2768536,-0.19223849,-0.20030017,-0.96068943,0
7.4369106,0.46650523,-1.6241466,0.97514391,0.061169181,-0.21296164,0
-4.1479335,-0.76463938,-6.3804479,-0.54231715,-0.099971958,-0.83420485,0
-7.3634686,0.046397816,1.4283718,-0.98168176,0.0061856569,0.19042745,0
-4.5682979,-4.8924875,-3.3739755,-0.60943425,-0.65268284,-0.45010555,0
-5.4765635,-4.619802,2.2111483,-0.73037404,-0.61611331,0.29488662,0
2.3549905,1.1075975,6.9987388,0.31538922,0.14833364,0.93729758,0
0.88677067,-6.1847591,4.3607497,0.11638478,-0.81172264,0.5723294,0
-2.5244923,6.6058378,2.9518423,-0.32943365,0.8620289,0.38520071,0
5.5495381,3.328567,3.8483429,0.73708421,0.44209701,0.51113313,0
1.6826268,3.46297,6.3717084,0.22601978,0.46516538,0.8558833,0
-5.1025529,-4.3494434,3.3831096,-0.67944026,-0.57915854,0.45048448,0
1.7775253,7.3387971,-0.78317505,0.23414671,0.96671212,-0.1031647,0
-5.7639079,2.7027044,4.0431342,-0.76429224,0.3583777,0.53611821,0
-6.3722754,-4.0635638,-0.072545893,-0.84311408,-0.5376491,-0.009598528,0
-5.5832434,-4.8047838,2.011996,-0.7311852,-0.62923759,0.26349232,0
3.9552257,4.9239893,-4.081634,0.52596635,0.65479267,-0.54277617,0
-5.9394112,3.8017051,-2.812609,-0.78231221,0.50074333,-0.37046406,0
6.3801312,-2.4456017,-3.0768926,0.85140866,-0.32635793,-0.41060174,0
-2.4222872,-4.086421,-5.8144913,-0.32261446,-0.54425359,-0.7744081,0
2.0507913,-6.563252,-3.2119317,0.27021894,-0.86479545,-0.42321458,0
4.2171874,-5.6603351,2.6959765,0.55812812,-0.74912304,0.35680187,0
-2.7647743,-2.7316008,-6.454464,-0.3669582,-0.36255521,-0.85667694,0
0.34297144,7.5455508,-0.25340828,0.045381054,0.99840689,-0.033530299,0
0.93364161,7.2709641,1.622156,0.12435298,0.96842945,0.21605714,0
-5.0191464,-0.7762357,5.5003595,-0.67042243,-0.10368413,0.73469949,0
6.9473662,-1.1289839,-2.9053547,0.91237867,-0.14826638,-0.38155231,0
1.8813225,-0.89329004,7.2234406,0.25025323,-0.11882531,0.96086103,0
-1.604671,7.4337683,-0.21560191,-0.21091762,0.97709298,-0.028338671,0
-7.3763433,1.1907557,-0.14989577,-0.98702103,0.15933383,-0.020057401,0
2.8849158,3.7759657,-5.8681531,0.38206324,0.50006926,-0.77714765,0
-4.1385517,6.181828,-1.5507652,-0.54460531,0.81348658,-0.20407017,0
2.7811348,-4.6186547,5.1742659,0.37217781,-0.61807889,0.69243205,0
2.194016,-4.5804229,-5.6204529,0.2896319,-0.60466129,-0.74195558,0
5.7097001,-4.8604102,-1.3681501,0.74910003,-0.63767511,-0.17949827,0
-3.27192,-1.4456612,6.656724,-0.4329688,-0.1913024,0.88087535,0
-6.0694427,1.4024591,4.1947918,-0.80817282,0.18674356,0.55855483,0
7.5070276,-0.54644901,0.0043911017,0.997361,-0.07259956,0.00058338849,0
6.8847942,-0.90380192,-2.7394083,0.92231476,-0.12107694,-0.36698216,0
-6.3488727,-2.3230665,-3.5099916,-0.83346915,-0.30496821,-0.46078572,0
-5.4511061,-1.9644978,-5.0758777,-0.70764744,-0.25502566,-0.65893632,0
4.6858425,-2.1893532,5.3554268,0.62937778,-0.29406244,0.71931285,0
3.8844573,2.8138502,-5.8812189,0.51184219,0.3707718,-0.77494889,0
3.022063,-3.7593043,-5.8818808,0.39729008,-0.49421018,-0.77325088,0
-6.1375332,-4.1896458,1.512832,-0.80931574,-0.55246079,0.19948712,0
-6.2657647,3.9310994,1.3293825,-0.83372808,0.52307546,0.17688878,0
6.7564569,-1.7986985,2.7657273,0.89859313,-0.23922275,0.36783534,0
7.3701587,0.63453716,1.7223425,0.97035986,0.083543576,0.22676472,0
5.0285521,1.5674471,-5.3299103,0.67106342,0.20917679,-0.71127987,0
4.1375389,5.1040077,3.5941854,0.55246657,0.68151468,0.47991505,0
-2.2442887,-7.2460089,-0.23132676,-0.29572386,-0.95478708,-0.030481303,0
-6.2576723,4.0803246,0.24898775,-0.83719265,0.54589272,0.033311222,0
0.79678708,-3.744874,6.4151187,0.10665366,-0.5012688,0.85869348,0
-4.6597409,6.0074129,0.41182348,-0.61200279,0.78900385,0.054088224,0
1.7430193,-2.632086,6.9105453,0.22942087,-0.34644222,0.90958446,0
1.2819154,-1.5553883,7.2202539,0.17100628,-0.2074873,0.96317488,0
7.0686488,0.77111983,2.3948555,0.94210339,0.10277419,0.31918427,0
-0.62088513,3.1190071,-6.9496179,-0.081238955,0.40810266,-0.90931422,0
-0.065337121,-2.9589179,-7.0358305,-0.0085598454,-0.38764915,-0.92176723,0
6.4771399,0.34656674,3.857357,0.8582747,0.045922961,0.51113176,0
-3.3353877,6.7902102,0.79118311,-0.43849596,0.89269376,0.10401507,0
-4.3693743,4.3966084,4.4001637,-0.57480305,0.57838577,0.57885349,0
2.2122259,0.84180486,-7.0979443,0.29566497,0.11250759,-0.94864339,0
-1.6737481,-3.4985642,6.5432706,-0.22004765,-0.45995623,0.86024374,0
-1.221925,6.4883847,-3.4119,-0.16441599,0.87304389,-0.45908785,0
-4.8660154,4.0893846,-4.0755696,-0.64445484,0.5415979,-0.53976822,0
-7.311007,0.28343478,-1.6406474,-0.97503603,0.037800416,-0.21880575,0
5.9845562,-2.8376443,3.6842866,0.78962439,-0.37440926,0.48611835,0
-2.1443646,-7.2521129,0.45676136,-0.28303647,-0.95721245,0.060288314,0
-3.9513447,0.19587836,-6.3143635,-0.53028548,0.026287619,-0.84741157,0
6.4114571,3.9638913,0.97048479,0.84360504,0.52155989,0.1276942,0
2.9325955,1.1389734,6.8708282,0.38807225,0.15072107,0.90922111,0
2.2868783,-0.037705272,7.152504,0.30453959,-0.0050211451,0.95248646,0
1.3460603,7.1757188,1.477566,0.18070605,0.96332675,0.19836046,0
-1.4665469,4.2933149,-6.0641847,-0.19364232,0.56688774,-0.80071276,0
6.6647363,2.8707747,2.0432262,0.88404769,0.38079551,0.27102488,0
-0.57157254,1.2637069,7.3811989,-0.076104388,0.16826147,0.98280019,0
-1.1746986,2.0340168,-7.2035804,-0.15503778,0.26845139,-0.95073503,0
-3.9120491,4.253808,-4.8690667,-0.51767868,0.5629034,-0.64432013,0
-2.9648943,2.5268943,-6.4207854,-0.39478523,0.33646411,-0.85494822,0
-3.5070741,-4.1786962,5.100925,-0.46957368,-0.55949932,0.68297958,0
6.2531013,-4.3095155,0.63973892,0.82048935,-0.56546527,0.083942182,0
4.0509338,-6.3415375,-0.61162221,0.53656286,-0.83996272,-0.081011884,0
2.8494568,2.5855312,6.3927593,0.38189557,0.34652323,0.85678315,0
5.960382,0.030926645,4.6250367,0.79003984,0.004099281,0.61304182,0
-4.0624309,5.2038345,3.6815345,-0.53743696,0.6884383,0.48704648,0
-1.1550765,2.5760009,6.9195981,-0.1545596,0.34469202,0.92590427,0
-4.5697536,-5.9960022,0.82167715,-0.60258967,-0.79066163,0.1083503,0
4.1596684,3.384973,-5.3154664,0.55088872,0.44829139,-0.70395768,0
3.2512083,6.7303948,-0.59598941,0.43359554,0.89759523,-0.079483785,0
1.3760394,-7.207531,1.5574117,0.18344335,-0.96085453,0.20762256,0
1.4038237,3.5098331,6.4652519,0.18744472,0.46864837,0.86326891,0
-5.529851,1.3861747,-4.7797418,-0.7433061,0.18632548,-0.6424787,0
1.2166545,-3.5012643,-6.5865526,0.16097797,-0.46325922,-0.87147981,0
-4.3690729,-5.4189038,3.0444989,-0.57506573,-0.71324652,0.40072277,0
-0.4713226,-0.65882033,-7.5256267,-0.062269323,-0.087040797,-0.99425673,0
6.6602964,2.7713258,-2.077647,0.88720071,0.36916107,-0.27675793,0
-3.1201222,-6.9610357,-0.74268663,-0.40709373,-0.90823174,-0.096901037,0
-1.6838568,-2.3989911,6.9457326,-0.22335829,-0.31821859,0.9213295,0
0.55871665,-7.2907257,-2.1005862,0.073439538,-0.95831674,-0.27610791,0
4.2719507,-5.2211771,3.3732278,0.56638587,-0.69223666,0.44723094,0
1.1951487,-1.794969,7.2711682,0.15758389,-0.23667197,0.95872504,0
6.8006172,-1.5754228,2.8381808,0.90246242,-0.20906335,0.37663516,0
-6.3574371,-3.8538125,-1.4527763,-0.83927429,-0.50875938,-0.19178763,0
-0.30185828,3.1509469,6.7605619,-0.040436998,0.4221015,0.90564626,0
2.140377,-2.7289369,-6.6353736,0.28587577,-0.36448574,-0.88624221,0
6.0633988,-1.7758374,-4.1861281,0.80002046,-0.23430856,-0.55232853,0
-7.1719656,1.931313,0.77664268,-0.96036643,0.25861365,0.10399681,0
3.785888,-3.8304141,5.0849276,0.51113296,-0.51714444,0.68651634,0
4.1946335,3.068882,5.4863911,0.55504054,0.40607932,0.725968,0
7.2032437,1.4000205,1.888185,0.95066321,0.18477064,0.24919719,0
-0.55597562,-6.902236,3.2156005,-0.072821312,-0.90405023,0.42117721,0
-4.6259642,-5.3269396,2.4881377,-0.61835456,-0.71205425,0.3325904,0
-4.7314987,2.5233073,-5.23699,-0.63125813,0.33664984,-0.69869882,0
-2.4652066,-0.036967117,7.1790986,-0.32476854,-0.0048700813,0.94578093,0
6.3896308,2.976665,2.6298602,0.84928197,0.39564538,0.34954959,0
1.3179413,2.2153296,-7.1897821,0.17255268,0.29004407,-0.94132882,0
0.030135315,-3.9905813,-6.3382578,0.0040234402,-0.53279233,-0.84623641,0
1.4468544,-4.1319242,6.3026547,0.1885408,-0.53843451,0.8213042,0
-6.4453282,0.99350989,3.7327929,-0.85775417,0.13221782,0.49676579,0
2.9901633,-2.9274085,6.2623887,0.3970041,-0.38867214,0.83145756,0
5.4182777,-4.6865864,-2.5931144,0.71117234,-0.61513472,-0.34035745,0
1.8656993,1.8001499,7.0400705,0.24868484,0.23994756,0.93839282,0
6.0128584,4.5515141,-0.99630147,0.79045862,0.59834832,-0.13097516,0
1.456755,-1.4003434,-7.2181997,0.19434546,-0.1868196,-0.9629789,0
6.2669358,1.9004703,3.7163272,0.83228832,0.25239435,0.49355155,0
6.3976183,-2.6986516,-2.7315841,0.85741866,-0.36167744,-0.3660911,0
6.389503,4.096539,-0.15704209,0.84165686,0.53961635,-0.020686358,0
2.1338906,-6.8479142,-1.9766257,0.28681102,-0.92041135,-0.26567343,0
-2.3250287,2.3612394,-6.8292475,-0.30629671,0.31106707,-0.89967752,0
-7.3036022,1.0196741,-1.7854931,-0.96258211,0.13438848,-0.23532,0
0.57361764,-1.150323,7.4853907,0.075526133,-0.15145881,0.98557395,0
3.3227448,5.9532394,-3.3379574,0.43772021,0.78424716,-0.43972424,0
0.77177477,-4.2115684,-6.2701316,0.10164836,-0.55469424,-0.825822,0
6.9697585,-1.7091653,2.2199914,0.92784131,-0.22753072,0.29553387,0
1.744175,6.5448518,3.1324193,0.23372449,0.87702906,0.41975325,0
0.89478779,1.5989058,-7.4355764,0.11684356,0.20878899,-0.97095561,0
1.3979084,-5.6091919,-4.8005095,0.18603742,-0.74648637,-0.63886476,0
4.618598,5.6508112,2.2047455,0.60580432,0.74119586,0.28918827,0
-3.5052743,-1.5509305,6.5599422,-0.46135938,-0.20413135,0.86341059,0
-1.018188,7.1443014,2.2953682,-0.13445428,0.94342297,0.30310914,0
4.9933,-5.5193896,-1.5933129,0.65601814,-0.72513562,-0.20932892,0
-5.9166422,-3.9622552,-2.556339,-0.78202695,-0.52370757,-0.33788186,0
1.1439844,-2.3743997,-7.081224,0.15140468,-0.31424835,-0.93718976,0
2.9954338,-6.3549623,2.9139991,0.39383081,-0.83553177,0.38312402,0
-1.5483433,6.9779382,2.1721697,-0.20726298,0.93407464,0.29076907,0
-4.2983985,-6.2283344,0.58816135,-0.56629336,-0.82055318,0.077487439,0
-5.3777261,-5.3676782,0.042694177,-0.70775652,-0.70643413,0.0056189331,0
3.3825035,6.7663651,-0.51407558,0.44611284,0.89240479,-0.067800589,0
3.5553989,5.2292857,-3.9640374,0.47638842,0.70067275,-0.53114194,0
-2.5622628,5.879519,-3.9420078,-0.34035662,0.78100228,-0.5236342,0
1.7340417,-6.6456184,3.2651525,0.22802059,-0.87387627,0.42935646,0
0.44736454,-6.197679,-4.1932087,0.05967813,-0.82676619,-0.55937123,0
0.075569175,-6.2326713,4.2687712,0.010002864,-0.82499987,0.56504434,0
2.9537683,-1.4972827,-6.7916164,0.39091855,-0.19815895,-0.89884132,0
3.3434746,6.5370646,1.092185,0.45040467,0.88061816,0.14712995,0
-0.80456984,6.2796335,4.093679,-0.10671838,0.83293247,0.54298681,0
0.27724615,2.6844745,7.0709472,0.036631785,0.35469237,0.93426514,0
-3.5386426,0.022105623,6.7042675,-0.46678543,0.0029159719,0.88436574,0
-6.0938416,-4.0053959,1.768792,-0.81210279,-0.53378367,0.23572011,0
4.07408,-0.1601035,-6.4511938,0.53384191,-0.020978959,-0.84532404,0
2.780236,6.5037303,2.7935669,0.36559197,0.85521936,0.36734495,0
-4.6956506,3.3794053,4.8521237,-0.6218853,0.44756362,0.64260834,0
-5.4085698,-0.061430093,-5.2547708,-0.71720707,-0.0081459796,-0.69681245,0
-1.9116858,-7.2780023,1.0182748,-0.25175402,-0.95845574,0.1340988,0
3.4980357,5.8339696,3.0769138,0.46853843,0.78142112,0.41213199,0
-5.7042389,-4.6760793,-1.3015492,-0.7615943,-0.62432086,-0.1737747,0
-5.7174478,-3.3148019,3.5100837,-0.76404107,-0.44296771,0.46906385,0
-0.71672249,-7.2337437,2.0864775,-0.094770968,-0.95650536,0.2758913,0
-1.1890136,-4.1330204,6.1918058,-0.15771843,-0.54823047,0.82132107,0
2.263994,0.641141,-7.1846242,0.299465,0.084805563,-0.95033085,0
-1.380784,7.2465463,-1.4788312,-0.1835248,0.96316361,-0.19655658,0
-1.1664031,-6.9097013,2.6034131,-0.15603131,-0.9243201,0.3482621,0
3.9616466,-0.40050915,-6.463294,0.52186042,-0.052758336,-0.85139787,0
4.5949054,-4.4121289,3.9985988,0.61092508,-0.58662367,0.5316419,0
2.7925088,4.5263147,-5.3318424,0.37080771,0.60103387,-0.70799714,0
-0.43929845,-7.4338799,-1.2560011,-0.058169618,-0.98435575,-0.16631314,0
4.1098056,-5.9887962,-1.8760586,0.54784852,-0.79832321,-0.25008383,0
1.8345418,-0.55217183,7.2275128,0.24535394,-0.073848158,0.96661675,0
-0.48281625,-7.2640638,-1.5948081,-0.064783834,-0.97468531,-0.21398987,0
-6.5834298,3.0153542,1.7574699,-0.88352185,0.40467224,0.23585929,0
0.58849108,-3.6004064,-6.5700092,0.078309521,-0.47910005,-0.87426013,0
-3.2044556,2.1356709,6.6060381,-0.41907337,0.2792995,0.86392665,0
3.2593973,2.3017466,6.4003263,0.43215051,0.30517945,0.84859383,0
-6.6220446,0.1628633,3.7864475,-0.86790854,0.021345438,0.49626517,0
4.1561785,-6.188302,1.1064286,0.55150115,-0.82115239,0.14681676,0
-6.2623196,2.5648878,3.4800966,-0.82294738,0.33705842,0.45732835,0
-5.6963558,-4.7035875,1.5779943,-0.75408894,-0.62266535,0.20889638,0
5.8657227,4.2877312,-1.8132603,0.78328609,0.57256716,-0.24213582,0
4.3413663,-6.1760759,0.42379785,0.57416749,-0.81681705,0.056049392,0
-3.5393989,5.101541,4.3685284,-0.46620664,0.67197067,0.57541883,0
-2.4797728,-4.546628,5.5217371,-0.32756245,-0.60058111,0.72938687,0
5.299418,-2.916775,-4.5283513,0.70132631,-0.38600674,-0.59928316,0
2.2720122,4.813581,-5.3136578,0.30208346,0.64000672,-0.70649624,0
-0.10920836,-6.3331223,-4.2195005,-0.014349096,-0.83212113,-0.55440831,0
5.3178396,1.0753437,-5.226665,0.70589113,0.14274135,-0.69378859,0
-5.2832413,4.7670245,-2.357146,-0.70478743,0.63592386,-0.31444466,0
5.8220367,-3.9519682,-2.6188877,0.77542603,-0.52635515,-0.34880468,0
-0.52948046,-7.4631553,-0.236709,-0.070732661,-0.99699402,-0.031621672,0
4.4041228,-6.1606655,0.38852262,0.58079326,-0.81243712,0.05123638,0
-2.0641983,-4.7138429,5.5539584,-0.27262723,-0.62257677,0.73353434,0
4.0471501,-4.3282595,4.5550165,0.54149354,-0.5791049,0.60944414,0
-6.9406376,-1.7932404,2.5023706,-0.91411245,-0.23617765,0.32957321,0
0.27038741,7.1055088,-2.617903,0.03568409,0.93774188,-0.34549493,0
-4.543839,-1.1707134,5.9679441,-0.59852982,-0.15421033,0.78611779,0
-5.586309,-5.1959343,0.60201478,-0.72995895,-0.678949,0.078664839,0
6.0513067,-4.0240011,-1.9504297,0.80423534,-0.53480083,-0.25921747,0
3.2704537,6.4690428,2.0619411,0.43395948,0.85838318,0.27360085,0
-0.96138239,7.2234535,-2.1893239,-0.12634937,0.94934005,-0.2877312,0
-4.0754266,1.0670359,-6.3334966,-0.5357728,0.14027706,-0.83262825,0
-3.4327214,2.9547596,-6.0520377,-0.45411238,0.39088312,-0.80061996,0
-7.010478,2.6035094,-0.50550854,-0.9353075,0.34734893,-0.067442752,0
-4.933392,-5.2494516,-2.1835959,-0.65538287,-0.69737023,-0.29008263,0
-6.2229075,3.2505941,-2.8596282,-0.82087827,0.42879346,-0.37722021,0
-1.7411065,6.1631689,-3.9603736,-0.23122314,0.81848365,-0.52594715,0
5.6929131,4.6637764,-1.9638354,0.74740839,0.61229557,-0.25782704,0
1.8818022,0.39608967,7.2452474,0.25103712,0.052839357,0.9665342,0
3.7716908,-6.3356557,-1.486956,0.5014357,-0.84230763,-0.19768663,0
-1.0123463,-2.7012827,-7.0377936,-0.13309714,-0.35514826,-0.92528635,0
-5.28408,-5.4397521,0.80074263,-0.69291687,-0.71333057,0.10500372,0
-6.4507537,-3.4444473,-2.0477102,-0.84944868,-0.45357201,-0.26964673,0
-4.1442575,4.9774895,-3.8010991,-0.55183911,0.66279018,-0.50614494,0
-0.15201196,-7.6029162,-0.63095546,-0.019921452,-0.9963764,-0.082687892,0
5.967783,-2.5052171,-3.7940214,0.79545593,-0.33392465,-0.50571156,0
5.7481236,-3.1880491,-3.925427,0.75080484,-0.41641462,-0.51272899,0
4.1996093,-1.7932724,5.996367,0.55718637,-0.23792377,0.79557252,0
3.486059,3.9945035,-5.2912354,0.46540463,0.53328425,-0.70640385,0
-3.4300883,-5.6661291,-3.6887963,-0.45243424,-0.74737167,-0.48655823,0
-7.1694674,-0.16285403,2.509963,-0.94361484,-0.021434156,0.33035067,0
3.1629746,-6.2328115,-2.9532745,0.41685197,-0.82142919,-0.38921535,0
3.5742261,6.2356877,2.2062523,0.47539675,0.82938951,0.29344678,0
-3.221436,-1.2709131,6.6340637,-0.43046838,-0.16982734,0.88648498,0
5.2261934,-1.5856682,-5.1090369,0.69881827,-0.21202695,-0.68315274,0
-0.20572759,-7.0716462,2.8996036,-0.02690728,-0.92490637,0.37924153,0
-2.6818156,4.5599346,-5.3529549,-0.35634455,0.60589844,-0.71127051,0
4.8582182,4.0051041,4.2377143,0.6401189,0.52771252,0.55836129,0
2.4838729,5.5084591,-4.4779043,0.33026144,0.7324174,-0.59539247,0
6.1733713,4.1356673,-1.6397201,0.81128252,0.5434947,-0.21548618,0
6.978404,1.2526717,2.7013054,0.91977006,0.16510507,0.35603839,0
6.587461,0.077447578,-3.6184914,0.87642837,0.010304009,-0.48142198,0
-0.3616637,7.1205287,-2.5700655,-0.047720544,0.93953449,-0.33911318,0
2.5810444,-0.59819931,6.9532237,0.34687275,-0.080393434,0.93446034,0
5.2243147,2.444381,4.786675,0.69700468,0.32611835,0.63861674,0
3.0978923,6.1876402,-2.8314655,0.41433957,0.82758987,-0.37870529,0
-6.6801147,-2.8027275,-2.3014083,-0.87884313,-0.36872986,-0.30277577,0
-7.325366,1.0844307,1.1724731,-0.97704846,0.14464004,0.15638304,0
-2.4632261,1.5086414,6.9542212,-0.32711077,0.20034412,0.92350465,0
-0.34553465,4.7839818,-5.8283925,-0.045776807,0.6337871,-0.77215177,0
6.3462834,4.029429,0.0015807545,0.84421021,0.53601217,0.00021027884,0
0.77967596,0.98733169,-7.4645128,0.10299841,0.13043058,-0.98609293,0
-7.602778,-0.43493408,-0.32611397,-0.99745345,-0.057061579,-0.042784821,0
-6.858448,-2.6753888,1.7252786,-0.90705138,-0.35382861,0.22817354,0
-2.5977845,-0.30163687,-7.0032897,-0.34749889,-0.040349182,-0.93681186,0
-2.590848,5.9333053,3.7961605,-0.34520885,0.7905634,0.50580668,0
3.2948005,6.7985458,0.82195973,0.43355808,0.89461088,0.1081605,0
-0.20357986,-7.450964,0.59375978,-0.02722618,-0.99647033,0.079407714,0
-2.994067,2.2884152,6.6210461,-0.39300632,0.30038127,0.86908978,0
-3.7035344,-5.9469118,2.7274132,-0.49262059,-0.79102039,0.36278316,0
1.4388968,7.2139888,1.6185455,0.19103658,0.95777249,0.21488783,0
1.2920586,0.30816779,7.4354129,0.17106271,0.04080002,0.98441499,0
1.21696,-0.66918677,7.4582486,0.16041224,-0.088208117,0.98310083,0
-6.3056951,-3.6632137,-1.7967824,-0.839571,-0.48773813,-0.23923236,0
5.8945465,-4.568644,0.44188005,0.78900725,-0.61153018,0.05914731,0
-0.81176353,-0.088302746,7.4698935,-0.10802786,-0.011751153,0.9940784,0
6.694066,-0.20494415,3.5375137,0.88381368,-0.027058657,0.46705589,0
3.2003665,-5.615284,-3.7360065,0.42869592,-0.75217927,-0.50044602,0
5.808094,3.8051641,2.9740853,0.76890695,0.50374824,0.39372554,0
2.9184825,6.9243445,-1.1861383,0.38364238,0.91022372,-0.15592106,0
3.1569953,5.4739327,-4.0170331,0.42161867,0.73104709,-0.53647727,0
3.7541437,-4.0819259,-5.1593499,0.49562255,-0.53889638,-0.68113804,0
6.5220799,-2.6785929,-2.6957722,0.86402541,-0.3548519,-0.35712776,0
6.1801248,-4.1590466,-1.5826583,0.81151515,-0.54612643,-0.20781963,0
3.7992561,-6.0270748,-2.4389131,0.50451648,-0.80035633,-0.32387179,0
4.9975657,0.79586589,-5.527863,0.66683817,0.10619445,-0.73759711,0
7.2721786,-1.9050297,0.051775351,0.96733582,-0.25340459,0.0068870904,0
-2.5277839,-5.9434724,-3.8647146,-0.33584413,-0.78965628,-0.51347023,0
-3.5522335,-4.1015143,5.0945802,-0.47727001,-0.55107015,0.68449622,0
-3.3616407,5.8778234,-3.2908225,-0.44651949,0.78073859,-0.43711287,0
-4.579813,4.2407317,4.2799525,-0.60514516,0.5603413,0.56552368,0
-6.0015016,-1.4324557,-4.2107096,-0.80342013,-0.19176263,-0.56368709,0
3.4684162,-6.3705235,1.7604452,0.46468037,-0.85348958,0.2358553,0
-7.4523005,-0.29176432,-1.2264354,-0.98599166,-0.038602468,-0.16226602,0
-1.407961,0.012396562,7.3545489,-0.18802604,0.0016554978,0.98216265,0
-7.1849675,-0.075583197,2.1763723,-0.95700884,-0.010067378,0.28988406,0
-2.036948,6.1752272,-3.8759193,-0.26908061,0.81574684,-0.51200855,0
-3.3193831,6.4407392,-2.2211523,-0.43799514,0.84986043,-0.29308274,0
-4.6690707,-1.9428787,-5.5375319,-0.62260222,-0.25907522,-0.73840809,0
5.5983324,-4.5623269,-1.9461597,0.74848509,-0.60997337,-0.2601974,0
-0.60366446,7.031404,-2.6835232,-0.079952858,0.93128037,-0.35542154,0
6.7674131,-2.8080242,-2.1132202,0.88746887,-0.36824027,-0.27712467,0
-6.4532905,3.7500887,-0.74113071,-0.86038214,0.49997896,-0.098810934,0
2.6759694,5.5372868,-4.2743907,0.3572956,0.73933887,-0.57071692,0
-0.94291067,4.7745786,-5.7272167,-0.12545775,0.6352753,-0.76202732,0
4.4934378,-6.0301027,-0.25530306,0.59717321,-0.8013944,-0.033929512,0
3.6820545,4.1001496,5.1483588,0.48823845,0.54367763,0.68266964,0
4.796505,4.0601673,-4.1443949,0.63717413,0.53935808,-0.55054694,0
-6.3981996,3.9968069,0.49056521,-0.84633398,0.52868521,0.064890444,0
2.8479702,2.0960655,-6.6795483,0.37682381,0.27733696,-0.8837918,0
-4.6919789,0.20869647,-5.7896218,-0.62936825,0.027993931,-0.7766028,0
3.7860715,-3.2830539,-5.5589018,0.50587112,-0.43866104,-0.74274552,0
-7.2541399,-1.9240147,1.4353125,-0.9493736,-0.25180224,0.18784416,0
-7.4691596,-1.1201898,-0.45820585,-0.98712498,-0.14804441,-0.060556538,0
1.3873883,-5.5329494,-4.8241816,0.18571104,-0.74062163,-0.64574838,0
-1.9700378,-7.3291111,0.051280882,-0.25957629,-0.96569896,0.0067568761,0
3.4832191,5.4516659,3.9318724,0.46010172,0.72011572,0.51936477,0
6.05827,4.3908663,0.69973665,0.80618018,0.58429706,0.093114674,0
-4.2917104,-0.25183627,6.197506,-0.56899387,-0.033388387,0.82166374,0
3.869848,5.0193205,3.9923368,0.51663202,0.67008877,0.5329845,0
3.350533,1.4142584,-6.6008,0.44458225,0.18765795,-0.87586021,0
-2.7472115,-3.4823394,-6.0839882,-0.36487457,-0.46251154,-0.80805302,0
6.4998765,2.9218216,-2.5407364,0.85911709,0.38618991,-0.33582023,0
-1.3475277,4.526772,5.7781692,-0.18056378,0.60657084,0.77425349,0
6.2085252,-1.9277229,3.8239863,0.82317168,-0.2555916,0.50701207,0
-6.8031154,-3.0681267,1.5120028,-0.89343196,-0.40292752,0.19856663,0
-4.1153336,2.1274054,-5.9281931,-0.54698634,0.28276244,-0.78794116,0
6.0531993,4.5175819,0.80169547,0.79693949,0.59476638,0.10554795,0
4.9591374,4.4795489,3.7063358,0.6489532,0.58619422,0.48501146,0
-0.079902917,-4.069088,-6.4524174,-0.010473944,-0.53338981,-0.84580469,0
-1.1837524,-4.0634913,6.2735229,-0.15642136,-0.53695083,0.82898504,0
6.1613517,-4.0313559,-1.2106494,0.82570958,-0.5402596,-0.16224439,0
5.1080112,5.1985683,2.1860843,0.6713177,0.68321913,0.287305,0
-2.9750311,-2.7942865,-6.4443374,-0.39000803,-0.36631355,-0.84481245,0
-2.6724236,-2.81095,6.5015059,-0.35300368,-0.3713018,0.85879183,0
-5.2312446,4.3235927,3.4626431,-0.6866045,0.56747454,0.45447433,0
-5.4287276,-0.0048631071,-5.1769276,-0.72369087,-0.00064828934,-0.69012398,0
6.2914314,-2.8806341,-2.8645864,0.84008294,-0.38464561,-0.38250279,0
-4.1228018,-3.0158646,5.5453143,-0.54682988,-0.40001073,0.73550558,0
-7.0044951,-1.6729152,2.5139349,-0.91829985,-0.2193217,0.32958063,0
3.4376135,-5.5006628,-3.906343,0.45399487,-0.72645533,-0.51589853,0
0.96360546,-7.3202,-1.7152617,0.12712519,-0.96572906,-0.22628863,0
-6.9051819,-0.57040179,2.7346375,-0.92701507,-0.07657598,0.36712289,0
4.6170673,2.2295911,-5.5246935,0.61256391,0.29580835,-0.73298216,0
6.2553387,-2.9376302,2.9445813,0.8327176,-0.39106059,0.39198592,0
-6.7469535,3.1630595,0.043423764,-0.90542161,0.42447343,0.0058273436,0
2.6085122,0.21063541,7.0940404,0.34497938,0.027856829,0.93819678,0
-1.2022673,-1.1194996,-7.4045005,-0.15851536,-0.14760269,-0.97626138,0
5.8742356,1.6736335,4.4384403,0.77801073,0.2216637,0.58784741,0
-1.7148476,-6.8323436,2.5504725,-0.22889771,-0.91198063,0.34043685,0
-0.89638108,-1.5194914,7.3910713,-0.11796501,-0.19996721,0.97267538,0
2.4798007,-0.62786305,7.1558323,0.32631904,-0.082621023,0.94164199,0
-0.83237612,-4.2198362,6.0830035,-0.11172803,-0.56641942,0.81650829,0
-0.81452185,4.0024018,-6.3386402,-0.10801782,0.53077853,-0.84059876,0
-0.8455984,5.019434,-5.5710406,-0.11205509,0.66515398,-0.73825055,0
6.0582271,-2.3961837,3.8335438,0.80144906,-0.31699359,0.50714344,0
-4.8450112,1.6018645,-5.5891542,-0.64017397,0.21165523,-0.73849803,0
2.5917113,2.0416379,6.6968913,0.3471587,0.2734766,0.89704597,0
-1.6661046,-4.5822892,-5.7707381,-0.22053647,-0.60654169,-0.7638526,0
4.2155943,4.9184422,3.9187858,0.55681223,0.64964718,0.51760864,0
5.3271389,0.86827171,5.318758,0.70300239,0.11458254,0.70189637,0
-2.2150931,-2.9420941,-6.5261531,-0.29560012,-0.39261708,-0.87090319,0
-0.073069677,-5.9484172,4.5475655,-0.0097583048,-0.7943989,0.60731804,0
0.94237041,2.934293,6.976409,0.12356003,0.38473335,0.91472024,0
1.0783184,6.0230026,4.5921659,0.14095084,0.78728819,0.60025841,0
-1.1455277,5.4162822,-5.1636014,-0.15131645,0.71545416,-0.68207675,0
2.6161847,-6.5509586,-2.6151283,0.34774941,-0.87076879,-0.34760898,0
0.72411847,5.112114,-5.4667678,0.096298136,0.67984319,-0.72700745,0
-1.5363499,-1.4019753,-7.3537388,-0.20103475,-0.18345153,-0.96225286,0
6.6643987,-3.6795037,-0.090694226,0.8753714,-0.48330426,-0.011912723,0
1.2029306,5.3344412,5.2580009,0.15856902,0.70318037,0.69310409,0
2.9991624,0.81707728,6.9683571,0.39306256,0.10708406,0.9132551,0
7.2085137,1.3296599,1.5150405,0.96305454,0.17764203,0.20240881,0
-0.5627107,4.6183815,-6.071094,-0.073568411,0.60380405,-0.79373068,0
4.0231915,-4.9483304,3.9168396,0.53755593,-0.66116774,0.52334583,0
-4.656281,5.4749036,-2.3360872,-0.61612999,0.72445202,-0.30911651,0
-4.8380432,5.8174429,-0.45077866,-0.63828593,0.76749873,-0.059471499,0
-6.1639147,-0.19395848,4.3769097,-0.81508166,-0.025647985,0.57877809,0
-2.9831455,6.144083,3.211175,-0.39526406,0.81408542,0.42547777,0
-1.8329682,7.3405085,0.89574939,-0.24058679,0.96348065,0.11757185,0
-2.1368346,-4.0460973,-6.0118823,-0.28283301,-0.5355444,-0.79573721,0
-3.5582583,-1.7096399,6.3832016,-0.47410023,-0.2277914,0.85049397,0
-5.4493713,5.0437565,1.6235783,-0.71695346,0.66358823,0.21360815,0
3.4953661,4.3724542,-4.928299,0.46866366,0.58626491,-0.66079336,0
-4.4584131,3.253787,5.0571957,-0.5955689,0.43465114,0.67555612,0
1.2912556,-3.3770387,-6.6662087,0.17027083,-0.4453117,-0.87903661,0
-3.4812095,-4.9819384,-4.5284762,-0.45930552,-0.65730941,-0.5974803,0
7.3454151,1.1067939,1.5931245,0.96685219,0.14568354,0.2096976,0
1.4409293,7.0904379,2.1833951,0.19065884,0.93818247,0.28889936,0
4.5744085,4.9234467,-3.3132377,0.61050159,0.65708435,-0.44218546,0
-4.9175401,-3.6728096,4.4281754,-0.64974749,-0.48528308,0.58508849,0
1.1848054,7.3002863,1.1535341,0.15828589,0.97529292,0.15410815,0
1.1204408,5.1936326,-5.3632879,0.14841375,0.68794924,-0.7104218,0
-0.55975318,-3.010319,-6.9456401,-0.073742911,-0.39658493,-0.91503137,0
1.3452986,7.4113321,0.7309401,0.17776561,0.97932154,0.096585251,0
4.4119143,-0.49310249,6.1187372,0.58361983,-0.065228917,0.80940294,0
5.4125557,-1.8542041,4.8335509,0.72265726,-0.24756402,0.64535147,0
-5.2034016,0.66741788,-5.3753686,-0.69276893,0.088858485,-0.71566427,0
-5.3170047,-4.6486564,2.4863145,-0.71011972,-0.6208576,0.33206308,0
5.077878,-5.0640011,2.6492183,0.66420174,-0.6623866,0.34652573,0
-3.8760157,-2.7304919,-5.8968129,-0.51226199,-0.36086729,-0.7793346,0
6.619556,0.086142533,-3.5232873,0.88268989,0.011486744,-0.46981552,0
-1.671002,6.9961381,2.4625716,-0.21978793,0.92020637,0.32390356,0
2.2420557,4.8181272,-5.3826814,0.29641053,0.63697958,-0.71161634,0
5.9103804,4.6466355,-0.6428802,0.78328121,0.61580169,-0.085198574,0
-2.9994116,5.9211631,3.576535,-0.39781168,0.78532332,0.47435552,0
1.3055519,2.1508286,-7.1701832,0.17180984,0.28304774,-0.94359177,0
0.91730928,-7.434267,-0.77965128,0.12180265,-0.98714077,-0.10352407,0
-0.16034974,-6.8716979,-3.0264747,-0.021350475,-0.91496259,-0.40297335,0
1.2624329,1.2844207,7.2958908,0.16799098,0.17091689,0.97085863,0
-5.2841034,-5.2624002,1.2244097,-0.69919908,-0.69632727,0.16201539,0
-0.62671649,-3.8207073,6.4596004,-0.083217457,-0.50732595,0.85772675,0
-6.3686919,-3.8867271,-0.42808387,-0.8521933,-0.52008212,-0.057281807,0
6.8860579,-2.1892231,2.3488383,0.90631503,-0.28813666,0.30914459,0
4.723341,-2.0112422,-5.6686015,0.61761183,-0.26298481,-0.74121165,0
-4.0522919,-3.3544104,-5.4015737,-0.53744614,-0.44488773,-0.7163983,0
-0.22264726,-5.9916487,4.6979327,-0.02922998,-0.78660643,0.61676246,0
-4.7120228,5.1541772,-3.0043507,-0.61981618,0.67797685,-0.39519018,0
