-0.2057309,-0.41962728,-8.253644,-0.024886206,-0.050760146,-0.99840075,0
3.4336894,-2.6171367,7.0707383,0.41446543,-0.31590298,0.85347748,0
7.0447145,2.4977787,-3.5838485,0.84986645,0.30132923,-0.43235147,0
0.46724787,-8.2033138,1.3894316,0.056070246,-0.98440647,0.16673328,0
-1.5184567,-6.3854318,5.1870885,-0.1815093,-0.76328504,0.6200406,0
2.1118484,4.2073588,-6.9132247,0.25249633,0.5030393,-0.8265574,0
0.71271825,4.6467695,-6.7187634,0.086915426,0.56666988,-0.81934786,0
2.5997424,-3.5876617,-7.0976729,0.31071326,-0.42878634,-0.84829211,0
-6.6360993,0.091712452,5.010623,-0.79801071,0.011028695,0.60254234,0
-7.2471147,-0.12641834,-3.9475427,-0.87806898,-0.015316995,-0.47828895,0
4.9880252,-2.4301181,6.269743,0.59577656,-0.29025662,0.74886668,0
-7.3420014,2.2696688,3.4418418,-0.87193316,0.26954496,0.40875176,0
-6.9877057,1.9200276,4.2366257,-0.83243901,0.22873114,0.50470537,0
5.9866958,-4.3564672,3.8499033,0.71738851,-0.52203751,0.46133572,0
-6.2591891,-5.0017014,-2.3033402,-0.75080329,-0.59996492,-0.27629066,0
-5.1629763,-0.59445816,-6.4707656,-0.62208819,-0.071626402,-0.77966404,0
0.4064745,0.15060471,-8.2093248,0.049444873,0.018320045,-0.99860883,0
7.0847235,-2.3002076,3.7235215,0.85075247,-0.27621505,0.44713038,0
-3.1100624,-4.9720778,-5.9593596,-0.37196803,-0.59466785,-0.71274817,0
2.0828443,-6.2552705,4.9542718,0.25256068,-0.75849903,0.60074306,0
3.0755444,5.2448497,5.6919131,0.36927584,0.62974095,0.68341917,0
-5.548305,0.62678438,6.1708345,-0.66670305,0.075316526,0.74150831,0
-3.4939215,4.0845637,6.3071432,-0.42162448,0.49289948,0.76110637,0
3.0650446,7.8211589,-0.043980032,0.36486825,0.9310444,-0.0052354597,0
4.4090362,5.3441706,-4.5453572,0.53209805,0.64495337,-0.54854977,0
-3.2387283,-0.19682787,-7.6376748,-0.39028704,-0.023718992,-0.92038769,0
-3.2854321,7.0964179,-2.706876,-0.39701727,0.85754335,-0.32710356,0
-5.7858839,5.4237781,-2.4514368,-0.69702685,0.65340388,-0.29532519,0
-8.2641945,-0.75134736,-0.8889364,-0.99022722,-0.090027481,-0.10651359,0
-5.3018026,2.08126,6.1307077,-0.63356745,0.24871138,0.73262197,0
7.6797042,1.8301022,2.7496514,0.91863734,0.2189147,0.32891011,0
3.046828,-7.7392168,0.95478237,0.36393106,-0.92441761,0.11404482,0
-7.2604413,0.30822217,-3.9271576,-0.87896246,0.037313946,-0.47542897,0
2.0469162,-6.0130877,5.4139805,0.24525265,-0.7204622,0.64867973,0
3.8690262,7.2995367,-1.5091158,0.46069619,0.86917704,-0.1796948,0
-3.745621,-0.87351632,-7.2392397,-0.45692137,-0.10655864,-0.88310146,0
0.24157739,-8.1152077,-1.8813876,0.028987171,-0.97375387,-0.22575004,0
4.8820033,3.657809,5.575738,0.59071791,0.44259155,0.67465919,0
5.5659499,0.9557327,6.0826497,0.67058736,0.11514696,0.73283947,0
-4.8754282,5.7124343,-3.2561915,-0.59560841,0.69786155,-0.39779377,0
-5.8210955,4.7319431,-3.8102086,-0.69184071,0.56239432,-0.4528456,0
-8.1147127,1.190241,-0.98753297,-0.98231816,0.1440834,-0.11954478,0
0.44909042,1.7249006,-8.0805511,0.054272074,0.2084523,-0.97652555,0
6.1903844,-4.4770617,-3.2328863,0.74622768,-0.53969306,-0.38971236,0
8.1781445,0.34860972,-1.8711543,0.9739697,0.041517403,-0.22284366,0
6.179142,-5.0625734,-2.3126259,0.74302202,-0.60875821,-0.27808586,0
7.6946301,-1.6969292,2.8145413,0.91962802,-0.20280945,0.33638149,0
-6.5997906,-3.5736861,-3.4740767,-0.79801214,-0.43211141,-0.42006719,0
-6.1308761,3.5057702,-4.4991899,-0.73214853,0.41865867,-0.53729272,0
-5.9552002,-5.1699514,-2.1106148,-0.72946501,-0.63327819,-0.25853363,0
-6.2979012,4.9782534,-2.2903845,-0.7544024,0.59632665,-0.27435672,0
7.4630227,3.5917289,1.3359877,0.88957727,0.42812687,0.15924704,0
2.5000677,1.2404351,-7.8799858,0.29906484,0.1483842,-0.94262516,0
2.885884,-7.5107865,2.3111699,0.3447279,-0.89718699,0.2760765,0
5.4539008,5.7406778,-2.4520864,0.65794158,0.69253749,-0.29581207,0
6.2269917,-0.92802948,-5.4604907,0.74718958,-0.11135618,-0.65521556,0
7.7353992,-2.7366149,1.1273617,0.93396807,-0.33041745,0.13611706,0
3.2227445,-7.6849461,0.78072524,0.38504311,-0.9181726,0.093278535,0
7.0896225,-4.2600331,-0.53607804,0.85536408,-0.51397371,-0.064677902,0
0.95961052,-2.4125669,-7.9026237,0.11536248,-0.29003403,-0.95003784,0
3.2190845,-1.5936368,-7.5550122,0.38480809,-0.19050272,-0.9031232,0
4.0648966,-6.6905856,2.6929073,0.49099877,-0.80815572,0.32527623,0
1.8576022,-6.5596042,4.938869,0.22065656,-0.77918708,0.58666694,0
-1.3097138,-1.3447953,8.0676384,-0.1581178,-0.16235308,0.97398162,0
6.5187974,-4.1320124,2.9465344,0.78906935,-0.5001604,0.35666394,0
2.577904,2.031616,7.5590682,0.31281796,0.24652818,0.9172616,0
1.1597899,-3.008724,-7.5906825,0.14062865,-0.36481848,-0.92039722,0
-8.2277641,0.2447505,-0.74033749,-0.99553937,0.029614214,-0.089579031,0
-6.967833,4.4165483,-0.45295271,-0.8433522,0.53455722,-0.054823168,0
8.2371244,-1.7258662,-0.13172635,0.97862738,-0.20504485,-0.015650002,0
1.1667281,4.4430704,-6.8746033,0.14111117,0.53737181,-0.83145612,0
4.1740623,0.90390652,7.045311,0.50664061,0.10971464,0.8551479,0
-5.5334458,1.7760282,5.9978294,-0.66257048,0.21266022,0.71817541,0
8.2263546,-1.234308,0.058723502,0.98890543,-0.14837846,0.0070592617,0
0.67806685,-4.7051606,6.8374176,0.081424236,-0.56500936,0.8210569,0
1.334179,4.257072,-7.0113311,0.1605448,0.51226312,-0.84368938,0
7.7204781,-2.6705487,-0.74930996,0.94110835,-0.32553369,-0.091339141,0
4.6343412,6.7551184,-1.0518279,0.56110972,0.81788599,-0.12735163,0
8.2243643,-0.41995153,-1.2823305,0.98680687,-0.050388217,-0.15386145,0
5.2237997,0.35691354,-6.559289,0.62241155,0.042525962,-0.78153402,0
-0.043834336,-6.5812931,-5.1119809,-0.0052599977,-0.78973675,-0.61342341,0
2.5295167,-4.1484337,-6.6104436,0.30832654,-0.50565875,-0.80575681,0
5.828968,4.9196386,3.1912746,0.7049821,0.59500366,0.38596737,0
1.8005412,6.4191685,-4.9926357,0.21617447,0.77069068,-0.59942001,0
5.7311702,-5.4476342,2.6264186,0.68785602,-0.653826,0.31522319,0
-4.5240302,5.9894505,-3.5260601,-0.54552543,0.72223163,-0.42518628,0
-7.4870186,-2.3808184,2.5737002,-0.90562212,-0.28798136,0.31131217,0
6.9264359,-0.33629358,-4.5462174,0.83531886,-0.040556554,-0.54826772,0
-1.7310164,-6.0846305,5.4574819,-0.2071874,-0.72827661,0.65321243,0
-3.3890321,-7.5381365,-0.88575542,-0.40771508,-0.90687013,-0.10656017,0
0.69269055,-3.575449,7.4566979,0.083471231,-0.43085203,0.89855385,0
3.0107143,-7.4803004,-2.198236,0.3602314,-0.89501655,-0.26301852,0
5.9781809,4.0228314,-4.1854854,0.71740413,0.48275489,-0.50227398,0
-0.89357054,6.0837302,-5.5263844,-0.10808263,0.73586303,-0.66844881,0
0.314657,2.7807729,-7.7126803,0.038350813,0.33892429,-0.94003171,0
3.7664239,-1.0360402,-7.3467145,0.45265877,-0.12451404,-0.88294756,0
3.324266,5.9263983,-4.756485,0.40078431,0.71450585,-0.5734573,0
-0.79167372,-5.5228524,-5.9792128,-0.096805334,-0.6753307,-0.73113418,0
-0.95837158,-4.7517152,6.7197995,-0.11566561,-0.57348323,0.81101078,0
0.91420341,5.5593524,-6.1259489,0.10984291,0.66796458,-0.73604196,0
-0.90912247,-1.6111593,8.133543,-0.10899084,-0.19315507,0.97509599,0
-2.2525928,-7.5045934,2.9984193,-0.26850164,-0.89452279,0.3574017,0
3.2112119,7.6291909,-1.397173,0.38253519,0.90882635,-0.16643804,0
4.7696981,4.7539225,-4.8979058,0.57279766,0.57090318,-0.58819425,0
-0.95345473,-7.994184,-2.0404696,-0.11479945,-0.96252918,-0.24568005,0
-5.7088227,4.5168633,3.9203792,-0.69046056,0.54629761,0.47415507,0
1.4885486,-4.6939096,6.5508475,0.18163548,-0.57275963,0.79934663,0
-8.2145176,0.95992696,0.92115295,-0.98713732,0.11535428,0.11069481,0
-7.4192863,2.3740003,3.0154653,-0.88820469,0.28420499,0.36099839,0
0.83065814,8.0315924,1.8440706,0.10029276,0.96972567,0.22265106,0
-2.5275388,-5.205986,-6.1538329,-0.29920521,-0.61627471,-0.72847903,0
0.26714697,-7.8401933,2.7819653,0.032095816,-0.94194365,0.3342334,0
-2.102078,6.923933,-3.9030354,-0.2556802,0.84217262,-0.47473446,0
5.9231205,5.8384871,-0.058803003,0.71215868,0.70198292,-0.0070701027,0
-6.6215701,-3.1614652,3.9919207,-0.79270124,-0.3784748,0.47789279,0
3.8496585,7.0731196,1.9875506,0.46412009,0.852745,0.23962182,0
-2.2943907,1.6927991,7.8446007,-0.27488565,0.20281036,0.93984354,0
-0.83172166,-7.2947593,3.8338006,-0.1004166,-0.88072121,0.46286783,0
2.8094676,-7.0476761,-3.3156416,0.33931279,-0.85118151,-0.40044588,0
1.720179,7.9278255,-1.2978659,0.209383,0.96498787,-0.15797836,0
-2.9396255,5.5916915,-5.3206534,-0.35591254,0.67700905,-0.64419335,0
-4.220521,-0.42345574,-7.0396914,-0.51351768,-0.051522553,-0.85653079,0
7.8064675,-1.3259754,2.4712126,0.94111186,-0.1598535,0.29791805,0
-0.91176277,-0.61671287,8.1780472,-0.11049268,-0.074736826,0.99106294,0
0.67069536,-5.7164054,-5.9206142,0.081225857,-0.69229633,-0.71702743,0
-0.63981211,-2.8211615,-7.8160224,-0.076769672,-0.33850506,-0.93782765,0
-7.0483127,4.3646774,0.56198728,-0.84824091,0.52527434,0.067633294,0
0.83080578,-4.7146077,-6.8593645,0.099322535,-0.56362969,-0.82003456,0
-6.1480732,5.4886456,-0.29182953,-0.74551296,0.66555101,-0.035387136,0
2.2523296,-7.7686129,-2.1264839,0.26930824,-0.92888337,-0.25426102,0
7.8873835,0.17807037,2.6586223,0.94739807,0.021389036,0.31934211,0
-6.994585,-4.5533609,0.86097831,-0.83364266,-0.54268777,0.10261484,0
1.065071,6.8763061,4.4388018,0.12904415,0.83313417,0.5378058,0
-5.9493542,5.4002776,-2.1998482,-0.71416575,0.6482541,-0.26407173,0
0.67280853,-0.56862038,-8.1824703,0.081753187,-0.069093257,-0.99425471,0
4.6143808,-5.6950855,-3.8366368,0.55774856,-0.68837529,-0.46374124,0
-5.2386599,5.9993515,-2.0906453,-0.63618624,0.72856516,-0.25388932,0
4.1110153,3.3343027,6.4376078,0.49326372,0.40006918,0.7724219,0
-4.1227655,-3.3575895,6.4183793,-0.49465439,-0.40284765,0.77008492,0
8.302474,0.23683445,-0.3279765,0.99881494,0.028491965,-0.039456651,0
3.7160771,-3.1348515,-6.6366529,0.45169902,-0.38104951,-0.80670273,0
3.7912138,7.0388241,-2.2271295,0.45681104,0.84812224,-0.26835135,0
7.4346414,3.6106467,0.91059303,0.8941201,0.43423101,0.10951161,0
3.7844303,4.2890401,6.0839939,0.45319182,0.51361972,0.72856838,0
-2.3482645,0.87963796,-7.8928843,-0.28355029,0.1062153,-0.95305693,0
2.6092896,-6.1839905,-4.7703547,0.31687424,-0.75098878,-0.57931572,0
-5.3861599,-4.6193223,4.1134834,-0.65670419,-0.56320798,0.50153393,0
-7.8519349,2.4523404,-0.63372171,-0.95170802,0.29724035,-0.076811388,0
-2.8497093,-4.0775981,6.7231607,-0.34073067,-0.48754543,0.80386692,0
5.9545388,4.2292376,-3.8999226,0.7191788,0.51079988,-0.47102582,0
-8.116003,1.9362228,0.65950054,-0.9696781,0.23133466,0.078795344,0
-4.9305553,-4.3958831,4.9724956,-0.59634173,-0.53167409,0.60141432,0
0.85263675,-4.5370498,-6.9987407,0.10169611,-0.54114521,-0.83475727,0
-4.6269374,-6.3182964,-2.7790837,-0.55680507,-0.76034302,-0.3344346,0
-5.3607907,5.9763913,1.9524496,-0.648817,0.72332317,0.23630515,0
2.8708868,-6.1225939,-4.7204509,0.34811851,-0.74241459,-0.5723933,0
1.8448659,8.0082188,-0.2974695,0.22434464,0.97383821,-0.036173735,0
-2.7975316,-7.6034389,1.5860527,-0.33886695,-0.92100984,0.19211966,0
2.6114435,7.4626174,2.4318478,0.31570092,0.90216589,0.29398936,0
-7.9249372,1.6441624,2.1332653,-0.94681412,0.19643262,0.25486711,0
-0.40670079,-5.7745352,5.8911572,-0.049241431,-0.69915372,0.71327376,0
-8.0397367,-1.8665529,-0.80699909,-0.96946913,-0.2250777,-0.097311735,0
-0.69826746,-3.6297245,7.5306525,-0.083237328,-0.43268317,0.89769524,0
-8.1335297,-1.5833334,-1.1594986,-0.97210318,-0.18923683,-0.13858095,0
5.4503713,4.8056908,3.8917198,0.66121387,0.58300418,0.47212547,0
-5.95402,-5.3344097,2.0928993,-0.72051471,-0.64553368,0.25326833,0
4.0655265,4.3223481,5.789134,0.49040917,0.52138859,0.69832146,0
7.9703512,-2.0086119,-1.289956,0.95795685,-0.24141514,-0.15503986,0
-7.3035913,3.2011774,2.0653603,-0.88663179,0.38861233,0.25072789,0
4.4963369,2.0193748,-6.6153412,0.54502994,0.24478142,-0.80188811,0
-5.1720314,6.3670073,0.1777498,-0.63035929,0.77600116,0.021663874,0
-1.4652374,-4.9380031,6.4690809,-0.17719199,-0.59715551,0.78230959,0
6.3151355,-0.90553516,-5.4438663,0.75299478,-0.10797287,-0.64910769,0
-7.6329093,-3.3827796,0.21915096,-0.9139241,-0.40503609,0.026239974,0
7.5629263,3.1134355,1.4381531,0.91073591,0.37492332,0.17318398,0
6.9295163,4.713748,0.6707471,0.82419801,0.5606541,0.07977879,0
-2.5787621,6.9577532,-3.8122845,-0.30911911,0.83403367,-0.45698282,0
4.2160807,2.5337098,-6.7703795,0.50379902,0.30276474,-0.8090241,0
4.1918802,4.4957728,5.5997734,0.50412714,0.54067415,0.67344433,0
4.556294,0.92945504,-7.0031228,0.54200351,0.11056527,-0.83307117,0
5.4771686,-0.91158074,6.0711312,0.66572839,-0.11079907,0.73792225,0
-0.6224438,-3.0533657,-7.6253481,-0.075562216,-0.37066653,-0.92568713,0
-4.0180244,6.0009346,-4.1781845,-0.48157898,0.71924001,-0.50077492,0
0.98443145,-7.8516946,2.5842767,0.11825764,-0.94320726,0.31044361,0
-0.5326826,-8.3080893,0.047194548,-0.063983731,-0.99793488,0.0056688227,0
-2.8618028,-6.0964651,-4.6859217,-0.34880674,-0.74305892,-0.57113683,0
7.498683,1.3728082,-3.1479042,0.9091875,0.16644791,-0.3816717,0
7.216948,3.7718854,-1.4910159,0.87176353,0.45562086,-0.18010567,0
-7.7845654,-2.2139125,-2.0245812,-0.93310469,-0.26537284,-0.24267845,0
2.2683194,7.9568343,-0.443753,0.27376199,0.96030515,-0.053556263,0
7.5968809,-3.0436249,-1.5151414,0.91276038,-0.36568958,-0.18204325,0
-6.167798,-3.2129643,-4.5418959,-0.7425496,-0.38681313,-0.54680502,0
-2.3538201,6.915689,3.9856195,-0.28284979,0.83103263,0.47893706,0
2.8259289,1.6076007,7.6203194,0.34109405,0.19403991,0.91978449,0
-2.4868379,3.2782202,7.1576638,-0.30121204,0.39706627,0.86695421,0
-3.4106479,-6.3175039,-4.1741595,-0.41069204,-0.76072013,-0.50263005,0
3.9935431,3.6354616,6.1362715,0.48855007,0.44474414,0.75068069,0
5.648622,-3.0755007,-5.3451667,0.67544615,-0.36775962,-0.6391598,0
3.2190943,6.8493638,-3.4430871,0.38716549,0.82378364,-0.41410545,0
-1.0524179,-1.9782604,7.9286475,-0.12773289,-0.24010321,0.96230698,0
2.0526402,-0.044783544,8.0506668,0.24705769,-0.0053901891,0.96898574,0
-5.5693383,2.347682,-5.6101079,-0.67536932,0.28469312,-0.68031323,0
-6.9852352,-3.1011345,-3.2125058,-0.84256911,-0.37406328,-0.38749707,0
1.387832,0.91604519,8.2253742,0.1653799,0.1091598,0.98017019,0
6.6245179,5.0399117,0.067043789,0.79583079,0.60546547,0.0080542481,0
3.5641034,2.5130894,-7.0799661,0.42861944,0.3022244,-0.85143745,0
-2.6461365,7.5603662,2.0170255,-0.32035089,0.91528535,0.24418841,0
6.7820587,2.3475606,-4.2141781,0.8148908,0.28206858,-0.50634992,0
7.846117,0.2969735,-2.8437996,0.93955749,0.035562009,-0.34053954,0
-3.8171737,-5.1801405,5.2078853,-0.46111783,-0.62576538,0.62911695,0
-5.0076432,-1.4812963,6.5096307,-0.60004693,-0.17749813,0.78002441,0
4.7799802,-4.8142247,4.8789601,0.57201511,-0.5761131,0.58385992,0
-0.19162545,8.2223692,0.69244254,-0.023216916,0.99620414,0.083894812,0
-0.2009277,7.9725566,-2.3584313,-0.024160117,0.95864284,-0.28358448,0
1.6964524,3.2362933,7.3932261,0.20570792,0.39242551,0.89648563,0
-0.69214696,0.29129976,8.3477221,-0.082581006,0.034755375,0.99597818,0
-3.5930877,7.1656156,1.7008414,-0.43847761,0.87444627,0.2075599,0
-1.3525428,8.0834961,1.2846786,-0.16303664,0.97439146,0.15485623,0
0.25252828,1.3553808,-8.1600685,0.030514356,0.16377798,-0.98602515,0
-4.4347763,-3.1480167,6.3237338,-0.53170472,-0.37742949,0.75818008,0
2.9975777,7.7610006,0.568349,0.35945791,0.93066913,0.068154208,0
4.7285352,-3.066052,6.1395922,0.56738394,-0.3679001,0.73669875,0
0.34922448,-5.3237658,-6.3590908,0.042071428,-0.64135945,-0.76608616,0
2.3455796,-6.6188283,-4.3381133,0.28417209,-0.80188549,-0.52557188,0
6.6181221,0.067143932,5.077549,0.793369,0.0080490978,0.60868776,0
1.2502989,-5.7772841,-5.8765645,0.15000364,-0.69312525,-0.70503634,0
-1.4468175,-7.0967584,3.9821439,-0.17504777,-0.85862368,0.48179224,0
4.9868722,6.6032686,1.0788865,0.59760082,0.79130131,0.12928814,0
8.0368004,-0.79133129,1.7735966,0.97202128,-0.095708594,0.21450995,0
-4.0519471,5.7237511,-4.4472346,-0.48794743,0.68927103,-0.5355491,0
-5.6104708,-3.5396552,4.95397,-0.67764264,-0.42752588,0.59834933,0
3.6182106,7.4663138,0.35889852,0.43568844,0.89905947,0.043216925,0
6.6100068,1.2856753,-4.8890023,0.79432797,0.15450028,-0.58751398,0
4.7020917,3.3833988,5.9491105,0.56627476,0.40746406,0.71645373,0
-7.7013059,-3.0271993,-1.2016449,-0.92102176,-0.36203164,-0.14370824,0
-2.5294118,7.8145361,0.32468897,-0.30770996,0.95065999,0.039499313,0
7.7651725,-2.764972,-1.5045778,0.92674822,-0.32999045,-0.17956649,0
-2.9595883,-5.701138,-5.2326469,-0.35721859,-0.68812019,-0.63157392,0
-0.79168284,2.5401158,-7.8255019,-0.09578234,0.30731782,-0.94677424,0
6.38381,-2.4094813,4.62257,0.77456778,-0.29234996,0.56087101,0
6.4122787,-2.5795891,-4.5634871,0.77421176,-0.31145689,-0.55099064,0
-7.1921859,2.9587519,2.7496228,-0.87191033,0.35869017,0.3333374,0
-6.8960114,-4.2806215,1.5624644,-0.8343035,-0.51788455,0.18903239,0
-0.088864736,0.93934608,8.1467199,-0.010835607,0.11453795,0.9933598,0
-4.6600022,-4.9082813,-4.8269014,-0.56056863,-0.59043503,-0.58064556,0
2.7024922,-7.6884141,1.1250409,0.32849699,-0.93455255,0.1367525,0
-5.090354,-3.1117792,5.8107662,-0.61121476,-0.37364107,0.69771689,0
-1.5070736,-6.5169353,4.8489184,-0.18241951,-0.7888242,0.58692378,0
6.2377839,1.2633648,5.2745185,0.75463247,0.15283892,0.6380989,0
-4.9546919,-6.5962362,0.72340298,-0.59828711,-0.79650629,0.08735209,0
-7.0273523,-4.30164,0.5415597,-0.85105926,-0.52095735,0.065586492,0
4.5100737,3.5197711,-6.0451941,0.54187453,0.42289203,-0.72631556,0
-6.1426754,5.6601505,-0.60741508,-0.7334637,0.67584801,-0.072528154,0
3.8261013,4.4744606,-5.9055505,0.45883188,0.53658408,-0.7082026,0
-2.8720579,4.375771,6.3886781,-0.34774831,0.52981764,0.77354014,0
-6.3475494,-4.1560621,-3.2465761,-0.76916271,-0.50360978,-0.39340305,0
-1.571261,-7.9081678,2.0481861,-0.18887989,-0.95063382,0.24621062,0
-3.5031688,6.804924,3.0394888,-0.4253923,0.82632685,0.36908731,0
-3.3929119,2.4082844,-7.2423143,-0.40621936,0.28833395,-0.86709243,0
-3.4137421,3.089592,6.925055,-0.41050366,0.37152448,0.83274025,0
1.8219852,-7.7874627,2.04632,0.22070225,-0.94331747,0.24787654,0
1.4591879,-6.3060336,5.1679816,0.17617272,-0.7613489,0.62394798,0
-2.5389092,-6.476965,-4.5678544,-0.30506918,-0.77825642,-0.54886234,0
5.4880333,3.0474596,5.5192928,0.65656424,0.36458468,0.66030401,0
-7.0796685,4.0378389,-1.7588202,-0.8491028,0.48427978,-0.21094477,0
-3.3615036,6.9172034,-3.0201156,-0.40683973,0.83718288,-0.36552188,0
-5.2754593,-3.837939,5.0625997,-0.63885075,-0.46476907,0.61307377,0
-6.6275992,-0.49834228,5.1049914,-0.79082686,-0.059463836,0.60914433,0
-6.5010023,1.7987586,-4.9438529,-0.77735025,0.2150846,-0.59115583,0
4.3187742,5.8398519,4.0781207,0.51846832,0.70107347,0.48957789,0
0.44102979,-7.6825132,-2.8220801,0.053808272,-0.93731254,-0.34431064,0
-6.4922314,4.6795716,1.9536741,-0.78808546,0.56804848,0.23715454,0
-6.8502488,3.6432538,-2.7628968,-0.83173782,0.44235355,-0.33546311,0
-6.6851401,-4.9239836,0.22240342,-0.80487692,-0.59283733,0.026776908,0
0.82672173,4.2952256,-7.0920725,0.099216975,0.51548094,-0.85113764,0
-6.628397,5.0879717,-0.48826802,-0.79189712,0.60786194,-0.058333565,0
6.6265121,4.4358125,-2.0901701,0.80384332,0.53809577,-0.25355259,0
-4.8058109,6.1150265,2.6785426,-0.58423561,0.74339503,0.32562661,0
5.4822397,2.1711507,-5.8400373,0.66058326,0.26161313,-0.70369613,0
-6.1973462,-1.3728924,-5.2030625,-0.75507915,-0.16727199,-0.63393652,0
1.6207768,-7.6971674,-2.8945987,0.19337212,-0.91833591,-0.34534964,0
-5.6179318,5.9990067,-1.1095684,-0.67739838,0.7233476,-0.13378942,0
6.210238,5.5544214,0.27685136,0.74495584,0.66628665,0.033210006,0
6.3568602,1.8705108,-4.8960524,0.77156472,0.2270335,-0.59425896,0
-3.7511494,-3.1096063,6.6778607,-0.45377862,-0.37617078,0.80782449,0
1.4329022,8.1152325,0.88553298,0.17288446,0.97913003,0.10684253,0
6.8505898,-0.56531429,4.8377686,0.81500274,-0.067254454,0.5755409,0
-4.7044735,5.4189215,4.2432065,-0.56430477,0.65000325,0.50897545,0
0.093007401,7.0355401,4.5257068,0.011117345,0.84097099,0.54096603,0
1.6701126,6.0389323,-5.5948267,0.19882284,0.71892023,-0.66605055,0
-7.5237441,0.20643382,-3.3839211,-0.91171616,0.025015343,-0.41005856,0
1.7595558,5.4599991,-6.0458388,0.21112336,0.65512747,-0.72542048,0
-4.0482707,2.6684809,-6.81074,-0.48422259,0.3191829,-0.81464767,0
-0.57452077,5.6460161,6.1653271,-0.068561286,0.67377567,0.73574841,0
1.7631941,-4.1851554,-6.966517,0.21202295,-0.50326222,-0.83771914,0
-7.9299741,-0.97224927,-1.8671308,-0.96652442,-0.11850009,-0.22757041,0
-6.2501101,4.8723183,2.6970711,-0.74661756,0.58203107,0.32218322,0
-3.7488608,2.2212811,-6.9840403,-0.45540416,0.26983681,-0.84840733,0
-3.4304333,-7.3451304,1.5368325,-0.41575465,-0.89020008,0.18625787,0
5.0185723,-4.8371339,-4.5587072,0.60257018,-0.58078521,-0.54735506,0
2.4568901,-2.5904725,-7.4844441,0.29628244,-0.31239146,-0.90256763,0
-6.7136869,-4.5616198,-1.6150405,-0.81123459,-0.55119395,-0.19515011,0
1.5012921,6.4923358,4.990766,0.18032703,0.77982402,0.59946364,0
-1.7302868,6.1279969,5.3683233,-0.20775309,0.73577994,0.64456701,0
8.1602783,-1.4814566,-0.66240412,0.98079395,-0.1780581,-0.079615168,0
-7.3730741,-2.7724569,-2.7398949,-0.88406062,-0.33242849,-0.32852417,0
6.1491113,-5.4975171,-0.46261406,0.74433172,-0.66545814,-0.055998061,0
4.4045014,-5.836534,4.218771,0.52175343,-0.69139081,0.49975199,0
2.5792849,-3.488663,7.0476222,0.31165776,-0.42153886,0.85157174,0
-8.0540352,-0.26810583,-1.8836843,-0.973212,-0.032396656,-0.22761561,0
-3.6461437,-7.3593903,-0.1030625,-0.44390759,-0.89598471,-0.012547565,0
-0.13158076,-8.1976337,-0.28612575,-0.016039234,-0.99926287,-0.034877729,0
6.5563478,4.9754333,0.22815672,0.79628867,0.60428172,0.027710337,0
-0.56982338,8.2226677,-1.4037905,-0.068151914,0.98344606,-0.1678959,0
-1.2079457,-7.6431499,-3.2012966,-0.1442482,-0.91271544,-0.38228646,0
-3.4136882,2.4210722,-7.2437749,-0.40805128,0.28940007,-0.86587626,0
6.8110437,-2.6624191,3.8571129,0.82380611,-0.32202363,0.46652365,0
1.7330941,-0.28230232,8.1726131,0.20732969,-0.033771768,0.97768807,0
-4.1932678,6.1471758,-3.6458626,-0.50604528,0.7418437,-0.43998417,0
-8.1602478,-1.9559892,0.21501347,-0.97213501,-0.23301812,0.025614679,0
3.3048928,4.937283,5.7989573,0.39807299,0.59469372,0.69848204,0
0.44439188,8.0709095,-1.829193,0.053621806,0.97386289,-0.22071654,0
-2.5097642,4.603518,6.4544535,-0.30180946,0.55359197,0.77617455,0
-2.3050635,-2.2886465,7.6048131,-0.27874324,-0.27675799,0.91962337,0
-6.2493386,-5.3433795,1.2802727,-0.75099963,-0.64212811,0.15385377,0
-7.3432517,-2.5115049,-3.1867859,-0.87527275,-0.29935673,-0.3798463,0
7.9987202,2.3025148,-0.91482395,0.95522511,0.27497149,-0.10925033,0
0.61270261,-5.0736909,-6.6456041,0.07308501,-0.60520512,-0.79270762,0
8.1926394,-1.6753614,-0.67462987,0.97655159,-0.19970082,-0.080414973,0
-0.025645841,-7.7095866,3.1782296,-0.0030753964,-0.92451775,0.38112673,0
-4.7503023,-4.7508998,-4.8776369,-0.57216877,-0.57224071,-0.58750606,0
-7.7799792,1.3776017,-2.704308,-0.9316228,0.16496255,-0.32383057,0
1.9065878,-4.6225271,6.5827718,0.23063909,-0.55918509,0.79631501,0
2.0642278,-7.3572264,-3.06387,0.25073564,-0.89366049,-0.37215921,0
3.0347447,-7.2173376,2.7387598,0.36586979,-0.87012452,0.33018574,0
0.48434862,-8.2405043,1.4260111,0.057818912,-0.98370671,0.17022946,0
1.181655,6.8495851,4.6801419,0.14101653,0.81741679,0.55851948,0
1.5767499,-1.6229694,-7.9518366,0.19071621,-0.19630671,-0.96181655,0
-2.6654158,-6.0543847,5.0633612,-0.31995773,-0.72677112,0.60780823,0
6.4183588,0.19479318,-5.2053652,0.77646369,0.023565186,-0.62972122,0
-5.6157293,3.5118003,-5.0670714,-0.6734032,0.42111316,-0.60761154,0
2.6282003,-7.5110722,-2.4113803,0.31608132,-0.90332139,-0.29000539,0
2.8042552,0.28285527,-7.7849998,0.33869874,0.034163341,-0.94027448,0
3.6115315,-7.5903258,0.041126132,0.42964625,-0.90298396,0.0048925751,0
-5.7133327,-5.9236712,-0.41400653,-0.69333571,-0.7188611,-0.050241344,0
-3.7894127,0.58388865,-7.3189979,-0.45862988,0.070667624,-0.885813,0
-1.7477505,-8.0084114,-1.6287175,-0.20913228,-0.95827031,-0.19488904,0
-6.1118703,-4.9358182,2.5609808,-0.73967421,-0.59734535,0.30993646,0
4.8779769,5.0253363,-4.4350157,0.58844298,0.60621935,-0.53500742,0
0.089803733,6.581491,-5.2444863,0.010670621,0.78202307,-0.6231581,0
2.2686541,-7.9346137,-0.88553357,0.2733337,-0.95598412,-0.10669152,0
-3.8405433,-7.1122184,1.925379,-0.4622114,-0.85595924,0.23172039,0
-6.00983,-4.0831938,-4.1206875,-0.71949202,-0.48883668,-0.49332538,0
-1.7110776,-8.1002378,-1.2354999,-0.20441347,-0.96769297,-0.1475987,0
-3.1100442,4.2508521,-6.4855518,-0.37224156,0.50878495,-0.77625644,0
1.5927536,4.819797,6.6778874,0.1898808,0.5745942,0.79610723,0
0.28981256,-3.8582411,7.3207183,0.035000362,-0.46595576,0.88411552,0
8.1392965,-0.95271349,1.3928657,0.9791761,-0.11461362,0.16756494,0
0.27433836,7.9166822,2.2599878,0.033303533,0.96105218,0.27435309,0
7.8643761,-0.70488399,-2.4925618,0.94980568,-0.085131079,-0.3010346,0
3.5899496,6.383513,-3.8100514,0.43485489,0.77324259,-0.46151611,0
-1.8885168,-6.4397907,-4.8442283,-0.22817236,-0.77806151,-0.58528417,0
-8.0415401,1.1347771,1.8058515,-0.96658158,0.13639858,0.21706076,0
4.6469712,6.8287654,-0.034697942,0.56258738,0.82672709,-0.0042007198,0
2.948905,-1.7875768,-7.6565371,0.35117453,-0.21287611,-0.91178954,0
-2.6679859,-6.7036185,-3.9976621,-0.32345057,-0.81270635,-0.48465249,0
7.2829409,0.64195013,-4.0548778,0.87112921,0.076785125,-0.48501322,0
3.1667349,7.5585837,0.78440654,0.38465798,0.91812849,0.095280543,0
1.578052,1.4576057,-7.9362626,0.19193351,0.177284,-0.96526265,0
-0.35053432,0.75146073,8.225338,-0.042401493,0.090898536,0.99495709,0
-0.13976057,-0.5148921,-8.1923456,-0.017023835,-0.062717535,-0.99788618,0
-0.5356164,-7.3200002,3.7974553,-0.064814985,-0.88579386,0.45953038,0
-5.06112,6.1957374,2.3453825,-0.60707891,0.74317569,0.28132749,0
-8.08848,-0.33447924,1.8603126,-0.97376579,-0.040267695,0.22396158,0
6.5699453,2.6920309,4.2415137,0.79438031,0.32549682,0.51284677,0
-4.9757581,6.3178158,2.1507528,-0.59771854,0.75893474,0.25836158,0
-2.4036067,-7.2146325,3.2163732,-0.29110938,-0.87378991,0.38954645,0
-7.2841096,-2.2212973,-3.1892333,-0.88226724,-0.26904836,-0.38628688,0
6.2507381,-5.2596555,-1.489151,0.75275534,-0.63340259,-0.17933343,0
-3.3719578,4.1662054,-6.3755536,-0.40483728,0.50019467,-0.76544899,0
-0.98457712,-0.014211416,8.2382469,-0.11866828,-0.0017128616,0.99293244,0
5.6207581,0.63240427,6.0441203,0.67900467,0.076396361,0.73014814,0
3.4998233,7.2524986,2.288007,0.41806269,0.86632919,0.27330819,0
2.3478684,-6.0685472,-5.1940646,0.28200096,-0.72888929,-0.62385571,0
7.7174082,-1.5970317,2.8538194,0.92074305,-0.19053753,0.34048146,0
1.8094884,-0.83477676,-7.969244,0.22027664,-0.10162089,-0.97012961,0
-0.60200185,-6.8941712,4.4824023,-0.073012069,-0.8361398,0.54363531,0
2.9360569,5.3624992,-5.4931197,0.35723004,0.65245527,-0.66834784,0
-6.7019477,3.2833498,3.5598454,-0.81053448,0.39708877,0.43052819,0
-4.6661854,-4.4308295,-5.3792534,-0.55635875,-0.52829683,-0.64137936,0
4.3367372,4.2489486,5.6996536,0.5207743,0.51023227,0.68443924,0
4.9199901,4.9588962,-4.4151216,0.59536713,0.60007513,-0.53427309,0
-4.9621501,1.8015723,6.4440656,-0.59567195,0.21626635,0.77356571,0
7.0567074,2.8768508,-3.53107,0.84019232,0.34252632,-0.42041957,0
-1.5981361,4.6791234,-6.6589251,-0.19268709,0.56416142,-0.80286592,0
8.1327705,1.4066008,-0.58838677,0.9828763,0.16999307,-0.071108781,0
-7.8947368,2.2480948,-0.021018296,-0.9617632,0.27387041,-0.0025605191,0
0.26650044,-6.5849652,5.0626993,0.032068081,-0.79237092,0.60919619,0
-3.758708,-7.3521161,0.16806947,-0.45510897,-0.89020324,0.020350058,0
6.210834,-4.6825271,2.8392663,0.7500813,-0.56550795,0.34289768,0
-7.3073912,3.6939766,-1.3588178,-0.88040978,0.44505802,-0.16371322,0
-4.1575975,4.5103517,5.5396605,-0.50301266,0.54569113,0.67022347,0
3.1001124,6.6749501,-3.9358366,0.37144691,0.79977411,-0.47158107,0
3.2823527,-7.5414219,0.81058961,0.39715713,-0.91249472,0.09807948,0
4.8518424,6.6298289,0.89448243,0.58709979,0.80224597,0.10823733,0
3.1457522,4.6162143,6.1677642,0.37802941,0.55473685,0.74118876,0
0.60950828,-1.6050304,8.0526419,0.074026674,-0.19493593,0.9780184,0
-4.5115657,-6.7051105,-2.2175286,-0.53835088,-0.80009967,-0.26461068,0
-4.7821121,1.6538589,-6.7332335,-0.56777114,0.19635953,-0.79942405,0
-0.028870182,5.3864851,-6.4653354,-0.0034307181,0.64008987,-0.76829243,0
-7.1918049,1.9290814,-3.7349405,-0.86333525,0.23157525,-0.44835836,0
-3.7325578,5.5317259,-4.9718637,-0.44853076,0.66473162,-0.59745461,0
-0.19946459,-5.3501563,-6.4343839,-0.023829475,-0.63916814,-0.7686978,0
5.2049675,-3.1001236,-5.6524353,0.62818843,-0.37415445,-0.6821934,0
7.208477,2.9578245,2.9500523,0.86520898,0.3550176,0.35408473,0
1.2226398,2.0462141,7.928494,0.14767855,0.24715532,0.95765615,0
-6.7928805,-0.57069886,4.8436527,-0.81231141,-0.068245746,0.57921737,0
5.5358219,1.6955259,-5.9533811,0.666614,0.20417227,-0.71689576,0
8.1960497,-0.74983692,1.4366722,0.98100716,-0.089749992,0.17195915,0
-4.047576,0.47183654,-7.2321219,-0.48759222,0.056839906,-0.87121934,0
-3.504684,6.2713351,4.2277718,-0.42043477,0.75233245,0.50717902,0
-5.3333344,2.1624198,5.9607863,-0.64368564,0.26098469,0.71941346,0
-1.2620894,-4.221868,7.0868182,-0.15123789,-0.50591224,0.84922314,0
6.7560883,2.6249979,4.0297503,0.81467134,0.31653088,0.48592055,0
5.3965688,-0.39934391,6.3259344,0.64826339,-0.04797123,0.75990355,0
-1.8268579,0.72816724,-8.123807,-0.2185639,0.087117374,-0.97192609,0
1.0781285,-7.2430806,4.1434798,0.12813723,-0.86085135,0.492459,0
7.4193687,-3.0520055,-2.2509,0.89042759,-0.36628318,-0.27013937,0
1.8123697,6.2138262,-5.1886487,0.21847135,0.74904311,-0.62546349,0
7.3639627,3.4385808,-1.5008987,0.89101905,0.41605872,-0.18160458,0
4.9881821,-5.879776,-3.3520391,0.59328538,-0.69932991,-0.39868549,0
-1.3799319,-6.6778212,4.6428289,-0.1672757,-0.80948716,0.56280488,0
4.3366876,-4.6868434,-5.2672172,0.52391303,-0.56621516,-0.63632983,0
-5.5218487,-4.3516765,-4.1784115,-0.67517066,-0.53209072,-0.51090515,0
-3.4458165,-4.5491757,-5.9266725,-0.41880971,-0.55291367,-0.72033668,0
-7.1363168,3.9196038,1.507262,-0.86185038,0.47336915,0.18203148,0
-3.6998141,-3.4024482,-6.6945057,-0.44195461,-0.40643328,-0.79968005,0
4.0430446,-6.9543953,-1.9487983,0.4884713,-0.84021395,-0.23544931,0
6.7802181,-4.4477935,-1.5055704,0.82209551,-0.53929108,-0.18254909,0
-7.6846356,1.6846954,-2.9367552,-0.9151206,0.20062102,-0.34972188,0
2.9861426,-0.96843708,7.7227244,0.35820574,-0.11616985,0.92638719,0
1.6607672,5.9927993,-5.5098524,0.19988905,0.72129011,-0.66316289,0
3.7221174,-6.9704509,2.5146739,0.44885552,-0.84057671,0.30324817,0
-2.4766784,2.2587759,-7.4848619,-0.30199093,0.27542126,-0.91265804,0
4.4508386,0.37956882,7.0818172,0.53157395,0.045332786,0.84579784,0
-2.2871182,-6.3743491,-4.8894677,-0.27381286,-0.76313448,-0.58536506,0
-1.9000378,-5.7088485,5.7583909,-0.22814302,-0.68547791,0.69142663,0
5.1840601,5.1772838,-3.5760167,0.63586968,0.63503855,-0.4386293,0
-3.799232,-5.9107571,4.4341688,-0.45726424,-0.7114011,0.53368336,0
-5.7689867,2.891012,-5.2017183,-0.69603413,0.34880355,-0.62759262,0
-0.28937224,-7.1973834,4.1723423,-0.034762215,-0.86461991,0.50122249,0
5.1481285,-5.1312256,3.9299355,0.62303412,-0.62098855,0.47560662,0
7.5091233,-1.3584888,3.2132306,0.90690643,-0.16407004,0.38807452,0
6.0163298,-0.34031922,5.7026649,0.72516209,-0.041019462,0.68735534,0
7.9582872,2.2343774,-0.90860313,0.95700938,0.268691,-0.10926241,0
-3.2966087,-2.0484989,-7.3287477,-0.39751509,-0.24701422,-0.88372266,0
0.58162653,2.2952478,-7.899374,0.070529178,0.27832627,-0.95789361,0
5.1803355,3.4260345,5.5879145,0.62006217,0.41008046,0.6688475,0
4.1057668,0.39355296,7.1877985,0.49543846,0.04748961,0.8673439,0
1.3148873,5.6128573,6.0009804,0.1580137,0.6745128,0.72115463,0
1.2249403,-5.7334833,5.7644572,0.14898217,-0.69732928,0.70109648,0
4.2199287,-5.9322343,3.7860069,0.51426971,-0.72294313,0.46138901,0
-0.027149713,1.3729568,8.1830149,-0.0032720598,0.16546756,0.98620987,0
2.7885413,0.73168439,-7.7314119,0.33794653,0.088673674,-0.9369787,0
1.0331483,-7.8773704,-2.5271213,0.12392227,-0.94486105,-0.30311874,0
0.74415267,-8.0376616,2.2184789,0.088892847,-0.96013987,0.26500869,0
1.0479573,-7.77495,2.6396899,0.12660402,-0.93929392,0.31890169,0
-0.29334229,7.7047768,3.0033782,-0.035450697,0.93112963,0.36296111,0
-2.3854809,-4.9529123,6.0920796,-0.29070637,-0.60358614,0.74241066,0
5.3530331,-6.4058681,-0.020396234,0.64122885,-0.76734579,-0.002443223,0
-2.6207867,-6.109015,4.7465386,-0.32085547,-0.74790937,0.58110523,0
-2.0580959,7.9727187,0.18582632,-0.24988499,0.96801257,0.022562217,0
1.0116607,-8.0417242,1.7215494,0.12209391,-0.97052848,0.20776796,0
5.1143837,-4.1859107,4.9869576,0.61772376,-0.50558126,0.60233301,0
1.3365973,8.2272701,-0.61541772,0.15992171,0.98437953,-0.07363373,0
-4.559051,6.8688788,1.0312641,-0.5487262,0.82673651,0.12412268,0
6.5138435,3.6258168,-3.7412701,0.78093421,0.43469334,-0.44853485,0
-0.93872106,-0.24484414,8.2132463,-0.11350451,-0.029605081,0.99309635,0
6.3118815,4.7867284,-2.2705798,0.76594555,0.58086854,-0.27553442,0
-3.0723438,6.4580755,-4.1754975,-0.37099534,0.77983332,-0.50420469,0
-7.6396227,2.7375863,1.526149,-0.92516679,0.33152473,0.18481834,0
4.7197971,-5.809926,3.5027919,0.57109576,-0.70300138,0.42383802,0
4.7703362,1.0047371,6.8263693,0.56868386,0.11977725,0.81378877,0
2.1516914,-7.3299742,3.0081043,0.26207617,-0.89279139,0.36638734,0
7.6095939,2.0905473,2.6160297,0.91529244,0.25145391,0.31465966,0
0.5157128,-1.7488087,-8.0289421,0.062636986,-0.21240525,-0.9751721,0
-3.6790302,-4.8950386,-5.6472654,-0.44166225,-0.58764231,-0.67794609,0
7.4926744,-2.8189569,2.235733,0.90145564,-0.3391532,0.26898462,0
-4.1345329,5.2785573,4.8550406,-0.49944702,0.63764393,0.58648354,0
0.50100517,7.8300099,2.6267531,0.060551386,0.94633341,0.31746885,0
-5.3863044,-5.8245363,-2.5329998,-0.64677978,-0.69940203,-0.30415902,0
8.1291542,1.4564033,0.82839662,0.97941267,0.17546964,0.099806465,0
-3.904129,7.2139535,-0.097489402,-0.47592628,0.87940484,-0.011884281,0
2.1958225,-7.149991,3.3624651,0.26776296,-0.87188411,0.41002569,0
-0.58539748,6.4666381,5.095716,-0.070923977,0.78346711,0.61737275,0
6.1257029,5.6085925,0.062081993,0.7375313,0.67527151,0.0074746385,0
-6.5746465,1.151026,-5.0253272,-0.78691876,0.13776618,-0.6014809,0
7.3020616,-3.3952348,2.0204854,0.87951064,-0.4089455,0.2433612,0
2.7845867,-5.8194013,5.4348416,0.33010519,-0.68987423,0.64428574,0
5.5074158,-2.9833207,-5.4597106,0.66282153,-0.35904485,-0.65708017,0
3.6676793,6.4406991,-3.6678798,0.44350857,0.77883178,-0.44353279,0
-1.0971909,-8.1804342,1.3879251,-0.13109289,-0.97740221,0.16582997,0
6.5690761,-2.4090879,-4.3433275,0.79766834,-0.29253021,-0.52740061,0
4.0329123,-2.8983498,6.5803428,0.48918572,-0.35156515,0.79818493,0
7.7699809,-1.5208696,2.4033489,0.93906575,-0.18380953,0.2904644,0
4.388948,-5.6114416,4.4187822,0.52354562,-0.66937351,0.52710444,0
-7.9794507,-1.5357403,-1.6988555,-0.9611966,-0.18499371,-0.20464242,0
3.6875954,-6.657124,3.4230993,0.44191107,-0.79777104,0.4102146,0
5.9573078,-1.5928297,-5.4142885,0.72595513,-0.19410159,-0.65978301,0
0.20470604,-6.3914456,5.2992864,0.024648193,-0.76957953,0.63807511,0
-7.6204081,-3.2519917,-1.3405668,-0.90794325,-0.38746271,-0.15972354,0
-4.1266179,5.8507347,4.3149877,-0.49365133,0.69990075,0.51618528,0
-3.5343101,-4.54561,-5.8959603,-0.42886218,-0.55157584,-0.7154308,0
2.2781391,7.8654528,0.94005305,0.276389,0.95425457,0.11404937,0
5.5285468,-1.6846843,-5.7963352,0.67541701,-0.20581618,-0.70813245,0
0.070356846,8.3611898,-0.34179837,0.008407373,0.99913013,-0.040843595,0
3.2444706,-7.1445189,2.9297898,0.38736141,-0.85299307,0.34979126,0
3.8114989,-5.8688207,-4.5410304,0.45689622,-0.7035138,-0.54434741,0
-6.4980249,5.1992378,0.15668872,-0.7806825,0.62464428,0.018824819,0
-0.046014726,8.0476875,-2.3100543,-0.0054957406,0.96117061,-0.27589992,0
5.8412714,-5.143466,3.0332937,0.69928235,-0.61574525,0.36312792,0
2.4213333,-5.8702874,-5.4185319,0.29006094,-0.70322454,-0.64910698,0
6.6076241,3.1929169,3.9503253,0.79282337,0.38310581,0.47398433,0
-6.4088917,2.9368722,4.4604664,-0.76823545,0.3520436,0.53467721,0
1.8882874,2.3614106,7.830976,0.22494589,0.28130761,0.93288016,0
-5.9643841,5.2646666,-2.1688313,-0.7233175,0.63846081,-0.26302025,0
6.2752786,-4.9135208,-2.5698776,0.74936473,-0.58674991,-0.30688289,0
1.2028799,-4.9484658,-6.4813523,0.14593269,-0.60034502,-0.78631389,0
3.2835085,7.507319,0.2509383,0.40053442,0.91577029,0.030610373,0
-2.1834049,8.0356436,1.0297838,-0.26022571,0.95771563,0.12273318,0
-2.5640512,1.5556051,7.8007455,-0.30680063,0.18613537,0.93339545,0
0.91463137,3.1190648,-7.6066971,0.11056878,0.37706029,-0.9195652,0
-1.1800942,-7.6690116,-3.1639845,-0.14082997,-0.91520369,-0.37758324,0
-3.1991632,-1.2642576,7.5371342,-0.38613877,-0.15259579,0.90973151,0
-2.8923821,-3.0871329,-7.1437235,-0.34838104,-0.37183836,-0.86044574,0
-6.5027452,-2.4212985,4.6548896,-0.77824813,-0.28978086,0.5570969,0
-6.9979134,2.0630405,-3.792104,-0.85108471,0.25090656,-0.46119487,0
-7.8601246,0.5907926,2.2875516,-0.95767277,0.07198181,0.27871391,0
4.1635814,-2.2834876,6.9090457,0.49663445,-0.27237573,0.82411504,0
-1.8530594,7.7732153,1.9560542,-0.22524232,0.94484669,0.23776151,0
-7.6027584,0.35066193,3.3725886,-0.91328621,0.042123489,0.40513438,0
4.3382545,6.4711804,2.7333798,0.52544194,0.78377831,0.33106229,0
6.390707,-2.1809926,-4.8692689,0.76764137,-0.26197729,-0.5848887,0
-8.0102224,1.2059051,-2.0307796,-0.95917439,0.14439964,-0.24317324,0
-7.2969713,3.2944074,-1.9887799,-0.88453555,0.39934656,-0.241079,0
-0.079470024,-7.7637854,3.0293691,-0.0095353508,-0.93155152,0.3634842,0
-4.1139798,-2.8422027,6.6997604,-0.49210235,-0.33997607,0.80140597,0
-0.86740357,-5.790626,5.9037628,-0.10431874,-0.69641262,0.71001905,0
5.5152931,-5.650795,2.4167922,0.66789109,-0.68430007,0.29266873,0
5.3231831,5.4942822,3.3228359,0.63822979,0.65874398,0.39839566,0
0.83680385,2.4582977,-7.8468986,0.10124145,0.29741931,-0.94936389,0
-7.1957355,3.7519755,-1.592047,-0.870116,0.45369288,-0.19251202,0
1.9617208,-7.9127636,-1.8408465,0.23472397,-0.9467786,-0.22026111,0
-7.4038663,-1.2038646,3.7874784,-0.88109112,-0.14326492,0.45072579,0
7.1719036,-3.1696002,2.4045534,0.87446344,-0.38646638,0.29318494,0
2.8698211,4.9786997,6.1289992,0.34157771,0.59258497,0.72949827,0
-0.9104951,-5.6465945,-6.0217099,-0.10963137,-0.67989808,-0.72506517,0
2.2700942,-2.6216643,-7.561656,0.27288195,-0.31514326,-0.90896648,0
4.7190661,-6.7552047,0.50203502,0.57162219,-0.81826037,0.060811684,0
2.5733192,1.3406092,-7.7553658,0.3107726,0.16190164,-0.93659395,0
-0.90212715,-2.9821293,-7.684485,-0.10879411,-0.35963678,-0.92672819,0
-0.056239739,7.7191062,-2.8132753,-0.0068451669,0.93952376,-0.34241515,0
7.4218173,-1.4710929,-3.1945326,0.90367264,-0.17911872,-0.38896292,0
-5.6198282,5.6458187,-2.161937,-0.68084526,0.683994,-0.26191983,0
8.2311869,1.4318209,-0.45550135,0.9837445,0.17112306,-0.054438923,0
-0.86822665,7.9652944,1.9468184,-0.10529581,0.96600604,0.23610404,0
-7.2333527,-1.2393349,-3.6960278,-0.88029855,-0.15082698,-0.44980633,0
7.1613822,3.3003421,2.4543917,0.86716008,0.39963305,0.2971983,0
-2.1907156,-4.4763765,6.650341,-0.26360852,-0.53864181,0.80023468,0
-5.2547541,-3.9425116,-5.0951462,-0.63206536,-0.47422296,-0.612867,0
0.25367528,2.5898941,7.9305196,0.0303928,0.31029484,0.95015442,0
-4.377419,0.9516117,6.888999,-0.53270119,0.11580447,0.83834285,0
4.2165909,-4.4847279,5.4512525,0.51281482,-0.54542518,0.66297233,0
0.25775647,-5.0785751,6.6177435,0.03088446,-0.6085164,0.79294002,0
2.3392482,7.6821079,-2.1591916,0.28130889,0.92382038,-0.25965598,0
0.52024764,8.0115757,2.3901749,0.062106591,0.95641309,0.28533643,0
4.8927293,-5.150919,4.2237849,0.59197783,-0.62321657,0.5110414,0
5.9647613,-2.4263589,-5.3116031,0.71456707,-0.2906732,-0.63631994,0
-4.7300677,6.4695663,1.9011583,-0.57426733,0.78545612,0.23081553,0
2.3617873,-7.7109661,-2.1877198,0.28264484,-0.92280316,-0.26181346,0
-6.8204799,-0.55099541,-4.621614,-0.82600087,-0.066728838,-0.55970508,0
-0.92224604,6.6379366,-4.8775601,-0.11126482,0.8008371,-0.58845562,0
-0.66959083,6.4005404,-5.3850198,-0.079795957,0.76276022,-0.64173937,0
0.33882695,6.4886856,-5.1230507,0.040949482,0.78420061,-0.61915463,0
-4.9682565,6.0593486,-2.9878554,-0.59243995,0.72254723,-0.35628694,0
2.6222315,1.2532351,-7.6781607,0.31940255,0.15265109,-0.93524313,0
-3.5303938,-5.3970523,5.2898226,-0.4232524,-0.64704263,0.6341871,0
1.8853928,-7.4316306,3.2071571,0.22686008,-0.89421171,0.38590151,0
3.5951359,-7.3192649,0.8830902,0.43831229,-0.89235115,0.10766472,0
-1.4875129,2.1220608,-7.885169,-0.17921618,0.25566676,-0.95000845,0
-6.9905109,-2.9495018,-3.5125351,-0.83609515,-0.35277307,-0.42011428,0
-4.2679052,6.9747434,1.2169557,-0.51625896,0.84368646,0.14720671,0
6.2998409,2.5839212,4.7968802,0.75636077,0.31022635,0.57591486,0
-8.1563444,1.0681862,-0.89587373,-0.9857046,0.12909167,-0.10826748,0
-2.5200484,-2.4792511,-7.4899836,-0.30426762,-0.2993418,-0.90433162,0
1.5635448,8.1001673,-0.15761352,0.18949313,0.98169625,-0.019101901,0
1.3059767,4.1490912,-7.0937519,0.15694632,0.49861881,-0.85249466,0
7.6277823,2.8371847,1.8133869,0.91482937,0.34027451,0.2174865,0
3.1319823,7.2946992,2.4038179,0.37759322,0.87945223,0.28980538,0
-5.9018273,-4.686523,3.4358785,-0.71256322,-0.5658322,0.41483432,0
0.031731084,5.9932222,-5.7741094,0.0038127953,0.72014338,-0.69381481,0
-4.4632115,4.0357013,-5.7884555,-0.53455138,0.48334917,-0.6932736,0
-5.2472944,-3.1802442,-5.5827298,-0.63254893,-0.38337091,-0.6729849,0
6.0852437,-5.5365477,1.2218866,0.73164177,-0.66567087,0.14691003,0
-3.8641479,-7.3178897,-0.45106515,-0.46624875,-0.88297784,-0.054425601,0
2.3973033,-5.0231209,-6.018671,0.2924341,-0.61274344,-0.73418522,0
-3.6036415,-7.0845494,2.0752215,-0.43867454,-0.86240858,0.25261858,0
1.4482828,6.9343266,4.2517219,0.17529587,0.83931041,0.51461583,0
-4.3478174,6.6900287,1.8707057,-0.53053916,0.81634575,0.22827147,0
-5.041944,4.5241017,-4.8740144,-0.60416275,0.5421111,-0.58404016,0
-3.046283,7.5394197,-1.1303692,-0.37105557,0.91834658,-0.13768576,0
-4.1761975,0.26956618,7.1904297,-0.5019716,0.032401379,0.86427695,0
1.4036275,7.6961875,2.6197884,0.17013383,0.93285567,0.31754482,0
3.3532052,4.2928319,6.1870732,0.40677863,0.52076513,0.75055629,0
3.4393213,3.5259838,-6.5723615,0.41875291,0.42930448,-0.80021471,0
-5.7856154,-1.2196146,-5.7161555,-0.7034983,-0.14829828,-0.69505233,0
7.673861,-2.7258737,1.5746948,0.92517823,-0.32863757,0.1898488,0
-0.57568866,-5.3340468,6.4112868,-0.068863027,-0.63805079,0.76690871,0
7.2247157,4.1068082,0.88392371,0.86448431,0.49140635,0.10576723,0
-5.1753521,-5.3901558,-3.7256804,-0.61981934,-0.64554501,-0.44620126,0
7.2482691,3.552706,1.8170274,0.87601912,0.42937675,0.21960425,0
-0.33606741,-2.8792863,7.7756987,-0.040497478,-0.34696561,0.93700308,0
-2.5320911,0.76900119,-7.8147197,-0.30689716,0.093205281,-0.94716781,0
0.87271041,-7.7345338,2.987402,0.10467645,-0.92771155,0.35832119,0
7.7137713,1.0989972,2.9428566,0.92614597,0.13194996,0.35333103,0
-6.7479196,-1.5113908,-4.6400757,-0.81030726,-0.18149163,-0.55719203,0
2.7948174,-5.6296954,5.2737279,0.34063721,-0.68615705,0.64277112,0
6.9740705,4.1786876,-2.0135016,0.83264977,0.49890277,-0.24039643,0
5.0622468,5.9063416,-2.9341476,0.60889173,0.71042019,-0.35292199,0
-3.1714034,7.5683417,1.2508869,-0.38206264,0.91176689,0.15069579,0
4.9616985,2.1286955,6.2167497,0.60259104,0.25852695,0.75501519,0
8.0942087,1.1840452,-1.4910512,0.97343129,0.14239645,-0.17931782,0
-7.1764722,-0.56209528,-4.1304188,-0.86471009,-0.067728192,-0.49768391,0
-1.9050049,-2.7836525,-7.5189338,-0.23116517,-0.33778575,-0.91239429,0
-1.0112448,6.5899777,-4.9638233,-0.12166028,0.79282337,-0.5971849,0
7.4676666,3.6350472,0.44281772,0.89785898,0.43705216,0.053241245,0
7.5549941,-1.6389949,-2.8052828,0.91865426,-0.19929461,-0.34111014,0
2.7565091,-6.5348816,-4.2553473,0.33327016,-0.79008669,-0.51448417,0
5.8977799,5.8982158,1.3189493,0.698403,0.69845462,0.15618727,0
-7.4485941,-0.86815375,-3.6408904,-0.89352977,-0.10414331,-0.43675947,0
-3.5064363,-5.7067251,4.8658953,-0.42354336,-0.68931681,0.58775276,0
-4.6606164,-4.7569027,4.8901916,-0.56409115,-0.57574505,0.59187746,0
4.800108,-6.9253635,0.11084443,0.56961197,-0.82180858,0.013153519,0
2.5167601,0.72562027,-7.8246322,0.30501035,0.087939128,-0.94828022,0
5.1707921,-3.1416311,-5.7036948,0.62186384,-0.37782738,-0.6859532,0
-4.769062,-6.5264115,-1.5455251,-0.57949966,-0.79303926,-0.1878003,0
-4.9048867,-6.007894,-2.9645655,-0.59073007,-0.72357303,-0.3570435,0
6.7321086,-4.6202698,1.7115138,0.80696446,-0.55382258,0.20515575,0
-5.3083043,-1.0188618,6.3613758,-0.63590401,-0.12205372,0.76205581,0
-4.1961584,-6.4540391,-2.9787214,-0.50835407,-0.78189063,-0.36086461,0
3.4188871,-4.8782125,5.8225112,0.41043511,-0.58562613,0.69898856,0
6.990346,1.1539811,4.3058958,0.84314501,0.13918816,0.51935834,0
6.9177184,3.1448092,3.2745817,0.83602744,0.38005981,0.39574322,0
7.9007568,1.7935685,1.5195926,0.95847398,0.21758533,0.18434817,0
7.248148,3.4642773,-1.8011485,0.88038588,0.42078346,-0.21877392,0
-1.231079,-5.042901,-6.5113754,-0.14783598,-0.60558444,-0.78192836,0
6.2069654,4.7641568,-2.6211925,0.75218397,0.57733887,-0.31764621,0
-3.8761249,2.5507424,6.9852605,-0.46221545,0.30416784,0.8329699,0
4.8372898,2.384527,-6.4371791,0.57602042,0.28394747,-0.76653391,0
-6.384007,0.42492792,-5.1676493,-0.77622801,0.051666759,-0.62833172,0
2.6857333,-7.8730903,-1.3355693,0.31877729,-0.93447936,-0.15852249,0
-0.67422092,-8.185504,0.080189474,-0.082085766,-0.99657744,0.0097629931,0
0.57783866,-7.0677571,4.5218549,0.068705529,-0.84036261,0.53765255,0
-5.9805965,-2.1623602,5.3427191,-0.72004193,-0.26034024,0.64324379,0
3.2245333,1.725618,-7.4681339,0.38777143,0.20751695,-0.89809239,0
-3.1578405,5.0145388,5.9401159,-0.37635356,0.5976361,0.70794702,0
-5.6018143,-3.6415198,4.9134951,-0.67544007,-0.43907711,0.59244579,0
-3.5197589,-4.0243793,6.2837944,-0.4266127,-0.48777524,0.76162785,0
5.2432289,-3.836561,-5.2231507,0.62897235,-0.4602299,-0.62656379,0
4.5911121,-6.7582164,1.2225784,0.55574775,-0.81807274,0.14799142,0
-6.4821877,5.0592861,-0.031295676,-0.7883091,0.61526775,-0.0038059165,0
-4.2307396,4.2350445,-5.8060193,-0.50732297,0.50783914,-0.69622028,0
4.4126949,-2.5496285,6.5690928,0.53074372,-0.3066605,0.79010779,0
7.5897532,2.7402806,1.484081,0.92505711,0.33399191,0.18088332,0
6.8862734,-4.1403813,1.8149509,0.83595926,-0.50262165,0.22032599,0
0.095142543,-5.5696206,6.0681272,0.011550313,-0.67615241,0.73667115,0
-6.5694695,-5.0734091,0.4523274,-0.7902872,-0.61031568,0.054413609,0
6.8776584,4.7046299,0.74473125,0.82209402,0.56234956,0.089018539,0
2.5277281,-0.71588308,7.8335772,0.30593243,-0.086643755,0.94810247,0
0.93325531,8.1991253,1.4051045,0.11148886,0.97948664,0.16785707,0
-4.7017207,-5.6575861,-3.8620882,-0.56589693,-0.68094444,-0.46483913,0
3.4983428,-7.4330726,0.96987027,0.42290255,-0.89855844,0.11724426,0
-0.93504333,0.033086922,8.2752905,-0.11227685,0.0039729662,0.99366897,0
-4.3925242,-0.0039625051,7.0668273,-0.52790213,-0.00047622161,0.84930509,0
1.4217155,6.3139129,5.2391748,0.17073956,0.75826329,0.62919366,0
-6.6165051,0.62357241,5.1045651,-0.78956378,0.07441242,0.60914028,0
-0.019488884,8.1262951,-1.3823069,-0.0023642816,0.98583633,-0.16769369,0
5.8580008,-5.6634121,-1.6740884,0.70423633,-0.68084329,-0.20125532,0
-8.0594025,1.2224038,1.4081945,-0.9742617,0.1477704,0.17022975,0
0.17065591,7.5854945,-3.4691861,0.02045521,0.90921479,-0.41582462,0
7.3726573,1.0418724,-3.6266832,0.89018381,0.12579697,-0.43789023,0
5.0810885,-0.47273085,-6.4392529,0.61842793,-0.057536874,-0.78373241,0
3.4774094,0.69145614,7.4558039,0.42120415,0.083753206,0.90309054,0
-1.1839366,8.1497707,0.50992751,-0.1434885,0.98772037,0.061801221,0
-3.7763669,3.2427654,-6.617795,-0.4560388,0.39160043,-0.79917324,0
-3.08899,-5.4321647,5.4202776,-0.37341714,-0.65667528,0.65523827,0
-1.1236755,6.9787178,4.3967419,-0.13498493,0.83833969,0.52817196,0
-5.3540668,-1.9244,6.1901135,-0.63681674,-0.22888958,0.73625678,0
-1.4468945,6.9891043,4.2690063,-0.17397711,0.84038204,0.5133127,0
-0.33837292,0.62748802,8.3483982,-0.040384497,0.074890122,0.99637371,0
3.4988458,7.5538368,1.0154034,0.41719964,0.90071362,0.12107591,0
-8.1201849,1.7469528,1.1439446,-0.96848947,0.20835799,0.13643757,0
6.1963863,-2.2795451,-5.0308161,0.74649489,-0.27462277,-0.60607558,0
4.3654594,0.27742583,7.0870166,0.52417392,0.03331136,0.85095954,0
-4.1306357,2.481544,6.7883754,-0.49618453,0.29809061,0.8154403,0
