6.617661,-5.3838062,1.5865939,0.76263773,-0.62044489,0.18284352,0
5.4732862,2.8129444,6.1527648,0.62896371,0.32325003,0.70704609,0
0.49194995,8.7435331,0.12466529,0.056169894,0.99831975,0.014234042,0
5.3237848,-6.1389918,-3.133883,0.61127901,-0.70488137,-0.35983363,0
2.1330621,8.3747044,-0.44695184,0.24649319,0.96776724,-0.051649027,0
-3.1407046,7.8777146,2.4835088,-0.35540926,0.89146012,0.28103951,0
-2.3573172,-7.8197684,3.1900713,-0.26884681,-0.89182729,0.36382058,0
-4.201015,7.1539345,-2.677521,-0.48190078,0.82063186,-0.30713993,0
-1.3687754,6.3379335,5.868,-0.15651953,0.72474301,0.67100608,0
-3.1911073,5.7461205,-5.7643065,-0.36501804,0.6572758,-0.65935606,0
-6.1352053,3.4605103,5.0444779,-0.70813692,0.39941859,0.58224308,0
4.9804249,-4.9641581,5.064064,0.5747366,-0.57285941,0.58438849,0
6.7067785,-5.1290579,1.8791802,0.77536607,-0.59296685,0.21725073,0
7.1678882,1.1366413,4.9153004,0.81775588,0.1296749,0.56076711,0
3.2812438,-3.3192086,7.2787104,0.37948462,-0.38387537,0.84180236,0
-3.6324677,0.66382313,7.795804,-0.42110074,0.076954961,0.90374345,0
-5.4660554,-6.3092651,-2.2976584,-0.63131797,-0.72870696,-0.26537475,0
-7.5796337,-1.5558974,-4.0533595,-0.86772478,-0.17812084,-0.46403304,0
-6.6833282,0.53132802,-5.3678951,-0.7781657,0.061864574,-0.62500477,0
-3.9928794,7.2402534,2.5731132,-0.46110326,0.83611453,0.29714671,0
8.1968546,-1.6360257,2.1614823,0.94942629,-0.18949778,0.25036043,0
-6.3300214,-4.4900723,4.0805712,-0.72193104,-0.51208717,0.46538407,0
5.3287625,1.7370328,6.7782497,0.60586339,0.1974951,0.77066547,0
7.6636519,2.206918,-3.3749311,0.88496828,0.25484619,-0.38972372,0
6.1574578,0.3618136,-6.158669,0.70642781,0.041509859,-0.70656681,0
-5.5967641,5.9773054,-3.0175798,-0.64132768,0.68493354,-0.34578151,0
-4.4735661,7.0346241,-2.4381881,-0.51504236,0.80989736,-0.28070897,0
3.196779,7.3347068,-3.3942993,0.36781394,0.84391427,-0.39054015,0
-7.0965714,-1.5488962,4.7674189,-0.81678486,-0.17827128,0.54870939,0
7.2876368,-4.4930372,-1.6918547,0.83507401,-0.5148471,-0.19386585,0
-8.4357738,1.9196393,-0.36438432,-0.97420871,0.22169031,-0.042081069,0
-0.67482871,-1.8755507,-8.3978739,-0.07818494,-0.21729933,-0.97296876,0
4.6739831,4.2532101,-6.08952,0.53258699,0.48464113,-0.69388336,0
-4.398809,7.4793677,-0.33147302,-0.50658053,0.86134726,-0.038173463,0
-0.0031931461,-2.377198,8.4031973,-0.00036564254,-0.2722095,0.96223795,0
0.63511038,5.8159051,6.450706,0.072929092,0.66783458,0.74072814,0
-5.519908,-6.6813188,1.0042132,-0.63268656,-0.76580632,0.11510196,0
7.9126382,-2.9997685,-2.2182658,0.90449846,-0.34290537,-0.2535713,0
-3.0535691,7.9309506,-2.1035087,-0.34878233,0.90588272,-0.24026529,0
-5.1053529,6.7203841,-2.5128205,-0.57977033,0.76317531,-0.28535908,0
5.2983527,-2.8624854,-6.3146591,0.6071986,-0.3280448,-0.72366869,0
0.91812563,-5.2564993,6.8233371,0.10599364,-0.60684013,0.78772479,0
-3.5072148,-7.4889798,2.9377298,-0.39964366,-0.85336185,0.3347514,0
-5.9542809,-6.2163377,1.0893407,-0.68624771,-0.71645051,0.1255496,0
0.8689391,-3.1871421,-7.9612136,0.10081215,-0.3697643,-0.92364019,0
4.1357193,-1.248126,7.5066419,0.47751459,-0.14410996,0.86672491,0
7.2112918,-1.3849353,-4.5659328,0.83397621,-0.16016591,-0.52804399,0
8.2819109,-2.3580718,-0.97142839,0.95571256,-0.2721158,-0.1121005,0
4.7245803,-1.7359776,7.1808405,0.53876674,-0.19796193,0.81886601,0
4.2160854,-7.5382266,-0.0438269,0.48812801,-0.87275732,-0.0050741709,0
-5.0637779,-3.5457678,6.0538058,-0.5852499,-0.40980476,0.69967312,0
-0.19533236,-8.1787882,2.902046,-0.022502204,-0.94219291,0.33431447,0
7.3071971,-1.7672732,4.4855504,0.83469385,-0.20187385,0.51237994,0
-8.5688238,-1.2896755,0.44512257,-0.98756045,-0.14863563,0.051300559,0
7.5589461,-4.0817184,0.58898962,0.87785,-0.47402593,0.068401672,0
3.9440715,-4.297287,6.5587778,0.44935215,-0.48959434,0.74724835,0
-7.7743516,-3.9651587,-0.82374567,-0.88688236,-0.45233732,-0.093971245,0
-6.1483712,5.5792637,2.5857015,-0.70705271,0.64160627,0.29735148,0
-4.6746774,-5.8280435,-4.4833703,-0.53650713,-0.6688776,-0.51455104,0
1.3441291,-8.5043659,-1.6840727,0.15321054,-0.96937001,-0.19195899,0
4.0609279,-4.6789284,-6.01966,0.4701086,-0.54165071,-0.69685894,0
-3.6412728,7.9222255,1.0783635,-0.41446826,0.90174818,0.12274484,0
1.5552192,-5.2373624,-6.7855573,0.17852221,-0.60119218,-0.77890807,0
-7.4906058,-4.4313865,0.19899759,-0.86044395,-0.50903219,0.0228588,0
-7.1779928,4.8421187,0.72120893,-0.8261497,0.55730277,0.083007403,0
4.8113165,4.1281028,-6.1814198,0.54338294,0.46622181,-0.69812042,0
7.5183377,4.4706898,0.18620339,0.85932475,0.51098722,0.021282522,0
-4.5843401,-6.0571508,-4.0594831,-0.53225505,-0.70325261,-0.47131765,0
-1.1716027,8.2082405,2.6962862,-0.13437629,0.94143933,0.30924895,0
-3.8460584,7.3723063,-2.7509484,-0.43912446,0.84173453,-0.31409007,0
-2.4239633,-1.421616,8.19275,-0.27986205,-0.16413465,0.94590539,0
-6.1156926,2.3070986,5.9249811,-0.69322258,0.26151296,0.67160517,0
-4.7835236,4.6438322,-5.5851493,-0.55000776,0.5339461,-0.64217836,0
6.070179,-6.2038231,-1.0638293,0.69417131,-0.70945454,-0.121657,0
0.2496426,7.3719974,4.653142,0.028624598,0.8452903,0.53354007,0
-6.3559976,2.1211214,-5.6003904,-0.72782832,0.24289063,-0.64130336,0
-1.2376834,7.4810662,4.3060694,-0.14193426,0.85790884,0.49380863,0
6.1667695,3.1503386,-5.3128586,0.70654011,0.36094111,-0.6087057,0
-7.9311957,3.3155167,0.7378521,-0.9192481,0.38427779,0.08551915,0
5.1679349,3.1677537,6.1481757,0.59857106,0.36690199,0.71210647,0
-2.0757384,-8.3423233,0.76978272,-0.24049567,-0.96654403,0.089187257,0
-3.2810433,-3.962476,-7.0883017,-0.37461451,-0.45241737,-0.80930984,0
-7.9223309,-2.3367288,-2.8630209,-0.90624988,-0.26730269,-0.32750618,0
-4.5654917,3.8285115,6.2602777,-0.52826238,0.4429881,0.72436208,0
-6.4472322,-4.4299617,-3.8638318,-0.73896241,-0.5077489,-0.44286078,0
-4.5512571,5.7860584,4.5779252,-0.52500981,0.66745019,0.52808607,0
1.3212095,1.9911038,8.3220387,0.15259431,0.22996436,0.96116149,0
8.6216269,-1.2219244,0.40262648,0.98904878,-0.14017573,0.046188179,0
8.2120199,2.3586788,-1.6396246,0.94391656,0.27111429,-0.18846384,0
4.7798023,-7.0923824,-1.424034,0.55127656,-0.81799704,-0.16424039,0
5.6369777,-3.1725993,-5.7638741,0.65062827,-0.36618608,-0.6652748,0
-5.6046104,-6.1491227,-2.5409517,-0.64425147,-0.70684332,-0.29208308,0
6.6868844,2.4538531,4.864337,0.77525461,0.28449136,0.56395465,0
-8.2014303,2.8803782,-0.77659339,-0.93976057,0.33004802,-0.08898592,0
6.9095206,1.5655576,5.1029949,0.79136419,0.17930712,0.58445841,0
8.0761137,-2.7809653,-1.3526922,0.93387532,-0.32157484,-0.15641755,0
-5.4289627,3.2785888,-5.841517,-0.62963343,0.38024005,-0.6774801,0
-2.8297656,-8.0636463,-1.9989966,-0.32242736,-0.91878289,-0.22776842,0
4.3264022,-2.8797152,6.9824052,0.49704304,-0.33083895,0.80218059,0
2.0325327,-3.0201666,7.8501453,0.23488876,-0.34902424,0.90719861,0
2.7303817,-7.430789,3.8670006,0.3099001,-0.84339941,0.43890709,0
6.543232,5.6424346,0.66848236,0.75505507,0.65110773,0.0771394,0
-3.3450434,-2.1943984,-7.6604657,-0.38705975,-0.25391698,-0.88640338,0
0.19926631,6.2517099,-5.9952693,0.022999046,0.72156382,-0.69196582,0
2.4983172,-6.05586,5.7146063,0.28738746,-0.69662017,0.65736496,0
-4.5375042,-0.27332759,-7.3918676,-0.52288944,-0.031497516,-0.85181838,0
-0.64081424,-7.1816125,-4.9215274,-0.073406234,-0.82266444,-0.56376833,0
-8.2572165,-1.396163,2.5948966,-0.94182688,-0.15924783,0.29597667,0
4.3586926,-7.6172671,-0.23161608,0.49647865,-0.86764789,-0.026382323,0
-3.6307952,2.3553882,7.4668307,-0.42069754,0.27291709,0.86517614,0
-6.9871621,-5.071373,1.5138451,-0.79713637,-0.57857192,0.17270832,0
-3.632724,2.7635894,7.4972658,-0.4138715,0.31485212,0.85415369,0
5.5275049,0.078439645,6.6023636,0.64190626,0.0091091553,0.766729,0
-5.696733,5.9056301,2.8391647,-0.65609801,0.68015689,0.32698923,0
3.8882008,1.9865526,-7.4506583,0.45024282,0.23003726,-0.86276549,0
2.8357935,-7.6230259,2.9354496,0.32795441,-0.88158923,0.33947948,0
3.2610159,-3.9700298,7.0877361,0.37252006,-0.4535138,0.809663,0
-6.7455916,-5.1778393,-1.9746758,-0.77269357,-0.5931108,-0.22619502,0
-1.9665267,1.6954758,8.3744469,-0.22429125,0.19337666,0.95514345,0
-6.5013213,5.5142446,1.8352948,-0.74554485,0.63235092,0.21046409,0
3.6370096,-7.4932628,-2.2513349,0.4215273,-0.86846483,-0.26092839,0
8.0733929,-2.4207618,-2.1588943,0.92791134,-0.27822903,-0.24813142,0
-2.3043432,8.3314152,-1.6214228,-0.26200697,0.94729322,-0.18435797,0
-6.5536656,-0.91262811,-5.7075562,-0.74998468,-0.10443882,-0.65315807,0
-0.19484645,-8.4332638,-2.4124899,-0.022207985,-0.9611969,-0.274968,0
-8.066391,-2.9849672,0.57299262,-0.93577242,-0.34628248,0.066472188,0
4.0386944,-6.914216,3.2979989,0.4663662,-0.7984156,0.38083476,0
7.7969251,-3.7672439,-1.0351472,0.89404106,-0.43197423,-0.11869603,0
6.9366355,2.9943628,-4.3715377,0.79467589,0.34304065,-0.50081277,0
-2.0793743,-0.42479405,-8.4630299,-0.23832135,-0.048686516,-0.96996516,0
-4.717464,3.0768485,-6.6175995,-0.54286844,0.35407245,-0.76152909,0
-5.0543566,-6.7782536,-2.4353127,-0.57442546,-0.77034563,-0.27677226,0
8.0597105,-2.4940467,1.8543324,0.93303591,-0.28872439,0.2146676,0
-2.1721292,-7.3294935,-3.9763017,-0.25207841,-0.85059726,-0.46145499,0
-4.0143604,7.6185265,-0.41756123,-0.46561849,0.88365924,-0.048432179,0
-3.3563838,5.0996852,-6.2634873,-0.38373491,0.58304632,-0.71610367,0
0.22678538,4.5055013,-7.4322605,0.026084613,0.51821798,-0.85485071,0
1.1016991,-0.027356803,8.616642,0.12682408,-0.0031492277,0.99192023,0
3.9370744,5.4300318,-5.5151091,0.45340002,0.62533146,-0.63512909,0
5.2542391,0.34203348,6.9203787,0.60423231,0.039333515,0.79583675,0
3.6936827,7.7246056,1.0389544,0.42824838,0.89559662,0.12045716,0
-3.7137222,-5.1764936,-5.8606544,-0.42900941,-0.59798884,-0.67702311,0
7.0022092,-4.528728,2.6314771,0.80076259,-0.51789886,0.30093196,0
-2.01741,-1.9671985,8.261405,-0.23112312,-0.22537068,0.94646186,0
2.3975379,-8.3264532,-0.053965636,0.27669463,-0.96093774,-0.0062280558,0
5.5932083,-6.6869869,-1.0745826,0.63676667,-0.76128948,-0.12233737,0
4.3214588,-4.5254722,-5.9983716,0.49854937,-0.52208555,-0.69200808,0
-0.88009757,1.1911733,-8.50072,-0.10199569,0.13804668,-0.98515993,0
-3.1285057,5.9507189,5.5379481,-0.35917753,0.68319017,0.63580078,0
0.69916981,7.2610836,4.709074,0.080525391,0.83627975,0.5423575,0
-6.6342955,0.91579944,-5.6077466,-0.75951141,0.1048431,-0.64198941,0
-1.3444028,8.0314541,-2.8740563,-0.15568325,0.93005073,-0.33281872,0
-6.3079386,5.1676793,3.1559029,-0.72141522,0.59100807,0.36092874,0
-6.1195984,5.1323481,3.278321,-0.70881754,0.59446681,0.37971959,0
-8.3228102,0.11459958,-2.3932071,-0.96097296,0.01323196,-0.27632582,0
-4.0523381,4.7442317,5.9515204,-0.4699654,0.55020696,0.69022095,0
2.9422429,7.6575541,-2.9475887,0.33753568,0.87847871,-0.33814895,0
-5.185163,-6.872365,-0.56150603,-0.60101682,-0.79658192,-0.065084659,0
7.7809262,-3.5978129,-1.5433197,0.89330423,-0.41305384,-0.17718379,0
-1.6318197,-8.3988132,1.3234509,-0.18848358,-0.97010624,0.15286541,0
6.6371431,0.22707175,5.6701164,0.76006627,0.026003594,0.64932519,0
5.2787685,2.9653828,6.3711014,0.60059798,0.33738983,0.72487938,0
2.382091,-7.0264759,-4.3095946,0.27762935,-0.81892586,-0.5022772,0
-6.7289815,-5.3745151,0.95181429,-0.77663064,-0.62030381,0.10985439,0
-5.7831211,5.294776,3.7110913,-0.66666114,0.61036617,0.42780367,0
-1.4436603,-2.5206258,-8.2544088,-0.16497844,-0.28805181,-0.94329643,0
5.0302153,-5.8486805,-3.9395578,0.58072215,-0.67521137,-0.45480928,0
7.5012693,3.221705,-3.1547618,0.85707277,0.36810246,-0.36045372,0
6.9202943,3.1660736,-4.1187472,0.79973447,0.36588302,-0.47597745,0
-2.4179132,-7.1449542,4.2567801,-0.27916521,-0.82493556,0.4914754,0
-0.58322656,-8.6631088,0.53879213,-0.067042008,-0.99582601,0.061934259,0
2.283946,3.3907568,7.623476,0.26402497,0.39197269,0.88127649,0
-3.597765,-6.6033826,4.2343459,-0.41688672,-0.76515907,0.49064976,0
-2.3410301,-3.685766,7.4889789,-0.27004877,-0.42517036,0.86388874,0
-7.0365553,1.8679123,4.7832818,-0.80777562,0.21443078,0.54910654,0
1.2880937,4.868495,6.991097,0.14949878,0.56504744,0.81140089,0
-0.037204076,-8.5610247,1.023033,-0.0043150098,-0.9929263,0.1186536,0
-7.9788532,3.1663043,1.4079537,-0.91723126,0.36399132,0.16185524,0
0.095795892,8.738739,-0.84516209,0.010910649,0.99529648,-0.096259527,0
-1.0294023,-4.6152067,-7.4279604,-0.1169063,-0.52413595,-0.84357244,0
4.6163187,7.413383,-0.040145572,0.52858907,0.84886545,-0.0045968471,0
-4.6563659,-0.11430488,-7.295949,-0.5379374,-0.013205335,-0.84288138,0
-7.3498335,-4.6038537,1.0458374,-0.84137338,-0.52702689,0.1197224,0
7.106246,-4.4981546,2.1507571,0.81860781,-0.51816732,0.24775761,0
0.96887618,-5.8733377,6.3325715,0.11147834,-0.67578286,0.72862202,0
7.5913014,-3.8139884,-1.4365113,0.88105565,-0.4426561,-0.16672324,0
3.4912765,0.69274318,7.9308591,0.40162146,0.079690203,0.912332,0
-3.2132859,-7.0170627,3.7663176,-0.37417069,-0.817101,0.43856838,0
-7.5298228,3.2514474,-2.696368,-0.87214464,0.37660015,-0.31230786,0
-8.4677038,-1.4723111,-1.6598449,-0.96734411,-0.16819571,-0.18961942,0
1.7611378,-4.2912717,7.4076371,0.2015004,-0.49098539,0.84754401,0
-0.71257126,8.59828,1.1273185,-0.08189445,0.9881838,0.12956055,0
-8.1472988,-1.4057574,2.7248504,-0.93591827,-0.16148593,0.3130163,0
-5.318449,-0.67464322,6.8965139,-0.60885566,-0.077233106,0.7895124,0
7.8305345,-0.9690513,3.5864344,0.90347677,-0.11180786,0.41379806,0
-1.0373374,6.0898585,6.1536589,-0.11896732,0.69841707,0.70573401,0
-5.8472056,-4.0032439,5.1005216,-0.66970307,-0.458507,0.58418244,0
1.1677173,7.7979331,-3.9131045,0.13265771,0.88587874,-0.44454551,0
-4.9147706,-6.2810369,3.388073,-0.56718588,-0.72485894,0.39099833,0
4.2512779,3.2717018,6.8584442,0.48824754,0.37574592,0.78767341,0
4.1928873,7.3431864,-1.9248378,0.48348397,0.84674656,-0.22195403,0
-5.0517588,4.9433308,5.1074343,-0.57931387,0.56687987,0.58569854,0
4.0596118,-6.1940389,4.6606374,0.46393865,-0.70786422,0.53262478,0
0.026421305,-0.068392806,-8.664031,0.0030494304,-0.0078935958,-0.99996424,0
-7.7071939,2.7653058,2.8579218,-0.88867444,0.31885231,0.32953134,0
6.6086254,-1.5056567,-5.3877535,0.76325697,-0.17389441,-0.62225354,0
-8.2522726,-1.3540519,2.6465178,-0.94081557,-0.15437119,0.30172113,0
-4.2857723,-3.3848619,-6.7676401,-0.49282563,-0.38922894,-0.77821827,0
2.1155913,7.1125822,4.6744866,0.24122658,0.81099969,0.53300011,0
-4.9726157,-2.7175264,6.7711554,-0.56318086,-0.30777743,0.76687711,0
2.1265178,-8.0554953,2.3392804,0.24573708,-0.93088043,0.27032357,0
4.2173977,4.5743337,6.1496658,0.48209265,0.5228942,0.7029711,0
7.9673371,-2.5328712,2.3807752,0.91656125,-0.29138112,0.27388403,0
-7.2250361,2.3005164,-4.1984415,-0.83360624,0.26542771,-0.48440549,0
6.9016161,4.6328864,2.3202002,0.79971105,0.53682649,0.26884857,0
-6.568069,3.9800618,-4.1619196,-0.75191671,0.45564002,-0.47645921,0
4.2322845,-2.8757436,6.9486737,0.49045059,-0.33325031,0.80523437,0
-3.9680777,-1.2521101,7.5856023,-0.45863837,-0.1447214,0.87675911,0
-4.0635428,-6.711648,-3.6494143,-0.46960333,-0.77563161,-0.42174456,0
1.3105335,-7.3031793,4.5647407,0.15043664,-0.83833468,0.52398831,0
2.4583471,-0.34971368,8.2743568,0.28456682,-0.040481232,0.9578011,0
0.51446044,-8.4555368,-1.9438078,0.059192393,-0.97287065,-0.22364914,0
3.0904756,7.6469197,-3.014508,0.35193267,0.87080479,-0.34328175,0
-5.691534,4.8869643,4.451745,-0.65246028,0.56022686,0.51033461,0
8.1894464,1.8684829,-1.8142308,0.95297217,0.21742767,-0.21111457,0
-0.39669269,-4.7464871,7.3324151,-0.045369409,-0.54285175,0.83860213,0
0.9570787,2.9822319,8.1382608,0.10975485,0.34199321,0.93327087,0
-3.1431077,8.0772934,-0.044294264,-0.36263573,0.93191689,-0.0051104464,0
8.4797516,1.4251964,-1.143149,0.97756743,0.16430028,-0.13178514,0
7.9859805,3.6264586,-0.42505282,0.90945083,0.41298446,-0.048405405,0
-1.2074952,8.537673,-1.4560615,-0.13808288,0.9763239,-0.16650762,0
1.2057897,2.7038913,-8.1933928,0.13840771,0.31036872,-0.94048631,0
-4.1810431,-4.1272836,-6.428472,-0.4801015,-0.47392839,-0.73816967,0
-5.9502964,6.4122534,-0.68658417,-0.67812377,0.73077053,-0.078246363,0
5.2593908,-5.7906532,-3.8592598,0.6029495,-0.66385472,-0.44243506,0
-6.8644967,5.3227048,0.48420376,-0.78903848,0.61181742,0.055656724,0
3.7133884,-4.2808309,-6.5423622,0.42902184,-0.4945806,-0.7558639,0
-0.066704035,-2.0664992,8.4996853,-0.0076254592,-0.23623766,0.97166538,0
-5.2427983,5.1742053,-4.6252108,-0.60277224,0.594886,-0.53176725,0
7.2744226,-4.8282843,0.31256753,0.83264279,-0.55265367,0.035777014,0
-5.3742151,3.107933,-6.0924807,-0.61784935,0.35730508,-0.70042509,0
-8.0673895,-1.6477343,2.6850116,-0.93149787,-0.19025497,0.31002378,0
-8.4383907,-1.9792678,0.71723288,-0.97026098,-0.22757968,0.082468696,0
-2.3328786,-7.954555,2.7904108,-0.2667172,-0.90944153,0.31902668,0
4.0479622,-6.7983356,-3.6789374,0.46391228,-0.7791158,-0.42162061,0
7.9666419,3.5862756,0.68300331,0.90909266,0.40923852,0.077939145,0
-5.9188962,5.9271145,2.5106628,-0.67686558,0.67780536,0.28711116,0
-1.6276394,-6.2302608,-5.7734108,-0.18819769,-0.72038108,-0.6675573,0
-0.75413495,8.6419563,-0.41279238,-0.086835749,0.9950881,-0.047531459,0
5.7969689,-6.4658155,0.30429912,0.6671375,-0.74411094,0.035019912,0
6.0450726,4.1559176,-4.5933776,0.6984269,0.48016044,-0.53070307,0
-4.3144736,-7.3431306,-1.4706391,-0.4991951,-0.84961808,-0.17015652,0
-1.8731229,-8.5097923,0.84935468,-0.21395378,-0.97201431,0.097015865,0
6.7233763,-5.5348506,0.32678422,0.77150261,-0.63512015,0.037498258,0
1.8034736,-6.3711944,5.6424336,0.20730717,-0.73236138,0.64859116,0
-5.458405,6.0748382,-2.6850324,-0.63492471,0.70662856,-0.31232446,0
-7.5823545,-4.272151,-0.3027657,-0.87070113,-0.49058199,-0.034767359,0
-6.1084938,5.7165236,-2.2934744,-0.70416439,0.65897954,-0.26438317,0
0.50101054,8.546339,2.0422635,0.056925017,0.97103846,0.2320428,0
2.0444114,5.239996,6.6933212,0.23383763,0.59934521,0.76557505,0
1.7447433,-1.6648494,8.397274,0.19970261,-0.19055799,0.96114856,0
-6.0685449,-6.1843987,0.28755936,-0.70000422,-0.71336794,0.033169858,0
-6.8520694,5.1884961,1.7977245,-0.78034317,0.59088832,0.20473261,0
4.0902796,-5.5548978,-5.4501052,0.46525252,-0.63184685,-0.61992711,0
1.6549195,-8.2806778,1.8280311,0.19154099,-0.95840865,0.21157698,0
2.0006683,-1.4007024,8.3548346,0.22984362,-0.16091748,0.95983195,0
6.9566169,3.5060833,3.7746065,0.80363035,0.40502372,0.43604362,0
-5.3531361,-4.7462234,5.091002,-0.60964674,-0.54052794,0.57979339,0
1.3278979,4.944458,-7.0756054,0.15204534,0.56614429,-0.81016231,0
1.4516203,3.837621,-7.5994177,0.16808359,0.44435939,-0.87993902,0
-2.554121,-2.0109751,-8.1374388,-0.29147545,-0.22949181,-0.9286418,0
1.4174201,-8.3676434,1.8229396,0.16328941,-0.96396792,0.210006,0
-5.2868986,-5.8511968,-3.4539323,-0.61410236,-0.6796487,-0.40119323,0
3.63814,2.475282,-7.5465364,0.41646576,0.28335088,-0.86386836,0
-5.498168,6.1248074,-2.6916258,-0.63492471,0.70728856,-0.31082711,0
2.1710827,6.9591794,4.7078743,0.25018209,0.80193263,0.54250622,0
-1.389189,-3.2901947,-7.9508123,-0.15938169,-0.37748414,-0.91219693,0
6.3469319,1.2375268,5.8688273,0.72680968,0.14171357,0.67206019,0
2.0632176,-7.7777095,3.2690628,0.23754974,-0.895491,0.37638539,0
-3.7114618,-3.684243,7.0653644,-0.42222625,-0.41912976,0.80377555,0
5.2960048,-5.864686,-3.5100496,0.61249989,-0.67826974,-0.40594846,0
-3.5369942,6.5061827,-4.5022879,-0.40811411,0.75071228,-0.519494,0
-6.1597371,-1.7920074,-5.9666538,-0.7030884,-0.20454438,-0.68104935,0
-7.5292048,-3.3053229,2.5516381,-0.8745144,-0.38391203,0.29637182,0
0.048121668,-7.9391131,3.5697162,0.0055281338,-0.91203159,0.41008282,0
3.0524008,0.34629354,-8.0975332,0.35244417,0.03998464,-0.93497831,0
3.2886894,-2.7548347,7.5041289,0.38046479,-0.31870374,0.86814427,0
-1.8961126,5.1358619,-6.6969018,-0.21920624,0.59374797,-0.77421707,0
5.5904655,6.5435281,-1.4198927,0.640903,0.75016409,-0.16277954,0
-8.1322899,-1.4692076,-2.8072753,-0.93177468,-0.16833763,-0.32164961,0
-6.3451147,2.4417548,5.5115442,-0.72497952,0.27898979,0.6297375,0
-1.8198061,-2.4023166,-8.0712442,-0.2112233,-0.27883479,-0.93682224,0
0.29290509,-7.6214824,-4.200882,0.033638332,-0.87527996,-0.48244524,0
-6.0921078,-2.2518034,5.8725057,-0.69574934,-0.25716728,0.67066967,0
-3.2030377,-7.965456,0.36912113,-0.37273818,-0.92694181,0.042954702,0
-3.3750765,-3.9512937,6.9938183,-0.38735849,-0.45349112,0.80268252,0
-7.3400908,3.6472936,-2.4820395,-0.8570978,0.42589217,-0.28982618,0
-5.7064815,-1.9660755,-6.3578076,-0.65094364,-0.22427206,-0.72524101,0
-0.70202345,-6.5500679,-5.6286969,-0.081020318,-0.75594139,-0.64960623,0
-7.1466227,4.7969432,-1.5668668,-0.81687719,0.54830283,-0.17909686,0
0.24995781,4.7503328,7.4117694,0.028381865,0.53938425,0.84158134,0
-6.0252428,2.6005366,5.7070675,-0.69279945,0.29901704,0.65621477,0
2.7053764,4.9074693,-6.6659279,0.31066146,0.56353033,-0.76545614,0
-0.79892379,8.6439171,-0.36142486,-0.091954194,0.99489391,-0.041599125,0
-2.4912388,6.9804616,4.4837885,-0.28759164,0.80583298,0.51761401,0
3.7982748,-7.726192,0.8055892,0.43926132,-0.89351547,0.093164451,0
-3.4789042,6.7634048,-4.0861077,-0.40293959,0.78336263,-0.47326815,0
3.1865194,-5.118197,6.2726531,0.36625203,-0.58827513,0.72096592,0
2.4138122,-2.0007842,8.073885,0.27869099,-0.2310041,0.93218482,0
5.2983017,-6.3147359,-2.6256063,0.61244184,-0.72993362,-0.30349937,0
4.9785681,2.4852507,-6.6408305,0.5746333,0.28685114,-0.76649398,0
-4.4122601,2.0466578,7.1742444,-0.50905436,0.23612845,0.82771194,0
-6.5008688,-2.0739205,-5.2496796,-0.75509059,-0.24089055,-0.60976213,0
-2.541362,7.7827816,-3.1198378,-0.29006067,0.88829488,-0.35608554,0
3.9348474,-6.853549,3.8209147,0.44826162,-0.78076297,0.43528232,0
4.8723125,-1.0592647,7.1592689,0.55846435,-0.1214129,0.82059526,0
4.9610629,-6.8569021,1.4772285,0.57744795,-0.79811609,0.17194352,0
5.1620097,-0.73750418,-6.9950967,0.59164983,-0.084529914,-0.80175126,0
-2.6936536,5.2184067,6.4704003,-0.30826691,0.59720451,0.74048507,0
-3.1386485,-6.2846308,5.2754908,-0.35726833,-0.71537143,0.60050231,0
-4.6326823,-7.2944026,1.6369079,-0.52674896,-0.82939404,0.18612102,0
5.7493329,-6.4626327,0.30379432,0.66426235,-0.74667507,0.035099573,0
6.7163239,0.40662035,-5.4551477,0.7753638,0.046942152,-0.62976778,0
5.5830626,-1.0287203,6.5883846,0.64196181,-0.11828618,0.75755757,0
-4.3423934,7.4702773,1.4610716,-0.49551797,0.8524462,0.1667254,0
-5.832942,-6.3540168,0.68184191,-0.6741522,-0.73437631,0.078805037,0
5.3288097,0.081815831,6.827095,0.61526817,0.0094465148,0.78826129,0
4.9921384,-6.8805981,2.0265872,0.57124448,-0.78733867,0.23189998,0
-0.26755178,8.584301,0.69552279,-0.031050785,0.99625307,0.080719061,0
8.7598114,-0.055815715,-0.85537326,0.99524629,-0.0063415044,-0.097183265,0
-4.5347185,6.5662322,-3.3748343,-0.52338493,0.75785673,-0.38951424,0
-4.0389156,-3.613441,6.863553,-0.4618448,-0.41319233,0.7848385,0
0.84872442,4.8006783,-7.2097921,0.097517207,0.55159098,-0.82839465,0
-6.3417077,2.4526417,5.4499598,-0.72775614,0.28145811,0.6254217,0
8.5635242,-0.42934909,-1.9466819,0.97395903,-0.048831347,-0.22140282,0
-5.211103,-5.1006708,4.7473607,-0.59889871,-0.58620703,0.54560202,0
-7.497623,-4.3513832,0.40055373,-0.86397105,-0.50142151,0.046156876,0
3.3676486,4.2932253,-6.6124883,0.39281625,0.50077927,-0.77130759,0
-5.1528554,-3.911263,-5.7010899,-0.59758639,-0.45359656,-0.66116619,0
0.53709978,-7.308496,4.686306,0.061746195,-0.84020108,0.53874826,0
5.0681849,5.4310389,4.5130115,0.58308965,0.62483567,0.51921749,0
6.6022282,-2.2517855,5.3266115,0.7522338,-0.25656024,0.60689473,0
6.5305409,3.6364462,4.3750706,0.75401688,0.41986442,0.50514603,0
3.7475839,6.1591511,4.957716,0.42830655,0.7039215,0.56661099,0
-0.73136127,-5.1228833,-7.0084453,-0.083949722,-0.58803314,-0.80446845,0
-3.3933744,7.7383285,2.2557943,-0.38800982,0.88482642,0.25793508,0
-0.096402414,-8.6791658,0.69850612,-0.011070859,-0.9967159,0.080216482,0
-0.29019174,-7.0870242,5.0059228,-0.03342624,-0.81633121,0.57661593,0
7.8779864,-2.9813116,2.4041185,0.8993541,-0.34034774,0.27445516,0
-5.9130893,0.85074896,-6.2785006,-0.68229377,0.098165393,-0.7244575,0
7.7517328,-0.70005584,-3.7220345,0.89849591,-0.081142798,-0.43141744,0
-0.68845099,5.19139,6.8216825,-0.080052525,0.60365063,0.79321975,0
-4.3132401,-1.8270501,-7.2092819,-0.50168914,-0.21251105,-0.83853859,0
-8.61866,0.95980352,-0.97758621,-0.98760074,0.1099826,-0.1120203,0
3.3044322,-3.1677411,-7.4653034,0.37734857,-0.36173919,-0.85249794,0
-0.61686867,7.4587317,4.2811961,-0.071544468,0.8650642,0.49653339,0
-3.6931291,4.2576237,6.7465887,-0.42009974,0.48431197,0.76743603,0
-3.3311734,-3.275667,-7.4172063,-0.38001335,-0.37368128,-0.84613949,0
-7.7345848,3.356586,-2.1740732,-0.88828748,0.38549104,-0.24968399,0
-0.63518238,1.295532,8.6256514,-0.072629653,0.14813703,0.98629636,0
0.33457264,7.8233929,3.5305502,0.038950641,0.91079223,0.41102344,0
-1.1554595,-7.3590226,-4.5795774,-0.13213855,-0.84157914,-0.52372128,0
6.2487392,3.0310931,-5.2851305,0.71599394,0.34730914,-0.60558158,0
5.9076438,6.1446033,-1.9279716,0.67599428,0.70310885,-0.22061211,0
-7.7268457,-3.5162444,-1.5712242,-0.89498693,-0.40728039,-0.18199213,0
-8.3485756,2.3117354,0.50197393,-0.96212137,0.26641309,0.05784937,0
3.8128145,5.8416858,5.272707,0.43603,0.66804987,0.60298198,0
1.2424002,3.0705492,-7.9885483,0.1436625,0.35505691,-0.92374003,0
-4.6815729,7.1489792,1.9680767,-0.53386724,0.81524003,0.22443134,0
8.3642273,-0.19505134,2.4396763,0.95975614,-0.022381233,0.2799415,0
1.7227457,8.3868895,-1.8482207,0.1966783,0.95749426,-0.21100323,0
4.5844402,6.3637953,3.5669682,0.53207451,0.73858815,0.41398573,0
-7.3740973,3.8804195,2.221086,-0.85509676,0.44997159,0.25755605,0
4.6208014,6.578702,3.2759361,0.53227806,0.75781196,0.3773607,0
5.5089364,6.3069792,-2.1785781,0.63665825,0.72888666,-0.25177452,0
-7.647913,2.2471938,3.4892929,-0.87892175,0.25825444,0.40100029,0
-0.91762602,8.3197365,2.3617873,-0.10551044,0.95661956,0.27156293,0
-5.9615898,3.4262414,5.2659621,-0.68833905,0.39560181,0.60802025,0
4.87672,6.5823565,3.0603323,0.55765659,0.75269741,0.3499513,0
1.1724608,-8.1574936,2.7830575,0.13478807,-0.93779922,0.31994498,0
-0.60111237,-2.321656,8.4250298,-0.068622395,-0.26503795,0.96179307,0
0.59385574,-5.7440639,6.3233209,0.069348365,-0.67077136,0.73841494,0
6.7854943,1.3222022,-5.4052215,0.77324086,0.15067153,-0.6159519,0
-8.255537,-2.6302493,-0.14500464,-0.952676,-0.30352664,-0.016733307,0
-5.1409225,7.0959682,-0.21901554,-0.58651102,0.80955577,-0.024986766,0
1.7607846,-2.9948287,-7.9438839,0.20308156,-0.34541109,-0.91621453,0
-7.9531121,0.24534713,-3.4884605,-0.91541231,0.028239734,-0.4015258,0
8.4205866,1.7228204,-1.7575271,0.95984375,0.19638044,-0.20033658,0
-0.32332319,-8.4047213,-2.3799925,-0.036988504,-0.96150875,-0.27227357,0
-5.4457674,-5.2315955,-4.2502198,-0.62844467,-0.60372913,-0.4904778,0
8.3514671,1.4970267,-2.2307053,0.95195973,0.17064176,-0.25427169,0
-7.5510454,3.9583862,1.314031,-0.87534726,0.4588719,0.1523277,0
-8.4175777,-0.8161695,-2.0731702,-0.96670926,-0.09373226,-0.23809138,0
8.3777523,1.5769511,1.3022102,0.97147316,0.18286118,0.15100259,0
1.5033268,6.3984847,5.8364882,0.17102574,0.72792262,0.66398716,0
-7.2753763,0.31547907,4.7146935,-0.83864146,0.036365654,0.54346842,0
1.3583899,-1.4573959,8.4500418,0.15646535,-0.16786931,0.97331321,0
-5.9853539,3.7945473,5.0931792,-0.68582976,0.4347969,0.58360022,0
-0.53557366,-8.310113,-2.4364789,-0.061727092,-0.95777506,-0.28081432,0
5.530508,5.5542607,3.6653006,0.63915902,0.64190412,0.42359757,0
5.7061567,-3.4810998,-5.5697446,0.65583533,-0.4000991,-0.64015681,0
4.1398544,3.9685717,6.437902,0.48016417,0.46029779,0.74670494,0
-8.4374838,-0.16360351,-2.4789777,-0.95928055,-0.018600531,-0.28184175,0
-4.4387436,-0.35697657,7.4183707,-0.51301384,-0.041258052,0.85738826,0
0.28863698,7.8799515,-3.5888247,0.033316355,0.9095552,-0.41424549,0
-6.6147771,-0.24131572,5.7170434,-0.7562927,-0.027590547,0.65365136,0
4.1568079,3.9007285,6.5027237,0.48069188,0.45107895,0.75197279,0
5.4946132,-1.3780677,6.6305151,0.63005334,-0.15801953,0.76030433,0
-5.0053749,4.7490206,5.2623401,-0.57682151,0.54727912,0.60643429,0
-3.3816717,-1.7879536,-7.8953347,-0.38545537,-0.20379753,-0.8999393,0
4.8155532,5.4090343,-4.7689595,0.55534852,0.6237911,-0.54997516,0
7.7614274,-1.4460602,3.4302163,0.90165544,-0.16799074,0.39849284,0
-8.482295,-1.8213035,0.22940503,-0.97737408,-0.20986004,0.026433239,0
4.3219028,7.5688467,0.9123649,0.49317163,0.86367989,0.10410982,0
-6.7299099,2.4487197,4.9338107,-0.77385759,0.28157291,0.5673281,0
-2.7142298,-6.7036543,-4.7432837,-0.31382099,-0.77508086,-0.5484215,0
7.4690514,-4.5378819,-0.54490542,0.8529737,-0.51823097,-0.062228784,0
-4.639132,1.5641642,7.1579976,-0.5349499,0.18036768,0.82540661,0
2.1005883,-0.28866628,8.5235119,0.23915756,-0.032865424,0.97042447,0
-0.45499235,8.6334457,1.5229309,-0.051830083,0.98347199,0.17348343,0
1.2558032,5.4459434,6.4946246,0.14656414,0.63559324,0.75798428,0
-7.8209128,-2.4648972,-2.8890243,-0.89955676,-0.28351101,-0.33229384,0
-1.1745554,-8.4303246,1.890187,-0.13471058,-0.96687979,0.21678688,0
-1.8935378,-0.937837,-8.5492125,-0.21501645,-0.10649399,-0.97078675,0
5.193347,-3.3120258,-6.1946917,0.59448874,-0.37913162,-0.7091139,0
-5.661602,4.7642369,4.4423175,-0.65599781,0.55202204,0.51472187,0
-8.5520067,1.8834474,-0.34092146,-0.97585708,0.21491745,-0.038902055,0
-5.3512878,-6.8394217,0.51232809,-0.61514556,-0.78621078,0.058893554,0
2.3589323,4.6902194,6.9730425,0.2702575,0.53734779,0.79888564,0
4.7644892,-6.0374112,-4.1399498,0.54548508,-0.69122159,-0.47398177,0
2.734998,-8.0051641,-2.0777423,0.31397399,-0.91898179,-0.23852195,0
-3.7415833,-5.1471229,-5.9284077,-0.43021393,-0.59182537,-0.68165886,0
-3.302228,-1.3606253,7.920444,-0.3800703,-0.15660132,0.9116044,0
8.3605337,2.2579796,-0.39806774,0.9643923,0.26045924,-0.04591734,0
-0.61710083,2.3934431,8.2837811,-0.071385078,0.27686906,0.95825243,0
-7.4796324,-3.6059439,-2.3877583,-0.8657009,-0.41735592,-0.27636179,0
-4.5485859,-7.3079929,-1.1751325,-0.52356201,-0.84118176,-0.13526286,0
6.3610811,5.0260181,-3.1976068,0.72991145,0.57671773,-0.36691403,0
4.3293653,-3.5770316,6.7231464,0.49421445,-0.40833253,0.76747417,0
0.031049894,0.079349481,-8.7809153,0.0035358996,0.0090361591,-0.99995297,0
-1.1333799,-7.4060144,-4.3657732,-0.13070288,-0.85407144,-0.50346678,0
-2.7595172,-1.4049482,-8.1659565,-0.31597412,-0.16087136,-0.9350298,0
-8.5098276,-1.9575551,-0.83948749,-0.97007513,-0.22315086,-0.095697112,0
7.1485744,4.5809402,-1.9216733,0.82118732,0.52623224,-0.22075084,0
-6.6011958,5.5581083,0.71110874,-0.76237243,0.6419062,0.082125984,0
-8.3088217,0.10929307,-2.4143472,-0.9602043,0.012630392,-0.27901268,0
-5.4293094,-0.47211406,-6.882926,-0.61842626,-0.053776219,-0.78400064,0
-4.8263059,-6.7417622,-2.6001117,-0.55542636,-0.77586305,-0.299229,0
-3.0835764,1.4594961,8.0980387,-0.35091245,0.16609135,0.92156065,0
-7.0683222,5.0979719,-0.28941026,-0.81060952,0.58464575,-0.033190157,0
6.65271,-4.3363533,3.4345763,0.76891279,-0.50119084,0.39696449,0
-0.048699487,7.9952703,3.5780492,-0.0055596083,0.91275233,0.40847561,0
-6.6504412,-3.7019551,4.239758,-0.76331818,-0.42489955,0.48662701,0
-1.9786538,3.0134833,7.8182678,-0.22982529,0.35002315,0.90811014,0
2.613517,-8.3047485,0.41267097,0.29985091,-0.95281047,0.047346074,0
-6.1182308,2.7518878,-5.5196848,-0.70425725,0.31676427,-0.63535982,0
-7.4601088,3.824755,2.3495126,-0.85684901,0.43930158,0.26985902,0
-7.0748048,0.96953601,-5.073946,-0.80762511,0.11067749,-0.5792169,0
-6.8695483,3.0000944,-4.4047351,-0.79010993,0.34505972,-0.50661629,0
-4.9477415,-1.6228524,6.9764514,-0.56835055,-0.18641821,0.80138993,0
-0.91789007,-5.8883743,6.4591165,-0.10444357,-0.67001796,0.73496079,0
-2.2724056,-5.72539,6.0367146,-0.26347581,-0.66383469,0.69993144,0
-3.2278636,5.1391292,6.1663985,-0.37308434,0.59399307,0.71272737,0
-7.9110837,3.2731643,1.3420569,-0.91288513,0.37770084,0.15486421,0
5.285562,-4.700758,5.1332545,0.60476726,-0.53785473,0.58734047,0
3.6185865,-6.9065933,4.0739617,0.41132957,-0.78508168,0.46309265,0
-4.7058296,0.29393232,7.4270811,-0.53491652,0.033411592,0.844244,0
-6.9787226,4.1132541,-3.4812155,-0.79150355,0.46651164,-0.3948279,0
-5.8577662,6.5186648,-0.32635561,-0.66793215,0.7432912,-0.037212718,0
8.4963627,0.80285609,-1.4142191,0.98217106,0.092809364,-0.16348232,0
-1.7097561,2.6436703,8.061202,-0.19756366,0.30547819,0.9314782,0
5.1600614,5.2345572,4.5976019,0.59517914,0.60377175,0.53030312,0
-5.8317318,2.6394508,5.9938812,-0.66500908,0.30098414,0.68349946,0
-6.4037871,1.5514754,5.7636738,-0.73151273,0.17722701,0.65839177,0
6.0500417,0.62134689,-6.1140208,0.70154983,0.07205005,-0.7089687,0
-0.97393167,5.2929263,6.7635927,-0.11267815,0.61236036,0.78250778,0
-7.3218627,3.9885159,-2.3567853,-0.84504825,0.4603321,-0.27200693,0
-6.7213163,-1.833674,5.1175604,-0.77752262,-0.21211961,0.59199995,0
5.8711562,-6.3203182,1.2783633,0.67324144,-0.72474658,0.14658906,0
4.1065631,6.7360463,3.6779511,0.47178349,0.77387232,0.4225423,0
-4.2981014,6.7435589,3.3928738,-0.49478415,0.77629769,0.39057714,0
6.3880682,5.4009509,-2.7143281,0.72636127,0.61412019,-0.30863521,0
-2.4581819,7.5275722,-3.5138836,-0.28374356,0.86889422,-0.40560132,0
1.485446,-7.6133547,3.8361294,0.17165548,-0.87978566,0.44329625,0
7.6989837,3.46559,2.0202062,0.88684142,0.39919928,0.23270637,0
-6.5278192,-5.4428635,1.9325535,-0.74893045,-0.62445456,0.22172002,0
-1.81503,-3.2455564,-7.7558417,-0.21101996,-0.37733656,-0.90171373,0
-6.2967982,-1.0830072,-5.8120213,-0.72902775,-0.12538789,-0.67290145,0
-2.1385953,6.9617829,4.6306925,-0.24779874,0.80666083,0.53655767,0
-7.5620995,2.6217608,3.3783607,-0.87045962,0.30178615,0.388877,0
4.1518698,-6.2216582,-4.4004331,0.47842613,-0.71693093,-0.50706846,0
3.36058,7.3807273,3.0684781,0.38757071,0.85120833,0.35388303,0
8.645793,0.66141713,-0.83031327,0.99254638,0.0759314,-0.095320866,0
-2.3322854,-3.7223992,7.5321245,-0.26748097,-0.42690787,0.8638308,0
1.3537999,8.449461,-1.6316577,0.15540557,0.96993154,-0.18730146,0
-8.4578781,0.035718441,1.6451676,-0.98159426,0.004145368,0.19093288,0
-5.5185275,2.1858215,6.4185047,-0.63123876,0.25002599,0.73418301,0
7.2699904,-4.5915365,1.6307058,0.8306843,-0.52463853,0.18632786,0
-2.1286671,-4.3179517,-7.1950021,-0.24588914,-0.4987804,-0.83111769,0
-2.6101625,0.28220063,-8.2991314,-0.29986387,0.032420117,-0.95343089,0
-1.9010726,8.4166412,-1.2155275,-0.21816643,0.96589077,-0.13949351,0
5.2227545,-0.98050874,6.9209714,0.59854621,-0.11236979,0.79316795,0
5.2003126,7.0501075,0.26797682,0.59332806,0.80437988,0.030574733,0
-2.0445158,-7.40202,4.0538378,-0.23544778,-0.85242146,0.46684262,0
8.1084633,-0.34719285,3.2000742,0.92944318,-0.039797433,0.36681268,0
-4.5847135,7.2968445,-1.15244,-0.52732122,0.83926314,-0.13255049,0
3.8748958,2.0007002,-7.5096278,0.44621015,0.23038885,-0.86476445,0
-7.5903301,3.9731872,1.7512405,-0.86801255,0.45436448,0.20026781,0
5.1496491,6.5952134,2.7571671,0.58451712,0.74859762,0.31295559,0
6.4277701,2.7066791,4.9959497,0.7492314,0.31549495,0.58233607,0
-8.5217237,-0.059072942,-1.4467835,-0.98586929,-0.006834087,-0.16737688,0
-8.0120497,-3.4744143,-0.89342284,-0.91268635,-0.39578518,-0.10177356,0
-5.8080769,3.6295135,-5.38451,-0.66667056,0.41660774,-0.61805212,0
1.3564757,-2.3151939,-8.1940384,0.15732354,-0.26851529,-0.9503414,0
3.7042336,7.9715171,-0.040615045,0.42140368,0.90686142,-0.004620478,0
2.6702204,8.1947365,0.86767656,0.3082552,0.94601554,0.10016619,0
-3.7145627,3.8692117,-6.8482728,-0.42702439,0.44480276,-0.78727424,0
-3.4198678,0.096168779,-7.9939785,-0.39330021,0.011059843,-0.91934353,0
-2.2536345,5.6030946,-6.187634,-0.26064405,0.64802575,-0.71563065,0
1.1991615,3.5492115,-7.8366661,0.13805532,0.40860844,-0.90220827,0
7.5327587,-0.45039737,-4.1866837,0.87287652,-0.052190877,-0.48514202,0
4.0796304,-5.3266406,5.4142084,0.47319305,-0.61783278,0.62798971,0
-1.7359201,3.8394542,-7.6550088,-0.19866157,0.43939349,-0.87605184,0
7.9061971,-3.6788504,-0.49551958,0.90519297,-0.42119738,-0.056732815,0
3.4063938,-1.9671212,7.7526264,0.3918339,-0.22627591,0.8917765,0
7.6280541,3.5063145,-2.3840249,0.87404937,0.40176588,-0.27316999,0
2.8935874,-6.215034,5.3945403,0.33169788,-0.71244216,0.61838728,0
-5.2692027,-4.8679852,4.9326077,-0.60524619,-0.55916041,0.56658328,0
0.85140544,7.0562487,-4.9017434,0.098612979,0.81728125,-0.56773835,0
-6.0905533,6.0747113,0.68812293,-0.70577246,0.7039367,0.079739586,0
-3.980284,-6.1485686,-4.7452269,-0.45607588,-0.70452607,-0.54372591,0
6.5481768,-0.41350207,5.7152028,0.75254893,-0.047521707,0.65681946,0
-6.8022609,-1.1571071,5.1268997,-0.79130971,-0.13460673,0.59641427,0
4.3218818,0.66776866,7.5465984,0.49550703,0.076560184,0.86522323,0
6.2986994,-5.8885508,-1.4439257,0.72045827,-0.67354465,-0.16515921,0
-3.4953189,-7.849237,-1.5272424,-0.40051854,-0.89942151,-0.17500232,0
4.0656972,3.3016784,6.9069953,0.46903637,0.38089585,0.79682076,0
-4.6234255,-2.9013803,6.8203478,-0.52926075,-0.3321318,0.78075063,0
5.5210967,5.0396509,-4.3507609,0.63833165,0.58266842,-0.50302112,0
2.7657123,-8.1481924,-0.81010979,0.32000086,-0.94276923,-0.093732029,0
3.520457,4.2194257,6.6558309,0.40787673,0.48885855,0.77113807,0
0.40703687,-7.628324,-4.1623468,0.046788279,-0.87686443,-0.47845554,0
0.40153971,8.6970596,0.081440672,0.046118446,0.99889219,0.0093537876,0
-0.0151375,-7.1705251,4.99826,-0.0017318472,-0.82036358,0.57183963,0
6.2404056,-5.6883621,-2.2042768,0.71507615,-0.65181851,-0.25258386,0
-4.4523749,-7.379704,0.83475155,-0.51418287,-0.85224569,0.096401349,0
1.0250279,-8.5411367,-0.39388537,0.11903099,-0.99183643,-0.045739796,0
-3.1391087,5.4024367,6.0447359,-0.36108157,0.62142491,0.69530654,0
-0.29691306,-4.3930039,7.5792727,-0.033873353,-0.50117624,0.86468202,0
8.1126604,1.4215535,3.0670011,0.92307061,0.16174649,0.34896797,0
-2.4541624,2.1399879,8.0132999,-0.28373158,0.24740914,0.92643684,0
1.3543595,-6.7061911,5.5549102,0.15368208,-0.76096588,0.63032758,0
-5.7648306,-1.8857589,6.1732168,-0.66611856,-0.21789695,0.71330708,0
4.3000278,-7.3955822,1.5596094,0.49449378,-0.85047573,0.17935166,0
2.2202435,8.0715809,2.365633,0.25522378,0.92785299,0.27193677,0
-2.9871011,8.0187197,-1.5848641,-0.34324422,0.92142153,-0.18211485,0
-3.3335545,1.4040018,-7.944459,-0.3818872,0.16084042,-0.91010576,0
5.2735138,4.3349519,5.3208961,0.60928357,0.50084537,0.61475801,0
-5.0595064,-5.3042808,-4.6456985,-0.58299261,-0.61119723,-0.53531069,0
-4.3296118,-1.5798128,-7.3100443,-0.50101686,-0.18281381,-0.84590846,0
5.1896806,0.71753114,6.8568139,0.60140747,0.083151281,0.79460359,0
-5.4371681,3.6143808,-5.6082973,-0.63171852,0.41993758,-0.6516012,0
-5.4108577,5.7120934,3.8626075,-0.61732584,0.65169388,0.44068566,0
-1.6757759,1.5595908,-8.4531679,-0.19134976,0.17808308,-0.96523148,0
-8.1248665,2.8429852,-1.5890915,-0.92820024,0.32478806,-0.18154085,0
0.31338629,-7.4003029,4.630753,0.035875589,-0.84716606,0.53011572,0
8.616724,1.7542236,-0.22230767,0.97958654,0.19942774,-0.0252729,0
-8.0724077,2.8684154,1.5737013,-0.92677319,0.32931569,0.18067276,0
6.2510376,1.1491687,-5.9306946,0.71908414,0.13219389,-0.68223369,0
2.3474209,-2.7077494,7.9575267,0.26897666,-0.3102645,0.9118045,0
2.4686873,-8.3196459,-0.11366991,0.284446,-0.95860261,-0.013097225,0
-2.2475839,7.8806834,-2.6676636,-0.2607953,0.91442424,-0.30953866,0
7.1368003,3.8207459,3.2386322,0.81853533,0.43820977,0.37144586,0
6.2814045,3.4890928,5.050869,0.71517754,0.39725524,0.5750733,0
-3.5032899,8.0385942,0.12149462,-0.39947876,0.91663772,0.013853984,0
-2.6195195,-8.1687756,1.24553,-0.30218989,-0.94235659,0.14368536,0
-2.9380975,-3.283042,-7.4053383,-0.34097183,-0.38100329,-0.85940367,0
-2.016856,7.0855308,-4.5327392,-0.23316929,0.81916022,-0.52403122,0
-0.39430451,-6.6046991,5.6236534,-0.045408525,-0.76060414,0.64762586,0
-3.1457887,8.0425692,1.3462694,-0.35992122,0.92017984,0.15403162,0
0.22283305,-4.62816,-7.2748322,0.025835356,-0.53659081,-0.84344709,0
-2.5751038,2.6207037,-7.9060888,-0.29537398,0.30060446,-0.90685779,0
-6.3579254,5.7969217,1.3290198,-0.73029536,0.66585636,0.15265624,0
-1.9024547,-0.81432068,-8.4257593,-0.21927366,-0.093857199,-0.97113848,0
-8.192524,-0.30521119,-2.9878623,-0.93889534,-0.034978397,-0.34242073,0
-1.3140627,1.3781596,8.5310383,-0.1503336,0.15766652,0.97598207,0
4.3770947,7.1831012,2.1429729,0.50425404,0.82751417,0.24687673,0
-2.9232447,-0.30904967,-8.1328402,-0.33803445,-0.035737492,-0.94045496,0
-6.9326286,4.8231549,1.7324321,-0.8041352,0.5594514,0.2009497,0
4.1768241,-7.558979,-0.66474617,0.48221481,-0.87268502,-0.076745018,0
3.8470254,-0.69633758,-7.794631,0.44116578,-0.079853982,-0.89386576,0
-0.88886446,-8.6120005,-0.96762949,-0.10203163,-0.98856074,-0.11107297,0
-5.7815747,-2.55515,5.9267116,-0.6672371,-0.29488349,0.68398702,0
-1.3621367,4.8913212,-7.116168,-0.15581755,0.55952799,-0.81403273,0
-7.701467,3.8314972,0.80459309,-0.89142889,0.44348785,0.093129985,0
-2.90803,7.1830583,4.0916023,-0.3318446,0.8196817,0.4669058,0
0.65468401,-7.0252233,4.9158602,0.076132201,-0.81695241,0.57165784,0
0.35775998,-3.7658665,7.9059463,0.040819939,-0.42968035,0.90205795,0
-6.0650125,6.1619496,-0.098008148,-0.7014336,0.71264464,-0.011334884,0
6.7041912,5.4796038,-1.0947917,0.76816076,0.62784857,-0.12544033,0
7.7725563,-2.1590188,-3.3553896,0.88962865,-0.24711625,-0.38405007,0
-0.66638887,6.5527034,-5.53826,-0.077437714,0.76145685,-0.64357346,0
-7.3656774,-2.6022167,3.8278174,-0.84670275,-0.29913121,0.44001704,0
-0.74565405,-2.7321503,8.2466183,-0.085516989,-0.31334275,0.94578177,0
-5.4278255,3.2805142,5.9951057,-0.6219421,0.37589455,0.68694341,0
-6.8443341,-0.34012815,5.2548203,-0.79257113,-0.039386705,0.60850608,0
4.0234799,6.2156992,4.8119607,0.45563284,0.70388734,0.54492313,0
4.6787949,7.3139491,0.25378558,0.53864938,0.84202331,0.029217236,0
1.1003149,-2.120697,8.3052454,0.12732095,-0.24539261,0.96102643,0
-3.826395,-5.3311844,5.7438416,-0.43876022,-0.61130947,0.65862757,0
2.5965476,2.4377012,-7.8180757,0.30223742,0.28374776,-0.9100219,0
2.5788722,8.3515053,-0.71557873,0.29406112,0.95229733,-0.081595317,0
2.6346488,-2.7239163,7.872077,0.30155957,-0.31177706,0.90103096,0
3.6582546,7.7561989,1.0451779,0.42345378,0.89780289,0.12098243,0
1.3757648,-8.366437,1.8943613,0.15835518,-0.96300513,0.21804738,0
-2.2962811,-4.2942414,-7.1597052,-0.26519629,-0.49593967,-0.82687056,0
1.9956067,3.7467377,7.6102686,0.2290072,0.42995942,0.87332153,0
-7.1730256,-0.72398198,-4.93117,-0.82122159,-0.082886867,-0.56455719,0
8.5763664,-0.24263366,-0.83732814,0.99487352,-0.028145928,-0.097131528,0
-7.9534717,-3.5677941,0.69261843,-0.90953809,-0.40800354,0.07920602,0
4.8997998,-2.388835,6.8301082,0.56070101,-0.27336261,0.78159285,0
-2.4637384,-6.2344112,5.4465885,-0.28524354,-0.72179961,0.63058811,0
-5.1901999,3.2465389,-6.3360367,-0.58909768,0.36848843,-0.71915239,0
7.709918,-0.19067982,-4.1605015,0.87983316,-0.021759819,-0.4747842,0
1.056872,-4.1936264,-7.4950123,0.12213588,-0.48463035,-0.8661502,0
3.5658646,-7.1548557,3.2714221,0.41282657,-0.82833052,0.37873843,0
3.6903145,1.0414625,-7.8454976,0.42260003,0.11926412,-0.89843494,0
-0.06339404,3.3060794,-7.9510832,-0.0073617562,0.3839249,-0.92333496,0
7.9548669,-0.075711705,3.603369,0.91086984,-0.0086693484,0.41260278,0
8.309267,2.3978956,-1.0267448,0.95409274,0.27533293,-0.11789365,0
0.53066415,8.6114054,-0.89474982,0.061178625,0.99278224,-0.10315294,0
-0.68371373,-7.013762,5.0348592,-0.078943126,-0.80982476,0.5813362,0
-0.26074842,-2.8431776,-8.0881443,-0.030399896,-0.33147776,-0.94297308,0
-2.6870136,3.8207335,-7.3388219,-0.30887997,0.43920437,-0.84361875,0
7.4811726,4.2734904,0.41608366,0.86730564,0.49543333,0.048237316,0
2.2292588,-8.1698074,2.0205204,0.25605428,-0.93839002,0.23207845,0
5.6299281,-0.34440917,6.6430788,0.64602995,-0.039520688,0.76228821,0
1.6315714,-3.1022725,8.0323029,0.18617189,-0.35398754,0.91653299,0
-7.1683822,-3.9806523,2.9147377,-0.82375073,-0.45743448,0.3349455,0
2.8253839,1.4620727,-8.2323418,0.32013366,0.16566198,-0.93277574,0
0.94699019,-2.7317855,8.1324635,0.10971798,-0.31650379,0.94222462,0
-4.8091884,-6.24928,3.7799239,-0.54995519,-0.71463704,0.43225357,0
-3.0462227,7.150938,3.9541788,-0.34930873,0.81999421,0.45342356,0
-5.4219103,2.2123065,-6.4493685,-0.62240368,0.25395989,-0.74034989,0
-3.9597619,7.1123557,2.9478803,-0.45737019,0.82150882,0.34049335,0
8.3807573,1.857197,1.682206,0.95809126,0.21231544,0.19231041,0
-7.4954753,3.5044744,3.0292757,-0.85066074,0.39772245,0.3437922,0
3.7703903,7.7607021,-0.72270697,0.43546402,0.89632803,-0.083469577,0
-3.3270569,-5.4004908,-5.8377428,-0.38594493,-0.62646723,-0.67718929,0
-7.2543259,-0.27233675,4.5880704,-0.84472752,-0.03171216,0.53425628,0
5.8116546,-0.89365697,6.2998147,0.67440003,-0.10370236,0.73104745,0
4.6657271,-7.3555527,0.0037754821,0.53564274,-0.84444463,0.0004334393,0
8.4514112,-0.7058661,-1.9099612,0.97218108,-0.081197053,-0.2197063,0
3.0391569,-3.3418913,-7.3691955,0.35161263,-0.38663724,-0.85257274,0
3.9690187,-7.4151392,-2.279902,0.45547143,-0.85093677,-0.26163399,0
-2.3123031,2.5960207,-7.9896536,-0.26537797,0.29793963,-0.91695505,0
6.6507273,-5.5639071,-0.050193712,0.76697999,-0.6416449,-0.0057884753,0
-7.1455221,4.5951114,2.0287168,-0.81809241,0.52609533,0.23226824,0
0.19044949,-0.37768605,-8.6844616,0.021903947,-0.043438371,-0.99881595,0
2.7501123,8.2403431,-0.22853935,0.31646338,0.94824016,-0.026298685,0
2.2057016,6.1102047,-5.6845083,0.25552282,0.70784587,-0.65853047,0
-1.9736724,-0.30321702,8.518609,-0.22557504,-0.034655292,0.97360921,0
-1.5570462,6.9081483,5.1538062,-0.17777857,0.78875035,0.58844519,0
2.7258208,-1.6743875,8.0246363,0.31553319,-0.19382228,0.92890888,0
7.5371022,-1.3659166,-4.1142025,0.8668474,-0.15709503,-0.47317731,0
1.4753029,-0.05726416,8.6480875,0.16815998,-0.0065271612,0.98573804,0
3.4141417,3.0497715,7.5066166,0.38830486,0.34686348,0.85375941,0
-0.32610255,8.0625648,3.2182536,-0.037538033,0.92809087,0.37045678,0
1.6413795,-8.2603493,-2.2439373,0.1883253,-0.94775933,-0.25746036,0
-0.86731189,-6.1626997,6.0895576,-0.099609591,-0.70777768,0.69937742,0
-0.39366385,1.6796056,8.4278336,-0.045761127,0.19524436,0.9796865,0
0.65657455,7.6239915,3.8903422,0.076485045,0.88812667,0.45319,0
-6.9061484,-3.8383155,-3.6295338,-0.79427695,-0.44144511,-0.41743311,0
-7.3929601,-3.2357535,3.157568,-0.8531186,-0.37339327,0.36437097,0
1.8714211,6.009275,5.8846688,0.21719207,0.69742018,0.68295872,0
0.27531368,-4.4417038,-7.500885,0.031566564,-0.5092712,-0.8600269,0
-7.8105421,3.6331327,-1.2169285,-0.89779234,0.41761488,-0.13988133,0
2.2504733,7.6463308,3.5311277,0.25814721,0.87709504,0.40504846,0
-3.3345649,4.3678122,6.7662826,-0.38255197,0.50108939,0.77624959,0
7.3011155,4.5513597,0.64678639,0.84622824,0.52752066,0.074965112,0
-5.8018093,-6.4601054,0.083484329,-0.66815174,-0.74396288,0.0096142767,0
-6.2662301,-2.2205222,5.5605836,-0.72300082,-0.25620499,0.64158297,0
-3.2418852,4.3151026,6.8401494,-0.37207156,0.49524486,0.78504479,0
2.6690798,2.989573,7.7278104,0.30660734,0.34342363,0.88772297,0
4.1744242,-3.356487,6.8784108,0.47882554,-0.38500443,0.78898519,0
4.7405052,4.1178522,6.0392094,0.54412723,0.47265753,0.69319576,0
-8.2655973,2.138675,-1.4546394,-0.95436531,0.24693646,-0.1679561,0
5.4998479,6.0937676,2.576735,0.6392498,0.70828134,0.29949507,0
5.6444612,-5.4146175,3.8358963,0.64792407,-0.62154049,0.44032007,0
2.235827,5.1209693,6.5449629,0.25980467,0.59506023,0.76052928,0
-1.261169,-3.5617678,-7.8654556,-0.14453092,-0.40818131,-0.90138721,0
8.4708176,-0.18525213,1.9190298,0.97506404,-0.021324115,0.22089685,0
-8.1759624,-3.2728884,0.035746474,-0.92837101,-0.37163267,0.0040589701,0
7.4642658,0.091268919,4.3595886,0.86345708,0.010557876,0.50431186,0
8.7053394,0.0097563034,-0.80403394,0.99576122,0.0011159759,-0.091969512,0
-7.8842216,-2.1201277,3.3651884,-0.89282459,-0.24008738,0.38108048,0
-1.9867599,0.77078944,8.4934111,-0.22688517,0.088023067,0.96993554,0
3.1518397,6.5008559,-4.8742261,0.36165193,0.74592853,-0.55928391,0
2.7524965,6.2635388,-5.1553669,0.32130706,0.73116142,-0.60180122,0
-5.9249802,-1.4115572,-6.2506042,-0.67889214,-0.16173811,-0.71620262,0
-3.8516893,7.0981946,-3.1820452,-0.44373453,0.81774867,-0.36658806,0
1.9872173,8.0994205,-2.4930201,0.22830302,0.93050832,-0.28641257,0
-6.0106444,1.5069577,6.0778275,-0.69248736,0.17361684,0.7002275,0
-4.3581672,-0.97566319,7.5459962,-0.49702212,-0.11126838,0.86057442,0
7.6826291,0.51391506,-4.2793841,0.87212539,0.058339193,-0.48579198,0
