-2.5733685,0.096810237,8.9534807,-0.27621743,0.010391312,0.96103895,0
-0.26885375,2.9566028,-9.0205154,-0.028310832,0.3113361,-0.9498781,0
-2.390847,5.8883357,6.8052974,-0.25676772,0.63238448,0.73086262,0
6.298687,0.87075156,-6.8497696,0.67393196,0.093166612,-0.73289543,0
-1.0876777,-2.3008556,9.1054277,-0.11504453,-0.24336332,0.96308833,0
-3.5618951,3.1923945,8.0087414,-0.38183483,0.34222439,0.85853636,0
-3.5810208,-7.5900474,4.2029514,-0.38152719,-0.80865467,0.44778857,0
-8.9711485,-2.4374001,1.1498291,-0.95771885,-0.26020572,0.12275051,0
-3.6036587,4.9106212,7.2688494,-0.37999257,0.51780695,0.76647347,0
-6.7561283,1.8703567,-6.2172556,-0.72103465,0.19961017,-0.66352451,0
0.36693475,-8.9714537,3.0753071,0.038661323,-0.94525874,0.3240234,0
-4.2601409,-4.5427189,-6.9838758,-0.45527315,-0.48547173,-0.74635351,0
5.2864714,-7.424572,-2.2268662,0.56344378,-0.79132724,-0.23734432,0
-4.754158,-8.0853252,-0.34573418,-0.50652438,-0.86143845,-0.036835711,0
4.4608994,-8.0660591,-2.0384884,0.47254556,-0.85444218,-0.21593821,0
8.496088,-3.9837759,-0.52382064,0.904001,-0.42388183,-0.055735577,0
-6.0892544,-3.0353727,-6.487576,-0.64771551,-0.32287335,-0.69008505,0
-7.6242843,-5.2855926,1.8398963,-0.80612624,-0.55885309,0.19453481,0
7.4052882,-5.2148442,-2.8117442,0.78085142,-0.54987979,-0.29648468,0
-2.6228938,-0.3211492,9.1101303,-0.27651235,-0.033856392,0.96041381,0
8.2716932,2.7390668,-3.351496,0.88602501,0.293396,-0.35899654,0
-5.9768887,-4.2518554,-5.9975524,-0.63081855,-0.44875342,-0.63299948,0
2.089057,4.4359875,8.0826187,0.22097965,0.46923706,0.8549763,0
-6.3586898,3.3002369,6.028801,-0.67910945,0.35246605,0.64387727,0
-8.7896338,3.2940328,1.0172771,-0.93095088,0.34888628,0.10774454,0
4.091361,-1.8751942,8.2084475,0.43704987,-0.20031314,0.8768478,0
-4.6256723,-7.1498489,3.7231901,-0.49770263,-0.76929331,0.40059939,0
6.3138251,5.2755866,-4.6276464,0.66884601,0.55886173,-0.49022311,0
3.5394623,-8.649086,-1.2737052,0.37527335,-0.9170239,-0.13504526,0
2.2822542,-1.4777479,8.9547234,0.24387248,-0.15790619,0.95686561,0
5.4618764,-7.6176581,-0.68221408,0.5811618,-0.81054413,-0.072589844,0
-8.3299541,4.0670638,-1.4234254,-0.88820183,0.43366066,-0.15177624,0
-5.9741387,2.9748142,-6.6100245,-0.63600653,0.31669858,-0.70370287,0
-0.32163596,-2.6893654,9.0091562,-0.034189317,-0.28587466,0.95765698,0
7.3008995,5.8609185,-1.6846976,0.76748872,0.61611432,-0.1770996,0
5.2904902,-7.6554756,1.1839609,0.56397665,-0.81608868,0.12621255,0
7.372118,5.2916532,-2.364239,0.7861414,0.56428665,-0.25211564,0
-6.4379144,1.4566196,-6.7828717,-0.6802206,0.15390429,-0.71666831,0
-0.73539352,-6.6230459,6.7346096,-0.077620625,-0.6990611,0.71083659,0
-6.3048072,5.4894466,4.2215247,-0.67322069,0.58615732,0.45076996,0
4.605907,3.5597641,7.4308314,0.48794135,0.37711489,0.78720868,0
5.1323891,7.8195362,-0.43898138,0.5481143,0.83508855,-0.046881083,0
-8.6456366,0.16118006,-3.972024,-0.90855825,0.016938195,-0.41741464,0
3.8961217,2.1988401,-8.1789894,0.41792306,0.23586173,-0.87733096,0
0.84567219,1.4989511,9.2890253,0.089516439,0.15866758,0.98326576,0
-1.9463733,8.0910616,4.4188333,-0.20657095,0.8587141,0.46897611,0
9.0064754,-2.6491778,-1.3147615,0.95008749,-0.2794601,-0.13869338,0
-6.3988228,6.0823336,-3.2915621,-0.67913628,0.64554584,-0.34934852,0
4.0705981,-5.1472688,-6.7024126,0.43396056,-0.54874283,-0.71453446,0
-8.4206963,0.7245546,-3.9981503,-0.90063077,0.077494323,-0.4276199,0
3.1778593,8.7471237,1.2033297,0.33864748,0.93213427,0.12823242,0
-1.7666631,1.6991473,-9.1603813,-0.18630464,0.17918472,-0.96601415,0
-4.372817,-7.7799592,3.3093574,-0.45940369,-0.81735456,0.34767771,0
7.4202118,1.2960459,5.6613493,0.7874698,0.13754284,0.60081059,0
-4.9498935,-4.6340857,-6.5069199,-0.52671498,-0.49311006,-0.69239718,0
0.00026173593,6.6990633,6.6113114,2.7808568e-05,0.71175307,0.70242977,0
1.3381168,-4.4147606,-8.291007,0.14103307,-0.46530113,-0.87384462,0
6.6804991,-3.3977365,-5.6993709,0.70950198,-0.36085638,-0.60530132,0
-4.8659129,-6.3773274,-4.8547273,-0.51895642,-0.68015093,-0.5177635,0
5.7114024,4.762495,5.770494,0.60677224,0.50596148,0.61305004,0
6.4838843,4.5206022,4.9377885,0.69571191,0.48505443,0.52981794,0
7.0924726,4.5596828,-4.2765336,0.75018978,0.48228982,-0.45234039,0
0.72223008,-1.7050235,-9.2576256,0.076499373,-0.1805979,-0.98057747,0
-3.6827986,-8.169035,-3.007045,-0.38963571,-0.86427414,-0.31814179,0
4.3845711,3.3148577,7.7136545,0.46291253,0.34997475,0.81438917,0
5.2581205,-6.3644357,4.5603795,0.55751336,-0.67481488,0.48353258,0
4.6773758,7.7724543,2.3847847,0.4986777,0.828659,0.25425345,0
0.56718338,-9.3864002,-0.36752814,0.060270045,-0.99741775,-0.039054278,0
2.9088995,2.419853,-8.511611,0.312289,0.25978673,-0.91377598,0
-6.5011778,-5.2754745,-4.1856689,-0.69454581,-0.56359923,-0.44717109,0
6.5876203,0.28035682,6.7200141,0.69972688,0.029779071,0.71378952,0
3.4815273,-8.7142057,-0.027101517,0.37100738,-0.9286254,-0.0028880609,0
1.0504161,4.7071657,8.0384941,0.11205233,0.50213325,0.8575002,0
-3.8960893,-7.7066364,-3.5733747,-0.41688898,-0.82462478,-0.38235793,0
5.1956472,2.9932485,-7.1574306,0.55644661,0.32057276,-0.7665509,0
4.6668687,7.7086205,2.3518851,0.50110787,0.82771784,0.2525351,0
0.30459109,-8.6540699,3.4822397,0.032634649,-0.92721868,0.37309587,0
-7.9665918,-1.3636839,4.9531517,-0.84040678,-0.1438569,0.52251482,0
7.0723057,-5.2768693,-3.1015167,0.75613791,-0.56417823,-0.33159971,0
8.6866236,-3.1709788,-1.0773946,0.93305725,-0.34060469,-0.1157263,0
7.5656552,-4.3385239,-3.6673307,0.79966432,-0.45856741,-0.38762453,0
-4.815917,-6.0981855,-5.2319493,-0.51409692,-0.65097845,-0.55850816,0
6.4696193,6.8230143,1.1315769,0.68313545,0.72045088,0.11948466,0
-9.0788374,2.4896753,-0.51445669,-0.96295857,0.26407063,-0.054566514,0
4.6490207,2.338058,-7.9092107,0.49104512,0.24695352,-0.8353973,0
2.8872433,-0.45521581,8.9849224,0.3055802,-0.048179153,0.95094669,0
1.5812742,4.0740247,-8.3032055,0.16852483,0.43419057,-0.88491696,0
1.4014658,-2.2566378,9.0420732,0.14870921,-0.23945132,0.95945233,0
-0.97379261,1.2740713,-9.1841927,-0.104449,0.13665691,-0.98509657,0
4.6881547,3.9528313,7.2403855,0.4941012,0.41660288,0.76308984,0
5.7829189,-4.0254698,6.0534101,0.62253827,-0.43334672,0.65165693,0
-8.3119688,2.1557894,3.9679241,-0.87869734,0.22789863,0.41946793,0
-3.1660721,-6.1578803,6.4289069,-0.33508691,-0.6517303,0.68041486,0
-1.8128787,9.1585445,-1.2362314,-0.19249626,0.97247845,-0.13126633,0
-9.0596294,2.2350535,-1.0304627,-0.96502423,0.23807605,-0.10976404,0
-0.49168578,9.1187878,2.0888956,-0.052486237,0.97340798,0.22298442,0
1.7775952,-8.6479254,3.1874244,0.18937811,-0.9213165,0.33957586,0
-8.9300508,1.8283614,2.2889433,-0.95017761,0.19454178,0.24354875,0
-0.81707007,-9.193367,2.0742953,-0.086372636,-0.97183263,0.21927416,0
0.76010984,1.7028315,-9.1314554,0.081557564,0.18270884,-0.97977847,0
-9.1261005,1.9593712,-1.3268226,-0.96798867,0.2078269,-0.14073363,0
2.5124259,9.1119213,-0.65343237,0.26517737,0.96172994,-0.068967395,0
3.7453616,7.9180951,-3.2861183,0.40034446,0.846371,-0.3512556,0
6.115293,-0.17039676,-7.2730255,0.64345574,-0.017929276,-0.76527327,0
4.733892,8.0007782,-1.0139616,0.50621814,0.85556221,-0.10842785,0
-7.3377614,-5.5336361,-1.7811971,-0.78382838,-0.59110957,-0.19026959,0
6.5438967,-1.8859712,-6.4824443,0.69599557,-0.20058806,-0.68945962,0
0.032854177,-9.377677,0.25562918,0.0035021228,-0.99962252,0.02724904,0
-2.8679614,9.0111742,0.96634763,-0.30170637,0.94796556,0.1016587,0
1.5406517,9.1901798,-1.7052131,0.16263334,0.97012824,-0.18000467,0
-6.5394425,-4.2400646,-5.2035084,-0.69782513,-0.45245808,-0.55526733,0
-8.7192183,0.045017481,3.4425056,-0.93011862,0.0048022191,0.3672277,0
5.2810483,-7.8337526,-0.39581424,0.55849314,-0.82845235,-0.041859023,0
-1.8445042,-3.0513942,8.6964912,-0.19624367,-0.32464918,0.92525208,0
4.2598047,-2.68576,-7.8474336,0.45685273,-0.28804061,-0.84161639,0
5.1596503,-7.2509961,-3.1519263,0.54651189,-0.7680279,-0.33385307,0
0.08063525,8.5638924,3.9318776,0.0085566305,0.90875965,0.41723222,0
-2.2649417,-2.5436954,8.7407694,-0.24144168,-0.2711567,0.93176174,0
-3.0090845,5.9395418,-6.5254097,-0.32276779,0.63710171,-0.6999445,0
-8.7438354,3.1888795,1.1792434,-0.93202066,0.33990821,0.12569761,0
-0.051340662,-8.1528339,-4.4539099,-0.0055262977,-0.87756932,-0.47941792,0
-6.4403663,-6.6091919,-1.9614774,-0.68265015,-0.70054489,-0.20790787,0
-3.6394498,-1.5035745,8.5525026,-0.38653815,-0.15969142,0.90834296,0
2.0448642,-6.0607443,-6.8682947,0.2178749,-0.64575636,-0.73179871,0
2.7557158,-7.341311,-5.2173891,0.29258239,-0.77944845,-0.55394548,0
5.2234726,6.8714452,-3.4503477,0.56193566,0.73922276,-0.37118474,0
4.2287564,-8.1733694,-1.6944262,0.45192477,-0.8734833,-0.18108235,0
-4.7246447,5.7897544,-5.7190752,-0.50207841,0.61526549,-0.60775453,0
-1.6857226,8.7829399,-3.1719306,-0.17764848,0.92558289,-0.33427128,0
-3.7942765,-8.1353598,-2.5832853,-0.40619668,-0.8709318,-0.2765539,0
-8.0601978,-4.9580851,-0.58967066,-0.85010558,-0.52292711,-0.06219231,0
-2.1111765,-9.0031195,-1.9775206,-0.22325334,-0.95206463,-0.20911945,0
9.4856911,-0.17136216,-0.43946463,0.99876589,-0.018043038,-0.046272043,0
8.8696814,-0.48680812,-3.3504753,0.93425173,-0.05127595,-0.35290867,0
-2.2152858,8.4880571,-3.5097408,-0.23446065,0.89835608,-0.37146273,0
5.9175978,0.40390012,-7.3500509,0.62654525,0.042764261,-0.77821094,0
6.3719506,6.1883755,-2.8847589,0.6822843,0.66262776,-0.30888906,0
-4.3666539,7.8406968,-2.7283428,-0.46551847,0.83587784,-0.29086205,0
0.31958473,3.0197165,8.9480124,0.033821281,0.3195731,0.94695783,0
0.8148334,3.4132986,8.8260822,0.085788913,0.3593657,0.92924517,0
-7.3750606,4.8797231,-3.369364,-0.77932507,0.51564193,-0.35604182,0
9.1780186,-1.1341563,1.6256899,0.97746295,-0.12078814,0.17313668,0
-8.5859747,2.6453466,2.4478531,-0.92205751,0.28408676,0.2628777,0
-6.6184692,4.3162284,-5.3156385,-0.69498897,0.4532364,-0.55818194,0
-5.8993897,-6.8130608,2.4178901,-0.63223833,-0.7301566,0.25912559,0
-3.6927376,-0.0010725856,8.6343679,-0.39322594,-0.00011421567,0.91944188,0
-3.7086926,0.83592194,8.6137314,-0.39389694,0.088782527,0.91485673,0
-5.907485,1.7338239,-7.0462418,-0.63134176,0.18529636,-0.7530424,0
4.7387013,7.8989606,1.3045522,0.509359,0.84905255,0.1402252,0
-3.7036464,-6.992784,5.1606507,-0.39203915,-0.74020165,0.54626626,0
-4.7372212,2.1152229,7.7920961,-0.50604814,0.22595622,0.83238155,0
-2.226387,4.6554465,-7.8717642,-0.2365358,0.49460393,-0.83631194,0
1.8003911,-3.3704302,8.5638723,0.19198658,-0.35940933,0.91321748,0
-5.4609385,6.0825982,-4.5574794,-0.58349729,0.64992118,-0.48696336,0
-2.9707699,1.8494457,-8.6241283,-0.31919503,0.19871411,-0.92662144,0
-4.506741,7.5317531,-3.2042091,-0.48232871,0.80607712,-0.34292674,0
1.4282777,4.7879725,7.9353728,0.15231135,0.51058877,0.84622717,0
7.8305907,-4.7485905,2.3612039,0.82798493,-0.50210279,0.24966715,0
2.332705,8.7666731,2.5287149,0.24769735,0.93088567,0.26851058,0
9.1346149,1.9527323,-1.278177,0.9688766,0.20711946,-0.13557175,0
7.0305443,6.1166372,-0.90192032,0.75093085,0.65331662,-0.096333906,0
2.5627947,-2.081816,-8.8216124,0.27207989,-0.22101662,-0.93654913,0
0.5818485,-5.7173119,-7.4448137,0.061866768,-0.60791016,-0.79159188,0
-3.6162677,2.4098747,-8.3926897,-0.38263178,0.25498518,-0.88801771,0
2.1985245,-0.33742043,-9.0745687,0.23530774,-0.036114056,-0.9712497,0
-4.6113281,8.0934858,1.6168956,-0.48775086,0.85606676,0.17102279,0
8.1636171,3.8986366,2.5763845,0.86787206,0.41446307,0.27389479,0
-5.9113393,6.8200755,2.3526309,-0.63379037,0.7312215,0.25223976,0
0.59121644,-9.4268999,0.66703022,0.062437419,-0.99555975,0.070443988,0
2.045167,0.72614032,-9.1832647,0.21673572,0.07695242,-0.97319263,0
-7.5390081,1.2656444,-5.5014629,-0.80046278,0.13438123,-0.58412409,0
-2.0309899,0.93900496,-9.1190853,-0.21630234,0.10000491,-0.97119117,0
-0.36104608,-3.3291552,-8.7986889,-0.038350489,-0.35362446,-0.93460101,0
-7.2559209,5.0910344,2.9699557,-0.77618897,0.54460418,0.31770563,0
-3.1801343,8.4316959,-2.9578722,-0.335298,0.88899732,-0.31186375,0
-6.9306784,5.5096102,-3.0422313,-0.74030632,0.58851373,-0.32495853,0
6.3276305,5.3468728,4.2831602,0.67849684,0.57333249,0.45927313,0
6.7721815,-5.3281078,-3.9425209,0.71466643,-0.56227374,-0.41605312,0
-1.321597,8.3167257,-4.2650571,-0.14000623,0.88105035,-0.45182806,0
7.7362127,-0.7935189,-5.2375469,0.82510245,-0.084632419,-0.55860829,0
-4.8672276,6.427474,4.7570748,-0.5199362,0.68660784,0.50816929,0
6.1818361,7.0914197,-0.122818,0.65705341,0.75373101,-0.013054049,0
-9.1693783,1.5666969,-0.57197523,-0.98385704,0.16810362,-0.061371867,0
-3.8062844,6.4674425,5.6997151,-0.40391403,0.68630993,0.60484052,0
0.077517524,3.6429417,8.6290741,0.0082757268,0.3889184,0.92123508,0
-4.0600991,1.6454848,-8.2496691,-0.43466657,0.1761625,-0.88319403,0
-1.5165744,8.6526947,3.364403,-0.16122065,0.91983169,0.35765556,0
-9.2227354,1.0377731,-1.5054764,-0.98090744,0.11037499,-0.16011876,0
7.1440158,5.9989042,0.69517058,0.76369655,0.64128393,0.074313857,0
-2.216433,5.4328532,7.3702893,-0.2352726,0.57669306,0.78235036,0
4.3071132,-5.5953083,-6.301517,0.45510364,-0.59121853,-0.66583884,0
3.6543243,3.2929869,-7.9834881,0.38969857,0.35116541,-0.85136229,0
4.0240855,1.8683808,8.361824,0.42511165,0.19737911,0.88335812,0
8.1951523,4.2257729,-2.3243005,0.86183608,0.44439974,-0.24443305,0
-3.2930989,-0.80005765,8.7537127,-0.35082218,-0.085232168,0.9325552,0
1.1362493,6.1578116,-7.0233998,0.12075612,0.65442806,-0.74641937,0
1.2139639,6.8436031,-6.2746243,0.12964527,0.73086262,-0.67009848,0
2.2070792,9.1161194,0.64934701,0.2347472,0.96959978,0.069065213,0
-0.95743924,-7.1256204,5.9937038,-0.10228699,-0.76125795,0.64033091,0
6.0966339,-3.4816997,6.1667852,0.65242743,-0.37259188,0.65993464,0
-4.4166899,-8.1984043,0.63564986,-0.47317898,-0.87833029,0.068099901,0
8.9517183,-2.3711538,1.7173856,0.9504565,-0.25175932,0.18234491,0
-1.9652174,1.7058431,-8.9734392,-0.21033759,0.18257672,-0.96042895,0
6.4411335,-0.75078833,-6.8741126,0.68159074,-0.079447255,-0.72740787,0
3.9988244,-3.1596754,7.9563494,0.42321491,-0.33440372,0.84205896,0
6.5559344,-4.4963145,5.0041246,0.69792026,-0.47866085,0.53272039,0
7.2319679,6.0371938,-1.2309335,0.76119965,0.63544387,-0.12956172,0
8.7804108,-1.5429536,2.9212363,0.93594211,-0.16447012,0.31138727,0
-9.2884674,-1.6503364,1.0073352,-0.97901452,-0.17394723,0.10617422,0
8.1717224,2.9050534,-3.4770601,0.87456232,0.31090754,-0.37212542,0
6.2559671,-6.1078343,3.4502876,0.66557646,-0.64981651,0.36707836,0
-3.31229,8.6312294,2.2002997,-0.3485449,0.90824503,0.23153263,0
9.2459145,-0.81135708,1.7004733,0.97986215,-0.085985877,0.1802125,0
9.169014,-1.9457661,0.4032813,0.97731215,-0.20739643,0.042985179,0
3.5037589,-5.5987086,-6.64888,0.37386438,-0.59740347,-0.70946074,0
6.5678062,3.0914807,6.0917034,0.69306964,0.32622939,0.64282876,0
-6.6826835,-5.9872999,2.7715421,-0.7116189,-0.63756961,0.2951332,0
1.4923023,4.7932701,-8.0639343,0.15710235,0.50461227,-0.84893191,0
-0.6570155,-2.6271057,9.0540991,-0.069522507,-0.27798882,0.95806515,0
-2.8265617,-6.1672244,-6.6745024,-0.29700166,-0.64802259,-0.70132494,0
-9.3859758,-1.0521051,0.57272124,-0.99195403,-0.11119141,0.060527872,0
6.2891226,-4.022891,5.6118355,0.67337745,-0.43073165,0.60086018,0
-3.7406554,6.8639655,-5.2914619,-0.39627254,0.72714555,-0.56055981,0
1.1256229,9.0499153,-2.3139265,0.11963732,0.96187425,-0.24593669,0
1.7778236,-9.295784,-0.80170846,0.18717563,-0.97869337,-0.084406734,0
4.6805639,-0.42971483,8.1262293,0.49858752,-0.045774493,0.86562997,0
-4.4314356,0.085872091,8.2740154,-0.47211283,0.0091485744,0.88149065,0
5.7034836,-7.5302777,0.17598051,0.60366732,-0.79701865,0.018626105,0
7.7399817,5.3990736,0.085425198,0.82013881,0.57209307,0.0090517681,0
-7.6227088,-5.3361044,1.1296554,-0.81325001,-0.56929719,0.12052044,0
8.7143927,-2.5003707,2.680202,0.9217788,-0.26448071,0.28350264,0
0.64718896,3.2052088,-8.8726816,0.06844186,0.33895886,-0.93830836,0
8.0285406,-2.4760253,4.1835103,0.85540837,-0.26381046,0.44573602,0
3.3843391,-6.117877,6.1626544,0.36313054,-0.65643185,0.66123635,0
7.5105376,-1.0888265,-5.4771156,0.80248612,-0.11633897,-0.58521903,0
-0.058253672,-4.8060694,8.1692238,-0.0061460128,-0.507061,0.86188823,0
3.077173,-8.9428673,-0.95869517,0.32371044,-0.94076592,-0.10085218,0
-0.78554291,-6.3726811,7.0083351,-0.08264529,-0.67045611,0.73733193,0
7.0706992,-6.111167,1.1090336,0.7513051,-0.64934891,0.11784161,0
0.30676642,5.0091343,-7.9306989,0.032686274,0.53372836,-0.84502399,0
-0.42654911,-7.4860058,5.7586164,-0.045116916,-0.79180914,0.60909986,0
6.6094966,-5.4838753,-3.8409743,0.70253628,-0.58289176,-0.40826464,0
2.3324161,-2.8702772,-8.5886526,0.24942616,-0.30694446,-0.91846162,0
-8.2453566,-4.5509562,-1.3026438,-0.86724073,-0.47866637,-0.13701116,0
6.7374377,6.2622123,-2.4411674,0.70795912,0.65802318,-0.25651392,0
-2.6189647,1.0487058,8.9291954,-0.27967677,0.1119903,0.95354033,0
5.3318853,-1.0221646,7.7204461,0.5649277,-0.1083011,0.81800216,0
-0.8273381,-7.6501675,-5.2898831,-0.088602036,-0.8192786,-0.56650889,0
6.4387622,1.5872196,-6.7495823,0.68046987,0.16774265,-0.71331835,0
0.27419865,-3.2747095,-8.6972942,0.029491939,-0.35221738,-0.93545347,0
3.230098,8.6475935,1.7268764,0.3439458,0.92080909,0.18388045,0
8.6842947,3.4647498,-1.186689,0.92141539,0.36761463,-0.12590931,0
8.0860834,-4.4326787,1.8164998,0.86035275,-0.47163346,0.19327413,0
-0.95086455,4.9659905,-8.0190134,-0.10030252,0.52384049,-0.8458904,0
5.5333319,-7.3916092,-1.8586878,0.58749533,-0.78479582,-0.19734409,0
-7.6444974,-0.94486898,-5.3980813,-0.81273681,-0.10045524,-0.57390553,0
3.6694908,-8.5768633,0.3075251,0.39313444,-0.91889054,0.032946996,0
-4.6522632,6.3540316,5.1431599,-0.49461561,0.67554289,0.5468064,0
-9.1339788,2.0101564,-1.4288129,-0.96542788,0.21246612,-0.15102024,0
-0.74592131,-7.5084734,5.7089477,-0.078835033,-0.79355657,0.60336804,0
-0.63001865,3.9609387,-8.4613199,-0.067282699,0.42300755,-0.90362471,0
-6.7442694,0.323742,-6.4470496,-0.72242069,0.034678023,-0.69058365,0
-7.3486257,-2.4284296,-5.2492857,-0.78580511,-0.25967747,-0.56131798,0
4.3500452,-3.1342974,7.6553326,0.46543631,-0.33535647,0.81908798,0
-6.2057095,4.5454941,5.1276369,-0.67127001,0.49168494,0.55465519,0
-4.2046876,8.390069,-1.0622653,-0.44519338,0.88834262,-0.11247292,0
8.725378,-1.6327437,-2.9341342,0.93327707,-0.17464025,-0.31383857,0
-5.7318277,4.9049935,-5.6654468,-0.6075381,0.51989877,-0.60050213,0
-0.92160493,0.46420273,-9.397604,-0.097482152,0.049100734,-0.99402529,0
0.39421961,-7.348639,-5.9289694,0.041714471,-0.77759856,-0.62737578,0
4.6867981,8.1131268,-0.73560232,0.49868014,0.86324507,-0.078268848,0
-7.9781833,4.4169564,-2.4361572,-0.84523112,0.46794474,-0.25809333,0
-2.510273,-2.9582541,8.5227575,-0.26806837,-0.31590763,0.91013283,0
-2.1932967,-8.5775328,-3.4082713,-0.23119257,-0.90414667,-0.35926148,0
-2.5937283,-1.0625768,8.9004259,-0.27795854,-0.11387172,0.95381981,0
9.2394934,0.9410845,-1.1037018,0.98790127,0.10062224,-0.11800954,0
7.1954861,-4.4183693,3.8650143,0.77484971,-0.47579443,0.41620612,0
2.5450833,1.4598708,8.8804731,0.27212521,0.15609221,0.94951731,0
-6.0329318,-6.8471618,-1.9260911,-0.6468364,-0.73413616,-0.20651084,0
-1.1407959,-8.9037914,2.4863651,-0.12247456,-0.95590097,0.26693335,0
6.1483545,6.9824629,-1.2355071,0.65510595,0.74398005,-0.13164304,0
0.47701994,8.7734537,-3.3408406,0.050746154,0.93333423,-0.35540405,0
-1.7260296,1.5538976,-9.0875053,-0.18401992,0.16566813,-0.96886051,0
-4.9835901,6.24891,-4.6817265,-0.53800905,0.67460805,-0.50542098,0
2.9061582,-8.8973589,-1.3340131,0.30738226,-0.94106722,-0.14109761,0
5.9630527,-6.1331282,-3.708966,0.63956487,-0.65780622,-0.39780366,0
-6.5289927,6.721622,1.0162476,-0.69269198,0.71312892,0.10781856,0
-7.0486255,-3.6088648,-4.9550772,-0.75456607,-0.38633448,-0.53044856,0
-9.0256538,2.574743,-1.0190616,-0.95601827,0.27272278,-0.10794137,0
4.3520999,1.4159768,8.1345377,0.4662821,0.15170714,0.87153083,0
7.5086555,4.8783498,-2.9016764,0.79771984,0.51827604,-0.30827421,0
-8.2053795,-2.0072165,4.0937905,-0.87411904,-0.21382876,0.43611148,0
-6.6950397,6.7071695,0.06901107,-0.70644784,0.70772773,0.0072819162,0
-7.5673065,-1.6965352,-5.2555089,-0.80776727,-0.18109557,-0.56099594,0
-4.6438951,-7.8265328,-2.2853608,-0.49491927,-0.83410621,-0.24356043,0
5.040473,-3.2066228,7.3364758,0.53275681,-0.33892655,0.77543467,0
-0.98120952,-2.6364894,-8.8931484,-0.10519553,-0.28265819,-0.95343494,0
1.1044077,-8.9545689,2.4893079,0.11799829,-0.95673347,0.26596525,0
-1.680342,7.1461844,-5.994463,-0.17729597,0.75400704,-0.63248682,0
3.0096228,7.0443225,-5.4175372,0.32077217,0.7507993,-0.57741296,0
8.233366,3.651582,2.8737226,0.8708747,0.38624182,0.30396464,0
-3.4694703,-7.957171,-3.5337064,-0.37018162,-0.84900528,-0.37703544,0
-3.7127037,-7.9968181,-3.0777884,-0.39757308,-0.8563354,-0.3295835,0
5.0300403,-2.0841353,7.7200823,0.53245205,-0.22061495,0.81720489,0
9.0444679,-2.4718795,0.048814781,0.96460968,-0.26363066,0.0052061891,0
-2.0487843,6.2880921,-6.644815,-0.2185363,0.67072773,-0.70877802,0
3.3530114,-8.0712843,-3.4359798,0.35703832,-0.85945362,-0.36587304,0
-8.3957882,3.4548185,-2.4908376,-0.89181101,0.3669751,-0.26457983,0
5.5887113,-6.5789437,3.679101,0.59558278,-0.70111078,0.39207771,0
-1.713562,-5.963819,-7.189827,-0.18042789,-0.62795466,-0.75704604,0
-2.5853949,8.9676666,1.178283,-0.27483732,0.95329714,0.12525597,0
3.2796397,8.8360853,-0.54562628,0.34738722,0.93593913,-0.057794031,0
-3.4548497,3.5025523,-8.0910864,-0.36484355,0.36988109,-0.85444546,0
0.44499856,-1.0609422,9.3946152,0.047016166,-0.11209347,0.99258476,0
-6.8628259,6.3696723,-0.042711277,-0.73294306,0.68027472,-0.004561522,0
-6.360497,-1.0536242,6.7973795,-0.67891747,-0.11246351,0.72555017,0
0.35245496,-2.9264083,8.8341923,0.037845682,-0.31423,0.94859225,0
-1.8657053,-7.7916389,4.833549,-0.19939113,-0.8327058,0.51656967,0
-4.368854,-5.8502288,6.0046177,-0.46214443,-0.61884665,0.63517815,0
-0.73238301,2.1486402,9.03895,-0.078584917,0.23054974,0.96988207,0
-6.3945203,-6.3688335,-2.4600635,-0.68358797,-0.68084198,-0.26298606,0
2.0083117,-5.9029212,6.9993672,0.21424636,-0.62972265,0.74669129,0
-7.4955831,-4.3751669,-3.7065234,-0.79424393,-0.46359965,-0.39274913,0
3.0742087,5.5960202,6.8351965,0.32867283,0.59828722,0.73077124,0
8.4723005,-0.93587667,3.8935513,0.90409863,-0.099869542,0.41548979,0
6.5946293,-4.240015,-5.1635876,0.70247316,-0.45165491,-0.55003572,0
8.0514536,2.2624748,4.3895712,0.85243279,0.23953535,0.46473774,0
-2.3158147,6.580194,6.3756371,-0.24504851,0.69628489,0.67463964,0
1.2555774,6.9252548,-6.2228279,0.13364831,0.73714972,-0.66238081,0
-8.1140289,-2.772831,3.6910796,-0.8691656,-0.29702252,0.39538428,0
-5.0008044,2.7592323,7.3805995,-0.53585106,0.29565996,0.7908532,0
5.459147,3.9039419,6.5576038,0.58179754,0.4160547,0.69886339,0
1.7849836,9.2756786,-0.1250459,0.18895327,0.98189688,-0.013237001,0
0.16737537,-7.3135786,-5.8807068,0.017832231,-0.77919126,-0.62653255,0
-6.3631253,-1.7736611,6.8400636,-0.66916639,-0.18652381,0.71932274,0
-7.0364332,5.6986852,2.3128181,-0.75293428,0.60978842,0.24748334,0
0.28266776,-4.9614158,7.9768057,0.030076999,-0.52791482,0.84876454,0
5.1229634,-1.4442574,-7.7486358,0.54495913,-0.15363398,-0.82426703,0
-8.6149158,3.7234092,0.25169295,-0.91760319,0.39659262,0.026808649,0
-1.6977324,-7.3821187,5.5670104,-0.18060003,-0.78528917,0.59220302,0
2.233568,8.2085791,3.8910728,0.23876476,0.87748367,0.41594931,0
5.038456,6.8321366,-4.044795,0.53581041,0.72655791,-0.43014038,0
-5.0238833,2.4659016,-7.5954237,-0.53249902,0.26136956,-0.80506563,0
-1.3336802,-7.3414388,-5.6997714,-0.14203945,-0.78187704,-0.60703641,0
0.020231783,-8.9260178,2.9880834,0.0021493658,-0.94827414,0.31744528,0
-3.1579638,7.8301258,-3.9760373,-0.33838943,0.83903176,-0.42604953,0
7.7236886,0.74572581,5.3047295,0.82170796,0.079336293,0.56435966,0
-4.1469402,7.3679032,4.1913786,-0.43944949,0.78077352,0.44415858,0
7.7648916,2.0109091,4.7005653,0.83521169,0.21629855,0.50560492,0
-1.176821,8.4077682,-4.2278795,-0.12408199,0.88650072,-0.4457804,0
-7.1382346,0.31854793,6.1407909,-0.75765151,0.033810645,0.65178293,0
0.80078179,-3.6278043,-8.6024885,0.085458346,-0.38715437,-0.91804594,0
2.4185836,4.5767379,7.785367,0.25869349,0.48953125,0.83272856,0
-0.023980731,9.4067068,-0.8249929,-0.0025395663,0.9961729,-0.087366983,0
3.5918601,3.5327842,7.8652744,0.38454771,0.378223,0.84206319,0
3.2564359,1.156978,8.8042765,0.34429628,0.12232491,0.93085802,0
1.1639991,9.1510706,-2.2969556,0.12244282,0.96261495,-0.24162023,0
-6.4962983,6.6012049,1.5159506,-0.69220924,0.7033875,0.16153122,0
-2.4211812,8.6160488,-2.9138153,-0.25723973,0.91541684,-0.30957991,0
9.3914452,-1.1333486,-0.46117944,0.99161917,-0.11966744,-0.048694782,0
0.27476886,-4.9129505,-7.994863,0.029268779,-0.52333462,-0.85162443,0
-3.942656,-7.834722,-3.3475571,-0.41996998,-0.83455116,-0.35658032,0
-3.1787467,-4.2730322,7.6800122,-0.3401221,-0.45720935,0.82175213,0
-3.4977896,1.8635285,-8.4593906,-0.37442493,0.19948357,-0.90554529,0
3.9464073,4.0113735,-7.5289278,0.41985431,0.42676601,-0.80099505,0
7.4103608,-5.8624978,-0.035395332,0.78424829,-0.62043589,-0.0037459347,0
-0.50098562,4.7675095,-8.0838404,-0.053305816,0.50727201,-0.86013585,0
-8.0182791,-3.6096313,3.2040799,-0.85675758,-0.38569111,0.34235772,0
5.604413,6.6686606,3.5886068,0.59487396,0.70783734,0.38090855,0
0.44207293,-6.895596,6.4057007,0.046918273,-0.73184639,0.6798526,0
-2.0019853,-6.5128231,-6.3336124,-0.21520571,-0.7001034,-0.68083894,0
7.5965753,4.8726125,-3.0281954,0.79800415,0.51185763,-0.31810552,0
-7.2192831,-5.6912766,2.4342828,-0.75914937,-0.59847063,0.25597891,0
6.84587,-0.10361305,-6.490283,0.72565895,-0.010982933,-0.68796688,0
-8.5792303,-2.0026176,-3.1895962,-0.91565686,-0.21373835,-0.34042397,0
-2.8534389,8.7514076,1.81849,-0.30411515,0.9327116,0.19381188,0
7.9509921,-3.6225033,3.1942053,0.85467982,-0.38939548,0.34335625,0
6.3435202,-1.5770174,-6.7962928,0.67272621,-0.16724168,-0.72074246,0
-2.4969034,-9.0088778,-1.6100399,-0.26321626,-0.94968957,-0.16972572,0
2.4865563,8.7843189,-2.3047266,0.26408085,0.93292499,-0.24476992,0
-4.9826188,-1.0575334,7.9028201,-0.52994758,-0.11247845,0.84053797,0
-7.9717655,-4.8971405,0.28337607,-0.85167599,-0.5231936,0.030274922,0
2.7261562,8.3093672,-3.3392124,0.29122567,0.88766044,-0.35671631,0
4.9446983,7.4520364,3.2070768,0.52044201,0.78434569,0.33755293,0
3.5791876,3.0623026,-8.0565948,0.38351545,0.32813042,-0.86327648,0
-4.2872634,-6.8310709,-4.9251552,-0.45368171,-0.72286946,-0.52118391,0
-4.9092216,-0.35494509,-8.0666752,-0.51950836,-0.037561338,-0.85363942,0
3.3035419,8.7225246,-0.57872558,0.35350555,0.93338031,-0.061928291,0
8.3335104,3.4660213,-2.5238247,0.88921255,0.36983567,-0.26930025,0
0.54203439,-1.9547335,-9.1757135,0.057680041,-0.20801099,-0.97642428,0
9.2257385,0.15116081,-1.4963448,0.98697168,0.016171219,-0.16007933,0
-5.2993455,7.7028484,1.1461941,-0.56258124,0.81773841,0.12168056,0
1.7915336,4.9589844,7.7085223,0.19182749,0.53098059,0.82538587,0
6.857841,5.2272525,-3.5763032,0.73462963,0.55995679,-0.38310283,0
-6.9288154,-5.9824071,-1.578396,-0.74590111,-0.64401835,-0.16991755,0
-4.2379022,4.6121378,-6.9547443,-0.4527919,0.49277648,-0.74306858,0
-7.17344,-5.4052906,-2.6186714,-0.76672912,-0.57774144,-0.27989522,0
-9.2549629,1.5839101,0.41701636,-0.98469865,0.168523,0.044369213,0
8.394021,3.0554266,-2.9461935,0.89239901,0.32483354,-0.31322059,0
2.2145197,-9.0451746,0.74369371,0.23705068,-0.96823013,0.079607822,0
-3.0929642,-8.3377409,3.2643967,-0.32649785,-0.88014424,0.34459451,0
-1.8051344,8.5596066,3.2914588,-0.19313256,0.91579819,0.35215545,0
0.024333905,-3.742347,-8.5780649,0.0026000827,-0.39987051,-0.91656792,0
6.5912085,-6.1935911,-2.3942201,0.7044813,-0.66198319,-0.25589895,0
6.2488971,-4.9011593,5.0731668,0.66310078,-0.52008575,0.5383383,0
-1.494378,-0.72869581,9.2786636,-0.15853049,-0.077303402,0.98432326,0
-0.050830103,-9.3348637,1.6625222,-0.0053607561,-0.98449391,0.17533657,0
-7.9438777,4.2309475,-3.1426699,-0.83328283,0.44381046,-0.32965425,0
2.3232093,8.9174824,2.1170669,0.24570712,0.9431302,0.2239051,0
6.8249397,-3.0782144,5.7413912,0.72336584,-0.32625565,0.60852206,0
5.9636521,-7.1254673,1.9820182,0.62769783,-0.74998349,0.20861521,0
-6.1046219,4.6843648,5.5131969,-0.64490032,0.4948625,0.58242142,0
-8.0425844,-3.4237564,-3.3982468,-0.85756975,-0.36507043,-0.36235037,0
-3.0462003,-8.0157118,-3.7166855,-0.32594186,-0.85767704,-0.39768344,0
6.3782754,5.3654985,4.2396426,0.6820786,0.57377446,0.45337796,0
4.3751373,-7.7017961,3.2020211,0.46451467,-0.81771088,0.33996323,0
1.0827658,5.6934247,7.3721833,0.11546486,0.60714,0.78616083,0
-6.1267633,2.436413,-6.6833797,-0.6525929,0.25951481,-0.71188092,0
4.9890552,7.6082082,2.1939821,0.53308117,0.81293803,0.23442727,0
3.6530595,-1.8918762,8.4911776,0.38717106,-0.20051131,0.89994103,0
-8.2657814,-3.8393099,2.2173569,-0.88123488,-0.40931809,0.23639776,0
-3.1796227,-3.6143429,-8.1407404,-0.33619964,-0.3821651,-0.86076689,0
0.63465172,2.0531723,-9.1240406,0.067705512,0.21903522,-0.97336507,0
-1.8855845,-8.9484968,-1.9691162,-0.20156772,-0.95658833,-0.21049722,0
-2.0238657,-8.8261204,-2.0108438,-0.21818841,-0.95152414,-0.21678454,0
7.200717,-5.5050516,2.6846867,0.76172066,-0.58234638,0.28399691,0
3.4552972,-8.6086855,1.0325662,0.37020272,-0.92233998,0.11062979,0
-8.924408,2.834491,-0.71794426,-0.95029366,0.30182382,-0.07644853,0
9.3522797,0.053065814,-1.5083681,0.98722672,0.0056016278,-0.15922335,0
-7.6885486,3.8696692,4.0271182,-0.80907083,0.40720773,0.42377618,0
-8.9128914,3.0374551,-1.5167309,-0.93449825,0.3184709,-0.1590261,0
0.84817719,-0.2889398,9.3972855,0.089850157,-0.030608328,0.99548483,0
-5.0122819,-3.2670422,7.3115544,-0.53054023,-0.34581003,0.77391374,0
6.2588487,-4.6957841,5.133131,0.66882163,-0.50179231,0.54852724,0
8.6331949,-1.826782,3.163532,0.92094487,-0.19487171,0.33746934,0
-8.9203424,-0.50444746,2.6730611,-0.95651376,-0.054091077,0.28662798,0
5.1735234,-7.08039,3.3345993,0.55144674,-0.75469995,0.35543549,0
-7.894908,3.403903,3.7782497,-0.84068674,0.3624635,0.40232569,0
3.6908488,3.1128955,-8.0646667,0.39266276,0.33117533,-0.85798538,0
2.868644,-0.68562901,8.9598684,0.30411249,-0.072685331,0.9498592,0
-5.8284822,-7.3207026,-0.9889437,-0.61941403,-0.77799773,-0.10509865,0
-3.3494699,-8.771842,0.59926546,-0.35599783,-0.93231368,0.063692823,0
6.4797812,3.7420604,5.7757096,0.68551111,0.3958813,0.61102575,0
9.4727716,-0.060034338,-0.417716,0.99900913,-0.0063312887,-0.044052798,0
-6.7934585,0.018581355,6.4499078,-0.72520465,0.0019835676,0.68853045,0
-1.8636203,-4.3014646,8.1203384,-0.19875796,-0.45875779,0.86604655,0
-7.2754078,5.9469056,-1.3172152,-0.76675779,0.62674648,-0.13882177,0
-5.0873303,-7.2893062,-2.8293064,-0.54535669,-0.78140634,-0.3032988,0
2.6904292,4.9756517,-7.4881191,0.28669086,0.5302031,-0.79793042,0
2.0645213,7.3191333,5.5831094,0.21883504,0.77581316,0.59179819,0
3.3288291,-5.3619571,-6.9249139,0.35528639,-0.57228243,-0.739097,0
2.1203229,-5.8722386,7.0258861,0.22558922,-0.62476975,0.74751073,0
-4.6748767,6.9888339,4.1492057,-0.49858671,0.74537575,0.44252264,0
-9.1012907,-2.0779982,0.18877995,-0.97471267,-0.22254547,0.020217594,0
-9.0560217,0.55755675,2.5538142,-0.96077681,0.05915264,0.27094075,0
6.2905712,-5.1461334,4.683836,0.67060649,-0.54860371,0.49932045,0
8.5641127,-3.5155435,-2.0892608,0.90239549,-0.37043074,-0.22014418,0
2.8746269,5.3333492,-7.2663779,0.30384335,0.56372625,-0.76804423,0
-1.601324,-2.4005277,-8.9400234,-0.17045899,-0.25553325,-0.95165461,0
-4.427875,8.2691708,0.80203354,-0.47033641,0.8783654,0.085193366,0
0.40205967,9.070817,-2.5699687,0.042607203,0.96125567,-0.27234557,0
-5.4315181,6.1301923,4.4759622,-0.58193576,0.6567921,0.47955701,0
7.8171043,-1.4572296,-5.0651965,0.82913864,-0.15456431,-0.53725135,0
-4.8348398,-3.6242495,-7.2730393,-0.51132143,-0.38329223,-0.76917976,0
4.3002825,7.0532966,-4.596519,0.45488596,0.74610108,-0.486222,0
2.6864219,5.4165392,-7.1503124,0.28689116,0.57844871,-0.76360363,0
5.7677855,-7.2797832,1.2594876,0.61537659,-0.7766946,0.13437726,0
-3.0946805,8.9149466,-0.95692092,-0.32626414,0.93987966,-0.10088569,0
7.695694,2.0489397,5.1673717,0.81064099,0.21582907,0.54431522,0
9.1838121,1.1378101,-1.7419806,0.97528362,0.12083082,-0.18499127,0
1.5160142,-3.3457165,8.634181,0.16156985,-0.35657111,0.92019141,0
5.3085699,-2.8115911,7.3222947,0.56050122,-0.29685965,0.77311879,0
1.2398622,-5.7643232,-7.2132111,0.133084,-0.61872941,-0.77424973,0
-5.6647577,1.3856055,7.4003572,-0.60122466,0.14706016,0.78543121,0
-5.1600518,-7.8816099,-0.93011492,-0.54509646,-0.83259583,-0.098255284,0
6.063199,2.153229,-6.9178863,0.64177573,0.22791436,-0.73224241,0
-6.8326077,6.1543417,-1.9567105,-0.72675323,0.6546092,-0.20812634,0
-8.8671455,-2.3214636,-2.1791553,-0.94116324,-0.24640131,-0.23129664,0
-3.2947176,-7.1539979,4.9123707,-0.35493568,-0.77069098,0.52920336,0
4.7701802,5.0913224,6.1348491,0.51344961,0.54801649,0.66033894,0
5.5829015,2.1472762,-7.3456731,0.58934629,0.22667232,-0.77542931,0
8.5075903,4.1723042,-0.68274122,0.8955192,0.43918175,-0.071866162,0
-2.1941531,0.68251133,9.1609869,-0.23231392,0.072263367,0.96995276,0
2.2150714,-8.5539713,3.162271,0.23602428,-0.91145813,0.336952,0
-4.2672009,2.664464,-7.9861698,-0.45210075,0.28229421,-0.8461175,0
9.0824738,1.7534152,1.4759196,0.96960562,0.18718702,0.15756279,0
3.237386,-1.9247398,-8.4667511,0.34935811,-0.20770568,-0.91367793,0
3.2920687,4.6591601,-7.6083455,0.34618387,0.48994303,-0.80007035,0
1.9403578,9.2532101,-0.12193692,0.20521486,0.97863203,-0.012896214,0
-4.0286126,8.4459305,-0.77800733,-0.42904037,0.89947718,-0.082856454,0
1.4122628,1.5859095,9.1736956,0.14998101,0.16842212,0.97423798,0
8.963728,-2.4001317,-1.5562588,0.95266676,-0.25508645,-0.16539948,0
6.9823041,2.3651268,5.7736659,0.74566627,0.2525807,0.61659127,0
3.5474081,-4.8840823,7.0947723,0.38081667,-0.52430958,0.76162863,0
-7.773232,2.8395922,-4.3801975,-0.83017528,0.30326629,-0.46780178,0
-7.7694173,-4.0204115,3.3680518,-0.82882881,-0.42889097,0.35929829,0
-3.215369,3.5397234,8.0948019,-0.34199461,0.37649375,0.86098319,0
1.4620183,-1.7692119,9.0511303,0.15657341,-0.18947202,0.96932197,0
6.6302648,-6.3019152,2.5410614,0.69838113,-0.66379529,0.26765588,0
-3.5629044,8.5564184,0.88452011,-0.38266811,0.91898859,0.095000483,0
-7.3870449,5.6581259,1.2320126,-0.78701156,0.60281354,0.13125792,0
-4.2341862,-2.2058301,-8.0938473,-0.45058715,-0.23473667,-0.86131871,0
-6.0530467,3.3016324,-6.2339106,-0.65119737,0.3551954,-0.67065501,0
-6.6488814,5.6870351,-3.3814974,-0.70883554,0.60629332,-0.36050057,0
-7.8588057,2.6044123,4.66783,-0.8268652,0.27402356,0.4911263,0
8.5736399,2.9890249,-2.6849451,0.90550083,0.31568441,-0.28356919,0
1.0460343,6.9135914,6.323288,0.1109568,0.73335069,0.670735,0
0.0047456147,-0.39377338,9.3584576,0.00050664536,-0.042039536,0.99911582,0
2.1282749,-5.2755837,7.3395371,0.22919133,-0.56812119,0.79038578,0
-6.6493711,-3.9179742,-5.3439527,-0.70833254,-0.4173671,-0.56927121,0
0.30356175,-9.0145855,2.7238896,0.032218326,-0.95675713,0.28909823,0
-1.0102081,-4.6461182,8.0761137,-0.10779238,-0.49575537,0.86174667,0
-6.0944462,-7.0203657,-1.7072849,-0.64477009,-0.74272901,-0.1806245,0
-7.7793856,4.4144068,-2.8676522,-0.82820719,0.46996558,-0.30529535,0
6.5114665,-6.4914641,-2.4363854,0.68456745,-0.68246454,-0.25614354,0
2.4978034,8.9790707,1.5496401,0.26437467,0.95037049,0.16401833,0
-2.3281531,1.9405617,8.8626871,-0.24855889,0.20717874,0.94620049,0
-1.3915552,7.7219801,5.3014483,-0.14695184,0.81546116,0.5598467,0
4.2628503,1.8188397,8.0841761,0.45746222,0.19518641,0.86754286,0
8.5304279,-1.5398571,3.7623882,0.90272909,-0.16295476,0.39815322,0
-2.68536,-7.4558868,4.9847083,-0.28683338,-0.79639125,0.53243542,0
-3.8303802,-7.2758608,-4.5657921,-0.4072651,-0.77360576,-0.48545775,0
-5.9927597,-5.8061662,4.2727165,-0.63926327,-0.61935884,0.45578179,0
-2.6526465,-6.714829,5.9771447,-0.28301162,-0.716407,0.63770324,0
8.044013,-4.8762422,-0.5455569,0.85371214,-0.5175162,-0.057900026,0
1.8876631,-7.9176044,4.7548361,0.20024922,-0.83992434,0.50440794,0
-3.7267449,0.79364711,8.64184,-0.3945913,0.084032111,0.91500622,0
1.625754,-7.6638989,5.2771811,0.17211017,-0.81133735,0.5586679,0
-1.9384378,-1.2155666,9.1555662,-0.20540531,-0.12880674,0.97016364,0
-1.2064514,6.035943,-7.0763564,-0.12863523,0.64356917,-0.75450099,0
2.5862939,4.7509627,7.7682652,0.27321726,0.50189382,0.82064301,0
-3.6727812,-7.8270955,3.6144998,-0.39192671,-0.8352384,0.38570744,0
-3.4730592,-0.74383414,-8.7125378,-0.36913252,-0.079058073,-0.92600811,0
-5.1992416,4.9197435,-5.9992671,-0.55669081,0.52676451,-0.64235079,0
8.9008427,-0.81041068,-2.7639184,0.95142585,-0.086626142,-0.29543984,0
2.7950964,8.7177706,-2.0062625,0.29823428,0.93017834,-0.21406643,0
-9.1732645,1.3633316,-1.7828652,-0.9713493,0.14436203,-0.1887861,0
5.9085407,6.7282619,3.0883613,0.62379175,0.71033347,0.32605246,0
-7.4204402,-5.1625042,2.4442508,-0.7924242,-0.55130059,0.26102003,0
3.041266,1.7731096,8.6455097,0.32579952,0.18994665,0.92616135,0
-4.9365067,6.2596707,-4.6954174,-0.53356099,0.67657483,-0.50750291,0
2.5018966,-4.7410135,7.7129374,0.26636112,-0.50474572,0.82114768,0
2.1804085,-8.1732931,4.0033503,0.23298405,-0.87334412,0.42777157,0
-7.7876635,2.5075951,4.5606594,-0.83141881,0.26771337,0.4869006,0
8.9236832,-2.7521222,-1.337984,0.94592708,-0.29173011,-0.14182881,0
-3.1846125,-7.8530989,3.8535168,-0.34209046,-0.8435784,0.41394404,0
0.88255191,-1.9928945,-9.1910629,0.093431681,-0.21097851,-0.97301525,0
8.5580893,3.9313493,0.089752696,0.9086656,0.41741583,0.0095296027,0
-0.59930819,-8.8571806,-3.3157504,-0.063241877,-0.93465221,-0.3498939,0
-7.6550093,-4.107574,3.7018125,-0.8106339,-0.43497515,0.3920067,0
2.5450828,-7.7876782,-4.5556245,0.27149332,-0.83074021,-0.48596516,0
2.1158955,-8.8561296,-2.1277869,0.22628213,-0.9471091,-0.22755383,0
-6.3979993,5.8360806,-3.7201562,-0.67882073,0.61920178,-0.39470449,0
-7.7397747,-2.6852453,4.4953332,-0.82825643,-0.28735614,0.48105904,0
7.4624195,5.460773,-0.99980944,0.80233014,0.58712095,-0.1074956,0
-8.9845381,-0.65050429,-2.6600845,-0.95655388,-0.069257028,-0.28321034,0
-5.0939913,-7.4869199,-2.3576727,-0.54437977,-0.80010498,-0.25195751,0
5.7737312,6.2429266,3.9157512,0.61673331,0.6668514,0.41826925,0
2.4450829,-4.0871892,8.1316566,0.25945917,-0.43371075,0.8628881,0
-5.2840428,5.7315664,5.267262,-0.56163663,0.60920352,0.55985302,0
-2.5413988,1.1908067,9.0342455,-0.26864272,0.12587617,0.95497972,0
-6.3225737,6.7998099,-1.5899861,-0.67117101,0.72183186,-0.16878451,0
0.69936776,6.9084253,6.2806706,0.074696325,0.73785782,0.67081016,0
-1.5963552,-9.1601,1.0216868,-0.17065792,-0.979258,0.10922315,0
-8.4696198,-4.0037227,1.202103,-0.8967241,-0.42389563,0.1272731,0
0.065273322,-9.1776094,1.7822052,0.006981642,-0.98163813,0.19062488,0
-3.1734993,-3.7165704,7.9881248,-0.33888564,-0.39687806,0.85302073,0
-1.3456694,9.1768379,-0.98823661,-0.14426941,0.98385012,-0.10594899,0
-2.3323884,8.8424139,-1.6892601,-0.25080618,0.95084167,-0.18164936,0
2.3808625,-8.5547123,3.1121576,0.25302976,-0.90916497,0.33074924,0
-9.2866554,0.87689877,-0.31529939,-0.99500322,0.093953855,-0.033782229,0
-0.56655663,8.1671677,4.5826817,-0.060386702,0.8705014,0.48844728,0
6.1701398,1.5968187,-6.9769115,0.65294218,0.16898002,-0.73831713,0
6.7052951,-4.4921494,-4.6576638,0.71956897,-0.48206848,-0.49983042,0
7.915659,-0.37701565,-5.0988703,0.8400107,-0.040008947,-0.54109275,0
5.0410943,-7.006371,3.8507121,0.53336751,-0.74130148,0.4074204,0
-8.258091,4.4736261,0.7433641,-0.87652874,0.47483876,0.078902014,0
6.1846275,-4.2280631,-5.6925702,0.65730155,-0.44935808,-0.60500574,0
6.6475563,5.0838599,-4.330421,0.70547956,0.53953046,-0.45957088,0
-6.5924897,1.8254434,6.5782862,-0.69465089,0.19234703,0.69315428,0
2.7451465,2.2272708,-8.7582216,0.29065365,0.23582143,-0.92731261,0
1.3580234,-7.4310694,-5.7374754,0.14316125,-0.78337473,-0.60483801,0
2.1640179,8.0677662,-4.1752214,0.23173514,0.86394149,-0.44710606,0
5.7738457,5.0965919,5.5633621,0.60772765,0.53644311,0.58557314,0
1.288512,-9.3477364,0.085922837,0.13654533,-0.990592,0.0091053573,0
9.1904268,2.2997003,0.82928115,0.9663952,0.24181893,0.08720088,0
6.3553367,5.5325708,4.1448307,0.67679214,0.58917421,0.44139108,0
-2.590636,2.0214052,-8.7844515,-0.27621913,0.21552654,-0.93661696,0
7.3030658,3.0743492,5.0649028,0.77657205,0.32691115,0.53857678,0
-7.4424281,-5.2527294,2.2978303,-0.79219192,-0.55911452,0.2445872,0
-3.3158479,3.5706511,8.0863562,-0.35121578,0.37820461,0.85650969,0
3.3101873,0.28163758,8.7351503,0.3541989,0.030135974,0.9346844,0
-3.0415194,-8.8211088,0.85854036,-0.32459632,-0.94140428,0.091624938,0
-1.323256,3.3172512,-8.7290201,-0.14030352,0.35172486,-0.92552936,0
1.9408519,-8.4953556,3.6184354,0.205694,-0.90034884,0.38348648,0
-2.3300261,7.7753773,4.7136307,-0.24823523,0.82836944,0.50217855,0
-9.3306818,-0.013481271,-0.31293422,-0.99943703,-0.001444019,-0.033519313,0
-3.843878,-4.6209669,7.1698556,-0.41084439,-0.49390179,0.76633412,0
-5.8713846,7.2448864,-0.46599296,-0.62883306,0.7759369,-0.049908459,0
2.3621645,8.480011,-3.584408,0.24852721,0.89219594,-0.37712148,0
-4.5332413,-7.6218586,-3.1336396,-0.4819797,-0.8103652,-0.33317235,0
7.4325523,-2.8012471,-4.9675941,0.79336464,-0.2990104,-0.53025037,0
5.7488465,7.2214274,-1.6817933,0.61273623,0.7696901,-0.17925259,0
0.092519797,-1.8777661,9.2806206,0.0097706718,-0.19830391,0.98009187,0
-8.0744505,-2.2708888,4.2398467,-0.85913002,-0.24162497,0.45112416,0
-4.5903778,7.8328161,2.0423667,-0.49328727,0.84172338,0.21947508,0
-6.9372115,-1.3529159,6.3274846,-0.73127741,-0.14261593,0.66700381,0
-5.7908497,0.71118748,7.4149785,-0.61375427,0.075376563,0.7858907,0
0.064903736,9.3375702,0.77771586,0.0069266655,0.99652553,0.082999505,0
-0.56991118,-9.2933455,-1.3898078,-0.060538944,-0.98718774,-0.14763266,0
6.5046129,3.6264467,-5.6531973,0.69569153,0.38786137,-0.60462958,0
-2.3276453,6.7920194,5.9714293,-0.24925281,0.72731441,0.63944262,0
-0.094860554,9.3206549,-1.5323277,-0.010042138,0.98670423,-0.16221544,0
3.5102162,8.8103352,-0.092400894,0.37010765,0.92893779,-0.0097424993,0
-9.2498808,-0.55113107,1.6945444,-0.98194551,-0.058506772,0.17988883,0
-3.2411497,7.3851099,4.5745201,-0.34956083,0.79649055,0.49336597,0
3.232193,2.3430915,-8.5432463,0.34275776,0.24847303,-0.90596813,0
7.0784678,1.0463107,6.0220265,0.75687456,0.11187816,0.64391315,0
-5.3722472,-6.6150165,3.8149796,-0.57539177,-0.70849788,0.4086014,0
-4.9781799,-1.7339275,-7.6732655,-0.5347389,-0.18625249,-0.82423562,0
1.171555,4.8093572,8.0399189,0.12408512,0.50938249,0.85154706,0
-7.7791486,1.9106253,4.8948274,-0.82867181,0.20352888,0.52142024,0
-4.4211292,-2.1951833,7.9820099,-0.47108606,-0.23390409,0.85050976,0
-5.1601672,6.527091,4.4992361,-0.54552782,0.69003767,0.47565484,0
-2.4195821,-5.3676243,7.2810383,-0.25839961,-0.57323617,0.77757949,0
-2.7101057,-7.0158105,-5.8072238,-0.28521088,-0.73834229,-0.61115086,0
4.3978872,8.26507,-1.747003,0.4617734,0.86782342,-0.18343341,0
-2.1004462,4.0851107,8.156867,-0.22437479,0.43638149,0.8713364,0
4.5583367,-2.9578688,-7.77038,0.48074138,-0.31194928,-0.81949699,0
5.1521363,-7.075069,3.3202314,0.55039334,-0.75581676,0.35469431,0
7.3167644,5.3327465,2.5382733,0.77813238,0.56713355,0.26994345,0
-2.9907365,7.0515351,-5.3434515,-0.32023391,0.755045,-0.57215148,0
-0.30465984,0.40490523,9.3392382,-0.032573577,0.043291599,0.99853128,0
-1.1170902,-9.2477407,0.64543253,-0.11963739,-0.99040842,0.069124103,0
0.069694877,8.9969568,2.6316292,0.007434757,0.95975763,0.28073117,0
6.7160597,-2.7905736,5.8661389,0.71878105,-0.29865897,0.62781894,0
-4.9625492,6.9547076,-4.0363517,-0.52518308,0.7360118,-0.42716426,0
-0.37056646,3.1069329,-8.790719,-0.039713584,0.33296981,-0.94210082,0
-8.1438589,-2.5481186,-3.9850075,-0.8647272,-0.27056307,-0.42313409,0
6.6635861,-6.6456966,1.4946555,0.69929224,-0.69741488,0.15685263,0
4.9750094,-4.1697497,6.7549701,0.53104085,-0.44508606,0.72103685,0
-8.6098099,-1.5348084,3.3793488,-0.91830742,-0.1637,0.36043549,0
7.3509817,-2.4882698,-5.2716861,0.78353226,-0.26522169,-0.56190264,0
4.9726248,7.292686,-3.318675,0.52732277,0.77335405,-0.35192943,0
4.9522352,5.1821747,-6.0541029,0.52781492,0.55232209,-0.64525324,0
-9.0781069,2.6634982,-0.49551013,-0.95823884,0.28114533,-0.05230353,0
-3.9368389,6.1976595,-5.8025403,-0.42067555,0.66225821,-0.62003726,0
5.0427465,0.0042126537,-7.9649196,0.53492314,0.00044686877,-0.84490067,0
5.5398984,6.7638183,3.3002305,0.592812,0.72378087,0.35315019,0
-9.1321459,1.661279,0.96349496,-0.97859502,0.17802161,0.10324752,0
8.2814693,2.8705378,3.3105679,0.88390017,0.30637905,0.35334447,0
-2.6470585,-0.33181566,-9.0884438,-0.27946445,-0.035031594,-0.9595167,0
4.8058767,7.7274294,-2.6064591,0.5077042,0.8163439,-0.27535251,0
-2.2745471,-7.9966111,-4.3389196,-0.24254254,-0.8527053,-0.46267346,0
-1.7276995,1.8936763,-9.1175928,-0.18241832,0.1999429,-0.96267664,0
6.5875254,5.598938,3.7163758,0.70002836,0.59497541,0.39492351,0
-2.5949171,9.0131912,0.046670195,-0.27666092,0.96095479,0.004975812,0
6.1776943,5.4413633,4.5927224,0.65532988,0.5772199,0.48719606,0
-5.4717755,7.4098482,-1.8534088,-0.58236319,0.78863299,-0.19725901,0
0.46419308,1.1864204,9.2923717,0.049491238,0.12649351,0.99073207,0
7.0525656,2.0639987,-5.754921,0.75560266,0.22113411,-0.6165747,0
-1.6263025,9.3296938,-0.53870791,-0.17144805,0.98355496,-0.056791663,0
0.50938487,-9.3805399,0.20010011,0.054210115,-0.99830246,0.021295195,0
-4.9502921,6.2483211,-4.8419776,-0.53075248,0.66992247,-0.51913935,0
-8.4796228,2.6761205,2.9185648,-0.90607685,0.28595269,0.31185868,0
9.0705814,-2.3494945,0.10020524,0.9679969,-0.25073403,0.010693732,0
-2.6200187,-0.7688393,8.9166746,-0.28095573,-0.082445897,0.95617288,0
-3.9001024,-2.5946317,8.0235033,-0.41977978,-0.27926803,0.86359382,0
-0.32503763,7.8843703,5.1073966,-0.034579556,0.83878911,0.54335713,0
-6.3967938,6.3014169,-2.8770247,-0.67842442,0.66830903,-0.30512846,0
-4.6832514,-5.9220166,-5.6121182,-0.49782681,-0.62950683,-0.59656483,0
6.9023724,-1.7994535,6.2845583,0.72605705,-0.18928361,0.66106951,0
2.2367921,6.5767155,-6.1837239,0.24050851,0.7071538,-0.66489786,0
3.1376708,6.3125486,-6.2259045,0.33361521,0.67118651,-0.66197401,0
-0.8276509,-2.0482006,-9.0984449,-0.08839789,-0.21875964,-0.97176641,0
4.5615964,3.8149309,7.2926893,0.48476854,0.40541914,0.77500635,0
-9.2469025,-0.75801337,-0.91190922,-0.99187732,-0.081308991,-0.097816765,0
-6.3674426,-5.7076774,-3.7826314,-0.68097985,-0.61041987,-0.40454167,0
-0.77962399,5.5343695,-7.6304107,-0.082427137,0.58513105,-0.80673873,0
7.3473368,-3.9053354,-4.5143523,0.77614188,-0.41254327,-0.47687724,0
2.9130788,-8.7050495,1.8915008,0.31081495,-0.92879719,0.20181628,0
-6.3626862,5.5054669,4.1928992,-0.6768266,0.58564049,0.44601694,0
-1.5030098,-4.6710844,8.0559435,-0.15933993,-0.49519989,0.85404199,0
-1.3652415,4.7759986,-8.0421686,-0.14443117,0.50526083,-0.85079443,0
-4.8987269,-7.8362627,-1.398666,-0.52411294,-0.83839881,-0.14964275,0
-8.1635666,-2.6303179,-3.9581218,-0.86422461,-0.27845496,-0.41902107,0
-1.1828866,1.7894602,9.2428446,-0.12466533,0.18859258,0.97411054,0
9.1207619,-0.013368869,-2.5529456,0.96298683,-0.0014115098,-0.26954469,0
-0.07146585,-7.360043,-5.7493,-0.0076518445,-0.78803939,-0.61557722,0
-8.8477802,2.691747,1.9659975,-0.93579447,0.28469536,0.20793572,0
-4.0510178,-6.1780572,5.9099736,-0.42818934,-0.65301567,0.62467945,0
0.8904025,-7.5947161,-5.4372363,0.094897784,-0.80943364,-0.57949263,0
3.7565217,-8.480444,1.4435242,0.4001894,-0.90343779,0.15378138,0
2.678535,8.6209116,-2.4804933,0.28610635,0.9208383,-0.26495263,0
-8.497983,-0.6535185,3.9025218,-0.9065451,-0.069715835,0.41631198,0
-7.3941493,5.132154,2.8338103,-0.78358924,0.54387605,0.30031088,0
5.4026966,-2.1995747,7.4568496,0.5706625,-0.23233117,0.78763342,0
-7.2275639,-5.4359403,2.6755257,-0.76635468,-0.57638484,0.28369194,0
6.0490122,-1.7464029,7.0432739,0.64030188,-0.18486077,0.74554676,0
-2.5928197,-8.6971283,2.5000398,-0.27543789,-0.9239049,0.26558182,0
5.5128784,-7.1540027,-2.1644952,0.593584,-0.77028757,-0.23305607,0
0.056671668,-9.2490959,1.1217815,0.0060825776,-0.99270666,0.12040095,0
0.69727266,0.71929675,9.3386593,0.074239247,0.076584175,0.99429548,0
-1.7638648,8.718009,-3.0458913,-0.18761083,0.92727798,-0.32397166,0
8.6536236,-1.1881548,3.3050387,0.92659396,-0.12722267,0.35388979,0
