-2.4717915,-8.2849512,-2.215359,-0.27694735,-0.92827213,-0.24821582,0
-6.6085396,-4.6273174,3.93576,-0.73621589,-0.51550037,0.43845829,0
6.3096189,-6.1001449,-1.917701,0.70236784,-0.67904985,-0.21347272,0
5.6105747,-5.2369609,4.6839848,0.62399828,-0.58244562,0.5209446,0
2.7646492,-2.1318209,-8.4134903,0.30350581,-0.23403332,-0.92364091,0
-2.9964414,7.2439842,-4.286675,-0.3353698,0.81076628,-0.47977623,0
-0.63285226,3.1984799,8.3814583,-0.070369229,0.35565102,0.93196589,0
-6.1631751,-6.1616592,2.0029576,-0.68922502,-0.6890555,0.22398981,0
-9.0044622,0.59816986,1.1663728,-0.98956966,0.065737486,0.12818168,0
5.8012571,-6.5334797,-1.8688638,0.6492759,-0.73122621,-0.209163,0
-0.6327889,4.4084077,-7.8054934,-0.070414178,0.49054971,-0.86856359,0
6.2189527,-6.0207167,-2.7252038,0.68530273,-0.66345793,-0.30030611,0
7.7993388,2.9516268,-3.6560261,0.8565619,0.32416221,-0.40152285,0
4.4518042,6.353828,4.6108465,0.49327779,0.70402968,0.51090032,0
2.6906388,7.0799975,-4.9381742,0.29758266,0.78304249,-0.54615843,0
6.9615941,-4.0465021,-4.0554423,0.77215517,-0.44882357,-0.44981518,0
-5.5904479,3.9241402,-5.686254,-0.62903237,0.4415409,-0.63981241,0
-6.0858712,-6.5242734,-1.4892651,-0.67280316,-0.72126925,-0.16464072,0
2.8807898,-0.69536251,8.5661707,0.3178167,-0.076714315,0.94504368,0
0.8946557,-8.3563452,-3.1353593,0.099739581,-0.93159676,-0.34954163,0
6.3856258,5.4705262,-3.2158897,0.70931774,0.6076681,-0.35722223,0
7.1149926,2.8224316,4.5641904,0.79837435,0.31670547,0.5121485,0
-1.53308,-6.1117315,-6.3974872,-0.1707311,-0.68063158,-0.71245468,0
-7.7884851,4.2267442,1.8070973,-0.86119002,0.46736047,0.19981475,0
-0.32905903,-7.5561461,4.797719,-0.03673904,-0.84363455,0.53565949,0
6.3945103,6.0897255,-1.912984,0.70773661,0.67400342,-0.21172674,0
-0.92854077,1.1808827,-8.9133406,-0.10272556,0.13064244,-0.98609334,0
8.3044033,1.7600617,-3.0057421,0.92216849,0.19544733,-0.33377481,0
3.3582635,-6.97997,-4.577879,0.37324432,-0.77576828,-0.5087949,0
7.2376308,2.8987677,-4.3008881,0.81283844,0.32555264,-0.48302093,0
7.4675636,-4.6341543,1.631701,0.83540905,-0.51843071,0.18254116,0
7.8357964,0.27612057,4.5690165,0.86346835,0.030427204,0.50348437,0
-7.6528106,4.0520916,-2.3869324,-0.85198426,0.45111769,-0.26573619,0
-4.3949552,7.767561,-1.4762843,-0.48584533,0.85867387,-0.16319752,0
-1.210886,-5.6234765,-6.9044032,-0.13474222,-0.62575644,-0.76829249,0
8.3655424,0.91841769,-3.3464565,0.92368126,0.10140707,-0.36949894,0
-3.4147446,1.770391,-8.1068134,-0.38055667,0.19730146,-0.90346491,0
-7.576232,-5.0249128,0.28735608,-0.83294731,-0.55244976,0.031592548,0
1.8694104,-8.7632542,-0.71278465,0.20797256,-0.97491503,-0.079297535,0
1.2939953,-8.9052887,-0.58342957,0.14349498,-0.98753393,-0.064698242,0
7.9246178,-2.9191337,3.0844905,0.88141131,-0.32467905,0.34307078,0
5.7201114,7.0218511,-0.45051807,0.63080031,0.77435303,-0.049682062,0
3.3696408,-3.1902316,-7.6814389,0.37548023,-0.3554886,-0.85594535,0
-4.9613857,-6.9695888,-2.7356744,-0.55237633,-0.77595979,-0.30457655,0
7.0957561,5.5897737,-0.8663016,0.78194809,0.61598974,-0.095465921,0
-6.7592444,-5.711731,1.3994794,-0.75443542,-0.63751686,0.15620339,0
5.1063871,-5.1736588,5.2732058,0.56861097,-0.5761019,0.58718669,0
8.2897863,-2.0198066,2.9700758,0.91757381,-0.22356687,0.32874957,0
-7.0360708,-5.5195594,0.51563162,-0.78549051,-0.61619073,0.057563912,0
-3.2488124,1.7252214,8.3248196,-0.3569611,0.18955755,0.914684,0
8.5720739,-2.7409267,-0.097697496,0.95243692,-0.30454239,-0.010855098,0
-4.1392579,2.4864552,7.5810418,-0.4605203,0.27663487,0.8434419,0
1.6918279,7.7450943,-4.3251004,0.18733986,0.8576315,-0.47892797,0
-2.8427935,-6.2133574,5.8438187,-0.31618327,-0.69106656,0.64996547,0
-2.1014924,-8.3521271,2.5710297,-0.23381041,-0.92925113,0.28605077,0
6.9267883,-4.8926296,2.780647,0.77613711,-0.54821241,0.31156766,0
2.1949062,-8.4884987,2.0179026,0.24396259,-0.94349182,0.22428873,0
-9.0596905,-0.41943696,0.084955059,-0.99888617,-0.046245486,0.009366814,0
3.8411291,6.2998223,-5.1533322,0.4267951,0.69998515,-0.57259649,0
-7.9086127,2.4466686,3.5741026,-0.87707663,0.27133909,0.39637318,0
-5.2772079,-5.5257616,-4.8141575,-0.58434325,-0.61186552,-0.53306985,0
1.823981,-7.2215428,4.8624339,0.20505713,-0.81186634,0.54664862,0
8.614316,-2.7022793,-0.74514008,0.95092106,-0.29830045,-0.082254864,0
7.3610382,-0.8607766,-5.1577191,0.81524092,-0.095331699,-0.57122153,0
4.1623263,-0.60267413,7.9773231,0.46155322,-0.066829495,0.88459164,0
7.1761231,4.5264401,3.2046266,0.79124075,0.49908617,0.35334274,0
-2.2617192,-5.9597435,-6.3516965,-0.25133634,-0.66228384,-0.70584011,0
-1.135324,-0.30752739,8.8429632,-0.12726638,-0.034472886,0.99126935,0
-1.6274512,-7.314712,-5.0288963,-0.180335,-0.8105303,-0.55724311,0
-4.8456082,7.133358,2.498806,-0.53970599,0.79451656,0.27831811,0
-1.70261,-2.2208164,8.5610266,-0.18903649,-0.24657163,0.95050913,0
6.9074678,5.6580534,0.22482383,0.77335596,0.63347226,0.02517114,0
6.0615578,-4.7525864,4.8249068,0.66691393,-0.52289629,0.53085327,0
2.3261132,-4.0888267,7.6645622,0.25865698,-0.45466554,0.85227686,0
8.988843,-0.83333457,0.53258127,0.99400181,-0.092151575,0.058893759,0
5.7099552,-4.832212,5.001749,0.6345517,-0.53700739,0.55584818,0
8.0714378,-2.8715539,2.6706524,0.89946032,-0.31999859,0.29761064,0
6.4366317,-4.6008778,4.2907257,0.7151432,-0.51118141,0.47672188,0
-1.5674264,-5.858459,-6.6431065,-0.17425616,-0.6513049,-0.73853683,0
6.9354634,0.67435354,-5.7528572,0.76752996,0.074628979,-0.63665396,0
0.81433427,8.3626652,-3.1580861,0.090722255,0.93165654,-0.35183179,0
5.6198025,5.8656387,3.9735985,0.6214475,0.64863247,0.43940741,0
5.5447106,-6.660038,2.6503232,0.61184794,-0.73492211,0.29245794,0
0.8850233,6.8394775,-5.883883,0.097626314,0.75445813,-0.64904714,0
-7.8127232,4.2793264,-1.1549892,-0.86977178,0.47640717,-0.12858218,0
-7.6297221,3.3483469,3.2086184,-0.8545292,0.37501502,0.3593654,0
-6.9585581,-4.7515197,-3.09324,-0.7752499,-0.52936471,-0.34461653,0
-8.2881374,-3.0388365,-1.6379305,-0.92312598,-0.33846313,-0.18243137,0
7.874918,-3.4512613,-2.6070478,0.876495,-0.38413268,-0.29016992,0
-4.8678827,3.2017848,-6.8852797,-0.5396952,0.35497731,-0.76336116,0
-1.3184199,2.8840735,-8.5209703,-0.14501004,0.31721276,-0.93720233,0
-3.7899086,-1.3666512,-8.0989714,-0.41897404,-0.15108316,-0.8953405,0
7.6786137,3.8505192,-2.6268601,0.85482723,0.42866185,-0.29243711,0
-2.3455141,-7.9937034,-3.5554678,-0.25895226,-0.88253039,-0.392535,0
2.6218905,7.7596388,-3.7543826,0.290995,0.86121678,-0.41668656,0
8.8540344,-1.6402057,-1.1420881,0.97545612,-0.18070279,-0.12582476,0
-4.8063016,7.3220372,2.0777409,-0.53393543,0.81341022,0.23081769,0
2.0042663,8.4810495,-2.4816101,0.2211944,0.93598378,-0.27387491,0
-4.8795633,-6.4183626,-4.2502866,-0.53537446,-0.70420796,-0.46633166,0
2.5743232,8.2849846,-2.5209649,0.28494155,0.91703182,-0.27903554,0
-2.058527,-5.117178,7.0402069,-0.23016822,-0.57216239,0.7871803,0
1.0930334,-4.8592386,7.5604439,0.12072948,-0.5367204,0.83507824,0
-3.2064707,8.3629246,-0.45871833,-0.35753387,0.9324984,-0.051148865,0
4.5792251,-4.9629059,6.033217,0.50569254,-0.54806316,0.66625965,0
4.2023883,7.7602997,-1.2607394,0.47140014,0.87050647,-0.14142261,0
-2.7834017,7.4517837,4.3293819,-0.30733791,0.82281172,0.4780421,0
-3.2989149,7.4852834,3.6174951,-0.36883318,0.8368876,0.40445185,0
8.7349463,1.6336091,1.7340264,0.96476161,0.18042965,0.1915206,0
-2.9394183,7.3905616,-4.4340248,-0.3227964,0.81160504,-0.48692876,0
-6.6027579,-3.3950336,4.949811,-0.73995501,-0.38047317,0.55471325,0
8.5155916,1.1123062,-2.6774728,0.94663638,0.1236496,-0.29764146,0
0.28609946,-7.2026081,5.5291352,0.031492647,-0.79283333,0.60862434,0
-6.5040917,-5.8734941,1.9475538,-0.7244944,-0.65425175,0.21693909,0
-2.4034929,-4.106009,7.5537515,-0.26923198,-0.45994267,0.84614831,0
3.8774524,-7.1159768,4.0008907,0.42903385,-0.78737134,0.4426921,0
-1.1996386,5.538929,-6.9505172,-0.13376586,0.61761904,-0.77501833,0
4.3522882,-3.6911669,6.8751783,0.48710257,-0.4131107,0.76946121,0
2.062397,8.1279287,3.3160605,0.2287138,0.90136355,0.36774144,0
-6.4779205,4.0504236,-4.5692163,-0.72768575,0.45499718,-0.51327485,0
-6.2350688,-0.59582168,-6.380898,-0.69733316,-0.066636994,-0.71364278,0
-3.0583067,-3.8853321,7.4693251,-0.34141764,-0.4337436,0.83384687,0
5.8954139,-4.6409936,4.7107944,0.6654529,-0.52385849,0.53173739,0
3.5992398,5.0148344,-6.6200433,0.39764398,0.55403888,-0.73138231,0
4.5617208,1.4001048,-7.5784192,0.50937313,0.15633918,-0.84622514,0
8.6225567,-2.1174283,0.65947843,0.9684788,-0.23782788,0.0740721,0
2.0471554,-7.9706707,3.8280168,0.22555375,-0.87820137,0.42176747,0
8.4792213,-2.8621066,-0.24395663,0.947128,-0.31969696,-0.027249925,0
-7.3292341,-4.8342867,1.3399017,-0.82521284,-0.54430181,0.15086216,0
3.7320154,3.8034451,7.1993146,0.41666842,0.42464331,0.80378205,0
6.6426091,-5.2420306,-2.8568058,0.7437619,-0.58694148,-0.31987181,0
-3.3160732,5.0238347,6.6316195,-0.37025422,0.56093335,0.74044961,0
-2.1434371,6.7019124,-5.7707152,-0.23554099,0.73646897,-0.63414031,0
4.0503826,-2.8065317,7.5758557,0.44817674,-0.31054404,0.83827204,0
3.7303894,6.5304632,-4.9676437,0.41387439,0.72453332,-0.55114365,0
-7.4727664,4.5728278,1.913115,-0.83333236,0.50994307,0.21334277,0
3.398169,-7.0186977,-4.5222716,0.37696838,-0.77860373,-0.50166821,0
2.3617232,7.8381834,-3.6165998,0.26389262,0.87581766,-0.40410918,0
5.4921651,-1.3270131,7.069809,0.60685223,-0.14662722,0.78117269,0
4.5447192,3.9350526,-6.745892,0.50296664,0.43549448,-0.74657166,0
6.6840301,-6.0100441,0.74172497,0.74108416,-0.66635674,0.082237899,0
3.8277991,-6.5633636,-4.9519181,0.4220635,-0.72369426,-0.54601192,0
-2.0724645,5.7800026,-6.5030966,-0.23171754,0.64624894,-0.72709644,0
3.5050912,-1.4759253,8.1158133,0.39107424,-0.16467372,0.90550727,0
0.56393403,-8.9280453,1.0771002,0.06258668,-0.9908548,0.11953903,0
2.8243508,8.3981714,1.3315536,0.31522229,0.9373095,0.14861304,0
6.2472868,-6.1879683,-2.2413523,0.68845814,-0.68192118,-0.24699959,0
-2.8916175,-5.4203949,-6.5661092,-0.32157698,-0.60280246,-0.7302174,0
-1.1165272,4.4654803,-7.7965322,-0.12332006,0.49321082,-0.8611244,0
-8.1348782,1.9982872,-3.2122896,-0.90674454,0.22273672,-0.35805404,0
-4.2344999,7.1455355,-3.5304499,-0.46918768,0.79173386,-0.39117807,0
-8.555851,-2.4925027,1.5666641,-0.94558787,-0.27547002,0.17314684,0
4.6769671,6.5053992,4.1396198,0.51860541,0.72135109,0.45902169,0
-2.1149349,-8.1593456,3.4545093,-0.23217012,-0.89570427,0.37922388,0
0.73439831,-7.1905661,5.4846172,0.080940679,-0.79249811,0.60447937,0
8.79426,0.22253899,2.1389844,0.97137803,0.024580749,0.23626348,0
-4.6826129,0.45093322,-7.6211081,-0.52284139,0.050349355,-0.85094172,0
-3.1678565,-8.4581747,0.62932897,-0.3498908,-0.93420821,0.069509588,0
-3.5852687,2.1936331,8.0010004,-0.39669618,0.24271706,0.88527989,0
-4.8846107,6.1074786,-4.6569009,-0.53664905,0.67099977,-0.51163167,0
-5.8590217,6.7098646,1.6341276,-0.64693868,0.74088669,0.18043634,0
-5.5477986,4.1495938,5.7772651,-0.61500394,0.46000525,0.64044154,0
-5.9692674,3.9638784,-5.3899345,-0.66573918,0.44208258,-0.60112745,0
-1.2195926,-3.8002355,-8.1669426,-0.13416855,-0.41806757,-0.89845324,0
-0.43156797,-1.8385047,8.8118782,-0.047888324,-0.20400704,0.97779745,0
4.3557525,-7.9524326,-0.086018912,0.48036501,-0.87701732,-0.0094864154,0
-8.0636921,2.4198689,3.219172,-0.89463055,0.26847363,0.35715273,0
2.4024765,-8.1377125,-2.910454,0.26782781,-0.90719122,-0.32445708,0
-2.7434194,-1.3818502,-8.5072632,-0.30331272,-0.15277751,-0.94056386,0
0.18078694,-5.8123708,-6.8606648,0.020101704,-0.64627767,-0.76283753,0
-5.7094812,-4.9885921,-4.9208274,-0.63166803,-0.55191249,-0.54441535,0
8.9235973,1.2439456,0.027820706,0.99041849,0.13806391,0.0030877842,0
-4.9985433,-4.765933,-5.8319464,-0.55297154,-0.52723867,-0.64516807,0
-0.97157282,5.7967424,6.9456096,-0.10678064,0.63709056,0.76335675,0
-7.8022785,1.4893547,4.4010792,-0.85919404,0.16400911,0.48465088,0
-7.8843417,0.68200201,4.5379186,-0.86427075,0.074760132,0.49744043,0
-4.7603927,-7.4613738,-1.2733573,-0.53237826,-0.83444238,-0.14240585,0
-8.9243231,0.027878536,-1.3130109,-0.98934466,0.0030905963,-0.14555953,0
-3.9958992,-6.2133627,-4.9181666,-0.45025411,-0.7001158,-0.5541743,0
-3.5898395,-1.4660608,8.1525736,-0.39764383,-0.16239446,0.90305454,0
7.220964,2.586319,4.7150235,0.80201846,0.28725743,0.5236885,0
4.419313,-0.63965547,-7.8753157,0.4881503,-0.070655331,-0.86989492,0
0.13417527,8.4047785,-3.2016902,0.014916733,0.93438852,-0.35594305,0
0.38769564,-3.77017,8.1587191,0.043096136,-0.41909102,0.90692085,0
-5.985178,-4.8215566,4.8469949,-0.65869451,-0.53063297,0.53343254,0
8.5014429,2.7147045,-0.60766768,0.95041054,0.30348775,-0.067933619,0
0.40974548,7.4827046,4.9022412,0.045756426,0.83559632,0.54743505,0
-0.26699826,-1.0598948,8.9290409,-0.029680686,-0.11782251,0.99259096,0
-3.9237707,4.9297929,-6.2975016,-0.4404636,0.55339479,-0.70692718,0
5.6111727,-5.9915924,3.549015,0.62742686,-0.66996437,0.3968417,0
-3.3232236,-5.0979714,6.6459212,-0.36878887,-0.56573838,0.73751938,0
1.1073933,-8.9471941,-1.0452977,0.12201523,-0.98582315,-0.1151734,0
4.1889548,3.1158717,7.3553782,0.46441543,0.34544629,0.81546623,0
-8.674036,2.3561542,-1.1254953,-0.95755368,0.26010317,-0.12424691,0
-5.7483826,-6.5781918,2.2975483,-0.63637519,-0.7282393,0.25435027,0
7.0143871,5.2706413,-1.776983,0.78355211,0.58876449,-0.19850041,0
-8.2277431,-3.6505945,-0.9642356,-0.90886635,-0.40325791,-0.10651296,0
-0.1741849,-9.0343227,-0.3627018,-0.019261258,-0.99900979,-0.04010734,0
6.1335931,6.4073524,-0.43188089,0.69068819,0.72151554,-0.048632998,0
8.0087147,1.9825319,-3.8532782,0.87950683,0.21771912,-0.4231621,0
4.8628139,-5.3504977,-5.3621674,0.54022056,-0.59439838,-0.59569478,0
8.2123432,0.075319387,-3.7680855,0.90886158,0.0083356109,-0.41701472,0
-8.3953142,2.2034018,-2.656368,-0.92489612,0.24274467,-0.29264709,0
5.636138,6.6495595,-2.0521491,0.62937671,0.74254352,-0.22915955,0
4.0760164,5.9780884,-5.3951387,0.45161304,0.66235816,-0.59776872,0
3.4362538,-6.4159598,5.2597203,0.38266432,-0.71448708,0.58572716,0
-5.7552247,-6.8621421,-1.1444602,-0.63742113,-0.76001805,-0.12675494,0
-8.3155117,-0.36246902,3.4362869,-0.92344886,-0.040252674,0.38160431,0
2.0320697,-5.6661048,6.7570753,0.22455233,-0.62612861,0.7466855,0
5.0602927,-4.5136633,-5.8575573,0.56473285,-0.50372851,-0.65370822,0
-6.9238544,4.282506,-3.7723176,-0.77165473,0.47727981,-0.42041999,0
-4.8571291,4.4657335,-6.1466284,-0.53863299,0.49522904,-0.68163246,0
-8.4379053,0.26765075,-3.1783462,-0.9354009,0.029670961,-0.35234192,0
-5.3656917,-3.6382046,-6.2814684,-0.59441465,-0.40304255,-0.69586498,0
-6.7972112,2.0886569,-5.5489349,-0.75359493,0.23156574,-0.61520076,0
0.31926376,6.4552908,-6.1826544,0.035695236,0.72173285,-0.69125074,0
0.86392307,1.5940639,-8.8110723,0.09603747,0.17720312,-0.97947735,0
3.4701698,-6.482491,5.3485365,0.38165638,-0.71295762,0.58824301,0
-8.3132305,1.9021324,-3.0142035,-0.91908944,0.21029487,-0.3332426,0
8.3646402,-3.0842028,-0.9554221,0.93291038,-0.34398189,-0.10655846,0
6.345222,0.29933181,6.3722892,0.70520961,0.033267815,0.70821786,0
-7.9872012,4.0437622,0.86240357,-0.88806379,0.44960916,0.09588708,0
-6.0605769,4.0987382,-5.4181771,-0.66568846,0.45020181,-0.59512782,0
2.7742808,1.4973259,8.487009,0.30642799,0.16538432,0.93741667,0
7.3061018,5.2608805,-0.89392042,0.80753791,0.58148116,-0.098804347,0
-0.05873543,8.1442423,3.7099483,-0.00656289,0.91000897,0.41453657,0
-5.7750669,-5.0053735,4.8201871,-0.63915652,-0.55397058,0.53347504,0
-2.5574374,-8.5616207,-1.7460881,-0.2809003,-0.94037956,-0.19178443,0
3.3059366,4.4749765,7.0212793,0.36903188,0.49952835,0.78376454,0
-3.3673861,-6.7722421,-4.8630509,-0.37449673,-0.75316054,-0.54083389,0
5.1408896,-6.3103004,3.8382344,0.5712781,-0.70122814,0.42652139,0
-1.9800771,8.772954,-0.18737611,-0.22011657,0.97525114,-0.020829787,0
-2.3153892,-3.4432411,-8.0018196,-0.2568756,-0.38200256,-0.88774371,0
-2.9719405,6.6467476,-5.4620504,-0.32651654,0.73025453,-0.60009605,0
-2.5482998,-6.139533,-6.0787315,-0.28290236,-0.68158716,-0.67483717,0
6.1118612,6.3646412,1.1425848,0.68690377,0.71531337,0.12841356,0
-5.6417942,-2.2975202,6.6306019,-0.6265825,-0.25516456,0.73640037,0
-8.2123022,3.5934436,-1.4437333,-0.90447855,0.39577121,-0.1590085,0
-4.1974277,-6.3182945,4.8771014,-0.46544698,-0.70062697,0.54081506,0
-5.6374502,6.0005484,3.5865624,-0.6277377,0.6681692,0.39936858,0
-7.9384236,0.45536575,-4.3847065,-0.87424827,0.050148837,-0.48288202,0
4.5282927,5.4370775,5.5945315,0.50201064,0.60275936,0.62021482,0
6.4526916,-4.8219175,3.953414,0.71911031,-0.53737116,0.44058216,0
-6.5209503,-5.7341652,-2.4159796,-0.72347724,-0.63618606,-0.26804471,0
5.9707208,-2.36762,6.2204099,0.66776133,-0.26479301,0.6956864,0
3.8555672,4.5541415,-6.7642303,0.42744645,0.50489372,-0.74991465,0
6.0082574,6.6186738,1.2767128,0.66538626,0.73298699,0.14138994,0
3.3691633,7.9869285,2.2665784,0.3760272,0.89140898,0.25296938,0
2.3611221,4.2124438,7.57935,0.26272646,0.46872649,0.84336841,0
-7.7745314,-3.7892966,2.4559572,-0.86472428,-0.42146549,0.27316448,0
-3.3079593,8.1511812,2.006737,-0.36662132,0.90339583,0.22240677,0
0.033574212,-8.1505356,-3.7320223,0.0037452853,-0.90921217,-0.41631621,0
-1.4446323,-4.5678749,7.7544675,-0.15848862,-0.50113523,0.85073191,0
6.3225121,3.4574261,5.2729626,0.70806491,0.38720086,0.59052473,0
5.9316373,2.0428522,6.3174148,0.66623521,0.22945099,0.70956528,0
-2.2538536,8.2470169,2.5608914,-0.25253946,0.92406058,0.28694239,0
-7.542769,4.073441,2.8119938,-0.83605659,0.45150888,0.31168741,0
-7.5619125,5.0759196,-0.26185215,-0.82994753,0.55710071,-0.028739231,0
-8.7202988,0.32236379,2.1642163,-0.96993226,0.035855543,0.24071918,0
1.883396,-8.8391609,0.32448524,0.20826174,-0.97741479,0.035880856,0
-5.6745033,5.748436,3.7282159,-0.63785005,0.64616054,0.41907504,0
-3.7766976,7.9612665,2.2105782,-0.41572043,0.87633735,0.24332966,0
-2.4390202,-3.8308609,7.8672099,-0.26849914,-0.4217197,0.8660605,0
2.0461786,5.6062593,-6.7214842,0.22764094,0.62370616,-0.74777687,0
-1.8443733,0.065077029,8.77882,-0.20559949,0.00725439,0.97860932,0
3.170505,7.6468315,-3.834986,0.34752017,0.83817184,-0.42035416,0
-1.2640069,-8.343215,-3.4345176,-0.13874038,-0.91577101,-0.37698078,0
2.8371928,-6.3558874,-5.7193193,0.31493744,-0.70552379,-0.63486272,0
-8.4749823,1.6469365,2.1619725,-0.95223409,0.1850469,0.24291544,0
3.2340357,-0.42113349,8.3710213,0.35998154,-0.046876501,0.93178099,0
7.504806,4.2332516,-2.7010956,0.83110952,0.46880567,-0.29912916,0
-7.7214427,0.70516902,4.5582137,-0.85849333,0.078402825,0.506796,0
-2.4696684,8.0005054,3.2428219,-0.27504802,0.89101964,0.36115444,0
3.7628968,6.3161955,5.0903449,0.42079586,0.70632523,0.56924123,0
-7.2304168,-3.6531637,3.9037135,-0.80405736,-0.40624946,0.43411183,0
3.9136076,0.0088118678,8.2257662,0.42962694,0.00096734683,0.9030059,0
-1.3809928,-3.1139281,8.2111559,-0.15534751,-0.35028493,0.92367077,0
-4.226274,-7.900631,0.29185671,-0.47143304,-0.88130075,0.032556076,0
-5.5273857,-7.1476183,0.51122046,-0.61076355,-0.78979558,0.056488696,0
-8.7277489,-1.1845646,1.8740894,-0.9692176,-0.13154604,0.20811786,0
-0.89318252,8.6335669,-2.0058062,-0.10026301,0.96914947,-0.22515908,0
-8.4367647,-1.1596079,-2.6076403,-0.94727278,-0.13019979,-0.29278365,0
4.9872742,5.2455521,-5.3770833,0.55311227,0.58175653,-0.59634393,0
8.5842247,1.5336331,-1.7888333,0.96433169,0.17228475,-0.20095333,0
4.0663104,-4.1291208,6.8796573,0.45205173,-0.45903435,0.76481152,0
-8.4939499,-2.0313518,-1.9845127,-0.94839746,-0.22681189,-0.22158204,0
-0.84063351,-7.7069273,-4.4707751,-0.093932137,-0.86116976,-0.4995631,0
-6.9467449,5.5965781,0.23303527,-0.77845603,0.6271556,0.02611406,0
-4.6424308,-0.2383039,-7.7012997,-0.5160839,-0.026491467,-0.85612833,0
2.3153951,-5.8749948,-6.3353095,0.2588484,-0.65679199,-0.70825267,0
-7.0670128,-4.215652,-3.6016493,-0.78674877,-0.46931556,-0.40096051,0
-5.6671433,-4.5261731,5.2015214,-0.63496232,-0.50712484,0.58279276,0
-0.2308443,8.268939,3.3249197,-0.025892859,0.92749304,0.37294263,0
-1.7557193,-3.7870164,7.9384346,-0.19575439,-0.42223442,0.88509792,0
5.2808528,3.4131441,6.5307708,0.58250552,0.37648755,0.72037798,0
5.6920843,7.0381303,0.23988394,0.62861371,0.77726632,0.026491938,0
-3.4431853,-3.0585697,-7.7372646,-0.38239765,-0.33968252,-0.85929495,0
-3.9225247,-1.3460447,7.9451041,-0.43766969,-0.15018974,0.88650334,0
-5.1814537,-1.3092051,7.1750464,-0.57914931,-0.14633445,0.8019802,0
7.6011443,0.005051136,-4.9037066,0.8403095,0.00055840507,-0.54210669,0
-4.2090425,6.8778076,-3.9074595,-0.46973896,0.76757938,-0.43608159,0
8.7925158,-0.037851252,2.0113733,0.97481006,-0.0041964985,0.22299726,0
-3.1957448,0.16357315,-8.4476376,-0.35377029,0.018107617,-0.93515706,0
-4.5584512,-5.6006665,-5.4534545,-0.50374359,-0.61891633,-0.60264832,0
-8.178154,-3.7796819,0.041304298,-0.90773231,-0.41952491,0.0045845611,0
-0.44339085,-7.8759527,-4.4304681,-0.049007297,-0.87051678,-0.48969272,0
2.8384261,1.7673289,8.3378983,0.31596506,0.19673373,0.92814976,0
5.8629813,6.6692019,-1.588045,0.64994085,0.73931444,-0.17604275,0
-5.0802736,4.8767061,5.5619793,-0.56612998,0.54344505,0.61980981,0
5.8597112,5.2211051,-4.4690309,0.64880663,0.57809806,-0.4948259,0
-2.7880394,6.7607093,5.2713094,-0.30927277,0.74995464,0.5847379,0
5.5779395,5.5110617,-4.342442,0.62230378,0.61484259,-0.48446533,0
4.2861977,4.0319419,6.7221742,0.47976449,0.45130503,0.75242925,0
2.2596109,7.1817985,-4.9457645,0.250844,0.79726601,-0.54903936,0
6.2542491,-5.785244,2.9727678,0.69311327,-0.64113683,0.3294504,0
-1.694429,1.712314,-8.5410318,-0.19093768,0.19295307,-0.96245098,0
8.6579943,1.3332721,-2.1580439,0.95965856,0.14778088,-0.23919921,0
-3.4833281,6.705761,5.0429854,-0.38342625,0.73813456,0.55510503,0
-4.1050305,-4.3572454,6.7994666,-0.45313248,-0.48097315,0.75055695,0
-1.5170622,2.2312005,8.7131786,-0.16631973,0.24461268,0.95524985,0
-7.6802969,-1.6367375,-4.2747741,-0.85900778,-0.18306196,-0.47811487,0
-5.9872928,-6.806417,-0.44024161,-0.65970403,-0.74995846,-0.048507594,0
-6.4372811,6.1434917,1.6757787,-0.7109251,0.67847937,0.18507086,0
4.6910491,7.4603033,-2.0448234,0.51853514,0.82464063,-0.22602893,0
6.2905436,-5.2742243,-3.5876582,0.70216548,-0.58872151,-0.40046296,0
-7.3766141,-3.5520318,-3.7802172,-0.81800246,-0.39388949,-0.41919327,0
-3.7198558,-7.5832424,-3.12305,-0.41307175,-0.8420819,-0.3467994,0
-6.9083848,-2.9088161,5.0208645,-0.76572847,-0.32241449,0.55651486,0
7.2762527,-1.2243026,-5.1990213,0.80612427,-0.13563851,-0.57599115,0
7.5350027,3.3781152,3.7128417,0.83223826,0.37311158,0.41008201,0
0.79835153,-5.1074677,-7.4447322,0.088083923,-0.5635184,-0.82139409,0
-8.6030827,0.31502959,2.5243571,-0.9589535,0.035115171,0.28138065,0
-5.1529818,5.1236815,-5.2480898,-0.57487267,0.57160389,-0.58548301,0
4.8860073,-2.5096917,-7.2729759,0.53609008,-0.27536201,-0.79798698,0
2.4252248,0.70188946,8.5573549,0.27182418,0.07866922,0.959126,0
3.9238753,-8.0407734,-0.29453328,0.43832585,-0.89821374,-0.032901544,0
-5.9645662,-2.308341,6.2365537,-0.66769773,-0.25840503,0.69814509,0
-5.9141345,-6.1118941,-2.7431259,-0.66181225,-0.6839422,-0.30696532,0
-5.4239988,0.27375305,7.1043119,-0.60655057,0.030613035,0.79445529,0
3.5583544,6.541594,-5.1489344,0.39303631,0.7225486,-0.56872308,0
-5.8937206,3.8574762,5.5745993,-0.65610552,0.42942509,0.62058002,0
-4.022109,4.8993731,6.2723327,-0.45103103,0.54940563,0.70336646,0
-0.71576214,-3.9037852,8.1346989,-0.079078786,-0.43129775,0.89873731,0
7.1624522,-3.6260316,-4.0921988,0.79487222,-0.40240851,-0.45414266,0
3.3493621,8.1961489,1.8131818,0.37059286,0.90686947,0.20062095,0
-1.5914422,-0.22076422,-8.8663807,-0.1766154,-0.024500016,-0.98397499,0
-2.7419338,2.8509235,8.0012369,-0.30719993,0.31941089,0.89644015,0
-2.0469942,-4.9134345,-7.2818456,-0.22694382,-0.54473704,-0.80731535,0
5.3517499,4.1839895,-5.9058981,0.59454119,0.46481133,-0.65610307,0
3.7305453,8.1989117,0.081153296,0.41413271,0.91017193,0.0090089338,0
5.9384985,5.9534078,3.3003244,0.65739894,0.65904945,0.36534989,0
3.7535272,-3.4793048,7.4957376,0.41354907,-0.38333631,0.82585126,0
5.4520068,7.0207739,-1.1903712,0.60791135,0.7828325,-0.13272914,0
-1.0580431,8.7411108,-2.0463967,-0.11704545,0.9669807,-0.22638154,0
0.61528116,8.8285389,2.1445038,0.06756822,0.96952206,0.23550259,0
-2.7948456,6.9217944,4.9435139,-0.31215981,0.77310389,0.55214727,0
2.8096111,6.6954842,5.1522064,0.31556982,0.75202322,0.5786854,0
-0.3018603,8.856616,1.2246087,-0.033742588,0.99001145,0.13688937,0
2.1367078,1.5920173,-8.600585,0.23730931,0.17681432,-0.95520729,0
1.3544748,-3.1767902,8.2877178,0.15085813,-0.35382324,0.92306602,0
1.0214314,3.830941,8.1360397,0.11285704,0.4232772,0.89894366,0
-8.8702068,0.39839679,-1.5162894,-0.98473752,0.044228535,-0.16833283,0
-8.458086,2.4173584,1.4104325,-0.94937545,0.27133572,0.15831359,0
-5.7366776,4.7143621,-4.9423976,-0.64314318,0.5285306,-0.55409586,0
-7.4019656,4.9834065,1.339992,-0.82032156,0.55228519,0.14850439,0
1.6405594,3.4236879,-8.0462446,0.18439642,0.38481736,-0.90438575,0
8.5397682,-0.51136446,-2.4805481,0.9587245,-0.057408776,-0.27848089,0
4.2169132,-7.1502843,3.4519153,0.46905392,-0.79533744,0.38396201,0
5.1565447,-6.9677763,-2.5821593,0.57011503,-0.77036738,-0.28548726,0
1.087953,5.3957496,7.0547285,0.12158598,0.60301089,0.78841281,0
-0.72901541,-6.5039086,6.12604,-0.081323296,-0.7255255,0.68337339,0
-6.083909,-5.428256,3.8630567,-0.67431402,-0.60164434,0.42816442,0
-3.043515,7.0116987,-4.9275541,-0.33465901,0.77099282,-0.54182428,0
-7.9225445,-3.4748468,-2.0793061,-0.89042777,-0.39054373,-0.23369662,0
7.2643542,2.6466155,-4.7789464,0.79922831,0.2911821,-0.52578235,0
-7.2068434,-2.3265204,-5.0160861,-0.79338765,-0.2561222,-0.55221134,0
2.2759924,-3.8252468,-7.8750424,0.25160387,-0.42286912,-0.87056142,0
4.1528597,-7.6207032,2.119972,0.46483976,-0.85300398,0.23729365,0
2.0118477,8.5764656,-1.9283627,0.2230958,0.95105284,-0.21383807,0
1.0998565,-1.1661072,8.9173603,0.12139311,-0.12870532,0.98422486,0
0.23889242,-9.0522356,0.57061267,0.026329026,-0.99767315,0.062888876,0
5.590332,-5.2002478,-4.7746758,0.62079585,-0.57747775,-0.53021878,0
8.7227364,0.53037614,1.9730737,0.97364795,0.059201565,0.22023813,0
7.6680388,-2.693439,3.9974473,0.84662282,-0.29738072,0.44135535,0
1.3166993,-8.9260798,0.5491448,0.14566278,-0.98746735,0.060750362,0
2.4319673,-7.9851336,3.3262985,0.27065149,-0.88865852,0.37018085,0
-0.5940882,-5.2308602,7.4072666,-0.0653743,-0.57561123,0.81510603,0
5.1126509,6.9692426,2.4495227,0.56909299,0.77575165,0.27265823,0
0.68804502,-0.69559443,9.0190001,0.075843424,-0.076675601,0.99416733,0
3.6632385,8.1326418,-1.6822187,0.40358081,0.8959772,-0.18533087,0
7.3275633,4.515974,2.2338665,0.82401186,0.50783819,0.25120664,0
8.218399,3.5821879,-0.25177702,0.91634244,0.39941001,-0.02807286,0
-7.1131482,5.5523081,0.67397565,-0.78609478,0.6136018,0.074483015,0
9.0612383,-0.30343449,0.62738895,0.99705535,-0.033388481,0.069034882,0
-1.9361143,6.5310955,5.795239,-0.21647967,0.73025101,0.64797384,0
-1.054616,-2.5270026,-8.6086388,-0.11674322,-0.27973256,-0.9529537,0
5.9412255,6.7295203,-1.0619624,0.65725231,0.74445796,-0.11748035,0
-2.6550143,-2.1232109,-8.3219938,-0.29534325,-0.23618555,-0.9257369,0
-6.335681,0.69340533,-6.3903785,-0.70198011,0.076827854,-0.70804048,0
6.2688675,-4.8800139,4.3492093,0.69215882,-0.53881258,0.48020533,0
-4.2785387,-6.5790133,-4.5252204,-0.47229284,-0.72623414,-0.49952316,0
1.6643012,-1.8602761,-8.7152472,0.18358316,-0.20520046,-0.961348,0
7.3737359,-0.076588705,5.0993261,0.82245272,-0.008542561,0.56876934,0
2.8916466,5.8482561,6.1050878,0.32362819,0.65452689,0.68327105,0
-7.9607501,-2.1143591,-3.4227595,-0.89250034,-0.23704629,-0.38373446,0
6.3100705,-5.7860031,-2.7573929,0.70156068,-0.64329427,-0.30657002,0
-1.4672935,-8.4875813,2.8541377,-0.16170245,-0.93537027,0.31453902,0
-4.7633958,7.4461355,1.7199391,-0.52896237,0.82687348,0.19099465,0
8.7695265,-1.4886903,-1.1198311,0.97817403,-0.16605209,-0.12490865,0
6.8720593,-4.8413134,3.2916365,0.76122385,-0.5362764,0.36461735,0
8.2766056,-2.595644,2.3089471,0.92206901,-0.28917202,0.2572321,0
6.2126541,-4.0121284,-5.0518651,0.69366187,-0.44796643,-0.56405622,0
0.72426081,-8.8994989,-0.88552141,0.080718055,-0.99183917,-0.098690368,0
-3.1299384,3.4279058,7.7723103,-0.34573692,0.37865078,0.85853916,0
0.26862171,-0.37823808,8.997057,0.029817009,-0.041984424,0.99867326,0
-4.7662725,5.7420225,-5.0637822,-0.52851015,0.63670659,-0.5614996,0
-6.7935109,-3.9330258,-4.340229,-0.75737244,-0.43847215,-0.48386908,0
6.5448937,-1.0217195,6.0494947,0.72957444,-0.11389343,0.67435116,0
-7.7108598,4.8180399,0.65149462,-0.8458913,0.5285452,0.071469806,0
-8.0740356,3.3661206,1.8416525,-0.90319866,0.37654969,0.20601569,0
-8.1970606,1.1310514,3.5566845,-0.91010451,0.12557855,0.39489213,0
-0.64254212,-7.0134125,5.4435325,-0.07218533,-0.78791016,0.61154461,0
-5.0867295,7.1721191,2.1859188,-0.56141925,0.79158241,0.24125853,0
4.7899089,-2.0078123,7.3492956,0.53225589,-0.22310859,0.81665558,0
-0.59018767,-8.7553558,1.6069078,-0.066156082,-0.98141676,0.1801236,0
-1.2533553,6.3117919,6.376256,-0.13835405,0.69673938,0.7038554,0
-3.9271278,-7.1781545,3.6574855,-0.43817589,-0.80091465,0.40809008,0
-4.4614363,-3.6287527,6.9160504,-0.49600911,-0.40343383,0.76890576,0
8.8462858,-0.44964838,1.0995253,0.99110401,-0.050376885,0.12318661,0
-7.6931391,-3.8602071,2.9214864,-0.84636801,-0.42468435,0.32141009,0
-0.041009206,5.1848149,7.3201585,-0.0045715962,0.57798922,0.81603158,0
-7.9429579,-2.7442842,3.1444159,-0.88523787,-0.30584881,0.35044324,0
7.1238284,3.3514373,-4.2590866,0.79586715,0.3744193,-0.47582102,0
-2.3562045,7.9453964,-3.4807372,-0.2621299,0.88393259,-0.38723519,0
-8.5224695,0.54611772,-2.6677115,-0.95255882,0.061039731,-0.29817086,0
4.718646,-1.6268771,-7.3573561,0.53074461,-0.18298812,-0.82754183,0
4.8068089,7.4483733,1.7372357,0.53211725,0.82454032,0.19231325,0
-2.4271705,4.1397324,-7.524859,-0.27195799,0.463846,-0.84314042,0
8.3439226,0.1937985,-3.0380116,0.93943012,0.021819491,-0.34204531,0
-4.3787594,7.8163266,1.191025,-0.4844785,0.86482084,0.13177843,0
-8.0430813,-3.3547137,1.8629181,-0.90254569,-0.37644556,0.20904535,0
3.2387207,-5.8464546,-5.9223619,0.36267909,-0.65469891,-0.66319919,0
-4.5394864,2.1839993,-7.4511547,-0.5047099,0.24282177,-0.82843548,0
6.6861258,5.3173494,-2.7854323,0.74411136,0.59177774,-0.30999595,0
0.60041964,8.2109156,3.7489424,0.066372387,0.90766197,0.41442057,0
4.4318514,2.3516605,7.4430432,0.49373865,0.26199111,0.82920611,0
2.8971903,6.5666256,-5.4752727,0.32093504,0.7274152,-0.60652101,0
6.06991,-6.4906406,-1.4437311,0.67419899,-0.72093052,-0.16035856,0
-7.2937708,-0.32093385,5.1965284,-0.81391323,-0.035813067,0.57988155,0
5.2072921,-7.296948,-0.16915625,0.58077919,-0.81384248,-0.018866319,0
2.166811,-3.9046183,7.8774247,0.23929164,-0.43120629,0.8699429,0
-5.767066,1.0323198,6.8098388,-0.64198047,0.11491617,0.75806028,0
-2.014627,-3.0809994,8.2254028,-0.22355986,-0.34189346,0.91275948,0
1.4067112,-1.8014628,8.7457619,0.15561835,-0.199288,0.96750563,0
4.5182543,-7.6160789,-1.6580106,0.50150758,-0.84535331,-0.18403234,0
-1.1249069,0.34612355,9.017869,-0.12369295,0.03805919,0.99159038,0
-6.1447845,-6.1680107,2.5658865,-0.67698431,-0.6795432,0.28268933,0
-2.7473514,-2.8837268,8.1308174,-0.3034423,-0.31850481,0.89804089,0
-3.8107514,-1.8390357,8.0281057,-0.41992074,-0.20265013,0.88464653,0
6.7156806,-5.1726952,-2.9660208,0.7477836,-0.57597387,-0.33026314,0
6.8126044,-5.018259,-2.9448705,0.76040554,-0.56012529,-0.32869893,0
0.32336169,-8.4648829,-3.144521,0.035786476,-0.93680954,-0.34800449,0
3.4902322,-1.4669175,8.1794415,0.38723791,-0.16275308,0.90750116,0
-7.9711208,1.7093494,-3.7805798,-0.88703126,0.19021745,-0.42070526,0
-5.7693563,-2.8575087,-6.2460952,-0.64316899,-0.31855565,-0.69631594,0
2.8299241,6.71099,-5.2373457,0.31545871,0.7480908,-0.58382004,0
4.4987473,5.9761267,-4.9984264,0.50005507,0.66427213,-0.55559653,0
-5.547987,-6.8250513,-1.9300457,-0.6161139,-0.75793415,-0.21433504,0
1.7116585,8.3591719,3.0785177,0.18869595,0.9215284,0.33938068,0
-0.93108958,-7.4390597,-5.1968708,-0.10206886,-0.81549221,-0.56969666,0
3.6596215,-4.1211433,7.0507445,0.40892908,-0.46049991,0.78785592,0
-8.1972475,3.5026164,1.3658475,-0.90896273,0.3883923,0.15145382,0
-2.6400893,8.4627867,-0.75424564,-0.29673719,0.95118886,-0.08477468,0
4.2414188,4.7401032,6.3452072,0.4720858,0.52759123,0.7062453,0
-3.0953605,-0.73529673,8.3691702,-0.34571567,-0.082124069,0.9347387,0
-8.6207647,1.7535944,-1.8783044,-0.95833188,0.19493926,-0.2088027,0
6.1575308,6.686842,0.063220605,0.67737585,0.73560417,0.0069547542,0
1.4076984,8.8251314,-1.6272881,0.15497065,0.97154069,-0.17914481,0
1.78104,-5.3975024,7.0250626,0.19709603,-0.59730631,0.77741772,0
0.92321658,8.278388,3.2425718,0.10328442,0.92614073,0.3627612,0
6.1012034,-1.2463202,6.5321999,0.67604601,-0.13809896,0.72380275,0
-8.9022484,0.24814452,1.052489,-0.99270332,0.027670974,0.11736466,0
-0.64401782,1.0894041,8.8220482,-0.072261229,0.12223525,0.98986709,0
5.3917685,6.739244,2.6858099,0.59650552,0.74558032,0.29713821,0
6.1491666,-6.6123295,-0.80528587,0.67830276,-0.72939336,-0.088829532,0
-6.4368415,-4.3199673,-4.5465989,-0.71623725,-0.48068941,-0.50590706,0
-1.39288,-8.7253666,-1.6932231,-0.15482262,-0.96984959,-0.18820661,0
5.5057325,6.9270172,2.2409127,0.60317701,0.75888491,0.24550176,0
-5.7797298,-1.9386836,-6.6454525,-0.64090449,-0.21497737,-0.73690301,0
6.1742277,1.5176818,-6.4846325,0.67986351,0.16711669,-0.71404314,0
-5.7172432,-5.9163542,-3.5471587,-0.63812149,-0.66034496,-0.3959108,0
4.826014,6.9763799,-3.0759192,0.53483385,0.77314401,-0.3408829,0
-7.3689494,2.5895402,-4.5899191,-0.81339502,0.28583708,-0.50664175,0
1.8334733,-1.6366389,-8.6208181,0.20453052,-0.18257293,-0.96168315,0
-5.0745125,-6.807394,-2.9620719,-0.56430459,-0.75700742,-0.32939339,0
7.7289701,-1.0040953,4.3627086,0.86532438,-0.11241706,0.48844257,0
-0.36778095,8.592371,2.4359794,-0.041145373,0.96126866,0.27252439,0
1.4903221,-8.3704767,3.1855853,0.16414484,-0.92192858,0.350862,0
-4.6728048,7.100637,-2.7261605,-0.52346343,0.7954374,-0.30539376,0
-7.8183756,4.2241035,-1.6364691,-0.86525387,0.46747842,-0.18110684,0
5.439055,0.094878353,7.2212086,0.6016044,0.010494329,0.79872531,0
-4.5880013,6.3998098,-4.2356696,-0.51312023,0.71575218,-0.4737156,0
-0.65641612,-8.2924213,3.2294822,-0.073562317,-0.92930335,0.36191705,0
7.7244287,0.78667802,-4.3855038,0.86622912,0.088219263,-0.49179703,0
7.4204178,-4.5948091,-2.5332844,0.81650394,-0.50558877,-0.27874938,0
-6.0049772,-4.9015918,-4.6314063,-0.66502595,-0.54283065,-0.51290876,0
2.8230045,-6.951859,4.9102201,0.31481981,-0.77526724,0.54758489,0
-0.3055082,1.4143568,8.9205217,-0.033805944,0.15650535,0.9870984,0
2.0137193,-5.608295,-6.7131815,0.22433612,-0.62478578,-0.74787438,0
-8.4161749,3.1388988,0.080036007,-0.93691874,0.34943348,0.0089098951,0
-7.5750451,2.3412073,-4.1538959,-0.84629494,0.26156306,-0.46407923,0
2.2812109,5.5457387,-6.5989261,0.25583991,0.62195975,-0.74007571,0
-9.0247822,0.83918041,0.093884766,-0.99565125,0.092581846,0.010357755,0
4.4236021,0.42619002,7.6847467,0.49830881,0.048009343,0.86566937,0
3.4850886,-3.0071046,-7.6729889,0.38949075,-0.33607164,-0.8575272,0
-1.3745005,-3.8688447,8.0292501,-0.15241581,-0.42900899,0.89034861,0
-0.42529076,-0.22054291,-8.9836693,-0.04727326,-0.02451448,-0.99858111,0
1.2112659,-6.5910001,-6.0841365,0.13382302,-0.72818655,-0.67218727,0
-0.50335592,-5.5152121,-6.988224,-0.056451395,-0.61853135,-0.78372973,0
1.6476023,1.6987622,-8.7449389,0.18186481,0.18751192,-0.96527946,0
-0.22055386,7.5006714,4.7560768,-0.024825409,0.84427106,0.53534114,0
0.99389064,-0.068440907,8.9271774,0.11064628,-0.0076192804,0.99383062,0
3.5633047,8.2077904,0.84102261,0.39648047,0.91326135,0.093578592,0
6.9071965,4.9606819,-3.0011756,0.76593226,0.55008513,-0.33279744,0
-7.0990987,-1.8642631,5.1730146,-0.79058301,-0.20761152,0.57608688,0
-8.8659592,-0.025928879,-1.8876282,-0.97807372,-0.0028604188,-0.20823912,0
-7.6670518,-3.7821143,2.9066088,-0.8490876,-0.41885021,0.32189238,0
7.3817697,-2.5092814,4.3255539,0.82791156,-0.28143159,0.48513788,0
7.4115486,-0.61853552,5.2520461,0.81402528,-0.067934997,0.57684278,0
-0.35996836,3.6120172,8.2366428,-0.039991912,0.40128934,0.91507792,0
-1.9362879,-7.5705113,-4.4831548,-0.21493022,-0.84033561,-0.49763542,0
6.9510837,-5.7335844,0.71544641,0.76901078,-0.63431668,0.079151109,0
7.8315778,3.1276903,2.8010118,0.8813349,0.35197794,0.31521484,0
-5.9050584,5.5762463,4.112484,-0.64864612,0.61252749,0.45173928,0
7.170918,-4.266572,3.5379157,0.79120803,-0.47075507,0.3903583,0
7.5817218,-3.5246093,3.4163573,0.83942962,-0.39023611,0.37825069,0
-6.911417,3.5321243,4.7223601,-0.76071787,0.38876978,0.51977527,0
-9.0229359,0.22826332,0.16685231,-0.99950939,0.02528571,0.018482948,0
5.4517426,6.9005899,-2.1225469,0.60261464,0.76276463,-0.23461817,0
1.0738432,3.1145339,8.4067364,0.11892989,0.34493974,0.93105978,0
-0.069065347,-8.5942974,2.533555,-0.007707993,-0.95916098,0.28275576,0
7.3314514,-5.0993662,1.8931943,0.80309826,-0.55859226,0.20738336,0
-5.3233018,5.3844638,-4.8773451,-0.59104586,0.59783667,-0.54153126,0
-1.6477968,4.2643147,7.7456789,-0.18320714,0.47411969,0.86118853,0
-0.3308672,-6.8854938,5.8238597,-0.036664288,-0.76300013,0.64535761,0
4.6469545,-7.7549553,0.19822371,0.51388264,-0.85758036,0.021920534,0
-8.2034426,0.92768526,3.7053974,-0.90654331,0.10251634,0.40947482,0
3.3471022,-5.6507154,6.2358112,0.36958271,-0.62394476,0.68855029,0
-4.5104685,3.9318197,-6.7022314,-0.50202096,0.43761659,-0.74596697,0
5.0776653,-5.6701193,4.8753548,0.5617559,-0.62730068,0.53937376,0
-7.4773064,-3.5382128,-3.6855547,-0.82566804,-0.39070076,-0.40697074,0
1.7793053,2.8086588,-8.4178782,0.19659314,0.31032506,-0.93008041,0
-3.967499,-6.8617067,4.2431087,-0.44130191,-0.76322246,0.47195777,0
0.89313674,8.9674988,-0.49745598,0.098956101,0.99356425,-0.055116203,0
-2.3971734,-8.5681219,-1.1508236,-0.2672058,-0.95506316,-0.1282789,0
-1.3319771,-6.3660021,-6.2793798,-0.14733435,-0.70416433,-0.69458276,0
-4.9617906,-6.5154843,4.0309997,-0.54358083,-0.71379322,0.44160956,0
-8.2364454,2.3317435,2.9610107,-0.90932131,0.25742948,0.32690194,0
7.5539236,-2.7073956,-3.9281209,0.84549606,-0.30303353,-0.43966696,0
3.9726853,8.0490112,-1.3855762,0.43740842,0.88622808,-0.15255743,0
0.63115156,-5.132113,7.4028206,0.069895916,-0.56834799,0.81981403,0
-6.1991906,2.3256433,5.974628,-0.69511473,0.2607742,0.66993457,0
-8.2457018,-2.3655994,2.4418602,-0.92449933,-0.26522848,0.27377877,0
8.6330976,-2.3092687,1.6067965,0.95079035,-0.25432709,0.17696159,0
-5.2887454,0.87820601,-7.3125196,-0.58328003,0.096854731,-0.80647606,0
4.9199138,7.3041081,1.4535105,0.55120718,0.81832266,0.16284542,0
-5.5426102,7.124712,-0.12006148,-0.61396688,0.78921974,-0.013299469,0
-8.257513,-3.0753496,2.0893846,-0.91183519,-0.33959523,0.23072012,0
1.0908281,-6.6862216,-5.9032397,0.12139533,-0.74409163,-0.65695572,0
5.5635333,-4.1903334,5.7223802,0.61719036,-0.46485448,0.634812,0
7.8160925,-0.40307906,4.5314951,0.86425978,-0.04457023,0.5010674,0
2.9877632,-7.751482,-3.5587425,0.33059531,-0.85769969,-0.39377406,0
-0.11389572,-7.4424081,-4.8956447,-0.012784387,-0.83538371,-0.54951859,0
-6.2812176,-4.6789889,4.4092035,-0.69882941,-0.52057028,0.49055478,0
2.1173,-2.7040579,-8.2429533,0.23710521,-0.30281311,-0.92308462,0
-2.0346224,-4.0771151,-7.7693911,-0.22589354,-0.45266086,-0.86259502,0
7.1056619,-5.3238668,-1.272037,0.79220206,-0.59355175,-0.14181794,0
-3.4152861,-2.3912606,8.0022612,-0.37849975,-0.26501191,0.88685215,0
8.3983345,0.32688591,3.423914,0.92540014,0.036019079,0.37727606,0
7.4737921,4.9498658,0.82641196,0.83020765,0.54984355,0.091799922,0
-6.7912025,-5.9078765,0.0011696338,-0.75446892,-0.65633577,0.00012994051,0
4.7539682,-6.2956414,-4.1971717,0.53200358,-0.70452803,-0.46969402,0
3.8889275,1.0805452,7.9879341,0.43452805,0.12073437,0.89252925,0
5.9418664,-0.57592481,6.5920243,0.66812223,-0.064758807,0.74122804,0
6.8359404,0.66627264,5.7405586,0.76367056,0.074432015,0.64130104,0
-6.9153776,4.2651172,-3.7934835,-0.77121699,0.47565454,-0.42305699,0
-8.2436609,-2.5292504,2.3198888,-0.92318845,-0.28324488,0.25979897,0
-1.2505703,-8.9452553,1.0509579,-0.13752829,-0.98373163,0.11557642,0
-5.4883151,-6.6829104,2.511373,-0.60947472,-0.74213392,0.27888674,0
-3.6324065,-8.0222216,-2.0801387,-0.40143242,-0.88656926,-0.22988482,0
6.4476285,-3.2897272,5.3592029,0.71589392,-0.36526543,0.59504372,0
0.048644423,-8.7423944,1.9845804,0.0054260655,-0.97517455,0.22137097,0
7.5815034,4.737165,-0.13447121,0.84796649,0.52983648,-0.015040167,0
-8.6914406,1.1726166,2.4341748,-0.9549225,0.12883456,0.26744106,0
-1.0149846,-6.8681045,5.6859708,-0.11310376,-0.76534009,0.63361025,0
-7.4941459,4.7089291,1.7114317,-0.83132297,0.52235985,0.18984851,0
-3.3989656,4.8238726,6.8815894,-0.37494397,0.53212714,0.75911635,0
1.473681,5.8837132,-6.6373248,0.16390035,0.65437675,-0.7381922,0
-0.24386258,-7.1264014,5.5900946,-0.02691466,-0.78652763,0.61696833,0
4.3113837,6.6868925,4.1510825,0.48042646,0.74513435,0.46256375,0
5.6098366,-2.3400929,-6.6615086,0.62207997,-0.25949505,-0.73870081,0
-1.5917453,7.666203,-4.3012233,-0.17817999,0.85815495,-0.48147902,0
6.6693497,-2.0612247,-5.7215877,0.7389189,-0.22836979,-0.63391328,0
2.8673213,-5.4231305,-6.6696343,0.31641915,-0.59846181,-0.736018,0
6.9739833,3.4746389,4.7134423,0.76583517,0.38156107,0.51759797,0
-4.9390688,-7.2130055,1.8122667,-0.55322158,-0.80792367,0.20299071,0
5.5647445,2.9613791,6.4217834,0.61839867,0.329092,0.71363962,0
7.4703555,4.7079287,-1.2076749,0.83820635,0.52825004,-0.13550638,0
7.2129822,4.5710621,-2.7801208,0.80317569,0.50899416,-0.30957034,0
6.753665,-0.99626094,5.7015872,0.75930566,-0.1120083,0.64102191,0
5.8368773,5.73106,3.7225709,0.64945775,0.63768369,0.41420308,0
3.9520979,5.2789702,6.2100596,0.43629935,0.58278191,0.68557131,0
-2.7085187,5.87673,6.2636204,-0.30075172,0.6525473,0.69550729,0
8.5747557,2.9300172,-0.35325408,0.9455623,0.32310119,-0.038954318,0
-2.713258,-8.5872059,-0.10805747,-0.30126205,-0.95346594,-0.011997979,0
-2.4099469,-5.8686256,-6.308187,-0.26936984,-0.6559608,-0.70509237,0
6.8677421,4.512938,3.4811625,0.76951736,0.50566608,0.39005759,0
-7.012466,-0.22690855,5.5375957,-0.78455156,-0.025386427,0.61954373,0
4.8185186,-5.6334605,5.0949917,0.53567892,-0.62627673,0.56641465,0
5.989172,4.786624,4.8186131,0.66138947,0.52859104,0.53212363,0
-3.663743,7.9693727,2.1045933,-0.40617287,0.88350713,0.23332115,0
6.706511,3.1837993,5.0452595,0.74716067,0.35470149,0.56208354,0
-1.0210612,7.6841187,-4.5841589,-0.11337935,0.85324991,-0.5090282,0
-6.8592558,-4.9932275,-2.89816,-0.76506823,-0.55693501,-0.32325521,0
6.5972042,2.5968482,5.6293106,0.72873545,0.28685111,0.62182069,0
-1.8984534,6.0885692,-6.3915925,-0.21025605,0.67431659,-0.7078768,0
7.0831299,1.2527803,-5.4017434,0.78740817,0.13926746,-0.60049397,0
-7.4817257,-3.5855596,-3.2826219,-0.838539,-0.4018634,-0.36791065,0
-3.7531495,1.3401742,8.0579596,-0.41749904,0.14908051,0.89636463,0
-1.2346911,6.5971489,6.0797658,-0.13634019,0.72848707,0.67135531,0
4.1322813,7.8733792,0.61882693,0.46360299,0.8833189,0.069426544,0
-6.8347569,-5.4485049,-2.4188974,-0.75361931,-0.60076731,-0.26671436,0
5.5096269,-2.1130214,6.8237357,0.61073399,-0.23422529,0.756401,0
4.3507471,-7.7538848,-1.9178922,0.47833505,-0.85248691,-0.21085921,0
-1.3301831,6.4940009,6.0793486,-0.14788952,0.72200185,0.67590088,0
-8.5552444,-1.1154128,-2.6595738,-0.94760603,-0.12354666,-0.29458281,0
4.430891,2.4672995,7.5111771,0.48889843,0.27223843,0.82877296,0
-3.4266846,6.9446917,-4.4574986,-0.38349819,0.77721679,-0.498862,0
-1.3372581,-2.8197284,-8.5586214,-0.14679277,-0.30952567,-0.93949229,0
-6.7011147,5.5437837,2.0662534,-0.74963915,0.62017107,0.23114729,0
-4.2686853,7.8986945,1.0623057,-0.47214785,0.87365347,0.11749879,0
-3.0990748,-0.21087313,-8.5069027,-0.34220192,-0.023284752,-0.93933791,0
-5.7899804,1.0018122,6.9156017,-0.63802439,0.11039426,0.76206172,0
1.3773528,8.888217,-1.1317023,0.15193813,0.98047429,-0.12484,0
-5.5653315,-2.5819957,-6.4889235,-0.62321413,-0.28913572,-0.72663933,0
-8.0393152,0.38526797,4.0461783,-0.8924281,0.042767819,0.44915807,0
-8.348649,-3.3990564,0.4666509,-0.92494071,-0.37657899,0.051699914,0
3.6760352,4.6125135,-6.8968859,0.40507293,0.50826615,-0.75998777,0
7.8495479,2.8813412,-3.2909086,0.87353396,0.32064897,-0.36622751,0
-3.4601281,6.2074823,-5.413208,-0.38731879,0.69485134,-0.60594207,0
-4.8830509,-7.4379373,1.4229379,-0.54191983,-0.82546055,0.15791731,0
4.5014381,0.08731319,7.8829331,0.49585894,0.009618043,0.86834979,0
-8.824441,1.628162,-0.61082578,-0.98113096,0.18102452,-0.067913659,0
8.8514576,-1.103955,-1.5278437,0.97806859,-0.12198485,-0.16882372,0
-5.4256563,-6.39744,3.4900539,-0.5971806,-0.70414102,0.38413647,0
-0.9495663,-7.3713546,-5.1727843,-0.10486446,-0.81404859,-0.57125157,0
3.2778692,-8.316597,-1.6556958,0.36055052,-0.91478741,-0.18211892,0
-2.2476122,7.7340164,-4.0732055,-0.24903198,0.85691708,-0.45130488,0
-1.0527275,-6.5033479,5.9940529,-0.11819416,-0.73015833,0.67297763,0
-5.2939343,-7.3787355,-0.24472588,-0.5827322,-0.81221765,-0.026938312,0
2.0520709,-8.3290529,2.5415022,0.22936635,-0.93096417,0.28407162,0
-7.6031847,-4.168088,-2.4670084,-0.8434068,-0.46235806,-0.27366054,0
4.8209705,2.4009557,7.2875395,0.53201556,0.26495615,0.80421245,0
7.6736588,3.2907226,3.2710009,0.85573328,0.36696717,0.36476788,0
5.1758175,4.6002722,-5.8779001,0.56983423,0.50646931,-0.64713037,0
-8.501915,1.5302489,2.6930645,-0.93958545,0.16911478,0.29762283,0
2.1271141,-7.8452773,-4.066896,0.23402785,-0.86314756,-0.44744515,0
3.0728886,4.1205835,7.3394608,0.34293938,0.45986384,0.81909579,0
7.7288847,3.9689908,2.3753223,0.85807294,0.44064361,0.26371202,0
7.460072,3.1113853,-3.8046486,0.83506024,0.34828004,-0.42588204,0
2.772758,2.0530579,8.2724838,0.30935246,0.2290566,0.9229486,0
-3.4606318,8.3020754,0.80263853,-0.38322839,0.91936707,0.088883728,0
5.3711967,-2.6195381,6.6555109,0.60048968,-0.29285944,0.74407357,0
0.74892569,5.4474778,-7.0777245,0.083560221,0.60779393,-0.78968614,0
5.352109,2.3833821,6.8269529,0.5949254,0.26493004,0.75886488,0
-4.6985145,7.2546759,2.607775,-0.52043146,0.80356491,0.28885046,0
-4.657526,-7.2060828,-2.8687563,-0.51480901,-0.79650789,-0.31709141,0
2.0303628,8.8619423,-0.29816139,0.22320402,0.97422051,-0.032777797,0
-0.76464152,-1.473466,8.9251451,-0.084228173,-0.16230789,0.98313868,0
-2.1206741,1.7686152,8.4674187,-0.23810905,0.19857992,0.95072079,0
3.039964,8.3321362,-1.4800963,0.33807325,0.92661375,-0.16460097,0
7.288578,-2.9119165,-4.3527503,0.81210572,-0.32445067,-0.48499084,0
6.1102781,6.5014157,-1.1799518,0.67893577,0.72239649,-0.13110884,0
-7.6487541,-3.4712062,-3.4818652,-0.8412028,-0.38176,-0.38293228,0
-3.0563195,-8.3980379,-0.96126068,-0.3400276,-0.93431485,-0.10694404,0
-1.0675952,3.8207014,-8.0558195,-0.11889079,0.4254854,-0.89712161,0
-6.7855105,-5.540741,-1.9077687,-0.75683576,-0.61799783,-0.21278688,0
3.2521441,-7.7256556,3.2642686,0.36153319,-0.85884291,0.36288103,0
-2.3975563,1.7718133,8.4186831,-0.26845488,0.19839029,0.94264168,0
-3.3118896,-5.0873365,6.6132793,-0.36893389,-0.56671298,0.73669809,0
-4.5869603,4.674067,-6.1390657,-0.51100385,0.52070791,-0.68391401,0
2.5541341,-8.2073441,-2.9099729,0.2814534,-0.90441024,-0.32066515,0
-8.7655516,0.87016666,-1.557,-0.97991848,0.097277664,-0.17406014,0
2.2275891,3.5560236,-7.9289742,0.24831428,0.3963978,-0.88386023,0
2.5878508,-0.73565596,8.6567173,0.28547251,-0.081152119,0.95494491,0
5.3154936,5.2909245,-4.7532105,0.5986411,0.59587413,-0.53531569,0
4.8239832,-6.5431108,-3.8057544,0.53743696,-0.72896385,-0.42399672,0
-1.8483741,0.0070364713,8.7786608,-0.20603551,0.00078434497,0.97854424,0
7.2764621,4.3350453,-3.0301657,0.80888826,0.48190552,-0.33684853,0
-0.40633133,2.9476352,-8.5471287,-0.04489724,0.32569647,-0.94440782,0
5.6748695,6.8577423,-0.53665715,0.63637859,0.76902568,-0.060180616,0
5.175652,-2.3254819,7.0682654,0.57101357,-0.25656319,0.77981973,0
-5.1326137,1.4016989,-7.2269101,-0.57192832,0.15619165,-0.8052963,0
8.3730021,-3.3636739,-0.81475127,0.92416292,-0.37126264,-0.089927472,0
-3.9166148,7.9522028,1.864035,-0.43238062,0.87789547,0.20578296,0
4.8150897,-1.9499725,-7.2900653,0.53789806,-0.21783321,-0.81437981,0
2.8388159,3.4906313,7.7231884,0.31760564,0.39053053,0.86406744,0
