-5.5963254,4.5478449,6.3356452,-0.58300698,0.47377971,0.66002697,0
-6.7752109,4.4304824,5.1181803,-0.70740944,0.46259299,0.53439653,0
-6.0809798,3.1112347,-6.6937652,-0.63583887,0.32531664,-0.69991285,0
5.5648079,-7.5423503,-1.8656794,0.58227986,-0.78920227,-0.19521745,0
0.21703827,6.1459928,-7.3742008,0.02260335,0.64007157,-0.76798272,0
6.379499,1.7351846,6.9398236,0.66557902,0.18103342,0.72403824,0
-2.2266319,0.33038086,-9.1355963,-0.23665331,0.035113897,-0.97095942,0
-6.1304889,2.3957658,-6.7103496,-0.65221143,0.25488111,-0.71390176,0
-0.75562537,-6.6105571,6.7244201,-0.079877324,-0.69880342,0.71083993,0
-3.3757622,6.4561343,-5.9887009,-0.35794678,0.68457204,-0.63500804,0
6.6079607,2.1539428,6.4228692,0.69825745,0.22760525,0.67869902,0
8.9153271,-3.3864083,0.60039377,0.93298578,-0.35438642,0.062830992,0
-3.6324229,6.9483042,5.242382,-0.3851313,0.73670095,0.55582881,0
-6.5861149,6.589797,-1.6729325,-0.69578135,0.69617039,-0.17673473,0
-8.7648106,3.4572127,-0.56209004,-0.92859781,0.36627832,-0.059551265,0
1.0531341,6.3104334,-6.9473176,0.11150935,0.66816974,-0.73560518,0
5.0136895,-0.074628592,-8.0692749,0.5277397,-0.0078553865,-0.84936982,0
8.3515377,-4.3711004,-0.4222292,0.88509727,-0.46324989,-0.044747915,0
-0.64968908,-5.0983028,7.924942,-0.068782143,-0.53975385,0.83900821,0
-2.5570903,4.0836811,8.2495527,-0.26765871,0.42745179,0.86350673,0
-1.0475752,-2.6248446,-8.9671574,-0.11142077,-0.27918014,-0.95375258,0
3.9187746,2.7682438,-8.256649,0.41036603,0.28988481,-0.86461931,0
2.0668943,6.5238051,6.4140897,0.22036594,0.69554812,0.68385059,0
1.6954772,-7.730092,-5.2430811,0.1786011,-0.8142857,-0.55230469,0
-0.9769789,8.2267656,-4.6816754,-0.10266811,0.86452895,-0.49198481,0
6.4220681,-7.013154,0.76594239,0.67316401,-0.73512191,0.080286421,0
-7.5414977,-3.3605154,4.7947035,-0.78988516,-0.35197535,0.50219005,0
1.4400923,-9.2892981,0.44486067,0.15302578,-0.98709089,0.047271378,0
2.1618001,6.9855547,6.236639,0.22493502,0.72684604,0.64892149,0
4.0624166,-8.2585697,-1.9681855,0.43163261,-0.87747478,-0.20912012,0
-2.8303616,2.8881829,-8.5118322,-0.30034894,0.30648473,-0.90324843,0
0.71148849,-7.282527,-5.9939718,0.075219646,-0.76991987,-0.63369185,0
4.5411034,-6.2335401,-5.5569096,0.47772545,-0.6557703,-0.58458853,0
2.8135452,2.877238,-8.6879435,0.293852,0.30050421,-0.90738535,0
-7.0412831,-6.0836844,-1.6043006,-0.74568504,-0.64427352,-0.16989844,0
-2.098227,5.2643781,-7.7681069,-0.21821077,0.54748321,-0.8078652,0
-4.1789885,8.6136017,0.46156213,-0.43599519,0.89865977,0.04815492,0
1.9611549,-7.4714136,5.5533657,0.20614289,-0.78534275,0.58373094,0
2.5092068,-6.3242474,6.7502007,0.2618058,-0.65985984,0.70430297,0
-0.23214957,-9.3595943,1.6212494,-0.024432147,-0.98503298,0.17062536,0
-1.1854627,5.0152841,7.9895797,-0.12468766,0.52751046,0.8403486,0
1.0928179,-6.4410949,6.9707193,0.11438707,-0.67420012,0.72963679,0
-7.9385247,0.33609065,-5.3376946,-0.82934433,0.035111673,-0.55763346,0
3.7010143,2.4024725,-8.4204388,0.38931489,0.25271946,-0.8857578,0
-9.0149746,2.6251488,1.5320482,-0.94758946,0.27593681,0.16103792,0
3.4282267,-4.8203454,-7.5274005,0.35809869,-0.50351381,-0.78628182,0
8.009078,2.5668738,4.2322612,0.85065299,0.27263048,0.44951311,0
1.510574,-0.4145802,9.2829647,0.16045699,-0.044037756,0.98605996,0
-3.9174504,-4.8887248,7.1639051,-0.41163954,-0.51369953,0.75277191,0
0.56903756,-9.4691954,0.74789333,0.059799775,-0.99511141,0.078595608,0
-4.6892428,3.9190137,7.3768282,-0.48951229,0.40910769,0.77007061,0
-8.5399933,1.624509,3.6811197,-0.90462196,0.17208052,0.3899326,0
0.813371,7.3159695,-6.0202284,0.085533626,0.7693432,-0.63308376,0
2.656323,1.0257289,-9.0708914,0.27939749,0.10788827,-0.95409489,0
8.7295914,3.8486271,-1.0082456,0.90995342,0.40117243,-0.1050973,0
-1.707188,9.2321892,-1.1933622,-0.18038292,0.97548091,-0.12609166,0
8.5873137,2.2243154,-3.4934208,0.90072215,0.23330814,-0.36642444,0
-5.8371382,3.855974,6.4525757,-0.61332732,0.40515989,0.67799336,0
9.1626482,-2.5062673,0.70005506,0.96195805,-0.26312524,0.07349661,0
2.8869281,-4.6798844,7.6670246,0.30598119,-0.49601397,0.81261653,0
2.3963528,-1.6420265,-9.046792,0.25220129,-0.17281312,-0.95211881,0
9.3212156,-1.7713636,-0.25550383,0.98206204,-0.18662684,-0.026919302,0
-5.4119172,7.3757496,-2.7444777,-0.56663018,0.77224433,-0.28734806,0
-5.5245748,-7.239903,-2.6464272,-0.58253324,-0.76340431,-0.27904984,0
-3.0105886,8.5866375,2.7068763,-0.31713051,0.90450245,0.28513795,0
-0.28233114,2.6353283,-9.0238733,-0.030019103,0.28020355,-0.95947111,0
0.36427438,-7.058713,6.4293718,0.038124595,-0.73875791,0.67289168,0
-7.7525296,3.5126283,4.2671924,-0.81425691,0.36893529,0.44818801,0
9.3694944,0.90291059,-1.607896,0.98117685,0.094553128,-0.16837946,0
-0.16922326,-7.3675985,-5.8097472,-0.018032776,-0.7851063,-0.61909848,0
-3.0775607,0.7547214,-9.0207586,-0.32188275,0.07893648,-0.94348317,0
-6.3120236,-5.361021,4.7626843,-0.66071725,-0.5611701,0.49853864,0
8.9026985,-2.9999523,-0.99652022,0.94235724,-0.31754717,-0.10548241,0
5.4427071,5.743113,-5.0228524,0.58073771,0.61279112,-0.53593916,0
-9.0616817,0.2495085,2.6592183,-0.95920211,0.026411111,0.28148505,0
1.8549345,0.79539073,9.1847219,0.1972525,0.084581316,0.97669721,0
5.4212246,4.7506533,6.0639949,0.57552093,0.5043326,0.64375788,0
3.6629827,-2.3814695,-8.335578,0.38921523,-0.2530463,-0.88570827,0
2.7789111,-6.5320315,6.3087802,0.29261345,-0.68780911,0.66430122,0
4.2732444,-5.4744558,6.4375577,0.45126146,-0.57811135,0.67981642,0
7.2088728,4.3311343,4.6341953,0.75075179,0.45105621,0.48261783,0
-8.6824255,1.3311223,-3.5443423,-0.91664129,0.14053234,-0.37419158,0
-0.10775413,3.5341792,-8.8771515,-0.011276768,0.36986163,-0.92901844,0
8.7015638,1.2559956,-3.5192618,0.91886061,0.1326296,-0.37162414,0
7.4530535,-1.266773,5.7065706,0.786856,-0.13373953,0.60247111,0
-0.71957743,6.0268493,7.3623204,-0.075413786,0.6316312,0.77159238,0
-5.1337748,-0.99599111,-7.883554,-0.54266274,-0.10528067,-0.83332658,0
-7.1937928,4.7506623,-3.9300299,-0.75928599,0.50141996,-0.41480437,0
-5.9959068,-0.7973572,7.3593044,-0.6294207,-0.083702624,0.77254349,0
7.0317779,-2.9862981,-5.7271023,0.73646897,-0.3127681,-0.59982455,0
-3.7187929,-0.37720636,8.7286139,-0.39164636,-0.039725658,0.91925788,0
2.9468741,-7.4047008,-5.2947149,0.30799097,-0.7738983,-0.55337429,0
-3.9092882,-4.7683301,-7.1088648,-0.4154225,-0.50670904,-0.75542718,0
7.3441973,-2.7622266,5.3113604,0.77510434,-0.29152453,0.56055933,0
1.5837814,-7.7093582,-5.2305212,0.16759738,-0.81581229,-0.55349916,0
-9.0996513,-1.2678018,2.1552684,-0.96425688,-0.13434434,0.22838594,0
5.0567813,-1.8130838,7.7470393,0.53639477,-0.19232167,0.82176214,0
6.2648425,6.1474724,-3.7380953,0.65668696,0.64438415,-0.39183083,0
4.3914723,-8.4510336,0.16405782,0.46103096,-0.88721681,0.017223321,0
-1.5655911,7.9402504,-5.0668764,-0.16396376,0.83157939,-0.53065205,0
-7.4651446,-2.5425086,-5.4326773,-0.77953863,-0.26549837,-0.56730068,0
4.5513072,-6.7634525,-4.7958784,0.48119795,-0.71508241,-0.50705582,0
-4.5889831,-3.2356482,-7.5969625,-0.48577121,-0.34251264,-0.80418372,0
-9.3632126,-1.2345737,-1.0561619,-0.98527712,-0.12991238,-0.11113837,0
4.2951856,-6.584094,-5.3525281,0.45162848,-0.69230175,-0.56280553,0
6.3433228,6.6111455,2.4478872,0.66887856,0.69711941,0.25812012,0
-4.1545086,-6.5159755,5.6698685,-0.43345496,-0.67983532,0.59155792,0
-1.5456588,-1.8216778,9.2429543,-0.16190477,-0.19081722,0.96818155,0
6.0725427,-0.39221478,-7.4039035,0.63363206,-0.040925171,-0.7725513,0
2.770129,2.3620555,-8.6851845,0.29415351,0.25082117,-0.92225945,0
1.7308348,-7.4689488,5.614306,0.18214127,-0.7859813,0.59081131,0
-3.9463441,8.5071611,-1.8001641,-0.41326711,0.89088273,-0.18851589,0
-0.39453772,4.939322,-8.0958986,-0.041565731,0.52037239,-0.85292721,0
4.3499951,-6.3014631,-5.5749497,0.45926782,-0.66530168,-0.58859718,0
4.779026,-7.0023174,-4.2554731,0.5038079,-0.73818862,-0.44861463,0
-1.0842941,7.8071756,5.3696179,-0.11368959,0.81859219,0.56301117,0
8.8688135,-3.0901046,-0.91911346,0.93983179,-0.32745963,-0.097398825,0
-2.3306284,1.540311,9.0466452,-0.24615414,0.16268313,0.95548016,0
1.6881889,-7.4310527,5.6649742,0.17779034,-0.78259569,0.59660244,0
-3.5245628,-2.6117446,-8.3789206,-0.37266183,-0.27614704,-0.8859266,0
0.0026316405,-8.9510756,-3.2192726,0.00027665411,-0.9409917,-0.33842957,0
-6.8140774,4.8662934,4.3476071,-0.7222333,0.51578504,0.46080878,0
-6.0858202,6.2347136,-3.8269815,-0.63953412,0.65518075,-0.40216196,0
-2.4502687,8.2826691,-3.6636171,-0.26115721,0.88279253,-0.39047965,0
-5.6650238,2.4366477,-7.2063146,-0.59727633,0.25690129,-0.75977808,0
-0.7569412,3.1372812,-8.8608274,-0.080267288,0.33268243,-0.93961668,0
-4.501832,1.4649745,-8.3133955,-0.47056431,0.15312982,-0.86897671,0
2.9550626,7.4529347,5.1288853,0.31048506,0.7830714,0.53888613,0
0.059971403,-9.1745472,-2.6150732,0.0062862094,-0.96167713,-0.27411228,0
-0.73067349,3.428118,8.7945871,-0.077178277,0.36209914,0.92893898,0
-1.1191212,4.6660047,-8.2272806,-0.11750175,0.48990557,-0.86382055,0
-8.6146793,3.9660201,0.05187073,-0.908346,0.41818371,0.0054693352,0
4.1033039,-6.5539446,-5.4013181,0.43503362,-0.69485134,-0.57264948,0
-8.2536135,3.3835902,-3.3814878,-0.86518866,0.35468632,-0.35446596,0
7.1833577,4.3225541,4.5155063,0.7543692,0.45393836,0.47420147,0
-5.4335089,-2.4208677,7.4323883,-0.57076681,-0.25430179,0.78074056,0
-5.270853,0.98678565,-7.8799167,-0.55299538,0.10352933,-0.82672715,0
9.3027821,2.0910497,0.28860736,0.97520977,0.21920453,0.030254683,0
6.0255556,6.3786707,-3.701839,0.63269931,0.66977733,-0.3887029,0
-5.720037,7.5976839,0.88608301,-0.59887052,0.79545444,0.092770196,0
-4.9691658,7.2571149,-3.7456045,-0.51980346,0.7591362,-0.39181188,0
-4.8511176,-7.6823392,2.7788532,-0.5105769,-0.80856109,0.29247245,0
-2.7200296,7.5616179,4.9779687,-0.28774637,0.79992807,0.52660912,0
5.1639576,8.0120554,-0.096354343,0.54172057,0.84049785,-0.01010797,0
-9.4469929,1.0369272,0.02800495,-0.99402565,0.10910691,0.0029467195,0
2.2399487,-2.9659145,8.7055902,0.23663603,-0.31332961,0.91968906,0
4.1716619,6.0920382,-6.0700626,0.4364433,0.63735491,-0.63505584,0
3.649761,8.0960655,-3.6674511,0.37985954,0.84262168,-0.38170069,0
-7.0890903,3.4139431,5.3521461,-0.74495947,0.35875538,0.56243211,0
-6.9458318,-5.3251662,-3.504488,-0.7367394,-0.56483656,-0.37171853,0
8.5751953,3.8866057,-1.8461992,0.89379215,0.4051007,-0.19242924,0
3.8947575,8.4435205,-1.6693618,0.4122673,0.89376229,-0.17670505,0
-4.9803681,-7.9023571,-1.3265371,-0.52788532,-0.83759636,-0.14060396,0
5.0628405,-2.5682094,-7.5313554,0.53681272,-0.27230713,-0.79854923,0
8.29074,-2.0116384,3.9939306,0.88013029,-0.21355197,0.42398861,0
-3.5306358,8.5061789,2.5406885,-0.36955211,0.89034283,0.2659342,0
-5.9112692,7.4704013,-0.13633962,-0.62045878,0.78410846,-0.014310483,0
7.4399252,2.7594292,5.3563261,0.77711511,0.28822792,0.559479,0
7.4117899,2.4323804,5.5314198,0.77506238,0.25435781,0.57842916,0
9.4985018,1.0761225,-0.45675239,0.99251103,0.11244547,-0.047726665,0
-8.7411976,-3.9038839,0.25358599,-0.91275692,-0.40764403,0.026479481,0
-3.3692312,-7.1012278,5.3667221,-0.3540076,-0.74613124,0.56388545,0
4.3910255,-3.8788326,7.4931483,0.4616414,-0.40779305,0.78777665,0
-8.6398945,-3.9276595,1.0815439,-0.90449512,-0.41117966,0.1132249,0
-4.7946019,7.9834485,1.3547968,-0.50949025,0.8483476,0.14396518,0
-4.1647711,-7.328949,-4.1990943,-0.44223273,-0.77821827,-0.44587728,0
-5.0943069,-5.662992,-5.6297631,-0.53783733,-0.59787691,-0.5943687,0
6.9777451,-6.0985198,2.4135573,0.72864485,-0.63683254,0.25203359,0
-3.8461075,1.1648738,-8.615715,-0.40456212,0.12253007,-0.90626478,0
-9.1834793,0.48024642,-2.6373682,-0.95993751,0.050199553,-0.27568078,0
-2.4920945,-3.3626993,8.4376001,-0.26459086,-0.35702479,0.8958376,0
-2.811702,4.718133,7.8048058,-0.29461467,0.49437359,0.8178001,0
-5.8375392,0.34295675,7.4833674,-0.6146642,0.036111664,0.78796184,0
9.1004391,2.0067523,1.7283577,0.96016568,0.21172766,0.18235491,0
-5.4920673,7.7319088,-0.17658325,-0.57899064,0.81512165,-0.01861595,0
-5.7062964,-6.6400347,3.6998103,-0.60036194,-0.69860095,0.38925865,0
8.9929819,-0.28861207,-3.3204825,0.93767172,-0.030092729,-0.34621692,0
6.9427133,-2.2531631,-6.0058103,0.73449254,-0.23836955,-0.63537449,0
-7.997118,5.1765814,1.0569602,-0.83435571,0.54008335,0.11027482,0
-2.6238039,3.6502445,8.4593582,-0.27389398,0.38104221,0.88305664,0
-2.2423711,-3.3206611,8.6460457,-0.23531128,-0.34846553,0.90730393,0
7.5306487,3.2091634,-4.869669,0.7906304,0.33692479,-0.51125854,0
9.5094967,0.29228732,0.68361801,0.99695766,0.03064285,0.071669221,0
4.7712822,-8.1796293,0.46863562,0.5032419,-0.86273074,0.049428444,0
-5.6307068,6.6913791,-3.7794755,-0.59102583,0.70235908,-0.39671177,0
-3.9049196,-8.6492815,-1.0849688,-0.40881789,-0.90551949,-0.11358868,0
8.4591036,-4.0044847,1.5838025,0.89116913,-0.42187366,0.16685407,0
9.3734179,1.6989073,0.9531402,0.97907996,0.17745566,0.09955819,0
-9.1121931,2.4340298,-1.6769211,-0.95120865,0.25408486,-0.17505136,0
-1.7867351,-9.2421789,-1.2231808,-0.18822712,-0.97363555,-0.12885839,0
4.3591275,-5.6825147,-6.3199582,0.45637223,-0.59492224,-0.66165841,0
-4.0703287,6.7832847,5.3033571,-0.42737702,0.71223241,0.55684274,0
6.6684842,2.779423,6.1763787,0.70159006,0.29242259,0.64981568,0
0.014392114,-1.1043311,9.4318714,0.0015155477,-0.11629052,0.99321413,0
9.1018782,2.9524329,0.35703763,0.9505468,0.3083348,0.037286919,0
9.2053852,2.1098423,0.32231572,0.97415882,0.22327381,0.034109022,0
3.7708874,5.6366968,6.5655622,0.39949211,0.59715813,0.6955632,0
-4.3787251,1.1198049,8.314496,-0.4626956,0.11832868,0.87858468,0
-0.90630412,9.1623583,2.5450652,-0.094877526,0.95917237,0.26643318,0
5.3925595,2.7959869,7.3898258,0.56372637,0.29228634,0.77251619,0
-0.82275105,-0.82308608,9.451272,-0.086399347,-0.086434528,0.992504,0
3.7409496,-8.3010206,2.8752525,0.39179504,-0.86937785,0.30112934,0
-4.9867568,-6.5521588,4.719708,-0.52543384,-0.69037372,0.49729601,0
-6.7617936,-1.375361,-6.4121532,-0.71784168,-0.14601029,-0.68072337,0
2.6466801,4.9753819,-7.5530758,0.28085014,0.52795833,-0.80148804,0
-1.0132583,8.5910606,3.9314225,-0.10663567,0.90412629,0.4137443,0
-6.5448413,5.1914816,4.5976133,-0.68637067,0.5444411,0.48216096,0
6.4067421,2.5042236,6.594595,0.67232555,0.26279402,0.69203889,0
-1.2053058,-9.3921709,1.6892141,-0.12530881,-0.97645074,0.17561801,0
-9.0924654,-2.3490555,0.16902916,-0.96805322,-0.25009835,0.017996134,0
-6.4722619,3.0260723,6.0435519,-0.69163018,0.32336807,0.64581794,0
-9.4974823,-0.46391219,-0.42264128,-0.99782407,-0.048739523,-0.044403519,0
-4.1829286,-5.2781258,6.5988054,-0.44363949,-0.55979562,0.69986629,0
-0.35398179,-4.8579898,-8.222724,-0.037038542,-0.50831103,-0.86037672,0
-7.9147964,4.8825846,2.3605955,-0.82492334,0.50888962,0.24603416,0
-0.36599612,6.4076309,6.9548159,-0.038673781,0.67707634,0.73489583,0
-6.8382678,6.1799321,2.0701666,-0.72388339,0.65419346,0.21914309,0
1.2624835,8.8560915,3.3421867,0.13220307,0.92738044,0.34998268,0
5.2378297,-7.2536755,-3.0862324,0.55342239,-0.76641411,-0.32608739,0
-8.8810577,2.4805167,-2.3572276,-0.93312991,0.26062709,-0.24767315,0
-5.3715134,0.073161773,7.6958075,-0.57233232,0.0077953534,0.81998479,0
5.7316866,6.5816512,3.7062795,0.60448569,0.69412619,0.39087847,0
1.8982861,-6.7290916,-6.4941936,0.19893029,-0.70517302,-0.68055695,0
3.5132279,-3.5428672,-8.0649042,0.37045568,-0.37358102,-0.85041153,0
4.6691184,2.5791457,-7.9090953,0.48943925,0.27035835,-0.82906908,0
-0.76773709,-0.44358882,-9.516449,-0.080326833,-0.046411831,-0.99568748,0
-7.4132628,5.52035,-1.7390561,-0.78822118,0.58695567,-0.18490656,0
-3.32936,5.8963089,-6.6375771,-0.35112384,0.62184161,-0.70001787,0
-5.0205617,-5.82166,5.6859269,-0.5250659,-0.60884726,0.59465188,0
-4.2217698,-3.8477573,-7.6223369,-0.44322318,-0.4039574,-0.80023223,0
-1.9347684,8.7002783,3.2507367,-0.20393632,0.91706204,0.34264734,0
-0.35921225,-2.2558331,-9.164876,-0.038030989,-0.23883252,-0.97031569,0
-2.4008212,-1.6560585,-9.1220655,-0.25068665,-0.17292073,-0.95249909,0
3.3462677,-5.1134872,-7.1749382,0.35505292,-0.54256225,-0.76129073,0
7.9725041,-5.0808091,-0.91289175,0.8394025,-0.53494406,-0.096115798,0
-3.8729491,-5.2298093,-6.9094119,-0.40803933,-0.55099297,-0.72794962,0
1.7432051,-3.6544161,-8.640707,0.18268202,-0.38297048,-0.90551698,0
3.5343349,-6.155767,6.3652644,0.37069947,-0.64564896,0.66762215,0
7.6928091,-5.7110186,0.15199538,0.80282462,-0.59600413,0.015862297,0
3.9814162,7.5576754,4.3419938,0.41549113,0.78870106,0.45312014,0
-0.72626388,-7.7344728,5.4078259,-0.076728143,-0.81712967,0.57132465,0
3.8334541,7.9292846,-3.2844844,0.40782174,0.84355634,-0.34941962,0
8.9352417,0.98134458,2.9563165,0.94426608,0.10370737,0.31242013,0
-5.720541,5.0264425,5.555151,-0.60688978,0.53325313,0.58934361,0
-2.318758,0.060399532,9.2553644,-0.24301574,0.0063301288,0.97000164,0
-3.8048539,8.563714,-1.8313384,-0.39848959,0.89689404,-0.19179955,0
6.1300702,-7.1500754,-0.87200242,0.64810717,-0.75594813,-0.092193238,0
6.6502576,4.6698537,-5.1572719,0.69097209,0.48520502,-0.53584856,0
-0.27128112,4.3536649,8.4383678,-0.028558433,0.45832103,0.88832784,0
-8.8360434,-3.3508837,0.55540514,-0.93341208,-0.35397691,0.05867127,0
-7.7382984,-1.0636737,5.3234787,-0.81864029,-0.11252683,0.56317472,0
-1.8091208,-1.2220484,9.2148209,-0.1910388,-0.12904537,0.97306293,0
-2.8422227,-8.0738554,4.0733056,-0.29983455,-0.85173512,0.42970517,0
1.1680145,-3.0136545,9.0424442,0.12163376,-0.31383353,0.9416548,0
3.9444747,-7.9730058,2.9975717,0.42021239,-0.84937942,0.31933701,0
-3.94874,-7.2907281,4.734293,-0.4135752,-0.76360166,0.49585086,0
6.7580047,0.30544665,6.7880483,0.70517826,0.031872477,0.70831323,0
-9.3761053,0.28074256,1.1981595,-0.99149644,0.029687727,0.12670195,0
2.6872907,7.449069,5.4087725,0.28022277,0.77676702,0.56401086,0
9.377409,-1.614809,0.44990966,0.98439533,-0.16951489,0.047229353,0
-0.89569116,-5.4784031,-7.8236799,-0.093369506,-0.57108504,-0.81556368,0
-4.7461548,8.142704,1.5597856,-0.49681604,0.85235858,0.16327459,0
0.67664951,1.6217042,-9.3830156,0.070882007,0.16988064,-0.98291212,0
2.2923942,1.7066859,-9.1233072,0.2397784,0.17851485,-0.95427394,0
-4.1515169,7.5192733,4.1532102,-0.43514052,0.7881313,0.43531799,0
-4.0250616,-7.9168544,3.3940794,-0.42334494,-0.83267301,0.35697997,0
-3.0180664,-0.37111673,9.0393419,-0.31645557,-0.038912982,0.94780892,0
5.2575159,-2.9323184,-7.3151712,0.55495691,-0.30952078,-0.77215266,0
-2.5108829,-8.7257471,2.9991243,-0.26258096,-0.91251373,0.31363985,0
-3.3892643,-7.0963621,-5.3368077,-0.35661259,-0.74666709,-0.56152976,0
-0.082924642,-6.8946466,-6.6083312,-0.0086827055,-0.72191072,-0.69193178,0
0.92777205,-5.3793454,-7.7127843,0.098186471,-0.56929821,-0.81624693,0
-7.1324182,3.3396664,5.4870081,-0.74307305,0.34793475,0.57165015,0
4.5817571,-7.4253831,-4.0640626,0.47601441,-0.77144843,-0.42222935,0
6.037755,-4.6980386,5.583776,0.63748229,-0.49603143,0.58954996,0
4.290103,1.7386703,-8.2804403,0.45223254,0.18327843,-0.87286586,0
-7.4081669,5.3993225,-2.2088487,-0.78564978,0.57260811,-0.2342525,0
-1.8606229,-8.6314135,-3.2791107,-0.19754131,-0.91639245,-0.34814137,0
-7.4975557,1.2977482,-5.6479206,-0.79120672,0.13694958,-0.5960173,0
-3.4752939,0.30140635,-8.7445631,-0.36913624,0.032014564,-0.92882365,0
0.24734639,-9.5175419,-0.25949109,0.025970057,-0.99929136,-0.027245186,0
-8.2311773,4.6582527,0.52498436,-0.8689602,0.49176881,0.055422269,0
-5.1072712,-6.443182,-4.813087,-0.53608125,-0.67630422,-0.50520241,0
0.23690206,9.5247583,-0.99133414,0.024731042,0.99432313,-0.10348887,0
-6.6437664,-6.6303611,0.68412358,-0.70594788,-0.70452344,0.072693042,0
-6.5127792,5.9465871,-3.8403389,-0.67706996,0.61820847,-0.39924246,0
0.75242561,9.4640055,0.12698801,0.079246759,0.99676538,0.013374596,0
-6.6357546,-6.2006993,2.7762525,-0.69873476,-0.65292412,0.29233512,0
-3.2871284,1.9139276,8.7611456,-0.34415758,0.20038545,0.91727924,0
4.8323088,-1.5168451,-8.0914869,0.50621825,-0.15890017,-0.8476401,0
-6.4176168,2.731915,-6.4491711,-0.6755724,0.28758436,-0.67889404,0
-6.3223834,0.31606382,7.1227822,-0.66347176,0.033167779,0.74746573,0
-2.4895961,3.6054072,8.3616552,-0.26372734,0.38192716,0.88576496,0
3.4381845,3.6086657,-8.1081505,0.36124295,0.37915507,-0.85190666,0
-7.6890435,-0.26535943,5.4492841,-0.81555712,-0.028145995,0.5779916,0
4.0830646,8.405097,1.5541749,0.43103376,0.88729441,0.16406839,0
5.5913739,3.9064543,6.5670614,0.59053147,0.41257912,0.69357842,0
-1.7114708,-7.237494,-6.0567188,-0.17843869,-0.75458431,-0.63147616,0
-4.2678599,5.4807329,6.4252915,-0.45103249,0.57921034,0.67903244,0
6.6982555,-1.12903,6.7725368,0.69830883,-0.11770402,0.70605284,0
-7.3897123,3.9746664,-4.6068201,-0.77199054,0.41522655,-0.48126656,0
2.0586202,-5.3964477,7.609087,0.21549703,-0.56490189,0.79652166,0
-8.4150429,2.3581443,-3.6342261,-0.88909352,0.24915034,-0.38397509,0
-1.5161409,-0.46119285,9.3168545,-0.16042681,-0.048800014,0.98584062,0
2.8020928,3.5159914,-8.2799339,0.29740372,0.37317428,-0.87880147,0
7.2468028,5.8742046,1.6108954,0.76550889,0.62051588,0.17016536,0
-7.8399744,-5.0299487,2.1129322,-0.82081568,-0.52661663,0.22121602,0
5.6608644,7.1856837,-2.5853617,0.59550601,0.75591242,-0.27197233,0
-7.0449457,5.7404089,2.7305844,-0.74243897,0.60495901,0.2877655,0
-7.3658743,4.7788525,3.816416,-0.76937449,0.49915692,0.39862928,0
-7.0240297,-6.1859026,-1.3008893,-0.74331605,-0.65462148,-0.13766626,0
-4.2915225,-7.3894515,-4.2746468,-0.4491494,-0.77337772,-0.4473832,0
-6.7663803,5.7779684,3.0412309,-0.71959192,0.61447614,0.32342923,0
-8.2683868,4.7423782,-0.84024239,-0.86409652,0.49560729,-0.087810427,0
-3.8939431,-7.9818015,3.6199539,-0.40602458,-0.83226889,0.3774555,0
-0.44836888,-0.14950305,-9.5598698,-0.046843931,-0.015619529,-0.99878007,0
-2.2948487,6.8793087,-5.9718781,-0.24427865,0.73227847,-0.63568562,0
-2.7919371,-6.4949603,-6.3369074,-0.29407421,-0.68411297,-0.66746527,0
-8.2352285,-2.8256829,3.6802168,-0.8712334,-0.29893881,0.3893429,0
7.3219285,-3.9142928,4.7621822,0.76498401,-0.40895939,0.4975456,0
0.22022259,1.6004958,-9.3104286,0.023305066,0.16937254,-0.98527652,0
-2.502661,5.6087146,-7.3757915,-0.26074576,0.5843575,-0.76846462,0
5.0190816,3.2455585,7.3233762,0.53095871,0.34334123,0.7747255,0
7.8264003,-4.5882378,2.7099271,0.82659221,-0.48459083,0.28621137,0
5.0955329,7.607214,-2.4661655,0.53736681,0.80224466,-0.26007789,0
-1.8078246,6.9499435,6.2864671,-0.18941829,0.72819364,0.65867662,0
-8.4655704,2.6001713,3.4307065,-0.89137685,0.27378339,0.36123404,0
-3.61608,5.6520848,6.7893209,-0.37882477,0.59211898,0.71125716,0
-9.1579981,0.081518173,2.6979561,-0.95920485,0.0085381791,0.28258279,0
4.2572098,1.8985293,-8.2465153,0.4494158,0.20041978,-0.87055004,0
-1.3196987,9.3554592,-0.99611229,-0.13890915,0.98473901,-0.10484901,0
-2.6818962,-6.7441144,-6.1122794,-0.28264078,-0.71075147,-0.64416343,0
6.7832165,-2.989516,5.8347063,0.71904767,-0.31690046,0.61850184,0
2.8064878,8.7676258,-2.5664928,0.29366061,0.91741222,-0.2685484,0
-3.9458582,3.5891855,7.835464,-0.41628504,0.37865633,0.82663548,0
5.9142056,-6.5403776,-3.7349031,0.61759329,-0.68298155,-0.39001876,0
1.1171849,9.2698917,2.1536751,0.11659039,0.96741402,0.22475941,0
-1.7074869,-9.3096619,1.0197709,-0.17936295,-0.97793341,0.10712183,0
-1.4266669,-4.0506034,8.3878164,-0.15139809,-0.42985061,0.89011627,0
0.33867422,9.4073772,-0.4205665,0.035941757,0.9983567,-0.044632565,0
1.9551475,8.7763081,-3.2865486,0.20422976,0.91675091,-0.34330454,0
-2.4513409,-5.9468622,6.9517903,-0.25882342,-0.62789601,0.73400074,0
0.16150594,7.5243769,-5.8064752,0.016990511,0.79156846,-0.61084425,0
-3.4053187,-8.7665434,-0.5969637,-0.36135945,-0.93027222,-0.063347511,0
4.0363574,7.0067406,-5.1256413,0.42160186,0.73186159,-0.53537875,0
-8.8807526,3.0485616,-1.3592297,-0.93606669,0.32133052,-0.14326823,0
-2.5085933,-2.8876538,-8.7434797,-0.26285648,-0.30257535,-0.91616297,0
-0.80515873,0.52813685,-9.4431791,-0.084823675,0.055639349,-0.99484128,0
5.993957,0.29082781,7.3614259,0.63110828,0.03062148,0.7750901,0
-5.4794135,-3.2589712,-6.989305,-0.57920736,-0.34449312,-0.73881215,0
-4.8120322,-1.5146171,8.1556425,-0.50178659,-0.15794046,0.85044986,0
-5.5964737,-2.4357548,-7.3818874,-0.58428085,-0.25429672,-0.7706809,0
-1.7232026,6.0013857,7.1530051,-0.18148877,0.63206965,0.75335896,0
-6.0476084,-6.3158393,-3.8035927,-0.63420308,-0.66233206,-0.39887673,0
5.6002951,-3.5648952,-6.7701573,0.5906288,-0.37596765,-0.71400702,0
0.27200371,-6.653317,6.693325,0.02880949,-0.70469135,0.70892882,0
-1.5055394,-6.471313,-6.8817644,-0.15738884,-0.67650998,-0.71941847,0
8.0265722,2.3334115,-4.4041371,0.84954113,0.2469708,-0.46613866,0
-1.7177513,9.2089243,-0.72219932,-0.18282586,0.9801358,-0.076866031,0
3.5045621,-5.5911264,6.8594861,0.36819777,-0.58741724,0.72067422,0
-4.696425,4.046524,-7.190208,-0.49468991,0.42623371,-0.75736833,0
5.1743417,2.3708084,-7.5840788,0.54568791,0.25002629,-0.79981965,0
-4.4895177,8.217989,-1.251718,-0.47519988,0.86984563,-0.13249002,0
-2.1245599,-8.9592743,-2.6718743,-0.22159553,-0.93446887,-0.27868143,0
-6.3575959,-2.4763203,6.5733485,-0.67104441,-0.26137567,0.69381714,0
-8.7099228,-0.98735541,3.8074725,-0.91137469,-0.10331328,0.3984001,0
4.9587731,4.3291264,6.8819509,0.5207026,0.45458567,0.72264838,0
-5.4060354,5.6183357,5.3852205,-0.57050735,0.59291172,0.56831068,0
8.246624,-1.5345349,4.5038366,0.86616677,-0.16117664,0.47305098,0
-5.1004653,2.2624316,7.6975741,-0.53648704,0.23797148,0.80966121,0
3.7487996,-1.3868496,8.5516376,0.39713249,-0.14691718,0.90592551,0
5.9159498,6.6773286,-3.3336546,0.62119019,0.70113695,-0.35004243,0
-6.1418104,-4.4609528,5.7130971,-0.64646548,-0.46954429,0.60134059,0
-4.0069346,3.8930154,7.6163445,-0.42421073,0.41215017,0.80633581,0
-3.9427481,-7.5693178,4.3675642,-0.41124892,-0.78951883,0.45555943,0
9.2462969,-1.1788574,-1.7061725,0.97575861,-0.12440443,-0.1800518,0
-5.0800734,6.1635995,-5.2843761,-0.53043705,0.6435737,-0.55176938,0
0.62224859,7.9249744,5.1157126,0.065824144,0.83833808,0.54116219,0
5.7665663,6.8745208,-2.9769616,0.60997236,0.72716892,-0.31489524,0
8.3987246,-3.25157,2.6890628,0.89357066,-0.34594628,0.28609911,0
-8.8458185,2.9802895,-1.396173,-0.93723416,0.3157683,-0.14792764,0
-3.6276672,-5.2991276,7.0628428,-0.38002303,-0.55511999,0.73988128,0
-0.99171591,9.0692291,-2.6998799,-0.10423318,0.95321107,-0.28376782,0
-4.1400895,6.4776688,5.5820165,-0.43577611,0.68182421,0.58754992,0
-7.7222209,-4.2201915,3.8858771,-0.80273283,-0.43869326,0.40394095,0
-7.3878598,-2.3979404,5.4880662,-0.77681148,-0.25213632,0.57705384,0
-0.19825247,3.5507348,-8.8102074,-0.02086674,0.37372681,-0.92730403,0
-2.049367,8.9177999,2.7487299,-0.21449925,0.93339139,0.28769886,0
5.5035944,-2.2117405,-7.4766316,0.57667565,-0.2317498,-0.78341377,0
8.7968616,1.6050224,-2.9827061,0.93321329,0.17026848,-0.31641978,0
1.3389789,9.4022512,-1.1863304,0.13990071,0.98237664,-0.12395152,0
2.033247,4.7310443,-8.0479012,0.21280853,0.49517182,-0.84232855,0
7.3634872,4.4658346,-4.1006975,0.7719866,0.46819726,-0.42991635,0
-1.7616725,6.7354779,6.5791268,-0.18391204,0.7031588,0.6868363,0
-2.9857647,9.0203686,0.38500822,-0.31397796,0.94856662,0.040486809,0
-0.56607848,-9.401207,1.2326846,-0.059596244,-0.98975074,0.12977594,0
7.1756964,4.2428374,4.5438557,0.7558018,0.44688961,0.47859526,0
3.7348888,5.9210043,-6.5034642,0.3908731,0.61966002,-0.68061709,0
6.6915259,-0.058591444,6.8146639,0.70061773,-0.0061346549,0.71351051,0
7.8165345,-5.4282279,-0.59300971,0.819776,-0.56929719,-0.062193181,0
-8.7798634,-2.5379252,-2.3730936,-0.92983526,-0.26878008,-0.25132352,0
7.3251333,-0.063921973,6.1430159,0.76620758,-0.0066862265,0.64255834,0
7.5453935,-5.9561362,-0.21531895,0.78472406,-0.61944067,-0.02239326,0
-6.2628989,3.5005374,6.3185377,-0.65508634,0.36614901,0.66090608,0
5.7460485,-5.4381323,5.3084831,0.60311103,-0.57079184,0.55718374,0
3.4073832,-2.8801477,8.46595,0.35606217,-0.30096751,0.88466853,0
7.4094853,2.1096473,-5.6934948,0.77347243,0.22022502,-0.59434104,0
-7.6280532,-4.4223671,-3.6988494,-0.79777205,-0.46250868,-0.38684034,0
-1.4522612,-5.0578556,-7.8608541,-0.15352252,-0.53467977,-0.83099246,0
-9.4468384,0.98028958,-0.97602749,-0.98944807,0.1026741,-0.1022277,0
-8.5099878,-2.0602353,-3.4827669,-0.90310204,-0.21863753,-0.3696003,0
-3.4785221,6.1465635,6.1893444,-0.37041551,0.65452582,0.6590814,0
6.6923995,1.9944136,6.4725032,0.7028715,0.20946395,0.67977685,0
3.7275097,-8.7671919,0.97505951,0.38923639,-0.91549331,0.10181829,0
3.2482834,-4.9472637,7.4285283,0.34200075,-0.52088064,0.78212458,0
5.2945652,3.6820042,-6.9560118,0.55817163,0.3881698,-0.73332715,0
0.057391454,-7.7498546,5.5791979,0.0060099554,-0.81155431,0.58424604,0
4.5716295,6.2699866,-5.5640545,0.47878674,0.65665567,-0.58272344,0
5.9097157,-3.2455139,6.7314148,0.62029076,-0.340653,0.70653731,0
-2.4687746,-7.1898313,5.7736502,-0.25862238,-0.75318795,0.60483253,0
-6.6803808,0.56247628,-6.6318007,-0.70841891,0.05964762,-0.70326722,0
9.1862507,2.4292963,-1.2023228,0.95911902,0.25363821,-0.12553224,0
3.398201,-8.1854343,3.4324806,0.3575449,-0.86123812,0.36115164,0
3.6799281,-2.8236182,-8.27987,0.38774571,-0.29751825,-0.87243116,0
-4.2641358,-7.7688255,-3.4185355,-0.44892135,-0.81788945,-0.35989791,0
-7.7915192,0.62944138,-5.3440843,-0.82283926,0.066473439,-0.5643729,0
-0.31245869,-5.9911766,-7.315443,-0.03302652,-0.63326037,-0.77323383,0
5.7305923,0.67607713,-7.3843055,0.61149246,0.072141945,-0.78795469,0
2.224791,-0.8192578,9.2015152,0.23413825,-0.086219147,0.96837258,0
7.8641324,-0.082559504,-5.1680861,0.83566225,-0.0087729776,-0.54917365,0
-8.3475971,2.5223706,3.8397236,-0.876086,0.26472452,0.40298161,0
-0.68451267,-8.0536489,5.1360831,-0.071478449,-0.84098125,0.53632206,0
1.5274307,-8.2078295,-4.4751549,0.16124871,-0.86648899,-0.4724358,0
-7.0022931,-1.7740718,6.2421341,-0.73346096,-0.18582661,0.6538375,0
-6.5239453,6.1699219,3.0449069,-0.68806177,0.65072393,0.32113758,0
3.712487,4.3620777,-7.7407727,0.38552731,0.45298478,-0.8038491,0
-1.3754334,-7.430263,-5.6131325,-0.1461179,-0.78934711,-0.59630591,0
4.2355299,-7.8214669,-3.4355109,0.44420487,-0.82028311,-0.36030218,0
-8.1046019,-4.8499651,0.17160489,-0.85794848,-0.5134145,0.018165994,0
-7.8201799,5.2723722,1.4323061,-0.81975675,0.55268073,0.15014265,0
6.6029291,6.6034112,-1.6302994,0.69654566,0.6965965,-0.17198095,0
-1.6220217,7.9639482,5.0084739,-0.1699032,0.8342061,0.52462661,0
-9.2882242,2.1255438,-0.26853654,-0.97441405,0.22298771,-0.028171778,0
-6.169136,-1.1726669,-7.0355802,-0.65417421,-0.12434941,-0.74605179,0
-3.2993376,8.9061737,0.70190042,-0.34643948,0.93517262,0.073701464,0
3.5801699,-0.15344532,-8.8325539,0.37560281,-0.016098257,-0.92664093,0
-8.4010763,-3.4229553,-2.5963333,-0.89033401,-0.36275989,-0.27515569,0
-8.0103531,-4.2615271,-3.069778,-0.8362745,-0.44490004,-0.32048237,0
-2.6175416,-8.32617,3.7803264,-0.27519929,-0.87538475,0.39745048,0
-6.3505783,-6.6588855,1.742359,-0.67810601,-0.71102661,0.1860467,0
-2.1888707,7.7249689,-5.0675201,-0.23054023,0.81362331,-0.53373063,0
1.6961769,6.595356,6.6155019,0.17865324,0.69466913,0.69679105,0
1.5397162,-5.1306958,-7.9435515,0.16070585,-0.53550959,-0.82909775,0
-2.7869887,-9.0383329,0.54507029,-0.29417366,-0.95401877,0.05753354,0
4.00596,5.2234435,-6.9444246,0.41865912,0.54589719,-0.72575533,0
-4.8037891,5.8973036,-5.7289848,-0.50447321,0.61930943,-0.60163331,0
1.4514818,-7.3929081,-5.7437782,0.1532101,-0.78035301,-0.60628033,0
3.7062151,-4.4184437,7.5864048,0.38891843,-0.46365741,0.79609317,0
-0.49955994,-0.23464619,-9.4395933,-0.052831534,-0.024815276,-0.99829501,0
-5.7010846,5.1654253,-5.5828156,-0.59977597,0.54342258,-0.58733362,0
1.221512,2.8985949,-8.8448229,0.13012135,0.30877233,-0.94219327,0
-8.3411951,-1.5446343,-4.3341761,-0.87561524,-0.16214767,-0.45497924,0
0.77730995,-3.7303078,8.806509,0.081007592,-0.38875514,0.91777301,0
-9.2288132,0.69696629,-2.029243,-0.97402287,0.073558874,-0.21416937,0
9.093565,-2.280617,-0.98361659,0.96466607,-0.24193305,-0.10434429,0
-5.1524553,-5.1405764,-5.9860196,-0.54675615,-0.54549563,-0.63521039,0
7.1808228,-4.725328,-3.9201288,0.76005489,-0.50015277,-0.41492641,0
-8.6786289,-3.6095414,0.93214446,-0.91881704,-0.38214657,0.098687276,0
-4.6152716,-5.6295757,-6.1878986,-0.48306152,-0.58922458,-0.64766192,0
-1.4170655,-3.6351225,8.6559706,-0.14924914,-0.38286087,0.91167003,0
-5.6480331,7.6893902,0.17355861,-0.59188902,0.80581427,0.018188179,0
1.2164421,3.4149516,-8.763732,0.12826371,0.36007828,-0.92406273,0
3.8449397,8.3936987,-1.7437991,0.40922472,0.89335835,-0.18559608,0
-5.4237285,5.502172,-5.6439586,-0.56686628,0.5750649,-0.58988386,0
4.1415172,-4.0194521,-7.4979591,0.43770462,-0.42480391,-0.79243696,0
1.2365084,-8.4823599,-4.1060991,0.13009433,-0.89243793,-0.43200698,0
7.9746141,-4.534205,2.224726,0.84481919,-0.48034716,0.23568428,0
-4.7325191,7.7956009,2.4143746,-0.50165355,0.82634443,0.25592703,0
-8.348629,-3.2405534,-3.2171726,-0.87734127,-0.34054351,-0.33808646,0
4.2406201,5.0015259,6.9189725,0.44485489,0.52467638,0.72582281,0
-5.0445509,3.5246742,7.3349075,-0.52687174,0.36813012,0.76608509,0
-6.7623401,1.788771,-6.3297215,-0.71682954,0.18961541,-0.67097056,0
4.9966412,7.1575494,3.45664,0.53220457,0.7623682,0.36817524,0
-6.2103162,3.546735,6.3104644,-0.65112782,0.37186155,0.66162795,0
1.4866765,-9.1141796,2.3902774,0.15585297,-0.95546818,0.25058031,0
-3.8691359,7.3035231,4.7510467,-0.40585417,0.76610523,0.49836245,0
8.8655739,-3.0481257,-0.88495409,0.94148219,-0.32369658,-0.093977958,0
-5.07235,-7.8480783,-1.6471169,-0.53457147,-0.82710356,-0.17358851,0
-5.9663796,7.4214973,-0.85020047,-0.62407935,0.77628368,-0.088930406,0
4.935535,-3.6569982,7.3438897,0.5155021,-0.38196266,0.76704764,0
4.6837564,1.7303669,7.941093,0.49931079,0.18446538,0.84655845,0
6.4073491,6.8448515,-1.6616795,0.67290395,0.71885073,-0.17451066,0
2.9004505,2.5540366,-8.6409998,0.30641159,0.26981547,-0.91285902,0
-1.9890993,6.7427087,-6.5631557,-0.20682156,0.70108992,-0.68242049,0
7.273016,6.0586343,0.38003778,0.76771772,0.63953125,0.040115647,0
-0.71378475,2.1829574,-9.2098742,-0.075199187,0.22998056,-0.97028553,0
-3.3898404,-1.1160384,-8.831562,-0.35587418,-0.1171646,-0.9271602,0
-8.8452911,-3.0639639,-1.5277381,-0.93257743,-0.32304007,-0.1610726,0
6.7759161,6.2496309,-2.4673076,0.71008068,0.65492874,-0.25856096,0
8.0296335,4.3970914,2.3031447,0.85059536,0.4657928,0.24397679,0
3.7301509,1.0334804,8.6202812,0.39474958,0.10936983,0.912256,0
4.1456552,8.5463667,0.95594025,0.43424729,0.8952111,0.10013241,0
5.2032781,0.99693191,-7.8131781,0.55119431,0.10560711,-0.82766652,0
-0.6693086,-7.2778716,-5.9958644,-0.070801228,-0.76987243,-0.63425833,0
9.1524067,2.1189167,0.21171328,0.97398454,0.22549175,0.022530191,0
4.3099656,-3.9247208,7.5107751,0.45332667,-0.41280621,0.78999114,0
6.4870386,7.0539317,-0.0059789889,0.6769107,0.73606497,-0.0006238966,0
4.253437,-7.0959191,-4.6072416,0.4491747,-0.7493487,-0.48653746,0
8.0564089,1.9328413,4.4918246,0.85485172,0.20509048,0.47661981,0
-2.1150601,6.2900062,6.6646929,-0.22488452,0.66878718,0.70862585,0
-5.3070755,-0.97296965,-7.8310547,-0.55806124,-0.10231184,-0.82346827,0
-1.5045528,6.4783611,-6.7983637,-0.15819828,0.68117619,-0.71482331,0
-0.37160483,8.478014,4.3691072,-0.038932547,0.88823038,0.45774561,0
-7.3974161,4.1319847,4.1852245,-0.7827574,0.43722585,0.44285941,0
-7.8594027,-4.150352,-3.161494,-0.83313864,-0.43995947,-0.33513525,0
-5.6660199,4.2448826,6.4913006,-0.58989114,0.44193608,0.67581135,0
-6.7997375,5.3093925,-3.9693398,-0.71603268,0.55909491,-0.41798335,0
1.4189802,3.0657265,-8.9328175,0.14858033,0.32100984,-0.93534839,0
8.9722977,0.23823248,3.1011543,0.94483966,0.025087386,0.32657117,0
2.1919451,-5.4874926,-7.4200034,0.23108514,-0.5785172,-0.78225154,0
-9.2462206,-0.062523097,2.2731595,-0.97106302,-0.0065663443,0.23873334,0
5.3391104,6.2050862,4.8033485,0.56253749,0.65377814,0.50608873,0
6.1040182,-7.1795669,-0.02899549,0.64773077,-0.76186311,-0.00307687,0
-4.7196155,3.2048342,7.69203,-0.49282306,0.33464935,0.80320311,0
-5.0492496,-7.6955628,-2.5461736,-0.52872562,-0.8058309,-0.26661927,0
-8.433939,4.3064051,0.2134809,-0.89039135,0.45463762,0.022537695,0
3.0374842,-0.68229514,8.920475,0.32149133,-0.072215021,0.94415486,0
4.124568,8.3459196,2.1033912,0.43215689,0.87445444,0.22038551,0
4.966094,3.6029422,7.3036833,0.52062511,0.37771779,0.76568842,0
-1.9671743,0.58574367,-9.2425985,-0.20777608,0.061867177,-0.97621799,0
1.7835572,-9.2442722,0.97713643,0.18843056,-0.97664571,0.10323323,0
-3.8665519,6.0369115,-6.1537294,-0.40924966,0.63896829,-0.65133274,0
-5.02317,1.736457,-7.7983193,-0.53227162,0.1840007,-0.82633561,0
7.6977673,-1.7572027,5.1941462,0.81448716,-0.18592651,0.54958344,0
8.1831551,-4.2814188,2.4628298,0.85613549,-0.44792926,0.25766543,0
-6.2823238,-6.8856263,1.537896,-0.66501188,-0.72887415,0.16279313,0
-1.6267484,8.1795435,4.4986219,-0.17167585,0.86321282,0.47475365,0
0.49014583,8.1879358,-4.7128854,0.051811814,0.86552161,-0.49818465,0
-0.68201768,-2.5679517,-9.1732197,-0.071413517,-0.26888812,-0.96052039,0
1.5269815,-1.799543,9.1951408,0.16085021,-0.18956149,0.96860403,0
-5.5576782,5.9190297,-5.1822882,-0.57699096,0.61450601,-0.53801847,0
-1.8110912,-3.0521274,8.8074198,-0.19072977,-0.32142586,0.92752767,0
-3.718812,8.5729504,1.4467691,-0.39327043,0.90660352,0.15299819,0
-7.8700056,5.0145898,-2.0452025,-0.82379782,0.52490538,-0.21408287,0
2.3729649,6.3322678,6.6439214,0.25031292,0.66796124,0.70083612,0
-0.80044991,-3.6526492,-8.7484198,-0.084133334,-0.38392103,-0.91952503,0
-5.7437663,7.3893142,-1.3788049,-0.60715562,0.78110135,-0.14574917,0
-6.5788064,-2.6898191,-6.397984,-0.68794739,-0.28127503,-0.66903871,0
-9.486166,-0.024449378,0.23493962,-0.99969018,-0.0025765733,0.024758877,0
4.5224433,-2.9717755,-7.87286,0.47338983,-0.31107265,-0.82409698,0
1.6429714,1.4534926,-9.2068481,0.17359179,0.15357199,-0.97277004,0
-6.8278365,-4.2757215,-5.0083761,-0.71977723,-0.45073825,-0.52797329,0
1.6105365,0.91978204,-9.2736425,0.17029582,0.097256437,-0.9805817,0
-6.4829578,-4.8408132,-4.8744245,-0.6863358,-0.51248574,-0.51604408,0
2.8338671,-8.2497892,3.6844878,0.29927284,-0.87122571,0.38910335,0
8.8068714,-1.1973593,-3.5496557,0.92020893,-0.12510921,-0.37089503,0
8.316884,-3.3357,3.1195817,0.87653422,-0.35155657,0.3287794,0
-5.937901,7.4953041,-0.11817955,-0.62092024,0.78377628,-0.012357915,0
-7.419055,-3.5737975,4.5659146,-0.78791595,-0.37954322,0.48490769,0
-0.42614305,-9.488883,-0.9479835,-0.044642709,-0.99405456,-0.099310666,0
0.72834969,-2.2114379,9.1243839,0.077346116,-0.23484068,0.96895164,0
0.044353344,-8.164937,4.7736125,0.0046894592,-0.86327511,0.50471193,0
-5.9602838,5.2367225,5.1646795,-0.62959206,0.55316138,0.54555142,0
9.2509308,-1.7242897,-1.7745064,0.96604323,-0.18006171,-0.18530567,0
-0.087473564,9.4045124,-0.44036677,-0.0092906523,0.99886239,-0.046771783,0
-6.8371811,-3.3503504,5.7667046,-0.71583998,-0.35077536,0.6037631,0
-6.5607805,2.6872582,6.2266202,-0.6953007,0.2847912,0.65988696,0
-0.033457931,5.1680069,-8.093853,-0.0034840696,0.53815925,-0.84283596,0
-1.4964732,7.8198524,-5.0189466,-0.15900204,0.83086854,-0.53326899,0
-0.9813078,2.6390593,-9.0645571,-0.10338506,0.27803642,-0.95499068,0
-7.7745199,-4.8505321,-2.6319523,-0.81544828,-0.50875914,-0.27605832,0
-1.7392045,2.2872436,-9.0563898,-0.18304929,0.24072979,-0.95317471,0
6.0375443,6.9616146,2.4676702,0.63288778,0.72975379,0.25867444,0
5.8608875,-6.5351257,3.4178014,0.62216496,-0.693739,0.36281812,0
-2.2566535,-0.35592812,-9.3153877,-0.235278,-0.037108958,-0.97121948,0
-4.9957733,-6.3634253,-4.8506503,-0.52961123,-0.67459852,-0.51422644,0
-7.1922059,5.7716761,2.3051348,-0.75663966,0.60719609,0.24250646,0
5.6593633,-6.8996825,3.3596961,0.59351832,-0.72359514,0.35234374,0
-4.10711,0.4109596,8.5606279,-0.432156,0.043241758,0.90076154,0
5.2988458,6.4579949,-4.2600346,0.56507927,0.68869323,-0.45429841,0
2.8274415,8.8210821,-2.5295362,0.29445413,0.91864109,-0.26342982,0
1.2699267,9.279335,2.0853448,0.1323505,0.96708322,0.21733259,0
-9.0894604,2.8296251,0.38381109,-0.95402825,0.29699698,0.040284745,0
-1.5732383,3.601578,-8.6536636,-0.16552854,0.37894064,-0.91049671,0
-3.63346,-5.0564852,7.1682153,-0.38267434,-0.5325467,0.75495315,0
2.152091,7.828814,-5.0561361,0.22500001,0.81849843,-0.52861643,0
5.2967649,-3.4812789,7.0448794,0.55893278,-0.36735651,0.74339986,0
-0.76390725,3.477262,-8.730505,-0.081021078,0.36880329,-0.92596966,0
-9.2700491,-1.1527098,1.0417027,-0.98624414,-0.12263725,0.11082716,0
-9.1701937,2.2024112,-1.5694896,-0.95915824,0.23036164,-0.16416109,0
-0.29891104,-3.1473453,-8.943922,-0.03150994,-0.33177984,-0.9428305,0
-2.9085734,-3.5943544,8.1944246,-0.30912936,-0.38201562,0.87092084,0
-2.2133994,6.9257302,-6.0101204,-0.23463775,0.73418194,-0.63712007,0
9.0063438,-2.5135221,-1.6213126,0.94903213,-0.26485923,-0.17084378,0
5.0603662,-7.7452812,-1.6925019,0.53802866,-0.82349443,-0.17995033,0
4.4357872,1.4142997,-8.2493992,0.4682785,0.14930521,-0.870875,0
-1.2824179,5.8677673,-7.2910161,-0.13575752,0.62116534,-0.77183133,0
-7.0464649,4.7421656,4.1925144,-0.74392915,0.50065321,0.44262388,0
-8.8539925,1.688059,-3.2014787,-0.92565072,0.17648004,-0.33470222,0
3.0525863,-7.3150849,5.232379,0.32140228,-0.77019441,0.5509094,0
8.5203676,2.1169326,3.679127,0.89507735,0.22238694,0.3864978,0
2.2606668,8.2985659,4.0562778,0.23772772,0.87266248,0.42655098,0
-0.33306482,-2.7315276,9.1735868,-0.034776069,-0.2852051,0.95783544,0
-2.1748273,6.0601187,6.9484129,-0.22958472,0.63973385,0.73350626,0
6.0530934,7.0272579,2.5158794,0.62987494,0.73124492,0.26179829,0
-7.5974975,3.7488933,-4.2075272,-0.80317259,0.39631581,-0.4448005,0
5.251359,4.5076919,6.4786053,0.55394703,0.47550026,0.68340486,0
-6.2466698,-3.6322031,-6.1640854,-0.65769094,-0.38242251,-0.64899594,0
6.0058637,-7.0256848,-2.1789045,0.63244754,-0.73983979,-0.22944956,0
4.9980655,-7.7858424,-2.1253719,0.52649963,-0.82016593,-0.22388813,0
8.0779924,-3.780086,-3.183146,0.85303473,-0.39917648,-0.33613971,0
-6.5689445,5.4145579,-4.3013997,-0.68872404,0.56769186,-0.45098227,0
4.3818078,4.6512585,-7.065022,0.4599731,0.48825824,-0.74163914,0
4.5346661,-7.8365784,2.742672,0.47933602,-0.82836407,0.28991362,0
-5.8555646,1.1868143,-7.3038702,-0.62053984,0.12577191,-0.77402312,0
-6.363296,4.059021,-5.8249888,-0.66742998,0.42574042,-0.61096829,0
-9.2071762,-1.9144846,1.2567278,-0.97043151,-0.20178567,0.13245845,0
3.218055,5.1095476,-7.4124327,0.33659101,0.5344308,-0.77530003,0
7.0199351,6.2071795,-0.447072,0.74829167,0.66165578,-0.047655746,0
-4.2666883,-1.5851576,-8.3426132,-0.44895959,-0.16679722,-0.87784624,0
-5.4001536,1.4968529,-7.5828557,-0.57273078,0.15875359,-0.80422437,0
-4.5867653,6.6839995,5.0513191,-0.48021695,0.6997894,0.52885395,0
-9.1616077,-1.2573665,-2.2154627,-0.96344984,-0.13222675,-0.23298173,0
2.9771345,8.9177265,-0.96691126,0.31500262,0.94356072,-0.10230628,0
-7.2589211,-5.4379635,2.732748,-0.76630229,-0.57406932,0.28848791,0
8.9545679,2.6950753,-1.2336967,0.94934374,0.28572601,-0.13079382,0
-8.0196276,-4.7567506,1.9881332,-0.84117645,-0.49893421,0.20853473,0
-0.095762551,-6.7505689,-6.4928994,-0.010223606,-0.72069043,-0.69318163,0
-1.4943866,2.9294853,8.9274216,-0.15707435,0.30791697,0.93835753,0
-8.6704779,1.00112,3.8042915,-0.91065568,0.1051471,0.39956272,0
-1.5632197,3.7274997,8.6858873,-0.16316986,0.38907877,0.90663844,0
4.964293,6.636919,4.7695832,0.51914054,0.69405532,0.49877879,0
2.745944,8.8911657,2.0957739,0.2878764,0.93212265,0.21971454,0
6.4550471,-6.1415148,3.1569328,0.68288428,-0.64971542,0.3339743,0
-3.6993401,2.990401,8.3109999,-0.38631254,0.31227988,0.86789626,0
-0.066589013,9.3732319,1.1926197,-0.0070471764,0.99197769,0.12621604,0
6.5205235,-1.6053263,-6.7634611,0.68414319,-0.16843325,-0.70963252,0
5.3752661,7.5006509,2.2731035,0.56559741,0.78923512,0.23918098,0
-7.1436605,3.9142559,4.7218285,-0.75872439,0.41573101,0.50150287,0
-5.9552374,2.1519051,7.050477,-0.6284191,0.22707714,0.74399292,0
4.0448647,-7.0522728,5.073236,0.4220891,-0.73591769,0.52940154,0
-1.0427406,7.6519151,-5.5796919,-0.10944606,0.80314505,-0.58564448,0
6.6347551,-6.0163527,-2.8921227,0.70494455,-0.63923913,-0.30728883,0
-6.9246159,-3.1516187,5.7600765,-0.72565186,-0.33026788,0.60361624,0
-6.314806,-3.0150306,-6.2549543,-0.67281038,-0.32123613,-0.66643345,0
3.286592,3.6008089,-8.1369476,0.34648067,0.37960619,-0.85781717,0
-4.5993805,4.0281763,7.2375932,-0.4854562,0.42516664,0.7639147,0
5.7982707,5.0126314,-5.7107358,0.60662884,0.52443337,-0.5974707,0
1.8387023,-2.604008,9.0052166,0.19247824,-0.27259162,0.94268018,0
-4.114799,0.2790626,8.5069361,-0.43524596,0.029518057,0.8998276,0
5.3260293,2.0579627,7.4791484,0.56602436,0.2187102,0.79484731,0
8.7445507,-3.5235355,-1.3590198,0.91804397,-0.3699173,-0.14267628,0
6.1717186,4.1145968,5.8592615,0.65291476,0.43528897,0.61985946,0
8.8088398,-3.2052093,1.2470392,0.9315182,-0.33894485,0.13187204,0
9.3135719,1.6112957,-0.57828969,0.98352331,0.17015457,-0.061068017,0
-6.1249986,-5.0730777,5.302773,-0.640769,-0.5307219,0.55475157,0
-4.998745,6.1279049,-5.3119869,-0.52471519,0.64324236,-0.55759597,0
1.3423437,-7.996635,-4.9660873,0.14117418,-0.8410055,-0.52228302,0
-4.7110825,-1.9142641,7.9898229,-0.49743259,-0.20212284,0.84362739,0
5.9626865,5.7697244,-4.7037501,0.62516725,0.60493582,-0.49317208,0
9.5453911,0.29044986,-0.97128242,0.99440736,0.030258108,-0.101185,0
3.2299542,-7.6927958,4.3829803,0.3427169,-0.81625032,0.46505967,0
8.5522156,0.61107272,-3.9468226,0.90606886,0.064740412,-0.41814816,0
-8.7207088,2.9155006,2.2748735,-0.92064613,0.30778971,0.24015863,0
1.5230488,4.7671685,-8.1054125,0.15988457,0.50044143,-0.85087919,0
6.6383853,-3.9803045,5.3911333,0.70376515,-0.42197001,0.57153833,0
3.6767433,-1.1889716,8.6972151,0.38633353,-0.1249311,0.91385925,0
2.2259014,-2.548754,8.8197289,0.23562971,-0.26980627,0.93363982,0
-2.6683261,7.2059579,5.6589575,-0.27960968,0.75510091,0.5929932,0
8.2993259,0.061341193,-4.5540009,0.8766712,0.0064795692,-0.48104647,0
-4.3532829,-4.6954379,7.108161,-0.45503941,-0.49080417,0.74300098,0
0.30202079,-7.411489,-6.0093794,0.031637091,-0.77636361,-0.62949073,0
1.1284549,4.668952,8.2064104,0.11867453,0.49101269,0.86303127,0
-1.6589854,7.9026756,4.8754139,-0.17587762,0.83780348,0.51686782,0
1.0286018,-9.3797007,-0.93185306,0.10848133,-0.98922867,-0.09827774,0
-5.2956505,3.6822355,-6.9557872,-0.55825478,0.38817242,-0.73326236,0
2.2651114,9.0852699,1.7960643,0.23758046,0.95292556,0.18838356,0
4.4595428,-7.4930787,3.5453475,0.47376779,-0.79604107,0.37664655,0
2.4677629,1.4387535,-9.0974741,0.25880009,0.15088545,-0.95407343,0
-9.1665688,-1.5629405,1.9742013,-0.9642812,-0.1644142,0.20767696,0
-4.4995837,7.2084899,4.3703618,-0.47088668,0.75437689,0.45736346,0
-8.9701557,-1.1599791,3.0513475,-0.93970859,-0.12151878,0.31965747,0
7.5637789,4.4251375,3.6276944,0.79750162,0.46657294,0.38249296,0
1.6734749,-6.8660402,6.333662,0.17634264,-0.72350985,0.66741043,0
-5.5462275,5.8137255,-5.1553311,-0.58096391,0.60898417,-0.54001778,0
-6.5840087,3.1608551,-5.9966493,-0.69673038,0.33448675,-0.63457501,0
0.37422386,-2.6987772,-9.0986767,0.039400857,-0.2841458,-0.95797116,0
8.368247,-3.9341016,2.2358506,0.87963241,-0.41353503,0.23502253,0
-6.1091843,7.2002625,-0.74672025,-0.64495605,0.76014286,-0.07883241,0
3.4409606,-6.4600439,5.9471836,0.36486131,-0.68498898,0.63060796,0
-8.2168503,-4.9142151,0.22475442,-0.85798812,-0.51313311,0.023468435,0
-7.4896894,-5.4297934,2.2172079,-0.78732425,-0.57078576,0.23307531,0
-0.098675542,9.0747776,2.6818626,-0.0104272,0.95894605,0.28339666,0
-5.0692182,-5.799829,5.5426555,-0.53417629,-0.61116546,0.58406544,0
7.3490353,-1.5073813,-5.924757,0.76877099,-0.15768479,-0.61977947,0
-2.7515619,-6.0564332,6.8121729,-0.28898692,-0.63608599,0.71545869,0
-8.8192644,3.0556126,-2.2525427,-0.91852313,0.31824091,-0.2346015,0
-5.1531024,7.6474633,-2.3666401,-0.54126614,0.80326623,-0.24858466,0
-0.47531921,9.2012548,-2.0594215,-0.050346915,0.97461826,-0.21813871,0
8.0076036,3.9773164,3.0319607,0.84816819,0.42127874,0.32114634,0
-3.7686026,8.0401173,3.2232366,-0.3989445,0.85112733,0.34121203,0
-8.6616793,3.7227623,-1.4292321,-0.90835834,0.39040956,-0.14988489,0
9.3979244,-0.3527132,0.78999698,0.99578935,-0.037372939,0.083706841,0
-5.2392287,-6.5643845,4.4523039,-0.5511508,-0.69055313,0.46836871,0
-6.869019,6.1603494,2.2241335,-0.72373623,0.64906907,0.23434,0
-6.090169,-4.7502642,5.5391331,-0.64076108,-0.49978653,0.58278531,0
